40.61 26.53 57.74
42.2 27.24 58.67
37.28 25.31 69.67
36.24 23.41 70.25
57.27 28.53 99.58
57.11 30.68 99.27
70.23 32.73 103.014
71.36 34.6 102.34
38.68 12.17 84.42
36.46 12.72 85.64
36.1 25.31 79.0
35.33 26.41 80.81
46.39 32.48 43.86
46.4 31.52 45.76
54.42 24.66 53.76
56.05 25.92 52.51
64.16 6.19 2.28
63.34 8.51 2.18
69.19 19.23 2.09
70.9 16.93 2.19
92.67 7.04 65.82
90.47 5.91 66.97
81.0 2.32 68.87
81.01 4.72 70.44
0.08 11.7 15.61
1.94 10.77 16.56
10.17 7.57 27.39
10.1 6.0 25.9
32.2 35.79 93.13
32.34 36.21 90.82
38.2 48.469 88.57
40.36 48.269 87.58
89.87 11.92 52.81
89.49 12.3 50.55
90.93 2.86 56.5
91.03 0.91 57.46
-3.679 33.8 20.46
-1.699 34.35 20.61
7.15 32.09 10.68
7.57 33.81 9.41
34.91 39.27 12.02
32.54 39.23 11.82
24.32 46.32 14.13
24.7 46.85 16.29
64.5 3.88 11.63
65.74 2.08 10.59
56.89 7.23 5.8
58.65 8.4 7.68
11.2 23.4 81.94
12.73 22.73 83.49
21.81 26.78 74.48
23.28 26.35 72.27
21.04 17.41 42.15
21.85 20.02 41.99
23.9 27.16 54.26
23.56 26.81 56.53
39.16 21.07 60.52
38.92 20.92 58.29
50.69 27.83 60.97
50.33 29.48 59.47
0.04 9.55 65.72
0.96 12.07 64.55
7.94 18.07 66.67
9.09 17.49 68.17
65.99 15.89 28.95
63.47 15.71 29.58
59.87 5.81 37.21
61.41 5.2 39.03
24.99 8.37 70.74
23.67 7.39 72.6
29.01 3.22 65.97
31.21 1.66 65.77
8.59 7.86 53.16
10.34 7.74 54.32
11.22 18.33 54.52
10.91 20.41 54.68
62.43 44.31 95.0
61.97 45.59 93.33
65.94 47.07 93.04
63.93 48.759 93.27
44.97 41.47 36.04
47.08 41.17 37.17
55.01 50.959 44.62
52.8 51.139 44.93
84.51 21.25 102.78
83.0 20.66 104.194
85.17 32.58 97.38
83.17 31.86 95.76
65.32 29.53 82.61
65.8 27.52 83.8
53.4 22.37 81.92
52.64 20.21 82.77
36.01 4.08 66.02
37.37 2.49 64.82
38.31 2.69 53.45
37.41 0.72 53.69
100.719 35.01 7.07
99.729 35.29 5.34
86.47 37.48 5.92
86.27 36.14 7.58
21.51 20.48 96.04
20.64 21.56 93.85
13.65 30.52 87.23
12.19 32.0 87.11
51.0 5.63 59.64
51.11 7.9 59.18
50.94 13.01 44.18
49.08 11.15 43.66
37.39 0.52 6.94
35.16 0.82 6.34
29.69 8.54 0.45
27.48 7.94 0.2
65.18 35.99 83.84
66.91 35.65 82.63
55.41 33.34 82.83
54.14 31.23 83.32
23.9 -0.409 20.69
22.0 -0.869 19.05
14.77 6.21 26.7
12.69 6.72 27.01
84.24 18.89 95.01
85.62 17.42 93.73
92.42 16.77 88.48
94.919 17.33 87.74
33.17 40.36 26.63
31.24 38.94 26.96
22.49 38.02 38.05
21.61 40.59 37.74
74.38 31.23 93.87
75.57 29.25 93.66
78.98 26.28 93.85
77.88 27.83 94.4
53.38 25.81 64.88
51.57 24.75 65.02
39.93 22.74 65.84
37.69 22.67 63.91
88.36 31.13 97.3
90.68 31.16 96.56
95.189 42.68 91.61
97.029 43.55 92.62
-1.339 49.639 36.19
-0.709 47.589 36.25
4.81 41.54 29.37
2.93 42.51 28.38
45.83 27.69 29.19
44.8 29.51 27.91
55.29 38.83 26.05
54.45 39.61 24.46
1.28 11.35 67.61
-0.649 9.87 68.4
7.81 2.16 75.32
6.28 0.84 75.55
48.1 23.89 27.66
48.64 25.92 28.78
53.41 37.11 28.66
55.65 38.58 28.78
49.86 20.79 81.6
49.18 22.82 80.74
49.37 19.13 73.19
50.12 17.2 74.56
24.9 27.9 40.06
26.31 26.64 41.38
21.31 27.01 54.22
20.67 27.36 56.41
44.82 15.57 43.34
45.74 15.31 40.72
46.1 26.05 43.29
45.91 27.8 44.8
83.34 27.1 46.57
81.25 26.19 46.56
77.89 17.49 50.46
75.79 16.4 49.8
63.38 47.25 95.28
63.09 45.65 97.17
71.09 37.52 101.32
71.55 37.25 103.364
93.999 28.76 31.71
92.86 28.19 33.66
95.139 41.12 38.23
95.649 43.35 36.92
76.75 22.6 43.65
76.04 22.6 41.7
72.26 23.75 36.64
73.4 26.0 36.63
57.79 34.07 89.15
59.51 32.9 90.67
71.87 31.69 90.91
72.13 31.63 93.03
5.64 15.89 15.93
7.06 17.73 15.67
14.06 9.0 26.37
15.92 8.93 25.33
60.34 39.76 95.56
59.55 40.93 94.27
66.64 32.55 88.02
65.91 30.86 86.55
63.49 9.51 32.91
63.95 9.51 34.98
71.14 14.57 46.33
70.79 15.34 48.11
53.66 28.26 66.09
52.96 28.64 64.06
63.59 29.5 63.39
62.5 29.64 65.4
74.86 12.88 12.09
76.46 12.05 13.36
81.59 17.89 2.84
82.84 18.07 0.63
25.97 43.82 14.6
25.34 44.32 16.78
35.59 49.089 10.13
34.91 47.07 8.57
32.61 40.39 42.21
34.45 41.92 42.82
32.8 46.57 30.92
32.5 48.249 31.94
52.42 38.76 11.37
51.39 38.36 9.12
47.24 24.39 8.55
48.76 24.16 10.3
43.13 21.16 90.34
42.86 20.66 88.13
30.85 18.89 91.19
30.87 17.34 92.37
51.6 22.84 69.16
48.67 22.68 68.7
42.38 30.45 79.42
43.95 29.74 80.75
33.17 6.84 36.21
32.61 6.26 33.74
38.75 -2.819 27.26
40.42 -3.419 28.65
46.14 27.66 96.82
45.11 25.28 97.61
50.47 14.11 96.99
48.03 13.54 96.23
13.01 9.19 57.42
15.28 8.35 57.41
23.46 2.77 58.79
23.72 1.82 57.08
74.16 23.21 34.69
76.49 23.93 35.19
78.85 13.18 27.17
79.87 12.16 28.96
92.57 46.96 27.63
91.64 45.75 29.39
97.109 37.78 33.77
97.639 39.91 32.88
85.72 45.62 5.96
85.75 43.97 4.37
93.709 43.81 -6.694
95.439 43.89 -5.914
37.48 12.82 42.89
35.75 11.47 42.88
28.32 21.39 45.83
30.03 20.14 47.45
29.01 36.91 54.26
28.54 38.3 56.32
32.03 49.479 48.87
31.2 51.039 50.57
46.64 2.79 65.29
46.17 5.07 64.79
39.61 13.02 72.23
39.81 15.4 71.44
45.67 26.99 14.09
46.94 25.08 13.5
45.24 18.83 14.79
46.3 17.23 15.88
40.66 8.82 77.09
41.97 9.06 75.16
46.33 3.48 77.84
47.31 3.99 80.22
28.44 3.68 86.33
29.32 4.62 83.91
27.06 -4.159 75.54
27.12 -5.219 77.44
89.6 33.49 69.83
88.12 35.34 71.26
92.48 44.06 68.38
91.63 43.1 66.52
50.13 12.7 61.52
47.57 12.49 60.58
54.52 17.93 72.56
55.22 15.96 73.12
0.29 3.76 65.75
1.48 6.02 64.91
6.07 13.97 72.56
7.84 14.29 74.1
38.38 2.87 91.07
38.77 3.57 88.97
48.78 10.91 96.81
50.55 11.41 96.34
70.29 0.71 21.62
69.76 2.91 22.59
68.55 12.15 16.58
70.31 10.8 17.12
4.65 13.94 45.27
3.95 14.71 43.52
12.36 19.5 50.07
11.34 20.09 51.97
21.44 -1.309 96.95
23.26 0.1 98.08
21.19 3.67 86.48
19.54 4.96 86.21
58.56 35.63 33.67
58.26 36.67 31.53
58.54 49.709 25.71
58.76 49.879 28.29
91.22 28.2 105.284
89.91 29.97 105.774
88.93 41.0 96.33
89.1 43.34 96.33
44.71 45.27 81.61
43.98 43.95 79.99
55.68 48.899 79.91
55.33 49.939 81.64
51.48 20.73 29.16
50.65 22.77 28.66
56.33 25.09 18.33
58.2 24.59 16.93
69.34 -1.949 80.92
70.72 -3.139 82.34
80.82 3.15 86.17
82.0 4.48 84.62
87.0 21.62 61.42
89.46 21.89 60.89
97.189 29.18 68.69
97.269 28.36 70.64
85.97 11.29 72.78
85.27 13.69 72.79
72.21 7.39 70.2
71.0 9.06 69.9
15.5 41.1 49.71
15.22 38.78 49.8
28.42 39.46 44.07
28.69 39.91 46.24
16.94 36.24 28.16
15.21 37.07 27.63
18.79 30.7 16.85
19.46 32.23 17.91
56.49 4.47 29.0
54.88 4.99 27.74
45.26 9.66 32.42
43.5 9.94 32.24
41.07 31.76 5.78
38.83 32.62 5.88
45.55 38.34 12.07
47.47 38.45 10.5
82.67 16.41 101.27
84.26 14.99 101.45
80.34 24.21 98.46
79.06 26.05 98.24
42.32 39.14 48.61
42.26 40.34 50.82
30.46 44.83 45.42
31.67 43.37 44.81
69.18 7.59 83.78
71.54 8.65 84.28
73.0 19.76 84.35
75.25 19.9 83.99
5.13 -3.009 61.15
4.99 -0.439 60.81
10.57 -0.219 71.68
8.52 1.26 71.17
79.77 33.99 89.1
77.47 33.13 88.81
69.35 40.99 81.77
67.54 41.17 82.81
82.34 -5.129 38.54
82.6 -2.999 40.18
81.67 5.84 30.45
81.35 4.07 29.48
3.47 27.81 27.98
5.24 27.4 26.91
8.44 26.71 40.43
6.5 27.36 41.16
92.08 0.15 80.79
91.96 1.39 82.89
83.81 7.73 87.27
81.94 7.98 88.07
57.79 6.15 30.76
55.79 6.14 31.64
48.69 13.22 41.68
46.49 12.89 41.37
15.7 42.0 47.13
13.42 42.73 47.37
5.3 39.49 35.02
4.09 40.5 37.0
29.61 3.86 95.01
29.74 2.62 93.35
17.86 -0.329 95.56
15.25 0.14 94.43
58.21 17.09 91.28
58.49 18.55 92.88
66.68 14.28 97.6
67.92 12.99 99.05
77.42 28.93 71.5
76.6 28.09 73.22
73.71 23.85 77.33
72.67 22.52 78.6
35.71 40.51 28.12
34.28 41.39 29.38
40.28 53.529 31.14
40.74 54.439 33.28
21.31 39.36 68.68
21.99 38.63 66.65
19.7 45.32 55.14
20.71 46.73 53.66
86.57 36.18 52.14
86.18 36.03 50.28
73.24 36.94 50.76
73.54 38.94 51.0
32.46 8.39 49.97
32.88 6.59 48.79
27.89 5.99 37.13
28.21 8.31 36.82
23.62 44.16 11.92
23.61 43.5 9.57
27.85 37.7 -0.744
28.84 36.33 -2.704
61.86 30.82 23.83
62.87 29.41 25.65
73.36 27.04 28.05
74.96 28.47 29.24
87.47 6.73 41.91
87.53 4.6 43.33
81.16 -0.079 52.65
81.54 -2.489 51.96
22.58 39.31 81.92
21.88 36.87 82.85
19.75 38.84 82.95
18.64 39.89 84.34
54.59 13.84 86.57
55.29 15.04 88.09
58.34 4.6 92.32
59.75 4.23 90.48
23.08 24.83 41.69
21.59 23.99 40.35
19.1 22.73 54.33
20.28 24.42 54.12
53.08 14.63 24.15
53.57 14.61 26.48
38.95 12.6 28.64
38.16 14.46 29.88
26.83 -1.149 20.87
26.43 1.09 21.66
40.34 1.87 23.09
39.7 -0.399 22.98
8.43 16.99 30.87
7.7 16.01 29.01
0.83 16.85 19.85
1.52 16.19 17.78
57.79 19.47 51.88
57.18 18.41 49.95
52.52 6.49 45.69
51.3 6.0 47.26
47.71 31.42 60.54
49.45 32.22 58.87
47.44 33.46 65.61
49.04 31.64 65.82
27.22 26.83 79.81
29.41 26.79 79.74
24.46 39.34 75.82
23.23 39.77 74.19
58.44 14.45 59.91
60.02 13.84 61.33
59.43 26.14 68.33
58.52 27.09 69.97
86.9 26.33 80.15
88.69 24.64 81.25
95.519 22.62 87.57
95.179 21.04 88.86
26.42 11.14 57.67
25.85 10.63 55.81
36.42 12.52 47.31
38.4 12.92 48.47
2.39 1.61 30.88
4.13 3.33 31.08
14.96 8.19 37.5
13.5 9.27 36.11
25.49 41.71 73.66
25.19 43.97 73.3
30.0 37.12 64.2
27.54 38.24 64.9
19.08 5.83 19.08
16.98 5.53 18.53
9.1 -1.279 8.63
6.26 -1.839 8.7
32.15 33.7 46.13
31.96 33.73 48.45
41.35 27.87 53.71
41.8 28.02 55.77
6.13 9.96 51.31
8.5 10.58 51.27
4.72 24.26 57.85
7.13 24.83 58.81
95.369 46.56 15.53
95.519 47.2 13.17
87.07 44.08 14.25
85.65 43.16 15.49
24.72 5.01 61.39
25.31 2.75 61.1
15.48 -2.119 70.93
17.31 -2.209 71.83
83.79 12.97 37.36
84.2 11.41 35.55
91.73 1.64 33.29
93.44 1.77 32.05
13.27 32.6 100.72
11.62 31.41 99.96
9.16 43.22 94.26
7.71 45.69 94.43
33.6 22.38 45.08
34.64 24.49 43.7
32.58 20.3 46.47
33.22 19.65 44.38
62.2 14.1 56.77
60.76 12.83 57.27
69.58 1.89 59.04
71.07 3.37 59.82
9.72 8.84 63.48
9.9 6.52 63.53
11.02 3.9 71.27
8.76 3.88 71.47
45.13 35.47 54.48
43.39 33.34 54.6
36.72 22.64 59.52
36.14 22.43 61.87
42.11 47.51 5.91
42.59 45.26 5.44
38.42 41.12 -4.824
38.68 41.3 -7.094
84.2 5.16 87.94
84.56 5.16 85.67
81.86 7.03 85.25
80.34 8.64 85.04
22.05 30.26 27.48
23.67 31.12 26.19
31.37 19.91 27.1
32.4 19.86 28.63
23.82 46.47 53.75
22.81 45.05 53.37
24.5 31.38 53.31
26.55 31.52 53.37
99.399 13.08 7.62
99.319 14.56 9.4
88.64 15.18 18.06
89.41 16.49 19.18
57.15 12.68 58.16
54.87 12.46 56.92
51.52 3.78 48.99
52.02 2.79 47.27
9.47 11.26 78.71
8.54 9.57 79.41
16.58 6.23 82.06
16.16 7.73 80.29
26.04 43.29 47.58
26.54 43.93 45.68
30.27 47.919 34.16
31.17 49.709 33.8
33.11 8.98 33.03
31.15 8.61 33.9
22.86 15.68 40.36
22.53 17.33 39.57
59.39 47.799 105.134
57.35 48.979 104.834
56.55 44.15 96.31
56.02 41.46 96.5
77.97 11.69 30.92
78.73 12.4 32.74
81.15 18.82 42.16
81.75 19.26 39.93
23.43 42.63 15.74
22.51 44.37 14.31
17.11 51.719 21.05
19.64 51.059 20.54
14.86 36.29 90.87
15.63 35.63 93.41
29.47 35.31 97.53
29.49 37.22 97.13
20.1 9.05 78.93
19.48 10.42 76.91
18.16 19.2 73.32
20.19 20.37 74.05
8.35 11.39 75.55
7.28 9.13 74.97
19.02 6.52 71.81
20.72 7.38 71.74
62.48 41.47 95.03
63.85 41.88 96.45
69.94 30.38 94.6
69.04 30.21 92.5
7.67 -1.519 74.52
6.87 -3.099 73.64
8.02 5.39 68.77
9.99 5.25 68.83
87.09 37.16 62.37
87.64 35.74 60.26
78.6 44.82 52.36
77.01 44.02 50.94
93.829 30.78 4.04
94.239 31.32 6.48
86.52 39.8 11.2
87.3 41.85 12.41
3.47 24.85 27.84
2.01 23.33 27.78
8.46 20.53 15.6
8.56 21.12 12.95
16.18 14.11 21.14
18.24 14.2 22.01
14.53 13.35 34.68
15.18 11.76 36.2
70.28 22.84 98.11
70.49 24.66 96.28
66.74 22.25 86.16
65.94 20.35 86.79
96.669 35.56 44.43
97.099 36.91 42.12
84.52 42.12 42.49
85.19 43.53 44.39
38.79 13.1 64.31
38.06 11.37 62.32
36.64 14.79 57.68
37.12 17.22 57.04
32.4 19.05 93.88
31.37 17.75 96.2
26.74 12.62 104.284
28.19 13.75 106.004
50.41 33.44 81.93
52.58 33.93 82.4
49.18 40.99 93.52
47.18 41.17 94.41
51.46 44.26 52.37
52.74 42.74 52.21
46.04 35.39 43.5
44.91 34.19 45.12
45.79 26.33 40.72
44.79 27.8 41.29
56.53 33.71 39.31
57.37 32.66 40.63
71.12 35.68 49.47
71.2 35.46 51.77
57.75 40.07 55.15
57.0 41.83 54.69
12.67 3.83 3.96
12.85 3.28 1.63
7.3 9.83 0.33
7.51 9.21 2.63
51.61 10.24 15.69
53.66 9.06 14.72
51.49 4.91 21.93
52.2 5.98 20.41
73.23 20.07 86.9
75.56 19.76 86.6
77.4 24.07 98.26
75.53 24.06 98.25
60.37 45.04 62.87
60.15 43.15 62.21
69.88 34.3 57.04
69.95 32.64 55.23
6.2 43.23 91.48
5.03 41.09 90.38
0.76 33.05 98.61
-0.359 30.92 98.97
93.14 24.01 -2.174
91.61 25.17 -0.644
92.12 25.95 6.49
92.2 27.81 4.8
65.78 18.13 88.21
67.29 16.99 87.56
69.4 9.17 75.35
68.86 6.96 76.71
55.02 36.77 40.91
55.34 39.03 41.42
47.9 46.51 48.39
48.12 47.999 49.9
42.93 37.27 50.61
43.51 35.15 50.05
55.62 30.83 50.03
56.16 28.84 49.59
29.12 31.79 97.69
31.21 33.17 97.21
38.03 38.86 96.6
39.98 39.08 95.59
57.46 42.39 61.69
57.7 44.81 63.15
48.99 50.019 66.59
48.59 48.069 65.28
73.72 3.95 60.81
74.59 5.89 61.31
69.77 17.16 55.41
69.49 18.88 55.61
96.449 19.95 62.79
95.329 20.34 60.35
88.3 14.61 51.66
86.14 13.73 51.26
82.77 13.35 103.444
84.29 12.19 101.64
97.259 15.21 101.78
98.009 14.94 99.33
19.43 30.04 25.17
20.99 31.66 24.77
20.49 32.62 15.22
20.78 32.42 13.2
13.81 43.38 15.04
15.55 44.16 14.93
7.67 49.799 8.35
6.98 50.199 10.22
48.69 40.87 79.57
49.6 39.68 81.35
56.34 41.12 93.85
57.94 43.3 93.73
56.44 39.28 99.3
58.34 38.74 99.55
57.42 26.37 102.69
58.26 24.52 103.264
60.92 2.24 89.22
60.98 0.86 87.81
60.06 1.45 78.59
59.73 2.08 76.39
85.23 17.47 20.86
83.92 15.95 21.87
85.13 5.18 26.83
83.48 5.21 27.91
30.07 44.57 85.57
27.99 43.48 85.09
28.46 44.6 98.67
30.27 43.3 98.12
20.3 46.49 37.79
22.52 47.999 38.21
12.44 47.23 46.84
12.36 45.51 47.79
42.43 -4.929 32.19
43.37 -3.969 30.45
44.65 5.43 20.74
45.56 2.84 20.31
43.9 5.43 8.16
43.0 5.94 10.44
34.98 -0.299 3.66
37.1 -1.079 4.83
10.63 30.18 96.77
8.36 30.06 95.15
7.16 38.25 88.18
5.61 40.23 87.77
27.48 6.83 11.51
26.16 8.35 10.6
29.89 17.67 19.57
29.79 16.53 21.84
96.199 8.64 38.26
94.389 7.55 38.32
87.97 1.73 42.34
86.44 2.65 40.76
60.96 21.2 101.97
58.57 21.11 101.95
65.82 11.7 102.09
66.24 10.89 104.304
48.58 37.34 13.13
47.36 38.26 15.14
43.19 32.97 21.47
42.89 35.22 19.83
46.29 16.58 34.23
44.93 14.69 33.64
31.82 20.27 34.2
32.26 21.04 36.31
72.82 41.93 82.01
74.6 41.15 80.92
69.42 49.819 80.29
67.34 50.099 78.95
14.28 14.65 13.93
14.64 15.38 11.99
20.99 12.55 11.53
23.55 12.25 9.97
22.89 11.81 23.29
24.36 12.64 25.3
17.9 10.02 37.23
17.72 7.78 36.49
59.36 50.169 36.38
61.05 49.689 37.82
62.92 36.91 40.54
65.14 36.67 40.21
9.16 52.369 46.25
9.54 52.389 48.7
10.02 43.05 54.56
11.01 41.13 55.74
6.63 28.06 9.69
7.59 27.19 11.91
-1.149 19.86 18.59
0.69 19.27 18.65
28.4 32.71 48.74
28.08 31.04 47.55
21.45 38.91 40.53
19.49 39.54 39.84
87.21 34.66 92.22
85.04 35.37 91.72
81.3 41.43 102.85
80.17 40.55 105.264
32.84 -1.849 83.47
33.11 -3.279 81.09
37.39 2.33 68.62
35.37 2.81 68.54
81.63 46.2 84.0
82.82 47.48 85.29
77.3 45.77 97.14
77.13 48.169 98.1
84.29 16.74 54.65
83.8 17.57 56.49
76.99 7.31 61.84
76.61 5.86 63.11
80.06 42.28 63.51
82.3 42.8 64.6
71.29 47.32 62.75
70.98 48.219 61.12
85.9 40.24 6.62
84.57 38.49 7.33
77.25 41.35 18.11
75.98 43.0 19.0
5.03 33.11 58.32
5.05 34.44 60.06
-0.809 32.74 72.4
-2.099 30.51 71.89
71.36 31.7 46.45
70.6 33.08 47.9
72.31 26.72 48.54
73.71 25.51 49.23
49.93 26.69 85.28
51.06 27.08 83.09
59.61 31.58 87.47
57.32 32.18 87.17
46.62 12.37 44.03
45.57 13.0 45.62
44.89 10.07 59.25
44.9 11.59 60.78
22.67 34.57 32.24
24.57 34.66 33.38
30.23 32.28 45.03
32.06 31.67 43.75
55.14 39.3 4.27
54.16 39.76 5.98
51.11 27.5 1.84
52.61 25.6 1.09
5.15 -1.809 41.43
6.3 0.41 42.63
8.48 10.26 48.35
10.99 10.13 47.75
10.63 27.65 26.68
10.49 26.78 28.87
5.92 29.92 41.62
4.94 31.57 42.34
90.53 40.81 9.95
91.31 42.49 8.79
91.18 47.32 -1.584
89.6 47.539 -0.024
64.03 6.26 13.2
63.5 5.49 15.03
64.65 -2.429 25.73
64.45 -4.529 26.62
10.95 19.76 67.7
11.61 17.98 68.66
20.79 8.26 68.45
19.16 6.78 68.93
13.24 24.3 54.91
13.55 26.53 55.4
4.18 28.78 46.11
4.53 29.35 44.04
22.58 41.41 76.78
21.45 39.14 76.66
8.56 41.5 77.48
7.91 42.97 76.06
28.54 23.8 72.2
28.06 22.41 74.26
32.23 12.17 75.17
34.57 12.76 74.94
31.53 10.6 77.25
33.59 11.36 77.91
32.15 8.22 83.29
32.34 10.06 84.8
48.48 24.0 30.72
50.27 23.76 31.21
50.86 38.8 29.27
51.53 39.48 31.1
89.68 38.1 61.42
88.3 39.48 61.83
77.39 46.1 57.55
75.83 46.26 59.29
65.51 1.93 45.96
65.82 1.18 48.39
63.02 15.53 53.47
61.16 16.01 52.66
6.17 8.55 8.97
7.99 7.37 8.44
19.05 1.22 8.74
18.26 -0.529 6.98
21.69 12.67 82.39
24.16 13.14 82.18
27.23 9.31 74.89
28.35 11.4 74.16
66.92 23.66 3.8
65.14 22.4 4.03
58.6 9.08 4.9
58.55 7.6 3.47
12.8 41.58 33.03
14.42 41.73 34.88
10.06 46.64 45.23
8.24 47.26 44.74
37.03 7.61 20.89
36.18 5.97 22.04
31.11 0.62 29.47
28.96 0.17 28.97
83.73 31.91 7.4
83.16 34.08 6.21
76.74 38.74 17.17
77.72 39.0 19.07
17.31 43.09 5.63
16.87 43.27 3.62
20.83 31.37 4.6
22.87 31.07 5.57
89.46 27.16 42.36
88.95 26.23 40.77
95.749 16.0 47.96
95.729 14.61 46.26
-5.369 14.31 79.7
-3.819 13.9 77.7
7.43 12.71 78.13
8.16 14.35 76.7
88.7 25.47 35.95
88.47 26.67 38.08
79.25 37.77 34.62
77.34 37.18 35.41
61.23 27.28 66.31
61.81 27.09 64.27
63.1 16.68 56.14
63.43 18.23 53.91
71.14 5.89 75.84
71.5 7.49 75.15
84.53 8.61 74.03
86.19 7.21 74.68
16.64 20.41 32.3
16.87 20.9 34.19
19.15 21.59 36.83
19.19 21.43 34.86
58.45 15.34 22.28
60.13 17.15 23.17
58.58 27.69 21.23
57.86 26.45 20.15
51.58 4.56 62.75
53.91 5.62 61.91
59.4 0.81 73.98
57.48 0.81 75.21
92.77 44.39 63.56
90.58 43.87 62.93
83.83 46.39 53.42
83.83 48.039 52.15
47.17 9.15 18.98
45.66 7.91 19.86
40.69 9.65 22.68
38.64 9.72 21.86
-1.459 29.02 47.49
-2.769 28.65 49.38
8.11 33.75 57.36
9.89 35.79 57.42
85.42 16.72 14.23
87.19 16.17 12.31
96.339 18.7 5.6
94.149 16.79 5.3
31.5 14.92 -5.034
31.36 15.97 -3.144
28.61 10.04 9.53
26.73 10.94 9.02
58.0 41.02 13.2
60.11 39.34 12.45
57.64 38.06 24.95
58.82 39.62 26.46
5.63 31.72 69.78
5.83 33.07 71.3
-0.759 41.63 64.55
-2.799 41.37 64.25
81.12 13.09 68.12
80.95 15.03 70.12
80.41 25.88 66.04
81.54 24.91 63.88
6.52 24.31 94.4
5.31 25.39 95.92
10.33 30.72 85.76
9.81 32.66 83.89
87.78 48.299 78.06
87.93 47.35 80.22
94.309 35.32 80.55
95.059 34.02 82.17
15.77 46.16 89.87
15.21 44.24 88.1
10.32 47.829 75.08
11.35 49.249 73.85
47.88 7.3 76.9
45.84 6.04 76.95
43.87 9.55 62.27
44.42 7.33 61.4
68.94 30.57 87.22
70.32 28.92 86.83
76.17 24.05 78.07
75.03 22.63 79.84
80.29 20.03 103.974
81.37 20.65 101.86
80.17 15.34 101.36
80.0 16.07 98.73
47.34 26.44 84.82
47.15 28.16 83.58
53.37 20.56 73.66
53.59 21.42 71.55
48.7 31.95 56.07
50.07 30.67 56.79
53.45 20.94 55.28
53.87 19.72 52.97
32.98 42.53 79.0
31.01 40.88 78.74
39.39 29.57 80.15
38.81 28.24 77.92
47.25 19.26 69.44
45.74 18.13 68.06
47.38 10.61 79.63
47.19 12.1 80.95
84.15 17.22 64.79
81.89 18.55 63.93
75.65 10.12 65.68
74.13 9.99 67.23
84.42 8.0 92.79
85.61 5.96 93.95
87.27 -2.619 84.56
84.84 -1.789 83.78
87.24 30.51 56.65
87.23 28.88 57.92
93.729 26.92 46.64
92.12 26.8 44.79
11.88 26.31 83.15
10.02 25.23 83.82
15.76 16.83 91.64
17.2 17.25 93.61
-0.899 44.56 45.47
-1.649 43.32 46.73
-0.109 48.769 58.71
-0.829 51.109 58.51
37.89 49.029 85.97
36.3 50.579 86.17
30.27 47.13 96.39
31.32 45.73 98.07
65.94 37.93 10.57
65.48 36.99 12.5
66.43 44.04 24.09
67.5 45.96 24.38
49.96 30.61 61.98
49.5 32.27 63.13
61.8 40.29 65.11
61.1 42.35 64.64
11.96 23.54 48.02
14.36 23.64 47.39
17.01 18.74 35.81
18.89 18.61 34.4
49.97 14.54 10.41
51.8 13.14 10.17
54.06 9.63 -1.444
53.53 8.53 0.07
37.44 42.26 26.87
36.28 41.94 25.21
39.73 33.74 17.15
38.7 33.06 19.54
31.76 40.38 15.34
30.09 38.97 16.12
35.66 37.76 28.8
33.87 38.32 30.04
39.8 3.6 20.59
38.43 2.48 19.7
38.39 -0.219 19.68
39.4 -0.389 17.45
73.71 39.49 11.52
72.03 39.94 13.59
80.91 43.26 6.99
81.07 41.27 6.4
45.22 4.1 62.39
47.56 4.19 62.54
49.26 3.87 50.27
48.32 4.98 48.62
34.71 7.53 51.3
34.99 9.74 53.13
40.93 6.54 61.72
41.64 8.6 60.68
3.91 -3.409 -4.314
5.28 -1.609 -5.154
6.82 4.81 7.74
4.85 5.95 8.49
10.07 42.79 29.68
11.09 43.02 31.36
19.41 39.65 35.47
18.58 39.19 37.48
27.7 22.85 95.39
28.15 23.47 92.9
19.22 18.23 90.98
18.4 16.23 90.59
10.73 39.01 3.17
10.52 38.15 5.05
17.98 31.53 13.46
16.54 31.08 15.4
7.52 14.63 6.13
6.99 14.28 4.01
17.33 21.1 -3.544
19.17 21.23 -2.724
45.34 42.54 65.81
47.62 41.53 65.56
55.53 35.9 70.05
57.83 36.76 69.74
15.24 12.1 19.11
13.54 13.9 19.52
2.01 7.03 15.5
2.25 4.49 15.36
45.97 35.76 78.91
47.55 35.69 80.19
42.22 44.93 88.9
44.66 45.57 89.56
55.51 7.63 42.55
56.46 6.33 43.35
59.75 17.32 41.36
59.1 17.36 38.94
88.4 12.24 73.28
88.62 11.42 71.55
78.4 9.51 66.57
78.88 11.43 65.37
52.21 26.64 101.78
50.23 26.74 100.64
41.04 15.59 99.78
41.47 14.81 102.04
5.79 44.63 102.27
6.77 43.93 100.14
13.2 43.17 92.02
13.58 42.76 89.8
23.83 -1.299 50.92
22.18 -2.029 49.48
20.51 8.18 40.6
21.53 9.19 42.45
19.31 13.22 87.69
18.8 10.81 88.79
17.56 3.04 89.27
15.53 3.33 89.47
55.87 18.13 54.01
57.63 18.46 55.07
57.4 26.99 65.81
59.02 28.61 65.03
36.54 27.32 76.91
35.85 28.64 78.85
29.02 40.8 81.02
27.44 40.84 82.48
33.54 38.84 98.62
32.17 37.79 96.99
31.79 31.74 94.99
29.57 31.25 94.87
25.35 23.74 38.44
24.45 23.03 40.47
29.13 22.54 48.14
28.68 20.83 49.58
22.14 33.33 8.93
23.21 34.87 7.33
13.88 41.52 12.87
12.36 39.68 13.6
42.41 9.22 19.6
40.0 8.91 19.54
38.15 0.18 9.57
37.73 -0.369 11.47
45.25 7.38 17.32
44.34 9.7 17.38
42.29 10.62 2.36
42.69 8.52 1.91
31.71 40.85 -4.044
31.77 42.06 -2.644
20.94 46.1 4.94
19.57 44.86 6.57
70.37 30.6 56.64
68.87 30.61 58.16
58.05 34.42 50.67
56.43 35.33 51.67
9.65 26.81 44.57
8.44 25.97 43.02
8.84 19.81 34.36
9.99 17.73 33.21
42.79 29.72 25.62
42.72 31.81 26.69
43.26 41.72 19.88
42.43 43.6 21.0
57.24 45.36 73.02
59.69 45.49 73.69
67.48 39.02 80.95
69.01 37.52 81.77
63.23 42.77 66.19
64.39 44.55 65.07
71.76 36.9 54.67
72.34 35.55 56.57
52.19 5.63 73.91
51.64 7.69 73.02
50.85 20.22 79.32
50.1 22.25 78.34
70.95 9.17 1.98
69.82 10.95 3.09
71.8 11.49 14.93
73.55 11.68 14.06
28.64 34.56 53.38
28.53 32.64 51.57
40.14 25.63 54.98
39.44 23.63 54.44
74.23 33.86 69.72
72.63 32.88 70.61
60.03 29.29 70.42
58.83 28.1 72.42
34.29 49.159 64.77
34.04 47.01 64.3
30.17 43.38 75.66
30.62 43.35 77.68
69.01 15.18 20.25
70.95 14.89 19.16
79.42 23.57 20.52
81.05 25.1 19.99
48.09 53.919 9.83
46.27 52.559 9.91
48.93 40.37 11.52
49.1 40.49 9.19
32.23 1.55 97.33
31.43 1.88 95.45
31.58 8.09 86.83
30.14 9.35 87.28
43.84 26.79 54.37
42.56 25.2 53.19
43.3 15.06 45.61
41.17 15.61 45.59
62.69 17.82 41.38
61.58 19.49 41.2
61.09 31.97 40.57
61.03 33.87 39.66
15.83 35.87 50.13
13.49 35.48 49.52
20.18 35.92 38.42
20.23 36.9 36.44
45.12 36.56 95.29
44.52 35.32 93.66
57.34 35.79 93.23
57.44 35.27 94.99
14.19 15.07 84.1
12.69 14.31 81.85
3.41 6.17 86.32
1.52 5.42 87.23
22.2 17.98 6.02
21.34 17.64 3.96
27.21 6.92 8.49
26.33 5.08 10.14
87.08 40.23 94.32
88.27 42.19 93.84
78.4 45.14 99.42
78.09 47.08 100.45
66.14 17.55 58.55
65.98 16.65 56.21
68.78 3.3 64.89
70.15 2.13 63.38
11.25 25.22 56.5
11.0 23.55 58.07
20.34 31.8 64.77
20.58 30.83 67.0
57.58 2.51 78.22
57.94 2.7 80.69
56.73 16.14 85.8
55.08 17.84 85.6
66.31 19.98 12.38
67.83 20.65 11.0
68.03 27.64 20.84
65.88 26.23 20.97
69.02 35.87 4.97
68.76 35.38 2.84
62.52 23.18 8.62
60.97 23.19 6.67
63.49 32.3 25.28
64.55 31.2 26.63
74.46 35.05 33.34
76.75 35.28 33.53
54.55 17.01 24.21
54.49 17.7 25.95
49.02 26.44 17.55
46.71 27.54 17.11
31.5 36.79 55.32
32.93 38.15 56.88
41.86 47.42 52.38
42.64 47.619 54.36
11.1 42.27 12.95
10.87 40.13 11.35
-1.499 40.88 12.19
-3.449 40.24 14.1
78.06 8.34 3.01
77.63 7.27 1.07
83.21 -4.079 4.87
83.87 -6.169 5.3
28.76 25.51 90.38
28.86 25.33 88.05
31.59 12.96 88.82
32.51 11.11 87.72
56.98 38.06 51.71
58.74 37.17 51.74
68.47 42.81 49.22
70.92 42.37 50.41
71.54 31.2 49.78
70.67 33.09 50.52
71.04 24.7 53.27
73.13 25.5 53.2
96.229 12.03 43.54
95.769 12.73 41.66
82.82 16.44 41.1
83.55 17.43 39.46
39.35 26.2 79.26
38.73 25.52 76.97
39.81 16.95 73.68
38.81 15.23 74.76
40.37 8.46 99.55
41.92 7.22 99.04
46.4 -4.329 97.03
48.41 -5.629 96.48
38.33 13.89 24.63
39.53 14.73 26.09
40.84 27.22 26.95
41.4 28.96 28.83
20.87 21.46 5.62
19.52 19.55 5.98
11.23 18.91 12.41
9.38 18.61 13.74
26.0 32.05 6.61
28.2 32.63 5.95
36.46 42.29 7.16
36.71 44.53 6.53
90.55 32.69 92.83
88.85 31.76 91.83
89.84 31.68 77.54
89.73 30.64 75.73
68.78 15.33 95.73
70.07 14.17 97.38
83.7 16.71 91.79
82.98 19.22 92.28
62.7 12.03 75.02
62.19 11.86 72.98
68.24 14.55 63.4
68.94 14.27 61.6
16.61 20.24 28.83
18.39 19.28 27.36
29.35 22.9 30.39
29.93 22.28 32.93
-1.609 49.389 53.31
-1.049 51.749 54.23
6.33 44.21 58.53
4.27 43.39 58.89
37.67 20.48 97.66
39.41 19.05 98.55
34.69 11.98 89.79
33.51 13.75 90.55
37.97 14.6 9.2
36.29 15.57 8.35
39.81 26.31 3.43
40.61 27.16 1.26
14.15 33.46 93.26
15.41 33.3 91.76
26.88 26.82 92.21
28.23 26.08 93.61
58.9 36.48 72.06
57.01 38.01 72.88
62.97 38.89 83.53
64.83 38.47 82.19
85.96 1.83 74.01
86.42 3.4 75.68
93.5 13.21 71.84
92.32 15.05 72.11
55.12 27.52 56.09
55.13 25.14 56.23
55.19 14.69 58.79
53.75 12.8 59.38
29.22 4.51 63.19
28.27 4.82 61.2
26.54 6.55 53.91
25.13 7.22 52.48
71.91 3.99 87.19
70.86 3.8 85.0
60.77 1.51 83.07
58.19 2.23 83.89
54.28 35.45 85.68
56.42 35.34 86.71
58.95 47.07 83.27
59.42 47.689 81.26
89.18 40.64 45.56
87.97 42.34 47.38
93.929 40.58 59.75
96.199 40.08 60.72
37.73 32.39 30.06
36.88 32.15 32.42
35.13 26.52 23.37
33.81 26.18 21.38
79.65 27.09 14.3
78.36 25.54 15.96
85.1 12.42 12.55
84.49 13.28 10.34
5.85 12.78 100.05
6.79 11.27 100.88
17.33 14.8 94.5
17.46 14.35 92.4
56.18 6.95 61.74
56.26 8.23 59.21
58.22 -0.369 51.61
56.35 0.44 50.07
12.11 4.53 48.09
11.08 6.61 46.85
6.57 5.75 38.21
4.53 6.97 37.6
14.87 43.06 17.55
13.76 41.89 18.42
12.95 43.61 29.47
15.07 44.25 29.1
11.85 24.81 14.88
10.09 26.56 14.7
9.66 24.28 29.32
11.97 24.05 29.07
81.11 40.94 78.42
81.75 40.23 80.47
91.94 33.37 78.94
92.54 32.69 77.18
81.57 12.99 34.25
82.03 14.72 33.04
94.429 12.33 35.88
95.059 10.6 36.78
31.82 37.88 14.15
33.81 38.69 14.62
36.92 28.09 24.38
39.22 28.4 24.07
21.99 28.57 67.9
21.16 27.42 66.56
21.63 22.12 55.37
21.35 19.94 55.52
28.96 2.64 -4.994
28.92 3.62 -2.884
21.77 0.74 7.21
22.92 -0.699 8.38
55.52 49.099 14.51
56.18 46.52 15.57
51.64 40.96 27.95
50.32 41.85 29.84
90.87 0.35 60.25
90.87 2.29 59.68
86.47 7.46 53.34
84.05 8.18 52.4
70.24 29.6 24.46
68.59 29.68 23.02
58.12 28.99 18.58
57.45 27.49 16.78
48.06 30.91 82.95
49.04 30.38 85.15
42.76 32.41 97.14
42.82 34.91 97.22
39.9 41.6 65.33
37.76 42.89 66.2
40.18 46.32 80.5
41.7 44.49 81.11
83.79 22.66 61.11
82.28 24.66 61.41
69.49 17.12 62.04
68.17 18.58 62.27
61.51 17.72 45.8
60.45 17.64 47.62
52.11 30.09 43.89
53.82 31.87 44.96
67.47 47.33 78.85
69.8 47.42 79.02
78.83 39.91 76.65
78.5 39.61 78.62
95.079 45.4 39.05
94.939 43.12 40.41
90.76 47.689 31.26
90.18 48.419 29.23
10.12 23.01 55.16
11.32 23.21 53.25
6.66 15.82 47.72
8.27 16.66 49.03
76.63 47.849 20.07
77.26 45.47 19.81
76.16 35.21 27.98
74.79 35.71 29.49
7.18 36.78 58.32
5.82 35.51 57.37
3.6 43.7 44.17
5.81 44.35 44.02
58.96 4.68 14.33
57.7 3.08 15.96
53.82 4.43 23.41
53.76 6.62 22.69
9.1 7.57 70.25
9.2 9.65 71.42
14.61 12.15 58.27
15.07 13.47 56.67
72.92 51.679 97.81
74.7 51.219 97.11
78.85 41.63 89.05
80.33 41.59 88.08
56.3 36.45 38.25
58.13 36.15 39.43
63.09 46.93 30.39
62.85 44.91 28.79
90.7 9.08 7.25
88.52 8.99 7.55
85.96 -2.269 10.61
86.99 -4.419 10.08
85.71 -4.379 48.43
84.19 -3.389 47.01
79.23 5.1 54.57
77.32 3.23 55.42
50.16 36.88 79.6
49.3 35.52 78.13
41.54 38.41 74.93
42.79 36.85 74.49
28.81 6.07 101.85
30.57 6.41 100.53
43.4 5.29 100.53
44.04 7.16 101.36
57.99 27.24 56.66
57.33 29.46 57.28
68.41 23.47 58.17
68.06 21.47 59.52
41.32 15.57 41.51
39.36 14.1 41.5
32.02 23.13 42.89
30.91 20.97 43.72
85.7 1.83 103.294
86.84 1.42 101.61
78.15 4.22 98.29
76.29 3.46 99.63
30.49 38.02 45.07
32.44 36.7 45.3
41.03 36.51 52.19
42.03 34.24 52.36
9.65 35.17 7.28
10.66 34.29 5.0
19.16 25.36 -0.314
20.7 26.25 0.7
4.34 32.04 26.75
6.49 31.38 27.74
3.63 37.77 36.59
4.95 38.81 39.2
43.87 5.23 5.25
45.93 4.02 4.58
55.87 6.54 3.26
56.78 7.0 1.55
43.62 1.28 80.26
44.25 3.02 79.7
33.67 6.94 85.23
31.88 6.12 85.05
8.46 35.6 3.83
7.83 37.83 3.55
-0.639 28.86 -0.254
1.27 29.07 1.52
89.85 28.7 7.06
88.78 29.54 5.2
90.34 29.46 -4.274
91.54 28.72 -3.444
17.75 17.74 54.94
17.04 15.62 55.74
19.11 19.97 70.13
18.46 22.35 70.23
22.28 42.06 42.9
22.32 41.6 40.59
31.18 44.45 30.71
31.29 45.86 28.41
52.69 24.89 13.41
49.89 25.37 13.43
56.3 38.72 16.49
55.59 40.25 14.5
8.74 39.38 9.12
11.37 39.05 8.68
15.31 34.4 20.08
16.47 33.66 18.45
3.29 49.149 84.58
3.05 49.379 86.77
8.42 45.12 91.72
9.01 47.629 92.25
65.3 20.42 9.06
65.97 18.82 7.75
59.86 6.84 13.0
61.35 5.42 12.87
84.75 31.43 57.84
85.07 31.12 60.32
72.79 30.82 57.85
70.7 32.54 58.8
41.93 8.83 36.89
43.69 9.41 35.16
53.49 9.79 41.64
52.88 9.01 43.7
55.19 40.31 53.26
53.27 41.11 54.55
47.85 42.77 60.75
46.91 42.11 62.94
58.06 37.99 20.19
56.26 38.16 21.93
45.32 29.46 15.37
45.43 30.16 12.95
44.64 47.37 107.284
42.52 48.029 106.224
35.74 45.97 101.12
35.52 44.04 100.45
51.23 25.33 80.85
51.91 23.71 79.8
57.59 32.67 84.49
57.93 34.87 84.53
31.63 21.53 91.31
33.87 20.28 91.69
43.18 27.37 86.17
44.61 28.36 84.66
8.26 40.78 28.67
10.29 39.29 29.56
16.39 29.06 28.38
17.7 30.59 29.68
16.6 37.44 32.07
16.84 39.01 33.68
19.6 41.22 42.94
19.69 41.88 40.82
27.58 9.28 48.04
26.59 11.25 47.29
26.68 21.69 53.95
23.83 20.96 54.45
9.03 7.96 60.61
9.4 8.0 58.5
2.55 -0.619 62.9
1.99 -2.099 61.05
22.11 23.89 103.394
21.95 22.31 101.96
25.88 24.9 103.964
27.57 24.1 105.764
28.2 16.08 57.07
29.44 18.0 58.23
39.15 12.23 51.58
40.59 10.37 52.36
92.2 8.71 87.42
93.46 8.66 89.99
90.28 -0.759 99.04
88.62 -1.309 99.83
32.72 26.27 82.18
34.12 27.05 83.42
23.86 29.07 79.13
21.78 30.34 80.35
71.58 37.49 40.53
73.62 37.78 40.05
74.69 28.24 47.53
72.02 28.87 46.83
1.14 1.25 82.58
2.08 0.19 80.91
5.33 12.71 75.83
5.45 11.41 74.17
43.42 36.62 71.81
44.8 34.9 72.2
57.1 33.16 67.58
57.87 33.36 69.64
4.69 27.1 58.26
6.71 27.35 56.8
0.19 17.97 53.67
1.01 15.78 53.31
22.28 28.89 64.35
23.02 31.13 65.55
34.36 26.08 70.59
32.51 24.68 71.46
82.98 12.88 96.1
83.56 10.78 94.96
88.88 19.14 82.03
89.55 17.14 80.75
-1.079 8.36 53.8
-0.089 6.99 54.94
3.95 18.81 59.99
4.61 18.06 62.36
4.18 22.31 96.21
4.0 22.65 94.29
1.79 14.52 86.24
1.68 13.29 83.89
34.99 9.84 74.61
35.58 10.7 72.39
26.88 6.96 62.03
26.72 5.01 63.68
19.54 37.43 31.89
19.19 37.39 29.58
24.8 47.859 32.9
23.44 49.229 33.43
86.06 34.89 54.47
86.68 32.89 53.47
76.31 25.45 48.67
76.33 24.54 46.18
63.53 51.479 -1.384
62.31 51.539 0.41
67.67 37.73 3.5
65.16 37.42 3.27
-3.569 20.84 80.05
-2.939 19.22 78.92
1.92 14.72 69.47
0.58 16.49 70.0
80.05 27.68 17.06
80.33 27.61 19.53
90.11 20.77 22.01
89.8 18.49 21.3
22.04 39.79 85.58
24.33 39.61 86.41
36.22 32.12 89.5
35.92 32.86 92.0
72.26 27.19 25.28
70.5 26.76 23.93
66.72 21.56 14.59
64.57 22.42 14.94
70.79 5.58 89.19
70.29 6.16 87.4
59.84 15.96 89.27
58.51 15.1 87.57
41.78 34.05 -3.144
42.51 32.96 -0.934
44.84 34.07 12.69
46.48 34.59 13.35
71.16 22.68 84.65
73.18 22.1 82.81
80.03 28.34 92.56
79.93 30.54 93.06
4.18 3.66 27.31
5.79 3.66 28.92
4.84 12.84 33.36
5.51 14.62 34.99
86.07 24.98 77.94
86.62 25.99 75.91
85.95 20.35 64.17
85.14 21.79 63.45
74.72 5.76 103.484
71.94 6.76 103.094
72.19 -5.249 100.0
73.31 -6.269 101.76
22.8 48.759 -2.624
21.82 47.52 -0.824
33.54 43.25 0.77
36.05 43.74 0.7
52.97 42.37 7.09
54.3 42.26 5.09
61.62 45.81 12.1
60.17 43.71 13.45
80.7 43.78 81.33
81.98 43.84 78.61
74.44 41.93 67.02
75.5 43.1 65.44
68.37 0.82 26.21
69.91 2.25 25.17
80.57 7.4 28.24
80.37 8.92 29.22
38.71 1.79 39.6
39.38 -0.079 38.26
37.24 0.64 41.68
37.75 2.26 42.07
87.37 19.85 19.6
89.9 20.82 19.04
85.94 25.76 8.66
85.84 23.32 7.94
33.6 15.62 27.87
32.39 17.36 28.67
37.99 12.51 36.93
36.22 11.79 35.78
42.1 8.13 30.73
44.04 6.91 32.02
47.06 11.6 34.68
46.92 11.06 36.88
36.33 45.35 10.17
38.03 45.12 8.73
44.73 36.51 17.29
45.19 36.67 15.26
30.48 -3.629 81.19
29.86 -1.729 83.11
20.26 7.34 80.98
18.67 9.08 81.57
98.289 29.98 8.67
99.259 31.9 8.68
85.45 34.54 15.46
85.45 35.9 17.28
42.32 37.8 46.23
40.19 37.14 47.18
32.28 30.59 46.27
30.81 31.21 48.0
92.17 -1.549 78.24
94.099 0.22 76.89
93.939 11.35 85.22
92.47 12.35 85.99
84.87 49.569 27.05
84.57 49.589 24.41
79.67 40.83 19.32
78.69 41.84 21.65
67.94 17.2 9.1
68.9 19.14 8.83
78.62 13.89 0.81
80.06 11.86 0.7
13.71 20.85 73.12
13.67 20.78 70.71
15.1 19.78 56.99
17.26 21.72 56.1
19.92 10.43 86.31
21.39 11.74 86.96
25.71 12.73 100.28
23.56 14.34 100.0
58.9 20.31 14.02
60.03 19.5 16.23
54.16 9.06 17.93
53.72 6.52 18.11
42.61 37.76 43.49
41.94 37.95 40.98
40.89 45.55 36.67
42.68 44.43 38.26
71.0 6.75 57.23
73.01 7.47 56.74
83.09 9.83 54.2
81.88 8.39 54.99
99.649 20.24 66.31
97.849 19.86 65.36
89.84 17.23 77.19
88.37 15.72 76.37
70.75 50.359 66.7
70.85 48.139 65.73
74.52 37.12 71.3
76.33 37.95 70.52
64.46 47.21 10.99
63.22 47.719 8.95
57.47 40.76 -1.154
56.0 40.45 0.84
83.47 18.13 61.25
85.17 18.43 62.61
86.33 15.56 71.19
87.69 13.94 70.85
44.87 1.83 54.73
42.79 2.82 53.04
41.86 12.8 45.84
39.75 13.48 46.06
49.14 9.61 58.76
46.97 8.54 59.74
38.58 12.3 58.81
37.0 12.46 60.19
82.38 39.11 108.724
80.09 38.74 108.174
78.85 29.97 95.41
77.04 29.97 96.38
9.9 51.329 27.48
8.44 50.259 25.69
6.01 41.0 25.56
5.56 42.85 27.11
75.74 4.04 48.87
76.57 4.29 51.22
87.94 8.63 44.28
89.03 6.91 44.06
37.49 38.13 64.26
38.04 37.37 62.37
46.86 30.1 65.49
48.34 29.01 63.75
25.94 27.79 90.05
24.44 29.52 90.73
19.01 23.77 99.94
16.83 24.39 99.23
61.32 6.72 103.764
62.83 6.55 101.39
61.9 17.36 91.28
61.45 19.16 93.25
37.29 29.7 18.66
36.11 31.88 17.95
25.16 35.3 23.01
23.82 33.94 24.24
73.57 28.64 95.53
71.22 28.08 95.29
68.99 22.63 83.25
70.48 22.15 81.25
29.48 34.48 46.37
29.61 35.15 48.83
15.59 38.63 52.68
14.85 37.06 52.5
68.43 16.8 98.38
66.36 17.24 97.28
59.37 27.44 101.08
61.18 28.78 102.15
0.81 28.23 44.09
2.4 27.17 45.15
1.98 14.66 37.58
2.36 14.66 35.69
74.98 19.84 77.91
74.54 17.82 77.74
86.25 14.0 75.61
88.07 12.92 75.91
17.09 11.36 56.63
19.21 12.1 57.49
22.81 9.8 69.23
21.33 11.54 70.27
19.69 28.33 78.41
20.2 28.4 80.55
15.13 17.93 85.29
14.85 17.43 83.04
56.9 47.35 47.4
58.34 46.49 46.33
59.36 33.51 42.39
58.77 31.93 43.89
75.15 37.08 15.43
74.62 36.94 17.44
70.75 28.37 21.81
72.9 28.28 22.79
7.4 48.079 95.98
9.09 49.199 94.77
15.35 45.05 104.754
17.57 45.77 104.514
67.95 16.78 68.46
69.38 16.2 69.58
70.48 20.22 78.84
72.23 19.66 78.48
1.09 33.65 22.22
0.05 35.34 22.38
12.18 39.89 16.54
11.35 42.02 16.06
63.13 17.14 48.63
62.55 19.87 48.21
70.54 16.95 50.63
72.97 16.3 50.39
35.64 13.9 26.66
35.69 13.35 28.43
25.03 4.63 29.57
23.7 5.48 27.46
65.41 29.16 65.13
67.0 30.74 64.44
78.04 29.31 68.89
77.7 31.01 69.83
26.6 5.94 69.03
24.37 6.49 68.94
18.3 5.52 78.0
18.55 5.5 80.38
50.01 10.11 18.13
49.54 11.85 19.01
52.54 24.46 16.02
50.6 23.7 15.71
42.3 16.42 87.99
43.12 18.38 86.47
36.19 18.18 74.81
34.76 20.07 74.25
22.48 1.75 17.28
24.34 2.34 18.12
33.02 13.58 21.27
34.22 14.2 22.86
75.5 35.92 73.91
73.0 37.09 74.05
65.11 28.04 77.82
64.29 27.99 79.75
18.62 13.94 12.7
17.2 15.08 12.71
18.52 28.95 14.27
20.51 29.34 15.15
33.56 31.28 41.57
33.57 33.12 41.64
30.17 41.88 42.77
28.88 43.24 43.72
58.64 19.93 39.81
58.15 19.36 42.03
52.38 15.17 53.52
53.18 14.02 55.1
40.73 27.91 42.59
42.46 26.56 42.02
43.16 22.27 36.16
44.12 20.41 35.41
53.66 8.54 60.5
52.77 8.25 62.51
52.0 21.03 67.17
52.55 22.85 66.45
7.21 5.75 63.04
5.56 5.18 62.07
-1.679 11.23 54.56
-1.029 11.77 52.74
83.39 39.25 18.0
84.9 40.87 18.77
98.019 43.05 17.27
100.149 42.7 17.22
57.59 32.49 48.77
55.78 33.35 49.25
47.1 38.33 38.84
46.41 40.04 39.8
24.02 29.71 23.97
22.25 30.3 23.04
32.69 22.86 20.14
34.24 22.57 22.24
30.01 10.51 101.54
28.25 11.25 100.37
28.29 4.09 89.16
26.92 5.83 87.69
17.95 17.48 71.17
16.28 18.62 71.11
20.26 14.33 74.04
21.38 12.49 72.9
68.89 13.31 22.46
68.35 11.77 23.85
74.28 6.03 14.2
73.87 5.89 12.34
87.6 18.98 78.26
86.83 17.07 78.96
76.18 16.22 86.34
77.53 14.78 87.37
71.32 35.52 36.32
73.69 35.92 36.05
82.46 27.89 43.83
80.64 26.0 43.77
58.99 35.1 22.12
59.83 33.46 20.63
73.07 31.87 25.97
72.88 30.79 24.04
70.4 20.65 43.28
69.31 18.92 43.5
62.43 7.8 40.51
61.09 9.06 42.3
38.68 18.68 61.6
37.58 18.4 59.3
28.19 21.59 61.56
26.13 20.96 60.69
9.21 2.2 44.9
11.97 1.71 44.42
21.19 2.59 34.34
22.14 4.41 34.32
53.15 12.76 94.75
52.72 14.4 95.93
56.44 24.24 101.05
55.68 26.06 100.36
66.53 3.56 88.79
64.87 4.18 90.13
61.44 9.88 78.79
63.37 11.56 77.78
34.37 20.38 13.41
34.43 22.44 14.39
42.88 29.96 14.03
42.9 31.55 12.74
83.41 27.99 92.87
81.86 26.07 92.06
81.78 24.31 79.34
82.6 22.26 77.82
84.4 5.58 72.55
84.57 5.07 75.29
76.55 7.75 67.85
75.97 7.34 65.26
65.83 32.72 62.05
67.89 33.33 62.98
77.64 39.18 65.59
80.13 38.5 65.06
22.2 20.12 2.56
22.6 19.86 0.17
22.37 14.66 9.14
21.95 14.99 11.32
92.2 52.089 19.81
92.27 49.679 20.01
85.0 43.4 29.82
85.75 41.42 28.54
21.4 15.14 58.0
23.71 15.07 58.67
21.04 18.0 71.13
20.56 16.22 72.08
85.06 48.409 76.72
85.34 46.31 76.92
78.4 42.09 68.16
78.58 41.74 66.26
73.15 6.52 9.32
74.9 6.7 10.11
85.81 10.09 7.57
87.33 11.75 7.75
20.26 14.35 93.16
20.54 14.2 95.79
15.16 3.47 102.994
15.34 2.18 104.644
4.0 43.45 40.87
3.83 41.81 41.98
12.12 39.52 51.75
12.27 37.22 52.43
67.12 29.17 88.32
66.78 30.68 90.09
59.46 22.01 91.4
58.18 20.37 90.47
64.63 3.79 92.8
66.09 4.59 93.91
57.88 -5.679 98.43
58.63 -5.379 96.61
90.3 12.3 69.3
90.5 10.56 67.93
90.95 6.54 54.78
89.08 7.85 53.68
37.55 41.47 61.87
35.71 42.69 60.65
26.16 47.16 56.75
26.4 49.129 57.37
67.57 49.269 92.83
67.25 48.979 90.56
66.03 39.34 85.2
67.63 38.79 84.03
21.82 14.4 22.31
23.74 14.6 22.71
22.83 7.69 23.47
22.11 5.49 23.26
7.92 30.93 24.29
5.76 31.19 24.3
-2.919 32.46 22.6
-3.349 32.16 24.45
83.35 23.11 8.66
84.01 21.0 7.63
79.87 23.68 -0.644
79.27 22.57 -2.514
38.0 16.65 -2.534
38.84 15.01 -1.474
35.49 13.01 9.76
33.89 14.42 8.78
85.06 24.51 80.71
84.36 23.21 79.71
78.85 13.68 84.85
77.06 11.19 84.26
37.37 44.93 64.38
36.1 45.11 62.41
29.14 46.44 54.96
28.35 44.48 55.86
41.82 -0.499 39.22
43.08 -2.039 40.74
49.07 6.23 45.89
47.46 7.96 46.81
55.75 33.44 71.99
57.73 34.03 72.35
52.16 31.29 81.45
50.85 29.82 82.37
57.36 44.86 57.04
59.22 44.21 57.8
66.09 44.93 49.68
68.72 45.76 49.08
70.46 5.11 94.86
68.26 6.35 95.86
80.35 9.47 91.94
80.47 11.28 92.01
13.71 25.9 46.0
12.9 27.64 44.64
15.16 25.24 49.58
16.5 24.94 48.19
35.89 41.42 99.56
35.02 41.67 101.84
44.14 39.36 95.65
46.12 39.28 96.43
31.37 24.29 73.87
29.74 24.9 75.36
41.25 33.92 75.98
41.23 34.64 74.25
38.46 19.66 55.81
37.93 21.99 56.2
28.13 29.46 50.15
25.59 29.52 51.02
17.22 12.03 14.56
15.12 12.09 15.44
4.57 0.68 12.98
4.3 -0.239 15.05
66.21 36.8 5.88
67.62 38.31 7.44
71.23 52.089 8.39
71.86 52.299 6.25
20.07 -0.349 99.48
19.19 0.75 97.81
8.4 4.53 93.26
7.17 5.71 92.84
47.03 15.08 85.76
44.82 15.55 86.38
49.48 12.03 83.06
49.01 13.18 84.46
52.67 38.66 41.41
52.36 41.3 41.1
44.4 47.669 51.78
46.37 48.429 52.64
33.62 43.9 28.89
34.46 43.06 26.99
26.42 48.399 24.38
24.88 47.839 25.9
4.58 14.04 37.51
4.4 11.81 38.17
14.07 15.4 39.79
15.43 15.42 38.29
80.54 23.36 42.35
82.51 24.4 42.68
87.73 13.16 48.54
89.32 12.26 47.65
64.16 1.62 29.49
64.82 0.63 27.33
60.73 14.04 22.82
62.69 13.25 22.74
84.21 23.54 58.31
84.18 21.22 58.43
84.21 19.24 53.77
82.4 18.07 52.76
18.8 34.35 29.9
19.35 32.19 30.97
13.74 38.79 31.55
14.55 36.64 30.49
63.27 35.31 38.45
61.52 35.91 37.17
66.56 38.91 26.12
66.49 41.49 25.43
29.28 28.71 91.2
30.11 27.81 89.15
41.31 26.79 84.41
43.15 26.81 82.62
93.789 38.69 25.34
93.32 36.6 25.68
82.39 39.54 31.2
83.57 40.9 33.17
69.38 23.64 103.504
70.57 23.15 102.03
69.82 10.31 102.59
69.9 8.36 102.29
44.17 -4.569 63.37
44.88 -2.959 63.84
50.58 3.59 70.99
51.06 5.7 70.92
37.26 48.819 13.47
38.1 47.38 14.61
38.22 35.33 11.19
37.75 33.55 12.63
82.17 44.2 28.85
81.96 42.4 30.92
69.82 46.28 25.88
71.53 47.669 25.11
6.53 39.32 31.03
5.52 37.82 31.78
8.3 32.53 44.13
6.05 33.03 44.87
55.22 36.12 83.36
54.38 37.45 81.59
62.57 41.42 84.9
65.09 41.83 85.59
41.29 31.94 20.13
40.19 31.13 18.21
36.61 24.18 21.97
37.75 25.91 22.46
-0.859 9.11 13.27
1.4 9.36 13.69
3.21 16.01 4.81
3.14 17.06 3.01
28.2 -3.239 53.15
29.17 -1.199 52.12
24.63 9.8 45.34
24.03 10.6 47.85
30.48 5.48 66.93
31.9 4.0 67.51
36.58 13.03 72.81
36.42 15.5 73.43
41.15 25.59 31.74
39.86 27.29 31.22
34.92 29.03 42.06
33.02 28.66 42.68
8.97 35.44 84.15
7.0 36.46 85.26
-3.759 35.21 92.66
-4.599 36.94 93.3
59.66 18.61 35.83
57.86 19.85 35.24
62.1 33.85 34.2
62.67 34.03 31.78
74.15 17.95 70.85
72.08 16.65 70.69
64.01 9.81 74.27
62.35 8.49 73.45
86.32 38.84 48.51
87.26 36.59 47.87
95.889 39.5 42.38
93.769 40.4 41.9
45.81 23.81 36.19
47.3 23.71 37.26
58.68 30.41 40.0
59.86 29.96 41.88
36.41 3.92 13.91
36.77 4.07 11.73
42.18 12.18 18.13
40.21 11.78 19.65
50.6 18.18 91.1
50.14 19.61 88.9
54.84 29.66 95.6
53.48 29.35 97.44
17.61 36.51 18.01
15.99 38.01 18.22
7.57 33.05 25.83
5.72 34.23 25.46
24.66 28.74 5.37
26.67 29.98 4.97
40.21 29.77 4.17
39.44 29.36 2.37
54.7 42.14 -2.154
54.64 42.88 -0.084
49.17 42.9 4.0
50.71 41.33 3.71
28.91 7.86 99.33
26.95 8.97 100.53
19.4 1.71 108.734
17.86 1.11 107.824
22.12 -1.369 11.03
19.82 0.21 11.06
16.11 4.16 4.02
16.06 3.6 6.19
51.11 14.81 83.37
52.86 13.32 84.48
55.23 4.16 75.02
53.21 3.35 75.86
40.87 46.06 25.04
42.01 45.25 26.87
43.28 31.85 29.29
41.58 30.91 30.79
49.53 11.65 14.44
48.08 11.45 16.83
49.33 19.14 28.39
47.93 20.1 29.7
14.71 18.35 12.51
13.89 18.38 10.04
21.3 30.85 8.99
20.67 31.05 10.99
39.14 8.49 48.99
36.9 9.04 50.11
34.71 10.47 37.8
35.83 12.09 39.25
75.09 0.92 57.63
75.06 2.07 55.69
69.89 11.01 47.2
71.79 11.9 45.79
15.37 35.62 87.07
14.46 33.61 86.19
15.61 29.45 79.03
17.45 28.84 80.5
15.78 5.52 86.12
17.33 5.28 84.42
15.3 -1.279 73.49
13.35 -1.619 72.62
26.0 27.9 83.02
25.57 26.99 85.04
12.56 30.31 84.29
11.96 31.49 82.68
50.2 21.51 32.06
52.58 20.81 31.67
59.25 31.67 34.79
59.33 33.93 35.73
43.5 25.06 87.47
45.72 24.88 86.6
51.03 30.88 97.44
50.97 29.04 98.6
76.04 22.0 76.48
74.29 22.36 75.21
68.79 16.82 64.92
69.72 15.5 66.7
59.43 29.87 45.51
61.62 30.19 45.03
55.78 22.45 53.16
55.87 22.64 55.3
3.69 33.67 46.73
4.69 35.35 47.18
13.29 27.74 47.88
12.38 26.09 48.91
91.75 13.96 50.96
93.36 15.53 49.69
87.76 25.44 43.89
85.73 25.75 43.71
45.93 13.98 36.3
47.86 14.65 35.01
52.95 12.62 42.02
53.12 11.6 43.83
65.49 33.81 38.64
66.99 34.62 37.17
76.73 26.51 34.56
74.99 27.5 32.84
50.46 27.68 43.49
49.4 25.95 41.42
47.14 21.32 35.92
47.29 19.91 34.23
50.94 29.58 -1.564
48.64 28.83 -1.384
44.81 24.64 7.17
44.24 22.9 8.44
63.25 18.39 29.86
65.63 18.34 29.96
63.01 16.27 22.35
64.9 14.43 21.9
-0.699 14.89 85.21
-1.239 16.56 85.53
12.61 18.74 85.33
12.43 20.87 85.51
44.54 42.47 82.56
44.05 40.67 81.33
36.24 42.73 76.43
35.52 43.18 74.07
37.27 14.75 62.88
36.4 14.38 64.69
32.61 22.02 71.83
30.89 21.69 73.54
80.78 18.18 55.07
82.14 20.0 55.35
87.38 27.48 45.68
89.26 28.45 47.2
72.59 46.84 22.75
70.91 45.6 23.01
73.16 37.18 31.34
75.21 36.98 31.7
5.91 30.75 67.54
6.39 28.59 68.58
6.86 19.48 63.35
6.2 20.79 61.74
12.76 43.56 69.3
13.51 43.29 67.16
11.92 40.19 68.58
13.81 40.53 66.57
95.319 9.28 42.76
93.31 9.05 43.55
88.44 -1.759 46.22
89.41 -3.629 45.11
41.1 13.98 20.91
42.03 14.77 18.52
43.61 28.4 22.53
44.99 29.5 23.98
57.32 28.93 51.94
55.29 28.45 53.49
50.29 42.12 59.48
50.22 41.29 61.19
91.02 22.49 62.88
92.19 23.33 64.48
92.4 29.98 74.54
93.759 32.07 74.98
18.9 39.19 87.36
17.37 40.67 86.83
6.59 37.03 82.37
4.59 37.76 83.24
13.09 10.95 55.1
12.96 9.31 53.93
17.68 9.72 40.48
16.75 8.08 39.9
8.2 13.17 48.16
10.31 12.6 48.92
20.27 14.65 41.53
21.59 13.2 40.85
43.68 29.25 96.03
42.69 28.41 97.86
31.13 22.73 93.7
31.53 24.35 92.48
81.38 29.66 77.31
80.85 27.53 77.66
83.45 32.25 90.88
83.33 34.3 89.89
93.47 27.28 29.6
94.339 25.99 27.62
86.74 14.94 27.45
88.26 14.22 25.62
24.9 10.58 -1.494
24.0 12.3 -0.584
12.6 7.21 2.51
10.46 7.05 1.53
55.53 20.28 5.52
54.82 22.3 4.34
42.92 28.88 0.71
41.39 30.93 1.89
82.74 -0.309 29.1
82.94 2.12 29.28
90.7 8.65 40.36
91.24 7.43 42.24
41.18 1.4 92.98
40.64 3.02 93.58
32.27 10.15 93.19
32.63 10.73 91.32
57.46 15.8 24.8
56.08 14.65 23.91
51.49 4.84 24.66
50.97 4.62 27.13
99.319 5.31 11.18
97.609 4.02 11.97
89.1 7.98 2.7
89.81 8.94 0.61
44.17 22.87 33.63
43.32 23.77 32.13
33.65 15.89 25.12
32.41 16.3 23.46
5.45 33.5 22.93
7.72 33.45 21.83
14.39 29.45 16.08
14.53 28.78 13.84
14.56 21.36 55.03
16.27 20.2 54.06
12.8 16.43 52.99
15.21 16.82 53.62
32.17 14.19 93.68
33.73 12.76 92.84
41.48 9.73 102.58
41.07 12.27 103.034
76.43 41.0 20.69
74.95 39.03 19.52
74.29 50.599 16.27
74.74 49.639 14.45
95.179 22.97 96.16
93.35 22.68 97.5
83.33 28.95 95.86
81.84 29.13 94.52
81.39 4.87 56.65
80.05 6.39 57.44
83.86 13.41 67.89
85.76 13.41 68.93
38.19 10.46 73.77
37.72 9.04 75.46
29.03 5.02 69.38
29.0 7.54 69.02
71.33 8.26 5.3
69.9 6.57 5.94
68.14 15.44 11.24
66.5 15.84 11.67
44.2 20.18 67.69
45.75 21.77 66.98
42.16 35.42 69.47
42.48 35.32 66.79
86.17 44.38 41.32
84.97 45.02 39.33
92.81 44.97 35.12
93.47 46.87 33.71
73.95 32.69 15.48
75.46 34.21 16.19
82.96 37.17 20.39
83.33 39.68 20.72
41.22 28.83 33.05
39.76 30.96 33.14
42.92 35.05 43.35
43.8 36.0 41.65
82.26 41.64 48.94
84.45 40.56 49.03
88.12 34.28 56.23
88.77 32.47 54.97
69.89 45.94 60.09
68.14 47.31 59.26
58.11 45.61 60.43
56.76 44.16 59.56
66.53 30.07 61.93
68.3 30.69 60.74
78.34 26.97 67.59
78.81 26.31 69.35
1.87 24.63 30.04
0.9 25.34 31.81
-2.259 25.93 34.96
-3.019 26.5 33.07
44.61 7.94 5.12
46.28 6.59 4.48
57.32 6.37 11.44
56.68 5.39 13.15
72.29 36.83 11.65
71.79 34.68 11.76
59.35 35.71 18.85
58.29 36.9 17.42
10.23 22.49 11.46
9.64 25.39 11.55
19.26 24.3 2.14
20.51 22.29 1.85
44.24 30.1 44.82
42.89 29.17 43.71
45.2 31.33 54.45
47.03 32.8 54.24
73.01 12.73 17.9
75.12 12.22 16.31
76.98 24.43 20.65
77.79 25.99 19.73
54.73 7.18 95.33
53.49 8.63 94.6
43.28 1.6 91.16
42.78 -0.579 91.67
98.509 22.91 61.23
96.659 22.49 59.98
88.95 33.46 58.82
88.04 30.88 59.93
12.86 23.4 12.97
11.85 21.62 13.87
16.3 26.77 25.88
18.36 27.69 26.36
72.74 26.5 34.17
73.11 25.16 32.67
71.78 12.64 27.17
71.32 10.49 28.2
88.86 30.24 22.48
86.8 31.52 21.07
86.65 21.37 15.21
85.23 20.67 13.33
6.93 12.41 104.644
4.58 13.0 102.97
3.93 13.9 96.58
4.94 15.44 95.43
54.93 27.29 16.49
52.58 26.63 17.3
46.33 31.16 22.33
44.59 30.69 20.8
16.74 21.8 73.04
18.03 23.71 72.75
11.31 30.48 80.02
9.07 31.31 80.29
86.33 30.53 6.95
88.3 31.25 7.73
75.55 30.3 15.31
74.63 28.52 17.41
65.7 24.98 78.33
65.95 23.46 77.11
75.31 30.52 72.16
74.86 31.2 70.11
27.24 39.9 76.21
27.33 39.96 73.83
36.8 40.23 65.46
34.96 40.71 64.42
24.04 36.51 25.36
23.84 38.12 23.71
15.1 39.65 28.46
12.99 40.34 29.69
45.75 7.19 -3.534
46.64 9.54 -4.164
48.98 14.18 7.94
49.14 16.21 7.55
17.93 8.72 85.48
15.39 8.1 84.98
5.05 3.77 86.27
6.29 3.0 87.86
40.34 39.75 68.53
40.93 37.69 68.35
37.91 25.84 73.12
35.62 25.22 72.9
9.68 29.78 99.13
10.63 28.01 100.07
7.53 21.53 95.46
8.4 20.04 97.0
1.11 -1.669 93.85
3.19 -2.289 95.08
5.02 11.42 97.71
6.04 11.66 95.8
37.15 37.15 30.99
34.67 36.48 31.94
31.18 27.53 39.54
28.77 27.39 40.14
25.81 41.97 84.15
23.88 40.96 83.69
17.54 43.12 88.05
18.67 42.23 89.93
53.87 52.499 30.32
55.13 50.529 31.04
56.06 37.12 33.72
53.89 37.88 32.69
3.47 32.66 107.934
5.72 32.78 107.404
1.71 25.09 97.66
-0.719 25.39 98.2
60.01 31.46 47.8
58.78 29.85 48.29
66.57 19.96 57.54
68.04 21.29 56.63
77.41 46.01 54.52
75.44 46.51 55.38
79.39 42.15 47.45
81.26 44.09 48.29
30.48 44.21 48.39
30.22 41.96 47.4
21.48 42.97 45.28
23.64 43.67 44.83
80.45 24.23 93.4
80.97 23.01 95.12
92.81 22.23 91.42
93.02 22.7 88.98
20.59 47.38 34.81
22.73 47.01 34.93
21.46 35.93 30.21
21.71 33.71 29.87
29.23 11.57 88.82
29.87 10.64 91.06
21.39 19.71 98.86
21.12 19.52 100.96
24.07 23.93 2.67
25.49 25.29 3.91
30.11 18.74 13.55
32.01 19.81 14.65
75.6 5.08 58.81
77.71 5.36 58.08
80.85 17.33 58.01
82.3 19.48 58.28
39.71 39.4 71.64
41.85 39.4 72.27
52.66 47.48 71.6
53.14 49.109 73.3
68.48 12.31 104.174
67.66 13.54 102.19
64.34 25.25 105.164
65.33 26.59 103.854
83.98 16.76 24.68
83.11 18.37 23.11
86.38 29.77 26.18
87.85 30.7 24.72
62.7 34.44 41.6
62.72 32.04 42.68
63.26 19.73 45.55
62.45 19.37 43.83
69.94 40.66 52.19
68.67 42.42 52.44
56.5 45.16 52.54
54.2 45.48 51.84
85.73 0.35 2.81
87.65 1.23 2.19
98.949 0.88 8.72
97.779 -0.619 10.02
41.59 40.3 91.88
42.06 39.0 93.77
44.2 32.8 82.64
44.17 34.34 80.14
99.629 39.45 27.97
97.759 38.62 29.35
86.85 30.88 28.68
87.6 28.73 29.4
25.38 11.35 74.95
23.81 11.16 72.65
25.77 13.12 59.42
27.29 14.12 58.58
0.23 28.34 7.88
-1.309 27.58 9.68
9.64 29.5 13.82
11.58 29.44 14.73
19.02 15.67 10.51
19.92 15.92 8.57
11.94 6.07 5.65
9.91 6.76 4.37
40.27 33.0 0.73
38.12 32.36 0.34
34.27 36.23 11.94
35.85 37.09 10.33
6.64 23.68 -5.534
5.92 21.68 -4.294
6.82 29.5 4.92
6.65 31.13 6.34
1.47 -2.489 64.77
0.08 -0.909 64.7
7.25 8.19 72.28
6.55 10.05 72.32
58.55 22.47 3.79
57.53 20.49 3.33
54.6 9.04 5.49
54.77 8.95 2.75
68.31 5.85 93.0
67.32 7.65 93.75
76.14 12.91 86.3
76.28 14.59 84.45
49.66 27.55 65.9
50.82 26.51 67.26
45.33 31.95 79.68
46.67 32.98 80.66
72.44 42.67 95.67
73.95 42.22 97.06
80.15 39.06 86.63
81.58 37.85 87.38
7.0 19.13 32.41
