36.92 158.67 37.86
36.38 156.22 37.75
44.67 156.92 37.18
45.912 155.25 37.53
10.15 16.59 36.18
9.38 15.38 34.54
8.86 6.24 31.52
6.67 5.47 31.91
34.26 38.26 29.68
35.76 37.19 28.5
40.75 33.56 35.37
42.29 33.42 33.72
25.24 166.37 9.45
25.55 165.38 7.39
21.53 156.78 7.28
20.24 155.14 8.74
1.0 172.99 11.88
-0.322 174.37 13.1
2.24 183.296 10.51
2.73 184.876 11.92
42.12 98.28 6.17
40.56 97.04 4.35
38.29 90.39 4.53
39.19 90.94 2.86
41.36 52.91 -1.233
41.32 54.99 0.34
37.61 61.45 2.18
35.15 62.75 1.26
3.64 114.33 16.44
3.48 112.63 16.98
-2.522 107.9 17.79
-1.272 105.9 18.76
34.62 82.88 27.6
36.69 82.94 29.0
36.66 75.73 32.94
37.55 75.91 30.47
0.42 45.44 15.2
0.71 47.56 13.92
2.0 51.77 7.83
1.2 51.88 5.61
16.43 145.48 39.18
16.26 147.43 37.92
13.25 151.87 32.6
15.15 151.6 32.8
34.1 182.616 27.57
35.07 181.286 26.5
35.03 173.39 23.1
36.97 171.96 23.65
37.55 169.84 25.59
35.79 170.95 26.02
40.34 166.56 31.57
41.08 166.77 33.36
-0.722 67.42 16.11
-1.822 69.06 16.66
1.81 75.62 20.94
0.34 77.38 19.29
2.49 133.84 -0.143
1.16 134.03 1.17
3.45 136.69 9.41
5.3 137.62 9.48
26.98 0.69 24.83
25.77 2.82 23.64
31.06 11.02 20.65
30.31 11.52 18.26
32.36 169.22 6.33
32.55 171.35 7.17
36.54 175.68 14.5
38.69 174.86 14.53
21.33 168.06 4.25
22.04 169.33 2.68
19.04 175.83 8.17
20.71 178.0 8.6
37.7 111.81 7.88
39.61 113.27 6.53
36.88 118.71 -0.543
38.36 118.48 -2.283
12.31 94.92 37.49
12.75 94.93 34.95
18.38 89.92 30.42
16.34 89.19 29.81
35.25 14.53 11.08
32.97 14.67 11.93
31.16 11.68 3.37
30.47 10.0 2.28
1.38 108.53 32.52
3.16 110.35 32.44
10.25 109.91 30.83
8.68 109.64 29.06
10.76 66.77 20.88
12.44 67.75 19.89
14.84 69.01 28.86
13.97 67.9 30.44
34.86 155.73 1.91
35.55 153.38 0.65
34.26 147.5 6.4
32.72 146.08 6.95
35.96 12.53 33.55
37.8 13.79 33.6
33.69 23.14 35.01
31.78 22.02 34.31
40.88 132.3 2.18
40.2 133.67 1.02
40.45 143.36 2.82
38.88 143.31 4.2
17.89 56.58 39.97
17.34 58.74 41.57
22.67 58.79 38.33
24.11 60.5 37.86
27.96 108.43 41.78
29.3 110.23 41.963
36.85 104.93 39.85
38.5 105.99 39.91
23.37 165.99 39.97
23.78 164.67 38.05
17.21 158.83 42.163
15.31 158.18 43.583
33.2 119.96 41.57
32.5 118.79 39.65
26.83 122.35 35.97
26.2 123.93 37.39
33.98 -2.686 8.51
33.49 -2.166 6.43
34.2 4.65 14.77
34.41 2.7 15.39
16.15 172.41 1.66
15.5 169.59 1.43
15.36 163.51 3.41
15.08 164.25 5.6
40.13 28.23 30.53
38.66 28.65 28.14
31.7 23.64 28.44
30.04 23.72 30.48
46.532 23.67 26.5
44.71 24.74 26.68
42.46 23.2 35.1
43.96 22.48 36.39
6.78 9.2 17.38
7.23 11.11 17.43
17.12 11.89 21.86
16.74 13.85 22.38
2.55 124.46 32.48
2.63 122.73 31.91
3.37 125.17 22.79
1.29 125.4 24.39
29.3 88.01 7.07
30.58 89.46 5.3
26.82 97.38 1.82
28.07 97.53 0.04
12.97 151.54 11.97
11.72 149.88 13.5
7.18 141.65 14.91
8.79 140.11 14.09
25.33 104.8 18.45
25.81 107.22 18.15
27.29 112.67 21.12
27.89 111.42 22.61
-0.542 28.63 5.96
0.79 30.09 7.02
10.28 28.23 2.33
9.65 30.43 2.15
18.58 149.91 7.33
20.17 150.86 8.32
16.72 156.41 14.19
17.8 156.99 16.26
42.4 54.92 13.18
41.03 53.75 14.48
37.42 49.29 17.32
35.15 49.02 18.79
17.4 147.43 29.31
16.36 148.98 30.52
9.88 153.16 28.7
8.17 153.91 28.32
38.04 65.74 37.82
39.99 65.68 38.42
36.03 74.19 44.413
37.96 75.05 43.843
36.4 125.42 44.943
35.86 127.82 44.433
41.45 131.75 37.77
40.12 133.62 39.04
6.28 150.05 27.58
5.0 148.48 28.82
8.97 140.69 31.26
7.47 140.41 30.45
24.6 46.18 7.68
23.97 46.4 5.5
17.73 40.77 1.7
17.21 38.86 2.75
9.4 132.04 5.18
10.33 130.27 6.09
14.35 125.69 -1.843
14.07 123.89 -0.683
14.56 102.28 32.64
15.57 100.57 32.21
10.56 100.33 23.45
10.27 102.5 23.44
8.2 169.57 35.11
7.19 171.47 34.21
0.6 167.39 29.76
-1.392 167.26 30.97
31.78 140.48 2.64
33.23 142.4 3.57
38.21 133.89 6.51
36.15 133.14 6.78
-0.992 89.65 22.03
0.71 88.17 22.3
1.49 85.88 29.81
2.4 84.39 30.68
35.74 39.62 27.68
34.78 40.55 25.97
34.76 50.69 23.43
34.32 51.82 25.22
20.34 24.39 2.59
22.79 23.95 2.85
27.4 17.02 -2.543
27.2 15.63 -0.843
8.44 98.59 22.07
10.5 98.13 21.76
9.63 94.88 12.21
7.85 96.03 11.68
32.01 74.65 2.6
29.93 73.71 2.98
28.8 80.06 9.37
30.44 78.56 10.69
6.56 140.65 10.84
4.4 140.94 10.79
2.92 149.58 9.42
1.88 150.74 7.41
26.44 71.48 36.81
24.4 71.22 37.73
17.57 66.01 40.81
16.6 65.32 42.953
14.33 17.82 33.26
13.19 16.65 35.39
18.67 14.71 33.4
21.02 13.76 32.12
8.63 18.2 19.08
10.31 18.59 17.66
11.5 12.39 10.48
10.82 10.45 11.45
5.82 110.24 10.63
3.98 110.64 9.23
1.4 118.27 9.53
-0.222 117.47 8.33
10.28 34.08 40.5
8.85 31.75 40.14
5.99 30.8 30.63
8.12 30.49 30.21
36.98 77.34 38.29
36.55 79.69 37.6
33.14 84.29 38.59
31.39 83.74 40.02
21.46 14.42 10.24
22.08 16.12 8.56
30.14 20.74 4.09
31.09 18.81 4.37
33.62 174.62 35.85
34.35 176.87 35.34
30.32 184.296 30.23
28.16 184.016 30.48
1.68 50.88 34.52
0.44 50.85 32.42
5.87 57.43 29.86
6.7 56.27 31.46
5.73 10.1 6.4
3.77 11.14 6.41
5.89 19.67 8.74
5.7 20.24 6.6
4.5 58.07 33.47
4.83 58.09 35.99
6.78 62.71 40.11
7.92 63.88 41.64
20.72 48.0 29.55
21.87 46.18 29.53
25.66 50.92 26.21
25.26 52.97 25.23
19.24 41.41 31.11
19.64 42.46 32.75
12.45 47.55 36.53
14.17 46.93 37.41
13.38 24.91 14.69
11.54 23.39 14.2
14.85 13.73 11.83
13.92 13.2 9.64
4.79 152.25 8.0
7.0 151.49 6.89
5.41 146.28 0.6
6.69 145.42 -1.003
20.49 130.78 14.14
22.65 130.34 13.53
29.07 135.51 15.4
30.96 136.24 14.55
21.15 101.92 0.047
21.13 99.44 1.03
23.1 93.21 5.85
23.85 92.43 3.69
39.05 158.54 33.96
38.75 157.39 35.75
35.61 150.73 31.67
34.6 151.17 33.57
35.33 14.27 24.84
34.36 15.61 26.74
35.11 25.4 24.17
37.35 25.28 24.06
5.37 45.66 19.13
5.45 46.14 16.45
8.14 54.57 13.95
6.64 55.74 12.33
11.55 47.82 19.45
10.66 48.54 16.78
12.11 46.85 7.77
14.19 48.07 8.68
44.66 108.04 28.22
46.412 109.03 28.54
42.62 115.52 21.99
41.45 117.48 22.97
-1.462 14.36 25.85
0.76 14.24 26.29
7.24 14.8 32.75
7.71 15.46 30.71
11.31 143.41 22.74
12.18 141.54 23.07
10.61 132.47 23.0
11.77 134.33 24.43
15.22 55.89 28.32
15.65 58.24 28.67
8.66 64.68 31.78
9.99 66.44 30.69
3.18 8.74 3.99
1.68 10.41 4.51
1.3 16.81 7.89
-0.332 18.4 8.58
1.25 37.2 36.49
1.04 39.25 36.55
3.16 43.25 45.393
1.14 44.56 45.003
35.77 134.56 36.15
35.1 135.56 37.85
33.43 129.71 45.333
33.03 130.25 47.403
5.06 186.006 34.57
6.51 184.366 34.17
3.34 176.74 36.21
3.66 175.26 34.37
39.43 51.13 10.26
39.48 52.12 8.1
32.2 58.29 12.01
32.36 60.04 13.36
4.37 42.33 22.44
5.84 43.36 23.59
13.58 43.55 23.66
14.1 44.26 25.49
28.55 12.37 44.323
28.33 11.19 42.373
30.53 14.44 34.56
29.73 13.39 32.69
19.52 153.39 38.67
18.15 154.58 39.04
13.35 159.77 33.04
11.12 159.5 32.99
19.23 132.59 8.51
17.28 133.04 9.28
13.04 137.46 1.25
12.95 139.57 2.05
30.99 160.03 17.71
29.58 158.6 18.68
25.93 153.98 10.53
26.41 153.62 8.41
24.72 76.25 27.11
23.72 77.08 29.04
14.01 74.25 29.19
14.64 72.23 29.15
14.69 136.18 21.24
15.44 134.25 19.77
12.31 127.08 21.98
11.29 125.47 23.38
32.44 125.51 40.0
34.6 125.3 41.18
35.2 131.66 33.28
34.21 133.76 34.06
4.67 166.3 10.65
4.52 164.16 11.1
2.28 170.35 9.73
1.83 170.08 7.69
15.25 71.66 15.88
14.05 71.3 14.25
14.47 73.34 6.17
12.23 73.46 5.58
26.3 65.94 23.11
24.16 66.1 23.9
32.11 63.81 25.59
31.47 65.99 25.41
1.84 107.32 45.613
0.57 109.31 44.243
-0.892 112.73 35.67
0.98 113.48 35.19
33.1 36.22 35.41
32.02 35.91 33.75
33.69 26.9 34.3
35.97 26.75 33.57
25.02 3.54 26.36
23.26 4.19 27.77
24.25 -0.28 35.71
23.24 -0.726 37.72
30.8 11.28 14.0
29.38 11.79 15.37
21.64 16.35 12.25
20.24 15.49 12.92
21.4 14.53 6.5
19.54 13.48 7.44
16.9 19.86 11.37
17.66 21.95 11.13
39.42 164.57 33.39
39.72 165.12 35.33
37.53 163.73 44.443
35.65 162.41 44.253
18.78 39.1 41.65
17.72 37.2 40.05
18.43 28.69 36.49
17.83 28.91 34.11
16.94 122.2 38.86
17.08 121.71 36.58
12.77 119.06 29.43
13.95 120.41 27.82
20.58 64.12 8.64
19.12 64.73 9.78
24.09 61.05 17.35
22.68 59.9 18.61
34.4 106.76 32.3
35.77 105.46 33.05
42.34 110.11 34.09
44.42 110.75 32.28
6.29 21.61 10.57
8.36 21.25 12.08
6.76 21.01 22.7
5.98 18.79 22.81
9.02 151.55 40.52
8.21 149.59 39.98
4.98 149.25 31.4
3.71 150.8 30.58
13.13 127.02 34.21
12.36 129.06 34.71
18.38 127.24 27.0
20.53 128.36 26.4
19.19 23.45 35.29
21.07 22.5 35.9
23.97 25.77 27.81
25.83 26.5 28.17
12.48 172.49 33.19
12.14 170.22 33.59
17.49 163.43 28.17
15.54 161.89 28.81
28.91 35.44 1.77
26.95 34.9 0.45
22.95 27.66 0.75
21.68 26.42 1.25
23.03 159.66 35.07
20.94 159.76 33.22
13.1 163.46 33.81
11.68 161.72 35.2
35.26 59.12 36.69
35.81 57.09 37.32
44.812 52.97 36.01
44.36 51.32 36.21
17.6 135.28 37.63
18.14 136.1 35.26
18.73 143.63 34.55
17.26 145.58 35.88
38.12 50.0 28.71
36.64 50.68 30.41
32.14 41.74 32.69
30.43 42.45 34.18
25.06 24.14 11.83
23.84 24.25 10.12
20.33 28.45 4.22
18.15 27.76 4.03
4.67 62.93 3.43
2.37 62.68 3.82
4.07 53.79 7.6
5.19 54.25 9.6
32.72 167.77 13.96
33.57 170.09 13.7
28.64 170.1 22.14
26.44 170.41 21.77
43.75 69.67 7.71
42.76 71.42 8.95
34.92 73.48 4.97
34.03 72.33 3.96
16.39 176.18 27.19
17.4 175.62 25.19
22.18 167.71 23.25
23.9 168.43 24.31
40.09 181.116 26.85
41.85 179.96 27.66
43.64 176.33 34.78
45.332 175.45 35.95
8.41 159.67 33.01
5.55 160.35 32.54
8.69 158.45 23.2
6.92 159.51 22.14
39.84 45.14 19.57
39.72 47.33 19.53
43.43 52.9 11.08
43.66 51.38 9.72
45.292 33.85 9.38
44.83 35.37 7.49
41.05 41.94 4.88
42.61 43.18 3.28
34.33 36.48 26.49
32.82 36.95 27.82
26.75 39.42 21.2
28.05 37.38 22.08
29.33 49.23 32.83
27.87 50.51 31.62
23.82 49.66 39.74
25.71 49.78 41.22
38.84 25.52 37.53
40.08 23.5 36.73
41.52 13.46 36.98
39.38 12.57 36.44
11.49 79.48 7.45
13.59 80.31 7.3
19.06 75.97 0.62
21.25 75.89 1.01
41.77 65.8 4.18
40.15 68.12 3.97
43.43 75.58 -1.523
42.39 76.5 -2.893
31.86 65.0 30.99
32.23 64.06 28.84
31.08 56.76 34.32
30.92 59.23 35.68
23.73 160.45 12.3
23.26 161.04 14.25
23.9 164.97 22.62
23.14 166.39 20.94
13.46 87.25 28.46
11.75 88.38 28.05
14.98 86.3 20.29
14.69 87.84 18.5
49.072 62.76 15.14
47.292 64.35 15.48
41.55 67.29 14.59
40.32 68.79 13.77
45.212 155.55 11.88
45.972 156.74 9.65
43.34 160.61 6.49
43.4 162.05 4.49
19.39 48.06 10.72
17.11 47.64 10.04
16.01 45.16 19.38
16.99 46.61 20.98
16.51 113.37 26.85
17.26 114.55 28.73
8.36 115.1 34.14
6.97 115.45 31.7
10.72 141.56 8.4
12.62 141.67 9.92
15.85 139.23 15.7
17.56 140.06 16.58
12.83 132.19 14.94
14.83 131.09 15.4
19.63 130.37 22.89
20.0 128.2 23.07
27.93 121.17 32.66
26.67 120.18 34.13
30.68 115.18 39.71
31.4 113.65 41.38
14.69 71.78 34.78
14.36 71.74 36.96
7.85 66.22 40.29
7.38 64.77 38.55
11.11 167.63 34.84
13.27 166.97 34.66
12.26 162.45 43.243
10.78 160.77 43.733
34.87 168.69 11.4
36.39 167.38 12.54
42.5 165.0 5.04
44.32 164.52 5.64
34.73 94.62 13.38
32.29 96.34 13.33
28.47 100.27 5.43
26.72 99.89 4.15
22.2 15.91 34.97
20.29 15.85 35.34
16.16 14.46 45.203
16.16 16.37 44.293
10.87 50.0 7.29
12.63 50.28 8.14
14.57 53.77 11.93
13.54 55.05 13.91
37.18 25.16 35.5
39.42 24.9 33.79
42.66 22.39 26.79
42.3 22.92 24.64
37.26 15.1 3.28
35.24 16.07 4.76
39.42 11.07 12.74
38.77 13.08 13.29
-3.592 139.98 36.96
-2.002 141.46 36.05
5.81 140.61 41.58
5.78 142.68 40.82
40.73 119.08 37.72
38.86 118.9 36.25
35.74 126.02 32.73
33.9 127.38 33.29
20.61 81.87 18.51
19.67 80.11 18.91
25.74 83.02 23.48
25.6 83.75 25.38
24.13 133.51 29.73
23.2 131.49 28.63
31.93 127.49 31.17
30.41 127.53 33.37
10.21 9.26 44.073
12.56 10.05 44.723
13.49 17.64 40.09
14.44 18.26 38.46
0.86 12.64 17.26
2.76 12.59 16.03
0.44 6.26 11.29
0.84 4.67 9.02
25.63 11.79 2.02
23.81 12.27 1.43
17.75 6.44 0.22
15.84 6.7 -1.433
28.47 0.064 37.93
30.43 1.13 36.91
34.2 8.38 32.78
33.18 10.52 33.73
27.31 57.59 8.18
25.93 56.04 8.27
26.6 52.54 16.81
27.55 54.29 18.45
11.51 86.38 29.89
12.47 84.78 31.86
4.5 83.19 32.22
2.24 82.42 33.04
0.49 21.39 25.72
-0.612 20.26 27.02
2.49 19.52 36.53
4.28 17.48 37.07
28.77 23.63 4.11
26.88 24.83 3.75
20.72 18.26 10.28
21.65 19.33 11.97
36.18 76.47 14.2
36.68 74.89 13.8
30.12 71.01 10.37
29.23 70.42 8.19
31.89 6.14 30.03
34.25 5.93 30.45
39.32 12.84 25.59
39.66 14.23 23.77
6.64 75.02 0.43
4.91 73.99 -0.143
1.45 73.95 6.54
1.07 75.95 6.92
9.1 108.28 0.187
7.89 106.68 1.13
12.1 98.01 -1.563
13.16 96.61 0.7
8.87 120.2 6.27
6.79 119.37 6.41
3.97 111.43 3.85
2.7 109.88 5.57
3.56 19.43 23.79
3.81 17.18 24.15
-0.872 9.84 23.9
-3.212 9.55 24.38
2.22 97.23 12.73
2.72 97.88 10.71
9.6 103.37 5.39
8.06 105.04 4.97
11.83 146.05 24.51
11.83 147.58 22.83
15.96 154.34 29.13
14.53 153.52 30.75
8.87 130.98 30.23
9.23 132.79 28.39
12.98 138.73 36.29
15.39 137.85 35.61
32.32 155.61 26.11
33.87 154.93 27.43
36.32 159.26 34.96
34.51 159.67 35.81
22.89 176.46 18.26
24.95 176.21 17.38
26.19 182.786 10.7
27.17 184.876 11.7
31.08 177.26 5.26
33.08 176.72 4.13
30.44 179.21 -2.413
32.1 180.286 -3.003
15.8 83.47 36.26
18.28 83.02 35.23
16.24 82.44 25.65
16.52 79.89 26.73
25.45 32.2 10.21
25.07 29.52 11.63
16.15 26.12 13.36
14.95 26.35 11.53
18.98 87.49 13.43
20.31 89.22 13.91
23.48 83.77 16.74
22.97 81.37 16.35
21.64 167.54 0.8
22.12 165.75 0.67
21.41 165.3 8.27
22.16 166.56 9.9
14.62 128.01 37.28
14.21 130.04 36.63
5.2 127.7 42.563
5.92 129.14 43.863
8.48 77.32 8.06
6.46 76.58 9.13
11.52 73.78 12.92
12.69 74.97 14.91
23.13 111.64 30.49
21.15 111.71 31.63
24.87 109.59 38.49
25.01 107.79 39.26
20.68 86.1 33.66
22.55 84.97 32.66
29.35 88.06 37.59
30.39 88.96 35.69
40.15 68.49 16.77
38.27 69.63 17.97
33.69 64.3 10.73
35.02 63.04 11.91
13.75 6.4 22.37
15.11 4.98 20.77
16.49 11.62 14.03
18.11 11.48 15.81
4.1 30.17 14.49
2.17 30.9 15.66
2.58 37.99 22.33
2.1 40.43 21.8
41.21 161.01 19.32
39.13 161.64 19.81
39.4 171.05 19.04
37.8 171.84 20.29
-0.882 145.63 33.29
0.58 143.74 33.03
4.69 148.76 41.03
6.44 147.75 39.37
15.19 63.03 4.61
16.4 61.0 5.17
7.16 56.78 8.77
8.15 55.14 10.07
17.85 115.53 19.53
16.54 115.15 17.65
8.11 118.38 19.81
6.97 119.29 18.19
3.32 11.94 18.49
4.32 10.83 17.16
-1.332 5.81 13.75
-2.302 6.66 11.94
46.432 105.5 41.05
43.62 105.87 41.64
39.41 110.22 35.74
37.46 110.36 35.69
31.44 76.47 23.29
31.15 74.52 24.74
36.74 73.19 19.54
36.5 75.63 18.81
34.3 13.62 3.8
32.02 14.26 3.63
35.16 22.26 -2.493
34.07 23.91 -0.973
35.84 66.34 20.45
35.3 65.53 22.39
30.7 68.94 15.98
28.32 68.68 15.89
5.04 130.33 28.8
3.81 128.61 29.73
10.96 123.5 33.28
12.26 121.98 33.08
28.89 59.43 -2.823
30.23 59.79 -1.563
24.92 59.28 6.66
22.93 59.43 6.55
38.49 104.61 18.37
41.08 104.31 17.51
40.1 94.35 19.45
40.02 92.14 18.58
8.18 141.37 17.42
9.2 139.19 16.45
2.17 134.56 15.46
2.61 133.23 17.14
28.65 103.25 34.27
26.74 104.43 35.96
33.39 103.34 42.07
34.14 100.98 42.533
39.77 106.27 16.47
40.73 105.82 14.76
43.31 112.63 8.7
45.142 113.32 7.52
22.54 117.58 33.77
22.47 117.48 36.18
27.59 112.14 43.533
26.41 110.13 43.503
40.08 101.99 11.51
39.98 103.65 10.01
43.55 103.35 1.04
45.372 104.71 1.64
19.16 11.16 18.23
20.08 9.04 17.56
26.66 15.29 21.69
28.44 16.03 20.41
41.32 60.03 28.46
40.99 58.63 29.66
39.82 64.38 35.91
41.8 64.79 36.3
-4.992 159.69 16.51
-2.172 160.37 16.94
6.15 158.45 19.64
4.78 157.73 21.13
39.48 131.23 19.01
39.21 128.98 19.68
38.51 124.4 10.41
40.89 125.27 11.23
8.51 79.0 6.03
7.08 78.78 3.77
12.89 74.93 -2.923
11.86 73.17 -4.213
16.92 126.21 31.07
19.13 125.27 30.64
19.83 134.02 35.26
19.23 133.11 37.32
17.39 174.42 13.93
17.33 172.16 14.86
12.45 166.12 10.81
12.22 165.79 8.14
14.68 173.03 4.29
13.36 171.38 4.43
11.91 166.49 3.01
9.76 165.78 1.48
17.19 81.66 9.02
15.35 80.69 9.47
18.23 74.74 15.95
18.87 75.99 17.85
18.08 19.02 34.57
20.06 18.89 36.32
16.5 19.37 43.913
17.0 20.5 45.883
26.82 92.49 35.05
28.46 93.54 33.98
28.75 100.97 32.86
27.01 99.45 31.77
33.95 160.28 1.06
33.17 161.33 2.36
26.9 155.94 5.23
25.78 156.97 6.69
30.68 92.16 33.53
32.09 90.57 33.21
33.37 88.99 23.55
34.54 87.1 24.26
9.41 172.72 32.81
8.4 174.55 32.91
5.6 182.106 32.16
6.58 183.396 31.57
24.9 97.12 23.03
22.81 98.01 23.55
25.94 94.4 31.79
28.04 95.53 31.79
5.23 185.466 18.85
3.42 184.146 19.22
4.92 175.56 15.32
3.75 173.75 16.14
19.7 60.24 35.89
21.42 62.09 35.61
23.48 67.36 27.65
25.7 68.41 27.01
34.71 101.43 4.28
35.29 103.72 3.19
40.56 110.68 5.86
40.67 110.65 8.0
45.922 32.72 6.08
46.772 33.1 4.07
38.25 32.79 2.26
36.47 33.77 1.79
9.75 152.3 1.21
8.57 153.74 0.73
0.71 147.8 0.81
0.09 147.09 3.02
15.57 72.12 32.04
14.71 74.5 31.76
20.43 81.86 30.66
21.77 81.71 28.95
17.41 162.64 23.34
18.0 163.08 25.2
11.5 170.8 25.82
10.64 171.85 28.01
16.99 73.73 36.88
16.74 75.44 37.57
12.62 75.84 46.423
10.65 75.26 45.903
45.0 64.28 7.4
45.882 65.91 7.17
41.88 70.82 12.13
41.22 71.34 14.14
2.3 81.73 23.5
2.46 80.98 25.16
9.5 86.71 28.38
8.79 87.91 26.92
44.882 88.63 40.04
45.172 87.29 38.14
44.27 78.05 40.95
43.82 76.08 42.973
31.99 8.48 14.87
30.99 8.69 16.99
32.43 1.67 25.18
33.54 0.164 24.26
5.68 68.03 25.96
4.96 70.44 25.54
10.99 76.58 26.26
10.15 77.66 24.75
5.49 162.41 40.0
3.55 163.05 40.23
3.0 161.88 30.48
3.11 163.84 29.73
23.28 96.49 11.77
22.96 96.48 9.26
27.02 102.96 5.79
27.65 104.86 5.03
42.45 121.84 10.15
43.19 119.42 10.0
42.06 116.31 19.48
40.52 118.03 19.47
13.88 62.02 22.4
12.78 63.89 21.92
19.67 71.33 24.83
18.97 70.88 26.66
35.75 147.04 20.69
36.12 148.68 19.22
31.86 155.86 23.56
31.27 158.19 22.96
20.41 161.38 25.94
19.84 160.75 23.98
22.55 158.55 15.98
20.52 159.45 15.47
35.47 173.51 34.09
35.89 172.83 35.83
37.14 168.09 43.803
35.65 168.68 44.863
31.09 29.5 14.52
31.01 28.45 12.73
34.08 25.6 6.09
32.77 24.11 7.32
28.66 142.82 30.49
27.66 141.16 30.35
25.48 134.54 36.34
27.25 134.02 38.25
11.16 49.84 0.99
12.0 51.68 -0.513
4.26 53.97 4.74
4.09 51.77 4.22
19.45 174.81 32.38
20.72 176.48 33.59
12.72 181.216 38.53
13.92 183.296 38.12
38.06 132.53 27.51
39.41 134.55 27.2
45.422 132.66 20.36
47.242 130.96 19.36
21.83 45.13 15.29
22.73 45.87 13.11
19.95 38.71 5.63
20.27 37.7 7.51
30.58 144.12 6.31
30.75 141.96 7.31
29.14 139.79 5.6
30.37 137.41 4.74
3.38 152.12 26.09
4.53 153.9 26.13
-2.022 159.11 29.52
-2.932 159.95 27.59
38.86 146.79 17.38
38.27 144.7 17.16
35.99 141.26 25.03
35.17 139.04 25.16
3.11 135.38 12.06
5.1 135.56 11.27
13.99 137.28 15.99
12.42 139.15 16.37
36.47 146.27 4.18
34.87 145.01 5.23
37.95 143.82 13.25
38.59 145.84 14.33
33.48 163.56 37.73
33.74 161.01 38.17
25.29 160.14 36.44
24.17 160.74 37.91
36.91 144.28 31.53
37.19 144.03 33.36
35.68 139.31 37.38
35.26 139.58 39.81
35.56 36.0 13.94
35.95 34.73 16.07
41.6 34.09 22.72
41.0 35.56 24.68
13.87 176.9 25.64
14.47 177.86 23.69
13.94 168.12 20.82
13.04 168.97 18.85
40.55 157.95 26.39
40.01 157.38 28.24
36.19 151.46 28.35
35.39 152.64 26.67
9.33 95.49 9.08
11.17 95.81 10.1
11.15 106.69 8.3
11.12 108.03 9.57
4.77 174.45 12.58
6.86 176.07 12.65
2.07 183.406 6.3
0.14 183.286 7.03
9.51 57.94 29.39
10.78 56.14 29.47
12.17 49.48 23.39
10.59 49.26 21.56
4.68 163.25 18.07
5.85 163.67 19.89
3.19 168.32 25.86
4.53 169.53 28.1
17.67 7.65 24.82
17.96 9.48 24.56
16.18 17.61 24.56
14.57 17.47 23.0
22.25 92.0 9.81
22.44 93.69 11.33
27.9 97.84 14.11
29.81 96.63 15.57
27.22 45.13 6.77
28.88 44.06 6.21
35.27 49.64 9.65
36.26 51.33 8.45
40.71 51.23 1.04
41.56 50.85 2.8
41.94 49.04 9.02
41.84 51.06 7.68
7.55 157.01 0.127
8.75 156.74 1.48
1.3 152.59 5.43
-0.242 153.85 7.04
21.29 68.09 24.17
21.24 65.24 24.32
18.94 59.11 24.85
17.12 58.96 23.42
3.51 122.06 22.35
1.78 122.88 23.1
0.81 119.9 32.11
-1.392 119.35 33.34
8.86 173.21 26.33
7.22 172.43 25.65
0.83 169.27 27.47
-0.872 169.29 28.21
10.59 139.04 38.87
9.75 140.15 36.66
6.15 132.32 32.73
6.65 132.79 30.74
45.412 57.86 18.27
45.052 57.72 16.12
39.89 61.47 9.69
37.73 62.72 10.36
14.49 65.4 6.07
15.42 64.03 7.11
7.36 61.96 8.82
6.41 60.41 7.4
11.44 72.57 42.323
12.93 73.94 41.41
21.13 74.35 40.66
23.13 74.18 40.1
21.23 174.87 13.44
19.79 173.43 12.98
15.02 168.82 5.32
16.11 170.63 3.78
6.16 32.26 28.56
6.61 29.42 28.23
0.91 24.74 23.99
-0.982 24.91 22.45
22.77 59.98 9.01
23.93 58.42 10.25
18.79 51.57 10.7
17.14 50.82 9.91
12.64 90.15 30.2
10.74 91.83 29.45
1.6 87.94 31.59
-0.022 88.94 30.87
31.88 114.3 18.46
29.57 115.57 18.48
31.84 113.66 9.88
30.05 112.34 8.34
30.26 143.12 3.83
30.79 142.86 1.51
33.69 151.35 0.81
33.12 151.51 -1.153
4.4 62.47 6.97
2.23 62.7 6.57
2.31 57.05 14.75
1.34 55.24 15.06
29.64 58.35 4.77
31.38 56.07 4.58
33.47 58.92 -3.223
31.48 58.51 -3.673
-3.492 35.2 30.2
-1.502 35.32 31.0
3.63 37.14 25.16
5.98 35.69 24.44
28.41 5.79 15.46
25.89 5.74 15.65
21.71 3.9 23.81
20.43 5.05 24.59
4.58 164.77 15.83
6.98 164.93 15.71
7.91 173.65 13.33
8.94 174.02 11.37
2.79 105.32 28.19
1.39 106.1 29.4
3.98 99.11 35.54
1.77 99.33 36.81
8.48 67.34 5.46
9.42 66.15 7.42
18.44 67.56 8.63
18.49 67.24 10.7
15.3 4.25 0.087
16.99 4.34 1.59
13.68 -1.366 6.35
13.05 -3.476 5.3
41.8 97.08 27.62
39.4 97.5 27.63
40.42 106.77 25.83
39.91 108.93 26.54
26.84 9.69 28.18
25.67 8.37 26.54
20.48 15.21 24.45
19.64 14.78 26.44
23.95 155.47 24.28
22.86 153.25 23.75
15.52 158.93 24.16
16.45 160.99 25.16
25.89 49.11 4.73
24.11 50.68 4.16
16.78 46.27 -1.203
16.14 45.22 0.28
2.9 34.66 33.54
4.57 36.08 32.01
6.54 43.06 34.49
6.02 42.3 36.88
17.98 98.48 12.28
18.86 98.42 10.36
17.78 104.62 2.67
16.06 105.46 3.93
22.66 47.29 9.89
23.17 49.55 9.21
24.28 54.12 16.91
24.98 55.94 16.88
22.18 148.9 6.72
22.62 151.16 5.34
24.43 146.54 -2.093
26.44 146.71 -0.943
43.58 35.42 25.8
44.17 33.32 26.71
42.93 28.18 18.51
42.2 29.38 16.62
10.66 135.24 5.22
9.24 136.79 4.62
10.63 142.86 -0.253
8.79 141.15 -1.113
36.85 41.92 32.7
39.01 42.52 31.41
44.82 40.13 23.49
46.282 38.59 24.74
28.39 174.97 23.45
26.92 175.96 22.82
20.46 174.82 29.62
21.98 176.44 31.13
25.38 56.39 37.83
24.39 57.66 36.82
24.48 53.79 28.15
23.85 51.42 28.61
29.76 22.21 11.38
31.69 24.08 11.5
27.7 21.65 19.23
27.47 24.13 19.88
24.44 57.48 18.91
25.95 56.9 21.0
33.39 62.83 22.73
35.35 62.98 23.68
6.96 100.74 14.57
7.14 102.78 15.46
4.32 110.31 17.77
3.62 111.48 19.27
23.01 134.31 2.06
21.95 133.24 3.58
16.18 141.92 3.23
17.59 143.8 1.75
12.72 29.17 18.29
15.24 28.64 19.46
11.77 20.97 17.91
10.02 20.8 19.12
5.72 64.07 12.09
6.35 64.69 14.1
13.05 68.72 17.24
12.59 71.14 16.53
36.76 156.64 17.35
36.53 154.45 17.06
39.2 157.88 23.75
37.9 159.06 25.5
37.57 106.76 20.12
39.56 107.14 21.24
40.92 114.91 14.84
39.3 114.57 13.02
43.34 101.07 41.27
41.88 102.58 40.32
41.84 97.3 30.85
42.65 99.06 29.42
40.12 160.76 32.37
40.33 159.9 30.67
30.98 161.65 29.19
30.97 161.16 31.4
33.44 36.29 45.293
32.28 38.03 44.423
32.82 39.28 35.0
30.8 39.91 34.43
41.12 19.49 12.32
42.13 20.1 10.12
35.43 18.6 4.23
33.16 20.2 3.34
7.15 32.57 13.66
9.4 33.22 13.96
15.82 32.47 6.01
17.12 30.33 5.81
31.88 124.32 25.58
31.03 122.46 24.52
23.38 119.46 20.92
22.51 119.58 19.39
22.9 97.05 20.31
24.15 94.77 20.83
24.89 86.68 18.71
27.42 86.29 19.25
35.41 155.23 34.54
34.74 156.82 35.6
30.83 151.82 36.4
29.63 150.13 34.61
24.28 54.54 19.89
23.88 52.47 19.44
21.51 47.79 15.32
20.62 47.91 13.38
39.23 173.27 16.9
37.24 171.93 17.46
32.37 177.94 23.96
33.93 178.3 22.74
5.34 34.93 38.81
3.86 36.13 39.33
-1.612 38.52 39.4
-1.542 38.06 36.69
24.09 82.92 29.64
26.1 83.86 28.41
33.35 88.07 32.76
33.19 88.56 34.57
10.96 100.76 4.5
10.13 98.83 3.75
14.41 92.64 -0.303
13.54 90.74 -0.203
25.36 161.88 -0.813
25.03 164.08 -0.623
32.98 166.9 4.64
32.33 165.33 5.77
23.58 101.02 18.37
22.06 100.49 20.34
17.45 109.74 20.49
19.05 111.04 21.46
36.73 149.58 22.94
38.03 147.74 23.4
41.53 150.34 15.13
41.1 148.09 14.95
9.84 15.76 21.07
11.17 17.59 20.67
19.15 18.43 15.68
18.94 17.78 13.25
33.47 121.97 28.03
31.96 120.51 29.19
30.59 122.94 35.23
29.12 123.17 37.29
24.5 172.34 16.12
25.26 174.14 15.36
34.5 177.06 16.04
34.14 179.01 15.3
27.04 103.48 16.46
26.61 105.55 15.59
28.05 107.89 8.68
26.27 106.67 9.39
19.7 116.87 35.99
17.52 116.5 36.54
13.41 109.46 30.87
15.41 107.98 30.34
34.73 114.3 14.14
36.29 113.23 13.87
32.31 108.07 17.29
31.86 105.72 18.35
51.072 78.4 12.79
49.262 78.26 14.78
39.49 74.75 16.53
37.95 76.34 15.99
9.57 109.7 11.72
11.64 110.5 12.3
15.39 114.04 15.12
13.84 112.06 14.92
43.6 171.65 12.61
41.86 173.63 13.05
34.59 170.13 5.28
33.97 172.3 5.06
17.96 177.94 10.09
18.3 177.39 12.37
12.36 181.846 18.27
11.71 181.976 16.44
20.71 5.78 11.87
23.28 4.13 12.49
17.74 5.06 22.13
19.0 2.69 23.08
34.66 80.58 24.86
36.18 81.33 26.06
44.762 79.56 23.43
44.712 80.72 25.63
20.82 6.84 -1.823
22.99 6.08 -1.683
26.14 3.48 7.89
24.68 2.11 7.62
33.59 30.42 3.88
31.48 31.36 3.52
27.97 30.92 11.27
28.74 31.16 13.34
12.38 58.99 17.77
13.08 57.65 16.81
6.81 59.54 9.96
5.5 57.7 10.75
28.84 74.38 -3.323
27.6 75.39 -2.783
23.48 74.88 4.78
25.01 74.29 6.08
13.43 92.45 14.22
13.12 90.55 12.98
8.47 89.85 4.58
9.03 87.5 3.53
38.45 108.35 24.04
36.57 107.06 24.68
30.98 114.9 21.01
29.35 115.06 22.42
22.72 130.78 25.29
23.05 130.59 22.97
30.68 125.69 21.15
32.11 127.84 20.33
28.78 47.24 36.73
30.81 46.0 35.92
39.63 47.72 32.16
41.47 46.46 33.08
45.552 4.24 20.07
44.2 2.75 20.29
42.42 -1.666 13.91
41.78 -4.126 14.36
15.16 52.42 -1.923
14.35 53.03 -0.1
21.0 48.49 7.9
19.05 49.69 8.45
30.18 172.08 5.97
31.63 173.11 4.39
31.63 167.98 -4.783
33.78 167.74 -5.473
27.21 144.61 14.29
27.37 144.07 16.25
36.2 145.09 15.37
36.62 147.65 16.35
28.78 148.63 -3.663
30.69 150.13 -2.913
27.32 153.42 5.52
27.59 151.56 6.39
22.16 171.38 17.14
23.3 169.83 18.1
14.03 165.82 19.35
12.64 164.32 20.63
20.69 33.79 6.16
21.24 34.93 8.61
19.76 33.66 15.0
17.5 33.41 16.77
34.76 87.28 27.82
34.34 85.77 26.69
29.43 79.27 25.51
31.27 78.35 27.36
4.91 37.43 10.85
2.94 38.36 12.15
-1.262 32.55 12.4
-1.382 32.2 15.03
19.88 172.29 33.35
21.55 173.29 31.68
27.72 172.73 24.68
28.85 171.48 25.73
22.29 76.49 38.93
23.61 77.96 37.52
19.34 84.44 37.48
19.65 85.77 36.09
24.61 68.51 19.58
24.61 65.68 19.89
29.21 62.29 12.19
31.23 63.14 11.56
31.0 34.83 27.6
32.64 33.27 27.04
40.43 32.19 32.52
41.72 31.23 30.76
42.62 85.78 30.37
44.26 84.47 31.12
39.2 78.72 37.3
40.12 78.0 38.74
16.68 41.43 7.06
16.32 43.32 8.52
18.47 37.31 16.71
18.7 38.72 18.48
14.85 117.21 37.42
14.59 114.93 38.8
10.79 109.39 40.24
10.9 110.24 42.243
35.29 59.59 33.27
37.79 60.25 33.37
38.59 58.27 25.23
38.37 56.47 27.05
23.8 -1.166 22.41
23.11 1.12 22.92
20.07 0.56 12.53
20.15 -1.246 11.08
46.132 62.19 21.33
44.82 63.41 20.38
35.86 62.43 18.37
36.25 64.02 19.37
6.79 112.79 42.853
6.59 114.91 42.393
-0.652 115.38 36.37
-1.422 117.27 35.18
3.98 66.07 13.84
6.5 67.61 15.05
0.95 75.37 9.61
2.82 76.67 10.24
33.85 65.25 27.09
34.91 67.34 26.8
41.54 69.53 31.94
43.04 71.01 31.53
7.5 91.73 16.06
8.06 89.24 15.54
12.8 85.18 19.42
13.7 83.01 20.51
42.19 88.49 16.98
42.53 86.92 18.37
35.81 82.28 21.35
36.04 82.88 23.49
42.88 97.06 8.89
41.28 96.64 9.33
42.84 91.76 16.6
42.68 91.78 18.59
21.54 142.12 3.57
21.64 143.0 1.77
20.33 149.25 -3.693
18.28 149.53 -3.903
22.27 93.7 32.67
24.34 93.78 34.48
25.14 97.48 40.9
24.14 98.81 42.483
30.55 101.97 5.31
30.71 100.77 3.66
24.82 105.28 -3.233
24.08 102.87 -4.233
7.42 21.5 2.06
5.72 20.54 3.61
7.87 10.45 3.78
5.55 10.63 3.75
26.43 7.34 29.32
25.8 5.4 29.46
23.62 4.52 38.04
23.0 2.57 38.29
7.1 12.62 31.15
5.79 11.65 30.1
-3.012 10.89 33.13
-3.792 10.38 35.2
19.72 171.33 15.46
20.89 171.18 13.59
13.04 166.19 14.24
13.37 167.72 15.75
35.89 48.09 15.32
34.72 47.2 16.91
26.11 50.54 18.52
25.87 51.03 20.84
36.77 178.91 35.42
36.91 176.57 34.73
40.73 170.79 27.73
41.4 171.68 25.94
4.62 168.73 8.91
6.33 168.32 9.77
11.78 176.17 7.62
12.66 174.99 9.13
13.21 20.54 42.243
13.89 20.67 40.05
8.32 25.65 34.75
7.23 27.54 33.7
21.6 152.53 27.87
23.38 151.5 29.42
24.96 145.21 30.81
24.94 143.3 30.73
28.54 153.79 24.37
28.44 156.29 23.13
31.41 153.31 30.96
31.58 155.15 32.37
10.32 155.94 28.56
11.84 156.22 30.47
4.7 157.03 35.88
2.85 157.04 36.57
36.4 64.84 40.08
37.96 63.35 38.94
43.53 55.92 37.96
43.94 54.97 40.44
46.882 148.1 29.83
45.602 147.15 31.08
38.21 146.27 30.67
36.19 146.87 30.2
26.84 46.55 46.173
28.62 45.03 45.533
25.79 40.81 36.87
27.83 42.91 37.19
25.15 123.4 18.6
25.54 125.98 17.84
33.93 121.39 13.34
35.49 123.11 13.01
26.57 112.61 4.01
25.71 114.53 2.87
20.25 117.71 1.85
19.35 119.59 1.23
32.19 117.91 18.8
33.37 116.37 17.83
39.78 112.46 25.24
41.62 111.24 24.42
19.27 29.84 20.9
20.35 29.54 23.04
18.3 30.91 32.17
16.05 30.14 31.83
16.98 106.39 34.03
18.61 104.78 35.18
12.75 97.51 37.48
13.18 97.44 35.53
39.63 138.84 26.01
40.82 136.94 26.82
48.372 135.36 29.79
49.582 134.25 28.03
33.8 55.36 6.46
32.13 55.73 7.73
36.51 51.48 11.36
38.58 50.52 12.63
2.34 59.01 20.07
4.15 57.53 20.72
13.11 59.51 23.24
14.64 58.17 21.66
16.51 -1.746 25.4
17.7 -1.846 26.81
17.24 2.42 35.01
16.35 4.75 34.09
19.95 112.44 28.95
19.18 112.79 27.04
26.64 108.05 23.3
26.09 105.62 23.37
15.97 81.47 6.73
14.72 81.29 4.88
11.87 82.6 -3.353
10.49 81.13 -2.143
21.08 81.4 40.69
20.44 79.69 39.18
14.27 75.53 36.45
13.18 73.88 35.46
38.73 152.69 5.8
39.92 150.76 7.44
32.81 149.29 9.74
31.08 150.17 11.01
37.46 174.8 37.23
38.73 176.03 38.24
33.43 182.176 42.823
32.1 182.396 44.233
16.86 82.99 20.03
16.08 83.89 21.71
21.86 84.45 29.76
22.6 86.66 29.88
39.6 34.62 13.67
41.13 36.44 12.92
36.26 34.83 4.33
36.2 36.55 2.93
20.23 68.85 28.65
19.0 70.44 29.5
21.33 78.17 35.59
19.95 77.3 37.71
33.84 132.05 8.42
33.03 130.15 9.61
33.49 127.36 17.93
33.31 125.52 18.91
29.53 47.2 30.91
27.26 47.14 30.87
32.34 39.85 30.69
31.79 38.35 32.45
31.72 4.76 2.88
31.87 6.65 3.4
39.14 6.29 9.99
40.85 6.19 9.01
28.32 118.88 21.17
30.1 117.35 20.72
35.25 114.23 27.52
37.13 113.24 28.06
8.83 52.18 8.32
6.85 52.42 9.85
5.38 43.82 13.22
5.51 42.75 11.2
31.9 135.87 27.1
30.43 135.97 24.66
23.46 134.65 26.84
23.97 136.69 25.95
39.59 40.37 37.5
37.6 39.49 36.59
30.81 45.72 39.31
29.8 45.87 41.01
26.87 37.83 8.76
25.05 39.22 9.34
21.24 37.1 17.6
20.81 34.71 17.31
30.42 52.3 27.61
29.46 52.51 29.66
37.8 49.95 32.98
38.79 49.42 34.51
27.31 138.62 29.1
29.14 137.55 29.96
34.48 131.75 28.08
36.1 132.42 29.44
33.64 11.64 21.24
33.52 11.83 23.39
27.39 6.08 27.19
27.49 3.93 27.01
-3.022 99.98 12.93
-0.402 99.0 13.44
3.37 102.73 20.61
3.04 104.59 21.9
-2.312 150.35 6.17
-1.682 152.29 5.68
1.68 152.01 -2.033
3.97 151.26 -2.083
31.31 173.11 25.66
32.89 172.82 27.17
30.85 170.18 33.79
31.85 168.04 34.45
31.3 126.09 35.98
30.36 125.33 38.23
30.53 135.33 37.89
30.23 134.02 36.12
18.14 57.81 37.65
16.55 56.76 36.19
12.0 65.74 32.69
13.39 65.25 30.67
21.53 122.58 -2.433
20.48 122.52 -0.303
23.73 122.53 8.08
25.97 121.34 8.09
18.58 145.8 6.33
19.53 148.17 5.11
9.72 149.17 0.83
9.99 147.27 -0.833
30.2 136.42 17.6
31.15 135.89 19.1
39.14 142.04 16.15
37.64 141.3 14.33
11.43 154.53 41.823
10.28 156.33 41.03
4.59 155.03 37.81
3.03 153.4 37.17
40.69 24.38 21.18
40.33 22.85 19.67
36.45 15.77 18.09
38.28 15.89 17.25
39.38 16.15 10.79
37.33 16.18 10.77
31.11 22.18 6.53
30.31 22.71 8.41
9.81 138.72 29.58
9.88 138.5 27.51
1.74 137.04 21.92
0.66 134.98 21.93
40.62 1.17 20.23
39.39 1.6 18.92
36.03 -2.506 13.08
35.51 -2.586 10.98
5.95 120.8 15.67
5.74 119.06 14.64
6.07 112.7 16.67
6.7 110.69 16.05
42.69 86.8 9.63
43.99 85.69 11.1
36.66 79.85 11.74
36.08 78.73 9.71
33.68 62.44 19.86
33.45 61.77 17.31
29.62 59.73 12.67
28.25 59.65 10.85
38.21 107.5 35.71
38.67 105.59 37.06
47.642 106.39 37.92
49.992 106.52 37.51
5.69 81.07 14.26
6.12 79.99 15.67
14.94 80.41 20.78
16.9 80.12 20.1
38.5 10.32 37.76
36.81 11.26 39.36
29.91 17.01 38.33
30.61 18.87 37.16
20.19 96.6 41.35
20.64 94.74 42.123
27.98 89.28 40.01
29.93 90.58 40.5
41.22 49.06 39.16
41.11 49.03 37.02
32.59 47.53 40.36
33.33 49.28 41.14
22.78 11.11 40.24
20.59 11.54 41.13
19.37 5.18 38.55
18.36 4.27 40.14
33.43 103.75 20.33
32.04 102.91 19.04
30.95 93.5 21.77
30.2 94.03 24.24
2.04 113.03 32.02
4.16 113.49 32.22
3.36 116.04 22.36
4.25 117.65 22.78
36.25 169.83 13.65
36.7 169.94 15.63
40.25 164.16 17.35
38.43 162.47 16.61
9.67 152.97 9.53
9.71 153.52 7.21
13.71 161.29 6.24
12.42 163.13 6.01
16.46 149.15 19.03
17.01 150.69 17.42
17.35 147.56 8.1
16.14 145.67 7.71
29.15 69.33 39.33
29.78 71.17 38.12
39.16 71.8 38.06
40.23 72.98 36.66
17.13 21.92 25.15
15.92 20.24 25.17
17.09 25.74 24.12
18.97 24.91 22.23
1.18 64.98 2.43
3.48 65.38 2.86
10.07 67.72 3.27
11.66 69.1 2.3
9.67 184.786 33.41
11.21 185.186 31.34
11.65 175.71 33.54
13.46 174.97 33.14
36.75 44.49 11.08
35.26 46.03 12.42
27.63 40.76 10.57
26.07 40.01 11.95
9.34 101.11 16.33
9.65 102.98 16.1
14.62 110.38 13.07
14.25 109.83 11.24
20.73 179.45 26.29
19.76 177.84 25.05
24.09 176.16 20.99
25.54 174.13 21.42
20.57 7.11 28.78
18.87 8.62 27.7
27.9 14.07 30.56
27.12 13.88 32.62
17.51 4.49 24.85
18.8 5.52 26.69
21.02 5.0 35.5
20.86 3.31 37.2
42.89 32.46 9.15
43.45 29.61 9.0
37.69 30.08 4.32
37.97 27.84 3.54
27.74 107.98 39.21
27.88 110.13 39.57
33.52 105.73 35.4
35.83 106.13 36.17
35.76 2.43 2.08
36.32 4.1 1.61
38.01 12.64 2.12
37.54 11.78 0.53
15.84 11.7 5.49
15.71 9.65 6.0
21.87 4.59 9.89
22.16 2.43 10.78
14.39 48.71 -1.973
14.22 46.18 -1.863
14.87 47.81 6.12
16.95 47.69 7.4
36.4 3.99 28.07
35.71 3.41 30.11
35.1 0.88 38.9
37.96 0.2 38.22
19.38 73.08 18.06
21.19 72.94 19.39
21.97 75.71 9.72
23.61 74.3 8.52
29.71 69.68 31.9
29.84 69.75 29.64
26.63 70.33 21.19
25.65 68.36 21.92
25.28 168.65 19.59
24.22 167.05 18.36
23.64 171.17 13.83
23.9 173.82 13.18
20.93 119.72 16.73
20.12 118.31 18.17
18.97 123.49 25.66
18.15 125.59 24.83
9.85 178.94 19.84
12.02 178.73 19.67
20.84 176.22 15.71
21.7 174.54 16.93
24.03 126.02 7.02
26.17 126.23 8.17
31.9 132.3 13.79
31.7 134.38 12.68
-0.652 86.28 16.38
1.61 87.03 17.13
2.69 94.66 13.6
3.43 94.55 11.47
26.58 168.02 38.6
25.14 167.03 37.08
20.43 165.41 31.55
18.47 164.14 30.63
25.08 68.88 34.34
24.68 71.09 34.92
21.57 70.37 27.05
23.1 69.57 25.69
43.78 106.61 3.31
43.28 107.76 1.54
37.07 114.3 -1.703
35.06 114.84 -1.113
3.23 5.4 7.4
3.51 4.9 9.17
8.84 8.99 5.71
9.16 10.5 6.87
24.67 165.57 2.91
24.36 164.6 4.71
17.34 160.19 6.98
16.18 161.63 5.47
34.29 99.05 26.02
32.97 100.5 26.24
28.45 108.57 25.64
29.65 110.37 24.55
37.75 14.57 -0.883
38.53 16.16 1.15
34.94 24.68 3.49
35.04 25.47 1.48
14.0 66.11 3.03
14.0 67.82 4.67
21.49 72.72 8.91
19.76 73.7 9.71
25.29 50.02 7.22
25.78 48.62 8.45
24.11 46.79 15.84
23.93 49.18 16.03
17.24 16.74 31.28
16.75 19.06 31.24
13.04 26.16 29.07
13.87 28.26 29.61
7.2 43.38 6.78
9.92 43.94 6.76
15.86 39.04 0.21
15.66 37.16 -0.253
5.18 53.12 35.41
5.42 55.13 36.1
14.04 59.21 32.11
15.28 57.5 31.38
28.54 15.76 35.94
27.64 17.8 36.72
28.29 25.43 32.33
29.72 27.22 32.96
3.88 42.03 8.19
5.17 43.86 8.82
4.27 51.64 1.71
5.65 50.68 -0.143
30.79 70.98 13.81
30.01 72.34 15.48
33.27 80.71 20.06
34.26 79.98 21.95
40.52 13.86 3.12
40.82 15.09 1.04
42.94 23.03 7.49
42.18 25.02 5.78
6.94 64.82 19.0
5.75 66.79 19.2
6.13 77.41 16.82
7.37 77.17 14.93
39.09 64.59 6.99
37.56 65.05 8.83
38.5 72.48 13.27
38.08 72.55 15.22
-1.502 64.66 33.76
-0.082 62.86 34.54
4.69 59.27 25.95
6.86 58.99 26.63
34.28 88.93 6.81
35.47 88.31 8.32
35.11 92.14 16.46
35.99 93.03 15.12
9.63 90.13 25.16
7.95 90.28 26.09
10.23 97.43 32.09
13.04 96.67 32.55
41.3 140.5 17.56
42.8 141.74 18.07
46.402 148.19 19.7
48.632 148.58 19.39
28.16 110.44 9.51
27.17 111.99 7.35
18.45 112.17 12.73
17.44 114.11 11.99
-0.572 20.53 -2.783
-1.082 22.34 -1.993
3.73 23.69 2.19
3.18 21.21 2.16
41.77 146.7 17.47
40.7 145.06 16.04
46.222 139.69 12.1
47.102 139.16 10.18
10.17 107.05 24.17
8.18 107.92 25.11
1.9 107.33 26.26
1.39 105.59 24.8
33.88 155.77 16.06
32.24 157.61 16.32
31.78 147.95 17.14
31.52 146.94 15.08
29.31 29.02 29.54
26.71 28.97 30.22
25.49 39.45 33.98
27.06 39.15 35.05
24.1 93.97 9.09
24.42 92.08 8.13
27.09 83.06 8.86
29.71 83.82 8.75
22.42 116.4 18.71
22.97 117.09 21.22
17.29 117.41 28.45
19.35 117.12 28.9
6.28 122.46 40.56
5.66 123.31 38.26
3.5 130.61 32.32
2.65 132.7 33.74
8.89 108.63 8.19
7.07 109.36 8.14
10.28 116.99 2.18
9.21 115.18 0.86
17.41 98.75 33.35
15.49 97.89 34.27
21.83 101.92 38.99
21.41 103.69 37.89
28.61 1.68 10.15
29.19 2.46 7.92
28.15 9.45 3.78
28.97 7.8 2.16
48.172 78.53 8.3
45.812 77.99 8.26
42.69 73.59 10.54
40.92 73.38 11.34
43.24 138.03 24.89
43.51 138.49 23.09
44.49 132.1 17.81
44.35 133.2 15.87
4.96 119.72 34.55
6.41 118.98 36.03
7.71 117.85 41.773
6.0 117.36 40.99
16.86 151.85 30.13
17.96 150.88 31.69
24.07 155.95 36.94
21.99 155.91 37.78
45.152 152.25 9.6
44.07 150.64 8.41
43.57 145.6 4.79
45.402 144.95 4.72
7.26 78.83 37.15
5.86 76.85 37.21
12.54 70.2 32.51
12.5 68.4 32.79
8.32 35.16 35.99
8.99 36.29 33.89
7.6 42.61 28.06
6.92 42.15 26.32
10.95 7.27 19.43
11.43 5.81 21.32
7.66 13.85 21.02
6.71 15.56 22.04
42.94 128.83 15.06
43.58 127.23 13.51
40.81 120.63 18.4
39.23 120.51 20.09
13.0 77.32 28.1
11.19 75.81 28.87
9.08 81.13 37.38
9.74 83.44 36.93
36.81 92.7 20.22
38.58 94.01 21.47
36.19 103.8 21.51
37.45 105.17 22.68
12.19 129.2 12.82
10.06 128.31 13.86
1.59 132.03 14.13
0.81 129.96 13.83
27.75 69.74 11.46
29.61 68.84 11.75
31.2 61.49 8.94
30.26 58.66 9.39
31.78 90.19 38.66
32.03 87.83 38.54
39.29 86.73 44.663
41.01 88.71 44.913
36.89 9.86 34.02
36.85 9.52 31.76
42.92 11.58 26.24
45.222 11.3 25.89
13.52 155.99 14.97
11.36 155.72 15.47
6.95 153.99 24.18
6.87 152.21 25.74
48.202 176.21 6.66
47.212 176.59 4.37
39.71 178.51 10.66
40.66 176.68 11.7
20.64 106.64 34.51
21.69 105.97 36.63
18.36 114.86 39.97
17.66 114.77 42.423
26.49 61.53 10.28
25.0 60.38 11.54
21.98 70.73 10.55
20.58 68.94 9.99
19.92 171.78 36.19
20.21 173.87 36.47
24.86 176.31 43.893
27.37 176.75 43.853
11.1 15.78 23.56
11.16 18.12 23.2
11.12 25.59 26.99
10.98 27.42 27.77
17.24 13.84 18.31
18.49 13.57 19.74
22.39 19.54 14.64
22.66 21.79 13.74
22.84 12.7 33.72
23.71 10.12 32.57
14.31 5.84 30.97
13.07 7.21 32.4
21.05 28.03 35.85
22.48 29.02 34.53
21.56 28.44 25.29
22.71 26.7 25.69
14.91 68.71 13.08
15.51 68.54 15.66
16.62 60.76 21.02
14.49 60.72 20.2
3.5 23.31 24.54
5.22 23.78 25.3
10.29 30.28 23.0
8.13 30.5 21.27
5.68 59.95 31.63
6.08 60.62 33.54
9.46 61.43 41.873
11.7 60.77 42.853
30.99 179.73 25.08
29.41 181.026 26.17
28.07 180.556 34.67
26.47 179.36 36.61
34.61 158.91 17.56
33.13 159.68 19.41
31.73 166.02 25.96
32.03 165.2 27.83
29.5 85.44 5.78
31.38 86.66 4.96
30.45 81.34 -0.503
31.79 80.92 -2.123
7.74 27.62 12.59
5.79 27.26 11.99
-1.412 27.01 8.52
-0.112 26.1 6.8
22.55 153.62 38.87
22.39 153.4 41.31
32.01 153.79 41.993
32.82 155.61 42.113
25.0 151.02 6.5
23.72 152.68 7.67
22.43 157.14 13.72
20.1 156.92 14.74
22.83 180.22 8.22
25.18 178.91 7.94
29.8 176.02 7.15
30.8 174.73 6.51
46.732 82.74 14.6
45.392 83.58 15.22
37.55 79.0 16.59
35.65 79.87 18.36
36.12 58.56 30.91
38.54 58.22 31.66
40.29 48.68 29.74
42.46 48.1 29.48
32.55 63.31 43.823
31.77 62.95 41.66
24.2 65.92 38.59
22.51 65.22 36.83
35.87 175.67 8.92
37.96 176.54 9.28
43.46 171.6 3.45
45.722 172.73 2.39
5.34 51.9 39.08
7.96 51.21 38.93
14.9 57.31 40.16
15.13 55.41 40.29
26.51 72.53 7.66
26.24 71.73 5.55
22.28 62.09 7.37
21.8 61.56 5.42
6.71 31.04 41.65
7.0 28.54 41.49
7.31 20.71 41.21
5.29 20.96 42.113
8.33 10.66 39.91
6.39 10.38 40.12
3.11 19.02 40.76
1.46 19.96 41.88
4.0 114.35 19.18
4.27 113.76 20.91
14.16 110.92 20.26
14.5 109.19 21.58
33.65 136.19 33.56
34.44 137.74 35.13
36.21 136.4 29.73
36.99 135.08 28.69
10.56 168.09 19.29
11.39 167.16 21.31
14.25 161.72 26.34
13.32 160.65 24.12
23.77 134.14 38.16
23.81 136.14 38.81
22.92 145.06 33.42
22.37 144.25 31.01
18.07 148.53 35.18
17.36 147.4 33.69
11.65 141.01 34.75
13.9 141.08 35.13
38.54 119.4 22.79
38.5 119.55 24.99
42.3 114.76 33.45
43.24 113.29 32.72
6.37 146.78 19.41
7.9 144.76 19.74
15.52 139.71 18.87
13.96 138.23 19.75
38.27 81.28 23.28
38.59 81.68 20.97
47.122 82.37 17.2
48.252 80.65 16.09
23.15 89.68 6.52
24.88 90.16 5.09
28.31 82.24 0.76
27.48 81.37 -1.233
18.54 157.28 -2.653
20.29 156.71 -1.963
22.58 154.67 5.97
20.85 152.96 6.17
22.86 125.64 16.93
22.2 123.58 18.13
12.48 124.09 21.02
12.31 122.8 22.58
38.79 122.25 42.413
40.97 123.72 42.733
48.752 121.22 36.71
49.672 119.71 38.33
26.42 19.96 17.12
27.89 20.07 15.45
36.8 15.43 14.97
38.41 16.44 13.42
5.83 171.57 21.3
6.01 169.4 22.59
-1.792 164.96 19.09
-1.352 163.6 17.57
12.62 5.31 37.03
13.04 6.32 35.14
13.29 4.66 40.02
12.85 2.96 40.98
43.28 82.35 7.34
44.15 81.35 5.16
35.39 76.14 5.89
35.0 78.36 7.02
28.27 71.23 2.56
29.2 71.28 4.8
35.07 64.34 8.24
34.04 62.51 8.05
34.98 43.82 19.83
32.81 43.08 19.64
30.68 50.39 24.43
28.53 50.74 25.12
34.6 81.65 39.53
36.75 80.98 40.07
35.99 87.11 31.87
36.49 88.98 32.77
11.88 154.82 9.62
11.23 154.8 11.75
13.67 163.22 8.47
15.68 164.63 9.01
22.27 150.32 19.42
23.33 149.05 18.4
19.7 148.09 9.25
19.6 146.01 8.66
32.32 16.8 5.65
30.81 15.48 6.04
24.5 18.74 13.09
24.77 21.28 12.33
31.52 100.98 30.28
29.08 100.03 29.91
24.58 100.09 24.21
22.8 100.93 22.87
19.74 154.29 -0.553
17.43 155.01 0.257
10.75 156.54 3.16
11.16 157.72 1.47
0.93 87.51 34.42
2.24 87.39 36.29
1.38 77.22 36.48
-0.712 77.21 37.23
10.5 91.48 17.2
12.98 91.56 16.73
15.08 95.12 26.21
15.03 96.88 27.47
27.79 18.1 22.49
27.28 20.33 23.61
31.72 28.37 25.39
31.06 29.72 27.18
22.35 38.75 41.0
20.99 40.31 42.573
26.92 47.39 41.68
27.68 47.41 39.1
23.56 106.55 12.32
24.32 108.3 10.85
28.19 110.13 19.85
30.29 110.1 20.73
7.88 21.32 7.99
9.6 20.83 9.76
13.68 12.74 3.44
12.84 11.37 5.11
9.52 -2.716 14.82
8.55 -2.286 12.71
6.35 8.65 14.67
7.39 8.28 12.89
30.04 154.49 2.49
31.6 156.47 3.03
30.26 163.42 6.98
29.34 165.11 5.6
38.61 21.25 18.04
36.38 22.17 17.98
35.34 23.56 7.55
36.41 26.02 7.64
17.62 37.44 7.08
17.4 35.48 8.28
14.47 34.59 16.4
12.93 33.19 15.89
27.72 177.99 7.26
28.2 178.24 5.11
25.35 178.64 0.76
24.74 177.91 -0.943
26.48 27.62 32.49
27.85 28.68 33.92
32.61 24.69 38.33
34.39 25.25 36.77
5.29 76.64 -1.233
4.01 77.75 -2.323
4.93 77.76 6.35
3.86 75.98 6.79
6.97 7.8 35.79
5.6 7.0 37.11
9.33 -0.696 41.62
7.66 -0.956 42.963
33.26 128.22 25.55
33.05 129.6 27.34
35.52 132.52 18.25
34.71 130.43 17.91
5.83 39.95 23.86
5.19 38.06 22.92
8.56 35.93 13.68
10.05 37.94 13.59
13.41 61.85 14.72
13.39 60.03 15.55
18.5 60.63 6.85
17.99 62.78 7.94
43.45 55.92 15.75
43.82 53.24 15.89
36.38 50.87 21.15
36.95 48.83 20.96
17.99 161.13 30.69
19.76 161.65 31.3
25.24 164.83 35.36
24.31 163.04 36.13
23.83 133.97 5.39
26.53 134.62 5.25
32.21 127.02 2.99
33.38 127.1 0.96
18.82 23.78 13.09
17.09 23.68 14.37
16.78 17.24 21.73
18.72 17.09 23.3
40.48 170.5 23.74
39.78 172.26 23.13
44.61 179.38 19.81
47.102 180.276 20.46
38.77 42.14 12.36
39.53 41.05 10.6
37.96 48.66 3.48
38.81 50.62 3.21
22.46 38.69 19.78
20.64 40.52 19.5
14.19 38.77 23.85
13.39 37.29 25.68
6.08 92.73 43.113
4.06 91.71 41.18
1.24 96.32 32.72
0.02 94.36 33.35
-0.132 45.22 20.9
-2.282 46.62 20.99
3.21 54.7 16.87
4.36 55.46 18.21
41.17 153.22 7.35
39.88 154.75 7.13
36.91 157.77 2.75
36.69 158.71 0.47
19.29 17.67 32.57
20.97 16.33 32.56
24.2 15.52 23.21
25.03 17.86 22.4
45.842 126.49 31.66
45.412 124.08 30.81
42.72 126.76 21.27
42.26 128.78 19.85
17.37 66.75 5.75
18.72 65.68 6.76
24.07 72.26 3.84
25.93 72.46 2.65
37.44 37.64 25.88
36.92 40.17 24.47
35.19 43.6 16.81
35.98 44.15 14.01
22.75 168.53 -1.413
25.05 168.13 -0.493
24.35 167.94 4.39
23.68 167.65 6.64
16.58 159.5 21.93
18.56 159.52 21.68
19.14 150.24 19.8
20.3 149.68 22.07
36.27 50.86 2.05
35.3 48.82 3.14
27.07 54.21 3.42
25.94 54.25 5.45
22.68 29.3 37.94
24.61 30.41 37.55
26.83 37.51 41.803
29.3 36.72 41.05
17.93 115.94 15.37
18.02 113.96 14.82
27.21 115.07 19.89
26.13 116.81 20.66
34.55 94.07 -0.833
32.5 93.72 -0.353
31.91 85.98 -0.713
29.99 87.22 -1.483
44.55 21.23 9.25
45.322 20.09 10.48
40.91 19.52 15.57
40.79 19.45 18.01
24.01 36.61 19.97
25.3 38.23 19.22
27.75 38.13 11.26
28.09 36.37 10.58
24.1 106.2 35.79
24.12 107.88 36.56
29.72 110.73 29.43
29.07 110.78 27.2
21.49 104.49 -0.993
20.59 104.74 1.13
20.06 115.13 1.99
20.26 115.8 -0.183
27.71 69.01 34.56
29.09 67.54 33.2
33.45 63.92 39.07
34.35 62.72 40.32
2.34 131.36 40.28
0.248 130.66 40.28
1.1 122.45 34.05
-1.022 121.86 34.08
25.06 143.51 17.66
23.3 142.74 16.48
17.92 144.63 10.17
17.55 142.22 10.59
3.12 43.45 24.38
2.4 44.89 25.51
5.17 47.57 31.1
6.38 49.29 32.32
37.79 90.74 28.79
36.33 90.38 30.56
29.8 97.76 31.06
30.14 97.52 33.05
6.46 62.83 35.57
5.36 65.22 34.75
-3.202 64.63 41.9
-2.162 65.83 43.313
29.28 8.07 29.78
27.79 9.66 31.27
27.55 14.25 37.96
25.48 15.13 37.37
43.86 159.14 34.96
45.002 157.97 32.74
44.53 150.0 35.54
45.912 148.56 36.43
19.94 131.85 25.27
17.64 132.1 25.18
11.65 137.07 25.87
11.89 138.9 24.73
40.62 168.21 42.083
41.68 167.05 41.18
40.31 173.83 37.15
40.91 175.88 35.5
46.692 68.01 27.92
45.012 69.62 28.17
37.44 67.37 22.64
37.61 68.5 20.47
5.33 25.3 9.36
3.98 23.26 8.43
12.43 24.56 2.35
13.06 22.7 2.15
23.43 103.9 11.1
25.02 104.47 12.83
32.52 99.36 14.59
32.64 99.69 16.85
15.76 110.62 26.28
17.24 111.07 27.96
20.14 101.33 24.58
18.11 101.56 23.49
47.302 89.09 24.87
46.192 91.24 25.49
36.76 93.04 26.57
36.85 95.15 24.68
8.9 169.81 27.35
9.24 169.8 29.57
8.81 161.91 34.6
6.99 160.97 34.96
40.52 104.84 0.06
39.21 103.76 -0.743
42.4 95.47 1.17
40.94 94.76 2.92
40.43 29.77 5.51
40.58 27.6 4.45
42.53 24.16 -3.923
41.62 25.65 -5.483
13.08 151.91 9.18
11.47 150.84 7.85
13.96 143.08 2.44
14.97 144.17 0.94
14.97 74.49 18.13
13.09 73.57 17.08
4.26 73.37 21.67
4.42 73.29 23.92
8.09 33.59 16.49
9.68 31.67 16.65
10.46 23.17 16.67
12.51 24.26 17.14
47.882 132.02 28.83
46.842 132.59 30.54
37.93 135.47 31.67
37.09 134.17 33.66
4.66 51.58 29.01
6.29 50.11 28.35
9.14 48.54 35.47
7.31 49.92 36.18
3.23 144.18 1.02
1.99 142.65 3.04
6.17 133.5 3.87
6.92 133.39 5.65
4.1 97.59 33.09
5.57 96.02 33.58
4.87 90.73 25.28
5.35 91.72 23.38
4.26 119.45 12.03
4.54 121.22 13.05
1.85 129.35 17.38
-0.272 129.3 17.99
11.85 144.24 38.65
10.64 142.44 38.0
3.29 147.44 32.31
3.91 146.03 30.28
35.95 123.11 10.44
34.9 120.94 10.43
29.95 118.46 4.38
27.41 118.33 3.89
45.442 178.01 27.66
45.542 175.81 26.61
44.02 180.576 22.37
42.33 182.556 22.1
48.242 41.26 12.41
46.622 41.87 10.72
38.99 48.2 10.58
37.51 47.88 12.32
41.63 105.7 22.04
41.67 103.58 23.34
42.61 94.46 20.51
42.0 92.12 21.22
11.86 42.59 -1.183
10.1 41.05 -1.903
8.72 49.8 0.067
7.58 50.91 1.92
46.692 -2.766 1.35
45.312 -1.316 2.28
42.42 2.12 5.83
41.23 4.49 6.7
10.74 175.12 45.533
11.27 177.16 44.703
9.12 176.25 35.6
10.09 174.22 34.95
20.28 81.74 33.48
22.45 82.24 32.57
30.97 78.94 35.72
29.84 76.98 37.33
35.06 13.46 13.72
36.19 12.26 12.69
30.14 7.18 13.35
29.14 9.12 13.92
39.85 25.83 23.88
42.37 25.77 24.49
38.63 33.56 24.95
37.13 34.76 26.6
43.35 130.6 36.11
44.27 132.59 36.23
43.35 141.29 33.26
41.22 140.32 32.53
37.15 159.03 7.81
35.9 159.05 5.42
37.96 151.92 12.38
37.67 151.47 14.6
26.61 115.36 23.23
24.63 115.82 23.55
18.5 122.96 28.3
19.59 124.79 27.99
-1.722 82.85 3.03
-1.102 84.11 4.88
4.94 90.48 1.76
6.2 89.67 0.107
24.61 143.18 5.32
27.3 143.64 4.15
28.57 150.47 8.62
28.02 151.82 10.01
28.6 71.71 35.47
30.71 70.52 34.42
39.79 70.77 33.44
39.39 69.81 35.77
27.95 32.52 25.85
27.51 34.82 25.73
22.95 40.5 31.3
22.31 42.65 31.29
33.9 41.87 22.77
31.97 41.14 21.23
32.92 34.92 13.73
32.84 32.72 14.99
45.232 176.51 41.14
43.32 176.41 39.66
36.46 182.226 41.23
37.77 184.436 41.32
26.52 34.19 12.03
26.3 32.13 13.02
27.66 34.47 21.77
26.31 33.31 22.95
33.18 15.21 32.63
31.39 14.77 31.12
28.05 22.07 29.11
29.58 22.2 27.29
33.56 124.48 2.48
32.85 122.83 0.89
41.13 120.25 5.6
41.63 120.04 7.58
22.38 175.25 35.37
23.08 173.36 36.48
31.72 171.36 36.52
33.61 172.3 37.64
17.71 111.7 24.09
15.61 110.83 23.56
10.98 121.38 24.35
11.02 121.11 26.64
30.39 116.78 6.51
28.42 116.2 6.0
22.16 120.03 12.04
20.66 120.94 11.18
41.37 73.83 34.5
39.96 75.48 34.54
41.95 82.83 28.48
40.68 83.99 30.36
4.95 37.8 8.17
4.86 36.93 6.14
-2.652 39.68 3.34
-4.632 37.89 2.24
3.79 90.42 21.77
1.43 91.1 22.52
4.17 100.11 20.42
6.25 99.8 21.39
10.92 119.68 20.73
9.69 120.5 19.13
18.73 118.99 13.25
17.6 116.67 12.21
7.86 144.64 22.73
9.39 146.0 22.39
11.12 150.55 16.4
11.21 152.6 15.27
29.91 14.26 18.85
31.12 14.66 20.68
34.55 24.27 21.43
37.02 24.0 21.87
33.33 147.84 24.9
34.95 147.67 23.61
32.36 138.8 24.33
31.68 137.5 22.79
8.14 82.86 -1.913
8.39 82.03 -0.07
1.89 81.69 5.77
0.99 84.01 7.23
-0.212 169.89 5.32
1.91 169.24 5.04
0.15 174.34 -3.113
1.87 175.74 -2.603
38.07 141.93 31.68
40.37 142.97 31.9
49.012 140.22 29.73
50.162 142.46 29.82
41.53 114.76 7.94
43.1 115.26 9.37
36.11 117.98 14.78
36.66 116.37 16.08
2.06 132.93 37.3
2.4 133.72 39.2
10.4 137.83 44.143
11.3 135.73 44.233
32.61 111.01 28.23
33.62 112.4 29.31
34.52 114.34 38.08
34.56 111.98 37.86
29.3 12.75 21.93
30.93 13.21 23.13
34.97 11.59 31.36
34.63 13.64 31.2
1.98 31.3 44.043
2.44 32.21 41.19
2.28 20.98 39.07
4.16 20.97 38.21
16.9 86.18 36.63
16.42 85.18 38.79
22.97 90.94 43.383
21.06 92.58 44.803
16.27 97.49 10.54
16.41 96.51 8.69
16.04 103.49 0.98
17.1 102.87 -0.903
12.24 71.43 11.11
12.23 69.8 12.71
5.67 64.4 8.23
6.96 65.07 6.28
-0.182 162.24 8.29
1.09 162.18 6.58
7.88 164.03 8.0
9.89 164.29 7.71
12.95 0.51 21.26
13.43 2.77 21.04
12.96 6.62 28.91
