55.67 48.13 9.9
53.92 47.96 10.83
47.85 39.06 6.51
48.57 38.61 4.85
6.91 79.86 30.5
6.15 81.28 31.39
-2.035 78.79 39.85
-1.635 80.9 39.13
23.58 10.29 31.47
23.33 8.64 33.35
13.76 7.44 38.92
14.87 8.13 41.01
12.44 23.33 60.53
12.21 21.92 61.94
11.34 10.29 57.97
8.88 10.17 56.65
62.52 44.74 7.59
64.57 45.78 7.41
64.76 42.35 -2.542
64.31 42.93 -4.662
17.92 28.54 40.37
18.01 26.43 38.72
14.75 25.24 30.92
14.61 23.4 28.94
34.96 69.61 47.67
32.79 69.93 46.75
28.84 73.39 36.17
30.47 74.79 35.21
42.07 76.86 52.82
44.11 78.03 53.44
39.41 79.68 61.88
38.89 79.09 64.22
51.96 76.74 58.67
51.23 76.98 60.62
49.71 66.21 59.27
51.15 67.76 57.73
21.8 21.1 32.63
22.47 20.43 31.09
20.34 19.66 21.14
20.02 17.77 22.33
25.71 -3.049 49.1
25.83 -1.809 47.47
19.58 3.38 57.34
20.17 1.38 58.21
19.79 40.59 59.18
20.96 42.7 58.76
26.83 45.65 49.65
28.0 47.33 50.1
47.13 54.72 41.09
46.75 54.25 43.32
45.61 45.5 51.47
46.46 44.95 54.05
41.95 -4.399 11.13
40.07 -3.399 11.25
43.46 3.3 19.27
43.65 3.62 21.38
19.39 57.82 22.55
18.97 55.97 23.18
15.75 47.13 21.5
15.96 46.21 23.37
43.65 59.68 57.14
43.42 60.17 54.93
53.86 54.94 52.92
54.43 53.16 53.89
6.89 66.68 50.2
8.71 68.2 51.12
5.53 72.45 61.35
4.28 70.57 62.11
2.71 60.82 62.49
2.88 58.76 63.41
14.58 58.84 66.7
14.77 56.63 67.04
37.56 29.06 45.49
35.74 27.53 46.56
34.0 36.84 52.84
32.31 38.4 52.22
23.64 20.88 69.442
22.8 19.18 69.022
23.81 11.42 60.77
24.6 8.82 61.09
5.83 29.6 42.86
4.82 31.71 43.28
0.61 30.11 54.43
-1.145 29.42 56.05
32.6 33.89 55.3
32.59 35.99 54.99
36.24 34.47 67.372
34.64 34.57 68.022
56.55 38.37 49.25
55.47 39.43 47.7
56.13 37.98 37.51
58.91 38.04 37.77
3.0 21.92 41.2
4.53 22.6 40.01
8.79 14.37 32.79
9.72 16.46 31.96
66.06 74.66 22.59
65.43 76.83 23.31
68.75 87.919 21.53
70.24 87.989 19.62
11.91 16.63 37.15
12.14 18.28 38.92
14.9 15.19 44.04
12.8 15.77 44.07
12.72 14.42 21.67
10.54 14.43 22.41
11.08 5.51 16.94
11.84 4.71 15.37
20.09 23.34 59.17
21.93 23.01 59.28
29.72 15.26 60.02
29.91 14.36 62.18
39.37 -3.859 5.89
41.12 -2.849 5.38
45.51 7.9 8.52
44.16 7.66 10.58
62.06 23.67 35.54
62.33 25.11 34.0
68.03 26.97 26.38
67.95 29.15 25.61
5.34 11.32 50.15
4.75 10.16 48.82
13.22 6.47 44.03
15.19 6.64 44.93
45.68 23.76 29.63
47.52 22.28 29.44
43.21 14.87 31.27
43.18 12.97 29.72
12.64 -2.709 51.31
14.18 -2.439 52.94
5.9 -0.119 52.47
6.9 -0.109 50.69
19.03 24.64 32.37
17.71 26.18 30.61
19.48 33.59 36.93
19.29 34.36 38.5
30.94 25.13 21.01
32.37 25.98 19.14
40.99 22.5 11.33
41.56 20.96 12.89
61.1 35.72 52.37
58.84 35.64 52.47
57.73 31.41 62.83
56.33 31.68 64.75
45.64 55.63 22.14
43.26 55.72 23.45
37.77 49.19 15.7
38.76 49.32 13.53
27.68 76.99 32.45
28.08 74.73 33.17
27.95 64.09 34.43
29.23 63.24 33.17
31.29 39.14 14.35
31.18 37.08 14.02
34.61 28.24 20.47
36.47 28.13 21.83
13.72 39.9 61.83
11.17 39.52 61.74
6.23 32.07 58.71
6.17 30.08 58.61
61.44 28.23 63.24
63.22 28.38 64.33
63.55 19.99 68.192
63.05 20.64 65.98
34.6 73.67 24.82
34.46 74.87 23.11
29.33 69.11 15.76
29.55 69.18 13.88
29.72 63.92 3.32
28.73 62.11 1.92
30.02 51.91 -1.642
29.07 50.94 -3.662
51.89 55.03 39.33
50.79 53.15 38.77
54.67 56.85 28.9
54.98 55.28 27.68
34.03 5.69 46.23
32.62 3.53 46.92
30.3 8.0 58.02
28.59 8.46 56.37
16.31 83.7 33.06
16.73 82.16 31.25
18.81 72.56 37.62
18.96 71.67 39.91
28.59 50.22 26.88
29.36 50.93 29.29
24.69 58.72 23.35
23.24 58.99 21.71
52.77 27.27 43.07
53.5 28.94 44.54
64.51 31.87 44.63
64.87 33.07 46.56
73.955 50.37 47.5
71.405 50.34 47.24
62.94 52.4 47.25
61.18 52.64 46.22
52.67 8.1 -1.642
51.07 8.11 -0.042
54.12 -1.659 5.36
56.81 -2.429 5.55
53.58 81.75 53.04
53.19 79.99 54.95
54.74 69.96 50.6
54.29 70.58 48.67
11.92 13.62 42.21
10.44 14.98 42.06
2.75 11.86 49.02
2.66 13.2 50.9
61.27 8.75 40.91
61.41 9.14 38.72
67.28 11.38 32.91
69.53 11.49 32.74
25.9 60.96 7.51
26.34 59.19 6.66
35.88 55.03 10.63
36.82 53.13 10.34
25.6 23.39 14.18
24.7 22.73 12.49
29.15 29.34 8.82
31.18 29.43 9.85
14.6 74.99 70.702
14.18 74.62 68.772
14.62 84.059 63.53
13.23 85.509 64.67
7.07 45.57 39.29
4.81 45.89 39.37
6.92 56.8 37.62
8.79 55.64 37.27
49.86 69.54 18.03
48.17 70.14 16.13
52.85 60.51 13.97
54.93 59.85 12.29
13.5 7.44 6.67
10.77 7.63 7.33
4.28 11.53 9.31
2.63 10.95 8.84
14.01 87.479 13.63
13.93 86.959 15.47
9.79 76.09 15.7
11.15 75.22 17.41
35.98 31.63 55.19
38.16 32.99 55.55
41.75 41.95 50.98
40.8 43.12 52.55
13.31 62.42 1.94
11.14 63.25 1.82
6.49 60.53 10.62
7.99 59.94 12.44
47.38 69.86 8.18
49.07 69.22 6.95
55.11 79.36 6.21
54.61 80.41 7.97
53.46 -2.309 0.82
52.01 -3.549 1.85
50.09 3.78 8.87
49.36 6.12 9.36
60.62 57.58 8.13
62.67 57.02 9.48
67.47 65.48 3.58
68.72 66.77 4.45
15.17 40.44 57.49
13.82 38.94 58.6
6.86 39.15 61.22
5.14 40.07 62.21
60.76 86.379 50.02
60.21 85.019 47.84
54.4 84.059 41.26
56.18 84.859 40.74
6.31 58.48 40.45
5.51 60.84 40.78
16.56 67.12 42.94
15.66 69.33 42.58
-2.085 64.73 39.39
0.17 63.68 38.46
8.06 66.09 46.44
9.75 67.55 46.41
63.84 48.07 60.52
62.82 47.82 62.74
57.22 53.88 66.82
56.47 53.91 68.772
26.57 20.9 47.34
24.29 22.36 47.55
24.93 31.58 56.01
23.68 30.77 57.84
39.68 11.17 34.14
38.13 11.94 35.53
36.32 8.3 45.54
34.69 8.2 47.41
62.16 8.36 57.47
60.0 9.11 57.99
48.8 5.11 56.12
48.13 7.18 57.31
9.71 21.35 3.38
8.86 20.63 5.41
1.28 11.38 2.84
1.21 9.69 0.99
22.44 56.14 6.13
24.76 56.95 6.78
33.99 50.99 2.3
34.97 51.98 0.19
62.28 16.49 62.43
62.92 14.43 61.76
70.805 15.06 52.2
71.965 16.74 53.73
47.84 78.81 69.802
49.31 77.71 70.152
47.86 65.68 65.88
48.74 65.59 63.85
33.24 66.76 64.66
33.29 68.64 63.13
26.79 73.4 67.0
25.93 74.89 68.312
20.45 75.93 41.9
19.13 77.57 40.65
14.14 82.4 34.36
14.47 84.159 34.87
7.98 54.61 59.18
9.55 55.53 58.11
14.67 61.41 65.35
16.18 60.49 65.03
53.57 77.08 43.06
55.12 77.93 40.73
64.35 80.22 37.66
66.0 78.45 38.58
33.64 48.33 56.19
35.12 47.94 54.38
37.63 54.89 46.7
38.73 56.15 48.51
22.95 52.73 19.19
22.74 55.28 19.37
27.16 63.3 17.31
29.7 63.38 18.46
15.04 26.34 8.02
16.67 26.65 9.45
17.99 17.05 3.84
19.86 17.73 2.51
65.6 26.56 9.48
66.16 24.73 8.1
56.3 28.95 1.97
56.34 31.15 2.78
30.98 73.16 6.62
31.24 73.8 8.63
21.09 67.99 11.53
21.36 65.89 11.66
10.45 68.76 32.47
11.31 66.5 31.83
5.88 60.0 26.84
6.2 58.06 25.89
35.59 52.71 16.66
34.05 52.24 18.0
27.14 50.89 21.61
26.17 51.48 23.91
2.51 12.77 11.18
0.3 13.75 11.47
1.97 21.5 2.85
3.11 21.6 0.89
20.49 47.85 8.4
18.97 48.92 6.79
25.54 42.8 -0.112
27.97 43.42 -0.282
7.24 72.65 36.01
5.73 70.87 35.36
11.34 58.71 36.13
8.85 57.92 35.73
30.53 -0.169 47.76
31.86 1.16 48.32
28.02 2.19 59.28
25.58 3.17 59.34
52.61 79.04 -1.822
54.68 78.59 -0.382
56.58 68.44 1.33
56.01 66.78 0.66
20.11 12.08 19.01
19.32 9.72 18.66
27.09 2.06 17.65
26.23 0.23 18.43
51.09 20.24 31.93
50.28 21.16 30.35
54.29 22.69 22.01
54.42 22.3 19.83
43.79 57.3 51.29
45.6 57.21 50.09
52.65 60.22 43.81
51.03 61.74 42.75
67.42 85.679 12.18
66.99 83.32 12.73
61.43 73.52 11.21
60.72 72.08 12.91
13.67 29.11 55.83
12.19 30.8 55.77
1.09 26.71 53.52
2.15 25.01 54.74
20.25 31.32 56.67
21.0 31.54 59.27
14.19 29.28 58.79
13.64 27.19 58.03
36.98 62.11 23.36
38.02 63.0 21.84
33.55 66.48 16.59
32.75 64.53 16.23
51.82 48.99 38.02
51.38 47.64 35.7
57.88 51.81 28.72
59.26 52.33 27.01
46.38 72.92 11.2
45.05 74.79 10.88
48.88 84.309 16.28
48.03 86.659 15.62
4.21 61.43 25.36
2.54 63.05 25.13
5.36 59.01 13.05
3.86 59.69 12.11
4.2 42.76 48.92
2.13 42.34 49.49
2.29 44.79 39.76
3.68 43.42 38.79
50.13 16.46 35.29
51.74 15.27 33.73
42.65 9.46 34.16
41.16 9.2 31.94
29.77 3.22 5.99
29.09 5.56 7.38
31.96 -4.519 11.95
33.91 -5.179 12.1
2.39 58.23 10.16
0.75 57.8 9.29
1.14 67.51 12.08
0.04 68.67 13.56
70.915 53.79 7.51
70.17 52.11 6.7
59.49 54.72 1.81
59.91 53.85 -0.322
35.01 14.59 8.19
33.39 14.7 6.68
28.4 19.91 3.13
26.85 19.87 1.56
19.07 75.88 27.45
18.68 77.9 29.2
13.79 70.41 37.14
11.46 69.74 36.98
33.07 77.0 8.29
31.35 76.05 6.43
26.53 70.84 0.62
27.37 70.25 -1.282
73.325 76.28 9.21
72.725 77.58 7.07
66.65 82.48 1.2
65.33 84.359 0.13
22.6 72.38 68.402
23.87 70.31 68.422
20.24 69.46 58.18
19.22 70.77 56.78
51.76 86.459 15.5
51.32 86.549 13.39
48.26 76.67 8.11
47.02 76.42 6.07
-1.755 62.69 55.26
-0.075 61.23 55.85
4.11 66.45 66.43
4.96 68.7 65.98
46.71 8.28 12.05
47.63 8.19 9.98
48.16 13.3 0.38
46.46 11.82 0.67
11.86 86.719 11.15
10.35 87.839 9.51
2.72 79.8 8.5
1.58 78.46 10.06
18.04 42.7 23.16
17.42 41.2 23.84
21.68 38.47 34.33
20.93 36.4 34.25
56.51 54.99 53.94
57.38 56.17 55.6
62.08 50.44 60.18
64.1 50.81 60.68
9.82 18.43 40.08
9.88 18.23 42.33
0.49 17.02 50.57
0.58 18.88 51.37
51.11 15.87 37.71
52.14 13.96 36.55
59.98 15.24 44.65
60.11 17.31 44.52
17.71 54.29 61.76
18.43 53.74 59.35
23.52 65.18 56.77
25.73 64.55 57.37
65.81 9.96 4.41
64.68 11.71 5.47
67.04 11.16 17.3
65.92 13.26 18.12
32.2 73.02 33.91
30.88 72.19 35.13
32.54 61.9 29.16
34.12 61.1 27.32
56.23 59.57 56.61
54.07 59.41 55.98
46.92 63.8 61.8
46.27 63.69 63.92
10.63 22.25 40.24
10.56 20.65 41.88
19.24 21.13 49.78
21.23 20.94 49.19
65.86 77.7 57.01
66.9 78.77 55.08
63.39 74.1 45.3
62.16 72.38 45.1
25.84 44.86 13.61
26.29 46.44 12.09
36.72 45.89 10.8
38.31 45.28 12.25
9.23 3.89 16.07
8.88 3.45 18.27
4.36 1.89 26.12
3.08 0.44 25.11
66.77 37.68 33.2
68.25 35.74 33.23
59.05 30.21 30.72
59.71 31.92 29.68
62.43 71.37 60.88
60.65 70.84 60.2
61.68 72.24 49.66
59.35 72.01 48.73
7.39 38.97 21.45
4.78 38.32 21.86
7.94 31.81 18.28
9.91 32.19 19.61
38.17 55.68 39.63
38.43 56.3 37.4
44.74 47.83 33.73
45.26 45.85 35.16
44.44 56.79 7.48
45.12 56.35 9.43
49.65 55.8 18.36
49.89 55.56 20.56
69.23 1.54 35.34
68.81 2.73 36.67
62.08 11.33 31.72
59.89 11.04 32.46
59.37 26.12 32.69
59.32 27.23 30.46
49.15 23.94 28.21
48.22 22.94 26.32
-1.645 47.39 17.66
0.5 46.29 17.04
4.01 47.58 28.79
6.09 45.93 29.4
52.78 69.3 45.42
53.48 70.82 44.08
48.03 74.13 32.65
47.66 72.26 32.29
49.1 40.84 30.0
47.11 41.2 29.0
44.79 36.08 20.37
45.5 34.39 19.03
47.86 29.5 53.44
48.0 28.43 51.72
47.69 17.96 50.46
46.12 18.89 48.98
52.72 47.59 5.29
50.63 47.08 4.33
43.22 46.04 13.91
41.45 47.81 13.78
14.23 71.54 60.11
14.15 71.26 57.67
4.97 77.65 53.41
3.51 78.82 54.28
49.41 66.74 46.3
48.11 67.89 44.98
42.67 57.9 48.59
41.45 58.79 50.47
72.445 39.54 19.29
71.055 41.56 20.01
62.22 38.69 26.6
64.15 39.66 27.98
33.76 27.42 22.9
32.6 27.52 21.58
24.62 34.82 20.67
25.37 32.5 21.64
48.23 19.32 26.79
48.07 17.3 25.93
56.89 11.38 22.1
58.53 12.55 23.42
57.04 65.21 62.71
55.7 67.15 63.55
57.37 78.62 66.56
57.68 79.12 68.772
58.03 5.55 41.39
60.14 6.1 41.15
66.81 -1.199 38.25
68.78 0.18 37.87
27.46 59.37 39.77
26.43 60.25 41.14
17.53 57.1 44.68
17.79 54.84 43.76
17.97 6.9 18.72
16.4 7.19 17.1
11.73 13.51 24.77
13.9 13.49 25.48
6.57 30.61 61.43
5.06 30.58 63.22
-1.915 36.5 67.722
-1.885 35.79 69.852
63.7 -0.479 30.08
64.59 1.3 29.27
56.77 7.23 35.5
55.66 9.48 35.39
45.09 80.52 52.63
43.3 79.54 51.39
51.03 79.68 43.19
48.81 79.1 42.12
16.96 42.7 62.76
18.21 41.68 61.04
14.88 31.43 55.06
17.12 30.52 55.38
25.66 43.29 28.87
26.83 41.57 29.12
27.55 32.39 34.7
26.9 31.36 36.1
22.59 44.97 25.91
21.76 44.25 28.06
9.58 47.39 28.22
8.4 47.84 26.0
13.38 33.32 10.48
15.13 31.23 11.06
25.39 35.07 14.98
26.11 35.97 17.6
53.48 18.73 19.06
55.56 18.71 17.64
62.42 19.24 21.7
63.41 17.76 22.86
27.81 13.7 32.04
25.89 14.64 32.2
24.92 25.16 33.3
25.61 27.28 33.92
24.21 67.52 20.94
23.93 65.86 21.63
12.98 67.86 28.6
12.25 65.38 28.87
46.79 79.19 23.51
47.34 77.26 23.02
54.05 83.849 21.43
55.65 84.089 22.65
23.2 57.99 25.44
22.15 57.54 27.26
24.08 45.43 28.05
22.88 45.86 29.82
58.93 33.55 1.14
57.25 32.31 0.34
57.7 34.61 4.08
59.43 33.46 4.79
52.56 45.82 18.19
54.97 45.61 18.25
57.62 49.13 29.02
59.7 49.8 29.06
24.91 -1.179 41.08
23.65 -0.119 42.22
20.49 7.15 44.51
19.92 8.26 45.8
50.27 31.85 44.54
48.18 31.58 46.05
44.85 38.9 48.43
45.02 40.68 49.64
26.88 38.73 21.77
24.86 37.79 21.04
14.75 36.98 21.11
13.88 38.95 21.16
39.69 84.899 42.78
41.02 84.919 40.82
47.91 78.62 32.63
48.77 80.75 32.44
-0.525 19.14 40.86
0.06 18.53 43.05
6.25 10.97 35.19
8.9 11.52 35.33
68.88 45.8 60.57
69.92 47.32 59.21
69.04 56.09 64.86
70.905 57.45 64.24
3.69 28.77 40.58
5.51 28.58 39.67
10.73 27.93 29.71
12.06 29.96 30.26
20.75 70.68 35.77
22.14 69.38 37.13
16.79 64.83 44.94
17.11 65.38 47.19
23.59 21.8 60.93
21.76 20.86 61.2
15.58 25.81 71.862
16.08 24.4 73.112
40.92 -2.579 51.82
40.36 -0.469 51.71
40.98 7.46 59.04
39.82 7.31 61.09
24.72 -0.409 70.482
24.43 1.72 69.972
20.54 3.37 59.84
20.54 5.35 59.31
-2.785 61.59 33.04
-3.265 59.44 31.17
2.87 57.94 26.81
3.85 58.7 24.66
63.52 6.73 60.65
62.84 5.18 62.47
74.505 7.69 65.25
74.485 9.18 63.35
27.42 20.36 10.67
24.72 20.36 10.36
20.21 9.72 5.61
18.49 11.76 4.95
52.29 27.15 1.48
52.01 26.32 3.07
56.3 17.72 9.82
58.07 17.75 10.82
72.035 73.67 15.86
72.175 73.76 18.44
68.28 70.76 11.33
67.2 72.19 9.59
34.78 51.78 11.32
34.09 53.46 13.29
23.5 50.31 14.41
23.13 47.71 13.86
3.3 73.6 52.47
3.95 72.62 50.18
15.42 72.3 46.44
13.84 72.65 44.8
18.81 65.13 12.42
18.07 63.71 10.94
21.93 52.36 11.42
23.9 53.28 11.74
28.84 34.39 9.77
27.42 35.78 10.67
17.02 29.32 10.65
16.69 27.57 12.2
50.94 26.41 19.81
50.75 25.73 17.58
44.6 21.81 9.88
42.23 20.82 9.48
51.68 8.72 30.18
51.21 6.71 28.6
41.8 4.07 25.96
42.57 5.27 23.58
47.23 72.59 15.55
46.9 73.89 13.61
55.82 80.94 10.35
55.42 83.05 10.4
44.43 57.61 61.8
42.79 57.95 63.33
36.75 65.51 67.882
35.56 66.26 65.9
37.34 39.72 43.94
38.68 39.5 41.49
33.32 32.61 35.42
31.75 30.91 35.61
65.34 55.49 57.28
66.74 56.14 55.62
75.105 49.77 50.24
75.295 47.72 50.63
13.37 55.16 59.13
15.19 55.96 58.53
20.8 63.89 52.59
20.1 63.92 50.8
49.42 15.07 64.17
47.89 13.86 65.0
39.9 17.76 56.53
39.76 17.44 54.29
44.44 31.01 30.64
44.36 29.63 32.54
44.23 26.46 40.72
43.24 24.04 40.19
-3.635 37.78 2.86
-4.315 39.8 4.55
8.17 39.5 6.25
8.49 41.9 5.34
17.8 31.1 52.67
15.85 29.36 51.89
16.21 33.04 40.17
14.65 31.95 38.33
17.16 71.65 8.06
18.45 71.49 6.03
29.21 67.67 6.63
30.53 67.59 4.52
67.08 18.24 46.73
65.49 18.91 44.85
71.035 27.69 39.16
70.32 26.15 37.18
52.89 68.26 48.97
51.24 68.29 47.56
45.06 75.33 54.25
46.38 75.53 56.03
21.52 28.73 42.33
19.14 28.77 42.68
12.09 28.08 40.23
11.67 26.06 40.31
58.04 9.15 29.08
60.17 9.82 29.49
65.55 8.23 20.65
67.83 8.59 20.79
70.975 81.19 -0.422
69.42 79.52 -1.302
68.26 69.27 3.32
66.11 68.53 4.82
56.98 82.52 63.73
57.78 80.62 64.75
58.9 70.36 61.92
58.59 67.73 61.54
11.36 43.53 64.14
13.15 42.42 62.7
17.76 50.37 71.602
15.75 50.22 72.302
61.03 18.45 63.93
59.89 18.06 62.28
54.88 21.0 54.9
55.07 20.2 52.25
15.1 44.49 56.23
14.84 46.01 54.86
22.21 55.54 50.73
23.03 56.46 52.77
60.99 18.87 5.78
61.69 19.56 4.31
57.38 28.55 -0.842
55.55 29.27 -1.262
47.34 45.42 26.45
45.79 45.32 24.84
40.05 45.79 27.01
38.35 46.25 27.86
6.85 24.6 2.63
6.59 22.92 4.58
-0.105 20.16 12.28
-1.445 21.37 13.5
50.54 29.87 63.26
51.33 28.91 61.47
54.09 18.23 60.85
55.0 18.5 58.71
67.27 60.77 56.3
66.72 58.8 56.86
65.02 67.15 53.6
66.81 66.43 53.55
11.69 88.009 -0.152
9.32 87.769 0.49
11.66 74.89 1.12
11.95 73.75 2.89
3.98 79.03 3.01
3.11 77.89 4.25
1.33 68.51 2.42
0.65 69.37 0.66
70.08 31.37 57.86
68.76 32.69 57.0
71.205 42.78 61.65
71.205 44.46 60.08
0.67 82.44 38.42
1.04 84.379 39.29
8.66 81.43 32.16
9.86 83.27 31.03
20.59 13.49 68.892
20.09 15.4 67.692
21.34 10.57 59.59
19.93 8.83 59.03
58.55 70.06 9.15
58.42 67.69 10.0
47.65 64.25 6.39
46.1 65.46 7.59
59.99 72.62 43.45
58.87 73.37 45.07
59.82 80.5 54.36
58.75 82.77 53.35
6.4 45.45 51.68
7.73 46.71 51.35
9.16 43.76 41.38
6.43 43.59 40.86
68.37 59.31 13.14
67.75 58.29 15.04
66.16 63.68 23.57
63.87 63.16 23.31
48.98 -3.709 59.2
50.84 -3.839 60.22
52.46 5.69 63.31
50.51 6.91 63.83
3.66 46.69 33.46
4.56 45.59 31.77
2.01 39.07 22.3
2.96 41.09 21.23
23.65 55.48 10.31
25.11 56.1 11.4
28.03 66.65 15.12
25.89 67.01 15.65
48.46 22.36 0.68
49.66 22.49 -1.142
55.72 17.43 6.44
58.21 16.92 7.02
6.43 37.67 47.17
8.6 36.71 47.01
4.91 25.34 51.21
4.01 24.38 48.9
58.55 -2.669 11.2
57.9 -0.479 11.46
68.91 5.81 7.22
67.31 6.68 5.89
5.85 74.44 62.77
7.91 74.05 62.96
14.82 80.95 57.09
16.65 79.35 57.65
23.05 68.58 18.18
25.61 69.21 17.82
24.22 80.43 19.74
26.17 80.92 20.01
8.5 24.56 39.57
7.26 23.02 38.19
-2.135 25.74 34.07
-1.455 24.13 35.86
55.0 58.35 19.13
56.2 60.86 19.34
58.33 69.11 19.34
59.35 70.73 19.65
52.71 11.17 34.4
52.63 10.28 36.52
40.86 14.22 35.67
39.68 13.5 37.35
40.63 36.93 67.742
41.65 35.96 66.16
48.75 28.6 64.68
50.09 28.78 66.25
28.87 25.47 55.36
31.43 25.61 54.52
23.75 19.75 50.85
22.7 17.47 50.65
60.78 42.85 60.02
60.31 41.27 58.51
70.555 41.46 52.39
72.415 42.99 53.12
-2.185 9.13 4.57
0.23 9.11 5.35
8.25 6.8 1.03
10.87 6.56 0.71
31.28 20.82 69.132
33.05 21.06 68.072
40.22 24.2 60.57
40.61 26.2 59.94
27.72 35.68 13.91
29.33 35.59 15.72
26.64 27.37 18.08
26.23 28.78 20.32
32.38 6.91 5.79
33.21 6.95 3.47
30.21 16.43 -1.012
28.2 16.73 -2.382
35.97 19.83 24.95
34.93 21.56 24.7
33.45 14.4 17.35
34.84 13.98 15.66
35.44 -1.129 16.95
34.31 0.96 15.61
33.61 12.05 18.54
34.97 11.31 16.29
14.11 81.91 46.75
11.88 82.68 45.84
13.52 78.82 47.4
14.49 77.16 48.87
56.1 61.21 64.17
55.25 63.13 63.43
47.71 55.66 60.22
45.87 57.17 59.46
60.33 80.48 69.282
60.22 78.34 70.252
70.25 75.33 64.29
71.635 76.2 62.73
6.97 13.03 47.32
8.56 14.05 49.22
12.35 14.18 47.23
14.08 13.26 45.72
41.53 11.24 55.76
42.66 11.83 57.4
50.9 9.65 59.13
52.18 9.72 61.11
60.92 84.319 2.47
59.58 83.02 3.18
60.69 73.87 7.74
59.11 72.67 8.1
4.01 31.68 40.09
2.34 30.64 38.97
8.63 32.51 28.27
9.43 30.68 28.59
11.89 69.77 30.18
9.75 69.91 29.58
1.99 74.11 21.35
3.28 75.92 21.32
0.02 39.47 32.12
-0.645 37.34 31.41
7.09 33.92 25.95
8.03 32.24 24.89
64.06 2.19 -1.362
63.03 2.78 1.02
56.75 3.93 8.51
57.94 5.71 8.8
69.46 42.01 34.26
68.26 42.86 35.43
58.21 45.03 40.75
57.72 43.49 41.98
22.56 33.61 37.76
23.92 34.88 36.59
20.65 45.43 33.92
19.37 44.91 32.05
35.6 30.53 30.11
37.35 32.03 30.65
39.33 41.46 36.41
37.64 42.23 36.06
44.91 76.01 4.47
43.62 76.61 6.33
37.56 66.79 2.9
39.66 66.01 3.45
58.48 39.18 57.29
58.16 36.63 56.73
59.69 29.99 64.63
59.11 30.38 66.66
7.32 75.05 14.42
7.04 76.05 12.28
-0.145 81.15 12.53
-0.075 79.51 13.5
13.88 42.3 55.39
15.49 41.13 54.33
24.8 46.8 48.28
25.0 46.36 46.31
22.27 43.36 12.75
23.13 45.1 14.56
26.32 40.79 26.14
27.44 42.62 26.47
52.25 84.559 19.26
53.36 83.11 18.0
56.18 73.06 18.31
58.68 73.65 18.22
38.3 70.02 48.18
37.55 68.08 47.15
43.65 71.97 45.8
45.69 72.79 46.74
55.35 82.32 55.03
55.04 80.7 56.86
64.78 77.08 61.17
66.4 75.05 60.42
27.04 59.38 61.7
25.64 60.57 63.47
17.31 57.3 61.86
16.08 56.17 60.92
32.28 76.33 12.38
32.96 73.95 10.91
37.01 64.19 16.86
35.49 64.99 17.94
32.02 12.96 61.06
33.47 11.03 62.09
35.75 20.61 67.752
35.74 22.1 69.692
70.01 56.36 0.78
68.98 56.38 2.88
58.71 59.13 5.06
59.36 56.8 5.53
52.65 64.12 42.77
51.36 64.6 44.37
47.89 69.38 32.93
49.47 67.95 32.82
32.4 22.01 45.47
31.81 24.31 44.05
27.36 32.1 50.3
26.96 34.16 49.13
34.72 44.47 66.49
35.09 44.24 68.942
41.13 38.39 64.89
42.51 37.4 64.08
37.16 28.17 56.6
35.53 29.6 57.29
30.46 31.26 68.292
31.85 31.35 70.212
13.2 23.56 6.65
10.48 23.28 6.86
5.2 29.04 12.53
5.29 27.1 11.37
25.35 42.74 46.15
26.82 44.53 47.24
37.63 46.21 47.57
38.73 45.26 49.07
9.42 63.79 18.64
8.38 63.32 16.82
5.01 67.33 26.27
2.84 67.38 27.96
43.68 59.09 -1.322
45.83 58.97 -3.152
50.89 53.14 6.21
52.68 51.76 4.98
59.36 21.26 14.12
60.35 22.83 13.14
55.06 31.83 9.58
55.92 31.97 7.16
-0.415 83.65 33.34
-0.575 82.41 35.35
5.71 75.85 30.73
5.66 73.8 31.36
52.01 28.99 19.78
49.74 29.17 19.25
53.23 34.15 13.75
53.52 32.31 12.87
63.24 36.54 49.95
62.67 38.66 49.34
67.6 44.19 38.1
65.99 45.58 37.62
13.79 18.14 19.76
12.32 16.87 20.51
7.98 17.67 10.63
5.52 17.51 9.37
17.97 8.06 71.492
15.53 8.42 71.202
18.58 3.0 61.8
16.58 3.72 60.38
60.9 57.74 12.01
62.47 56.45 11.94
67.99 49.31 9.03
66.22 49.16 7.59
23.37 49.85 37.69
22.37 50.63 35.27
26.87 62.11 32.89
24.98 62.01 31.59
67.7 21.52 47.64
65.44 22.23 46.94
63.41 22.68 39.01
61.05 23.14 38.0
49.44 3.04 25.5
47.96 2.26 24.36
44.89 12.72 17.3
43.14 14.34 17.12
9.68 49.68 30.61
10.35 48.95 32.56
8.16 53.07 43.95
10.55 54.65 43.78
62.3 32.87 29.7
62.23 31.93 27.52
64.25 26.09 36.07
63.78 26.62 38.05
23.97 33.78 50.37
21.62 32.98 49.81
19.25 22.76 52.37
20.32 21.73 54.49
28.36 68.26 38.34
29.13 66.83 36.34
38.12 70.85 41.89
35.69 71.4 42.34
52.89 69.02 22.42
52.03 70.39 23.86
57.32 75.24 26.62
57.84 75.7 24.36
54.81 74.66 42.89
54.35 74.75 40.68
51.53 69.45 31.59
51.79 69.05 34.01
7.27 52.89 54.53
8.3 52.04 56.19
6.41 45.95 62.96
6.46 43.79 64.09
55.06 9.56 28.7
53.82 7.84 27.83
44.66 11.44 27.49
44.03 13.29 27.2
46.54 67.93 6.55
48.44 66.88 5.77
57.79 68.38 6.85
57.35 70.59 6.73
73.675 9.59 11.15
71.915 10.24 12.43
60.82 9.19 9.58
61.16 6.99 8.67
16.37 75.37 7.87
15.16 77.1 8.25
4.71 79.77 6.34
3.86 81.93 6.69
60.53 40.43 61.38
62.78 41.22 61.3
66.96 32.89 55.18
68.07 33.3 53.27
7.32 42.48 7.96
5.51 42.79 6.86
1.14 37.47 16.6
1.56 35.98 18.45
69.37 58.21 59.95
69.39 59.42 57.88
63.81 62.27 49.15
61.97 60.62 49.21
27.47 22.53 28.89
29.05 24.91 28.24
31.24 26.66 40.46
33.23 27.54 40.58
18.29 56.45 47.46
16.54 56.97 47.34
16.98 54.18 56.92
15.87 53.25 58.63
41.27 7.44 45.09
43.41 7.39 43.36
36.57 13.83 42.31
35.38 15.49 42.72
5.68 8.41 34.73
4.55 9.0 36.09
-0.155 14.66 41.86
-1.455 15.07 43.45
66.24 48.71 62.08
67.32 50.45 62.79
60.93 54.74 60.97
60.57 55.43 58.87
51.83 32.77 59.35
51.03 30.21 58.96
52.23 27.34 46.85
51.55 29.31 46.18
66.63 67.73 38.55
65.99 69.46 40.16
66.9 63.64 31.81
65.71 61.78 30.45
62.91 12.57 69.982
64.47 10.65 69.322
69.4 10.48 61.0
68.78 8.91 59.17
29.6 16.63 17.54
31.6 16.11 16.24
31.63 19.77 5.21
30.28 21.21 5.2
50.69 22.88 32.7
52.63 24.67 33.57
51.37 19.03 39.02
52.89 17.32 39.46
46.98 32.47 48.14
48.17 30.82 49.41
44.87 21.85 43.66
42.86 21.23 42.62
22.55 32.99 47.3
24.62 32.62 47.93
23.69 23.2 42.96
21.61 23.22 42.25
41.99 4.07 40.35
44.4 4.71 40.52
52.76 -1.479 40.14
52.51 -3.819 40.87
59.71 6.3 44.07
57.36 7.13 43.98
54.44 16.83 46.23
55.9 17.95 44.73
68.14 19.93 50.81
68.64 22.06 51.83
63.66 25.46 60.57
63.29 24.5 62.72
50.88 17.79 16.52
51.44 16.78 18.16
51.36 6.15 14.22
53.58 4.54 14.36
45.52 5.61 18.2
46.92 5.43 16.64
50.57 16.82 11.68
48.33 17.58 12.37
55.22 34.17 17.14
53.81 35.61 15.89
48.43 33.73 25.41
47.75 31.64 26.27
20.97 7.51 22.98
21.64 7.66 20.71
19.67 -3.669 20.8
20.31 -5.579 20.74
63.14 1.48 50.57
62.7 -0.789 49.21
72.135 0.12 41.83
74.235 0.1 42.61
42.32 43.45 48.61
41.11 44.43 49.95
44.45 56.19 46.69
42.81 56.91 45.29
51.21 57.6 11.89
49.36 57.85 11.6
40.16 63.7 16.24
39.07 62.63 17.43
62.93 3.69 53.19
61.68 4.85 54.43
52.79 5.44 60.44
52.91 7.57 59.85
52.45 48.89 55.19
51.86 49.09 57.51
47.14 45.49 64.3
46.65 46.45 66.09
21.52 51.6 43.16
22.11 52.05 40.92
28.65 57.13 38.92
30.14 58.93 39.62
64.45 20.99 49.63
64.92 19.49 48.04
60.7 7.71 51.37
62.32 6.06 51.46
37.13 48.4 58.0
34.82 49.58 58.44
33.75 57.02 62.27
36.42 57.23 62.78
9.95 70.5 63.77
8.7 71.59 62.18
4.05 64.02 54.96
4.86 63.62 52.95
17.33 39.19 45.42
17.48 40.19 47.22
6.89 40.34 46.09
6.62 41.46 48.32
28.93 49.78 -0.502
26.86 49.66 -0.462
22.79 53.29 8.84
21.66 55.07 8.36
65.33 33.8 15.35
65.95 32.95 13.18
65.48 34.0 18.2
64.18 35.58 17.53
49.69 34.21 7.26
49.9 32.08 8.24
44.9 34.1 11.66
42.48 34.76 11.84
72.905 60.52 54.49
72.345 62.9 53.0
65.21 60.06 45.53
64.58 58.18 45.16
23.61 19.49 47.41
21.81 20.45 46.56
23.76 13.45 52.41
25.51 13.88 50.94
66.31 44.89 35.11
65.17 43.48 33.09
67.23 46.84 23.88
66.12 45.56 22.28
65.13 48.74 34.05
65.89 50.11 35.18
63.31 59.54 29.53
61.48 59.0 28.11
56.37 47.57 39.87
57.48 47.47 41.82
54.78 51.37 51.79
54.15 50.41 53.52
29.65 25.54 68.852
29.9 28.09 69.542
27.33 31.72 60.18
26.51 32.4 58.21
12.41 82.94 3.97
15.08 83.48 4.91
23.37 80.99 -0.362
22.2 79.47 -1.872
12.28 27.25 27.79
14.23 26.91 28.79
24.3 29.07 30.43
24.09 26.52 30.98
37.95 61.26 19.62
39.18 60.4 21.87
36.01 57.06 29.53
37.69 58.58 29.11
63.2 61.25 24.75
63.99 59.75 22.63
59.18 58.93 29.74
59.12 57.42 31.6
4.67 0.71 30.98
5.04 3.22 30.34
5.17 4.98 20.06
7.04 5.37 18.9
58.46 32.96 27.6
58.69 35.03 28.09
60.73 38.65 16.82
62.36 39.77 15.56
15.36 6.76 58.39
15.84 6.05 56.63
10.82 12.64 48.87
9.76 12.77 46.55
31.85 74.37 31.07
33.22 75.41 28.98
33.6 86.149 35.1
31.33 86.269 34.93
70.825 -0.959 57.67
70.655 0.82 55.69
66.9 -0.769 65.36
68.53 -2.109 64.41
35.16 74.5 58.68
35.05 72.68 57.6
44.46 66.96 55.17
46.37 67.83 53.64
16.01 2.4 57.74
17.21 3.77 56.57
15.04 3.91 44.94
15.31 2.62 43.62
17.45 18.95 21.52
17.57 17.73 23.66
11.55 28.46 21.61
10.5 26.57 21.01
27.0 66.38 61.92
25.62 65.62 60.56
15.85 61.68 67.872
15.33 59.58 69.082
28.57 40.73 66.82
29.02 38.27 66.64
38.74 39.08 69.242
38.95 37.07 70.042
8.71 17.13 23.37
6.96 18.43 22.19
1.91 13.99 13.85
0.02 15.24 14.72
39.94 71.72 20.14
38.84 72.27 18.66
38.53 77.35 8.87
40.49 77.71 7.43
2.88 65.54 11.64
4.88 64.28 11.77
1.97 65.31 1.72
2.09 64.9 -0.882
30.21 42.34 25.65
29.47 40.57 24.49
34.56 30.02 24.27
36.23 28.85 24.74
4.03 4.26 52.74
2.97 4.19 50.78
12.63 2.03 44.86
10.89 1.37 43.87
38.56 14.22 55.52
38.6 15.02 53.1
27.7 13.83 48.44
26.31 12.19 48.38
6.04 2.74 44.95
4.14 3.98 44.17
11.6 9.54 38.94
13.6 11.73 39.22
34.43 57.61 15.36
33.73 56.4 13.49
27.97 65.16 8.01
26.53 65.87 9.76
13.82 41.78 22.45
15.9 41.45 21.64
15.56 37.03 12.62
15.68 36.31 14.91
62.76 13.84 31.0
64.51 15.26 31.67
54.93 23.29 32.65
53.12 22.82 31.79
50.12 54.78 23.57
47.64 55.12 24.02
38.05 48.75 26.62
36.32 48.93 25.58
18.96 82.32 28.97
19.74 81.19 27.05
24.56 75.85 36.87
26.45 75.06 35.8
38.22 80.72 54.35
39.37 79.25 53.08
33.67 82.9 43.27
32.05 84.829 43.33
38.09 73.43 21.24
38.19 75.85 20.14
45.29 84.829 24.1
45.98 84.179 25.9
9.51 19.07 8.28
11.14 19.18 6.69
10.37 8.46 9.97
11.47 6.83 10.17
47.75 47.61 20.85
49.38 46.09 19.47
44.01 37.05 14.52
42.23 37.24 12.82
46.04 21.51 3.94
47.66 21.0 3.75
50.12 24.61 4.2
51.52 25.19 5.88
42.63 72.45 22.02
41.82 70.19 21.83
37.21 75.14 25.23
34.95 76.58 25.43
3.28 73.75 47.91
4.05 72.89 45.81
3.49 84.089 47.14
4.87 85.989 47.09
23.79 85.829 28.26
24.28 87.239 30.0
31.0 77.49 34.02
28.22 76.96 35.04
31.7 71.14 49.31
33.48 71.0 50.21
27.38 67.85 59.58
25.37 69.45 58.81
21.54 15.83 2.72
23.6 16.67 1.61
26.91 5.22 5.64
28.08 4.18 3.92
54.83 57.77 53.79
56.82 58.39 54.33
56.6 52.61 49.7
56.41 53.92 51.21
57.86 70.97 17.33
59.68 71.89 16.28
69.57 74.82 16.04
69.12 76.67 14.59
68.28 60.06 35.3
70.735 60.41 35.68
67.01 51.1 42.62
69.0 50.74 43.68
8.56 40.85 11.17
6.83 41.49 12.81
5.61 40.83 20.25
4.47 39.1 19.28
47.26 28.94 59.38
48.25 28.57 61.65
39.66 21.78 56.51
39.14 21.66 58.97
41.12 3.57 43.13
43.44 4.3 43.5
53.34 2.48 40.43
52.99 4.15 39.26
54.89 35.55 57.68
55.53 36.06 55.82
52.68 31.84 46.58
52.94 31.48 44.35
24.58 72.5 2.94
25.93 73.73 3.76
18.56 72.12 13.11
18.0 73.0 15.09
13.56 46.2 19.57
15.15 45.8 18.33
16.59 41.41 10.21
16.9 41.26 8.06
1.5 30.32 4.32
1.97 28.24 3.04
-3.235 22.79 10.38
-3.335 20.18 11.04
59.62 61.61 32.03
59.6 60.0 32.89
59.63 53.47 39.63
59.41 52.75 37.36
42.17 31.62 59.96
40.9 31.98 57.86
44.09 43.93 54.9
43.44 43.79 52.73
29.07 51.29 49.58
27.76 53.3 48.4
32.79 57.61 41.52
30.98 58.89 42.09
-5.125 27.56 60.83
-4.865 26.65 63.23
5.09 27.19 61.13
6.83 27.0 59.2
43.86 2.02 48.07
43.83 -0.419 49.45
37.23 0.51 41.26
35.43 0.31 40.64
59.73 37.18 49.38
60.84 35.23 49.73
56.06 33.96 38.03
53.94 34.46 39.14
7.87 62.35 13.36
9.72 62.02 13.51
14.09 64.89 3.12
14.69 66.58 2.02
52.0 18.65 36.48
53.27 17.08 36.96
62.64 17.46 39.37
63.37 19.25 39.85
59.62 23.03 47.93
62.11 22.1 48.86
68.96 33.48 48.45
66.94 34.75 48.37
31.09 9.81 6.91
31.1 7.88 8.05
26.11 1.31 15.14
24.87 0.09 13.91
24.47 36.24 65.68
24.41 34.39 64.56
16.94 38.37 54.26
14.66 37.7 53.86
28.75 57.03 61.28
27.32 56.76 59.67
27.15 53.65 50.98
25.49 53.74 52.85
51.77 45.68 30.85
51.23 44.25 32.26
55.59 42.26 43.39
54.27 44.03 44.78
43.49 60.81 28.34
44.86 60.66 30.17
55.99 63.75 30.05
57.59 61.88 30.3
48.47 51.43 19.65
47.13 49.29 18.55
34.5 50.64 20.33
33.83 51.41 22.36
28.38 68.93 49.3
27.73 67.57 47.96
22.99 64.65 51.03
25.11 63.78 50.98
3.25 30.32 59.01
1.58 29.45 58.14
4.47 25.48 68.622
5.33 23.58 67.672
49.8 58.47 24.45
48.04 57.06 25.82
50.02 47.5 31.73
49.01 47.69 34.21
36.35 17.61 23.31
37.86 15.78 23.01
35.17 25.58 19.93
33.72 25.0 21.82
59.33 6.72 11.4
57.09 7.17 11.43
64.01 11.39 19.93
64.91 9.68 18.46
11.7 75.22 13.58
9.69 74.14 13.5
2.33 67.72 14.99
4.05 66.94 13.79
43.51 38.04 4.02
45.55 38.5 4.79
54.75 34.6 5.82
55.4 33.28 4.64
44.4 46.22 64.57
44.26 44.14 62.94
34.21 49.42 67.18
32.37 48.92 67.452
40.62 12.33 24.96
42.28 13.61 22.94
38.84 18.46 13.94
40.62 17.61 12.55
43.63 4.23 51.21
45.51 5.05 49.75
40.47 13.06 52.44
40.61 10.97 53.01
7.42 34.35 19.94
8.88 34.28 17.47
10.72 45.7 19.86
10.14 44.52 21.95
26.03 42.85 11.44
26.08 41.92 13.37
16.57 37.15 7.59
14.62 37.89 8.17
23.7 7.33 24.06
23.32 9.04 22.37
33.02 4.86 20.57
32.6 2.92 21.01
54.06 29.6 68.082
52.94 29.79 66.46
45.71 40.26 62.26
46.2 41.62 64.21
63.65 69.11 59.58
61.16 68.32 60.68
58.3 57.11 59.05
58.28 56.08 61.26
25.98 54.82 60.53
25.33 53.34 59.02
22.41 59.68 50.97
21.26 61.57 51.72
59.32 3.73 45.08
58.07 3.57 46.8
48.36 1.65 49.72
46.49 2.27 49.31
19.45 37.68 36.5
19.17 39.79 34.74
16.67 37.81 23.44
15.08 39.42 24.22
42.32 58.04 24.82
41.95 59.68 26.59
41.85 48.22 29.48
40.42 46.77 29.95
64.04 74.33 24.8
65.81 72.98 25.2
74.095 72.98 32.85
73.705 71.29 34.93
39.25 77.05 61.3
40.11 74.65 61.99
47.37 67.97 58.06
46.03 66.51 57.54
26.05 3.22 46.22
27.27 5.52 46.46
26.32 7.68 57.51
24.84 9.47 57.61
33.88 31.56 27.51
35.36 32.77 28.45
38.53 43.13 33.54
38.9 44.93 32.11
56.28 -1.679 25.06
58.85 -1.459 26.15
55.72 5.87 33.09
53.65 7.33 31.97
25.78 78.64 47.15
25.83 76.89 49.13
17.38 75.13 54.81
16.45 76.58 54.23
34.31 72.9 31.74
33.68 72.77 29.66
37.78 62.25 26.03
39.57 62.68 24.14
10.72 34.57 38.57
12.6 33.91 37.13
11.33 32.11 26.74
11.87 29.8 27.07
43.62 5.94 20.33
42.13 5.43 18.4
35.54 14.01 22.77
34.17 15.61 24.19
55.77 24.36 47.71
54.1 23.19 48.28
54.36 21.18 57.38
52.6 19.82 57.92
55.93 45.37 15.58
55.38 43.43 16.81
54.63 35.43 8.73
53.45 33.87 8.88
6.71 50.45 29.81
5.99 48.79 30.9
-1.815 46.28 37.33
-0.385 44.97 37.62
47.49 38.1 49.62
45.52 38.16 50.92
46.46 42.63 61.33
47.84 43.15 62.91
10.66 39.3 5.8
10.92 37.81 4.22
17.67 34.68 -2.432
17.42 31.93 -1.692
20.41 7.36 70.592
20.06 8.09 68.762
28.83 9.34 61.14
30.75 10.52 61.66
34.12 17.58 40.67
33.62 17.23 43.02
28.54 10.42 45.28
26.52 10.76 46.15
24.87 13.67 46.41
26.06 12.99 44.46
20.72 9.82 43.6
20.35 11.97 44.94
4.52 13.53 26.73
6.21 14.15 25.4
0.18 5.41 23.25
1.38 3.51 21.94
37.75 66.1 62.53
39.18 67.27 61.32
41.56 62.93 54.95
40.79 61.02 54.55
28.63 83.74 16.92
28.62 83.3 14.54
19.23 77.65 16.5
17.86 77.39 13.93
33.42 76.0 60.14
34.22 77.36 58.35
24.4 80.34 61.11
23.27 81.33 62.22
36.83 81.32 40.27
38.69 80.8 40.21
46.8 75.03 42.8
46.46 75.58 44.92
69.06 22.91 24.16
68.08 23.75 22.06
69.03 15.41 20.11
69.9 14.87 17.83
15.7 48.16 10.22
17.33 49.18 9.04
18.63 55.07 6.07
19.83 56.82 4.68
60.87 29.76 26.85
60.23 28.43 25.56
49.06 27.95 25.48
48.82 27.2 23.32
37.44 78.87 3.15
38.55 77.65 4.58
37.58 68.06 -2.652
35.79 67.96 -4.212
16.44 79.94 54.06
16.35 81.81 55.21
27.49 80.98 51.03
29.02 80.23 52.68
54.06 35.27 34.25
54.81 35.88 36.02
48.82 45.27 38.94
49.36 46.88 37.89
-0.345 45.97 -4.392
-1.295 44.13 -4.392
4.67 44.88 5.32
5.32 46.55 4.05
41.33 33.26 62.06
39.34 31.92 61.23
33.26 26.33 69.692
35.2 24.85 71.242
61.5 26.55 59.56
62.2 27.78 57.4
63.51 33.18 52.88
63.5 34.59 51.69
56.09 57.07 57.88
56.25 55.01 57.82
53.15 50.81 66.06
52.19 52.12 68.112
52.86 61.52 40.55
53.7 63.73 40.35
60.35 70.12 34.92
58.61 71.6 33.99
16.02 53.85 45.62
15.21 53.23 43.26
7.22 51.45 51.03
6.34 51.14 52.99
18.82 61.39 25.34
17.59 62.6 27.24
10.77 52.78 26.41
9.22 51.91 28.15
55.11 83.05 38.63
53.68 81.89 37.62
59.52 73.29 40.08
61.36 72.08 40.95
65.48 72.55 41.84
64.35 73.55 40.19
59.53 83.05 43.14
59.47 84.629 44.72
55.26 61.97 32.91
57.27 61.59 33.41
61.57 51.51 32.64
60.53 49.55 31.68
60.5 4.66 60.15
60.76 7.12 59.92
59.11 -0.059 65.87
59.57 -1.159 67.772
18.31 52.8 40.5
16.47 52.81 39.47
15.28 40.89 41.34
12.76 40.31 40.88
0.5 42.38 17.55
2.31 40.34 16.67
4.24 48.19 5.93
4.57 49.83 6.77
57.67 48.35 7.17
56.04 46.89 7.08
57.76 41.24 14.99
58.9 39.35 14.88
64.83 48.12 25.76
63.97 46.76 23.85
62.55 48.4 33.41
62.21 48.3 35.67
70.27 34.83 53.69
69.74 35.61 51.86
59.69 38.58 52.48
58.99 38.15 54.51
42.5 39.89 41.53
40.77 39.04 42.96
37.74 27.65 41.82
36.27 28.68 42.88
64.27 30.84 56.94
64.23 31.02 54.96
72.585 24.92 51.6
73.315 23.17 51.11
67.42 79.12 64.16
65.63 80.45 65.26
62.42 70.26 65.99
60.7 69.93 64.6
53.11 71.27 18.34
51.16 71.59 19.45
48.81 73.15 28.26
47.16 73.26 29.81
14.15 66.72 39.32
13.49 68.57 39.36
3.58 72.33 42.87
1.03 71.56 42.21
10.8 54.79 60.51
8.75 55.02 61.77
1.71 55.38 67.05
0.17 54.39 66.18
9.12 78.44 31.16
10.34 79.31 33.4
12.6 83.37 40.17
10.17 84.199 41.54
14.5 24.16 14.37
15.02 22.26 14.03
22.89 29.82 20.08
23.96 28.28 21.52
17.59 10.11 45.3
18.12 9.93 47.24
20.18 18.65 51.08
19.69 19.4 53.12
38.95 25.59 40.1
41.1 25.03 38.57
34.31 25.31 44.42
36.82 26.35 44.47
58.13 43.36 52.0
59.74 44.92 51.42
67.09 43.8 61.12
67.08 42.06 62.27
53.97 56.35 49.77
53.95 53.88 49.84
57.4 51.82 38.91
56.74 51.08 36.58
28.09 62.02 62.02
30.43 61.14 61.19
29.2 67.04 51.05
26.69 66.23 50.25
62.46 59.79 46.28
63.59 61.92 46.44
55.26 69.59 46.51
56.57 71.25 45.34
25.07 28.84 58.91
27.29 29.19 58.78
28.24 19.26 66.47
30.7 18.97 66.53
45.61 42.8 40.15
46.9 44.25 41.27
43.38 42.14 44.75
41.89 41.96 43.08
35.7 16.43 6.48
36.5 17.2 4.3
47.85 15.91 -0.622
47.87 18.22 0.18
67.06 62.14 38.5
66.98 61.98 36.61
66.37 66.52 40.84
67.33 65.02 41.86
55.08 84.329 15.84
56.58 83.39 17.98
59.13 80.1 24.69
57.18 79.45 24.19
54.95 4.5 41.36
55.36 6.22 42.06
58.44 13.14 46.21
60.51 12.59 46.29
71.805 46.01 52.18
70.745 44.28 50.81
59.06 42.91 49.27
58.09 41.27 49.54
14.77 4.97 41.82
12.73 6.1 41.17
5.0 3.95 32.96
3.29 2.43 33.29
69.78 45.28 56.57
69.77 47.14 54.72
60.89 50.9 49.67
59.11 49.55 49.94
61.22 35.67 30.04
62.45 38.28 30.3
55.45 40.16 32.56
55.63 38.32 33.83
53.53 4.72 10.26
51.37 5.71 11.41
53.36 15.77 12.59
52.95 17.89 13.14
17.56 60.79 28.92
19.26 58.97 28.06
14.96 50.1 33.69
14.91 48.09 32.86
39.02 28.68 16.73
38.23 26.28 16.13
47.65 24.86 22.83
47.15 25.17 25.31
22.0 28.24 58.97
22.8 26.54 59.36
25.58 22.62 70.202
27.59 21.95 71.522
61.07 69.48 49.33
62.54 69.96 50.7
68.49 75.08 54.35
70.785 76.16 54.89
16.18 62.03 44.43
14.9 62.5 46.36
11.42 56.4 37.79
12.85 54.82 37.53
52.86 24.82 21.3
54.08 26.15 19.25
62.28 29.97 24.55
63.26 32.03 24.78
40.19 67.69 18.96
42.37 68.15 20.1
47.99 69.26 29.9
46.06 69.63 31.03
1.24 16.79 18.13
0.53 17.5 16.33
11.45 21.03 20.56
11.08 22.89 21.25
2.27 50.74 8.06
3.6 50.79 9.58
9.21 48.58 16.53
9.8 50.36 17.63
67.46 81.0 41.44
67.45 78.54 42.55
68.71 80.76 54.88
69.76 78.57 54.73
67.93 26.69 10.81
69.17 29.05 11.33
62.02 33.87 3.75
61.81 32.49 1.9
35.85 78.25 60.91
36.64 78.8 62.59
24.58 79.46 63.64
23.98 77.37 64.36
27.47 49.56 30.67
27.62 51.45 31.41
17.36 50.99 36.34
17.04 53.39 37.0
32.32 43.56 30.45
31.03 43.37 32.09
30.41 31.95 27.11
29.24 30.79 25.67
41.72 62.36 34.79
42.59 64.73 33.98
34.41 72.06 34.84
34.9 72.14 37.27
13.64 4.74 10.02
15.54 4.95 11.4
16.68 -5.179 6.39
15.29 -4.589 4.68
43.64 9.78 69.492
42.11 11.28 69.172
39.62 14.61 58.9
37.35 15.97 58.31
2.08 64.48 28.23
2.82 65.37 29.84
5.48 58.84 36.61
3.64 58.75 38.05
-2.005 22.64 67.582
0.57 22.16 67.472
1.26 10.41 62.77
2.31 10.06 60.62
9.53 54.28 55.25
8.82 56.38 54.32
9.76 63.31 50.75
10.33 65.7 50.62
41.43 7.56 63.67
41.73 5.16 64.05
45.88 5.91 56.72
46.56 4.08 55.49
29.23 76.14 9.49
29.98 77.37 11.22
17.94 74.91 9.84
16.76 76.91 10.98
5.34 38.72 33.9
5.05 36.61 32.87
7.21 43.03 22.07
7.81 44.61 23.57
41.89 74.13 65.64
42.98 74.19 63.13
42.21 64.1 58.19
44.65 64.04 58.02
34.28 15.08 38.96
33.89 13.87 36.96
26.72 5.4 35.02
28.44 3.85 34.29
50.47 50.19 3.11
50.3 49.93 0.89
40.96 57.13 0.92
41.19 58.52 -0.642
59.41 74.66 14.0
58.61 74.89 11.84
55.49 68.48 19.88
53.96 67.13 20.65
18.88 31.69 70.752
19.84 29.14 70.102
10.33 25.44 61.99
8.74 24.59 62.32
26.49 35.04 51.56
28.04 35.44 51.42
35.06 44.69 52.72
33.58 46.16 52.85
13.62 20.99 6.39
13.33 20.26 8.24
17.17 9.63 10.3
18.18 9.66 8.52
65.5 37.02 29.72
63.56 36.4 28.08
64.67 29.37 23.6
65.21 27.51 22.82
21.99 88.739 45.47
22.63 86.699 43.22
14.56 80.42 49.79
15.39 79.32 51.42
38.66 41.06 11.36
39.4 40.71 13.52
29.62 39.82 19.66
28.59 37.97 19.87
14.58 41.31 43.98
15.14 39.15 43.52
14.12 33.86 51.4
15.55 35.18 52.3
37.81 23.74 47.13
36.82 21.83 46.7
33.31 28.34 55.76
33.14 30.41 54.4
32.04 81.65 50.73
31.6 79.96 51.68
39.47 78.16 57.93
39.83 79.46 56.16
37.59 48.0 9.39
38.69 50.75 9.15
46.39 54.71 7.87
48.35 54.72 7.09
10.95 64.46 16.19
12.3 62.6 17.16
20.5 59.84 23.58
22.69 60.31 24.21
12.84 36.25 7.34
11.59 34.41 8.3
3.19 29.94 10.95
1.39 28.43 10.4
34.24 56.38 49.85
36.44 57.73 50.29
34.23 61.75 61.42
34.08 64.42 61.54
48.53 8.37 -2.892
48.46 6.9 -1.032
41.44 10.04 4.36
41.77 10.61 6.57
46.0 6.31 53.94
44.19 4.84 53.66
37.14 7.2 48.24
38.43 9.09 47.64
38.72 33.37 58.68
39.66 35.22 58.77
34.19 44.17 55.3
35.04 45.97 56.69
38.93 37.75 14.08
40.46 35.9 14.84
30.47 32.41 9.3
30.99 33.19 7.4
24.12 44.93 11.49
23.9 43.42 9.9
35.8 44.99 5.57
35.4 46.46 3.86
21.17 42.37 10.46
21.09 43.66 9.15
28.45 35.62 7.14
30.34 35.34 6.18
30.38 49.05 30.95
29.22 47.47 31.01
25.62 49.3 20.02
23.73 50.05 19.27
35.49 45.01 26.64
34.15 43.72 26.02
40.87 36.23 20.34
41.8 34.34 21.31
11.35 84.169 63.38
12.75 82.08 62.81
3.24 75.05 63.42
1.78 73.22 64.38
1.35 33.18 4.7
2.32 34.02 2.49
8.4 39.57 -3.662
10.53 40.53 -3.032
47.8 4.7 41.31
48.73 4.62 43.95
48.0 15.7 48.68
49.94 16.46 48.88
63.22 14.48 28.2
65.43 14.42 29.11
75.415 16.62 25.96
75.405 18.6 25.98
33.94 36.01 41.58
35.13 36.55 43.52
41.13 40.1 45.31
39.55 41.83 44.55
75.715 11.24 32.7
73.445 10.81 33.63
64.01 15.74 40.77
65.11 17.48 42.15
11.55 36.88 39.87
12.09 38.69 38.14
18.1 46.95 34.67
16.45 48.2 35.17
47.33 73.63 6.91
47.66 71.68 5.91
53.2 65.8 -0.762
53.9 65.22 -2.722
64.2 59.42 15.73
65.04 59.9 17.74
68.01 49.25 19.48
67.05 49.04 21.74
60.02 60.81 17.91
59.47 59.78 19.86
53.95 58.01 14.34
54.09 57.16 12.41
46.31 57.46 44.88
47.9 56.27 44.53
49.29 49.02 54.08
50.3 50.95 55.73
61.87 72.29 33.77
62.08 74.58 32.46
71.255 73.04 38.67
72.565 71.03 39.57
45.98 25.74 6.49
46.02 24.09 7.97
52.65 28.02 17.1
53.51 30.13 17.33
66.24 9.76 58.45
67.56 9.94 56.59
66.61 15.74 48.08
68.05 15.75 45.98
51.31 0.09 55.88
51.73 1.78 56.96
58.65 6.15 48.12
59.04 8.09 49.24
38.3 10.16 32.02
37.39 11.73 32.83
31.84 5.12 32.71
30.17 3.59 32.15
70.875 64.99 30.12
68.83 64.53 30.12
68.28 73.07 23.68
68.85 73.61 21.14
-1.025 12.23 18.32
-2.135 12.12 20.52
3.56 4.65 26.76
2.83 4.62 29.62
52.62 28.94 40.83
52.55 30.96 41.52
48.41 41.95 41.46
46.11 41.43 42.49
55.34 26.19 34.35
55.82 25.63 31.72
54.58 36.08 30.25
56.66 36.75 29.26
11.21 71.66 60.98
11.58 70.1 59.32
13.14 65.6 49.44
13.96 66.17 47.76
52.26 56.89 18.65
53.61 56.7 20.64
62.69 50.16 23.25
62.99 50.19 25.58
24.76 68.81 37.31
26.22 67.97 36.06
24.03 75.38 27.35
25.25 77.09 27.45
33.4 43.89 33.6
32.4 43.44 36.2
27.03 36.38 37.61
26.96 34.94 36.26
9.51 40.53 22.53
10.02 38.37 22.5
8.27 39.81 33.67
8.26 38.19 35.54
24.94 5.67 26.29
23.22 3.89 26.1
26.9 14.78 28.74
28.7 13.23 29.25
36.2 56.45 42.62
38.09 55.39 43.78
36.55 44.68 38.72
35.56 44.0 36.79
18.32 45.32 23.54
17.72 45.56 20.96
20.24 46.11 10.65
18.18 46.27 9.4
10.39 26.53 59.17
10.23 24.16 59.72
6.6 20.94 65.81
6.84 18.86 67.03
7.96 46.17 4.6
7.59 44.72 6.46
11.42 51.37 14.57
13.36 52.29 15.04
34.04 54.75 37.03
34.83 52.75 36.49
29.34 48.92 48.11
27.45 49.06 46.38
12.35 2.81 7.91
11.22 2.25 5.91
2.46 -1.379 0.94
4.1 -3.099 0.7
46.32 33.3 22.5
44.28 34.39 22.6
41.03 43.91 29.96
42.49 43.11 31.89
63.12 35.24 2.02
64.79 34.89 3.11
71.075 24.19 2.5
72.265 25.91 1.6
-1.295 8.07 55.08
-1.855 7.0 57.09
2.9 -2.309 55.02
2.24 -3.279 56.79
44.6 9.76 7.26
44.93 9.94 5.18
55.18 6.55 7.73
54.21 4.34 7.55
58.99 11.74 10.38
59.4 13.92 9.84
62.22 21.76 14.6
62.63 23.59 16.41
54.01 2.37 11.54
56.22 2.48 10.7
66.31 4.07 14.1
67.69 2.42 14.77
18.84 42.15 44.73
16.26 42.13 45.92
13.04 47.87 53.69
11.99 46.16 54.2
70.01 8.77 8.11
70.4 11.25 8.58
69.83 17.62 13.36
69.38 18.94 14.72
10.24 40.14 41.24
9.24 38.41 39.75
3.93 39.72 49.28
1.94 40.08 50.86
61.69 38.66 67.422
63.1 40.29 65.7
74.795 41.62 64.2
73.425 43.99 63.16
40.26 15.44 24.36
40.83 14.65 26.21
40.97 13.37 33.12
40.89 11.94 30.99
3.05 53.29 8.03
3.07 55.48 7.85
14.52 54.54 1.95
14.58 56.59 2.43
67.58 49.6 25.85
67.9 50.33 23.9
68.32 53.67 16.89
68.99 54.92 15.51
16.76 75.37 16.36
16.51 75.18 14.41
14.34 85.099 9.88
14.05 84.339 7.52
3.62 64.35 50.58
5.87 64.34 50.15
7.57 56.06 44.24
6.41 56.08 41.69
57.09 39.45 51.71
56.14 37.78 53.86
47.68 31.85 51.91
46.4 33.44 52.12
17.39 76.1 5.32
17.97 74.53 5.86
23.91 73.82 -0.772
25.18 72.07 -2.522
39.54 44.75 14.67
39.39 47.03 15.12
42.67 46.56 27.29
44.71 47.43 26.53
14.64 27.37 17.27
16.51 26.92 16.54
19.61 24.76 28.85
17.63 24.3 28.04
47.0 16.14 18.7
47.1 15.21 20.81
50.82 3.29 18.92
50.85 2.37 20.85
34.37 86.389 3.95
31.92 85.719 4.17
27.36 76.71 7.72
28.75 75.08 6.35
51.22 46.1 57.84
49.63 46.04 56.45
43.1 54.79 62.45
43.97 55.38 60.18
36.33 -0.469 62.39
35.28 -0.059 64.78
24.74 -1.759 64.83
25.08 -0.929 66.91
48.58 43.53 67.452
49.38 42.9 69.242
59.7 38.5 65.14
60.86 40.37 64.35
27.32 38.57 24.18
25.51 38.46 25.01
28.24 29.95 32.2
26.75 28.41 32.0
23.52 23.96 40.29
21.26 24.26 39.62
13.77 20.02 31.46
11.83 18.33 31.86
39.53 38.41 11.61
40.02 36.45 11.28
32.44 28.2 7.56
30.28 29.05 6.31
46.75 54.94 50.62
44.02 54.52 50.96
45.26 43.86 58.59
45.09 44.88 60.54
16.89 62.99 49.14
14.54 63.5 48.78
9.11 55.06 46.12
8.26 53.17 46.69
69.84 65.52 69.132
70.675 66.73 67.612
67.9 59.64 62.05
65.97 58.12 62.52
10.46 50.68 55.43
11.96 52.31 56.44
21.45 50.44 60.77
21.38 51.1 62.75
14.68 2.73 18.21
12.43 3.33 18.07
15.63 1.98 29.99
16.95 1.78 28.48
25.94 51.11 64.48
25.03 52.86 62.86
29.93 59.34 62.89
31.1 57.52 62.74
45.29 38.13 7.31
46.77 36.04 7.41
38.38 27.96 13.88
39.43 29.98 14.59
68.45 42.94 17.57
67.65 43.67 15.37
66.1 43.6 7.13
64.28 43.14 8.72
54.96 63.59 44.38
54.92 62.24 42.78
62.15 53.84 44.05
63.74 52.18 42.45
51.09 19.65 14.83
52.69 19.61 15.55
47.35 21.89 6.47
45.35 21.16 7.32
46.84 16.52 42.93
48.79 16.11 41.79
56.95 19.74 49.72
56.54 21.92 48.78
58.6 56.7 67.312
58.92 55.95 65.54
64.03 68.37 65.08
63.87 68.68 62.53
59.09 36.58 16.03
58.65 37.55 18.25
53.78 38.22 28.97
51.73 38.15 28.42
38.65 59.35 1.58
39.13 57.58 2.77
36.93 53.33 1.48
36.05 54.99 1.77
35.93 75.95 8.2
34.46 74.54 8.29
30.99 65.8 1.58
32.33 64.76 2.99
63.82 6.3 57.96
61.98 4.56 57.79
68.29 -2.269 57.61
69.95 -3.919 57.4
61.93 28.98 60.66
64.14 29.59 59.55
72.525 32.54 67.342
72.585 29.99 67.862
68.87 64.78 53.06
67.64 66.0 51.18
63.77 70.48 43.22
63.49 70.18 41.1
26.73 84.339 4.61
27.12 85.939 2.63
37.95 79.55 -0.172
39.89 80.34 0.64
41.73 61.22 32.06
43.34 59.47 32.12
43.96 48.5 31.25
44.68 47.08 29.68
36.79 -0.599 50.15
37.91 -0.819 52.21
37.71 3.69 60.01
37.39 4.35 62.2
55.89 9.91 38.36
54.4 8.11 37.46
45.13 12.9 41.31
45.79 13.98 43.58
24.07 34.17 0.31
23.53 32.04 -0.462
16.86 33.0 6.3
17.24 35.44 5.49
64.84 17.01 -3.532
65.33 17.79 -1.632
64.26 17.66 4.23
64.58 20.7 4.77
49.77 79.17 68.042
47.25 80.73 67.532
38.96 85.699 62.69
38.31 84.379 60.62
48.97 82.93 51.02
50.56 83.72 49.6
54.75 73.0 45.32
52.81 73.74 44.64
70.32 30.15 13.95
72.275 30.45 13.11
68.09 34.91 5.12
66.45 35.97 4.8
13.49 79.57 54.82
14.38 77.89 53.34
16.99 71.56 54.94
17.91 69.1 55.44
49.98 31.63 61.37
48.41 31.08 60.37
41.57 40.4 58.33
43.97 41.42 59.09
42.69 54.96 42.01
43.54 52.91 43.2
38.97 43.48 38.46
38.52 41.79 40.03
69.15 67.7 41.84
68.88 69.92 41.55
72.365 75.22 50.05
71.555 76.81 51.79
17.94 10.59 20.82
19.13 9.26 22.06
19.07 0.45 26.82
20.9 1.4 26.84
17.72 69.47 11.24
19.48 68.39 9.46
21.45 58.94 7.26
23.22 60.38 8.46
15.76 4.64 16.03
17.27 3.98 17.21
26.08 2.61 6.48
23.93 3.25 5.28
-3.155 62.17 42.38
-1.415 62.7 41.96
2.98 69.88 50.52
1.7 71.13 52.14
26.16 18.23 47.9
26.0 19.06 49.54
28.88 10.55 58.09
27.03 10.15 59.41
3.91 23.01 44.15
5.03 24.29 46.42
4.39 15.11 51.51
3.86 15.66 54.07
7.15 58.27 54.69
5.33 59.53 55.24
6.65 61.64 67.16
8.3 63.69 67.492
57.33 42.56 47.22
56.2 41.03 45.79
62.91 33.98 44.14
63.95 35.52 45.22
29.5 38.64 12.54
30.43 36.58 11.46
33.41 33.88 3.39
32.06 34.54 2.01
45.44 16.02 48.9
45.63 16.51 47.0
34.6 19.51 42.96
33.78 19.58 44.92
38.95 24.56 56.77
39.38 26.6 56.38
41.45 27.68 43.49
41.37 26.51 41.54
21.37 33.02 35.1
21.78 33.9 32.99
22.6 37.95 25.08
23.44 38.07 23.28
39.93 77.26 67.722
41.06 76.52 66.21
49.16 77.2 58.56
48.86 74.99 57.26
24.75 12.79 57.0
23.19 12.96 58.64
17.04 21.97 55.29
15.84 21.2 53.35
34.34 43.37 28.65
33.42 40.86 28.17
39.03 31.75 27.07
40.09 32.96 25.35
13.46 30.87 8.97
14.72 29.55 8.31
11.29 22.84 -0.572
12.48 22.17 0.98
47.08 35.41 48.94
45.35 35.28 50.41
44.78 29.88 52.58
44.61 31.98 53.41
31.13 6.02 59.83
30.73 7.21 61.74
39.12 8.28 65.44
38.27 7.15 63.65
2.21 20.94 24.29
2.59 23.13 24.59
5.72 14.84 30.52
3.6 14.86 29.39
13.61 83.929 43.05
13.46 81.89 42.3
24.53 80.04 38.57
24.64 79.3 40.58
31.02 45.83 1.3
28.27 47.01 2.18
24.35 50.48 11.96
22.13 49.46 11.92
44.87 72.07 17.04
43.94 70.19 16.54
41.49 64.82 7.05
41.35 66.91 6.24
19.36 33.5 1.69
19.85 33.53 -0.342
16.2 39.54 6.3
18.54 39.47 6.73
17.69 77.92 20.58
15.55 77.3 19.6
10.41 70.46 21.12
8.74 69.61 22.61
44.29 10.36 15.48
42.01 11.04 15.31
34.15 11.38 11.12
32.03 12.61 11.44
47.76 80.58 28.36
45.87 81.23 29.34
38.4 78.25 35.72
38.29 79.16 37.87
29.04 37.38 39.25
29.8 35.6 38.98
34.34 29.01 44.59
32.79 28.3 43.6
51.11 16.1 66.07
50.63 17.67 67.532
58.15 13.6 63.03
60.17 14.59 62.28
44.01 10.29 55.06
45.13 12.11 56.66
52.67 19.48 54.9
54.6 18.36 55.65
42.75 27.71 38.12
40.66 28.73 38.65
44.49 41.0 37.8
43.15 41.28 39.07
38.64 63.78 4.4
36.91 64.91 5.39
44.55 71.65 9.44
43.89 73.81 8.25
73.545 50.24 27.69
73.005 50.8 29.67
62.3 53.19 27.43
61.0 54.57 28.62
31.09 76.49 26.11
32.07 74.99 24.52
33.46 80.29 14.31
33.59 82.23 15.09
24.26 20.38 20.14
25.62 18.64 18.93
30.04 14.05 24.56
31.66 12.03 25.16
36.21 63.91 2.8
34.63 63.43 4.85
31.43 66.88 8.07
32.4 68.16 6.34
54.19 65.54 46.29
51.96 65.66 46.71
43.93 64.04 54.63
44.51 62.5 55.78
24.53 13.32 33.96
22.53 13.98 32.98
11.25 15.08 34.39
11.37 13.44 35.97
31.23 65.18 63.12
31.49 63.14 62.52
34.34 55.21 65.66
36.26 55.02 66.28
7.05 47.26 -0.052
4.84 46.23 -0.562
-0.585 54.33 4.55
1.29 55.29 3.56
25.27 40.19 66.68
26.37 38.61 65.63
29.9 34.71 53.71
28.13 33.22 53.02
47.51 -1.139 30.67
49.3 0.22 31.65
54.72 5.75 36.84
55.32 4.01 35.04
21.7 43.63 44.42
24.14 44.06 43.95
31.74 38.36 41.18
34.34 38.83 41.7
40.14 35.06 17.9
42.35 34.69 18.79
43.88 26.86 12.35
44.45 25.41 11.29
17.0 28.04 57.28
18.97 28.67 57.0
26.1 22.73 60.07
28.44 23.79 59.96
2.8 61.74 37.14
4.78 62.07 38.24
6.95 56.7 28.47
7.02 54.54 29.77
12.21 26.91 18.19
11.15 24.74 19.05
11.28 20.62 10.17
12.81 22.12 10.26
48.27 84.619 26.98
49.09 82.44 26.35
57.38 74.84 30.1
59.03 73.88 31.8
2.8 13.93 55.68
2.98 14.42 57.85
11.49 18.41 52.13
13.51 17.35 52.24
72.645 15.08 31.55
70.745 16.51 30.74
64.38 22.41 36.42
65.22 24.31 37.97
59.05 68.97 3.31
60.2 69.0 5.72
59.87 60.29 11.86
59.57 60.05 14.24
35.85 11.77 47.83
35.91 9.72 48.91
37.34 8.1 60.91
37.78 10.98 60.59
0.27 75.88 17.96
0.3 76.8 20.26
1.35 88.079 17.34
3.38 89.799 18.09
31.48 73.94 27.36
30.55 73.04 28.91
29.42 63.53 30.14
28.16 61.36 30.41
1.65 27.53 12.75
3.43 26.69 13.89
0.22 18.2 20.73
1.91 17.4 20.96
53.28 58.24 40.8
52.58 57.62 42.98
58.37 49.33 39.63
59.37 50.0 38.09
-1.945 30.26 38.86
-0.145 30.07 37.73
2.9 28.0 28.7
4.21 28.99 27.13
25.57 88.969 22.89
23.45 88.079 23.51
20.2 76.57 25.16
18.96 76.82 23.44
55.09 30.78 40.69
54.26 29.71 38.75
54.78 24.41 45.32
53.37 23.21 44.16
68.46 37.03 48.09
70.25 37.81 47.21
69.45 41.84 38.53
70.835 42.39 36.82
33.25 56.7 29.54
33.34 58.25 28.31
25.42 61.3 24.09
24.69 63.46 23.23
67.36 83.33 15.34
66.88 81.41 14.64
60.06 73.59 20.82
60.29 73.89 23.37
52.64 -2.159 58.53
54.13 -0.129 57.47
61.78 1.14 65.0
61.88 -0.449 66.78
23.37 30.77 22.71
21.92 32.68 21.57
9.4 32.32 22.26
9.9 34.48 21.75
16.33 69.61 45.74
17.16 70.97 43.8
22.87 74.19 40.88
24.05 73.21 38.72
62.85 5.99 4.77
