37.51 13.96 83.96
21.46 24.71 66.86
22.92 23.59 68.33
23.63 11.72 74.96
23.86 9.82 73.44
54.87 44.07 22.18
53.73 42.52 23.16
46.76 44.29 34.1
45.36 45.78 33.45
84.2 4.86 56.07
84.58 6.52 58.16
91.463 0.81 66.26
92.273 2.88 67.36
59.84 2.43 50.43
58.59 4.07 50.46
63.72 16.41 53.13
63.2 18.53 52.65
16.12 13.0 16.38
15.08 11.43 15.38
25.75 6.79 10.62
25.93 5.11 9.78
25.37 12.27 79.33
27.7 12.29 77.58
29.39 23.95 71.47
27.97 24.62 70.15
62.65 16.77 7.56
61.93 14.99 9.12
55.2 5.53 5.09
54.12 4.05 6.02
3.66 42.35 43.5
4.04 40.26 43.39
16.53 34.83 43.02
18.23 35.29 44.58
30.51 3.82 29.86
28.56 3.05 29.27
18.6 0.17 20.41
19.57 1.68 19.0
83.63 39.69 2.13
81.91 39.38 1.03
70.67 44.02 6.99
69.86 45.54 7.8
17.6 45.92 7.66
19.39 46.17 8.87
27.63 36.2 7.39
29.57 35.13 7.94
-3.643 25.19 42.96
-2.193 25.5 44.74
6.14 14.91 43.95
7.49 15.05 42.6
82.26 10.14 83.16
84.64 9.75 82.8
91.773 4.76 82.68
90.483 2.77 82.19
82.76 23.72 43.81
80.98 25.51 43.18
74.95 35.92 43.04
73.32 36.45 41.53
58.14 29.79 71.98
57.0 29.91 69.86
52.58 21.51 62.25
52.74 20.02 63.81
76.33 52.539 76.47
77.24 50.659 75.38
77.12 37.15 78.75
78.77 35.94 77.95
14.55 19.28 30.47
13.95 20.27 32.21
12.89 11.05 40.99
13.74 9.66 40.21
57.8 11.96 22.53
57.26 14.05 22.77
64.71 20.17 24.02
63.45 21.49 25.53
53.01 8.88 63.12
53.65 7.34 64.65
62.63 -2.729 62.07
64.54 -2.609 61.41
91.443 40.34 43.22
90.383 38.19 43.57
81.83 42.86 42.77
82.45 42.15 40.6
39.91 1.83 18.65
39.44 2.69 20.35
48.94 6.51 29.02
47.31 5.62 29.35
5.81 25.94 48.29
5.05 27.97 47.3
3.79 34.22 58.76
1.73 34.07 59.61
74.05 33.32 15.1
72.27 32.67 13.36
71.17 19.31 11.12
71.12 18.6 8.68
22.83 12.08 5.33
21.68 13.62 5.79
28.48 10.83 16.36
30.22 10.37 15.08
56.41 37.63 17.01
55.61 39.35 18.35
66.56 44.84 12.13
67.31 43.77 10.24
0.86 26.99 69.75
1.09 28.87 69.88
12.63 29.22 64.19
13.43 27.25 65.16
71.27 8.04 67.85
72.3 9.91 67.16
63.08 21.06 74.97
61.37 19.96 73.61
10.8 40.45 96.03
11.99 38.63 94.56
9.24 30.23 86.36
10.89 30.3 85.29
78.47 26.29 83.43
78.05 28.49 83.54
88.71 23.78 79.53
88.17 23.36 77.24
10.47 50.549 86.01
11.24 49.709 83.5
10.04 47.25 71.57
11.07 49.319 70.33
30.17 19.7 64.4
32.22 19.94 64.79
42.92 14.87 59.65
44.55 16.02 58.77
50.14 17.51 89.87
51.89 17.74 91.77
62.51 18.53 89.98
64.17 19.71 91.35
85.35 22.7 3.26
86.64 21.23 4.91
79.68 7.76 5.39
78.46 8.88 6.51
49.14 28.75 84.36
48.84 30.92 83.83
56.57 30.27 75.37
58.15 28.78 76.5
43.7 28.63 49.81
41.74 29.55 48.92
44.32 27.61 60.61
43.05 26.06 61.68
35.9 33.87 87.19
37.9 34.46 86.8
41.84 37.15 78.28
41.92 35.45 79.51
47.07 20.64 72.02
45.12 19.97 71.75
40.53 9.77 75.83
42.43 8.83 76.81
60.73 19.72 55.32
60.18 21.47 54.49
65.43 32.66 61.71
64.09 34.51 61.77
86.79 45.57 100.33
86.82 45.26 97.64
88.6 40.12 89.19
90.583 41.01 88.74
84.57 34.17 59.11
84.11 32.07 58.91
73.28 30.07 55.35
73.38 27.7 55.51
16.12 20.0 88.27
15.4 18.65 86.3
7.07 18.07 94.9
6.48 19.31 96.78
82.23 6.31 54.51
83.18 4.28 53.47
89.86 10.48 57.99
91.543 11.71 58.74
45.12 6.73 95.89
43.47 5.83 94.77
32.29 2.88 93.23
29.98 3.74 93.56
58.62 37.85 22.04
60.29 39.61 22.83
70.08 42.98 19.88
68.85 44.07 18.26
41.26 35.38 61.47
43.0 34.07 62.34
53.06 36.75 69.81
54.37 34.31 68.72
7.83 13.95 55.71
7.16 14.54 53.43
11.08 9.39 43.17
12.26 8.38 42.25
46.37 19.41 2.23
46.23 17.57 0.69
33.22 13.68 2.85
30.97 14.03 1.63
42.19 46.44 29.96
41.9 45.87 28.1
36.14 46.13 23.97
35.26 45.66 22.23
32.38 30.34 30.56
32.64 27.75 30.44
33.36 25.37 16.14
35.15 26.3 15.47
39.27 7.18 17.94
37.27 6.68 17.82
31.7 13.47 7.06
29.65 14.56 5.89
78.64 52.379 102.51
78.63 50.679 100.51
74.02 39.5 104.901
76.23 38.76 105.971
48.94 16.4 60.2
49.03 14.71 58.6
45.37 4.2 59.38
44.18 2.32 58.31
35.81 -0.949 49.97
33.88 0.05 50.02
39.79 5.12 57.85
41.11 5.01 59.29
10.48 -0.399 7.2
8.66 0.85 8.27
18.96 0.34 16.84
17.61 -0.739 17.87
5.57 43.2 33.69
6.83 42.65 35.47
10.51 46.83 46.77
8.8 45.61 48.17
18.61 20.86 95.45
16.92 22.09 95.09
7.95 26.24 95.67
5.98 27.77 96.49
18.97 34.92 2.55
18.45 32.96 3.32
18.37 27.76 14.51
18.19 26.27 13.21
4.14 21.33 -5.441
6.36 21.01 -5.661
11.94 20.03 5.75
12.59 21.09 7.91
34.29 42.29 70.13
36.06 43.59 70.27
45.55 37.4 72.78
46.18 38.14 74.77
18.43 12.55 24.25
16.75 13.84 25.06
7.86 10.15 20.43
7.56 10.41 18.25
47.77 49.959 79.07
47.24 47.88 79.39
34.05 44.33 84.39
32.8 44.24 81.99
46.51 19.87 43.69
47.29 21.83 43.21
57.07 18.76 34.09
57.95 17.73 31.96
79.34 43.74 74.66
80.69 43.5 76.05
73.6 51.459 81.45
70.85 51.819 81.68
34.45 27.47 98.35
33.86 25.75 97.66
36.25 30.67 91.15
35.58 32.1 92.24
25.38 48.38 4.88
23.37 46.73 5.13
14.72 40.04 -1.871
12.69 41.32 -1.451
26.26 47.81 54.51
26.5 49.769 52.84
26.83 44.96 39.77
28.2 46.49 39.42
14.63 16.77 90.52
12.08 15.87 90.56
3.26 15.42 80.46
4.8 17.47 78.97
45.47 31.23 62.4
45.99 29.34 63.73
59.18 31.46 68.46
59.33 33.72 69.15
18.2 27.65 83.45
17.94 30.09 82.39
19.7 42.39 80.68
18.41 44.11 79.53
18.66 33.31 105.091
20.52 34.32 103.81
29.14 35.13 95.56
30.06 33.33 93.98
25.78 11.71 44.98
24.97 11.13 46.77
17.13 13.89 52.21
15.58 14.08 53.63
37.59 41.65 20.13
38.8 42.08 18.08
30.7 40.39 7.95
28.37 41.4 8.46
40.31 -1.719 16.38
40.87 0.25 15.03
29.28 8.88 12.98
28.0 8.78 14.58
42.28 0.54 10.59
40.75 1.46 11.79
27.79 5.8 7.94
27.22 8.29 8.39
24.45 3.76 -4.781
25.99 4.42 -3.571
19.0 12.7 6.41
17.44 14.36 5.97
62.16 30.96 64.17
61.36 29.06 64.81
52.04 37.48 58.58
50.69 36.39 59.46
3.92 25.24 46.12
3.12 23.48 45.53
8.64 13.26 44.65
9.32 12.76 42.14
46.55 26.85 20.07
47.67 28.69 21.4
39.1 29.93 12.7
37.5 29.25 14.39
56.05 35.8 70.47
55.04 37.55 71.64
63.99 40.18 81.71
62.85 39.95 84.03
65.22 46.98 59.29
65.5 47.0 57.16
77.53 44.89 55.31
77.02 46.71 54.43
59.06 11.74 73.47
58.76 13.91 73.86
46.35 19.43 74.87
46.44 21.38 75.95
79.45 5.09 6.04
77.62 5.75 5.99
65.75 1.9 14.72
66.57 -0.269 13.98
35.18 34.23 64.25
33.2 35.04 63.22
40.18 31.86 60.31
42.56 32.65 60.1
75.18 36.02 77.13
73.75 37.74 77.39
61.28 30.6 73.48
59.81 28.81 74.18
32.05 -2.869 67.68
34.02 -2.289 68.85
31.22 11.39 71.75
30.93 10.22 73.38
69.04 20.72 16.41
71.57 20.19 16.31
75.56 30.85 14.73
75.33 31.46 16.77
42.9 45.58 9.0
40.97 46.98 8.38
48.09 42.93 6.27
49.18 43.92 8.18
26.22 4.29 97.81
28.28 3.8 98.89
40.96 2.65 91.44
42.87 2.12 91.89
55.88 28.23 46.8
54.38 29.43 46.35
53.48 30.59 48.68
54.29 28.83 49.77
61.74 36.34 36.99
60.22 35.12 38.28
57.26 34.14 35.91
54.99 35.51 35.81
10.65 30.3 61.91
11.93 30.67 59.96
15.35 32.24 49.1
17.47 31.5 48.11
52.54 39.91 100.52
50.85 40.52 101.64
52.83 52.089 94.14
51.66 52.319 91.97
12.29 14.23 77.16
13.4 13.73 75.67
18.34 18.31 85.11
19.83 16.54 84.15
18.74 16.47 7.43
17.64 18.35 7.78
13.74 13.0 13.78
12.05 12.42 12.71
80.49 25.84 97.45
79.66 27.89 97.35
79.23 36.36 105.421
77.68 37.32 104.4
60.33 17.2 56.57
61.97 16.82 55.51
63.49 2.78 53.29
65.77 1.33 54.16
2.7 25.21 68.74
4.45 26.72 68.41
14.48 27.95 75.08
14.69 26.06 75.07
68.38 3.35 86.89
66.42 2.48 86.87
54.77 2.21 92.86
54.83 -0.019 92.77
59.63 29.67 19.67
59.1 28.89 17.19
56.71 18.59 11.64
57.81 19.85 9.7
59.76 31.64 -1.301
59.16 31.83 0.64
55.19 24.91 10.78
55.12 22.86 11.48
54.37 34.0 29.05
54.83 33.0 31.16
61.57 22.41 31.75
60.5 21.95 33.83
42.93 18.0 17.21
45.37 18.92 17.89
52.93 8.94 17.69
54.74 8.58 16.42
26.62 45.39 57.08
27.46 44.41 54.9
37.84 42.63 52.35
39.01 42.58 50.47
84.92 43.13 16.52
86.22 45.25 16.09
94.133 48.13 11.8
96.253 47.55 12.51
75.0 8.3 100.47
76.06 6.7 101.32
89.13 9.56 103.73
90.22 8.36 105.411
24.8 24.99 86.66
25.88 23.16 87.2
33.53 15.75 92.59
33.63 13.81 93.83
62.68 43.55 52.18
61.74 43.99 50.53
59.91 37.85 38.1
57.88 38.5 38.15
62.73 42.19 63.81
64.75 41.22 63.35
61.63 32.7 67.7
61.38 30.52 67.26
85.11 10.34 44.37
84.35 12.1 42.76
79.72 18.2 33.74
78.54 20.31 34.12
31.97 12.38 74.57
30.39 13.38 76.14
43.79 19.92 75.59
43.88 21.08 77.13
47.78 12.54 102.88
47.4 14.25 101.94
50.84 6.48 91.57
52.23 6.66 93.52
44.1 15.04 24.86
44.81 16.95 24.39
43.55 24.78 36.83
43.7 26.78 35.32
17.05 21.38 8.73
14.67 22.29 9.17
5.35 29.03 8.92
3.49 30.02 9.28
32.35 31.75 7.88
30.28 31.03 7.41
28.95 37.74 -1.421
29.63 38.84 -3.751
2.56 33.51 95.35
2.65 31.13 95.07
3.89 19.97 94.91
4.51 21.03 96.37
80.61 19.4 93.94
82.5 18.34 94.47
76.56 6.99 98.25
77.31 5.08 99.6
54.99 7.85 74.23
54.9 9.69 75.89
62.57 12.4 76.15
60.5 12.04 76.12
30.98 18.22 22.09
29.53 17.0 22.91
29.68 7.29 31.59
28.62 5.22 31.95
6.37 51.869 67.78
4.5 51.559 66.31
-1.263 43.01 57.41
-0.523 41.39 58.53
41.06 22.94 100.75
42.38 23.23 99.34
34.04 20.66 88.06
32.12 19.65 87.29
33.54 21.54 1.16
35.36 22.15 0.44
37.93 32.74 7.42
36.55 34.68 8.28
18.38 26.05 102.68
18.09 25.72 100.29
16.41 33.31 90.63
18.18 32.44 89.37
51.48 36.66 86.6
52.74 37.73 85.6
57.21 44.9 83.36
58.98 44.81 84.11
81.14 47.26 73.92
79.78 48.919 74.37
84.88 47.27 64.72
86.72 47.37 65.59
31.63 22.28 66.25
33.69 21.82 66.13
43.34 30.31 64.71
43.62 32.39 64.22
46.65 2.68 53.92
45.57 4.71 52.78
31.51 -1.729 54.86
30.9 -3.459 56.92
62.4 42.42 79.97
64.23 42.73 81.71
61.25 45.3 91.62
59.76 44.15 90.81
64.23 32.95 85.22
66.33 33.31 84.84
61.56 42.61 93.86
58.9 43.39 93.35
4.34 31.62 45.5
2.59 30.68 45.34
-1.233 38.65 55.01
1.07 38.76 56.11
33.39 19.77 31.71
33.64 17.59 32.7
42.86 9.67 29.39
44.91 8.98 28.93
72.35 27.92 15.75
70.67 26.59 17.42
61.7 20.94 6.19
60.35 19.5 6.53
10.77 8.96 99.57
10.41 9.61 97.86
15.9 12.7 90.33
16.41 14.33 89.38
47.09 0.17 59.13
47.09 2.22 60.85
57.22 3.57 53.94
55.66 1.09 53.63
17.76 1.14 41.14
17.17 2.84 39.13
9.85 0.27 28.68
10.32 -1.729 28.24
15.67 47.88 19.57
15.03 45.97 18.59
8.95 44.03 28.51
8.93 43.44 30.65
8.46 34.14 17.12
7.21 35.52 17.34
2.24 36.39 28.03
0.89 34.94 28.86
66.54 38.83 82.57
66.54 36.58 83.02
75.28 32.53 79.91
76.88 33.86 78.53
80.42 4.85 30.91
81.5 6.9 30.92
88.25 9.83 42.28
87.58 11.84 43.9
37.43 27.93 30.78
37.99 25.75 31.53
35.56 21.28 21.45
36.32 22.57 23.21
14.46 20.0 53.7
12.49 19.29 54.08
20.93 19.97 56.06
20.09 18.26 57.67
13.69 13.09 7.96
14.06 15.32 7.85
26.18 8.84 12.32
26.97 10.21 11.04
52.26 -1.419 34.12
51.97 1.12 33.87
54.06 5.86 20.74
55.88 6.61 20.79
94.803 46.53 54.73
93.153 48.04 53.88
87.21 43.37 59.74
86.06 41.78 60.64
66.74 21.17 25.46
66.0 23.15 26.13
67.18 29.08 34.86
66.77 26.86 33.9
49.35 36.74 103.38
46.96 36.85 103.09
37.1 31.66 96.2
35.15 32.41 95.0
51.38 45.87 70.05
49.35 44.96 69.26
37.64 46.26 69.41
37.86 47.83 71.45
78.68 26.56 65.59
77.53 25.96 64.02
64.1 29.33 63.55
64.58 27.96 65.0
57.85 18.49 56.4
57.74 20.34 54.99
61.81 32.5 54.78
60.94 34.2 56.17
76.78 35.21 82.63
75.05 34.81 81.56
73.18 39.43 73.26
73.09 40.02 70.82
-1.843 0.25 43.81
-2.133 1.44 42.31
7.52 2.86 31.24
7.35 0.95 29.49
8.93 23.23 63.73
9.66 20.58 63.36
8.61 16.68 55.26
6.84 17.5 56.75
63.71 33.5 23.85
66.3 32.85 23.13
65.63 37.94 35.57
65.64 39.18 33.82
8.58 36.83 55.76
9.22 38.52 54.08
2.88 37.46 43.91
2.17 36.1 42.81
53.3 4.74 17.49
51.71 5.98 18.74
40.53 9.44 16.65
38.88 10.73 17.3
7.08 8.23 86.66
6.14 6.81 85.32
6.67 5.87 71.0
8.97 5.74 70.24
83.3 46.47 106.781
83.2 47.75 105.011
77.47 38.7 97.36
76.52 37.25 96.11
56.16 0.46 31.52
57.69 -1.489 31.9
55.63 3.89 19.47
57.18 4.66 18.31
81.12 5.25 9.68
82.46 4.28 11.65
93.883 3.95 2.0
94.483 6.09 2.81
92.833 44.51 55.29
92.733 45.36 52.9
82.55 50.169 57.91
84.23 49.749 59.52
43.41 53.849 78.77
41.65 52.549 78.4
45.55 40.58 80.93
45.22 38.22 81.83
30.67 9.68 94.99
32.36 7.87 94.72
39.87 6.9 104.901
39.55 4.95 105.571
46.49 25.21 62.2
46.92 27.27 61.97
55.06 21.58 60.43
53.18 21.11 59.84
36.51 20.56 46.46
35.82 21.26 44.23
32.59 22.26 34.36
34.45 21.92 33.13
2.23 12.71 103.13
1.37 10.65 102.39
-0.813 0.26 100.96
-1.043 -1.679 100.26
40.86 38.05 42.27
40.54 36.61 43.84
41.54 35.88 58.14
40.32 34.55 59.27
10.99 31.48 16.74
11.33 34.01 16.66
16.45 34.92 3.1
17.59 36.95 4.12
12.93 31.19 34.91
12.59 30.6 32.55
3.22 40.95 34.46
3.86 40.19 36.59
56.8 11.17 1.58
55.23 9.99 1.98
46.38 10.33 -2.441
46.78 8.93 -3.991
34.11 5.9 74.65
34.47 6.46 76.95
35.0 13.22 88.01
36.61 12.97 86.34
2.07 35.42 1.12
3.47 36.21 0.16
4.32 45.5 11.58
6.06 44.84 12.13
80.38 26.97 105.071
81.41 24.94 105.331
90.09 33.37 103.3
91.123 35.0 101.73
13.18 6.68 63.28
13.43 9.39 64.63
14.43 15.74 69.61
13.0 15.45 71.02
17.85 29.78 31.4
17.86 32.41 30.0
21.9 42.38 28.34
20.49 43.3 29.63
54.74 28.35 15.99
54.1 30.41 15.41
52.5 39.29 18.96
53.9 38.72 20.64
11.32 37.92 33.85
12.06 37.03 31.15
10.09 35.73 19.91
11.87 35.15 18.76
0.83 44.94 88.2
1.81 42.82 87.25
15.01 47.99 89.07
15.76 45.54 89.89
58.48 16.77 8.31
59.25 14.89 9.14
51.98 4.69 10.41
52.3 2.65 10.8
59.44 23.81 76.08
60.62 25.54 76.05
71.95 26.2 71.12
70.78 24.73 69.58
51.81 7.87 48.52
49.91 6.71 47.4
50.17 4.54 36.05
49.06 2.3 36.43
64.42 41.99 60.41
62.81 43.07 61.39
49.96 42.81 66.11
51.51 43.45 67.55
47.75 41.93 9.89
48.91 43.63 10.69
41.79 48.21 17.84
40.7 46.98 19.01
44.77 3.82 96.49
43.74 1.84 95.9
30.4 -0.049 101.77
29.27 1.65 102.49
50.83 25.02 86.08
51.41 25.97 84.5
64.86 27.53 89.12
66.48 26.01 88.25
37.78 29.34 89.07
37.38 27.83 87.62
45.75 32.58 86.79
44.06 33.99 87.36
19.05 23.27 29.5
18.43 25.84 28.68
11.19 24.23 19.71
9.04 24.37 19.0
12.91 35.05 32.74
13.99 37.28 33.03
18.95 26.31 40.65
18.09 25.57 43.19
26.62 28.3 46.04
25.98 26.41 47.07
22.74 19.27 54.14
21.34 17.38 53.75
9.24 45.43 69.56
8.52 43.41 68.49
-1.533 51.099 70.84
-3.213 52.849 70.45
29.54 34.17 109.851
27.76 33.0 108.391
33.19 26.27 100.22
32.98 24.31 101.11
41.15 19.51 52.84
42.69 18.16 53.63
34.0 10.99 49.08
34.24 8.44 48.81
-1.543 47.89 91.78
0.0 46.86 89.89
8.02 49.159 103.41
5.9 50.569 103.75
44.34 36.22 80.53
44.1 35.19 82.84
39.91 34.22 85.17
37.64 33.67 83.76
78.86 36.86 49.74
76.42 36.57 50.55
71.45 31.96 42.29
70.79 30.23 40.93
7.87 42.35 71.68
8.94 44.23 72.63
1.76 47.16 83.46
0.03 46.59 84.22
47.06 40.13 78.87
47.22 37.76 79.11
55.63 31.48 71.47
55.71 29.06 73.08
93.053 19.07 66.75
91.623 19.1 64.93
84.55 29.48 58.72
86.59 31.03 58.69
26.62 28.88 50.37
27.73 29.86 52.05
21.96 26.68 64.97
20.55 25.57 64.13
86.06 14.69 97.92
85.65 17.16 98.69
77.71 9.66 106.071
77.54 8.96 108.051
11.92 5.56 57.62
10.98 6.01 59.82
2.34 15.17 58.55
0.53 14.58 59.41
4.33 33.77 105.751
6.36 33.2 104.45
5.18 25.13 97.49
7.31 23.56 97.49
27.61 23.5 65.16
25.84 23.38 66.56
28.51 11.39 72.66
27.4 10.64 74.06
25.04 30.33 30.42
25.76 31.86 29.34
27.42 35.28 26.24
25.51 34.59 25.44
81.26 26.19 47.61
81.27 27.09 45.47
75.05 33.32 35.46
76.43 33.27 37.51
70.8 50.099 97.06
70.16 49.019 99.43
73.6 37.09 97.39
73.9 36.27 95.16
3.67 3.75 86.16
4.58 5.55 87.18
-4.043 12.23 83.68
-3.983 10.41 84.97
74.55 25.27 22.11
76.42 26.66 22.42
87.78 28.44 30.05
88.94 29.31 28.49
23.86 39.85 91.72
23.78 37.59 91.53
20.93 29.62 86.8
22.04 28.86 84.63
72.93 25.9 24.26
73.47 28.31 25.65
75.75 29.89 21.73
74.58 29.13 23.5
67.97 12.32 86.23
66.29 13.41 87.25
58.97 17.52 93.58
57.08 19.63 93.64
53.13 31.45 -3.561
51.85 32.46 -4.871
44.05 33.29 7.78
45.85 35.45 7.72
68.1 15.28 86.55
68.89 16.69 85.01
81.65 22.78 89.38
82.73 22.3 88.08
-2.323 4.31 40.56
-2.473 6.31 40.01
7.05 7.47 28.11
7.84 9.29 28.14
89.47 29.59 73.16
89.2 28.52 71.47
79.3 22.2 62.69
79.7 19.78 63.31
68.92 50.949 100.99
67.03 50.449 101.87
72.99 37.58 101.43
72.31 35.54 100.83
14.36 21.82 6.08
15.92 20.91 4.97
13.17 10.23 -0.381
14.74 9.92 -2.011
59.74 37.66 6.48
60.33 38.4 4.66
63.13 45.47 -3.711
64.14 45.57 -5.691
74.34 22.78 72.71
76.22 24.5 72.48
78.45 37.79 72.85
80.62 38.58 71.24
72.44 8.86 18.05
74.98 9.07 18.0
79.41 7.09 28.49
81.66 6.94 27.65
28.72 33.63 28.07
31.01 34.8 27.53
38.66 35.15 39.6
37.63 33.4 41.2
84.94 32.09 15.48
87.1 31.48 15.68
87.19 37.71 9.59
87.51 37.5 12.33
15.61 10.97 41.94
16.37 9.99 39.89
30.17 14.1 38.76
28.6 13.41 36.56
46.25 12.21 41.52
47.78 11.91 39.97
49.22 8.23 32.21
47.06 8.28 30.66
39.3 46.75 10.59
41.33 45.67 11.1
36.79 33.99 12.15
37.72 35.35 10.67
29.94 1.11 87.97
28.13 2.1 87.38
26.9 9.65 77.21
25.32 10.12 76.23
83.36 37.24 12.51
83.86 35.65 14.64
83.89 42.78 25.14
81.88 43.39 26.61
44.86 35.73 53.45
47.08 35.97 52.8
44.89 40.29 39.81
46.51 40.66 38.86
87.86 7.79 88.67
86.92 8.3 86.53
79.52 6.39 78.22
79.02 7.57 79.86
83.33 48.539 20.75
81.25 48.509 22.58
81.27 50.349 12.04
82.33 49.089 10.0
71.31 15.61 8.36
73.17 16.57 10.26
79.52 7.96 17.3
81.06 7.8 18.86
20.0 25.89 68.83
20.53 26.85 70.86
23.19 14.66 79.15
22.4 16.43 80.87
13.46 24.65 101.09
12.77 22.48 101.09
21.12 13.75 96.75
22.11 13.88 98.72
52.86 21.14 10.35
54.35 19.98 11.31
60.43 8.34 19.22
59.12 6.43 18.19
47.3 2.93 51.09
46.89 4.8 50.16
51.19 -0.759 36.55
49.21 -0.419 35.26
59.48 9.99 62.53
61.97 9.98 63.83
73.27 12.47 57.24
74.94 14.13 58.64
75.83 18.95 68.86
75.85 16.57 67.51
84.19 7.67 71.68
85.16 6.27 71.55
68.31 43.87 84.07
67.81 44.09 82.12
67.27 44.82 70.35
68.58 45.06 68.39
52.64 37.02 -3.651
54.81 35.91 -3.641
48.93 40.94 4.31
47.26 39.28 4.72
85.12 21.86 78.86
87.61 21.36 79.22
80.74 13.32 80.0
78.71 13.23 78.7
41.06 4.76 45.22
43.04 6.21 45.29
43.9 20.16 44.55
44.01 21.58 46.53
31.23 10.91 47.84
31.5 8.5 48.33
29.69 -0.919 58.03
29.03 -1.489 56.11
84.4 39.11 103.93
83.98 38.38 102.34
79.62 26.88 102.22
78.91 26.09 99.69
8.48 51.439 27.59
7.29 49.529 26.65
-3.663 44.17 21.96
-4.183 42.47 23.02
76.58 5.62 51.08
77.89 3.99 51.3
89.74 -1.309 45.6
90.243 -3.249 47.46
37.04 34.48 76.2
35.53 36.3 75.4
40.0 33.15 62.5
39.15 31.53 63.72
18.08 28.77 86.26
18.79 27.5 87.66
11.05 22.76 98.71
10.83 24.73 99.99
56.45 9.47 102.94
54.59 9.54 103.91
54.27 12.52 92.97
52.37 12.6 91.76
41.14 24.6 11.44
39.23 24.53 11.53
27.13 23.37 11.43
25.83 24.4 10.29
66.75 20.18 91.79
67.78 22.17 91.82
81.82 23.72 92.39
82.62 21.59 94.38
15.15 38.14 57.97
14.54 35.76 58.24
21.99 28.1 51.55
24.06 29.54 51.27
64.88 20.02 108.691
63.71 19.29 107.041
71.3 14.07 94.78
73.02 14.3 96.02
91.273 26.85 42.86
89.91 24.88 42.36
85.62 14.54 43.28
83.59 14.74 44.34
78.3 19.08 93.0
77.16 16.68 92.62
78.65 16.4 82.75
77.33 17.18 81.01
17.69 4.04 61.74
17.06 5.95 62.53
22.64 -0.059 55.51
21.38 -1.269 56.55
15.04 28.8 82.58
13.59 27.8 81.16
15.86 13.41 85.15
17.6 14.65 85.12
57.06 50.399 51.3
56.53 47.98 51.58
51.24 38.59 53.9
52.0 39.36 56.25
63.73 30.78 23.64
65.48 30.23 21.85
55.15 20.97 28.09
55.72 19.21 28.15
21.52 14.57 85.81
19.77 14.47 86.74
24.07 7.12 96.99
24.66 9.7 97.21
68.15 4.02 67.36
68.79 4.26 69.77
63.42 16.44 74.76
61.89 15.67 72.79
7.19 46.35 27.52
5.98 44.69 28.01
5.9 43.23 14.16
7.58 42.85 13.57
61.03 21.98 50.51
62.43 22.12 48.84
75.94 23.35 51.06
77.43 21.65 50.94
24.75 1.43 31.42
25.14 2.82 32.86
21.49 -0.199 36.38
21.26 -1.369 38.27
66.41 28.97 69.41
68.0 28.1 70.63
73.61 37.52 71.35
75.49 36.81 70.54
11.66 -3.029 68.41
11.63 -0.629 67.99
13.87 3.21 77.71
11.69 1.73 78.17
52.41 15.76 24.95
54.1 14.71 23.94
50.34 26.66 17.75
47.87 26.46 16.44
36.56 16.84 83.4
39.19 17.5 82.93
36.0 31.39 83.49
35.94 32.15 85.23
24.79 -3.569 15.65
24.78 -4.569 17.69
30.5 7.62 18.54
31.78 9.8 17.42
63.88 29.73 88.03
64.16 30.28 85.92
56.23 27.84 79.72
57.59 26.32 80.55
15.63 17.76 25.93
17.31 18.9 26.59
21.12 31.59 21.87
21.01 33.18 23.47
20.4 27.35 27.57
21.49 26.48 29.32
30.33 21.48 21.04
32.45 20.83 20.91
52.22 12.86 43.5
53.52 12.9 45.32
56.74 16.08 56.98
58.75 15.86 58.25
35.57 24.95 51.74
36.23 25.3 49.2
44.1 34.72 44.14
43.65 34.15 46.51
50.05 20.03 62.28
48.65 19.25 61.19
41.24 19.72 72.25
42.69 21.11 72.06
7.26 51.979 53.87
8.67 52.279 55.14
9.59 39.07 56.71
10.38 37.32 57.44
6.55 8.38 16.46
7.84 7.1 14.65
1.82 -4.779 15.62
3.21 -4.429 13.82
54.81 39.13 42.39
53.78 40.96 42.21
50.83 43.01 41.96
50.07 42.12 39.9
23.76 34.26 23.2
24.57 33.78 20.75
25.05 20.47 16.77
24.02 20.82 15.2
19.7 12.7 94.56
21.76 12.63 93.96
26.47 19.92 86.19
27.28 21.49 85.25
12.31 2.89 65.84
10.59 2.98 66.66
8.26 13.6 75.6
9.87 12.99 76.34
62.81 9.74 18.3
63.0 8.03 19.34
71.04 2.41 26.37
70.07 4.46 27.2
77.81 25.64 79.9
76.59 26.6 81.71
75.95 15.74 74.87
77.22 14.7 76.75
69.3 29.09 36.74
69.37 27.01 35.63
80.29 22.61 44.65
79.21 24.01 46.48
57.55 38.07 27.82
58.32 37.24 29.79
63.68 24.16 31.09
65.5 23.39 29.22
57.66 23.42 46.86
58.61 22.41 44.97
63.09 10.73 41.34
61.99 9.02 40.84
17.31 17.22 56.28
19.45 16.14 55.9
18.55 8.54 67.23
16.78 7.86 67.95
16.14 41.52 45.58
16.57 43.24 43.55
17.96 40.63 32.31
19.04 38.52 31.97
48.34 25.53 97.76
50.34 26.31 96.61
59.27 15.9 102.19
57.69 14.59 102.81
57.51 -1.099 93.68
57.35 0.96 93.03
67.88 -1.769 87.11
68.64 0.6 86.85
27.04 18.79 18.74
27.73 21.25 18.81
40.55 16.69 17.29
41.17 17.56 19.13
-5.593 19.27 95.85
-3.093 19.12 96.41
5.55 25.73 87.24
4.5 26.53 85.28
82.05 3.61 74.15
79.79 3.21 74.48
79.05 15.42 74.57
78.09 16.67 73.12
57.05 33.65 72.43
59.02 32.78 71.61
71.17 39.03 69.29
72.59 37.36 68.91
21.07 24.74 11.21
20.83 22.57 12.37
30.99 16.69 2.52
31.82 18.38 1.13
89.02 11.51 21.89
90.783 10.18 22.17
83.13 -0.939 24.34
83.53 -3.029 24.02
23.82 2.26 61.74
25.14 3.98 62.9
22.45 15.34 55.96
23.05 17.92 56.44
90.553 29.82 76.66
89.45 31.63 76.59
78.31 33.09 80.87
78.74 35.09 80.69
83.22 5.26 21.0
82.0 4.63 18.97
93.413 5.8 9.94
92.483 5.77 8.05
13.91 14.17 91.9
13.96 11.95 93.29
23.39 11.15 99.63
23.91 12.52 101.49
9.25 30.95 45.95
7.26 31.7 45.71
10.96 32.31 57.98
8.86 31.22 57.82
66.09 18.96 86.44
66.46 17.57 84.73
54.22 18.43 84.95
52.58 19.71 85.1
58.52 44.32 96.05
60.52 43.27 96.77
66.72 32.54 97.9
68.94 32.11 98.09
3.28 3.73 69.97
1.56 5.57 70.55
-1.883 11.04 60.33
-1.863 12.84 58.95
38.3 7.72 60.44
38.8 5.03 60.66
31.29 -5.689 61.84
29.58 -5.739 59.45
70.83 6.23 89.68
71.2 6.57 91.64
71.02 -2.909 85.87
69.16 -4.199 86.62
23.72 9.5 24.67
25.59 10.25 24.69
25.18 -0.699 16.24
23.06 -1.639 16.8
77.0 28.32 24.58
78.24 28.78 22.61
88.8 33.63 30.0
87.73 34.98 31.52
80.44 30.1 16.71
81.29 30.78 14.68
76.12 19.72 10.59
74.54 18.87 12.11
33.14 22.94 98.87
30.85 22.54 99.52
32.88 17.75 103.47
35.27 18.21 103.78
87.65 48.709 89.49
85.92 48.929 88.11
75.18 43.13 86.35
74.8 43.7 88.69
45.26 13.6 60.96
47.15 13.16 59.87
42.93 5.19 47.76
42.63 4.26 49.84
40.55 8.48 30.86
41.96 9.31 32.03
42.32 3.36 43.37
44.67 4.15 44.36
59.61 29.5 80.48
61.07 31.18 79.45
57.6 42.26 86.93
56.82 44.26 87.39
63.23 41.29 55.97
64.38 40.77 53.85
72.11 39.66 43.88
73.62 38.01 45.48
58.43 13.06 105.011
59.6 11.97 103.87
72.72 8.86 99.64
70.74 7.01 100.6
14.13 28.4 46.11
12.58 26.79 45.58
16.18 16.86 52.53
16.63 18.42 53.83
37.85 50.899 107.091
37.98 51.059 104.801
47.31 39.45 102.4
48.4 39.52 100.45
22.55 25.9 83.94
23.68 26.94 82.21
26.96 27.11 67.99
25.51 25.58 69.15
19.35 29.09 69.14
21.67 28.16 67.28
32.86 32.35 64.5
32.1 30.02 64.85
12.45 2.02 27.75
10.65 2.29 26.2
10.1 -4.419 13.46
8.78 -3.529 12.03
68.78 0.02 10.97
68.39 -0.749 8.63
73.89 11.51 6.48
75.43 12.38 7.22
20.69 0.89 100.64
22.18 2.4 99.11
16.25 1.8 87.71
17.01 -0.159 86.84
42.09 10.84 101.37
44.07 10.58 100.31
48.07 17.96 88.17
46.69 18.71 86.89
40.05 42.76 47.38
41.61 43.48 49.71
52.85 51.889 50.4
51.36 52.969 50.31
28.64 40.34 22.47
28.38 39.76 20.5
27.29 34.99 20.96
27.41 34.46 23.42
8.8 12.33 39.45
8.25 10.05 38.49
7.07 13.87 34.22
7.25 13.96 31.82
77.61 17.76 46.13
79.32 16.36 45.83
76.09 12.69 54.78
75.68 11.57 56.8
57.36 7.2 13.9
58.84 6.33 14.5
66.14 -0.539 11.38
65.92 -2.119 9.62
81.95 22.69 57.73
82.04 22.7 55.6
69.54 17.32 50.67
67.05 18.21 51.04
24.25 28.63 32.66
23.63 30.71 33.95
17.66 30.88 45.37
15.61 30.42 44.57
69.08 9.22 29.75
68.25 9.83 27.74
65.44 2.22 17.78
64.22 0.3 18.5
35.66 28.25 94.56
37.19 30.2 94.03
48.45 26.84 88.97
49.13 26.96 86.67
-4.093 36.7 33.38
-4.583 36.93 35.59
6.62 33.23 43.35
8.48 34.33 43.64
73.72 19.69 7.22
75.07 19.02 5.27
79.43 7.26 12.3
78.11 5.83 10.64
50.24 -2.369 66.88
51.0 -0.319 67.95
42.46 7.16 73.29
40.35 7.26 72.6
30.56 43.05 2.39
33.2 43.21 1.87
34.19 37.05 8.04
33.59 38.89 7.71
63.77 -3.259 37.34
62.14 -3.179 35.93
69.75 -0.659 39.49
69.26 0.44 41.57
5.04 39.21 38.81
6.5 39.92 37.53
10.02 32.01 43.3
12.12 31.99 43.94
58.57 50.149 77.99
56.87 48.09 78.52
55.76 44.09 89.85
56.51 44.36 91.67
42.45 33.05 21.99
41.59 30.64 22.54
43.27 20.54 16.95
44.84 21.77 17.31
89.14 10.57 10.67
87.05 10.69 11.48
90.17 23.83 8.67
91.573 24.97 10.71
26.82 35.77 44.63
27.83 37.83 45.08
21.22 44.63 52.69
21.44 45.21 54.78
37.25 12.28 67.48
36.83 12.57 70.05
32.43 24.78 70.7
31.26 25.23 72.92
27.11 18.7 35.98
26.79 17.14 37.21
32.45 24.51 47.07
30.65 23.19 47.65
83.62 27.6 89.26
83.47 24.98 88.78
92.163 27.26 80.31
94.163 28.23 80.93
57.14 24.21 43.23
57.95 24.84 41.09
49.44 32.94 32.77
48.08 33.26 34.42
65.55 14.33 79.68
65.22 13.01 77.34
75.37 6.78 76.73
76.87 7.99 77.87
81.69 47.31 43.74
83.92 46.01 43.44
90.713 40.79 53.67
92.753 41.75 54.42
41.5 35.81 40.21
43.75 36.61 39.66
51.05 38.77 38.5
50.2 38.58 40.8
40.05 15.44 22.21
40.18 18.03 23.09
41.38 12.57 33.96
42.78 10.39 34.65
54.01 25.43 92.92
53.48 27.5 93.96
53.96 26.49 89.23
55.11 24.33 89.66
16.03 44.73 14.57
14.68 44.39 12.8
17.34 33.75 17.47
19.24 31.76 17.25
35.21 36.99 24.24
33.04 36.35 23.95
35.1 30.45 14.03
33.6 32.11 12.65
50.79 39.03 0.15
48.84 40.46 -0.061
42.1 52.839 0.01
42.49 54.299 2.02
26.16 9.29 80.3
23.88 8.97 80.72
30.27 12.31 92.72
29.7 14.9 93.33
16.34 14.81 19.96
16.27 16.41 21.73
13.16 20.41 10.49
13.23 18.74 9.11
65.15 11.13 80.48
63.51 12.76 80.01
51.24 7.26 78.11
49.06 6.92 79.3
39.27 33.19 26.01
40.29 31.31 25.85
42.42 19.56 21.55
43.2 18.77 23.11
47.27 13.56 23.17
46.95 16.01 23.42
46.01 27.25 23.38
43.84 28.74 22.15
27.85 14.54 21.05
25.41 14.08 21.11
17.64 24.85 15.44
20.09 25.8 15.59
31.2 8.04 45.24
33.06 8.68 44.72
33.38 1.32 32.95
31.53 0.03 33.14
59.68 8.29 47.17
61.69 8.17 45.52
73.57 12.29 53.16
75.29 10.89 52.93
30.65 38.16 93.91
28.18 39.24 94.33
19.65 40.7 90.21
18.8 39.39 88.61
2.6 1.57 83.64
3.93 3.62 83.43
12.61 4.04 73.08
10.97 3.67 71.35
28.11 42.91 82.92
26.35 43.01 84.57
19.3 31.63 86.83
17.18 31.43 85.94
47.05 31.85 32.17
46.8 32.81 29.84
55.32 40.19 34.97
56.54 41.06 36.78
51.53 26.26 91.95
50.54 26.92 94.12
37.17 27.64 96.73
36.65 29.52 97.45
67.38 15.71 65.04
67.49 14.45 63.1
64.02 26.18 63.28
62.38 27.88 62.26
62.41 36.69 49.08
63.41 35.37 50.36
64.23 28.61 41.3
64.75 26.42 40.72
12.83 31.54 46.57
11.56 29.6 46.59
8.43 21.77 55.12
7.4 19.69 55.29
97.783 22.52 50.86
97.173 21.89 48.92
85.04 24.67 47.68
83.92 22.93 46.28
44.57 22.84 43.65
45.63 23.74 42.4
47.76 20.24 47.8
46.5 21.19 46.46
61.36 42.7 35.74
60.25 44.15 34.52
64.21 42.33 36.75
63.25 40.6 36.18
55.48 25.42 46.39
53.6 26.68 46.95
46.92 29.88 34.16
45.02 28.87 34.11
48.44 27.41 -4.701
48.31 25.52 -3.871
50.91 23.31 9.44
52.57 24.01 10.27
60.68 10.84 21.66
62.47 8.88 21.81
65.72 15.37 16.86
66.59 15.28 14.84
9.1 12.24 101.35
8.24 14.8 101.71
16.3 20.67 93.14
18.52 19.51 93.16
32.95 -1.549 84.43
31.52 -2.339 83.66
29.6 6.71 74.1
28.59 8.39 73.51
31.05 16.7 58.96
30.47 18.8 58.36
38.76 18.19 57.2
39.22 15.7 57.32
74.82 12.72 47.93
74.12 12.34 50.5
79.04 23.49 52.6
79.82 25.82 52.51
64.43 -6.239 33.91
63.42 -4.179 33.63
70.26 7.39 32.59
71.64 7.15 34.46
92.603 20.53 70.9
91.963 22.34 72.17
81.99 22.52 79.96
80.27 23.82 81.61
14.8 5.11 65.41
17.0 5.89 65.34
16.88 0.36 57.88
16.38 -1.199 56.51
1.42 2.49 42.71
0.39 1.45 44.66
5.81 5.83 54.76
6.41 8.02 54.83
42.88 13.03 15.85
44.48 12.24 13.85
47.34 21.52 12.33
45.9 23.1 13.48
47.54 44.02 65.0
48.03 41.67 64.39
42.58 37.94 72.91
42.3 36.99 74.87
81.2 22.57 60.41
80.56 24.12 61.3
80.81 35.25 66.7
78.81 35.38 67.2
14.66 30.9 87.1
15.14 32.52 87.96
8.32 33.88 79.01
7.93 30.97 78.76
22.02 -0.829 52.73
20.03 -1.469 51.28
16.94 2.39 43.31
16.15 3.15 41.64
22.93 5.42 54.57
23.78 3.1 53.32
18.71 8.38 41.52
16.94 8.69 42.8
33.59 29.78 94.33
32.2 31.09 95.07
21.57 31.9 104.1
22.11 33.36 105.881
82.68 12.94 84.42
83.92 11.79 85.26
84.72 18.85 90.39
82.05 18.29 91.52
83.12 19.82 29.71
82.74 17.72 30.15
87.58 20.19 18.03
89.51 19.61 16.61
11.57 17.13 10.28
11.89 16.76 8.01
10.9 8.71 -1.411
9.38 9.64 -2.361
46.08 20.88 4.51
46.43 22.13 2.8
37.21 30.93 10.89
35.37 31.67 10.57
81.28 2.79 22.76
83.66 3.36 22.95
85.51 2.19 35.76
85.59 4.41 34.71
43.41 6.2 102.99
41.67 7.9 102.06
36.05 14.26 92.9
35.24 12.7 91.12
48.6 14.21 26.01
49.17 12.41 24.6
38.13 7.52 20.71
36.31 8.97 20.94
-1.083 7.17 7.15
1.24 8.27 7.25
-1.483 21.64 6.37
-0.523 23.48 5.0
44.74 23.35 39.58
43.08 23.1 41.14
40.74 12.21 36.47
40.1 9.73 35.27
-1.433 39.4 27.78
-0.473 37.47 28.03
0.88 39.41 17.29
3.1 40.03 16.41
8.81 9.4 55.28
10.87 10.53 55.59
22.23 9.99 49.49
23.61 8.03 49.46
23.64 13.45 95.9
25.4 12.42 97.56
39.55 13.5 101.55
39.74 11.54 103.29
79.91 3.7 20.38
78.82 5.44 21.55
69.27 -0.539 19.46
67.46 -1.679 18.22
93.463 27.68 94.68
93.113 26.44 96.83
82.87 24.47 98.8
81.0 23.98 99.32
83.88 3.71 60.83
85.56 2.74 61.5
83.2 8.58 59.92
84.68 10.14 59.11
27.49 17.24 61.39
29.07 17.63 63.09
23.52 7.04 68.33
22.85 4.67 68.49
81.04 5.87 16.34
78.11 5.48 16.39
68.92 -4.339 14.5
70.38 -4.429 16.16
38.1 28.03 71.9
36.15 28.02 72.41
38.9 32.43 73.99
36.91 32.01 74.85
2.04 42.89 41.53
1.57 43.93 43.21
2.67 43.8 33.87
4.24 44.74 35.41
69.63 35.19 9.38
71.57 34.53 11.02
73.13 40.52 17.78
72.07 38.74 17.2
39.62 28.92 34.09
41.13 27.29 35.26
44.43 31.64 47.32
42.4 30.67 46.68
78.66 42.82 48.51
80.71 43.07 47.34
83.52 31.16 55.06
81.93 32.39 56.82
61.32 42.72 54.51
60.68 42.71 56.73
52.36 46.99 65.17
52.41 49.309 65.44
63.94 27.88 69.25
65.47 26.48 69.76
72.86 17.36 66.92
73.06 15.41 68.81
89.91 27.48 37.2
90.2 25.04 37.05
79.95 18.74 44.67
79.99 20.71 46.49
44.27 -0.579 9.02
42.96 0.32 7.24
54.89 1.96 1.66
55.23 2.13 3.77
60.14 32.78 17.24
58.72 33.78 16.08
51.9 40.99 9.78
51.49 43.06 10.93
6.57 31.49 14.32
5.83 34.2 15.11
8.0 37.55 1.49
7.56 35.55 1.33
43.32 34.0 50.78
42.58 31.94 49.53
29.58 34.73 45.1
29.48 32.71 44.12
65.92 17.83 18.13
67.71 18.88 19.81
70.65 29.04 13.53
71.22 30.49 15.41
55.3 -1.039 95.18
56.95 -1.329 96.45
47.14 7.63 97.43
45.91 6.31 98.6
84.61 21.78 57.37
85.22 21.37 55.23
86.79 10.22 57.24
85.32 8.48 56.22
17.59 28.99 17.24
16.57 27.37 17.05
16.17 21.56 27.23
15.11 22.05 29.87
70.01 16.49 19.26
71.61 17.63 18.36
78.5 18.31 29.97
80.24 19.0 30.98
86.6 37.49 28.2
84.57 37.31 29.93
77.98 31.18 17.59
78.48 29.43 18.95
5.21 23.61 9.9
6.73 22.32 7.84
1.65 12.62 1.04
0.17 10.86 2.01
55.73 31.94 17.29
54.27 33.1 17.93
44.02 30.48 26.14
43.84 27.73 27.09
12.08 16.01 73.91
12.79 18.24 74.07
6.23 26.62 81.16
6.46 27.66 82.75
79.74 49.049 8.86
78.58 49.679 10.56
84.54 39.43 4.69
85.29 39.0 7.04
63.76 36.47 83.56
64.37 34.4 83.01
61.13 43.73 77.06
60.06 42.25 78.12
25.81 53.389 68.57
25.86 52.119 67.35
24.03 43.68 76.85
22.89 41.64 75.65
15.4 31.86 18.11
17.08 30.68 19.2
16.22 34.02 30.92
17.58 35.51 32.16
43.58 23.14 -2.661
45.46 24.75 -3.141
44.27 24.69 9.25
43.96 24.43 11.44
12.71 1.57 99.4
10.95 -0.479 98.61
3.21 2.0 88.04
1.59 0.74 88.45
24.9 38.72 73.51
26.93 37.85 74.1
30.49 29.06 68.02
31.37 27.72 67.02
6.76 33.4 93.16
6.4 34.45 95.27
14.09 26.81 102.73
15.99 26.49 103.92
2.11 38.93 88.92
3.48 38.66 91.05
11.84 44.26 95.97
11.12 44.09 98.23
37.1 27.13 33.63
36.9 29.25 34.27
35.92 23.23 46.39
38.01 23.33 47.64
24.47 6.3 70.91
24.63 7.38 72.65
20.87 -1.259 81.96
19.26 -2.619 81.84
61.9 53.999 18.33
62.78 53.409 20.35
56.18 41.66 24.19
56.86 39.69 22.25
9.8 36.89 17.13
8.14 37.89 16.44
14.1 43.97 9.02
12.78 45.13 8.76
72.35 38.92 51.44
73.25 38.43 49.54
66.21 29.14 43.5
64.78 27.53 44.18
75.71 -5.949 49.07
75.5 -3.759 50.45
73.47 2.22 41.49
73.86 5.19 41.3
30.01 46.27 42.02
28.96 44.53 41.43
17.45 45.03 45.73
15.57 44.5 47.14
81.6 16.78 82.53
81.39 15.47 84.21
94.553 13.59 91.78
94.373 11.72 91.27
29.39 39.58 43.16
28.08 38.23 41.81
28.04 31.64 32.76
25.8 31.78 32.56
31.07 13.57 90.11
31.11 15.36 91.17
19.94 17.06 86.98
18.41 18.49 87.8
25.83 13.94 -4.411
24.38 15.99 -5.431
19.68 23.55 7.19
17.87 22.24 6.33
71.58 15.93 61.11
70.23 16.63 62.89
69.98 27.3 55.57
68.81 29.15 55.72
29.62 36.89 74.89
29.62 38.88 74.11
42.96 40.53 74.44
44.58 40.46 76.15
68.34 21.49 0.91
67.97 20.39 -1.311
70.28 18.11 4.62
72.95 17.18 4.43
80.68 45.6 25.24
79.26 43.87 25.06
72.66 33.93 17.39
71.61 32.2 17.8
66.67 32.02 43.14
64.95 31.26 42.39
57.26 35.62 38.84
55.45 36.45 38.37
73.48 41.49 49.8
74.7 42.15 51.92
66.26 34.7 59.86
64.5 36.12 59.5
3.72 48.36 0.21
5.28 47.22 -0.121
10.03 44.69 9.76
12.04 43.55 10.95
38.4 32.1 88.26
36.69 33.38 89.8
48.63 29.98 91.12
48.92 29.87 88.67
80.5 45.57 40.55
82.8 45.02 41.4
86.76 41.67 29.02
86.33 42.86 27.25
20.44 7.92 70.72
19.36 9.99 69.54
22.97 21.16 62.01
23.05 23.22 62.8
-3.743 34.33 14.91
-3.083 35.99 14.44
8.44 37.85 20.83
9.98 38.58 19.19
7.79 9.98 14.57
7.77 12.02 15.55
5.6 24.7 14.64
3.23 25.28 14.55
39.3 24.22 102.15
39.24 25.47 100.66
32.33 35.9 95.96
30.88 36.6 97.42
-5.893 23.23 96.69
-4.643 22.77 98.39
3.45 32.78 101.7
3.19 32.86 99.78
88.81 6.06 74.1
88.26 3.78 73.66
90.263 0.43 85.57
89.79 1.99 87.11
49.76 21.27 5.87
48.14 19.85 6.17
41.6 8.7 2.19
40.97 9.43 -0.091
70.88 3.04 86.25
71.63 1.02 85.77
84.97 1.41 93.96
84.8 3.45 94.59
49.39 25.69 71.65
51.58 26.82 71.07
44.83 35.76 75.07
43.62 35.18 76.89
73.45 34.7 98.42
73.58 32.6 99.45
78.16 31.78 90.32
75.58 31.64 89.73
8.35 24.26 21.52
6.84 24.85 23.24
13.89 32.05 30.35
12.51 34.1 30.26
47.46 23.45 71.33
47.77 24.35 73.26
47.82 31.41 81.31
46.95 29.15 81.38
27.87 45.05 2.93
26.83 45.71 5.0
26.49 34.22 5.93
27.54 32.39 7.69
62.09 8.34 36.09
63.68 10.43 35.85
71.27 13.41 47.94
71.5 12.31 50.04
34.16 39.56 99.96
33.68 37.64 101.04
46.93 39.27 106.321
47.82 37.33 105.691
23.25 22.87 13.31
23.78 24.61 11.81
31.2 30.46 12.09
31.55 31.57 10.65
38.96 25.74 34.8
40.44 24.61 34.14
38.0 10.84 33.76
39.36 10.15 32.51
51.77 29.26 100.22
52.83 27.47 99.32
62.29 23.53 108.401
63.03 21.92 107.161
7.05 39.68 54.71
4.82 39.53 55.53
14.05 49.499 58.91
12.91 51.499 57.88
3.08 7.08 0.86
2.81 9.32 0.5
13.53 14.03 4.86
15.09 15.95 5.55
10.3 12.37 16.24
10.28 11.08 14.64
5.54 5.5 23.23
3.63 7.05 22.14
40.5 1.81 4.01
40.59 3.85 3.45
48.04 3.03 14.02
50.37 3.13 15.66
63.28 38.09 5.01
62.3 36.04 4.92
73.99 36.75 -0.041
74.84 36.9 2.5
16.23 16.59 28.27
18.33 18.37 28.94
29.75 14.48 34.3
28.4 15.92 35.52
90.623 33.93 41.82
89.77 36.03 41.17
76.92 35.86 37.88
77.0 36.55 35.52
65.32 43.54 64.77
66.87 44.58 66.16
58.96 41.64 70.56
58.81 42.97 72.04
53.46 12.12 103.38
54.3 14.0 103.24
46.11 21.81 104.18
44.66 20.87 105.521
61.69 14.69 77.85
59.66 15.61 77.45
53.09 15.54 90.06
54.04 15.02 92.15
77.41 38.27 69.1
75.4 38.71 68.54
75.6 48.33 57.06
77.95 48.799 56.35
48.86 41.75 68.39
50.8 42.0 70.19
56.68 46.02 74.74
58.3 44.95 75.84
3.38 8.77 8.7
3.63 10.58 10.55
15.0 10.95 12.87
16.85 9.89 12.32
41.06 23.29 14.32
43.24 22.37 14.53
39.52 13.59 7.01
40.06 11.41 6.04
7.31 32.14 60.13
5.77 33.15 61.43
16.52 37.7 67.14
17.58 35.62 68.36
82.05 2.87 -4.501
82.76 0.87 -2.601
87.81 10.98 0.89
88.45 13.75 1.34
36.13 1.52 42.07
35.31 3.5 42.36
47.61 10.17 37.65
46.16 11.25 36.25
32.79 27.24 14.16
33.45 28.74 12.4
33.85 20.19 3.24
35.09 18.51 2.13
13.91 13.31 72.97
16.01 12.8 72.0
21.06 16.7 60.0
22.43 18.43 60.44
70.77 40.5 67.1
71.49 41.34 64.39
75.35 40.99 74.47
76.86 40.5 72.88
57.07 29.29 15.01
57.42 31.44 15.25
65.39 29.91 7.42
66.3 28.76 5.91
21.64 30.08 3.11
20.15 28.22 3.54
18.97 26.78 8.36
19.99 27.56 6.63
18.1 38.08 55.85
19.21 38.87 57.87
18.39 30.2 64.37
18.04 32.18 65.6
3.3 32.04 60.49
5.1 31.88 58.62
3.43 19.47 61.03
5.65 19.17 60.59
91.323 42.35 78.12
91.563 41.24 79.77
79.19 40.98 74.85
79.91 41.0 72.43
79.17 19.11 80.0
81.45 18.51 80.17
82.09 18.72 64.7
80.89 17.15 63.98
85.35 32.68 56.66
86.49 31.26 55.94
92.563 28.33 46.85
91.753 26.61 45.33
31.02 46.13 103.37
32.71 46.99 103.41
42.86 39.83 99.98
42.66 38.0 98.73
56.02 34.82 16.18
54.07 35.93 16.25
59.38 35.12 5.24
59.83 35.88 3.05
33.27 43.46 67.89
35.43 43.86 67.09
44.52 38.45 58.67
45.11 37.77 56.48
83.27 37.06 1.98
84.43 36.72 4.02
78.5 31.54 14.35
77.9 33.27 15.84
66.01 30.91 18.67
64.21 31.87 19.84
69.17 41.43 16.16
71.61 41.51 15.89
79.6 16.98 13.54
81.43 16.52 13.24
89.15 22.96 14.43
89.09 22.66 16.39
16.88 11.75 -1.061
16.07 12.4 1.47
29.13 12.46 3.03
28.14 12.36 4.8
52.35 3.17 35.44
51.94 1.98 37.2
57.33 5.6 48.33
59.43 5.74 46.89
54.43 7.32 107.351
52.63 6.13 108.841
45.23 -0.579 97.99
46.17 0.32 96.25
15.61 27.24 30.76
17.87 26.22 31.37
22.54 18.87 39.52
22.39 18.26 37.58
67.37 25.96 41.0
68.31 27.46 42.16
73.92 27.35 52.38
73.98 29.57 52.42
59.52 39.6 30.93
60.73 41.25 30.06
71.63 45.5 27.57
74.07 44.85 27.72
25.68 8.01 45.14
27.63 7.31 44.19
40.35 4.02 47.88
40.1 1.61 48.49
91.353 32.95 78.54
89.37 33.38 78.99
79.94 30.34 87.56
80.26 30.07 89.64
69.11 -2.369 44.04
67.74 -1.339 45.54
75.46 3.24 53.09
76.42 2.17 54.9
11.94 13.35 57.0
13.38 12.63 55.33
20.91 2.0 54.2
19.53 -0.279 53.94
84.44 3.42 37.97
86.05 5.0 37.75
82.14 14.83 30.31
80.36 16.15 30.42
31.3 43.2 85.06
30.73 42.39 82.81
25.56 38.58 80.64
24.62 40.5 80.72
66.73 23.84 4.67
64.7 24.11 4.5
61.16 30.29 17.52
62.36 30.41 18.87
72.51 27.5 33.79
74.34 26.54 33.33
80.15 36.56 31.92
79.84 39.06 32.19
50.16 28.53 98.29
51.19 28.98 96.39
46.93 34.84 87.07
48.2 34.02 85.86
70.2 35.11 14.68
70.95 36.35 17.15
71.11 42.61 23.37
73.22 42.29 23.93
22.4 25.52 45.23
24.94 24.9 44.18
18.59 31.39 33.53
17.61 33.09 33.6
30.36 40.49 102.93
28.24 40.31 103.11
16.59 39.38 105.621
15.03 38.42 104.741
37.61 28.09 74.68
37.37 27.27 77.07
44.91 18.69 82.98
45.47 20.4 85.09
74.98 35.99 33.99
73.39 34.54 33.6
76.57 44.07 26.28
78.32 45.33 27.37
12.53 15.36 54.45
13.63 16.36 53.05
17.92 17.24 41.4
18.75 17.59 43.76
18.89 14.64 21.05
18.39 15.52 23.18
26.95 17.83 23.4
28.01 18.64 21.46
86.51 38.48 3.24
87.9 38.79 4.62
84.48 25.7 6.45
82.97 24.85 8.38
6.34 3.54 51.32
7.11 5.84 51.37
-3.863 14.03 47.74
-5.653 12.92 46.44
87.37 23.69 7.08
85.05 22.9 6.75
86.57 10.73 8.95
84.09 10.88 9.64
48.22 11.77 62.08
48.09 14.27 62.4
39.56 9.13 70.93
38.07 10.5 71.49
63.76 41.74 5.86
64.21 42.02 8.52
53.24 49.229 8.99
51.94 48.829 6.87
69.73 32.72 55.08
70.34 34.85 56.29
82.47 28.93 57.04
82.42 27.64 58.49
60.34 -1.139 -1.411
60.25 -1.659 0.82
68.95 7.32 2.84
69.85 9.63 2.71
33.15 34.37 93.87
31.34 35.62 93.13
35.33 45.72 86.36
34.08 47.3 87.14
65.07 36.73 56.75
64.8 38.19 54.2
66.98 44.51 43.62
65.38 45.61 45.11
81.03 50.399 62.61
81.6 49.729 60.48
78.92 42.59 70.58
79.58 44.55 71.94
74.45 7.29 51.27
74.06 5.41 51.82
70.57 5.93 39.28
69.68 5.92 37.24
75.99 36.28 67.02
76.65 34.9 68.69
78.08 20.34 69.42
78.11 20.0 67.42
76.8 55.139 1.55
77.81 53.479 0.37
72.32 42.24 4.1
71.39 40.34 2.55
3.91 22.48 69.06
5.72 20.83 69.62
2.37 29.02 78.25
2.99 31.3 77.61
27.66 43.32 37.59
29.2 45.41 36.61
36.37 36.61 40.51
34.78 34.94 40.29
54.26 24.61 13.3
55.72 26.16 13.3
66.41 18.14 15.43
67.89 19.25 14.3
1.08 24.21 77.86
0.34 23.76 75.87
6.72 24.81 83.79
7.71 25.74 85.69
16.14 28.61 65.75
18.25 27.95 66.43
15.34 18.3 73.75
15.3 15.69 73.65
38.77 45.8 32.92
36.59 46.18 34.15
33.66 44.72 41.7
31.73 44.78 40.64
74.35 39.14 99.46
75.0 40.01 97.53
71.87 52.579 100.69
73.38 54.519 100.73
70.8 6.73 28.56
71.58 8.72 28.77
79.04 8.17 21.89
81.06 7.06 21.55
59.42 5.74 21.59
61.53 6.25 22.63
60.21 -2.699 32.26
60.93 -4.819 31.73
1.13 39.47 77.86
1.66 37.47 79.02
4.74 29.64 84.55
6.84 28.79 85.21
30.01 43.76 65.9
27.8 44.32 65.77
19.95 43.05 56.33
18.7 43.01 58.17
33.92 22.65 86.37
31.85 21.92 85.61
35.56 30.64 77.46
37.05 32.38 78.37
92.383 38.04 86.38
90.693 39.19 84.93
78.08 31.78 86.2
76.16 32.54 87.1
89.37 28.68 34.06
90.323 26.84 33.2
86.33 23.94 29.87
85.32 21.48 29.72
63.74 18.2 94.59
61.53 17.63 93.9
74.68 16.88 92.14
75.1 17.83 94.17
73.89 9.58 97.14
73.76 11.08 95.63
83.59 6.9 86.83
84.24 8.25 84.83
17.76 20.32 42.18
15.11 20.97 41.53
9.2 27.77 46.11
7.28 28.87 45.68
54.25 -1.459 36.27
55.15 -0.879 34.19
59.47 8.41 40.07
58.5 9.72 41.61
68.91 45.43 20.89
66.46 45.06 20.77
68.65 49.629 27.57
67.31 51.129 27.99
76.13 38.71 49.05
76.12 37.2 47.79
85.35 27.4 46.69
87.48 27.66 46.24
60.89 20.04 76.94
61.37 17.74 76.48
74.33 19.97 73.16
74.07 20.43 70.83
69.18 19.14 83.91
70.01 20.45 82.04
76.08 31.09 81.94
76.81 32.69 83.44
26.53 45.67 8.6
26.12 46.49 10.61
35.16 41.69 21.26
34.28 43.35 23.1
48.69 52.369 53.21
50.13 51.479 52.15
47.81 43.59 62.01
47.26 45.51 62.51
22.12 27.84 10.15
20.03 27.35 10.72
17.4 39.35 7.06
19.52 39.92 7.18
43.37 43.22 32.66
45.43 42.63 32.56
36.75 32.29 32.63
36.57 30.53 31.42
62.84 17.46 10.55
62.61 15.63 11.7
51.29 8.9 15.16
51.74 6.77 14.35
13.23 42.91 94.14
14.03 40.25 93.34
24.06 38.58 95.09
25.56 40.26 94.41
73.16 6.88 54.68
73.13 4.44 54.52
70.56 2.32 67.55
71.68 3.96 68.11
58.67 22.12 37.48
58.11 24.06 37.7
51.61 33.21 30.95
49.66 34.09 29.54
23.48 18.4 93.09
21.47 19.22 93.47
16.71 17.87 107.821
17.2 17.79 109.821
30.88 25.51 75.62
28.86 25.46 74.89
33.82 32.81 77.81
35.51 34.81 78.3
74.55 27.52 20.25
77.06 27.59 20.05
88.71 21.46 20.4
89.63 22.7 21.87
10.36 33.16 60.97
10.02 34.64 60.03
14.52 31.34 64.33
16.17 29.81 63.19
65.68 25.3 36.59
65.27 24.63 38.65
76.0 17.08 43.14
75.27 16.58 44.88
72.16 18.76 99.35
73.83 20.39 99.98
71.49 30.54 99.72
70.48 29.75 97.48
17.01 28.96 70.43
17.81 26.87 71.41
8.1 17.29 73.25
6.74 15.82 72.54
22.79 38.92 75.44
21.7 37.48 74.43
20.03 36.79 69.15
21.59 38.75 69.15
81.93 53.149 96.1
82.5 51.169 96.7
82.81 42.64 102.76
82.01 40.33 103.04
80.8 -0.039 41.48
81.08 1.2 39.54
77.13 14.49 44.6
76.14 14.46 42.03
-0.313 17.27 65.04
-1.273 15.77 66.72
7.17 6.08 67.73
6.15 5.78 65.97
27.51 -1.479 64.09
30.0 -2.359 64.08
35.96 9.63 66.52
36.13 11.39 64.75
59.83 25.84 46.04
60.79 23.95 44.95
72.69 15.72 46.68
73.18 16.43 48.95
47.16 35.59 36.86
45.26 37.32 37.43
43.38 30.24 29.17
41.92 29.49 28.02
79.14 19.4 82.76
78.82 21.14 81.72
72.46 11.42 76.59
73.77 10.89 77.74
90.363 32.76 91.99
90.323 34.22 93.55
78.07 39.37 94.75
77.65 39.26 92.57
32.74 23.68 31.82
30.86 24.21 33.7
27.24 30.91 44.84
25.84 32.26 44.9
55.99 26.45 49.01
56.52 23.88 49.22
55.43 17.66 58.77
54.77 18.44 60.97
64.98 2.31 59.34
65.35 1.28 57.34
73.7 8.59 65.38
73.05 6.44 66.66
37.26 35.03 23.47
38.72 35.96 24.86
48.84 44.61 22.5
49.31 43.16 24.0
76.28 20.36 64.14
76.46 18.99 65.99
82.94 9.43 57.12
82.77 8.91 55.01
14.6 3.62 86.05
13.38 4.93 84.24
7.66 13.28 78.39
5.35 12.2 78.37
11.16 36.05 105.601
10.75 34.45 104.32
11.03 38.05 97.14
8.87 38.55 96.57
72.42 4.33 78.94
72.15 2.0 78.76
72.21 5.98 69.45
73.32 7.82 70.02
34.05 37.48 64.44
32.33 37.88 63.23
20.74 41.19 61.26
18.84 40.8 60.12
6.48 33.91 102.02
5.32 35.42 102.97
12.03 47.76 101.27
13.96 47.52 100.09
30.62 14.75 21.65
30.36 14.15 19.71
35.62 10.84 19.22
36.54 9.33 18.18
9.57 14.86 35.55
7.78 14.59 37.33
8.18 25.16 46.78
8.31 25.14 49.16
23.25 40.8 20.16
25.07 41.36 18.57
34.91 35.71 10.67
34.18 33.88 9.34
30.57 25.5 -5.261
29.53 24.71 -3.351
21.97 29.35 5.86
21.94 28.78 7.75
72.26 37.42 7.19
70.14 36.4 7.12
80.19 27.48 5.95
79.93 27.68 3.63
26.92 0.96 62.58
26.53 1.67 60.26
38.27 11.39 58.0
37.53 12.8 59.86
3.22 24.68 79.85
3.51 24.48 81.94
6.27 11.76 87.87
6.68 12.61 90.46
48.88 -0.549 76.65
49.02 -2.399 75.21
56.31 7.74 69.15
56.84 10.27 70.19
49.99 53.069 76.33
47.71 53.129 77.11
45.91 42.69 76.93
47.27 41.1 76.09
68.6 22.4 3.27
69.43 20.75 4.06
76.49 19.13 -5.221
78.74 18.74 -6.121
66.61 26.57 4.37
68.85 26.03 5.19
81.43 24.67 6.03
82.78 23.89 5.74
51.67 8.59 26.01
53.96 9.51 25.65
62.67 6.58 33.89
62.31 5.35 35.8
1.0 34.64 62.1
2.76 35.29 61.59
9.01 33.86 75.35
7.16 35.27 76.5
1.56 31.68 42.68
4.15 32.26 42.94
10.06 21.02 34.85
12.33 20.39 35.45
18.57 21.89 91.72
20.72 21.84 92.08
21.51 27.6 99.43
21.27 25.48 100.44
47.42 3.44 95.76
45.95 1.97 94.14
44.98 6.32 80.68
46.63 5.5 79.68
34.74 27.55 74.64
33.35 28.01 72.89
32.02 41.63 71.12
30.06 41.92 71.25
20.97 8.81 19.59
20.76 6.95 20.28
23.34 9.19 27.48
21.96 8.51 29.01
33.45 16.42 87.71
33.79 17.87 85.94
35.33 8.98 74.07
35.98 7.15 73.22
8.77 20.33 49.82
9.33 20.64 52.01
18.32 26.32 46.09
18.61 28.02 44.88
73.24 42.31 20.57
72.44 42.91 18.67
70.59 40.91 7.12
68.17 40.76 7.59
72.64 49.659 28.23
71.41 48.15 28.77
67.46 40.39 35.67
68.07 38.5 36.94
25.54 26.21 84.19
26.62 23.86 84.08
33.12 24.54 77.82
33.83 25.51 76.38
8.87 5.39 29.08
9.63 4.68 31.09
18.01 -3.139 29.01
16.61 -3.699 30.91
16.43 29.27 73.38
16.91 27.07 74.0
19.5 25.62 85.72
19.1 24.25 87.16
41.78 45.82 33.28
43.46 45.48 35.24
42.87 50.629 48.28
44.35 51.579 46.73
55.74 31.48 -2.301
55.61 32.8 -0.021
55.73 20.69 7.07
54.53 18.83 8.82
26.62 32.22 26.57
28.56 31.16 27.13
28.77 25.54 12.98
27.61 24.21 14.16
11.22 48.719 65.44
9.18 46.99 66.16
7.5 35.54 60.39
7.9 36.05 58.77
75.92 4.63 -1.511
73.92 6.22 -1.191
66.57 -5.819 5.74
68.0 -4.969 7.62
71.46 9.46 40.64
72.85 10.89 39.63
66.53 20.53 32.31
66.01 23.06 32.45
41.24 46.67 91.24
42.91 45.88 90.22
52.09 39.85 97.85
52.36 37.74 98.34
58.39 8.69 35.08
59.72 10.0 36.54
57.36 20.64 39.17
59.54 19.76 39.21
70.34 21.77 30.81
68.8 21.36 29.63
64.07 13.16 19.0
62.25 12.31 17.52
72.08 9.83 36.84
71.53 9.97 34.76
74.64 21.03 30.35
75.09 19.94 32.38
42.16 45.14 15.47
41.15 43.92 17.81
53.86 38.46 16.37
55.85 39.15 14.98
20.9 8.61 23.37
21.57 7.99 25.32
9.98 9.27 30.86
9.25 11.37 31.32
74.89 12.62 69.88
73.84 11.27 70.97
67.56 14.44 81.87
67.27 12.22 81.51
61.49 -0.879 17.8
61.56 -2.939 16.84
56.46 5.17 15.81
54.34 5.77 15.38
57.58 9.83 44.67
56.16 9.87 43.07
51.69 6.4 31.1
52.85 5.72 29.25
5.79 17.84 70.0
4.3 17.04 71.96
2.8 11.86 80.62
1.6 10.62 81.74
79.08 34.82 33.65
77.8 34.05 34.96
75.45 23.58 33.96
75.85 23.52 31.67
62.0 0.03 57.15
62.07 1.07 55.19
60.3 12.12 61.36
62.11 12.86 62.57
56.92 49.309 -0.441
54.52 49.519 -0.821
51.76 42.45 7.51
52.59 44.17 8.6
78.73 16.65 42.45
78.16 18.86 42.56
87.24 24.2 34.97
88.41 25.53 34.39
-2.833 47.14 94.31
-3.173 45.68 92.48
7.74 36.98 94.25
7.8 35.64 92.04
65.24 23.0 106.611
65.63 21.92 104.54
56.13 22.05 93.33
56.41 24.26 92.26
21.92 21.89 59.63
22.81 20.31 57.98
23.18 24.32 47.57
23.45 27.21 48.19
87.27 15.11 64.62
84.96 15.84 65.35
87.47 7.37 71.7
89.36 6.67 70.68
60.81 36.37 9.13
62.73 36.55 7.65
68.01 27.59 7.19
68.5 25.68 8.01
76.83 20.2 72.46
78.89 20.39 72.38
82.31 32.13 69.95
81.21 33.88 70.59
80.45 20.91 15.82
80.67 18.94 15.69
83.53 6.85 12.31
82.06 7.87 10.54
20.17 32.45 19.55
18.37 33.93 19.88
15.7 42.49 10.91
16.8 44.3 9.95
59.44 13.88 70.26
60.32 12.56 68.86
59.88 22.34 73.8
61.84 23.6 73.97
75.96 46.75 27.03
74.51 47.5 28.36
79.44 42.38 31.1
81.04 42.62 29.3
42.43 17.84 84.24
42.22 16.56 86.45
44.85 24.37 97.92
44.94 22.7 99.53
31.01 28.52 10.0
29.56 26.99 10.37
32.11 15.75 4.69
33.48 16.45 3.81
22.69 15.25 83.48
23.39 13.19 83.28
35.3 20.19 82.98
35.24 22.16 84.16
79.71 23.35 103.89
78.61 25.28 104.28
75.98 35.2 103.84
75.47 36.29 102.08
52.28 17.49 28.2
52.77 19.84 29.2
45.21 28.7 31.23
46.78 29.91 29.77
25.96 6.04 53.95
25.13 6.82 55.47
27.37 4.6 64.72
25.94 6.47 66.23
70.72 28.87 53.75
71.33 27.5 53.01
76.91 22.98 48.54
77.84 21.79 47.8
87.59 31.01 30.65
88.16 32.38 32.22
87.16 28.17 43.54
89.16 28.99 44.38
95.473 10.79 21.23
95.573 8.55 20.43
85.11 10.77 19.2
84.27 11.25 21.39
72.85 43.49 85.03
74.58 44.46 83.57
68.08 47.17 71.38
68.94 49.009 69.38
6.64 -0.239 46.6
8.68 0.19 47.83
17.14 -1.329 53.56
18.58 -2.829 54.25
49.07 25.48 21.33
49.75 27.43 20.54
53.59 22.71 29.64
52.45 22.34 28.01
26.45 37.19 19.89
24.24 36.16 19.44
26.9 27.17 10.93
25.79 27.02 9.1
94.813 10.99 24.22
96.013 10.62 26.43
83.46 12.66 30.02
83.31 13.69 27.71
43.91 14.17 37.71
45.18 12.54 38.72
31.74 12.55 43.28
31.78 11.03 45.1
59.33 40.97 27.76
57.44 40.25 26.58
47.81 42.88 37.76
49.18 40.8 37.65
45.69 12.77 75.74
46.37 12.29 73.69
50.99 21.8 78.24
53.61 21.35 77.62
42.74 35.6 8.79
41.83 34.68 7.22
31.94 37.2 5.9
32.38 34.97 6.88
64.9 28.56 91.69
64.71 30.3 90.68
54.53 33.56 99.3
52.78 34.81 98.65
61.09 24.44 37.07
62.9 25.1 36.53
58.74 36.84 35.86
56.69 37.44 34.8
37.27 11.78 7.32
35.72 13.06 7.19
25.52 21.34 12.58
26.52 21.84 14.67
-3.123 12.91 25.72
-1.783 13.4 24.12
8.32 16.51 33.62
9.29 18.01 34.84
2.21 26.33 71.98
4.1 26.32 70.92
15.72 31.0 67.1
17.79 31.07 68.08
87.55 32.79 71.08
87.02 30.54 71.75
89.35 36.76 78.03
90.893 35.38 77.71
28.57 35.38 -6.401
27.77 37.35 -5.691
28.2 39.16 6.69
30.18 39.06 5.67
35.0 21.44 102.47
36.6 19.93 102.52
38.64 16.55 88.64
36.38 15.64 88.03
43.42 8.8 79.52
41.55 7.52 80.8
37.8 0.67 88.7
36.85 -0.739 87.74
9.17 3.79 103.83
7.22 4.58 103.53
3.97 3.8 89.84
1.5 3.09 89.81
55.33 49.619 76.69
57.32 48.889 75.77
55.24 43.36 70.16
55.8 42.01 72.55
7.33 39.3 75.52
5.99 40.91 75.35
-1.443 36.29 62.36
-3.903 35.72 62.36
40.25 28.09 31.65
