22.84 49.14 61.11
30.44 40.67 9.38
29.43 39.4 7.59
28.02 37.22 7.69
27.1 35.84 9.52
72.49 1.92 73.24
70.49 3.02 73.42
68.32 2.47 74.92
68.37 1.32 77.19
4.46 61.58 68.84
2.77 61.41 70.79
0.94 63.45 71.44
0.44 64.62 69.65
83.92 7.37 4.21
84.05 6.36 1.88
84.94 4.23 1.99
87.27 3.21 3.08
2.55 37.8 41.71
4.64 36.43 40.87
5.43 34.2 41.34
5.11 32.73 42.83
69.93 85.21 54.88
70.53 85.03 57.31
72.56 84.55 58.4
75.23 84.82 57.44
52.69 85.02 59.91
50.14 85.14 59.66
48.93 87.15 58.69
49.25 -0.2 57.1
40.45 69.51 67.18
42.61 67.67 67.2
42.8 65.66 68.42
41.09 63.66 68.63
60.71 72.18 68.43
61.05 69.58 69.34
64.04 68.86 69.04
65.34 69.85 68.01
82.33 10.79 68.94
83.48 11.43 67.47
82.93 13.3 65.86
80.86 13.98 64.7
78.12 78.65 12.48
78.41 80.84 13.99
76.46 82.33 15.11
74.21 82.32 14.79
0.3 51.02 35.65
2.22 52.44 35.27
4.49 51.43 34.3
4.86 49.39 33.94
70.27 44.45 67.28
71.22 42.04 68.44
70.07 40.09 68.12
68.7 38.79 66.0
20.1 10.05 50.91
19.22 10.48 52.88
19.89 10.86 55.28
22.0 11.93 56.27
62.79 81.5 87.04
63.37 80.13 88.33
66.18 80.31 88.97
67.74 80.81 87.57
25.44 16.89 86.64
27.64 16.84 88.42
26.89 14.8 1.15
24.57 13.69 1.46
78.58 52.1 25.82
79.24 51.86 23.27
77.18 52.16 21.51
74.75 52.02 21.98
53.96 40.03 89.04
53.21 41.03 86.37
54.63 43.57 86.05
54.3 45.49 87.62
0.54 8.7 57.25
89.04 9.87 55.0
0.18 11.93 54.12
89.23 14.09 54.8
79.44 9.64 72.61
81.77 9.46 71.47
83.76 9.84 71.95
85.36 10.54 73.92
82.89 6.02 54.18
85.39 6.53 54.27
86.73 8.15 56.06
86.45 9.36 57.73
30.89 59.56 5.82
29.72 58.43 4.49
29.66 58.43 1.52
29.91 60.6 0.22
4.25 62.48 66.23
4.8 60.11 66.36
4.51 58.72 63.98
4.29 59.64 61.83
35.66 54.55 84.63
35.0 52.88 83.28
36.55 50.57 82.44
38.35 49.75 83.08
51.97 50.73 77.69
53.15 51.71 75.72
53.08 54.19 74.77
51.15 55.79 75.2
69.49 82.86 61.89
69.88 83.93 59.85
68.02 83.8 57.91
66.58 81.98 57.04
3.04 29.79 68.76
2.85 31.95 69.38
-0.13 32.99 69.42
87.35 31.4 68.5
87.72 35.29 17.17
84.72 35.75 17.59
83.02 35.51 15.69
83.89 34.63 12.98
36.22 12.73 62.74
38.51 11.86 63.16
39.35 10.02 64.67
37.93 8.4 66.24
8.51 50.02 11.62
9.54 48.89 13.55
9.97 49.67 15.93
9.15 51.96 17.42
80.18 25.93 50.75
78.08 27.73 50.47
77.66 29.83 51.91
78.89 31.16 53.16
50.32 46.05 83.31
52.09 47.36 84.36
52.77 49.77 83.66
52.21 50.48 81.47
35.11 51.54 70.72
36.97 52.51 72.77
35.54 53.71 74.86
33.32 54.8 75.05
46.05 7.2 57.7
44.55 7.47 55.84
44.3 6.43 53.79
45.29 8.14 52.57
33.69 54.88 10.28
35.76 56.3 9.98
35.72 58.15 7.78
33.53 57.73 6.37
18.87 56.2 8.58
19.68 57.85 7.21
22.48 57.31 6.67
23.73 55.89 7.87
38.71 74.35 29.91
40.55 73.43 28.76
41.57 70.68 29.39
40.37 68.73 29.39
3.06 54.38 70.19
1.95 54.61 72.07
0.85 52.65 73.74
-0.01 50.29 73.12
30.12 8.2 34.67
28.79 10.37 34.8
30.05 12.24 36.42
32.17 11.23 37.3
31.86 25.52 76.71
30.58 26.14 75.14
28.4 25.46 74.37
27.56 23.94 73.14
66.87 56.86 20.92
65.57 58.84 20.15
66.36 61.37 19.44
68.49 62.09 18.77
17.5 27.05 74.29
19.08 25.85 72.92
19.95 23.32 73.17
19.27 21.7 74.44
29.02 25.64 57.63
30.82 24.76 56.36
31.02 25.14 53.78
29.43 25.36 52.07
34.54 72.72 52.99
35.12 70.58 53.55
33.77 68.23 52.44
32.36 69.19 50.4
72.7 42.67 75.04
72.9 43.34 72.27
70.42 43.71 70.98
68.53 44.7 71.51
54.42 60.72 7.44
53.49 62.61 6.28
54.39 64.08 4.32
56.99 64.59 3.72
12.16 72.46 13.39
10.6 73.19 15.03
10.22 72.88 17.96
10.54 71.31 19.02
29.52 37.5 4.06
27.5 36.87 3.41
25.55 39.14 4.14
26.17 41.13 4.5
9.55 22.34 6.28
10.84 20.82 7.83
10.57 20.02 10.0
8.45 20.11 11.69
8.81 40.13 40.66
8.85 41.04 42.82
10.73 41.57 44.57
13.18 40.99 44.62
20.56 14.88 54.96
21.6 14.61 57.13
19.87 13.81 58.85
17.67 13.72 59.12
79.92 9.67 84.78
79.81 9.22 87.01
81.83 9.04 -0.05
84.0 7.35 88.4
18.99 37.58 46.52
20.99 37.68 45.51
22.66 39.78 45.14
23.26 41.78 46.99
69.7 41.1 71.83
68.4 41.03 70.2
67.86 38.56 68.89
68.62 36.38 69.7
46.7 41.45 24.53
47.09 39.61 22.85
48.99 38.51 21.95
51.59 38.32 22.81
60.71 45.26 24.4
60.58 46.3 22.41
59.68 45.77 20.14
59.45 43.23 18.8
36.0 77.91 1.07
37.4 78.17 87.62
36.9 77.33 85.45
35.1 76.05 84.58
58.75 10.06 6.89
58.15 11.96 5.04
57.49 14.26 5.39
58.56 15.91 7.18
34.75 47.93 28.8
32.37 47.13 28.93
30.49 46.71 27.15
30.45 47.51 24.91
14.43 77.4 51.53
12.66 77.77 49.93
10.89 80.16 49.67
10.75 82.06 51.32
21.72 60.8 31.28
22.83 60.56 33.84
21.41 61.17 35.98
19.39 61.91 36.45
12.83 68.51 86.33
12.27 68.02 83.89
13.48 67.17 81.85
16.18 67.57 81.27
3.59 77.38 53.56
5.23 79.4 53.17
6.8 80.43 54.91
6.15 81.02 57.02
12.68 84.81 2.38
12.73 83.06 3.95
12.37 80.46 3.69
10.44 79.84 2.74
43.87 61.95 69.56
46.22 63.18 69.35
48.44 62.01 69.29
49.28 59.81 68.73
31.47 4.65 14.91
29.62 5.15 13.81
28.4 3.97 11.41
28.46 2.29 10.45
21.73 25.32 27.88
23.34 26.52 26.41
25.88 25.66 25.78
27.1 24.09 26.86
5.51 88.44 70.94
4.56 1.39 72.38
1.85 1.3 73.01
0.12 88.33 72.07
23.42 41.12 1.29
23.45 42.25 87.45
21.78 42.56 86.24
19.12 42.34 86.42
19.11 26.31 1.11
17.34 26.96 2.29
15.11 25.87 3.27
13.49 24.3 1.12
51.08 16.07 18.04
51.19 15.32 20.28
53.07 15.92 22.12
54.84 17.09 22.25
7.88 23.31 24.27
8.89 21.54 25.35
7.93 20.07 27.67
6.23 20.09 28.61
84.45 39.89 16.3
84.97 38.37 18.07
86.39 38.45 19.92
86.56 40.43 21.72
22.12 29.95 80.34
21.84 28.7 78.43
20.19 28.15 76.79
18.45 30.05 75.95
14.81 24.99 42.33
14.74 26.23 44.62
13.2 27.5 45.58
11.43 29.11 44.55
15.93 60.85 42.43
15.63 58.79 44.02
13.45 57.99 45.1
10.8 58.84 44.18
20.27 85.38 40.08
20.83 83.17 40.16
20.78 82.04 37.47
21.3 82.89 35.49
84.24 5.15 58.55
83.27 3.01 57.76
82.05 1.01 59.08
81.84 0.69 61.53
77.03 81.53 85.82
76.27 78.95 85.49
77.39 76.85 84.63
78.77 76.89 82.16
8.29 33.89 42.8
10.36 35.37 42.65
9.35 37.53 41.3
7.76 37.35 39.23
23.13 61.18 64.78
22.82 60.76 61.96
24.23 58.66 60.7
24.36 56.28 61.88
37.09 61.24 13.94
36.23 60.97 16.46
35.11 62.65 18.19
34.51 65.18 17.44
42.72 79.36 87.54
40.03 79.49 87.31
39.32 81.71 -0.22
40.13 82.82 1.91
63.11 41.78 15.86
64.0 40.97 17.82
64.02 38.22 17.79
63.19 36.8 15.48
47.6 85.56 85.75
48.17 87.15 87.04
49.22 87.31 0.75
50.86 85.61 1.49
7.54 21.18 15.0
9.57 19.01 15.48
9.36 16.72 14.3
7.29 15.47 13.36
30.52 79.73 70.23
30.07 80.49 68.49
28.8 82.77 68.59
26.31 83.08 69.57
67.7 86.42 58.4
70.14 87.38 58.68
70.66 0.95 59.44
69.32 2.9 60.43
76.05 84.65 12.17
78.16 83.91 13.75
80.02 84.84 14.18
81.29 87.06 13.17
0.72 43.12 56.6
88.55 45.19 55.59
86.39 44.7 53.61
85.73 43.29 52.6
81.33 22.87 2.92
81.48 23.71 1.17
84.04 24.86 0.78
85.66 23.39 0.46
31.55 29.99 45.65
30.09 31.43 46.58
27.6 31.59 47.35
25.76 30.36 46.99
53.64 16.01 52.84
54.92 16.5 50.71
53.9 17.23 48.28
51.45 17.52 47.65
31.88 43.64 6.5
30.44 41.83 5.67
27.97 41.34 6.59
26.63 43.08 6.57
31.64 1.0 44.03
30.24 88.78 45.87
30.92 88.27 48.5
33.33 88.11 48.67
79.27 36.96 29.0
79.21 39.33 28.03
79.94 40.83 29.42
82.17 40.93 31.04
60.71 85.83 72.08
61.7 85.9 74.13
61.27 87.3 76.4
59.8 0.59 76.72
70.96 74.27 0.74
70.64 76.64 0.83
68.12 78.02 88.9
66.49 77.05 87.95
80.32 33.07 34.61
81.44 31.94 32.97
83.5 30.12 33.07
83.69 28.09 35.01
18.26 43.4 56.75
19.48 42.95 59.37
20.08 41.29 60.24
19.95 38.49 59.76
19.66 1.64 54.84
19.39 2.85 57.19
19.33 1.92 59.32
18.55 88.87 60.4
63.11 68.56 29.49
65.34 69.48 28.43
65.56 70.71 26.24
64.19 70.09 24.53
9.42 14.3 76.79
8.13 14.81 78.36
6.17 16.6 78.8
4.35 17.0 77.03
66.95 65.29 81.54
65.94 64.35 79.7
64.92 65.74 77.21
65.22 67.84 77.05
83.27 36.11 52.9
83.77 38.17 51.81
84.86 40.42 52.65
85.99 41.11 54.86
21.69 1.45 64.07
20.98 1.88 61.75
21.8 4.1 60.37
22.14 6.36 61.27
73.74 13.8 16.1
73.29 15.04 18.05
71.77 14.97 19.77
69.46 13.69 20.35
1.48 87.47 34.38
3.24 88.83 34.05
5.77 88.52 35.2
7.09 86.13 34.76
12.89 74.98 7.01
10.76 75.0 8.31
10.54 75.7 11.09
12.01 75.37 12.96
24.87 49.02 64.67
22.09 48.84 63.84
20.86 46.37 63.88
21.21 44.62 65.86
22.94 71.95 80.06
21.83 73.48 80.96
20.1 72.88 79.46
19.01 74.4 77.37
77.21 67.31 5.12
78.99 65.3 5.05
78.72 63.02 4.05
76.97 61.34 3.96
85.14 88.08 14.54
86.07 0.97 15.78
87.57 3.13 15.01
0.24 2.36 13.66
29.94 63.21 59.92
30.25 63.07 57.58
32.39 62.39 55.93
34.72 62.49 56.52
66.97 66.83 24.74
67.03 69.0 24.69
69.1 70.53 25.24
71.28 70.11 26.53
85.33 2.61 72.78
84.59 5.24 72.6
83.81 6.62 70.91
83.87 5.95 68.01
20.68 45.02 85.87
19.28 43.9 84.36
18.22 45.0 81.89
17.38 46.92 81.35
15.15 31.67 22.45
14.55 30.3 21.24
12.89 30.54 18.92
12.01 32.2 18.04
54.25 31.3 12.86
53.21 29.75 11.46
51.55 30.05 9.59
49.24 31.8 9.86
52.62 31.43 55.16
52.02 31.84 57.8
50.7 33.55 58.68
50.15 36.0 58.07
61.74 38.8 19.22
61.36 37.16 17.65
60.4 38.51 15.15
59.07 40.4 15.08
21.87 47.5 29.95
21.3 46.61 27.68
19.86 47.21 25.88
17.79 48.5 25.7
25.44 29.15 71.95
24.6 28.37 73.66
22.01 28.48 74.69
19.88 28.97 73.64
30.89 16.45 53.6
32.45 15.84 56.06
34.72 15.22 56.18
36.44 15.81 55.27
51.89 38.41 80.42
52.99 36.36 81.85
55.36 35.6 82.06
57.47 36.19 80.7
42.94 3.45 58.71
42.66 5.43 59.08
42.43 6.98 57.27
41.71 6.56 54.69
54.04 78.72 18.1
51.97 79.21 16.93
51.08 79.3 14.36
52.0 78.54 12.44
64.5 86.66 52.48
64.84 85.53 49.92
63.25 84.28 48.82
60.7 83.38 49.28
73.7 74.83 88.05
74.94 75.5 86.25
76.25 74.08 84.36
78.53 74.25 85.14
87.21 57.55 73.37
88.49 58.19 71.69
-0.08 60.32 70.26
87.12 62.55 70.25
36.98 57.44 84.48
36.88 55.64 82.58
38.19 55.55 80.37
39.46 57.31 79.13
36.65 76.24 50.39
37.5 74.57 51.38
37.78 73.91 54.25
35.7 74.48 55.86
40.85 59.27 11.66
38.75 57.79 11.31
36.32 58.58 11.3
35.15 60.37 10.21
52.42 10.0 76.24
50.14 11.16 77.0
48.75 10.94 79.15
48.51 8.76 80.6
31.94 78.81 61.52
32.73 78.67 64.08
30.9 79.3 66.29
29.13 80.51 65.49
24.0 49.9 41.67
26.15 48.39 42.0
25.84 46.1 43.44
23.99 44.5 43.17
28.54 83.64 1.03
30.41 82.64 1.89
32.57 81.93 1.01
34.09 83.07 88.43
50.54 49.84 0.55
50.96 48.81 87.08
51.78 45.99 86.94
50.67 44.11 87.81
31.93 47.33 33.12
33.27 46.28 31.41
35.64 46.15 30.78
37.51 47.57 31.87
77.45 24.87 2.1
79.32 24.53 3.05
81.71 25.9 3.41
81.92 28.3 3.11
81.55 87.02 16.05
79.47 85.96 16.67
77.4 86.95 17.69
77.05 88.95 19.06
74.67 87.01 35.03
75.8 86.2 36.95
78.27 85.31 37.38
79.9 84.47 35.78
41.58 61.16 13.54
40.33 59.26 14.45
41.41 57.26 16.36
43.21 58.04 18.16
79.82 14.51 42.64
77.82 16.31 42.84
77.66 18.56 43.74
78.97 19.77 45.36
7.46 64.71 1.6
6.29 66.67 1.79
4.5 67.39 3.23
3.03 65.74 5.11
74.13 67.92 46.47
76.27 68.6 45.27
77.63 70.75 44.98
77.26 73.07 45.43
13.53 25.06 5.25
12.47 26.51 3.73
10.06 27.75 3.8
8.16 28.16 5.24
88.84 23.61 63.57
88.08 25.28 64.68
0.19 27.36 66.34
2.46 27.65 66.96
0.66 84.36 54.0
2.26 83.05 55.24
4.51 82.74 55.54
6.55 84.09 54.27
64.9 2.98 18.2
64.87 0.69 19.17
65.7 87.55 18.46
67.98 87.36 17.77
47.11 60.02 29.08
44.43 61.16 28.76
43.14 62.46 30.42
43.66 62.61 33.17
41.31 44.71 5.2
38.25 44.05 5.21
37.37 41.95 5.93
38.18 40.08 6.8
33.31 86.79 44.69
34.78 85.74 46.76
35.18 82.97 46.6
35.54 81.4 44.89
65.32 28.96 73.58
65.32 26.63 72.51
63.87 25.58 70.57
61.62 26.16 69.77
64.7 61.72 21.63
64.6 64.35 20.74
64.29 66.62 22.14
64.31 66.93 24.44
41.77 68.17 50.76
43.18 66.59 52.49
45.9 66.44 52.59
47.61 67.58 51.09
34.22 48.6 61.3
36.0 46.73 62.28
37.66 47.02 64.31
38.29 49.17 65.45
29.36 10.53 0.46
27.67 11.64 0.24
25.1 11.11 88.56
24.06 8.99 88.61
46.48 30.42 82.15
45.12 29.36 81.0
44.96 26.75 80.17
47.42 25.32 79.79
58.9 16.68 3.0
59.07 18.0 1.25
60.72 17.67 87.92
62.0 15.2 88.07
77.57 88.39 37.34
79.7 87.77 37.37
81.73 0.69 37.74
81.68 2.9 38.45
23.85 49.14 31.29
25.14 48.62 29.41
26.32 46.31 28.82
27.32 44.42 29.99
81.7 52.44 37.98
79.42 52.07 38.21
77.09 53.77 37.2
76.92 54.82 34.98
53.02 57.54 73.85
51.33 57.58 71.65
49.35 59.27 71.36
48.24 60.71 73.22
36.21 75.93 69.35
36.78 73.81 70.85
38.8 72.76 71.42
41.19 72.62 70.41
6.58 40.51 38.91
6.09 42.34 37.21
6.86 44.57 36.98
8.35 46.18 38.66
64.25 47.64 21.0
63.67 45.7 22.2
63.57 44.98 24.38
63.58 46.82 26.57
79.27 1.77 35.19
80.94 2.96 35.63
83.67 2.8 35.04
84.85 0.6 33.67
13.69 15.39 19.96
14.15 14.47 17.58
13.11 15.02 15.19
11.97 16.64 14.45
23.01 32.56 6.86
24.35 33.88 4.89
25.08 36.67 5.04
25.34 37.87 6.87
42.53 12.56 15.07
44.08 14.14 15.83
45.44 14.21 17.48
45.29 15.1 20.29
61.23 22.15 24.57
60.2 23.79 26.41
58.77 26.16 25.28
60.03 27.58 23.25
37.28 19.29 7.28
35.75 17.33 6.11
33.64 17.8 4.78
33.61 19.2 3.37
40.15 45.17 16.92
41.56 44.29 18.89
41.15 42.06 20.14
39.49 40.64 19.15
40.68 8.11 59.37
39.36 9.91 59.33
39.26 12.25 60.46
41.24 13.61 61.35
69.96 68.14 22.55
69.33 65.84 22.59
70.08 63.76 21.02
71.48 64.47 18.67
46.82 32.1 37.79
45.48 30.78 39.17
44.1 31.54 41.04
44.78 34.24 42.11
54.46 46.91 72.97
55.52 49.14 73.37
54.85 51.17 73.2
52.77 52.61 72.37
78.21 88.47 21.83
76.95 86.69 20.63
74.29 86.37 21.38
73.93 87.69 23.59
74.36 22.3 48.91
74.58 23.03 51.05
73.37 25.51 52.08
73.15 27.06 50.04
32.7 76.96 41.43
32.88 75.69 43.5
34.55 73.82 44.38
36.79 73.51 43.98
50.61 45.96 80.6
51.41 48.26 79.46
52.84 47.78 77.15
52.46 46.35 75.51
37.44 10.41 4.1
38.13 10.55 6.6
36.84 10.89 8.54
34.58 11.25 9.63
48.34 35.17 27.6
47.7 37.89 27.32
45.92 38.99 25.82
45.38 38.18 24.01
34.01 82.51 5.07
35.25 82.98 2.96
36.38 81.03 1.47
38.09 79.49 2.27
54.92 44.83 74.59
54.65 45.05 76.66
55.5 47.5 77.42
57.26 48.98 76.4
54.87 24.98 38.58
56.76 26.51 37.13
56.73 26.27 34.63
55.16 25.52 32.97
73.07 4.48 86.64
74.75 6.04 86.78
77.25 5.18 86.08
78.0 3.33 84.7
5.03 28.58 18.62
4.41 30.23 19.65
2.68 31.99 19.49
1.8 33.34 17.73
53.95 67.16 44.96
54.24 67.05 47.78
56.38 66.26 48.98
58.8 65.84 48.14
4.44 54.15 85.93
5.13 51.86 86.02
4.9 50.05 87.55
3.42 49.61 0.77
43.38 12.1 30.09
42.77 10.41 28.24
43.76 8.11 27.58
45.65 7.19 27.61
75.83 88.32 58.43
74.7 1.05 59.1
74.4 3.51 58.75
74.88 4.93 56.87
70.52 67.77 74.46
69.08 65.99 76.02
69.97 63.9 77.58
72.17 62.67 77.11
26.98 78.82 7.0
28.49 80.33 6.51
29.73 80.82 4.25
28.69 80.54 1.76
23.96 52.04 63.29
25.34 53.44 61.92
27.63 52.81 61.94
29.23 52.13 63.79
31.92 53.63 48.03
34.16 52.74 47.3
36.63 54.16 47.32
37.05 56.14 47.89
51.63 20.34 73.44
51.17 18.14 72.57
49.72 17.19 70.94
47.21 17.73 70.47
59.44 49.7 30.12
59.93 47.49 31.32
59.11 46.46 33.46
58.79 47.52 35.49
49.8 18.92 22.75
51.14 16.93 23.99
52.16 16.72 26.37
52.77 18.39 27.99
27.85 58.87 88.29
25.67 58.29 87.26
25.37 56.11 85.53
27.42 54.26 85.04
85.9 27.23 87.46
86.05 24.74 86.96
88.53 23.54 86.42
1.81 24.36 86.32
41.61 8.17 29.7
41.76 9.62 31.61
40.22 10.02 33.78
38.01 9.45 34.1
10.76 66.22 85.76
9.3 67.87 86.66
9.49 69.26 89.11
9.87 68.1 2.28
8.42 70.55 15.13
8.87 69.04 16.99
7.18 69.36 19.24
4.78 70.74 19.18
71.59 60.74 81.58
70.79 62.83 80.31
69.47 64.32 82.06
68.38 63.36 84.28
16.77 10.68 80.72
15.93 9.83 83.19
15.58 10.77 84.97
15.43 13.52 85.89
22.66 32.89 42.47
24.91 32.03 43.0
25.62 29.78 44.04
24.43 27.72 43.77
69.8 63.34 51.09
72.07 63.55 52.77
71.78 64.92 54.73
69.98 64.99 56.71
72.63 34.93 2.34
74.71 36.04 2.8
77.24 35.6 1.37
78.01 34.16 88.79
29.41 11.78 86.75
29.13 14.51 87.12
31.11 15.93 88.38
33.11 14.91 0.59
33.96 41.91 7.94
35.86 40.56 8.03
38.4 40.84 9.36
39.73 42.62 10.17
37.02 14.83 31.96
38.34 13.49 33.75
40.61 12.78 33.88
42.83 13.47 32.58
8.74 25.32 46.97
7.81 24.12 44.89
7.99 21.45 44.98
9.33 20.41 47.23
80.67 52.91 42.12
79.6 51.19 42.47
79.64 48.81 41.22
80.36 49.27 38.57
88.0 74.73 31.57
86.17 73.27 31.14
83.76 72.91 32.07
82.71 73.41 34.48
69.64 3.07 17.51
69.7 0.56 18.7
71.91 88.43 19.8
74.2 88.68 19.32
12.99 16.07 50.45
13.32 18.42 49.56
13.15 19.32 47.1
11.54 18.51 45.04
37.2 64.01 56.3
38.49 64.29 54.53
41.01 63.61 54.07
42.52 62.21 54.95
54.98 18.45 29.65
53.92 20.83 29.72
53.59 22.43 31.36
54.26 22.25 34.02
39.35 70.61 81.15
37.65 72.71 81.16
37.2 74.57 83.07
37.87 74.7 85.06
68.2 37.37 36.21
66.2 37.64 36.85
64.16 38.8 35.0
64.28 40.28 33.39
46.19 86.7 58.91
45.08 88.94 58.96
44.57 1.58 57.43
44.0 1.68 55.13
25.83 24.12 23.58
23.33 24.46 24.14
23.79 26.72 23.24
23.82 27.59 20.86
23.61 16.12 85.04
23.47 14.0 86.31
25.45 11.93 85.99
27.37 11.98 84.69
30.93 55.29 12.15
32.41 56.96 11.53
33.91 59.0 12.45
34.66 59.18 14.83
74.46 11.84 40.15
73.7 14.55 39.79
73.88 16.35 42.06
75.27 15.82 44.11
40.98 25.22 82.06
42.57 27.23 81.91
42.05 29.72 83.11
40.58 30.17 83.83
37.92 11.42 13.86
37.62 11.5 11.58
39.51 10.7 9.31
41.63 9.3 9.87
87.08 68.36 29.19
-0.17 70.32 28.74
0.89 71.22 26.93
0.83 71.25 24.65
79.03 19.09 23.6
77.04 18.66 24.76
76.1 19.47 27.06
76.93 21.22 28.78
72.19 81.58 86.79
72.41 79.21 86.28
72.58 77.32 87.73
74.23 76.8 0.88
82.1 71.25 45.16
80.03 69.79 45.49
79.0 67.74 44.1
79.41 67.21 41.79
44.81 86.0 16.67
46.71 85.4 17.86
48.4 87.34 19.47
47.8 89.19 20.74
40.28 74.81 73.36
37.95 74.46 73.42
35.98 76.26 74.32
36.46 77.41 76.26
7.49 59.55 61.66
7.8 57.17 62.18
7.66 54.94 60.54
7.58 54.51 58.39
72.47 57.25 -0.35
72.95 55.41 86.8
72.2 53.14 86.8
70.22 51.87 87.88
32.78 34.19 6.92
30.32 34.96 7.7
28.0 34.71 6.72
27.38 34.28 4.06
62.42 79.06 5.6
60.78 81.0 4.37
62.27 83.19 2.9
64.46 82.72 2.67
27.49 17.81 85.29
29.88 16.7 85.24
31.85 17.77 86.55
32.27 19.56 87.83
21.29 87.23 68.84
23.48 87.8 67.43
24.6 1.16 67.21
23.02 3.6 66.88
63.36 30.08 20.08
62.74 31.1 21.7
62.84 30.64 24.51
63.79 28.97 25.71
19.8 66.03 62.77
21.33 63.78 62.09
23.83 63.39 62.14
24.46 63.63 64.02
44.66 35.03 66.14
43.08 36.2 65.56
40.24 35.59 65.31
40.58 32.82 64.83
21.24 31.72 8.69
19.56 31.53 6.87
17.2 30.68 6.69
15.63 29.31 8.75
33.43 8.3 36.77
34.41 9.83 37.3
36.41 10.21 39.32
37.48 8.8 40.89
0.92 67.56 2.43
87.56 68.49 3.1
85.45 67.14 4.16
84.92 64.53 3.87
72.86 11.71 31.88
73.08 10.98 34.0
73.47 7.97 34.49
72.61 6.19 32.74
35.89 22.99 22.64
33.83 22.73 21.15
33.17 20.69 19.89
34.2 18.45 19.68
40.54 45.17 41.11
40.18 46.73 43.22
38.37 48.79 43.3
37.39 49.88 41.69
13.52 46.28 8.78
11.84 47.68 8.32
10.61 48.22 6.27
10.25 46.7 4.0
59.84 62.51 41.17
58.21 63.4 42.74
58.46 63.63 45.35
59.38 62.32 47.07
72.7 17.44 16.03
72.73 17.81 18.71
75.06 19.78 18.74
75.88 21.03 16.9
75.41 53.2 18.26
76.18 54.85 20.31
77.93 56.78 19.63
78.7 57.69 17.53
40.15 58.34 19.12
39.17 59.52 17.5
37.57 58.68 15.89
35.75 57.1 15.82
51.35 83.15 34.88
49.05 81.82 34.99
47.21 83.73 35.7
47.31 85.68 36.86
47.92 37.88 67.95
46.82 36.54 66.13
47.46 35.29 64.67
48.46 32.9 64.63
9.25 83.62 0.93
6.95 82.83 1.58
4.34 83.57 0.75
3.59 85.13 88.16
69.83 36.56 67.29
71.05 36.35 68.67
70.7 34.13 70.3
70.42 31.71 69.74
3.38 88.26 88.83
4.17 86.81 1.32
5.68 87.07 3.71
6.94 0.03 4.53
30.16 30.74 74.01
32.05 29.47 74.58
33.03 28.21 76.57
32.32 28.49 79.08
59.16 21.52 27.47
57.92 22.67 29.05
58.16 22.81 31.85
59.79 23.07 33.17
8.0 76.1 3.51
9.74 77.73 4.55
12.43 77.53 3.9
13.62 75.13 3.03
-0.04 17.75 59.18
87.47 18.25 60.94
87.81 19.8 62.94
0.73 20.92 63.93
75.37 42.05 85.57
73.88 41.36 87.55
74.01 38.67 88.62
74.07 36.75 87.46
26.89 6.09 14.97
26.17 5.54 17.31
23.97 4.66 18.3
21.92 5.12 16.87
67.55 69.22 76.37
65.73 70.23 75.97
65.12 72.62 74.38
67.08 74.0 73.07
26.17 65.15 28.09
25.56 67.45 26.61
27.12 68.79 24.98
29.46 68.36 24.44
70.28 88.41 54.3
71.19 0.18 56.42
71.96 2.4 57.49
72.25 4.58 56.32
75.36 59.91 81.91
75.24 57.94 82.63
76.79 56.16 81.99
77.21 54.88 79.66
8.0 31.4 23.59
9.94 29.95 23.34
12.54 30.9 23.35
13.71 32.49 24.49
82.11 70.26 61.82
82.08 68.69 64.04
83.53 67.17 65.01
86.02 66.58 64.15
70.87 85.18 62.21
72.09 86.47 61.04
74.91 85.61 60.05
76.05 83.67 60.21
4.76 50.67 36.74
3.45 52.5 37.7
3.85 54.95 38.2
6.21 56.15 38.68
1.52 6.5 55.81
88.26 5.78 55.9
86.77 4.34 57.84
87.62 2.9 59.86
63.15 14.01 84.96
63.67 12.63 87.54
65.16 10.73 87.72
67.24 11.14 86.92
68.69 31.03 71.45
67.7 29.81 72.59
67.9 27.23 71.68
66.69 26.72 69.71
37.15 20.69 60.58
35.2 20.48 61.68
33.47 22.32 63.04
33.5 24.82 62.23
69.72 23.1 76.31
70.19 24.32 74.39
69.22 26.79 73.86
67.25 28.24 75.31
17.68 84.82 39.35
16.57 82.98 38.28
16.22 82.32 35.81
15.97 84.01 33.75
1.17 54.77 68.29
2.8 56.63 67.67
2.25 59.07 66.72
0.31 59.99 66.6
27.35 31.03 50.59
29.35 30.12 52.29
29.1 28.07 53.77
27.07 27.34 54.93
63.7 41.51 43.96
62.35 42.62 42.5
62.66 44.68 41.0
64.31 45.35 39.22
40.3 55.35 13.09
38.6 55.55 14.72
36.17 54.59 14.75
34.83 53.54 12.96
8.4 3.64 31.42
8.12 1.79 32.31
8.31 88.5 31.21
10.04 88.1 28.85
18.65 56.67 3.93
20.32 55.29 4.63
20.2 53.98 6.88
18.3 52.9 8.04
60.52 60.61 20.17
60.92 59.26 22.01
62.18 56.87 21.93
62.51 55.41 20.41
88.8 55.43 17.93
87.96 57.77 17.57
86.61 58.98 15.63
85.05 58.12 14.04
82.6 29.35 0.07
82.16 27.14 0.23
82.23 24.97 87.33
83.79 25.27 85.29
44.56 64.82 66.37
46.07 65.58 68.06
48.66 66.38 67.56
49.47 66.69 65.15
57.61 46.96 39.46
58.49 48.33 38.15
59.42 50.89 38.75
59.3 52.3 40.85
47.5 21.88 50.92
47.26 24.19 49.63
46.44 26.68 50.97
46.27 26.89 53.41
27.19 56.69 39.49
26.32 58.98 38.87
27.51 60.82 37.76
29.78 61.4 37.42
55.32 54.8 76.48
57.15 54.33 74.61
57.82 55.51 72.84
57.2 57.83 71.71
41.9 49.47 13.16
41.07 47.37 13.33
42.02 44.94 14.46
43.09 44.61 16.17
57.08 15.89 71.92
55.04 15.45 71.86
53.45 14.41 69.8
54.59 12.62 68.34
58.73 0.41 14.56
61.33 1.54 13.84
63.51 0.31 14.48
63.58 87.06 15.66
2.17 45.66 83.64
2.01 47.64 83.34
3.18 48.77 85.56
3.12 47.32 87.87
41.76 84.94 50.47
43.44 85.48 52.44
43.14 88.15 53.35
42.28 0.95 52.4
0.67 16.66 39.68
1.37 17.02 37.22
1.25 14.9 35.23
1.16 12.91 35.48
15.08 12.22 78.8
13.94 12.32 80.76
12.11 14.25 81.48
10.7 15.56 80.32
70.86 34.14 36.64
72.12 33.56 35.15
73.69 34.61 33.3
73.48 36.75 32.05
68.23 66.95 19.64
67.32 65.01 19.83
65.95 63.45 18.0
65.71 63.53 16.0
68.12 70.97 67.98
66.5 72.62 67.47
65.78 74.93 68.35
66.28 75.85 70.72
68.88 87.72 72.86
66.34 87.84 73.72
64.33 0.62 72.44
65.35 1.83 71.02
10.43 47.1 19.74
12.22 49.26 19.74
14.68 48.97 18.72
16.02 46.98 18.42
56.35 70.65 2.77
55.59 68.86 3.67
53.02 68.66 5.39
52.65 70.7 6.2
70.39 82.73 46.78
68.46 82.74 47.99
67.17 81.19 49.26
67.26 78.75 49.84
84.46 68.68 2.05
82.75 66.47 2.01
80.32 66.7 2.35
79.74 68.24 3.95
84.07 18.94 58.77
84.95 19.01 60.9
85.56 20.95 62.73
85.46 23.2 62.65
4.53 28.66 62.78
4.37 30.86 63.89
5.47 33.28 63.24
7.04 33.64 61.63
41.34 7.88 73.11
42.62 8.29 75.25
42.15 8.44 77.61
40.03 8.93 78.93
36.32 74.95 46.68
35.49 74.22 49.03
35.93 72.11 50.33
37.57 70.17 49.95
47.17 71.84 25.16
47.18 69.31 25.19
48.6 67.51 26.49
50.28 67.42 28.2
43.25 3.75 36.15
41.81 4.83 35.06
42.09 6.0 32.58
44.1 7.5 31.81
25.26 5.36 79.82
22.67 4.92 79.5
21.93 3.5 77.73
21.62 4.47 75.41
64.12 65.63 74.58
65.42 67.6 74.27
64.99 69.7 72.65
62.89 70.81 71.72
73.0 18.39 39.47
74.59 17.06 38.85
77.12 17.36 40.0
78.28 19.33 40.67
56.07 33.97 87.64
57.13 33.33 85.26
57.58 34.84 83.48
58.11 37.26 83.03
17.34 39.3 41.82
15.56 39.66 43.34
13.65 38.29 43.93
13.04 35.56 43.27
87.32 85.44 88.59
0.71 86.34 88.87
1.83 85.97 2.42
1.94 83.43 3.52
22.65 11.0 87.56
21.34 11.75 85.85
18.69 12.69 85.93
17.44 13.15 87.61
43.11 77.19 56.63
43.91 79.86 56.36
43.17 82.02 57.92
42.4 81.85 60.2
35.2 82.36 51.14
36.69 82.65 48.91
38.51 84.01 49.05
39.24 86.26 50.68
59.97 15.05 55.2
60.46 16.73 56.26
62.61 18.57 56.22
64.29 18.68 55.08
16.69 9.3 56.45
17.42 12.0 55.34
17.04 12.36 53.04
15.48 11.66 51.31
42.59 33.66 16.47
42.72 35.97 15.13
41.72 38.35 16.37
39.4 38.56 17.28
35.2 13.06 33.36
35.93 11.19 34.39
34.36 8.71 34.43
32.44 8.79 32.87
62.24 28.88 40.06
63.86 29.57 38.65
63.24 28.67 35.91
62.31 26.92 35.06
74.71 12.6 20.71
74.2 15.4 21.11
75.67 17.17 20.25
77.35 16.89 18.62
40.5 37.38 36.55
42.79 37.15 37.91
43.01 35.12 40.1
41.81 33.13 40.46
11.58 20.36 67.97
14.22 21.26 68.14
15.2 23.42 66.81
14.56 23.97 64.41
63.44 5.22 40.96
64.55 7.31 39.56
67.38 7.13 39.71
68.83 5.28 40.06
42.51 9.57 55.42
41.27 10.92 56.63
38.66 11.37 56.95
36.86 11.39 54.93
5.89 79.19 28.68
7.39 80.63 30.08
9.56 80.51 30.74
11.42 78.59 30.33
19.05 85.33 26.2
19.91 87.32 27.25
19.57 1.01 26.65
18.83 1.5 24.37
75.13 41.45 74.65
75.59 42.6 72.58
77.62 43.82 71.65
78.87 45.63 72.89
50.03 71.85 7.79
49.72 70.6 10.1
50.39 71.59 12.57
50.82 73.82 13.29
86.71 78.85 77.36
88.49 80.23 76.09
89.17 82.78 76.72
-0.35 84.13 79.02
64.84 45.18 19.86
63.89 43.67 18.65
62.19 44.52 16.47
62.06 46.59 15.7
72.21 60.59 85.2
72.92 58.98 86.57
74.98 59.14 88.8
75.61 61.11 1.17
17.54 78.53 7.11
18.2 81.06 5.73
19.8 82.05 5.63
20.62 84.02 7.1
2.04 79.9 54.99
0.44 81.37 52.76
87.42 80.96 51.87
85.18 80.67 52.68
72.75 76.82 84.13
74.57 77.65 83.22
75.96 77.35 80.98
76.77 75.36 79.92
11.69 79.18 54.57
10.28 77.03 54.68
9.14 75.77 56.8
9.55 75.83 59.06
23.01 30.1 63.07
22.28 31.14 61.09
23.28 31.0 58.66
25.4 29.58 57.94
2.31 42.74 36.27
3.27 44.77 36.61
5.32 46.05 35.23
6.36 45.36 33.09
34.72 22.81 77.54
33.94 25.21 78.31
34.92 26.6 80.37
37.68 25.87 81.37
5.68 46.23 87.8
4.91 45.1 85.64
5.75 43.54 84.27
6.09 41.41 84.86
51.86 33.57 84.39
52.95 33.69 81.68
55.3 32.9 80.87
56.99 32.53 82.31
9.98 14.5 1.23
10.94 14.77 87.73
13.03 15.47 86.89
15.25 16.18 87.85
10.62 12.49 12.82
11.7 12.46 14.77
13.73 11.86 15.47
15.63 10.38 15.0
64.63 34.02 40.26
65.41 35.46 38.27
68.06 34.89 37.62
68.9 33.23 38.64
19.03 66.95 80.76
18.36 67.96 78.68
17.72 66.8 76.09
17.43 64.75 75.3
15.76 66.78 70.77
16.74 68.4 72.2
15.88 69.96 74.04
13.81 69.64 75.49
69.65 50.11 61.96
70.06 48.48 63.81
68.69 46.36 64.56
67.59 44.74 63.2
54.6 56.34 1.0
54.9 57.56 2.8
53.76 59.85 4.02
52.64 61.88 3.02
56.5 52.67 71.19
57.38 50.53 71.45
58.78 50.06 73.95
58.65 51.27 75.24
80.58 80.95 17.18
81.52 82.93 16.08
82.17 83.4 13.51
81.13 81.93 11.82
12.52 82.95 29.91
13.38 84.13 32.27
13.48 82.99 34.7
13.34 80.83 35.24
62.59 52.09 30.44
62.07 49.79 29.19
62.66 49.25 26.81
64.39 50.21 25.36
1.59 37.81 38.92
3.93 37.64 38.1
4.51 35.23 37.34
3.2 34.51 35.28
40.85 9.18 36.27
39.03 9.87 37.68
37.9 11.55 37.71
38.37 14.2 38.79
41.88 38.33 34.34
42.98 38.5 32.67
44.32 40.65 32.85
43.18 43.1 33.72
11.63 85.45 5.34
10.11 87.1 3.95
9.52 0.78 4.43
9.8 1.99 6.88
70.62 48.62 2.05
72.65 47.13 3.28
72.97 44.89 3.63
71.54 42.74 2.99
18.81 66.49 73.45
18.01 64.82 71.39
18.63 66.69 69.17
19.9 68.82 69.42
21.92 80.48 40.46
23.24 80.93 38.58
23.93 79.33 36.74
24.29 77.19 36.36
69.99 18.3 8.28
72.67 18.53 8.34
74.23 19.41 10.0
74.04 20.31 12.37
56.54 27.31 31.11
57.92 26.61 29.13
57.63 24.93 27.35
55.87 24.08 26.07
83.39 84.87 15.54
83.73 86.12 17.08
85.65 87.31 18.24
87.92 87.56 17.9
1.37 69.98 1.01
1.83 71.14 3.35
0.54 72.95 4.57
87.79 74.79 3.71
45.3 10.37 55.47
43.6 10.99 57.65
42.88 13.63 57.8
43.84 15.15 56.5
44.1 70.75 13.31
44.69 73.14 12.81
46.22 74.73 14.19
46.44 75.22 16.35
1.56 88.28 17.1
1.23 1.74 16.51
2.72 3.64 15.61
5.09 3.37 14.49
75.56 40.86 8.63
77.58 39.71 9.21
78.1 38.04 11.71
76.91 38.02 13.44
48.02 10.44 16.78
49.4 12.86 17.19
48.9 14.49 19.41
47.43 13.87 21.29
66.25 58.54 12.48
66.51 58.01 14.85
65.01 58.75 17.1
62.76 60.12 17.18
59.45 78.3 70.25
59.49 79.91 68.35
57.33 80.98 66.87
55.26 80.15 66.97
54.1 21.11 88.43
56.25 19.22 -0.03
58.48 19.47 88.0
59.25 19.18 85.9
23.74 50.78 85.93
23.22 48.66 84.49
21.43 48.41 83.07
21.16 49.35 80.48
16.67 44.04 28.22
19.09 44.48 27.66
21.41 43.65 28.87
21.55 43.37 31.62
36.5 78.14 82.68
37.97 76.91 80.9
37.52 76.52 78.46
35.96 74.82 78.11
69.82 28.26 36.74
67.93 27.26 35.68
66.02 28.95 36.4
65.73 31.37 36.47
53.39 50.43 86.18
53.6 48.45 86.57
53.82 47.7 0.46
55.32 48.54 2.03
78.28 61.34 1.07
79.59 63.19 1.74
80.89 64.96 0.28
80.94 65.42 87.2
71.8 35.92 86.6
71.43 37.61 87.86
69.77 38.26 0.91
68.06 36.93 2.37
18.0 7.69 42.02
17.73 9.58 43.57
17.56 12.34 43.1
18.36 13.03 41.36
0.65 81.85 71.4
0.53 83.07 73.36
87.68 83.71 74.79
85.78 82.02 74.55
88.36 53.44 79.02
86.61 53.81 77.1
86.23 56.07 75.96
87.47 57.67 76.05
78.49 42.57 30.4
77.65 40.51 31.98
75.58 39.25 32.3
73.26 40.14 31.33
69.65 52.57 66.58
68.17 51.09 65.18
67.31 48.69 65.7
67.83 47.32 67.4
15.2 80.33 2.44
15.02 78.54 3.51
16.32 77.08 4.66
19.25 77.22 4.61
4.33 79.11 71.04
4.86 80.76 72.73
4.88 83.18 72.96
4.07 85.15 71.54
24.23 69.68 15.51
24.98 71.06 17.27
23.93 71.71 19.6
21.84 70.79 20.77
81.25 56.19 42.66
79.73 55.1 41.12
78.35 56.02 38.94
79.1 57.8 37.5
4.72 51.52 16.99
2.84 52.78 18.43
2.7 55.16 19.44
4.98 56.84 19.37
49.41 13.39 70.86
47.01 12.88 70.43
45.78 10.71 69.5
46.26 9.55 67.74
23.64 10.51 82.62
22.93 9.12 84.42
23.9 7.63 85.95
25.87 7.02 86.59
39.79 12.08 4.7
40.03 14.33 4.82
42.21 15.59 6.21
44.51 14.99 6.27
11.19 17.58 9.83
11.52 16.43 11.79
13.83 14.67 12.42
16.03 14.99 11.93
60.17 80.41 64.73
58.26 79.45 64.43
56.36 81.91 64.07
56.09 82.87 61.96
2.63 9.36 16.8
3.22 7.2 16.6
3.96 5.39 17.79
3.17 4.53 20.01
16.16 17.64 48.68
17.69 15.59 49.02
18.17 14.25 51.05
17.18 14.87 53.66
61.45 82.01 68.78
59.92 83.71 69.96
58.67 83.61 72.17
59.77 82.4 74.42
67.97 61.83 78.16
67.06 63.99 76.85
66.46 64.02 74.11
66.52 62.44 72.83
19.95 43.66 25.23
18.13 45.46 24.65
16.95 45.96 22.95
16.86 44.95 20.14
57.67 83.21 68.32
57.63 83.53 65.97
56.27 84.94 64.37
54.21 85.72 64.33
88.2 32.19 78.77
88.9 34.4 78.55
0.2 36.46 80.42
0.86 36.06 82.9
14.67 73.08 81.43
15.38 70.91 79.87
15.18 70.69 77.34
14.61 72.16 75.63
34.39 25.2 23.52
32.7 27.0 23.36
30.45 27.46 24.57
29.25 25.23 25.09
70.56 72.59 27.77
68.29 72.27 27.16
67.16 72.96 25.57
65.83 75.04 25.18
54.95 29.83 8.99
56.14 31.69 10.22
58.54 32.77 9.0
59.35 31.72 7.59
14.67 64.5 10.62
15.41 62.22 9.21
17.19 62.05 7.44
18.95 63.45 6.63
65.3 1.64 23.22
66.31 0.51 21.65
68.99 88.87 21.17
70.24 1.66 22.07
20.75 85.28 78.24
21.71 88.02 77.85
23.06 0.4 79.51
24.52 -0.04 81.28
7.82 51.89 55.43
6.5 50.25 53.89
7.64 48.66 52.02
9.75 48.18 52.5
28.98 44.46 22.74
29.1 45.06 25.34
30.01 43.81 27.0
30.14 41.29 27.42
24.0 11.14 40.35
25.49 9.65 38.91
26.86 11.19 37.09
27.38 13.56 37.17
9.17 30.72 64.2
10.18 30.98 66.1
12.81 31.64 66.69
14.04 33.02 65.41
26.91 52.57 58.38
27.45 54.33 59.63
26.52 56.57 59.88
25.95 58.14 58.26
2.61 30.18 3.81
4.03 30.23 2.17
6.86 30.61 2.13
8.21 30.65 4.18
3.0 18.66 34.82
3.92 16.59 34.11
4.96 16.13 31.67
5.55 18.05 30.29
71.51 25.9 72.22
72.51 25.78 74.37
74.56 24.02 75.14
74.82 21.81 74.49
33.94 17.35 78.97
32.71 19.04 78.73
32.67 21.28 77.16
32.4 20.61 74.76
41.7 55.01 17.68
39.17 53.76 17.47
38.86 51.61 16.34
40.33 49.89 15.48
48.51 65.55 53.55
50.3 64.7 51.57
52.06 66.45 50.42
53.13 68.31 51.11
51.87 12.81 71.41
50.92 12.9 73.52
51.77 13.27 75.82
53.7 14.57 76.28
44.94 42.75 22.8
44.13 40.61 21.72
43.7 39.76 19.01
44.32 40.58 17.42
37.54 70.42 73.06
37.58 72.31 74.75
35.72 73.61 75.75
33.75 73.71 75.19
40.15 28.56 38.84
41.14 30.88 38.75
43.2 31.77 37.73
44.95 31.24 36.25
53.33 88.3 85.41
51.02 88.48 86.11
49.74 0.97 87.37
50.72 1.06 0.43
51.36 12.49 21.46
50.88 12.7 23.77
53.2 13.41 25.69
55.49 12.91 25.62
15.62 60.2 49.24
15.11 59.22 46.83
17.09 58.07 46.11
18.99 57.48 47.76
15.98 25.78 7.48
15.93 27.11 5.41
17.88 28.64 4.2
20.12 29.15 4.94
55.14 45.8 6.06
54.45 47.34 4.55
52.49 47.76 2.75
50.73 46.35 2.34
53.98 82.03 64.93
53.47 83.55 62.96
51.15 83.98 62.3
49.32 82.55 62.95
50.92 9.97 37.87
51.71 11.56 39.03
51.57 11.44 41.96
51.89 9.66 43.3
59.27 0.64 28.43
59.94 0.98 25.55
61.25 3.0 24.7
63.03 4.57 25.92
39.97 77.03 85.28
39.98 76.44 83.0
40.07 78.83 81.47
41.17 81.2 82.77
72.79 58.0 58.08
71.94 59.88 57.22
73.19 62.13 56.0
72.85 61.24 53.59
74.8 55.08 37.94
76.05 57.02 38.1
76.54 59.01 36.71
75.47 60.03 34.32
7.32 75.12 14.42
7.5 73.17 16.33
6.42 73.02 18.48
5.15 74.81 19.74
51.09 18.6 18.7
49.93 17.72 20.3
47.76 16.69 20.37
45.86 17.77 20.39
87.63 5.61 15.32
0.16 6.48 13.27
0.84 9.17 12.84
0.83 10.14 15.14
44.04 10.12 13.54
46.19 10.79 12.4
46.35 12.22 10.34
45.07 13.24 8.89
47.75 32.28 78.98
48.71 31.76 81.2
49.59 33.8 82.83
50.19 36.12 82.41
18.05 71.37 68.3
16.35 70.69 69.9
15.55 72.29 72.27
17.38 73.44 73.83
5.61 48.09 55.47
3.13 47.77 55.75
1.82 46.11 56.78
1.8 44.64 58.43
55.06 87.82 42.89
55.68 85.69 43.89
54.63 83.68 44.53
52.77 82.65 44.92
15.2 52.33 16.4
13.17 51.36 17.13
11.46 51.72 18.89
11.29 53.29 20.87
67.46 7.64 36.85
69.83 8.1 35.76
70.98 10.42 35.72
70.33 12.61 35.65
22.22 42.09 79.52
20.47 43.09 79.1
20.31 45.55 79.93
22.51 46.69 80.47
74.93 26.79 53.91
76.07 25.92 51.86
77.04 23.82 51.51
79.02 23.67 51.69
66.23 14.31 56.8
64.45 15.28 58.13
62.06 15.06 58.61
60.41 13.42 57.47
44.94 37.2 16.45
43.81 37.22 18.79
44.76 37.15 21.01
46.78 37.24 21.72
25.93 85.11 62.32
27.85 84.79 63.89
27.27 83.58 66.6
25.16 83.47 67.11
58.6 45.52 26.47
59.99 47.14 28.17
62.6 46.13 29.17
62.9 43.64 29.82
27.12 1.62 81.25
25.05 2.86 81.55
23.96 4.21 83.82
25.33 4.24 86.11
78.11 64.67 85.16
77.19 62.19 85.64
74.83 61.42 84.72
73.69 62.16 83.1
78.38 18.37 16.9
78.19 19.56 15.28
78.11 22.1 15.36
79.96 23.77 16.36
20.65 62.41 42.6
21.04 62.29 40.01
23.13 62.11 38.8
25.71 62.07 39.49
25.73 54.29 81.57
26.97 56.21 82.85
28.69 54.58 81.23
29.23 55.32 78.6
50.31 55.95 4.83
52.02 57.69 4.96
54.32 57.73 6.38
54.95 56.3 8.52
73.71 66.37 59.27
72.81 65.28 57.75
71.45 62.92 57.68
71.55 61.18 59.5
11.14 53.27 13.55
12.72 51.65 13.71
15.26 51.67 13.26
16.66 53.03 11.94
81.65 68.47 68.05
83.83 68.9 67.34
85.45 67.46 67.31
87.41 67.52 69.12
17.58 8.42 79.52
18.92 7.12 80.73
21.54 7.0 80.97
23.42 7.97 79.86
3.52 34.95 64.55
2.22 34.2 66.37
1.71 34.87 68.79
1.42 37.75 68.3
34.44 78.72 5.11
32.78 80.09 5.62
30.89 80.21 7.69
30.55 78.62 9.71
46.34 29.79 78.63
44.41 29.06 78.1
42.65 30.14 76.09
43.34 32.23 74.61
43.61 63.45 26.6
43.23 65.46 28.22
41.3 66.13 29.47
38.76 66.7 28.65
66.81 3.12 37.28
69.44 3.45 36.89
70.77 4.73 35.27
70.19 6.36 33.81
22.32 83.3 4.72
24.36 82.76 6.13
26.59 83.29 5.69
27.37 83.77 3.63
17.62 66.21 42.33
18.0 63.91 42.04
17.05 62.01 40.19
16.71 62.54 37.74
75.41 21.63 54.34
73.2 20.49 53.77
72.05 18.07 54.67
73.06 16.65 56.45
69.77 20.15 54.68
67.87 20.03 55.49
67.73 17.72 56.35
66.12 16.84 55.27
58.74 78.09 3.05
60.58 79.49 2.39
60.86 81.38 0.89
59.39 82.23 87.64
83.94 12.43 71.01
85.0 13.1 68.33
84.41 15.28 67.09
83.4 17.05 67.63
61.5 28.76 18.57
60.59 29.26 16.6
59.46 27.5 15.98
59.82 25.31 14.47
66.06 33.86 83.5
68.17 34.5 84.84
70.11 36.24 84.45
70.92 36.99 82.13
64.24 84.93 0.72
62.25 84.37 87.49
59.64 84.99 87.59
58.41 86.28 0.54
74.67 8.67 2.34
75.63 8.19 0.5
78.33 7.3 88.91
80.14 6.79 1.66
28.75 87.42 63.03
26.9 87.29 64.51
25.05 0.12 64.92
24.21 1.42 63.2
58.08 66.79 39.91
57.7 66.07 42.33
55.27 64.99 43.27
53.15 65.39 42.69
16.97 10.79 60.51
18.09 8.65 59.78
19.13 6.8 61.25
18.92 6.17 63.65
53.52 37.0 63.03
54.09 35.74 60.76
55.57 35.75 59.51
58.24 36.12 59.59
32.08 80.9 23.83
32.32 82.34 25.92
34.95 83.68 26.5
33.15 85.14 26.26
13.92 69.79 47.92
13.89 69.81 50.01
15.7 68.54 51.89
17.84 68.29 51.92
19.35 28.93 0.21
19.1 30.56 2.55
20.62 31.98 3.6
22.72 33.17 2.97
74.67 46.62 86.53
73.71 43.92 87.06
73.94 43.15 0.91
75.05 43.53 2.5
58.88 65.84 6.25
56.63 66.8 5.37
54.72 67.03 6.61
54.04 69.22 8.22
33.95 17.56 40.25
34.87 19.21 40.06
34.51 22.06 40.44
32.97 23.16 41.52
37.6 63.48 51.26
36.89 65.19 52.82
34.86 66.02 53.72
32.7 64.75 54.58
27.47 22.21 24.89
29.91 22.34 24.6
31.2 22.6 22.41
30.83 21.65 20.05
81.72 35.55 22.95
82.43 36.62 20.47
82.04 35.99 18.31
80.93 34.19 17.4
26.89 68.39 17.34
27.25 69.6 15.03
29.56 70.94 14.36
31.66 70.71 15.22
38.67 22.38 17.6
38.03 24.2 17.85
35.51 25.45 18.48
33.31 24.12 18.84
30.94 83.0 8.2
29.78 83.23 5.75
31.67 83.22 4.24
33.04 84.95 3.06
35.06 20.4 86.69
35.12 18.94 88.69
35.99 19.74 2.5
37.4 21.47 3.1
58.14 9.46 0.19
58.65 12.01 0.84
60.5 12.71 2.77
62.43 12.2 3.48
16.4 64.08 67.96
17.2 64.65 65.83
19.67 63.67 64.65
21.63 63.29 65.63
4.17 58.88 69.21
3.0 57.41 70.35
3.1 56.78 73.08
5.11 57.65 74.46
11.99 51.36 23.28
13.54 50.23 22.08
14.88 47.98 22.67
15.58 47.1 25.07
56.68 81.82 48.87
55.58 83.22 47.12
56.03 85.79 46.63
56.69 87.53 47.75
51.95 65.82 27.05
49.91 65.3 25.37
48.67 62.95 24.9
49.99 60.8 24.57
14.97 84.45 4.97
16.09 82.6 3.95
18.54 82.52 3.34
19.8 84.74 4.34
80.12 85.14 39.36
81.58 85.81 37.67
84.05 86.03 37.53
86.23 85.23 38.85
44.12 26.64 77.69
42.24 27.35 79.32
39.42 27.0 79.0
38.17 25.7 77.43
87.51 48.14 58.37
0.45 49.26 57.0
2.43 50.63 57.53
3.12 51.9 60.05
37.56 46.18 76.48
37.18 48.81 77.04
35.51 50.72 75.62
35.21 49.88 73.17
36.01 17.25 3.12
37.58 15.99 4.2
37.56 13.25 3.9
35.42 12.44 2.85
19.83 8.61 38.69
20.54 9.8 40.43
22.64 9.45 42.05
24.01 7.52 42.42
3.83 17.27 38.92
3.86 17.45 36.92
5.0 19.79 37.64
7.04 20.34 38.52
34.37 27.87 17.23
32.23 26.62 18.99
31.56 27.87 20.99
31.43 30.3 21.86
80.18 72.75 41.13
79.52 72.4 43.34
80.43 73.49 45.1
80.84 75.74 45.71
3.68 69.54 5.34
1.59 67.97 5.01
87.96 68.1 6.06
87.59 68.72 8.31
58.9 63.96 38.31
56.72 63.98 38.19
54.75 62.58 36.74
55.61 61.84 34.2
5.83 40.07 77.76
4.71 40.41 80.04
5.24 42.16 81.86
6.83 44.29 81.88
23.02 57.24 0.76
22.9 58.72 2.18
20.79 60.39 3.5
18.44 60.58 3.13
37.09 9.88 43.2
37.75 11.64 41.23
36.4 13.64 40.43
34.72 15.09 41.92
53.8 16.23 45.81
54.33 13.92 45.44
53.99 12.52 43.27
54.75 13.49 40.72
36.51 17.94 80.37
34.69 19.18 81.52
33.61 18.96 83.57
34.29 17.98 85.9
57.74 23.53 53.31
55.39 23.35 53.19
53.49 25.25 52.76
53.23 27.19 53.59
25.31 82.46 26.53
27.71 82.65 25.29
29.75 83.53 26.09
29.95 85.52 27.1
2.98 51.95 77.45
1.03 53.2 76.38
0.77 55.71 76.0
2.38 57.61 76.14
32.15 38.05 5.39
32.65 39.51 7.35
33.63 38.97 9.72
35.19 36.99 10.38
84.04 2.25 39.22
84.31 88.73 38.31
85.27 88.22 36.08
88.21 87.71 36.04
36.37 12.9 73.29
37.76 11.8 72.7
38.63 10.26 70.31
37.92 10.81 68.1
25.97 85.45 72.4
25.05 85.59 69.95
25.89 86.56 67.9
28.38 87.03 67.09
21.97 47.11 21.52
21.97 45.08 23.34
23.62 43.43 23.59
26.44 43.57 23.27
76.86 29.71 33.79
77.87 31.71 33.88
78.87 33.23 32.19
78.79 33.43 29.66
73.77 17.24 11.96
74.95 18.18 13.67
76.3 17.25 15.72
76.0 15.27 16.73
39.31 30.98 79.99
41.29 31.24 78.42
44.08 31.86 79.38
44.77 32.36 81.41
1.07 62.41 65.03
0.54 64.04 67.04
86.93 64.99 67.68
84.84 64.88 66.55
61.97 14.31 66.62
61.17 14.87 64.4
62.77 14.62 61.94
64.84 14.44 61.37
80.18 72.34 82.6
78.96 73.7 80.79
79.63 75.06 78.85
81.72 75.77 77.97
12.66 74.65 55.1
12.78 75.1 52.83
13.06 72.74 52.38
14.69 72.21 50.54
25.81 11.51 15.79
26.61 9.39 15.64
29.26 8.55 14.68
31.07 9.92 14.36
55.32 87.96 20.52
57.62 88.1 21.03
58.93 88.05 18.27
57.02 87.63 16.39
18.05 9.25 85.01
19.18 7.79 83.69
21.29 6.85 84.22
21.9 5.17 86.16
42.21 41.42 65.86
42.31 38.99 64.72
44.45 37.88 63.46
46.83 38.59 63.81
45.84 64.88 25.56
45.68 67.27 23.98
47.63 67.84 22.53
49.45 67.39 23.01
58.52 80.53 46.67
59.44 82.14 44.86
59.05 82.66 42.69
57.05 82.2 41.15
23.15 46.7 25.66
25.17 46.07 26.51
27.72 47.06 26.47
28.51 48.96 25.53
56.38 88.65 44.82
58.31 88.7 43.63
60.13 1.62 42.71
60.23 4.03 43.37
22.16 21.03 26.2
22.36 22.18 28.51
22.71 21.04 30.82
23.28 19.02 31.51
12.83 78.82 39.53
13.6 80.94 38.63
12.32 83.19 37.72
9.8 83.58 37.78
43.99 1.69 80.93
43.32 3.15 79.33
42.17 5.44 79.14
41.44 7.14 80.71
28.96 32.67 25.41
30.14 31.71 23.99
31.88 29.91 24.58
33.74 29.4 25.71
32.28 25.11 47.39
30.76 27.3 48.06
30.85 28.84 50.32
32.21 28.79 52.26
3.75 14.62 81.18
3.94 15.38 83.8
5.69 16.85 84.74
6.82 18.82 83.66
84.82 3.59 51.06
84.37 5.26 51.96
85.55 6.7 50.32
84.68 8.29 48.36
75.32 18.16 46.42
76.35 20.44 46.65
78.03 21.26 48.3
78.35 20.68 50.91
32.24 82.71 62.59
30.03 82.98 64.09
29.75 84.55 66.34
31.33 86.08 67.31
23.65 1.19 18.28
24.11 1.51 20.59
23.31 89.18 22.9
20.99 88.35 23.32
66.12 68.38 20.5
67.7 69.31 22.19
68.29 71.81 22.95
66.9 73.94 22.72
68.62 10.87 74.84
68.37 10.69 72.28
69.98 11.12 70.55
72.81 10.31 70.79
73.76 52.2 88.85
73.29 49.88 0.58
75.13 47.96 1.44
76.87 48.64 0.46
67.01 71.95 64.78
67.2 74.07 65.28
68.97 75.88 64.72
71.03 75.62 62.49
5.34 52.13 52.55
2.61 52.37 53.47
0.85 50.49 53.75
0.66 48.24 52.86
35.35 29.48 22.86
35.15 27.15 21.58
36.72 25.23 21.12
38.85 25.09 21.4
28.28 83.9 8.3
26.51 82.5 8.48
27.15 80.32 9.33
28.46 79.35 11.07
78.44 57.91 25.09
78.5 57.02 23.03
79.94 57.49 21.23
81.4 59.56 20.57
85.43 1.92 43.79
85.38 4.29 45.02
87.12 6.02 45.48
88.96 6.73 44.27
65.59 78.79 46.36
65.09 80.62 47.88
62.86 81.59 48.88
60.72 81.22 48.14
38.87 82.79 84.04
37.94 80.36 84.39
35.6 80.13 85.68
34.21 81.15 86.35
71.87 53.98 65.21
70.89 53.68 63.02
71.59 52.0 61.06
72.86 49.98 61.61
59.75 81.7 39.59
62.4 82.5 39.98
63.17 82.33 42.25
62.31 80.77 44.38
59.42 87.06 62.72
57.46 85.64 62.09
54.76 86.56 61.75
54.02 88.43 60.51
20.27 22.44 31.34
19.95 23.38 29.3
18.25 25.46 28.36
16.04 26.43 29.27
85.42 23.22 83.16
87.36 22.08 84.34
86.73 21.38 86.93
84.91 20.39 87.82
50.32 88.8 23.95
51.68 0.72 21.61
53.14 2.67 21.54
53.6 4.37 22.92
3.02 1.31 4.66
0.79 1.77 3.46
87.93 88.46 2.76
86.29 88.32 4.24
56.08 10.76 4.55
57.19 8.77 3.27
57.89 6.59 4.15
57.3 5.25 6.55
48.93 28.44 53.73
50.73 26.52 53.26
51.37 25.5 50.84
50.04 25.07 49.31
4.78 74.67 27.03
3.27 73.21 27.72
3.36 70.46 27.76
4.65 69.32 26.55
41.79 39.59 40.73
42.02 41.9 40.34
43.25 43.95 41.65
43.12 44.16 44.05
28.42 88.92 23.63
28.82 2.09 22.28
27.21 3.94 21.47
24.57 4.48 22.14
38.68 16.58 37.88
36.93 17.91 38.86
36.96 19.54 41.33
38.78 20.95 41.91
37.91 49.83 72.66
37.48 49.98 70.16
38.67 49.98 68.48
41.46 50.19 67.85
23.49 43.04 26.37
26.29 43.15 26.5
27.87 42.4 28.44
27.29 40.8 30.3
20.37 56.95 60.85
21.39 56.05 62.19
21.96 53.75 62.99
20.82 51.3 62.12
20.31 10.42 44.03
18.62 11.02 45.39
18.1 11.73 48.03
19.69 12.39 49.93
18.29 35.01 65.46
19.73 37.02 63.92
21.7 36.43 62.3
22.64 33.85 62.06
59.56 74.54 2.2
60.75 76.29 2.36
62.52 77.66 0.91
63.47 77.37 87.78
16.49 22.69 57.24
17.3 22.49 59.34
15.85 22.01 61.78
13.39 22.45 62.35
79.49 36.57 9.4
77.21 36.72 8.93
75.7 36.22 6.84
75.67 35.07 5.11
0.43 29.84 19.79
88.51 32.0 19.07
86.36 33.27 18.81
84.1 32.61 19.48
17.37 70.1 30.08
18.18 69.06 27.89
18.68 70.27 25.75
19.69 72.9 25.42
8.5 42.2 2.14
8.88 44.48 3.39
7.65 45.31 5.62
5.91 43.65 7.06
22.51 9.51 35.17
23.56 10.84 36.93
22.73 12.65 38.68
20.53 12.7 39.77
74.97 53.85 82.36
74.77 54.32 84.64
75.63 52.69 86.85
76.08 50.19 86.72
84.54 7.35 76.95
85.28 7.64 74.3
87.1 6.17 73.0
87.74 4.2 73.77
56.23 16.72 74.49
53.48 16.97 75.07
52.24 18.51 76.29
52.5 21.12 76.15
61.87 41.7 48.54
61.73 41.44 50.71
63.3 42.4 52.59
65.05 44.14 52.72
49.65 76.68 12.83
49.29 76.69 14.98
47.54 77.84 16.42
46.2 80.09 15.82
69.61 18.47 26.75
69.98 17.4 28.59
71.98 15.98 28.47
72.74 14.33 26.96
7.98 86.03 5.47
9.0 84.21 3.67
8.82 81.91 3.44
7.51 79.99 4.58
59.58 59.08 66.11
57.53 59.55 67.55
57.27 60.65 69.96
59.25 62.42 71.09
83.49 56.1 18.15
81.29 56.43 18.87
79.6 54.65 19.82
80.06 51.95 20.35
12.91 9.21 81.02
14.3 7.6 83.11
15.93 6.25 82.93
17.08 4.92 81.07
39.46 50.88 80.57
37.68 52.57 80.41
36.76 53.93 78.23
37.69 54.46 76.0
16.38 7.86 44.71
15.08 9.48 46.82
15.91 9.86 49.22
17.7 8.85 50.42
44.9 62.61 72.09
43.5 64.87 71.23
43.23 66.75 71.91
43.86 68.3 74.09
82.73 38.82 55.97
80.24 38.52 55.62
79.12 36.08 54.93
80.08 33.87 55.01
4.06 62.86 76.4
3.72 60.99 74.73
1.49 59.7 74.33
88.15 60.15 74.97
64.85 87.48 47.67
64.34 85.4 46.39
66.56 83.65 45.74
68.75 84.02 45.21
75.89 73.33 49.17
78.26 73.62 47.92
79.85 75.69 48.12
79.93 77.45 49.44
78.18 24.04 8.78
79.44 22.44 7.57
81.47 22.47 5.8
83.04 24.14 5.57
32.87 25.88 70.99
33.77 26.03 73.31
34.57 24.19 74.21
37.47 24.47 74.52
1.6 1.92 0.79
87.97 1.84 0.5
86.39 3.44 88.86
86.83 5.7 88.95
65.39 15.54 85.24
65.3 15.16 88.05
66.59 16.62 0.55
66.88 19.33 0.69
27.5 30.19 59.54
28.69 28.58 57.87
29.97 28.9 56.15
31.31 30.83 55.04
67.81 76.29 3.37
66.81 77.95 2.64
66.28 80.6 3.22
66.82 81.6 5.28
74.41 5.2 0.54
76.48 4.14 1.08
77.01 1.6 1.81
75.12 88.63 2.49
45.6 0.79 76.81
43.84 -0.3 78.57
41.26 87.61 77.44
41.15 86.19 75.25
70.66 22.56 79.1
71.71 23.8 77.53
73.9 25.55 77.6
75.65 25.74 78.75
85.29 80.94 49.86
85.91 78.47 49.24
84.88 76.33 50.05
82.11 76.08 50.65
3.15 65.26 25.99
2.49 67.37 26.38
2.1 68.6 29.16
1.19 67.42 31.06
5.99 31.91 45.29
6.32 29.31 44.77
8.43 27.79 46.12
10.13 28.77 47.17
74.44 45.83 40.61
75.72 47.94 41.15
77.26 49.35 39.78
77.76 49.4 37.35
44.76 72.56 27.2
44.14 70.34 28.3
43.9 68.08 27.0
42.92 67.35 25.31
57.58 14.2 49.72
56.75 13.88 47.52
55.5 11.76 46.39
54.8 9.57 47.17
41.57 82.15 33.14
41.43 79.81 34.17
40.55 77.79 33.03
38.83 77.22 31.26
16.18 43.47 75.22
18.06 42.31 74.11
18.07 40.2 72.53
16.11 38.6 72.2
9.71 76.88 14.28
10.63 75.4 16.21
12.6 75.54 17.89
13.29 77.32 19.06
14.91 45.38 37.78
12.64 44.16 38.74
10.58 44.17 37.47
9.46 46.15 35.9
36.25 28.96 19.23
38.66 27.32 18.52
38.92 26.79 16.15
38.1 28.33 13.84
19.92 60.0 47.33
18.68 60.49 45.13
17.1 62.59 44.57
17.06 64.84 45.87
71.21 86.04 18.65
73.59 85.02 19.21
75.68 84.79 17.57
75.39 84.85 14.87
88.85 7.98 52.2
88.16 6.55 53.41
87.09 4.52 52.37
87.17 4.14 49.78
47.69 2.9 85.75
47.25 0.56 85.38
45.27 87.75 86.16
42.81 88.44 86.69
43.94 72.49 80.73
41.45 72.11 80.2
39.73 73.53 79.56
40.18 74.24 77.65
63.35 8.81 68.45
65.28 8.77 69.86
66.71 10.67 70.04
67.91 12.07 68.08
83.83 45.36 52.8
81.69 45.28 52.39
80.55 44.39 50.23
81.38 45.29 47.5
50.4 51.78 86.41
52.24 52.67 87.24
52.87 53.95 0.59
51.43 54.89 2.43
18.71 8.39 19.28
16.43 9.44 18.61
14.95 8.87 17.12
14.94 6.49 15.37
65.86 40.34 58.29
63.24 40.52 58.53
61.41 41.08 56.68
61.36 42.82 54.81
58.42 42.82 16.48
59.8 44.0 14.82
60.01 46.37 14.02
58.26 48.33 14.57
33.93 47.21 83.97
33.68 49.29 82.52
31.97 51.21 82.69
29.79 51.31 83.79
75.51 13.9 31.73
75.25 16.29 30.71
75.87 17.09 28.33
76.11 15.66 26.41
72.81 28.97 70.6
73.52 27.84 72.77
71.06 28.42 74.65
69.58 30.28 74.32
80.79 67.85 61.46
78.7 68.77 60.31
76.47 66.84 59.87
76.55 64.74 59.3
58.84 6.32 1.66
57.99 4.47 0.54
58.27 2.12 0.61
60.09 0.68 1.48
77.18 70.33 42.19
78.99 70.07 41.18
79.83 69.59 38.71
79.02 70.33 36.73
76.06 12.89 85.58
75.55 11.0 87.31
75.1 8.6 86.0
76.88 8.07 84.93
54.88 42.77 44.18
56.51 43.86 46.08
55.93 44.06 48.43
54.26 45.41 49.62
2.35 14.07 32.81
4.06 12.88 31.22
4.49 10.68 30.31
3.09 8.63 30.11
1.42 15.23 62.58
0.72 15.47 60.21
88.22 14.4 58.76
87.41 12.16 58.71
5.64 20.84 86.75
5.64 18.09 87.11
7.88 16.9 87.74
9.97 17.51 88.61
6.02 34.2 67.15
4.42 32.32 67.15
5.21 29.52 66.49
7.66 29.32 65.92
17.29 39.17 81.31
18.08 41.63 81.43
20.88 42.36 82.1
21.98 41.54 83.64
59.22 51.75 27.08
60.06 49.72 26.76
60.63 49.26 24.72
59.29 48.75 22.31
59.7 22.94 88.39
57.79 22.96 1.26
58.42 24.14 3.81
60.92 24.95 3.98
76.01 51.13 48.5
77.21 52.14 46.6
77.41 50.91 44.1
76.01 49.9 43.0
84.83 62.98 8.11
84.68 60.86 9.34
83.97 60.53 12.0
82.6 62.41 12.73
84.74 33.28 67.56
86.64 33.81 67.43
88.08 36.16 67.46
87.48 37.39 69.2
61.79 43.9 32.69
62.16 42.58 34.65
61.24 40.33 35.56
59.84 38.59 34.39
31.84 22.67 57.69
34.54 22.36 58.74
36.26 20.99 57.54
35.68 18.7 55.87
41.66 84.99 59.46
42.82 87.01 60.16
45.05 87.11 61.43
46.37 85.42 62.63
10.87 72.64 50.99
11.25 75.04 50.48
9.91 77.15 50.6
7.79 77.3 52.54
47.72 12.89 77.4
48.59 13.04 75.31
49.2 15.4 73.7
50.17 17.29 74.65
50.79 26.35 13.22
53.32 25.88 11.84
53.74 23.6 10.3
52.67 21.23 11.33
22.99 43.66 60.87
20.9 42.95 62.53
20.77 40.78 63.77
22.04 38.65 63.73
51.46 63.1 60.73
50.62 64.9 62.35
48.98 64.06 64.72
47.4 62.05 64.96
19.03 37.94 69.54
17.98 36.21 67.91
17.75 34.0 67.87
16.33 32.7 69.41
82.12 63.16 7.54
81.38 64.2 5.57
81.87 63.77 3.06
83.07 61.73 2.05
43.29 42.28 6.11
41.92 41.82 8.02
42.37 43.17 10.29
44.13 44.97 10.73
21.6 3.49 25.1
22.57 3.08 22.96
21.83 3.61 20.69
19.69 5.53 20.03
15.51 20.86 29.65
15.43 23.01 29.03
13.58 24.94 28.18
11.36 24.63 27.25
17.19 4.18 55.72
17.12 5.89 56.57
18.31 5.08 58.36
17.69 3.97 60.4
31.94 77.78 69.23
33.44 77.4 71.23
33.6 75.01 72.88
34.22 72.84 71.85
42.56 86.55 35.38
42.64 84.19 34.27
43.38 81.76 35.78
45.18 82.16 37.14
70.92 66.4 50.51
73.35 66.82 51.41
74.55 68.78 52.19
74.14 71.08 51.93
87.76 11.55 81.13
87.42 13.52 79.98
-0.08 14.86 78.38
2.67 15.11 78.52
9.23 60.66 42.23
9.7 58.46 41.35
9.54 57.51 38.66
8.01 58.92 36.94
19.3 43.55 45.83
17.69 41.32 46.24
15.42 41.03 46.18
13.34 42.99 46.6
6.68 5.45 17.92
5.99 5.58 15.87
7.18 6.44 13.66
9.36 7.9 13.95
1.77 40.86 80.82
2.54 42.73 82.24
2.92 43.08 84.76
3.42 41.54 86.39
30.72 83.8 40.74
28.55 82.23 40.67
26.84 82.03 38.96
25.42 83.64 37.79
35.99 10.9 15.92
33.79 9.66 14.36
32.83 7.42 15.03
32.99 6.14 16.91
30.81 58.92 57.46
30.47 59.35 59.67
29.89 57.93 61.91
29.1 55.6 61.91
30.5 51.57 45.95
28.98 51.48 44.31
26.75 50.2 44.03
25.71 48.42 45.73
84.99 49.86 80.37
87.43 48.99 80.48
0.37 49.01 78.54
0.33 50.24 76.31
63.62 70.0 35.4
64.66 71.2 33.14
63.04 72.58 31.33
60.79 72.15 31.31
15.86 43.6 62.57
17.32 43.69 60.85
19.27 45.81 60.61
19.13 48.17 61.19
30.9 43.32 33.21
30.35 44.32 31.07
31.76 44.47 28.84
33.64 44.75 29.08
56.64 61.12 46.46
55.66 63.53 46.17
53.66 64.36 47.41
52.09 63.19 49.19
21.85 69.48 54.15
19.7 69.86 53.11
17.79 70.88 53.49
16.88 72.65 55.14
0.95 61.68 21.08
0.38 59.75 20.53
1.31 57.74 18.96
3.02 57.78 17.17
40.64 63.73 51.38
43.26 64.33 51.38
