64.59 24.47 55.16
66.83 24.42 56.81
68.6 25.55 57.02
20.88 0.36 32.89
20.4 1.71 30.91
18.55 3.61 30.97
17.27 4.31 32.52
57.21 9.35 66.27
58.77 11.15 66.86
58.23 11.58 69.78
56.21 11.27 70.74
88.1 87.33 37.15
85.21 87.74 36.92
83.43 86.31 37.76
83.15 83.77 38.18
72.33 75.72 85.41
73.72 76.12 86.92
76.11 77.41 86.72
76.91 78.93 84.93
52.3 54.71 27.7
54.17 54.85 27.96
56.17 53.16 26.31
55.74 51.49 25.09
52.27 30.58 8.1
51.77 27.66 7.4
51.77 27.22 4.58
50.82 28.56 2.9
49.37 76.88 7.83
47.34 75.99 7.69
46.04 75.04 5.43
46.25 76.0 2.97
39.76 79.61 64.07
41.32 81.76 62.99
41.11 82.54 60.67
38.93 82.68 59.32
6.68 63.54 23.07
6.41 61.31 22.81
8.01 59.37 22.15
11.01 59.57 22.09
82.74 82.01 17.07
81.52 81.88 19.76
81.81 80.82 21.54
82.97 78.65 22.37
25.6 1.58 19.37
27.74 89.06 19.11
29.24 88.8 17.03
28.81 0.68 14.6
10.43 11.19 75.01
10.7 10.69 77.1
12.59 10.83 78.8
14.38 12.74 79.17
49.57 84.7 71.49
51.51 84.45 72.55
54.13 85.34 71.88
54.34 85.95 69.89
51.19 23.02 69.83
49.53 23.28 70.96
47.26 24.64 70.85
46.08 25.45 68.98
51.31 42.3 43.17
53.59 41.24 43.22
54.43 38.94 43.4
53.18 36.6 44.2
56.52 22.83 34.48
55.78 25.02 33.99
56.45 27.46 34.7
58.77 28.31 35.41
45.13 82.63 40.19
46.83 82.39 41.94
46.83 81.08 44.2
45.82 79.45 45.04
59.88 77.66 28.37
62.04 77.16 27.41
62.66 75.38 25.76
61.14 74.28 24.01
6.36 74.57 27.17
8.34 74.43 28.4
9.19 73.18 30.66
7.88 71.51 32.15
51.95 2.02 22.63
50.45 0.14 22.44
50.54 87.04 21.35
51.19 86.13 19.22
18.93 43.62 20.46
20.48 44.39 21.95
20.41 45.92 23.87
18.76 47.4 24.81
10.0 85.21 72.83
10.86 83.16 74.03
12.16 82.54 75.58
14.22 83.58 77.14
30.42 48.14 52.12
30.09 48.85 50.34
31.35 51.05 49.53
33.62 51.63 50.41
86.71 64.28 38.91
85.1 65.76 39.66
82.98 66.86 37.84
81.71 65.13 36.11
61.14 54.69 4.8
59.84 56.05 6.38
59.9 58.3 5.33
62.03 59.78 4.55
28.36 74.6 30.71
29.08 74.44 28.56
31.95 74.18 28.08
33.55 74.0 30.2
7.94 65.24 3.78
5.6 64.81 2.61
3.99 66.35 1.46
4.13 68.65 1.03
81.2 24.21 7.69
79.88 24.66 5.56
78.11 26.15 4.85
76.87 28.11 5.85
40.9 41.5 15.68
43.0 42.36 14.5
45.2 42.44 15.52
45.54 41.6 17.02
10.26 18.05 71.23
8.94 16.42 70.4
7.59 16.47 68.16
7.72 17.38 66.18
48.28 83.57 0.9
47.17 85.46 88.99
47.17 88.07 0.87
48.49 88.79 3.04
40.43 61.87 25.16
42.26 60.76 24.33
42.83 59.66 22.24
41.5 60.28 19.67
0.41 9.08 53.99
1.56 6.78 54.87
3.24 5.29 53.68
4.29 5.43 51.27
38.48 40.69 14.63
40.03 39.52 12.62
39.51 39.09 10.35
37.31 39.37 9.12
76.21 84.94 40.81
78.25 85.17 41.08
79.61 83.85 42.82
79.48 81.81 43.93
53.66 22.65 8.5
51.44 21.77 7.74
49.97 20.08 8.61
50.24 17.48 8.56
79.55 73.49 43.61
80.28 72.63 41.46
81.78 73.76 39.32
83.34 75.84 39.92
29.44 29.92 55.95
30.28 30.45 53.97
29.22 29.34 51.72
27.02 28.32 51.51
52.92 31.8 13.26
53.0 29.41 13.68
50.94 27.79 13.02
49.79 27.88 10.34
10.13 80.36 77.24
8.8 82.1 75.77
6.62 82.12 74.81
4.77 80.86 75.92
43.79 85.56 59.0
42.57 85.77 60.75
40.15 86.88 61.4
38.82 88.5 59.93
21.45 45.65 41.59
22.27 47.06 43.38
24.31 47.35 44.57
25.96 45.21 44.21
76.51 40.26 25.78
78.54 38.65 25.18
80.25 38.73 23.99
82.34 40.0 24.33
13.45 67.81 40.67
13.56 67.94 38.48
15.75 68.69 36.71
18.15 68.31 37.29
45.54 72.1 39.89
43.46 73.25 38.72
41.1 73.15 38.96
39.46 72.1 40.12
29.81 59.63 25.09
27.76 59.1 25.66
25.99 60.17 27.87
26.47 61.91 29.44
17.88 64.65 11.01
18.61 63.11 8.9
19.02 60.71 8.61
19.48 58.89 10.26
55.04 26.85 8.61
55.21 24.67 7.28
56.87 23.43 6.24
58.89 24.37 4.75
45.72 19.74 76.35
47.2 21.65 75.49
46.63 24.19 74.88
44.53 24.87 73.58
2.65 47.69 86.03
1.94 45.37 86.91
88.84 44.37 87.22
86.39 45.59 88.03
50.61 64.19 52.15
52.1 66.05 52.22
53.32 67.71 50.28
52.44 68.63 48.36
74.04 51.03 33.57
74.55 52.39 31.67
75.87 52.34 29.64
77.22 50.83 28.46
25.89 75.02 4.15
25.13 76.78 6.15
25.35 79.27 6.05
25.32 80.01 3.51
26.85 72.07 80.99
28.63 71.21 80.49
30.86 71.33 81.88
32.19 72.99 82.86
38.84 46.72 75.91
39.42 49.24 75.61
41.4 50.81 76.38
43.63 50.36 77.36
15.77 41.1 76.72
15.33 43.05 78.03
14.93 42.97 81.06
15.2 40.5 81.53
56.89 1.67 9.22
58.23 88.84 8.67
57.98 87.26 6.43
56.51 87.18 4.7
82.59 6.14 0.42
81.38 8.17 88.46
80.94 10.53 0.62
82.5 12.03 2.04
35.4 34.66 45.81
36.0 33.35 43.36
37.68 32.58 42.22
40.14 32.29 42.55
58.44 58.81 70.26
61.13 60.01 71.04
61.73 62.12 70.27
61.0 63.85 68.74
49.91 32.28 29.57
51.45 30.64 28.69
52.39 28.59 30.08
50.98 26.61 31.23
49.46 26.61 8.03
50.32 25.26 6.15
49.86 22.76 5.53
48.33 21.11 6.19
57.22 60.49 54.8
55.17 59.12 55.67
53.71 59.31 57.1
52.75 61.12 58.36
4.48 25.2 88.42
2.06 25.0 87.67
2.3 22.27 87.51
2.3 21.21 0.36
36.65 61.61 43.26
36.78 61.28 45.48
35.63 59.12 46.81
33.79 57.45 45.25
20.37 46.91 63.44
17.88 45.82 63.47
15.88 46.04 62.15
15.15 47.98 60.48
31.08 35.91 85.16
29.96 35.29 87.27
31.38 35.14 0.76
33.84 35.18 0.63
63.16 14.97 68.29
61.33 15.1 69.5
61.06 15.0 72.09
62.59 14.62 73.84
7.52 65.77 71.16
6.86 63.87 69.48
8.61 61.75 68.81
11.01 61.29 69.37
14.73 8.94 82.09
12.63 9.95 81.6
10.22 9.01 80.79
9.76 7.39 79.37
3.34 40.63 32.18
5.02 39.52 30.91
6.64 37.68 31.23
7.3 36.26 33.54
73.85 84.98 45.26
75.07 86.56 44.03
77.66 87.36 44.03
79.42 85.98 44.46
48.95 64.12 80.17
47.29 64.83 81.83
47.61 66.89 83.65
49.58 67.72 84.14
39.01 71.58 67.83
39.61 69.21 66.84
42.0 67.88 66.57
44.19 68.81 67.93
72.29 71.94 66.65
73.24 72.97 68.77
72.26 74.74 70.32
70.16 76.31 70.26
78.58 9.86 60.59
78.41 11.84 62.11
79.9 13.69 62.63
82.5 14.31 62.31
62.63 8.5 16.75
60.38 8.22 15.75
59.14 5.84 14.76
59.52 3.52 15.77
10.79 53.45 22.8
8.24 53.59 22.81
6.71 54.59 20.71
7.34 57.31 20.07
72.33 27.25 58.97
74.06 26.48 60.28
76.88 26.58 59.78
78.07 28.1 58.08
25.46 12.0 51.28
27.13 10.67 51.27
29.71 11.45 51.96
30.55 13.33 51.14
49.81 84.41 87.3
49.5 86.04 86.39
47.23 86.89 84.84
45.17 85.52 84.64
18.75 12.36 1.4
19.36 11.35 87.98
21.1 9.5 87.55
22.3 8.01 0.45
74.57 50.73 41.87
74.98 52.94 42.08
75.97 54.94 40.12
76.4 54.67 37.49
57.63 41.61 83.5
58.35 39.94 81.72
60.82 38.97 81.24
62.8 39.9 81.96
4.85 2.91 40.0
6.75 3.19 39.49
8.59 2.73 40.97
8.87 3.72 43.49
72.37 14.6 71.33
73.56 13.16 69.56
74.83 14.07 67.56
76.59 15.52 67.42
10.08 5.78 55.84
8.77 4.5 54.33
9.32 2.97 52.22
11.3 2.61 51.25
24.09 50.17 4.61
25.53 51.41 2.94
26.41 53.82 3.07
25.5 55.81 3.55
4.38 62.99 66.61
3.67 60.72 65.97
5.11 58.81 65.73
7.09 58.33 64.72
43.05 50.86 80.04
43.65 53.18 81.25
45.08 53.5 83.54
46.14 52.28 85.01
59.76 55.29 72.65
59.5 56.05 70.75
58.9 54.32 68.12
58.8 51.67 68.33
67.83 3.34 52.64
69.4 1.84 52.58
70.68 0.47 50.75
71.01 0.82 48.23
7.81 28.76 71.63
8.94 29.52 69.76
10.72 31.07 69.35
12.3 32.35 71.24
2.26 33.33 18.49
1.38 30.97 18.82
88.19 31.0 19.89
86.71 32.82 20.58
44.62 12.2 65.34
43.75 13.58 67.21
42.61 16.1 66.95
43.56 17.85 65.25
86.34 45.39 10.81
86.92 44.73 8.48
0.55 45.36 7.26
2.02 46.34 8.64
0.82 21.68 46.89
88.04 21.1 46.04
85.27 20.76 47.01
84.44 21.57 48.82
57.35 62.61 9.72
59.74 63.5 9.19
60.18 65.4 7.55
58.71 67.19 6.59
32.83 40.69 62.22
35.36 41.34 61.15
37.42 41.45 62.17
38.49 40.31 64.11
45.12 82.27 67.91
46.59 84.58 67.94
49.02 83.71 69.03
49.71 81.59 70.34
22.63 58.28 88.61
23.87 57.21 1.66
24.75 58.88 3.84
24.2 61.16 3.53
5.77 60.86 87.24
6.19 62.59 88.55
7.74 63.18 1.25
9.29 61.57 2.51
43.29 58.17 30.05
43.71 58.4 28.25
45.45 60.58 27.85
45.07 63.05 29.15
88.37 42.3 67.84
86.37 43.65 68.35
85.52 44.94 70.07
86.26 45.93 72.3
35.9 14.55 29.93
37.43 12.77 31.42
37.39 10.31 31.2
35.76 8.64 29.51
24.85 22.93 69.03
23.89 25.19 70.0
25.23 27.35 68.52
27.09 26.71 66.79
59.1 76.68 20.05
60.0 77.49 22.35
60.86 79.47 22.99
61.89 80.81 21.67
28.76 28.16 58.17
29.28 30.11 60.54
28.7 29.74 62.83
28.87 27.44 64.18
41.46 29.83 44.47
39.53 29.2 43.89
38.84 26.7 44.81
40.3 24.76 44.81
19.54 62.26 61.56
21.01 60.58 60.17
20.86 60.24 57.76
18.99 59.97 56.11
79.72 44.29 66.22
78.63 46.22 65.52
76.29 46.6 64.36
74.83 45.16 62.94
63.64 67.09 5.58
63.34 68.51 4.1
64.04 71.38 4.45
65.52 72.28 5.48
82.12 80.45 27.34
82.66 80.34 25.21
85.07 79.71 23.92
87.02 78.49 24.88
10.71 29.39 83.87
12.26 30.01 84.86
12.87 28.66 86.78
12.77 26.04 87.27
10.79 18.83 9.65
11.01 16.55 11.2
9.19 17.03 13.33
7.27 18.16 13.63
7.71 42.96 27.74
6.29 44.91 27.9
7.37 46.88 29.0
9.93 47.21 29.59
23.36 9.63 51.64
25.13 10.27 53.83
26.02 9.1 55.62
26.27 6.88 56.29
74.41 7.89 80.6
76.29 6.63 80.45
77.81 5.6 82.75
78.96 6.66 84.35
26.61 42.26 46.65
25.04 42.62 44.34
22.88 42.43 44.12
21.01 41.04 45.42
71.66 24.66 71.22
72.87 25.75 69.72
75.6 26.81 70.0
76.8 27.27 71.8
46.14 41.0 8.8
44.03 40.18 10.47
43.99 40.1 13.18
46.02 40.04 14.67
55.7 48.97 23.69
56.4 50.19 21.68
55.84 49.79 19.31
53.95 48.11 18.09
39.95 74.28 2.52
41.38 74.49 0.53
43.81 75.76 0.74
44.57 77.68 1.8
63.45 3.36 3.29
63.02 5.36 2.9
62.75 7.6 4.74
63.3 7.87 6.87
34.64 54.91 24.22
32.56 56.45 23.5
30.39 56.74 24.18
29.85 54.23 25.01
10.9 77.3 26.92
9.34 76.92 28.52
9.4 76.2 30.9
11.44 75.29 32.24
23.25 65.31 32.77
21.33 65.58 34.04
20.57 67.31 35.34
21.99 69.86 35.91
10.35 59.73 86.9
11.29 60.01 0.49
13.58 59.43 1.52
15.66 58.39 0.31
10.25 78.15 59.29
9.77 75.75 58.41
7.93 74.23 59.26
6.06 75.25 60.69
9.48 0.71 9.37
11.56 88.21 10.03
13.27 87.21 8.11
14.6 88.35 6.26
66.19 49.67 59.74
68.51 50.59 60.82
70.57 51.17 59.47
70.71 52.41 57.18
16.62 6.57 23.19
18.56 7.26 23.88
21.15 7.04 22.7
21.84 6.6 20.37
21.69 17.08 13.04
21.66 18.57 10.99
22.82 18.29 8.82
25.0 17.17 8.15
3.37 85.75 76.06
5.63 84.08 76.56
7.94 84.71 75.2
7.95 86.39 73.87
20.17 35.34 0.27
18.1 35.07 87.89
16.86 36.59 86.38
17.73 38.5 85.18
4.31 33.16 86.74
5.06 31.06 88.07
4.52 28.58 87.99
3.56 27.3 86.44
40.53 11.83 26.59
40.27 13.7 28.18
40.49 16.36 28.15
40.03 17.67 25.61
8.38 22.9 25.88
10.86 22.97 24.75
12.78 21.57 25.33
13.43 20.17 27.42
76.03 41.58 21.35
75.92 40.14 19.3
77.12 39.4 17.65
79.91 39.13 17.35
22.06 27.64 71.39
22.26 29.29 69.65
23.54 31.71 69.91
25.79 32.02 71.35
11.82 27.39 36.18
13.72 26.95 37.95
13.32 26.23 40.51
11.39 26.51 41.9
83.64 64.53 46.76
83.51 65.64 45.21
84.43 65.93 42.81
86.68 64.55 41.8
26.23 86.45 39.57
26.97 86.59 42.05
25.99 87.06 44.04
23.02 87.62 44.2
86.62 3.74 62.14
88.56 2.67 60.99
1.27 3.17 59.4
2.06 5.63 58.59
82.07 82.73 0.57
81.65 80.24 0.96
79.79 78.9 -0.29
77.4 80.12 87.97
15.19 24.58 30.12
16.74 25.81 30.75
17.11 27.35 32.38
15.63 29.06 33.58
10.88 53.79 59.24
9.65 54.92 57.4
8.81 53.52 54.85
8.27 51.29 54.5
27.95 56.8 2.53
27.73 58.38 4.45
29.46 58.34 6.62
30.87 56.54 6.86
49.0 75.85 10.3
47.67 75.65 11.74
46.45 77.49 13.03
47.3 79.48 13.63
64.29 40.02 18.63
65.69 40.64 19.95
68.27 39.93 19.68
69.49 39.33 17.51
41.79 1.14 81.91
43.45 1.95 83.44
46.19 1.52 83.44
47.34 88.74 82.85
82.05 88.81 19.72
82.22 86.28 20.48
80.57 84.92 22.0
78.91 85.36 23.58
34.48 86.04 75.76
32.34 86.72 74.75
31.1 85.75 72.36
31.62 84.56 71.09
66.97 0.97 53.82
68.02 0.91 55.69
67.3 3.58 56.72
65.48 3.93 58.06
72.5 78.73 17.72
72.99 80.93 16.27
70.35 82.35 15.83
68.59 80.84 16.13
5.32 36.94 51.9
2.86 37.53 52.16
1.24 38.7 51.2
0.59 39.07 48.62
84.3 18.06 8.2
82.67 19.24 9.12
80.24 19.72 8.72
78.54 19.16 6.69
33.91 26.62 46.35
35.04 29.07 46.0
33.69 31.43 46.4
31.94 31.88 45.3
54.1 8.8 53.11
51.85 8.5 51.85
49.97 6.81 52.22
49.83 5.01 53.45
23.01 34.73 80.69
20.69 34.03 81.93
20.13 33.62 84.29
21.1 34.5 86.31
29.29 74.52 47.42
31.88 75.22 46.97
34.05 74.31 47.9
34.27 72.68 49.64
79.78 31.51 38.12
77.79 32.04 37.01
75.21 31.3 38.13
75.49 30.36 40.21
61.42 8.56 69.42
60.73 9.92 67.94
62.44 10.02 65.83
63.48 8.06 64.42
60.53 77.27 4.96
60.27 74.82 3.92
61.83 73.82 2.39
64.21 73.55 2.75
2.24 41.69 28.16
2.92 39.37 29.45
1.37 38.0 31.32
87.79 38.5 31.65
28.39 44.96 45.7
26.98 46.43 46.91
26.53 46.89 49.57
27.77 46.33 51.44
23.07 9.67 61.47
22.64 7.19 62.06
21.94 6.08 64.26
20.48 6.78 66.13
58.08 66.31 44.66
58.42 64.64 46.5
57.41 64.43 48.67
54.66 64.86 49.25
10.66 13.54 69.91
8.39 13.8 69.07
7.03 13.16 67.47
7.01 10.91 65.75
73.74 61.39 77.19
74.35 62.59 75.81
75.31 62.29 73.08
77.11 60.32 72.64
9.55 25.82 45.95
12.1 24.94 46.95
14.32 25.42 45.35
13.77 26.01 43.56
17.41 8.28 60.46
19.46 10.1 60.57
21.49 10.04 59.11
22.68 8.64 57.53
68.24 16.75 21.49
70.77 17.55 21.07
71.87 18.92 19.42
71.42 19.73 17.24
14.44 2.04 31.22
13.48 2.4 33.37
11.16 4.17 33.78
8.93 4.33 32.36
18.5 80.28 88.39
17.28 81.68 87.08
14.71 82.07 87.0
13.75 81.27 0.3
13.98 30.82 70.06
13.08 30.79 67.8
14.52 30.64 65.36
17.13 30.23 65.23
24.51 82.99 3.58
22.4 84.05 4.23
19.82 84.17 2.87
19.27 83.04 0.76
75.05 74.65 2.27
77.1 75.62 1.58
79.48 74.4 1.41
80.0 72.11 1.44
79.58 83.4 18.56
77.72 83.25 20.24
76.03 81.3 20.34
75.22 80.13 18.44
41.82 61.62 67.24
44.28 62.86 66.64
46.05 62.05 64.96
46.83 59.64 64.41
70.04 67.34 33.25
69.01 68.72 34.83
70.41 70.02 36.53
72.1 68.98 38.39
79.02 5.86 75.59
78.03 5.68 73.67
78.43 6.84 71.18
80.66 8.01 70.28
23.35 49.98 68.17
22.03 51.74 69.25
22.47 52.89 71.66
24.63 53.49 72.9
5.6 22.99 17.87
4.91 24.8 19.4
2.32 25.45 19.9
0.11 24.52 18.78
55.33 26.52 12.52
53.82 27.25 10.83
51.74 26.14 9.79
50.21 24.75 10.51
61.4 25.99 53.13
60.93 23.7 53.66
61.51 21.46 52.51
62.26 20.81 50.43
64.72 36.92 17.23
62.85 37.91 18.01
60.01 37.97 17.07
59.02 35.65 16.46
29.27 41.49 20.26
29.12 40.22 18.25
30.04 38.32 17.32
31.33 36.05 18.18
32.15 30.63 60.62
31.63 30.15 57.95
31.3 27.59 57.36
31.01 26.41 58.89
44.72 -0.02 40.0
46.38 88.76 41.6
47.21 86.7 43.11
46.75 84.62 43.31
70.53 35.63 76.86
69.89 37.04 78.92
70.45 35.98 81.68
70.74 33.84 81.7
40.12 0.72 75.37
39.51 1.48 77.73
41.05 2.29 79.62
43.59 2.02 79.86
45.04 82.03 14.2
46.24 81.58 16.23
48.68 82.42 17.0
50.22 83.98 15.97
72.13 82.25 49.94
71.14 83.14 52.21
68.65 83.03 52.93
67.1 81.23 52.33
74.0 73.38 89.22
72.11 74.0 1.25
69.76 74.06 0.34
68.72 72.8 87.12
8.71 59.81 70.97
6.69 60.13 69.61
5.21 58.77 68.38
4.78 56.32 68.31
48.91 59.61 85.15
49.07 60.5 82.49
50.65 62.46 81.84
50.78 63.83 83.46
22.24 62.92 61.3
24.4 63.93 61.49
26.46 61.84 61.81
26.02 60.06 61.37
30.66 53.98 4.95
28.55 52.74 5.37
28.18 50.3 6.07
28.79 49.44 8.27
51.34 17.66 78.88
52.18 19.91 79.91
50.0 21.87 79.36
47.8 20.86 78.42
25.17 87.09 72.33
25.04 -0.28 70.97
22.73 1.64 70.57
21.37 2.38 72.17
21.92 49.52 42.7
19.98 47.95 41.0
17.84 47.71 41.42
16.3 48.82 43.35
33.1 88.89 10.43
32.9 2.18 10.3
33.87 4.37 8.62
34.36 3.86 6.63
55.48 54.14 7.77
57.09 54.74 7.24
58.72 56.13 8.72
58.18 57.3 10.85
32.76 60.38 23.3
34.4 58.43 24.04
36.35 57.72 22.92
37.48 58.64 20.27
73.56 25.08 6.97
74.23 27.44 5.96
73.7 28.4 3.48
72.12 27.72 1.83
63.96 81.99 19.89
65.32 80.05 20.29
67.35 79.48 21.08
69.33 81.33 21.9
76.2 88.78 38.24
75.22 0.28 40.49
74.25 2.65 41.62
73.24 4.47 40.41
29.51 53.48 1.77
28.26 51.67 3.07
28.27 48.93 2.49
28.95 47.81 0.34
7.2 85.09 54.72
6.74 85.85 52.13
5.85 87.55 53.73
3.27 87.38 54.85
79.7 67.75 6.17
79.08 66.6 8.0
80.52 65.69 10.12
82.59 66.9 10.09
83.73 74.0 43.81
83.11 71.77 44.99
84.38 69.44 44.97
86.35 68.89 44.15
9.78 26.75 88.14
9.02 27.29 85.71
7.4 26.53 84.4
5.23 25.36 84.5
19.64 20.98 55.37
19.43 18.29 55.82
20.53 16.57 54.53
22.25 16.46 52.2
12.26 79.82 58.62
13.43 77.75 58.28
15.34 76.99 56.6
16.62 77.86 54.93
60.66 3.19 28.93
62.08 3.17 30.91
64.71 2.88 30.92
65.57 3.72 29.21
38.29 53.39 26.14
40.74 53.72 25.69
42.08 55.75 25.74
41.85 58.19 25.98
31.48 30.79 4.03
30.7 31.71 1.71
29.1 33.42 1.06
27.4 34.79 2.48
40.9 73.26 66.11
41.94 75.69 65.44
41.08 77.25 63.57
39.1 77.15 61.94
75.8 27.34 63.2
74.47 27.47 65.01
74.2 26.01 67.45
76.04 24.85 68.06
69.02 71.98 26.6
69.64 72.62 29.05
67.36 73.56 29.87
65.75 74.34 28.76
48.16 61.1 62.34
47.89 59.89 60.87
49.62 58.32 59.09
52.31 58.68 59.21
41.45 50.53 73.21
40.57 52.05 74.09
38.14 50.57 73.44
37.15 50.56 71.33
33.24 13.77 77.53
32.35 14.24 79.91
30.13 15.73 80.23
28.11 16.45 78.89
55.03 36.15 78.84
55.62 38.1 80.19
56.08 38.52 82.49
56.63 37.18 84.64
58.13 12.76 87.5
60.2 13.64 86.88
60.92 15.11 84.82
59.24 15.35 82.87
58.83 14.4 48.26
60.88 14.07 48.07
61.55 16.84 48.14
61.81 18.24 49.66
19.5 51.82 24.95
20.36 49.72 23.93
22.03 48.36 24.55
23.38 47.95 27.38
84.04 52.82 52.02
81.92 51.67 51.42
80.77 51.26 49.33
81.13 52.08 46.86
54.04 72.03 72.89
52.48 73.9 72.03
53.42 75.56 70.18
54.75 75.05 67.9
33.22 68.8 79.58
35.31 69.67 78.1
36.61 68.51 76.23
35.72 65.94 75.14
6.18 47.69 31.54
4.48 45.92 30.84
4.82 43.16 30.9
6.57 41.86 31.69
57.53 59.88 17.55
55.97 60.88 18.54
56.06 62.84 20.55
58.01 64.68 20.56
86.24 0.4 39.12
83.77 0.67 39.3
82.41 2.35 40.62
82.67 4.59 41.5
5.77 5.88 17.3
4.42 7.33 17.17
1.97 6.55 16.19
0.61 4.44 16.79
21.08 30.07 -0.41
22.09 32.71 87.93
23.71 33.86 0.64
25.45 32.82 2.02
39.01 19.38 33.47
39.63 18.41 31.42
38.28 18.29 29.13
35.94 19.1 28.37
58.26 31.01 30.59
56.33 29.49 29.94
54.48 29.69 28.61
53.32 32.33 27.64
47.49 18.99 8.91
47.98 16.49 7.23
46.88 16.49 5.12
44.69 17.67 4.1
29.47 46.35 5.07
27.69 47.6 4.82
25.73 48.7 6.54
25.39 47.97 8.59
41.91 1.44 62.76
42.7 3.18 61.65
43.49 5.51 63.32
42.84 6.01 65.31
63.85 73.26 27.09
64.17 72.96 24.77
66.29 72.0 24.01
67.54 70.5 24.99
45.95 52.22 23.84
45.09 54.09 23.35
42.4 53.63 23.5
41.11 51.85 23.02
63.73 50.66 64.95
61.51 51.75 66.18
60.71 53.54 66.46
60.98 55.74 65.3
60.08 6.33 30.75
60.68 6.14 28.61
59.68 6.58 26.38
56.91 6.69 25.95
82.04 20.24 50.01
79.28 20.35 50.35
78.15 18.11 51.85
79.42 17.89 54.4
30.49 70.09 58.52
30.01 72.54 58.19
28.61 73.69 56.68
27.98 73.61 54.46
58.78 59.33 1.35
57.62 58.32 3.64
57.78 56.26 4.57
56.82 54.17 3.72
31.1 5.01 14.01
29.88 3.93 16.53
28.87 5.1 18.3
28.18 7.75 18.52
32.26 41.73 5.55
34.63 41.12 4.33
36.86 40.79 5.48
37.59 41.78 8.22
44.7 71.48 17.17
44.66 72.84 15.07
46.46 74.33 13.82
48.8 74.93 14.8
62.55 48.34 66.36
60.98 47.23 64.67
58.76 48.1 64.52
57.97 46.23 63.87
51.36 35.34 30.36
52.49 34.82 27.61
50.57 34.48 25.71
48.3 34.37 26.89
80.44 10.28 80.72
78.88 9.13 79.94
78.49 8.15 77.28
78.77 9.43 75.19
88.89 25.44 23.52
0.1 25.77 21.19
87.83 27.58 19.43
86.3 28.93 19.75
65.56 73.54 51.29
64.44 72.12 49.53
62.08 72.7 48.61
60.81 74.41 50.36
86.24 41.27 1.46
87.48 43.37 0.52
-0.24 45.14 2.07
-0.04 44.82 4.19
50.05 72.84 34.43
49.31 73.22 36.9
50.96 74.2 38.99
52.06 76.07 39.2
86.12 0.67 61.92
88.46 89.19 62.19
1.15 87.57 60.73
1.11 87.42 58.06
71.73 59.51 76.91
70.05 59.29 78.34
67.72 58.28 77.71
67.39 57.36 75.2
20.28 84.32 8.89
21.97 85.0 6.79
24.31 84.66 6.5
25.89 83.34 7.46
25.46 75.16 60.57
25.05 73.62 61.98
22.21 72.64 62.24
20.27 74.2 61.12
22.63 64.63 57.66
24.88 63.2 58.77
27.27 63.7 58.27
28.34 64.42 56.17
58.24 15.32 69.09
58.41 15.42 71.64
57.54 17.35 73.23
56.6 19.58 72.9
55.04 51.42 39.89
54.24 49.94 38.36
52.63 48.41 39.14
50.93 48.86 41.15
44.12 23.84 28.6
45.72 23.96 26.88
47.96 25.71 26.44
48.22 27.95 27.05
18.93 64.94 3.95
21.01 63.38 4.42
21.43 61.01 2.96
20.79 60.29 0.97
83.07 24.1 5.66
81.63 22.46 4.65
82.71 21.05 2.78
85.14 20.77 1.79
33.05 10.18 41.75
33.88 11.52 44.21
34.47 10.69 46.39
34.26 8.6 47.53
1.36 67.43 88.77
1.51 68.7 1.83
0.92 67.54 4.32
88.15 65.8 4.82
85.46 83.78 27.68
83.63 83.71 25.64
81.75 85.39 25.29
82.08 87.42 26.31
61.55 61.01 77.69
59.58 59.64 76.67
58.36 60.53 74.45
59.09 62.56 73.45
9.91 10.41 71.64
8.04 8.59 73.0
8.8 7.35 75.09
10.48 7.99 76.66
39.78 54.76 48.53
37.79 55.93 49.68
36.49 55.38 51.52
36.24 53.34 53.16
74.99 57.49 50.19
76.49 58.03 51.36
77.69 60.32 51.83
77.38 62.74 50.71
75.77 38.98 12.01
74.03 41.23 13.07
73.56 41.18 15.44
74.11 39.87 17.23
31.77 5.98 11.62
33.94 5.05 11.42
36.28 6.06 10.65
37.1 8.52 10.79
28.02 36.81 0.48
30.03 37.53 0.4
31.48 39.62 1.85
30.45 41.23 3.45
49.48 78.96 44.88
49.2 80.15 42.96
50.48 82.55 42.14
51.15 84.04 42.99
11.68 7.68 29.15
10.81 8.12 31.11
12.59 9.94 30.07
11.93 12.33 29.16
85.65 46.61 44.54
84.12 44.95 45.81
83.75 42.72 45.6
82.29 41.59 43.75
0.27 73.08 56.07
86.97 73.96 56.29
84.54 72.76 56.98
83.89 70.56 56.5
58.48 0.58 33.95
60.77 1.51 33.34
63.1 1.26 34.75
63.05 1.53 37.36
38.29 30.97 40.24
37.67 32.72 38.92
39.04 34.31 38.34
37.94 33.63 35.94
37.66 58.94 48.78
38.29 58.77 46.46
40.32 57.95 45.22
41.64 56.5 45.92
47.04 21.8 30.82
44.95 22.47 31.04
42.68 21.45 30.15
41.94 19.04 29.76
42.44 56.02 86.4
42.48 54.77 84.39
39.89 53.57 83.12
38.27 52.2 84.78
75.56 33.43 40.52
77.36 34.72 39.66
76.76 36.95 37.54
74.84 36.93 36.42
42.7 83.13 66.55
42.47 83.65 64.51
42.79 86.11 63.9
41.65 88.15 65.29
27.6 21.36 15.32
26.06 20.68 13.69
25.78 18.6 12.21
27.26 17.06 11.2
39.3 13.36 83.99
37.24 14.72 83.88
35.48 15.0 81.77
35.59 14.11 79.58
30.76 39.91 87.25
30.18 38.23 86.53
28.02 37.17 86.2
26.32 37.84 85.24
51.84 13.24 42.39
52.83 12.42 44.17
51.68 10.76 46.24
49.83 9.81 46.48
50.86 34.15 84.93
53.19 35.84 84.08
54.2 37.22 86.13
54.58 36.2 88.53
34.43 7.82 21.78
33.2 8.82 20.54
30.27 8.66 20.27
28.79 8.18 21.89
73.95 57.52 32.01
75.62 56.84 33.34
75.3 54.34 35.21
73.56 53.27 35.84
78.67 21.16 19.69
77.49 19.89 20.87
78.17 19.42 23.42
80.34 19.1 24.51
87.98 81.39 82.35
87.69 79.57 83.99
85.79 79.2 86.0
84.52 80.86 87.03
80.97 70.98 43.5
82.36 70.58 41.64
83.0 68.41 40.24
82.4 65.89 40.85
42.27 77.2 17.89
44.25 78.45 17.76
45.45 80.21 19.29
44.35 81.65 21.35
45.31 66.79 81.18
43.43 68.2 82.52
40.94 68.58 82.17
39.66 68.51 79.73
7.2 58.5 55.52
7.26 56.6 54.1
9.97 55.84 53.54
11.33 57.79 52.65
84.99 43.74 6.56
84.1 41.79 7.55
83.97 42.04 9.83
83.24 43.62 11.35
26.56 33.3 88.39
25.41 34.86 86.7
25.95 35.52 84.1
28.63 35.72 84.04
84.58 76.54 5.03
83.85 76.27 2.87
81.75 76.77 1.71
79.52 77.54 2.12
25.77 20.56 75.79
26.85 18.55 76.0
28.74 18.65 77.57
29.05 18.95 79.65
20.32 87.68 66.75
22.5 88.42 68.26
24.14 86.78 69.22
23.86 84.05 69.87
47.81 23.64 32.56
49.62 24.26 30.98
52.27 23.92 30.78
53.97 22.95 32.06
24.93 69.29 80.92
24.41 69.94 83.45
22.69 71.41 84.35
20.63 72.47 83.72
57.44 49.29 62.22
55.77 47.91 63.74
53.7 46.36 63.06
53.14 47.23 60.51
21.99 29.84 84.72
20.29 31.33 85.79
17.95 32.09 85.23
16.17 30.94 84.72
26.82 5.24 37.68
24.43 4.88 38.16
23.19 7.36 38.3
23.6 9.26 36.97
83.71 59.51 7.02
82.41 60.32 9.74
82.12 58.27 11.02
81.2 56.17 10.61
59.0 17.33 42.42
56.46 18.32 42.33
55.24 20.01 41.0
56.24 21.98 39.34
33.52 24.34 15.98
35.41 23.21 17.85
36.38 24.56 19.87
35.04 25.84 21.66
31.04 55.62 50.26
33.1 56.5 49.85
35.05 55.13 48.31
34.77 53.31 47.49
17.57 35.2 84.3
18.74 36.4 82.76
17.95 37.71 80.56
15.78 38.41 79.77
52.09 61.9 52.66
53.78 62.92 51.44
55.9 62.41 50.36
57.25 60.3 50.15
71.17 19.96 12.45
72.69 20.98 13.82
71.88 23.25 15.45
70.55 25.32 14.53
74.05 57.98 21.66
75.32 60.1 21.35
75.8 61.53 18.81
74.84 60.46 16.8
35.59 56.95 76.02
35.76 54.59 74.93
33.56 53.11 73.66
31.17 53.24 74.75
45.27 72.35 34.95
47.3 72.58 34.16
48.5 73.72 32.44
47.79 75.01 30.52
43.87 48.1 64.22
45.66 47.01 64.45
47.15 46.44 62.25
47.16 47.86 60.09
5.66 88.39 8.77
7.96 88.3 8.01
9.29 86.66 6.27
8.05 84.84 4.98
80.54 29.76 76.36
79.34 30.05 74.05
77.17 29.33 73.31
75.08 28.29 74.51
78.95 2.16 13.49
76.8 1.67 14.21
74.47 3.13 14.47
74.15 5.49 14.02
26.48 19.61 73.29
26.36 21.63 71.78
24.18 23.24 71.81
21.94 23.1 72.77
54.28 27.59 26.87
53.28 26.1 29.02
54.71 25.06 30.7
56.63 25.3 31.34
81.26 0.67 12.63
81.84 1.43 14.85
83.85 3.17 15.63
85.51 4.12 14.42
33.52 29.51 50.49
32.13 28.27 52.23
32.53 28.8 55.23
33.76 30.66 55.8
2.23 39.99 5.68
1.68 42.05 6.61
-0.34 42.61 8.23
86.78 41.77 8.98
12.76 5.5 27.14
14.47 4.66 25.68
16.85 5.68 25.9
17.48 8.14 26.75
70.99 70.03 72.04
73.17 68.81 71.58
74.59 67.84 72.98
74.26 66.61 75.39
24.72 64.66 35.49
25.85 64.58 33.44
26.87 62.27 32.28
27.69 60.26 33.14
58.82 16.57 61.8
58.4 14.27 63.2
59.67 11.76 62.6
60.92 11.08 60.67
54.56 57.24 77.72
55.62 57.41 75.57
58.07 56.38 74.62
60.19 56.36 76.5
5.96 27.22 17.25
4.43 27.51 19.17
1.74 27.77 18.56
0.71 28.62 16.91
79.3 68.25 71.88
78.85 65.94 71.66
77.53 64.2 73.16
76.2 64.72 75.4
6.14 87.16 56.68
3.69 87.56 57.55
3.42 0.22 60.0
4.48 88.68 61.84
2.82 58.26 22.1
5.13 58.57 21.79
6.55 60.09 19.89
5.68 61.45 18.36
6.32 87.86 50.38
5.55 0.68 52.11
6.41 3.4 51.6
6.44 4.43 49.42
64.28 14.74 2.68
63.8 13.79 0.25
62.44 15.02 87.19
61.74 17.01 86.58
82.79 26.32 66.74
80.63 25.58 65.89
78.5 26.05 67.53
78.36 25.67 69.6
42.22 11.12 69.78
41.95 11.55 67.12
40.49 13.77 66.88
39.19 14.99 68.93
68.82 29.84 71.24
68.57 30.71 73.7
67.04 32.19 74.91
65.98 34.42 74.6
87.2 84.35 24.84
85.79 82.65 24.41
84.37 82.05 22.25
83.38 84.04 20.56
1.87 63.53 67.16
-0.12 63.77 68.37
86.69 64.5 67.95
85.2 65.37 66.09
36.08 32.81 49.04
36.54 31.69 46.77
37.96 29.38 46.23
39.65 28.62 47.17
47.88 45.94 39.04
49.77 44.78 40.58
50.43 45.57 43.09
49.12 47.08 44.79
30.23 46.0 1.84
32.19 44.8 2.78
33.64 42.54 2.07
33.16 41.09 0.0
3.04 12.0 42.34
1.35 14.02 42.87
2.25 16.43 43.57
4.36 17.4 44.17
10.9 38.8 14.1
9.49 40.61 13.92
8.39 40.5 11.45
7.85 38.43 10.25
62.47 70.67 9.63
63.08 68.72 7.68
62.9 66.21 8.1
62.28 64.79 10.44
74.72 62.34 13.67
76.72 61.72 14.95
78.34 63.35 16.34
77.87 65.52 17.6
77.59 30.38 4.83
76.42 32.37 3.64
74.35 33.82 4.82
74.02 34.29 7.44
60.15 74.5 58.82
61.78 73.39 56.83
63.99 72.08 57.48
65.16 72.82 58.97
51.57 49.04 45.57
52.53 48.72 43.16
54.79 49.86 42.0
56.7 50.19 43.14
51.38 27.38 52.36
51.87 27.19 54.54
53.72 28.48 55.94
55.63 29.49 55.46
11.94 62.25 40.93
12.95 64.44 39.6
15.73 64.94 39.3
17.26 62.97 38.66
65.4 37.33 76.49
65.79 39.04 77.98
64.22 41.43 78.7
61.74 41.4 78.6
41.08 42.74 6.21
40.38 41.47 8.39
41.42 41.01 9.97
41.11 42.0 12.22
69.45 23.03 69.1
68.77 24.08 70.99
68.95 26.36 71.19
66.99 27.69 71.73
53.47 1.44 24.98
54.79 1.75 26.55
56.89 3.41 26.56
57.49 4.67 24.02
82.93 41.84 78.29
85.21 42.62 78.85
87.32 40.9 79.06
87.64 39.12 80.69
55.14 85.1 66.28
52.81 85.41 67.89
51.01 83.39 67.41
50.01 82.27 65.58
9.89 23.43 40.07
9.19 24.67 42.59
9.82 23.28 44.5
9.67 21.18 45.16
86.33 83.56 69.77
85.46 81.18 71.43
83.95 79.48 70.9
82.01 79.59 69.39
81.51 35.53 38.35
79.45 35.87 37.29
78.22 34.28 35.63
79.24 33.18 33.32
67.74 74.33 23.91
65.4 74.65 22.54
64.98 76.57 21.51
63.84 78.67 22.69
73.55 75.62 72.5
71.46 77.17 72.69
71.2 79.33 72.78
73.08 81.54 72.79
63.97 11.37 63.8
63.42 11.1 61.54
64.74 10.21 59.26
66.57 9.21 58.87
11.62 36.04 12.97
11.34 37.77 11.58
10.23 37.83 8.94
10.67 36.2 7.21
62.66 79.88 2.87
62.26 78.15 1.29
62.33 78.18 87.63
63.27 80.11 85.88
72.25 86.15 43.45
71.38 87.77 42.1
72.03 88.56 39.62
73.2 87.77 37.86
85.93 70.59 11.51
83.63 70.03 10.19
83.36 68.87 8.14
84.84 68.23 6.13
16.19 23.73 46.31
15.66 22.62 48.38
16.71 20.76 48.39
19.25 20.02 48.75
8.16 25.35 48.34
8.95 22.41 47.84
10.9 21.44 48.81
12.65 22.3 50.65
46.18 31.46 69.86
46.0 29.36 69.99
44.42 27.5 68.83
43.95 26.98 66.93
27.09 70.75 61.59
26.95 72.54 60.41
28.7 74.79 60.31
30.6 75.45 61.3
51.57 59.32 25.99
51.0 56.95 26.31
51.36 54.71 25.17
52.51 53.98 23.28
50.96 78.51 39.61
50.39 80.65 40.31
48.4 81.92 39.7
46.62 80.72 38.91
19.87 14.38 83.52
19.9 12.74 84.99
22.42 11.95 86.57
24.1 14.11 86.01
64.98 77.24 75.05
64.19 79.6 75.29
61.37 80.3 75.28
59.68 78.95 76.23
53.76 11.44 50.95
52.56 11.93 48.7
53.44 12.66 47.09
53.13 15.08 46.1
56.78 40.67 79.36
59.09 40.37 78.95
59.97 37.53 78.23
59.08 36.02 77.15
6.52 38.52 27.28
5.76 41.03 27.59
4.33 42.35 26.67
2.96 42.5 24.53
5.93 87.19 11.63
7.68 86.38 9.99
10.06 85.63 10.23
11.38 85.02 12.36
14.49 16.74 85.09
14.11 14.21 85.21
14.88 12.51 87.01
16.94 12.54 88.43
45.0 75.13 60.79
42.53 76.58 61.58
42.43 79.1 61.79
43.22 80.75 60.69
48.16 84.34 65.29
46.36 83.0 65.18
44.52 82.36 63.48
44.06 83.1 61.01
68.48 30.16 55.41
66.55 29.5 54.55
64.5 29.92 55.51
63.07 32.31 55.08
30.61 13.5 48.5
32.14 13.35 46.0
31.09 11.76 44.18
29.73 10.12 44.65
35.89 45.31 0.84
36.13 43.13 1.51
37.89 41.99 3.21
38.95 42.76 5.06
39.54 8.8 31.54
41.42 10.14 31.65
43.37 10.36 29.99
42.89 10.04 27.04
61.46 26.18 34.86
63.16 27.71 34.52
64.96 28.55 35.75
65.56 29.12 37.88
67.99 14.52 24.88
69.69 16.11 24.3
71.91 16.28 23.14
73.43 14.38 22.5
40.72 46.1 27.1
39.27 46.45 29.09
36.88 45.6 29.69
35.93 43.27 28.72
31.65 33.74 58.46
32.54 33.35 60.83
31.54 32.94 62.87
29.6 32.48 63.63
67.08 1.15 44.97
68.39 2.3 43.28
68.95 1.95 41.01
69.2 88.97 39.42
45.43 8.94 69.16
44.13 9.29 66.48
44.43 8.09 64.56
46.3 6.17 63.9
10.5 75.26 24.95
9.31 73.22 26.21
10.08 71.22 26.76
12.38 69.82 26.52
12.2 1.69 22.09
13.56 4.04 23.1
15.92 4.18 22.63
17.44 3.65 20.75
84.86 28.71 65.91
82.32 29.04 67.37
81.27 31.11 68.15
81.82 33.43 68.57
44.43 77.06 11.49
44.02 74.9 10.5
43.28 74.49 7.99
43.37 75.75 6.1
11.88 79.15 72.03
10.19 80.76 73.4
8.54 82.54 72.84
7.21 83.29 70.98
56.5 46.54 18.17
55.12 46.22 16.25
55.42 45.07 14.01
57.62 43.56 13.19
73.1 64.78 76.95
71.34 64.93 75.43
69.18 63.51 75.42
68.84 61.48 76.8
32.97 -0.16 6.55
31.25 -0.14 8.26
29.61 86.92 9.11
28.51 85.51 7.54
1.1 74.61 58.13
2.79 73.63 57.48
4.87 74.62 56.68
5.67 77.19 56.93
71.13 78.25 0.85
73.14 76.84 0.56
75.84 77.92 0.81
76.6 79.82 1.64
19.05 78.51 56.4
20.66 78.42 54.76
23.29 78.56 54.92
24.79 79.15 56.81
31.3 21.2 48.35
31.43 22.94 46.84
33.21 24.44 47.68
35.74 24.29 47.52
2.17 54.1 27.87
3.3 52.11 27.84
2.76 49.39 28.19
0.32 48.41 28.52
44.6 32.99 81.41
46.87 31.26 81.17
46.28 28.68 80.58
44.23 27.69 79.3
1.62 46.26 84.2
0.38 45.93 82.55
0.1 47.98 80.59
1.27 49.99 80.07
52.84 38.5 80.43
51.65 37.17 81.97
51.24 38.46 83.93
50.83 41.07 84.09
5.66 20.94 72.8
4.44 18.6 72.77
6.63 16.47 72.47
8.77 16.61 73.09
7.77 1.02 11.77
5.59 1.75 12.06
4.61 3.8 12.4
5.03 6.05 12.52
63.25 32.3 37.04
64.94 31.35 36.15
67.87 31.79 36.24
68.82 33.46 37.26
16.01 78.57 83.31
17.75 77.44 82.31
18.25 75.45 81.06
16.9 74.08 80.04
7.64 60.93 81.99
6.03 60.03 83.35
6.6 58.65 85.49
8.92 57.69 86.12
68.84 36.18 74.55
67.07 38.14 74.23
67.11 40.16 75.86
69.05 41.29 77.01
61.27 57.48 9.19
59.44 59.06 9.44
58.93 60.77 11.15
59.99 61.92 12.79
61.69 43.27 59.07
60.12 44.64 60.07
60.19 45.22 62.92
61.23 44.39 64.71
67.89 74.47 17.67
68.6 76.59 18.17
67.65 78.9 18.16
65.49 80.06 17.14
16.95 6.27 30.53
14.16 6.52 30.13
12.7 6.79 32.21
12.98 6.55 34.02
56.96 53.45 28.98
58.86 53.72 27.84
61.34 52.41 27.93
61.97 50.63 30.03
1.95 43.48 33.69
1.63 44.27 31.11
1.76 46.71 30.46
2.17 48.71 31.62
46.46 86.74 66.47
49.19 87.04 65.95
50.79 88.1 67.74
50.14 1.75 68.34
36.58 41.24 33.01
36.9 39.87 34.89
35.8 38.69 36.59
33.36 39.01 37.42
14.12 88.83 13.74
13.53 86.92 11.98
14.64 85.98 10.14
17.03 86.19 9.34
73.94 54.08 2.05
75.87 55.4 2.52
78.34 54.51 3.07
78.92 51.95 3.97
22.17 71.88 87.2
20.82 73.6 86.21
18.77 74.77 86.96
16.89 73.77 88.82
28.18 83.24 46.04
29.99 84.67 44.36
29.56 86.73 43.71
30.24 88.75 44.66
70.89 16.5 16.2
72.75 18.44 15.42
75.18 17.77 14.94
75.81 16.08 12.79
52.51 26.24 25.26
50.76 27.09 25.87
50.39 29.55 26.6
51.36 31.56 26.17
71.61 3.89 14.16
71.31 1.84 13.56
69.7 88.9 14.34
67.84 88.78 15.58
82.15 79.19 87.07
83.36 78.37 0.03
85.14 76.44 -0.02
84.76 74.26 87.98
57.93 28.05 63.18
58.48 29.15 60.73
57.03 28.84 58.38
55.96 26.92 57.53
48.32 79.21 16.12
46.79 76.97 15.82
45.58 75.69 18.16
45.76 77.06 20.04
65.36 82.67 17.28
67.75 83.53 17.93
69.31 84.97 16.61
69.23 86.16 14.51
73.64 42.63 19.13
71.78 41.68 17.79
70.88 42.24 15.83
69.5 44.49 15.14
50.5 4.2 22.82
52.8 5.1 21.59
54.69 5.47 23.73
54.2 6.02 26.13
61.49 0.1 8.9
60.24 1.09 6.85
61.26 1.25 4.24
63.34 89.34 3.41
64.91 80.12 72.53
67.26 79.79 71.41
68.23 77.99 69.8
67.37 75.74 69.08
64.93 23.46 84.25
66.88 23.88 84.88
67.9 22.15 86.42
66.95 20.23 87.8
22.85 50.42 73.25
21.05 51.3 73.9
20.66 53.42 75.67
21.53 53.79 77.58
27.57 38.54 22.49
27.39 40.88 22.59
25.27 41.58 21.79
22.93 40.69 22.23
41.87 72.9 3.48
43.71 73.47 4.6
44.79 72.28 6.92
43.73 70.87 8.32
78.76 37.13 27.23
78.15 35.12 28.9
78.66 34.93 31.36
80.06 36.37 33.07
53.98 49.25 4.79
55.25 50.04 7.27
57.0 51.4 7.5
59.01 52.4 6.15
74.76 53.02 88.72
73.21 54.24 87.13
72.76 53.87 84.58
71.42 52.03 84.61
75.32 43.27 6.95
75.52 40.81 6.78
75.52 39.31 5.2
76.2 39.07 3.04
20.7 29.61 32.39
20.03 27.07 32.15
19.24 25.4 33.76
18.79 25.61 36.43
86.81 82.88 75.74
87.23 82.61 73.29
88.14 84.39 71.69
88.4 86.74 71.44
84.13 47.99 72.94
81.88 47.12 72.58
80.39 46.95 70.17
80.72 48.08 67.88
71.95 38.22 32.58
72.22 35.37 32.43
70.7 33.72 32.99
68.8 33.28 34.18
83.88 43.32 68.23
82.11 44.95 67.54
81.62 46.14 65.26
82.34 46.14 63.25
4.17 4.8 5.28
4.47 5.07 7.91
3.86 3.55 9.72
3.27 0.79 9.7
0.94 80.48 75.88
2.38 82.26 75.67
3.07 83.79 73.73
1.69 83.87 71.34
7.96 61.52 17.15
8.48 63.28 19.27
8.75 65.44 19.26
10.86 65.62 17.38
82.41 51.87 43.64
79.77 51.88 42.56
78.56 54.12 41.75
79.25 56.39 42.03
18.44 36.97 16.98
16.42 38.22 15.95
14.61 37.17 14.19
13.67 34.73 14.3
54.2 18.8 72.42
52.6 19.75 74.4
50.5 20.75 74.27
48.64 21.1 72.7
11.48 14.75 85.67
11.24 12.27 85.08
11.39 10.38 86.86
10.95 9.83 0.13
33.99 4.95 14.19
32.8 3.97 15.54
31.41 1.67 14.6
32.23 89.07 13.02
37.02 19.05 79.86
35.18 17.01 79.62
34.0 16.56 77.77
34.29 16.64 75.42
61.74 83.19 71.69
62.79 82.73 74.26
64.95 83.31 75.13
66.96 84.58 73.99
77.92 2.65 16.51
79.73 3.45 15.6
81.69 4.9 16.57
82.24 5.56 19.16
36.29 9.84 36.41
34.42 11.53 36.44
33.0 12.44 38.21
34.15 13.9 39.26
65.75 81.98 78.2
63.57 81.72 77.07
61.3 81.94 77.69
60.23 83.0 80.23
61.76 62.03 73.69
62.97 60.41 75.36
65.4 59.73 75.08
67.45 61.13 74.06
21.75 55.5 21.1
23.5 54.1 21.73
23.7 51.46 21.68
22.21 49.93 21.87
59.32 81.28 74.08
57.5 82.53 73.63
55.18 82.25 74.98
54.59 81.04 76.7
76.24 36.25 7.03
75.44 38.24 8.77
76.97 40.42 9.0
79.49 40.29 9.25
24.2 10.56 77.11
24.68 10.97 79.61
23.54 13.3 80.8
21.54 14.67 80.57
24.46 22.51 17.36
25.97 23.44 15.69
27.14 25.38 15.85
26.45 27.22 16.59
72.2 73.62 30.43
71.8 71.35 31.71
72.63 71.52 34.53
74.02 73.17 35.25
46.34 24.64 11.23
47.95 25.63 12.86
47.88 26.56 15.13
45.92 26.09 17.07
86.04 74.02 4.87
86.28 72.87 3.33
87.82 70.95 2.79
1.24 70.3 3.99
59.9 5.96 20.28
59.38 6.55 22.78
57.43 8.12 23.65
55.02 8.17 22.38
32.0 19.5 87.31
31.18 18.01 86.15
29.75 15.65 86.56
28.32 15.17 88.32
5.24 53.47 44.06
6.33 53.99 46.04
7.81 55.47 46.55
8.6 57.49 46.12
24.16 57.85 27.86
24.88 57.3 25.91
24.13 55.48 24.11
23.43 53.43 24.57
32.48 9.0 53.23
31.12 9.07 51.35
31.3 11.06 49.29
33.23 12.1 48.35
9.58 27.66 63.31
10.87 30.05 63.44
12.05 31.16 61.86
13.22 29.92 59.56
19.26 55.31 77.22
18.32 56.76 76.06
19.36 59.39 75.12
21.11 60.68 76.61
78.78 29.23 2.73
79.04 26.88 2.41
81.08 25.1 2.96
83.51 25.7 3.62
72.71 16.19 26.19
75.0 15.56 25.45
77.12 15.53 26.59
77.76 15.12 29.29
79.71 86.14 62.66
79.88 85.49 60.62
77.71 83.76 59.66
75.5 84.19 60.43
31.43 18.12 79.48
32.89 16.78 80.63
33.71 17.16 83.2
33.32 18.67 84.65
25.71 47.13 88.09
26.38 46.59 1.18
25.3 46.42 3.39
23.06 47.57 4.25
47.61 58.54 55.69
49.62 59.97 54.97
51.93 59.56 54.53
53.2 56.98 54.17
56.22 16.52 77.08
54.11 17.09 76.96
52.85 19.32 77.3
53.39 21.67 77.62
38.51 38.75 4.24
36.79 39.46 2.46
34.36 38.79 1.91
32.81 37.35 2.46
43.19 75.4 82.34
41.86 73.04 83.36
40.81 71.36 81.85
40.4 71.16 79.27
33.49 31.96 36.88
33.03 34.0 37.35
34.54 36.32 36.37
35.81 36.61 34.67
38.06 88.65 79.9
35.94 0.2 79.51
33.62 87.88 79.13
33.53 85.44 78.47
45.47 1.78 28.84
46.77 1.37 26.94
48.69 2.42 25.63
50.09 4.75 26.65
9.86 65.66 43.09
10.81 63.85 44.19
10.08 61.51 44.63
8.0 60.67 44.78
7.45 34.34 85.22
6.82 31.92 85.36
8.1 29.58 86.53
10.2 29.37 87.31
61.79 43.1 80.88
64.1 42.43 81.29
66.28 43.71 81.62
66.53 46.23 81.52
48.88 82.61 73.2
50.94 81.76 73.65
52.09 80.49 75.8
51.66 80.72 78.23
56.34 8.36 50.69
53.92 8.86 50.24
52.33 8.6 48.52
52.45 8.04 46.18
52.73 15.95 38.19
54.39 16.94 40.11
55.25 15.55 42.18
55.06 13.3 42.49
46.69 73.74 1.69
44.52 73.45 2.09
42.9 71.89 1.12
43.13 69.93 88.78
71.16 47.27 56.43
72.06 49.04 57.45
73.02 51.44 56.21
73.41 51.9 53.89
81.89 45.23 47.52
82.39 47.81 47.91
81.83 49.79 46.31
80.31 50.1 44.73
2.69 79.44 20.09
1.18 81.04 21.1
88.07 80.68 22.42
86.18 79.17 21.73
36.96 15.05 27.42
37.51 17.24 26.84
36.72 18.66 24.86
35.21 18.7 23.25
71.82 85.78 15.54
72.69 88.14 15.41
73.72 0.44 13.32
74.13 88.66 10.96
24.44 2.48 21.92
22.75 3.82 21.8
20.12 3.33 22.29
18.83 1.44 21.83
31.36 48.65 73.77
33.54 50.28 73.81
35.72 49.98 74.92
36.31 48.58 76.89
18.85 81.5 74.63
17.07 79.47 74.91
14.92 79.38 74.56
13.09 81.09 73.46
10.81 55.98 50.6
10.46 56.93 49.04
11.65 56.8 46.66
13.35 55.55 45.73
67.44 74.34 59.74
67.39 75.81 58.27
66.09 75.12 56.96
66.27 73.31 55.06
19.06 45.25 17.76
17.36 43.93 18.25
16.57 41.56 17.53
16.75 40.54 15.24
75.12 31.3 35.44
75.29 33.73 35.33
75.09 35.3 33.46
75.98 34.96 31.3
17.8 47.37 73.62
19.73 47.82 72.01
20.39 50.15 71.07
19.29 52.15 70.78
81.31 18.72 48.21
82.9 19.55 47.19
84.03 18.7 44.65
83.4 16.85 43.57
68.2 23.91 59.31
69.56 22.99 56.85
72.21 23.51 56.86
73.53 24.33 58.63
41.29 36.68 7.84
42.92 38.96 7.54
42.99 40.57 5.51
41.21 40.75 4.53
26.95 87.41 67.94
27.73 88.31 70.41
27.93 86.63 72.43
28.64 84.1 72.39
65.08 52.6 35.53
65.34 52.97 33.46
63.79 53.07 31.95
61.41 54.31 31.53
45.18 86.66 87.4
46.57 88.48 86.77
46.03 1.94 86.23
44.51 3.44 86.73
65.85 59.05 79.51
64.64 56.69 79.04
61.74 56.54 79.16
60.14 57.91 79.03
80.38 15.43 9.41
78.95 17.4 9.75
78.55 18.52 12.07
78.6 17.92 14.32
46.69 65.59 36.45
47.11 65.85 33.88
45.57 64.74 32.1
44.83 62.4 31.99
28.13 55.72 -0.39
27.25 53.66 0.5
24.63 52.87 0.21
23.0 54.7 88.13
61.52 62.36 6.96
60.46 63.68 4.96
61.46 65.54 4.47
61.63 65.94 2.36
81.46 48.59 50.91
83.23 46.76 50.48
85.61 47.85 50.05
86.23 50.37 51.03
9.77 43.15 11.34
11.54 41.36 12.15
12.79 39.77 10.6
13.16 39.55 8.69
10.23 62.3 85.72
8.24 63.6 86.98
8.12 65.62 88.51
9.99 66.71 0.36
18.16 7.52 83.58
19.44 8.72 85.15
21.55 10.52 84.3
22.63 10.54 82.23
7.32 30.39 62.91
8.38 30.77 64.84
8.0 30.47 67.42
5.95 30.95 68.67
20.81 69.33 11.68
21.37 67.02 11.79
20.85 65.3 10.63
20.8 64.91 7.92
56.33 31.58 60.45
54.93 30.69 58.82
53.09 31.77 57.09
52.06 33.74 56.81
48.23 56.81 25.18
47.22 58.31 26.42
45.14 59.77 25.37
44.86 61.16 23.5
61.65 19.09 42.08
60.76 18.94 44.16
61.47 18.95 46.29
63.75 18.71 47.72
14.81 82.56 3.71
14.94 83.7 5.95
17.84 83.87 7.0
19.76 83.69 5.79
8.61 53.17 47.89
8.57 54.72 49.51
7.38 54.71 52.08
6.24 52.84 52.98
75.37 20.45 47.9
75.56 21.76 49.96
73.53 23.43 50.96
71.0 23.34 50.23
63.07 29.19 53.03
61.59 30.14 54.32
58.94 30.48 53.91
57.58 29.37 51.61
58.67 88.16 11.36
60.22 1.24 11.47
59.25 3.76 11.62
57.78 4.76 12.51
14.87 22.22 57.21
16.51 20.98 55.92
17.49 21.12 53.61
16.19 22.81 51.56
59.52 33.2 15.14
57.14 32.45 15.21
55.65 30.54 14.0
55.92 29.26 11.92
70.83 31.75 77.33
68.97 33.36 76.99
67.32 34.39 78.92
67.98 34.29 81.15
62.12 6.7 12.88
60.49 5.94 11.08
58.26 7.03 10.16
57.4 9.33 10.72
78.44 1.02 83.37
79.31 3.23 83.53
80.66 4.62 85.08
81.08 4.98 87.27
17.11 8.65 63.3
17.72 7.33 65.45
18.28 4.46 64.9
18.54 3.77 62.77
60.44 70.39 47.01
60.14 68.28 46.16
61.66 67.07 44.14
63.46 68.33 42.52
27.74 10.03 57.97
25.4 8.95 58.52
24.43 7.12 59.82
25.65 5.83 61.84
56.73 50.15 65.71
58.35 51.06 64.27
59.31 53.29 63.9
58.45 55.65 64.27
30.99 81.41 30.13
31.13 79.07 29.73
30.19 77.16 30.69
28.69 76.74 32.77
22.45 74.28 54.61
24.56 75.56 55.41
26.53 75.82 54.36
27.19 76.05 51.91
15.08 15.34 82.74
16.59 14.09 83.84
17.06 11.52 83.62
17.3 10.04 82.02
78.42 58.21 12.67
76.76 58.91 14.32
76.74 58.69 16.8
77.83 57.2 18.3
56.78 55.99 30.08
56.45 55.98 28.23
54.66 57.6 27.45
53.62 59.58 28.51
31.36 8.79 35.22
33.58 10.54 34.28
35.74 9.83 33.38
36.52 7.89 32.28
23.08 61.42 74.84
21.0 61.27 73.72
19.61 62.77 72.63
19.62 65.38 72.14
29.42 22.02 12.11
29.49 23.05 14.58
29.71 25.42 15.03
30.29 27.29 13.53
77.3 34.98 25.45
78.21 36.26 23.54
80.31 35.9 21.96
81.83 33.79 21.42
30.08 75.53 16.01
28.31 76.06 17.53
27.81 74.82 19.71
28.8 72.56 20.68
34.9 19.15 17.9
34.68 21.1 19.27
36.06 21.99 21.31
37.31 21.05 22.54
27.2 0.95 4.28
29.58 0.32 4.6
31.75 1.03 3.7
31.79 2.47 5.64
42.67 20.06 86.21
42.51 18.0 88.17
42.88 18.1 1.69
44.48 19.74 2.93
60.63 8.35 2.19
61.4 9.32 0.92
62.23 11.97 1.38
61.59 13.47 3.09
15.62 55.44 75.95
17.74 53.78 74.72
18.3 51.2 75.94
16.95 49.77 77.5
9.3 53.19 61.7
6.93 53.98 61.56
5.3 54.62 63.71
6.16 55.73 65.91
24.86 38.07 18.51
26.68 39.7 18.68
25.07 42.15 18.62
22.69 42.19 17.82
68.69 87.64 57.78
70.1 0.74 58.03
72.63 0.75 58.9
73.78 88.04 59.56
48.97 53.59 27.01
47.07 54.43 25.62
44.64 55.11 26.4
43.49 55.49 28.35
12.48 84.49 2.08
12.3 85.93 3.98
12.08 85.26 6.82
11.18 83.17 7.72
77.27 2.26 42.39
78.6 0.17 41.95
80.95 88.6 43.02
82.89 1.4 43.9
27.69 30.1 70.1
28.3 27.66 70.82
30.87 26.6 70.33
32.15 27.76 69.3
17.64 61.41 45.54
15.17 61.02 45.02
13.45 59.77 45.99
12.89 58.94 48.16
41.76 55.35 81.73
42.67 57.57 82.4
42.88 59.93 81.22
42.94 59.79 79.31
31.58 13.74 87.79
33.24 15.92 87.59
35.84 15.7 87.78
37.17 13.58 86.74
28.85 12.71 37.33
29.73 14.8 38.05
32.23 15.15 36.94
32.79 13.91 34.5
18.61 21.74 39.65
16.62 21.94 38.12
16.37 21.8 35.92
18.02 21.67 33.77
29.16 28.1 17.53
31.52 28.06 18.28
33.67 28.39 16.55
32.91 28.19 14.09
86.08 71.53 40.51
85.89 69.22 41.54
87.24 66.89 40.73
89.21 66.64 39.03
87.09 72.15 0.28
87.38 74.86 0.64
0.33 76.21 88.96
2.9 75.64 0.08
63.06 70.47 40.89
63.82 70.02 38.66
66.02 70.36 37.5
68.17 71.59 38.33
70.58 42.65 1.61
71.75 41.19 3.28
73.12 39.11 2.01
72.76 38.52 88.66
7.17 53.5 88.02
6.98 56.09 88.07
8.71 57.95 89.3
10.28 57.59 1.41
36.8 16.06 32.53
35.89 13.91 33.57
36.73 13.06 35.97
37.12 14.3 37.96
49.64 5.15 49.44
49.86 6.74 48.11
50.08 7.28 45.48
49.56 5.74 43.64
40.48 15.75 85.14
40.09 17.46 87.06
39.48 17.27 0.43
37.87 15.62 0.93
58.26 28.2 56.05
60.55 28.37 56.05
62.29 26.26 56.76
61.89 24.62 56.08
28.13 79.52 24.68
29.36 79.38 27.11
31.6 80.48 27.67
32.88 81.37 25.98
86.47 61.09 70.64
88.74 61.64 70.44
1.92 60.57 69.26
2.36 58.6 68.61
25.94 37.87 82.72
28.58 37.91 82.55
30.0 38.03 80.96
29.99 38.01 78.31
3.6 1.83 42.65
2.31 1.24 40.75
88.76 0.42 40.51
87.13 89.04 42.05
42.98 29.68 77.13
44.94 28.53 76.53
46.07 27.45 74.28
45.28 27.92 71.94
7.84 9.81 82.77
10.01 9.7 83.51
11.21 8.4 85.1
10.49 6.07 86.03
23.83 59.7 25.27
25.45 60.2 23.54
25.87 59.21 21.25
24.55 56.89 20.82
70.12 31.05 33.55
68.24 29.37 34.43
66.18 28.63 33.35
64.8 29.3 31.55
75.26 21.23 7.61
76.9 19.87 9.2
75.64 18.31 11.39
73.4 18.73 11.53
59.55 38.13 87.21
57.93 39.4 85.24
55.36 39.84 85.67
54.39 41.39 87.03
84.48 67.4 67.56
82.8 66.57 69.19
80.42 66.82 69.09
78.58 68.2 68.09
55.24 13.2 72.14
55.16 15.74 73.17
53.4 16.92 74.05
51.19 16.05 73.43
-0.41 80.4 -0.05
87.11 78.75 1.37
85.35 79.16 2.92
83.7 80.61 2.97
35.51 81.25 45.03
33.69 79.78 44.85
32.9 78.73 46.63
33.82 77.32 48.46
23.7 8.65 21.36
25.53 7.16 22.55
26.27 5.01 21.2
26.47 4.06 18.89
49.44 86.55 24.61
50.15 0.25 25.45
51.89 0.99 26.96
53.68 -0.19 28.08
7.95 12.91 76.68
9.17 13.61 74.82
9.12 13.31 72.27
6.87 12.63 70.94
51.92 47.69 68.49
50.12 46.64 66.94
47.46 47.01 66.85
45.84 48.34 67.62
39.0 62.06 15.82
39.51 60.84 17.93
39.5 58.29 18.31
38.94 56.2 17.2
72.74 84.43 59.11
70.74 85.21 57.36
69.84 83.68 55.44
69.38 81.13 55.46
30.6 57.59 20.87
28.57 57.89 22.17
26.56 56.35 22.74
26.11 54.07 22.39
62.81 80.07 56.09
64.44 81.39 54.82
66.71 82.1 56.34
66.82 82.65 58.63
13.64 21.82 5.26
14.32 20.33 7.17
12.51 20.83 9.18
10.56 21.58 9.26
3.91 88.1 39.99
5.96 0.12 40.62
8.55 88.43 40.6
9.62 86.68 39.09
38.29 8.91 80.81
39.9 6.78 81.43
40.05 4.88 79.72
39.46 4.27 77.6
22.57 39.41 19.87
20.96 41.0 19.55
18.19 40.8 19.72
17.51 38.54 19.1
40.0 24.04 47.48
41.81 26.0 47.77
43.8 26.11 49.41
44.63 25.69 47.78
4.13 23.14 73.02
3.98 22.98 70.68
1.61 22.71 69.11
88.48 21.76 69.64
71.41 84.85 49.2
72.74 86.17 47.15
71.31 87.68 45.5
69.37 88.6 46.37
79.19 20.57 41.57
78.18 19.32 43.94
77.12 20.49 45.85
75.88 22.45 46.14
32.72 1.72 75.07
32.75 88.95 76.57
30.81 88.3 78.4
28.76 88.86 78.84
8.68 80.24 24.94
10.89 79.94 26.53
11.38 80.83 29.04
10.19 82.4 30.22
69.55 69.51 30.76
68.93 70.6 32.72
66.94 71.76 33.51
65.76 72.69 31.91
62.34 13.47 63.09
60.32 13.34 64.82
59.81 15.03 66.72
60.85 17.15 67.48
80.49 53.44 84.42
78.57 53.14 85.18
77.27 54.19 87.45
78.19 55.86 0.2
79.13 70.29 70.08
77.34 69.87 70.9
75.17 71.5 72.01
74.55 73.4 71.52
9.04 61.93 47.38
10.0 60.8 49.34
9.06 58.41 50.6
7.2 56.97 49.99
35.62 24.05 13.6
35.81 26.17 14.98
37.37 28.28 14.66
39.37 28.97 13.38
25.32 72.28 16.37
22.92 71.71 15.88
21.91 69.63 14.68
23.19 67.51 13.73
77.08 58.65 26.46
77.13 60.33 25.33
77.56 59.91 22.96
78.47 57.85 21.84
8.94 87.3 50.94
9.33 0.19 51.62
8.4 0.77 54.08
8.43 88.64 56.2
64.4 69.51 51.29
64.13 71.51 52.68
62.91 70.76 54.97
62.43 68.03 55.31
29.14 86.57 4.67
27.3 86.23 5.21
24.92 86.08 4.06
24.08 86.54 1.89
79.33 44.61 70.82
81.45 44.46 70.07
83.57 42.91 70.76
83.4 41.53 72.88
60.13 65.43 52.27
59.2 65.75 50.3
60.4 66.77 48.07
62.93 66.73 47.72
61.22 84.57 75.81
58.93 83.57 76.03
56.45 84.96 75.17
56.44 86.83 73.55
16.56 17.77 14.26
18.26 18.75 14.12
18.63 20.23 12.0
19.48 19.69 10.34
74.14 28.33 89.16
75.83 27.65 1.89
76.81 25.25 2.08
76.95 23.48 0.8
49.15 84.49 22.94
49.24 84.82 20.88
47.53 86.23 18.93
46.32 87.88 19.91
72.51 1.59 10.11
73.04 3.52 11.52
72.13 6.02 11.8
70.7 7.05 10.41
57.71 3.13 6.6
59.87 3.86 7.7
60.83 6.38 7.99
60.63 8.4 6.48
49.13 26.86 54.62
47.16 27.76 54.01
46.04 28.3 51.61
46.45 27.38 49.78
3.9 62.98 22.05
2.36 61.42 23.46
3.83 60.95 25.76
5.35 62.48 26.87
42.18 37.48 10.49
42.07 37.81 12.85
40.82 36.18 14.89
39.05 34.26 13.61
15.93 2.16 24.87
17.99 1.61 24.74
19.22 1.36 27.39
18.19 0.47 29.46
50.04 84.19 40.09
49.86 86.51 41.83
49.84 88.5 41.54
49.77 1.1 39.42
41.4 44.97 62.58
42.98 45.39 63.32
44.13 45.38 65.8
42.89 44.49 67.99
20.23 64.27 31.81
22.29 62.63 32.13
23.65 61.65 30.49
22.63 59.87 29.69
25.95 77.45 58.91
26.95 77.39 56.51
29.37 77.31 55.55
30.63 75.54 56.75
27.34 10.59 38.31
29.18 10.01 36.86
31.12 10.22 38.02
32.56 8.6 39.34
13.6 35.5 59.59
14.82 36.15 61.64
15.12 38.98 62.56
14.94 40.85 60.83
59.51 85.18 4.88
62.03 85.87 6.48
61.98 86.16 9.08
60.5 85.75 10.75
20.36 12.4 57.0
20.25 12.06 54.57
21.92 12.64 52.68
23.96 13.87 52.68
77.21 54.11 19.06
75.51 56.02 18.94
73.82 56.91 17.1
73.19 56.07 14.82
4.57 37.17 28.47
3.28 36.62 26.41
1.54 34.93 25.88
-0.05 33.68 27.53
18.76 65.9 39.12
19.26 65.79 37.01
20.28 63.68 35.92
22.47 63.22 36.43
1.42 43.44 89.36
2.28 43.49 1.96
3.21 41.24 3.54
3.95 39.32 2.96
41.72 8.35 33.62
39.09 9.17 34.23
38.8 11.68 35.25
40.35 13.05 36.56
69.77 57.7 80.78
71.72 56.35 80.88
72.39 54.13 81.11
70.85 51.87 81.57
80.02 9.17 85.63
80.04 9.82 83.71
82.14 11.15 82.84
84.12 11.82 84.32
66.39 15.99 79.24
65.8 15.84 81.81
64.44 15.03 83.09
62.53 13.25 83.01
54.21 41.84 45.68
53.51 43.82 44.5
52.47 46.1 45.09
49.94 45.19 46.22
34.76 82.53 33.05
33.35 81.1 31.39
34.22 80.85 28.76
35.63 82.37 27.18
64.88 8.76 28.07
64.03 6.48 29.47
65.14 5.73 31.53
67.47 6.58 32.76
1.25 4.92 11.1
2.29 6.11 12.9
3.43 8.46 12.33
3.96 9.56 10.29
78.03 47.19 61.78
75.53 47.57 61.5
74.22 49.44 60.34
74.72 50.65 58.57
74.51 57.19 25.26
75.39 56.92 27.25
74.76 55.93 29.76
72.98 54.35 30.41
18.37 75.71 72.92
15.85 75.5 73.33
14.85 74.21 75.31
16.29 72.94 77.19
43.3 64.28 81.69
44.72 64.73 83.22
46.58 62.95 83.8
46.62 60.65 84.22
14.18 23.58 36.78
13.24 23.7 38.94
12.34 21.7 40.39
11.75 19.35 39.71
39.73 65.23 69.89
40.81 65.61 67.73
43.66 65.6 67.34
45.46 64.46 69.15
1.75 17.86 45.75
89.09 19.15 44.27
87.08 18.43 43.06
86.05 16.44 42.43
4.07 60.91 71.18
4.4 62.7 69.48
3.26 65.0 69.13
1.71 65.98 71.07
71.7 4.32 37.19
70.34 2.18 37.02
67.93 1.56 37.39
66.66 2.6 36.35
85.85 77.9 54.93
84.68 75.61 55.85
83.25 74.24 55.0
81.66 74.04 52.76
79.4 21.15 4.37
78.31 22.39 5.86
75.75 23.42 5.88
74.74 24.12 3.42
26.27 27.04 72.13
26.53 24.81 71.87
28.88 23.98 72.01
31.03 24.79 73.6
87.55 4.21 18.4
85.33 4.44 17.44
84.1 6.51 16.67
85.27 8.26 16.35
58.62 16.64 75.56
59.71 15.64 77.21
62.29 16.0 78.27
64.18 17.35 77.29
35.09 34.04 55.63
33.43 32.92 54.01
31.02 33.52 53.72
29.4 35.12 54.13
56.7 0.47 1.47
58.19 1.05 3.15
58.97 3.28 4.1
59.3 5.62 3.03
81.8 6.33 83.03
82.01 7.34 80.55
80.71 6.41 78.46
78.62 5.94 78.89
36.89 4.41 79.23
35.54 5.46 77.71
33.56 4.29 77.07
31.71 3.35 78.5
76.26 10.97 66.76
78.21 11.89 65.47
77.81 14.21 65.04
75.36 15.41 64.38
88.72 78.93 56.08
88.11 76.82 55.47
0.32 74.78 54.11
3.03 74.47 54.22
76.33 52.43 26.26
77.55 54.89 25.58
76.28 56.35 23.32
75.62 55.79 21.6
14.5 20.23 35.04
14.31 22.09 32.92
15.12 21.99 30.61
15.7 20.11 29.01
75.59 48.83 46.85
77.61 49.77 45.32
78.01 51.84 44.47
76.56 54.01 44.1
48.75 65.28 29.86
47.58 63.13 29.59
48.01 61.02 27.9
49.22 60.7 25.91
51.63 12.66 52.66
53.2 11.47 54.24
52.83 10.36 56.64
50.52 8.9 56.36
42.79 71.7 36.03
44.44 70.56 37.21
44.97 67.81 36.96
44.14 66.66 35.34
36.7 47.99 72.66
38.79 46.79 73.11
39.58 44.39 72.46
