8.071 34.212 65.533
-0.699 23.389 62.184
-1.477 24.986 64.038
-3.134 26.993 63.741
-7.439 66.965 16.118
-5.014 66.631 17.34
-3.491 68.89 17.808
3.825 81.02 18.763
4.707 81.571 16.48
6.582 80.558 15.112
70.832 65.559 82.311
68.212 65.827 81.317
67.695 67.514 79.325
78.031 77.148 79.138
80.514 77.689 80.421
82.316 76.922 79.613
38.514 46.536 18.131
39.935 44.913 19.715
42.463 44.294 19.654
51.521 55.975 15.577
51.025 58.316 15.433
50.691 59.648 13.27
29.787 48.472 77.276
29.995 48.214 79.793
31.705 49.036 81.317
43.712 58.941 77.295
43.064 60.471 79.411
43.648 60.2 81.85
9.108 21.551 20.283
9.211 22.619 22.655
8.747 25.076 23.373
17.764 34.792 13.137
18.366 37.188 14.045
16.655 39.096 15.267
13.798 24.223 24.95
11.778 24.971 24.513
10.573 27.428 24.717
16.263 39.516 25.36
17.166 40.845 22.922
15.766 42.683 22.053
41.495 43.025 28.522
39.982 44.662 27.274
39.163 44.844 25.015
28.392 37.325 34.082
26.291 36.642 33.633
25.191 35.184 31.533
64.172 42.708 84.104
64.399 43.004 86.69
65.527 44.574 88.009
79.784 50.718 86.2
80.324 52.534 88.114
79.444 54.134 88.989
27.494 20.322 80.536
28.788 20.39 82.998
28.81 22.226 84.511
32.314 20.228 89.011
31.198 21.94 87.527
28.817 22.42 87.287
82.228 82.176 7.282
83.137 80.777 8.842
82.761 78.926 9.959
72.447 66.044 10.221
73.061 63.756 10.93
73.939 62.735 12.816
48.061 57.351 18.943
46.74 58.931 18.263
45.796 59.151 16.078
33.747 53.6 14.435
31.722 52.666 13.395
29.842 53.497 12.261
19.248 60.963 6.501
20.91 59.897 4.989
21.446 58.039 3.982
9.661 46.899 1.034
9.185 44.117 1.596
10.765 43.413 0.362
43.825 64.925 6.116
41.731 65.667 5.714
39.591 65.767 7.294
28.217 57.447 14.387
25.952 57.718 12.981
25.09 59.798 12.344
45.139 52.451 50.736
43.889 54.612 51.932
43.089 56.705 50.906
48.023 67.751 42.808
47.901 70.563 43.806
46.604 71.317 45.425
43.082 10.511 4.67
42.666 12.466 6.458
41.238 12.744 7.916
25.465 7.371 5.557
24.077 8.642 7.584
23.0 6.52 8.937
65.289 87.358 59.478
65.894 85.286 60.503
64.602 83.115 60.396
53.037 74.195 59.669
54.634 72.411 59.114
57.188 72.256 58.765
54.57 83.747 16.15
53.341 85.512 15.705
51.201 86.016 14.752
41.874 75.064 18.175
41.064 73.828 20.506
42.33 72.972 22.067
26.944 21.73 72.804
28.271 21.689 70.478
30.654 20.953 70.377
39.209 32.416 68.745
39.72 34.032 70.518
38.626 34.513 72.61
82.037 13.364 51.164
79.817 12.981 50.12
78.377 11.121 49.502
70.07 -0.45 55.503
68.141 0.421 54.049
68.071 2.131 52.258
32.604 17.043 58.461
31.426 15.024 57.153
30.106 14.984 55.31
38.796 27.676 47.921
37.273 29.788 48.973
37.199 30.73 51.063
62.055 84.531 41.909
61.581 86.196 44.007
59.892 86.052 45.616
49.853 73.166 48.122
49.013 71.262 46.498
50.389 70.128 44.779
46.21 33.227 88.88
46.212 33.203 91.417
44.806 31.737 92.96
52.481 26.793 89.678
54.671 27.628 89.015
56.284 27.143 86.92
76.878 14.774 50.79
74.973 16.258 50.506
73.256 16.899 52.113
66.483 4.977 56.882
67.328 2.893 58.328
69.514 2.322 59.01
62.292 12.094 84.873
63.787 11.192 83.461
63.833 10.155 81.266
52.873 -2.774 83.274
51.18 -2.926 85.527
51.637 -1.619 87.751
27.27 66.867 43.993
25.096 67.633 44.363
24.148 69.554 45.692
30.544 81.039 39.815
29.74 83.656 40.881
28.014 84.944 40.22
72.913 51.341 56.616
71.691 52.884 55.024
71.906 55.437 54.502
85.051 62.961 49.741
83.104 62.357 47.918
80.912 64.046 47.603
32.096 0.229 22.244
34.0 -1.16 21.678
36.447 -1.06 21.637
49.535 9.228 19.894
49.704 11.666 21.031
48.177 13.021 21.746
61.482 18.909 4.103
62.436 20.49 6.067
64.654 20.636 6.14
73.835 32.838 5.91
76.074 32.82 7.792
76.014 33.542 9.897
33.007 65.487 67.642
35.011 64.766 69.043
35.545 62.61 70.001
30.028 47.918 70.075
27.43 47.37 70.124
25.525 48.746 69.8
27.019 19.689 76.951
28.63 18.889 78.375
29.263 16.302 79.263
21.066 5.017 84.867
22.101 3.581 82.839
24.007 2.779 82.496
16.738 83.71 76.083
18.194 81.512 76.661
17.979 79.225 76.95
15.394 64.714 76.526
15.772 64.803 78.882
15.019 66.325 80.707
12.847 29.669 61.924
11.99 30.559 59.969
9.68 31.44 59.464
-0.591 18.815 56.804
-0.696 18.614 59.223
0.373 19.785 61.114
30.673 24.478 6.886
31.04 24.571 4.3
29.04 23.615 2.481
19.825 12.922 2.036
18.051 11.639 0.597
16.871 12.556 -1.684
11.685 7.343 57.837
14.137 8.05 57.818
15.248 10.226 58.659
26.668 15.77 55.901
27.263 17.803 57.94
25.932 19.444 58.418
9.949 87.056 47.911
8.299 86.515 45.736
6.033 85.391 45.897
-4.209 76.172 47.631
-4.536 73.669 48.197
-3.182 71.956 48.926
19.886 12.465 27.901
22.319 12.149 29.319
22.4 11.089 31.674
8.027 6.66 32.125
5.925 8.195 32.356
5.645 10.391 33.982
80.872 21.605 84.469
80.737 23.203 83.356
79.043 24.07 81.302
65.563 14.516 78.617
64.774 13.194 80.642
65.513 13.205 83.015
70.285 16.835 33.445
69.431 18.17 31.43
67.441 19.465 31.183
53.839 13.535 38.493
51.179 13.334 38.552
49.489 13.856 37.257
58.603 50.245 81.196
57.372 50.705 83.397
56.105 53.297 84.086
62.861 64.747 81.097
64.739 66.054 81.238
65.135 68.616 80.849
57.948 10.041 51.678
57.011 10.585 53.985
58.511 12.095 55.854
65.737 25.398 50.29
67.361 24.172 48.388
67.763 21.627 48.544
28.305 82.263 2.747
27.413 81.822 0.269
25.001 80.777 -0.06
14.318 72.683 8.33
13.962 70.209 6.971
15.135 68.227 7.022
17.413 59.926 91.872
18.908 58.513 90.466
18.99 57.381 88.441
10.466 45.554 87.827
8.039 47.091 87.24
7.231 47.579 84.858
49.482 80.748 84.595
48.669 81.777 82.494
46.484 82.672 81.939
36.202 71.141 84.194
34.131 72.727 84.932
32.581 73.755 83.173
44.479 53.281 56.544
46.427 51.727 57.315
46.553 49.515 58.091
37.856 36.381 59.408
36.684 35.267 57.223
36.731 35.698 55.069
-4.373 55.476 74.692
-3.333 53.672 74.108
-1.074 53.578 72.227
8.342 65.325 74.104
6.862 67.682 73.216
6.222 67.807 70.768
-1.812 27.897 91.115
-1.383 26.937 89.046
0.501 25.49 88.131
10.498 36.463 86.089
13.039 35.606 86.665
14.347 35.679 88.573
72.976 59.637 14.761
73.334 60.145 12.376
71.322 61.032 10.505
65.26 52.456 19.207
63.501 50.762 18.24
62.075 50.975 16.223
24.201 51.257 73.747
25.46 50.721 75.835
27.727 51.488 76.665
35.022 63.123 72.703
37.709 64.056 72.841
38.736 64.499 75.091
61.17 60.9 47.843
59.313 62.552 48.244
57.373 62.684 49.867
51.763 50.378 58.179
50.773 48.094 57.311
51.468 46.852 55.272
5.76 78.127 72.957
5.803 75.445 72.805
7.853 73.93 72.169
17.085 84.78 65.786
16.333 84.881 63.065
14.158 84.277 61.832
17.6 19.134 35.766
16.571 20.462 34.219
14.977 19.678 32.101
2.114 12.137 32.021
1.649 10.286 30.397
1.76 7.616 30.733
59.787 21.787 84.694
57.236 22.042 83.802
56.427 21.244 81.569
52.838 11.159 92.292
55.299 11.516 93.038
57.231 12.85 91.677
10.832 39.279 0.194
11.0 40.876 1.597
8.915 42.009 3.104
-1.262 30.277 5.386
-3.464 29.268 4.782
-5.481 30.167 3.127
65.503 25.106 37.964
67.203 23.721 36.792
69.674 24.091 36.616
60.349 29.92 35.66
58.451 31.572 35.561
58.275 33.82 35.8
2.297 22.678 86.647
3.478 22.36 88.503
5.649 23.491 89.498
18.634 31.158 84.032
20.036 30.724 82.084
20.352 28.646 80.69
16.445 66.809 5.146
14.978 67.222 3.292
14.593 69.663 2.156
20.141 80.973 -4.04
22.377 80.118 -4.799
24.271 79.141 -3.345
6.955 13.643 52.524
5.949 15.244 53.875
5.91 17.973 53.331
11.596 29.667 57.333
13.676 30.134 55.663
13.86 29.575 53.333
44.717 57.672 60.206
44.433 56.284 58.02
46.657 56.396 56.351
47.698 72.307 55.287
49.536 72.124 53.988
50.76 70.252 52.904
12.481 -1.868 18.63
13.504 -1.758 20.778
15.123 0.301 21.649
20.49 9.894 13.051
19.15 8.746 10.71
19.538 6.428 9.67
80.534 58.242 21.471
81.615 58.215 23.765
81.325 56.432 25.847
76.119 42.711 23.118
73.552 41.714 23.899
71.966 42.697 25.122
56.102 77.831 7.161
54.501 79.636 8.311
54.075 79.512 11.014
42.019 73.165 15.994
41.387 71.383 13.898
40.903 71.693 11.787
13.956 30.275 65.261
14.938 30.605 67.431
14.944 29.056 69.467
4.583 18.696 72.233
2.07 18.731 71.248
1.301 19.087 68.846
12.589 47.064 19.306
14.047 45.423 20.53
13.646 44.388 23.046
-0.824 37.595 26.759
-3.162 38.365 26.03
-4.11 40.347 25.803
58.069 22.984 80.143
55.75 23.525 79.78
55.293 26.227 79.15
68.261 34.2 76.263
69.232 36.255 76.865
67.971 38.704 77.078
17.024 28.938 59.554
17.552 27.611 57.909
16.522 26.334 56.148
7.249 14.737 56.254
4.506 15.472 56.707
3.545 17.643 57.158
36.137 2.145 34.106
36.984 0.832 32.487
39.076 0.995 30.859
52.303 8.043 28.31
54.949 7.511 27.721
55.526 5.179 26.316
80.662 5.676 19.59
78.726 7.288 19.428
75.953 6.428 19.7
67.371 -6.111 24.356
67.971 -7.319 26.583
68.06 -5.847 28.824
59.632 5.167 51.748
60.402 6.71 53.669
59.02 7.917 55.351
44.903 0.671 56.531
43.414 1.284 58.423
43.817 1.598 60.863
31.977 44.034 71.162
30.574 46.017 71.786
30.804 47.639 73.646
44.77 55.895 71.829
46.435 56.743 73.444
46.812 56.593 75.962
57.831 74.395 3.79
58.081 73.713 5.571
57.139 74.05 8.067
47.633 65.245 12.143
47.1 64.444 10.055
47.441 62.672 8.869
52.536 47.672 60.608
53.431 45.65 60.156
55.149 44.663 58.331
64.141 53.167 52.496
64.04 55.641 52.061
61.54 57.173 52.497
61.456 74.385 12.488
63.701 73.391 12.879
63.948 71.06 13.953
58.258 57.991 17.569
56.395 58.06 19.763
55.319 60.137 20.786
40.91 -0.81 32.997
41.014 -3.019 32.057
42.814 -4.163 30.161
52.616 7.959 24.027
52.495 8.44 21.854
51.021 7.291 19.73
78.952 28.611 22.824
80.335 29.045 20.46
81.181 27.422 18.93
74.685 13.96 19.746
74.876 13.121 21.814
76.581 12.909 23.203
4.047 12.565 45.45
2.561 13.909 43.642
2.814 14.227 40.937
9.565 27.407 35.362
8.823 29.937 36.028
6.965 30.835 36.723
64.56 10.01 4.784
64.777 10.277 2.043
65.902 8.541 0.408
56.25 0.701 3.99
54.193 -0.892 4.125
53.821 -2.756 3.659
38.111 28.983 42.219
39.132 27.317 44.155
37.628 26.029 46.0
22.889 22.318 47.051
22.685 19.571 47.997
23.217 17.534 46.742
36.446 78.912 17.459
35.143 80.581 17.329
32.462 80.923 18.279
28.911 78.536 8.186
28.666 80.718 8.103
28.219 82.577 10.419
0.978 21.766 63.136
-0.484 21.554 65.281
-0.29 22.398 67.618
9.043 36.11 69.27
8.68 38.201 70.526
7.059 38.454 72.87
28.393 28.418 21.595
27.382 30.342 20.171
25.733 32.066 20.522
18.893 17.732 24.437
16.875 18.373 24.409
16.593 18.262 26.647
69.938 62.544 78.122
68.764 64.588 77.92
66.461 65.297 77.835
53.01 56.035 80.558
52.4 54.747 82.847
53.571 54.785 84.982
-0.672 11.642 35.503
0.503 10.046 36.791
2.684 10.11 38.016
13.977 21.298 35.212
13.309 23.281 33.605
11.502 24.696 33.312
60.347 -6.146 81.227
58.427 -4.927 80.573
57.275 -2.805 81.856
69.125 5.303 84.04
68.817 6.219 81.536
69.642 5.691 79.635
63.642 7.4 41.417
62.738 5.636 39.593
63.653 4.498 37.649
68.212 15.907 30.126
70.545 15.775 30.007
72.165 13.944 29.409
17.1 -5.083 40.619
17.532 -4.437 43.046
17.354 -1.751 44.106
26.046 10.636 40.671
25.397 12.587 41.455
24.297 14.806 40.318
-2.211 13.047 32.937
-0.176 13.76 31.842
0.324 12.667 29.241
7.085 19.332 17.957
7.003 21.81 18.452
5.031 23.074 19.35
15.439 70.103 11.772
13.489 71.127 12.724
12.464 73.821 12.442
22.671 85.257 3.908
20.671 87.278 3.752
19.833 88.549 5.844
82.978 29.776 29.74
82.198 30.543 27.753
80.843 29.652 25.743
70.689 18.842 27.968
67.963 19.135 28.639
66.551 21.071 28.378
1.29 22.05 78.659
2.408 22.996 80.267
4.864 24.448 80.325
7.768 16.405 72.239
7.101 15.971 70.08
7.539 16.625 67.719
26.915 48.041 53.952
24.815 47.833 52.59
23.001 49.774 52.64
25.061 66.356 52.746
26.746 67.343 51.272
27.232 66.924 48.937
57.656 76.541 11.113
59.229 75.2 10.882
59.388 73.183 10.003
51.105 60.189 9.095
50.492 58.208 7.267
51.425 58.09 4.893
21.254 73.696 47.308
21.221 74.981 49.53
22.861 76.77 50.148
33.103 85.653 43.217
31.176 87.25 43.147
30.07 88.845 44.972
10.019 57.09 38.903
9.22 55.937 37.097
6.847 55.493 37.204
-4.484 55.967 46.498
-5.003 53.817 48.253
-6.289 52.082 47.574
10.811 44.625 13.178
11.813 45.739 15.231
13.712 47.441 15.267
25.35 55.773 16.085
27.22 54.966 14.478
27.33 53.38 12.976
45.538 35.303 5.692
47.478 34.389 5.148
48.493 31.629 5.448
38.26 20.381 4.696
36.434 19.065 3.292
36.084 19.355 0.829
61.218 42.27 66.73
63.171 40.761 66.81
64.911 40.073 64.863
77.384 41.795 66.04
77.736 43.334 67.423
75.838 45.07 68.853
5.367 44.614 74.993
6.001 44.2 72.803
8.456 44.557 71.342
16.379 53.227 63.198
18.608 52.432 63.005
20.087 51.271 64.87
79.7 65.134 44.589
78.664 67.034 43.418
76.346 67.156 42.084
67.028 58.707 53.383
64.618 58.135 52.812
63.342 58.317 50.721
14.835 34.226 82.409
12.606 35.521 82.508
10.452 34.966 83.635
0.72 25.404 85.368
-1.891 25.533 85.961
-3.816 26.593 84.962
6.023 23.98 3.141
7.859 23.404 4.36
10.463 23.25 3.721
17.992 32.931 1.506
20.904 33.068 1.073
22.524 31.103 2.123
-2.999 34.47 5.257
-3.157 36.497 6.948
-2.212 38.907 6.821
1.136 49.488 5.067
3.47 51.041 5.156
5.076 51.143 3.307
33.692 79.972 53.16
35.454 79.267 51.722
37.935 78.373 52.358
32.683 66.024 62.382
33.4 63.838 60.866
35.181 63.533 59.239
46.946 79.055 63.893
45.613 80.183 65.397
42.946 80.402 65.318
32.097 70.352 64.196
30.097 69.097 63.476
28.036 70.292 62.498
18.056 56.089 67.221
17.706 55.481 69.497
17.355 52.945 70.573
10.805 42.913 73.92
9.085 41.375 74.364
9.198 38.822 74.874
39.198 30.303 37.75
36.586 31.083 37.507
35.613 33.062 38.403
48.209 41.579 44.614
49.499 43.12 43.348
50.387 43.116 40.855
74.999 61.434 7.785
76.231 60.344 9.778
75.927 57.789 10.675
65.589 47.827 7.747
64.014 46.864 6.058
63.656 47.379 3.797
37.856 77.337 27.774
36.611 78.912 27.339
34.316 79.27 26.572
26.7 66.392 25.107
27.233 63.918 25.229
28.605 62.709 26.894
53.147 37.034 24.076
50.565 36.843 22.164
50.432 37.821 20.153
56.734 51.754 20.435
59.1 52.342 21.141
60.302 51.518 23.235
-0.562 60.037 8.276
-1.157 59.534 5.583
0.114 60.439 3.453
4.918 72.992 -0.919
6.956 72.005 -1.468
7.552 69.888 -2.427
56.921 55.775 25.991
57.349 54.777 23.921
55.853 54.152 21.689
46.922 44.232 26.869
44.446 43.642 28.065
42.919 45.08 28.915
55.604 63.169 45.274
55.84 63.02 47.443
55.154 61.349 49.129
50.04 48.407 47.194
49.691 48.375 44.609
50.761 49.401 43.082
76.066 60.783 4.828
77.041 60.27 2.106
76.277 57.893 0.841
65.932 45.862 2.683
66.262 43.265 2.738
67.961 42.216 3.426
15.993 62.458 73.41
16.47 60.613 75.231
18.013 60.086 76.82
26.917 72.955 70.64
29.252 72.563 69.472
30.885 70.971 70.205
56.975 8.661 44.586
55.756 8.722 42.875
53.174 7.849 42.243
47.426 -6.798 45.173
47.314 -7.515 47.762
47.395 -6.083 49.638
12.655 58.251 61.045
13.893 56.423 61.2
13.412 53.786 61.354
6.127 42.179 65.858
6.335 40.209 67.134
6.833 39.909 69.691
36.479 60.989 51.648
34.814 60.308 49.963
34.798 59.028 48.453
28.65 44.348 52.469
29.77 42.762 53.709
31.415 43.033 55.707
52.137 40.581 46.151
53.439 38.638 45.078
53.074 37.39 43.258
46.963 25.226 48.433
46.804 23.383 50.37
47.038 21.277 50.404
55.038 2.086 33.338
55.471 3.457 35.448
53.741 3.706 37.447
41.915 1.563 43.391
40.695 1.273 45.34
40.21 2.915 47.48
61.737 46.44 91.305
62.71 45.51 89.744
63.16 46.445 87.128
76.302 55.961 87.314
75.974 58.513 88.04
74.059 59.839 87.85
36.35 21.408 96.354
34.875 22.528 95.308
34.923 24.55 93.515
44.25 31.505 83.512
45.263 33.521 83.371
44.581 35.979 84.182
62.445 64.726 65.459
61.81 65.476 67.815
59.838 65.617 68.83
48.656 54.999 72.549
50.485 53.834 73.967
52.961 53.32 73.312
72.122 60.145 83.138
73.741 60.222 81.088
72.559 57.973 79.544
61.289 49.264 80.993
60.89 47.448 82.573
61.558 46.962 84.71
44.798 23.363 60.679
44.213 25.225 59.8
43.649 26.12 57.903
33.328 14.304 61.011
32.341 13.815 63.272
30.938 14.933 64.518
48.224 35.183 10.936
47.27 36.887 8.898
47.999 37.046 6.428
56.372 50.306 3.975
56.608 52.328 5.568
55.374 53.888 6.348
56.478 29.518 9.894
57.416 28.401 7.837
56.885 28.748 5.392
68.647 34.496 4.487
69.685 36.608 3.31
69.466 38.88 4.007
15.441 28.194 48.52
14.271 29.265 46.827
11.29 29.375 46.235
12.728 29.453 43.685
15.078 27.997 44.019
15.887 25.919 42.932
3.403 3.009 20.472
5.32 1.754 19.617
7.399 1.252 20.928
13.73 11.083 12.636
16.098 11.319 11.295
18.16 11.76 12.059
26.528 77.535 83.114
24.734 77.008 81.517
22.573 77.831 81.399
9.77 75.366 89.665
9.975 75.306 92.399
9.614 77.144 93.92
17.567 6.17 65.188
19.086 7.676 65.893
20.593 9.295 65.152
25.37 19.286 62.201
26.948 17.76 63.933
27.059 15.154 63.96
46.399 85.918 78.468
47.266 83.417 79.247
45.653 81.298 78.14
35.979 70.768 80.459
36.79 68.062 80.016
39.552 67.175 80.55
45.03 25.819 46.794
44.05 27.376 48.087
43.283 29.786 47.96
52.745 35.844 38.003
53.165 37.196 39.978
52.682 39.356 40.936
27.372 37.532 49.529
26.92 39.863 48.019
24.444 40.587 47.546
13.367 31.901 43.522
10.481 31.729 44.376
8.611 32.015 43.001
41.166 80.414 60.307
39.942 80.167 58.087
37.368 79.939 57.67
26.109 74.347 63.842
26.819 72.965 66.117
28.642 72.0 66.798
70.986 32.074 89.418
68.87 31.427 90.601
66.827 29.951 89.236
75.614 25.534 89.607
73.899 26.96 89.841
72.318 28.236 88.013
69.236 55.461 63.482
69.449 57.817 65.119
69.103 57.765 67.739
58.352 51.126 77.89
59.05 48.938 77.576
61.577 47.933 76.265
-6.629 42.964 27.569
-5.495 40.664 28.29
-4.281 40.192 30.34
11.068 47.674 26.741
13.454 47.091 26.014
14.885 45.226 26.907
49.532 60.233 19.097
48.489 59.589 16.418
49.009 61.162 14.497
54.451 76.996 15.486
54.485 79.577 16.844
52.595 79.876 18.793
48.046 17.94 32.61
49.158 17.96 34.826
50.841 18.591 35.832
63.308 21.604 34.447
63.66 24.263 34.625
63.136 25.992 36.125
56.069 48.292 73.812
56.72 47.864 71.281
55.407 46.968 69.367
42.778 37.304 72.644
39.983 36.87 72.647
38.604 37.121 70.845
56.572 20.323 75.248
55.154 21.77 77.126
54.241 20.858 79.429
44.379 9.92 84.006
43.597 12.428 84.537
41.775 13.586 83.242
21.501 17.184 37.6
20.578 17.706 39.792
18.975 16.39 41.143
11.662 1.985 38.177
11.282 -0.232 40.135
12.861 -0.77 42.145
12.803 -1.981 35.051
14.916 -3.404 36.098
16.918 -2.489 37.307
27.717 5.617 38.076
28.551 7.187 39.217
29.001 9.02 37.67
5.091 39.291 49.914
6.08 38.238 51.504
7.835 36.603 51.688
15.781 48.807 46.611
16.909 51.098 47.044
16.67 52.617 48.859
0.199 54.44 83.402
1.639 54.458 81.658
4.105 54.522 81.417
11.856 64.008 83.816
13.405 65.708 83.457
15.753 65.959 83.34
72.828 16.737 45.577
74.766 16.341 43.805
75.671 14.226 43.51
79.174 11.397 46.107
79.072 13.063 44.041
78.709 12.481 41.612
38.665 71.739 9.816
40.053 70.371 7.96
39.142 68.13 6.987
27.226 58.838 8.486
26.288 56.864 10.074
27.101 55.307 11.171
74.547 37.82 21.003
72.785 39.474 21.029
70.258 39.432 20.427
57.963 29.169 14.068
57.304 28.17 12.118
58.023 25.869 11.331
9.943 73.4 79.469
10.128 73.569 81.657
11.896 72.635 83.523
22.622 78.238 75.729
21.915 78.055 73.821
19.768 78.817 72.56
27.348 18.377 60.581
29.654 17.499 61.168
32.044 18.887 60.739
39.678 29.164 55.367
41.515 30.398 53.805
42.683 29.624 51.64
9.618 29.965 39.825
8.647 31.489 38.697
9.844 33.879 37.306
22.975 39.846 43.254
24.057 41.842 42.896
24.394 43.477 40.896
41.314 28.991 57.635
42.732 28.129 59.446
42.218 26.813 61.686
26.777 22.044 64.902
24.863 23.805 64.43
23.807 25.479 65.657
41.237 38.9 91.823
41.161 41.389 93.124
41.786 43.68 92.381
54.651 49.996 84.849
54.011 51.278 82.934
51.694 52.212 82.205
78.442 65.974 34.208
79.559 65.456 36.184
79.007 62.879 37.405
70.239 54.947 41.543
69.273 53.379 42.737
70.523 52.671 44.798
64.46 18.062 6.67
63.021 16.206 5.96
60.933 15.132 7.637
53.451 7.249 7.909
52.316 7.534 5.731
53.203 8.954 3.666
15.974 60.909 70.766
15.841 58.87 69.098
17.063 58.457 66.966
25.031 68.176 65.082
27.588 68.461 64.876
29.451 69.177 66.336
11.694 22.795 22.946
12.664 20.598 23.471
15.114 19.789 22.891
19.551 35.308 23.907
21.602 35.446 25.156
23.685 34.595 25.029
2.373 39.188 42.252
0.752 39.605 40.87
0.86 40.737 38.249
13.316 47.666 37.157
15.621 47.107 35.875
16.477 45.22 35.382
13.304 31.437 51.194
12.704 32.149 53.307
12.812 34.865 54.151
22.126 42.613 45.032
23.889 44.126 44.62
24.846 45.932 46.339
6.418 -7.124 86.962
5.083 -6.386 84.872
4.997 -3.683 84.48
14.821 9.534 83.289
16.558 8.322 81.961
16.536 7.23 79.523
20.206 9.218 2.058
18.656 9.169 3.814
16.094 9.439 3.606
6.372 0.081 7.627
6.173 -0.115 10.454
6.711 1.249 12.16
63.875 59.419 32.755
62.15 59.391 34.31
61.241 61.235 35.927
66.556 76.547 34.445
69.049 76.167 35.457
70.301 74.267 35.236
56.935 6.406 36.59
59.078 5.005 36.255
60.415 4.557 34.323
65.37 16.203 28.928
67.112 16.811 27.567
67.325 17.61 25.377
44.035 13.443 8.884
43.718 10.855 8.414
44.055 8.84 10.172
32.914 2.041 16.466
31.712 1.987 18.953
31.319 3.666 20.466
81.352 60.114 32.432
79.99 61.104 30.678
77.655 62.251 31.272
65.158 53.512 35.669
64.4 54.279 37.975
62.798 55.723 38.916
0.898 57.277 -0.769
0.123 57.195 1.495
1.534 57.672 3.926
12.528 66.79 3.931
12.911 69.427 4.215
11.621 71.129 4.594
42.744 70.312 16.271
44.092 70.116 18.57
43.493 70.925 20.515
30.873 61.527 26.77
30.92 61.47 28.968
32.577 60.748 30.716
39.668 86.17 59.381
38.134 86.817 61.202
36.947 85.142 62.666
27.101 76.394 67.116
25.097 75.417 68.308
23.07 74.967 67.371
51.674 3.987 8.365
52.188 2.079 7.164
52.171 1.803 4.42
58.639 -3.525 8.741
59.268 -5.964 8.241
61.051 -6.709 6.63
66.481 23.132 18.885
63.9 24.381 18.464
63.602 26.524 16.994
71.716 37.311 16.452
73.292 37.893 14.167
75.185 36.485 13.682
79.818 54.435 93.316
80.374 53.1 91.336
79.568 50.916 90.235
80.413 45.312 84.689
81.584 47.25 83.13
80.251 49.055 81.904
61.914 76.948 24.947
60.916 78.697 26.469
58.206 79.748 26.375
46.659 71.089 18.575
45.548 69.325 20.41
45.658 69.057 22.687
41.27 90.106 80.722
38.972 89.46 80.748
37.822 87.526 81.088
36.075 74.648 91.127
34.502 73.15 90.707
33.967 71.879 88.768
18.711 49.581 42.648
18.908 49.734 45.285
18.263 48.026 47.012
8.297 35.326 46.345
9.872 32.745 47.127
11.776 32.488 47.212
24.986 71.118 53.296
25.472 68.995 53.554
24.106 67.204 55.294
14.939 59.18 62.168
14.602 56.999 63.669
16.363 55.609 64.765
73.037 8.163 47.632
71.475 6.617 48.46
70.498 6.125 50.922
79.1 14.013 58.58
80.219 15.826 58.843
81.089 17.185 61.355
43.562 31.581 67.81
43.382 31.36 65.578
45.497 30.79 63.783
57.276 39.642 67.19
58.989 40.993 65.69
60.394 39.973 63.521
6.217 51.105 8.423
8.186 50.64 7.225
8.484 49.856 4.953
14.888 62.569 7.813
16.662 64.232 8.286
18.322 65.381 6.598
64.869 35.347 66.518
65.016 33.296 65.115
65.022 30.987 65.428
55.219 21.523 68.964
54.626 18.88 69.866
55.838 17.316 69.893
87.695 33.329 61.945
86.564 35.412 60.944
84.549 35.546 59.499
72.88 31.661 67.375
71.833 29.604 67.991
72.883 27.537 67.095
14.901 73.124 18.37
15.428 72.797 20.685
17.397 72.998 22.13
29.305 80.12 19.75
29.161 82.515 19.214
28.536 84.641 20.291
76.334 40.884 44.636
76.758 39.284 46.829
76.384 36.545 47.003
71.147 23.737 41.398
71.524 22.646 39.047
73.73 21.941 37.938
67.13 77.528 44.029
65.369 79.27 43.527
64.105 79.871 41.646
51.786 68.309 39.081
51.761 68.569 36.488
50.294 69.88 35.026
42.904 72.292 25.345
42.513 72.686 27.979
41.794 70.941 29.767
31.196 63.658 33.254
28.825 62.783 33.027
27.603 62.418 30.316
56.982 60.123 37.009
55.563 60.921 35.039
55.723 62.756 33.419
67.682 72.741 31.737
69.685 73.944 30.564
71.123 72.878 28.708
84.058 46.299 83.878
85.933 44.642 83.875
85.923 41.902 84.324
70.564 39.442 79.342
69.638 37.196 79.54
70.262 35.162 80.338
50.243 66.085 42.197
50.099 66.595 39.817
49.433 65.225 37.745
34.082 59.195 37.771
34.242 57.692 39.726
36.044 57.151 41.216
33.385 3.935 30.214
34.516 3.876 32.47
35.948 5.848 33.736
32.136 14.479 30.819
31.21 12.243 31.58
29.48 10.827 30.887
64.75 87.818 70.417
65.897 86.926 72.822
64.312 86.549 74.949
60.337 73.804 77.873
58.321 73.463 79.865
55.999 73.744 79.504
39.336 48.538 24.611
40.881 47.258 26.302
41.738 48.036 28.424
52.435 59.694 29.579
53.952 59.915 27.716
53.842 59.562 25.314
28.062 63.266 46.252
27.089 65.445 46.408
24.831 66.11 46.768
15.523 56.123 48.128
12.89 55.719 47.337
11.882 57.131 45.38
69.668 34.375 72.08
70.541 34.197 74.327
71.804 36.118 75.924
75.496 50.133 73.33
77.656 50.924 72.72
79.534 49.799 72.993
65.123 22.634 38.911
64.779 24.202 40.422
63.369 24.683 42.415
53.26 16.156 51.916
51.126 16.255 51.776
49.29 17.476 49.991
36.741 66.399 69.724
37.971 66.816 71.997
40.018 66.449 72.763
50.587 73.616 66.011
53.234 73.502 66.009
54.753 71.742 67.099
0.34 43.257 69.819
2.105 42.938 70.867
4.576 43.826 70.561
11.377 57.891 65.891
13.228 58.014 67.63
15.06 56.583 68.306
56.476 4.264 17.141
57.711 2.762 15.629
59.115 3.256 13.452
63.24 17.593 16.644
63.881 19.479 14.314
63.413 19.291 12.293
52.262 43.68 45.446
52.28 42.789 43.398
52.92 43.768 40.9
66.746 53.148 44.11
66.008 55.44 44.112
63.755 56.526 43.314
52.931 44.451 48.377
51.654 45.344 50.636
52.585 46.563 52.516
66.43 52.903 48.451
69.03 52.724 47.545
70.099 50.985 46.995
23.025 52.613 76.127
22.406 52.611 78.457
20.578 51.251 79.882
9.643 44.002 79.708
8.613 42.321 81.496
9.168 41.793 83.662
62.989 29.93 45.017
64.608 30.138 46.639
66.039 32.455 47.607
76.157 40.183 38.154
77.806 42.07 38.985
77.555 43.057 41.093
7.613 57.582 35.19
7.635 59.4 37.016
8.142 61.948 36.326
18.226 68.213 28.493
20.566 69.166 27.365
20.908 70.287 25.297
27.281 28.16 5.52
27.839 26.18 3.835
29.202 26.294 1.849
26.119 32.134 0.866
25.234 29.995 -0.567
24.688 29.506 -2.296
24.572 68.161 28.696
23.144 69.412 27.71
22.111 71.838 28.003
35.704 78.14 34.642
37.881 79.756 33.658
38.891 79.605 31.474
54.107 42.511 53.444
52.899 44.333 54.02
50.333 44.938 53.152
43.46 29.845 55.591
44.82 27.811 55.904
47.042 27.752 57.292
47.248 71.192 36.014
47.227 71.47 38.239
45.845 70.288 40.34
40.084 60.356 46.552
37.977 61.482 46.259
36.0 61.817 47.804
65.747 78.232 36.408
64.101 79.25 34.416
61.39 80.284 35.014
53.803 66.935 35.893
52.175 65.716 37.578
52.477 64.441 39.402
34.382 51.034 25.395
34.707 51.691 22.921
34.403 54.101 21.798
36.919 51.932 17.284
34.526 51.777 17.046
32.751 52.815 18.282
59.417 49.787 9.589
61.364 48.327 8.71
61.058 45.652 8.416
47.466 37.511 12.231
45.097 37.766 11.246
43.667 39.267 11.642
26.638 31.242 9.447
27.459 29.508 8.033
29.808 28.838 7.299
42.56 34.365 10.854
44.565 35.502 9.038
44.386 36.984 7.692
13.453 67.463 89.374
15.712 66.229 90.711
15.863 64.054 91.61
7.092 49.997 86.898
6.433 49.196 88.903
7.267 49.132 91.238
9.947 19.664 3.395
7.34 20.261 4.192
5.358 19.537 3.819
0.802 6.527 11.793
2.041 4.304 12.088
3.829 3.186 10.642
32.761 74.217 4.804
32.058 73.277 1.993
31.954 71.184 1.092
21.462 61.484 0.934
21.298 58.641 1.285
23.467 57.317 1.449
14.935 7.077 65.89
14.923 8.75 67.975
16.048 10.982 68.297
25.463 14.331 59.05
27.822 15.236 58.443
30.058 15.007 59.653
44.015 73.949 31.549
44.878 72.821 29.13
46.13 73.863 27.376
52.054 87.058 33.359
54.266 88.578 33.515
56.207 88.512 32.331
27.423 72.545 77.679
29.674 73.0 77.061
31.522 71.764 75.305
25.668 61.379 77.687
25.929 58.697 78.467
25.517 57.873 80.747
42.861 26.006 50.816
43.515 24.107 49.603
43.491 21.555 50.262
32.143 12.997 55.148
30.588 11.176 54.207
29.956 10.391 52.122
26.112 36.515 23.415
26.548 35.349 25.376
27.064 35.639 27.816
39.445 42.501 18.998
41.601 41.564 19.621
42.351 39.168 18.846
59.001 51.918 13.089
59.707 52.669 10.537
61.908 53.109 9.665
72.153 60.429 17.982
72.684 62.199 16.03
71.299 64.039 15.3
41.478 63.994 2.267
39.363 65.669 3.195
37.755 65.256 5.02
23.349 59.024 5.899
23.465 58.629 8.519
23.073 60.158 10.387
18.963 25.591 49.76
18.199 24.607 47.174
17.697 26.128 45.261
27.264 37.48 45.499
25.6 38.306 43.775
25.245 37.601 41.378
40.49 55.02 58.564
38.332 56.338 59.161
36.433 55.888 60.723
25.113 47.423 57.389
25.786 45.164 58.387
27.753 44.468 59.242
69.02 60.647 64.377
69.165 60.537 66.892
71.087 60.89 68.581
82.175 71.535 69.619
82.306 74.17 69.024
80.668 75.8 68.188
14.355 67.07 10.954
14.602 66.081 8.858
12.936 65.064 7.218
1.42 59.059 10.934
0.822 59.214 13.109
-1.323 60.301 13.744
31.685 89.461 49.154
31.684 88.13 50.859
30.192 88.351 52.713
24.011 74.859 42.265
21.975 73.062 42.176
20.094 72.631 43.43
48.817 13.426 43.979
50.982 12.331 43.809
52.078 10.125 45.223
40.834 0.743 49.471
39.581 -0.162 51.687
40.144 -0.687 53.667
-1.92 10.491 22.227
-3.409 11.181 20.142
-3.146 12.269 18.182
11.387 17.515 17.884
14.016 17.189 18.67
15.02 14.965 19.157
67.569 11.361 7.745
67.265 10.265 5.777
67.511 7.457 5.28
59.468 -2.612 13.105
56.987 -3.565 13.48
55.097 -2.229 13.852
-0.243 45.731 66.351
-0.037 46.694 63.939
1.466 48.666 63.248
6.715 60.035 60.434
8.044 61.478 59.501
10.54 61.682 59.28
32.486 34.86 30.323
32.829 32.295 30.49
35.321 31.19 30.48
45.952 39.631 25.836
46.307 41.303 28.217
46.622 39.774 30.56
80.972 19.891 80.189
82.655 18.519 79.388
82.617 16.223 78.348
75.133 6.119 78.453
74.141 4.944 76.685
75.101 4.207 74.475
28.344 75.915 84.208
28.669 73.676 83.291
27.38 71.259 83.846
13.441 70.321 87.633
11.96 70.491 89.678
10.627 72.54 89.978
5.806 55.994 29.011
7.586 56.828 30.557
9.847 55.81 31.291
18.861 66.636 23.82
21.161 66.04 23.686
22.193 64.562 22.247
17.708 41.599 16.689
17.313 42.443 18.469
18.412 43.322 20.582
32.441 48.513 20.784
32.963 51.253 20.808
31.92 53.179 21.076
9.574 87.389 58.859
11.743 86.889 60.155
12.087 86.028 62.656
1.499 74.885 62.5
-0.717 75.755 63.362
-2.477 76.963 62.913
57.968 42.395 56.237
56.8 42.971 54.471
55.859 45.177 53.514
69.718 51.241 54.72
71.924 49.974 53.881
72.494 47.561 53.625
18.955 37.993 22.771
19.641 36.583 21.298
18.67 35.427 18.923
3.951 28.522 20.843
3.521 28.911 23.339
4.045 30.554 24.927
30.324 60.692 34.821
31.838 62.193 35.857
34.431 61.968 35.708
46.2 67.288 32.952
48.045 68.017 34.738
48.211 67.464 37.125
5.231 13.866 58.85
5.402 15.523 60.738
5.397 14.696 63.351
-0.448 0.85 69.048
-1.277 0.984 71.244
-2.568 2.572 72.487
27.345 75.01 79.269
28.893 74.543 80.878
30.57 76.55 82.352
41.185 83.858 76.318
42.428 85.875 76.886
41.464 88.453 76.484
86.204 61.951 39.393
83.487 62.396 39.172
81.86 60.852 38.177
73.341 48.806 36.637
71.419 47.664 36.454
69.509 47.799 37.564
76.337 80.277 82.878
76.061 80.146 80.286
75.356 78.161 79.062
67.181 66.73 83.405
64.131 66.27 83.67
62.961 67.035 85.629
77.188 82.449 74.788
77.701 79.979 74.625
75.79 78.036 74.805
65.252 69.007 71.975
64.245 67.107 73.434
64.743 66.536 76.065
45.193 16.453 43.534
43.19 17.753 42.459
41.328 16.554 40.763
31.279 9.111 39.622
31.23 7.227 38.435
31.807 4.432 38.843
30.419 82.064 15.658
28.755 83.461 16.577
26.148 83.168 16.832
20.1 66.893 18.257
19.105 66.759 20.777
18.009 68.453 22.127
51.144 28.611 84.302
49.446 30.223 83.829
46.704 30.393 84.302
38.727 16.697 80.614
39.763 15.18 82.263
37.664 14.942 84.149
39.165 56.63 51.102
40.333 56.555 49.079
40.535 54.067 47.652
33.9 55.962 37.502
32.555 57.272 35.998
29.966 57.851 36.091
17.833 65.815 17.428
18.825 64.643 19.277
17.523 63.23 21.024
2.685 61.73 17.832
0.935 62.361 19.542
0.815 62.582 21.653
65.107 -4.37 32.058
64.081 -3.409 30.19
65.262 -1.63 28.265
72.576 10.185 22.018
74.835 8.781 21.056
76.635 8.079 22.657
41.16 40.745 10.507
40.634 41.396 12.575
40.077 39.963 14.51
37.405 25.242 14.556
34.599 24.723 13.959
33.168 25.698 12.627
24.965 23.383 73.119
25.597 24.496 75.21
25.436 23.772 77.764
11.076 16.771 83.304
10.609 14.663 82.008
11.624 13.253 80.729
23.501 37.649 27.356
20.923 38.809 27.951
19.964 40.963 27.23
32.325 52.248 26.263
33.16 52.711 28.509
32.229 52.057 30.922
29.595 63.341 23.269
28.88 61.644 21.024
29.653 61.86 18.585
44.596 66.482 19.379
45.771 66.508 21.731
44.94 65.586 23.916
31.583 41.823 67.773
30.396 43.036 68.79
28.328 42.746 70.318
16.754 32.646 68.225
14.901 31.557 70.341
15.224 31.437 72.506
6.118 50.895 11.702
7.591 48.937 12.594
10.027 48.949 12.968
21.554 60.391 13.07
23.184 59.247 14.424
22.93 58.072 16.809
53.447 52.601 68.293
53.522 52.012 65.516
55.417 52.44 63.918
63.357 63.671 69.168
65.091 64.604 70.745
65.528 64.34 73.104
2.613 55.874 79.222
0.659 56.529 80.448
0.114 58.772 81.556
7.035 70.296 72.914
7.635 71.507 70.529
6.807 72.062 68.836
16.803 48.132 39.126
14.832 49.478 38.41
14.819 52.056 37.424
29.104 59.674 37.945
29.817 62.366 37.89
28.846 64.221 36.474
26.347 61.318 18.349
24.544 61.899 16.218
25.253 62.89 13.968
37.571 70.646 13.887
37.11 73.137 14.397
35.526 74.66 12.155
-4.564 73.546 41.498
-4.44 73.648 43.943
-5.672 75.277 45.611
6.829 83.751 41.998
6.979 86.046 41.089
5.298 87.758 40.685
20.036 12.446 14.83
22.05 12.18 16.082
24.2 13.425 16.218
35.551 17.537 6.095
37.339 18.977 7.188
38.219 19.179 9.672
67.617 60.656 59.683
67.105 60.419 57.302
65.833 61.727 55.702
75.082 70.75 53.237
76.86 71.627 54.62
79.123 70.407 55.224
23.013 1.637 88.061
25.074 0.255 87.273
27.295 0.837 86.189
36.671 8.959 81.697
38.958 9.788 82.936
39.409 12.451 83.28
13.99 84.95 58.384
16.042 83.987 59.28
16.841 81.269 58.546
8.241 70.476 66.949
8.324 69.061 69.339
10.247 67.648 70.259
23.187 34.945 0.378
23.843 34.894 2.605
23.051 36.452 4.527
38.083 41.368 1.427
38.708 39.982 -0.59
37.619 38.198 -1.793
18.716 78.741 55.631
19.542 78.072 58.399
18.202 76.417 59.922
4.772 69.756 58.494
4.401 68.837 56.094
6.662 68.344 54.506
70.828 3.874 65.6
71.451 1.651 64.642
73.8 0.941 63.937
81.727 12.355 57.661
82.389 13.48 55.406
83.445 12.525 53.378
6.523 52.058 18.155
4.9 53.426 16.204
5.89 54.697 14.015
17.934 63.991 15.443
17.364 66.569 14.265
16.752 67.146 12.434
72.7 14.823 32.302
72.976 12.805 31.652
73.208 10.527 33.087
59.809 8.916 37.968
61.149 6.85 37.403
62.813 6.17 35.729
55.567 49.848 77.622
55.731 48.876 79.859
54.686 46.437 80.731
48.444 32.091 74.401
45.713 30.955 74.842
44.459 30.962 76.545
77.627 28.45 27.422
77.211 30.219 28.961
77.056 32.614 28.97
63.83 25.908 31.381
61.554 26.856 32.654
61.13 28.714 33.69
28.382 11.499 36.184
29.973 12.195 34.463
31.707 13.603 34.022
39.322 15.742 25.999
41.61 17.5 26.097
41.933 19.251 26.929
22.717 21.803 63.694
21.592 22.97 65.883
21.311 21.702 68.026
13.892 13.517 78.049
14.857 11.308 78.984
15.415 8.918 77.115
59.831 34.787 52.146
59.471 34.283 54.518
58.112 32.5 55.624
51.061 20.077 57.032
48.848 20.55 58.572
48.614 20.436 60.838
20.376 37.421 17.585
21.075 36.792 14.933
22.019 38.184 13.186
32.289 48.925 18.179
34.485 48.526 17.735
35.787 46.604 16.092
18.597 23.495 59.852
19.302 25.929 60.793
21.4 27.428 59.858
19.1 27.856 54.524
16.822 27.895 53.945
15.75 28.34 51.566
7.195 35.195 57.339
8.506 35.36 55.177
9.635 37.189 54.054
18.676 48.814 57.385
19.134 50.553 59.211
19.186 50.062 61.769
54.99 10.802 50.684
53.302 11.867 51.337
50.849 11.217 52.467
43.57 2.059 54.026
42.048 0.697 55.797
40.141 1.21 56.835
5.988 10.051 50.52
6.775 10.058 48.028
7.246 11.883 46.475
11.644 3.56 42.354
9.497 4.178 42.866
8.298 6.373 43.198
22.504 68.204 32.002
22.71 68.906 34.366
21.931 71.153 35.54
30.588 83.894 33.966
32.534 84.08 35.579
32.834 83.322 37.794
84.262 77.212 75.54
82.383 77.123 73.831
81.328 74.971 72.895
71.301 62.165 74.992
71.65 60.864 76.782
73.865 59.792 77.725
25.471 18.091 66.338
26.063 20.354 67.324
23.811 20.948 68.667
19.55 11.134 79.567
17.54 11.156 80.715
15.797 13.1 80.881
55.615 41.898 64.867
55.16 43.495 66.234
54.515 43.319 68.905
44.704 36.633 77.995
42.184 37.354 78.324
40.329 37.829 76.525
25.747 0.788 9.451
24.69 3.086 8.542
21.928 3.686 8.493
8.798 2.153 15.135
8.707 1.053 17.061
10.03 1.446 19.492
63.766 6.217 56.314
61.863 7.614 56.427
61.348 10.04 55.834
69.19 23.384 54.116
72.097 22.992 53.639
73.229 21.166 53.994
71.122 64.851 85.357
72.113 62.762 85.804
71.205 60.432 85.775
60.852 50.884 85.523
58.634 49.796 85.492
56.72 50.124 87.188
43.478 60.821 71.659
44.865 59.22 71.15
47.371 58.709 70.88
58.888 67.917 67.872
59.395 68.802 65.361
58.107 69.372 63.648
19.183 17.713 31.655
21.258 15.68 32.489
23.424 16.254 33.406
34.928 22.955 29.726
36.469 24.741 28.731
38.328 23.972 27.875
73.536 2.411 5.162
73.0 4.968 5.991
74.2 6.747 6.21
75.448 5.228 -1.993
74.185 3.807 -0.317
72.846 4.567 1.736
62.848 10.739 90.159
62.408 10.883 87.537
60.809 9.425 85.944
53.474 -0.934 91.461
51.124 -0.012 92.209
49.675 1.62 91.111
52.806 51.435 79.794
52.417 53.58 78.45
54.213 55.553 78.292
64.665 63.287 84.601
67.105 63.664 83.914
68.453 62.837 81.994
27.666 22.193 78.1
29.746 22.023 79.111
32.242 22.307 78.083
36.665 33.484 75.353
36.345 35.809 76.229
34.901 37.095 76.831
35.933 -0.492 29.721
34.14 0.241 28.4
33.824 1.817 26.49
43.177 13.544 19.865
43.553 16.299 19.723
43.278 18.021 21.315
4.701 -4.36 81.974
4.908 -6.318 80.872
6.845 -7.837 79.91
11.723 7.294 76.0
13.627 8.853 74.889
15.583 8.206 73.467
61.14 70.836 83.379
60.34 70.268 81.036
61.401 71.577 78.802
69.398 84.313 78.102
68.037 86.62 76.851
67.941 86.704 74.239
15.831 71.095 24.9
16.195 70.656 22.481
14.285 70.125 20.465
4.911 59.624 27.615
4.364 58.211 29.973
4.45 58.976 32.339
12.34 80.223 44.672
14.801 79.384 45.006
15.496 77.034 45.292
6.379 63.106 43.527
6.361 63.188 46.222
7.709 63.551 47.695
32.658 8.807 46.555
30.698 9.716 46.455
29.94 12.522 45.733
41.29 19.306 37.859
40.286 21.499 36.215
38.367 22.389 36.164
50.044 36.615 33.811
49.939 38.004 31.752
49.985 37.533 29.375
40.306 25.743 30.945
40.306 23.222 29.479
41.814 22.117 28.852
8.706 81.25 13.187
10.026 80.581 15.319
12.551 79.659 15.477
24.66 80.806 6.462
26.529 79.364 6.455
26.86 76.875 7.007
11.34 60.495 49.501
10.047 61.847 47.434
10.942 62.24 45.257
24.041 65.525 36.926
25.068 67.388 37.766
26.159 68.239 40.045
53.365 58.596 16.939
53.419 59.514 18.859
52.559 62.114 19.809
56.369 75.507 17.178
58.158 77.242 15.807
60.08 76.668 14.616
41.699 61.846 69.636
42.139 60.755 67.703
42.416 61.354 65.315
53.093 71.013 63.179
55.261 71.805 61.944
56.895 70.575 60.803
78.26 57.395 9.7
78.979 57.341 7.434
77.525 56.02 5.467
71.726 39.437 2.84
70.561 38.488 0.693
69.971 39.342 -1.319
79.199 33.419 32.678
81.179 32.562 32.007
82.297 30.564 32.225
74.832 15.715 30.178
74.059 14.766 27.709
73.653 16.061 25.745
53.499 57.784 10.814
53.509 59.11 13.078
54.743 61.532 13.537
61.886 71.401 9.314
63.322 73.018 7.898
64.79 72.081 5.815
27.402 50.695 7.329
26.79 52.937 7.802
24.705 54.129 9.592
15.592 41.65 9.188
13.332 39.93 8.229
12.025 40.146 6.302
19.819 52.113 43.704
20.8 53.375 45.654
22.936 54.568 46.111
28.736 47.497 48.62
27.418 45.316 48.591
28.034 43.096 48.721
27.291 49.787 85.417
26.709 52.22 86.027
24.129 53.036 86.009
13.158 43.636 87.908
11.895 41.813 88.397
10.884 40.149 87.171
11.755 56.07 36.809
11.343 55.721 33.955
10.942 57.94 32.692
19.776 66.333 35.147
22.162 67.094 36.107
22.621 68.411 38.156
49.914 31.317 3.124
48.515 33.18 2.874
48.98 35.634 1.816
61.382 43.531 2.217
63.863 43.49 1.246
64.893 42.42 -0.262
47.419 38.274 17.477
47.57 38.096 20.081
47.5 36.296 21.21
39.137 26.172 26.558
37.636 28.114 27.52
37.832 29.265 29.948
45.899 38.483 5.544
45.114 39.525 7.451
46.185 41.952 8.844
56.127 53.552 8.868
55.153 54.996 10.445
55.59 55.446 12.745
26.166 1.54 79.864
23.886 3.01 79.792
23.104 4.283 77.813
30.7 13.228 67.199
29.087 15.393 66.531
27.126 16.116 67.598
37.747 58.375 53.773
38.172 57.191 55.767
37.587 54.863 56.685
32.41 42.192 49.205
32.983 40.832 51.789
33.409 41.661 53.783
22.689 27.587 74.259
24.124 26.641 76.24
25.958 27.972 77.732
31.529 40.941 77.881
32.959 41.595 79.55
33.733 40.799 81.822
34.021 43.68 81.685
35.764 43.537 83.36
37.765 44.84 83.982
46.568 56.553 79.403
48.854 57.999 79.347
50.341 58.767 81.368
13.557 39.425 1.107
15.822 39.389 1.545
17.836 41.351 1.818
21.271 55.9 0.158
22.192 55.857 -1.876
21.793 54.576 -4.145
44.447 6.753 78.93
42.718 8.313 78.513
42.584 10.562 77.296
58.286 11.302 71.219
57.654 13.871 70.178
55.957 14.592 69.213
15.852 59.189 73.081
16.558 57.405 71.431
15.049 55.268 70.795
7.331 46.599 81.504
6.735 44.512 80.935
5.505 43.402 79.279
72.169 37.193 8.869
73.484 37.098 6.708
74.409 39.12 5.543
78.73 52.529 8.692
80.399 54.329 9.046
82.834 54.559 9.592
26.6 -4.147 72.329
24.549 -2.181 72.449
24.642 -0.265 74.057
29.877 -1.305 83.473
27.396 -1.468 84.118
25.307 -0.167 82.827
13.245 -1.896 28.116
13.193 -0.991 30.401
13.758 1.203 30.277
25.88 8.281 24.098
26.559 7.971 21.33
27.115 6.231 20.248
60.548 13.767 0.628
60.517 16.06 0.672
61.975 17.977 0.671
70.884 27.714 0.369
71.508 29.707 1.841
70.708 30.144 4.349
9.509 49.777 20.981
9.264 49.582 18.294
11.039 49.996 16.806
8.806 55.706 17.846
6.836 56.733 18.628
6.55 59.096 19.961
36.221 64.716 66.079
34.089 65.842 65.192
33.799 68.328 64.121
42.464 77.619 59.678
44.48 78.949 58.14
44.863 79.129 56.163
73.028 13.172 23.693
75.097 12.845 25.39
75.588 11.258 27.396
65.072 2.792 35.783
63.179 0.985 34.916
62.249 0.697 32.605
55.701 64.868 54.585
57.91 65.367 53.013
59.813 65.79 54.323
67.329 79.244 54.156
68.541 78.526 51.922
69.131 75.969 51.037
59.878 16.724 3.422
58.936 14.632 3.068
57.437 12.823 4.901
54.937 5.972 14.247
54.878 4.292 12.423
53.823 4.181 10.101
72.917 71.581 32.491
73.656 70.669 34.705
72.221 69.62 36.713
70.227 72.607 44.366
71.808 73.208 46.11
71.317 74.989 46.948
0.105 15.188 48.026
2.007 16.33 49.306
4.5 15.153 49.467
13.943 24.939 46.865
15.734 23.4 47.42
16.139 20.944 46.868
9.356 81.867 28.234
10.8 81.485 29.871
9.643 80.347 32.239
-0.317 68.772 33.887
-2.001 68.917 36.223
-3.577 70.563 36.644
57.052 49.993 89.99
58.597 48.629 89.33
59.283 46.229 90.009
47.308 36.718 83.932
47.253 33.879 85.185
48.707 33.296 87.086
11.496 40.241 83.659
13.498 38.667 84.07
14.928 37.621 82.37
26.39 49.047 77.502
26.65 49.714 80.045
25.475 51.081 81.249
73.575 61.971 -0.687
71.843 63.395 -1.485
69.16 63.371 -0.958
59.184 55.185 3.913
58.892 53.709 6.346
58.739 54.141 8.464
25.404 52.828 69.243
23.43 54.248 69.14
23.249 56.823 69.604
33.265 65.741 71.274
34.508 65.765 72.962
34.277 66.511 75.504
35.218 38.393 62.277
37.072 36.54 62.734
39.605 36.764 63.358
47.326 50.791 63.154
47.958 51.734 60.773
49.103 50.916 58.86
82.957 6.954 37.974
81.845 7.491 35.722
79.533 6.852 35.008
75.839 -7.087 36.734
73.16 -8.0 36.575
71.125 -7.156 37.808
77.351 64.3 23.831
79.145 63.021 23.971
79.529 60.26 23.564
67.412 52.258 29.02
64.854 52.259 29.304
62.959 52.438 27.693
16.223 46.526 32.82
14.246 47.215 31.595
12.651 46.006 30.327
1.163 36.871 33.474
-1.586 37.313 33.311
-2.376 39.468 32.202
65.139 9.587 87.932
65.306 10.916 85.873
67.026 12.439 84.841
78.819 18.917 82.579
81.015 18.563 83.903
82.468 16.345 84.132
33.474 39.163 70.595
33.977 41.231 69.245
34.117 43.17 69.96
45.745 51.486 72.24
47.467 52.425 70.155
46.97 52.92 67.664
10.874 14.58 74.806
9.452 15.727 77.254
10.737 16.608 79.014
20.304 25.927 70.779
21.988 25.893 68.938
23.279 23.922 68.083
45.199 11.065 14.045
45.799 12.601 15.982
45.487 12.164 18.792
33.735 4.6 25.919
31.144 3.923 25.825
29.567 4.22 24.326
43.238 61.324 86.063
45.633 60.863 85.76
46.621 58.253 85.127
36.644 49.523 93.301
34.606 47.568 92.959
32.617 47.675 91.936
16.952 43.363 26.934
17.243 43.884 29.429
16.798 42.482 31.472
13.123 26.469 34.653
11.753 25.655 36.837
11.98 26.702 39.147
44.021 59.716 64.123
45.145 57.966 62.723
47.239 57.741 61.819
53.495 63.468 53.976
53.278 62.687 51.287
53.064 63.696 49.515
31.828 35.356 36.856
32.454 33.481 35.951
34.492 32.796 36.1
46.565 43.281 40.261
48.057 42.452 38.139
47.724 43.757 35.903
54.19 64.453 42.195
54.494 65.39 44.57
52.695 66.055 46.329
46.173 55.719 53.771
45.839 53.047 54.289
48.247 51.531 54.912
51.512 56.255 88.743
51.752 55.729 86.605
49.812 55.681 84.881
45.654 40.521 85.552
44.701 38.578 86.631
43.022 38.362 88.293
69.373 60.576 61.764
70.004 58.31 62.027
71.575 56.844 60.555
85.533 62.607 62.04
86.557 64.448 61.482
85.923 66.671 60.263
76.442 23.668 66.615
75.115 25.497 66.676
75.53 28.113 66.591
79.708 41.137 71.985
77.894 42.963 71.832
75.572 42.858 71.245
57.354 32.907 27.586
57.088 35.119 28.952
58.186 36.194 31.005
72.504 38.069 28.374
73.022 38.368 25.794
71.805 39.679 24.076
12.549 17.059 4.551
10.728 18.57 5.738
10.119 18.194 8.335
6.906 15.96 -1.789
7.221 16.469 0.613
9.04 15.734 2.245
71.248 41.045 11.81
70.029 42.565 13.753
68.767 44.319 13.804
82.754 51.816 12.046
82.193 53.359 13.68
81.706 52.691 16.624
4.28 -5.204 70.528
2.656 -4.073 70.774
2.123 -1.48 69.706
9.695 13.44 67.261
9.257 13.973 64.648
8.044 12.63 63.272
11.012 50.455 23.211
13.023 48.985 23.41
15.03 49.329 25.65
23.852 59.484 21.688
25.665 60.963 20.916
26.091 63.058 21.179
64.295 46.29 15.462
65.846 45.448 17.738
65.093 44.69 19.818
55.99 33.561 22.014
53.968 32.742 23.726
54.074 32.284 25.877
23.966 25.933 62.556
21.632 27.057 62.461
20.775 29.489 62.625
28.865 44.212 62.425
31.638 45.022 61.875
33.453 44.213 63.244
51.534 30.989 26.229
51.566 32.881 24.541
51.025 33.271 22.413
43.276 22.592 26.266
41.096 22.237 26.344
39.168 22.324 24.244
3.876 53.868 28.852
5.227 53.395 27.28
4.751 51.585 25.282
7.393 47.736 15.003
9.653 47.611 15.683
10.602 46.053 17.452
22.286 82.157 78.704
21.863 82.894 80.871
20.983 81.656 83.077
8.303 74.696 83.675
7.799 73.178 85.049
9.379 71.927 87.162
14.442 16.995 6.262
15.268 18.195 8.175
17.146 19.391 8.675
25.783 27.383 -0.528
27.703 26.274 -0.736
28.361 23.75 -0.529
76.02 90.208 29.395
77.961 88.967 29.121
78.488 86.372 27.815
70.628 73.723 26.29
70.594 71.435 24.941
72.317 69.954 24.682
62.875 49.265 23.709
63.545 49.819 26.533
61.753 49.914 28.224
60.328 50.885 19.286
58.915 52.175 18.052
57.373 51.738 16.109
69.113 0.853 49.992
70.119 3.19 50.113
72.295 4.047 49.586
84.625 6.728 46.105
83.561 8.779 47.305
81.576 10.105 46.81
-6.072 39.378 11.055
-4.858 37.394 10.783
-2.405 36.779 10.071
8.355 45.228 13.838
8.919 44.901 11.057
7.88 42.824 9.947
60.985 25.536 7.378
60.327 26.794 9.443
59.938 29.298 9.736
64.028 43.975 9.334
65.734 44.961 7.494
66.654 43.864 5.379
58.628 74.769 84.608
59.544 73.197 83.316
58.074 71.544 81.482
47.56 61.139 79.215
45.755 60.52 77.196
46.404 59.858 74.883
30.82 46.062 78.165
32.016 44.12 79.053
31.21 42.675 81.57
19.401 34.678 83.149
17.525 33.083 82.408
18.069 31.864 80.329
75.631 51.203 51.963
73.484 52.284 52.731
72.238 54.499 52.031
80.961 66.245 55.155
80.418 67.954 56.954
78.19 68.201 58.493
68.267 28.295 55.081
70.059 26.94 54.523
72.337 27.244 53.359
82.363 34.716 42.331
81.359 36.814 40.748
79.259 36.929 39.813
25.46 24.765 79.982
27.785 23.881 80.205
29.824 24.488 80.004
41.964 30.684 75.028
42.05 33.009 75.034
39.871 34.585 75.207
-2.04 66.627 19.043
-1.062 65.06 20.202
0.381 65.005 22.339
9.954 77.5 18.556
10.002 77.848 15.945
8.494 76.911 14.23
-4.893 22.462 56.043
-3.965 21.46 57.838
-1.861 22.822 59.33
5.586 33.131 55.927
6.111 34.947 53.92
4.491 36.528 52.808
25.812 13.85 48.836
25.149 16.405 48.707
23.382 17.667 49.815
14.43 5.638 49.582
11.92 5.144 49.893
10.012 7.047 50.357
59.251 25.771 15.858
61.669 24.765 15.57
62.426 22.788 16.447
55.491 10.23 20.571
54.664 7.717 20.101
53.615 6.667 18.553
8.516 71.817 74.937
9.336 70.369 77.075
7.458 69.097 78.315
-4.322 61.955 78.843
-6.135 62.273 78.948
-7.989 64.235 79.913
52.308 58.422 21.552
50.86 57.667 19.466
50.567 55.921 18.201
48.159 43.04 24.577
45.829 42.676 24.603
44.127 42.198 22.406
-2.402 71.923 43.36
-2.201 70.042 41.563
-0.429 70.183 39.437
8.727 82.611 35.272
10.983 81.584 35.896
11.54 80.111 37.323
49.255 13.904 24.916
49.923 14.181 27.201
52.468 15.025 28.035
56.862 28.774 34.165
57.431 30.942 32.964
56.29 32.67 31.715
76.137 40.146 34.768
74.941 42.147 35.099
75.191 44.366 34.878
72.649 47.399 26.603
70.774 45.804 25.801
68.401 45.965 26.105
45.131 35.541 81.197
45.027 33.882 79.458
42.981 32.26 78.612
33.492 23.038 86.413
32.584 22.465 84.08
30.621 23.595 82.992
19.018 71.924 36.59
20.325 71.837 38.409
22.155 73.663 39.165
28.854 85.881 42.934
28.251 88.172 41.784
26.22 89.586 42.198
70.553 42.848 20.709
68.65 41.932 20.249
66.246 42.028 21.888
63.414 27.809 20.647
61.8 26.425 19.173
59.854 27.108 18.081
46.102 5.882 7.912
43.642 7.682 6.998
41.338 7.269 6.769
29.955 2.311 13.597
27.845 3.431 12.362
27.613 5.403 11.135
35.498 14.816 85.915
36.658 13.882 87.907
37.133 11.267 88.832
30.983 0.636 92.664
31.297 -1.933 91.931
31.122 -2.913 89.688
-4.553 23.197 77.64
-2.282 22.591 77.216
-0.231 23.855 77.053
11.573 28.562 76.248
13.79 28.059 75.13
14.41 28.605 72.732
22.236 24.528 54.826
22.184 22.612 52.949
23.049 23.016 50.358
33.745 31.55 41.192
34.407 33.685 41.905
34.333 34.828 44.043
22.16 27.23 78.337
20.403 27.933 77.131
17.888 27.719 77.144
8.934 17.61 81.342
8.099 17.645 78.845
5.827 18.696 78.198
9.35 61.999 51.062
7.597 63.206 52.374
7.448 65.77 53.165
15.155 79.686 50.144
17.459 79.465 49.62
19.479 78.42 50.647
49.33 40.538 29.468
48.846 41.138 27.228
50.205 41.351 25.211
59.956 51.764 26.043
59.828 54.097 25.658
59.977 55.925 26.99
63.322 70.593 1.098
65.35 69.567 2.767
67.546 69.846 2.631
70.456 84.495 7.398
69.899 84.333 5.101
69.511 82.395 3.388
14.754 32.516 75.11
16.715 31.399 75.723
17.234 30.134 78.095
3.822 22.671 82.43
4.416 20.754 81.432
5.018 18.425 82.006
53.273 33.536 17.923
