51.563 25.407 26.407
49.441 25.424 25.309
48.494 25.759 23.096
69.217 55.368 9.587
69.971 53.992 7.86
69.788 51.31 7.387
23.723 39.237 56.736
22.824 41.078 57.678
22.425 41.667 60.397
25.675 48.13 13.545
22.932 47.434 14.203
21.54 45.576 13.597
1.001 58.829 28.665
2.942 57.836 27.731
4.993 58.875 26.315
39.696 39.26 61.18
41.262 38.065 59.607
40.837 36.376 57.751
25.518 3.629 7.336
25.254 4.593 9.158
24.372 3.374 11.556
66.842 18.073 21.294
64.44 18.492 20.856
62.75 20.174 22.389
44.461 22.658 10.912
42.694 22.639 12.652
41.789 24.62 14.422
56.567 16.299 3.678
57.11 13.828 2.274
55.699 12.498 1.478
27.256 23.239 60.409
28.182 24.36 62.733
30.165 25.38 63.29
2.089 37.136 28.847
3.468 35.834 27.314
4.614 36.583 24.978
5.042 42.011 47.182
5.948 40.938 45.216
5.086 38.795 43.723
57.635 12.199 60.753
55.243 13.076 59.886
54.662 15.574 59.239
11.14 27.146 62.241
10.844 26.467 60.127
11.592 27.708 57.917
24.39 65.652 1.502
22.754 66.036 -0.322
20.351 64.727 -0.726
32.185 59.558 50.633
33.111 58.775 48.87
32.69 59.315 46.192
20.787 28.397 14.532
22.118 29.045 12.51
21.537 28.958 9.867
13.603 16.082 43.052
13.814 18.096 44.114
13.237 19.008 46.654
29.028 20.205 58.509
27.253 21.376 58.427
24.767 20.978 59.031
2.998 5.225 57.345
4.207 3.334 56.76
6.793 3.341 55.577
15.597 16.351 31.275
17.377 14.967 31.747
19.733 14.617 30.684
79.9 25.684 57.313
78.358 26.088 59.445
75.995 25.226 59.873
13.663 57.837 41.046
12.041 59.54 42.149
9.324 59.318 41.926
16.897 39.785 43.697
14.196 40.784 43.868
13.382 42.231 45.714
67.567 65.091 38.393
69.681 65.126 39.199
71.169 63.215 40.261
43.861 16.857 59.221
43.631 15.966 57.073
42.749 17.243 54.898
14.401 58.015 34.454
12.728 58.807 36.092
11.902 57.694 38.32
76.102 11.747 3.227
75.181 11.998 5.664
74.001 13.646 6.841
42.116 23.95 16.896
40.02 24.452 17.999
39.205 26.574 19.292
48.211 34.946 60.256
48.656 35.532 57.939
48.811 37.998 57.008
17.097 52.132 14.158
14.703 52.218 13.964
12.816 50.601 15.076
59.094 39.451 10.002
59.062 38.219 7.799
60.841 38.652 5.687
40.462 0.025 15.796
42.965 -0.36 16.718
44.63 1.457 17.557
13.736 26.552 3.032
14.043 27.187 0.878
15.436 29.615 -0.109
76.837 29.208 56.07
75.024 29.467 54.436
73.819 31.627 53.382
7.929 53.85 14.477
8.827 53.942 12.086
9.572 55.614 10.432
22.481 52.041 33.59
21.212 53.657 33.962
21.491 56.06 34.151
53.836 48.361 41.367
51.856 49.26 40.419
49.8 48.22 39.29
19.624 14.476 41.783
17.774 15.931 42.856
15.815 15.154 44.33
4.156 54.729 24.865
2.271 55.767 25.699
1.021 55.721 28.186
23.383 38.659 50.423
25.658 38.957 51.076
27.404 40.12 50.481
28.676 8.117 23.001
29.111 7.291 20.914
29.371 8.615 18.456
66.873 48.082 50.581
68.475 47.745 48.625
70.987 47.023 48.855
13.792 38.027 40.96
14.364 36.442 38.864
15.796 37.233 36.768
30.029 13.419 41.549
30.096 12.726 39.413
29.454 14.064 36.945
70.217 -1.193 34.55
68.55 0.099 36.073
67.426 2.191 35.901
50.201 1.527 18.819
52.067 0.408 20.035
54.369 1.554 20.699
5.479 52.216 14.109
4.817 52.099 16.143
4.832 50.431 18.116
41.987 53.384 43.974
44.161 52.095 43.794
46.356 53.098 43.52
23.902 7.383 14.716
22.775 6.301 13.256
21.612 3.88 12.938
73.958 20.325 44.12
74.227 20.447 41.69
73.953 18.646 39.812
40.414 14.982 52.539
42.19 14.426 51.026
44.075 15.875 49.8
45.937 42.209 21.952
47.758 42.241 20.668
48.666 41.306 18.343
2.641 8.283 61.125
4.767 8.174 61.553
6.951 9.517 61.082
47.249 -1.617 18.34
47.537 -1.457 16.018
47.868 0.427 14.366
36.982 41.129 9.318
37.052 42.31 11.393
38.723 41.714 13.516
75.414 16.929 26.793
74.092 17.952 25.181
73.657 20.243 24.34
57.007 16.631 6.366
54.887 17.614 6.614
54.155 20.081 7.309
13.404 51.097 19.285
13.461 51.789 21.578
13.486 54.005 22.731
18.843 45.831 57.187
18.668 46.905 59.291
18.473 48.946 60.091
52.714 41.099 21.871
52.162 40.728 19.626
51.295 42.099 17.765
65.862 36.694 15.592
65.828 38.731 17.046
64.859 39.04 19.571
7.463 18.675 30.181
5.904 18.854 32.237
6.133 20.766 34.14
30.127 31.73 40.209
29.125 32.311 38.159
27.016 30.744 36.942
30.967 43.721 59.675
31.186 44.017 57.131
33.046 43.266 55.443
33.61 25.728 10.171
31.603 25.786 10.134
29.715 27.166 10.948
46.411 21.327 9.272
48.633 19.879 9.388
50.588 19.779 7.642
59.251 23.837 34.453
57.466 25.086 35.616
57.607 28.021 35.992
2.321 54.201 14.99
1.912 54.699 13.136
2.628 57.032 11.371
71.541 15.918 17.26
73.17 15.612 15.232
74.524 17.396 14.132
6.25 45.578 58.415
5.248 44.008 56.759
3.648 44.733 54.634
57.356 40.169 23.898
56.233 40.361 21.737
54.139 38.954 20.859
34.655 36.922 56.576
34.812 36.842 54.215
35.117 34.457 52.531
15.116 10.217 10.725
16.984 9.701 9.682
19.73 10.679 10.052
58.353 -0.555 17.189
59.447 -1.242 15.167
61.974 -0.926 14.433
73.415 33.641 8.417
73.257 33.586 10.59
74.038 31.884 12.498
34.125 62.417 3.679
32.085 62.667 3.921
29.72 61.69 2.82
63.699 65.106 35.135
64.343 63.177 33.917
65.246 60.895 34.676
32.815 22.166 4.858
33.49 23.614 6.76
33.326 23.265 9.149
12.563 51.451 6.078
13.54 50.129 4.727
13.011 47.482 4.497
23.718 29.435 29.948
25.912 29.897 28.666
28.002 28.675 28.517
15.986 61.305 49.263
14.396 60.657 47.533
14.614 58.636 45.895
43.741 3.153 21.549
46.016 3.176 22.109
48.278 2.722 20.655
11.21 9.536 5.556
12.841 7.89 5.354
13.131 5.531 5.895
54.133 3.564 30.803
56.178 3.152 31.471
58.854 3.99 30.363
54.863 50.324 46.279
53.428 49.801 44.619
52.479 47.623 43.472
23.667 50.114 22.59
21.411 50.553 21.496
20.883 52.216 19.695
74.102 -1.416 22.24
73.204 -1.687 24.605
73.353 0.239 26.628
72.285 61.528 32.768
74.272 60.619 32.558
75.56 58.454 33.399
21.651 54.686 41.209
23.675 53.995 40.015
25.74 52.306 40.887
75.177 47.061 55.511
73.431 46.504 53.916
71.497 48.252 52.886
64.748 43.286 40.98
66.982 42.46 41.291
68.501 40.631 40.36
5.352 18.119 39.838
5.211 19.07 42.136
6.39 18.433 44.335
15.226 58.229 32.025
13.713 58.186 30.159
12.438 59.617 28.763
72.35 11.726 1.227
70.679 11.758 2.951
69.758 9.951 4.427
43.093 14.373 47.013
45.389 13.149 47.197
46.36 11.949 49.283
56.98 39.603 16.461
58.507 39.775 18.374
60.729 38.426 18.752
31.539 48.344 31.713
30.666 48.923 34.326
29.161 47.614 35.728
26.188 7.901 24.604
25.387 7.04 22.737
23.758 4.802 22.698
41.304 -2.876 5.529
39.262 -2.85 4.089
38.313 -0.749 2.608
71.815 43.023 36.754
73.456 42.744 38.196
75.118 44.491 39.564
24.92 46.111 1.787
23.513 47.243 3.092
22.852 49.575 3.746
10.894 4.211 58.622
9.363 5.361 60.12
7.534 7.566 59.285
3.299 43.997 46.588
1.166 44.238 45.974
-0.183 46.428 45.045
75.946 14.955 22.678
77.007 15.924 24.424
78.442 14.998 26.456
44.458 37.469 1.101
45.702 38.037 -0.734
46.786 40.177 -1.695
70.817 25.383 51.573
73.302 25.074 50.537
74.002 25.294 47.882
6.766 49.886 21.381
5.923 51.785 22.188
3.788 52.491 23.434
45.024 42.318 17.569
44.205 44.04 19.168
42.65 46.118 18.912
15.389 13.044 30.843
13.622 14.101 32.137
12.819 13.618 34.697
-3.313 1.585 44.16
-1.056 0.875 43.99
1.04 2.016 43.083
22.609 14.245 43.979
20.434 14.596 44.231
18.654 14.458 45.997
52.7 46.726 35.043
53.942 45.738 33.035
53.62 43.459 31.779
11.688 39.738 43.395
9.979 40.868 44.934
7.861 39.433 45.982
13.494 33.943 29.558
15.702 32.717 30.958
17.432 34.342 32.382
31.865 4.182 15.257
30.493 5.868 16.485
30.211 8.342 15.907
54.29 35.922 1.178
52.363 35.992 0.028
50.784 34.442 -1.129
43.745 -0.955 13.682
43.652 -0.31 11.37
45.439 1.574 10.237
27.99 50.664 22.627
30.273 50.82 22.619
31.187 50.669 24.872
15.083 43.437 56.412
15.968 45.737 57.234
15.965 46.643 59.626
56.728 44.322 29.347
54.704 43.961 28.362
53.848 41.738 27.313
23.094 46.805 9.793
20.965 46.89 11.21
18.693 46.327 10.463
49.619 30.275 47.142
50.515 29.901 44.818
51.188 27.955 43.417
72.767 28.649 52.442
74.898 27.584 51.245
75.84 28.626 48.942
38.023 35.502 52.812
37.859 35.831 50.532
37.302 33.923 48.696
37.345 40.552 3.386
39.659 40.101 5.014
39.88 38.82 7.122
22.167 13.123 33.088
19.684 13.864 33.204
18.415 15.708 34.072
30.692 50.094 27.387
28.388 49.602 26.795
26.855 47.668 27.588
67.466 11.095 5.14
65.546 11.406 3.895
63.924 9.567 2.948
6.232 14.806 23.365
7.607 12.826 23.332
9.842 12.336 21.833
35.739 65.804 14.611
36.877 64.541 12.729
36.089 62.697 11.304
78.324 42.142 43.937
77.785 41.945 41.611
76.888 39.26 40.613
79.04 49.314 0.387
80.519 48.093 2.298
79.755 46.622 4.077
32.193 29.651 30.925
29.927 29.915 31.044
28.295 31.509 30.043
7.792 20.982 51.663
6.289 22.443 50.3
6.801 24.348 48.668
57.253 20.423 24.086
55.378 21.554 24.495
54.545 24.071 24.294
52.378 12.257 59.95
53.51 10.938 58.132
54.579 8.835 57.975
7.145 31.399 7.024
4.573 31.79 6.912
3.466 34.206 6.968
65.248 5.105 42.252
63.263 5.756 42.88
61.899 7.187 41.479
36.365 10.038 41.459
38.471 9.859 42.789
38.97 8.406 45.089
15.018 37.354 43.759
17.161 36.515 43.455
18.141 34.316 43.141
59.159 16.992 21.15
60.297 17.763 22.655
61.308 16.708 25.051
20.673 46.54 0.919
18.329 47.563 0.789
17.55 49.721 2.427
24.807 14.846 47.801
26.592 13.979 45.758
27.858 11.751 45.7
19.012 12.102 27.833
20.267 12.275 29.813
20.175 11.046 32.077
13.496 62.586 38.151
12.44 61.75 36.198
13.355 61.082 33.922
2.999 14.748 13.05
4.054 14.953 14.948
4.687 12.641 16.714
53.613 24.005 29.555
51.199 25.001 29.22
50.398 27.314 30.385
65.083 51.338 59.019
66.914 49.906 58.647
67.115 47.21 58.023
76.486 37.042 23.671
76.065 36.501 25.761
75.332 37.812 28.009
34.854 8.51 31.933
36.987 7.367 30.691
39.475 7.591 31.328
63.762 66.813 43.465
65.698 66.134 44.621
67.744 64.287 43.571
7.409 41.841 39.754
8.675 41.129 41.893
11.336 41.924 42.277
31.925 20.151 55.266
33.82 19.55 56.086
36.093 18.748 54.956
19.625 26.068 58.577
17.985 25.24 60.058
17.604 23.06 61.115
73.489 63.157 41.662
72.208 64.947 43.249
70.814 64.527 45.049
53.694 26.156 22.147
53.525 24.363 20.321
55.192 23.4 18.679
61.024 9.22 59.668
58.802 9.699 58.305
56.613 9.787 59.624
23.263 14.495 38.288
23.955 13.626 40.361
22.591 12.037 42.18
3.759 2.722 48.483
1.654 2.676 47.148
0.648 4.123 45.271
81.035 50.648 6.827
78.749 50.819 6.926
76.862 49.501 8.318
24.435 25.789 7.568
24.135 26.974 9.808
23.101 26.174 11.987
50.508 47.517 33.338
48.094 48.13 33.338
46.773 48.929 31.211
49.556 3.426 36.318
47.357 4.107 36.552
45.398 3.24 35.768
77.718 34.984 11.654
75.127 35.329 11.758
73.678 37.401 12.252
4.872 35.096 21.17
5.194 34.268 23.678
7.319 33.51 24.774
26.166 50.603 27.894
23.591 50.29 27.413
22.034 51.74 26.057
47.766 30.238 43.457
47.238 30.488 45.645
46.169 32.527 46.933
53.498 22.552 26.943
52.015 22.809 25.499
49.51 21.212 24.966
38.859 0.953 7.541
41.291 0.854 8.967
41.502 1.077 11.546
44.339 26.854 30.442
43.613 26.135 32.551
43.026 23.824 33.648
16.05 51.904 3.138
16.455 51.55 5.313
15.905 53.552 7.543
70.305 4.284 55.77
69.323 4.482 53.72
68.828 2.49 51.808
22.83 23.547 57.257
23.873 23.374 59.341
25.373 24.947 60.56
55.364 21.184 16.355
55.94 19.605 15.114
56.74 19.427 12.385
69.96 -0.97 25.909
70.132 -1.14 23.875
68.535 0.045 21.531
65.739 16.464 18.708
67.922 16.368 17.51
69.324 14.154 17.02
67.199 25.064 33.455
68.422 25.097 35.339
70.865 25.706 35.956
55.677 7.831 40.031
57.088 8.415 42.11
59.689 8.906 42.117
7.456 52.511 7.797
9.465 52.442 8.762
12.037 53.641 8.007
43.65 42.392 26.053
40.925 42.871 25.719
39.16 41.519 23.875
22.026 50.001 18.261
24.485 50.746 16.868
24.838 51.368 14.504
10.511 46.811 59.346
11.71 45.62 57.818
13.598 46.35 56.165
68.859 37.588 11.175
66.586 37.922 12.753
66.144 39.093 14.436
46.341 25.098 32.95
48.445 25.28 34.254
50.84 24.421 33.62
29.82 28.091 16.624
31.838 26.793 16.264
34.161 27.303 14.852
30.251 6.925 32.464
31.327 5.976 30.529
32.693 7.127 28.639
48.574 3.207 25.319
50.432 1.749 24.106
52.673 3.061 22.701
17.59 28.438 60.037
15.1 27.306 59.542
14.129 26.472 57.077
47.06 55.541 50.563
44.869 56.26 50.243
44.02 58.707 50.072
62.086 17.801 17.202
60.859 16.194 18.677
61.169 14.782 20.197
67.871 11.832 63.495
67.951 10.953 61.23
66.44 11.44 59.218
34.273 27.562 32.896
36.424 26.343 32.357
37.941 24.898 34.202
15.236 24.801 60.625
13.615 24.198 59.214
10.926 23.667 59.636
7.896 42.475 47.788
10.2 42.193 47.487
11.72 44.101 46.51
68.778 45.046 33.645
67.493 44.815 35.851
67.016 42.501 37.135
64.113 47.019 47.168
63.496 47.827 49.579
64.527 49.958 50.695
52.268 12.756 49.546
50.892 12.19 51.821
49.986 13.804 53.344
58.056 33.947 59.468
56.896 35.806 60.769
55.291 37.729 59.872
25.893 12.233 39.191
28.035 11.027 39.257
28.706 9.202 37.775
41.31 49.513 32.561
39.76 49.778 30.603
40.044 51.309 28.654
32.425 43.079 6.481
34.443 41.845 6.626
35.139 39.653 7.834
33.138 25.583 13.045
34.84 24.542 12.321
35.551 21.766 12.738
67.854 8.706 59.877
69.6 7.899 58.45
71.859 7.034 58.925
12.908 4.443 3.381
12.931 3.028 1.196
10.966 2.671 -0.495
65.288 45.308 39.439
64.948 46.653 37.535
64.522 49.352 37.374
73.043 41.692 43.592
75.257 42.472 44.076
76.731 44.55 42.96
70.165 42.501 39.188
68.197 43.786 39.214
68.33 46.678 39.759
68.701 38.805 22.3
67.47 39.224 20.224
66.288 41.848 19.52
66.541 25.586 29.034
64.207 23.975 29.218
61.865 24.626 28.663
74.283 3.807 45.675
76.39 3.932 46.725
77.63 5.236 48.246
5.295 52.878 11.516
7.217 52.316 10.632
7.965 49.929 9.417
68.083 29.023 55.828
68.931 28.605 58.17
68.89 26.724 59.632
46.899 44.437 28.503
44.673 44.38 27.596
42.235 43.818 28.627
4.071 37.914 30.644
5.136 38.615 32.464
6.831 40.461 33.093
60.667 10.584 0.871
61.431 11.514 2.977
62.602 13.573 3.688
47.087 44.582 25.646
48.188 44.085 23.498
49.344 41.956 22.718
69.285 17.601 19.971
71.323 17.682 21.32
72.849 19.354 22.003
40.062 45.31 24.827
38.752 44.196 23.059
38.335 45.107 20.62
9.158 53.187 19.777
6.595 52.269 19.626
4.914 53.615 18.198
33.379 24.923 1.418
32.341 24.469 3.308
31.834 25.585 5.565
59.565 53.114 57.373
57.24 53.379 58.214
54.993 51.993 57.192
8.194 12.902 8.299
10.027 11.278 7.739
12.358 11.513 7.267
67.932 43.606 49.095
66.701 45.466 50.737
64.379 45.748 51.396
28.457 57.438 46.326
28.171 56.148 44.25
29.026 56.425 41.764
26.099 3.376 4.162
23.804 4.007 3.053
23.148 6.055 1.885
72.138 16.519 26.276
71.059 17.026 24.217
69.949 15.559 22.43
8.312 25.019 53.836
6.905 26.73 54.908
5.517 29.03 53.8
37.631 5.289 25.904
35.737 5.991 27.267
35.333 8.087 28.607
75.012 44.019 35.169
76.744 44.28 33.355
76.967 46.478 31.781
2.092 18.659 33.619
3.762 19.511 35.337
5.039 18.501 37.0
73.267 14.932 21.325
73.654 15.156 18.997
74.242 13.345 17.236
70.929 38.479 25.57
71.952 36.703 24.218
73.788 37.001 22.224
41.976 30.319 40.799
40.896 29.344 39.184
39.418 27.481 38.76
45.251 20.726 18.142
43.142 21.207 16.909
40.471 21.123 17.877
63.557 27.151 49.697
63.867 26.661 47.102
63.766 24.092 46.109
33.202 10.577 36.033
35.358 9.52 35.102
37.69 10.487 34.761
66.972 24.548 42.146
68.48 23.305 43.768
70.093 21.205 43.476
27.561 1.284 1.548
29.878 -0.052 1.351
32.244 1.143 2.11
23.663 1.825 58.466
25.573 0.603 57.461
28.377 1.284 57.76
32.25 38.603 56.469
30.745 38.781 54.676
30.43 40.061 52.532
28.043 49.237 12.022
28.881 49.544 14.206
29.385 51.971 15.483
24.29 11.881 33.797
24.33 10.895 31.508
22.985 8.921 30.532
58.088 37.657 4.636
59.293 36.327 3.036
60.315 36.764 0.737
36.97 59.447 55.447
36.532 61.025 57.022
35.539 63.607 56.857
8.561 60.975 46.619
9.96 60.088 44.481
12.268 58.879 44.625
67.311 4.4 43.808
68.376 2.816 42.439
70.616 2.403 41.636
71.392 12.162 10.006
71.805 12.289 7.745
72.583 10.615 5.915
50.477 7.496 33.396
51.292 5.874 31.332
52.042 6.528 29.012
28.977 45.31 10.377
31.0 44.743 9.098
32.496 45.848 7.26
47.921 -2.55 6.727
47.659 -1.298 9.147
48.4 0.952 9.87
17.622 9.135 18.086
16.23 10.641 18.023
13.311 10.202 18.119
39.217 17.95 7.454
37.364 18.925 6.711
35.021 19.686 8.159
75.913 35.574 19.522
75.093 33.658 19.181
74.154 31.512 20.891
20.765 22.052 56.931
22.134 20.567 54.908
23.91 19.397 55.23
23.048 31.075 10.95
21.226 31.581 9.792
19.172 33.29 10.231
26.572 58.757 48.02
27.684 58.762 50.198
29.093 60.51 51.289
37.741 7.645 35.95
36.3 8.877 37.544
35.169 8.27 39.72
72.755 52.56 9.363
72.472 51.972 6.932
73.755 50.072 5.444
32.852 8.821 38.172
32.759 10.995 39.223
31.821 11.642 41.685
51.29 55.816 8.642
53.364 56.365 10.134
53.646 56.335 12.691
29.941 65.987 7.628
29.029 65.974 5.474
27.961 64.04 4.076
64.803 45.441 43.148
65.132 44.782 45.268
64.33 42.819 47.026
68.66 19.927 29.858
70.359 18.359 29.668
70.63 16.165 28.539
37.035 31.079 35.074
35.352 30.081 33.789
32.916 31.142 33.037
46.134 17.648 5.86
45.258 19.329 7.602
44.243 18.687 9.836
10.445 62.687 58.033
11.188 61.517 56.101
11.648 58.916 55.535
25.401 32.362 27.081
23.372 31.679 28.116
21.989 33.014 30.127
4.685 18.205 10.896
2.778 17.381 12.278
2.099 18.196 14.758
74.374 61.717 37.525
71.856 62.56 37.707
69.722 61.402 37.015
57.65 54.851 9.03
55.288 55.633 8.052
52.951 54.264 7.415
75.344 42.279 32.733
73.141 42.989 33.472
73.162 41.892 34.971
29.34 46.127 5.063
26.837 45.364 5.454
25.658 43.058 4.558
38.314 4.07 19.733
36.414 5.119 21.069
36.013 7.157 22.145
58.983 19.782 21.537
57.32 20.837 20.107
57.367 22.163 17.835
66.091 16.735 24.031
64.96 18.634 25.145
63.669 19.213 26.984
36.409 13.226 52.269
38.236 14.578 51.056
40.183 13.675 49.408
34.752 3.318 17.335
34.349 4.225 19.566
33.784 2.885 21.737
41.788 51.025 45.72
43.454 51.812 47.348
46.102 50.662 47.623
19.295 35.305 39.195
21.509 34.905 39.95
22.585 33.6 41.767
9.595 65.888 58.759
7.146 66.997 58.542
4.959 65.936 59.319
6.151 42.282 51.695
4.544 42.774 50.082
3.683 44.775 49.046
53.257 59.201 13.907
53.838 58.882 11.636
56.014 59.447 10.519
-1.816 57.924 11.088
0.106 56.542 10.064
1.45 56.932 7.875
53.636 19.217 9.73
51.481 20.106 10.202
50.599 21.871 10.897
23.049 11.592 18.508
21.648 12.741 20.189
20.041 14.822 19.95
36.026 55.836 47.828
38.392 55.363 47.513
40.094 53.774 48.336
13.653 26.188 7.423
11.58 25.758 5.56
11.035 23.356 4.605
14.225 53.567 9.784
12.382 54.265 10.937
11.851 56.351 11.902
50.686 18.806 12.643
48.283 19.672 12.045
46.027 18.228 11.779
28.055 53.246 39.942
26.509 55.257 40.66
25.603 57.192 39.154
36.056 16.187 51.642
33.888 14.911 50.469
33.161 15.034 47.905
57.686 8.594 45.082
59.911 7.728 46.073
61.776 8.785 47.223
46.754 22.817 17.383
47.718 21.254 15.474
48.988 21.913 13.415
44.142 58.668 52.719
42.058 58.31 52.152
39.614 59.656 52.87
72.561 29.695 1.948
71.398 31.71 2.769
69.716 32.262 4.438
12.375 35.13 31.972
10.39 36.129 32.87
8.719 38.117 31.645
61.107 56.763 5.871
59.231 57.057 4.831
57.561 55.144 3.699
25.989 7.496 34.43
27.535 6.8 32.685
28.486 4.494 31.834
47.116 47.042 39.91
46.539 47.838 37.233
46.62 46.677 35.394
60.019 58.08 11.345
57.604 58.103 12.629
56.404 56.0 13.457
47.332 36.505 5.506
46.473 36.868 3.031
46.187 35.338 1.115
18.539 35.131 34.743
20.177 33.501 36.434
22.342 34.15 37.374
14.471 21.651 46.328
14.281 22.82 48.176
13.254 24.848 48.88
70.15 12.816 61.215
70.353 11.063 59.649
72.037 10.869 57.468
54.288 16.575 10.753
55.394 16.786 13.005
54.093 16.913 15.482
31.495 6.503 20.728
32.849 6.0 18.325
34.911 7.038 17.542
23.202 28.225 20.109
25.68 27.206 19.962
27.603 28.063 18.912
40.122 2.939 24.615
42.212 3.947 25.469
43.705 5.614 24.108
39.821 57.484 54.254
39.454 58.876 56.348
38.978 58.167 58.663
2.892 46.005 61.327
3.86 45.325 59.587
4.555 42.624 58.796
2.489 14.907 24.404
4.051 13.217 23.275
5.469 11.48 24.104
41.193 57.938 -1.02
40.569 59.581 0.638
38.364 59.627 2.027
12.516 52.784 24.899
14.872 53.219 25.727
16.737 51.257 26.131
16.915 58.031 38.652
18.183 56.626 37.47
18.628 53.889 37.614
46.682 19.699 4.141
48.263 17.379 2.961
48.547 17.258 0.547
42.521 65.341 24.141
44.832 64.661 23.301
47.057 64.317 24.478
29.649 31.869 35.425
27.628 31.463 34.326
26.49 32.406 32.283
59.58 4.177 33.421
58.489 2.367 32.501
57.038 0.531 34.523
57.993 15.548 14.758
58.513 16.043 16.515
58.744 14.557 18.988
28.041 25.725 22.681
26.131 27.203 22.668
23.883 27.066 24.066
8.176 40.188 49.258
9.065 41.396 51.353
10.138 39.996 53.307
64.926 41.144 24.457
65.495 41.611 26.791
65.254 43.834 28.276
79.396 30.109 3.617
77.583 30.876 2.663
75.043 30.412 2.994
36.421 35.973 40.515
37.417 34.97 42.392
38.34 36.123 44.448
12.397 22.295 50.543
13.547 20.679 49.708
15.422 19.922 51.379
32.903 -1.315 60.726
30.94 0.059 60.441
30.693 2.243 59.203
7.658 9.951 5.986
6.395 10.056 4.271
5.175 7.674 2.781
45.971 61.029 12.538
45.324 61.084 14.844
45.802 59.002 16.916
76.103 13.948 11.032
76.555 14.082 8.435
77.497 11.463 7.264
42.464 5.252 31.299
42.072 4.668 29.205
41.085 5.757 27.156
32.77 53.092 44.223
35.278 53.297 44.875
36.772 51.99 46.026
38.913 50.28 45.555
38.578 49.996 43.106
39.816 48.286 41.541
50.377 58.717 14.098
50.306 60.716 15.565
50.186 61.022 18.319
-0.425 15.437 29.648
-0.091 16.688 31.569
0.327 16.014 34.199
50.622 4.272 27.629
49.573 5.019 29.388
48.067 3.45 31.519
50.873 28.069 35.162
48.538 28.006 34.717
46.722 29.992 35.077
9.883 59.305 37.742
10.118 58.879 35.168
8.877 57.516 33.515
20.056 6.113 11.784
19.674 8.054 10.212
20.789 8.993 8.186
13.819 35.985 35.303
15.409 33.72 34.373
17.209 33.163 35.922
14.307 -0.638 46.482
12.054 -0.793 45.29
11.342 -1.915 43.047
31.854 28.418 27.288
33.563 28.198 28.837
34.627 26.172 30.341
40.361 65.35 22.322
40.298 66.165 19.691
39.18 64.831 17.902
19.719 52.605 23.345
17.542 53.117 22.877
15.886 54.691 23.586
36.673 48.062 26.354
36.349 48.907 24.025
36.67 50.914 22.944
58.605 5.22 37.919
56.076 5.541 38.432
54.565 3.958 39.804
28.846 62.561 59.503
27.143 63.629 60.428
25.097 62.497 62.023
69.174 9.136 53.875
69.628 10.156 56.202
68.596 11.48 57.509
66.273 8.126 54.113
67.896 6.977 55.655
67.858 4.781 56.768
37.242 50.956 36.669
37.702 51.63 39.32
36.875 50.912 41.142
32.497 30.669 26.337
34.888 30.849 28.045
37.143 31.652 27.236
67.968 43.98 29.446
69.773 43.036 30.855
71.355 44.428 32.341
51.164 56.303 62.422
52.939 56.191 60.728
54.4 54.03 59.973
61.357 35.527 4.392
61.658 36.219 6.392
60.531 35.695 8.722
28.715 25.074 4.329
27.111 25.19 5.72
26.385 23.914 7.534
33.596 0.194 5.962
32.51 2.063 6.962
32.685 4.751 6.203
40.554 39.747 9.594
42.74 40.498 9.61
45.058 39.284 9.388
45.826 50.682 37.433
46.379 49.822 34.96
45.009 49.757 33.061
41.27 23.437 21.123
39.605 24.835 21.577
37.332 24.339 21.957
79.129 47.363 59.968
80.302 46.349 57.758
79.871 44.263 56.574
76.164 55.799 17.34
74.546 56.329 15.369
74.765 57.738 13.308
58.988 6.447 35.601
57.305 5.427 34.142
55.537 6.82 32.569
36.344 4.393 23.814
33.99 4.705 23.746
32.009 3.178 25.198
44.381 4.089 27.437
45.329 5.323 29.365
47.514 6.761 29.514
24.111 27.617 5.469
22.062 27.825 4.52
20.203 29.732 4.322
4.358 34.873 30.156
6.537 36.215 29.521
8.546 35.304 28.2
42.859 40.268 12.513
43.316 41.602 14.946
42.286 41.57 16.887
24.38 48.932 25.166
26.4 47.312 24.86
26.295 44.69 23.939
60.301 63.042 27.31
58.702 63.49 25.463
57.166 61.42 24.041
2.484 39.701 39.194
4.586 39.88 39.389
6.524 37.926 39.946
14.062 16.177 34.259
14.785 15.876 36.3
16.052 17.63 38.07
29.212 48.353 23.937
27.226 47.284 22.148
28.206 46.508 19.743
75.466 18.689 30.044
75.957 18.398 32.532
76.825 20.091 34.417
53.899 8.658 42.012
51.695 8.018 41.387
49.93 9.064 39.851
74.97 65.301 48.922
76.736 65.249 47.731
77.488 62.95 45.824
3.601 9.917 3.504
1.081 9.628 2.289
-1.016 9.392 3.308
42.054 43.553 20.927
40.267 43.571 19.597
38.454 41.531 18.909
22.723 13.638 23.983
24.187 12.079 23.683
26.414 11.741 21.903
74.744 44.783 47.516
73.606 45.462 49.643
75.047 46.436 51.8
7.939 61.426 52.455
9.873 60.559 50.683
11.975 59.086 51.316
38.003 40.974 -1.516
35.845 41.833 -1.003
34.947 44.274 -0.568
20.022 53.475 15.65
18.112 52.548 16.614
16.541 53.347 18.695
70.801 34.437 9.56
71.116 36.22 10.901
71.939 38.762 10.644
72.426 5.8 38.723
72.751 5.181 36.317
72.769 6.528 34.271
28.061 49.215 18.14
29.369 49.922 20.09
31.347 51.307 20.345
58.35 18.584 15.013
59.164 18.365 13.039
61.407 19.066 12.017
10.327 -1.088 47.457
11.617 -2.51 48.79
13.27 -2.121 50.75
53.091 4.823 33.072
54.873 4.435 34.927
55.797 2.344 35.632
4.939 60.344 41.25
5.294 61.596 43.466
6.021 60.539 45.902
62.457 62.403 28.981
62.054 63.852 30.776
61.084 63.539 33.311
13.572 57.026 55.698
15.127 57.772 54.098
15.903 56.823 51.93
7.295 15.753 10.794
4.857 15.7 10.063
3.833 16.182 7.682
4.153 26.566 58.37
3.329 28.688 60.043
2.837 31.118 59.236
47.063 40.455 10.89
46.922 42.239 12.419
48.062 44.639 12.325
65.323 2.318 33.315
64.559 0.457 31.433
64.758 0.618 29.029
70.333 61.44 20.539
71.335 60.273 18.487
73.36 60.549 17.293
20.09 59.886 48.5
21.344 59.457 46.486
23.97 59.637 45.968
51.523 6.026 39.15
48.972 5.585 38.85
47.479 3.613 39.24
8.496 52.416 3.59
10.593 51.246 4.138
13.191 52.185 2.935
37.463 51.807 29.519
38.06 51.839 31.795
37.543 54.068 33.59
-0.352 57.033 21.96
0.776 57.445 23.799
3.367 57.554 24.27
40.479 43.611 17.058
38.609 42.472 16.174
36.057 43.445 15.841
32.007 32.282 37.938
34.33 32.752 38.398
35.92 34.786 37.464
52.81 55.893 5.215
53.036 56.224 2.765
54.499 57.833 1.428
24.575 26.24 15.686
23.027 27.796 16.43
20.641 27.665 17.552
8.659 -2.527 35.164
10.558 -2.586 33.869
12.316 -0.42 33.066
67.511 48.361 54.754
68.249 49.624 56.491
68.647 52.34 56.447
-1.765 35.338 6.895
0.024 35.379 8.824
2.497 36.464 8.3
7.513 50.652 5.87
5.186 50.271 5.379
3.961 48.19 4.943
38.249 54.279 45.122
39.334 52.615 43.365
39.281 52.582 41.187
63.576 58.876 8.106
65.066 59.942 9.605
66.267 58.794 11.732
58.471 9.864 53.893
60.173 9.136 52.61
60.875 9.818 50.037
0.421 18.727 24.256
1.928 16.918 22.864
4.397 17.044 22.315
40.08 17.724 55.418
39.561 16.147 57.173
37.335 15.081 57.546
2.875 63.618 48.636
3.851 62.541 46.729
2.607 61.562 44.306
20.81 4.533 3.129
20.037 5.5 4.971
19.94 4.702 7.584
0.309 35.623 18.738
0.769 35.645 16.555
0.707 37.708 15.012
49.39 54.439 58.607
50.104 54.098 56.174
50.815 52.069 54.727
12.413 41.751 54.642
13.881 41.745 52.799
15.511 39.931 51.71
47.977 9.152 41.739
49.608 8.375 43.511
48.793 7.14 45.741
44.471 54.46 52.928
42.246 55.881 53.22
40.061 55.588 52.036
26.892 51.948 17.245
26.223 51.276 19.447
26.072 52.534 21.561
17.0 10.526 7.262
14.896 9.454 6.281
13.58 10.111 4.321
35.84 43.487 8.468
33.506 44.234 9.702
32.969 45.81 11.014
-0.87 58.359 35.852
1.189 58.454 34.437
1.997 60.358 32.874
18.742 30.803 14.87
19.751 30.008 16.652
21.793 30.297 17.576
23.877 -1.878 51.903
23.708 -0.637 54.371
25.149 1.643 54.995
6.412 64.956 54.334
4.035 65.709 54.559
2.099 64.506 55.332
60.861 48.04 50.286
60.872 49.025 48.648
59.626 48.235 45.99
67.699 16.371 9.159
65.539 16.779 9.506
64.259 18.92 10.663
3.166 12.22 6.322
3.004 13.643 7.76
3.481 13.181 10.708
73.649 19.142 36.998
75.368 18.124 35.945
75.547 16.018 34.441
10.511 11.047 18.659
8.014 11.265 18.706
5.984 10.179 17.56
16.712 22.851 51.367
16.27 21.569 49.43
17.169 21.265 47.06
48.963 39.953 4.83
46.937 39.067 5.105
44.895 39.867 6.632
35.464 52.837 34.895
33.255 52.501 33.96
30.807 53.075 34.806
41.12 5.006 33.761
38.853 5.293 32.768
36.541 4.658 33.461
77.348 66.91 50.035
76.553 65.597 52.045
77.468 64.122 53.79
29.0 35.045 44.483
30.515 34.632 46.39
31.054 36.459 48.198
4.938 40.485 53.301
4.575 41.734 55.313
2.681 41.603 57.151
4.197 25.043 55.018
2.603 24.637 53.336
1.689 22.328 52.128
7.029 42.401 43.425
5.334 41.399 41.405
2.949 42.0 41.089
18.136 21.337 53.131
18.381 21.785 55.576
17.881 24.776 56.557
69.258 41.319 42.908
67.385 42.154 44.028
66.738 42.064 46.527
65.646 61.409 15.926
67.584 60.631 16.403
70.147 61.858 16.642
54.53 63.474 22.706
56.11 62.005 21.129
55.842 60.566 19.507
76.008 43.179 51.791
73.608 43.438 51.698
72.078 44.028 54.1
35.462 14.255 44.101
36.324 12.978 42.095
35.346 12.269 40.099
11.369 57.144 31.732
10.726 56.813 29.1
9.547 55.086 28.016
42.08 32.442 46.739
43.702 31.296 45.447
44.809 29.196 45.663
50.274 45.827 31.201
51.793 44.134 29.745
51.151 42.837 27.691
33.487 32.433 45.221
33.278 34.509 46.25
33.276 35.182 48.713
65.349 4.006 35.356
62.937 4.176 35.464
61.225 6.057 34.411
25.657 17.776 50.162
23.7 16.745 49.52
22.087 17.462 47.448
54.475 22.481 31.394
55.328 23.372 33.245
56.672 21.759 35.045
37.725 61.929 6.552
38.878 61.998 8.756
38.088 61.074 10.992
27.191 5.839 29.389
29.757 5.469 28.57
30.935 3.099 27.834
56.518 8.338 52.368
55.085 8.611 54.149
53.815 7.121 55.86
9.812 17.445 40.587
10.958 16.381 39.08
12.24 13.89 39.033
11.164 42.613 50.04
13.205 41.184 50.04
15.737 41.76 49.301
44.216 43.067 12.747
42.115 42.797 11.668
39.967 44.234 11.477
3.908 31.194 0.353
5.591 29.34 0.131
8.166 29.262 0.47
46.529 15.821 59.46
45.98 13.897 57.78
45.662 11.632 57.951
17.589 30.813 10.545
16.053 31.606 12.608
13.511 32.416 12.506
74.756 27.82 57.481
72.963 28.172 55.555
71.763 26.606 53.97
78.203 51.971 60.714
76.178 50.606 60.104
75.158 50.231 57.586
68.042 6.154 51.363
69.818 4.742 50.292
71.986 5.009 49.656
44.282 20.539 13.236
45.259 20.342 15.283
45.385 18.182 17.175
35.306 56.622 55.886
35.609 57.841 53.953
33.781 58.217 52.231
45.734 38.984 57.498
44.036 39.069 58.99
42.0 40.68 58.935
40.489 6.901 35.739
41.563 8.322 37.677
42.064 10.67 37.865
50.66 31.397 49.932
52.096 30.838 48.158
53.12 31.908 46.257
49.826 59.501 11.724
48.605 61.81 12.222
49.475 64.074 12.445
-1.226 42.985 46.763
-0.673 43.602 49.305
1.189 42.185 50.883
37.315 21.186 5.773
39.964 21.088 5.211
41.336 22.699 3.88
43.428 25.072 21.518
44.988 26.958 21.209
47.265 26.923 20.83
62.938 27.094 38.327
64.23 25.908 36.658
64.685 25.881 34.447
60.74 54.374 59.428
63.003 53.081 59.04
64.801 53.48 57.078
71.338 57.005 10.987
72.105 56.758 13.287
72.464 54.571 14.849
18.633 42.122 53.374
16.228 42.918 53.647
15.201 44.994 53.135
35.024 2.517 8.269
33.676 2.848 10.017
34.078 3.525 12.536
6.404 48.06 62.152
4.572 49.448 62.507
3.241 50.799 60.919
38.014 19.331 2.199
39.954 19.212 3.37
40.683 17.623 5.272
43.664 31.766 42.303
42.252 33.045 43.526
41.094 35.436 43.03
-1.277 19.055 43.791
1.29 19.459 43.577
3.154 18.05 43.824
13.044 39.81 47.54
15.435 39.505 47.862
16.864 37.492 48.554
52.263 27.37 39.325
50.371 27.847 40.976
48.92 29.722 41.167
61.171 65.129 24.745
63.061 66.213 23.792
65.932 65.299 24.139
64.828 37.912 10.558
66.777 37.151 9.411
67.795 37.8 7.368
73.775 46.693 57.745
71.356 47.242 58.382
69.814 45.964 60.078
62.916 47.397 42.792
61.128 48.548 43.23
60.244 50.94 43.478
65.372 10.457 55.865
63.497 9.095 55.032
61.113 9.586 55.163
0.899 20.463 40.843
-1.345 21.237 41.353
-2.648 23.342 40.788
8.665 36.0 25.02
7.267 36.737 26.298
6.56 39.316 27.142
71.44 33.797 6.007
73.089 32.529 4.81
75.38 33.311 3.376
49.857 21.45 21.036
48.683 22.91 23.03
46.157 23.085 23.76
58.254 62.602 19.7
60.437 62.121 21.155
61.081 59.655 21.841
66.022 30.21 56.839
67.019 30.179 58.972
67.685 32.26 60.606
62.512 61.028 12.505
64.893 60.881 13.227
66.95 62.187 12.589
8.354 14.792 27.863
10.419 14.381 25.969
11.68 11.936 25.651
46.097 33.866 -2.668
45.003 35.713 -2.163
42.78 36.385 -0.633
26.962 37.199 49.639
29.285 38.126 49.979
31.206 37.472 51.589
29.279 25.931 6.874
28.314 25.806 9.033
26.673 27.331 10.194
71.665 22.384 37.597
69.579 23.089 36.453
67.706 21.57 34.979
0.36 14.984 11.224
1.077 15.115 9.096
1.564 17.265 7.313
20.715 43.996 57.742
20.935 42.087 56.004
19.265 40.311 55.436
37.879 27.291 22.801
35.362 26.666 21.655
33.726 28.127 20.456
35.822 19.614 61.641
35.346 21.283 63.038
36.183 23.933 63.239
42.717 21.173 63.651
41.442 19.761 61.529
41.454 20.867 59.015
43.822 2.346 8.058
45.191 0.601 6.943
45.325 -0.024 4.35
74.525 59.512 27.915
73.038 59.556 25.733
70.667 60.338 25.503
55.067 25.159 39.04
55.922 25.994 41.153
56.152 24.797 43.312
13.718 31.24 32.157
13.096 32.077 34.281
10.743 32.379 35.371
41.001 57.929 49.635
41.402 55.839 49.004
42.293 54.86 46.204
66.896 44.834 31.847
65.511 45.633 33.879
64.582 47.634 34.446
29.853 18.454 55.03
31.247 17.004 55.57
31.313 15.149 57.587
14.933 9.113 13.28
17.269 9.227 14.28
18.546 7.508 15.889
46.718 56.595 -0.973
47.125 58.175 0.928
46.609 57.826 3.428
19.597 57.604 44.096
21.243 56.742 45.165
21.672 54.807 46.667
29.112 5.107 23.923
30.951 4.336 22.375
31.112 2.991 20.688
32.582 51.397 38.048
30.816 50.866 36.434
28.248 50.006 36.739
59.187 59.96 16.233
56.868 59.6 14.982
55.145 57.872 15.283
2.428 50.416 3.859
4.48 51.527 2.968
4.484 53.479 1.018
16.77 28.573 12.199
15.287 29.336 14.281
14.719 27.532 16.634
31.515 18.879 59.443
33.166 17.87 57.896
35.814 17.167 58.409
36.004 42.03 19.682
36.064 43.816 21.446
36.038 43.736 23.861
69.703 30.8 54.372
69.819 29.259 52.315
69.699 29.852 49.662
71.603 16.906 32.894
74.091 16.389 32.365
75.001 16.017 29.656
60.214 18.469 9.74
62.048 17.347 8.783
63.77 17.996 6.948
19.385 7.098 3.065
18.502 8.336 4.698
19.516 10.147 6.237
56.14 36.99 6.192
53.85 37.789 5.408
51.657 36.166 4.941
35.823 36.124 46.115
35.104 35.265 43.81
34.13 36.693 41.718
36.587 4.649 29.649
34.854 5.302 31.364
32.598 4.061 31.853
43.952 61.351 17.951
44.26 63.298 19.673
42.543 63.841 21.844
73.499 9.133 59.173
75.354 10.402 60.21
77.802 9.82 60.091
64.467 4.566 39.909
67.1 3.368 40.167
69.237 4.378 39.181
7.068 12.876 5.626
4.975 12.278 4.341
3.746 12.963 2.473
2.806 32.025 4.393
0.964 33.359 5.397
-0.724 34.756 4.339
0.705 13.286 5.962
1.143 13.458 3.52
1.029 15.49 1.947
37.254 49.48 32.807
35.608 50.717 33.009
33.133 49.854 33.992
50.711 59.629 4.01
47.966 59.958 4.423
46.634 61.941 2.893
2.162 35.266 21.062
1.379 36.375 23.423
0.629 35.369 25.764
51.145 57.87 5.781
50.886 58.905 7.802
48.507 59.364 9.215
58.1 29.339 52.709
59.469 28.693 50.52
60.214 30.056 48.648
70.659 46.888 37.59
68.103 47.035 37.223
66.807 48.219 35.862
68.63 17.986 24.758
70.509 18.904 26.482
71.725 21.246 26.287
49.322 14.446 56.713
51.429 14.006 57.152
53.625 15.78 56.985
28.257 9.11 34.575
29.217 10.947 35.71
31.153 12.422 35.39
25.403 15.362 43.763
24.3 16.32 41.736
25.224 17.455 39.635
24.9 38.572 54.01
26.141 39.207 55.212
28.144 38.429 56.675
62.219 32.033 57.941
59.864 30.928 57.63
57.953 31.698 55.937
27.816 42.809 58.47
29.093 41.699 60.422
29.937 39.633 60.885
19.372 31.895 30.116
19.997 32.392 32.684
19.452 30.963 34.581
57.368 38.395 20.332
58.718 39.362 21.535
60.638 38.406 23.548
21.817 53.155 29.338
20.19 53.282 27.601
18.466 55.069 27.143
53.236 40.542 10.704
51.402 42.178 10.856
50.821 43.638 13.05
61.001 19.613 26.222
61.818 21.67 27.205
61.331 24.095 26.125
70.519 42.859 51.554
70.46 44.514 49.514
71.546 44.142 47.402
8.98 12.393 14.93
8.237 13.787 12.728
7.005 13.23 10.749
62.448 15.747 11.002
62.98 16.887 12.807
63.069 16.406 15.198
1.962 53.557 7.053
2.603 55.006 9.299
4.806 55.23 10.295
46.266 28.342 32.848
46.839 27.174 31.024
48.235 28.303 28.67
55.254 64.475 32.173
57.588 63.745 31.863
58.822 63.173 29.593
35.045 42.267 13.669
33.331 44.435 13.298
30.826 44.307 12.661
28.875 29.078 25.937
26.978 29.015 24.577
25.887 30.712 23.018
51.781 47.577 29.695
53.452 46.062 30.263
56.392 46.762 30.622
75.44 58.776 21.049
75.885 56.231 20.052
74.42 54.303 19.554
9.526 -0.882 54.624
9.567 0.064 52.705
10.786 2.277 51.686
13.383 51.607 11.406
11.842 51.887 13.05
9.401 51.459 13.33
12.692 44.241 54.545
10.435 45.106 55.094
8.148 45.069 53.61
75.477 17.667 23.055
74.496 17.617 20.905
75.311 17.215 18.585
67.672 30.812 1.809
65.467 31.544 0.562
63.34 32.552 1.63
44.108 67.453 32.851
45.488 67.034 30.757
44.883 65.424 28.587
50.052 45.264 17.794
47.857 45.352 16.824
46.906 46.31 14.588
55.284 31.272 47.842
56.488 29.477 46.716
58.35 29.959 44.514
21.399 10.879 24.205
21.114 10.715 26.534
20.714 8.581 28.128
14.301 24.203 55.353
15.791 23.597 57.575
16.262 21.518 58.849
80.253 57.265 31.909
78.407 58.996 31.326
76.137 58.79 30.782
44.029 47.149 38.114
44.703 48.547 39.635
44.44 48.598 42.289
5.211 34.037 17.085
6.492 32.425 16.144
7.203 30.032 16.682
24.703 43.625 58.449
22.768 44.553 59.85
22.873 46.907 60.885
74.726 37.008 16.868
72.491 36.901 17.12
70.564 38.963 17.426
76.36 5.926 56.456
78.67 5.025 55.915
79.796 2.843 56.823
60.089 52.539 -0.34
60.545 53.232 1.828
62.563 53.149 3.357
6.876 0.318 48.571
5.275 1.014 46.877
5.461 1.454 44.307
39.482 40.699 1.957
41.386 40.312 1.477
43.107 41.834 -0.277
72.355 34.727 18.667
71.934 35.611 21.15
69.893 36.355 22.245
42.581 47.342 31.478
43.251 47.902 33.411
43.667 46.333 35.714
19.378 47.396 5.655
18.655 49.488 6.346
19.473 51.56 6.848
41.293 38.274 3.719
42.425 38.382 6.005
44.542 36.984 6.897
56.981 5.935 42.562
55.149 7.403 43.971
53.073 6.672 45.091
17.235 51.567 9.058
18.123 49.284 9.1
16.904 47.192 8.672
42.432 58.803 56.486
44.235 57.745 55.254
45.231 55.694 55.129
19.355 60.425 43.282
18.507 60.106 45.721
18.398 61.753 47.833
41.132 27.017 22.125
40.145 26.515 24.455
40.16 27.913 26.629
36.493 60.672 61.682
36.931 59.831 59.627
35.149 58.576 58.031
1.652 16.706 28.963
2.546 17.362 30.751
3.33 19.972 31.278
30.146 6.037 10.695
32.165 5.206 9.625
34.045 6.472 8.623
67.192 59.226 7.706
67.268 56.834 7.056
69.015 55.573 5.771
50.324 13.218 43.052
48.837 12.204 44.852
48.231 13.188 46.99
14.298 54.929 14.63
11.999 54.658 14.4
10.005 54.048 16.367
19.041 57.527 52.72
20.133 57.889 50.896
21.545 56.377 49.051
68.048 60.613 19.003
66.148 61.273 20.866
63.728 59.931 21.003
39.326 27.83 30.176
37.042 28.442 30.201
35.738 30.455 30.645
21.209 45.792 3.76
22.671 45.483 6.066
23.793 43.634 6.759
24.621 23.013 55.16
25.973 21.308 55.855
27.407 20.017 54.116
32.757 27.046 25.116
32.598 26.715 22.967
31.633 25.041 21.444
22.9 54.533 36.327
21.413 54.681 38.09
20.388 56.652 39.269
61.141 56.233 62.915
58.831 55.5 62.687
56.686 56.959 61.543
50.359 33.401 57.684
49.718 32.381 55.518
47.18 31.163 55.022
33.869 46.756 17.932
33.254 47.222 20.557
33.507 49.895 21.47
63.551 27.746 55.489
62.379 27.938 53.318
62.637 29.091 51.238
25.498 34.659 42.375
28.321 34.02 42.288
29.794 34.49 40.494
57.086 11.657 57.399
54.859 12.885 56.875
53.581 13.316 54.686
32.027 34.989 41.417
33.974 33.841 40.738
34.582 31.284 41.004
61.216 38.234 11.712
62.583 36.405 10.304
63.539 34.373 10.975
44.907 27.95 35.464
46.806 27.01 36.436
47.563 24.67 36.876
14.514 -3.907 52.522
14.063 -3.72 55.122
14.093 -1.353 56.397
46.634 10.826 44.132
44.508 11.718 45.101
42.709 13.122 44.36
27.822 5.663 9.244
29.379 4.846 7.996
30.002 4.705 5.438
71.959 60.15 22.276
69.91 60.107 23.087
68.175 58.157 23.661
51.917 43.487 24.789
53.115 44.958 26.56
55.169 46.416 25.991
54.496 52.508 54.071
52.394 52.395 52.481
51.987 51.26 50.394
55.315 4.186 26.621
53.107 4.886 26.971
51.631 6.625 25.275
45.959 47.217 29.157
43.372 47.144 28.61
41.829 48.565 27.197
17.886 60.811 -2.933
15.597 61.376 -3.145
13.962 62.243 -1.928
7.92 18.929 39.324
8.033 18.324 36.868
9.042 19.26 34.721
61.803 15.72 6.666
63.665 14.612 6.126
64.784 12.178 6.685
29.386 25.292 13.002
27.508 25.886 12.407
25.212 24.839 13.333
38.171 2.633 26.486
38.715 4.006 28.219
39.76 3.672 30.663
49.029 23.007 19.057
50.335 22.099 17.523
51.841 23.031 15.474
77.331 17.453 14.586
77.153 16.078 16.769
76.953 13.562 17.313
35.109 50.625 30.157
33.191 49.548 29.268
32.615 46.808 29.206
39.437 36.79 55.539
37.152 37.699 56.117
35.786 39.613 54.752
34.068 55.936 44.272
34.95 57.488 46.02
37.387 58.124 46.595
60.196 15.867 9.895
59.171 15.871 11.786
56.538 14.377 12.183
25.947 37.934 47.203
26.748 36.525 45.453
26.45 34.031 44.906
39.424 46.957 27.347
38.551 47.952 29.102
38.276 47.281 31.921
6.114 5.539 -1.24
3.88 6.145 -1.709
1.626 5.109 -0.768
41.389 26.16 37.392
41.494 25.132 35.402
40.523 22.966 34.625
61.407 58.037 3.326
63.276 57.7 4.419
64.803 59.632 5.984
7.233 55.06 25.441
7.178 56.057 27.645
7.506 58.532 28.118
24.842 9.76 22.628
25.565 9.503 20.213
24.472 8.016 18.391
10.594 35.916 26.954
10.897 34.389 25.186
12.329 32.356 24.853
26.814 12.63 34.495
26.748 13.351 36.717
25.608 15.389 37.923
44.978 5.942 34.686
47.329 6.373 33.57
48.163 7.797 32.048
57.514 39.425 12.321
55.015 39.121 12.335
53.703 37.789 10.53
24.355 11.03 26.373
22.979 10.986 28.238
22.913 12.871 30.41
68.505 59.1 10.304
68.567 59.855 12.829
70.746 61.048 14.223
33.549 44.508 20.751
34.095 43.812 18.506
32.504 43.036 16.538
18.402 37.825 52.836
20.261 38.843 53.431
22.404 38.045 54.611
26.94 48.848 32.068
25.062 50.212 31.104
22.888 49.599 29.983
69.776 46.092 56.237
69.784 45.73 53.672
68.28 43.884 52.435
19.545 8.339 13.168
20.857 8.421 14.946
22.182 10.408 16.089
48.387 38.544 2.572
50.875 36.796 2.457
53.23 37.834 2.785
66.202 22.72 45.47
67.688 22.464 47.568
66.941 21.572 49.788
20.778 16.981 45.101
18.194 17.012 45.143
16.418 19.1 44.648
80.454 52.768 20.33
79.786 54.242 18.717
78.136 54.15 16.598
47.712 51.646 39.176
49.895 50.748 38.498
52.218 51.717 37.377
23.664 48.158 6.321
25.858 47.945 5.165
28.347 48.636 5.995
63.694 23.213 35.19
66.049 23.147 36.125
66.855 22.62 38.568
54.067 32.582 57.555
55.601 30.712 56.847
55.296 28.365 56.173
73.382 23.008 46.777
70.922 22.955 46.44
69.397 20.91 46.222
56.852 7.851 47.51
59.509 8.16 48.621
59.973 6.883 50.781
7.615 14.914 16.725
6.728 15.14 14.746
6.468 17.188 13.102
40.63 9.317 40.14
38.306 10.069 39.542
37.508 12.188 38.574
60.606 25.421 38.695
58.008 24.957 38.398
56.811 22.667 38.611
45.246 61.303 5.466
43.554 60.994 3.769
42.584 58.507 2.517
63.961 24.281 31.916
66.243 23.296 31.633
67.119 20.702 32.147
49.584 52.349 50.202
48.618 53.503 52.221
46.73 53.111 53.676
2.701 28.428 2.026
0.514 27.335 1.524
-0.084 25.166 0.539
70.877 29.605 60.063
71.42 29.536 57.655
71.858 30.934 55.82
67.994 27.644 51.119
66.108 26.393 50.207
65.389 24.113 50.5
54.635 17.215 1.323
54.01 17.718 3.699
52.976 19.784 4.759
25.938 17.962 53.691
23.426 17.612 53.169
22.45 15.667 52.175
34.395 19.987 5.33
35.248 18.99 3.37
34.579 17.229 1.614
66.914 14.198 10.869
68.484 13.04 9.451
68.677 10.561 8.755
38.784 42.042 7.402
40.303 42.682 9.156
42.995 43.253 8.874
4.173 24.558 51.092
2.134 23.38 49.674
1.575 24.12 47.25
48.474 59.273 59.811
49.904 58.637 62.337
52.12 59.656 62.998
39.777 21.271 9.788
40.483 20.217 7.727
42.94 20.402 6.394
7.578 35.848 32.646
7.47 37.673 34.595
6.523 37.408 36.739
66.874 14.889 13.512
69.213 15.803 14.156
71.278 14.587 13.788
18.096 15.522 38.316
17.281 14.779 36.179
17.678 12.732 34.695
21.992 49.356 12.216
19.473 49.605 11.24
18.16 51.756 11.593
65.12 9.16 58.324
63.926 9.127 60.467
63.357 7.287 62.163
53.635 66.418 28.01
55.078 64.665 27.805
55.57 63.13 25.621
77.383 28.603 59.615
79.107 29.295 61.127
79.453 31.681 62.38
50.341 37.426 6.89
49.775 39.399 8.413
49.539 39.641 10.818
23.093 58.224 51.548
25.4 59.695 51.851
26.907 59.61 54.058
24.4 60.567 55.263
25.057 61.658 57.733
23.628 61.9 59.646
57.451 48.055 42.207
59.436 48.502 41.107
61.43 46.664 40.59
3.178 64.067 42.927
1.94 62.356 41.634
1.705 61.879 39.074
65.704 35.436 12.292
66.368 34.667 10.395
68.352 33.268 9.472
47.207 34.992 55.509
45.567 36.251 56.715
43.099 36.632 56.336
11.438 17.607 34.43
9.695 16.475 32.906
8.397 14.323 33.249
13.358 9.697 8.921
11.141 10.687 10.091
10.025 9.286 12.359
27.531 66.115 16.363
29.626 67.248 17.498
32.288 66.111 17.075
35.278 53.233 42.136
33.094 52.507 40.935
31.75 53.904 39.004
54.336 58.491 8.559
52.878 60.273 9.159
51.801 62.357 8.134
21.652 47.843 16.564
20.273 48.131 14.279
18.101 47.524 13.407
12.942 38.041 33.563
11.123 37.786 35.076
9.933 39.484 36.678
19.052 34.305 48.165
21.129 34.69 47.668
23.222 35.65 49.183
36.922 32.69 41.226
39.258 32.884 41.349
41.172 32.555 39.547
29.757 25.164 15.843
27.576 25.571 15.965
25.829 25.355 18.091
34.119 37.062 51.642
35.432 36.66 49.988
36.927 37.955 48.051
39.131 2.338 14.384
37.682 2.774 16.377
37.174 4.931 17.425
73.097 57.874 17.183
71.296 58.637 15.197
68.875 58.485 15.143
20.607 16.037 39.767
22.417 16.908 39.493
23.544 19.491 39.482
15.329 12.342 19.974
13.884 11.218 21.589
12.084 11.984 22.985
40.892 49.187 35.155
41.316 48.445 37.258
40.2 46.904 38.901
43.883 51.279 40.576
41.134 50.625 40.319
39.732 50.627 37.931
57.349 57.126 6.79
59.29 56.895 8.007
61.111 58.569 9.02
56.426 19.185 17.995
57.366 17.337 19.397
56.498 15.212 20.149
10.53 13.511 31.456
12.013 12.377 30.742
12.608 9.39 30.934
77.858 39.709 32.692
78.108 39.153 30.541
77.64 36.96 29.307
22.417 33.057 33.044
24.002 31.557 31.962
25.157 29.208 32.907
24.957 44.786 9.106
27.282 44.792 8.294
29.049 43.17 8.217
74.362 4.316 50.895
73.919 5.295 52.962
74.433 4.48 55.423
27.078 44.298 63.045
26.761 44.416 60.457
27.727 46.182 58.514
68.938 52.682 5.145
70.248 51.176 3.083
71.611 51.677 1.477
62.613 43.643 31.922
60.849 42.682 30.578
59.381 43.845 28.433
62.688 39.742 21.708
61.585 40.589 19.61
62.125 42.238 17.982
62.542 40.208 25.082
61.038 41.768 26.571
59.425 41.14 28.168
58.934 23.463 27.37
59.673 23.768 30.287
57.939 24.154 32.116
59.14 25.935 43.824
59.097 27.996 45.717
58.419 27.667 48.101
56.069 55.317 56.769
54.045 54.748 56.001
51.639 56.265 55.834
12.634 6.839 2.861
10.21 8.104 3.361
8.772 9.458 1.851
28.303 5.801 13.809
26.66 4.911 12.122
24.466 6.507 11.051
57.489 27.866 57.669
58.813 28.598 55.6
59.817 27.576 53.795
70.192 15.498 9.541
71.917 14.675 11.286
73.961 16.004 11.847
41.004 10.42 45.9
42.659 9.712 44.78
44.743 8.107 44.996
4.539 13.19 20.322
6.343 11.732 21.123
6.375 9.47 22.137
24.834 9.736 16.577
26.282 8.628 15.563
28.366 9.456 14.167
39.274 19.529 57.235
36.77 19.805 57.243
35.227 21.528 57.286
44.945 27.586 23.89
47.078 26.711 25.448
48.892 28.014 26.12
55.821 52.956 49.602
53.825 51.991 48.313
51.875 53.387 47.123
44.441 8.042 42.315
42.067 8.612 42.226
39.877 6.817 42.29
48.052 56.637 57.92
47.637 55.601 56.001
48.364 56.276 53.253
10.969 51.043 21.871
8.833 51.938 22.322
7.335 52.319 24.361
-3.014 53.582 9.97
-1.193 52.085 9.13
1.25 52.095 9.993
67.46 22.61 29.489
65.486 21.758 28.773
64.265 21.533 26.124
76.287 50.98 5.192
76.31 53.056 6.803
77.736 55.475 6.127
56.651 13.66 6.546
54.457 15.048 6.603
52.73 15.165 8.533
52.755 16.52 -0.541
51.79 16.814 0.959
50.187 15.253 2.76
63.112 40.217 16.563
63.342 38.866 14.539
63.568 39.93 11.864
1.527 22.127 44.222
3.061 22.225 46.177
5.391 23.323 46.6
78.119 8.004 0.562
75.762 9.056 1.093
73.33 7.626 1.101
12.218 30.279 13.411
9.779 30.095 13.51
8.276 28.637 14.338
21.638 24.566 0.58
24.197 24.557 1.302
25.282 23.057 3.079
1.906 38.116 37.098
1.235 38.463 34.483
2.073 37.414 32.409
30.241 52.797 41.163
30.434 54.333 42.902
29.403 53.914 45.622
71.299 40.894 29.384
68.963 40.887 28.285
68.222 41.844 25.716
27.522 52.658 36.0
28.786 51.528 34.077
28.038 51.65 31.786
40.117 62.614 62.133
38.464 61.965 59.924
38.921 61.596 57.794
12.876 49.085 63.515
13.767 47.946 61.383
15.486 49.142 59.517
18.044 11.948 14.145
18.589 11.68 16.635
18.201 13.612 18.627
12.576 0.384 57.779
13.31 1.222 59.884
14.557 3.347 60.693
5.608 21.016 48.157
4.662 19.887 46.159
2.887 17.802 46.541
55.243 54.581 63.616
56.721 54.134 61.788
57.632 52.297 60.576
11.292 55.088 25.575
12.86 55.957 27.618
14.74 57.536 27.721
3.354 40.496 33.946
5.162 39.722 35.303
6.336 40.824 37.426
52.553 -1.397 18.002
54.598 -2.456 17.214
56.317 -1.603 15.775
13.581 10.798 14.745
11.447 11.196 13.756
10.787 12.854 11.79
2.281 27.053 55.347
-0.032 27.411 54.705
-1.137 28.633 52.752
77.068 -2.435 31.76
75.67 -2.64 29.752
75.673 -1.212 27.404
72.128 35.771 13.344
70.717 37.202 14.567
68.693 36.83 15.976
75.886 63.31 40.304
77.408 62.557 42.207
77.812 59.994 43.016
18.94 26.83 1.069
20.605 26.417 2.197
21.164 24.707 4.264
37.466 33.618 46.091
39.204 32.136 46.189
40.396 30.963 44.211
31.977 29.305 35.017
30.37 29.884 33.783
28.02 29.073 33.085
16.741 7.484 2.08
16.487 5.507 0.567
16.552 3.178 1.297
17.498 39.842 41.187
18.586 37.3 41.282
21.251 36.998 41.703
20.372 29.115 63.105
22.016 28.378 61.573
22.26 28.937 59.099
76.013 35.238 15.446
74.445 33.761 14.206
72.87 32.099 15.021
59.328 54.292 54.807
56.458 54.103 53.972
55.6 54.786 52.021
28.14 41.081 52.928
27.807 42.094 55.412
28.346 44.195 56.346
4.835 59.508 32.679
3.812 58.339 30.452
4.967 56.489 29.237
72.318 6.012 56.14
71.842 6.568 54.061
71.669 8.732 52.727
44.475 44.283 24.511
44.518 44.695 22.115
44.453 46.908 20.626
69.561 43.751 45.591
67.614 44.643 46.383
66.836 47.214 46.658
68.019 34.664 6.179
66.044 35.557 6.236
63.793 34.811 7.495
76.671 22.509 45.17
76.751 24.129 47.03
76.959 26.529 46.96
72.073 19.607 32.896
72.824 19.388 30.558
73.094 21.115 28.668
34.42 11.797 45.397
34.95 13.004 47.453
34.663 12.339 50.03
17.744 33.349 28.055
17.48 32.974 25.657
16.284 34.835 24.298
18.771 50.043 18.564
16.801 51.103 19.699
16.225 51.017 22.217
67.485 63.702 29.629
68.115 63.086 31.879
68.047 61.223 33.218
52.176 40.312 8.189
