80.516 12.731 28.361
74.382 4.431 29.85
75.3 3.839 28.067
41.806 31.052 38.943
39.905 31.435 37.488
32.729 28.506 44.444
31.683 30.119 43.441
16.055 26.08 38.837
17.624 27.291 39.765
23.574 32.091 33.773
24.892 30.569 32.7
20.771 -2.394 42.529
22.86 -0.761 42.259
30.342 2.74 37.743
29.693 1.847 35.62
20.776 14.596 40.048
21.916 12.262 41.188
13.899 5.825 39.544
12.651 6.854 38.114
79.234 82.2 22.464
79.308 80.055 22.459
70.012 76.303 23.185
70.668 74.412 22.516
62.447 6.853 -0.472
63.254 5.485 1.558
56.193 0.395 5.734
56.0 -2.075 6.468
61.083 24.919 37.438
58.618 25.846 37.982
51.842 22.792 43.691
50.233 22.543 42.414
4.143 80.967 28.273
3.954 80.957 26.189
13.554 84.961 24.711
14.448 86.746 25.574
6.892 81.669 39.161
7.589 80.722 40.84
1.65 71.178 41.631
3.143 69.659 40.879
54.438 10.243 27.286
55.679 9.028 25.006
63.572 15.677 25.357
65.541 15.062 25.134
40.91 1.944 23.131
41.126 2.493 21.424
50.214 9.052 22.259
49.221 10.736 21.036
69.257 50.459 16.215
71.129 48.983 16.122
76.984 55.293 10.563
77.807 57.169 11.699
10.574 92.671 23.958
8.383 92.18 24.22
2.855 84.281 26.478
2.598 83.664 24.738
55.716 16.519 6.128
55.642 15.934 4.043
47.075 11.601 4.018
47.198 11.757 6.539
52.404 16.061 35.188
52.679 13.681 34.619
46.123 9.246 40.297
44.715 10.509 38.07
64.655 29.216 8.225
65.388 27.007 8.624
56.884 21.942 10.35
55.84 21.359 12.048
39.188 26.797 14.378
38.521 27.746 16.681
45.291 35.735 15.629
47.19 35.012 16.432
20.495 57.511 23.912
20.757 59.483 25.079
27.933 65.561 24.515
27.8 67.343 25.909
15.248 5.397 42.13
16.336 3.342 42.226
6.952 0.038 45.241
7.287 -2.225 43.59
19.712 57.643 19.876
17.405 58.607 19.441
22.307 65.664 13.179
22.143 67.35 14.883
80.354 92.981 2.901
78.973 94.2 3.846
73.688 84.744 5.834
71.787 85.334 5.04
7.741 52.215 26.947
7.108 51.738 29.241
1.408 43.905 28.56
-0.56 42.88 27.694
56.874 34.795 36.16
57.838 32.993 34.823
67.397 36.813 34.396
68.032 39.194 33.995
5.284 5.033 12.981
5.876 3.015 12.235
-3.366 -1.434 13.983
-3.849 -3.399 15.528
35.553 1.842 10.28
34.312 3.389 9.79
24.234 0.013 11.186
24.552 1.883 12.609
22.786 19.643 45.35
22.372 20.687 43.801
32.191 21.628 39.355
33.866 21.622 40.665
75.51 91.716 30.875
76.136 89.798 29.413
68.169 84.244 32.996
68.339 82.407 31.518
38.997 73.327 21.306
40.195 72.015 20.707
43.932 80.398 18.693
44.394 80.912 16.245
76.295 26.692 35.272
74.943 27.954 36.496
67.398 19.4 34.683
68.064 18.374 36.881
60.452 59.894 9.773
60.203 57.927 10.361
49.739 56.822 11.24
49.355 55.212 10.28
74.911 22.267 16.763
74.101 20.872 14.663
81.039 27.125 8.279
82.604 25.859 9.189
0.607 68.308 30.857
1.814 69.781 32.08
9.021 75.48 28.448
8.862 77.532 27.614
46.022 27.309 41.271
47.071 25.244 41.732
41.2 19.045 45.121
39.524 20.205 46.624
-2.927 8.005 41.93
-1.062 8.329 43.145
7.669 11.109 37.177
7.379 13.238 37.396
81.879 49.382 10.046
79.941 51.071 9.299
72.201 46.902 12.728
73.015 45.085 13.629
80.994 86.326 35.594
79.023 85.67 33.941
72.219 79.725 36.228
72.184 77.424 36.491
58.771 7.713 34.706
60.281 7.517 35.979
65.618 14.011 30.91
67.031 13.136 29.432
66.219 77.336 16.775
64.477 78.26 15.376
56.1 71.772 18.829
54.418 73.307 19.408
63.067 40.297 26.71
61.52 39.804 25.415
53.45 34.622 24.858
52.412 33.594 23.128
64.806 37.208 24.143
65.052 34.908 24.331
56.938 32.008 26.664
56.797 33.261 28.522
44.437 67.611 22.919
44.453 69.848 22.766
51.286 75.99 18.845
52.452 74.648 17.816
30.664 79.121 4.742
31.21 77.48 3.178
41.109 82.275 4.119
42.535 81.053 3.222
45.317 53.745 6.785
45.575 55.998 5.952
53.135 59.819 3.344
55.162 60.538 4.673
73.827 54.919 37.185
73.77 52.651 36.198
66.485 46.969 40.022
67.283 46.208 41.923
58.596 81.55 42.412
58.4 83.383 40.822
66.615 85.748 39.528
66.935 86.398 41.942
69.797 32.549 20.469
69.288 31.123 18.375
74.565 39.146 13.895
76.195 37.678 13.713
12.39 28.998 -0.797
13.85 27.517 -0.047
5.47 21.667 1.358
4.94 22.699 -0.745
58.407 89.574 29.49
58.374 89.221 31.729
49.278 86.121 32.074
49.584 86.475 34.453
44.959 29.136 3.46
46.152 27.711 4.495
41.114 20.411 8.706
39.763 20.23 6.887
18.836 30.512 18.344
17.717 30.328 15.85
7.906 27.456 19.757
7.059 26.15 17.605
57.031 51.123 26.973
58.15 49.808 28.045
67.389 54.148 23.606
68.893 52.427 24.631
59.476 61.944 7.888
60.344 59.982 6.965
69.328 63.651 4.218
70.444 64.81 5.427
29.386 45.938 30.916
29.032 44.471 29.471
21.635 39.101 32.622
19.521 40.342 33.306
15.782 52.383 40.377
17.825 52.528 38.795
22.764 58.07 34.767
24.948 58.258 36.011
20.413 69.357 6.405
20.651 71.506 7.761
29.488 75.749 4.982
31.274 75.078 4.05
76.537 4.47 34.987
76.516 2.312 35.462
67.93 -2.451 36.725
65.774 -2.222 34.936
39.325 8.585 26.469
41.399 8.641 27.669
48.174 14.851 21.547
49.282 14.833 23.25
76.58 47.365 35.654
75.338 48.701 34.495
66.906 45.645 36.186
65.492 44.859 37.948
37.371 91.728 16.566
36.313 91.323 18.418
30.281 85.217 20.279
28.455 86.195 21.508
79.078 67.525 35.329
78.616 68.995 36.977
70.221 63.602 39.666
69.324 65.109 41.462
55.968 84.342 -0.301
55.602 82.093 -0.231
46.181 78.328 1.288
44.698 80.377 1.72
29.768 22.835 26.18
28.863 24.09 24.959
36.776 28.573 22.485
35.428 30.518 21.808
23.289 76.623 33.022
23.618 76.227 35.259
16.091 69.593 34.714
16.583 67.507 33.938
19.266 32.597 23.874
17.383 34.016 24.941
12.577 27.506 30.867
10.607 28.154 31.701
77.543 70.862 0.532
77.787 73.078 1.072
69.926 71.255 6.932
69.768 69.548 4.78
39.158 58.387 39.564
40.192 57.868 41.319
49.794 60.294 38.89
49.92 62.541 40.116
29.753 15.602 16.826
28.713 15.136 15.29
19.46 13.615 21.625
18.505 11.99 19.964
26.53 73.339 36.253
24.481 74.315 36.801
18.929 67.137 39.503
19.295 65.022 40.815
15.863 65.275 35.564
14.825 66.626 36.337
6.679 59.697 35.797
5.205 61.089 36.42
26.319 57.658 42.72
25.751 59.866 42.417
34.018 63.578 38.408
33.537 64.391 36.722
73.658 69.942 21.201
71.685 68.636 20.139
63.251 63.396 22.782
64.195 61.459 22.825
45.96 19.152 25.254
44.612 17.791 26.237
35.628 14.128 26.624
35.224 13.456 29.033
61.911 54.528 7.453
61.028 54.985 9.55
53.211 50.267 13.906
53.007 50.849 15.987
50.871 57.593 21.327
52.667 58.007 22.513
58.012 65.217 19.902
58.835 66.272 18.056
59.528 17.967 11.473
58.855 20.048 11.486
65.751 25.775 6.254
66.864 25.117 4.277
39.403 60.137 43.754
38.811 61.84 44.491
47.739 65.751 42.059
49.173 67.356 43.227
65.674 80.446 23.147
67.258 78.879 22.148
76.178 83.654 21.444
75.652 85.648 19.727
18.634 76.65 11.858
17.869 78.707 10.513
25.213 83.559 5.339
25.648 83.952 7.534
52.698 55.265 22.686
52.371 53.498 24.15
43.48 49.57 26.677
43.332 49.174 28.831
62.928 91.449 -2.936
63.848 90.829 -0.857
53.243 88.073 2.453
53.67 86.243 3.364
43.607 72.488 31.548
44.107 71.53 29.449
54.671 72.92 30.641
55.592 73.172 28.597
25.216 52.872 25.884
24.878 51.427 23.987
17.754 45.304 30.108
16.757 44.504 28.6
80.875 17.387 35.869
80.674 18.236 37.844
73.715 12.285 36.546
72.243 10.305 36.926
36.723 53.933 24.017
36.886 52.109 23.295
28.839 47.377 25.566
29.291 45.409 26.859
59.949 70.046 42.686
57.589 70.607 41.706
50.304 66.112 40.838
50.235 63.964 42.388
27.13 87.056 23.798
25.72 88.608 23.076
18.739 81.319 26.957
19.642 80.402 24.523
61.877 17.099 16.806
63.325 17.59 18.852
69.67 25.056 16.98
69.361 27.112 15.422
78.897 51.15 6.819
78.073 53.002 6.828
69.129 48.624 9.779
70.007 49.095 11.934
57.54 56.295 44.131
57.839 57.54 42.56
61.548 65.885 39.536
63.793 66.696 38.845
47.824 68.339 40.12
46.989 69.385 38.463
37.982 67.291 43.126
37.258 66.927 44.95
83.49 5.003 9.148
82.24 4.038 7.572
75.704 -2.502 11.521
76.504 -4.052 10.181
72.869 56.153 40.508
74.968 57.38 41.498
81.776 61.5 37.093
82.029 63.036 35.526
14.468 82.721 22.884
13.733 82.963 20.859
7.893 76.596 24.761
5.85 77.24 24.579
10.371 24.586 29.462
8.95 25.933 30.427
2.622 19.587 33.479
0.473 19.98 33.979
54.909 71.536 24.192
57.083 71.951 23.254
64.581 77.419 20.055
65.465 79.524 20.203
70.192 27.239 18.517
71.017 28.967 17.271
79.684 35.156 18.671
78.757 36.129 20.666
13.758 75.539 2.132
13.498 73.723 1.296
5.432 68.508 4.126
5.698 68.856 6.488
6.054 4.424 21.156
4.193 2.817 20.955
-1.513 0.791 27.302
-1.146 2.352 28.98
26.597 22.797 23.605
25.189 21.08 23.161
21.609 14.033 28.64
19.749 14.727 30.025
5.742 35.241 29.526
6.065 37.394 29.32
11.139 43.313 23.179
11.435 41.908 21.042
6.586 46.062 7.194
5.885 47.999 6.064
14.093 53.692 5.437
13.464 55.555 4.235
42.06 53.53 39.012
42.299 51.493 39.757
33.422 48.098 42.123
31.497 47.998 40.686
63.287 42.499 37.059
62.442 40.364 36.613
56.463 34.722 31.173
56.048 33.958 32.999
50.455 93.276 16.192
49.565 94.346 14.478
44.058 86.499 14.911
44.518 84.842 13.938
37.235 46.875 11.619
38.158 45.103 12.853
29.841 40.773 15.752
30.142 38.67 14.919
73.515 81.57 5.797
71.893 82.63 5.389
64.021 79.547 8.516
62.981 77.898 7.145
0.657 39.68 24.963
1.514 39.394 23.271
9.132 45.188 22.212
10.346 47.206 22.873
42.493 15.158 9.188
40.922 16.156 10.395
34.562 8.662 13.567
33.222 8.397 11.454
65.911 -0.103 41.875
67.893 -0.778 41.167
74.769 4.334 40.517
76.908 4.395 40.088
67.889 73.264 16.375
66.962 73.581 14.307
58.926 68.384 16.517
57.405 68.939 18.194
32.732 69.041 39.982
30.373 69.48 39.863
21.799 65.946 42.386
20.434 67.376 42.507
23.161 73.138 29.774
21.216 72.824 28.975
14.677 72.803 34.024
12.74 73.518 34.686
34.679 15.389 24.371
35.511 13.439 23.112
41.812 19.572 18.41
41.5 21.412 18.571
59.217 29.983 -3.1
59.868 29.508 -0.856
52.083 25.555 0.768
50.39 25.799 2.254
71.782 26.016 25.181
70.912 27.356 26.992
62.032 22.769 25.879
59.961 23.856 25.376
37.134 25.007 7.97
38.488 25.473 9.401
44.059 32.487 6.759
43.422 34.862 7.109
51.5 17.279 38.597
52.082 18.83 40.525
58.663 24.71 35.432
59.202 25.013 33.644
72.418 59.282 44.644
71.928 60.57 42.68
82.112 64.07 40.253
81.514 66.419 40.558
42.132 18.362 11.866
42.756 18.279 9.304
50.117 23.874 5.765
49.722 26.313 5.784
40.453 42.646 13.918
40.36 40.843 14.178
32.454 35.166 16.079
34.113 34.816 17.314
20.879 16.98 41.269
19.312 18.002 41.924
12.425 11.898 43.337
12.939 11.009 44.853
0.108 58.33 13.955
-0.54 60.096 12.582
5.958 65.394 8.668
7.068 66.891 9.936
36.308 61.433 31.124
37.157 62.046 28.89
46.819 60.937 26.467
48.248 61.547 27.773
7.639 30.036 27.558
6.506 30.179 29.302
-1.64 24.842 32.88
-3.347 25.469 31.403
40.597 1.244 17.253
41.54 1.262 15.419
49.798 6.735 16.513
48.57 8.361 15.938
48.585 39.244 25.043
50.411 39.317 25.776
56.997 45.445 23.507
59.413 44.535 23.664
5.092 74.5 23.451
5.435 74.613 25.507
-3.19 68.643 26.6
-3.392 67.72 28.529
58.264 51.184 21.486
58.768 49.689 19.606
68.471 49.803 21.008
69.878 51.587 22.156
16.674 17.945 28.699
16.711 20.682 28.823
24.036 26.684 28.691
25.913 25.793 30.225
44.224 69.271 34.003
43.619 68.005 31.984
35.257 66.517 35.606
33.758 66.228 33.788
-3.748 41.716 12.573
-2.204 40.987 13.683
3.703 49.463 16.615
5.475 49.245 15.035
38.566 38.945 4.665
36.876 39.249 6.702
30.07 35.686 9.071
28.298 36.588 10.229
38.732 49.992 21.847
37.568 49.373 19.992
29.38 43.995 19.453
28.868 42.596 18.179
8.108 41.575 2.088
8.036 39.202 3.049
-2.236 36.913 4.105
-3.647 36.628 5.723
19.826 -0.964 32.792
19.014 -1.684 34.902
27.365 4.37 36.606
28.119 6.27 35.007
24.123 79.046 33.463
22.75 80.582 33.595
32.147 84.673 31.541
31.366 86.3 30.149
17.671 7.73 15.479
16.06 6.973 14.616
8.987 3.736 19.249
10.212 3.765 21.219
28.86 13.791 11.593
30.475 12.679 11.375
39.234 15.435 5.774
39.966 15.806 7.814
71.103 28.468 23.064
72.011 28.986 24.72
79.573 34.093 22.625
81.325 34.455 21.136
63.191 16.546 28.042
63.602 14.506 28.61
54.064 12.233 29.229
52.744 13.022 30.492
80.452 53.949 22.563
80.159 55.962 23.47
70.913 53.926 26.168
70.859 52.267 27.549
63.723 83.353 19.343
62.625 84.329 18.279
69.746 90.171 15.215
69.208 91.386 13.58
12.748 31.816 5.948
11.932 32.636 3.238
3.755 27.018 2.858
2.689 28.873 3.113
66.048 66.085 40.947
65.292 68.433 40.627
73.297 72.934 40.201
72.99 74.95 39.326
25.099 24.358 22.058
24.782 24.743 19.773
30.78 32.039 16.512
32.453 32.348 18.206
13.969 57.425 12.043
14.117 57.248 14.124
4.107 53.644 15.717
5.389 51.791 17.209
19.99 37.163 34.03
20.161 35.282 33.788
12.19 32.292 33.538
9.92 32.927 32.969
9.051 19.816 14.862
10.071 19.924 12.846
18.574 21.689 13.246
20.424 21.825 12.086
51.569 13.028 27.608
51.276 15.507 28.074
61.873 18.456 26.723
61.752 19.828 25.22
59.012 6.011 30.824
59.622 4.485 28.732
70.191 7.702 28.163
69.148 9.087 26.673
30.542 47.242 -0.294
29.288 48.359 1.52
21.349 44.383 4.24
21.043 42.44 3.735
51.358 79.306 24.295
51.371 77.975 26.071
42.625 74.898 29.726
40.387 74.069 29.609
24.426 9.956 29.675
23.482 10.939 28.404
31.071 18.076 28.339
30.567 18.685 25.802
-5.672 29.524 32.58
-4.119 29.033 30.196
4.558 32.935 30.209
6.033 33.013 31.581
-2.801 17.933 12.058
-1.631 17.136 13.64
7.593 22.155 14.785
6.551 23.841 15.261
54.595 90.212 12.465
52.718 90.89 13.474
48.876 81.604 14.965
48.07 80.496 13.498
16.445 42.034 26.835
14.977 41.746 28.557
8.026 35.148 31.368
7.716 34.788 33.138
70.307 80.93 37.803
69.669 79.064 37.068
61.761 74.694 37.736
60.394 72.702 37.315
50.818 48.142 5.492
50.121 49.014 7.652
43.437 40.004 9.645
43.807 40.21 11.794
33.303 1.433 -3.482
33.441 2.84 -2.138
31.983 6.562 4.642
30.703 8.045 3.391
22.2 54.279 26.3
20.405 55.964 26.412
14.488 48.86 30.097
16.044 47.259 29.831
-1.351 14.996 11.829
0.285 14.009 11.672
7.674 20.623 9.156
7.936 23.074 10.236
38.572 57.767 32.44
40.459 55.951 32.377
49.193 60.369 30.12
50.986 59.025 31.292
40.953 4.0 27.043
40.669 5.887 27.941
31.745 0.368 29.335
30.825 0.05 27.404
45.374 -0.828 25.281
45.727 0.925 26.144
53.751 6.957 25.566
53.231 7.433 23.509
34.162 77.23 14.628
33.957 79.356 16.124
41.266 85.878 15.453
42.467 86.761 17.084
61.203 63.716 24.339
62.366 62.084 25.852
53.196 59.799 30.473
54.052 58.187 31.04
72.274 40.537 10.255
70.835 42.04 9.78
62.059 37.373 11.5
61.028 38.292 13.328
50.455 9.985 18.806
51.267 12.275 18.959
59.064 15.375 15.678
60.979 15.703 14.239
13.011 -3.672 12.247
12.113 -3.506 10.683
16.86 4.356 8.152
16.377 6.285 8.77
42.709 40.085 19.426
41.169 41.499 18.755
33.653 38.05 23.787
31.99 37.19 22.498
7.727 65.648 6.575
8.412 67.11 7.725
18.075 68.784 4.615
18.182 70.788 4.571
8.601 37.397 38.057
10.405 38.216 37.58
17.512 40.276 31.308
16.985 42.669 31.325
45.559 30.638 45.377
47.058 32.424 44.905
55.961 35.108 40.206
57.185 35.506 41.972
7.672 91.968 21.214
6.364 91.077 19.774
0.219 86.618 22.506
0.506 85.627 24.9
68.155 38.738 31.137
66.962 40.698 30.481
72.112 47.639 29.224
73.057 46.702 27.133
46.649 -1.121 28.145
46.541 0.364 29.585
56.701 2.018 28.889
57.896 1.509 26.803
12.155 68.617 26.026
14.052 68.987 26.944
17.61 75.265 19.99
19.551 74.464 18.673
24.305 20.999 3.229
24.012 23.018 5.408
30.535 29.988 1.895
32.744 29.448 2.931
8.763 59.401 42.159
8.064 61.027 40.257
11.931 55.351 35.049
10.642 53.924 35.716
4.591 29.949 21.984
5.54 28.411 20.79
-2.322 23.266 23.918
-4.026 23.292 22.825
6.381 37.477 39.783
7.074 35.484 39.905
-1.75 30.688 44.694
-0.465 28.968 43.716
31.769 83.073 19.955
32.213 84.582 22.066
40.752 88.279 23.178
41.88 89.017 21.465
28.688 33.881 2.607
28.054 31.762 1.623
22.025 25.527 4.958
20.58 25.951 3.317
27.069 54.833 1.483
28.725 54.288 0.197
36.555 59.856 -0.68
37.208 58.126 -2.626
26.948 64.103 8.299
28.219 62.529 7.287
36.74 67.287 3.501
35.872 68.948 2.109
18.789 55.321 18.778
19.299 53.15 18.776
9.692 49.698 22.521
8.405 50.251 24.007
21.443 26.621 19.916
22.008 24.525 18.986
15.959 18.319 25.524
14.552 20.243 26.618
67.337 89.111 0.042
65.178 89.573 1.335
60.415 81.072 1.406
60.789 80.024 3.279
70.239 0.716 7.135
70.7 2.599 6.551
75.995 9.341 0.933
76.792 10.393 2.773
79.691 45.722 43.431
80.35 45.031 41.86
71.574 38.809 41.613
72.835 37.936 43.163
62.539 81.555 14.987
60.735 82.633 14.749
54.285 79.834 22.024
52.235 79.443 20.759
61.283 10.691 10.856
62.284 10.618 12.695
52.782 5.293 16.874
54.197 4.079 17.787
3.693 64.237 37.695
3.687 66.284 38.16
13.191 69.411 36.303
15.053 70.33 37.088
70.983 41.702 2.305
72.237 40.249 3.527
81.236 43.374 3.46
82.106 44.488 1.777
60.774 10.913 2.124
59.975 9.063 1.27
54.016 4.087 7.528
53.43 2.016 7.408
35.168 83.371 33.625
36.926 82.718 34.694
44.642 90.325 32.237
46.426 88.854 32.109
36.546 56.059 31.975
36.668 55.273 33.739
28.676 51.744 36.816
28.321 49.655 37.447
7.298 0.999 4.208
9.615 1.76 3.159
12.384 10.542 4.566
10.598 11.736 3.759
9.195 62.287 3.878
10.159 60.296 4.099
17.465 67.851 -0.007
19.208 66.401 0.507
18.359 55.24 11.278
20.171 54.414 11.148
25.971 61.066 9.737
26.345 60.498 7.766
77.365 16.827 20.598
77.732 15.986 23.008
70.01 11.682 27.271
67.86 12.687 26.64
43.141 10.604 0.029
43.989 8.529 1.07
37.046 3.119 3.135
34.943 4.088 2.707
28.249 11.281 39.872
30.088 10.266 40.99
38.747 13.226 38.383
40.768 12.634 37.67
13.74 61.006 23.209
12.586 59.438 21.601
4.219 56.467 24.459
4.056 55.434 22.642
41.394 37.924 43.391
40.99 38.393 40.928
45.001 46.082 35.994
45.515 47.265 37.694
34.067 17.386 31.597
32.477 19.147 32.121
23.346 12.771 33.292
21.789 13.959 32.382
79.79 90.273 38.287
79.327 88.587 39.365
72.781 82.909 41.537
72.126 80.692 42.224
42.323 63.839 7.655
42.166 64.196 9.603
52.485 67.826 7.095
51.537 68.487 5.192
18.921 51.243 8.42
20.655 52.035 9.844
29.239 54.11 8.01
30.047 54.794 9.748
38.842 86.065 4.072
38.62 85.566 6.235
32.872 78.111 10.578
32.583 78.281 8.303
29.006 50.568 32.22
29.162 52.205 34.001
33.668 61.299 35.029
35.598 60.947 33.91
22.881 57.19 27.846
22.866 57.613 30.019
30.58 63.167 28.304
30.279 65.383 29.438
8.681 33.901 35.541
6.658 34.317 36.124
-1.11 28.265 38.753
-0.832 28.267 36.144
64.361 82.521 29.73
63.856 84.157 31.473
58.231 80.644 37.023
57.047 82.061 39.025
11.387 17.326 6.317
13.308 15.929 6.493
20.667 22.221 4.896
21.481 23.03 6.851
71.293 73.093 20.087
72.685 71.676 19.374
80.22 78.304 19.729
79.172 80.508 19.9
31.208 30.327 7.004
30.817 27.855 7.531
21.677 24.541 9.255
21.504 24.199 11.516
-0.453 60.382 17.562
1.364 59.858 18.479
8.721 64.244 13.732
9.766 64.561 15.906
7.104 47.044 15.8
7.388 45.612 13.58
0.272 40.444 19.645
0.518 38.81 20.091
36.533 17.855 -1.27
35.751 18.878 0.326
28.335 13.075 3.535
28.521 13.152 5.956
25.528 10.792 42.7
23.614 10.561 42.61
18.129 1.771 44.41
17.228 3.411 45.337
62.079 13.88 15.95
60.734 14.251 17.77
55.667 7.619 22.41
54.469 6.619 21.137
35.039 12.417 31.939
34.827 14.033 33.057
25.056 11.108 34.993
24.661 9.487 36.321
26.943 62.843 11.928
28.668 62.3 10.566
36.006 68.082 9.197
36.845 70.407 9.657
69.14 53.187 17.336
70.893 52.519 17.751
77.183 59.812 15.221
76.74 61.489 14.484
10.502 40.762 14.088
8.823 40.743 16.019
0.694 36.614 12.594
0.029 34.64 13.185
6.737 7.302 27.891
6.691 8.411 29.836
1.196 3.483 34.754
0.311 1.245 34.237
67.266 11.449 22.283
69.12 11.133 23.023
76.845 14.014 19.294
78.28 13.955 20.858
-2.103 21.391 30.076
-2.688 23.715 29.212
4.145 28.649 24.368
6.156 29.239 25.268
48.347 65.544 34.744
48.371 66.589 32.414
55.953 73.858 33.331
57.535 74.999 34.699
12.012 16.531 17.721
10.727 15.067 16.807
1.482 12.12 18.134
1.233 10.813 20.056
-4.14 67.18 18.819
-3.42 68.911 19.76
5.271 71.168 15.885
6.77 72.766 16.357
49.842 31.306 10.244
49.314 33.177 10.346
55.719 40.551 9.388
56.028 42.553 10.664
-4.127 72.498 30.712
-1.931 71.943 31.104
3.55 79.902 33.189
5.561 79.781 32.081
47.36 86.11 29.005
47.268 85.024 30.696
40.588 78.778 35.414
40.659 80.269 36.641
28.88 10.179 1.545
27.254 11.408 1.597
19.744 4.448 4.74
19.523 5.083 7.301
5.027 72.463 12.09
4.644 74.578 11.375
12.403 77.249 5.382
14.418 78.332 6.014
9.007 68.448 22.704
7.736 69.99 23.321
-1.83 66.035 24.431
-3.288 67.786 23.809
44.534 45.728 25.453
43.601 45.748 23.732
53.872 49.557 21.715
53.858 49.916 19.736
-3.197 59.515 9.086
-1.267 57.868 8.974
5.542 62.763 4.399
6.258 65.26 4.05
52.111 19.744 -0.888
49.769 19.289 -2.357
44.041 12.208 1.849
42.338 13.311 1.702
36.687 31.888 29.247
39.366 31.997 28.927
46.439 36.353 25.322
46.313 38.402 26.026
5.988 25.957 12.511
6.213 28.151 13.154
12.954 34.349 10.53
14.534 33.973 8.579
7.517 29.368 22.705
6.463 31.859 21.906
11.35 37.335 17.645
9.943 39.172 17.875
37.438 49.865 11.615
38.331 51.974 12.356
47.396 53.375 10.376
48.525 52.607 8.665
48.125 17.788 24.621
47.684 17.673 22.584
55.193 25.934 21.1
54.468 26.085 19.059
25.616 26.807 26.613
27.18 28.178 26.811
33.06 31.955 20.63
35.011 33.044 21.34
2.324 69.204 38.001
3.689 68.404 36.494
9.152 73.733 30.836
10.324 75.454 30.858
49.404 51.107 6.687
50.394 50.467 4.398
58.673 53.745 0.001
60.295 54.702 1.355
70.578 -3.625 0.176
71.22 -2.665 1.526
76.104 5.319 -1.499
78.377 5.591 -0.752
26.821 58.6 5.657
29.086 58.287 5.235
36.023 62.087 0.876
36.957 63.767 1.204
34.051 81.647 27.262
33.992 82.01 24.808
40.062 88.427 25.799
40.865 90.64 25.82
24.868 86.682 44.194
25.553 84.452 44.556
35.029 87.434 42.987
36.204 87.157 40.829
70.534 71.581 9.294
72.288 70.117 10.186
79.355 73.848 5.831
81.434 74.499 5.345
11.008 31.953 42.542
9.004 33.086 42.663
3.41 25.587 42.585
1.44 26.189 42.227
81.751 57.062 26.555
81.788 57.087 28.678
74.791 50.796 32.023
74.611 51.307 33.926
61.113 67.807 29.185
60.676 68.79 30.922
68.526 76.293 28.425
67.814 77.678 30.134
82.299 9.097 22.636
81.538 9.853 24.779
76.038 1.723 24.657
74.347 2.299 26.054
33.891 86.907 36.98
32.213 88.306 36.352
25.056 82.868 39.465
23.617 82.878 37.99
62.047 45.527 33.78
61.208 44.394 31.701
53.198 39.421 33.147
52.12 39.814 34.93
76.942 88.251 31.666
77.834 88.132 34.197
69.095 87.417 39.043
69.433 86.497 40.937
31.106 32.325 12.233
29.672 31.226 10.716
26.588 23.315 14.526
25.243 22.452 16.512
17.407 10.168 14.064
17.77 11.622 15.878
28.694 11.348 12.817
29.992 10.806 14.703
14.576 59.031 9.18
15.749 61.295 9.932
20.97 66.983 4.829
18.933 66.549 3.121
36.356 6.18 19.806
35.581 4.665 18.792
27.131 1.079 23.335
28.031 1.307 25.281
60.63 52.482 42.151
60.876 54.994 42.247
68.224 60.278 38.081
68.298 61.763 39.679
10.784 39.921 8.792
8.616 40.581 7.795
1.536 33.334 8.951
0.8 34.42 10.378
6.478 5.867 10.659
5.24 7.683 9.554
12.318 13.42 6.154
13.405 13.047 8.48
9.515 54.549 31.344
11.026 55.147 32.441
18.95 58.394 27.707
17.929 59.988 26.683
35.068 54.159 14.239
37.214 52.755 15.231
44.218 58.542 11.878
43.883 60.387 10.709
15.371 51.267 7.55
16.495 49.948 6.3
8.89 43.066 8.732
8.709 42.03 10.501
14.89 73.315 36.524
13.604 75.165 37.02
19.574 81.4 32.322
17.99 81.843 30.12
31.96 5.045 -3.434
31.251 4.64 -1.612
24.291 0.41 3.358
24.147 1.616 5.073
6.97 49.535 21.106
5.822 49.668 19.275
-0.053 43.718 23.142
-1.548 44.122 21.314
10.012 67.11 15.405
9.302 66.925 13.026
18.392 72.915 9.602
18.122 72.226 7.095
63.836 12.61 13.545
65.545 11.243 13.968
70.829 19.946 11.925
72.45 19.898 10.564
44.543 21.043 21.599
44.534 21.358 19.561
52.065 29.092 17.046
53.308 27.599 16.424
71.038 76.15 29.643
71.071 75.797 27.732
81.529 76.636 25.07
81.672 78.321 26.366
3.743 5.452 5.253
4.918 6.539 7.229
7.618 15.38 2.884
9.644 15.617 4.136
2.732 20.361 36.578
3.714 21.819 37.41
11.928 26.782 36.06
12.01 26.962 33.882
48.233 59.869 19.543
47.982 62.517 18.726
55.719 68.451 16.203
56.692 68.017 14.456
45.366 65.439 30.088
46.22 67.45 31.04
54.133 70.308 26.254
55.469 68.864 24.446
43.045 58.509 7.071
42.976 60.087 5.219
51.788 64.695 4.294
52.695 65.209 6.289
72.522 70.76 26.506
74.644 70.944 26.401
81.839 75.594 22.322
82.997 74.836 20.678
59.297 8.652 42.826
57.357 9.685 42.559
50.479 3.846 45.52
51.032 1.712 44.912
30.055 59.588 18.676
30.348 57.977 20.846
27.386 51.23 24.826
26.936 49.288 23.782
23.505 34.478 36.538
21.804 35.766 36.171
11.81 33.007 38.494
11.75 33.45 35.893
40.545 27.682 27.489
38.819 28.747 27.377
31.62 24.459 33.546
31.275 22.543 33.449
71.141 6.537 30.64
69.166 7.36 31.351
62.957 3.352 36.935
62.885 1.978 38.443
6.697 74.438 19.8
8.433 72.819 18.795
15.107 79.614 16.881
16.66 79.221 15.431
-3.23 77.796 45.211
-2.659 79.449 46.178
3.17 83.329 38.311
4.935 83.054 40.646
63.184 42.651 31.94
64.888 42.905 30.306
72.023 51.099 31.21
71.826 51.756 33.427
66.559 19.836 38.438
65.25 19.173 36.89
58.967 11.9 40.196
59.31 11.691 42.513
76.262 88.058 23.92
76.338 86.268 22.572
67.135 83.452 28.343
66.631 81.473 27.489
7.143 4.809 18.014
6.568 2.535 17.314
-2.008 -0.049 21.847
-3.486 -0.979 20.21
29.054 51.908 1.778
27.956 50.149 0.284
19.054 48.695 5.359
17.553 48.369 3.303
9.593 9.186 37.762
8.973 8.847 35.619
1.381 2.013 40.664
0.046 3.588 41.472
22.122 50.522 12.141
23.603 49.811 13.815
31.762 53.692 13.045
31.552 55.844 13.66
48.883 70.939 44.777
49.993 72.377 43.484
59.004 73.341 40.038
59.234 75.625 38.999
6.005 39.471 35.317
5.368 39.286 33.026
14.247 45.926 33.391
13.918 45.838 30.862
39.1 67.983 5.422
40.638 68.461 6.84
48.99 70.395 3.702
48.11 72.034 2.929
32.376 72.394 -0.417
32.54 71.335 1.44
23.068 67.141 3.056
23.516 65.288 2.485
31.973 24.417 3.429
34.099 23.632 3.641
42.674 27.698 2.526
44.637 26.382 1.855
83.465 81.847 35.091
81.334 81.931 35.829
75.59 74.646 39.761
75.727 72.766 39.273
15.731 33.706 11.947
14.261 34.934 13.231
7.467 28.885 15.747
5.286 28.881 16.72
80.356 47.298 1.962
79.224 45.352 2.199
68.969 46.234 5.908
69.054 43.986 7.692
31.69 56.418 11.167
34.362 55.759 10.683
40.276 61.885 9.294
41.914 59.872 9.199
33.452 81.274 32.437
35.751 80.516 33.738
28.792 74.501 38.383
26.465 74.656 39.064
12.504 80.218 42.283
13.979 79.281 44.251
23.045 84.458 40.334
22.775 84.966 42.864
26.62 28.693 34.572
25.842 26.863 33.314
17.614 20.144 34.791
17.514 21.339 36.367
67.902 65.475 46.739
69.153 67.229 47.442
76.634 70.927 42.304
78.086 71.003 40.149
65.748 28.425 2.187
66.511 27.82 4.284
74.971 34.166 6.666
75.075 33.986 9.155
5.247 20.142 40.116
4.874 22.226 39.645
12.199 28.902 40.706
11.556 30.757 40.123
52.236 71.179 7.27
53.984 69.96 5.973
62.897 72.059 6.54
62.459 74.047 5.474
15.006 28.059 40.665
15.689 28.71 42.694
25.21 30.664 37.804
26.54 31.648 39.824
45.212 62.825 16.86
44.888 61.417 15.586
38.043 55.121 19.303
37.689 54.288 21.32
58.189 67.467 12.307
60.462 68.445 12.982
66.058 73.401 9.619
68.403 73.425 9.298
12.147 26.203 27.915
13.22 24.191 27.725
21.828 26.273 22.698
23.835 25.937 24.3
20.131 71.414 13.47
19.185 70.365 15.205
11.741 63.331 14.28
12.632 60.995 14.504
35.288 92.941 7.217
34.43 93.222 5.419
25.671 87.637 3.87
25.447 86.171 5.52
3.467 43.79 42.62
5.655 43.57 41.33
13.416 48.339 39.314
13.764 50.231 41.064
36.029 50.925 13.7
33.658 51.003 13.274
26.185 45.575 16.682
24.398 45.875 16.354
34.624 62.535 26.701
36.362 61.286 25.958
43.141 66.974 29.036
42.626 69.646 28.272
54.611 35.854 37.589
53.858 33.85 37.935
46.817 27.707 37.083
46.527 26.005 38.964
11.14 41.009 11.423
13.609 39.97 11.574
20.175 47.671 11.003
18.648 48.674 9.965
59.293 73.874 33.143
60.217 74.657 34.711
67.021 81.661 33.619
68.678 80.882 35.082
35.019 76.23 16.908
36.105 75.538 15.157
43.264 81.835 13.464
42.712 83.139 15.122
59.278 14.572 2.312
57.878 16.14 1.967
65.718 21.975 1.201
65.538 23.844 -0.094
47.536 74.903 46.638
49.691 74.052 45.795
56.674 79.992 41.61
56.9 79.513 39.613
19.273 33.919 21.498
19.078 35.23 19.942
27.963 40.131 18.046
27.228 41.309 16.455
14.627 38.513 9.734
13.654 39.707 8.471
18.547 45.788 4.19
18.782 46.096 6.316
15.483 81.973 14.629
16.607 81.024 12.987
21.029 90.156 13.35
21.927 92.279 12.4
9.13 25.099 27.26
9.1 24.381 25.457
1.239 18.059 26.73
-0.986 17.826 27.617
11.65 20.266 18.1
11.905 21.614 19.844
19.238 26.422 16.195
19.07 27.354 14.453
67.708 3.996 13.42
67.308 2.953 15.137
58.403 1.452 19.771
58.26 -0.328 20.292
81.434 73.535 10.047
81.458 72.121 12.051
74.521 65.193 10.743
75.178 63.558 11.529
24.498 40.978 6.118
26.5 39.871 5.58
32.435 46.922 3.775
33.167 47.688 5.714
37.505 8.505 20.534
38.595 9.543 22.506
47.011 11.674 16.74
48.347 11.763 17.753
53.243 47.242 5.937
54.262 48.684 7.63
63.586 50.843 3.545
64.553 52.957 4.428
34.023 47.223 1.368
36.048 47.417 2.652
42.171 54.483 0.489
41.336 55.767 -1.256
74.215 38.692 9.32
74.066 36.598 9.664
67.314 29.704 9.313
65.534 31.21 9.983
34.353 41.12 30.085
33.125 39.101 29.053
24.912 33.809 30.665
23.382 33.981 29.473
3.827 27.99 14.178
4.461 25.539 14.602
-3.092 20.596 18.665
-1.255 19.317 19.349
25.301 32.66 35.637
26.286 32.831 32.951
34.482 36.711 30.086
35.93 36.648 28.405
5.93 57.89 32.43
6.287 58.911 30.348
15.781 61.446 30.59
16.383 63.419 30.442
13.808 12.516 14.768
14.478 15.128 14.545
23.564 16.595 10.999
25.968 15.921 11.448
62.318 75.225 2.894
61.743 77.177 2.746
71.379 82.448 2.642
70.615 84.549 2.572
11.027 66.616 19.554
9.71 65.17 20.737
1.728 61.475 23.542
0.273 62.719 23.363
15.279 20.467 31.019
14.646 18.158 30.064
7.854 11.747 30.341
5.769 12.884 30.228
66.419 57.626 22.559
67.082 59.344 24.265
76.18 64.572 22.429
75.478 66.307 21.667
18.784 41.662 36.102
19.574 39.285 35.928
10.656 35.978 39.0
9.762 34.475 40.705
-0.127 17.906 24.261
-1.449 20.591 24.151
7.474 23.813 19.447
8.165 25.198 21.147
59.581 34.671 41.371
60.457 32.739 41.4
68.615 38.679 39.02
70.268 37.358 39.539
6.314 83.146 43.156
4.466 82.458 43.401
-1.735 75.071 43.088
-2.187 73.509 41.692
37.31 78.666 32.13
36.434 77.34 30.499
28.978 72.298 36.887
28.453 70.613 35.149
13.707 33.293 45.658
14.13 31.569 43.729
20.706 38.092 40.04
22.67 38.097 41.35
31.754 26.153 -0.93
31.398 23.808 -0.758
22.817 23.894 2.977
21.962 22.022 2.143
35.572 32.825 18.587
36.697 34.738 18.978
42.119 38.913 13.438
44.356 39.415 14.116
71.331 49.623 18.729
72.059 51.027 20.242
79.331 56.151 15.561
79.647 57.63 17.005
60.164 61.291 18.951
60.467 59.035 19.801
54.274 56.477 26.754
53.11 57.508 28.204
60.198 64.487 14.2
60.771 66.316 14.729
69.925 70.011 13.226
70.418 68.84 11.498
24.208 16.212 4.946
23.338 17.741 4.215
14.827 11.672 2.555
13.352 12.783 3.715
30.716 13.369 15.042
32.351 12.394 15.48
38.37 20.088 11.724
38.734 21.211 9.9
25.146 19.429 14.756
23.629 18.014 13.26
15.428 14.563 18.47
15.122 16.953 19.915
24.135 38.631 5.523
24.182 37.427 4.221
18.722 30.702 7.412
16.515 30.816 7.712
49.074 34.604 23.679
50.235 33.105 24.558
40.588 29.225 24.944
39.857 30.803 23.898
59.813 5.505 37.898
58.293 5.706 36.32
52.419 0.683 42.617
52.564 -0.828 43.873
1.998 78.833 23.672
2.59 81.149 23.308
10.121 87.386 19.643
11.613 85.996 18.666
31.831 16.475 20.94
32.505 17.886 22.415
38.336 24.002 18.161
38.456 26.22 19.07
43.739 45.944 30.247
43.885 43.571 30.715
37.543 38.863 34.186
36.958 37.024 34.81
29.104 81.996 12.311
27.641 82.311 10.566
22.879 73.773 12.143
21.269 72.802 11.087
5.701 81.947 30.421
5.475 83.8 29.016
13.693 89.799 29.518
13.354 91.404 27.963
37.462 34.808 32.622
37.312 34.084 34.733
29.805 29.266 39.783
27.949 29.086 38.331
27.71 -0.578 17.753
26.065 0.816 17.237
34.189 5.882 12.218
34.76 3.9 12.452
51.018 59.812 33.934
51.013 58.242 35.462
41.834 54.353 36.315
39.941 55.289 35.366
10.618 17.89 10.217
8.753 18.824 10.834
1.357 11.278 13.794
-0.119 12.903 14.277
26.594 4.664 29.894
24.66 5.239 28.93
16.026 2.139 31.112
13.808 3.152 29.955
42.317 47.756 24.992
41.324 46.383 26.88
35.558 38.506 25.919
33.151 39.48 26.46
11.229 19.479 8.287
10.122 22.013 8.728
17.526 27.458 8.336
18.815 26.831 6.757
3.686 84.452 34.763
4.345 85.441 37.019
13.716 90.317 32.955
12.421 91.052 31.597
59.953 27.489 34.705
61.7 26.915 35.86
66.958 34.913 32.583
68.871 34.648 31.986
46.04 8.201 43.424
46.446 7.02 45.178
51.994 15.175 40.253
53.012 15.787 41.831
43.717 82.345 10.757
45.1 82.255 9.21
52.452 88.987 8.607
54.575 87.978 9.213
30.625 79.732 27.116
29.383 80.938 26.373
24.615 74.29 27.611
23.917 73.35 25.851
42.389 7.506 35.276
41.206 8.922 36.088
33.364 6.591 42.253
34.046 6.377 44.159
82.81 48.84 7.467
82.507 46.788 6.723
74.111 43.254 10.54
72.057 44.247 11.159
44.998 10.873 42.065
43.784 12.06 40.362
49.492 19.05 36.975
49.852 17.952 35.247
27.508 88.023 26.187
28.158 85.839 26.127
20.808 80.605 29.64
21.012 79.364 31.38
-5.942 42.443 8.15
-4.105 41.409 8.87
4.737 43.144 5.039
7.022 43.616 6.333
64.505 11.889 22.073
64.498 10.08 21.913
57.936 6.005 27.031
56.433 6.344 25.912
29.22 43.157 23.159
30.537 43.675 24.895
40.821 44.474 20.728
41.96 43.911 22.74
65.311 42.922 40.517
64.874 41.058 38.963
56.363 38.17 40.294
54.622 39.271 40.145
60.927 -0.171 28.949
63.13 -0.831 29.553
72.24 3.282 28.81
71.169 4.992 28.189
32.286 45.222 -3.524
32.446 45.537 -1.434
37.919 41.425 4.971
36.135 42.173 6.574
52.413 5.196 19.345
52.587 3.71 21.176
45.099 -3.081 21.613
44.791 -4.368 19.653
55.421 62.759 3.159
54.754 63.507 0.795
62.374 67.701 -2.134
63.274 69.378 -0.153
13.939 70.289 32.82
12.434 70.897 34.539
3.061 68.173 33.685
2.62 66.407 35.123
68.322 62.249 33.912
68.258 63.899 35.344
75.24 70.246 32.219
77.325 69.438 31.78
71.663 29.968 27.447
73.648 29.635 26.718
81.514 34.8 24.793
81.208 36.755 24.374
70.378 46.364 16.232
68.663 47.816 16.157
60.175 46.521 21.543
59.438 45.793 19.612
65.219 14.462 22.279
67.119 14.401 23.045
74.524 18.543 15.692
76.424 18.146 17.186
-0.008 54.304 9.114
2.238 53.454 9.107
7.617 60.448 5.436
7.122 62.429 7.124
34.916 37.934 36.403
33.656 39.426 35.381
25.237 36.605 37.889
24.765 35.812 40.383
52.018 9.357 25.089
51.909 10.405 26.965
43.42 4.172 26.798
44.937 2.621 28.335
44.834 37.923 10.646
46.363 37.978 12.856
53.555 45.544 7.8
53.256 46.77 9.287
21.161 33.703 27.963
21.306 32.742 29.651
14.705 27.0 35.061
14.45 27.18 37.009
16.886 82.972 23.853
18.494 81.655 22.506
27.121 83.546 17.177
28.614 83.731 18.815
6.1 40.874 42.487
4.038 41.477 41.95
-3.812 36.037 44.02
-5.251 37.187 45.438
62.64 20.436 28.477
64.014 21.623 27.314
74.077 23.291 27.797
75.314 22.739 26.005
74.292 80.521 2.99
74.607 78.587 3.778
65.2 73.21 5.299
66.133 73.429 6.912
17.5 36.786 27.404
16.03 35.908 26.275
6.87 32.134 24.503
5.662 34.112 25.516
38.194 54.628 26.978
38.916 56.22 28.387
46.021 60.744 20.946
47.992 60.953 22.244
56.859 33.307 38.481
55.751 31.794 37.56
49.75 25.435 42.534
48.781 26.783 44.141
75.197 53.971 -2.294
74.476 52.878 -0.112
68.836 46.432 1.215
69.083 47.412 2.756
42.722 86.661 22.806
43.239 84.983 23.016
37.532 79.217 27.213
35.913 77.92 25.964
27.081 83.94 13.108
25.434 83.867 11.145
18.256 79.5 17.912
19.379 77.432 17.087
30.41 47.078 34.053
30.665 48.297 32.026
38.41 53.79 31.534
40.204 54.163 29.936
48.773 15.555 26.257
47.047 16.641 26.852
39.897 9.797 29.542
39.467 9.125 31.872
32.213 23.567 35.86
32.926 23.711 38.004
41.813 28.302 37.745
42.663 28.545 39.688
46.374 84.714 25.203
46.577 86.795 23.965
55.311 90.372 20.91
54.894 92.486 21.535
56.443 70.894 27.819
57.633 70.119 29.8
50.657 63.866 30.319
51.573 61.787 30.716
29.038 11.089 7.369
28.422 9.554 5.589
20.237 7.112 11.065
18.211 7.827 10.043
0.539 80.59 8.695
-0.183 83.044 9.328
4.573 87.437 3.449
4.26 89.264 2.632
58.977 84.039 11.288
57.905 83.158 10.144
48.169 80.635 10.678
47.225 80.05 7.974
51.597 49.012 10.19
52.221 50.336 8.584
59.139 57.57 6.7
59.762 58.531 4.349
24.6 7.764 28.17
26.503 7.474 29.212
32.603 13.13 23.716
32.03 15.411 23.567
62.523 16.43 21.542
61.343 18.654 21.361
53.059 12.708 20.92
52.452 10.628 21.561
81.165 68.908 0.329
81.116 66.962 -0.317
72.45 63.266 3.524
72.742 61.59 2.456
36.404 30.457 24.53
35.747 32.075 26.482
30.471 26.834 33.621
30.159 27.132 35.602
40.126 40.08 0.465
40.603 38.601 1.915
49.604 42.871 -0.346
51.229 44.305 0.712
18.358 36.61 24.874
19.094 36.06 23.312
26.418 41.821 22.986
26.044 43.755 21.71
55.176 72.119 12.295
56.15 71.272 13.551
64.86 75.472 11.101
63.996 76.343 9.285
8.307 36.371 -1.038
9.436 35.023 0.632
0.529 33.555 5.706
-1.661 32.927 5.69
29.902 55.393 5.691
31.014 55.964 7.471
40.037 57.847 3.044
39.519 60.612 2.675
66.214 16.952 34.93
64.927 15.263 34.181
69.45 14.563 39.652
71.24 14.129 40.916
67.307 33.314 27.397
68.198 31.557 28.304
59.998 24.542 31.272
58.15 25.25 30.102
-3.499 45.621 22.787
-4.633 47.417 22.653
4.621 52.832 26.191
6.048 51.847 24.489
21.873 75.097 26.599
21.416 76.661 24.74
28.613 83.31 25.041
30.373 82.91 23.816
16.432 89.855 38.233
15.134 89.177 36.948
8.383 83.252 41.505
8.102 85.066 42.449
38.717 68.0 13.161
36.869 69.531 12.494
30.8 62.58 16.953
28.771 64.365 16.717
63.881 81.211 25.728
62.703 80.158 23.453
53.77 77.232 26.854
53.826 78.059 24.531
-2.574 38.19 10.499
-1.268 38.952 12.213
4.777 46.004 8.963
5.993 47.168 10.108
16.644 62.414 26.054
16.377 65.007 26.739
23.801 69.639 20.777
25.791 68.275 21.47
52.132 3.541 9.314
50.971 1.556 10.223
42.314 -3.243 12.868
40.86 -1.615 13.21
59.43 78.652 0.36
59.573 76.643 0.979
51.286 73.528 5.324
51.308 71.252 4.609
19.762 82.854 35.444
19.914 82.84 37.748
10.277 79.803 40.404
10.098 77.735 39.343
33.585 74.034 45.623
35.55 72.937 45.386
43.866 72.74 40.103
43.696 73.227 37.914
16.156 48.237 37.821
16.648 48.94 39.563
26.037 52.691 40.387
26.903 52.951 38.375
8.563 38.949 42.017
8.524 40.48 43.591
15.75 46.164 44.204
17.564 45.717 42.977
14.623 34.179 5.921
14.84 33.471 3.986
22.35 39.45 1.396
22.065 39.852 3.702
40.035 5.522 32.883
39.566 6.469 35.062
29.988 7.252 36.734
30.385 5.107 36.798
68.015 19.812 43.163
65.946 20.166 43.299
62.264 9.663 43.913
63.852 9.094 42.274
50.025 14.665 19.267
51.284 15.051 21.413
58.46 21.605 23.578
57.55 24.062 23.773
6.667 11.577 32.731
6.298 11.991 34.56
-0.21 4.605 36.763
-1.338 6.044 38.186
49.723 69.022 36.799
49.684 69.836 38.919
59.577 70.148 37.055
61.441 70.143 39.157
27.2 48.416 27.414
28.543 49.745 26.558
36.412 55.224 29.234
36.605 57.446 28.838
82.768 59.832 30.17
80.702 61.393 30.978
72.848 56.155 34.699
71.731 54.64 33.699
69.676 65.572 37.976
67.368 66.681 36.823
73.288 73.593 33.005
75.707 73.82 33.432
6.483 54.871 25.442
5.716 55.807 27.065
14.842 62.337 28.127
13.902 64.321 27.276
48.1 6.391 5.078
50.357 6.052 5.288
54.411 13.724 -0.396
55.735 14.629 1.197
22.488 69.965 13.991
23.092 70.587 11.932
29.857 76.831 8.923
30.856 76.363 7.088
46.411 74.473 40.234
47.832 75.39 41.868
55.015 79.12 37.698
56.726 78.631 36.683
59.309 81.494 8.15
59.842 81.162 5.752
60.027 83.921 2.244
58.802 83.503 0.161
60.486 75.745 41.753
60.297 77.641 42.269
68.549 84.531 42.878
70.207 83.858 42.54
61.469 60.498 12.556
62.442 61.696 13.747
71.107 64.584 10.588
72.513 63.929 12.272
35.175 59.572 29.206
33.724 59.882 27.219
26.413 55.849 31.892
24.354 56.377 33.158
58.321 47.664 34.667
57.214 49.508 35.224
50.524 42.239 36.099
51.24 41.081 37.4
57.699 53.019 36.16
59.009 53.177 37.825
65.425 59.07 32.212
66.477 60.365 33.731
30.453 36.395 17.559
29.874 34.552 17.283
23.932 28.472 23.473
24.483 29.282 25.448
32.84 -2.34 32.17
32.766 -1.082 33.752
42.17 3.171 29.638
43.593 2.561 30.597
30.491 66.642 32.035
31.377 67.827 33.659
40.822 72.15 32.219
41.968 70.243 32.28
10.157 82.508 43.393
11.861 81.969 44.505
17.045 89.332 42.701
19.026 88.926 43.906
25.183 8.266 31.574
25.772 9.876 32.658
33.006 10.445 25.755
33.175 12.626 26.483
25.032 43.08 16.612
23.307 42.715 15.362
15.79 38.602 19.129
13.851 38.332 17.826
55.397 20.201 3.291
54.359 21.918 1.492
61.894 27.841 -2.049
64.187 27.488 -1.202
9.162 77.865 31.809
9.933 78.067 29.894
16.36 82.987 28.179
16.256 83.418 26.375
50.936 27.831 8.238
50.545 30.051 7.928
57.905 36.033 5.682
57.537 38.199 6.685
31.544 80.394 20.381
31.419 79.309 18.502
24.317 72.537 21.919
22.521 72.425 20.386
52.23 75.521 14.863
54.152 75.335 15.777
61.496 80.85 9.93
63.503 79.715 11.205
55.134 43.55 3.574
55.744 45.716 3.718
62.545 49.945 -2.169
63.093 51.776 -1.328
56.278 7.241 29.001
54.706 8.946 29.678
47.397 1.516 33.411
45.702 2.537 33.977
71.0 9.429 31.457
71.771 9.122 33.55
79.188 17.566 31.96
77.776 18.94 31.8
36.837 24.363 12.337
35.621 25.061 10.602
29.681 16.269 11.78
27.773 16.671 13.107
1.131 43.41 32.219
2.668 43.28 34.064
11.236 48.618 30.04
12.359 48.078 31.599
11.2 88.507 16.772
10.393 87.657 14.847
6.564 86.016 9.102
5.729 85.01 7.858
2.365 -0.655 35.545
2.599 1.232 36.171
9.268 6.73 33.07
10.327 6.444 30.792
25.054 78.71 40.435
23.345 79.492 41.984
17.665 72.587 44.35
16.12 73.413 46.038
53.592 46.939 46.244
53.867 45.555 44.414
58.277 50.452 37.526
59.872 49.182 36.429
66.738 51.446 10.63
67.03 49.627 11.717
59.965 45.543 16.95
59.159 43.427 17.171
32.452 9.162 15.048
33.559 7.414 16.019
24.562 4.072 17.835
24.09 2.545 19.502
25.058 17.974 7.053
23.667 16.385 8.314
13.921 14.961 10.457
12.692 15.876 9.089
62.911 83.573 23.324
64.784 82.751 21.816
72.827 89.052 19.915
72.252 89.056 17.68
43.189 17.56 14.638
40.967 18.871 14.53
36.054 10.661 19.696
35.69 9.306 18.409
64.413 17.093 23.221
63.264 18.996 23.296
72.759 23.549 20.674
72.773 24.431 22.682
64.971 3.575 44.611
64.934 5.212 43.018
72.393 7.585 37.544
72.844 6.798 35.084
56.984 57.797 37.384
58.383 56.006 38.22
64.494 62.128 34.063
65.878 62.79 35.672
64.214 55.695 12.021
64.284 53.949 13.621
56.464 51.439 18.423
54.82 52.843 19.294
58.939 0.568 24.026
59.646 0.98 22.254
66.028 8.236 20.157
67.496 7.531 21.743
21.027 10.523 24.344
20.425 12.534 23.926
27.676 18.247 21.202
27.876 20.361 22.66
51.455 40.019 40.163
52.34 38.456 38.915
45.075 30.354 38.88
45.65 29.925 41.133
10.866 49.187 19.761
9.35 50.534 19.256
17.087 55.392 15.175
16.169 55.604 12.665
-1.424 63.335 20.726
-2.218 65.064 19.714
7.185 69.863 18.382
8.155 69.916 20.293
4.366 66.011 42.404
4.387 68.339 42.893
12.227 72.614 40.62
11.806 74.795 39.128
32.725 16.249 18.389
31.34 17.667 17.044
39.743 22.579 16.45
39.569 24.18 15.458
58.423 86.505 21.229
58.928 87.67 22.935
49.49 84.524 28.519
50.737 83.538 29.698
82.145 18.646 -2.555
83.252 19.118 -0.319
73.745 15.498 3.07
75.85 14.465 2.222
39.329 76.868 30.367
41.334 76.979 30.891
49.428 81.071 28.244
49.586 82.88 26.442
34.917 81.625 29.886
36.756 80.255 29.574
42.459 88.394 26.809
42.49 90.375 28.254
4.417 34.194 18.203
3.222 35.775 17.342
9.031 43.593 17.062
10.099 44.727 18.382
12.178 56.313 43.907
12.061 57.21 46.133
16.748 64.014 40.051
16.588 65.897 38.573
48.364 63.104 31.195
48.499 63.097 33.468
38.254 58.892 35.246
38.215 59.284 36.951
32.319 1.744 33.88
32.154 3.418 34.668
36.7 10.207 31.417
37.448 10.717 29.598
71.951 47.45 22.768
72.412 45.466 23.429
63.299 41.69 24.253
62.245 40.826 22.716
64.657 13.665 16.365
64.184 15.768 16.591
71.885 22.91 16.206
70.643 23.455 14.416
37.472 88.912 44.007
38.597 87.063 42.355
47.837 88.964 39.859
49.72 89.27 41.636
40.466 81.608 39.022
39.807 83.769 38.805
48.816 87.052 38.362
50.343 85.205 39.37
56.117 87.525 11.864
55.834 88.109 13.861
51.059 77.956 14.549
50.725 78.079 17.135
34.311 59.856 23.937
33.587 58.396 22.284
26.051 54.47 29.364
24.853 55.87 29.639
10.074 51.442 34.2
8.986 53.174 33.599
-0.621 49.329 34.347
-2.233 47.663 32.683
25.912 88.25 14.038
23.386 88.656 13.412
15.52 83.945 18.758
15.806 82.073 18.879
61.672 31.607 43.93
62.571 30.627 42.229
73.139 34.636 45.095
74.015 33.676 43.332
61.997 34.459 12.878
64.247 34.055 13.164
69.57 40.798 7.52
70.978 40.352 6.11
45.031 79.752 4.612
44.376 77.809 3.241
38.015 71.666 6.912
38.911 70.273 7.819
41.511 85.637 3.715
40.74 85.458 1.584
49.784 87.041 -0.895
50.914 86.772 -2.509
80.24 59.682 25.531
78.365 59.818 24.289
70.091 56.227 27.307
68.495 57.594 26.273
62.198 71.583 42.733
62.271 73.556 43.1
71.616 78.387 43.999
72.164 77.504 41.28
27.924 84.441 8.643
29.138 84.666 10.395
37.554 87.974 6.552
39.95 88.722 7.687
67.391 15.644 32.723
66.104 17.152 31.203
70.616 25.863 29.523
72.456 27.329 29.575
40.902 80.251 41.999
38.761 80.054 41.315
29.167 77.779 42.186
29.03 75.477 41.829
40.973 39.086 9.196
42.104 37.764 10.789
35.14 32.311 15.566
32.805 32.964 14.631
16.165 34.153 18.828
17.563 32.548 20.108
10.958 26.257 25.338
9.947 25.502 23.242
78.934 10.466 11.456
77.723 11.931 10.876
69.662 4.698 11.85
67.431 5.153 10.869
10.781 60.815 12.605
9.258 62.066 12.082
2.685 54.081 11.759
2.056 53.003 13.623
48.444 59.411 15.706
49.327 58.157 13.761
58.093 64.886 12.906
59.03 64.313 10.695
67.127 6.28 4.492
68.087 4.81 5.425
73.556 12.814 3.664
72.961 14.089 5.664
76.212 82.417 9.218
74.317 83.663 10.182
67.025 78.735 12.757
66.123 76.687 13.515
69.505 35.723 37.454
69.581 33.96 39.541
60.008 29.481 36.738
59.681 28.247 38.788
60.316 92.806 35.739
60.161 92.295 38.229
56.452 85.232 41.415
54.739 84.286 40.959
25.768 20.118 20.346
24.494 21.685 20.61
18.902 15.112 25.398
18.018 14.289 23.662
42.568 38.857 5.776
44.14 37.647 7.334
51.717 42.385 3.874
52.383 44.257 3.143
66.304 7.901 15.194
65.162 9.809 16.197
56.465 3.898 19.7
56.441 4.923 21.928
1.921 77.237 11.961
2.097 78.915 10.554
9.665 84.03 6.342
10.69 84.078 8.497
48.316 36.009 12.775
47.893 36.978 14.738
57.543 41.508 13.567
58.963 40.028 13.471
26.276 71.168 31.47
25.485 68.901 30.883
23.981 60.857 34.649
21.888 60.676 34.531
14.637 28.655 2.293
16.742 28.779 1.327
24.911 34.11 -1.379
24.738 35.985 -0.381
7.669 80.519 34.077
8.896 79.966 35.618
16.66 86.658 34.516
16.272 88.718 34.152
46.787 81.193 17.635
48.833 82.039 17.512
52.738 90.714 17.586
54.491 91.164 18.479
83.831 67.894 9.417
82.499 69.029 7.815
74.981 60.582 6.56
74.242 61.67 7.996
44.146 22.916 25.508
44.204 22.605 28.023
34.9 19.375 29.95
33.174 20.508 29.395
11.118 8.578 34.094
11.836 6.739 34.259
20.684 9.467 29.486
20.284 11.014 28.32
32.661 60.844 21.776
31.781 61.396 20.113
38.588 69.1 19.712
40.694 69.269 19.405
34.558 10.745 22.291
33.47 10.022 20.206
25.649 3.243 24.493
24.505 4.678 25.389
46.132 24.733 34.113
43.873 23.733 34.391
36.04 20.642 39.398
37.256 19.179 40.468
62.364 64.52 27.232
61.267 66.539 26.773
68.433 73.044 24.019
69.895 74.354 25.722
12.054 9.461 38.822
12.207 9.952 36.836
21.235 11.896 35.879
21.656 14.212 35.082
63.022 53.381 10.744
63.251 52.56 8.626
56.522 45.068 11.891
55.032 46.382 12.853
55.302 8.97 32.599
53.967 9.701 34.202
46.174 5.893 36.915
46.731 3.934 36.692
74.966 64.281 17.898
73.262 64.08 16.808
65.496 57.029 15.682
65.971 55.76 17.97
40.347 34.121 40.288
41.796 33.897 38.148
48.94 40.634 34.563
47.776 42.382 33.933
42.251 51.679 28.108
42.861 52.74 30.058
49.263 59.22 26.145
50.127 59.6 24.22
39.514 1.2 11.08
39.11 1.712 8.888
47.068 4.324 3.4
49.246 3.724 4.385
40.467 32.969 34.576
39.969 33.841 32.648
46.48 39.987 28.314
48.095 38.516 28.038
67.984 58.542 30.958
69.65 57.578 31.901
76.193 65.043 29.255
77.183 65.352 27.095
11.188 5.705 26.968
12.381 3.703 25.728
19.096 10.297 22.192
20.083 9.62 20.203
49.902 73.915 7.821
48.33 74.574 8.81
41.737 66.65 11.249
39.47 67.835 10.77
65.117 39.784 24.017
65.249 38.837 21.901
73.356 43.471 19.006
74.687 42.308 18.168
-3.732 33.336 41.218
-3.664 35.741 41.403
3.054 42.299 39.256
3.623 42.46 37.095
28.71 11.365 43.168
27.774 12.924 42.052
33.896 17.229 36.815
35.365 18.357 37.955
2.309 44.621 38.779
3.37 45.768 37.022
13.173 46.061 37.596
14.569 47.538 35.837
3.205 54.752 18.415
3.648 56.32 16.959
10.593 63.236 18.466
11.462 63.059 20.255
24.048 72.245 32.71
23.505 70.686 31.403
19.941 62.207 35.444
19.102 62.678 33.507
19.219 69.767 0.983
19.441 71.479 2.082
26.697 76.613 -1.249
27.703 78.332 0.254
27.966 66.18 21.755
30.421 66.629 22.19
36.595 72.001 16.829
38.396 70.658 17.228
59.773 47.466 25.381
60.827 45.831 25.388
70.296 49.23 27.342
72.658 49.231 25.923
35.925 6.826 17.133
36.379 8.281 15.668
44.766 12.241 14.843
44.941 14.103 16.191
70.515 7.021 25.38
73.123 6.283 24.857
76.31 15.815 26.817
77.854 15.312 29.018
55.012 72.229 15.793
54.115 70.32 16.901
46.189 64.611 19.631
44.705 65.295 18.151
35.609 0.331 40.779
36.035 2.881 40.466
45.534 4.976 40.382
45.096 6.832 39.246
30.331 25.196 37.406
29.51 26.342 38.841
20.846 23.158 41.709
19.254 23.316 40.838
16.367 17.742 32.455
14.841 18.831 33.461
6.529 15.995 31.72
6.3 14.088 32.845
9.815 22.643 12.441
8.217 24.123 13.118
16.535 29.38 10.232
18.582 30.017 10.911
52.527 82.987 36.98
53.233 80.682 36.351
42.633 78.398 37.308
43.377 76.176 37.318
68.639 24.321 10.926
66.984 26.262 10.688
59.593 21.354 13.663
58.762 20.314 15.654
25.183 64.225 10.362
24.23 62.567 8.459
16.752 58.435 14.684
14.946 59.743 13.877
3.942 2.761 46.767
4.485 1.636 44.96
10.52 8.973 41.109
12.339 7.747 40.834
5.007 38.467 37.404
3.546 37.8 35.107
-2.543 30.485 37.83
-4.336 30.804 36.567
32.211 24.799 6.206
30.008 24.984 6.89
24.861 20.938 12.371
22.537 20.017 12.08
39.804 51.813 26.814
38.128 52.142 25.83
32.642 43.392 29.212
32.847 43.13 31.495
47.574 72.961 -1.061
45.769 73.913 0.486
38.452 69.82 2.708
38.497 70.489 4.725
34.734 6.251 5.025
36.69 5.773 4.137
44.365 10.928 4.153
45.542 9.759 3.178
82.409 84.082 31.355
81.786 82.244 32.815
