-3.507 59.287 40.61
-5.393 59.976 39.445
68.579 3.335 23.474
66.483 3.343 22.173
64.564 5.3 21.642
64.89 7.773 21.864
25.156 55.038 94.639
26.402 56.232 96.211
29.208 56.687 96.279
30.389 56.933 94.113
3.062 59.565 87.109
3.536 61.148 86.199
4.523 61.597 83.892
4.148 60.108 81.854
2.874 50.872 78.675
3.95 48.992 78.305
6.264 48.559 79.504
8.017 50.735 80.131
17.798 55.495 27.121
18.682 54.461 29.278
19.837 52.063 29.592
19.366 50.264 28.625
40.511 23.419 52.538
41.304 24.605 50.536
41.58 26.88 50.094
41.266 28.873 51.414
58.842 31.82 68.436
59.958 29.69 67.477
61.173 27.926 68.447
61.479 27.218 70.911
65.687 56.38 35.116
65.71 55.574 37.577
64.843 53.675 38.675
62.518 52.212 37.47
38.97 95.003 54.782
36.998 96.212 54.788
36.286 98.53 53.875
37.568 100.45 52.912
58.046 105.472 69.02
59.844 104.036 70.389
59.693 101.5 71.176
58.206 100.195 71.196
15.144 5.973 68.958
13.464 4.806 67.673
13.197 3.446 65.841
14.635 3.309 63.662
24.333 13.962 20.655
24.729 16.251 20.039
24.488 16.465 17.037
23.274 15.395 15.621
3.359 61.552 89.061
4.735 63.632 88.49
6.556 64.939 90.091
8.075 64.083 91.722
18.086 65.174 55.363
15.893 65.92 55.899
14.992 68.518 56.437
16.17 70.561 56.954
46.536 36.863 22.061
47.344 38.865 20.275
47.082 41.271 20.323
46.247 42.816 21.909
9.306 3.851 59.076
10.403 2.439 60.725
9.585 0.071 61.523
8.025 -1.476 60.701
34.724 67.302 52.111
36.597 66.484 50.607
37.141 64.451 49.608
36.069 62.122 49.469
67.744 40.687 16.717
67.963 41.959 14.605
70.62 42.7 13.92
72.418 43.076 15.597
33.303 96.378 87.989
32.751 95.191 85.613
33.288 93.315 84.515
34.748 91.106 84.918
30.844 88.009 84.195
31.413 87.383 82.165
30.216 85.962 80.266
28.116 84.309 80.878
28.51 82.824 84.338
29.756 82.456 82.109
29.667 80.764 80.55
27.496 79.025 79.999
32.56 7.896 49.119
33.27 7.873 51.641
34.391 9.374 53.29
35.635 11.271 53.173
61.628 63.534 42.002
63.792 63.38 43.005
64.57 62.104 44.877
63.453 59.841 46.211
15.661 33.092 54.649
14.364 34.617 53.382
15.037 36.829 51.868
16.877 37.941 51.252
43.178 57.761 24.032
45.084 57.013 24.934
47.457 55.752 23.891
48.234 56.033 21.741
23.825 31.609 6.684
25.133 33.576 6.554
24.469 36.301 6.481
22.522 37.592 6.455
65.7 76.244 50.497
64.082 77.549 49.279
61.775 76.639 48.223
61.034 74.234 47.917
51.669 26.74 93.783
50.419 26.457 92.008
48.85 24.146 91.947
49.146 22.326 92.976
36.842 36.093 48.5
34.978 36.776 46.454
34.273 39.475 46.188
34.395 41.257 47.775
64.325 40.79 45.485
64.626 39.419 43.705
64.797 40.065 41.426
64.932 42.36 40.726
15.229 38.876 49.354
13.383 39.305 50.914
11.055 38.711 51.157
9.546 36.706 49.871
38.162 83.552 81.086
37.235 85.581 81.071
37.542 87.685 79.286
38.312 87.696 77.416
33.588 85.918 77.856
34.595 84.427 79.658
34.008 82.101 80.79
32.469 80.41 80.07
31.953 40.015 5.917
30.285 41.416 6.402
30.173 44.371 6.462
31.933 45.766 6.19
31.371 7.222 73.824
30.173 8.296 75.492
29.745 10.984 75.471
29.968 12.604 73.414
28.343 47.228 10.862
26.386 47.458 9.204
26.482 49.585 7.24
27.122 51.429 7.297
31.85 97.882 83.752
32.434 99.175 81.985
30.811 98.261 79.807
29.004 96.483 80.293
37.037 34.85 41.327
35.896 36.402 42.644
34.077 38.015 42.052
34.752 39.348 39.792
5.63 57.315 57.577
7.677 58.379 57.904
9.673 58.422 60.049
10.327 56.298 61.367
59.773 88.081 73.437
59.827 89.207 71.621
59.714 91.756 70.769
59.314 93.686 72.287
20.727 11.465 54.971
18.273 11.026 54.497
17.057 8.651 54.039
17.542 6.707 55.004
47.347 81.183 34.943
47.719 80.494 32.764
47.534 78.11 31.543
46.854 76.313 32.423
60.547 98.906 75.567
59.205 100.651 75.556
59.867 102.835 73.94
61.799 103.507 72.99
45.073 87.733 4.578
46.296 88.925 2.478
48.314 87.751 1.07
48.933 85.423 0.804
43.118 96.541 23.955
42.237 97.682 25.803
43.352 99.127 27.676
45.251 99.979 27.931
-0.353 -2.091 26.727
-0.615 -1.878 24.482
0.776 -3.785 23.141
3.165 -3.901 22.516
5.499 11.531 90.357
3.839 10.356 89.16
2.27 8.692 90.674
2.159 8.264 93.227
55.086 95.004 75.148
57.689 95.311 74.004
58.302 96.455 71.892
57.307 97.764 70.196
18.356 7.382 58.102
16.063 7.176 57.905
14.221 6.52 59.744
14.316 5.23 61.532
31.477 36.433 8.024
30.876 38.766 8.212
31.252 40.73 9.988
31.568 40.7 12.159
58.902 55.648 66.434
57.081 57.434 67.342
57.338 59.544 67.781
59.431 60.917 68.536
30.503 30.361 65.821
32.48 29.164 66.074
32.972 26.428 65.915
31.857 24.635 65.19
45.424 60.19 89.526
47.065 58.744 88.57
46.649 56.466 87.221
44.166 55.064 87.388
27.3 22.84 10.117
26.842 21.581 8.354
26.942 19.085 7.747
25.419 17.81 9.23
46.458 38.814 11.154
47.335 37.852 13.485
47.205 36.045 14.542
46.657 33.685 13.831
16.793 58.326 54.608
16.059 57.635 56.531
15.417 55.066 57.302
14.393 53.365 55.958
13.764 84.278 53.881
13.179 84.365 55.56
11.776 86.332 57.005
10.832 88.043 56.469
10.948 42.548 54.908
10.306 44.604 55.536
11.792 46.705 54.208
13.501 46.47 52.456
60.898 78.165 20.149
62.819 78.094 20.245
64.69 76.455 21.442
64.389 74.233 22.263
41.304 5.892 29.993
41.014 3.873 29.062
40.074 4.274 26.36
38.612 5.98 25.714
61.345 1.5 41.745
61.44 3.817 42.802
61.763 6.214 41.72
62.929 6.713 39.739
27.158 67.505 78.796
28.43 68.635 77.806
27.387 70.908 76.386
24.923 71.677 77.24
26.156 65.407 11.038
26.667 63.001 10.9
28.862 62.421 9.428
30.046 63.67 7.638
55.518 79.827 6.3
54.49 77.913 5.28
55.379 75.82 3.92
54.932 76.873 2.058
24.621 17.251 33.075
24.578 17.451 30.719
23.049 15.611 29.553
22.105 13.623 30.415
37.091 4.434 24.316
39.101 2.743 24.1
39.191 0.476 24.671
37.469 -1.092 26.011
42.559 92.241 52.637
42.253 90.678 54.315
42.765 88.198 53.945
45.143 87.29 52.562
29.901 68.58 70.29
29.01 66.796 70.849
30.366 65.163 72.405
32.722 65.712 73.314
67.493 0.028 16.587
67.979 1.396 18.603
68.917 3.896 18.766
68.597 5.627 17.045
25.006 60.207 35.464
25.294 59.836 33.143
23.624 57.779 31.753
21.766 56.709 32.459
64.242 99.13 51.413
62.394 99.611 50.5
61.788 100.52 48.193
62.972 101.441 46.325
24.023 56.71 5.11
25.551 56.508 7.041
26.723 58.434 8.372
27.191 60.831 7.648
64.901 38.13 46.723
65.328 36.86 44.703
63.828 36.152 43.043
61.425 35.225 43.399
10.037 38.662 82.846
8.234 36.588 82.442
8.519 34.312 81.66
10.219 33.182 80.238
29.035 66.553 16.923
27.929 66.974 14.675
28.313 65.123 12.464
29.199 63.117 12.468
0.939 4.157 19.891
0.724 3.719 21.766
0.079 1.269 22.88
0.384 -0.85 21.787
41.37 28.452 28.23
39.608 27.183 27.346
39.841 26.595 24.727
41.425 26.112 23.44
2.782 63.636 84.089
4.649 64.671 83.801
5.234 66.963 82.302
4.045 68.447 80.986
65.454 76.528 45.4
64.467 74.436 46.363
65.829 73.267 48.536
67.989 72.805 48.82
30.468 52.293 10.92
27.872 52.403 11.793
26.924 53.391 13.905
27.63 55.258 15.288
20.339 12.491 6.422
20.598 12.857 8.477
21.773 14.808 10.203
23.005 16.68 9.741
4.049 95.746 89.249
4.054 98.144 87.951
3.367 100.503 88.917
1.521 101.132 90.77
66.344 66.193 44.05
65.429 68.13 43.06
64.596 70.247 44.094
64.614 71.147 46.125
49.934 30.544 3.078
50.044 28.596 1.937
49.826 26.249 3.367
51.576 26.333 5.331
44.678 61.586 87.23
46.446 59.868 85.858
49.046 60.778 86.125
49.727 62.94 87.251
9.545 40.887 30.437
12.045 41.348 30.457
13.18 43.457 31.788
12.547 45.231 32.915
27.471 102.494 7.602
26.961 104.656 9.183
27.164 106.693 8.974
27.011 108.564 7.161
1.344 98.776 26.853
1.805 97.148 24.758
2.578 95.066 24.457
1.812 93.203 26.819
40.118 16.004 46.404
41.023 16.91 48.627
39.459 15.928 50.547
37.52 14.426 50.264
72.369 33.18 79.207
73.094 35.697 79.589
75.463 35.58 79.938
76.89 33.213 80.035
55.876 74.605 94.381
54.808 72.71 94.723
54.645 70.519 93.193
53.896 70.559 90.908
27.846 14.243 72.059
28.871 15.797 73.362
30.469 18.118 72.864
31.461 18.941 71.095
64.705 81.977 34.277
62.826 82.414 36.241
62.855 84.704 37.196
64.671 86.102 37.567
31.811 70.51 70.059
30.803 71.134 72.14
30.396 73.252 73.224
31.229 75.563 72.866
7.813 35.672 57.933
9.677 36.545 56.415
10.926 38.762 56.154
10.956 41.01 57.438
68.126 65.031 25.141
70.336 66.14 25.474
71.955 65.407 23.755
71.206 63.126 22.14
32.795 53.573 77.525
32.178 51.454 77.448
29.421 51.015 76.859
27.653 52.676 77.292
27.371 27.365 69.2
29.712 27.156 68.774
31.902 27.458 70.473
31.891 27.122 73.023
49.373 35.618 84.436
50.296 33.559 85.61
49.887 31.213 85.525
49.642 29.842 84.104
45.514 -1.711 30.708
45.448 -0.378 28.625
44.789 2.332 28.349
44.167 3.937 29.719
67.558 5.347 1.367
69.295 5.106 -0.376
71.934 5.277 -0.335
73.371 4.34 1.472
60.48 76.017 43.292
61.636 76.295 45.44
63.387 77.694 46.218
64.609 79.952 44.764
11.845 53.328 55.341
11.229 54.963 56.978
9.779 57.272 56.664
7.612 57.282 54.997
28.36 70.208 73.731
29.204 67.976 73.289
28.753 66.327 74.787
26.52 66.238 76.516
53.904 64.513 6.62
54.245 65.295 4.393
53.831 68.004 3.701
52.858 69.822 4.447
66.841 61.625 10.989
67.294 59.416 11.862
66.938 57.295 11.595
64.366 55.936 10.866
69.987 39.537 17.433
69.749 38.826 14.775
69.125 36.657 13.863
68.212 34.548 14.922
22.645 83.204 35.737
20.72 84.181 35.59
19.767 86.905 36.283
20.769 88.608 37.037
42.718 45.146 71.335
41.299 43.684 70.085
38.813 43.433 70.863
37.418 45.384 72.24
6.981 70.146 79.85
4.922 70.769 81.425
4.588 72.346 83.065
6.228 74.017 84.432
57.677 100.443 50.599
59.001 98.224 50.589
57.742 95.845 50.053
56.047 95.137 51.089
49.217 43.011 14.31
47.809 43.603 16.696
47.084 45.859 17.537
48.342 48.112 17.462
61.347 2.882 68.84
59.491 2.785 67.162
58.307 5.081 65.918
58.943 7.182 65.985
57.792 18.532 35.936
60.003 17.969 37.242
60.576 16.202 38.968
59.286 14.148 39.853
10.535 -0.372 89.101
9.55 0.091 91.24
8.05 1.883 92.212
6.426 3.361 91.185
63.007 19.774 63.325
62.676 21.714 64.878
61.606 20.79 67.037
62.122 18.849 68.265
0.018 58.785 9.342
-0.438 57.777 11.19
0.442 55.503 12.126
1.888 53.822 10.961
46.186 11.072 21.905
44.332 12.174 23.562
42.98 14.316 23.3
43.199 16.205 21.784
2.431 58.182 12.981
1.274 57.851 15.175
-0.88 58.762 15.99
-2.225 60.67 14.639
56.218 8.581 45.731
58.874 8.606 46.397
60.041 6.527 44.803
58.744 4.834 43.384
37.085 25.263 67.0
35.559 26.54 68.494
33.667 25.648 70.136
32.615 23.7 70.436
65.795 13.614 62.815
65.324 15.13 64.544
63.092 16.815 63.835
62.124 17.031 61.723
44.136 18.946 22.001
43.124 20.796 23.828
42.357 23.391 23.442
41.895 24.466 21.425
22.769 69.053 31.871
20.635 69.283 32.701
19.307 66.849 33.273
19.309 65.09 32.513
55.306 45.786 -1.181
53.749 45.667 -2.958
52.487 43.615 -4.016
52.556 41.357 -3.662
10.078 99.455 87.194
10.115 97.354 87.339
10.953 95.301 85.298
12.39 95.822 83.639
43.539 37.026 49.399
41.698 36.205 48.551
39.385 37.337 47.785
38.327 39.426 48.28
13.767 13.507 53.085
15.847 12.35 54.49
15.517 10.321 56.381
14.067 10.492 58.186
60.659 25.093 36.016
60.37 23.751 37.5
58.602 21.682 37.986
56.896 21.017 37.074
39.22 105.262 29.165
41.325 104.606 28.164
42.68 102.318 28.431
41.053 100.417 27.051
53.506 102.07 47.505
55.369 101.479 48.223
57.201 99.937 47.867
56.687 97.717 45.963
23.386 67.42 38.981
23.965 66.573 37.286
22.444 64.805 35.337
19.921 64.623 35.279
52.299 99.197 8.594
52.322 96.655 8.557
50.482 95.486 7.181
48.687 96.397 6.407
31.286 41.97 70.832
30.288 42.632 72.657
27.694 41.913 73.747
25.809 41.446 72.707
4.68 82.197 83.058
6.998 83.443 83.819
7.615 85.672 84.213
6.605 87.989 84.104
13.185 26.59 54.917
15.352 26.339 56.329
16.373 24.148 57.422
15.693 21.861 57.246
8.003 65.929 82.323
7.211 63.887 83.494
6.685 61.726 82.702
6.58 60.45 80.326
18.14 29.6 23.157
17.639 28.776 25.186
17.006 30.167 27.57
16.556 32.658 27.434
64.294 10.262 14.084
66.143 9.272 15.523
66.506 7.14 16.824
65.4 4.949 16.31
35.546 26.443 72.377
35.857 28.309 70.774
37.344 30.074 70.629
39.694 30.583 71.053
64.559 88.792 44.635
62.608 88.353 45.953
61.662 89.203 48.162
61.789 91.016 49.399
20.945 42.571 27.935
19.309 43.942 28.076
18.865 46.403 29.366
20.124 47.991 30.089
-0.868 39.378 42.99
-2.944 40.921 43.947
-3.551 41.806 45.948
-3.493 41.144 48.143
39.545 56.647 28.179
41.026 56.533 25.927
42.897 55.308 25.49
44.072 53.187 26.525
50.8 75.489 29.616
49.178 77.233 29.102
49.107 79.78 30.325
50.32 81.014 31.411
22.216 7.616 12.656
24.051 7.546 11.167
26.369 6.168 11.478
27.844 5.783 13.441
31.389 3.168 75.867
31.612 0.886 76.497
29.193 -0.389 76.647
28.073 -0.202 74.75
24.795 14.74 75.559
25.518 13.137 74.275
27.171 10.971 75.259
27.841 10.535 77.472
62.977 92.192 53.282
62.053 93.236 51.021
61.203 95.2 50.419
61.295 97.481 51.597
27.521 72.415 11.269
26.056 74.394 12.074
25.691 76.722 10.795
23.843 76.301 10.279
44.619 25.85 18.411
43.613 26.246 20.391
43.006 28.804 21.114
43.552 30.676 19.411
45.73 35.099 44.694
43.711 34.248 45.955
43.02 31.781 46.739
43.81 29.326 45.524
22.595 6.719 7.579
24.649 5.879 8.862
24.8 3.901 10.276
23.253 2.889 11.382
68.809 15.971 17.994
68.026 14.204 16.574
66.806 12.039 17.272
66.086 11.075 19.278
51.693 66.541 85.796
52.029 64.954 87.445
52.177 65.005 90.209
51.691 66.86 91.734
57.117 94.526 79.507
57.064 92.157 79.972
57.541 90.704 77.53
57.897 91.508 75.195
57.294 89.681 46.196
59.41 91.29 46.785
59.85 92.674 48.969
58.79 93.419 50.545
12.407 102.179 40.912
12.61 100.491 39.067
13.923 98.463 38.721
15.569 97.396 39.762
4.514 52.829 86.374
5.479 54.322 84.972
4.834 57.02 85.773
4.386 57.519 88.369
13.83 101.101 61.296
12.64 102.757 61.199
12.116 104.609 63.049
13.599 104.648 64.866
50.343 76.814 6.746
51.708 76.841 4.982
52.528 75.185 3.738
53.461 72.847 4.147
20.446 93.885 36.32
20.631 91.957 35.152
18.772 89.779 35.762
16.847 89.924 37.125
15.3 84.445 58.062
14.109 84.142 59.692
12.881 85.893 61.755
12.988 88.196 61.616
20.543 101.212 32.809
18.025 101.513 33.556
16.82 102.991 34.552
17.349 105.38 35.884
4.613 41.683 78.73
5.335 42.48 81.089
6.634 39.942 82.177
7.074 38.131 80.744
24.981 8.11 77.059
27.48 7.926 76.598
29.3 6.155 77.179
29.291 3.843 77.381
47.526 29.28 1.256
48.083 27.468 -0.177
47.044 24.715 0.212
46.121 23.806 2.321
53.031 86.992 71.597
55.479 87.51 71.665
56.545 89.816 72.847
55.73 91.985 73.134
57.556 18.777 63.535
58.89 19.311 65.417
58.833 20.512 67.404
56.963 22.021 68.59
46.02 101.339 95.94
46.305 99.452 97.197
48.764 98.119 97.241
50.423 98.314 96.067
26.388 97.81 79.096
28.613 99.542 78.944
29.995 100.287 77.693
29.975 100.591 74.871
65.591 66.7 22.358
68.043 66.945 22.142
69.854 67.894 23.492
70.029 69.836 24.916
59.502 -0.58 51.382
59.999 -1.11 49.125
59.581 0.185 46.902
57.209 1.012 46.14
13.091 96.414 34.009
14.841 96.868 35.429
15.71 99.057 36.862
15.204 101.505 36.233
59.673 16.734 61.416
58.909 15.896 63.891
56.91 14.446 64.637
55.193 13.303 63.651
45.789 23.359 47.948
44.473 24.506 50.288
44.441 26.946 50.733
45.135 28.823 49.997
8.685 36.353 77.734
9.216 33.954 77.598
9.311 32.277 75.407
9.864 32.611 73.587
41.26 83.866 34.339
43.319 83.4 35.324
44.597 80.738 35.616
44.072 78.931 34.986
25.976 77.825 14.384
23.94 77.385 13.01
21.854 78.926 12.457
21.834 81.344 11.886
46.367 92.154 33.685
45.968 93.41 31.99
46.899 96.247 32.328
48.573 96.758 34.43
53.777 34.637 68.078
55.262 35.286 69.937
56.173 37.944 70.012
55.715 39.5 69.045
33.608 101.65 15.382
30.828 101.505 15.263
29.497 100.129 14.109
29.803 98.003 12.465
38.331 23.091 50.998
38.28 24.042 48.85
37.815 26.282 48.163
36.576 28.135 48.924
42.297 66.814 50.788
40.044 65.567 51.534
39.348 63.235 51.079
40.692 61.545 50.464
61.244 78.167 72.338
58.797 78.906 71.947
57.833 80.848 70.827
58.815 82.147 68.779
55.552 4.201 65.78
56.408 4.327 67.791
55.906 6.567 69.359
55.024 8.532 68.978
62.315 4.916 18.596
64.697 4.406 18.731
66.049 2.63 19.673
65.516 0.387 20.677
70.837 49.346 81.419
72.883 48.971 81.004
74.07 47.396 82.602
74.709 44.895 81.63
36.432 86.084 50.258
38.42 87.037 51.551
38.825 88.666 53.188
37.046 90.141 54.607
42.14 30.493 26.568
43.645 29.377 25.191
44.763 30.283 22.797
44.705 32.567 21.662
69.684 97.098 17.963
69.229 98.163 19.951
69.345 100.867 20.562
69.308 102.771 19.426
37.034 93.468 83.312
34.96 93.662 82.415
33.636 95.498 81.095
34.002 97.538 80.449
20.947 95.083 34.089
20.879 97.114 33.58
22.482 99.098 33.817
24.789 99.127 35.256
45.527 15.619 90.842
46.658 14.612 88.789
46.244 12.641 87.58
45.932 10.173 88.329
9.284 94.959 65.845
9.386 94.415 63.552
10.195 92.364 62.165
10.625 90.25 62.352
3.521 23.312 86.189
5.314 21.657 86.912
5.489 19.875 88.653
3.047 19.065 89.515
65.965 3.727 -0.468
66.644 3.439 -2.806
65.677 3.568 -5.085
63.124 4.72 -5.739
51.096 37.356 20.394
49.868 38.101 18.156
49.994 40.337 16.917
50.085 42.726 17.876
46.913 74.589 94.378
49.064 74.754 93.47
50.733 76.53 94.776
49.771 78.057 96.589
18.394 45.54 57.908
18.669 44.129 56.127
18.743 44.448 53.448
18.303 46.466 52.198
35.858 58.53 49.069
36.757 56.787 49.7
37.132 55.088 47.545
35.662 55.04 45.612
54.877 43.771 83.67
55.941 44.173 85.159
55.994 42.51 87.086
56.709 40.021 87.027
49.462 43.823 86.086
50.963 42.638 86.76
51.109 40.066 86.285
49.597 38.208 86.416
68.595 104.119 26.598
67.685 104.591 24.379
65.626 104.838 23.316
63.846 105.403 24.187
70.169 64.616 17.864
69.751 65.881 19.624
68.764 68.412 19.889
68.206 70.091 18.222
48.111 15.942 -0.382
47.223 17.57 -1.685
48.379 18.579 -3.505
51.078 18.413 -3.505
38.518 83.867 59.206
39.058 83.232 56.891
39.948 84.477 54.852
40.106 86.492 54.137
35.544 24.308 20.641
38.057 24.079 20.22
39.726 25.535 20.534
40.329 27.572 21.594
27.968 56.754 12.466
28.593 57.127 10.13
30.365 58.975 9.251
30.884 60.734 10.261
13.906 18.957 59.26
15.615 17.902 58.523
15.898 15.298 59.585
13.938 14.064 59.597
52.66 33.185 18.052
51.113 34.73 18.832
49.484 35.97 16.735
49.858 35.36 14.399
12.833 33.712 29.729
15.046 33.373 30.883
16.179 31.057 31.789
15.827 28.887 31.333
63.35 86.67 49.175
63.275 85.882 46.931
63.906 83.431 46.156
64.652 81.722 47.373
51.607 82.007 8.231
51.847 79.979 6.995
49.447 79.197 5.981
47.387 78.942 6.811
47.091 96.025 71.943
45.894 95.096 73.459
43.14 94.452 73.782
41.537 94.18 72.594
32.096 71.137 16.737
30.175 70.994 14.694
27.984 70.037 14.595
26.551 69.058 16.397
42.303 47.032 21.954
44.25 45.382 21.251
44.463 43.451 20.034
42.755 41.696 20.359
1.5 12.383 83.843
1.148 11.594 85.677
2.55 10.122 87.036
5.169 9.517 85.772
19.416 36.985 26.981
19.013 39.163 27.259
18.702 40.833 29.293
19.005 40.541 31.418
3.262 70.213 83.798
4.254 69.202 85.303
5.18 70.389 87.66
4.624 72.075 88.662
9.677 80.135 87.472
9.798 82.259 87.577
10.551 83.614 89.99
12.684 83.128 90.708
9.757 91.319 89.648
7.596 92.265 89.545
6.749 94.986 90.027
7.853 96.515 90.978
53.58 33.261 88.875
51.448 32.668 89.121
50.121 30.834 90.592
50.969 29.651 92.64
23.419 84.477 5.578
23.516 85.533 7.645
22.16 85.259 9.941
20.423 84.128 10.461
19.435 30.989 33.246
18.526 31.465 31.051
17.959 33.618 29.716
18.035 35.888 30.116
36.401 68.385 18.148
33.886 68.835 17.24
32.21 67.48 16.075
32.545 65.377 14.377
11.708 97.845 58.129
10.058 99.349 58.992
8.728 101.371 57.877
9.886 102.921 56.236
49.459 19.845 87.385
49.059 21.382 88.776
50.091 23.65 89.465
52.22 24.679 89.222
54.657 96.98 6.478
53.972 98.745 5.359
54.982 100.92 3.885
57.108 101.605 4.049
37.113 74.366 49.95
39.373 74.33 51.556
40.077 75.677 53.456
38.388 77.032 55.019
5.955 99.179 85.762
7.431 99.534 86.686
7.776 101.982 88.363
5.796 103.525 88.624
36.998 29.899 51.515
39.114 30.016 50.473
40.738 31.88 49.587
40.829 33.971 50.398
58.886 12.9 35.786
60.177 12.715 37.652
61.036 9.869 39.147
60.979 8.281 38.273
-0.113 6.567 21.365
-1.881 7.018 19.728
-2.236 9.399 18.381
-0.796 11.165 17.499
20.881 98.816 31.251
19.326 97.325 31.315
17.188 97.743 32.288
16.035 99.883 32.421
37.024 67.613 47.211
38.369 67.264 49.108
39.193 68.913 51.217
38.843 71.256 51.683
58.505 87.337 1.03
56.715 87.102 2.919
55.261 89.031 3.919
55.228 91.558 3.64
11.587 62.14 59.449
12.468 61.038 57.398
13.782 58.783 57.054
13.927 56.742 58.649
49.361 17.003 87.007
50.023 15.504 88.86
49.891 12.969 89.146
48.665 11.335 87.166
27.099 15.289 10.028
25.359 16.204 11.442
23.524 14.281 11.994
23.371 11.969 11.55
70.837 15.073 85.509
72.58 16.222 86.731
73.313 18.424 86.961
72.454 20.637 85.682
63.17 21.164 34.055
62.69 22.493 35.785
61.848 21.376 38.243
61.849 18.986 39.112
63.994 22.064 43.859
63.223 19.621 43.261
62.006 17.907 44.58
60.524 17.967 46.251
35.99 16.461 50.143
37.805 17.986 50.925
38.936 19.831 50.162
39.062 21.318 48.781
19.049 12.758 39.512
18.851 12.559 37.162
20.811 12.549 35.028
22.744 13.918 35.03
69.274 50.205 8.646
69.98 51.585 10.214
68.936 53.506 11.662
67.002 54.523 11.245
36.536 93.359 57.273
38.73 93.624 57.093
40.507 92.043 56.18
41.143 90.114 57.033
40.248 88.385 49.645
41.392 87.809 51.577
41.796 85.336 52.418
41.702 82.947 50.75
11.272 21.334 84.227
8.842 21.482 83.42
7.031 19.982 83.164
6.385 17.903 83.809
39.609 73.908 29.135
41.985 74.248 28.674
43.502 76.51 28.714
42.728 78.842 28.34
51.49 51.783 83.299
50.519 53.423 84.43
51.468 54.449 86.887
53.478 53.711 88.03
8.764 71.59 65.741
10.492 73.961 65.886
12.61 73.322 64.411
13.224 71.065 63.358
39.2 97.866 27.652
40.651 96.255 28.236
40.633 93.586 27.823
38.685 91.884 27.737
26.424 79.659 10.382
25.015 81.856 9.898
25.588 83.978 8.823
25.925 84.328 6.763
20.65 21.86 28.773
19.963 23.622 29.977
18.959 25.941 29.485
19.053 27.412 27.325
63.078 80.148 50.279
62.856 80.065 47.918
60.878 80.313 46.126
58.521 79.687 46.598
29.714 44.363 95.097
30.586 46.218 96.666
29.471 46.864 98.875
26.916 46.835 99.447
68.228 88.96 21.555
70.232 89.679 23.007
70.988 91.748 23.871
69.739 93.305 25.639
40.512 40.048 45.091
38.684 41.106 46.046
36.38 40.776 45.296
35.518 39.934 43.167
53.968 1.533 94.029
51.873 1.073 93.822
50.699 -1.11 94.374
52.326 -3.228 95.429
45.187 34.901 49.273
43.511 32.927 48.929
43.006 30.853 50.405
44.012 30.065 52.085
31.467 84.513 84.038
32.103 82.224 83.797
34.831 81.749 83.182
36.549 82.862 83.01
3.827 33.469 76.931
6.192 33.163 76.974
7.515 30.707 76.36
6.49 28.324 77.317
41.871 87.482 28.152
42.509 89.475 28.487
42.856 91.569 27.409
41.72 92.687 25.211
47.818 50.044 84.694
49.665 48.671 85.296
50.337 46.269 84.472
48.666 44.422 83.547
39.966 93.51 30.951
41.423 92.096 30.171
42.739 90.268 31.267
43.836 90.419 33.443
64.131 10.063 39.212
64.024 11.504 40.943
62.813 10.191 42.395
63.166 7.789 43.141
58.05 17.681 44.465
59.38 17.155 42.676
60.995 15.305 41.903
61.913 13.186 43.603
38.643 88.775 33.528
40.992 88.38 32.618
43.246 87.567 33.541
43.673 86.368 35.535
47.664 14.876 24.249
46.278 13.386 24.987
46.256 11.697 26.935
47.567 11.647 29.156
11.914 6.819 33.118
11.922 4.591 33.997
10.985 5.085 36.457
9.914 7.534 37.104
58.198 8.475 38.92
60.119 7.935 40.789
60.34 8.782 43.188
59.507 10.6 44.304
50.536 97.856 32.03
48.75 97.891 30.257
47.769 99.574 28.754
48.027 101.959 28.268
49.162 69.441 28.248
47.742 71.156 28.098
47.145 73.057 29.793
48.218 74.034 31.71
72.221 103.979 90.024
71.361 105.776 90.888
68.961 105.93 92.154
67.84 103.592 92.607
45.179 96.808 6.005
46.556 96.135 4.079
46.093 95.573 1.764
45.795 93.13 1.808
31.442 7.407 55.954
33.434 6.867 54.966
34.366 4.709 53.897
33.447 2.74 54.224
32.529 2.753 79.914
30.705 1.392 78.918
30.134 -0.936 79.277
32.474 -2.88 79.192
64.772 33.707 42.87
62.97 32.088 42.184
63.337 30.48 40.205
65.631 29.41 39.486
21.837 17.16 34.491
21.902 18.723 32.287
21.494 21.162 32.12
20.821 22.914 33.797
23.139 24.557 94.604
24.719 25.912 93.841
26.714 23.964 93.138
25.891 21.284 92.608
52.047 49.506 84.487
52.941 49.2 86.827
53.988 47.357 87.849
53.85 44.504 87.293
46.784 74.536 4.117
47.724 75.968 5.61
47.709 75.875 8.395
45.52 75.588 9.391
63.348 3.909 25.99
63.122 4.563 24.227
62.885 6.964 23.423
62.239 8.996 24.437
37.678 8.857 50.861
36.032 6.952 50.973
35.838 4.804 49.392
37.788 3.244 49.479
29.881 31.776 8.759
29.041 30.877 6.522
26.934 29.606 5.953
25.022 28.804 7.027
60.971 63.139 69.876
59.442 65.269 69.83
59.991 67.837 70.32
61.401 68.855 71.682
19.914 53.838 5.588
21.674 54.681 5.351
23.963 53.233 4.904
24.223 51.381 3.128
62.334 26.98 40.528
61.921 25.867 38.388
61.579 27.71 36.188
61.866 30.273 36.54
42.566 14.346 28.685
43.648 12.614 27.672
43.078 9.737 27.887
42.49 8.561 29.325
24.266 10.469 79.587
25.932 8.827 79.451
27.283 7.039 81.169
26.84 6.564 83.524
49.427 36.241 22.031
48.581 35.148 19.897
47.508 32.713 19.565
47.72 30.776 20.62
23.796 77.183 77.413
26.355 76.5 77.207
27.479 75.051 76.013
27.149 72.78 74.623
53.301 15.37 66.95
54.478 13.964 66.242
56.012 11.805 67.557
55.738 10.948 69.78
63.175 58.591 41.403
65.313 58.138 42.718
66.726 56.189 43.146
66.076 53.537 42.818
69.172 47.362 14.481
69.56 49.724 13.213
69.427 52.244 14.316
69.006 52.995 16.74
50.888 15.149 -1.745
49.245 13.603 -1.662
49.141 11.015 -0.846
50.558 9.63 0.204
3.603 53.055 13.047
1.784 53.185 14.71
1.109 54.374 16.63
2.026 56.692 17.504
-1.547 6.755 47.948
-3.745 7.569 47.307
-4.237 9.246 44.955
-3.399 11.088 44.712
0.606 58.067 19.308
0.565 60.198 18.386
2.21 62.398 18.468
3.151 63.053 20.1
40.402 81.051 29.824
39.46 82.829 31.967
40.374 85.146 32.239
41.189 86.713 30.664
17.033 87.696 39.136
18.043 85.754 38.03
16.976 85.138 35.452
15.177 86.321 34.289
66.559 45.198 42.667
67.74 47.133 41.412
68.475 49.496 42.47
67.943 50.678 44.671
63.774 13.458 45.696
63.998 11.216 45.029
62.908 8.971 45.462
61.62 8.322 47.501
55.441 80.34 76.061
56.713 81.45 74.623
59.296 80.364 73.95
60.5 78.43 74.847
42.545 63.245 55.185
40.835 62.872 53.638
39.768 60.469 52.635
40.313 58.363 52.966
29.775 22.868 6.075
29.514 24.436 4.183
27.436 23.572 2.446
26.459 21.57 2.216
25.149 20.052 29.362
23.23 21.436 30.112
22.996 23.969 30.226
24.911 25.796 30.554
58.683 76.452 72.84
57.667 74.901 71.063
57.891 72.365 70.889
59.226 70.63 71.406
26.98 33.739 92.532
25.938 32.108 94.079
25.061 29.687 93.933
25.666 28.016 92.323
14.873 96.53 31.552
14.787 94.529 33.356
17.235 93.59 33.849
19.096 93.414 32.103
27.626 10.258 7.689
26.164 10.685 9.492
23.897 10.015 10.032
22.441 11.137 8.747
61.903 66.794 48.91
60.896 65.584 47.48
62.352 64.559 45.546
64.848 64.771 45.519
34.278 8.139 74.664
33.208 8.643 76.878
32.063 6.321 77.801
32.684 4.263 77.893
12.861 70.397 56.749
13.161 70.922 59.181
12.509 73.047 60.703
11.384 74.722 60.351
61.447 44.142 40.734
61.281 41.644 40.304
59.5 40.399 38.928
58.023 41.165 37.055
49.928 62.262 62.667
51.323 60.728 64.591
53.708 60.641 63.277
54.361 60.983 61.25
43.107 72.417 56.976
41.561 73.764 56.076
41.141 76.402 56.072
42.91 77.866 55.489
2.191 44.006 10.741
4.014 45.092 12.325
6.694 45.612 11.691
8.076 43.853 10.294
10.864 41.965 80.355
9.052 41.113 82.167
8.426 41.702 84.249
8.765 43.645 85.688
11.717 22.375 61.115
12.243 23.919 59.613
11.222 24.347 57.149
9.094 23.802 56.16
8.17 52.654 57.382
9.982 51.456 56.483
10.487 49.229 55.519
8.573 47.132 55.079
11.436 9.283 32.22
12.842 10.284 33.663
13.952 12.965 34.011
13.907 14.834 32.518
48.246 48.279 23.545
47.078 47.416 21.771
46.868 45.255 20.45
48.537 43.487 20.0
54.115 50.928 65.686
55.862 49.645 65.234
55.844 48.923 62.524
54.026 49.084 61.077
51.932 1.533 5.424
52.861 0.461 3.707
55.22 -0.042 2.874
57.411 0.849 4.021
68.146 57.201 19.62
67.154 58.47 17.671
66.628 57.541 15.178
66.787 55.247 14.219
43.309 51.859 24.161
45.319 50.419 24.02
46.067 48.176 24.888
44.793 46.098 24.334
67.108 63.366 38.018
65.457 62.928 39.162
63.632 64.521 40.398
64.183 66.93 40.847
45.377 91.045 27.949
45.382 91.067 30.169
45.692 89.161 32.089
45.086 86.565 31.558
44.006 81.184 51.03
42.744 80.587 53.286
42.262 82.789 55.256
42.9 84.675 55.041
11.367 21.001 80.411
9.132 22.121 80.681
8.562 24.414 81.188
9.804 26.579 81.228
2.842 82.81 20.731
0.78 82.014 20.254
-0.219 80.379 18.346
1.292 79.131 17.256
30.796 62.425 69.107
29.679 62.174 71.211
31.333 60.497 73.019
32.447 58.94 72.779
61.524 14.482 64.599
62.534 15.393 66.467
60.573 16.551 67.507
58.146 15.554 67.601
70.449 91.601 17.019
70.168 91.904 19.011
68.457 93.555 20.472
67.375 96.023 19.589
72.037 54.701 81.286
73.422 52.77 81.051
74.248 50.773 82.6
73.87 50.568 84.992
61.732 32.256 63.05
59.294 32.746 62.983
57.732 30.463 63.479
58.834 27.772 62.9
16.115 81.711 68.436
14.653 81.325 66.587
12.039 80.786 66.491
10.256 81.178 67.821
62.7 23.029 68.452
61.361 24.562 68.94
58.923 24.009 69.346
57.934 22.598 70.903
17.611 45.521 22.645
17.409 47.185 23.723
19.337 48.815 24.177
21.525 48.507 23.421
62.819 52.131 40.185
65.016 51.203 39.584
66.1 48.834 39.653
65.287 46.756 40.228
44.872 70.818 31.619
44.403 72.697 30.423
44.028 74.946 31.195
43.828 76.367 33.367
42.159 46.336 46.875
40.491 44.484 47.481
41.006 41.833 47.581
42.968 40.247 46.596
14.967 68.876 34.86
15.477 67.361 33.237
16.614 65.143 33.346
17.435 63.797 35.267
13.859 76.103 60.0
12.592 77.877 60.239
12.683 80.523 59.356
14.25 81.73 58.279
1.118 29.416 9.989
0.666 29.692 11.987
0.536 27.857 14.349
0.345 25.698 14.052
27.947 88.345 14.085
27.535 87.676 11.469
25.578 86.071 10.323
24.383 84.336 11.359
69.172 72.638 51.159
68.394 74.949 50.652
68.118 77.051 52.273
69.592 77.293 54.741
58.128 43.794 66.038
59.491 42.191 65.567
59.945 39.815 67.112
58.534 38.888 68.859
25.123 56.427 78.373
25.82 57.829 77.114
28.325 58.758 77.76
29.149 59.348 79.847
13.515 23.562 86.789
11.625 24.058 85.114
10.839 26.592 84.075
12.148 28.545 83.827
24.182 71.42 11.502
25.86 70.494 12.384
26.387 67.93 12.832
24.922 65.78 13.224
66.275 11.5 12.213
67.781 12.964 13.334
70.023 12.379 14.75
70.846 10.594 15.318
56.698 47.429 90.452
56.372 48.674 88.597
54.886 51.16 88.703
54.113 52.077 90.628
31.061 37.271 96.948
28.236 37.547 97.172
27.955 40.108 97.593
29.356 42.287 96.998
62.095 99.333 44.798
60.237 99.433 46.168
58.791 97.439 47.552
59.235 95.259 47.698
53.068 36.136 63.728
54.463 36.812 65.812
56.445 39.015 65.467
56.204 41.083 64.44
8.968 31.109 57.844
10.56 29.719 58.596
11.552 27.986 56.866
10.676 26.504 55.464
11.575 0.183 38.634
11.615 2.313 38.653
12.829 2.876 36.033
12.87 1.449 34.42
7.964 103.166 65.655
9.249 102.45 64.102
10.149 100.304 63.061
8.998 97.911 63.429
10.656 87.571 62.838
9.223 85.817 62.295
8.073 83.734 63.737
9.024 82.853 65.865
32.353 12.625 52.236
32.851 11.464 54.508
31.487 10.379 56.284
28.798 9.712 55.974
40.035 96.467 24.238
38.548 98.039 24.905
38.875 100.64 24.686
39.743 101.972 22.976
46.8 28.551 21.906
46.003 26.953 20.963
45.307 24.547 22.364
45.221 24.982 25.192
33.629 52.154 74.137
31.83 50.448 74.39
31.645 48.035 75.14
33.381 47.519 77.18
44.081 37.806 15.526
45.83 37.943 17.339
46.465 36.445 19.37
45.317 35.023 20.494
2.097 74.929 22.024
0.28 75.064 20.856
-0.671 73.243 19.038
0.368 71.158 18.153
49.172 24.803 85.86
49.905 26.44 87.805
50.265 28.452 87.776
51.832 30.298 87.165
10.395 84.744 82.295
11.893 83.867 84.26
11.457 84.396 86.654
10.197 86.408 87.785
7.878 66.734 88.618
7.331 65.368 86.984
6.582 66.173 84.511
6.621 68.593 83.989
23.76 34.572 -0.361
23.8 33.055 1.694
25.306 34.064 3.771
25.82 36.228 4.267
30.812 51.681 5.516
28.707 52.966 5.785
26.863 53.716 4.065
26.169 52.608 1.794
59.369 91.161 43.797
58.61 88.258 44.386
60.992 86.71 44.126
62.693 86.552 42.742
59.083 78.818 66.248
59.289 77.438 68.464
60.733 75.629 69.151
61.277 73.573 68.011
56.005 68.41 94.473
56.427 66.402 95.679
54.311 64.423 95.065
53.011 64.581 92.985
52.22 0.817 73.337
54.527 1.256 72.633
56.567 -0.304 72.646
56.901 -2.814 73.59
65.468 13.837 43.41
63.934 14.443 41.414
63.853 16.945 40.284
64.765 19.125 40.704
25.358 45.843 75.215
26.433 44.137 74.313
29.154 43.994 75.033
30.004 45.497 77.247
69.497 26.373 18.816
68.424 25.05 16.727
67.813 22.654 16.223
67.944 20.568 17.869
44.975 78.753 9.675
45.291 80.404 7.922
44.155 81.806 6.776
41.119 82.039 6.519
23.174 45.468 6.291
24.131 47.319 5.041
23.842 49.948 5.539
21.637 50.877 6.419
29.564 94.308 14.029
28.56 93.156 12.074
28.573 90.777 11.508
30.077 88.97 12.456
30.419 19.718 75.429
29.303 20.93 73.705
29.859 23.278 72.496
31.747 24.591 72.651
17.593 26.215 59.119
16.122 25.698 61.025
13.343 26.462 60.655
12.484 28.258 59.623
19.285 77.473 9.495
19.827 79.406 10.148
22.62 80.181 9.661
24.165 78.709 8.897
25.193 100.398 12.906
27.302 102.086 12.877
27.405 104.5 12.655
25.907 106.414 13.036
40.231 14.767 24.07
40.966 13.117 25.744
40.636 10.517 26.045
38.898 9.032 25.228
27.574 90.823 7.576
28.441 92.48 9.109
29.503 94.715 8.953
29.106 96.723 7.226
64.196 6.526 45.949
61.883 5.837 46.561
61.255 3.139 47.172
61.882 1.267 46.293
59.318 42.247 90.036
57.39 43.13 89.288
56.652 45.483 88.476
57.987 47.201 87.204
69.989 9.506 87.998
70.505 7.542 89.178
68.88 5.936 90.456
66.844 6.402 91.977
36.337 39.619 68.237
38.681 39.005 69.362
40.509 41.181 69.144
40.638 42.483 67.536
52.448 68.148 67.332
54.068 66.36 67.348
53.742 64.639 65.784
51.813 63.161 65.1
57.544 41.553 61.841
56.806 43.723 63.312
55.584 45.88 62.416
54.673 46.44 60.482
33.341 76.637 81.111
34.155 78.359 79.445
35.74 80.271 79.653
36.732 81.137 81.033
9.156 9.326 87.124
7.409 7.433 87.055
5.69 8.175 88.929
6.391 9.128 91.439
36.889 33.001 27.829
38.924 31.774 26.939
38.752 29.272 26.135
36.951 27.603 26.44
16.049 58.199 30.961
18.076 57.781 30.235
20.088 59.642 30.893
19.735 62.162 31.645
31.835 1.731 9.671
29.44 0.852 10.567
28.631 -1.542 10.615
29.524 -3.418 10.47
46.446 70.168 25.493
47.98 68.622 26.058
46.977 66.677 27.717
44.475 65.851 27.724
66.798 87.489 43.56
64.908 86.107 44.127
64.143 83.574 42.987
65.837 81.709 42.091
61.25 95.726 73.782
60.347 97.844 73.241
61.15 99.562 71.679
63.115 99.944 70.92
29.863 35.186 4.891
28.387 32.966 5.16
27.793 31.96 2.949
29.143 32.104 0.782
37.697 25.135 27.546
37.722 24.509 24.956
39.649 22.56 24.483
39.849 20.895 25.778
67.846 64.01 22.577
69.097 63.575 20.775
69.165 62.194 18.728
67.62 61.109 17.369
6.234 17.848 86.871
4.895 16.39 85.878
4.704 13.494 86.032
5.723 11.895 87.127
17.525 9.804 11.53
19.848 9.689 11.543
21.681 10.368 12.926
22.188 12.915 14.214
8.492 84.957 -2.418
7.237 86.517 -2.976
8.64 88.822 -3.309
10.63 88.997 -2.662
10.433 6.541 66.569
11.067 5.378 64.865
10.543 2.93 63.999
8.961 1.451 64.028
69.682 32.267 8.564
67.615 32.996 8.645
67.111 35.227 10.047
68.467 36.896 10.768
1.399 87.646 23.951
0.897 86.447 21.831
-1.052 84.546 21.349
-2.361 83.312 22.523
7.906 17.833 80.291
7.72 19.942 80.439
6.566 21.965 78.712
6.482 22.151 76.646
9.76 66.209 59.19
11.608 67.099 61.013
11.771 69.655 61.464
10.344 71.394 61.43
36.014 79.437 76.277
33.842 78.535 76.132
32.91 76.467 74.928
33.695 74.154 74.69
21.839 79.543 37.366
21.291 77.972 35.761
19.869 79.228 33.776
20.438 80.815 32.309
14.446 83.765 86.275
15.186 84.115 88.669
13.641 85.752 89.985
12.332 87.74 89.147
52.208 10.212 86.739
51.184 10.57 89.085
51.889 8.597 90.956
53.587 7.043 90.799
2.415 72.357 24.146
1.26 71.918 22.177
1.466 69.899 20.434
1.628 67.306 21.446
56.705 69.498 71.134
55.828 68.369 69.556
55.8 65.637 69.267
54.899 63.931 70.795
43.959 17.936 -1.933
45.299 19.444 -1.642
46.513 20.765 0.403
45.944 21.179 2.379
16.196 78.481 31.553
17.934 79.922 31.174
20.401 78.126 31.498
20.347 75.922 31.205
44.659 61.779 28.28
44.605 60.176 26.254
45.802 61.313 24.279
46.595 63.642 24.28
60.791 61.744 65.405
60.006 63.131 67.042
59.568 65.445 67.172
61.251 66.639 67.294
65.84 67.939 19.96
66.393 70.457 20.673
65.453 72.548 20.404
63.615 73.579 18.48
58.794 40.361 92.142
56.538 41.198 90.916
54.9 39.929 89.282
54.144 37.901 89.355
30.943 0.287 49.519
30.829 2.23 50.497
31.771 4.584 49.982
33.354 5.251 48.57
32.085 49.058 44.331
34.828 48.513 44.635
36.509 49.913 44.801
36.758 52.626 45.488
41.715 18.263 46.24
41.536 20.124 48.252
42.546 22.446 48.393
43.41 23.847 47.099
23.499 54.034 78.185
25.4 53.612 79.557
26.735 50.92 78.934
25.633 49.196 77.949
36.236 5.047 57.224
35.684 3.755 56.033
34.159 1.08 56.064
33.051 0.263 57.626
27.755 19.405 69.807
29.432 21.066 70.476
30.11 23.407 69.82
29.878 24.501 67.526
2.106 39.786 77.851
4.068 39.006 78.68
5.76 37.461 78.128
5.877 35.699 76.066
59.138 26.215 71.437
57.778 27.407 70.669
57.001 25.798 69.434
55.266 23.836 69.88
61.703 87.845 70.431
60.221 86.611 69.411
58.57 84.737 70.062
58.584 83.386 72.359
45.436 41.147 11.93
47.231 41.203 13.449
47.521 41.046 16.116
45.383 40.632 17.867
57.025 74.291 43.748
57.866 76.381 43.677
59.142 77.083 45.824
58.799 76.845 48.152
45.021 84.308 58.738
42.836 85.616 57.495
42.668 87.841 56.963
44.138 90.096 56.993
33.016 101.005 58.293
33.429 100.012 56.007
34.261 97.268 55.321
34.069 95.897 57.03
29.935 33.595 65.627
30.716 33.247 67.964
32.817 33.996 69.193
34.814 35.846 68.277
48.649 72.724 2.81
51.183 72.634 2.204
52.733 70.652 1.725
52.31 68.345 1.006
64.274 36.319 13.116
66.389 36.852 12.396
67.282 39.009 13.61
65.63 40.449 14.964
17.825 89.08 43.409
17.845 89.704 41.091
19.957 88.227 39.392
21.586 87.108 40.281
47.674 2.832 -0.973
48.799 0.656 0.009
49.576 1.332 2.636
48.29 2.256 4.162
18.206 58.975 34.849
19.166 61.024 34.173
21.061 62.129 34.218
23.152 62.125 35.756
58.158 90.727 66.918
59.661 92.423 67.834
61.951 91.388 68.998
63.16 89.46 68.536
34.226 32.743 71.558
34.477 30.74 70.648
32.366 29.99 69.144
30.136 30.971 69.289
31.555 98.406 54.133
33.204 100.121 53.309
33.083 102.342 52.407
31.411 103.964 52.238
52.17 37.646 83.588
52.926 39.385 84.333
52.69 42.142 83.815
51.477 43.28 82.139
61.199 41.579 36.22
62.212 39.496 37.018
63.871 37.874 35.844
62.291 36.298 34.638
59.52 64.537 44.768
59.072 66.91 45.883
60.974 68.65 44.959
62.562 68.603 43.063
59.074 72.293 67.915
59.551 70.099 68.514
58.318 67.778 68.021
56.822 67.072 66.225
13.217 94.941 42.615
13.402 95.548 39.9
15.313 93.893 39.367
16.49 92.229 40.832
62.654 30.232 33.984
63.451 31.925 33.19
62.533 34.211 32.244
60.246 35.087 32.443
33.834 100.844 50.254
35.443 99.231 51.229
35.858 97.012 51.558
34.464 94.825 51.07
59.019 7.325 71.563
58.562 7.472 69.0
58.817 9.485 67.232
58.588 11.662 67.437
44.036 35.993 42.997
42.525 36.241 44.874
40.256 37.098 45.187
38.366 37.428 43.15
31.999 61.651 7.962
32.756 64.298 7.85
31.88 65.165 10.36
31.676 63.701 12.341
47.522 54.713 27.122
46.488 53.58 25.492
47.668 51.888 23.79
49.772 50.602 24.286
5.702 53.638 81.161
4.766 55.428 82.49
5.818 57.972 83.223
7.452 58.741 82.663
36.355 81.964 58.62
36.583 80.814 56.553
35.838 78.386 55.753
34.693 76.39 57.511
53.166 33.542 86.375
53.718 35.506 87.22
54.421 37.649 86.67
55.636 38.695 84.75
12.697 54.849 60.472
11.705 53.239 59.056
11.736 50.901 58.541
13.963 49.254 59.417
35.935 83.226 50.956
38.006 83.938 51.289
40.023 82.635 52.863
39.879 80.599 53.98
61.617 31.764 66.394
59.497 32.924 65.805
58.682 35.246 66.021
59.205 37.099 66.711
24.507 44.94 9.21
26.484 44.742 7.962
28.754 43.209 8.376
28.54 41.01 9.246
11.978 83.654 57.983
11.274 84.556 59.836
9.941 83.337 61.796
7.902 82.398 61.281
45.755 57.224 27.811
46.907 58.944 26.145
48.512 60.935 26.924
49.073 61.747 29.21
13.928 33.838 27.017
15.578 34.938 28.364
16.255 37.719 28.312
16.133 39.073 26.979
2.806 93.392 85.924
4.684 93.704 87.275
7.048 94.784 87.132
7.658 96.916 85.871
48.865 40.368 11.161
49.868 38.283 12.352
51.426 38.494 14.447
53.063 40.527 15.283
59.043 72.178 47.335
59.561 70.348 46.308
62.353 69.415 47.382
63.401 70.557 49.115
51.256 59.572 86.817
50.658 59.891 89.101
51.662 61.611 90.975
54.411 61.875 91.471
70.671 63.393 87.462
72.907 64.123 86.694
73.873 66.698 86.869
73.82 68.315 88.765
41.697 8.163 24.591
43.078 9.92 24.408
45.65 9.752 24.475
47.082 8.593 23.434
-1.301 43.723 43.371
-2.238 43.739 41.329
-1.988 41.838 39.897
-0.36 40.566 38.913
22.884 9.418 37.783
21.802 10.217 35.827
19.543 9.716 34.845
17.821 8.087 35.432
53.121 62.614 68.22
54.122 60.931 66.487
54.712 58.5 66.623
53.591 56.404 67.894
18.859 76.987 18.428
20.087 77.846 16.508
21.394 80.16 16.137
21.242 82.321 17.169
66.019 30.264 14.511
67.831 31.885 13.695
67.28 32.379 11.236
65.025 32.56 9.998
18.561 77.414 14.306
18.853 77.467 12.152
21.279 76.263 11.164
22.432 74.478 11.89
10.327 7.188 10.321
12.038 5.893 11.462
14.381 5.581 10.407
15.7 7.182 8.569
5.443 74.565 90.58
6.344 75.573 88.856
7.825 77.729 88.784
7.383 79.703 90.113
65.597 17.573 37.524
63.414 16.367 35.64
62.352 14.203 36.171
62.598 12.605 38.535
6.403 48.339 11.34
4.7 47.868 12.428
2.232 48.782 12.692
1.698 51.165 12.27
18.53 100.173 36.041
19.244 98.771 34.661
18.487 95.855 34.876
17.634 94.905 36.215
22.899 19.515 17.278
24.889 19.027 15.959
25.012 18.457 13.1
23.274 18.578 11.792
20.836 87.778 12.932
20.75 85.544 13.078
20.046 83.82 15.017
18.584 84.139 16.901
6.456 64.847 16.675
4.708 63.316 17.662
2.736 65.158 18.187
3.11 67.549 18.375
48.303 5.308 0.235
49.741 5.912 -1.795
49.47 7.764 -3.349
48.167 10.014 -3.085
3.184 101.327 -0.28
1.895 103.203 -0.271
3.171 105.677 -0.122
5.692 105.928 0.835
11.267 30.426 76.432
9.437 29.24 77.331
8.272 29.006 79.416
8.616 30.396 81.637
20.959 33.135 28.524
19.949 30.831 28.889
20.704 28.743 28.769
22.865 27.419 29.143
43.627 74.111 53.113
42.713 71.525 54.212
41.285 69.895 52.658
41.487 69.654 50.261
57.343 23.377 65.178
58.8 24.54 66.557
58.532 27.183 67.784
57.42 29.101 66.683
19.415 84.604 40.615
21.127 83.261 39.32
20.251 82.009 37.277
19.026 80.493 37.397
51.624 6.985 0.097
50.938 4.785 0.612
51.943 3.058 2.487
50.638 3.653 4.356
13.766 101.551 58.092
12.412 103.408 58.318
12.235 105.92 58.421
13.725 107.418 58.996
41.854 72.681 25.293
44.135 72.316 25.915
45.142 70.962 27.681
44.085 69.325 29.447
27.502 26.636 93.805
27.449 28.678 95.323
28.589 29.307 97.32
30.504 28.346 98.758
31.049 60.227 78.181
30.686 60.403 76.038
30.264 57.804 74.494
30.588 55.573 76.046
63.155 84.089 21.454
65.382 83.756 21.272
67.117 85.389 19.682
66.6 87.534 18.904
45.587 76.838 27.33
47.366 75.045 27.882
48.374 73.39 26.729
48.095 72.324 24.547
23.409 60.865 28.167
22.989 60.213 30.407
23.154 61.505 32.665
23.632 64.363 32.762
67.372 77.306 23.961
67.161 75.81 21.789
68.489 73.639 21.488
68.472 71.713 22.512
10.455 24.612 73.598
9.233 22.598 74.881
8.466 23.814 77.35
9.281 26.532 77.383
43.581 80.106 94.876
43.465 82.199 96.382
45.461 82.39 97.903
47.817 81.423 97.74
29.241 65.528 78.848
28.969 64.116 77.203
30.363 63.108 75.096
32.723 63.429 74.259
8.216 62.041 60.532
8.762 61.091 58.685
9.766 62.627 56.765
9.123 64.32 55.744
4.437 31.788 84.107
7.049 30.689 84.752
7.749 27.894 84.927
6.379 26.088 84.835
17.204 29.31 34.013
18.271 27.58 32.346
18.976 25.078 32.753
18.315 23.732 34.425
8.148 77.083 62.942
10.099 75.913 62.592
12.225 77.562 63.087
12.278 79.716 62.06
20.024 14.222 54.847
17.891 13.73 55.244
16.85 15.912 56.426
17.33 18.134 56.409
21.515 13.944 70.046
22.492 13.549 72.262
24.531 15.659 72.432
24.457 17.572 71.97
9.59 62.329 53.692
9.955 59.969 54.701
11.861 58.447 54.842
14.097 58.474 53.225
62.652 6.665 69.939
60.621 5.23 70.342
60.017 3.23 71.81
61.06 2.335 73.749
12.351 93.905 61.402
11.544 95.699 62.399
12.305 98.376 61.3
13.872 98.912 59.875
31.309 18.096 77.422
29.237 17.004 76.917
27.424 15.53 78.378
28.02 14.507 80.79
9.85 48.337 61.499
9.746 49.862 59.921
9.05 52.626 60.009
7.253 53.19 61.805
26.457 100.727 80.301
27.554 102.65 78.937
27.777 105.112 79.267
26.913 106.762 80.999
23.752 53.842 75.084
25.755 54.103 76.156
27.59 55.919 75.857
27.431 57.441 73.871
19.0 12.178 56.99
18.03 10.399 57.696
16.305 9.969 59.652
15.443 12.001 61.259
42.587 20.342 26.962
42.668 18.506 25.139
43.694 16.209 25.322
44.798 14.987 27.117
28.325 62.047 79.801
26.884 61.602 78.41
25.206 63.757 77.599
24.91 65.92 78.698
7.853 76.951 67.517
9.375 78.623 67.383
11.869 77.633 66.541
12.8 75.877 67.033
17.007 84.767 9.409
18.707 85.879 11.075
20.548 87.553 10.034
20.664 87.855 7.308
4.824 75.757 86.673
5.721 77.907 87.244
5.394 80.402 86.607
3.828 81.444 85.464
6.919 72.462 -0.789
7.107 71.672 -2.937
6.723 68.962 -3.899
5.598 67.355 -3.095
58.836 84.302 42.049
61.241 83.9 42.761
63.419 83.615 40.241
63.657 81.042 40.369
10.759 29.436 87.333
9.66 30.245 85.19
9.594 32.773 84.211
10.325 34.803 84.896
66.67 73.581 17.963
65.797 75.585 18.445
67.729 77.289 19.594
70.157 77.444 19.347
59.999 25.226 62.252
59.666 23.287 63.613
59.852 20.717 63.126
60.428 19.416 61.365
26.165 97.041 7.211
26.688 97.849 9.273
26.581 100.071 10.57
24.972 102.201 10.12
38.173 48.283 43.703
38.974 46.417 45.237
38.086 43.95 45.409
35.892 43.142 44.515
39.356 4.562 57.44
38.314 4.675 54.879
37.513 6.601 53.668
38.406 8.907 53.506
32.258 48.392 80.312
30.772 49.086 78.254
28.361 48.631 77.8
26.74 46.999 79.416
65.806 16.072 16.781
67.564 17.594 16.567
67.689 19.669 14.649
66.487 20.164 13.132
62.662 34.979 37.176
63.794 36.921 38.474
62.967 38.099 40.549
60.789 38.801 41.084
40.603 92.202 48.582
40.904 91.251 50.577
39.57 91.191 52.756
37.606 92.59 53.595
54.364 94.592 8.027
54.522 93.447 5.769
52.894 91.193 5.068
51.64 89.687 6.682
7.356 102.569 0.084
6.029 100.954 -1.745
7.521 99.411 -3.41
9.683 98.161 -3.227
39.131 70.573 56.984
38.763 72.335 55.874
37.76 74.774 56.587
37.269 75.925 58.514
45.433 22.861 92.613
46.263 21.903 90.776
46.867 23.074 88.551
46.753 25.399 87.893
15.434 44.425 51.933
13.896 42.386 52.017
16.035 40.183 52.32
18.113 40.214 51.929
29.714 9.113 9.03
28.382 7.254 9.271
28.539 4.87 10.3
30.22 3.569 11.318
38.062 91.875 81.58
35.471 91.103 81.289
34.421 89.038 81.742
35.455 86.762 82.907
58.776 14.264 71.915
57.416 15.62 70.48
58.12 18.357 69.194
59.794 19.611 69.691
19.8 14.407 31.332
18.992 13.866 33.292
16.953 12.105 33.937
15.758 10.456 32.962
42.453 18.75 89.218
44.466 16.929 88.692
46.8 17.63 87.803
47.308 19.82 86.075
11.652 9.674 36.318
13.593 8.491 36.741
16.003 9.056 37.34
17.076 10.779 37.89
8.14 46.614 83.242
6.845 48.207 82.164
6.594 50.762 82.195
7.432 52.504 83.452
32.578 45.123 76.958
33.965 44.082 75.239
34.496 41.938 74.485
32.381 41.056 73.701
41.003 42.116 75.206
39.139 41.298 74.806
36.915 42.644 74.212
36.272 45.004 74.628
5.426 95.173 24.5
4.583 93.38 24.134
6.196 91.507 22.342
8.895 91.641 22.385
38.458 15.311 54.394
37.184 13.883 54.171
37.881 12.716 52.155
40.357 11.676 51.246
36.263 56.503 52.601
37.935 58.065 51.869
37.138 60.489 51.489
36.111 62.064 52.884
13.973 36.533 55.675
12.832 38.142 54.621
13.051 40.965 54.551
14.501 42.236 55.237
53.358 54.899 7.802
52.658 57.267 6.561
52.471 57.846 4.123
53.213 56.719 1.909
15.436 73.904 63.875
15.045 74.017 61.564
15.528 71.978 59.629
16.236 70.191 59.616
41.272 47.902 44.494
40.43 48.689 46.564
39.98 51.126 47.554
39.492 53.14 45.619
35.366 97.892 75.921
34.802 99.627 77.379
33.552 102.051 76.616
32.539 102.138 74.8
35.65 2.547 46.555
35.085 1.585 48.892
35.652 -0.264 50.225
37.085 -2.425 49.941
2.83 31.3 15.243
0.932 33.563 15.345
-0.353 33.306 13.254
0.586 32.142 10.924
38.291 63.489 54.974
37.598 65.323 53.064
37.321 67.811 53.209
37.705 69.473 54.923
5.156 41.322 86.415
5.74 42.741 84.351
6.09 44.98 83.815
5.481 47.099 84.921
17.577 20.862 28.828
17.783 20.986 31.569
18.054 19.01 33.279
18.96 16.708 33.092
55.796 50.229 58.878
57.456 49.738 60.526
58.439 51.11 62.684
58.825 53.198 63.055
2.445 7.404 87.502
3.617 6.628 89.708
3.798 4.435 90.744
3.885 2.341 90.259
67.788 82.386 18.384
67.129 80.682 19.728
65.432 78.525 19.228
64.204 78.023 17.519
24.986 80.311 74.806
26.508 78.999 75.899
28.477 79.767 77.532
28.707 81.973 78.522
60.799 60.729 71.478
59.418 62.607 71.965
56.985 62.279 70.812
56.237 60.001 70.338
-0.564 55.162 42.446
-0.96 53.087 42.997
-2.409 51.853 40.663
-1.802 52.676 38.319
30.516 48.977 72.094
29.499 47.696 73.861
27.307 47.931 75.442
25.374 49.335 75.046
6.358 71.194 15.155
6.047 68.456 15.025
3.471 67.696 15.592
1.625 69.26 16.11
54.451 65.489 28.422
53.226 67.162 26.594
51.547 66.529 25.271
49.099 65.372 26.035
70.978 30.794 17.136
69.649 29.998 15.362
67.924 28.36 15.131
66.294 26.989 16.975
31.726 69.13 13.729
32.331 67.596 12.181
29.833 67.34 10.681
28.332 69.328 10.554
55.956 63.426 61.725
56.069 61.675 63.417
56.48 61.184 65.644
57.403 62.547 67.6
42.941 95.146 31.704
40.793 96.072 31.122
40.979 98.646 29.834
43.381 100.021 30.278
5.156 11.463 82.862
3.782 13.471 83.705
3.643 15.824 82.984
5.721 17.007 81.216
40.965 39.023 70.771
40.116 40.56 72.074
41.391 42.593 72.572
44.12 43.093 72.841
4.143 86.798 20.611
3.319 88.934 20.567
3.448 90.988 22.351
3.42 90.904 24.988
63.36 29.063 9.606
65.039 27.358 10.135
67.583 28.307 10.185
68.885 29.668 8.696
59.763 91.634 52.535
61.491 90.316 52.054
61.788 87.865 50.968
60.495 86.2 50.454
3.34 42.133 13.108
1.536 41.57 11.719
0.478 39.155 11.164
0.574 36.938 12.051
56.108 87.961 6.449
53.737 87.957 6.234
52.801 86.019 4.49
53.688 83.67 4.329
59.23 51.936 36.521
61.298 51.593 34.944
61.669 49.818 32.817
60.176 48.421 31.732
