11.912 66.859 40.242
10.395 66.549 41.704
8.077 68.327 42.113
7.53 70.29 40.772
0.483 56.935 23.118
1.434 55.995 25.442
2.95 58.216 26.634
3.057 60.305 25.731
15.778 78.116 20.497
15.7 76.126 21.308
17.584 74.048 21.494
18.336 72.752 19.433
6.244 32.154 9.491
3.797 31.79 9.963
1.977 30.488 8.844
2.188 28.26 7.693
10.815 25.373 57.766
10.396 25.968 55.567
11.571 27.162 53.971
13.567 26.314 54.497
23.921 81.934 45.158
26.04 83.292 45.113
26.289 85.887 45.225
25.144 87.63 43.868
23.5 72.845 59.37
23.516 74.31 61.434
25.573 74.406 62.979
27.8 73.141 62.634
25.151 10.908 20.338
25.279 9.429 18.898
24.814 6.571 19.814
25.161 5.85 21.726
33.651 96.643 57.596
31.883 98.88 58.203
32.168 100.333 56.362
31.071 100.066 54.054
25.787 70.657 3.029
27.754 71.573 2.515
30.187 70.406 2.329
30.587 68.073 2.062
42.991 28.905 17.439
42.649 27.074 16.158
40.778 27.037 13.848
39.878 29.057 12.625
53.611 55.139 47.272
51.988 53.965 48.567
50.526 54.347 50.524
49.589 56.34 51.646
30.342 75.353 39.448
31.465 76.378 41.463
31.862 79.045 41.764
31.35 81.088 40.832
47.935 68.854 25.892
49.324 67.499 27.603
50.188 65.225 27.759
50.422 63.568 25.507
3.264 49.236 48.901
1.897 49.308 50.545
2.031 49.951 53.095
3.827 51.302 53.988
9.894 46.929 7.961
11.686 47.348 6.573
13.715 48.684 6.786
14.276 50.483 8.032
25.042 81.76 1.188
23.264 83.209 1.973
21.171 84.084 0.492
20.822 84.066 -2.021
36.423 54.469 25.73
33.698 54.253 26.598
31.788 55.431 26.46
31.252 57.654 24.79
45.599 65.052 30.242
48.009 64.914 30.035
49.011 67.37 30.206
47.997 69.406 31.581
31.498 86.777 47.381
29.869 86.437 45.466
28.255 87.753 44.385
27.676 90.532 44.529
43.315 78.13 61.1
44.969 79.305 61.519
47.778 78.595 62.469
48.412 76.564 62.607
33.55 57.831 29.953
31.855 57.815 28.124
30.816 59.351 26.759
31.499 61.605 26.151
61.122 22.867 14.371
62.639 23.522 12.211
62.084 24.636 10.194
60.292 25.972 9.215
56.227 93.204 14.337
54.818 94.762 15.357
55.088 96.157 17.812
56.961 96.062 19.342
53.387 41.929 13.842
55.518 42.042 12.916
56.958 40.61 11.357
57.081 38.419 11.59
52.337 18.441 51.016
51.38 19.415 52.998
49.813 21.474 53.15
49.191 22.981 52.043
35.251 6.745 58.217
33.713 6.661 56.29
31.846 8.52 55.476
30.89 10.03 56.583
29.061 97.158 19.977
29.143 95.573 18.118
30.236 93.622 17.181
32.154 92.204 18.32
33.624 40.05 49.466
35.065 38.526 51.435
33.71 36.794 52.259
31.23 36.208 51.818
1.458 8.266 34.379
2.873 9.731 34.935
5.615 10.387 33.852
6.632 9.289 31.9
5.648 11.296 29.725
6.639 12.309 31.691
6.461 15.098 32.541
4.971 16.415 32.354
14.648 70.906 20.028
16.172 71.367 21.666
18.375 69.867 22.426
18.949 67.422 21.478
43.243 17.68 10.22
44.795 19.04 11.392
44.838 21.423 11.417
43.335 23.067 9.802
60.499 36.293 11.311
61.505 33.98 12.133
60.762 31.994 10.682
58.703 31.829 9.225
32.745 36.147 55.97
34.984 37.337 55.707
36.995 35.792 54.581
37.27 33.25 54.847
27.555 32.122 32.436
25.624 31.95 34.034
23.69 33.451 34.442
22.412 35.367 32.972
20.097 15.29 58.206
20.038 17.833 56.942
18.171 18.951 56.444
15.625 18.83 57.378
44.676 84.722 3.741
44.377 84.216 1.718
46.438 82.401 0.678
47.663 80.893 2.022
54.167 69.502 24.835
51.612 69.142 26.112
49.819 70.812 26.152
48.413 71.187 24.261
58.653 4.962 -1.561
60.816 5.402 -0.689
62.965 3.881 -1.009
63.311 1.665 -2.537
60.452 22.374 22.93
61.192 20.287 21.737
62.031 20.922 19.305
61.399 22.334 17.671
19.914 90.08 38.992
20.271 92.568 39.84
21.867 94.34 39.211
24.36 93.993 38.971
43.867 12.33 37.35
42.465 10.554 36.471
40.034 9.874 36.686
38.188 10.637 37.527
49.852 44.548 19.513
50.35 43.225 17.852
52.0 44.323 15.92
52.832 46.664 16.041
41.312 55.888 60.076
40.585 56.428 62.918
39.175 58.882 63.249
38.542 60.632 61.339
21.217 47.813 9.643
20.384 46.367 7.671
18.39 45.959 6.63
15.879 47.46 7.65
60.532 81.572 47.275
60.191 80.441 45.159
58.705 80.923 42.997
56.83 82.095 42.536
39.042 74.017 21.766
38.679 75.699 22.976
40.591 76.671 24.942
42.523 75.358 25.731
21.533 11.689 21.222
22.408 10.539 19.201
22.427 7.908 18.901
20.074 6.328 19.535
5.654 42.305 47.596
5.883 39.914 48.657
7.653 39.046 50.257
10.013 39.749 50.321
14.802 3.119 48.602
13.571 2.807 47.074
12.005 0.721 46.852
10.704 -0.653 48.617
56.589 86.037 44.239
54.947 87.446 42.801
53.851 89.53 43.054
54.593 91.614 43.968
9.442 44.851 25.77
8.321 46.133 27.922
6.216 47.776 27.963
5.219 49.136 26.052
38.189 11.105 9.508
39.788 9.514 11.047
42.138 11.244 11.285
42.902 13.012 9.887
32.301 49.487 30.736
33.083 51.898 30.042
31.651 53.985 29.777
29.316 54.455 29.682
51.552 91.509 39.123
51.984 90.512 40.583
51.839 91.671 43.321
51.509 94.094 43.471
34.566 63.677 21.487
32.283 62.853 21.152
30.248 62.979 22.874
30.347 64.098 25.274
11.792 49.457 32.115
9.995 49.528 30.176
8.122 51.097 29.909
8.144 53.662 30.717
15.765 79.964 28.117
18.349 80.187 27.099
20.631 80.291 28.642
21.152 79.035 30.694
55.501 26.604 3.148
55.979 28.378 4.577
55.712 29.056 7.325
54.858 28.155 8.902
53.923 66.332 5.725
54.013 68.823 6.214
53.373 70.036 8.22
52.618 69.751 10.289
58.357 55.716 23.567
57.483 54.487 25.369
59.776 53.847 25.903
61.181 51.862 24.612
0.253 75.95 5.578
1.549 73.916 5.865
-0.213 72.278 5.436
-2.569 72.13 5.679
13.228 32.949 50.534
11.728 31.416 50.071
11.818 28.553 50.548
13.153 27.376 51.311
37.672 27.394 48.829
39.745 27.644 50.835
41.678 26.345 51.22
43.063 24.791 49.77
28.205 19.952 56.533
28.663 18.073 55.346
28.67 15.699 55.879
29.668 14.528 57.991
28.176 84.965 48.274
28.536 84.046 46.268
29.53 82.028 45.298
31.034 80.17 45.96
11.841 18.504 14.028
10.702 20.259 14.885
8.686 21.962 14.029
7.185 21.783 12.793
9.7 30.686 43.506
9.155 30.877 46.413
11.118 29.871 48.082
12.871 28.842 47.76
19.235 22.377 59.962
19.808 20.659 58.531
22.043 18.807 58.436
24.191 18.854 59.644
50.018 36.958 30.604
50.884 35.36 32.028
52.598 33.599 31.25
53.086 32.683 28.943
29.615 90.485 42.638
27.717 91.036 41.635
26.623 93.087 40.155
27.685 94.863 39.402
0.612 87.414 20.149
2.721 86.372 20.179
4.482 87.766 19.463
4.345 89.913 17.523
3.485 82.142 46.97
3.749 79.778 46.947
4.559 77.945 48.975
5.412 78.41 51.181
39.008 73.705 38.296
38.164 73.173 40.63
36.486 71.449 41.275
35.825 69.035 40.146
9.748 0.776 2.99
11.295 -1.309 2.769
11.702 -1.993 0.359
12.094 -1.137 -1.437
2.103 53.014 52.339
0.26 51.736 51.879
-2.098 51.83 52.285
-3.756 53.419 53.061
22.285 62.151 38.576
20.603 60.626 37.058
20.562 60.285 39.714
19.284 61.089 41.403
43.185 89.725 57.884
43.864 88.155 59.154
45.862 88.569 61.282
47.606 89.756 60.845
13.308 94.136 37.74
13.87 92.085 39.084
16.559 91.93 39.613
18.196 93.639 38.213
27.904 36.155 14.454
27.591 37.184 12.22
25.667 39.28 11.8
23.71 39.721 12.875
45.29 69.671 27.366
47.57 69.979 28.378
49.053 71.998 28.523
49.124 73.77 27.003
54.5 50.105 54.942
55.853 50.45 53.262
57.904 49.229 52.408
59.767 47.813 53.712
28.533 55.781 27.196
26.631 57.428 27.059
25.845 58.273 24.793
26.091 57.304 22.405
28.05 59.91 26.731
28.154 60.018 24.507
27.472 61.302 22.772
25.69 63.554 22.767
4.083 50.509 33.069
5.209 52.105 31.313
5.026 54.6 30.951
3.588 56.326 31.917
29.223 39.768 54.199
30.937 38.695 53.823
33.126 39.082 54.622
33.914 40.439 56.665
13.949 57.992 47.793
14.633 56.004 46.8
16.985 54.993 48.103
17.138 55.489 50.584
6.553 37.117 13.083
6.64 34.507 13.11
4.461 33.828 12.043
3.128 35.475 10.183
28.379 36.108 6.667
27.472 36.998 8.884
25.017 37.768 9.645
23.388 38.583 8.59
54.253 82.219 46.065
54.368 84.215 44.626
53.157 86.243 44.637
52.007 87.622 46.316
20.651 -0.943 42.396
18.511 -0.281 41.491
17.688 2.034 40.713
18.642 3.964 40.184
15.418 59.638 48.929
14.953 61.079 46.965
14.799 63.429 46.409
15.338 65.296 47.247
50.922 47.894 49.241
50.798 50.426 48.193
49.536 52.289 48.683
47.513 52.623 50.375
55.846 32.973 30.246
55.76 31.49 32.179
57.21 29.329 32.859
58.525 27.829 31.281
38.229 36.005 50.317
37.005 36.862 52.27
37.484 39.012 53.891
38.669 41.129 53.518
8.273 74.023 45.114
5.913 74.348 45.146
4.7 76.661 45.963
5.926 79.151 45.33
57.742 34.671 4.266
58.706 35.153 6.346
60.346 33.33 7.329
61.012 30.805 6.506
43.263 67.889 46.481
41.391 68.018 46.572
39.788 65.901 47.1
39.91 64.202 48.529
-1.112 40.868 7.572
-1.512 38.586 8.847
-0.409 36.406 8.444
1.748 35.604 7.316
39.929 21.381 9.858
40.741 23.473 10.435
39.34 24.213 12.824
37.275 22.161 13.425
3.451 83.966 18.658
4.583 84.336 21.073
6.762 84.932 21.636
9.189 84.69 20.386
1.674 96.259 18.235
0.242 94.399 18.597
0.586 91.87 18.881
2.072 91.808 21.102
43.626 3.355 33.285
45.483 3.483 34.103
45.47 6.175 35.552
44.572 7.954 34.957
20.849 68.099 23.58
22.008 66.682 21.776
22.451 64.001 21.574
23.442 62.81 23.359
11.22 38.02 48.016
10.013 36.483 49.344
10.151 33.576 49.582
8.898 33.049 47.974
13.359 55.204 -0.113
13.111 54.245 1.766
12.239 55.575 4.295
12.191 57.859 4.528
24.281 46.604 54.496
23.867 45.11 52.218
22.875 46.948 50.308
22.424 49.021 50.669
19.911 13.876 54.969
21.795 14.656 55.667
24.05 13.8 56.731
24.659 11.531 57.575
51.368 74.772 7.274
52.56 75.866 5.328
51.752 76.821 3.26
50.182 74.668 2.055
21.626 89.193 44.702
22.504 90.419 42.649
24.143 92.105 42.224
25.655 93.526 43.283
0.335 59.944 22.355
-1.428 58.693 21.727
-3.874 60.434 21.284
-3.869 62.253 20.003
27.257 10.554 53.977
29.296 9.66 54.001
30.112 6.792 54.415
28.707 5.29 55.596
25.294 2.892 21.125
24.799 1.381 19.665
22.916 1.942 17.336
21.596 3.524 17.313
20.925 51.702 43.733
20.171 53.475 45.332
18.2 54.611 45.829
16.028 54.484 45.257
5.813 72.979 50.211
4.842 74.984 49.727
6.874 76.902 49.359
8.074 77.478 50.942
43.531 65.973 43.804
43.395 64.313 45.687
45.386 63.215 46.955
47.564 62.864 46.406
26.649 92.062 15.47
28.845 91.253 15.24
29.94 90.467 17.753
28.666 89.466 19.586
12.985 87.553 58.136
12.61 88.91 56.015
10.373 90.404 56.607
8.589 89.884 58.415
25.883 19.278 39.134
27.793 18.231 39.096
28.796 15.655 39.34
27.225 13.699 39.938
38.722 36.355 57.667
39.77 36.241 55.16
40.902 34.417 54.204
42.534 32.486 55.11
33.486 72.113 38.461
33.93 71.616 40.498
34.663 73.507 42.125
35.965 74.741 40.705
53.98 76.179 8.049
55.939 75.263 8.215
56.633 73.074 9.625
54.745 71.68 11.099
26.713 59.224 31.944
28.193 58.376 30.004
30.308 56.973 30.073
32.153 56.907 31.902
41.734 2.884 57.088
41.092 1.167 58.295
39.085 1.424 60.196
38.659 3.116 61.439
39.866 84.165 59.465
41.58 85.33 61.27
43.579 83.393 61.31
43.3 81.276 61.703
35.398 29.424 10.223
36.924 28.111 11.757
38.878 26.494 11.381
40.419 26.189 9.58
35.016 64.725 59.078
34.575 64.485 61.795
35.753 63.285 63.625
37.917 64.567 63.957
16.528 83.122 5.495
14.677 84.757 4.525
13.701 86.538 5.335
12.873 87.125 7.908
22.795 48.496 7.319
21.894 46.671 5.676
22.754 44.345 5.325
24.874 43.344 5.522
40.512 27.726 23.017
40.719 26.834 20.577
40.471 24.396 19.757
39.468 22.046 21.179
56.833 94.099 21.343
59.172 95.096 21.004
60.229 97.068 22.418
59.488 98.064 24.527
44.482 48.676 3.561
42.125 50.179 3.066
41.521 51.373 1.08
42.054 51.172 -1.017
26.067 29.971 35.598
26.897 28.087 35.708
25.618 26.548 37.338
24.623 27.02 39.451
27.662 2.694 11.538
27.736 1.902 13.43
25.418 2.231 15.071
23.566 1.617 14.712
15.74 87.854 4.035
14.793 88.477 1.805
13.523 90.516 1.13
13.857 93.241 2.255
58.236 75.727 44.504
60.449 76.77 44.516
61.727 78.312 46.009
61.348 79.094 48.322
29.713 91.278 22.43
31.589 91.907 21.115
34.008 90.88 20.821
34.656 88.493 20.803
39.521 6.034 56.88
37.765 4.838 57.718
35.666 3.524 56.431
35.155 3.313 54.059
12.924 75.609 27.053
14.018 77.42 27.563
15.035 78.79 25.571
15.604 77.666 23.648
36.643 14.209 29.716
34.568 14.153 29.86
32.54 15.858 30.907
32.831 17.246 32.915
30.432 88.408 41.212
28.573 86.837 42.132
28.347 84.477 42.714
29.802 82.539 42.522
46.203 27.864 17.584
44.078 27.066 19.269
43.162 24.8 19.897
42.622 23.736 18.166
27.362 80.544 45.133
29.044 79.332 43.84
29.799 77.317 43.41
28.444 75.235 43.448
57.588 31.51 34.902
59.638 30.39 34.188
61.032 31.555 32.989
62.557 33.352 33.239
13.224 52.276 47.273
15.254 52.17 46.821
17.231 50.663 46.097
17.171 48.262 45.275
41.054 29.803 21.314
40.713 29.261 19.055
39.254 30.175 17.072
37.309 31.728 17.134
42.92 29.302 51.106
40.825 29.757 52.263
39.309 31.65 52.412
39.491 33.99 51.826
38.72 13.544 10.004
40.639 15.1 10.538
40.615 17.869 10.989
38.332 19.241 11.279
29.75 73.573 3.208
27.922 74.385 3.829
27.286 76.159 2.045
28.744 77.47 0.511
46.402 54.653 44.283
46.612 56.727 42.818
45.623 59.093 43.964
44.004 59.176 45.65
18.172 72.636 60.321
20.566 73.039 59.176
21.61 75.537 60.282
20.049 77.552 61.306
13.914 50.129 4.649
13.317 52.563 4.2
14.506 54.676 5.398
16.732 54.779 6.414
55.066 47.747 8.317
57.158 47.433 9.543
56.472 45.27 11.188
54.644 43.436 10.666
24.558 38.324 31.898
22.387 38.352 30.465
21.262 39.936 29.051
21.926 42.599 28.445
9.291 93.039 2.374
9.964 91.375 0.983
11.195 88.94 1.3
11.793 87.751 3.15
61.5 15.318 31.223
62.079 17.517 30.53
60.678 19.76 29.554
58.47 20.355 30.057
59.176 45.436 14.554
57.335 46.372 13.535
54.775 45.168 14.266
54.546 43.277 15.768
41.191 91.277 59.106
40.22 92.547 57.951
37.863 93.379 58.527
36.965 94.42 60.414
19.459 75.64 22.723
18.303 78.074 23.062
17.894 78.026 25.762
18.728 76.115 27.44
3.874 98.28 1.267
4.953 97.423 -0.441
5.829 94.866 -1.04
6.625 93.081 0.615
14.846 94.955 48.795
14.718 95.726 46.454
16.438 95.8 44.626
18.852 95.73 45.051
6.534 7.129 -1.201
7.265 5.277 -2.39
8.645 2.976 -1.413
8.634 2.536 1.211
47.297 3.26 39.816
47.807 5.218 38.229
49.059 7.485 38.809
48.85 8.707 41.279
24.225 73.565 3.104
25.175 75.614 3.923
24.667 77.863 2.38
23.011 78.675 1.496
57.648 34.171 33.126
55.388 33.413 33.931
53.03 34.476 33.796
52.622 37.028 34.26
15.606 10.077 13.748
14.921 11.162 15.8
12.841 12.24 16.776
10.658 12.498 15.81
55.653 4.379 56.645
58.029 4.951 57.854
60.165 4.279 57.812
61.295 2.469 57.231
27.89 63.937 62.323
29.294 65.294 61.634
31.878 64.772 60.541
32.384 62.787 59.16
7.793 60.368 7.877
8.359 62.057 7.222
11.355 61.992 7.349
12.763 60.572 8.509
19.856 73.105 23.221
20.341 71.88 21.182
22.281 70.526 20.224
23.778 68.969 21.287
58.791 20.959 34.19
60.547 20.074 32.753
62.802 18.409 33.283
63.575 17.459 34.823
29.099 38.263 51.932
29.266 40.045 50.162
27.584 42.355 50.797
25.62 42.294 52.08
23.438 67.449 19.004
22.916 65.468 19.116
24.42 63.12 19.336
26.895 63.216 20.484
35.714 29.575 49.753
37.019 30.292 51.103
36.845 33.06 52.162
35.369 34.812 51.292
50.906 47.249 34.229
49.581 45.815 34.262
46.866 45.72 33.663
45.454 47.337 32.806
53.516 81.601 35.965
54.756 81.413 38.282
56.383 83.39 38.758
57.577 85.067 37.362
48.944 4.538 34.407
47.684 3.469 36.149
47.814 1.728 37.871
49.7 -0.05 38.354
7.237 67.947 64.286
5.277 68.233 65.804
2.993 67.562 65.96
1.379 67.117 63.688
48.559 18.695 53.501
50.182 16.905 53.49
50.124 14.628 55.028
48.305 14.149 56.709
9.891 21.515 17.132
8.772 21.633 18.847
6.046 22.913 18.206
5.69 23.6 15.763
38.082 79.074 16.363
37.914 79.682 18.429
37.211 78.871 20.892
36.589 76.916 21.769
1.596 12.396 56.779
0.68 10.673 57.833
-1.591 10.073 57.597
-3.604 11.241 57.881
50.13 70.846 10.108
50.74 73.17 10.854
50.585 74.389 13.24
49.556 73.711 15.119
26.992 25.573 39.387
27.231 24.156 37.587
27.924 21.651 37.196
28.953 20.316 38.639
25.965 84.539 39.016
25.814 83.839 41.601
26.994 81.77 42.809
27.571 79.611 41.632
18.266 12.3 12.366
17.988 11.257 14.395
19.137 9.421 15.598
20.239 7.352 14.958
52.441 53.494 45.223
50.527 54.202 46.115
48.433 52.613 46.063
48.27 50.27 44.619
31.83 75.519 44.557
30.571 73.957 43.953
30.66 71.103 44.797
33.102 70.551 45.775
18.179 35.225 25.081
16.475 36.65 25.788
14.32 37.169 24.942
12.599 35.842 23.4
39.462 5.229 36.723
41.15 5.19 35.824
41.407 6.016 33.302
39.464 6.558 31.86
32.178 18.452 29.373
30.574 17.843 31.233
29.317 19.382 32.717
28.32 21.423 32.436
5.558 24.914 32.19
4.606 22.636 33.333
2.246 22.319 32.697
0.34 23.537 32.603
31.596 77.752 24.367
33.758 78.705 23.093
36.165 79.392 24.118
37.475 77.035 25.009
27.716 43.225 43.758
25.462 43.612 44.217
24.543 42.209 46.625
26.118 40.796 47.592
5.14 80.948 20.28
6.007 81.664 22.204
8.191 81.413 23.505
10.452 80.24 22.777
24.454 17.851 34.607
25.498 16.791 36.666
28.084 17.209 36.401
29.325 17.514 34.413
15.332 10.648 18.451
17.38 10.146 18.744
18.632 7.815 17.352
18.054 5.743 17.375
36.468 27.489 51.452
38.277 26.742 52.69
39.409 28.596 54.21
38.508 30.587 55.046
14.099 45.347 9.391
16.497 45.063 9.179
18.332 43.601 10.4
18.233 41.451 11.691
24.735 9.904 16.189
22.86 8.536 16.433
22.436 5.64 15.935
23.194 4.43 14.831
47.736 10.282 10.936
45.88 10.604 11.895
44.0 9.473 10.781
43.307 9.387 8.565
50.274 43.479 13.747
52.467 44.28 12.851
53.254 46.048 11.349
51.631 48.567 10.952
47.162 62.891 50.045
44.983 61.746 48.997
45.761 59.239 48.814
47.03 57.863 50.269
24.247 19.009 53.675
25.818 18.027 55.201
25.898 15.672 55.984
26.105 13.794 54.966
39.43 89.773 57.838
41.028 88.201 59.18
41.927 85.789 58.706
41.335 84.363 57.009
13.786 71.898 41.216
11.388 71.066 40.73
9.247 72.409 40.894
8.788 72.017 42.698
49.903 25.744 58.417
48.817 26.738 55.848
46.382 26.151 55.346
44.359 25.811 56.681
63.164 17.428 22.535
63.245 17.491 24.66
61.75 18.493 26.735
59.832 19.227 26.99
50.455 85.33 4.343
50.103 83.157 3.069
49.993 81.101 3.614
48.41 80.8 5.256
37.035 0.997 -0.388
35.707 1.077 -2.461
34.516 3.324 -3.295
33.851 5.275 -2.225
12.186 39.259 26.19
12.591 41.515 26.946
11.418 43.275 27.956
8.663 43.313 28.683
47.811 42.246 37.138
46.797 43.584 35.57
45.33 45.794 35.922
44.153 46.732 37.714
22.289 78.946 4.965
22.132 80.69 2.946
20.539 82.351 2.512
21.008 84.194 4.059
36.009 46.585 31.865
37.999 47.207 31.125
38.302 49.6 29.45
36.776 51.393 29.156
38.58 84.629 15.744
38.411 83.973 18.334
39.123 82.576 19.618
40.619 80.366 19.645
12.746 44.994 6.705
15.022 44.741 6.457
16.265 45.752 4.113
15.553 47.069 2.612
32.659 32.628 15.119
31.187 32.688 12.867
29.654 33.908 12.159
29.781 35.643 11.1
42.241 70.199 45.253
43.69 68.669 43.728
42.555 69.128 41.039
40.346 71.006 41.251
22.006 54.441 42.941
20.407 56.131 44.523
20.126 58.428 44.435
20.906 60.343 43.502
42.874 28.768 23.182
43.82 27.242 22.065
46.335 25.923 22.549
46.975 26.365 25.419
37.646 64.511 24.376
35.783 64.2 25.61
34.007 62.384 26.107
33.424 60.426 24.686
30.551 64.169 2.39
32.54 62.425 1.966
33.469 60.652 3.797
33.68 60.679 6.182
23.026 -1.21 32.518
21.499 -1.95 34.192
20.931 -1.204 36.651
21.188 0.915 37.841
50.738 95.112 47.286
52.551 93.695 45.732
53.202 91.086 46.054
53.226 89.738 48.0
60.291 87.132 41.469
58.864 85.35 42.04
56.619 84.463 40.952
54.872 86.236 40.096
7.225 18.087 16.739
9.257 17.606 15.947
10.967 15.267 16.719
10.577 13.703 18.512
22.86 45.094 46.103
23.101 46.459 47.676
21.952 49.055 48.175
20.469 50.149 47.294
16.921 69.749 24.614
17.417 71.87 24.265
17.243 74.297 25.619
16.066 75.025 27.141
7.609 90.581 23.479
8.044 88.393 22.037
9.634 86.485 22.212
11.642 86.23 23.46
49.487 38.653 40.757
49.154 38.041 38.642
50.789 37.258 36.545
53.42 36.772 36.831
55.346 54.166 56.055
54.582 54.792 54.168
52.775 53.795 52.449
51.643 51.692 52.753
40.54 39.734 34.009
40.234 41.444 32.526
37.746 42.233 31.307
35.639 41.305 32.592
39.048 50.217 63.408
39.613 49.584 65.688
39.193 47.197 67.045
39.463 45.11 66.486
45.796 26.008 8.887
43.463 25.871 9.811
42.507 25.618 12.079
43.527 25.02 14.279
21.94 55.329 49.497
20.849 55.825 47.601
19.156 57.959 46.924
18.363 59.636 48.195
21.325 27.534 38.331
19.621 26.335 38.8
17.092 26.62 37.252
17.186 28.75 35.328
50.374 19.43 57.963
51.113 18.194 56.189
52.389 16.066 55.86
54.04 14.849 57.481
20.12 78.366 57.042
20.381 80.592 58.483
19.33 82.482 58.713
17.459 83.432 57.389
34.431 54.256 63.056
36.712 55.01 63.855
39.165 54.272 63.328
40.188 53.318 61.604
5.984 17.387 37.553
6.136 14.629 36.489
7.075 12.582 37.606
9.538 13.108 38.57
21.599 42.119 25.732
19.165 41.405 26.296
16.992 42.103 25.371
16.221 44.31 23.99
26.856 90.546 21.952
27.313 91.755 20.068
27.113 94.449 19.951
26.903 96.127 21.739
10.959 39.759 55.343
10.231 38.984 53.085
10.45 36.579 52.075
12.044 34.567 53.094
1.688 47.15 46.321
3.496 46.005 47.936
3.217 43.253 48.098
1.827 41.845 46.675
54.609 1.412 11.812
54.87 1.484 14.653
56.63 1.654 15.865
59.179 2.715 15.002
34.711 80.988 18.55
35.776 81.233 16.322
35.641 84.102 15.513
33.858 85.557 16.546
2.571 25.751 19.287
2.781 24.318 17.708
3.304 24.533 14.993
3.222 26.506 13.592
46.627 40.149 38.793
46.231 39.825 36.442
43.763 40.576 35.301
41.686 41.238 36.355
18.455 1.067 36.723
17.405 0.325 38.478
14.558 0.177 38.562
12.963 1.179 37.258
34.028 53.87 6.443
34.525 55.473 4.627
33.473 57.786 3.818
31.63 58.779 4.317
13.917 16.734 17.826
12.296 17.775 16.869
10.177 19.021 18.192
10.111 19.959 20.522
19.97 89.443 42.461
19.802 91.982 42.554
17.749 93.804 43.063
15.588 93.562 43.246
35.954 29.357 18.8
35.145 29.712 16.237
32.927 30.126 15.275
30.692 29.033 15.852
57.824 27.611 64.18
59.067 29.245 63.855
57.821 31.418 63.798
55.54 32.03 62.614
20.559 60.978 20.481
20.113 62.738 22.018
18.52 64.665 21.378
17.301 64.826 19.065
56.761 50.03 9.423
54.479 48.951 10.859
54.265 48.243 12.877
54.429 49.637 14.932
32.465 9.233 35.088
34.225 8.49 33.764
36.902 7.89 34.414
37.77 7.72 36.743
52.366 33.984 37.124
51.777 32.843 35.327
52.732 30.885 34.087
53.402 29.092 35.212
37.034 48.678 6.392
37.93 50.804 5.696
36.788 52.709 4.746
34.529 53.116 3.271
44.247 23.227 56.281
46.601 23.405 55.44
48.504 21.719 55.784
48.491 19.15 55.97
63.154 11.147 37.583
64.438 11.955 35.922
63.972 13.917 34.072
62.277 15.47 33.696
12.48 81.115 26.384
11.277 82.225 24.149
10.062 83.783 23.803
8.029 84.412 24.328
-1.296 46.798 11.308
-1.222 44.96 10.527
1.246 43.326 9.829
3.185 43.604 11.325
37.403 66.543 4.885
36.006 64.812 4.457
33.921 64.505 3.013
32.387 66.05 2.128
43.265 6.57 8.861
45.322 5.99 10.318
46.531 4.311 11.109
46.569 1.777 10.625
30.074 70.27 60.732
32.031 70.623 62.341
31.31 73.297 62.964
29.594 74.533 61.286
40.241 50.364 31.36
40.393 48.358 32.243
41.353 47.243 34.287
42.647 47.741 35.933
60.282 76.832 41.742
59.725 78.912 41.501
57.513 80.466 40.369
55.325 79.007 39.962
8.412 9.586 43.095
8.337 8.933 40.527
7.249 10.067 38.865
5.119 9.778 38.41
48.169 7.833 10.112
47.659 6.728 12.403
49.165 5.206 13.846
51.026 3.438 12.639
31.98 93.162 14.506
30.994 95.367 14.984
28.478 95.465 14.458
27.128 93.694 13.43
5.322 10.841 58.498
4.7 9.283 57.386
5.625 7.059 56.061
7.872 6.087 57.081
8.556 51.265 26.088
6.691 51.108 27.816
5.129 52.628 28.669
4.105 54.608 28.201
6.833 95.37 20.712
5.049 93.737 20.884
5.269 90.872 20.592
6.674 89.539 19.759
35.094 53.294 33.2
33.496 54.698 32.011
34.113 54.808 29.198
36.513 54.048 28.296
31.225 60.0 61.7
33.472 60.813 60.96
35.803 60.106 61.653
36.565 57.833 62.619
27.953 14.275 36.864
30.001 15.083 35.849
31.816 13.898 34.676
32.773 12.544 36.73
4.969 77.75 38.251
2.67 78.719 39.142
2.049 79.117 41.599
2.984 78.929 43.588
8.483 26.598 53.411
9.499 28.444 52.229
9.083 29.646 49.757
7.386 29.711 48.153
45.327 32.669 54.475
45.747 30.508 53.251
47.296 28.703 53.466
49.405 28.682 54.174
8.109 38.457 55.739
7.525 38.431 53.293
5.6 39.466 51.781
3.855 40.79 52.21
36.792 46.736 25.316
36.397 46.961 27.488
37.224 45.055 29.673
39.472 44.069 29.85
33.078 9.933 27.429
34.588 11.146 27.898
35.74 10.422 30.58
36.287 8.453 31.402
3.752 59.466 31.826
3.746 58.97 29.343
4.829 57.008 29.091
5.406 57.105 27.054
45.01 51.341 7.273
43.205 50.611 5.977
41.204 48.808 6.056
41.117 47.104 7.18
2.428 81.646 44.449
0.837 81.712 42.225
0.376 83.558 40.713
1.732 84.872 39.441
46.207 80.881 21.865
46.299 80.694 24.341
47.339 82.132 26.166
48.288 84.227 26.238
57.312 12.835 52.051
56.751 11.679 54.376
57.171 9.646 55.371
58.103 7.352 54.493
15.128 81.927 26.337
14.32 81.127 24.124
15.233 80.241 22.205
17.554 80.383 21.312
12.697 85.167 21.262
12.982 83.814 22.492
12.763 80.731 21.762
12.908 79.734 19.73
35.134 97.017 55.408
36.879 96.998 57.043
38.698 95.583 57.222
40.282 94.174 55.896
49.504 33.084 36.448
50.057 35.213 34.496
48.612 36.96 33.885
46.244 37.728 34.714
48.946 93.314 43.167
48.781 93.553 40.909
47.325 94.963 39.367
45.076 95.516 39.623
53.228 60.633 23.782
53.93 61.807 22.049
53.559 62.064 19.617
52.697 60.468 17.837
23.613 40.706 5.657
22.852 41.138 7.753
20.572 42.631 8.725
18.907 43.596 7.689
47.378 80.221 28.194
47.101 78.412 27.787
44.836 79.019 26.324
42.713 79.093 27.023
57.364 52.816 49.424
55.236 52.864 50.684
53.299 51.497 49.204
53.565 50.665 46.841
14.438 42.797 30.32
13.184 44.81 29.589
11.677 46.441 30.352
10.387 46.725 32.698
31.364 26.703 11.274
32.808 27.98 13.105
34.763 27.594 14.11
36.2 25.801 14.524
56.191 29.594 10.854
58.659 29.329 9.543
60.541 28.346 10.664
61.434 28.045 12.818
22.683 54.162 45.616
21.544 53.009 47.871
22.344 51.472 49.405
24.912 50.51 49.812
58.859 89.468 19.141
58.539 91.673 20.336
60.01 91.502 22.548
60.738 89.382 23.633
30.76 6.263 29.306
31.962 8.291 29.833
31.79 9.363 32.379
30.218 8.509 34.294
24.461 18.791 32.037
25.791 19.849 33.156
25.153 22.502 34.274
23.607 24.096 33.386
15.227 23.483 -2.585
16.8 21.18 -2.853
17.682 19.419 -1.22
16.931 18.818 0.71
7.756 61.373 2.186
8.643 61.061 4.08
9.361 58.709 5.49
8.826 56.725 4.912
2.353 17.593 17.791
4.052 19.371 17.808
5.175 20.822 15.811
4.14 21.501 13.878
52.345 87.507 64.555
51.851 85.395 63.977
53.394 83.599 64.846
55.956 83.461 64.855
34.611 15.042 37.718
33.562 16.026 35.626
32.165 18.081 35.309
30.878 19.802 36.857
32.053 10.269 52.042
33.539 9.201 53.619
34.336 6.642 53.74
33.157 4.66 52.777
37.695 63.981 47.009
37.528 66.354 45.865
35.979 68.086 45.921
33.821 67.994 46.129
5.493 68.624 6.531
6.08 66.112 6.199
7.862 64.74 7.016
8.454 64.825 8.944
32.523 90.237 14.931
32.075 89.103 17.075
31.216 86.618 17.428
29.427 85.164 16.29
5.216 69.915 42.584
6.05 72.154 42.791
4.481 74.482 42.626
1.891 74.338 42.508
28.454 15.853 31.521
30.745 14.461 32.101
31.569 12.265 31.485
30.923 10.998 29.182
17.487 23.12 52.804
19.879 23.194 53.721
19.629 23.087 56.487
17.081 23.488 57.575
11.89 61.408 41.823
11.456 63.788 41.232
13.893 65.269 41.699
16.157 64.411 41.654
41.629 17.599 16.541
40.642 18.252 14.104
42.139 20.074 12.847
43.96 21.678 13.916
19.996 42.738 30.72
18.702 42.485 28.818
16.583 43.633 27.776
15.553 45.633 28.263
54.24 91.633 13.163
53.508 93.925 13.12
51.14 95.025 14.298
50.763 94.179 16.612
10.712 3.308 45.594
11.505 3.806 43.254
10.503 4.858 41.464
8.266 6.326 41.243
22.286 15.863 -2.408
24.404 15.835 -3.508
26.828 14.861 -2.875
27.909 14.272 -1.212
37.242 75.377 43.368
34.703 75.863 43.584
33.411 77.871 43.665
34.3 80.498 44.045
7.972 35.662 55.45
9.829 34.438 54.404
10.689 31.889 54.667
9.378 29.81 55.126
3.092 10.096 54.917
0.68 9.705 55.154
0.433 7.948 57.162
1.773 6.256 57.809
56.322 40.733 7.81
55.906 38.543 8.57
55.691 36.362 7.37
55.544 35.709 5.278
60.028 25.196 29.939
59.345 23.276 29.698
59.211 21.719 27.125
61.023 21.696 25.423
51.162 83.283 60.901
51.337 82.526 63.019
51.915 79.827 64.234
50.739 77.855 62.906
31.978 70.039 42.22
34.129 70.095 42.85
36.072 68.605 43.184
36.145 65.943 43.44
24.537 67.41 1.106
24.804 69.829 0.568
22.845 71.775 -0.264
20.641 71.998 -0.155
0.775 85.458 23.486
2.211 87.542 22.812
4.593 87.695 22.399
6.598 86.775 23.531
57.308 77.348 6.636
54.63 77.431 5.723
53.143 79.022 5.464
53.479 81.374 4.099
49.552 25.649 51.725
47.221 25.174 52.426
44.848 26.07 51.601
44.261 27.232 50.057
56.401 72.721 2.73
55.91 73.869 4.893
53.873 73.629 6.418
52.199 71.786 6.868
24.769 70.244 59.863
26.928 70.444 60.39
28.303 68.027 61.486
26.386 65.874 61.665
29.734 26.569 36.823
28.404 24.724 35.275
28.975 22.549 34.76
30.92 21.146 34.34
14.034 61.129 3.819
13.391 59.684 5.822
14.81 58.314 7.352
17.119 57.225 6.919
42.599 44.709 7.396
44.454 43.494 7.111
45.133 43.256 4.383
43.327 44.354 2.409
53.707 27.021 28.588
54.325 28.713 29.678
53.377 30.601 30.769
50.908 31.161 31.51
19.449 67.029 40.009
17.882 67.547 41.853
15.43 68.065 41.983
13.811 68.857 40.796
41.802 4.089 15.534
43.941 5.252 14.868
43.65 6.81 12.379
41.788 7.237 11.089
34.176 91.763 16.348
34.168 89.902 18.213
35.588 87.884 18.424
37.61 87.051 17.68
9.424 4.005 37.359
9.688 5.987 38.583
8.758 8.203 37.759
6.907 8.786 36.438
29.714 2.093 15.322
28.08 1.736 16.878
26.951 3.132 18.722
27.391 5.265 19.562
17.208 81.059 3.339
18.489 80.984 1.562
18.204 82.309 -1.058
16.546 83.544 -2.042
39.073 63.628 44.802
40.511 64.867 44.768
41.057 67.333 43.866
39.225 68.751 42.546
14.053 94.119 41.137
14.473 96.286 41.265
13.038 98.279 40.779
10.55 98.282 39.709
53.792 12.011 57.389
53.852 11.01 55.223
54.795 8.861 55.177
54.765 7.08 56.9
24.475 81.837 4.0
24.803 79.626 4.581
27.016 78.328 5.234
29.544 79.058 4.824
20.753 25.158 36.734
22.973 24.814 36.903
24.714 22.544 36.759
24.098 20.333 37.494
18.893 2.569 44.29
16.461 2.074 43.166
14.547 3.58 42.979
13.743 5.706 44.433
10.418 49.972 27.484
10.644 47.279 27.515
12.341 45.806 27.047
14.448 45.41 25.98
13.821 39.791 20.591
14.154 39.73 22.835
14.218 41.785 24.832
12.39 43.439 24.625
49.747 93.053 10.747
49.124 94.257 12.252
49.678 96.901 12.407
49.267 98.389 10.433
54.763 18.549 27.843
56.329 20.336 27.189
56.216 22.966 27.328
54.836 24.448 28.845
29.152 33.518 9.248
29.739 31.374 10.836
31.53 30.149 11.041
32.86 28.641 9.945
44.004 87.181 4.352
44.664 86.889 1.693
43.147 87.555 -0.315
41.56 89.262 -0.632
61.274 41.06 49.154
63.408 39.875 49.972
64.259 37.443 50.43
62.32 35.253 49.642
38.116 11.774 30.424
37.523 10.59 32.763
38.755 9.82 34.391
41.487 8.745 34.162
30.384 64.72 18.735
31.183 61.969 19.108
29.893 60.143 18.142
27.927 60.088 16.231
12.404 15.568 22.104
12.74 14.895 19.646
14.595 13.441 18.566
17.082 12.914 19.535
3.554 48.194 29.279
3.686 50.483 29.647
2.172 52.445 28.908
0.166 52.64 28.098
44.082 77.206 20.664
42.932 75.06 21.617
41.369 73.394 20.769
40.614 72.915 18.8
50.258 24.15 54.328
50.502 23.544 56.483
51.99 21.383 57.373
53.059 19.955 55.315
15.327 88.53 55.511
15.306 88.827 57.832
16.505 87.53 59.823
18.291 86.509 60.161
37.037 14.038 36.936
36.047 12.131 36.308
35.195 11.03 33.734
34.295 11.852 32.179
12.842 26.314 48.715
10.409 26.38 49.855
10.47 25.167 52.214
11.946 23.056 52.739
38.891 66.214 7.334
39.221 63.948 7.061
36.865 62.41 7.031
34.692 63.354 7.135
54.528 18.554 52.801
53.746 16.66 53.593
55.16 14.586 54.916
57.553 14.108 55.036
44.555 85.496 59.289
46.003 83.746 60.361
48.416 84.597 61.552
48.711 87.226 61.084
49.567 71.497 32.385
50.833 72.376 30.72
51.76 70.385 29.038
52.32 68.252 29.669
2.942 27.613 4.563
1.032 28.337 3.36
-1.417 28.598 4.492
-1.973 27.958 6.687
14.28 15.816 11.74
13.858 14.772 13.7
15.35 13.905 15.849
17.825 13.655 15.714
7.694 72.101 47.683
9.852 71.198 45.715
8.894 69.531 44.233
7.261 67.961 44.636
4.182 26.099 9.819
5.176 27.198 11.696
7.237 26.457 13.071
8.703 24.369 13.136
4.029 19.973 23.273
4.563 21.134 20.973
6.275 19.953 18.947
7.908 18.298 19.346
5.858 18.706 31.695
4.107 20.237 31.603
2.554 21.15 29.962
2.696 20.881 27.364
19.311 61.212 45.883
17.178 62.015 44.887
16.075 64.414 44.185
17.059 66.689 44.45
36.56 26.92 16.962
38.29 26.847 18.481
40.507 25.768 17.311
40.654 23.802 15.512
41.787 14.345 15.595
39.88 14.239 14.423
40.083 11.376 13.401
41.414 9.75 14.617
47.303 20.517 50.549
46.63 21.609 52.675
45.205 23.445 53.099
43.531 23.246 53.863
61.714 76.57 62.362
60.47 74.247 63.177
58.482 74.21 65.019
57.739 76.086 65.959
40.163 71.145 46.931
38.027 69.991 45.796
35.704 71.025 44.921
34.996 73.278 44.834
61.038 53.494 30.906
62.116 55.498 30.168
61.088 56.882 28.015
58.999 56.526 26.732
23.891 30.347 32.718
23.438 29.848 34.872
22.54 27.715 35.85
20.483 26.853 34.624
41.442 45.292 36.641
41.13 43.566 35.277
39.856 44.008 33.183
37.963 44.247 32.81
26.531 58.571 18.79
25.425 60.392 18.855
23.423 60.992 20.969
23.018 59.748 22.962
10.192 54.038 5.117
11.199 51.725 5.845
11.186 49.391 4.896
9.556 48.13 3.843
32.64 31.229 52.52
32.762 33.396 53.723
30.871 35.111 54.271
28.596 34.93 54.638
6.201 33.125 48.644
7.88 32.304 50.701
8.686 34.342 51.77
7.878 35.929 52.779
57.38 2.831 18.321
59.526 2.143 18.086
61.864 3.455 19.394
61.56 3.336 22.157
43.267 80.987 25.024
43.675 80.141 22.778
41.783 78.663 21.266
39.716 77.973 21.905
42.743 58.149 49.057
42.374 60.38 49.862
42.405 62.324 47.75
41.225 62.481 46.145
32.264 43.881 48.787
30.208 44.437 47.934
28.728 42.572 48.016
29.219 39.92 47.537
43.946 98.672 13.114
46.387 99.814 13.61
48.398 98.619 14.271
48.993 96.428 15.359
59.017 42.408 51.645
61.963 42.188 51.587
62.957 44.572 50.583
62.342 46.63 50.079
45.143 93.76 35.004
45.877 95.33 36.535
45.249 97.65 37.001
43.33 99.248 36.014
37.841 52.309 24.626
39.195 50.174 25.493
39.886 50.731 27.981
39.34 53.086 29.241
12.72 23.303 58.111
12.743 24.042 56.022
14.499 23.099 54.134
15.564 21.329 53.864
56.417 49.502 47.061
57.591 50.321 48.898
59.922 51.37 49.29
61.944 51.306 48.154
28.711 89.462 39.604
27.554 87.17 39.835
25.214 87.426 41.0
24.04 88.974 41.207
1.059 62.41 25.458
-0.82 61.636 23.912
-3.368 62.774 24.415
-3.74 64.409 26.135
5.271 92.096 58.006
5.953 94.284 58.184
8.365 95.003 59.302
10.14 93.488 59.668
50.515 27.5 37.96
51.75 27.248 36.327
51.146 28.728 33.864
49.119 30.489 33.914
32.708 11.693 55.022
31.103 12.756 56.225
28.859 13.32 55.191
28.483 13.729 52.671
54.999 30.838 3.407
56.683 32.29 4.39
56.928 33.191 6.809
55.312 31.849 8.728
19.62 41.032 33.85
18.596 40.676 31.693
18.301 38.321 30.285
19.609 36.095 30.305
4.36 35.453 47.767
5.974 36.521 48.713
8.409 37.649 47.525
8.848 38.41 45.8
60.499 92.797 24.92
62.406 93.686 24.242
64.818 92.545 23.698
65.254 90.224 23.523
5.309 71.139 45.988
4.886 73.092 47.279
2.786 74.681 46.768
1.099 74.382 45.282
3.257 2.101 56.108
3.396 3.821 57.362
5.565 3.119 59.245
7.252 1.563 58.386
11.948 7.442 38.034
12.572 7.48 40.295
14.384 6.359 41.749
16.322 5.355 41.188
51.81 81.538 38.436
53.298 82.835 39.659
53.82 82.832 42.362
54.338 80.724 43.694
48.241 89.496 1.593
46.066 88.89 2.685
46.536 86.275 4.581
48.065 84.879 3.192
5.82 31.567 12.541
4.428 29.914 12.03
2.228 30.35 12.214
0.847 31.753 13.806
53.65 48.082 53.498
53.121 48.308 51.092
55.495 48.347 49.619
57.463 47.939 50.296
2.292 75.353 3.45
2.088 73.005 3.106
3.778 70.888 2.974
6.438 70.684 3.258
48.378 94.432 36.334
49.396 93.093 37.95
48.506 91.152 39.371
45.992 90.432 39.309
26.362 33.47 8.59
25.871 35.093 10.713
24.724 34.572 12.749
24.17 32.052 13.755
21.888 63.69 17.019
21.523 61.746 18.058
20.646 59.836 17.591
20.787 58.358 15.361
18.064 20.357 53.475
19.997 20.165 54.531
21.807 18.33 54.624
22.237 16.318 53.339
60.055 7.921 -0.059
59.295 8.405 -2.102
56.826 8.316 -3.13
54.622 7.551 -1.818
23.393 37.076 26.852
21.472 37.051 28.108
19.068 37.382 27.456
18.052 39.17 25.384
56.538 65.226 21.638
55.485 63.751 22.212
53.33 63.482 24.225
52.494 64.972 25.388
28.112 57.136 20.355
28.174 58.748 21.622
30.701 59.613 23.01
32.882 60.078 21.91
-1.7 42.988 14.378
-1.247 42.586 12.134
0.62 40.847 10.77
0.947 38.943 11.228
41.602 30.193 55.616
43.616 29.845 55.127
44.048 27.107 53.92
42.007 25.328 53.72
8.233 15.533 35.024
6.427 16.807 34.782
5.762 19.381 34.368
7.328 21.336 34.523
49.278 8.22 36.149
47.163 8.241 36.636
45.855 10.402 37.638
46.817 12.641 37.686
2.077 1.781 24.285
2.205 0.158 23.439
3.186 -0.066 21.096
4.463 1.549 19.631
59.846 65.853 3.211
59.106 66.031 5.344
58.372 68.492 6.059
56.67 69.666 5.699
57.291 61.042 27.523
58.661 59.826 26.559
57.872 58.953 24.067
55.579 58.69 23.166
35.379 41.405 52.606
33.397 40.498 52.182
30.957 40.94 52.267
29.688 42.674 53.138
21.033 53.338 51.153
19.405 54.128 50.157
17.803 52.141 48.42
18.257 49.723 48.776
13.205 36.592 27.663
12.483 38.15 28.903
13.991 40.647 29.101
16.426 40.749 27.848
50.306 89.233 38.344
51.445 87.665 39.761
52.382 85.383 39.513
52.692 83.871 37.137
31.078 9.403 60.252
28.472 8.596 60.042
26.958 9.481 58.106
27.526 11.556 56.449
42.998 55.633 50.448
45.551 55.74 51.211
46.799 55.375 48.957
46.651 54.561 47.178
28.101 6.197 58.296
30.021 5.548 58.208
31.437 6.554 60.019
30.076 7.085 62.121
49.177 75.023 24.424
47.116 73.898 24.306
44.655 75.07 23.854
44.258 77.436 23.851
41.155 7.366 37.656
43.246 7.756 37.531
45.187 5.502 38.108
44.521 3.611 39.015
14.24 70.389 43.181
11.743 70.157 43.982
11.083 67.805 44.1
12.463 66.361 45.81
26.625 48.902 52.452
28.007 47.573 51.775
27.82 44.937 52.005
27.275 43.809 53.682
35.134 42.095 29.551
34.763 44.346 30.612
33.993 46.517 29.946
33.265 47.234 27.424
27.382 44.108 10.34
26.937 42.278 8.716
28.074 39.797 8.719
29.245 38.64 10.431
8.603 45.197 31.126
8.247 47.465 30.654
6.312 49.057 31.261
3.741 47.899 32.121
1.118 10.138 -1.21
2.784 9.823 -2.883
3.66 7.102 -2.613
4.053 6.003 -0.972
40.972 52.074 8.444
38.874 53.313 7.08
36.567 53.712 7.566
35.126 53.252 9.44
26.551 48.686 46.833
28.179 47.04 45.784
26.813 44.776 46.444
25.416 44.558 48.257
42.462 53.94 7.05
41.268 52.451 5.584
39.567 53.445 3.971
38.935 56.158 3.512
57.676 65.996 28.851
55.652 65.659 28.383
53.994 67.604 27.278
53.898 69.767 27.783
41.538 45.871 30.781
43.173 46.034 32.926
43.672 43.976 34.283
45.02 42.375 33.867
15.978 52.86 11.881
15.959 54.09 9.642
15.472 56.05 8.912
14.771 58.508 10.398
22.031 35.397 12.089
22.846 37.099 11.162
21.916 39.639 10.459
20.088 40.269 10.023
2.887 90.662 -0.52
4.728 91.061 -1.575
7.174 90.601 -0.965
8.164 88.778 0.314
0.293 67.264 7.314
0.899 69.106 5.549
2.239 71.163 5.332
4.01 72.046 6.73
17.969 5.915 14.726
19.396 5.528 13.348
21.059 3.64 13.285
20.814 1.691 15.286
48.497 6.171 16.56
46.153 6.434 14.94
45.115 8.318 14.052
44.296 10.405 15.078
51.985 39.829 34.253
49.229 39.801 34.574
47.402 41.214 33.794
47.342 43.404 32.47
13.059 8.747 43.622
11.194 9.036 41.889
10.561 10.518 40.182
11.018 12.884 40.879
11.118 35.404 28.953
10.145 34.964 26.639
11.968 33.815 24.805
13.503 32.536 25.065
57.929 71.866 62.67
58.303 70.447 64.135
61.235 69.747 64.271
62.964 70.443 62.407
26.983 29.6 31.054
26.364 28.82 33.072
25.959 26.129 33.605
26.859 24.261 32.813
9.013 76.262 18.129
10.525 77.368 20.069
12.668 76.232 21.225
13.778 74.124 20.935
18.39 70.164 18.19
20.073 69.276 19.238
20.606 66.887 19.147
19.605 65.238 17.682
8.902 13.089 33.042
8.229 12.069 35.044
9.171 10.871 37.014
11.263 10.019 37.329
38.15 31.134 14.422
36.167 30.016 13.552
34.158 30.95 12.1
33.664 33.018 11.172
20.417 45.391 11.138
21.959 44.786 9.3
24.1 43.481 8.875
24.906 41.439 10.434
49.4 0.804 19.868
51.2 -0.178 18.603
52.727 0.928 16.51
52.465 2.614 15.224
46.366 12.161 14.002
44.207 12.356 13.063
42.35 14.482 12.789
42.583 16.601 12.629
13.993 93.036 61.17
14.608 91.092 60.236
13.726 90.824 57.562
13.322 92.692 55.955
26.042 77.413 61.339
24.796 79.539 61.838
22.283 79.418 60.394
22.14 77.498 58.459
1.958 64.821 4.373
4.079 65.066 4.938
6.203 63.247 4.953
6.162 60.819 5.431
8.951 65.539 43.977
10.728 64.506 43.861
12.152 62.913 45.231
11.878 61.365 46.975
50.233 81.18 24.806
49.142 79.978 26.051
49.5 77.134 26.677
50.953 76.144 26.104
29.105 27.121 13.369
29.804 29.423 13.247
28.264 31.666 12.916
27.96 32.228 14.951
37.153 49.142 24.144
36.185 49.244 26.381
34.139 50.424 27.433
31.961 51.258 26.325
10.374 57.735 7.848
12.743 56.731 7.595
13.733 54.307 7.84
12.322 52.282 8.16
-1.677 63.079 30.061
-0.535 61.911 27.794
0.706 59.503 28.041
1.421 58.416 29.897
47.832 90.216 42.147
49.28 90.428 43.69
51.533 88.748 43.85
51.81 86.676 42.57
12.524 62.266 63.598
11.703 62.923 66.272
9.246 63.79 66.785
7.662 64.843 65.455
55.162 27.584 33.033
56.184 26.418 31.076
57.011 24.074 30.79
57.576 22.38 32.122
21.34 95.2 20.434
23.908 94.572 19.645
24.41 92.98 17.766
24.659 94.013 15.865
52.634 64.749 28.528
54.083 63.831 27.84
53.812 61.573 26.422
51.281 60.791 26.096
55.503 12.409 49.811
54.598 12.814 51.785
52.142 14.082 52.778
50.548 14.857 51.544
53.285 10.354 52.599
52.008 11.545 53.584
49.016 11.548 53.408
48.094 9.72 52.337
1.879 93.6 60.52
3.262 95.073 59.59
3.772 95.572 56.944
1.912 95.103 55.086
37.504 81.481 23.375
37.061 81.44 21.188
36.11 83.179 19.432
35.182 85.354 19.578
58.604 65.481 8.694
56.992 66.807 7.398
56.389 69.379 8.346
57.086 70.403 10.362
9.64 86.957 62.775
11.117 87.637 60.537
13.729 87.36 60.81
14.825 85.824 61.906
19.692 13.902 19.664
19.402 12.197 18.208
20.995 11.177 16.769
22.745 11.521 15.46
36.774 57.22 5.091
35.522 58.965 4.855
36.296 60.74 2.91
38.453 61.251 2.206
33.195 11.962 25.046
32.011 12.565 27.355
31.75 14.828 28.442
31.271 16.871 27.24
19.23 89.656 0.093
16.9 87.896 0.422
16.622 85.94 1.933
18.386 84.927 3.632
22.381 38.618 48.345
24.011 40.342 49.211
23.863 42.637 50.065
22.304 44.446 49.465
3.412 81.384 38.077
2.393 83.17 37.496
-0.228 82.96 38.011
-1.628 81.533 38.075
12.796 59.156 45.766
13.154 60.447 43.871
16.212 59.952 43.308
17.335 57.886 44.398
50.762 60.627 45.756
49.024 60.653 46.818
48.425 58.453 47.966
48.883 56.227 47.488
24.279 24.895 54.388
22.134 23.763 55.649
22.191 21.191 55.941
24.54 20.166 56.666
