2.486 8.847 20.453
2.083 6.92 18.212
2.741 7.259 16.289
13.522 12.346 82.444
12.927 10.269 82.463
10.603 9.629 83.421
8.838 11.975 83.861
53.276 97.04 64.225
54.0 99.175 65.146
52.94 101.034 66.506
50.568 100.917 67.687
12.703 5.965 64.689
11.799 7.207 63.226
12.735 7.278 60.861
14.873 6.271 59.916
17.627 28.225 8.539
17.99 30.411 9.676
18.953 32.746 9.16
19.664 33.74 7.181
45.381 45.117 68.46
47.543 44.496 67.715
48.651 42.226 66.817
47.53 40.427 65.212
31.121 15.931 85.23
31.856 15.831 83.326
34.148 14.501 82.15
35.105 12.721 82.901
47.94 55.379 3.343
50.399 55.367 3.193
51.988 53.782 4.034
51.848 51.841 5.349
20.677 7.685 6.551
22.781 8.479 8.182
22.594 10.403 9.92
21.051 11.957 10.371
32.486 41.448 27.771
31.811 43.683 28.949
30.171 44.376 30.487
27.884 43.313 31.261
8.486 59.94 64.307
9.284 58.873 62.345
10.759 59.89 60.221
11.386 62.024 60.086
15.023 75.249 58.771
17.836 75.494 58.616
18.586 77.719 57.33
17.783 79.612 56.88
12.239 52.701 65.491
12.11 54.58 63.668
10.513 56.751 63.572
8.21 56.737 64.832
66.251 71.997 22.351
67.374 70.45 21.116
68.582 71.337 19.109
67.853 73.547 17.61
41.654 101.085 22.631
43.559 102.46 22.562
43.493 104.995 22.611
41.157 106.705 22.233
61.947 6.486 39.947
63.185 4.124 40.404
62.985 1.859 38.998
61.867 1.617 37.143
33.982 54.143 76.0
32.261 55.811 75.43
32.146 57.82 73.985
33.42 58.902 72.493
26.381 59.934 11.899
25.531 61.305 10.378
25.206 60.853 7.922
24.748 58.843 6.717
55.729 79.055 -1.019
53.925 80.423 -1.395
51.342 79.11 -1.971
51.232 76.825 -2.155
11.163 41.071 40.871
13.396 42.156 41.35
13.991 44.955 41.574
12.697 46.726 40.602
44.933 8.621 20.729
46.019 6.722 21.658
45.871 4.11 20.509
45.012 3.293 18.911
48.112 79.992 45.316
45.958 80.847 45.174
44.777 83.13 45.226
45.808 85.392 45.127
24.003 29.533 76.562
24.493 29.496 78.682
23.418 28.138 80.717
21.618 26.677 80.96
-1.566 21.207 19.189
-3.313 22.261 18.641
-5.248 21.453 16.923
-4.873 19.466 15.199
22.375 63.23 31.134
20.151 62.712 32.667
18.492 60.817 32.444
18.61 58.627 31.295
3.912 83.629 31.636
3.048 85.499 33.452
2.964 85.181 36.049
4.055 83.168 37.488
32.104 59.772 11.375
29.983 59.83 11.517
28.317 58.29 11.232
27.944 55.787 11.548
57.222 33.478 49.122
57.907 33.962 46.748
57.338 35.921 45.196
56.508 38.282 45.607
35.545 63.184 6.792
33.468 64.35 7.161
31.16 63.393 8.262
30.352 61.174 8.916
22.227 51.937 92.375
24.271 50.933 92.272
25.496 51.665 94.836
23.934 53.247 96.41
60.039 30.027 21.922
62.078 29.457 20.466
62.943 27.311 19.057
61.885 25.093 18.587
49.991 10.014 26.789
48.031 11.504 27.05
47.555 13.622 28.546
48.096 14.135 30.672
11.698 86.203 80.862
12.393 83.796 81.625
11.65 83.79 84.085
11.039 85.811 85.534
62.4 58.849 38.255
61.225 57.401 39.007
62.713 55.885 41.069
65.514 55.769 41.192
29.976 67.009 12.831
30.575 65.014 11.819
29.752 62.601 11.693
28.382 61.402 12.751
24.528 17.017 17.469
23.273 17.852 15.687
20.292 18.491 15.744
18.747 17.04 16.535
11.945 19.595 89.161
9.402 19.825 89.371
7.941 21.502 90.465
7.995 23.576 90.694
63.596 43.942 44.537
61.798 45.63 43.759
61.901 47.76 42.025
63.419 49.26 41.689
52.99 29.338 8.419
51.271 30.557 7.289
50.772 33.273 7.317
51.25 34.717 8.942
45.782 54.062 94.934
47.346 53.025 95.337
49.775 53.647 94.372
50.29 53.967 92.165
11.496 54.458 38.161
13.94 55.16 37.385
14.818 57.186 36.651
13.464 59.448 35.437
28.108 1.305 4.054
29.489 -0.321 4.353
29.734 -2.701 3.311
29.015 -3.658 1.039
65.057 12.542 16.556
67.196 12.993 16.331
68.757 15.239 16.326
67.968 17.525 17.398
37.181 18.83 57.404
36.071 19.13 55.852
36.356 17.579 53.647
35.24 15.321 53.461
3.234 60.698 87.773
3.677 58.213 87.766
3.636 56.399 89.513
3.367 56.497 92.124
55.806 60.925 6.147
55.043 62.195 4.241
54.302 64.992 4.009
53.431 66.367 6.122
29.766 88.273 72.729
31.965 86.649 71.956
31.806 84.323 71.412
30.041 82.263 71.978
66.207 69.096 43.791
64.6 68.041 43.028
64.47 66.17 41.027
66.265 65.943 39.28
28.201 48.065 74.593
30.457 48.728 76.064
31.777 47.326 77.646
32.273 44.714 77.549
6.585 46.209 66.396
8.064 46.601 65.184
8.498 48.717 63.774
8.155 50.798 64.911
9.027 66.017 18.756
6.77 66.079 18.651
5.116 67.372 17.506
5.378 69.487 15.81
28.927 25.741 83.672
28.724 23.6 83.928
30.595 21.446 84.442
33.117 22.315 84.127
36.613 5.931 80.329
35.766 7.623 79.17
34.406 9.502 79.51
33.473 10.501 81.986
21.693 29.646 9.638
20.259 29.295 11.138
19.04 27.078 10.553
20.168 24.675 10.134
48.78 101.169 21.697
46.643 100.339 20.39
44.612 99.579 21.848
44.176 99.223 24.347
12.344 18.038 84.994
11.938 15.809 83.547
12.598 13.634 85.119
14.351 13.85 87.241
1.373 80.416 34.808
1.073 80.451 36.986
0.156 78.523 38.563
-0.651 76.753 37.913
16.302 64.334 54.088
16.109 65.803 55.938
16.761 68.132 56.426
18.388 69.379 55.984
35.481 43.751 80.14
33.809 43.13 80.923
31.647 44.481 80.727
31.339 47.025 81.228
52.056 65.243 90.05
53.466 67.428 89.766
52.593 69.77 91.0
50.227 70.386 91.566
71.324 69.09 13.651
72.82 70.56 14.068
72.43 73.501 14.272
70.927 74.362 13.594
63.544 47.2 19.793
63.587 47.956 21.655
63.852 50.556 22.618
64.131 52.559 21.716
19.705 99.84 33.458
21.29 99.781 35.091
22.024 102.568 36.206
20.845 104.303 36.496
29.535 -0.884 67.588
30.285 -1.602 69.518
31.762 -0.125 71.408
32.784 1.86 71.469
12.383 84.886 87.521
13.545 83.236 86.088
13.581 80.801 86.121
11.091 79.542 86.749
59.751 97.914 38.715
61.577 98.57 37.909
62.51 100.424 36.24
60.593 101.898 34.672
43.464 39.828 23.448
41.5 40.367 24.564
40.27 39.452 26.504
40.692 37.83 28.168
56.083 100.589 71.973
55.469 101.068 69.91
56.377 103.068 68.159
56.85 105.048 68.511
62.92 24.857 47.739
62.3 25.226 45.402
60.8 23.737 44.026
59.847 21.816 44.293
65.614 39.055 89.111
66.005 40.008 86.545
67.9 38.102 85.557
68.316 36.244 86.084
53.128 12.774 68.806
54.505 11.375 67.204
55.126 8.647 68.414
54.543 8.444 70.62
8.398 68.103 9.587
8.063 66.81 11.504
7.919 68.324 13.685
9.331 70.038 14.289
43.372 2.041 17.048
42.529 1.976 18.879
39.882 0.877 19.707
38.446 -0.597 18.437
6.653 69.969 10.528
7.111 71.693 11.933
5.435 74.078 12.554
3.412 74.488 12.134
66.464 100.286 35.658
67.561 102.123 36.25
66.454 104.373 37.003
64.472 105.467 36.069
4.237 41.488 69.251
5.708 41.879 66.907
7.438 43.219 66.379
9.189 41.699 66.352
59.596 6.677 67.814
59.8 4.958 66.479
60.016 2.249 67.439
60.485 1.717 69.876
49.536 17.993 29.991
47.118 17.909 30.481
45.354 19.293 31.342
44.812 21.478 31.91
25.881 78.565 30.156
25.414 76.315 31.0
23.945 74.754 29.659
23.418 75.319 26.653
47.878 45.676 96.266
49.692 47.137 95.188
52.022 45.191 94.454
51.918 43.017 94.992
72.697 98.404 86.696
73.074 100.662 86.054
75.333 100.568 84.455
75.782 98.89 82.826
36.241 48.672 47.451
36.048 50.856 48.651
34.048 51.201 50.578
32.637 49.722 51.406
9.811 25.927 67.507
10.728 27.699 65.977
12.823 27.074 64.778
14.898 26.167 65.166
59.688 14.772 49.973
58.481 15.788 48.867
58.399 17.128 46.477
60.724 16.938 45.065
49.104 3.958 20.682
47.878 5.092 22.462
48.407 6.752 24.272
50.702 7.608 25.046
-1.042 100.183 37.037
-2.638 98.179 36.614
-2.438 95.838 35.841
-0.454 94.265 35.547
18.669 84.264 32.917
19.421 83.306 31.133
20.548 85.057 29.635
19.709 87.44 28.77
50.479 15.628 0.146
52.553 15.032 -0.337
53.547 12.663 -0.586
52.833 10.325 -0.952
22.978 35.74 82.95
24.309 34.209 81.586
23.89 31.063 81.538
22.39 30.012 82.3
5.0 1.239 80.216
5.551 -0.631 79.217
4.244 -3.021 80.229
2.36 -2.844 81.96
15.136 18.62 56.296
13.003 17.927 57.213
12.136 20.443 58.698
13.009 22.231 58.614
8.812 80.988 87.095
9.751 81.415 84.396
8.507 80.833 82.439
6.241 79.629 82.007
17.823 52.762 37.832
15.73 51.581 37.179
15.13 49.372 37.657
16.255 47.28 38.638
4.512 28.552 -1.027
3.366 26.254 -2.085
3.848 24.139 -1.881
5.059 22.571 -0.239
39.449 3.77 72.981
37.341 3.473 72.361
35.563 5.873 73.624
36.832 7.479 74.843
65.132 91.782 35.869
66.81 90.308 37.023
67.307 88.324 37.662
66.239 86.215 36.337
15.468 59.501 33.051
15.255 57.611 34.144
15.115 55.09 33.388
15.378 53.889 31.333
62.724 29.24 42.293
61.739 29.572 44.276
62.15 28.757 46.776
63.803 27.399 47.676
36.147 28.871 30.997
38.223 29.412 29.775
39.263 31.708 29.132
38.417 33.831 29.09
47.855 71.058 20.902
47.589 69.696 23.323
46.355 67.589 23.613
46.063 65.28 22.101
27.632 11.163 5.986
26.75 10.483 8.001
25.154 11.108 9.352
24.107 13.659 10.004
28.581 89.56 68.147
30.964 89.001 69.379
32.241 87.301 69.167
32.972 85.599 67.722
35.517 88.336 70.859
34.759 85.741 71.594
35.077 83.546 70.669
36.544 82.533 68.862
1.063 88.398 41.258
-0.305 86.852 39.792
-0.786 86.607 37.454
0.66 86.832 35.648
31.065 67.01 93.802
29.82 68.607 94.655
30.22 71.323 93.76
31.496 72.149 92.123
35.509 26.499 29.385
36.089 24.929 28.339
38.416 23.136 28.901
40.157 23.802 30.485
36.557 39.234 55.104
35.642 40.561 53.266
35.954 43.019 52.808
37.63 44.94 53.438
26.685 7.715 11.768
26.698 5.9 10.426
28.3 5.379 8.428
29.822 6.64 7.147
65.897 33.541 22.865
64.921 34.814 21.125
64.437 37.446 20.857
65.046 39.398 21.782
55.802 79.952 87.762
54.346 78.302 88.415
53.905 75.957 87.78
54.165 74.693 85.781
58.725 81.051 59.348
60.338 82.525 60.278
60.179 84.839 61.075
58.436 86.659 61.093
66.58 88.135 40.376
67.398 85.946 40.376
69.075 85.081 42.75
68.936 86.318 44.649
16.995 0.368 33.927
18.823 2.077 33.319
19.427 4.439 34.163
18.253 6.091 35.418
4.663 72.974 79.903
6.458 70.937 79.922
6.468 68.696 80.248
4.528 66.909 80.474
13.749 91.214 59.151
15.597 90.824 58.342
16.931 88.505 57.417
15.663 86.277 56.59
59.631 64.351 -0.003
57.309 64.455 0.86
56.193 65.495 2.374
57.151 66.342 4.25
19.275 90.132 29.195
21.081 91.728 29.133
21.274 94.048 28.677
19.559 95.709 28.86
19.728 91.372 51.865
19.491 89.075 52.034
19.121 88.714 54.347
20.209 89.643 56.291
24.477 4.985 40.165
24.697 6.476 37.785
23.368 5.618 35.476
22.358 3.803 35.191
69.522 43.433 -0.267
68.067 44.406 -1.271
67.833 43.911 -3.639
68.716 41.697 -5.09
33.098 95.558 72.033
32.142 93.617 72.959
31.793 91.069 71.897
33.346 89.884 70.359
51.109 6.757 -1.1
51.951 4.848 0.052
54.758 4.928 -0.936
55.699 6.952 -1.731
55.966 88.682 64.946
55.055 87.718 62.764
54.692 85.104 62.217
54.788 83.157 63.969
58.067 15.165 66.468
56.3 16.089 68.43
56.494 18.456 69.702
56.579 20.016 68.367
53.535 92.997 3.252
53.622 91.348 1.644
53.188 88.593 1.736
52.514 87.114 3.644
32.97 104.951 79.794
31.478 104.013 77.612
30.395 102.091 77.315
30.116 99.867 78.679
71.619 97.428 12.656
73.299 98.015 14.11
74.312 100.424 14.832
74.799 102.55 13.905
2.385 4.374 39.832
0.426 3.612 41.13
-1.088 4.903 43.279
-0.832 7.226 43.712
25.935 97.853 36.256
24.051 98.36 34.677
23.536 100.639 33.672
24.466 102.68 33.935
53.383 6.45 72.671
54.033 4.444 73.178
54.387 2.427 71.251
54.154 2.664 69.017
39.699 26.761 57.497
38.425 28.01 59.106
36.3 29.319 57.621
35.884 28.593 55.279
29.684 21.887 78.085
31.21 20.196 77.503
30.972 17.794 78.812
29.328 16.327 78.499
45.499 81.613 24.526
46.012 82.689 22.658
46.593 85.457 22.049
46.529 87.35 23.248
34.073 85.397 5.311
31.512 84.946 4.503
30.092 83.214 4.839
30.385 80.937 5.479
51.743 89.523 20.098
51.923 87.604 21.305
49.571 87.644 23.29
48.37 89.352 23.959
49.379 30.203 67.493
51.397 31.024 67.867
53.796 30.084 69.077
54.25 28.316 70.656
24.319 94.58 93.881
24.071 93.816 96.141
24.604 91.314 97.261
25.484 89.447 96.6
39.367 13.026 55.537
38.23 15.443 54.609
39.096 17.69 54.118
41.506 18.698 54.255
46.105 55.149 50.65
43.814 55.558 49.694
42.786 57.327 48.704
43.212 58.328 46.608
60.709 77.545 57.756
61.589 79.259 59.099
62.211 81.838 58.463
64.299 81.345 57.891
61.994 102.181 68.233
59.403 102.244 68.309
57.662 100.598 67.218
57.882 98.882 65.521
6.174 8.608 14.092
6.983 6.416 15.118
8.891 5.055 14.551
9.53 4.444 12.989
7.663 77.349 85.152
7.142 77.078 82.716
5.673 74.967 81.411
7.12 73.159 81.388
34.934 91.167 43.454
35.442 93.457 42.188
34.388 95.376 42.177
32.842 96.849 43.503
41.372 31.255 32.025
41.881 31.505 29.786
42.259 33.542 28.064
42.911 35.757 28.619
67.401 14.479 23.83
67.527 13.725 21.525
67.545 15.484 20.135
66.982 17.784 19.832
44.164 74.796 64.846
42.505 73.544 65.437
39.643 73.851 65.106
38.466 75.033 63.433
14.478 0.993 29.39
16.012 1.966 30.821
16.21 4.314 31.734
14.939 6.359 30.841
57.572 14.832 0.413
56.937 16.834 -0.701
55.365 18.563 0.848
55.247 18.725 3.419
11.829 93.952 54.227
12.203 92.358 56.05
12.168 89.5 56.001
12.732 88.005 54.343
67.717 34.105 84.555
68.098 31.776 83.177
68.921 31.932 81.01
68.915 33.973 79.319
6.504 18.442 84.798
9.021 18.201 84.769
10.301 16.324 85.646
9.853 13.802 85.926
45.758 50.22 24.701
45.119 49.303 26.763
44.53 46.388 26.817
44.532 44.938 25.087
56.811 85.608 92.04
56.419 86.486 89.903
54.344 88.565 89.741
53.41 89.677 91.77
3.274 39.239 65.479
5.285 39.942 64.762
6.702 39.647 62.782
7.142 37.587 62.284
38.13 57.573 46.652
37.255 59.852 46.858
39.287 61.576 47.566
41.956 60.875 47.34
45.44 33.108 90.616
46.851 35.227 90.203
48.796 34.943 92.503
49.465 32.912 93.545
51.636 51.618 92.726
50.296 50.792 94.113
51.038 50.349 96.527
53.196 49.604 97.155
-0.683 28.192 17.741
-2.889 27.142 18.203
-3.499 25.259 19.625
-2.128 23.435 20.958
69.883 83.996 13.133
70.13 81.352 12.434
68.603 79.49 13.774
66.444 79.789 14.859
50.632 12.583 89.132
52.176 10.802 89.939
51.967 8.078 89.941
50.677 6.66 88.277
32.331 4.275 42.898
33.139 5.725 44.635
35.163 4.919 46.589
36.418 3.021 46.418
65.595 96.539 39.219
65.18 98.522 37.868
64.994 100.914 38.013
65.907 102.561 39.823
25.584 54.917 7.232
26.768 53.02 7.014
26.531 50.661 7.258
25.668 49.229 8.806
5.201 10.544 61.238
6.952 11.776 60.594
8.394 12.16 58.157
8.714 9.902 56.477
43.613 29.673 29.132
43.679 27.067 28.441
41.319 26.183 29.739
40.139 27.468 31.357
18.395 65.139 37.042
19.252 63.157 35.815
18.424 60.705 35.463
16.994 59.629 36.357
1.554 85.506 41.937
1.549 84.65 39.777
2.025 81.97 38.98
1.873 79.893 40.35
53.647 96.484 2.725
53.613 97.702 0.851
53.876 100.652 0.397
55.067 102.158 1.994
42.721 71.008 71.165
41.194 73.096 70.334
41.816 75.089 68.983
43.661 75.818 67.7
30.995 75.277 10.453
28.969 75.854 9.949
29.091 78.173 8.484
30.798 79.803 8.303
30.502 46.411 28.081
32.579 47.977 28.168
34.898 46.714 27.851
35.772 45.074 26.672
8.55 15.701 89.254
10.101 17.467 88.351
12.653 16.921 88.371
13.914 14.921 89.788
6.825 35.412 47.455
9.19 35.963 46.83
10.631 37.801 47.705
10.295 39.983 49.13
4.108 89.492 86.179
6.152 90.149 85.568
8.474 88.534 84.591
8.617 86.289 84.319
8.906 1.059 79.072
7.501 2.293 80.866
7.177 4.463 81.346
7.552 6.601 80.112
72.404 -0.591 85.583
74.016 -0.359 84.056
74.576 2.036 82.589
73.571 4.022 82.33
49.859 25.298 6.146
50.177 24.121 4.067
51.122 21.674 3.711
53.031 20.989 4.819
27.188 78.512 94.673
28.155 77.765 96.533
27.304 79.059 98.785
27.169 81.473 98.854
15.74 42.853 44.385
14.826 40.98 43.271
13.221 39.271 43.682
12.05 38.634 45.426
29.92 76.113 4.063
29.048 76.697 6.049
27.683 74.466 7.489
28.237 72.105 7.023
16.301 100.804 61.126
15.069 100.337 59.798
14.214 98.048 58.15
14.861 95.959 58.756
45.953 27.798 12.091
44.45 28.39 10.168
46.108 28.935 7.996
48.672 28.739 8.001
55.89 98.85 92.292
54.542 97.177 91.767
52.115 97.874 90.419
51.702 99.831 89.16
43.188 73.017 42.725
44.823 74.501 43.457
45.585 76.982 42.688
44.701 78.367 41.217
1.07 4.294 86.811
3.669 4.076 86.522
5.692 5.665 87.127
5.657 7.987 87.444
40.11 25.252 59.789
39.488 23.014 59.18
38.828 21.027 60.197
38.046 20.253 62.381
59.404 15.518 41.521
58.963 16.778 43.003
60.443 19.34 43.874
61.803 20.643 42.671
66.324 33.587 19.145
67.735 32.354 21.184
66.503 29.768 21.714
65.684 28.181 19.909
19.132 13.355 34.569
19.033 10.995 33.502
19.751 8.687 34.193
20.354 7.795 36.568
48.235 74.246 53.775
46.518 73.819 52.535
45.864 75.642 50.187
46.688 77.543 49.455
51.801 71.371 0.415
52.71 69.12 0.511
55.072 68.284 0.822
56.997 69.778 1.388
4.399 57.753 63.357
4.252 56.023 62.049
5.349 53.891 61.699
7.521 53.066 62.832
57.925 8.613 89.631
55.902 9.546 90.269
55.214 11.992 90.748
56.326 13.963 91.395
25.036 4.014 11.794
24.191 3.583 9.72
23.465 1.166 8.537
24.514 -1.267 9.153
70.177 26.501 83.347
71.015 26.878 85.19
70.305 29.198 87.002
68.697 30.802 86.585
55.341 33.676 44.499
55.841 31.979 43.53
57.601 30.131 44.855
57.781 29.632 47.086
66.745 4.872 44.688
64.491 5.835 43.582
63.351 7.951 43.652
63.86 10.155 44.967
34.646 100.562 48.741
34.971 101.291 46.412
35.064 104.059 46.194
33.772 105.803 47.912
13.888 29.892 42.619
14.806 27.965 40.978
14.382 29.245 38.552
14.478 31.606 37.935
5.129 53.862 20.996
3.293 54.626 20.737
0.649 53.932 21.628
0.045 52.101 23.17
38.993 100.362 45.416
38.099 100.229 47.185
36.319 98.104 47.785
35.731 96.516 45.851
42.318 79.7 41.305
43.584 81.545 42.475
43.415 84.174 42.404
42.023 85.632 41.798
9.451 26.451 86.63
7.647 24.951 88.263
5.231 25.719 88.896
4.212 27.855 88.913
47.468 61.981 27.22
46.321 59.733 26.773
47.158 57.26 26.935
49.652 56.408 26.645
9.242 54.797 85.017
7.767 54.303 87.139
6.863 51.91 88.196
7.177 49.569 87.458
61.887 62.764 71.042
59.53 62.089 70.736
57.356 63.36 70.619
56.599 65.728 71.321
52.638 85.123 22.18
51.214 84.119 21.048
49.199 82.1 21.536
48.685 81.1 23.426
25.347 81.57 7.486
26.351 80.837 9.533
26.877 78.4 10.428
26.064 76.304 9.73
14.96 43.426 36.654
14.768 45.126 37.782
12.894 47.088 38.067
10.918 46.583 37.84
68.443 82.179 42.078
69.289 79.806 41.036
68.407 77.454 41.369
66.755 76.512 42.681
29.509 44.744 6.706
28.072 46.553 5.59
25.612 46.752 4.911
23.6 45.66 6.594
70.823 88.353 19.611
71.586 88.7 17.126
72.229 90.712 15.977
72.46 93.055 16.235
38.856 50.806 48.263
38.283 53.025 49.099
38.79 55.313 48.59
40.45 56.406 47.037
47.063 100.681 -2.689
49.129 100.382 -2.768
51.091 100.836 -0.977
51.193 100.852 1.383
27.828 36.326 52.25
28.991 36.189 54.506
28.786 34.581 56.46
28.076 32.484 56.365
33.985 65.202 68.801
33.667 63.657 70.165
33.376 64.172 72.793
31.778 66.176 73.834
69.063 51.15 88.559
70.657 50.765 86.899
70.624 49.65 84.688
69.056 49.433 82.918
44.309 94.78 25.714
43.689 94.803 23.397
44.64 94.815 21.236
47.312 94.703 20.517
50.914 49.823 6.568
50.99 47.716 4.728
52.009 45.452 5.073
52.895 44.249 6.489
46.581 89.111 18.766
46.648 88.539 20.962
45.661 90.793 22.568
43.813 92.054 22.082
51.728 10.241 46.525
54.158 11.503 46.175
56.317 10.713 45.776
57.405 8.597 45.956
57.432 13.076 49.327
57.82 12.67 46.88
59.995 11.752 45.739
61.255 9.57 46.209
52.338 82.371 16.855
51.062 81.993 18.786
50.911 80.292 20.914
52.684 78.604 21.479
47.735 8.756 21.977
48.084 9.598 23.933
45.965 11.334 24.961
44.275 11.707 23.642
26.811 1.196 36.302
27.314 1.782 38.588
26.869 4.446 39.092
27.553 6.535 37.367
61.356 99.527 43.357
63.015 99.864 41.23
62.389 101.256 39.181
61.535 103.405 38.911
41.585 101.235 19.172
41.71 99.127 20.683
43.551 97.368 20.459
45.061 96.454 18.567
43.283 69.123 25.84
45.125 70.004 24.944
46.266 71.916 24.647
46.104 74.101 24.941
8.774 100.214 85.454
6.89 101.458 86.199
5.913 103.949 85.146
7.013 105.591 83.789
48.432 93.633 87.974
50.159 94.324 89.377
52.534 95.745 89.045
53.158 97.01 86.809
35.674 104.413 50.296
36.372 102.087 50.23
38.488 101.612 52.224
38.783 102.799 54.083
37.214 80.222 77.288
38.062 79.723 75.399
37.425 77.771 73.724
35.975 75.557 74.588
60.697 30.176 41.117
59.783 31.348 43.059
59.016 33.681 43.537
57.981 35.429 42.109
17.469 22.138 41.883
17.314 22.892 40.071
14.78 23.301 39.311
12.982 24.325 40.445
29.224 16.08 16.787
28.616 16.958 15.026
26.95 19.217 14.65
25.168 19.781 16.833
52.948 41.376 5.969
52.165 39.059 5.381
52.851 36.879 6.447
54.403 36.167 8.011
55.895 76.664 90.58
54.437 75.235 91.924
55.201 73.313 93.437
56.995 71.292 92.595
64.973 12.71 9.057
65.986 14.622 10.406
67.247 14.62 12.675
67.94 12.895 13.989
38.803 23.697 54.452
38.788 21.883 53.63
38.907 19.882 55.719
40.028 20.008 57.588
11.727 39.393 15.738
14.317 39.508 15.838
15.898 41.287 16.016
16.001 43.765 15.374
58.276 67.937 70.472
56.154 68.003 69.362
55.559 69.541 67.481
57.052 71.353 66.393
29.676 49.014 2.206
27.727 49.078 3.738
26.065 50.973 4.29
26.555 53.538 4.378
61.005 22.279 40.588
62.102 23.91 41.742
61.205 26.025 42.11
59.925 27.608 40.995
45.034 13.009 29.564
45.191 10.867 28.187
43.284 11.023 26.355
41.276 11.789 26.103
26.713 101.057 67.983
28.218 100.786 70.406
29.079 98.746 71.172
29.76 96.402 69.831
38.727 24.941 25.537
40.431 23.362 26.725
40.94 20.828 26.3
40.067 19.132 24.606
28.529 55.057 77.902
29.377 53.094 76.866
30.536 51.01 77.486
31.099 50.334 79.809
56.864 98.7 60.174
58.196 99.899 62.087
59.481 101.994 62.269
60.449 103.411 60.878
62.541 44.893 50.507
63.902 46.496 48.434
62.593 47.419 46.414
59.998 47.617 45.95
6.96 65.625 14.115
5.545 64.96 16.019
4.958 62.926 17.161
5.898 60.685 17.108
2.665 10.045 12.233
2.655 9.29 14.266
1.969 10.884 16.507
0.541 13.309 16.04
8.321 72.777 14.852
6.298 72.473 14.961
4.248 73.589 15.941
4.186 75.761 17.443
52.498 19.995 48.451
53.642 19.737 45.873
53.094 18.54 43.919
51.438 16.721 43.37
5.481 61.019 19.814
3.418 62.28 19.315
2.398 64.544 19.728
3.562 66.665 20.639
44.642 78.769 22.754
46.825 77.157 22.44
46.76 74.658 22.111
45.591 72.922 21.186
19.624 2.606 29.506
18.34 0.764 30.307
19.323 -1.03 31.993
21.059 -2.363 31.664
58.605 22.01 41.818
57.309 22.637 44.428
55.429 22.163 45.212
52.916 21.47 44.135
68.813 7.651 39.737
68.331 9.089 41.258
66.025 8.474 42.1
63.932 7.78 41.096
57.256 82.865 65.247
58.717 80.938 64.26
60.043 78.862 65.498
59.84 78.472 68.196
42.033 65.118 51.803
42.376 66.76 49.989
43.121 69.258 49.851
43.128 70.966 51.799
14.507 38.29 13.208
16.415 37.831 14.19
18.043 35.469 14.16
17.983 33.816 12.821
10.292 49.243 38.509
12.679 50.085 38.385
13.7 52.354 39.688
12.869 53.455 41.849
62.409 68.985 63.479
61.14 69.961 64.893
59.637 68.784 66.957
59.7 66.947 68.157
18.518 34.106 17.292
17.78 32.214 16.704
19.112 30.369 15.071
21.399 31.08 14.051
22.266 104.749 38.983
23.753 104.376 37.34
25.874 102.356 36.869
26.276 100.551 38.109
11.846 24.252 11.337
13.775 22.615 11.225
15.241 22.682 13.739
14.609 23.896 15.405
64.053 49.215 45.117
63.642 50.896 43.883
62.904 53.487 44.801
62.778 54.253 46.992
31.644 80.254 73.55
32.861 79.708 71.673
33.476 77.305 70.644
33.854 75.303 71.475
24.375 83.514 51.382
23.441 85.638 51.113
20.778 86.107 51.601
19.005 84.758 51.554
60.095 33.16 49.067
60.462 34.877 47.748
60.915 34.465 45.397
62.298 32.234 44.106
34.865 49.265 54.72
33.83 51.004 53.594
34.911 53.203 52.344
36.795 54.454 52.735
37.139 100.19 59.343
37.382 99.748 56.776
39.009 100.065 55.226
41.388 101.338 55.133
65.765 59.707 21.935
67.513 60.655 20.772
67.881 62.739 19.833
66.877 64.766 19.088
9.485 59.874 81.073
9.254 61.289 82.419
9.774 64.076 82.492
11.338 65.399 81.494
17.486 28.982 63.52
15.747 28.948 65.049
13.16 29.596 64.987
11.646 30.667 63.685
12.634 41.733 64.619
10.701 43.126 64.712
10.351 45.476 65.484
11.519 47.008 67.15
17.921 22.4 36.9
17.569 20.569 38.613
18.769 18.697 39.273
20.311 17.132 37.587
31.871 46.729 31.414
33.837 48.123 30.973
34.829 50.181 31.803
34.159 52.167 33.223
51.976 52.538 73.955
52.315 51.352 72.544
51.441 52.036 69.897
50.109 54.295 69.797
54.768 13.989 2.006
56.008 12.557 0.679
56.778 9.826 0.757
56.85 9.266 2.892
3.299 60.215 16.193
2.802 62.537 15.743
1.035 63.28 17.296
-0.667 61.472 18.519
38.556 41.568 23.199
37.913 43.087 24.644
37.689 42.44 27.223
36.918 40.115 28.187
65.915 72.74 43.651
65.135 70.982 42.496
62.705 70.149 41.868
60.569 71.025 42.386
50.677 78.857 24.218
48.264 78.56 24.376
46.806 76.554 25.818
47.765 74.656 27.055
45.841 87.57 40.591
45.123 85.438 40.499
44.54 83.743 38.549
46.877 84.129 36.925
2.604 30.932 84.021
0.3 32.524 84.198
0.051 34.683 83.895
1.489 36.398 82.168
4.933 94.342 17.69
5.204 95.938 15.668
5.791 98.176 15.226
6.729 99.852 16.513
34.629 47.146 78.531
33.932 49.375 79.222
33.219 51.252 77.064
33.883 51.345 74.97
53.67 18.983 68.047
53.689 18.474 70.43
53.356 16.289 71.689
52.438 14.155 71.085
71.161 104.509 18.154
71.491 102.73 16.483
73.485 100.921 17.273
74.514 100.849 19.364
5.01 60.69 83.789
7.389 59.784 83.959
7.654 57.48 84.784
6.532 55.203 83.857
7.509 9.643 62.76
8.594 8.474 61.17
9.796 5.856 61.154
9.028 3.843 62.1
12.539 80.241 56.585
13.985 80.625 54.3
14.522 82.649 52.917
14.169 84.809 53.121
58.285 22.672 70.852
57.047 24.913 70.507
56.736 26.658 71.757
58.188 27.448 74.213
19.946 66.094 39.199
21.703 64.848 37.137
23.263 66.236 35.598
23.281 68.438 34.768
59.535 45.322 42.593
60.294 43.685 43.276
59.385 41.506 44.778
57.043 41.194 45.717
43.586 68.769 22.752
43.659 66.708 23.516
41.749 65.202 24.583
39.106 65.701 25.053
28.644 39.301 53.39
30.532 40.135 51.482
30.088 38.533 49.281
27.976 37.49 48.587
25.529 86.77 35.312
23.601 87.928 34.389
22.408 86.484 32.268
22.666 84.332 31.696
13.113 72.007 55.862
14.043 73.203 54.415
14.2 76.044 54.056
13.095 77.459 54.85
-1.548 40.181 19.415
-2.575 37.503 20.187
-4.103 36.272 18.313
-3.452 36.216 15.541
29.349 89.071 1.961
27.541 87.471 2.541
27.643 85.084 2.834
29.086 83.157 2.119
61.853 75.996 37.634
63.097 74.975 38.996
65.678 75.684 40.036
67.219 77.146 39.026
56.594 34.804 72.137
54.944 35.157 70.734
54.237 37.209 69.017
54.534 39.449 69.783
32.646 43.728 86.612
32.236 43.422 84.3
29.997 42.212 83.048
28.064 41.862 83.66
9.5 47.348 91.544
9.842 49.424 90.608
7.376 48.83 92.042
5.281 48.522 91.29
27.523 67.205 5.095
28.01 69.056 6.294
29.81 68.396 8.397
29.448 67.032 10.076
67.713 16.516 29.318
69.301 16.936 27.286
68.022 17.006 24.897
65.782 17.968 24.397
53.923 45.43 3.308
53.813 43.327 4.327
55.112 41.429 4.166
57.166 41.048 4.907
20.618 28.005 15.156
19.112 27.238 13.55
17.498 25.165 13.52
18.003 22.934 14.53
68.563 89.813 41.195
69.119 90.614 38.624
68.322 92.867 37.55
67.227 94.644 38.105
51.298 38.147 71.094
51.532 36.763 69.053
51.305 34.187 68.408
51.49 32.257 70.331
18.26 21.346 60.45
15.705 21.555 60.129
14.027 23.172 61.339
14.295 25.154 62.487
9.751 36.577 36.616
11.554 35.514 36.079
12.64 33.739 37.551
11.498 32.31 39.305
14.481 99.806 56.194
14.282 101.952 57.757
11.84 102.781 58.75
9.631 102.579 57.828
10.088 82.459 49.54
11.319 81.607 47.587
14.057 82.461 48.316
14.409 83.871 50.31
58.408 7.975 65.077
57.278 9.094 66.719
57.602 11.573 67.783
59.256 13.005 67.658
50.04 90.768 17.825
48.014 91.415 18.577
46.24 93.09 18.135
46.0 94.826 16.213
38.201 21.811 33.783
39.373 21.23 32.095
41.759 20.237 31.75
43.544 19.172 33.652
22.403 24.056 81.577
24.14 23.209 82.785
26.493 24.672 81.535
26.415 26.143 79.824
39.103 38.475 24.314
37.46 37.095 25.095
38.159 34.849 26.513
40.031 33.713 26.696
6.699 84.462 14.659
4.388 84.659 15.285
3.163 86.241 16.752
4.125 88.249 18.077
53.531 35.243 94.363
53.538 37.172 96.157
53.621 39.525 96.112
53.838 41.238 94.521
8.498 98.779 87.832
7.092 97.376 86.431
4.407 96.447 86.679
2.937 96.391 88.515
12.158 68.723 81.238
10.527 70.866 80.653
11.095 73.228 80.397
11.76 73.497 78.057
15.181 26.636 13.977
16.948 28.405 13.094
16.972 31.167 13.51
16.021 32.49 14.721
28.006 47.594 8.465
28.608 49.207 6.513
30.389 50.312 5.88
32.746 51.018 6.952
64.635 96.765 32.486
63.784 97.787 34.844
63.099 96.383 37.017
62.124 93.864 36.798
54.923 52.309 72.616
54.436 54.34 73.913
55.152 55.129 76.406
56.921 54.419 77.731
53.966 53.564 94.04
52.373 54.384 94.199
52.06 57.168 95.216
53.63 58.809 94.851
62.163 0.725 66.728
61.159 -0.888 65.102
59.06 0.352 63.899
59.008 2.529 63.262
64.977 11.397 42.492
63.621 12.564 41.38
61.42 13.702 42.877
61.44 14.166 45.188
38.058 8.95 78.802
36.296 10.713 78.393
36.055 12.957 79.053
36.823 14.027 81.509
61.068 35.394 24.089
62.442 34.46 22.334
63.746 32.302 21.92
63.985 30.142 22.903
52.757 87.105 88.3
52.88 85.5 90.012
53.013 82.877 89.882
53.281 81.344 88.165
23.67 41.679 21.883
21.389 41.643 21.007
20.87 42.77 18.837
22.434 44.129 17.37
33.057 87.314 7.346
30.917 86.403 6.903
28.858 87.819 5.373
28.857 90.119 4.706
25.59 95.265 72.34
27.965 95.025 72.173
29.396 92.897 72.093
29.054 90.399 71.164
4.982 31.444 65.1
7.097 31.096 64.087
8.87 28.953 63.944
8.353 26.512 64.927
26.969 86.39 10.56
27.674 86.073 8.308
28.409 83.879 6.775
29.006 81.651 7.73
49.95 4.891 89.943
50.674 2.618 90.305
49.939 1.323 92.394
48.544 1.966 94.021
38.469 19.195 29.84
40.432 19.656 28.621
42.345 18.23 27.943
43.652 16.138 28.945
26.236 8.804 4.564
25.237 8.627 6.606
25.041 6.71 8.244
25.848 4.253 7.699
69.788 2.709 35.927
69.816 4.445 37.813
67.871 5.256 39.212
65.423 5.267 38.687
50.504 21.521 90.761
49.885 22.178 92.51
49.445 24.764 93.536
49.824 26.868 92.542
11.379 12.617 87.804
10.606 10.991 86.063
9.032 8.883 85.856
8.645 7.36 88.113
29.224 17.197 83.604
30.179 18.665 81.811
29.766 20.974 80.711
28.152 22.701 80.991
58.139 56.891 76.83
56.032 57.783 76.27
54.621 59.59 77.297
53.773 58.67 79.691
52.792 33.14 73.233
53.813 32.733 71.375
55.746 31.304 70.381
57.483 30.084 71.274
28.877 50.223 72.171
30.066 50.327 74.014
31.271 52.682 74.546
31.025 54.674 72.764
8.592 4.716 86.838
7.223 4.919 84.927
7.767 6.72 82.863
9.943 7.466 81.873
39.982 29.663 22.719
40.819 30.054 24.551
41.405 28.413 26.489
41.229 26.042 26.456
21.039 76.644 27.779
22.549 78.573 28.551
21.791 81.265 28.317
19.265 81.936 28.609
31.338 1.778 5.264
29.296 3.293 5.532
28.48 5.687 4.537
29.008 6.535 2.39
37.022 49.218 29.658
37.429 47.419 27.697
36.921 47.466 25.233
36.854 49.622 23.661
1.954 75.866 40.133
-0.495 75.24 40.105
-2.095 74.359 41.975
-1.645 72.817 43.979
53.882 96.061 67.673
54.365 98.497 68.425
56.617 98.7 68.706
58.392 97.832 69.655
13.857 32.882 17.605
15.597 33.719 17.154
16.503 36.227 16.717
15.813 38.278 17.469
43.915 5.585 25.548
43.701 7.781 26.062
46.212 8.836 26.091
48.255 7.724 26.789
4.108 82.36 17.095
3.453 80.57 16.075
4.621 77.95 15.615
7.021 77.225 15.908
71.266 27.241 90.413
71.726 27.514 88.245
72.88 25.445 86.683
72.855 23.134 87.075
19.237 15.082 14.748
21.507 14.182 14.459
22.488 12.208 13.715
21.136 10.005 12.467
4.703 87.438 80.621
4.431 89.341 82.514
2.629 91.217 82.863
1.826 92.426 81.062
13.648 4.674 57.926
13.958 3.561 60.375
14.962 1.903 61.046
16.83 0.125 59.833
65.247 53.032 18.508
64.898 54.772 20.318
65.315 57.458 20.482
66.696 58.726 18.929
3.256 2.144 11.171
4.402 2.904 12.619
4.408 5.182 14.012
4.001 7.198 13.435
61.042 42.915 89.802
62.867 42.222 88.273
64.985 43.336 89.402
65.3 45.445 90.506
8.198 64.108 54.968
7.659 64.017 57.548
8.788 61.967 58.865
8.35 59.748 58.488
26.255 51.916 72.341
27.369 51.153 74.689
26.655 49.82 76.588
24.402 48.527 76.946
26.43 89.757 34.561
25.801 90.843 32.954
23.585 92.142 34.277
23.305 93.964 35.016
5.335 96.404 74.413
5.915 97.474 76.323
4.83 99.076 78.008
2.635 100.235 77.902
52.873 104.275 87.461
51.457 103.95 89.673
49.379 102.973 90.326
47.07 102.728 88.497
69.065 94.312 16.316
70.932 94.895 15.345
72.45 96.499 16.379
71.774 98.423 18.247
52.868 50.959 66.256
52.3 52.798 67.373
53.909 54.645 68.605
55.746 54.03 70.085
52.612 18.152 4.601
53.167 17.097 2.994
52.857 17.691 0.368
51.628 19.591 -0.323
22.291 99.389 29.664
23.153 98.459 31.616
23.694 95.635 32.006
23.302 93.852 30.109
38.396 47.514 30.841
39.392 45.726 29.52
41.496 46.269 27.585
42.422 48.528 27.066
52.531 63.653 70.809
54.715 63.357 69.749
56.312 65.052 68.301
55.51 66.55 66.36
6.084 80.561 13.639
4.319 80.339 13.561
2.262 82.071 13.642
2.587 84.631 13.063
42.771 30.696 3.367
45.178 29.908 2.414
47.299 31.583 2.08
48.082 32.142 4.762
39.147 10.828 48.895
37.037 9.044 48.785
37.048 7.008 47.952
38.868 5.477 48.023
31.992 42.56 48.805
31.616 42.557 51.405
33.541 44.113 52.457
34.418 46.048 51.399
30.189 31.979 57.964
30.885 30.564 56.148
32.773 28.629 56.229
33.784 27.428 58.019
31.061 32.916 78.36
29.991 34.87 79.353
27.75 33.858 80.798
26.214 31.976 80.237
26.86 103.005 41.39
28.261 105.004 41.096
30.5 105.891 42.096
31.516 105.535 44.108
33.121 93.144 75.79
31.039 94.504 76.144
30.379 96.443 77.667
31.18 97.096 79.707
8.489 61.651 88.729
6.578 59.776 88.507
7.091 57.513 87.537
9.276 56.059 88.612
53.473 17.432 75.466
55.633 17.543 73.818
56.895 19.276 72.817
56.255 21.368 71.797
62.643 75.287 56.841
63.704 74.873 59.221
63.994 72.897 60.773
62.456 70.56 60.759
34.34 18.712 33.308
35.556 20.784 33.449
36.776 21.73 31.158
36.502 21.363 28.917
70.0 80.445 16.79
71.091 79.126 15.207
71.973 76.598 15.267
71.967 74.836 17.748
56.007 60.126 69.228
55.622 59.312 71.539
54.38 57.795 72.713
52.674 55.907 72.253
46.12 90.092 41.532
44.193 89.851 41.851
42.923 88.59 43.925
43.859 87.467 45.908
39.438 7.678 77.118
37.482 6.114 77.239
37.152 3.839 77.298
39.087 1.756 77.965
48.709 76.599 -1.94
46.994 78.177 -3.511
46.921 80.634 -3.363
48.034 82.319 -1.615
63.422 36.433 17.338
62.632 34.664 19.368
61.727 32.39 19.139
61.791 30.518 17.684
17.43 7.352 30.838
18.396 4.893 30.53
20.619 4.058 31.532
22.312 4.896 32.555
48.965 90.276 89.196
50.565 89.41 90.558
51.021 90.156 93.471
50.106 91.43 94.727
24.419 80.825 32.871
24.634 78.662 32.486
26.98 76.843 32.919
28.89 77.292 33.907
63.39 84.087 57.079
62.38 84.429 59.033
62.347 86.828 60.844
63.663 88.499 60.863
38.034 105.665 74.587
35.905 106.086 74.503
33.619 104.506 74.988
33.637 102.109 75.886
40.971 3.443 48.564
39.346 2.213 49.307
37.901 0.432 48.15
37.755 -0.761 46.218
54.307 31.979 1.975
54.629 31.913 4.3
55.29 34.212 5.335
55.955 36.198 4.165
60.09 42.072 50.677
58.479 42.861 48.983
56.182 41.697 48.227
54.986 39.737 49.72
60.031 52.707 47.206
60.134 53.531 45.204
60.656 52.131 42.957
60.242 50.123 42.223
59.292 70.369 62.723
58.233 70.025 64.469
57.454 68.044 65.183
56.758 65.987 63.685
14.93 11.606 33.619
16.35 10.561 32.407
17.232 8.293 33.191
16.278 6.486 33.638
56.505 17.423 50.142
54.647 17.836 49.173
53.805 15.904 47.816
54.022 13.365 48.219
43.628 -0.497 53.685
41.447 -0.084 52.993
40.279 1.666 52.091
40.944 4.093 51.203
56.798 4.0 73.121
57.209 3.382 71.212
57.31 5.194 69.103
57.125 7.407 69.094
33.126 34.802 50.159
32.272 36.037 51.886
32.406 38.548 52.521
33.793 40.566 50.978
25.568 71.16 6.218
26.725 72.016 4.754
28.137 71.03 3.145
27.681 68.32 2.644
44.505 51.26 22.807
43.349 49.725 23.425
41.132 50.196 25.384
40.214 52.583 25.753
13.989 76.616 80.483
12.369 75.476 79.776
10.22 75.895 80.649
9.328 78.17 81.536
46.758 81.677 37.581
46.98 82.276 40.09
46.925 80.632 42.262
47.82 78.628 42.708
44.245 31.099 10.998
45.329 31.545 8.994
47.987 31.977 8.9
49.602 32.691 10.723
10.842 44.072 62.197
9.194 45.707 62.091
6.775 45.44 63.152
5.719 43.101 64.102
40.148 75.826 46.586
41.95 76.219 44.959
42.633 78.771 43.905
42.134 80.807 44.651
54.497 37.193 65.59
54.856 39.153 66.282
53.195 40.409 67.648
50.588 39.273 68.042
19.004 55.025 4.166
20.749 53.282 4.428
20.835 52.231 1.705
19.201 52.015 0.149
16.292 77.56 53.116
17.181 79.467 54.011
17.543 81.842 53.08
16.938 82.897 51.175
44.229 67.437 28.329
44.556 66.783 26.159
44.338 64.095 25.22
44.698 62.163 25.922
14.387 40.683 35.559
14.46 40.934 37.419
13.256 39.546 39.828
12.204 37.365 39.991
7.408 89.646 76.908
5.687 90.477 78.515
4.503 92.807 78.637
4.152 94.423 76.942
45.901 21.14 25.919
44.815 19.928 27.497
43.342 20.903 29.595
42.701 22.676 30.335
60.422 74.089 40.846
61.025 75.065 42.753
62.414 77.091 42.94
63.075 78.967 41.715
51.84 66.71 95.75
51.865 66.531 93.359
53.315 64.606 92.406
54.564 62.92 93.906
6.61 87.512 78.809
7.546 86.776 80.71
8.997 85.612 81.445
9.698 83.239 81.72
37.785 98.759 25.744
37.627 97.088 24.152
40.047 96.867 22.641
42.425 97.523 23.275
53.386 40.826 42.435
55.445 39.74 43.429
56.195 37.211 43.228
55.249 35.445 42.487
12.917 31.876 35.593
10.922 30.733 35.871
10.869 27.896 35.183
12.896 26.73 34.652
59.277 60.22 73.027
57.797 58.73 74.165
56.6 56.271 73.555
57.546 54.546 72.226
31.522 53.401 6.92
29.457 53.658 8.352
28.227 55.808 8.957
28.443 58.161 8.357
65.717 50.737 24.859
66.536 51.57 22.596
67.197 53.797 21.652
67.844 56.093 22.707
25.372 73.7 9.389
25.375 70.846 8.974
28.142 70.464 9.067
29.83 71.187 10.953
4.03 27.366 79.725
2.888 27.643 81.498
3.124 28.481 83.828
5.531 27.905 85.17
3.717 93.876 87.887
4.369 92.12 86.696
4.327 92.747 84.066
2.587 94.082 82.996
59.752 7.252 45.955
60.816 7.511 44.352
61.653 5.329 42.485
61.825 3.173 42.933
-0.412 48.46 15.971
-1.725 47.476 17.772
-3.457 49.188 19.155
-3.098 51.82 19.569
16.47 102.75 29.322
16.845 101.254 30.865
18.559 98.837 30.544
19.947 98.298 28.608
25.561 24.231 11.127
23.802 24.491 12.446
22.451 22.84 14.254
23.187 20.768 15.333
24.606 88.989 5.693
25.959 86.997 6.082
25.337 84.505 6.096
23.438 83.306 4.91
67.175 67.902 22.977
68.254 67.12 20.623
69.444 65.103 19.953
70.793 63.34 21.354
52.775 4.305 2.949
53.621 2.129 2.883
52.311 0.558 1.856
49.831 -0.275 2.058
2.676 7.161 82.182
4.528 6.592 83.004
5.998 8.157 84.659
6.397 10.143 85.058
1.868 50.964 -0.905
2.424 51.354 -3.496
1.769 53.04 -5.022
1.427 55.346 -4.715
9.754 36.581 39.402
9.768 35.719 41.955
9.447 37.15 44.133
8.596 39.48 44.417
40.515 69.602 47.402
41.644 70.974 48.509
42.673 72.813 46.6
41.687 73.601 44.576
54.372 21.496 69.935
55.749 22.638 69.134
55.467 24.779 67.266
53.53 25.546 66.092
23.065 86.58 27.496
23.523 86.981 29.78
23.668 88.887 31.279
23.855 91.248 30.956
54.244 102.726 89.1
53.251 102.412 91.111
52.616 103.993 92.531
53.877 105.978 93.455
12.349 96.744 63.073
12.875 98.826 61.647
11.356 100.473 60.174
9.07 101.143 60.231
27.449 3.722 33.598
25.363 4.058 34.836
23.789 1.873 34.096
23.061 2.082 31.56
21.286 32.619 10.144
21.077 33.187 12.37
20.41 35.417 13.506
20.345 37.595 12.699
28.671 48.626 79.977
29.616 46.522 79.396
28.502 44.131 79.64
27.366 42.924 81.231
3.412 1.208 16.956
5.453 -0.441 16.578
7.169 0.647 14.784
7.789 2.61 14.341
50.29 88.101 16.952
49.74 87.403 19.421
48.918 85.582 20.678
47.51 83.627 19.865
25.062 69.363 28.613
24.618 68.406 30.401
22.316 67.188 31.304
21.046 65.375 29.865
-0.314 69.264 20.948
0.261 67.821 19.534
1.949 68.057 17.355
3.158 70.394 16.806
0.854 36.312 86.839
0.12 37.39 84.784
-0.538 39.933 84.228
0.301 41.817 85.391
57.92 82.412 87.309
56.533 83.965 88.705
55.675 83.215 90.933
56.535 81.448 92.496
33.766 41.267 83.976
32.245 40.599 82.56
31.071 37.674 82.638
32.054 35.829 83.571
11.286 62.163 55.577
12.034 60.592 57.253
13.989 61.856 59.042
15.358 63.386 58.675
4.932 46.764 -0.34
3.307 46.494 -1.42
1.962 44.183 -1.928
1.826 42.054 -0.518
11.633 19.983 34.226
13.342 18.0 34.53
12.668 15.659 35.051
11.156 15.178 36.358
25.734 83.85 55.627
24.349 84.022 53.96
22.808 86.523 53.848
23.957 88.6 53.594
34.9 25.727 53.395
36.232 24.178 54.304
36.225 21.463 53.906
34.755 19.975 52.887
0.936 47.703 82.924
-0.568 46.413 84.49
-1.428 44.091 84.482
-1.227 42.091 82.615
11.598 46.45 63.387
10.816 48.022 64.575
10.862 50.71 64.823
11.408 52.199 62.349
58.359 15.82 71.512
58.119 14.332 69.847
55.753 12.927 69.939
54.247 12.286 71.643
9.917 5.597 56.642
10.773 5.4 58.246
11.127 3.525 59.924
9.926 1.101 59.891
34.213 80.282 78.226
33.492 80.781 75.68
32.966 82.685 74.573
32.939 85.381 75.235
71.542 48.053 65.339
73.717 49.154 64.373
73.938 51.465 62.781
72.318 53.351 62.51
23.287 102.136 71.039
25.601 102.47 72.38
26.915 99.852 72.491
26.191 98.156 71.603
30.045 30.431 78.833
29.048 28.871 80.548
29.004 26.54 81.04
30.124 24.596 79.846
15.696 16.105 55.436
14.944 14.782 57.502
12.799 13.441 57.837
11.346 12.059 56.323
46.162 13.358 34.275
45.457 14.423 32.102
44.761 16.392 31.343
42.263 16.883 32.483
33.831 34.637 81.919
31.502 33.717 81.6
30.612 31.429 81.396
31.351 29.328 81.819
19.112 71.632 61.053
18.228 73.123 59.502
16.029 72.895 58.054
14.406 71.02 58.182
24.44 85.723 95.375
25.241 83.397 96.174
25.164 80.971 94.949
24.826 80.298 93.034
10.848 95.693 89.399
10.215 95.949 87.049
8.244 94.842 85.804
6.32 94.059 86.713
9.009 72.136 75.368
7.894 71.093 77.645
8.574 73.344 79.188
8.318 75.634 79.031
0.712 104.338 40.889
-0.35 103.202 39.553
-0.115 103.322 36.941
1.615 104.185 35.68
1.074 42.947 88.694
-0.126 44.063 87.257
-0.552 46.761 87.477
0.791 48.218 88.197
6.938 102.298 12.767
5.734 104.033 12.072
7.087 106.019 11.939
9.158 106.459 10.789
59.232 30.795 68.552
58.659 28.626 69.357
56.372 27.455 68.608
54.736 28.586 66.948
23.197 96.593 96.161
24.237 98.287 96.722
26.24 99.348 95.378
26.857 99.219 92.802
37.692 61.842 50.575
38.766 59.974 50.145
41.371 59.249 50.013
43.216 60.461 50.198
32.093 4.66 49.833
32.391 4.574 47.442
30.689 3.708 45.694
28.625 3.034 45.804
28.089 39.075 83.767
29.265 37.987 85.262
29.628 35.085 85.145
28.661 33.998 83.216
63.152 25.576 22.815
65.55 26.338 21.692
67.597 27.293 22.608
68.11 28.759 24.551
59.196 31.306 50.892
59.191 30.314 49.246
60.312 27.743 48.605
60.805 25.715 50.034
37.388 96.872 50.324
37.158 98.998 51.597
36.742 99.775 53.689
35.366 98.535 55.845
48.559 81.08 87.514
50.487 80.52 88.476
51.568 78.178 88.621
51.557 76.348 86.837
3.798 22.503 89.419
5.636 22.299 87.917
6.936 19.845 86.979
7.087 17.982 88.71
43.831 77.582 51.122
42.686 77.438 48.806
42.462 75.052 48.332
42.506 73.04 49.812
43.825 25.875 93.168
46.031 26.147 92.962
47.38 28.414 92.215
46.498 30.843 92.457
16.777 18.936 61.004
14.659 19.678 61.595
12.809 18.308 60.432
12.813 15.873 59.763
28.978 98.328 4.112
28.314 97.65 2.191
26.624 95.489 2.208
26.725 93.649 3.861
35.063 72.253 73.755
35.083 69.75 72.866
34.296 67.651 73.803
33.597 67.097 76.228
54.809 8.531 65.334
53.695 7.023 66.446
55.234 4.766 67.243
57.319 3.738 65.879
17.511 39.864 42.656
15.597 38.766 41.079
14.343 36.896 41.601
14.956 34.641 41.204
49.876 15.893 87.763
49.865 16.053 90.346
48.739 17.485 91.98
48.64 19.895 91.792
10.938 28.195 43.031
11.593 26.642 41.582
12.035 27.839 39.191
10.88 29.781 38.301
71.439 60.851 84.971
73.226 59.287 85.303
73.302 56.484 84.982
71.555 54.995 85.705
31.858 14.34 73.838
31.522 15.936 75.447
31.413 14.569 77.956
30.894 12.2 78.206
33.163 18.783 88.421
31.707 18.486 86.325
32.076 18.648 84.049
34.116 19.316 82.501
66.157 11.789 19.578
68.157 12.128 19.034
70.086 10.523 18.05
70.409 8.417 16.952
34.147 29.668 52.27
33.942 32.137 51.696
34.743 33.452 53.921
35.76 32.317 55.844
39.595 52.612 52.504
39.071 54.603 51.519
40.596 57.219 51.626
43.274 57.268 51.589
3.584 47.125 62.605
4.58 48.723 61.278
4.762 49.138 58.599
5.303 47.176 56.894
46.81 57.078 94.14
48.628 57.415 92.448
50.501 58.978 93.054
50.454 61.393 93.451
11.508 65.128 55.455
13.486 66.719 56.206
14.419 68.906 55.437
13.692 70.416 53.612
32.854 55.709 54.183
32.166 54.197 52.202
30.356 52.326 51.95
28.535 51.995 53.106
29.8 83.614 68.868
32.377 83.158 69.092
33.415 81.187 69.53
33.044 79.027 68.176
50.727 83.973 39.454
49.396 83.127 41.241
47.38 84.227 42.138
46.734 86.382 42.891
72.62 56.721 22.773
70.543 56.792 21.959
69.921 58.998 21.055
71.636 60.352 19.949
45.742 61.578 50.408
44.371 63.729 50.826
45.082 66.178 50.943
46.978 67.196 49.441
10.628 63.438 88.047
9.165 63.816 86.694
9.267 65.827 84.703
10.949 67.075 83.948
16.315 40.95 39.542
15.558 42.808 39.478
16.362 45.219 40.292
18.407 45.914 41.458
48.968 41.138 69.153
49.64 42.855 69.857
52.272 42.892 70.416
53.599 41.501 71.512
8.032 24.203 85.101
8.247 22.073 86.61
9.84 20.346 86.703
12.033 20.163 86.557
9.267 102.797 14.069
10.293 103.113 12.289
11.632 105.529 11.526
12.22 107.339 13.415
28.115 59.094 73.195
29.171 57.048 72.901
28.727 54.803 74.238
26.672 53.956 75.709
54.126 43.816 72.774
51.65 45.305 72.248
51.786 47.927 72.145
53.034 49.399 70.739
61.106 37.671 47.714
59.657 39.718 47.19
60.276 42.266 47.058
62.209 43.25 46.77
26.14 26.158 83.862
25.593 27.616 82.386
26.939 29.909 81.972
28.486 30.961 83.641
65.097 78.659 12.571
67.243 77.886 11.46
68.62 75.917 13.08
67.698 74.805 15.083
40.221 63.725 22.333
42.193 63.557 22.548
44.259 61.628 22.915
43.897 59.287 22.99
-1.315 45.485 19.208
-0.439 46.439 20.882
-0.542 45.097 23.646
-0.769 42.654 23.954
31.954 72.712 10.462
31.842 71.069 8.496
32.143 68.545 9.487
32.434 67.9 11.794
56.337 63.648 64.833
57.901 64.924 65.914
59.309 63.596 68.057
60.703 61.926 66.929
44.213 92.825 15.674
43.24 93.065 17.412
41.877 95.573 17.609
40.723 96.77 15.737
70.253 26.742 80.649
70.314 28.741 81.418
71.497 30.937 80.445
73.333 30.151 78.483
34.291 8.273 74.562
34.619 9.723 76.166
34.673 12.764 76.14
34.496 13.922 74.566
0.612 15.096 24.362
-0.216 14.707 21.986
0.161 12.519 20.385
0.429 10.374 21.207
65.663 46.114 18.489
66.459 44.601 20.268
66.479 42.43 20.434
65.6 40.211 19.323
69.226 81.606 34.435
70.29 82.976 36.414
69.595 84.238 38.37
67.692 83.443 39.959
60.278 46.293 23.32
62.349 45.423 22.169
62.626 43.267 20.075
61.214 42.381 18.774
55.72 83.435 0.946
54.456 85.574 1.355
52.194 85.569 -0.463
50.918 84.119 -1.065
59.476 37.181 40.605
57.911 39.088 42.079
58.991 38.948 44.365
61.207 37.742 45.046
68.443 54.788 43.191
66.007 53.75 43.064
65.108 51.806 41.826
66.189 50.207 39.943
26.284 73.531 36.177
24.206 72.501 36.36
22.302 73.33 34.393
22.655 75.687 32.949
24.445 8.832 14.765
23.735 9.152 12.376
23.15 7.032 10.507
22.153 4.965 10.912
11.813 20.783 36.782
13.048 23.177 36.512
12.268 25.387 37.254
10.037 26.565 37.379
69.919 83.297 32.737
70.689 85.662 32.921
68.895 87.658 33.88
66.568 87.696 33.544
60.104 37.932 22.539
61.915 38.804 21.581
62.575 39.414 19.039
61.629 38.363 16.612
54.647 90.358 58.73
56.481 91.153 60.271
56.506 91.667 62.424
55.095 91.43 64.579
36.514 21.115 58.796
36.927 23.141 57.319
35.85 25.158 56.6
33.062 25.137 56.555
69.342 99.158 80.548
72.09 98.543 80.014
72.889 95.977 80.719
72.88 94.956 79.155
15.665 28.337 10.651
14.237 26.353 11.42
15.787 24.352 11.08
17.71 23.957 9.611
10.661 88.472 82.658
9.687 88.448 80.659
7.19 89.806 80.485
6.269 91.206 81.571
32.629 44.392 6.794
34.091 45.893 5.88
32.343 47.605 4.168
30.079 47.088 4.207
64.569 2.864 43.553
63.911 1.411 42.038
65.897 1.555 39.785
67.939 2.496 39.877
29.046 94.847 87.112
27.607 95.429 88.672
27.401 97.105 90.774
29.333 97.748 91.912
13.556 56.364 62.263
13.484 57.84 63.822
13.846 60.473 63.148
15.194 61.136 61.358
47.524 72.94 46.492
45.162 74.157 47.381
44.268 76.232 46.86
45.118 78.37 45.511
-0.683 78.447 9.3
-0.085 78.38 11.586
2.377 78.429 12.875
4.344 77.928 12.334
55.494 94.301 2.131
54.072 94.658 0.097
54.344 94.267 -2.214
56.125 94.829 -3.713
48.554 63.96 23.314
47.018 62.285 24.287
46.411 59.805 24.204
46.991 58.177 22.268
35.093 16.314 75.576
33.509 16.644 77.54
33.936 17.171 80.189
36.357 16.881 81.207
20.842 76.836 31.336
22.344 78.897 31.315
21.686 81.421 32.582
20.097 82.309 34.201
61.592 42.597 36.573
63.141 43.84 37.742
62.35 45.606 39.859
60.145 46.562 40.183
6.91 56.299 -1.679
6.35 55.042 -3.264
5.053 52.68 -2.969
4.893 51.093 -1.285
53.651 43.368 48.173
52.092 43.43 46.729
51.989 40.97 44.99
52.28 38.885 46.43
15.866 11.225 86.704
13.838 10.852 86.287
12.544 8.641 85.818
13.581 6.397 84.327
59.982 97.584 41.845
61.662 97.176 40.591
63.04 95.152 39.741
62.56 92.877 39.421
18.943 47.375 94.572
21.276 47.318 94.185
22.801 48.357 93.188
22.963 49.125 90.311
43.894 58.566 25.633
44.277 56.877 24.367
43.698 53.879 25.267
43.187 53.152 27.178
39.748 75.591 67.302
38.075 74.586 67.3
36.551 74.168 69.771
36.665 75.362 71.755
62.444 101.519 61.826
61.308 100.104 63.628
61.151 98.093 64.362
62.449 95.663 63.297
27.001 -0.943 77.126
28.418 -1.549 75.201
29.364 -0.193 73.18
30.094 2.021 72.976
31.898 10.111 1.008
29.938 9.69 1.64
28.993 8.768 3.986
29.719 9.21 6.24
54.075 14.014 88.952
52.527 15.181 90.222
52.269 17.731 90.988
52.815 19.655 90.018
12.056 18.928 62.838
12.898 21.181 63.107
11.887 23.092 64.865
10.01 23.054 66.357
36.509 12.494 49.374
36.431 14.27 51.234
37.934 12.944 53.181
38.613 11.042 53.615
14.058 49.138 34.639
13.04 51.34 36.113
12.328 53.267 35.841
12.333 54.757 33.895
67.293 46.93 83.427
67.033 46.302 85.562
65.644 44.181 86.895
64.422 42.475 86.114
23.525 63.096 36.094
21.77 61.953 35.107
20.687 59.635 35.684
20.918 58.365 38.162
4.175 39.081 68.182
6.544 38.596 67.542
6.817 35.97 66.139
5.921 34.201 66.262
34.784 66.961 81.516
36.847 68.711 81.06
37.288 68.436 78.375
35.9 67.031 77.099
26.171 36.403 80.649
28.026 37.808 81.245
28.773 40.101 80.725
28.374 41.503 79.025
7.033 96.718 79.023
5.489 95.265 79.446
5.441 93.793 81.75
6.471 94.112 83.81
46.589 53.12 23.565
47.386 55.196 24.655
48.82 56.954 24.178
50.781 57.284 22.31
19.847 86.917 32.774
20.408 88.859 31.324
21.167 91.228 31.779
20.778 92.876 33.346
39.558 42.508 29.364
40.607 41.837 27.717
43.047 42.628 26.945
44.598 43.904 27.959
57.113 24.391 46.372
58.523 25.899 47.45
59.807 27.821 45.543
