57.404 54.611 95.645
68.059 53.031 41.162
68.613 50.647 40.509
66.433 49.097 40.328
64.182 49.657 40.898
24.915 67.989 12.06
25.336 67.563 9.913
24.158 68.13 7.404
22.686 69.897 6.897
33.181 31.518 78.992
31.994 33.387 79.036
31.627 35.544 80.044
32.432 36.632 82.266
20.133 78.1 61.857
19.668 80.101 61.16
18.045 80.028 59.4
17.915 78.646 56.9
55.91 94.038 69.742
58.06 93.361 69.783
59.792 91.627 68.418
59.388 90.349 66.763
32.577 35.682 8.431
30.194 35.702 7.58
28.357 34.595 8.183
27.514 33.258 10.726
6.904 7.627 36.301
8.396 8.232 34.39
10.661 8.436 35.861
10.929 10.002 37.773
21.217 52.477 31.072
20.687 54.029 29.327
18.598 53.456 28.39
17.484 51.292 28.054
28.426 22.82 9.519
27.301 23.947 7.519
26.392 26.738 7.4
27.217 28.554 8.576
61.592 40.354 63.341
62.741 39.597 64.876
63.945 37.257 65.439
64.858 35.567 63.654
54.533 2.669 71.593
53.904 1.036 73.087
55.945 -1.188 72.984
57.682 -0.693 70.825
18.813 82.05 57.079
18.258 82.857 59.183
16.986 85.362 59.634
17.04 87.459 58.438
31.501 60.442 7.551
29.828 60.511 6.067
28.193 57.961 6.273
28.851 56.015 5.937
6.793 13.167 65.187
8.321 11.118 64.202
8.396 9.203 64.421
7.06 7.569 66.615
25.314 40.932 27.963
24.415 40.116 29.597
24.356 37.589 29.688
26.259 36.023 29.173
22.482 20.072 27.655
21.479 20.722 29.416
19.736 19.578 31.367
19.689 17.141 31.921
-2.692 38.706 62.379
-2.492 36.575 62.51
-1.614 35.188 64.635
-0.014 35.988 66.422
29.389 74.535 31.766
27.827 73.12 31.123
26.421 72.743 29.114
26.652 72.976 26.788
55.978 62.351 69.204
56.587 64.657 68.323
58.935 66.307 68.811
60.459 66.08 70.141
9.468 24.273 85.378
8.417 25.164 87.013
9.039 27.474 88.506
11.214 28.704 88.368
59.112 24.244 66.391
59.39 22.806 68.838
57.947 22.088 70.473
55.455 23.049 70.949
32.518 73.367 73.652
34.726 73.115 72.851
35.921 70.783 72.129
35.11 68.686 72.146
5.678 101.465 64.651
6.754 103.672 63.368
8.556 102.427 61.419
9.678 100.758 61.225
49.942 58.129 69.421
52.205 59.012 69.181
54.353 58.161 68.261
54.398 56.12 66.265
19.754 21.078 33.59
18.738 23.257 33.155
19.836 25.738 32.69
22.084 26.522 32.509
32.238 49.821 3.834
30.328 50.885 3.096
28.679 52.175 5.169
29.21 52.698 7.303
25.866 31.596 33.18
23.543 32.276 33.956
21.525 30.422 34.67
21.821 28.074 34.82
15.365 9.629 60.409
15.767 10.603 62.78
15.691 8.419 64.412
15.331 6.046 63.274
18.652 0.798 22.667
20.311 2.0 21.879
21.258 4.473 21.976
20.284 6.238 23.344
41.485 77.725 53.267
39.53 77.98 52.876
38.639 79.821 51.413
39.793 82.144 50.881
38.057 79.13 33.216
38.781 81.598 33.269
40.238 83.06 32.178
41.861 82.589 30.188
54.461 67.287 1.273
54.262 66.388 -0.661
55.228 63.631 -1.214
54.771 62.174 -0.061
57.348 55.149 5.269
58.009 56.812 3.51
55.857 57.756 2.335
53.678 57.724 3.28
10.361 9.092 66.718
9.936 6.712 67.152
10.645 5.373 64.496
11.827 6.913 62.852
20.307 54.076 33.149
20.098 55.714 31.237
20.487 58.033 30.696
22.386 59.519 31.18
50.781 95.253 4.066
51.66 94.119 2.182
53.501 92.189 1.966
55.17 91.572 3.387
58.024 82.977 62.167
59.009 81.593 64.134
58.595 83.017 66.086
57.906 85.778 65.851
65.866 85.585 45.44
64.307 83.687 45.657
63.469 82.792 43.152
64.513 82.487 41.377
68.093 3.897 87.885
69.49 2.003 88.948
70.022 2.426 91.348
69.191 3.65 92.905
36.553 28.495 75.099
35.043 26.971 74.887
33.164 28.239 75.266
32.257 29.341 77.746
54.753 48.677 -1.377
54.123 50.759 -0.032
51.247 51.047 -0.573
49.892 49.396 -1.658
11.735 42.517 85.524
11.298 40.402 86.724
12.279 37.804 85.942
13.872 37.23 84.798
37.766 63.07 72.851
37.204 65.254 74.077
38.455 67.055 74.619
40.959 68.039 74.194
43.309 43.562 19.904
43.046 44.406 22.575
41.554 45.383 23.658
38.965 46.119 23.191
38.405 81.8 80.694
38.028 83.887 79.649
39.707 86.102 79.27
40.883 87.302 80.658
43.913 91.847 34.449
44.384 94.075 33.312
45.369 93.396 31.011
46.443 91.393 30.281
10.127 98.396 90.443
8.048 97.097 90.107
7.648 95.064 88.844
9.169 92.821 88.211
43.323 59.014 41.812
42.234 57.942 43.517
42.709 56.983 45.882
44.219 55.212 45.558
21.413 45.003 24.642
21.393 45.868 26.608
22.31 44.789 29.28
23.782 42.867 29.285
19.532 60.794 32.351
20.816 62.451 32.764
21.257 63.911 30.088
20.382 63.328 28.404
23.025 10.593 8.82
22.84 11.779 10.958
21.459 10.058 12.898
21.533 7.677 12.708
2.259 94.014 21.91
2.02 91.093 22.265
-0.294 89.952 21.276
-1.431 90.487 19.266
36.128 53.443 43.945
37.693 52.078 44.842
39.68 53.165 46.332
41.153 54.93 45.866
35.375 8.534 36.145
36.231 8.73 33.757
36.474 6.77 31.819
35.872 4.358 32.167
15.671 37.025 59.561
16.279 36.705 57.54
17.236 34.42 56.346
18.061 32.641 57.205
36.442 90.663 57.366
35.735 89.287 56.363
35.91 88.238 53.748
36.579 89.455 51.865
55.683 53.66 3.922
53.459 54.616 3.237
51.215 53.771 2.498
50.523 51.521 1.943
51.513 30.158 1.755
50.171 29.385 0.141
49.004 30.544 -1.747
48.514 33.062 -2.165
38.194 87.332 23.968
39.078 87.936 26.397
40.536 90.219 26.892
41.467 91.875 25.191
64.97 44.289 67.156
63.179 44.3 69.025
61.264 46.559 68.609
61.584 48.426 66.967
8.516 96.564 55.993
6.542 96.631 57.299
6.71 98.866 59.196
8.825 98.014 59.988
44.453 16.292 25.472
43.888 18.467 25.846
41.504 18.608 26.327
39.772 16.685 25.513
8.579 95.3 58.601
9.787 95.225 60.753
10.521 93.099 62.153
9.362 90.734 62.537
26.228 74.16 35.829
24.679 74.303 33.549
23.724 72.269 32.299
24.208 70.107 32.118
69.352 46.154 11.732
71.405 45.155 13.055
71.467 43.538 15.074
70.149 41.578 15.47
58.145 88.058 5.481
57.661 89.349 3.486
54.978 88.95 2.106
52.955 87.799 3.027
44.453 35.935 50.385
43.422 35.702 48.273
40.804 35.267 48.22
39.193 34.873 50.233
32.272 16.398 75.989
30.387 15.468 77.26
30.27 13.472 78.745
31.39 11.379 79.041
58.34 26.527 39.371
60.189 27.238 40.714
61.977 28.975 40.377
63.097 29.649 38.141
22.795 86.895 34.734
21.175 84.948 35.248
21.311 82.451 35.103
22.776 81.304 33.452
47.387 32.498 88.451
49.567 31.274 89.068
50.521 29.125 88.544
49.572 26.991 87.569
23.682 77.359 2.805
22.489 78.619 4.82
19.781 78.618 5.057
18.193 77.805 3.307
12.406 68.201 83.355
9.699 68.981 82.98
8.485 71.272 82.69
9.398 73.486 82.89
38.282 70.632 44.554
38.745 69.306 46.571
37.381 66.663 47.128
36.234 65.514 45.42
13.055 38.869 56.637
14.026 37.172 56.184
16.509 37.557 54.546
17.527 39.846 54.139
55.406 91.769 91.139
54.127 89.843 91.626
51.521 90.709 92.88
50.76 92.771 92.568
65.377 66.981 37.469
63.248 67.8 37.907
61.657 69.115 36.34
61.924 70.925 34.979
52.473 83.814 0.09
52.989 86.159 0.301
51.509 88.096 -0.734
49.428 87.509 -2.457
22.04 38.201 7.463
23.032 40.164 7.823
25.052 40.822 6.962
26.288 39.926 4.865
53.932 24.259 93.445
52.267 23.938 92.047
50.701 25.735 91.031
50.634 28.283 91.069
67.837 95.14 20.683
66.859 95.755 22.923
64.678 96.709 23.802
62.724 97.651 22.349
54.049 100.815 71.322
56.071 99.466 72.43
56.629 97.161 72.201
57.834 96.256 70.783
18.639 96.15 39.086
17.354 97.583 40.789
17.549 100.201 41.455
17.883 102.021 40.086
30.051 91.015 74.885
31.848 90.892 75.754
33.413 88.584 76.897
32.59 86.248 76.899
64.778 89.976 70.703
62.672 89.435 70.131
60.129 90.331 70.668
59.317 91.968 72.203
63.806 54.256 63.052
61.499 53.597 63.863
60.525 52.515 65.554
61.099 51.483 67.938
44.121 67.185 54.211
44.712 64.845 52.688
42.767 63.74 50.936
40.607 64.137 50.805
46.972 53.31 89.95
48.693 51.981 91.292
49.478 53.801 90.304
49.431 56.032 90.705
12.402 29.94 82.74
11.441 30.659 84.877
12.243 31.167 87.054
14.047 32.229 87.893
33.555 4.422 59.754
33.766 2.782 57.943
34.98 0.538 57.741
37.053 0.037 58.827
39.53 58.607 45.581
39.594 60.292 47.58
38.532 62.458 48.265
36.864 63.777 47.2
56.082 51.125 90.64
53.877 52.31 91.059
52.008 52.415 90.028
51.793 54.391 89.108
19.347 14.241 7.443
20.308 11.675 8.831
19.142 9.95 9.646
16.73 9.277 9.887
47.931 43.886 52.665
46.409 45.087 54.031
45.082 43.455 55.798
45.81 40.872 56.188
41.36 -0.481 4.7
43.384 1.071 4.85
43.845 3.346 3.981
42.264 4.98 2.617
54.335 42.634 0.455
52.805 42.209 -1.757
53.027 44.071 -3.374
53.552 46.549 -2.943
39.675 25.262 28.026
39.666 23.014 29.059
40.774 21.097 27.481
41.271 20.975 25.398
27.275 0.134 85.236
27.559 2.1 83.525
27.749 4.355 83.791
29.19 5.696 85.59
38.184 97.609 78.386
36.185 96.357 79.115
34.053 96.885 79.555
32.753 99.248 80.141
40.032 0.197 34.892
38.32 1.178 34.286
37.549 3.685 34.087
39.085 5.56 33.715
66.95 21.0 13.541
67.887 22.443 14.913
70.552 23.029 15.261
72.187 20.905 15.269
19.347 6.843 16.123
18.765 6.63 13.962
17.913 8.578 12.211
18.407 11.137 12.946
67.409 57.189 41.315
66.426 58.869 39.826
65.853 61.526 40.125
65.874 63.168 41.986
7.525 66.238 56.096
8.145 68.674 56.483
10.623 69.27 55.564
11.591 68.073 53.373
11.636 93.46 39.484
13.935 94.489 40.256
15.04 96.704 40.119
14.56 98.543 38.864
49.898 54.681 24.586
49.374 54.533 27.097
49.859 52.066 28.45
51.869 51.108 28.506
0.721 22.946 18.125
-1.244 24.192 19.276
-1.76 26.271 19.987
-0.373 28.476 20.101
20.15 23.715 52.879
18.542 24.624 52.09
15.888 23.702 51.959
15.295 21.698 52.348
42.748 36.179 71.652
40.579 35.8 72.808
38.365 36.328 72.457
37.183 37.12 69.703
22.719 87.665 15.413
22.528 89.677 13.872
21.668 91.886 13.905
20.422 93.352 15.723
60.991 15.323 71.751
58.358 14.969 71.767
57.033 13.3 71.174
57.159 10.701 70.669
31.773 71.366 10.796
29.712 72.101 10.861
27.277 70.553 11.72
27.542 68.498 12.895
18.784 70.784 29.638
20.669 72.274 30.499
20.373 74.641 31.771
18.851 75.538 33.374
44.435 68.365 51.527
42.094 68.259 51.309
40.511 70.169 50.081
40.7 72.522 49.987
7.384 51.692 80.578
8.26 49.932 79.38
7.034 47.322 79.224
4.336 47.114 80.383
3.144 75.65 23.544
0.793 75.063 23.671
0.934 76.351 21.802
0.849 78.725 21.204
53.677 90.772 72.626
55.301 92.68 72.213
55.215 95.119 73.025
53.216 96.411 73.247
4.371 73.1 23.788
2.004 72.85 22.513
-0.063 71.716 23.246
-0.803 70.374 25.419
57.965 61.549 59.826
58.483 59.844 60.892
56.913 58.653 62.569
54.782 58.391 62.681
61.742 19.127 17.853
63.996 19.88 17.819
65.557 18.691 19.699
65.244 18.323 22.006
39.929 50.173 43.873
40.853 49.809 46.002
40.647 47.776 47.806
40.476 45.572 47.722
8.999 14.858 57.424
9.688 13.185 58.208
10.823 11.121 56.432
10.459 10.865 54.132
41.21 69.85 76.431
39.502 70.753 77.506
37.177 68.941 77.457
36.983 66.883 77.214
14.171 87.226 65.586
13.585 87.425 62.871
14.685 88.211 60.999
17.067 88.968 60.75
1.618 86.969 18.403
-0.369 87.448 19.541
-1.718 86.14 21.135
-0.945 84.317 23.054
24.733 87.192 7.276
26.74 86.477 8.278
26.87 88.131 10.727
25.203 89.451 11.464
63.424 58.651 39.194
64.616 56.402 37.844
65.189 54.422 38.987
66.204 54.989 41.132
59.254 54.182 67.322
59.802 55.488 65.047
59.501 57.826 64.48
58.197 59.663 65.015
3.041 28.236 19.521
2.925 29.341 17.448
4.339 31.167 16.13
6.162 32.584 16.87
63.953 35.674 38.559
65.731 34.316 39.898
67.853 33.062 39.265
68.596 31.95 37.079
10.785 74.763 80.82
8.86 75.818 80.381
7.684 78.178 80.67
8.902 80.417 81.285
29.968 43.614 78.855
30.516 45.342 77.581
29.587 45.368 75.186
27.972 43.755 74.387
12.904 85.097 66.792
10.319 84.461 67.089
9.982 82.062 65.674
11.994 80.652 64.863
29.011 45.947 92.646
29.399 45.848 94.917
31.582 46.417 96.531
33.504 47.592 96.078
21.879 38.007 34.183
21.644 39.331 32.169
20.341 41.131 31.184
19.247 42.994 32.323
14.756 26.409 33.025
16.625 27.634 32.676
17.486 30.29 32.907
16.067 32.519 33.379
47.395 2.751 2.406
47.061 1.367 4.506
45.099 -0.74 4.551
44.31 -1.989 3.188
45.787 93.43 92.709
47.417 91.878 93.089
49.085 90.466 91.789
49.267 90.941 89.08
67.686 64.804 40.856
65.748 66.123 40.08
64.459 67.802 40.739
64.695 69.485 42.859
60.942 0.403 26.62
61.817 1.152 24.613
61.678 3.278 23.26
61.583 5.885 24.223
26.614 45.23 2.545
26.638 44.549 4.306
28.354 41.958 5.174
29.947 41.164 3.888
9.572 51.596 86.46
9.553 52.98 84.118
10.762 55.286 83.741
11.753 56.859 84.922
5.335 46.38 83.342
7.533 47.138 83.244
8.773 49.238 84.301
8.362 49.217 86.515
15.059 46.064 28.92
17.358 46.711 29.483
19.481 44.664 29.662
19.121 42.289 28.94
40.273 35.362 54.312
41.6 36.201 52.917
43.756 37.55 52.791
45.391 38.045 53.877
63.827 41.761 73.361
61.571 42.0 71.656
59.686 44.064 71.571
60.141 46.272 71.808
65.891 53.795 35.077
66.565 55.866 35.76
68.293 56.162 37.896
69.494 54.385 39.153
32.952 100.739 51.238
32.109 102.843 52.224
33.222 105.297 53.072
35.491 105.882 53.4
56.789 19.419 69.565
56.759 18.406 71.77
54.84 17.494 73.338
52.853 15.724 72.599
10.965 11.196 64.666
12.079 10.427 62.661
13.738 11.924 60.792
14.261 14.15 60.97
27.045 2.582 18.909
24.536 2.539 18.81
22.747 3.569 17.218
23.082 5.59 15.49
12.601 73.958 77.677
11.35 72.996 78.959
11.425 70.544 79.974
12.32 68.497 79.092
9.257 73.016 58.714
11.327 73.299 58.147
11.326 75.782 58.173
10.356 77.371 56.996
44.775 38.203 24.547
44.787 39.511 23.081
43.797 41.959 22.599
42.788 42.897 24.759
7.434 11.467 59.667
9.208 10.393 60.88
9.272 7.801 62.336
8.672 5.833 61.343
35.916 74.32 49.675
35.91 72.629 48.171
36.913 70.061 48.355
38.148 68.879 50.051
70.159 43.58 20.494
70.302 44.199 17.976
70.592 45.698 16.701
70.239 48.381 16.819
30.496 84.438 77.951
30.912 86.278 79.167
33.512 85.836 80.233
34.356 83.539 80.517
32.626 83.852 76.028
33.66 82.621 77.849
35.946 81.711 78.315
37.847 81.306 76.638
33.324 80.015 77.303
35.128 79.283 75.568
35.536 77.678 74.09
33.892 75.875 72.774
41.421 16.624 53.051
38.766 17.492 52.998
37.835 19.701 51.833
39.037 21.278 50.196
65.099 61.923 35.224
63.2 60.454 36.11
62.845 61.533 38.732
63.95 63.399 39.664
19.997 33.854 55.202
20.09 34.755 53.146
19.799 37.706 53.523
18.945 38.371 56.193
43.236 46.445 26.969
44.926 46.591 28.638
47.396 44.89 28.176
47.702 43.283 26.657
28.36 18.294 10.724
27.01 19.663 9.917
24.718 20.71 10.357
23.649 21.328 11.918
55.893 76.175 46.372
57.77 77.69 46.0
59.742 78.212 47.067
60.534 78.215 49.479
53.58 18.575 3.603
51.966 17.677 2.4
50.251 16.89 3.609
50.353 15.27 5.927
35.593 47.816 49.383
37.613 48.598 48.326
38.273 50.863 47.27
37.277 53.167 48.364
53.56 44.248 36.98
55.062 45.123 38.211
57.34 43.155 38.333
57.281 41.163 37.723
16.138 43.998 53.425
15.646 46.242 53.585
15.575 48.031 51.656
16.706 48.136 49.346
45.028 79.913 75.63
42.912 79.777 77.582
40.809 80.332 77.021
40.054 83.315 77.131
37.77 79.903 74.283
39.67 79.028 74.929
40.565 76.492 74.146
39.362 75.086 73.101
30.859 43.098 6.564
31.537 40.917 5.883
30.628 38.615 6.832
29.298 38.053 8.406
29.996 0.594 74.464
29.64 -0.191 76.84
31.208 -1.799 78.497
33.077 -3.545 77.358
35.213 36.975 94.437
32.978 37.072 94.773
31.548 39.683 94.859
32.78 41.644 94.621
28.895 87.163 77.261
29.555 88.527 79.798
28.888 91.168 79.67
27.681 92.272 78.028
33.826 54.558 47.433
36.08 55.138 46.803
37.751 57.228 47.274
37.248 59.141 48.399
14.201 58.949 62.156
15.544 58.456 60.431
14.282 59.259 58.387
11.913 59.785 58.122
53.863 0.285 75.798
55.551 1.214 75.058
55.624 3.606 74.465
55.683 5.814 76.099
13.165 21.992 60.064
13.35 20.314 58.365
12.884 17.83 58.574
12.685 16.155 60.179
43.4 70.299 18.76
44.982 71.677 19.353
45.092 73.656 20.996
43.482 75.051 21.289
57.966 6.527 70.525
56.504 4.961 71.798
57.215 2.501 72.728
58.551 1.321 72.244
44.464 93.5 5.264
43.347 95.151 4.515
43.283 95.11 1.871
42.467 93.836 0.259
34.844 95.148 32.884
37.102 94.876 32.326
38.54 95.885 30.42
38.285 98.249 29.298
70.855 94.379 27.359
70.653 93.244 25.569
68.106 93.302 24.321
65.981 93.191 25.119
0.203 12.972 -3.525
0.96 10.976 -3.049
3.598 10.185 -3.237
5.358 11.195 -2.635
49.137 1.025 72.909
51.611 1.707 74.041
53.046 4.252 73.733
52.311 6.1 72.276
10.004 16.87 59.861
10.292 14.759 60.487
8.947 12.943 61.916
6.301 13.322 62.437
37.07 35.714 4.226
35.189 36.86 3.971
33.53 37.95 5.779
33.389 38.159 7.989
55.713 65.909 63.709
56.966 64.901 65.026
59.354 64.945 65.684
61.117 66.39 64.886
27.142 27.987 72.505
28.828 30.081 72.136
28.618 32.548 73.187
26.9 33.856 73.721
51.462 61.482 0.394
53.166 59.957 -0.175
53.66 57.446 0.241
52.169 55.649 0.653
24.011 11.0 15.019
22.368 9.518 15.336
21.707 7.387 17.264
22.745 6.758 19.263
41.098 32.395 20.843
42.701 31.545 22.143
42.996 29.367 23.475
41.598 28.016 24.116
13.064 73.26 55.344
12.679 70.987 56.855
13.718 68.497 56.488
15.25 67.57 55.116
13.088 93.865 60.528
12.875 91.781 60.604
12.862 89.864 59.253
13.843 89.354 56.902
11.543 47.483 56.159
13.422 46.906 56.52
15.029 45.031 55.992
14.777 42.647 55.561
70.231 75.635 13.699
72.267 74.419 13.937
73.289 72.439 13.114
72.151 70.403 11.912
37.024 104.69 31.277
38.158 103.291 31.623
39.223 101.813 29.597
38.365 101.239 27.418
67.302 9.401 48.844
66.822 10.534 46.97
66.409 12.962 46.316
67.788 14.928 47.716
30.994 60.336 71.104
30.292 58.273 71.174
30.753 56.562 72.876
31.01 56.631 75.376
28.276 51.999 95.209
28.577 54.133 96.604
29.309 56.384 95.969
29.466 57.504 93.708
57.98 70.816 84.891
55.968 70.214 86.139
54.712 67.787 86.387
55.158 65.651 85.138
15.306 5.994 36.221
14.131 7.985 36.688
13.942 10.283 35.834
14.334 11.218 33.708
40.431 3.49 26.936
40.007 3.512 29.774
40.33 1.898 31.174
41.268 -0.44 31.056
37.351 99.969 45.553
37.585 98.105 46.864
36.433 98.137 49.313
34.331 98.615 50.09
36.043 55.406 69.43
34.408 57.078 70.216
34.888 60.028 70.238
33.585 60.065 68.75
67.752 1.043 22.435
66.065 -0.643 22.902
65.998 -3.275 22.726
67.239 -4.83 21.462
19.981 50.931 33.134
19.097 49.474 31.65
19.324 46.663 31.623
20.409 45.348 33.139
63.357 8.915 49.604
64.366 9.736 48.194
63.562 9.732 45.626
62.422 8.149 44.509
24.394 46.582 3.885
25.893 47.946 5.407
27.37 49.729 4.951
29.008 48.623 3.679
56.917 42.691 41.101
58.706 42.299 40.438
60.283 40.045 40.213
59.57 37.78 40.619
11.598 50.153 84.32
10.233 50.48 82.583
9.159 48.57 81.469
9.802 47.275 79.888
22.454 59.313 2.578
24.681 59.003 4.0
26.365 56.89 3.727
25.828 54.515 3.389
-4.162 102.616 25.561
-5.747 101.3 26.839
-5.72 98.706 26.92
-4.156 97.012 26.001
38.326 9.356 36.521
38.721 8.215 34.297
39.612 9.806 32.5
40.44 12.332 33.0
8.701 64.019 78.349
10.178 64.808 79.85
10.416 67.349 80.814
8.997 69.283 80.31
63.197 77.376 42.381
62.216 76.044 43.678
61.96 76.649 46.463
62.649 79.133 47.193
30.99 49.159 7.105
31.038 47.626 5.467
28.716 45.716 5.529
27.648 44.869 6.856
23.633 11.608 6.407
22.078 13.316 6.635
21.832 14.815 8.847
23.567 14.957 10.449
10.874 98.919 87.842
9.108 99.547 88.068
6.996 97.695 87.457
7.482 95.798 85.868
60.622 73.271 36.114
60.149 73.251 38.162
59.264 75.087 39.772
58.392 77.451 39.077
42.993 26.376 -4.454
45.139 27.603 -4.525
46.751 28.415 -2.984
46.864 29.096 -0.738
48.928 54.95 88.055
50.56 56.441 86.891
50.817 58.999 87.369
49.307 60.749 88.182
17.591 32.609 35.558
18.0 34.283 34.049
20.486 35.36 33.803
22.489 34.94 35.2
17.473 92.542 13.855
18.956 94.665 13.624
18.421 97.249 13.396
17.023 98.21 12.106
63.146 96.649 29.032
64.507 95.179 26.848
63.439 94.472 24.871
61.333 94.953 23.829
41.377 23.028 48.081
39.193 23.419 48.105
38.45 25.558 49.377
40.448 27.85 49.66
2.898 43.292 83.442
5.28 43.401 83.243
6.9 43.147 80.774
6.327 44.505 78.791
52.159 65.331 84.337
52.306 66.572 86.498
51.776 68.855 87.181
50.766 71.032 85.843
23.347 13.622 77.675
25.723 13.235 77.416
27.564 14.633 76.285
27.655 16.263 74.914
62.142 93.093 47.533
60.931 91.449 46.215
61.441 89.151 45.039
63.163 87.69 45.153
31.814 62.61 69.401
33.45 62.141 71.099
35.419 63.636 72.07
36.464 65.499 71.244
14.688 39.318 58.636
15.29 40.816 57.288
17.594 41.496 56.532
19.679 41.101 57.673
3.823 56.088 14.788
2.689 55.079 13.12
2.891 52.379 12.55
4.708 50.8 12.847
36.269 41.525 73.595
34.411 40.64 74.734
32.003 42.155 74.967
30.895 43.325 73.448
28.209 23.915 77.334
28.415 24.741 75.22
29.194 27.043 74.265
30.764 28.71 75.135
54.639 31.639 85.414
53.183 32.196 87.147
50.917 33.459 87.139
48.989 33.504 84.788
39.292 96.375 33.385
39.86 97.59 31.872
39.223 100.336 31.85
38.76 101.714 33.669
2.772 91.459 81.875
4.745 92.03 82.789
5.549 94.155 84.491
4.649 95.672 85.47
60.847 78.798 40.871
62.631 80.514 42.165
61.605 80.542 44.775
59.422 80.269 45.43
14.103 55.549 54.457
15.856 56.955 54.41
16.208 59.398 54.164
14.953 61.181 54.52
34.837 62.605 74.87
33.444 61.002 73.819
34.886 58.981 72.584
36.917 58.38 72.782
55.924 66.555 88.854
57.343 68.698 89.138
57.537 69.664 91.359
57.14 68.716 93.838
69.268 51.067 8.9
71.733 50.732 9.197
72.958 49.744 10.999
72.37 47.98 12.798
0.823 34.295 18.777
3.099 33.617 18.732
4.985 35.248 17.759
4.933 37.559 17.087
17.002 81.557 34.159
16.557 83.886 34.196
16.928 85.686 36.149
17.921 85.398 38.413
37.599 32.23 70.234
36.131 31.136 71.827
35.637 29.097 72.639
36.868 26.734 72.51
1.907 73.704 81.622
4.014 72.476 81.796
6.174 73.698 81.771
6.692 76.048 82.823
56.936 97.45 50.247
58.178 98.397 48.853
58.805 101.012 48.347
59.224 102.898 49.854
48.374 45.18 21.521
46.337 44.479 22.972
44.597 46.018 24.672
44.156 48.325 24.581
59.559 13.069 67.029
57.641 13.611 67.93
57.384 16.088 68.994
59.021 18.128 68.383
56.739 23.673 38.051
58.94 23.739 39.366
60.477 21.543 40.319
60.278 19.245 40.253
68.251 7.985 -1.11
69.923 6.068 -1.102
72.438 7.035 -1.369
73.37 9.106 -0.541
-2.242 27.185 63.057
-3.796 27.935 64.589
-3.629 29.147 67.178
-1.589 30.433 67.949
0.569 53.271 5.739
2.989 54.152 6.597
4.004 56.482 6.141
2.888 58.76 5.372
37.717 20.163 28.96
39.506 18.973 28.834
38.485 16.939 29.875
37.554 14.908 28.87
6.028 51.514 4.838
5.231 50.501 7.005
4.605 51.321 9.417
3.774 53.601 9.997
58.55 8.744 45.362
59.938 10.462 46.245
61.946 11.844 45.274
62.293 12.655 43.023
27.368 27.035 69.986
27.975 25.232 69.774
27.568 23.498 71.769
25.984 23.907 73.745
66.669 26.101 68.211
64.691 25.991 66.807
63.059 24.185 66.467
62.795 21.781 67.145
44.141 16.617 28.247
44.433 17.785 30.624
45.425 20.246 30.157
45.364 21.21 27.85
21.26 55.435 26.855
20.184 56.837 28.424
19.964 59.485 28.355
20.942 61.19 27.011
52.769 35.662 2.553
53.457 37.866 1.929
52.655 39.461 0.158
50.659 39.763 -0.986
8.307 100.291 -1.293
6.808 101.452 -2.442
4.866 100.733 -3.811
4.275 98.069 -3.963
42.984 53.406 42.622
42.115 51.951 44.236
43.509 50.437 46.059
45.69 49.152 45.544
11.755 15.488 55.321
10.517 17.181 56.617
10.35 19.773 56.034
11.648 21.379 54.674
56.771 26.379 41.366
54.79 25.317 39.762
52.315 26.428 39.333
51.246 28.472 40.136
42.206 100.363 31.119
41.699 98.355 29.829
40.733 99.106 27.589
41.425 100.384 25.961
58.843 2.908 45.357
57.731 0.607 45.383
56.738 -1.068 43.54
55.764 -0.586 41.272
17.897 60.103 29.811
17.475 58.735 31.078
17.447 56.197 31.145
16.928 54.721 29.669
61.391 88.756 0.739
59.845 87.169 0.526
58.937 85.435 2.102
59.686 84.255 4.005
28.405 35.179 75.546
30.216 35.431 76.685
30.0 32.947 75.186
29.701 31.113 75.764
5.348 79.264 79.361
6.189 80.836 81.041
6.628 83.515 80.876
5.911 85.051 79.532
17.401 25.636 50.025
16.346 26.503 51.924
15.214 29.132 52.357
15.156 30.82 50.681
14.213 65.946 77.144
15.315 64.277 77.539
13.737 62.435 79.111
11.325 62.387 79.024
22.913 27.432 29.585
21.352 29.067 31.457
21.352 31.275 31.818
22.77 33.162 31.665
64.681 7.551 16.679
62.737 6.771 17.29
62.733 4.59 19.101
65.263 3.357 19.622
40.263 17.371 0.733
41.767 15.481 2.098
43.819 16.778 2.817
44.12 19.049 3.435
62.089 91.155 42.414
60.102 91.302 43.598
58.337 93.372 43.859
57.972 95.217 42.427
24.807 36.975 36.191
24.958 38.701 34.158
24.142 36.866 32.133
25.785 35.05 31.665
64.42 46.575 42.583
62.731 47.311 41.027
61.848 44.851 39.255
61.27 42.772 39.855
44.127 53.557 27.862
45.017 54.083 25.827
45.295 55.981 24.291
44.073 57.996 24.177
42.865 64.834 15.973
44.195 64.348 17.356
45.006 66.735 19.027
45.845 68.579 18.453
20.111 102.297 21.332
20.825 102.364 19.086
22.887 102.514 18.041
25.339 103.399 18.889
26.091 98.269 84.258
26.958 98.973 82.195
28.347 100.858 81.383
29.213 102.931 82.676
27.457 7.635 84.729
26.177 8.156 82.616
25.704 5.937 83.728
24.941 5.43 85.725
59.527 97.272 43.376
58.881 99.049 44.952
59.127 101.42 44.756
60.184 102.976 43.076
29.089 62.138 8.192
27.032 63.303 7.598
26.339 65.598 7.267
27.399 67.788 7.341
45.372 21.067 24.471
43.639 22.208 25.117
42.499 24.737 24.367
43.618 26.406 23.008
47.186 41.123 51.997
45.163 40.449 52.453
43.256 39.666 51.279
43.26 38.204 49.421
18.756 96.694 16.234
19.334 98.734 15.548
18.813 101.352 16.665
17.917 102.059 18.761
66.861 10.523 22.995
64.978 9.244 21.572
64.108 7.058 21.82
64.065 5.359 23.695
51.391 67.701 89.843
53.233 65.955 89.604
53.525 64.045 90.138
52.067 61.719 90.85
58.793 11.939 76.062
57.881 11.044 74.294
57.308 8.938 73.067
57.37 6.522 74.024
55.241 4.065 48.402
56.829 2.873 48.173
57.545 -0.127 47.93
56.295 -1.636 47.651
8.872 92.003 43.245
11.121 91.994 42.487
13.118 93.712 42.739
13.052 96.31 43.331
14.89 67.096 79.315
13.898 67.384 81.183
12.466 65.552 82.33
12.546 63.175 81.61
12.45 -0.131 64.995
10.516 0.517 63.168
10.203 2.653 61.703
11.585 4.511 61.34
49.525 78.588 2.393
51.709 78.368 2.973
53.545 76.876 1.519
53.097 75.728 -0.523
7.973 84.847 40.375
9.996 86.272 40.51
11.587 86.382 38.417
11.072 84.454 36.36
14.377 95.885 62.455
12.795 94.585 63.874
10.263 95.157 64.424
8.821 96.864 64.378
16.348 96.645 43.268
15.535 94.736 44.117
16.096 92.611 42.326
17.66 92.532 40.658
10.264 41.596 76.556
10.547 40.24 78.383
8.721 39.308 79.69
7.01 38.066 79.296
26.491 1.022 78.115
24.975 0.895 80.617
25.108 3.394 82.207
25.691 5.563 81.107
52.354 25.112 2.18
50.615 23.686 0.69
49.676 21.642 0.838
50.338 19.738 1.934
51.096 102.415 74.376
53.387 101.231 73.668
54.072 98.827 74.001
55.468 99.212 75.375
62.313 27.752 62.384
61.195 26.575 63.85
61.862 26.724 66.247
62.21 28.931 67.794
39.019 94.66 1.749
39.521 95.312 4.162
38.281 95.595 6.192
35.577 95.489 6.526
30.897 0.202 80.27
29.214 1.421 79.0
28.973 3.638 78.378
29.854 5.897 79.163
4.42 58.664 15.746
3.894 58.634 13.403
3.623 60.733 11.658
3.41 62.891 11.967
56.451 7.683 46.653
57.642 5.52 47.124
59.77 5.221 48.472
61.163 6.733 49.484
17.156 90.445 35.104
14.717 90.848 35.956
14.904 92.819 38.089
16.386 94.113 38.703
61.332 24.505 62.031
62.678 23.084 64.123
62.208 21.022 64.802
60.181 19.882 65.84
40.915 27.772 54.446
40.19 28.519 52.448
38.695 30.429 52.671
39.07 32.6 53.622
8.241 38.915 86.572
9.357 38.072 84.957
9.751 39.641 82.807
7.886 41.055 81.809
46.777 72.571 17.132
46.953 74.219 19.009
45.135 76.197 19.4
43.436 77.114 18.223
24.982 71.784 9.745
24.446 72.199 7.276
23.246 74.022 6.06
23.425 76.511 6.287
38.277 76.336 19.653
40.746 75.684 20.164
42.795 77.481 21.137
42.746 79.649 21.684
54.068 46.259 68.444
55.692 46.943 66.48
58.231 46.36 67.486
59.08 44.618 68.739
25.093 87.003 15.057
25.139 86.527 12.482
26.13 84.789 11.195
27.748 83.227 11.211
35.033 27.594 49.028
36.257 27.601 50.755
35.69 27.731 53.889
33.627 26.386 54.592
33.255 76.733 46.618
35.596 78.068 46.111
37.422 76.282 45.58
37.458 74.146 44.596
61.493 102.2 23.731
61.388 99.902 23.896
61.549 99.058 25.957
60.224 99.554 28.229
55.56 19.516 76.667
56.601 18.707 74.998
58.818 19.364 73.604
59.189 21.351 72.529
2.769 99.079 24.809
0.997 98.061 25.831
-1.003 97.152 24.05
-0.921 97.164 21.57
6.943 53.067 82.889
8.446 55.264 82.083
7.46 57.845 82.939
5.847 58.299 80.826
33.011 95.504 52.272
33.982 97.181 53.164
33.472 99.673 53.603
31.072 100.715 54.242
47.851 26.502 24.719
45.935 27.262 24.038
45.194 28.892 22.308
46.169 30.631 21.24
67.036 86.544 24.14
68.363 88.35 22.915
68.727 90.892 23.628
70.863 90.839 24.612
32.847 89.83 79.528
31.807 91.331 78.419
33.494 93.308 77.405
35.746 93.851 78.498
13.458 86.562 40.723
14.382 86.557 38.56
15.91 88.966 38.043
16.989 90.341 39.472
43.251 15.538 5.072
43.274 13.941 3.658
44.273 11.339 4.59
43.54 10.396 6.334
2.421 100.568 64.59
3.648 102.87 64.048
3.26 105.313 65.481
2.762 105.967 67.329
71.912 19.414 -1.292
73.102 20.207 -2.721
73.007 21.722 -4.78
70.768 22.526 -5.897
67.512 11.839 87.154
68.791 11.01 88.697
68.591 10.624 91.364
66.93 10.804 92.752
50.793 44.421 26.098
48.794 45.869 26.163
48.351 48.225 27.296
49.521 49.408 29.117
52.641 69.045 -1.467
53.903 69.148 -3.663
55.014 71.074 -4.744
56.65 71.574 -3.521
15.956 51.195 49.958
16.13 53.124 51.452
14.938 55.312 51.913
13.418 56.485 50.421
42.095 57.319 49.498
41.721 58.837 47.718
42.891 61.106 47.208
44.619 62.465 48.359
51.479 38.75 84.881
49.862 40.574 84.916
51.03 42.666 86.25
53.035 43.217 86.888
49.738 38.458 86.812
51.504 38.834 88.497
52.418 37.332 90.168
51.917 35.106 90.974
61.939 104.359 29.415
63.135 102.943 28.406
62.929 100.201 28.729
62.089 99.023 30.262
70.196 55.952 7.433
70.984 54.113 8.639
72.066 55.486 9.961
71.105 57.181 11.943
49.168 15.123 8.316
47.556 14.479 6.722
45.947 16.092 5.441
45.582 18.481 5.475
34.488 97.205 58.001
34.126 96.691 55.729
34.903 93.611 55.39
34.294 92.193 57.022
39.55 30.867 30.694
41.049 29.366 30.131
41.25 26.524 30.657
39.045 24.964 31.199
28.409 53.601 9.683
27.295 55.792 8.785
25.928 55.014 6.313
25.703 52.917 5.557
12.54 23.123 52.682
12.304 24.576 54.29
11.844 27.197 54.232
12.181 28.948 52.22
48.699 38.478 21.809
47.052 40.646 22.688
47.821 42.568 23.845
49.691 44.124 23.487
26.741 26.112 27.861
25.197 25.218 29.814
23.403 23.587 29.239
22.46 22.792 27.279
58.464 95.145 53.179
58.675 94.947 51.076
60.372 93.154 49.575
61.176 90.956 50.21
59.338 78.944 89.41
57.14 79.525 89.556
55.448 78.419 89.543
53.661 77.899 87.989
37.93 92.465 84.231
37.409 91.525 81.912
38.591 89.197 82.176
40.533 88.512 83.108
22.74 58.867 6.759
24.616 60.456 6.286
24.761 62.868 6.296
23.385 64.62 7.987
42.548 32.845 18.614
44.939 33.704 18.668
45.262 34.359 21.102
45.163 36.062 22.248
6.394 17.308 86.195
5.02 15.573 86.776
4.816 13.216 86.408
5.594 11.502 84.828
22.726 35.25 29.393
20.783 35.037 30.897
19.566 37.48 31.366
19.173 38.967 30.088
73.94 70.212 83.296
73.64 69.684 81.18
75.0 67.355 80.346
76.052 65.928 81.604
8.831 88.169 86.815
7.574 87.859 84.892
6.008 90.091 84.535
6.256 92.149 85.942
67.976 102.469 89.196
70.36 102.779 88.979
72.489 102.022 90.284
72.79 101.233 92.665
55.627 29.978 87.607
53.52 29.224 88.543
52.24 26.92 88.299
52.334 25.178 87.241
25.855 76.918 94.556
26.407 75.205 96.274
26.09 76.369 98.907
25.892 78.195 99.422
13.786 20.538 29.909
16.039 21.35 30.538
17.338 23.581 30.645
16.601 25.738 30.018
28.225 65.95 13.211
27.102 65.827 10.858
25.32 64.221 9.801
23.789 62.533 11.104
7.515 -0.358 59.098
6.514 1.497 59.004
7.476 4.173 58.538
9.994 4.701 59.164
48.51 16.773 92.582
46.869 15.592 93.62
46.343 16.46 96.182
47.604 18.435 97.099
57.897 92.59 3.557
57.188 91.522 1.474
55.923 92.983 0.128
56.162 94.76 -1.075
30.614 86.057 54.045
32.795 84.811 53.645
33.425 82.403 53.23
32.768 80.522 53.953
9.614 3.127 1.369
8.074 3.422 -0.645
6.201 1.733 -1.696
5.324 -0.397 -0.846
36.983 40.118 50.582
38.582 38.754 50.844
38.696 36.561 52.469
36.961 35.588 53.727
61.359 17.952 38.374
61.427 16.341 40.456
61.512 13.7 40.416
61.455 12.256 39.054
63.913 1.809 27.787
64.266 1.429 25.41
65.79 2.532 23.674
68.299 3.314 23.927
18.432 102.794 42.653
17.654 105.027 42.891
18.824 107.307 43.764
20.52 107.458 45.25
36.812 77.872 53.414
36.514 80.28 53.085
35.561 82.213 54.725
35.227 81.823 57.059
56.299 84.765 91.834
56.875 86.239 93.988
57.766 88.839 93.901
57.544 90.51 92.295
18.25 61.841 62.039
16.657 60.703 61.461
14.467 62.12 61.337
13.327 63.684 62.637
50.909 14.046 2.276
48.893 14.209 3.205
47.038 12.491 4.485
47.298 10.619 5.114
20.794 10.848 6.479
21.046 8.949 7.995
19.989 6.491 7.812
19.75 4.99 5.88
1.538 10.288 87.595
2.135 8.578 88.682
0.339 6.665 89.764
-2.065 6.502 89.719
64.979 27.841 38.74
63.215 26.571 39.695
61.799 24.663 39.285
61.768 23.017 37.671
4.907 30.031 40.708
4.487 32.537 40.847
2.904 34.236 39.384
1.176 33.601 38.057
37.423 27.625 47.727
38.346 29.365 49.77
38.241 31.665 49.95
37.407 33.552 48.549
18.933 10.061 36.198
16.254 10.98 36.762
15.159 13.064 36.168
15.654 15.348 35.955
69.418 48.347 6.144
70.4 50.707 6.396
73.129 50.822 5.774
74.321 49.063 4.407
39.833 103.744 56.638
38.416 105.553 56.3
37.928 107.14 54.613
38.728 107.619 52.368
30.044 5.735 54.359
31.645 6.893 52.884
32.774 5.164 51.15
31.942 2.723 50.855
7.29 21.455 -2.116
7.17 19.965 -3.929
6.258 17.223 -4.223
4.916 16.063 -3.082
46.982 78.399 19.689
46.797 79.867 21.418
45.004 79.602 22.907
43.829 77.134 23.581
52.195 51.074 86.579
52.178 49.332 88.507
51.369 46.788 88.585
51.048 45.285 86.394
18.026 76.946 61.216
16.607 77.189 59.076
15.577 76.078 57.233
14.683 73.684 57.444
44.256 93.507 28.364
42.976 91.62 27.949
43.582 89.381 27.029
45.176 88.511 25.478
30.629 70.392 8.584
28.66 70.65 7.962
27.308 72.499 7.002
28.155 74.774 6.204
7.079 8.289 28.779
7.823 9.444 31.018
9.946 9.342 32.427
11.78 7.71 32.392
63.147 85.613 46.97
60.972 85.63 46.645
59.212 83.466 46.64
59.166 81.536 47.988
25.937 37.153 5.109
27.895 35.007 5.432
30.562 35.537 4.974
31.372 37.612 3.665
68.251 78.279 20.09
69.344 80.328 20.076
68.503 82.819 20.678
66.592 83.536 21.426
43.964 48.253 51.128
42.402 47.445 49.823
41.941 44.587 49.705
43.218 43.04 49.329
49.032 94.897 93.995
46.847 95.133 94.655
45.386 96.837 95.335
45.459 99.549 95.269
40.492 39.307 53.927
40.693 40.527 51.735
41.534 42.177 51.186
43.493 42.815 52.311
35.164 79.444 79.152
35.865 78.091 77.614
38.665 77.513 76.989
40.577 77.846 78.433
8.555 33.107 84.305
8.615 30.988 84.088
7.768 29.333 86.117
7.372 29.808 88.267
41.178 85.559 33.241
42.056 86.268 30.846
44.631 86.641 30.243
44.699 88.683 30.734
46.811 47.49 87.643
48.827 48.734 88.877
49.571 51.014 88.617
49.599 52.205 86.913
47.281 87.46 30.708
46.934 85.577 29.603
46.183 85.488 27.333
46.566 86.306 25.212
63.6 12.185 49.137
63.717 13.313 46.864
62.74 15.442 45.938
61.112 17.002 46.8
56.287 23.03 41.674
57.96 21.709 42.583
60.066 23.307 42.922
59.915 25.852 43.223
44.108 84.763 20.102
43.75 82.481 20.813
44.508 80.516 19.897
45.197 79.511 17.683
40.523 15.528 33.079
40.741 16.81 31.307
41.851 15.362 29.199
43.502 13.524 29.354
13.332 1.896 42.56
14.025 3.646 41.425
15.902 5.234 42.403
16.936 5.2 44.734
62.056 19.084 48.145
61.51 20.165 45.999
60.574 22.487 45.441
59.685 24.112 46.245
39.102 93.542 24.727
38.596 92.934 26.747
40.006 93.996 28.798
41.752 96.107 28.439
40.035 66.269 22.191
42.155 65.211 21.711
42.88 63.436 20.303
42.231 62.734 18.088
7.985 3.971 88.825
6.288 2.484 88.439
6.128 -0.038 88.127
7.729 -1.875 88.474
41.817 98.489 90.438
41.73 96.564 92.236
40.972 96.415 94.508
40.505 97.729 96.457
33.569 19.281 51.136
34.248 19.645 53.656
35.045 17.945 55.249
35.959 15.928 55.323
26.662 95.475 82.11
27.56 95.387 80.117
28.583 97.458 80.189
30.529 98.278 81.454
63.434 40.999 43.511
62.542 40.104 41.808
62.12 37.265 41.067
62.752 35.424 42.461
17.192 18.008 31.545
17.503 19.452 29.594
16.527 19.351 27.333
14.231 18.724 26.771
20.421 20.027 11.989
21.885 20.345 9.754
21.616 18.203 8.267
19.867 16.818 7.732
54.874 39.174 85.245
53.548 37.464 85.788
53.987 34.851 86.307
56.066 33.842 86.576
50.61 88.632 2.158
50.721 91.286 1.943
49.125 92.989 2.887
46.607 92.867 3.39
63.403 101.481 21.791
63.548 103.706 22.35
62.823 105.957 21.077
60.761 106.295 19.384
39.31 7.521 51.603
40.558 7.347 53.655
42.869 7.178 54.237
45.049 7.772 53.307
20.929 12.558 14.868
20.607 12.748 12.705
20.422 14.83 11.321
21.685 17.336 12.245
61.184 80.967 66.21
60.284 79.167 64.755
60.994 76.949 63.903
62.836 75.6 64.241
22.045 43.344 4.743
24.0 43.534 5.814
24.916 44.895 7.935
24.736 47.438 7.762
-2.492 26.767 41.885
-3.57 28.539 40.657
-2.488 30.086 38.989
0.182 30.099 38.28
35.941 3.08 29.748
37.786 4.367 28.877
37.848 6.578 27.31
35.972 7.921 26.856
23.848 2.58 84.906
24.55 0.221 84.517
23.012 -1.899 84.035
23.077 -1.766 81.834
47.345 36.681 25.247
45.623 34.897 25.33
46.322 32.975 23.351
48.292 32.368 22.548
37.863 74.966 77.383
37.082 75.247 75.392
37.28 73.327 73.462
37.933 71.071 73.926
62.796 33.112 68.62
62.718 35.117 67.792
61.486 36.328 65.882
59.99 35.299 64.263
70.277 60.583 35.256
68.162 60.633 36.967
66.01 59.466 36.806
65.091 57.83 35.41
71.257 41.365 8.894
70.767 43.298 10.206
71.235 45.898 9.403
72.13 46.291 6.806
47.575 13.067 9.095
46.7 11.843 7.809
46.193 8.997 7.557
47.646 7.299 8.5
8.914 40.973 17.407
7.468 42.698 17.677
6.003 43.555 15.702
6.682 43.496 13.162
63.223 23.395 45.242
61.911 25.552 45.039
62.87 27.012 42.743
64.644 27.239 41.902
4.864 47.616 6.859
4.65 46.127 8.655
5.183 47.841 10.88
6.337 49.926 10.698
48.224 82.123 22.231
48.337 83.11 20.234
46.432 84.67 21.571
47.064 87.011 22.568
16.411 85.872 29.972
18.119 84.779 31.542
20.118 85.743 32.811
20.682 87.907 33.692
58.967 53.824 35.062
60.743 54.397 36.658
63.243 53.289 37.076
64.431 51.691 35.984
64.275 19.155 44.071
63.456 18.08 42.338
63.932 15.791 41.238
64.561 13.797 42.283
57.774 84.392 70.38
59.664 83.279 70.393
60.309 80.988 68.882
58.946 79.7 67.624
38.094 85.438 47.72
37.557 83.623 48.804
36.261 81.232 48.392
34.7 80.715 46.141
27.934 22.022 5.603
26.208 21.038 5.182
24.937 18.954 5.661
25.362 17.0 7.352
12.792 15.319 38.455
12.695 12.856 38.007
11.626 11.981 35.628
11.531 13.342 33.632
52.976 88.425 71.186
54.796 89.183 69.597
56.514 87.501 68.121
56.187 85.099 67.885
26.781 23.66 3.726
26.328 25.668 4.623
27.914 28.035 5.132
30.089 28.529 4.434
19.786 91.628 39.026
18.531 89.971 37.459
19.385 87.744 36.123
20.556 86.058 37.667
16.52 104.301 13.519
18.773 103.413 13.506
19.397 100.824 13.675
19.381 99.644 11.376
60.577 74.208 46.278
62.558 73.399 44.887
62.84 70.937 43.81
62.093 68.956 44.316
30.012 6.206 82.171
28.567 7.991 81.48
28.505 10.476 81.434
30.227 12.194 81.752
10.34 77.116 60.318
11.947 78.877 61.543
11.501 81.286 62.0
9.623 82.366 63.052
61.387 47.538 35.664
62.44 45.534 36.283
61.026 43.238 36.392
59.074 42.456 35.7
55.239 73.496 63.302
55.504 71.744 64.721
57.345 70.304 64.469
58.284 69.208 62.319
33.629 88.714 51.991
34.877 88.381 49.79
35.354 85.936 48.777
33.657 83.895 48.94
5.512 38.436 12.1
3.992 39.073 13.199
2.358 41.37 12.886
3.025 43.502 11.775
10.205 51.92 80.094
10.874 53.629 81.633
12.762 55.572 81.102
13.38 56.789 78.909
9.178 35.779 52.448
11.891 34.801 52.527
13.087 32.798 51.757
12.358 30.883 50.491
15.763 53.632 56.348
16.094 52.425 54.102
16.126 49.884 53.368
17.655 48.192 54.78
9.171 5.932 34.048
11.539 6.25 34.754
12.791 5.337 36.932
12.595 3.574 38.272
49.091 61.396 22.515
48.648 59.817 25.117
47.575 57.467 24.842
48.085 55.807 22.835
53.815 56.002 63.715
55.744 55.822 62.607
57.574 53.878 63.59
56.472 52.221 65.54
44.995 2.828 8.298
44.204 0.713 7.855
46.138 -0.909 6.818
48.454 -0.486 6.642
2.524 48.703 16.51
2.542 46.72 15.517
4.456 45.221 14.016
6.572 46.242 13.067
46.646 52.579 28.984
47.211 50.787 28.012
45.622 49.452 26.684
43.182 49.581 26.594
63.936 70.285 39.803
61.825 71.12 41.01
60.791 73.467 41.17
61.872 75.735 40.77
46.488 81.657 23.844
46.603 83.649 24.11
44.191 85.11 23.929
42.16 84.586 24.662
37.655 94.22 54.007
36.307 96.282 54.421
36.41 98.629 53.599
37.8 99.424 51.594
11.802 32.495 89.625
9.917 30.95 89.505
9.3 28.869 90.862
10.31 27.763 93.032
4.896 72.411 21.173
2.46 71.569 20.237
1.297 72.549 18.244
1.315 74.373 16.679
31.796 57.338 69.328
31.659 55.172 70.406
31.085 52.694 69.225
28.518 52.616 68.671
61.667 16.865 69.652
61.741 18.529 68.206
61.352 20.839 69.098
61.324 21.914 71.011
69.226 87.747 15.263
69.795 86.542 16.919
68.522 84.697 18.601
65.818 84.712 18.848
11.866 59.048 77.171
9.818 57.735 78.408
7.709 59.497 78.993
6.888 61.34 77.536
66.254 29.613 61.634
65.702 30.155 63.653
63.588 31.604 64.733
62.545 33.651 63.738
15.117 78.232 63.988
15.65 78.208 61.958
15.536 80.243 60.168
15.77 82.525 60.558
67.967 36.286 67.943
66.524 35.164 66.266
64.914 33.049 66.518
64.992 31.132 67.635
23.173 45.257 32.213
23.025 42.555 31.78
24.475 40.826 32.268
27.023 40.758 33.389
56.263 36.448 40.249
58.275 36.351 38.68
59.834 34.5 38.129
58.843 31.818 37.84
49.401 67.406 19.968
47.684 68.57 21.327
47.118 70.883 21.568
48.33 72.908 20.817
40.039 46.01 53.101
40.011 47.35 51.209
38.749 49.503 50.701
38.011 51.376 52.121
15.699 67.219 30.419
17.562 68.308 30.094
19.682 67.867 28.215
20.023 65.771 26.989
11.985 81.814 59.262
12.83 83.354 60.538
14.256 85.802 60.024
14.399 86.863 57.975
61.167 15.851 16.41
62.556 16.462 17.854
65.202 17.501 17.546
66.676 17.595 15.308
25.545 81.279 11.58
26.89 81.397 9.79
27.825 79.562 8.066
27.347 76.868 8.162
55.168 77.037 40.766
56.878 78.234 41.697
59.208 77.018 43.54
59.33 74.531 43.627
55.849 49.174 69.802
57.268 49.356 68.14
59.328 48.682 68.01
61.508 48.701 70.184
33.709 51.834 75.026
35.262 49.856 74.618
33.924 47.811 74.809
31.811 47.24 76.083
11.8 26.55 -2.485
12.503 25.329 -4.237
10.965 23.311 -4.852
9.806 21.774 -3.472
27.076 58.599 95.079
27.436 59.804 97.439
27.17 61.983 98.249
27.875 63.868 97.827
-1.649 4.018 21.276
-3.736 5.564 21.267
-4.268 7.419 19.568
-3.363 8.196 17.969
56.397 36.859 91.155
55.054 37.258 88.932
54.193 39.398 87.919
54.264 41.715 88.765
30.094 31.015 97.131
31.425 32.836 98.37
33.58 34.515 97.526
34.857 34.252 95.938
55.887 100.718 45.304
56.647 98.922 46.504
56.661 96.269 46.006
55.78 95.09 44.304
60.658 47.055 64.36
59.405 48.748 65.036
58.302 51.178 63.998
57.952 51.579 61.765
12.744 37.516 59.658
13.426 35.771 58.244
11.896 34.267 56.293
9.69 34.671 55.724
15.357 103.908 43.67
15.572 101.765 42.155
15.131 99.606 42.472
13.331 99.193 43.474
71.169 -1.427 61.075
72.674 0.596 61.736
75.187 -0.487 61.238
75.863 -2.296 59.673
3.227 94.428 64.082
5.935 94.492 64.2
7.574 92.406 64.32
7.376 90.521 64.335
36.527 18.544 57.803
36.618 20.145 55.74
35.507 21.999 55.009
35.713 23.906 55.292
40.979 88.752 29.91
42.713 90.423 30.422
42.393 92.958 31.689
40.523 93.928 32.432
43.472 24.969 31.592
42.749 23.42 29.642
42.622 20.904 29.485
41.725 19.221 31.247
32.64 38.681 73.465
34.537 37.69 74.658
35.772 35.309 74.006
36.199 34.209 72.047
39.89 30.328 27.602
41.358 29.081 26.752
43.982 29.525 26.332
45.223 31.332 26.25
1.452 69.64 18.069
1.151 68.754 16.0
2.037 66.45 15.038
1.782 64.315 15.759
54.05 16.44 91.492
52.023 17.307 92.79
50.318 19.038 92.586
50.586 21.398 91.314
9.199 89.928 89.177
6.779 89.073 88.494
5.309 91.184 88.429
5.738 93.248 89.498
5.58 69.122 77.813
6.055 70.021 79.667
7.614 71.959 80.382
8.611 73.705 78.649
25.785 31.05 8.751
27.652 32.059 7.805
28.258 32.038 5.179
27.335 30.55 3.259
33.489 46.091 5.108
32.385 44.189 4.296
33.004 41.429 3.931
35.172 40.593 5.243
53.206 96.539 48.943
55.18 96.21 48.445
56.98 94.261 49.09
56.418 91.755 49.651
62.242 89.417 67.502
60.085 87.597 67.367
60.228 84.97 68.025
61.547 83.507 68.41
50.368 60.489 84.867
50.51 62.461 85.911
53.23 63.577 86.595
54.959 62.974 86.146
54.55 13.299 66.67
54.744 14.57 68.031
54.166 14.015 70.829
52.636 12.862 71.875
63.671 18.627 39.457
62.68 20.994 38.817
63.041 22.771 41.081
64.665 21.754 43.441
29.899 37.303 74.358
31.168 38.939 75.915
30.285 41.093 77.19
28.957 40.476 78.89
-3.01 20.309 21.238
-2.598 21.897 19.819
-2.192 21.175 17.133
-1.576 19.223 16.092
49.098 74.518 85.53
51.803 74.835 86.188
52.722 75.105 88.372
51.944 75.898 90.281
22.489 42.338 10.054
24.447 43.451 9.922
26.054 44.22 12.057
25.517 44.086 14.314
33.929 86.038 11.972
31.919 86.938 13.325
29.62 87.27 11.578
29.65 87.44 9.367
28.123 12.499 74.583
29.722 14.575 74.66
30.688 15.983 73.418
30.332 16.543 70.963
19.953 28.963 51.774
18.688 27.523 52.61
16.959 28.376 54.408
17.029 30.266 55.933
21.255 73.572 95.946
23.007 74.707 96.228
25.022 72.881 97.551
25.153 70.71 97.188
23.083 93.976 16.639
21.622 95.89 16.314
21.805 97.987 16.259
23.319 99.618 18.106
43.209 11.801 24.559
42.23 13.685 25.142
40.423 14.39 26.922
39.065 12.848 28.499
29.289 84.656 9.206
28.979 85.33 6.798
27.825 84.038 4.935
27.552 81.556 4.329
56.739 2.752 51.358
58.926 2.207 50.337
60.82 3.774 50.363
61.307 6.102 52.094
54.025 30.519 0.973
52.759 32.211 -0.241
53.06 34.856 0.045
54.992 36.183 0.182
0.543 4.477 87.483
2.381 5.202 88.367
3.515 3.29 90.155
3.552 1.154 90.073
37.674 32.836 73.868
36.349 31.063 75.361
34.4 32.523 76.684
34.61 34.93 77.762
56.182 81.424 66.157
57.368 79.458 65.29
56.556 77.438 63.571
54.944 76.483 63.048
60.482 52.991 61.272
58.567 53.877 60.75
57.965 56.531 60.795
60.012 58.118 61.814
41.087 72.96 73.231
40.542 72.174 75.085
40.351 73.409 77.479
40.963 75.258 78.389
6.751 5.087 1.776
5.841 5.114 0.087
5.132 7.126 -1.658
6.86 9.351 -1.69
46.624 24.735 26.35
45.174 23.581 27.062
42.921 24.677 27.344
42.102 26.869 28.062
16.028 50.539 23.65
15.083 48.396 25.081
16.341 46.948 26.648
18.686 46.857 27.222
23.608 93.242 12.482
22.307 94.895 13.723
21.158 97.123 13.197
22.009 98.675 11.958
48.09 64.393 17.793
46.347 64.198 19.502
45.443 61.82 20.358
46.421 60.126 20.855
55.618 92.581 46.045
57.406 91.474 46.813
58.478 89.32 46.283
57.136 87.713 45.715
59.671 100.622 72.529
59.325 98.443 72.974
60.395 95.841 72.328
62.723 95.669 71.455
30.377 26.792 7.375
29.395 29.155 7.236
30.379 31.326 7.703
32.75 32.261 7.579
36.428 15.185 34.209
38.338 16.008 34.706
39.561 18.427 33.441
38.428 19.322 31.587
70.099 56.695 15.165
70.386 54.832 13.734
70.635 52.179 14.205
70.784 51.009 16.066
72.471 17.899 88.097
72.989 15.558 88.579
72.188 13.329 87.429
70.153 12.882 86.804
25.675 2.716 21.61
24.036 4.602 20.83
23.296 6.655 22.114
22.921 6.706 24.571
3.834 86.88 90.484
5.085 86.902 88.27
4.825 87.58 85.905
3.249 89.356 85.0
5.201 3.661 65.706
6.946 5.205 65.331
8.228 4.279 63.383
7.127 2.331 61.753
68.576 41.916 18.654
70.545 40.814 17.955
70.991 38.496 17.024
69.877 36.375 17.18
1.804 81.491 16.584
1.477 79.594 15.598
1.667 77.191 16.777
2.029 76.816 18.985
11.073 22.305 86.286
9.014 20.945 86.513
8.539 18.666 86.79
10.088 16.602 87.09
7.809 66.152 59.739
9.416 66.97 58.271
10.996 68.875 58.219
11.191 71.041 59.299
37.223 68.602 70.211
38.711 69.079 72.052
40.838 70.312 72.302
41.412 72.566 70.543
26.3 76.739 34.77
26.727 75.597 32.345
26.554 76.844 29.919
25.81 79.322 29.596
72.704 92.263 88.543
73.66 94.732 87.8
72.502 96.922 87.703
70.306 97.977 88.931
48.16 8.564 92.205
47.115 8.355 94.314
45.65 6.609 95.553
45.23 4.203 94.624
4.756 62.041 8.781
4.316 60.585 7.435
3.458 58.121 8.57
4.179 57.169 10.75
61.477 73.243 65.548
60.343 70.752 65.009
60.698 68.504 66.418
61.923 67.815 68.294
43.809 8.682 95.582
45.408 10.261 95.238
45.672 12.654 94.343
44.112 14.215 93.799
23.859 77.999 28.177
24.059 76.175 30.077
24.039 73.724 30.049
22.953 71.964 28.724
41.509 48.997 23.436
42.937 51.297 23.884
42.601 53.487 24.368
40.774 54.926 24.611
61.071 69.762 61.833
60.301 71.965 62.643
61.166 74.261 62.079
63.585 75.291 61.699
70.054 62.745 17.215
71.314 61.49 15.884
70.906 59.386 14.358
68.449 58.594 13.899
57.067 34.653 89.029
54.992 33.129 89.528
54.518 30.903 90.671
56.197 29.184 91.237
38.078 11.712 57.71
38.128 9.795 56.839
39.338 9.837 54.46
39.269 11.12 52.535
36.845 61.146 52.339
38.512 62.631 51.061
37.879 64.92 50.02
36.22 66.921 50.458
34.6 25.663 47.411
34.224 24.366 49.391
35.305 22.358 50.525
35.732 20.336 49.826
32.489 47.86 69.66
32.297 48.566 72.016
30.316 48.433 73.743
28.226 47.114 73.86
43.87 9.255 55.796
42.15 10.348 55.828
40.68 11.717 57.668
40.77 12.046 59.765
25.131 19.349 80.173
26.096 17.98 78.401
27.6 18.824 76.013
29.363 18.848 77.146
12.813 41.889 78.418
13.072 41.477 80.73
10.926 42.451 82.423
9.231 43.613 81.868
67.158 40.719 65.475
65.162 40.036 66.067
63.638 40.145 68.237
64.095 41.166 70.665
60.616 94.261 74.5
58.194 93.919 73.981
55.895 94.426 75.669
55.708 96.463 75.439
47.165 43.17 20.098
45.557 41.686 20.619
45.012 39.508 20.184
45.683 37.896 18.759
55.428 85.151 45.647
56.047 83.215 46.931
56.358 80.697 46.31
55.845 79.71 44.29
35.62 98.943 60.123
34.328 99.973 58.476
35.003 101.071 56.082
37.285 101.636 55.129
39.906 5.677 60.74
38.498 4.32 59.532
38.513 4.541 56.925
39.711 5.541 55.593
34.384 24.455 72.412
32.948 25.856 73.339
31.046 27.481 72.371
29.854 27.46 70.722
59.057 73.542 91.812
59.277 75.293 90.299
58.691 75.223 87.767
58.546 73.141 86.255
69.654 34.382 12.423
70.735 35.917 14.338
70.768 38.461 14.251
69.999 40.202 13.043
9.109 82.297 33.837
11.026 82.185 34.914
13.45 83.158 34.555
14.527 84.191 32.35
48.798 99.723 6.731
47.457 100.484 5.723
45.56 99.054 4.517
45.135 97.038 4.596
13.502 53.52 29.66
15.264 52.572 30.527
16.699 52.726 32.68
16.819 54.689 34.642
60.098 -0.447 74.02
57.904 -0.4 74.985
57.623 -3.315 75.986
59.445 -4.739 75.704
32.87 23.742 75.347
30.51 22.94 73.869
29.997 20.51 73.182
29.919 18.31 74.5
38.833 9.698 59.64
38.517 7.428 59.456
36.35 6.332 58.747
34.242 6.842 58.898
48.814 45.196 87.979
50.462 43.685 88.679
50.381 41.125 89.733
48.532 39.812 89.977
