2.865 62.305 44.303
4.802 63.416 44.419
5.639 65.547 45.395
4.561 67.545 45.99
1.616 54.856 20.349
0.765 55.201 22.665
0.66 57.762 23.705
1.092 59.451 23.285
12.429 76.634 21.299
11.932 74.064 21.683
11.676 71.859 20.11
11.873 71.855 17.695
8.223 31.597 17.347
7.839 30.296 15.397
7.742 27.402 16.112
7.923 26.881 18.602
19.25 30.74 51.504
18.218 29.223 52.913
15.681 29.259 54.104
14.205 30.726 53.883
21.612 79.667 44.243
22.857 81.432 42.796
21.908 83.526 41.575
19.484 83.792 40.499
22.725 76.547 58.615
22.232 76.451 60.682
23.974 75.967 63.014
25.768 75.052 62.983
25.301 11.533 17.179
24.152 9.567 16.243
23.345 7.225 17.825
23.407 6.883 20.014
36.774 90.451 61.158
37.543 93.095 61.925
36.261 95.289 61.8
33.946 95.881 60.709
30.719 69.968 9.111
30.716 69.965 6.709
31.278 67.8 5.274
33.23 66.597 5.267
41.069 29.852 10.606
39.73 27.717 10.907
37.668 26.739 9.556
36.015 27.794 8.353
53.774 60.596 47.514
52.977 58.194 47.79
51.184 57.414 49.508
48.901 58.235 49.926
33.041 73.303 35.613
33.704 74.814 37.364
32.373 77.266 37.667
31.513 78.686 35.376
46.754 70.907 16.778
46.168 69.83 19.271
46.684 67.847 20.258
48.358 66.263 20.11
4.605 46.68 47.332
3.309 46.763 49.451
3.318 44.302 50.794
5.383 42.553 50.114
16.413 49.221 2.729
15.815 51.353 4.184
13.617 52.7 4.328
11.241 52.169 3.095
23.771 84.15 3.817
22.785 82.892 5.571
20.241 82.22 5.481
18.76 83.432 4.328
35.477 57.551 28.019
33.961 57.888 26.076
32.118 59.667 25.652
31.599 61.786 26.993
44.375 67.347 21.505
44.693 69.051 22.945
44.198 71.397 23.007
42.301 72.573 22.842
28.143 80.022 44.163
26.574 81.678 43.308
24.669 83.109 44.006
23.906 83.716 46.246
46.7 74.877 59.161
46.941 76.954 60.077
46.704 78.229 62.159
44.938 78.202 63.788
28.762 56.823 28.676
29.49 57.7 26.857
28.82 59.991 25.79
27.772 61.913 26.603
4.724 24.726 17.644
6.105 25.036 15.16
5.62 26.684 13.459
3.556 28.285 13.096
54.747 -2.575 16.251
55.268 -1.092 17.413
57.872 -0.385 18.181
59.687 -0.575 17.363
52.512 41.456 5.504
54.862 41.395 5.54
56.648 40.306 4.457
57.053 39.749 2.116
47.385 23.034 48.888
46.768 22.294 51.158
44.441 23.71 51.721
42.939 24.802 50.276
35.42 5.639 0.69
35.619 5.899 -1.431
33.823 6.667 -3.268
31.194 6.908 -2.645
30.456 87.285 23.128
28.692 88.16 22.059
28.746 90.877 21.439
29.678 92.363 22.146
34.19 40.583 45.01
36.064 39.584 45.659
36.086 36.973 47.084
33.694 36.173 48.129
4.539 9.656 33.541
5.868 9.715 35.73
6.546 7.815 37.358
6.706 5.232 36.953
8.457 10.124 30.695
7.409 10.431 32.682
6.373 12.608 33.943
6.45 14.842 33.547
8.721 70.206 21.527
10.584 71.367 22.726
13.093 70.163 22.786
13.761 68.084 22.55
41.698 14.507 14.173
43.445 16.394 13.941
43.285 18.801 13.387
41.49 20.296 12.999
57.267 33.978 2.028
56.925 36.551 1.98
57.082 37.259 4.422
56.614 35.688 6.423
34.774 40.778 56.776
35.295 40.364 54.267
37.01 39.054 53.051
39.261 38.057 53.814
29.505 36.328 29.11
28.124 36.375 30.94
25.618 35.697 31.194
24.101 34.475 30.052
20.347 16.515 56.345
21.898 18.316 56.007
21.687 20.857 54.758
19.677 21.766 53.717
41.798 87.506 6.198
42.516 86.955 4.22
44.606 85.582 3.513
45.731 83.555 4.499
50.908 67.709 23.463
48.427 67.782 22.671
47.057 69.75 22.15
47.246 72.101 22.191
56.953 7.995 1.78
59.392 7.211 1.503
60.417 5.636 0.063
59.479 3.677 -1.412
60.498 23.008 24.624
62.879 22.802 24.133
64.434 22.799 22.057
64.151 22.9 19.997
18.741 86.398 40.302
19.276 88.924 40.539
21.472 89.183 40.989
23.58 88.173 40.252
42.779 6.918 42.398
41.538 6.269 40.79
38.73 7.478 40.291
38.315 9.453 40.491
46.157 43.335 9.667
48.605 43.224 9.088
50.108 44.68 10.384
49.655 45.436 12.961
41.584 67.472 0.81
38.762 67.656 1.545
37.193 68.54 0.067
37.514 70.756 -1.709
23.39 44.654 10.169
22.883 44.821 7.79
22.565 47.005 6.298
21.55 49.25 6.863
2.174 80.939 45.306
0.484 79.385 44.71
-0.864 80.661 43.05
-1.969 82.705 42.973
39.949 77.671 17.255
39.632 77.951 18.981
40.94 76.855 20.776
41.401 74.642 21.394
18.858 12.953 18.158
21.402 12.746 18.199
21.79 10.913 15.924
21.113 9.103 15.671
4.4 39.105 49.042
6.071 39.371 51.089
7.334 37.239 52.315
7.907 35.093 51.283
15.086 9.556 40.291
15.384 7.969 41.949
16.496 8.097 44.224
18.495 8.856 45.195
57.589 91.672 44.182
55.684 91.861 42.385
54.516 93.589 41.27
54.231 96.032 41.601
8.219 44.98 24.289
6.002 46.036 23.626
6.551 48.95 23.396
8.855 49.759 23.223
47.935 13.061 11.501
48.193 14.37 13.449
48.034 17.102 13.617
47.484 18.562 12.226
33.671 47.262 27.537
32.409 48.933 28.25
31.246 50.622 26.623
31.073 50.794 24.234
49.947 -2.254 38.219
51.576 -2.939 39.509
51.912 -2.068 42.246
50.67 -0.536 43.346
28.943 64.319 26.795
30.056 62.413 24.595
27.893 62.108 22.852
26.117 63.511 22.355
8.515 47.588 30.782
8.287 46.746 28.969
7.354 47.525 26.631
6.268 49.446 26.002
10.68 81.713 26.394
10.844 80.876 24.051
12.214 79.589 22.961
14.464 78.114 24.042
58.602 32.936 4.064
59.312 34.278 6.083
59.997 33.714 8.419
60.393 31.98 9.454
59.245 70.993 3.007
59.669 73.056 1.574
57.8 74.734 0.844
55.606 74.949 1.429
3.721 49.849 22.287
1.86 51.335 22.233
0.336 52.23 20.391
0.422 51.958 17.812
-0.132 76.118 4.601
-2.138 76.856 4.595
-3.288 77.776 2.569
-2.373 78.972 0.502
18.157 28.158 50.324
17.57 26.396 52.023
18.123 23.845 51.939
20.386 22.676 51.213
41.161 30.204 50.257
42.193 28.523 51.264
44.478 27.424 49.983
45.413 28.97 47.998
32.145 12.972 -0.103
30.569 14.428 0.611
30.935 16.565 2.685
32.653 18.167 2.413
34.332 75.952 44.973
32.121 76.073 44.046
30.362 78.427 44.309
30.592 80.585 44.355
12.213 21.278 11.665
10.156 22.08 12.581
9.708 20.158 14.067
9.356 17.619 13.633
14.616 23.872 47.812
14.368 21.751 49.528
16.822 20.778 50.845
19.079 20.737 49.92
26.502 23.277 55.339
25.324 21.586 56.226
25.799 19.572 57.934
27.943 18.506 58.826
48.793 40.775 28.009
49.879 40.199 30.185
51.688 38.723 30.661
53.411 37.224 29.312
28.612 84.384 43.845
26.64 84.649 42.609
25.114 86.725 41.971
25.303 88.991 42.835
55.004 90.865 16.311
57.396 91.633 17.086
56.645 90.531 19.452
56.687 87.937 20.147
7.116 84.279 43.823
5.002 82.455 43.424
2.27 83.438 43.034
1.248 84.863 43.585
33.483 72.197 37.85
34.247 71.776 39.988
36.711 72.486 40.484
38.508 72.667 39.259
8.906 0.994 3.909
10.792 1.1 1.934
9.213 2.164 -0.205
7.226 3.423 -0.272
4.301 47.496 54.648
1.582 46.969 53.327
0.724 48.582 51.825
1.048 51.342 51.62
13.532 63.847 41.241
13.88 61.878 43.304
12.58 59.608 43.377
11.092 58.529 41.794
42.298 93.553 60.556
42.116 91.267 61.195
43.931 89.274 61.58
46.062 88.895 60.73
16.895 96.351 37.38
17.705 95.791 39.555
18.31 93.201 40.526
19.238 91.267 38.895
26.507 30.778 8.671
27.403 33.044 8.695
26.968 35.226 7.516
25.16 36.142 6.0
43.524 67.783 25.979
45.725 68.975 25.339
47.346 70.258 27.023
48.152 69.786 29.046
2.276 44.55 54.966
4.088 44.331 53.621
6.356 42.772 53.707
6.181 40.842 55.78
29.329 52.319 23.088
28.061 54.33 23.557
25.557 54.838 23.55
23.672 53.499 23.274
23.606 58.642 26.278
25.362 60.812 26.156
24.393 63.028 25.428
22.198 64.212 25.512
2.156 48.904 28.363
2.861 50.604 26.822
1.981 53.351 26.39
-0.291 53.94 25.949
33.184 46.572 57.07
32.422 44.796 55.794
31.645 42.266 56.698
31.776 41.15 58.811
13.873 58.199 51.161
15.645 56.452 50.404
17.017 57.175 48.091
17.813 59.149 47.624
5.815 31.438 18.679
4.896 29.94 16.522
3.806 30.598 14.525
2.389 33.086 14.086
26.764 42.549 5.328
27.0 42.116 7.324
25.922 44.116 8.788
26.026 46.58 8.202
54.887 83.914 46.321
55.597 85.364 44.115
55.914 87.561 43.933
55.969 89.631 45.408
23.165 89.875 44.517
21.481 90.124 43.637
20.333 91.983 42.229
20.26 94.225 42.38
13.846 60.235 48.899
12.993 60.317 46.491
11.725 61.907 45.149
12.677 63.878 44.859
55.011 54.94 55.205
55.216 54.761 52.994
56.747 55.493 51.067
58.346 57.272 51.067
54.548 33.716 32.451
54.606 31.494 33.493
54.858 29.255 33.042
54.827 27.875 30.851
41.938 37.53 50.741
39.853 37.374 51.258
37.915 38.084 49.985
37.71 39.669 47.884
11.317 71.086 43.447
9.648 70.181 44.061
6.858 71.033 44.144
5.885 73.102 43.55
5.839 32.119 10.452
5.315 31.291 12.496
7.027 29.086 13.248
9.096 28.381 11.927
45.166 73.69 45.407
43.914 71.964 45.643
44.201 69.474 46.666
46.732 68.242 46.688
2.293 36.562 7.285
2.463 34.135 7.549
2.935 32.503 9.545
3.554 33.106 11.8
28.716 18.016 1.027
27.825 15.888 0.353
25.789 15.609 -1.505
24.726 17.551 -2.627
8.873 88.564 21.494
8.396 86.235 21.115
5.732 85.482 20.373
3.83 86.987 20.742
1.084 94.082 18.831
-0.56 92.241 18.898
-0.145 90.018 20.424
1.959 89.078 21.37
36.933 96.306 38.538
39.303 97.126 39.404
41.502 97.466 37.976
41.929 97.739 35.818
25.954 65.009 27.073
25.109 65.8 25.093
23.367 67.592 24.284
21.77 68.87 25.704
13.627 31.246 47.719
14.613 30.208 49.599
15.244 28.056 50.345
15.394 25.894 49.21
18.801 60.037 6.1
16.288 60.532 6.068
14.822 60.274 3.695
15.436 59.723 1.754
26.383 47.221 53.792
26.438 47.272 51.12
25.024 46.153 49.394
23.217 44.441 49.797
22.2 15.068 53.621
23.517 15.973 55.346
25.486 15.193 56.661
26.323 12.736 56.924
50.669 78.228 2.289
49.082 77.007 0.892
49.958 74.346 -0.097
51.664 73.102 0.317
18.882 85.887 44.551
20.723 85.134 43.55
23.373 85.656 43.74
24.588 86.956 45.569
56.489 57.551 19.868
57.454 58.416 22.118
56.092 59.227 24.209
53.938 60.646 24.31
24.895 11.243 58.856
26.883 10.627 58.662
28.173 8.161 58.316
27.424 6.006 58.985
21.128 6.012 21.682
21.088 3.773 20.953
21.273 3.881 18.317
21.082 6.019 16.926
19.663 49.759 48.664
20.605 51.712 48.289
20.188 54.115 48.663
17.974 55.248 49.335
1.198 74.616 49.062
1.01 76.624 47.977
2.536 77.215 46.17
4.465 76.172 45.365
45.413 64.911 40.058
45.967 65.0 42.497
47.198 63.628 43.973
48.543 61.663 44.143
24.12 89.761 18.392
25.449 88.144 18.769
26.035 87.212 21.126
25.073 88.265 23.215
9.906 86.263 3.75
9.334 87.489 1.645
7.075 89.052 0.963
4.969 89.312 1.983
24.029 21.513 37.329
25.594 20.894 38.722
27.187 18.8 38.435
26.716 17.139 36.434
42.039 37.857 53.514
43.021 35.829 52.555
45.186 34.527 53.077
46.314 34.254 55.33
32.752 71.781 42.851
33.388 73.703 41.267
32.099 75.363 39.952
29.963 75.81 39.492
51.806 83.699 0.655
51.689 80.971 0.801
53.039 79.345 1.681
54.819 79.266 3.486
22.551 55.45 24.88
24.883 55.903 25.906
25.72 55.698 28.027
24.755 55.006 30.432
40.678 7.061 57.929
41.449 5.303 58.736
39.954 3.204 58.278
37.532 3.243 57.987
40.653 83.912 2.847
42.975 83.896 2.034
44.408 81.806 0.732
43.502 79.829 -0.331
33.187 28.273 4.003
33.239 27.164 6.243
34.877 25.612 7.704
36.304 24.061 6.723
30.697 72.605 60.689
30.492 72.171 63.148
32.047 71.176 65.006
33.71 73.307 65.401
19.84 88.65 3.734
17.861 86.733 3.724
15.293 87.229 3.327
14.295 88.978 3.124
26.005 46.227 4.526
25.211 48.241 5.914
23.617 50.29 5.209
22.554 50.381 2.801
39.402 30.593 19.494
40.642 29.931 17.612
40.961 27.528 16.352
38.773 25.634 17.019
55.857 2.73 23.678
56.507 0.551 23.909
58.056 -1.247 22.322
59.263 -1.004 20.485
41.175 56.499 62.89
39.824 57.911 63.204
40.114 60.685 62.826
41.092 61.341 61.124
30.189 34.898 31.96
29.958 32.691 32.926
27.58 31.965 33.274
25.436 33.489 33.204
25.884 6.058 16.822
24.067 4.301 17.592
24.205 2.007 18.708
26.392 0.701 19.358
15.886 89.748 59.448
15.303 88.913 60.827
13.169 89.531 62.647
11.212 90.833 62.084
59.908 73.278 43.011
60.41 75.437 43.806
59.696 76.766 45.714
57.565 76.709 47.309
33.606 84.603 23.362
35.205 83.555 22.169
35.633 80.701 22.272
34.502 79.203 23.71
34.798 96.28 58.042
33.437 97.781 58.538
33.145 100.228 57.574
34.862 101.14 55.723
8.366 72.187 19.877
9.412 73.811 21.921
8.038 75.59 23.407
5.976 76.37 23.459
35.549 15.041 31.184
35.702 14.639 34.139
35.744 12.386 35.242
36.644 10.419 34.522
30.566 83.65 41.311
30.474 81.627 41.878
31.193 79.403 40.768
32.69 79.689 38.773
46.157 29.466 13.635
45.483 27.611 14.431
43.267 26.034 13.611
41.906 26.288 11.713
23.49 79.669 40.981
25.414 80.714 41.163
27.984 79.937 41.341
29.06 77.851 41.752
56.855 27.687 34.027
56.302 25.224 33.73
57.814 23.198 33.793
60.102 22.939 33.313
22.17 52.979 50.04
24.326 51.836 49.764
25.709 50.455 51.475
25.634 50.057 53.652
42.237 32.994 15.197
42.551 30.934 13.857
40.839 28.966 13.451
38.67 28.847 12.901
48.226 31.961 50.618
46.256 30.868 50.408
43.612 31.895 50.178
42.906 33.949 49.355
44.337 12.704 18.812
44.9 14.108 17.346
44.066 16.672 16.537
41.827 17.646 17.255
32.526 74.38 5.782
31.684 72.16 5.346
29.199 71.998 3.933
27.628 73.686 3.503
46.106 55.581 42.895
46.623 57.148 40.753
46.145 59.65 41.356
44.331 60.839 42.603
19.231 76.924 54.826
19.263 75.766 57.357
19.795 76.628 59.46
19.761 79.421 60.298
17.114 52.546 7.4
18.662 50.53 8.204
19.295 49.155 5.978
19.196 49.996 3.831
55.083 44.084 4.991
52.783 44.556 5.61
52.322 46.219 7.82
52.676 48.142 7.396
23.592 38.266 32.345
24.041 37.546 30.203
23.858 38.168 27.957
22.845 40.163 26.844
9.143 94.299 4.165
8.908 92.328 2.581
10.165 90.067 2.494
11.758 88.798 4.078
58.42 14.891 33.622
59.752 16.52 32.184
59.097 18.422 30.856
56.988 19.649 30.684
55.37 42.021 10.535
53.82 43.977 10.119
51.663 43.345 8.627
50.367 41.334 8.361
42.459 -0.895 3.754
42.116 -1.159 1.441
41.14 0.4 -0.509
40.322 2.485 -0.573
20.331 73.877 22.077
17.955 73.81 21.947
15.911 75.57 21.491
15.987 78.328 21.866
4.077 91.339 3.343
5.92 92.04 2.269
6.79 94.631 1.948
6.234 96.601 3.084
14.458 95.862 50.988
13.786 96.868 49.07
15.481 96.59 47.175
17.019 95.149 46.501
5.826 5.668 4.209
5.162 3.086 3.847
3.297 2.167 2.646
0.943 3.094 2.119
47.078 5.009 41.452
47.838 2.572 42.092
48.134 1.445 44.349
48.475 2.038 46.466
25.5 74.921 3.43
24.907 77.336 3.006
22.987 78.868 3.499
20.99 78.801 5.017
57.067 36.358 34.714
55.047 35.267 34.623
52.587 36.103 34.124
51.834 37.838 33.322
18.746 9.627 12.359
18.267 10.43 14.443
18.1 12.667 15.624
18.777 14.978 14.565
0.065 9.241 58.317
0.241 8.56 60.568
2.367 7.084 61.525
3.801 5.941 60.522
28.26 68.243 4.349
28.816 67.553 6.713
27.678 69.21 8.517
26.648 71.43 7.971
4.04 60.719 8.809
5.894 61.241 7.346
8.07 60.278 6.524
9.076 57.689 7.648
16.442 73.205 24.63
18.282 71.882 23.906
17.187 69.597 23.307
15.704 68.235 24.361
56.784 20.494 39.49
56.256 20.551 37.039
56.532 18.498 35.328
58.622 16.531 35.776
31.644 40.332 54.58
32.176 40.816 52.39
31.714 43.425 51.524
30.757 45.073 52.383
22.922 72.679 22.428
20.839 71.004 23.274
20.305 68.849 22.734
21.192 67.099 21.186
40.306 32.736 49.41
39.767 34.722 50.485
37.053 35.064 50.756
35.316 34.294 49.576
47.478 46.935 34.239
45.604 47.11 33.154
45.44 47.142 30.473
46.652 47.695 29.017
55.479 87.061 39.722
53.424 85.305 40.183
54.013 83.358 41.434
55.911 82.23 41.924
43.168 95.341 35.438
42.05 94.857 37.413
43.973 95.425 39.651
46.329 95.381 39.426
5.049 66.924 62.44
4.86 68.427 63.577
6.125 69.104 66.055
7.419 67.788 67.43
45.442 19.864 52.774
47.906 20.019 52.768
49.775 18.157 53.43
49.478 16.018 54.5
15.688 18.988 16.196
13.593 17.778 15.464
11.252 18.13 16.296
10.152 19.81 17.609
25.986 85.678 17.062
28.09 84.33 18.033
28.748 82.504 18.626
27.758 79.992 18.06
-1.083 17.928 58.249
-3.137 16.045 58.68
-3.278 14.633 60.532
-2.255 14.885 63.029
51.145 81.698 4.564
49.908 81.053 2.645
47.511 80.802 2.133
45.53 80.957 3.156
26.847 25.016 38.925
25.685 23.736 36.817
27.01 22.148 35.035
28.935 20.979 34.908
23.438 79.382 37.553
22.451 81.203 38.705
20.971 83.405 38.253
20.424 84.276 36.095
19.805 17.13 9.448
20.694 15.469 11.276
22.239 13.914 10.647
23.618 13.627 8.533
49.877 59.174 45.09
47.756 58.887 44.494
46.597 56.358 45.331
47.935 54.408 46.237
33.505 73.573 45.37
35.347 72.5 44.331
37.63 71.107 45.086
38.487 70.984 47.461
18.746 36.34 23.128
18.7 37.324 25.596
16.932 37.951 26.998
14.521 37.37 27.417
37.117 6.29 42.136
38.759 5.041 41.782
38.229 3.676 39.594
35.801 3.176 38.69
35.498 17.709 30.379
33.391 17.877 31.191
31.829 20.28 31.238
32.397 22.273 31.222
1.707 20.234 39.361
0.676 19.814 37.213
-1.102 21.23 36.062
-2.353 22.67 36.449
29.426 80.043 20.242
31.107 81.435 19.524
33.876 80.85 19.105
35.129 79.234 20.037
26.822 44.274 48.39
28.226 44.062 50.048
30.892 44.951 49.601
31.744 44.453 47.485
3.325 83.946 19.995
3.468 82.802 22.44
4.015 80.468 23.025
5.39 78.789 21.54
25.47 19.872 34.591
27.617 18.892 34.78
29.076 17.693 33.073
28.726 16.852 30.819
14.379 6.153 13.353
15.091 7.704 15.043
17.857 7.876 15.281
19.65 6.004 14.456
40.731 30.935 52.922
41.122 33.321 52.809
39.997 35.431 53.422
37.554 35.852 54.122
14.968 46.759 4.135
16.394 48.244 5.437
16.64 48.949 7.935
16.601 47.492 9.784
25.075 12.422 14.661
23.539 11.874 13.101
23.751 11.096 10.324
25.676 10.552 8.832
52.907 14.626 14.759
50.997 14.732 13.355
50.647 13.133 11.024
50.632 10.909 11.346
50.12 44.135 5.627
50.293 46.574 5.955
48.494 47.498 8.096
46.712 46.612 8.805
42.584 59.709 45.271
45.213 60.142 45.392
46.931 59.565 47.116
46.721 57.364 48.077
29.621 10.219 56.627
31.315 8.907 57.131
32.307 6.606 56.56
31.11 4.787 55.885
39.394 90.039 60.811
40.696 89.279 62.673
41.8 87.024 63.42
42.504 84.985 61.793
15.276 65.886 41.368
12.919 66.655 42.48
11.527 68.947 41.914
11.985 70.704 40.614
51.13 26.699 56.84
49.629 25.217 55.685
47.917 25.84 53.737
47.42 27.812 52.834
-0.682 12.981 27.364
-2.186 14.849 27.049
-1.158 16.997 28.401
1.34 16.739 29.499
49.337 84.041 1.717
47.55 83.132 0.325
45.341 84.165 -0.47
45.017 86.159 -0.885
36.667 3.75 2.832
37.859 1.695 1.675
37.477 2.152 -0.934
35.602 3.416 -1.969
11.535 37.751 27.688
12.856 39.675 27.587
12.402 42.032 26.908
10.408 43.422 26.599
43.023 41.671 32.566
44.936 41.351 33.669
45.865 41.053 36.109
44.51 40.835 38.304
16.578 86.254 10.269
16.446 85.161 8.025
18.122 85.382 5.978
20.111 86.507 5.678
35.77 45.456 28.755
37.881 46.418 29.571
37.433 49.111 30.268
35.137 50.122 30.217
35.591 83.11 18.775
36.929 81.802 20.256
39.29 80.991 20.271
40.87 80.221 18.281
16.892 46.677 2.263
17.504 45.075 3.651
20.03 45.822 4.792
20.972 47.938 3.808
28.945 33.159 12.271
29.008 34.279 10.334
26.98 36.515 9.691
25.694 37.611 11.113
41.312 67.032 42.231
42.118 68.445 44.719
44.369 67.457 44.864
46.321 67.726 43.9
22.369 54.489 39.686
23.524 53.504 42.238
21.819 53.102 44.218
19.18 54.402 44.161
43.135 32.055 17.635
43.009 30.316 16.421
43.824 28.027 16.277
45.526 26.838 17.882
33.035 57.096 21.303
31.463 58.218 22.627
30.11 60.421 22.189
29.563 61.899 20.852
33.518 64.125 4.295
35.268 64.26 3.33
37.909 62.918 3.845
38.541 61.956 5.625
21.502 92.538 37.802
21.944 91.442 39.575
24.293 90.781 40.789
26.296 90.656 40.175
51.085 2.167 47.598
51.593 0.831 45.617
53.014 -1.598 44.895
53.618 -3.375 46.192
59.525 86.175 45.148
58.338 85.57 43.347
57.97 86.703 40.894
57.971 88.739 40.04
11.026 15.116 14.773
12.542 16.299 13.278
15.162 15.033 13.974
15.038 13.135 15.632
21.628 50.546 43.882
22.229 51.077 46.127
22.915 49.877 48.254
23.107 47.596 48.576
13.6 72.017 24.902
13.724 74.072 23.646
12.586 76.316 24.032
10.923 77.129 25.238
6.981 86.697 28.231
6.974 87.444 25.923
6.722 85.775 23.906
7.334 83.399 23.854
48.862 41.784 36.472
48.215 39.746 34.865
49.448 37.321 34.844
48.454 36.003 36.532
58.151 52.648 51.553
58.146 52.208 49.153
57.591 50.238 47.727
56.675 48.011 48.199
41.011 44.902 24.84
40.004 46.627 26.361
37.608 47.405 26.851
35.332 46.839 25.592
39.552 55.148 2.732
41.713 55.813 3.93
43.31 54.61 4.922
43.485 53.066 6.436
38.865 25.031 8.029
39.495 24.874 10.424
41.193 23.525 11.81
43.089 21.568 11.015
24.502 57.055 48.159
23.098 55.548 47.696
20.716 55.269 46.347
19.817 57.02 44.902
28.82 31.054 35.537
28.532 28.937 34.318
26.847 27.024 34.544
25.239 26.279 36.064
50.629 23.066 58.229
50.887 21.216 56.767
52.638 19.091 56.779
54.529 18.56 57.901
17.066 77.18 0.138
18.415 78.568 2.338
18.317 81.072 2.601
17.354 82.957 1.191
37.629 61.214 61.777
36.378 62.792 62.774
37.94 65.06 63.312
40.598 65.101 62.441
2.489 13.121 39.238
4.397 12.459 37.941
6.145 10.948 38.138
7.091 10.631 40.208
19.107 39.213 23.275
20.777 39.418 24.932
20.294 41.264 26.225
19.666 43.522 25.522
26.309 90.837 23.03
24.679 92.223 21.863
25.592 94.611 21.117
26.898 96.124 22.195
10.364 36.866 49.729
10.448 34.813 50.594
12.337 32.864 50.905
14.751 32.881 50.501
2.661 45.545 44.809
3.044 44.499 46.98
3.752 42.117 47.722
2.462 40.075 46.734
50.091 95.55 17.868
52.271 95.217 18.859
53.773 92.667 18.617
53.26 90.589 18.689
26.78 84.344 20.699
28.67 85.413 21.409
30.498 84.704 23.297
31.454 83.217 22.061
6.486 19.586 21.503
6.01 20.91 19.482
7.009 22.882 18.366
9.063 24.306 18.532
47.888 35.868 33.132
48.568 38.071 31.958
47.359 40.034 31.299
44.969 40.496 31.111
22.676 -1.157 39.679
20.592 0.174 39.72
20.218 2.61 39.247
21.446 4.478 39.154
38.659 56.182 5.261
39.528 58.066 3.936
38.898 60.293 3.433
36.752 60.967 2.531
19.763 15.239 18.607
18.742 16.623 16.979
16.017 15.978 16.231
14.419 14.776 17.496
17.488 87.16 42.682
18.386 89.258 43.101
17.383 91.709 43.004
15.925 92.419 41.097
36.822 27.438 15.298
35.896 27.986 13.288
33.61 28.539 12.464
31.454 28.784 13.466
6.276 30.323 8.441
4.137 30.936 7.952
2.662 31.843 5.643
3.207 33.252 4.083
20.382 65.947 26.582
19.449 67.816 25.229
17.857 67.071 22.854
16.832 65.301 22.308
54.421 46.942 12.517
52.829 46.197 11.343
50.803 47.138 9.74
50.054 49.179 9.536
32.351 12.022 38.536
33.734 10.624 37.085
35.47 8.378 38.001
36.0 7.464 39.807
57.127 34.476 37.331
54.692 33.767 36.74
53.824 31.44 36.306
53.553 29.694 37.935
44.191 54.98 8.521
44.558 56.529 6.412
43.418 58.499 5.516
41.377 59.197 5.492
43.502 24.158 57.232
44.655 23.765 55.31
47.395 22.78 54.92
48.197 21.319 56.009
63.739 12.659 35.209
63.738 14.618 34.386
62.479 15.19 31.591
60.912 14.296 30.623
57.051 79.625 22.625
59.415 80.242 21.769
61.503 80.193 22.78
62.346 78.853 25.149
-2.35 46.266 11.831
-4.158 45.539 10.48
-4.197 44.481 7.87
-2.706 43.76 6.484
37.794 66.518 4.321
36.057 67.586 3.518
34.515 69.079 4.273
35.083 71.564 5.361
47.473 10.189 11.967
46.598 9.117 13.602
44.952 10.179 15.351
43.665 12.033 15.167
28.891 69.986 63.19
27.353 70.51 65.033
24.887 70.279 65.13
23.353 71.589 63.845
42.799 47.027 26.866
43.282 47.595 28.862
41.936 49.107 30.418
40.584 51.38 30.021
60.753 76.28 38.876
59.765 76.518 41.359
58.046 78.554 42.039
56.169 79.622 39.84
14.218 6.202 43.619
13.322 4.463 42.343
11.808 5.156 39.853
11.355 7.461 39.128
49.782 8.817 12.652
48.866 9.705 14.903
48.73 8.651 17.367
48.468 6.209 17.964
26.872 95.216 16.937
25.253 93.773 18.553
25.848 91.362 19.544
27.625 89.855 18.945
6.877 7.983 59.877
6.413 6.319 61.182
4.964 6.442 63.217
4.662 7.968 64.838
5.259 51.932 26.142
3.517 52.29 24.209
3.159 53.862 22.877
4.578 55.156 21.183
8.422 90.487 26.7
8.373 89.398 24.389
6.425 89.604 22.839
4.508 91.318 22.739
27.359 53.895 26.59
28.436 54.275 28.507
31.065 55.521 27.487
32.257 54.83 25.642
29.087 67.188 2.133
31.479 68.4 2.568
33.794 67.559 1.831
34.61 65.192 1.17
27.73 15.513 34.708
29.81 15.037 34.03
31.409 13.094 34.597
30.873 10.793 35.725
2.651 76.277 41.209
2.172 78.17 40.8
2.677 79.878 42.604
4.032 79.095 44.918
12.254 22.948 50.484
12.681 25.116 49.878
11.407 26.545 47.784
10.285 26.157 46.11
53.5 31.16 55.189
51.205 30.343 54.389
49.113 31.458 53.748
48.429 33.713 53.357
10.925 37.308 54.094
10.783 38.344 51.874
9.423 40.404 51.124
8.22 41.741 52.167
37.028 51.069 22.03
36.19 49.369 23.886
37.139 50.343 26.357
39.734 51.736 26.374
34.637 6.296 28.925
33.649 7.947 30.37
34.766 10.259 30.457
37.233 10.703 29.573
6.4 63.199 24.037
4.057 62.131 23.027
3.665 59.968 21.981
4.339 57.762 22.618
45.085 51.315 4.795
45.647 51.166 6.808
48.281 50.707 7.787
50.539 50.313 6.549
1.965 85.404 40.836
-0.336 84.902 40.019
-0.73 82.617 40.436
0.444 80.497 40.593
48.072 79.636 21.538
46.813 77.868 21.164
44.28 77.44 20.695
42.448 78.98 20.153
57.803 9.876 57.102
57.196 12.22 58.219
58.034 11.925 60.683
58.124 9.69 62.06
5.841 81.618 25.035
7.997 80.904 25.291
8.677 78.474 24.904
7.96 76.502 25.828
8.148 83.356 19.331
7.16 82.375 21.217
7.551 80.133 22.342
9.73 78.763 22.4
38.012 97.298 55.969
37.609 96.482 58.588
38.864 95.448 59.972
39.361 93.184 60.169
51.238 30.612 38.258
51.246 31.755 36.283
51.062 34.601 35.965
52.493 35.985 37.684
47.92 95.105 46.03
48.724 94.014 43.909
47.658 92.918 41.776
45.194 92.929 41.121
54.295 58.214 26.081
54.897 59.865 27.764
53.564 62.499 27.777
51.512 62.995 27.271
19.976 42.171 4.048
20.674 43.575 2.242
22.863 44.81 2.909
24.378 43.909 5.11
45.702 71.962 25.878
46.843 73.716 24.274
45.894 75.773 23.025
43.819 77.257 23.337
60.537 47.05 44.781
61.733 46.915 46.853
62.155 48.983 48.979
60.984 51.245 48.944
8.76 44.803 35.141
9.592 43.174 33.67
10.238 43.88 31.106
10.874 45.93 30.184
29.003 28.251 9.995
31.414 28.121 10.621
33.071 26.174 10.784
32.375 23.393 10.786
61.117 29.421 10.841
61.931 29.608 8.736
64.71 28.35 8.872
65.389 27.024 10.919
26.804 48.432 47.326
28.026 46.943 48.923
29.968 48.214 50.467
30.762 50.288 50.346
54.817 89.493 21.304
56.265 91.306 22.417
58.674 90.23 23.434
59.025 88.51 24.617
35.149 6.721 33.933
34.517 8.539 35.21
33.167 10.561 34.047
32.239 9.887 31.759
27.746 20.782 29.43
29.521 20.869 30.83
29.645 22.727 32.907
28.427 24.531 33.093
21.428 24.701 56.754
20.683 22.448 56.674
21.302 20.172 57.954
22.323 19.933 60.179
5.549 58.413 2.948
6.905 60.177 4.257
9.813 60.512 4.186
11.209 59.81 3.285
5.969 18.976 17.708
7.689 20.742 16.946
8.129 22.293 14.837
6.282 22.933 13.206
46.501 82.054 59.629
46.834 79.771 59.853
49.297 78.679 60.876
51.191 79.23 60.888
33.849 14.476 37.014
33.345 14.622 34.969
32.169 16.622 33.456
31.285 18.816 33.953
29.083 3.998 57.756
30.967 4.033 59.519
31.71 2.68 60.942
31.348 -0.042 61.572
41.722 67.96 49.245
41.09 68.959 47.446
40.963 71.741 46.616
42.307 73.859 47.903
9.602 66.996 7.187
8.531 65.224 6.173
8.297 62.838 6.765
9.065 61.713 8.62
30.112 88.305 18.939
30.863 86.567 20.125
32.32 84.047 19.598
32.231 82.727 17.603
3.699 68.591 42.84
3.658 70.33 44.644
3.474 72.826 44.426
2.7 74.372 43.354
29.396 14.277 31.346
31.158 13.357 32.06
33.545 13.025 30.74
34.136 13.448 28.767
25.407 22.426 51.562
24.355 22.786 53.629
22.238 23.818 54.313
21.403 25.707 54.033
8.911 60.999 43.462
9.777 60.069 45.195
9.424 61.235 47.752
7.504 63.346 48.086
43.185 19.999 17.549
42.258 21.697 15.535
40.638 23.833 16.233
42.177 25.402 16.006
13.208 41.751 29.794
14.696 39.906 29.414
16.696 40.542 27.552
17.781 42.128 27.194
50.055 96.135 23.371
51.727 96.131 21.177
54.392 95.01 21.011
55.568 93.663 22.443
18.105 4.647 47.723
17.453 5.679 45.618
16.072 4.447 43.95
14.099 2.704 44.336
20.564 17.554 59.18
22.191 16.352 58.305
23.686 14.157 58.995
23.634 12.821 61.073
38.539 75.418 39.467
36.906 75.054 41.265
34.821 75.836 41.877
33.549 77.494 41.438
8.877 35.584 53.902
11.086 34.44 53.374
11.512 31.528 53.167
10.348 29.863 53.565
0.326 11.469 55.828
-0.683 13.2 57.152
-2.183 15.399 56.057
-3.359 15.504 54.285
-0.923 38.64 3.692
0.079 36.603 4.509
2.117 35.638 4.841
4.285 36.275 3.999
1.294 23.182 30.877
-0.745 22.03 30.687
-1.825 20.396 28.653
-0.706 19.253 27.128
48.885 77.251 58.137
50.283 76.201 59.893
52.109 74.407 59.891
53.455 73.487 58.526
34.133 69.762 41.906
36.069 70.54 42.418
38.3 69.102 42.65
38.688 66.77 43.097
19.996 74.192 -1.531
21.453 74.183 -0.007
21.782 75.111 2.269
19.909 76.871 3.275
59.165 87.449 20.08
59.916 87.094 22.402
61.034 85.438 23.707
61.224 83.093 23.509
55.718 75.561 58.061
54.699 75.428 60.103
54.341 77.389 62.09
55.459 79.59 62.087
50.429 30.142 48.491
49.367 29.019 50.359
48.266 26.715 50.506
46.904 25.752 48.197
58.211 71.578 59.776
56.615 73.076 60.177
54.627 72.963 62.114
53.58 70.61 63.11
21.102 74.015 57.171
22.247 73.756 58.864
22.936 71.576 60.542
21.87 69.646 60.714
31.325 29.398 33.198
31.625 27.646 31.438
31.452 24.985 31.528
32.515 23.61 33.589
11.903 61.936 8.038
11.099 59.765 7.261
12.247 57.175 7.153
13.991 56.466 8.083
46.875 47.169 13.518
47.918 47.82 11.513
46.672 49.382 9.406
45.254 50.714 9.304
50.757 31.438 33.639
52.081 33.52 33.258
51.88 35.549 31.683
50.134 36.447 30.418
6.727 68.292 42.922
7.755 67.499 45.193
9.04 65.457 45.741
9.939 63.63 43.756
45.191 6.564 20.78
46.078 7.408 18.67
46.096 9.674 17.79
46.884 11.818 18.655
33.307 90.604 20.983
32.478 87.941 21.54
33.695 85.955 21.156
34.621 85.424 19.436
9.494 3.31 40.036
9.344 4.758 41.387
8.265 6.775 41.147
5.969 7.291 39.889
23.163 -0.25 24.233
23.891 1.087 21.974
23.832 3.05 21.273
23.828 5.493 22.252
18.208 76.768 6.128
17.229 78.427 4.56
16.292 80.928 5.244
17.756 82.527 6.933
40.676 61.8 45.83
42.708 62.288 45.051
43.764 63.598 42.873
42.5 64.713 40.879
16.156 93.805 44.242
16.316 96.205 43.969
15.882 97.582 42.075
15.102 97.104 39.909
54.878 11.775 0.698
57.254 12.4 1.471
58.265 12.771 4.024
57.219 11.371 5.726
25.703 82.999 5.878
24.359 80.754 4.714
24.909 80.922 1.956
26.541 82.758 0.944
23.158 22.015 34.62
24.851 23.809 34.344
24.777 26.034 33.187
23.07 27.454 32.098
19.551 -0.061 45.277
18.963 0.443 43.019
18.602 2.711 41.835
18.884 4.981 42.715
9.649 47.275 25.787
11.086 45.643 25.428
13.271 44.523 26.746
13.431 45.312 29.161
12.462 43.549 22.867
12.443 41.715 24.011
14.449 39.838 24.602
16.712 40.2 24.866
45.674 2.368 16.651
46.58 4.567 16.313
46.093 6.33 14.968
44.264 7.603 14.272
57.012 22.465 27.748
57.198 24.088 29.79
55.471 25.356 31.144
52.949 24.76 31.546
29.763 34.114 6.463
29.704 32.384 8.188
30.068 29.598 7.79
30.809 28.293 6.057
41.259 90.734 4.742
41.163 92.644 3.324
39.453 94.092 2.264
36.99 94.37 2.692
61.956 39.383 49.402
61.953 41.569 50.143
63.857 41.96 51.944
64.721 39.986 53.305
39.274 8.877 35.071
40.283 7.41 36.743
38.668 6.1 38.114
36.398 5.634 37.689
22.992 60.634 19.956
20.468 60.972 20.337
20.353 62.69 22.342
21.619 64.594 23.051
11.127 10.977 18.385
13.232 11.777 18.508
15.879 10.733 18.027
16.514 8.485 17.803
4.261 44.463 25.215
4.129 46.859 25.445
2.227 48.636 24.857
0.122 48.427 25.195
43.047 76.077 18.155
43.87 74.815 20.136
45.853 73.818 20.891
47.984 73.274 19.924
49.849 23.64 49.37
49.112 23.862 51.85
49.887 23.164 53.917
51.955 22.578 54.805
11.89 87.003 62.397
14.009 86.873 62.751
15.435 84.731 64.326
14.891 82.831 64.592
40.835 9.788 37.975
38.283 9.976 37.525
36.751 11.895 37.512
36.983 14.548 37.705
15.735 23.483 53.708
14.48 24.03 51.847
13.289 26.788 51.836
13.191 28.281 53.664
46.135 61.045 8.772
45.555 60.166 6.67
46.793 59.982 4.402
48.834 59.802 3.644
56.209 19.915 51.099
54.978 20.268 53.381
55.669 18.903 55.647
57.438 18.007 56.379
43.698 80.87 59.122
44.848 78.382 58.902
45.754 77.472 56.485
45.233 78.111 54.124
50.679 68.706 29.923
49.932 67.818 27.59
51.43 66.177 25.991
53.316 64.912 26.193
7.19 26.324 6.268
7.437 27.191 8.385
8.176 26.393 10.572
8.373 24.015 11.78
13.059 18.153 10.849
13.903 19.326 12.607
16.403 19.635 13.573
18.318 18.01 13.54
6.839 70.52 47.048
8.976 69.441 46.453
9.506 67.119 48.135
9.275 67.26 50.255
10.613 27.47 13.938
9.725 25.646 14.951
10.595 23.317 15.853
12.245 22.076 14.615
8.511 17.831 20.039
10.928 17.889 19.144
12.067 15.815 17.63
11.451 13.591 17.55
3.122 19.597 35.942
1.47 20.787 34.762
0.452 19.783 32.5
2.063 18.978 30.644
19.168 61.349 45.299
17.127 62.062 46.386
15.475 64.158 45.822
15.72 65.732 43.929
34.888 24.219 10.171
35.831 25.672 11.864
37.827 25.488 13.676
39.473 23.38 13.917
44.794 22.048 14.679
45.037 20.009 15.414
47.111 18.38 15.762
49.464 19.003 16.364
42.743 21.544 52.929
42.321 22.381 55.163
41.888 25.186 54.882
41.654 26.096 52.71
0.631 72.808 59.239
-1.561 74.727 59.537
-1.476 76.516 61.428
1.117 77.324 62.517
42.595 73.088 43.554
40.057 72.239 44.027
38.137 73.261 43.356
36.903 75.477 44.012
59.186 50.281 23.347
59.623 52.859 23.333
58.327 54.75 22.563
56.189 54.841 20.91
26.5 31.38 30.439
27.284 29.579 31.638
26.849 27.178 31.535
25.984 25.448 29.339
43.85 45.351 34.392
42.661 44.468 32.884
40.811 45.806 31.013
39.741 47.632 31.071
20.525 54.65 21.991
22.385 54.731 21.504
24.149 56.741 21.994
23.244 58.795 23.419
13.132 58.278 3.057
12.601 56.725 4.371
14.274 55.043 5.775
16.054 53.936 4.881
34.304 33.284 52.083
35.601 35.965 52.502
34.569 37.814 52.355
33.603 38.54 54.235
8.85 26.795 49.073
10.382 27.554 50.681
11.154 30.363 50.617
10.527 31.814 48.814
50.282 4.658 19.374
51.469 3.383 17.429
53.675 1.508 17.662
55.235 1.275 19.155
41.15 77.249 23.406
42.089 79.425 23.347
41.056 81.862 23.534
38.519 82.246 23.01
41.774 63.955 47.392
41.103 65.561 45.868
39.163 67.464 45.877
37.499 68.012 47.513
34.718 44.299 47.221
33.665 42.751 46.813
33.212 40.356 48.052
33.777 39.609 50.365
39.667 5.991 16.884
41.15 7.096 18.643
42.553 8.941 18.797
43.333 10.788 17.449
60.148 44.76 46.629
60.413 43.06 48.227
60.967 44.012 50.428
59.935 45.704 51.741
41.402 95.319 40.711
39.715 96.868 42.271
37.498 96.684 42.869
36.115 94.344 43.426
33.529 55.377 28.543
35.486 54.846 27.057
37.002 53.126 27.118
38.09 51.28 28.913
20.99 27.499 55.964
19.614 27.515 54.362
17.825 25.008 54.548
17.723 23.717 56.046
54.637 48.878 46.142
55.092 50.997 46.551
53.933 53.202 45.631
51.78 53.647 44.917
28.457 84.995 40.212
28.314 82.971 39.103
25.39 82.289 39.014
23.553 83.75 39.317
1.578 62.115 25.276
-0.086 60.398 25.581
-2.592 60.305 26.055
-4.253 61.811 25.971
3.509 93.887 57.255
2.314 94.113 59.521
0.255 94.347 60.013
-1.598 92.757 60.434
52.338 27.265 33.296
52.696 28.761 34.75
55.0 28.222 35.843
55.874 25.894 36.471
36.671 7.252 56.214
36.206 7.808 58.712
35.44 9.791 60.012
34.251 11.969 59.214
0.826 31.427 61.248
1.799 31.454 63.628
0.565 33.482 65.017
-0.601 35.354 64.294
22.19 33.945 32.73
20.702 32.228 33.048
22.002 29.854 33.209
23.882 29.382 34.031
18.07 31.439 33.896
19.645 29.895 34.92
20.287 27.348 34.814
19.329 25.756 33.513
1.157 90.107 25.726
2.676 89.638 24.124
4.216 87.636 23.218
3.568 85.372 23.708
4.582 69.75 47.982
4.161 71.773 47.105
1.61 72.906 46.827
-0.239 72.384 47.842
0.199 1.149 59.406
1.342 1.873 61.517
3.737 2.946 61.812
5.328 0.958 61.661
14.305 5.326 37.897
14.89 3.698 39.946
16.501 6.239 40.105
18.773 6.471 39.464
53.799 82.13 43.704
54.724 81.019 45.603
56.081 78.642 45.24
55.844 77.159 42.912
45.516 94.293 3.82
44.29 93.436 1.857
42.925 91.071 1.676
43.517 88.905 2.418
4.671 30.749 21.79
5.286 28.969 19.64
5.357 26.263 19.673
5.751 24.796 21.605
55.58 55.077 46.847
55.33 56.765 48.833
56.648 58.773 49.346
58.153 59.919 48.297
0.639 70.427 5.09
1.05 68.111 4.499
3.156 66.402 5.021
5.114 66.74 6.979
45.448 91.384 38.729
47.816 91.887 39.314
49.654 90.468 40.417
49.707 88.096 41.19
24.885 40.348 3.413
25.819 39.577 5.577
27.601 37.419 5.996
29.565 36.776 4.595
13.99 67.745 19.671
15.94 67.948 20.796
18.496 67.003 20.331
19.206 65.381 18.843
23.844 20.095 50.482
23.641 20.343 52.82
24.286 19.146 54.898
26.204 17.5 55.325
-0.316 7.215 4.137
1.594 7.533 2.832
1.422 9.84 1.015
-0.074 11.834 1.595
21.186 35.719 22.993
21.597 37.019 24.744
21.873 36.447 27.7
21.939 34.423 28.452
55.911 63.53 23.264
53.716 63.35 24.122
51.446 64.709 23.665
51.14 66.198 21.242
25.419 61.257 20.775
25.669 60.667 22.843
26.831 58.723 24.357
28.883 57.68 23.862
55.333 40.603 8.201
57.501 40.893 6.948
59.568 39.522 6.424
60.016 37.19 7.257
43.238 31.518 54.091
44.001 30.035 52.503
44.851 27.583 52.505
45.328 25.936 54.044
5.967 14.49 38.938
5.509 15.905 36.684
2.817 16.706 36.104
1.011 17.28 37.296
46.293 2.198 39.103
44.325 2.338 39.958
42.31 3.731 39.489
41.81 5.643 38.137
2.257 92.514 23.893
0.493 93.259 22.705
-1.89 92.846 24.18
-1.884 93.073 26.898
58.545 61.03 4.031
59.954 62.651 4.371
60.077 65.167 4.179
58.46 66.863 3.955
57.339 58.58 28.043
59.366 57.892 26.96
58.469 56.372 24.777
56.268 55.638 24.496
35.489 46.61 54.497
34.11 44.361 53.494
34.684 42.51 52.753
37.219 41.538 51.583
27.481 52.005 49.624
26.168 51.265 47.843
24.708 52.266 45.95
24.214 54.678 45.571
15.894 37.584 29.929
18.062 38.206 29.653
20.279 37.062 30.109
20.493 34.27 30.579
51.305 90.796 38.185
52.27 89.049 39.602
54.628 89.329 40.748
56.516 91.319 39.841
30.089 9.062 0.506
28.382 10.34 -1.13
26.971 12.251 -0.902
25.901 13.377 1.145
47.715 53.649 49.767
48.69 55.272 48.588
51.05 54.967 47.621
53.07 53.847 48.484
31.047 3.334 2.085
30.564 5.17 0.281
28.311 6.511 -0.409
26.29 6.474 0.481
51.491 74.03 22.729
49.408 74.994 21.169
48.98 76.717 19.663
50.441 79.149 19.701
40.2 3.02 43.681
42.048 4.115 42.315
44.567 3.515 42.349
45.063 1.012 42.767
14.696 68.293 44.675
12.701 69.311 44.853
11.384 67.914 45.956
12.155 66.353 48.288
27.867 51.424 54.954
28.808 50.467 52.758
29.869 47.757 53.142
30.714 46.957 54.668
34.553 51.448 22.263
33.076 52.545 23.565
31.057 54.289 22.796
30.789 55.643 20.889
27.946 39.526 9.406
29.147 39.553 7.466
30.751 37.449 7.025
30.893 35.444 8.783
8.495 41.836 31.082
8.836 43.288 28.796
7.33 44.514 27.372
5.225 45.319 27.683
2.495 11.304 57.439
0.69 11.7 59.082
0.346 12.371 61.086
1.757 13.893 63.012
46.339 53.719 10.474
46.959 52.608 8.844
46.86 53.688 6.502
46.954 55.877 5.723
33.506 46.179 48.669
33.448 45.761 51.005
33.226 47.175 53.233
34.475 49.241 53.325
46.203 53.799 3.815
44.692 54.236 2.422
43.457 56.385 2.299
44.102 58.718 2.921
49.896 61.787 31.251
48.135 61.552 29.961
47.569 63.816 28.185
48.278 65.904 28.331
42.646 44.359 27.018
43.036 45.015 29.568
44.966 44.338 31.164
46.694 42.719 31.064
15.021 49.732 10.188
14.862 50.779 7.97
13.341 52.543 7.195
12.402 54.566 8.201
24.789 37.392 8.454
23.758 38.407 6.934
23.726 41.334 7.184
22.663 42.117 8.911
-0.257 90.481 2.572
1.766 91.895 2.03
3.586 91.699 0.277
4.448 89.737 -0.873
0.599 62.035 7.038
1.782 63.932 5.999
4.054 64.197 6.327
5.333 64.356 8.363
21.44 8.844 11.011
22.525 9.328 13.302
24.049 7.348 14.623
23.661 4.988 14.677
51.974 15.99 17.229
50.34 14.885 16.584
47.752 14.476 17.074
46.639 16.892 18.047
52.764 41.135 31.695
50.202 40.724 32.596
48.809 42.02 33.607
48.084 44.571 33.452
11.053 11.064 38.672
8.944 11.103 37.658
7.597 12.846 36.205
7.918 14.974 35.847
10.863 40.812 34.36
10.562 40.883 32.344
11.852 39.555 30.448
12.292 37.53 30.345
0.067 71.384 61.357
-1.082 69.994 62.472
-0.839 67.576 63.534
1.001 66.363 64.053
33.088 33.558 28.494
31.062 33.793 29.468
29.33 31.887 30.464
29.707 29.724 30.78
9.558 69.833 15.295
9.136 71.032 17.381
10.31 69.46 19.297
10.946 67.357 19.565
19.256 71.938 19.636
17.315 71.21 21.086
14.999 70.548 20.518
13.806 70.184 18.521
10.639 9.997 34.352
9.265 8.754 36.121
9.348 6.403 37.37
11.392 4.576 37.102
36.35 30.555 11.509
34.777 29.715 10.04
32.201 30.476 9.807
30.893 32.037 10.401
18.339 45.123 9.593
20.042 44.811 7.902
21.074 42.538 6.542
20.121 40.325 6.329
47.676 -0.882 21.756
48.84 0.678 19.808
48.306 2.911 18.947
47.271 4.727 19.752
52.457 21.347 12.126
51.233 19.719 10.805
50.499 17.276 12.303
51.079 17.427 15.08
8.637 93.572 62.278
8.885 91.735 61.302
6.961 90.886 59.451
4.845 92.171 59.298
24.113 84.456 63.074
22.055 84.614 63.143
20.489 81.955 62.772
21.36 80.057 62.503
1.125 60.719 2.981
2.944 61.746 4.517
4.926 61.669 4.351
6.422 63.76 3.179
14.13 55.171 48.341
13.257 57.313 48.404
11.001 58.56 47.136
9.908 57.395 45.416
50.209 71.282 29.154
50.198 70.867 26.803
50.203 72.878 24.987
49.271 74.84 24.845
26.523 27.554 15.872
28.046 27.824 14.37
28.569 29.812 12.545
26.903 31.636 11.636
38.943 53.555 24.048
36.373 53.412 24.042
34.67 55.164 23.41
34.716 57.562 23.437
11.141 51.737 6.052
11.339 54.497 5.65
9.797 56.055 5.633
7.207 56.21 6.314
1.41 60.899 28.507
3.203 60.417 26.519
3.17 57.903 25.232
2.983 55.856 25.918
49.181 91.113 42.979
50.728 92.476 44.413
53.379 91.304 43.824
53.72 89.102 43.413
12.691 61.953 3.509
11.886 63.265 5.513
11.301 65.285 5.981
10.994 67.476 4.828
52.284 23.43 36.121
53.848 23.804 34.199
55.293 21.865 32.657
55.379 19.468 33.241
19.97 97.432 19.457
21.422 96.674 20.978
22.718 94.226 21.172
22.941 92.35 19.332
44.941 65.928 23.774
47.046 66.524 24.83
48.756 65.078 25.826
49.737 62.874 25.16
54.291 14.082 54.234
54.086 16.669 54.408
52.607 18.183 53.785
52.732 19.015 51.424
51.487 16.493 56.614
53.838 15.464 56.814
55.046 14.158 58.676
54.609 14.417 61.535
58.296 92.842 1.159
60.578 93.573 0.455
62.327 94.938 1.936
62.028 96.133 3.918
38.787 87.106 22.691
38.66 84.863 22.145
40.507 83.392 20.937
42.648 83.829 20.325
59.821 59.07 5.551
62.027 59.917 6.153
64.502 58.954 5.679
64.944 56.695 4.546
11.811 83.388 5.131
14.238 83.178 5.28
15.176 85.605 5.476
14.171 87.614 6.391
23.828 13.63 17.894
22.67 13.344 15.657
21.704 14.733 14.043
21.164 16.956 13.618
44.323 61.104 4.32
42.99 61.293 5.946
41.013 62.934 6.521
39.676 64.354 5.318
33.61 16.467 28.628
31.443 17.187 29.646
29.776 18.496 29.101
28.622 19.074 27.06
18.444 90.179 61.295
20.186 88.495 63.024
19.774 86.055 63.324
18.644 84.371 61.4
20.424 43.191 51.766
21.31 45.371 51.135
20.148 47.431 50.342
19.547 47.285 47.879
51.108 80.545 38.157
51.941 82.603 38.806
50.864 84.881 39.96
49.475 85.109 41.782
16.106 54.391 44.792
15.363 56.015 46.403
15.413 58.823 45.861
16.17 59.988 44.007
47.544 62.12 47.069
45.503 62.817 46.018
43.955 64.966 46.289
43.929 66.856 47.904
27.808 15.425 58.387
28.316 14.285 60.2
30.372 11.924 60.421
31.745 11.141 58.678
