13.695 48.192 36.973
16.159 48.605 37.127
17.666 49.517 38.866
17.288 51.03 40.763
23.209 55.764 30.949
21.75 56.437 32.606
19.28 55.743 33.586
17.775 53.793 32.605
52.145 14.948 2.775
50.649 14.799 0.711
49.753 12.807 -0.771
49.59 10.334 -0.115
55.735 77.599 3.686
53.654 78.937 2.993
52.882 81.037 2.896
52.701 82.454 4.212
66.311 63.112 38.63
66.622 61.271 39.338
69.323 60.296 39.91
71.234 61.011 38.881
68.412 15.34 19.272
66.354 15.766 18.741
65.314 16.862 16.967
65.581 18.915 15.996
22.344 66.178 9.5
22.265 67.822 10.809
23.124 69.996 9.519
22.567 70.344 6.931
10.098 76.56 86.826
9.97 74.662 85.235
8.17 72.63 84.795
6.521 71.858 86.168
7.952 56.224 75.716
8.791 56.3 77.998
10.4 57.872 79.121
11.59 59.901 78.369
20.109 67.075 33.494
22.043 67.875 34.758
23.259 70.17 35.147
22.555 72.245 34.528
46.476 16.021 46.114
45.55 17.189 48.211
43.172 16.725 49.363
41.288 15.882 48.335
49.987 19.177 68.061
52.274 20.31 68.129
53.847 21.285 69.725
53.873 22.098 71.949
66.007 65.495 42.708
66.871 67.401 41.755
65.929 69.826 41.672
63.665 70.833 42.395
40.24 92.144 56.303
41.114 90.421 54.695
43.481 89.273 54.542
45.606 89.6 55.93
59.996 4.581 68.052
57.846 3.86 68.678
56.579 1.708 68.442
57.303 -0.355 67.344
18.73 93.393 65.627
19.03 92.571 63.056
19.978 90.819 61.875
20.71 88.566 62.703
21.643 18.555 97.349
21.644 15.744 97.448
19.469 14.238 97.501
17.273 14.54 96.807
8.082 69.802 87.652
9.933 70.349 86.489
11.052 68.235 85.566
10.425 65.747 86.497
17.515 70.151 58.179
17.991 71.794 59.546
16.388 74.222 59.778
14.254 74.754 58.913
39.196 36.34 26.105
40.059 35.195 27.349
41.84 32.94 26.927
41.625 31.187 25.728
11.641 -0.427 59.191
10.211 0.359 60.602
9.515 2.775 61.39
10.752 4.815 61.401
44.765 74.963 52.634
43.251 76.548 51.027
41.707 75.01 49.413
40.928 72.681 49.759
64.433 46.399 16.027
66.03 45.131 15.488
68.43 46.527 15.357
69.103 48.213 14.485
37.583 67.641 71.417
36.552 69.798 72.313
36.766 72.164 71.408
37.672 73.129 69.691
31.393 66.052 80.568
31.485 65.635 78.518
29.959 66.347 76.283
28.321 68.243 76.159
30.875 67.272 69.429
30.599 65.918 71.126
30.809 67.092 73.576
30.07 69.142 74.271
43.008 14.317 53.143
41.542 12.944 51.646
39.407 11.619 51.747
37.432 11.899 53.225
-1.783 64.896 39.547
-3.847 66.374 39.198
-4.373 68.225 37.868
-2.947 70.516 37.417
4.23 48.264 83.313
3.976 50.333 84.013
4.667 51.02 86.313
6.122 50.01 88.045
45.02 58.887 33.049
43.771 56.837 31.945
44.405 54.608 31.773
44.757 52.996 33.906
20.278 41.593 17.445
21.491 41.605 15.116
20.651 40.364 13.102
18.552 40.375 12.001
55.289 79.584 39.317
57.139 79.937 40.756
59.287 78.532 41.129
59.838 76.093 39.795
51.864 24.574 88.222
49.908 23.519 88.499
47.403 25.095 89.144
47.34 27.294 88.935
37.367 36.563 51.838
35.41 37.261 50.617
34.977 38.463 48.242
36.55 39.592 46.881
61.863 24.298 46.179
61.254 24.416 43.956
60.686 26.192 42.146
61.095 28.619 42.069
73.561 38.358 64.018
73.868 40.093 62.422
75.714 42.226 63.362
75.968 42.52 65.801
31.758 64.061 69.001
33.807 63.887 69.89
35.261 66.111 70.69
34.551 68.465 70.618
34.844 59.838 76.911
33.353 61.386 77.204
32.684 63.733 75.843
33.547 64.36 73.536
15.748 33.931 13.386
18.541 34.371 13.768
19.986 36.228 12.553
19.824 37.831 11.363
24.462 100.257 76.907
26.512 100.576 75.372
26.547 101.569 73.045
24.721 101.896 71.288
25.598 43.676 20.987
25.489 44.82 18.703
27.087 45.938 17.258
29.861 45.885 17.751
39.843 86.012 80.582
37.51 86.71 80.193
35.861 85.083 78.578
36.51 82.75 77.801
41.364 54.674 57.15
42.748 56.306 58.124
43.002 57.38 60.373
41.073 57.867 62.037
10.889 55.67 56.46
11.269 53.812 58.345
10.156 51.419 58.193
11.235 49.95 56.519
66.667 84.536 73.034
67.488 84.664 71.107
66.726 86.928 69.522
65.387 88.892 70.571
14.76 15.329 60.473
12.716 14.841 60.611
11.105 13.135 61.579
11.464 11.05 62.546
38.862 74.69 23.214
40.22 72.932 22.005
42.867 73.652 22.248
43.789 75.781 22.428
61.089 90.968 65.623
61.852 90.199 67.977
63.539 88.543 68.854
64.395 86.416 67.773
57.226 99.553 3.352
55.83 98.675 2.216
54.828 99.561 0.041
55.589 101.748 -1.215
45.058 95.786 26.434
44.587 94.436 24.838
43.153 92.01 24.781
42.888 90.536 26.296
0.27 0.394 14.034
-0.414 -1.631 14.223
-1.565 -3.483 12.482
-2.165 -3.554 10.282
70.407 15.723 85.032
72.366 17.466 84.356
72.197 19.174 82.853
71.855 20.928 83.115
56.607 89.799 68.566
58.247 90.596 66.88
58.005 92.105 64.856
56.04 93.717 64.148
6.742 5.576 66.583
7.399 5.669 64.219
9.208 6.506 62.687
10.923 8.07 62.992
24.651 22.658 3.814
25.253 21.349 5.717
25.499 18.95 6.365
25.496 16.784 5.323
52.281 36.772 63.113
52.744 37.445 65.598
53.676 39.023 66.627
55.821 39.244 66.288
30.695 18.025 76.78
31.79 16.623 74.99
32.139 14.169 74.804
32.811 12.448 76.185
46.425 59.022 2.843
47.403 56.813 2.484
46.419 54.48 1.706
44.667 53.781 0.231
15.78 8.863 4.831
16.125 10.868 6.44
18.697 11.693 6.472
20.31 11.707 4.518
43.502 39.237 21.404
42.157 41.305 21.575
40.488 40.767 24.124
40.027 38.561 24.963
9.857 54.935 60.438
10.924 56.523 59.192
12.165 58.261 60.702
11.686 58.964 63.181
19.545 86.098 56.354
18.416 84.974 57.991
18.08 82.406 58.513
17.553 80.611 56.807
11.306 46.287 56.756
10.642 45.775 58.503
9.939 47.388 60.24
8.593 49.469 59.847
70.219 76.061 16.547
70.283 74.384 18.193
68.838 71.762 17.214
67.534 71.72 15.569
39.506 7.702 25.438
41.608 7.082 24.231
43.919 6.077 24.981
44.902 5.651 27.047
60.955 5.354 38.416
63.348 5.361 38.739
65.123 7.655 39.418
64.637 9.805 40.307
33.322 52.432 84.017
32.211 53.32 81.693
31.57 55.628 80.733
31.993 57.864 81.517
26.942 54.146 13.128
25.691 55.548 11.159
26.128 57.732 10.113
25.624 59.621 12.131
57.002 70.254 3.907
55.575 70.821 5.619
53.191 69.098 5.523
53.252 66.749 4.906
12.899 33.095 38.179
14.866 33.206 36.982
15.379 35.859 35.922
14.636 37.964 36.761
42.522 4.987 22.856
44.368 3.262 23.425
44.598 0.892 22.938
42.623 -1.001 23.113
43.477 85.878 46.84
42.911 83.498 47.546
44.386 81.087 47.146
46.278 81.103 48.694
22.775 34.937 77.626
22.751 34.266 75.258
24.455 31.979 74.846
25.572 30.639 76.652
66.169 5.209 10.881
67.508 5.769 12.571
67.53 8.061 14.185
65.701 9.904 14.345
22.743 61.354 32.488
21.751 60.248 34.596
19.342 59.135 34.976
17.769 58.058 33.39
68.008 88.729 42.561
66.579 87.544 41.334
65.829 84.957 41.271
66.065 83.348 42.176
27.562 59.756 5.717
25.415 58.897 5.922
23.803 57.424 4.213
24.065 56.494 2.477
63.738 34.154 42.012
61.701 35.196 41.336
60.441 37.429 42.016
61.739 39.388 43.523
18.889 57.78 3.852
20.584 56.928 5.268
22.593 55.292 5.017
22.667 53.399 3.612
19.125 48.363 11.283
19.803 47.312 13.272
19.439 44.51 13.252
17.848 43.313 11.817
63.279 16.81 13.11
65.503 17.91 12.874
67.814 16.62 13.62
68.292 13.706 12.819
44.246 15.533 26.992
43.552 13.626 25.517
43.348 10.998 25.929
44.051 9.567 27.872
13.964 90.112 82.056
11.936 88.482 82.496
10.961 86.673 81.208
11.463 85.555 79.004
61.994 60.418 39.664
63.666 61.754 41.14
64.858 63.933 40.619
63.912 66.101 40.087
24.872 51.212 7.19
23.083 52.723 7.775
22.823 55.367 7.715
24.327 57.196 7.952
18.852 12.954 10.219
18.073 11.72 9.001
19.52 8.733 8.493
21.81 8.779 8.927
8.558 24.085 80.687
6.186 24.106 80.949
4.852 21.828 81.254
5.517 19.385 80.547
66.861 57.394 48.144
66.311 56.46 45.983
67.617 55.192 44.041
69.358 53.841 44.231
48.855 31.375 0.918
48.355 31.039 -1.372
49.179 29.145 -3.316
50.704 27.269 -2.978
49.165 52.55 90.977
47.325 53.115 92.283
45.768 50.807 93.01
46.382 48.502 92.541
20.577 48.378 37.14
18.459 47.251 35.913
17.123 45.155 36.336
15.782 45.766 37.981
23.48 100.065 4.328
25.998 100.378 3.846
27.283 98.224 5.426
26.499 96.325 5.709
0.649 11.842 17.104
-0.311 14.166 17.419
-0.367 15.384 14.937
0.558 14.834 13.083
33.351 23.777 49.374
34.841 21.641 49.339
34.269 19.408 50.15
31.373 18.705 50.676
11.659 59.029 81.665
10.513 58.686 83.299
8.756 56.626 83.226
8.796 54.617 81.787
52.291 54.525 3.624
51.108 54.919 2.244
49.113 53.448 1.052
48.035 51.617 1.841
24.539 101.776 79.589
26.182 102.15 78.455
27.741 100.534 77.794
28.567 98.442 78.735
64.718 78.82 42.214
65.281 76.52 41.744
66.753 74.692 42.435
68.636 74.79 43.84
36.89 52.083 74.126
34.816 52.521 74.819
32.753 50.636 75.29
33.242 48.176 75.583
12.716 47.339 60.775
12.812 45.185 59.863
10.981 43.366 60.915
9.829 43.443 62.744
0.369 65.44 24.99
1.097 65.123 22.532
3.455 66.045 21.522
5.609 66.553 22.471
32.532 40.421 78.47
31.088 38.963 78.176
30.677 37.404 76.086
32.192 37.14 73.858
27.497 7.263 69.339
28.26 8.871 71.633
29.468 7.429 73.066
29.606 4.737 73.199
38.971 28.3 90.23
40.923 29.373 90.88
42.294 31.405 89.848
41.347 33.353 88.74
53.33 100.009 26.569
51.129 100.706 26.719
49.781 102.662 26.98
50.995 105.261 27.113
68.903 14.167 78.701
70.135 13.558 80.894
71.343 11.757 81.839
72.125 9.829 80.864
68.338 81.224 39.803
65.923 80.286 40.255
64.809 78.11 39.642
65.413 76.113 38.449
17.577 64.146 59.681
16.506 65.019 61.31
16.227 67.74 62.237
17.789 69.517 61.349
36.991 49.861 77.504
35.023 51.022 78.622
34.136 51.322 80.967
35.122 50.901 83.052
55.643 54.283 90.383
54.454 55.927 89.783
54.102 57.71 91.365
55.615 59.152 91.911
64.905 63.79 19.231
66.423 63.439 17.553
67.552 65.896 16.373
66.628 67.27 15.393
65.412 37.703 13.935
66.452 39.669 15.009
66.315 42.204 14.637
66.06 43.439 12.903
20.194 101.122 34.568
20.383 98.604 33.686
18.265 96.86 33.218
16.366 96.851 33.337
34.136 11.168 70.66
34.529 10.026 72.774
33.359 7.656 73.499
31.906 6.217 72.18
14.096 87.631 84.042
13.571 85.95 82.701
12.629 83.532 83.893
12.75 82.628 85.765
66.926 101.865 38.972
67.957 103.874 38.934
67.094 104.993 40.97
64.555 105.67 41.666
51.913 42.464 17.766
49.908 42.948 18.765
48.778 43.041 21.187
49.467 43.206 23.177
63.16 100.728 68.095
62.067 98.185 68.044
59.688 98.277 67.498
58.402 99.487 65.976
62.465 23.539 36.873
61.802 24.055 39.248
62.902 25.397 40.969
64.177 27.662 40.895
68.372 36.654 -1.869
69.809 36.407 -3.518
71.57 34.611 -3.765
72.88 33.095 -1.907
62.351 17.566 69.363
60.385 17.335 68.214
59.477 16.558 65.896
60.845 15.89 63.691
3.557 67.645 19.143
1.525 68.647 18.464
-0.748 67.1 18.227
-1.072 64.709 18.39
45.702 -0.485 20.969
46.319 -2.451 21.765
48.08 -1.836 24.306
48.131 0.264 25.131
1.809 73.817 13.216
2.845 74.449 14.955
2.061 72.813 17.073
1.3 70.986 16.99
1.259 100.875 44.744
-0.955 101.895 44.735
-1.554 104.371 45.697
-2.029 105.331 43.661
3.216 35.794 63.91
4.519 34.235 63.891
6.272 34.496 61.838
6.103 35.143 59.731
59.334 7.538 69.584
57.526 6.994 69.317
55.414 8.32 69.328
54.928 10.268 70.654
45.89 15.78 24.655
43.744 17.532 25.171
43.653 19.653 25.152
44.43 20.428 27.623
21.99 76.392 39.196
23.619 74.866 38.421
23.073 72.188 37.926
21.173 70.957 38.969
44.72 46.575 92.137
46.287 44.946 92.789
47.291 42.906 91.512
46.018 41.301 90.062
3.82 10.894 -2.517
2.447 11.081 -4.237
0.983 9.476 -5.542
0.458 6.869 -4.999
35.771 43.262 44.047
34.151 43.289 45.903
32.192 42.294 46.679
31.115 40.38 46.338
11.502 24.369 63.519
10.459 26.049 61.622
9.301 28.218 62.035
9.738 30.115 63.468
66.144 22.09 47.682
64.333 21.2 46.486
61.813 20.624 47.21
60.994 19.763 49.451
52.249 97.519 23.236
51.721 98.881 24.841
49.465 98.604 25.525
48.238 96.265 25.839
65.619 104.739 48.243
65.948 103.588 45.628
66.496 101.553 45.086
65.91 99.203 45.457
15.652 82.68 38.213
15.858 81.202 36.159
16.305 78.562 35.864
15.878 76.747 37.865
54.879 104.223 2.14
53.367 102.754 0.903
51.959 100.42 1.582
51.5 99.536 3.522
24.782 35.149 80.105
25.878 35.677 78.445
27.973 36.72 78.003
29.939 37.302 80.073
69.151 4.597 87.962
70.433 3.201 86.757
71.046 0.498 87.293
69.897 -0.993 88.628
12.954 16.855 58.642
10.81 17.437 59.328
9.623 19.552 60.188
10.459 21.736 60.799
10.035 80.118 88.544
10.707 82.234 87.327
9.144 84.199 86.727
7.147 84.823 87.092
17.729 47.229 33.307
15.461 46.425 34.228
13.995 44.326 33.945
14.59 42.204 32.619
61.785 26.215 19.437
61.867 24.722 21.355
61.113 22.163 21.561
60.221 20.778 19.287
34.389 3.309 69.571
32.152 3.581 70.664
29.592 2.944 69.505
29.031 3.251 67.429
0.37 98.868 49.262
-1.319 99.49 47.861
-1.627 98.81 45.205
-0.963 96.55 44.255
15.127 59.523 35.804
17.094 57.959 36.517
17.279 55.429 36.555
16.267 53.525 35.129
61.53 34.788 37.15
61.886 36.479 39.061
61.985 39.064 39.179
61.951 40.751 37.314
37.22 33.069 31.755
39.365 33.644 30.339
40.78 35.698 30.116
40.893 37.782 32.053
39.965 71.135 25.882
42.28 70.21 25.915
42.939 67.327 25.953
41.714 65.37 25.581
28.497 11.72 4.951
27.349 10.479 7.251
27.302 8.207 7.858
29.185 7.499 8.848
34.161 96.845 74.061
35.372 95.901 75.642
34.876 93.236 76.571
34.388 91.62 75.376
37.365 92.536 77.613
36.543 90.644 78.183
37.244 88.175 77.823
38.983 86.908 77.622
66.186 90.722 43.689
65.278 92.15 42.098
65.334 94.673 41.66
66.343 96.496 42.857
27.063 74.556 7.549
27.534 77.188 7.476
29.25 78.175 8.873
31.674 77.491 9.41
42.499 32.325 31.119
42.035 30.485 30.479
43.693 29.058 28.471
45.656 29.537 27.527
33.599 34.994 55.554
35.717 35.576 55.543
36.654 37.997 54.119
34.835 39.042 52.6
28.595 3.89 11.982
29.258 2.384 10.173
27.92 2.663 7.962
26.384 4.359 7.555
-1.691 28.342 20.435
-0.643 29.944 19.347
0.909 29.591 17.767
2.715 27.975 17.373
55.125 65.375 91.095
54.55 65.186 93.313
54.475 66.812 95.366
55.18 69.274 95.348
57.72 86.902 69.597
59.508 86.108 69.658
60.899 85.533 67.186
60.015 84.811 65.341
64.009 91.507 39.448
64.976 90.269 37.897
64.712 87.251 38.626
62.979 86.335 39.563
23.319 2.992 37.075
24.434 4.013 34.889
23.853 5.395 33.181
22.236 7.39 33.057
16.027 65.984 85.531
14.022 67.044 86.462
13.379 67.818 88.741
14.812 67.454 91.027
20.65 87.742 60.236
18.845 87.703 58.928
17.164 89.71 58.525
17.369 92.374 58.286
48.17 62.748 95.191
50.331 62.881 95.352
52.034 64.459 94.146
51.834 66.48 92.954
15.637 84.113 27.966
16.811 85.363 29.148
17.158 88.087 29.796
15.553 89.742 29.566
12.744 94.462 59.278
13.488 92.224 59.73
13.914 90.035 58.579
15.12 89.823 56.352
27.058 1.468 43.949
29.159 0.866 42.222
29.48 1.43 39.745
27.63 2.226 38.207
3.931 45.781 84.811
2.926 46.487 86.991
0.883 44.759 87.695
0.649 42.34 86.055
36.754 102.071 72.906
35.298 100.843 74.719
35.594 98.673 75.952
37.896 97.173 75.856
44.251 9.046 0.728
45.75 7.171 0.844
47.957 7.494 2.433
48.501 8.785 4.235
63.927 84.056 73.73
63.843 85.474 72.516
62.972 85.179 69.701
62.131 83.158 68.871
59.453 19.94 69.023
57.596 21.333 68.289
55.248 20.175 67.452
53.999 18.332 68.338
55.79 89.529 89.283
55.437 89.437 91.703
56.361 87.745 93.445
58.499 86.449 93.46
31.569 9.367 77.247
33.216 7.853 76.125
33.114 5.011 75.699
31.018 3.755 75.712
72.386 90.632 9.437
71.652 89.328 11.135
70.931 91.087 13.306
70.732 93.549 13.28
68.415 2.824 35.889
67.882 4.976 36.32
65.777 4.585 37.911
63.931 2.927 37.416
20.366 87.314 32.032
18.68 88.673 32.066
19.23 91.072 33.384
21.803 92.17 33.514
60.201 12.383 65.353
58.227 11.476 65.447
57.416 8.822 65.523
58.497 6.962 66.727
35.904 27.852 53.51
34.689 26.092 52.162
35.372 23.434 51.741
36.595 21.863 52.885
27.769 21.149 74.166
29.412 19.936 72.697
29.817 17.404 72.165
29.304 15.477 73.917
38.481 79.828 30.003
40.593 79.55 28.486
42.182 81.159 27.484
42.064 83.371 26.746
26.055 72.125 13.917
26.917 72.716 11.558
27.225 75.199 10.523
28.481 77.307 11.715
48.405 86.259 27.689
46.259 85.608 27.522
44.926 83.454 28.34
46.03 81.018 28.828
47.224 28.625 68.04
48.759 26.433 68.53
51.234 26.468 68.634
52.95 28.32 68.345
28.765 97.142 7.707
26.738 95.826 8.394
26.23 93.358 8.83
27.312 91.462 9.18
33.55 18.531 52.854
35.199 19.676 52.87
36.235 17.626 51.864
37.967 16.023 53.212
51.472 64.221 54.161
49.433 65.927 54.31
46.787 64.87 54.698
46.122 62.828 55.543
59.143 66.857 64.609
58.896 68.593 66.456
59.57 70.9 66.792
60.694 72.486 65.559
58.143 16.481 70.948
57.773 15.431 69.08
59.561 13.088 68.222
60.276 11.743 69.888
65.202 100.481 15.778
66.448 98.653 16.745
65.241 97.194 19.021
63.264 97.79 20.081
16.075 70.202 86.436
13.489 70.068 86.422
11.64 72.542 86.438
12.308 74.85 87.373
40.151 93.504 53.975
38.888 92.963 52.194
37.885 94.157 50.108
38.144 96.797 49.635
45.779 33.589 26.521
45.838 35.904 25.323
43.521 37.262 25.34
41.673 37.161 27.048
66.064 4.509 18.022
66.875 6.041 16.693
68.967 7.466 16.396
71.244 7.503 17.912
44.358 74.118 72.567
42.029 75.481 73.22
41.189 75.864 75.525
42.056 75.814 77.868
21.858 3.314 31.843
23.067 1.832 33.499
23.112 -0.888 33.92
22.198 -2.494 32.85
48.878 13.262 90.2
48.0 15.25 90.424
49.7 17.451 91.062
52.143 17.749 90.641
16.091 91.926 63.878
16.967 90.677 62.083
15.418 89.111 60.573
13.563 87.543 61.068
67.998 35.41 85.671
70.385 34.487 85.805
71.442 32.771 87.577
70.469 31.268 88.999
68.936 10.31 86.075
69.527 12.163 85.125
70.402 14.197 87.302
70.483 13.276 89.33
46.284 48.798 27.904
46.44 48.108 25.618
48.152 45.926 24.48
49.854 44.714 25.512
54.948 73.169 89.845
54.49 75.397 90.595
55.034 77.761 89.529
56.893 78.336 88.076
6.771 37.724 59.241
6.031 39.373 61.22
7.264 41.752 61.298
8.601 43.185 59.415
39.605 68.83 46.991
41.426 69.473 48.452
42.979 68.171 49.627
42.385 65.623 50.929
47.648 36.529 92.21
47.839 34.296 93.736
45.833 32.981 92.898
44.629 33.143 90.719
49.25 44.012 93.047
47.973 45.403 94.838
48.434 47.5 96.027
49.982 49.209 95.67
2.743 9.969 13.909
0.695 9.306 15.167
-1.467 10.582 14.328
-2.34 11.157 11.788
72.071 81.652 12.826
73.317 83.365 13.359
73.672 85.862 12.419
73.141 87.133 10.785
48.643 5.525 86.603
49.478 5.131 88.61
51.599 4.918 89.413
53.798 3.969 87.925
31.372 1.382 44.054
32.388 -0.327 45.282
35.112 -0.867 45.792
36.999 -0.249 44.851
59.273 14.649 44.298
61.525 14.391 45.544
63.676 14.025 43.734
63.621 12.648 41.383
23.208 55.006 13.234
22.785 53.697 10.629
22.132 51.534 10.165
21.549 49.564 11.347
9.349 11.489 56.289
10.89 9.754 57.562
11.657 7.608 56.913
10.412 6.497 57.553
45.406 22.806 26.442
46.334 24.986 25.796
46.287 26.839 27.27
46.393 27.367 29.588
22.411 56.454 37.236
20.556 55.552 36.013
19.259 53.487 36.171
20.514 51.59 36.788
64.234 86.609 47.056
64.754 86.323 44.958
64.291 87.721 42.686
63.745 89.88 42.16
59.423 92.145 0.187
57.677 91.128 0.815
55.308 92.165 -0.649
54.973 94.261 -1.636
39.688 75.066 78.034
37.867 75.444 77.237
36.393 77.721 76.991
36.887 79.809 77.884
23.53 75.716 9.593
23.843 73.789 11.144
25.139 71.909 9.803
25.707 72.29 7.405
41.835 58.408 27.889
44.344 57.85 27.9
45.438 55.363 27.738
44.456 53.096 29.02
0.467 15.679 76.413
0.806 15.702 78.579
1.817 18.043 80.445
2.669 19.766 80.177
19.37 28.411 34.849
19.015 26.876 36.593
18.764 24.14 35.58
18.305 23.794 33.257
7.531 87.392 88.17
7.792 89.032 86.479
6.83 90.763 85.422
4.22 91.168 84.754
6.942 94.645 84.312
4.884 96.263 84.965
4.727 98.62 85.73
5.875 100.251 86.186
7.26 8.831 91.33
6.755 9.003 89.434
8.421 7.433 88.632
10.885 7.754 88.445
51.069 24.547 -1.66
48.655 25.395 -1.444
47.031 23.788 -1.872
46.795 21.34 -1.574
25.914 82.684 2.039
26.048 81.519 3.934
27.865 80.063 5.198
30.458 79.951 4.748
14.779 39.106 31.257
14.239 36.79 32.186
14.644 34.605 31.494
15.999 34.523 32.771
26.914 69.678 13.482
25.281 69.471 11.749
25.151 67.937 9.759
25.907 69.218 8.476
11.541 99.073 61.666
9.583 100.075 63.486
7.97 101.742 63.193
7.432 103.166 60.596
43.682 24.85 2.667
45.008 24.659 1.057
46.508 26.535 -0.303
46.957 28.948 0.323
52.383 93.702 89.501
52.697 92.129 91.573
52.811 89.679 92.026
52.076 87.6 90.538
40.691 77.263 46.487
42.592 77.493 47.941
43.21 79.539 49.5
42.043 81.445 50.49
6.147 11.817 87.106
6.127 9.458 86.934
3.464 8.794 86.195
1.913 9.832 85.06
30.43 27.196 53.83
30.82 26.286 51.95
32.411 24.579 51.836
31.506 22.134 52.765
1.472 13.783 37.573
-0.366 14.258 39.011
-1.675 15.989 39.763
-2.224 18.286 38.797
67.235 24.919 13.051
67.836 23.201 14.39
65.743 21.738 15.981
63.485 22.408 16.237
29.376 2.947 36.044
27.501 2.829 34.5
26.563 3.965 32.786
26.659 6.243 31.82
45.465 74.567 46.367
46.283 73.786 48.612
46.157 76.128 50.256
45.884 78.243 49.74
48.016 73.348 1.845
49.745 74.846 0.909
49.829 77.617 0.306
48.109 79.074 0.058
8.91 48.72 62.671
11.106 49.688 62.516
12.144 51.808 62.558
11.198 54.15 62.965
53.4 8.873 92.414
50.835 7.842 92.096
49.388 7.822 90.15
49.623 8.735 87.72
30.765 104.408 8.178
28.394 103.442 7.506
27.206 101.442 8.603
27.867 99.555 9.727
65.372 27.307 86.339
67.121 26.255 87.62
68.484 27.555 89.551
68.322 29.515 90.512
57.736 39.309 40.677
59.25 37.762 39.781
59.262 35.261 39.21
57.587 33.597 39.109
-1.533 11.443 41.667
-2.93 12.779 42.451
-2.352 14.221 45.064
-0.214 15.647 44.966
32.955 5.942 50.731
34.169 6.966 49.163
36.293 9.071 49.418
37.973 9.348 50.826
20.238 26.919 28.309
18.845 26.268 30.104
18.481 23.575 30.622
19.82 21.608 30.681
7.848 59.253 20.596
5.984 58.992 21.707
4.41 56.501 21.64
5.054 54.433 20.716
36.139 101.313 41.677
38.198 102.412 42.027
39.457 100.954 44.272
38.799 98.629 45.137
38.838 88.352 55.647
40.219 87.866 53.727
40.066 88.278 51.214
38.165 89.141 49.913
6.421 27.412 81.148
5.193 28.457 82.456
3.985 27.536 83.788
4.265 25.369 85.398
42.186 70.59 20.653
41.877 68.883 22.277
41.298 66.35 22.158
40.359 64.968 20.474
4.746 58.833 86.811
3.772 57.937 85.1
2.362 55.255 84.634
2.283 53.483 85.807
63.638 59.144 71.982
62.131 59.465 70.612
62.182 58.594 68.249
63.898 58.167 66.662
43.008 83.008 33.415
43.594 82.795 31.118
43.008 80.362 30.087
42.063 78.422 31.759
22.406 73.871 14.425
23.353 72.211 13.23
22.752 69.643 12.969
21.226 68.426 13.462
18.127 29.944 37.161
16.842 31.589 36.787
17.235 33.54 34.824
18.726 34.256 33.862
62.797 84.289 44.333
63.241 84.25 42.039
63.034 81.799 40.521
62.312 79.874 41.338
24.567 50.186 9.575
22.616 48.821 8.801
22.126 46.336 8.96
23.212 44.62 9.911
69.271 91.345 21.565
70.687 91.044 19.582
71.901 88.981 18.728
71.484 86.545 19.548
38.383 55.873 47.013
39.249 54.62 48.581
41.074 55.341 50.172
42.764 57.316 49.922
47.811 98.983 1.169
50.347 98.146 1.069
51.246 96.212 1.73
50.592 93.8 2.464
31.845 36.659 50.805
32.534 35.059 52.879
31.272 32.973 53.844
28.917 32.109 53.376
34.662 65.889 77.351
33.058 66.643 75.69
33.394 67.84 73.315
33.127 69.874 73.659
2.393 45.778 -1.218
4.003 45.934 -2.721
4.097 48.458 -4.477
3.21 50.705 -3.751
45.348 89.689 28.369
44.041 87.504 28.074
43.734 85.644 29.783
44.437 85.51 32.58
46.058 45.807 4.957
45.697 45.501 2.778
45.271 43.223 1.221
44.541 41.002 1.747
40.407 90.652 24.715
42.611 88.696 24.316
42.46 86.238 24.403
42.197 86.114 26.786
60.603 16.822 43.806
62.99 16.992 43.03
64.374 19.48 43.261
63.555 21.273 44.097
57.334 17.779 45.592
59.565 18.533 45.821
61.515 17.826 47.57
61.565 16.985 49.617
47.72 80.882 22.638
47.102 81.457 25.181
45.182 80.449 26.454
43.85 78.225 26.702
50.456 6.484 24.044
48.22 7.121 23.584
46.382 5.182 23.072
46.79 3.01 22.318
27.319 102.288 44.271
27.476 102.298 42.124
26.657 100.217 40.329
25.084 98.545 40.721
66.017 12.27 47.396
65.694 12.687 45.094
65.49 10.867 43.114
64.921 8.957 42.73
44.855 97.693 18.237
44.967 99.125 20.534
43.613 101.159 21.017
42.287 102.776 19.7
44.597 70.147 21.763
44.372 69.816 23.965
44.728 71.233 26.342
44.742 73.877 26.083
5.659 2.064 89.442
3.922 2.335 87.909
2.518 4.201 86.849
2.806 6.517 87.111
47.918 86.558 1.449
50.475 87.274 1.666
51.631 89.37 1.278
50.284 91.879 0.657
43.381 9.874 51.942
41.531 10.329 50.386
40.447 9.42 48.51
40.58 6.944 47.407
30.345 89.789 81.842
31.75 89.545 80.255
33.57 87.782 79.412
33.991 85.379 80.427
59.963 42.371 36.646
59.887 41.33 38.615
60.625 42.568 40.768
60.94 45.156 41.197
17.65 21.13 34.507
17.071 18.777 34.203
18.875 17.852 32.325
20.996 19.393 31.68
22.799 19.027 8.055
21.718 17.161 6.906
21.793 14.712 7.035
22.403 13.068 8.612
46.124 38.944 4.502
44.629 38.036 2.571
44.085 35.355 2.122
45.496 33.36 2.228
48.577 61.879 5.844
50.027 64.066 4.643
50.866 65.959 5.872
49.288 66.65 7.158
61.457 17.621 15.029
62.136 19.763 16.362
62.786 20.169 18.567
62.927 19.281 20.516
41.914 17.002 52.055
39.894 17.785 52.172
38.732 20.318 51.973
39.705 22.383 51.415
29.091 31.425 16.273
26.596 31.615 15.622
25.293 33.722 15.467
26.132 36.075 15.721
62.677 60.827 65.846
61.983 62.079 67.699
60.944 64.616 68.004
61.118 66.381 66.296
18.553 50.326 6.42
20.359 51.657 7.968
20.576 53.909 8.341
19.706 56.036 7.546
57.336 24.041 40.305
59.135 25.598 39.797
59.295 28.272 40.154
57.584 29.953 39.583
51.742 6.205 27.496
49.915 5.507 26.302
47.38 6.238 26.02
46.071 8.031 26.921
27.982 0.911 77.945
26.012 0.648 76.251
27.17 0.21 73.868
29.823 0.334 73.86
38.565 31.215 27.984
40.664 29.918 28.069
41.218 27.586 27.812
39.416 25.512 27.607
29.746 59.694 74.445
31.854 59.512 75.173
33.064 58.054 77.069
32.44 57.046 78.656
53.064 0.718 70.502
51.933 2.904 70.684
53.757 4.652 70.383
56.151 4.615 70.757
62.246 49.691 46.964
62.709 50.544 44.605
63.679 52.206 43.83
63.396 54.389 44.375
9.584 61.246 21.551
6.985 61.254 22.89
5.015 62.993 21.96
5.358 64.733 20.163
66.895 9.186 18.9
68.489 10.219 17.568
67.822 12.482 16.119
65.942 14.009 16.352
64.769 64.578 22.014
66.895 65.184 20.719
69.007 66.766 21.886
69.102 67.48 23.846
66.783 24.707 46.801
64.712 24.013 45.813
63.777 23.896 43.271
65.157 23.733 41.361
3.361 57.029 24.102
2.755 59.366 23.366
3.293 61.631 23.752
5.81 62.36 25.006
38.174 78.383 26.986
40.752 78.054 26.151
42.287 76.2 26.215
41.742 73.473 26.19
24.886 100.126 32.707
23.897 98.488 34.555
23.236 96.226 34.433
22.186 94.826 32.686
59.676 22.222 46.983
58.19 20.976 45.517
57.532 22.386 43.318
58.243 24.713 42.856
67.397 7.786 37.454
67.518 9.497 39.322
67.934 12.132 39.161
66.443 13.182 36.795
63.754 82.384 66.827
63.68 80.738 68.089
64.443 80.446 70.548
66.187 82.113 71.659
45.999 69.594 58.989
45.348 68.797 57.013
47.443 67.775 55.817
49.785 68.533 55.788
22.468 26.674 6.201
23.838 27.999 7.455
24.141 27.688 9.975
22.675 27.425 11.62
8.909 41.5 38.753
10.663 40.435 38.072
13.124 41.246 36.817
14.263 43.27 37.175
60.862 66.077 73.393
62.523 63.859 72.938
61.019 61.949 71.275
58.843 61.542 71.272
26.385 31.127 5.412
24.377 30.605 7.263
23.043 31.958 8.852
23.066 34.558 9.049
22.993 100.138 37.288
22.008 101.793 36.437
24.178 103.83 36.662
25.56 103.946 38.497
14.148 6.335 10.471
14.889 8.54 10.121
16.901 8.634 8.006
17.326 7.387 6.622
65.677 59.136 46.108
67.74 58.986 45.107
67.763 59.923 42.539
67.685 61.792 41.846
32.285 90.043 77.007
34.254 88.842 77.021
35.177 86.557 76.043
33.741 84.464 75.363
7.841 80.518 60.187
9.2 78.592 59.226
8.891 76.045 59.537
7.607 74.807 61.039
63.319 39.972 41.241
62.862 41.939 42.265
63.6 44.448 42.133
65.155 45.855 41.059
38.95 39.864 60.099
36.683 39.284 59.967
35.817 39.644 56.974
36.878 40.197 55.285
44.258 96.72 50.52
43.275 95.202 49.379
42.222 92.899 50.239
42.464 92.053 52.64
70.196 55.118 18.389
70.681 57.477 18.332
70.265 59.519 20.162
70.646 59.276 22.045
9.205 60.503 79.568
8.493 58.921 80.695
6.912 58.613 82.868
6.282 60.6 84.269
13.415 42.333 59.601
12.098 40.557 59.087
12.083 38.008 59.819
13.911 36.668 61.095
14.056 43.136 53.263
12.486 43.401 54.977
13.118 43.682 57.22
15.02 44.703 58.385
22.864 8.365 25.77
20.853 8.791 26.847
21.148 11.221 28.101
23.029 13.107 27.72
40.273 42.969 20.434
39.577 42.778 22.483
38.047 44.292 24.159
37.158 46.498 23.316
54.093 43.639 69.713
54.211 46.243 68.99
55.029 48.084 70.206
56.034 48.596 72.577
53.012 2.974 1.603
51.836 4.558 0.32
50.518 6.9 1.162
51.025 8.176 3.299
3.801 63.188 18.304
3.037 61.934 20.036
3.064 59.135 20.464
4.215 57.388 18.487
46.65 48.893 22.855
47.951 49.934 24.282
47.402 52.172 25.818
45.166 53.345 25.753
60.002 78.157 44.148
62.016 76.988 42.676
63.278 75.148 42.957
62.917 73.146 44.286
45.571 78.965 30.22
43.606 77.846 29.48
43.015 75.618 29.118
44.165 73.399 28.586
40.678 84.636 48.017
40.178 86.677 49.126
41.483 88.878 47.986
42.246 89.127 45.725
69.392 40.47 84.256
71.081 38.421 85.087
71.685 36.114 83.893
70.954 35.119 81.934
2.6 103.594 16.753
1.008 101.732 16.624
1.049 99.627 15.664
2.546 97.928 15.318
37.068 53.105 76.816
35.916 53.426 78.645
35.394 55.72 80.197
35.12 58.019 78.895
60.5 22.904 66.978
61.635 20.958 67.406
63.364 20.208 69.156
63.347 21.376 71.654
70.101 94.484 21.729
69.02 96.2 20.242
67.513 98.043 20.435
65.939 98.578 22.318
5.297 67.006 90.426
6.298 66.734 88.089
5.632 64.745 86.316
3.23 63.412 86.186
5.585 20.572 60.376
5.701 18.517 60.896
7.058 16.715 59.442
8.339 17.508 57.508
17.01 87.018 55.712
16.122 84.944 56.325
13.989 85.123 57.863
12.276 86.466 58.374
49.746 26.168 71.225
50.481 27.819 71.596
51.289 29.554 74.057
51.358 28.464 76.168
25.026 59.555 37.219
25.822 61.186 36.11
27.42 63.468 36.474
27.283 64.768 38.347
60.192 43.854 44.5
59.837 45.757 43.52
62.127 48.065 43.647
63.727 48.029 45.024
41.809 69.921 33.044
40.967 70.607 30.995
41.64 73.086 30.081
42.404 75.157 31.506
34.645 42.133 52.571
34.672 42.262 50.362
33.519 40.457 48.735
31.858 39.057 49.085
20.729 84.794 36.035
19.465 82.915 35.658
19.016 80.718 36.636
20.501 79.387 37.896
13.369 68.321 62.979
13.969 69.649 61.358
13.054 72.077 60.415
11.345 73.46 60.759
1.173 39.599 10.686
-0.937 40.724 11.713
-1.596 43.027 11.991
-1.01 45.218 11.126
32.821 82.226 8.523
31.409 80.58 7.463
29.052 80.461 7.652
27.543 81.669 8.895
61.603 81.604 36.441
61.424 79.924 38.608
61.736 77.499 38.826
62.771 75.802 37.431
51.755 38.988 73.814
52.339 36.787 74.75
52.418 34.911 72.584
51.114 34.803 70.78
26.155 45.656 80.952
27.461 44.389 80.122
26.85 42.283 78.355
25.281 40.998 78.307
71.032 55.561 82.158
71.626 53.105 83.221
70.172 51.023 83.019
68.628 50.128 81.268
22.162 66.866 15.519
24.055 67.34 14.262
23.983 65.683 11.947
23.12 63.562 11.708
1.27 25.764 16.181
-0.767 24.64 17.027
-1.608 22.395 17.242
0.017 20.029 16.412
50.459 51.565 8.431
49.316 51.32 6.158
48.233 49.391 4.947
48.343 47.172 5.173
29.832 25.039 3.28
28.718 23.814 4.729
26.505 23.906 6.006
25.576 26.035 6.895
65.64 99.117 38.956
66.786 97.331 39.898
67.276 95.021 39.592
66.143 93.126 37.527
53.348 31.569 61.03
52.854 32.115 63.291
52.106 30.453 65.477
51.771 28.116 65.131
12.543 31.695 63.274
11.672 33.92 62.371
12.069 36.237 63.13
12.896 36.944 65.865
18.425 20.519 28.574
17.919 18.233 29.755
19.626 16.25 29.799
20.786 15.159 27.659
9.841 101.24 66.687
11.034 102.654 64.86
10.141 105.172 64.084
8.503 106.414 64.538
18.714 86.799 61.646
16.639 86.8 60.873
14.524 85.215 60.603
14.571 82.721 60.816
53.103 15.65 68.4
55.38 14.837 68.0
56.447 12.567 67.602
55.775 10.406 67.423
43.388 96.271 23.055
45.083 97.991 23.04
45.187 100.299 24.388
43.351 101.546 25.902
38.742 30.627 31.507
40.535 31.62 32.703
41.567 31.068 35.07
41.787 29.309 36.53
24.294 27.777 78.414
26.12 29.238 78.892
28.497 28.683 77.542
29.122 26.76 76.402
46.681 36.447 20.891
44.593 37.012 22.231
42.295 35.919 22.638
41.366 33.795 22.407
7.802 85.655 15.783
5.787 84.935 15.699
4.843 82.509 15.805
5.836 80.218 15.848
42.339 34.731 91.364
43.618 35.381 92.705
45.492 37.403 93.176
45.282 39.441 92.525
8.619 90.939 81.428
9.955 90.059 82.924
10.042 90.728 85.481
10.525 92.596 86.63
9.61 78.078 79.004
10.777 79.359 80.32
10.322 81.935 81.239
9.208 83.706 80.582
25.638 25.289 9.631
24.663 23.451 8.125
24.629 21.003 8.266
26.074 19.526 9.711
22.139 45.867 4.998
21.638 47.166 6.478
21.161 49.546 6.631
22.305 51.501 5.443
-0.095 97.09 41.686
-1.581 98.798 42.034
-1.198 101.404 42.033
0.29 102.846 40.902
62.258 65.081 70.389
60.692 66.946 69.348
60.723 69.278 68.546
62.722 70.703 67.719
52.796 56.837 1.14
51.878 58.634 0.564
49.768 59.687 1.434
48.905 59.578 4.081
54.274 3.502 62.274
54.821 2.521 64.521
56.438 0.421 65.053
58.109 -0.706 63.883
-0.809 17.295 42.003
-1.954 18.884 41.32
-3.502 20.5 43.204
-3.54 20.045 45.634
39.943 4.874 67.528
37.786 4.715 67.392
36.124 5.417 69.461
36.385 6.68 71.449
66.013 32.459 20.031
66.615 30.236 19.369
65.701 27.945 19.915
64.236 26.983 21.46
52.589 77.764 88.654
52.288 76.75 90.827
52.56 78.406 92.92
51.436 80.3 93.325
26.262 38.871 13.992
25.026 40.554 13.371
25.493 43.378 13.142
26.862 44.528 14.796
22.621 88.374 11.024
21.927 89.58 8.792
22.245 91.845 8.06
21.681 93.96 9.077
26.112 4.55 67.347
27.511 4.351 69.173
27.124 3.068 71.506
26.829 0.68 71.118
3.912 31.038 60.081
5.804 31.477 61.714
6.903 30.047 63.731
6.949 27.174 63.082
24.881 87.728 8.884
23.854 86.317 6.841
24.359 84.21 6.029
26.456 82.606 6.511
47.222 4.472 89.964
48.68 3.291 90.682
49.3 3.656 93.72
47.92 4.883 95.185
38.52 10.7 22.204
39.925 10.173 24.332
40.419 11.321 26.446
39.776 13.586 27.303
26.245 2.236 97.073
28.301 0.723 97.575
29.2 -1.403 96.717
28.085 -3.132 95.014
-2.034 3.504 39.153
-3.309 4.178 40.619
-3.769 6.703 41.828
-2.356 8.307 42.106
46.756 17.693 88.917
46.014 18.623 91.005
43.877 20.014 91.975
42.206 21.098 90.52
5.349 22.051 84.322
4.35 20.408 83.323
4.772 18.079 82.934
5.782 16.274 83.944
32.864 21.507 73.315
30.717 21.798 74.707
29.375 23.689 75.051
28.865 25.76 73.103
58.26 55.225 64.729
58.648 52.957 63.881
56.763 51.127 63.741
54.297 51.243 64.54
47.415 32.362 68.285
49.605 31.326 69.216
50.186 30.483 71.592
48.961 30.507 73.507
33.626 60.747 81.091
32.746 62.432 79.633
34.105 65.044 79.772
35.165 66.159 81.275
3.848 16.366 81.334
2.391 14.78 81.052
1.558 13.493 83.778
2.586 13.354 85.354
45.198 27.634 24.589
43.705 29.211 24.885
43.946 32.009 24.121
45.527 33.312 23.887
23.438 66.608 43.005
23.745 68.062 41.154
23.264 70.229 40.554
23.684 72.49 42.325
31.082 0.742 5.18
29.972 2.688 5.97
30.224 5.396 5.312
31.293 6.415 3.759
46.992 62.335 28.175
45.959 60.027 28.819
46.837 57.921 29.648
49.146 57.288 30.441
67.431 83.834 50.975
66.809 85.239 48.79
66.074 84.458 46.286
64.792 82.772 45.59
62.782 95.671 67.269
61.555 94.055 68.632
62.275 92.103 69.945
64.533 91.421 70.56
25.532 29.961 9.914
24.966 31.905 10.984
23.418 31.716 13.276
23.574 29.647 14.834
42.348 19.137 21.793
41.704 17.558 23.652
41.623 14.531 23.748
42.991 13.373 22.474
2.622 75.275 19.133
3.077 77.082 17.586
2.392 79.543 17.561
1.02 80.928 19.029
4.808 29.608 85.383
3.102 31.183 86.41
0.57 29.552 86.97
0.281 27.452 87.131
20.245 6.403 7.678
22.771 6.071 7.608
24.342 4.872 9.154
24.335 3.06 10.475
70.951 95.046 86.972
71.896 96.754 85.635
71.465 99.326 85.481
69.491 100.701 86.475
7.826 4.589 55.535
9.588 2.803 56.752
9.651 0.389 56.832
7.566 -1.326 56.927
64.59 53.995 17.634
65.571 51.953 16.7
65.161 49.544 16.904
63.232 48.234 17.561
64.858 94.767 20.723
66.859 94.637 19.822
68.387 92.732 18.948
68.074 90.509 18.28
4.316 41.153 87.814
2.514 39.577 88.514
2.025 37.226 87.817
3.678 35.519 88.272
11.884 61.556 64.284
12.222 61.597 62.024
12.764 63.976 60.356
13.396 66.259 61.278
34.945 59.147 72.877
35.494 58.003 75.107
33.982 55.862 75.82
32.734 54.433 74.706
13.05 87.115 31.694
15.164 85.481 31.625
15.526 83.344 32.906
14.137 82.142 33.987
5.0 -2.113 83.838
4.217 0.068 85.656
6.094 1.893 86.252
5.789 3.547 83.719
48.072 100.059 84.882
49.949 101.095 85.661
50.517 102.238 87.954
49.452 102.727 90.075
67.718 90.791 15.709
69.971 89.903 16.111
71.116 87.694 15.425
70.688 86.324 13.294
63.898 56.599 72.872
61.295 56.93 71.866
59.961 56.231 70.321
60.073 53.774 69.022
54.45 16.592 2.014
52.665 17.078 -0.106
51.186 19.083 -0.477
50.593 20.803 0.545
15.164 94.16 35.078
15.228 94.283 32.804
15.29 91.878 31.218
14.39 89.618 32.125
47.812 55.067 31.562
46.457 53.362 30.95
46.788 51.561 28.858
48.494 50.915 27.959
55.339 51.032 71.974
57.44 52.02 71.818
58.726 53.851 73.533
58.307 54.048 76.053
5.017 80.745 18.269
3.438 82.495 17.888
3.25 84.862 18.207
4.123 86.445 19.94
42.331 26.947 87.559
43.766 26.276 88.952
45.465 27.521 90.831
45.426 29.772 91.597
36.344 11.753 49.236
37.626 13.202 50.031
40.289 13.513 49.502
41.635 12.402 47.729
40.858 48.034 44.281
39.07 46.523 45.33
37.154 48.093 45.84
36.21 50.078 44.767
33.369 29.838 47.262
34.258 30.924 49.147
32.528 31.863 51.41
31.726 30.062 52.648
22.136 29.981 79.923
23.011 32.085 80.487
25.309 32.453 81.048
26.064 31.652 83.443
32.648 -0.892 49.95
33.843 -0.101 48.099
35.653 1.924 47.542
35.116 4.081 48.562
32.723 98.855 79.779
31.199 99.018 78.232
30.196 101.517 76.913
30.63 103.943 77.61
70.109 62.441 82.367
72.238 61.274 81.826
73.929 60.528 84.063
73.432 60.972 86.422
55.371 17.411 65.287
56.9 15.894 65.848
56.96 13.925 65.577
58.902 14.089 63.433
65.933 76.006 74.013
63.868 76.964 73.264
63.449 79.746 73.0
65.026 81.68 74.18
39.145 37.938 28.915
41.501 39.071 28.831
42.425 41.286 27.769
41.496 42.849 26.258
60.413 73.646 40.588
62.64 74.463 40.617
64.976 73.62 40.066
65.644 71.457 39.034
56.873 56.1 66.776
56.526 53.765 67.296
57.438 53.567 69.729
57.311 55.155 71.755
32.505 100.45 48.2
34.017 100.418 46.464
36.832 100.779 46.751
38.105 100.308 48.066
33.811 10.276 78.333
35.558 11.34 76.746
36.772 9.469 74.967
36.651 7.229 75.095
58.899 75.14 3.085
57.723 73.515 2.319
55.436 72.436 3.204
53.713 73.536 4.282
4.339 48.172 15.146
1.837 48.276 14.789
0.387 46.426 13.501
0.051 44.373 13.963
26.523 104.975 30.294
25.59 104.606 32.803
25.76 102.92 34.484
27.009 100.703 34.755
53.203 85.346 3.659
53.493 86.944 1.729
54.801 89.289 1.438
56.106 90.58 3.058
22.999 79.714 36.182
22.465 77.626 36.884
22.781 75.239 35.575
24.668 74.255 34.221
62.455 79.996 65.342
61.248 77.979 65.374
59.891 78.281 68.04
59.19 79.985 68.943
35.482 4.847 72.889
33.307 3.761 73.552
32.852 1.276 74.506
34.046 -0.391 75.702
40.424 3.773 47.263
38.522 1.678 46.114
38.026 -0.117 47.276
39.329 -1.329 49.292
48.206 39.045 92.867
47.539 39.887 95.367
48.433 41.198 96.96
50.465 42.987 96.975
67.211 43.725 47.125
65.822 44.42 45.421
63.39 43.626 44.801
62.24 41.665 44.956
61.521 56.206 46.243
63.48 56.972 45.479
63.849 58.61 43.93
63.504 60.695 44.092
57.307 56.072 74.288
58.182 57.409 72.579
59.759 59.753 73.133
61.605 59.767 75.219
23.429 5.583 24.873
22.219 5.672 27.056
23.028 4.527 29.386
25.195 4.36 30.339
63.069 33.542 45.879
62.416 32.631 43.983
63.103 30.629 42.315
64.298 29.017 43.509
36.053 8.972 45.462
37.871 8.558 47.059
38.056 5.806 47.944
37.345 3.923 46.654
55.532 103.96 70.327
55.487 102.058 68.766
57.008 99.848 68.508
58.856 99.051 69.922
37.763 40.975 50.428
36.489 42.01 48.242
36.606 44.072 47.25
37.789 43.994 45.541
21.576 59.321 4.306
22.281 58.978 6.345
22.569 60.44 8.523
21.624 62.774 8.7
50.462 50.696 24.093
52.011 48.984 24.801
51.143 46.319 23.569
49.259 46.43 21.735
10.28 77.296 81.931
10.574 76.741 83.676
10.185 78.967 85.591
9.23 80.83 85.25
44.066 89.725 52.015
42.765 88.816 50.387
42.963 86.29 49.264
43.836 84.394 50.418
44.696 30.056 3.325
44.881 30.676 0.996
42.915 31.451 -0.697
41.065 32.206 -0.547
13.724 36.066 54.386
12.188 36.448 56.205
12.061 35.756 58.423
13.028 34.463 59.984
40.316 85.492 55.563
41.534 84.019 55.08
42.146 83.97 52.399
40.84 84.192 50.783
52.216 24.244 63.423
54.115 23.893 62.706
55.733 22.198 63.481
55.515 20.363 64.713
23.996 42.019 18.729
23.985 40.987 16.672
24.006 38.275 15.903
23.612 36.572 16.754
9.901 71.342 58.223
11.644 72.676 57.937
11.983 75.3 57.023
9.784 76.819 56.596
43.964 65.06 22.066
44.383 66.919 22.451
45.059 67.35 24.72
46.672 65.631 26.487
9.15 38.925 36.471
10.786 37.079 36.811
10.834 34.739 37.241
8.684 33.072 37.759
70.386 -2.705 83.472
72.041 -1.445 84.244
71.998 1.23 84.867
71.504 2.871 82.908
42.491 26.23 33.629
43.148 26.701 31.175
43.154 25.511 29.129
43.354 23.081 28.636
-0.884 75.186 38.24
-1.473 74.901 40.5
-1.272 72.814 42.276
-1.359 70.327 41.709
52.996 59.121 89.566
53.24 60.764 91.74
53.115 63.073 92.236
52.67 64.985 90.591
7.53 89.072 83.296
9.329 87.69 84.641
10.06 85.368 84.768
9.237 83.028 83.378
54.194 98.955 29.509
52.587 99.891 29.197
49.923 99.168 28.977
48.879 97.428 29.763
57.818 43.651 42.437
57.963 41.766 41.884
59.065 39.943 43.163
58.278 39.002 45.25
21.982 17.898 29.85
21.667 15.766 31.12
22.803 14.075 31.748
24.585 14.772 33.545
61.275 53.657 66.395
60.403 55.877 67.16
60.669 58.367 66.143
60.952 59.209 64.133
27.106 62.38 5.534
24.734 63.267 6.71
23.752 65.43 6.912
24.281 67.589 7.03
68.45 39.246 19.769
68.26 39.668 17.358
68.655 41.972 15.861
69.215 44.239 16.468
24.041 76.65 12.844
25.414 77.601 10.945
25.625 79.788 9.805
24.863 81.947 10.135
4.437 28.514 79.247
2.738 27.99 81.228
1.215 29.603 82.47
1.67 32.143 82.765
8.165 93.545 88.423
6.73 93.214 86.596
4.516 93.548 86.003
2.659 93.411 87.324
64.62 13.62 49.109
63.04 14.985 48.415
63.323 16.715 45.905
65.439 17.275 45.015
3.688 50.309 16.782
3.771 51.59 18.961
2.884 54.309 19.014
2.597 55.558 17.277
25.783 95.098 35.064
24.588 95.625 37.055
24.96 98.23 37.948
27.022 99.848 37.27
28.219 16.45 6.126
28.712 17.465 8.058
28.528 20.25 8.389
28.434 21.962 7.051
20.592 86.687 10.885
22.052 85.586 9.289
22.65 83.163 8.631
21.065 81.163 9.2
68.85 70.174 11.866
69.294 69.78 13.955
69.459 67.691 15.404
70.236 65.498 14.76
48.928 2.65 3.717
50.591 1.845 1.938
50.222 -0.206 0.129
49.309 -2.142 1.04
69.606 4.439 84.243
71.079 6.044 83.808
70.794 8.685 83.048
69.062 10.196 82.789
9.074 54.586 88.78
8.895 56.511 86.951
6.836 55.495 85.05
6.496 53.591 84.416
10.633 32.742 35.602
11.163 34.415 34.427
13.85 34.065 34.231
15.106 31.891 34.277
37.604 70.101 48.133
38.161 72.128 49.402
39.33 74.292 47.718
39.633 74.139 45.478
58.656 17.44 62.812
58.255 18.68 65.035
58.107 21.267 65.416
59.413 22.982 64.597
17.959 79.199 30.735
18.611 81.515 30.925
19.124 83.603 29.62
18.231 83.911 27.016
51.875 100.24 89.374
50.105 98.699 90.342
50.206 96.844 91.88
52.312 95.169 92.148
17.692 93.539 60.735
15.537 93.263 61.114
13.428 95.054 61.866
13.206 96.901 62.551
17.204 92.413 37.208
17.782 92.887 35.279
20.157 94.52 34.048
20.911 96.063 35.535
20.097 29.453 13.117
19.161 31.768 13.626
20.321 33.098 11.503
20.703 32.804 9.558
32.769 49.665 83.532
32.982 48.928 81.277
31.084 47.967 79.623
28.884 46.996 80.045
-0.352 100.222 21.907
-0.535 99.399 19.711
-2.237 100.853 18.052
-2.272 102.963 17.733
44.936 88.878 22.744
44.989 87.108 24.74
46.363 84.727 24.821
45.932 82.946 23.282
17.765 66.607 35.295
19.04 65.037 35.72
18.815 62.354 35.658
17.196 60.931 34.708
66.821 70.786 18.408
67.863 68.681 19.594
70.498 68.935 20.898
71.921 70.88 21.097
4.179 40.636 -2.958
4.194 42.644 -3.197
1.985 44.02 -3.127
-0.119 43.268 -2.027
60.199 72.653 94.724
60.552 71.034 92.866
58.097 70.3 91.841
56.171 71.955 91.935
33.341 41.886 76.017
32.125 42.941 78.018
32.156 45.079 79.225
33.826 46.96 79.421
16.793 60.099 55.89
17.014 61.9 57.556
16.506 64.512 57.283
16.037 65.947 55.295
-0.115 48.985 79.376
1.453 49.412 81.021
1.726 48.246 82.962
1.78 45.612 83.244
15.841 13.678 31.668
14.532 15.74 32.295
14.6 16.819 34.694
14.487 15.459 37.129
5.82 84.319 57.024
7.501 82.388 58.05
8.09 80.213 57.225
7.188 78.539 55.502
41.834 27.966 49.212
39.711 27.439 50.403
37.265 28.449 49.819
36.429 29.596 48.059
69.919 45.781 92.441
70.543 46.878 90.523
69.039 46.047 88.03
67.381 44.475 88.062
14.807 56.897 62.981
14.512 59.215 63.057
14.793 61.085 64.894
16.192 61.116 66.825
52.806 101.307 66.252
54.374 103.178 66.465
54.122 105.942 67.12
52.553 107.111 67.857
6.107 1.916 59.198
8.254 3.213 59.059
8.828 5.624 59.517
8.08 7.404 59.707
35.459 88.517 81.311
34.867 90.331 80.241
34.472 92.55 80.711
34.526 94.004 83.3
19.041 39.773 52.603
19.103 41.194 54.68
17.046 40.742 56.496
15.759 38.476 56.653
31.795 96.502 76.387
32.025 99.059 75.445
30.979 100.428 74.257
28.985 100.642 72.949
23.581 40.029 75.912
21.374 38.953 75.862
21.694 36.587 74.12
23.301 36.338 72.497
15.588 14.409 58.252
15.854 12.115 58.452
17.187 10.385 56.7
17.943 10.821 54.576
40.43 16.222 26.296
42.205 17.751 27.315
41.893 20.022 28.539
40.971 21.744 27.716
30.496 42.282 75.57
29.454 41.164 77.547
27.629 39.592 77.797
26.023 38.52 76.079
23.957 72.417 61.086
22.95 74.182 60.341
20.388 73.015 58.906
20.359 70.68 58.193
22.589 83.517 1.948
22.124 84.808 3.271
21.903 83.827 5.869
21.236 81.663 6.423
13.229 91.157 86.762
12.279 88.832 85.679
11.927 86.689 86.905
10.688 86.633 89.28
12.462 76.022 79.331
12.837 75.876 82.074
12.398 73.953 83.807
11.176 72.079 83.82
63.431 1.303 46.642
64.291 3.656 46.838
63.562 5.356 44.757
62.33 4.912 42.909
68.47 46.666 85.515
70.96 47.426 85.557
72.3 49.135 86.432
71.961 51.013 87.229
3.057 95.036 13.247
0.998 96.8 13.35
0.808 98.98 11.961
2.256 100.468 11.246
53.614 26.281 64.524
52.659 25.309 66.356
53.704 24.222 68.727
55.862 23.254 69.009
19.905 91.652 2.172
21.486 91.903 3.613
22.816 94.101 4.453
22.256 96.589 4.038
46.536 67.249 60.228
46.724 66.122 57.854
44.815 65.046 56.746
42.642 63.721 57.799
30.413 2.75 48.51
30.941 1.182 47.071
31.145 -0.798 47.548
28.938 -2.495 48.249
31.924 39.29 82.988
31.017 39.572 80.793
29.54 42.184 80.09
30.098 44.165 81.009
65.004 21.413 19.692
64.241 23.886 19.332
65.862 25.621 18.334
68.16 25.954 18.586
63.001 28.169 37.3
62.641 29.32 39.408
62.646 31.826 40.096
63.412 33.764 39.092
43.782 97.87 52.901
41.798 97.827 52.076
39.601 99.601 51.924
39.582 102.056 52.937
50.837 80.751 4.74
50.796 78.836 2.674
51.31 76.698 2.618
51.74 74.894 4.481
2.301 18.163 87.933
2.382 16.065 87.087
3.711 13.825 87.95
4.678 13.217 90.047
44.063 82.731 55.331
43.101 81.536 53.661
43.519 79.175 52.232
45.562 77.662 52.527
42.32 24.424 87.184
43.876 23.539 89.028
45.819 21.744 89.015
47.608 21.828 87.556
7.302 25.045 65.056
8.967 23.758 63.737
8.652 20.908 63.467
7.088 19.424 62.953
24.443 94.106 10.667
23.506 95.689 9.117
23.863 98.549 9.137
25.049 99.98 10.513
37.157 87.689 72.67
37.603 86.186 74.792
38.172 83.749 74.912
37.86 81.756 73.404
53.652 8.276 66.799
53.469 5.827 67.869
55.705 4.601 67.136
57.004 5.159 65.282
17.764 27.663 32.349
16.908 28.384 33.72
14.354 27.228 33.709
13.072 26.694 31.379
44.985 11.938 1.238
47.132 13.048 0.39
48.043 15.102 -0.189
46.946 17.617 0.175
13.585 20.339 27.2
15.633 20.762 28.429
16.304 22.512 29.835
14.81 24.793 30.598
8.403 62.967 86.844
6.463 61.648 86.985
7.619 58.863 85.851
10.323 58.597 85.931
22.564 26.763 75.387
24.792 26.18 76.025
26.55 24.712 75.097
26.36 23.454 72.953
36.802 17.99 75.775
34.698 18.063 75.242
32.637 19.983 75.869
32.503 21.95 76.93
59.992 4.923 18.18
62.47 4.933 17.359
64.215 6.557 16.918
64.646 8.916 17.362
30.959 28.623 56.24
33.035 28.823 55.129
34.84 30.344 54.737
35.425 32.904 55.962
45.17 56.317 50.895
45.903 57.242 52.411
46.597 60.22 52.9
45.532 61.761 51.03
12.829 40.648 52.723
13.774 40.02 54.88
12.784 39.064 56.948
9.842 39.591 57.563
56.064 52.346 92.967
53.808 53.333 92.56
51.817 51.685 91.04
50.438 50.876 93.084
13.438 64.282 57.499
14.564 66.064 58.574
14.069 68.735 58.91
12.054 69.871 58.713
43.15 52.107 52.86
42.858 54.362 52.364
43.437 56.585 54.089
44.071 56.715 55.98
39.935 80.362 74.513
40.016 78.224 75.41
37.668 76.881 74.864
36.243 76.863 73.139
38.285 91.903 47.989
40.23 91.515 48.845
42.746 91.534 47.485
43.782 92.283 45.642
63.472 47.217 19.996
65.271 47.46 19.37
66.668 45.092 18.361
65.469 42.528 19.161
44.286 67.853 46.477
45.356 69.611 47.634
44.213 72.273 47.987
42.436 73.293 46.631
10.896 65.717 80.593
10.207 67.526 81.891
11.822 69.227 83.253
13.834 68.616 84.153
10.874 36.43 31.672
11.799 36.866 33.705
12.31 39.258 35.084
12.129 41.584 34.29
51.107 40.579 69.771
52.939 41.015 68.113
53.205 42.38 66.283
52.122 44.48 65.51
3.594 26.365 77.467
4.1 25.337 79.656
3.133 23.792 81.067
1.145 22.235 80.921
68.499 93.075 14.873
69.809 93.77 16.596
70.574 96.008 17.708
69.879 98.42 17.412
27.619 62.426 71.04
29.595 63.381 71.542
32.183 62.27 72.113
32.571 60.087 72.801
59.047 46.39 67.504
56.857 46.076 67.271
55.598 43.979 66.924
56.161 41.43 67.673
-3.081 45.895 42.985
-4.211 48.028 43.301
-3.494 48.974 45.165
-2.498 51.463 45.105
27.339 31.474 79.143
26.991 33.273 77.674
28.928 34.702 75.946
31.543 34.421 75.894
68.259 75.04 13.053
69.568 72.863 12.396
70.346 71.908 10.573
69.847 72.505 7.891
47.083 67.365 28.65
45.331 68.688 28.848
45.028 71.243 30.152
46.519 72.605 31.307
4.354 28.825 14.502
2.195 29.989 13.537
0.881 31.821 14.43
1.132 33.486 16.188
36.682 81.468 5.426
35.599 80.664 7.034
33.652 78.943 7.224
32.3 78.32 5.453
59.536 62.147 68.594
59.932 60.48 67.425
58.712 58.204 67.962
56.596 58.083 69.534
42.304 91.16 22.121
44.432 92.47 21.403
44.403 95.133 20.523
42.447 96.52 19.473
66.422 29.21 84.346
68.636 30.651 85.206
69.577 32.832 83.943
68.683 34.616 83.134
36.17 15.664 70.58
35.386 17.164 72.596
32.948 18.417 73.023
31.874 19.65 71.318
0.634 20.94 13.947
-1.425 20.387 14.107
-3.2 20.286 12.804
-3.458 19.855 10.03
0.678 50.744 19.446
1.208 49.172 17.67
0.55 47.159 17.175
1.613 45.227 17.766
