6.298 11.651 5.265
6.750 11.857 5.940
6.999 11.613 6.148
7.288 11.100 6.646
7.869 10.886 7.084
7.870 10.809 7.393
8.291 10.501 7.435
8.638 10.385 8.173
9.183 10.265 8.210
9.370 9.939 8.798
9.680 10.016 9.156
9.873 9.647 9.525
10.120 9.442 9.789
10.761 9.427 10.329
11.000 9.188 10.317
11.030 8.788 11.043
11.512 8.437 11.195
11.690 8.336 11.825
5.584 12.219 4.327
5.194 12.158 4.261
5.502 11.948 4.516
5.885 11.520 5.243
6.068 11.414 5.348
6.422 11.297 5.799
6.788 10.832 6.027
7.052 10.661 6.601
7.599 10.816 6.604
7.789 10.564 7.158
8.286 10.125 7.581
8.205 10.115 7.784
8.644 10.049 8.115
9.076 9.504 8.923
9.374 9.289 9.239
9.587 9.376 9.388
9.977 8.936 9.770
10.135 8.734 9.973
10.813 8.430 10.387
11.094 8.342 11.051
11.267 8.188 11.362
11.811 8.271 11.554
4.427 12.542 3.538
5.030 12.063 4.077
5.398 12.250 4.313
5.580 11.295 5.154
5.930 10.869 5.562
6.474 10.927 5.507
6.791 10.698 6.082
6.740 10.325 6.582
7.221 10.180 6.904
7.397 10.037 7.027
7.992 9.937 7.700
8.280 9.549 8.113
9.583 8.766 9.565
9.837 8.712 9.615
9.879 8.614 10.329
10.528 7.987 10.544
10.723 7.882 11.090
11.181 7.611 11.328
11.093 7.735 11.598
4.060 12.359 3.308
4.205 11.860 3.468
12.462 11.896 9.948
11.798 11.377 9.241
12.258 11.304 9.723
9.322 12.478 7.013
9.948 12.273 7.097
10.215 12.282 7.869
11.297 11.139 9.040
11.847 10.899 9.580
12.221 11.066 10.085
12.242 10.511 10.117
8.582 12.224 5.938
8.674 12.258 6.489
9.417 12.274 7.113
9.677 11.713 7.415
9.858 11.673 7.851
9.940 11.510 7.858
10.643 11.421 8.148
10.823 11.092 8.872
11.155 10.858 9.103
11.623 10.631 9.478
11.755 10.548 9.915
12.205 10.135 10.068
12.272 9.945 10.619
7.720 12.563 5.230
7.820 11.969 5.673
8.386 11.908 6.119
8.413 11.836 6.597
9.156 11.554 7.039
9.393 11.145 7.476
9.329 11.026 7.589
9.822 11.124 7.770
9.972 10.804 8.144
10.714 10.638 8.717
10.812 10.359 9.211
11.234 10.236 9.492
11.367 9.877 9.949
11.626 9.675 10.325
11.970 9.367 10.679
12.595 9.333 10.784
6.337 12.696 4.382
6.674 12.354 4.736
7.217 12.316 4.817
7.621 11.862 5.471
7.541 11.794 5.634
7.993 11.764 6.011
8.386 11.466 6.383
8.849 11.012 7.086
8.957 10.866 7.292
9.274 10.581 7.669
9.380 10.297 7.949
9.739 10.439 8.387
10.271 10.338 8.835
10.619 9.989 9.076
10.937 9.729 9.578
11.104 9.696 9.779
11.435 9.290 10.259
11.583 9.355 10.720
12.292 8.839 10.900
12.449 8.556 11.139
5.731 12.243 3.954
6.057 12.271 4.096
6.750 11.695 4.679
6.969 11.804 5.132
7.256 11.478 5.375
7.310 11.318 5.615
8.001 11.011 6.281
8.015 10.733 6.421
8.414 10.637 6.611
8.791 10.661 7.046
8.922 10.365 7.512
9.352 10.315 7.751
9.508 9.775 8.116
9.915 9.830 8.924
10.272 9.435 8.983
10.780 9.094 9.537
10.892 9.329 9.624
11.298 8.936 10.171
11.772 8.776 10.506
12.031 8.580 11.103
12.227 8.236 11.109
5.658 12.657 3.714
5.769 12.317 4.028
5.675 12.000 3.742
5.955 11.694 4.038
6.039 11.237 4.724
6.611 11.081 4.984
7.042 11.054 5.278
7.203 10.870 5.738
7.273 10.432 6.077
7.892 10.489 6.670
8.096 10.272 7.010
8.464 9.895 7.025
8.759 9.661 7.369
8.971 9.448 7.976
9.454 9.379 8.276
9.504 9.484 8.481
9.837 8.960 9.168
10.536 8.871 9.578
10.827 8.492 10.013
10.959 8.472 9.938
11.124 8.047 10.421
11.472 8.124 10.737
11.795 7.765 11.194
4.504 12.552 3.020
4.746 12.438 3.211
5.458 11.983 3.767
5.757 11.673 3.723
6.035 10.743 4.557
6.067 10.735 5.018
6.533 10.480 5.294
6.882 10.628 5.574
7.459 10.388 6.031
7.608 9.825 6.241
7.618 9.571 6.603
8.142 9.365 6.957
8.425 9.327 7.752
9.578 8.774 8.912
10.186 8.169 9.184
10.378 8.331 9.615
10.774 8.227 10.295
10.782 7.972 10.599
11.461 7.478 10.663
11.619 7.532 11.425
4.197 11.949 2.608
4.569 11.801 3.122
9.522 12.507 6.260
9.791 12.322 6.669
9.961 12.028 6.820
12.149 11.018 9.207
12.290 10.517 9.503
8.673 12.529 5.620
9.142 12.113 5.893
9.339 12.165 6.295
9.607 11.853 6.748
9.648 11.729 6.794
10.274 11.210 7.418
11.605 10.538 8.732
11.958 10.347 8.874
12.127 10.061 9.423
12.462 10.130 9.727
7.473 12.488 4.802
7.883 12.407 5.137
8.128 12.146 5.285
8.588 11.849 5.781
9.042 11.835 6.085
9.356 11.276 6.480
9.771 11.331 6.755
9.762 11.164 7.233
10.247 10.774 7.457
10.634 10.701 8.126
10.992 10.569 8.382
10.935 10.082 8.612
11.236 10.198 9.236
11.977 9.658 9.511
11.955 9.407 9.785
12.190 9.552 9.960
6.583 12.430 3.536
6.554 12.210 4.116
6.911 11.919 4.240
7.222 12.181 4.583
7.711 11.749 5.217
7.952 11.518 5.579
8.389 11.171 5.719
8.783 11.053 6.204
8.775 10.842 6.681
9.338 10.840 6.886
9.622 10.551 7.245
9.890 10.468 7.391
10.031 10.082 8.189
10.586 9.774 8.277
10.680 10.000 8.904
11.435 9.667 9.055
11.669 9.300 9.211
11.634 9.287 9.978
12.306 8.958 10.178
12.674 8.863 10.433
6.538 12.485 3.782
6.291 12.212 3.571
6.341 11.830 3.806
6.795 11.563 4.089
7.002 11.717 4.402
7.472 11.262 4.983
7.975 10.870 5.592
8.220 11.035 5.563
8.410 10.831 6.267
8.809 10.639 6.594
9.003 10.230 7.087
9.138 10.174 7.161
9.744 9.985 7.529
10.193 9.817 7.878
10.310 9.667 8.346
10.436 9.203 8.823
10.795 9.157 8.859
11.441 8.979 9.233
11.679 8.953 9.806
11.851 8.299 10.231
12.216 8.540 10.705
12.661 8.278 10.666
5.704 12.697 2.701
6.063 12.456 3.046
6.261 11.933 3.439
6.571 11.464 4.421
6.908 10.942 4.598
7.365 10.770 5.007
7.474 10.690 5.569
8.048 10.587 5.804
7.998 10.145 6.228
8.683 9.906 6.474
8.895 9.851 6.632
9.252 9.449 7.430
10.297 8.911 8.461
10.570 8.565 9.163
10.742 8.628 9.455
11.400 8.427 9.809
11.728 7.966 10.313
11.869 8.093 10.661
12.014 7.443 10.792
5.102 12.307 2.377
5.105 12.283 2.623
6.771 10.418 4.614
7.063 10.324 5.220
7.339 10.084 5.554
7.771 10.056 5.488
7.750 9.569 6.164
8.229 9.555 6.334
8.734 9.592 6.912
10.225 8.345 9.043
10.842 8.134 9.605
10.789 8.031 9.826
11.498 7.538 10.170
11.442 7.424 10.684
11.950 7.146 10.870
4.886 11.880 2.542
9.437 12.298 5.595
9.888 12.112 5.739
10.086 12.103 6.272
8.646 12.416 4.682
8.769 12.124 5.227
9.404 12.139 5.617
9.722 11.883 5.584
9.643 11.496 6.125
9.986 11.703 6.459
11.994 10.321 8.850
12.333 10.072 8.854
7.769 12.600 3.715
7.808 12.034 4.402
8.230 11.921 4.610
8.755 11.956 4.828
9.022 11.569 5.451
9.129 11.372 5.679
9.558 11.393 6.277
9.760 10.868 6.578
10.363 10.656 6.897
11.440 9.804 8.452
11.702 9.750 8.910
12.279 9.611 9.069
12.300 9.407 9.416
7.577 12.007 4.137
7.717 11.661 4.190
8.041 11.646 4.469
8.445 11.474 5.067
8.774 11.052 5.520
9.010 10.777 5.900
9.329 10.654 6.005
9.757 10.696 6.429
10.119 10.293 6.685
11.066 9.563 8.210
11.691 9.259 8.472
11.757 9.165 9.000
12.012 9.187 9.655
12.621 8.687 9.675
7.292 11.409 4.134
7.669 11.184 4.029
7.824 11.363 4.705
7.859 10.889 4.808
8.584 10.805 5.616
8.805 10.394 5.847
9.112 10.348 6.293
9.426 10.286 6.465
9.481 9.700 6.790
11.109 9.121 8.546
11.463 8.996 8.515
11.498 8.709 9.292
11.894 8.658 9.544
11.996 8.526 9.582
12.479 7.959 10.359
5.603 12.746 2.028
6.100 12.170 2.368
6.952 10.963 4.103
7.501 10.787 4.732
7.697 10.391 5.212
8.157 10.080 5.526
8.305 9.937 5.738
8.551 9.889 6.158
9.250 9.704 6.384
10.973 8.352 8.689
11.343 8.165 8.888
11.427 8.210 9.178
11.903 7.984 9.706
12.476 7.517 10.330
12.546 7.685 10.690
5.193 12.264 2.102
7.317 10.091 4.749
7.796 10.105 4.921
7.745 10.055 5.213
8.254 9.720 5.954
8.597 9.516 5.964
10.957 7.948 8.999
11.250 7.818 9.367
11.570 7.200 9.606
11.881 7.161 10.088
12.215 7.102 10.297
9.461 12.639 4.902
9.813 12.247 5.039
10.188 12.174 5.648
9.147 12.394 4.536
9.220 12.026 4.876
9.666 11.954 5.017
9.618 11.659 5.325
10.021 11.605 6.001
8.301 12.244 4.018
8.862 12.073 4.267
8.898 11.683 4.864
9.449 11.613 4.802
9.674 11.002 5.253
10.017 11.106 5.967
10.012 11.073 6.193
12.342 9.516 8.219
12.293 9.610 8.847
8.115 11.420 4.056
8.193 11.544 4.060
8.532 11.416 4.716
8.912 10.864 5.066
9.158 10.816 5.431
9.436 10.671 5.640
9.835 10.532 5.965
11.707 9.290 8.534
11.968 8.874 8.848
12.342 8.888 9.151
7.586 11.294 3.824
7.880 11.000 4.212
8.504 10.501 4.587
8.857 10.361 4.931
9.068 10.510 5.153
9.120 9.909 5.705
9.796 9.886 6.052
11.595 8.557 8.142
12.087 8.633 8.495
12.226 8.527 9.083
12.648 7.947 9.434
5.913 12.405 1.757
8.069 10.392 4.472
8.256 10.492 4.777
8.281 10.263 4.947
9.006 10.017 5.185
8.963 9.862 5.774
11.779 8.171 8.764
12.130 8.016 9.241
12.097 7.871 9.431
12.730 7.299 9.635
7.745 10.038 4.584
8.380 9.717 4.842
8.506 9.552 5.197
11.890 7.696 9.184
11.925 7.430 9.454
12.261 6.906 9.554
9.538 11.789 4.345
9.915 11.718 4.698
10.056 11.563 5.072
8.757 11.736 4.099
9.366 11.440 4.276
9.710 11.435 4.739
9.929 11.076 5.173
9.981 10.985 5.143
8.752 11.447 3.818
9.192 11.221 4.185
9.492 10.563 4.689
9.857 10.504 4.888
9.823 10.374 5.394
12.591 9.041 8.258
8.434 10.780 3.715
8.826 10.482 4.039
9.238 10.304 4.656
9.539 10.222 5.026
9.674 9.730 5.586
12.002 8.299 8.161
12.746 8.214 8.618
8.700 9.960 4.091
8.789 10.076 4.440
9.088 9.928 4.784
12.404 7.508 8.571
12.770 7.382 8.841
9.928 11.830 3.682
10.388 11.381 4.114
10.263 11.388 4.800
9.207 11.621 3.602
9.795 11.214 4.066
10.059 10.885 4.299
10.134 10.897 4.693
10.487 10.516 5.174
9.036 10.927 3.362
9.093 10.978 3.819
9.825 10.826 4.196
9.836 10.421 4.827
10.409 10.323 5.224
8.945 10.713 3.588
9.046 10.413 4.107
9.162 10.316 4.325
9.515 9.879 4.597
9.896 9.951 5.099
12.327 8.220 8.117
8.888 10.145 3.717
9.135 9.750 4.263
9.378 9.369 4.419
12.809 7.743 8.226
10.209 11.587 3.760
10.455 11.558 3.911
10.607 11.277 4.062
9.491 11.204 2.939
9.952 11.199 3.373
10.126 11.100 4.090
10.775 10.445 4.280
10.927 10.440 4.464
9.415 10.886 3.070
9.528 10.629 3.730
9.910 10.377 3.808
10.397 10.276 4.332
10.440 9.978 4.415
9.023 10.256 3.036
9.345 10.169 3.567
9.665 10.167 4.083
10.137 9.549 4.050
10.291 9.486 4.755
9.133 9.935 3.502
9.235 9.317 4.027
9.952 9.229 4.044
3.113 12.409 12.415
3.202 12.718 11.558
3.193 12.457 11.855
3.634 12.286 12.324
4.124 12.512 12.237
4.494 12.344 12.323
2.986 12.689 10.916
3.166 12.539 11.274
3.606 11.944 11.675
3.821 11.741 12.012
4.290 11.805 12.427
5.161 12.347 11.896
5.401 12.341 12.644
4.478 12.487 11.275
4.835 12.100 11.864
4.719 11.885 12.254
5.270 11.663 12.595
3.429 12.518 10.761
3.956 12.347 10.941
4.119 12.159 11.322
4.142 11.800 11.903
4.777 11.754 11.911
6.034 12.720 12.203
6.518 12.351 12.239
5.075 12.397 11.296
5.433 12.358 11.556
6.016 12.110 12.037
6.086 12.129 12.660
4.390 12.348 10.556
4.718 12.273 11.118
4.728 11.992 11.103
5.476 11.834 11.886
3.407 12.168 9.891
3.681 12.122 10.052
4.155 11.966 10.419
4.477 12.000 10.779
4.816 11.740 11.273
6.003 12.630 11.404
5.430 12.277 10.713
5.509 12.448 10.864
5.831 12.348 11.556
4.524 12.565 9.874
4.443 12.340 10.083
4.889 12.044 10.722
5.376 11.884 11.046
3.460 12.441 9.250
3.856 12.426 9.276
4.059 12.080 10.014
4.363 11.761 10.305
4.732 11.474 10.702
5.340 12.726 9.628
5.677 12.382 10.237
5.785 12.012 10.556
4.120 12.378 9.158
4.769 12.297 9.378
4.929 11.860 9.635
5.209 11.773 10.007
4.241 11.849 9.249
4.336 11.667 9.409
4.594 11.577 10.019
5.303 12.429 8.953
5.447 12.180 9.516
5.915 12.274 9.612
4.702 12.529 8.476
5.147 12.116 8.965
5.065 11.691 9.504
9.001 11.144 12.613
6.652 12.296 9.331
9.056 10.751 12.302
5.271 12.651 8.552
5.551 12.466 8.550
5.779 12.253 9.327
6.170 12.128 9.681
8.632 10.581 12.554
5.153 11.969 8.403
5.336 11.713 8.755
5.396 11.479 9.200
12.572 9.558 12.496
12.211 9.128 12.282
11.868 8.594 12.354
11.396 7.848 12.308
11.206 7.364 12.173
12.406 8.890 12.042
12.075 8.520 11.987
12.637 7.947 12.302
11.800 7.678 12.008
12.209 7.690 12.599
11.832 7.250 11.785
11.712 7.163 12.459
12.588 8.168 11.704
11.999 7.592 11.517
12.740 7.658 11.861
12.178 7.343 11.573
12.506 6.854 11.742
12.615 7.587 11.260
12.323 7.100 11.364
10.752 11.711 2.967
11.152 11.671 3.331
11.227 11.306 4.142
10.105 11.693 2.693
10.270 11.148 3.180
11.036 11.118 3.640
10.992 10.819 3.724
11.584 10.752 4.281
9.818 11.486 2.188
10.110 10.938 2.979
10.173 11.111 3.200
10.762 10.628 3.480
10.823 10.691 3.972
11.158 10.448 4.476
11.661 9.930 4.709
7.892 12.324 -0.005
9.569 10.947 2.233
9.825 10.430 2.724
9.816 10.526 3.344
10.458 10.056 3.572
10.814 9.999 3.649
11.040 9.782 4.237
11.404 9.885 4.473
7.392 11.969 -0.032
8.834 10.595 2.537
9.333 10.034 2.917
9.567 9.768 3.332
10.017 9.744 3.565
10.501 9.695 3.892
10.432 9.512 4.223
10.879 9.443 4.422
7.138 11.405 0.167
8.865 9.873 2.967
9.220 9.788 2.964
9.752 9.410 3.691
10.192 9.056 3.972
10.429 8.743 4.432
9.304 9.034 3.254
9.322 8.756 3.262
9.948 8.792 4.046
11.417 12.232 2.599
11.900 11.876 3.044
12.149 11.653 3.387
10.953 11.777 2.397
10.893 11.604 2.925
11.172 11.221 3.403
11.493 11.215 3.459
12.187 11.042 3.754
10.316 11.502 2.278
10.474 11.276 2.400
10.757 11.410 2.942
11.182 10.855 2.949
11.343 10.957 3.759
11.860 10.714 4.052
12.063 10.250 4.050
9.603 11.223 1.911
10.001 11.129 2.122
10.462 11.112 2.277
10.473 10.910 2.592
10.989 10.674 3.119
11.245 10.509 3.506
11.345 10.195 4.014
11.629 10.107 4.115
12.165 9.894 4.424
8.577 12.323 0.116
9.223 10.763 1.658
9.561 10.600 1.913
10.090 10.543 2.327
10.225 10.358 2.986
10.704 10.150 3.145
10.698 10.004 3.545
11.220 9.765 3.911
11.357 9.466 4.103
11.750 9.317 4.471
8.192 11.505 0.157
9.236 10.297 1.497
9.164 10.131 1.847
9.531 10.210 2.486
9.782 9.796 2.534
10.518 9.573 3.240
10.710 9.648 3.377
10.889 9.418 3.735
11.167 8.938 4.422
11.411 8.998 4.623
7.897 11.414 0.192
9.309 9.739 1.928
9.516 9.641 2.525
9.814 9.483 2.625
10.019 9.260 3.188
10.478 9.030 3.710
10.580 8.679 4.096
11.156 8.582 4.045
9.041 9.157 2.605
9.468 9.055 2.779
9.925 8.863 2.977
10.161 8.677 3.641
10.306 8.219 3.626
11.801 12.288 2.475
12.027 12.082 2.713
11.213 11.850 2.037
11.807 11.693 2.266
11.794 11.685 2.838
12.221 11.589 3.430
10.865 11.800 1.507
11.333 11.432 2.223
11.274 11.540 2.292
11.954 11.457 2.906
11.889 10.807 3.410
12.194 10.961 3.528
10.002 11.565 1.203
10.720 11.170 1.677
10.868 11.328 2.084
10.936 10.959 2.226
11.555 10.668 3.004
12.012 10.793 3.311
12.106 10.226 3.323
12.408 10.124 3.858
9.341 11.746 0.361
9.725 11.557 1.038
9.747 11.217 1.340
10.105 10.867 1.831
10.738 10.726 1.963
11.017 10.475 2.623
10.988 10.582 2.966
11.619 10.092 3.187
11.656 9.746 3.357
12.157 9.955 4.061
12.366 9.487 4.255
8.854 11.677 -0.028
9.161 11.604 0.373
9.122 11.293 0.623
9.188 10.679 0.840
9.802 10.806 1.392
9.842 10.305 1.471
10.158 10.459 2.164
10.534 9.883 2.355
10.859 9.868 2.546
11.367 9.737 3.016
11.641 9.365 3.654
11.967 9.440 3.939
12.076 9.156 4.343
12.472 9.030 4.432
8.739 11.485 0.058
9.218 11.288 0.778
8.873 10.560 0.691
9.211 10.315 0.750
9.448 10.482 1.187
9.718 9.853 1.592
10.017 9.932 2.091
10.432 9.748 2.212
10.406 9.288 2.844
10.741 9.175 3.283
11.203 9.187 3.361
11.580 8.878 3.638
11.726 8.723 4.111
12.409 8.331 4.592
12.697 8.215 4.993
8.303 10.820 0.128
8.890 10.697 0.796
9.354 9.847 1.046
9.651 9.652 1.786
9.884 9.477 2.174
9.985 9.103 2.270
10.359 8.980 2.623
10.757 8.972 3.213
10.871 8.404 3.659
11.246 8.273 3.777
11.591 8.406 4.207
9.175 9.271 1.426
9.258 8.894 2.001
9.591 8.714 2.405
10.056 8.467 2.864
10.496 8.388 2.997
10.775 8.322 3.343
10.950 7.758 3.992
11.865 12.307 1.665
12.441 12.188 2.300
11.533 11.934 1.416
11.513 11.937 1.943
11.777 11.471 2.323
12.265 11.384 2.512
10.674 11.843 1.159
11.119 11.560 1.446
11.234 11.437 1.800
11.657 11.489 1.988
11.904 11.164 2.445
12.219 10.768 2.938
9.881 11.726 0.115
10.216 11.715 0.425
10.706 11.600 0.897
10.725 10.963 1.306
11.327 10.811 1.781
11.610 10.842 1.940
11.693 10.525 2.436
12.213 10.479 2.659
12.537 10.023 3.329
9.688 11.889 0.453
9.437 11.366 0.303
9.883 11.279 0.748
10.095 11.138 0.891
10.511 10.585 1.539
10.976 10.638 1.634
11.106 10.368 2.096
11.552 10.088 2.338
11.864 10.069 2.885
12.154 9.628 3.164
12.653 9.694 3.540
9.480 11.473 0.106
9.161 11.037 0.233
9.632 10.672 0.534
10.156 10.517 0.862
10.061 10.066 1.405
10.761 9.915 1.508
11.162 9.946 1.896
11.294 9.538 2.476
11.359 9.404 2.551
11.666 9.520 3.160
12.136 9.295 3.607
12.366 8.717 3.990
9.527 11.097 0.093
9.263 10.695 0.113
9.545 10.172 0.324
9.738 9.826 0.833
10.065 9.782 1.365
10.542 9.680 1.448
10.885 9.410 1.954
10.744 9.350 2.421
11.174 9.131 2.774
11.674 8.758 3.363
11.682 8.776 3.329
12.244 8.283 3.879
12.770 8.026 4.261
9.270 10.694 0.003
8.947 9.808 0.150
9.240 9.689 0.344
9.470 9.413 1.029
9.950 9.580 1.209
10.227 9.030 1.821
10.441 8.939 1.933
10.482 8.882 2.282
10.779 8.697 2.947
11.226 8.269 3.309
11.827 8.160 3.312
11.830 8.096 3.734
12.075 7.967 4.447
8.705 9.999 0.156
9.349 9.245 1.123
9.669 9.177 1.372
9.573 8.857 1.468
10.200 8.630 1.877
10.447 8.209 2.229
10.907 8.372 2.672
11.061 8.123 3.152
11.570 7.867 3.560
11.704 7.628 3.927
12.425 12.257 1.319
11.860 12.035 0.917
12.013 11.836 1.229
12.440 11.443 1.711
11.188 11.580 0.647
11.230 11.232 1.026
11.651 11.242 1.272
12.135 10.907 1.527
12.187 10.704 2.071
10.746 11.417 -0.017
11.000 11.327 0.365
11.009 10.867 0.732
11.625 10.624 1.373
11.948 10.594 1.728
11.945 10.278 2.130
12.194 10.421 2.199
10.078 11.032 0.073
10.354 10.825 0.681
10.744 10.378 1.089
10.969 10.171 1.093
11.675 10.011 1.817
11.811 10.116 1.989
12.249 9.949 2.341
12.625 9.589 2.714
9.939 10.518 0.125
10.168 10.532 0.758
10.814 10.086 1.164
10.703 9.958 1.103
11.118 9.897 1.816
11.580 9.397 2.012
11.765 9.511 2.492
12.018 9.324 2.989
12.444 8.895 3.197
9.761 10.024 0.262
10.016 9.737 0.692
10.549 9.869 1.107
10.769 9.527 1.189
11.117 9.260 1.589
11.378 9.127 2.250
11.398 8.690 2.374
11.700 8.744 2.758
12.029 8.298 3.346
12.356 8.385 3.639
9.251 9.555 0.215
9.535 9.294 0.446
10.117 9.138 1.145
10.313 8.849 1.434
10.817 8.671 1.649
10.806 8.713 1.921
11.397 8.359 2.611
11.789 8.301 2.730
12.075 8.229 2.991
12.258 7.764 3.374
9.481 9.109 0.570
9.744 8.852 1.066
10.019 8.513 1.339
10.316 8.383 1.867
10.652 8.324 1.776
10.975 7.901 2.552
11.289 7.860 2.747
11.849 7.652 3.048
11.985 7.277 3.485
12.206 11.659 0.569
12.363 11.343 1.108
11.292 11.669 0.397
11.809 11.107 0.747
11.859 10.972 0.771
12.375 10.778 1.273
10.978 10.963 0.359
11.698 10.686 0.354
11.933 10.431 0.805
12.246 10.330 1.538
12.474 10.384 1.925
10.853 10.442 0.136
11.052 10.254 0.586
11.435 10.348 1.130
12.059 10.053 1.146
12.276 9.897 1.879
12.564 9.798 2.099
10.557 9.989 0.114
10.964 9.814 0.454
11.052 9.796 0.874
11.647 9.438 1.459
11.948 9.148 1.565
12.427 9.301 2.083
12.302 8.901 2.192
10.464 9.449 0.027
10.578 9.402 0.708
11.204 9.066 0.717
11.237 9.006 1.347
11.812 8.854 1.520
11.703 8.500 2.001
12.256 8.336 2.244
12.525 8.373 2.740
10.125 9.002 0.073
10.564 8.907 0.636
10.783 8.681 0.861
10.930 8.602 1.274
11.406 8.554 1.774
11.751 8.126 2.079
11.908 7.926 2.217
12.274 7.786 2.749
9.562 8.784 -0.026
10.305 8.578 0.541
10.549 8.335 0.775
10.683 8.348 1.101
11.123 8.041 1.559
11.308 7.843 2.183
11.533 7.511 2.250
11.992 7.526 2.871
12.490 7.378 3.225
12.066 11.307 0.413
12.353 10.855 0.800
11.663 10.633 0.020
11.963 10.309 0.690
12.428 10.021 0.855
11.594 10.020 0.153
12.016 9.920 0.326
12.087 9.812 0.809
12.284 9.564 1.196
11.207 9.654 0.145
11.327 9.715 0.384
12.107 9.555 0.885
12.306 9.187 1.074
12.471 8.913 1.423
11.051 9.334 0.214
11.461 8.988 0.661
11.686 9.105 0.759
11.822 8.514 1.375
12.108 8.300 1.414
12.767 8.403 1.851
10.671 9.033 0.260
10.863 8.784 0.545
11.475 8.495 0.886
11.726 8.482 1.133
11.858 7.959 1.583
12.044 8.105 2.119
10.255 8.393 0.214
10.866 8.052 0.577
10.983 7.814 0.954
11.550 7.821 1.228
11.477 7.770 1.512
12.148 7.555 1.769
12.103 7.249 2.405
12.542 10.397 -0.020
12.368 10.043 0.339
12.223 9.448 0.679
11.685 9.369 0.187
12.367 9.055 0.604
12.565 8.826 0.989
11.508 8.706 -0.066
12.148 8.647 0.658
12.001 8.302 0.878
12.344 8.357 1.058
11.241 8.599 0.323
11.448 8.166 0.280
11.827 7.935 0.886
12.515 7.639 1.346
11.241 7.914 0.240
11.220 7.661 0.701
11.593 7.531 0.997
12.140 7.422 1.223
12.506 7.356 1.653
12.458 8.961 -0.032
12.452 8.357 0.391
12.712 8.355 0.342
11.889 7.985 0.047
12.514 8.038 0.330
11.933 7.412 0.116
11.956 7.525 0.624
12.118 7.131 0.801
0.033 9.628 4.692
0.378 10.617 3.578
0.570 10.817 3.625
0.105 9.909 3.908
0.361 9.880 4.111
-0.186 9.534 3.915
0.538 9.351 4.407
-0.129 9.019 4.025
0.276 11.318 2.882
0.667 10.970 3.266
1.286 10.714 3.675
0.329 10.652 2.618
0.656 10.827 3.137
0.955 10.498 3.587
1.048 10.377 3.824
0.148 10.358 3.215
0.516 10.204 3.475
0.981 9.613 3.761
0.049 9.791 3.137
0.276 9.472 3.329
0.699 9.228 3.877
-0.022 9.262 3.513
0.437 9.058 3.863
-0.102 8.453 4.029
1.401 12.040 2.185
1.547 11.556 2.934
2.169 11.418 2.985
0.924 11.700 2.204
1.553 11.476 2.915
1.532 10.978 2.905
0.481 11.143 1.836
1.019 10.970 2.149
1.293 11.095 2.593
1.400 10.459 3.100
1.905 10.384 3.414
0.476 10.933 1.904
0.434 10.396 2.273
0.716 10.326 2.791
0.966 10.432 3.323
1.745 9.997 3.452
0.275 10.324 2.555
0.479 9.951 2.587
1.106 9.721 3.159
1.074 9.509 3.426
-0.162 9.517 2.276
0.400 9.774 2.530
0.554 9.510 3.006
1.054 8.913 3.557
-0.117 8.921 2.761
0.265 8.798 3.065
0.499 8.809 3.664
0.095 8.630 3.112
0.266 8.212 3.218
0.121 7.554 3.330
2.598 12.572 3.057
2.801 12.359 3.756
1.502 12.615 2.248
2.098 12.260 3.002
2.044 11.785 3.244
1.426 12.119 2.174
1.681 11.674 2.616
2.156 11.684 2.965
1.289 12.198 1.860
1.534 11.958 1.923
2.043 11.795 2.606
2.487 11.408 2.833
2.842 11.139 3.064
0.912 11.580 1.764
1.382 11.381 1.787
1.960 10.947 2.624
2.023 11.086 2.676
2.579 10.747 3.225
0.658 11.521 1.481
0.823 11.064 1.626
0.990 10.857 2.134
1.469 10.620 2.520
1.959 10.569 2.625
2.115 10.334 3.127
0.279 10.987 1.279
0.774 10.547 1.584
0.840 10.454 2.176
1.147 10.116 2.134
1.412 10.183 2.854
1.861 9.675 2.925
0.410 10.050 1.416
0.520 10.183 1.863
1.133 9.666 2.410
1.443 9.560 2.752
1.541 9.532 3.036
0.145 9.706 1.839
0.270 9.652 1.929
0.563 9.461 2.095
0.876 9.041 2.660
1.211 9.139 3.063
0.003 8.947 2.172
0.476 9.141 2.453
0.691 8.518 2.735
0.963 8.399 3.239
0.279 8.360 2.232
0.541 8.038 2.911
0.526 8.174 3.169
-0.005 7.812 2.662
0.671 7.493 3.155
0.245 7.041 3.125
2.700 12.310 2.456
3.015 12.147 2.708
3.286 11.881 3.298
1.875 12.208 1.645
2.194 12.164 1.879
2.148 11.994 2.610
2.465 12.075 2.976
3.116 11.739 3.251
1.142 11.819 1.506
1.629 11.897 2.179
2.094 11.808 2.623
2.517 11.329 2.952
2.462 11.054 3.284
1.760 11.645 1.413
2.068 11.488 1.761
2.177 11.241 2.251
2.681 11.399 2.319
3.081 11.141 2.594
1.322 11.225 1.317
1.814 11.375 1.531
1.901 11.031 1.869
2.375 10.738 2.288
2.790 10.717 2.514
0.791 11.106 0.914
1.384 10.769 1.210
1.631 10.544 1.864
1.920 10.611 2.141
1.985 10.398 2.442
2.309 9.984 2.621
0.251 10.808 0.345
0.540 10.427 1.111
0.897 10.594 1.158
1.136 10.375 1.686
1.579 9.997 1.926
1.892 9.665 2.340
2.300 9.501 2.854
0.117 10.426 0.933
0.528 10.234 1.148
0.778 9.909 1.435
1.350 9.514 2.150
1.437 9.503 2.434
1.790 9.153 2.550
0.019 9.805 1.044
0.237 9.625 1.382
0.426 9.426 1.839
0.789 9.174 2.177
1.512 9.201 2.438
1.520 8.783 2.917
-0.002 9.086 1.026
0.312 9.160 1.381
0.813 8.746 1.903
1.101 8.440 2.385
1.301 8.525 2.661
0.170 8.382 1.718
0.344 8.272 1.752
0.696 7.937 2.078
1.077 7.838 2.482
0.211 7.597 2.012
0.488 7.504 2.497
0.762 7.243 2.862
0.163 7.335 2.526
0.710 6.771 2.597
0.241 6.667 2.653
2.326 12.676 1.655
2.838 12.523 2.239
3.288 11.999 2.180
3.269 11.993 3.001
1.882 12.063 1.418
2.476 11.997 1.692
2.435 12.043 2.064
2.978 11.719 2.348
3.001 11.471 2.757
1.511 11.676 1.101
2.061 11.598 1.631
2.138 11.480 2.151
2.710 11.275 2.234
2.820 11.136 2.866
2.180 11.566 1.033
2.419 11.410 1.283
2.867 11.379 1.706
2.793 11.035 1.857
3.366 11.076 2.478
1.709 11.251 1.128
2.045 11.212 1.445
2.558 10.970 1.874
2.779 10.751 1.946
2.824 10.238 2.355
0.983 10.862 0.463
1.641 10.901 1.133
1.602 10.639 1.198
2.204 10.152 1.570
2.309 9.922 2.189
2.857 9.778 2.524
0.738 10.590 0.082
1.129 10.400 0.413
1.017 10.186 0.752
1.364 10.261 1.096
1.979 9.958 1.406
2.123 9.537 1.841
2.297 9.430 2.361
0.305 10.231 -0.028
0.678 9.965 0.491
0.693 9.774 0.986
1.110 9.587 0.996
1.459 9.650 1.423
1.918 9.315 2.090
2.139 9.025 2.511
0.153 9.609 0.287
0.259 9.624 0.354
0.422 9.629 1.070
1.139 8.976 1.297
1.058 9.035 1.411
1.505 8.627 2.047
1.964 8.450 2.491
0.199 8.987 0.391
0.591 9.164 1.007
0.748 8.669 1.219
0.895 8.745 1.816
1.126 8.529 1.976
1.752 8.381 2.346
-0.039 8.398 0.931
0.331 8.536 1.262
0.753 8.246 1.570
1.167 8.033 1.807
1.516 7.854 2.474
0.278 7.609 1.290
0.630 7.547 1.751
0.710 7.320 2.039
0.969 7.480 2.352
0.025 7.018 1.691
0.695 6.853 1.873
0.673 6.833 2.414
0.113 6.525 1.845
0.812 6.512 2.402
0.153 5.831 2.500
-0.150 5.615 2.083
2.537 12.531 0.964
2.737 12.156 1.216
3.181 12.188 1.634
3.250 11.990 1.837
3.887 11.562 2.374
2.215 11.884 1.111
2.632 11.724 1.417
3.127 11.905 1.860
3.088 11.333 2.089
3.773 11.392 2.635
1.888 11.796 0.836
2.093 11.203 1.383
2.474 11.144 1.879
2.990 10.996 2.030
3.265 10.810 2.599
2.847 11.401 0.759
2.759 10.849 1.313
3.084 10.882 1.857
2.179 10.666 0.852
2.495 10.504 1.212
3.170 10.585 1.800
1.709 10.470 0.742
2.242 10.251 0.811
2.268 10.102 1.093
2.760 9.982 1.639
2.957 9.980 1.853
1.298 10.395 0.006
1.740 10.099 0.495
2.057 10.087 1.086
2.151 9.849 1.368
2.272 9.620 1.832
2.552 9.420 1.953
1.142 10.091 0.143
1.408 9.505 0.698
1.699 9.653 0.821
1.970 9.064 1.043
2.249 9.203 1.567
2.667 8.971 1.996
0.889 9.297 -0.036
0.855 9.374 0.672
1.481 8.849 0.770
1.486 8.938 1.049
1.747 8.481 1.453
2.062 8.567 1.959
0.419 9.119 0.132
0.916 8.845 0.579
1.161 8.636 0.841
1.505 8.215 1.085
1.585 8.133 1.363
2.056 8.009 1.890
-0.096 8.411 0.271
0.319 8.513 0.684
0.985 7.870 1.035
0.964 7.699 1.222
1.431 7.795 1.437
1.487 7.730 1.756
-0.002 7.962 0.364
0.385 7.708 0.883
0.894 7.230 0.955
1.305 7.482 1.757
1.484 7.292 2.024
0.187 7.208 0.829
0.724 7.003 1.161
0.675 6.812 1.531
1.122 6.630 2.023
0.452 6.805 0.943
0.345 6.289 1.467
1.099 5.974 1.996
0.513 5.676 1.555
-0.059 5.695 1.588
2.783 12.383 0.634
3.069 12.053 0.831
3.374 12.064 1.356
3.996 11.986 1.798
4.098 11.410 2.083
2.722 11.927 0.834
3.426 11.582 1.113
3.761 11.188 1.737
2.600 11.031 1.035
2.999 11.242 1.117
3.043 10.971 1.632
2.345 10.024 0.458
2.755 10.151 0.780
2.811 9.781 1.172
1.747 10.010 -0.059
2.247 9.744 0.601
2.552 9.451 1.048
2.642 9.530 1.065
3.119 9.171 1.446
1.709 9.579 -0.036
2.108 9.223 0.254
2.102 8.913 0.621
2.427 8.948 1.414
3.033 8.496 1.573
1.415 8.887 -0.131
1.425 8.654 0.461
2.121 8.446 0.907
2.230 8.628 1.157
2.538 8.053 1.563
1.116 8.585 0.121
1.264 8.267 0.472
1.540 7.973 0.696
1.796 7.969 1.142
2.239 7.580 1.647
0.606 8.078 0.056
1.103 7.870 0.672
1.502 7.814 0.818
1.545 7.303 1.075
1.840 7.147 1.449
0.529 7.545 -0.105
0.866 7.242 0.211
0.957 7.383 0.608
1.343 7.071 1.420
1.730 6.824 1.531
0.136 7.405 0.137
0.555 6.853 0.493
0.697 7.024 0.568
1.018 6.667 0.935
1.373 6.551 1.373
0.184 6.653 0.417
0.715 6.415 0.856
0.941 6.216 1.375
3.590 12.010 0.523
3.949 11.767 0.943
4.248 11.436 1.346
2.562 9.661 0.033
2.676 9.131 0.546
3.246 9.181 0.960
2.372 9.032 0.341
2.614 9.128 0.608
2.733 8.515 0.985
3.288 8.689 1.040
1.788 8.714 0.343
2.183 8.208 0.516
2.438 8.454 0.712
2.895 8.130 1.383
1.806 8.376 0.223
1.812 8.082 0.662
2.185 7.844 0.787
2.788 7.748 1.318
1.151 7.607 0.142
1.761 7.620 0.595
1.882 7.335 0.841
2.307 7.228 1.262
1.149 7.436 -0.023
1.534 7.099 0.221
1.803 6.741 0.633
1.905 6.845 1.124
0.718 6.848 -0.051
0.925 6.587 0.666
1.467 6.347 0.961
3.023 8.473 0.237
3.179 8.464 0.693
2.571 8.145 -0.051
2.764 7.986 0.667
3.014 8.068 0.958
2.439 7.889 0.033
2.792 7.485 0.536
2.984 7.406 0.945
2.270 7.178 -0.079
2.326 7.332 0.658
2.518 6.860 0.685
1.516 7.027 -0.022
2.084 6.575 0.572
3.712 8.450 -0.127
3.301 7.754 0.281
3.327 7.835 0.389
3.020 7.578 -0.145
3.123 7.268 0.269
2.742 6.894 -0.157
2.792 6.738 0.317
2.553 6.483 0.258
0.422 2.138 0.504
0.014 1.894 0.543
3.597 7.653 0.051
3.655 6.910 0.128
3.455 6.475 0.108
2.665 8.640 8.375
3.099 8.276 8.398
3.300 8.081 9.016
2.357 8.383 7.861
2.507 8.280 8.283
2.967 7.919 8.763
3.025 7.548 9.107
3.652 7.334 9.260
6.211 5.792 12.232
1.959 7.758 7.990
2.130 7.768 8.239
2.422 7.255 8.686
2.913 7.058 8.760
3.427 7.162 9.576
5.530 5.345 12.476
1.864 7.487 7.633
2.051 7.336 8.441
2.375 6.738 8.473
2.557 6.700 9.007
2.933 6.714 9.470
5.685 4.941 12.242
1.583 6.585 8.160
2.208 6.512 8.489
2.299 6.184 8.742
0.408 2.716 8.623
3.420 0.536 12.474
0.400 1.871 9.271
2.857 0.304 12.271
2.895 0.470 12.712
2.295 0.270 12.350
3.103 8.227 7.713
3.609 7.947 8.224
3.685 7.939 8.472
6.675 5.989 12.470
2.359 8.121 7.741
2.669 7.816 7.801
3.111 7.818 8.116
3.527 7.426 8.377
3.873 7.122 8.755
6.377 5.782 11.836
6.420 5.283 12.071
2.074 7.477 7.334
2.740 7.434 8.084
3.079 7.488 8.054
3.128 6.904 8.428
3.457 6.762 9.031
5.804 5.476 11.967
6.152 5.099 12.397
2.122 7.374 7.560
2.300 6.805 7.920
2.398 6.638 8.128
3.174 6.450 8.468
3.144 6.225 8.718
5.907 4.852 11.975
6.162 4.510 12.117
2.264 6.394 8.051
2.538 6.393 8.334
2.898 6.224 8.709
5.721 4.178 12.309
0.426 2.865 7.968
0.742 2.786 8.679
3.638 0.743 12.286
4.165 0.161 12.716
0.155 2.350 8.637
0.407 1.978 8.631
3.119 0.518 12.014
3.553 0.324 12.150
0.089 1.442 8.955
0.073 1.108 8.686
3.819 8.735 7.509
3.823 8.533 8.005
4.497 8.284 8.442
7.427 6.277 12.098
7.805 6.261 12.462
2.995 8.386 7.013
3.453 8.345 7.286
3.975 7.767 7.910
3.934 7.992 8.218
4.569 7.804 8.557
6.950 6.010 11.517
7.399 5.623 11.720
7.731 5.564 12.138
2.574 8.156 6.712
2.696 7.899 7.267
3.063 7.505 7.555
3.640 7.644 7.947
3.817 7.147 8.457
4.342 7.156 8.425
4.334 6.760 8.752
6.143 5.770 10.999
6.519 5.659 11.450
7.051 5.468 12.080
7.146 4.896 12.308
0.548 9.380 4.372
2.430 7.501 6.618
2.818 7.283 7.061
2.888 7.127 7.364
3.060 7.155 7.826
3.702 7.063 8.020
3.653 6.486 8.615
4.050 6.291 9.093
6.243 5.346 11.295
6.319 4.981 11.360
6.436 4.735 12.126
6.804 4.606 12.181
0.370 8.790 4.781
1.814 7.141 6.642
2.375 7.057 7.332
2.840 6.731 7.538
2.903 6.748 7.984
3.337 6.254 8.444
3.602 6.222 8.474
3.752 6.173 8.817
5.852 4.621 11.128
6.189 4.578 11.279
6.484 4.338 12.131
6.956 3.991 12.015
0.342 8.198 4.648
2.112 6.648 7.266
2.420 6.415 7.600
2.641 6.349 7.883
2.867 6.053 8.131
3.542 5.666 8.396
5.995 4.043 11.610
6.326 4.133 11.884
6.531 3.975 12.085
2.072 5.697 7.270
2.213 5.830 7.665
2.519 5.749 8.070
5.975 3.515 11.833
6.374 3.507 12.124
0.551 3.090 7.365
0.923 3.151 7.713
1.062 3.016 7.985
4.232 0.890 11.871
4.683 0.792 12.120
5.082 0.434 12.370
0.059 2.911 7.231
0.335 2.420 7.705
0.969 2.374 7.920
1.106 2.327 8.598
3.537 0.574 11.466
3.810 0.184 11.929
4.469 0.324 11.988
0.091 2.020 7.756
0.496 1.792 8.294
1.069 1.609 8.589
1.294 1.501 8.907
3.063 0.382 10.846
3.159 0.202 11.454
0.292 1.512 8.092
0.513 1.158 8.609
0.800 1.016 9.051
0.053 1.066 8.268
0.299 0.775 8.636
0.490 0.538 9.045
0.137 0.491 8.192
4.276 8.820 7.153
4.786 8.671 7.756
4.994 8.235 8.093
7.917 6.282 11.701
8.441 6.085 12.076
8.730 6.318 12.373
3.829 8.731 6.882
3.860 8.270 7.232
4.181 8.047 7.719
4.640 7.833 7.949
4.940 7.881 8.157
7.320 6.085 11.421
7.584 6.193 11.641
7.971 5.690 11.995
8.561 5.628 12.374
2.909 8.459 6.261
3.295 8.232 6.632
3.965 7.736 6.941
3.983 7.752 7.495
4.217 7.640 7.862
4.805 7.153 8.151
5.210 7.017 8.604
6.762 5.821 10.956
7.066 5.626 11.284
7.318 5.423 11.463
7.836 5.543 12.146
8.378 5.154 12.489
1.126 9.625 3.987
2.320 8.302 5.841
2.939 7.736 6.323
3.269 7.599 6.799
3.325 7.456 7.151
3.741 7.572 7.344
4.072 7.334 7.801
4.353 6.906 8.074
4.565 6.908 8.637
5.240 6.692 8.862
6.467 5.697 10.578
6.864 5.397 10.818
7.056 5.578 10.982
7.291 5.165 11.333
7.805 5.146 11.692
8.062 4.970 12.045
1.149 9.090 4.394
1.143 8.993 4.592
2.160 7.806 6.106
2.528 7.539 6.498
2.759 7.369 6.855
3.117 7.326 7.116
3.538 7.034 7.257
3.960 6.616 8.059
4.045 6.364 8.459
4.427 6.121 8.814
4.834 6.300 8.994
6.260 5.112 10.458
6.141 5.088 10.738
6.693 4.713 11.331
7.132 4.760 11.645
7.214 4.345 11.684
7.458 4.377 12.362
0.858 8.505 3.980
0.779 8.343 4.489
2.212 7.357 5.934
2.404 6.808 6.191
2.418 6.904 6.537
2.988 6.672 7.217
3.296 6.653 7.372
3.607 6.250 7.972
3.758 5.901 8.387
4.013 5.627 8.803
4.569 5.394 9.093
5.730 4.616 10.639
6.068 4.574 10.572
6.427 4.482 11.230
6.509 4.088 11.469
7.162 3.968 11.707
7.197 4.003 12.042
0.528 8.030 4.079
0.761 8.248 4.589
2.187 6.489 6.141
2.503 6.529 6.766
2.908 6.007 7.203
3.144 6.102 7.384
3.440 5.561 7.642
3.788 5.470 8.135
4.009 5.447 8.682
5.606 4.046 10.982
6.308 4.180 10.953
6.400 3.652 11.604
6.551 3.510 12.033
7.135 3.509 12.321
0.177 7.794 4.234
2.176 5.848 6.515
2.581 5.584 7.283
2.915 5.470 7.518
3.199 5.194 7.774
3.318 4.900 8.401
5.706 3.305 11.203
6.364 3.410 11.347
6.614 3.082 11.939
6.850 3.183 12.202
2.117 5.188 7.257
2.359 5.036 7.584
2.743 4.864 8.026
5.993 2.956 11.683
6.355 2.603 12.013
6.548 2.530 12.252
0.887 3.358 6.915
1.138 3.305 7.487
1.597 3.191 7.687
4.634 0.922 11.482
5.233 0.864 11.864
5.666 0.686 12.171
0.343 3.415 6.426
0.680 2.939 7.055
1.002 2.990 7.355
1.316 2.650 7.590
1.657 2.577 8.344
4.407 0.805 11.043
4.467 0.540 11.352
5.088 0.255 11.951
5.268 0.188 11.932
5.329 0.282 12.399
0.429 2.705 6.634
0.666 2.758 6.767
0.659 2.445 7.567
0.916 2.074 7.946
1.611 1.838 8.191
1.769 1.680 8.711
3.743 0.478 10.895
3.902 0.647 10.946
4.133 0.436 11.552
4.517 -0.141 11.600
0.168 2.200 6.871
0.792 1.873 7.421
0.882 1.762 7.796
1.219 1.601 8.286
1.497 1.211 8.337
1.598 1.125 8.594
2.992 0.192 10.238
3.242 0.130 10.515
0.066 1.728 7.335
0.425 1.057 7.813
0.686 0.935 7.960
1.032 0.741 8.210
1.769 0.778 8.831
0.117 1.266 7.281
0.352 1.088 7.776
0.465 0.513 7.944
0.960 0.560 8.218
1.520 0.187 8.872
0.031 0.256 7.611
0.267 0.373 8.110
0.558 0.230 8.644
5.554 10.775 7.412
5.896 10.715 7.599
5.950 10.057 7.948
9.378 8.202 11.578
9.472 7.923 12.160
9.999 8.016 12.129
4.978 9.632 6.849
5.663 9.600 7.301
5.702 9.013 7.479
8.695 7.201 11.161
9.274 7.116 11.657
9.799 6.781 11.904
4.942 9.308 6.751
5.173 8.939 7.103
5.311 8.635 7.576
8.527 6.825 11.037
8.899 6.707 11.569
9.298 6.491 11.813
4.191 8.913 6.616
4.742 8.669 6.743
4.908 8.702 7.062
5.127 8.241 7.751
5.757 8.310 7.691
8.098 6.579 10.873
8.314 6.450 11.314
8.901 6.080 11.668
8.894 5.787 11.868
9.307 5.465 12.136
3.587 8.614 5.999
4.146 8.395 6.358
4.195 8.318 6.694
4.890 8.058 7.101
4.973 7.915 7.588
5.088 7.864 7.848
5.507 7.257 8.259
7.677 6.278 10.246
7.913 6.154 10.987
8.346 5.929 11.178
8.372 5.447 11.389
8.790 5.376 11.947
9.008 5.194 12.116
1.790 9.915 3.710
3.357 8.238 5.529
3.255 8.399 6.082
3.536 7.991 6.308
4.239 7.602 6.846
4.280 7.825 7.020
4.657 7.344 7.478
5.191 6.983 7.748
5.497 6.819 8.231
5.826 6.679 8.440
6.693 5.832 9.904
7.345 5.672 10.427
7.466 5.669 10.777
7.657 5.387 11.229
8.186 4.975 11.328
8.572 4.833 11.736
8.975 4.666 12.230
1.487 9.472 3.706
1.900 9.330 4.253
2.339 8.563 4.676
2.587 8.388 5.341
2.650 8.035 5.516
3.395 7.596 5.896
3.666 7.573 6.301
3.964 7.355 6.576
4.181 7.048 7.350
4.672 6.797 7.406
4.529 6.621 8.068
4.976 6.591 8.140
5.183 6.390 8.352
5.503 6.039 8.956
6.058 6.116 9.330
6.544 5.866 9.492
6.723 5.734 10.064
7.099 5.583 10.202
7.270 4.962 10.776
7.748 4.806 10.977
7.944 4.856 11.575
8.381 4.396 12.138
8.632 4.475 12.494
1.465 9.116 3.885
1.456 8.566 4.093
1.767 8.677 4.661
1.986 8.424 4.782
2.090 7.865 5.040
2.382 7.728 5.047
2.651 7.284 5.775
3.139 7.306 5.774
3.443 7.165 6.582
3.711 6.867 6.875
3.695 6.875 7.222
4.403 6.729 7.520
4.665 6.338 7.750
4.809 6.215 8.017
5.173 6.132 8.693
5.631 5.622 8.991
5.980 5.712 9.524
6.176 5.152 9.521
6.341 5.130 10.218
6.788 4.920 10.472
7.183 4.682 10.613
7.141 4.297 11.264
7.469 4.526 11.279
7.779 4.343 12.128
8.263 4.035 12.447
0.832 8.254 4.021
1.092 8.482 4.245
1.428 8.031 4.420
1.928 8.011 4.811
1.880 7.284 4.686
2.093 7.081 5.258
2.076 6.852 5.684
2.622 6.821 5.970
3.093 6.605 6.466
3.356 6.452 6.496
3.702 6.224 7.136
3.808 6.086 7.706
3.972 5.939 7.894
4.364 5.841 7.957
4.600 5.465 8.641
5.050 5.023 9.109
5.662 5.110 9.521
5.727 5.003 9.900
6.341 4.589 10.176
6.632 4.548 10.410
6.936 4.481 10.917
7.059 3.978 11.230
7.360 4.090 11.728
7.839 3.528 11.762
8.067 3.638 12.316
0.785 7.813 3.884
0.839 7.680 4.068
1.436 7.806 4.768
1.840 7.281 5.074
2.025 6.502 5.612
2.256 6.359 5.834
2.624 6.337 6.288
3.200 5.983 6.534
3.466 5.627 7.290
3.620 5.721 7.266
3.906 5.608 7.794
4.078 5.257 8.068
4.622 5.192 8.393
5.910 4.417 10.146
6.100 4.127 10.353
6.390 3.738 10.935
6.957 3.486 11.071
6.945 3.431 11.742
7.436 3.362 11.809
7.621 3.150 12.472
0.557 7.580 3.742
0.802 7.286 4.103
2.035 6.195 5.781
2.413 5.717 6.198
2.555 5.351 6.800
3.051 5.521 6.996
3.357 4.963 7.313
3.859 5.085 7.701
3.981 4.593 8.357
6.083 3.698 10.335
6.186 3.532 10.538
6.347 3.216 10.888
6.970 3.057 11.269
7.184 2.697 11.741
7.219 2.513 12.049
0.066 7.333 3.579
2.005 5.284 6.087
2.378 4.955 6.698
2.760 5.081 7.070
2.861 4.510 7.216
3.345 4.660 7.932
6.150 3.039 10.880
6.476 2.523 10.872
6.459 2.528 11.247
7.027 2.269 11.720
7.247 2.140 12.126
2.150 4.886 6.917
2.282 4.431 6.957
2.820 4.384 7.353
6.118 2.337 10.927
6.241 2.136 11.441
6.373 1.936 11.630
2.082 4.346 6.715
2.305 3.782 6.868
2.304 4.008 7.426
5.705 1.833 10.883
6.150 1.411 11.625
6.551 1.600 11.734
1.726 3.965 6.643
1.961 3.618 7.121
2.408 3.370 7.424
5.627 1.476 11.090
5.951 1.230 11.371
6.117 0.950 12.012
1.166 3.517 6.238
1.244 3.158 6.730
1.886 3.198 7.194
2.245 2.726 7.372
2.528 2.843 7.580
4.640 0.904 10.862
5.298 0.985 11.095
5.377 0.720 11.466
5.631 0.348 11.940
5.945 0.292 12.001
0.368 3.362 6.087
0.614 3.040 6.164
0.923 2.937 6.702
1.581 2.611 7.003
1.502 2.237 7.164
2.083 2.190 7.802
2.277 1.889 7.959
4.226 0.657 10.245
4.511 0.649 10.756
4.767 0.626 10.925
5.302 0.429 11.649
5.326 0.256 11.980
0.386 2.776 5.788
0.610 2.433 6.184
0.761 2.373 6.515
1.370 2.302 7.179
1.510 2.139 7.544
1.839 1.869 7.569
2.217 1.523 7.913
2.301 1.209 8.709
3.871 0.381 9.907
4.005 0.418 10.123
4.402 0.393 10.807
4.592 0.192 11.014
0.136 2.211 6.346
0.536 1.964 6.597
0.920 1.856 6.851
0.993 1.615 7.534
1.325 1.239 7.703
1.847 0.960 8.008
1.911 0.741 8.439
2.386 0.931 8.715
2.781 0.411 9.288
3.250 0.567 9.748
3.522 0.375 9.752
0.224 1.592 6.482
0.577 1.176 6.888
0.815 1.060 7.318
1.394 0.832 7.538
1.456 0.878 8.207
1.933 0.644 8.436
2.094 0.489 8.985
2.669 0.235 9.366
-0.117 0.837 6.506
0.150 0.905 6.921
0.806 0.438 7.257
0.897 0.360 7.470
1.355 0.174 7.963
1.687 0.022 8.236
0.241 0.325 7.086
0.295 0.079 7.198
0.810 0.075 7.793
5.160 10.852 6.417
5.515 10.416 7.028
5.779 10.525 7.343
6.109 9.883 7.735
6.493 9.698 7.968
9.021 8.528 11.057
9.604 8.285 11.081
9.549 8.049 11.800
10.206 7.622 11.863
10.237 7.288 12.429
5.268 10.197 6.779
5.939 9.892 7.087
6.153 9.847 7.751
9.194 7.777 11.071
9.562 7.397 11.581
9.718 7.374 12.028
4.955 9.457 6.595
5.698 9.580 7.164
5.678 9.272 7.565
8.798 6.998 11.264
9.004 6.960 11.697
9.716 6.683 11.835
5.017 9.566 6.011
5.544 9.279 6.320
5.621 8.990 7.001
6.197 8.871 7.108
6.625 8.580 7.304
9.148 7.322 10.572
9.180 7.020 10.979
9.783 6.878 11.356
9.653 6.503 11.566
10.004 6.480 11.813
5.030 9.180 6.217
5.422 8.809 6.343
5.558 8.539 6.973
5.736 8.459 7.031
5.963 8.588 7.637
8.742 6.651 10.291
8.826 6.539 10.828
9.424 6.606 10.970
9.785 6.291 11.455
10.161 5.746 12.051
4.481 9.079 5.667
4.511 8.814 6.188
4.998 8.691 6.279
5.464 8.222 6.553
5.440 8.338 7.327
5.877 7.706 7.619
6.377 7.684 7.648
8.036 6.622 9.976
8.358 6.289 10.225
8.679 5.981 10.663
9.237 6.026 11.144
9.195 5.779 11.338
9.739 5.758 11.782
2.561 10.134 3.610
3.779 8.512 5.367
3.846 8.647 5.793
4.370 8.365 5.837
4.548 8.161 6.241
4.796 7.811 6.639
5.487 7.908 6.940
5.567 7.367 7.489
5.786 7.343 7.952
6.170 6.892 8.410
7.385 6.204 9.946
7.620 6.067 9.977
8.302 5.977 10.404
8.245 5.465 10.679
8.538 5.381 11.129
9.195 5.047 11.336
9.357 5.036 12.082
2.083 9.673 3.358
2.272 9.422 3.835
2.717 8.826 4.576
3.161 8.438 4.862
3.649 8.251 5.121
3.621 8.069 5.879
4.263 7.596 5.883
4.159 7.569 6.612
4.710 7.568 6.793
5.022 7.425 6.969
5.348 7.018 7.435
5.493 6.760 7.792
5.858 6.744 8.289
6.265 6.646 8.622
6.699 6.186 8.737
7.003 5.890 9.171
7.179 6.017 9.848
7.772 5.535 9.837
7.846 5.329 10.524
8.183 5.407 10.793
8.303 5.202 11.138
8.950 4.793 11.712
9.278 4.652 11.866
1.916 9.196 3.664
2.125 8.766 4.030
2.689 8.605 4.301
2.769 8.826 4.638
2.307 8.403 4.381
2.789 8.046 4.775
3.232 7.558 5.134
3.334 7.370 5.451
3.631 7.407 5.781
3.909 7.268 6.268
4.517 7.043 6.680
4.835 6.803 6.974
4.864 6.396 7.371
5.403 6.241 7.980
5.927 6.025 8.095
5.919 6.136 8.692
6.233 5.660 8.833
6.723 5.752 9.176
7.191 5.232 9.643
7.372 5.248 10.038
7.825 4.870 10.565
8.093 4.688 10.737
8.166 4.762 11.246
8.495 4.539 11.323
8.638 4.388 11.935
1.521 8.833 3.405
1.872 8.319 3.824
2.030 8.423 4.045
2.438 7.977 4.398
2.245 7.827 4.327
2.725 7.444 4.746
2.778 7.129 5.162
3.041 7.113 5.598
3.704 7.145 6.223
3.729 6.656 6.147
4.149 6.493 6.940
4.260 6.345 7.066
4.693 6.174 7.556
4.987 5.741 7.761
5.262 5.874 8.135
5.741 5.624 8.411
5.966 5.310 8.837
6.571 5.322 9.170
6.597 4.739 9.521
6.832 4.659 9.978
7.379 4.658 10.268
7.647 4.246 10.959
7.913 4.230 10.981
8.226 3.725 11.562
8.688 3.805 11.673
1.279 8.332 3.353
1.535 7.965 3.853
1.996 8.150 3.922
2.090 7.703 4.392
2.220 7.351 4.471
2.158 6.976 4.740
2.460 6.970 5.051
2.856 6.483 5.779
3.433 6.644 6.182
3.450 6.077 6.338
4.121 5.907 6.658
4.243 5.771 7.239
4.526 5.782 7.620
5.040 5.528 7.964
5.136 5.148 8.180
5.569 4.891 8.695
5.649 4.896 9.054
6.017 4.894 9.346
6.532 4.385 9.642
6.652 4.519 10.021
7.107 4.281 10.547
7.254 4.085 10.965
7.653 3.869 11.225
7.963 3.512 11.593
8.171 3.150 12.109
0.819 7.904 3.251
1.260 7.679 3.677
1.592 7.307 4.269
1.897 7.167 4.674
1.902 6.919 4.718
2.274 6.526 4.963
2.240 6.416 5.287
2.701 6.437 5.381
3.082 5.879 6.044
3.376 5.767 6.109
3.669 5.694 6.488
4.120 5.349 7.171
4.346 5.049 7.504
4.328 5.164 7.867
5.005 4.586 7.943
5.339 4.723 8.652
5.686 4.306 8.813
5.678 4.311 9.272
6.256 4.043 9.591
6.516 4.020 9.792
6.547 3.779 10.261
7.089 3.288 10.882
7.520 3.007 11.027
7.953 2.797 11.336
8.030 2.703 12.085
0.976 7.364 3.380
1.318 7.210 3.626
1.526 7.010 4.065
1.916 6.665 4.396
2.022 5.921 5.206
2.325 5.529 5.361
2.716 5.743 5.843
3.139 5.584 6.376
3.341 5.061 6.657
3.575 5.169 6.990
3.980 4.902 7.622
4.057 4.619 7.808
4.702 4.513 8.037
5.825 3.698 9.561
6.315 3.277 9.808
6.270 3.381 10.560
6.764 3.047 10.905
6.901 2.602 11.015
7.636 2.487 11.404
7.673 2.562 11.706
0.582 6.778 3.225
0.939 6.710 3.870
2.333 5.198 5.424
2.490 5.082 5.742
2.719 4.952 6.243
3.268 4.899 6.600
3.375 4.540 7.175
3.598 4.364 7.456
4.189 4.214 7.825
6.066 2.785 10.100
6.376 2.611 10.145
6.630 2.639 10.943
6.975 2.243 11.246
7.419 1.982 11.446
7.550 1.722 11.652
0.122 6.560 3.189
1.984 4.554 5.913
2.529 4.676 6.481
2.662 4.440 6.475
3.091 4.254 7.290
3.613 3.851 7.581
6.032 2.347 10.219
6.448 1.978 10.963
6.842 1.776 10.940
7.043 1.561 11.492
7.148 1.703 11.600
1.724 4.087 5.876
2.322 4.061 6.457
2.423 3.879 6.610
2.984 3.853 7.078
3.050 3.607 7.260
5.697 1.604 10.451
5.930 1.675 10.826
6.273 1.579 11.164
6.474 1.115 11.235
7.192 1.238 11.968
1.792 3.917 5.869
2.147 3.678 6.174
2.156 3.569 6.445
2.577 3.083 7.032
2.995 2.860 7.202
5.220 1.432 10.206
5.947 1.141 10.458
6.038 0.889 10.880
6.504 0.612 11.578
6.790 0.567 11.630
1.117 3.762 5.690
1.334 3.490 6.016
1.595 3.037 6.073
2.103 2.799 6.665
2.294 2.551 7.027
2.472 2.763 7.357
2.961 2.368 7.595
4.643 1.064 9.981
4.962 0.791 10.353
5.641 0.834 10.626
5.735 0.423 10.887
5.867 0.225 11.479
6.619 -0.021 11.726
0.334 3.057 4.954
0.869 2.966 5.692
1.209 3.123 5.762
1.370 2.883 6.500
1.771 2.587 6.551
2.287 2.496 7.063
2.406 2.262 7.296
2.837 1.778 7.586
3.058 1.792 8.051
4.236 0.917 9.503
4.809 0.784 9.878
4.729 0.369 10.191
5.259 0.273 10.877
5.747 -0.141 11.024
0.390 2.627 5.379
0.399 2.409 5.555
0.753 2.609 5.837
1.300 2.056 6.370
1.539 2.032 6.545
1.702 1.718 6.838
2.081 1.672 7.256
2.606 1.658 7.806
2.821 1.114 8.261
3.167 1.120 8.613
3.439 0.744 8.670
3.609 0.697 9.230
4.131 0.471 9.742
4.291 0.484 9.995
4.689 0.255 10.360
0.162 2.182 5.404
0.482 2.189 6.064
0.850 1.580 6.390
1.010 1.398 6.816
1.319 1.280 6.760
1.845 1.191 7.414
2.143 1.186 7.596
2.280 0.637 7.976
2.734 0.596 8.477
3.092 0.468 8.847
3.461 0.159 9.163
0.321 1.765 5.893
0.805 1.329 6.190
0.786 1.209 6.592
1.479 1.165 7.159
1.649 0.883 7.483
2.112 0.420 7.769
2.271 0.515 8.109
2.616 0.076 8.507
0.089 1.217 5.738
0.107 1.056 6.001
0.888 0.857 6.432
0.747 0.669 6.953
1.292 0.519 7.321
1.407 0.065 7.696
-0.105 0.215 6.057
0.539 0.217 6.662
0.779 -0.055 7.139
5.440 10.522 5.507
5.583 10.518 5.923
5.788 10.091 6.475
6.506 10.298 6.748
6.656 10.110 7.049
6.977 9.895 7.758
7.453 9.576 8.133
9.383 8.224 10.148
9.702 8.249 10.504
9.704 8.114 10.861
10.157 7.594 11.293
10.481 7.457 11.507
10.897 7.212 12.125
3.490 11.826 3.478
5.440 10.010 6.141
5.966 9.719 6.395
6.172 9.857 6.983
6.467 9.342 7.214
6.628 9.431 7.680
9.174 7.783 10.341
9.477 7.541 10.748
10.027 7.229 11.237
10.341 7.184 11.395
10.426 7.108 11.746
5.157 9.587 5.985
5.442 9.405 6.317
5.806 9.240 6.701
6.099 9.130 7.235
6.232 8.720 7.742
8.851 7.381 10.702
9.032 7.250 10.867
9.568 6.739 11.438
9.914 6.620 11.587
10.051 6.651 11.938
5.645 9.533 5.714
5.705 9.307 5.995
5.902 9.257 6.236
6.524 8.997 6.968
6.635 8.498 7.349
9.338 7.232 9.871
9.494 6.600 10.651
9.944 6.772 10.841
10.340 6.270 11.450
10.402 6.351 11.373
5.083 8.924 5.813
5.605 8.819 5.825
5.787 8.644 6.213
5.932 8.298 6.589
6.360 7.998 7.286
8.957 6.607 10.094
9.337 6.528 10.444
9.786 6.230 11.078
9.694 5.778 11.295
10.407 5.694 11.621
4.409 8.952 5.138
4.786 8.551 5.648
5.029 8.233 6.249
5.757 8.178 6.540
5.980 7.850 6.724
6.280 7.846 7.159
6.748 7.749 7.334
8.433 6.365 9.485
8.847 6.372 9.942
9.069 6.082 10.397
9.106 5.816 10.659
9.691 5.425 11.167
9.903 5.343 11.466
2.552 10.026 2.951
3.801 8.395 4.844
4.218 8.422 5.199
4.518 7.937 5.570
5.108 8.072 6.063
5.515 7.695 6.540
5.537 7.687 6.579
5.736 7.304 7.153
6.409 7.268 7.536
6.499 6.781 7.826
7.584 6.085 9.379
8.013 5.821 9.674
8.614 5.844 9.855
8.763 5.683 10.603
8.838 5.250 10.917
9.189 5.180 11.099
9.536 4.893 11.732
2.213 9.292 2.970
2.561 9.274 3.635
3.200 8.669 4.017
3.453 8.011 4.455
3.524 8.079 4.831
3.898 7.773 5.094
4.444 7.824 5.864
4.556 7.225 5.803
5.103 7.473 6.170
5.520 7.048 6.514
5.642 6.772 7.327
6.173 6.850 7.330
6.400 6.606 7.619
6.543 6.416 8.004
7.042 6.233 8.666
7.324 5.652 8.941
7.459 5.714 9.207
7.803 5.406 9.867
8.192 5.055 9.950
8.598 5.263 10.350
8.996 4.913 10.618
9.115 4.871 11.159
9.479 4.603 11.300
2.111 8.842 3.058
2.650 8.895 3.663
2.908 8.685 4.041
3.305 8.348 4.091
2.661 7.880 4.039
3.028 7.632 4.571
3.429 7.755 4.955
3.806 7.368 5.163
4.019 7.308 5.578
4.635 7.159 5.924
4.798 6.994 6.207
5.308 6.689 6.827
5.390 6.556 6.907
5.636 6.020 7.360
6.023 5.777 7.632
6.340 5.713 8.029
6.427 5.806 8.605
7.069 5.336 9.102
7.217 5.033 9.223
7.714 5.187 9.662
7.958 4.695 9.912
8.072 4.605 10.430
8.512 4.445 10.691
9.041 4.088 10.941
9.406 3.794 11.524
2.122 8.688 2.834
2.195 8.506 3.279
2.340 8.076 3.813
2.893 8.149 4.394
2.563 7.490 4.331
2.678 7.527 4.576
3.115 7.012 4.977
3.722 7.109 5.427
3.757 6.918 5.442
4.251 6.658 6.185
4.594 6.342 6.525
5.038 6.038 6.921
5.337 6.113 7.321
5.504 5.702 7.271
5.644 5.678 7.648
5.826 5.394 8.086
6.532 5.181 8.641
6.933 5.080 9.166
7.017 4.879 9.432
7.245 4.475 9.505
7.392 4.370 10.070
8.126 3.972 10.420
8.399 3.840 10.580
8.569 3.841 11.190
9.007 3.359 11.495
1.500 7.901 3.042
1.795 7.826 3.567
2.480 7.564 3.671
2.729 7.689 4.187
2.413 7.185 3.977
2.445 6.927 4.340
2.974 6.545 4.818
3.271 6.620 5.446
3.460 6.377 5.429
3.873 6.112 6.164
4.038 5.950 6.532
4.434 5.460 6.926
4.961 5.444 6.906
5.362 5.491 7.678
5.681 5.219 7.820
5.906 4.767 8.144
6.176 4.843 8.383
6.266 4.621 8.861
6.567 4.446 9.060
7.236 4.172 9.526
7.144 3.660 9.945
7.490 3.558 10.220
7.982 3.473 10.572
8.143 3.405 11.146
8.511 3.212 11.557
1.310 7.616 3.167
1.615 7.608 3.602
1.817 7.300 4.008
2.227 7.279 4.273
1.890 6.717 3.902
2.200 6.499 4.637
2.574 6.469 4.669
2.944 6.176 5.248
3.082 5.614 5.647
3.857 5.563 5.731
3.881 5.645 6.302
4.324 5.318 6.612
4.466 4.897 7.025
4.781 4.885 7.411
5.375 4.494 7.907
5.642 4.354 8.266
6.044 4.384 8.377
6.221 4.226 8.826
6.664 3.886 9.331
6.859 3.462 9.688
6.889 3.419 10.240
7.558 3.238 10.144
7.958 3.014 10.771
7.814 2.941 11.282
8.536 2.726 11.668
1.157 7.383 3.013
1.649 7.234 3.354
1.494 6.956 3.556
1.881 6.852 4.363
2.456 5.832 4.937
2.843 5.634 5.133
2.832 5.156 5.601
3.132 5.176 5.896
3.504 5.071 6.221
3.920 4.594 6.624
4.452 4.819 6.839
4.732 4.534 7.539
5.032 4.271 7.892
6.312 3.612 9.387
6.671 3.328 9.481
6.981 2.848 9.892
7.127 2.870 10.547
7.328 2.474 10.830
7.729 2.315 11.344
7.948 2.216 11.692
0.769 6.558 2.977
1.251 6.815 3.241
