7.783 0.511 2.518
7.805 0.829 2.167
7.967 1.177 1.873
8.153 1.494 1.542
8.105 2.390 0.975
8.288 2.698 0.634
8.472 3.001 0.333
7.296 0.575 3.107
7.498 0.920 2.710
7.630 1.177 2.394
8.059 3.083 0.812
8.174 3.325 0.436
8.235 3.626 0.201
7.098 0.966 3.329
7.182 1.222 2.988
7.876 3.719 0.703
8.054 3.977 0.340
6.833 1.332 3.540
7.573 4.073 0.917
7.746 4.322 0.581
7.867 4.652 0.242
6.518 1.656 3.663
7.366 4.383 1.026
7.473 4.706 0.724
7.623 5.036 0.408
7.711 5.373 0.083
6.217 1.976 3.884
9.988 0.199 0.398
10.153 0.400 0.131
9.576 0.200 0.999
9.769 0.435 0.677
9.833 0.837 0.317
9.579 0.164 1.009
9.277 0.558 1.208
9.400 0.803 0.800
9.588 1.146 0.439
9.680 1.407 0.067
9.177 0.213 1.569
9.270 0.537 1.202
9.035 0.859 1.348
9.192 1.220 1.062
9.278 1.520 0.663
9.520 1.761 0.320
8.754 0.322 2.032
8.968 0.577 1.694
9.112 0.879 1.404
8.728 1.282 1.507
8.902 1.513 1.258
9.051 1.857 0.866
9.167 2.106 0.529
9.315 2.472 0.187
8.230 -0.001 3.003
8.371 0.372 2.606
8.533 0.662 2.275
8.701 0.939 1.851
8.846 1.225 1.562
8.515 1.620 1.773
8.625 1.953 1.412
8.835 2.184 1.040
8.929 2.553 0.663
9.107 2.748 0.380
9.222 3.122 -0.020
7.965 0.413 3.130
8.077 0.735 2.859
8.186 0.921 2.435
8.427 1.254 2.075
8.570 1.538 1.742
8.479 2.588 1.218
8.627 2.808 0.966
8.765 3.135 0.531
8.895 3.445 0.212
7.748 0.750 3.335
7.888 0.998 3.005
7.971 1.280 2.600
8.343 3.145 1.131
8.474 3.487 0.787
8.711 3.800 0.400
8.816 4.105 0.124
7.450 1.064 3.612
7.537 1.316 3.222
8.211 3.875 0.911
8.424 4.173 0.623
8.539 4.446 0.228
7.182 1.480 3.692
7.999 4.146 1.141
8.191 4.453 0.773
8.319 4.813 0.517
8.398 5.163 0.057
6.837 1.828 3.944
7.729 4.616 1.333
7.827 4.803 0.966
8.047 5.122 0.627
8.130 5.451 0.282
6.624 2.139 4.112
10.356 0.227 0.674
10.507 0.546 0.349
10.003 0.364 1.176
10.071 0.596 0.849
10.273 0.907 0.495
10.412 1.261 0.147
9.792 -0.022 1.526
9.982 0.385 1.214
9.685 0.725 1.438
9.839 0.963 1.044
9.925 1.336 0.753
10.053 1.545 0.388
10.217 1.917 0.006
9.401 0.022 2.120
9.550 0.415 1.747
9.670 0.688 1.496
9.400 0.993 1.622
9.569 1.321 1.328
9.751 1.658 0.991
9.865 1.891 0.621
9.953 2.283 0.184
9.071 0.165 2.671
9.145 0.471 2.297
9.266 0.779 1.940
9.386 1.087 1.630
9.173 1.343 1.857
9.296 1.711 1.429
9.382 1.963 1.177
9.562 2.333 0.792
9.763 2.541 0.469
9.897 2.914 0.027
8.657 0.132 3.196
8.758 0.425 2.884
8.836 0.708 2.578
9.077 1.117 2.171
9.123 1.378 1.888
8.920 1.728 2.010
9.038 2.051 1.730
9.199 2.343 1.294
9.250 2.677 0.921
9.431 2.997 0.650
9.572 3.263 0.276
8.371 0.515 3.465
8.465 0.807 3.085
8.648 1.144 2.680
8.703 1.448 2.432
8.872 1.700 2.079
9.068 3.028 1.210
9.231 3.293 0.887
9.360 3.641 0.421
9.513 3.848 0.106
8.108 0.895 3.618
8.266 1.165 3.311
8.928 3.641 1.039
9.051 3.893 0.715
9.134 4.205 0.300
7.805 1.258 3.765
8.632 4.009 1.200
8.821 4.246 0.850
8.966 4.580 0.544
9.067 4.874 0.195
7.503 1.564 3.996
8.380 4.359 1.398
8.525 4.606 1.136
8.679 4.960 0.668
8.809 5.293 0.436
8.982 5.601 -0.000
7.274 1.927 4.268
8.160 4.737 1.667
8.281 4.951 1.305
8.343 5.361 0.932
8.527 5.639 0.602
8.621 5.938 0.248
7.022 2.270 4.460
11.268 0.627 0.022
10.918 0.725 0.628
11.006 1.025 0.287
10.364 0.469 1.521
10.524 0.791 1.143
10.672 1.114 0.782
10.769 1.433 0.412
10.909 1.647 0.069
10.187 0.135 1.911
10.385 0.496 1.553
10.102 0.832 1.718
10.251 1.173 1.326
10.293 1.443 0.989
10.522 1.716 0.609
10.675 2.024 0.248
9.757 0.154 2.432
9.943 0.483 2.099
10.097 0.870 1.695
9.870 1.187 1.847
9.995 1.437 1.550
10.125 1.771 1.226
10.179 2.069 0.808
10.301 2.361 0.484
10.534 2.747 0.142
9.368 0.306 2.989
9.476 0.579 2.641
9.628 0.839 2.239
9.747 1.151 1.953
9.487 1.524 2.072
9.692 1.803 1.691
9.867 2.183 1.431
9.938 2.397 1.067
10.124 2.791 0.673
10.219 3.031 0.354
10.334 3.349 0.059
8.927 0.282 3.458
9.166 0.662 3.137
9.285 0.954 2.775
9.388 1.208 2.501
9.546 1.489 2.108
9.530 2.532 1.634
9.636 2.784 1.219
9.835 3.085 0.927
9.988 3.440 0.572
10.104 3.738 0.173
8.722 0.667 3.726
8.857 1.014 3.299
9.051 1.315 2.979
9.403 3.113 1.424
9.576 3.486 1.104
9.706 3.742 0.808
9.877 4.042 0.360
9.931 4.286 0.033
8.499 0.979 3.897
8.583 1.320 3.561
9.266 3.787 1.236
9.456 4.087 0.996
9.548 4.369 0.614
9.706 4.713 0.302
8.226 1.374 4.095
9.094 4.441 1.199
9.339 4.768 0.768
9.422 5.078 0.432
9.611 5.331 0.084
8.900 4.798 1.345
9.042 5.148 1.044
9.183 5.345 0.693
9.299 5.720 0.304
8.673 5.120 1.591
8.700 5.423 1.149
8.918 5.774 0.892
9.055 5.991 0.511
11.399 1.133 0.560
11.596 1.496 0.194
11.087 1.461 0.667
11.260 1.761 0.354
11.358 2.169 0.085
10.689 1.577 1.274
10.908 1.866 0.982
11.023 2.119 0.620
11.196 2.466 0.253
9.999 0.033 3.032
10.156 0.287 2.646
10.502 1.871 1.451
10.656 2.185 1.105
10.781 2.496 0.721
10.834 2.763 0.486
11.001 3.141 0.017
9.692 0.115 3.622
9.777 0.423 3.207
9.874 0.650 2.867
10.282 2.610 1.336
10.432 2.866 0.961
10.613 3.186 0.666
10.699 3.462 0.314
9.326 0.464 3.784
9.564 0.729 3.475
10.064 2.966 1.513
10.240 3.199 1.201
10.329 3.463 0.830
10.427 3.889 0.519
10.616 4.150 0.164
9.118 0.774 3.975
9.196 1.112 3.676
9.933 3.550 1.425
10.057 3.914 0.996
10.215 4.120 0.672
10.314 4.523 0.359
8.881 1.119 4.220
9.993 4.511 0.874
10.117 4.775 0.511
11.945 1.563 0.388
12.058 1.908 0.117
11.699 1.964 0.686
11.815 2.242 0.324
11.191 1.962 1.231
11.420 2.354 0.801
11.538 2.628 0.531
11.699 2.863 0.109
10.368 0.177 3.288
11.028 2.317 1.380
11.108 2.635 0.996
11.192 2.954 0.752
11.368 3.255 0.397
9.978 0.265 3.852
10.115 0.528 3.453
10.880 2.970 1.224
11.016 3.299 0.845
11.126 3.602 0.494
11.281 3.944 0.224
9.746 0.617 4.023
10.605 3.321 1.409
10.745 3.675 1.031
10.863 4.025 0.800
11.021 4.323 0.381
11.157 4.527 0.038
9.446 0.897 4.188
10.617 4.256 0.964
10.724 4.645 0.648
12.469 2.107 0.341
11.996 2.131 0.942
12.186 2.387 0.533
12.293 2.676 0.197
11.822 2.426 1.088
11.846 2.777 0.790
12.059 3.009 0.356
12.204 3.403 0.061
10.667 0.072 3.957
11.510 2.821 1.364
11.641 3.148 1.020
11.815 3.382 0.662
11.950 3.731 0.300
10.385 0.302 4.049
11.181 3.095 1.505
11.349 3.490 1.223
11.551 3.710 0.841
11.603 4.014 0.487
11.750 4.327 0.079
10.099 0.773 4.255
11.080 3.833 1.419
11.248 4.053 0.988
11.383 4.421 0.722
11.500 4.735 0.288
12.360 2.225 1.159
12.523 2.492 0.796
12.162 2.579 1.354
12.329 2.866 1.057
12.410 3.209 0.643
12.613 3.547 0.391
11.050 0.183 4.145
11.890 2.920 1.569
12.056 3.262 1.176
12.102 3.547 0.858
12.299 3.826 0.554
12.397 4.121 0.217
10.735 0.468 4.410
11.574 3.254 1.790
11.713 3.638 1.459
11.933 3.835 1.114
12.076 4.149 0.728
12.093 4.489 0.328
12.324 4.825 -0.028
10.547 0.815 4.558
11.522 3.963 1.680
11.656 4.232 1.326
11.722 4.494 0.971
11.931 4.855 0.547
12.466 2.769 1.605
11.383 0.279 4.508
12.302 3.098 1.792
12.346 3.372 1.504
12.562 3.673 1.133
11.136 0.614 4.595
11.939 3.398 2.097
12.084 3.741 1.638
12.268 4.015 1.305
12.359 4.372 1.042
12.574 4.628 0.647
10.812 1.047 4.871
11.866 4.036 1.886
11.931 4.326 1.540
12.097 4.736 1.260
12.253 4.928 0.906
12.060 0.116 4.468
11.811 0.407 4.726
11.903 0.790 4.345
12.502 2.890 2.500
11.548 0.816 4.944
11.625 1.100 4.519
12.296 3.554 2.339
12.469 3.914 2.011
11.205 1.131 5.111
12.109 3.869 2.471
12.178 4.267 2.223
12.305 4.542 1.839
12.475 4.807 1.491
10.977 1.531 5.359
12.071 4.900 2.016
12.243 5.163 1.659
12.456 0.270 4.838
12.161 0.506 5.044
12.321 0.827 4.680
12.487 1.176 4.269
11.940 0.965 5.238
11.989 1.162 4.805
12.146 1.476 4.439
11.647 1.322 5.408
11.775 1.563 4.987
12.363 3.695 3.094
12.452 4.047 2.764
11.354 1.671 5.579
11.446 1.924 5.215
12.158 4.385 2.947
12.373 4.680 2.636
12.514 4.988 2.240
11.037 2.020 5.802
12.250 5.332 2.491
12.336 5.704 2.158
0.999 0.097 0.055
1.367 0.247 0.365
1.662 0.368 0.670
2.329 0.100 0.753
2.127 0.467 0.908
12.290 0.138 5.946
12.377 0.435 5.552
11.861 0.107 6.528
11.954 0.431 6.170
12.133 0.743 5.838
11.447 0.131 7.054
11.611 0.544 6.666
11.694 0.840 6.313
11.820 1.033 5.958
11.040 0.268 7.585
11.158 0.477 7.237
11.291 0.898 6.919
11.433 1.100 6.555
11.581 1.480 6.178
10.603 0.233 8.154
10.734 0.615 7.807
10.860 0.882 7.488
11.000 1.203 7.037
11.166 1.543 6.799
11.320 1.769 6.371
10.561 0.966 7.971
10.612 1.172 7.603
10.756 1.553 7.237
10.918 1.864 6.973
11.096 2.159 6.558
10.346 1.618 7.811
10.506 1.929 7.509
10.633 2.134 7.086
10.751 2.500 6.852
10.060 1.894 8.034
10.214 2.181 7.671
10.346 2.578 7.393
10.497 2.804 7.040
9.784 2.325 8.176
10.041 2.565 7.879
10.136 2.864 7.558
10.290 3.205 7.228
12.232 0.280 6.771
12.325 0.593 6.369
12.547 0.916 6.024
11.657 -0.036 7.640
11.855 0.369 7.340
11.940 0.644 7.003
12.063 0.985 6.637
12.183 1.198 6.268
11.332 0.111 8.157
11.441 0.377 7.852
11.530 0.670 7.503
11.710 1.025 7.187
11.793 1.289 6.855
12.028 1.568 6.448
11.068 0.438 8.446
11.160 0.747 8.085
11.345 0.986 7.712
11.416 1.309 7.303
11.593 1.633 7.000
11.706 1.891 6.692
10.888 1.025 8.234
11.080 1.392 7.876
11.142 1.669 7.542
11.264 1.952 7.241
11.438 2.227 6.887
10.638 1.410 8.512
10.778 1.684 8.132
10.946 1.982 7.771
11.013 2.312 7.413
11.189 2.646 7.052
10.322 1.758 8.651
10.509 2.013 8.299
10.585 2.356 7.998
10.763 2.640 7.572
10.846 3.031 7.298
10.124 2.078 8.799
10.163 2.364 8.556
10.366 2.686 8.130
10.531 3.011 7.764
10.586 3.273 7.504
12.448 0.107 7.387
12.105 0.164 7.931
12.153 0.475 7.542
12.313 0.725 7.185
12.439 1.126 6.868
11.632 0.175 8.444
11.850 0.441 8.086
11.957 0.757 7.725
12.020 1.113 7.462
12.262 1.415 7.094
12.337 1.763 6.704
11.270 0.226 9.048
11.373 0.599 8.629
11.513 0.858 8.326
11.620 1.110 8.001
11.822 1.438 7.680
11.995 1.761 7.237
12.099 2.044 6.950
11.148 0.865 8.875
11.278 1.181 8.533
11.353 1.514 8.205
11.547 1.830 7.864
11.636 2.138 7.519
11.779 2.454 7.080
10.936 1.558 8.787
11.092 1.863 8.408
11.229 2.169 8.032
11.431 2.405 7.711
11.550 2.765 7.321
10.754 1.936 8.888
10.873 2.182 8.564
11.010 2.498 8.181
11.188 2.783 7.894
11.256 3.126 7.576
10.507 2.252 9.146
10.637 2.543 8.810
10.729 2.816 8.379
10.876 3.136 8.013
10.988 3.448 7.726
12.468 0.312 8.159
11.848 -0.004 9.141
12.094 0.313 8.727
12.139 0.632 8.429
12.314 0.962 8.038
12.411 1.232 7.717
11.694 0.320 9.340
11.795 0.660 8.957
11.926 0.952 8.552
12.007 1.286 8.237
12.124 1.651 7.907
12.268 1.906 7.604
12.437 2.256 7.253
11.457 1.088 9.169
11.683 1.300 8.797
11.816 1.647 8.430
11.884 1.890 8.043
12.067 2.215 7.809
12.183 2.578 7.445
11.323 1.701 8.988
11.570 1.982 8.599
11.611 2.348 8.344
11.748 2.627 8.001
11.889 2.846 7.562
11.141 1.989 9.236
11.203 2.351 8.848
11.324 2.663 8.524
11.484 2.899 8.180
11.639 3.228 7.809
10.777 2.335 9.368
10.970 2.750 9.017
11.056 2.971 8.721
11.308 3.333 8.310
11.392 3.589 8.036
12.326 0.229 9.315
12.463 0.474 9.028
12.562 0.723 8.724
12.178 0.771 9.175
12.276 1.152 8.853
12.458 1.380 8.460
12.544 1.710 8.206
11.990 1.511 9.106
12.159 1.833 8.771
12.256 2.108 8.397
12.493 2.429 8.017
11.708 1.860 9.203
11.927 2.107 8.953
12.066 2.377 8.617
12.154 2.681 8.259
12.341 3.059 7.864
11.537 2.155 9.433
11.578 2.528 9.106
11.808 2.740 8.796
11.946 3.090 8.476
12.079 3.374 8.011
10.046 0.069 12.399
11.215 2.571 9.685
11.373 2.836 9.255
11.434 3.140 8.954
11.657 3.385 8.643
11.783 3.766 8.286
12.489 0.937 9.431
12.342 1.628 9.348
12.514 1.910 8.984
12.264 2.327 9.223
12.455 2.543 8.773
12.531 2.934 8.492
11.983 2.568 9.385
12.091 2.895 9.092
12.258 3.202 8.628
12.423 3.576 8.321
11.694 3.020 9.578
11.855 3.275 9.243
11.976 3.528 8.901
12.139 3.904 8.577
12.503 0.671 5.261
12.330 1.001 5.411
12.445 1.332 5.065
12.591 1.690 4.696
12.508 2.609 4.289
12.054 1.457 5.631
12.119 1.706 5.255
12.233 2.066 4.916
12.361 2.270 4.572
12.558 2.606 4.309
12.588 3.529 3.773
11.719 1.705 5.815
11.859 2.075 5.491
12.037 2.374 5.148
12.470 4.238 3.546
11.471 2.066 6.082
11.549 2.455 5.697
12.290 4.838 3.464
12.439 5.195 3.138
11.149 2.473 6.210
12.148 5.553 3.307
12.328 5.825 2.915
12.484 6.205 2.630
11.904 5.874 3.449
12.016 6.127 3.121
12.162 6.489 2.857
12.286 6.838 2.491
11.658 6.235 3.713
11.719 6.505 3.321
11.961 6.896 2.948
12.069 7.187 2.613
12.384 1.550 5.886
12.544 1.781 5.617
12.106 1.828 6.163
12.254 2.164 5.778
12.408 2.524 5.425
12.560 2.829 5.041
11.903 2.225 6.257
12.014 2.498 6.019
11.519 2.582 6.564
12.412 5.376 3.863
12.526 5.695 3.574
11.338 2.906 6.655
12.152 5.667 4.093
12.247 5.995 3.820
12.397 6.347 3.367
12.561 6.628 3.065
11.089 3.262 6.937
11.926 6.043 4.306
11.964 6.410 3.930
12.135 6.668 3.639
12.228 7.003 3.321
12.468 7.330 2.875
12.607 7.562 2.534
10.809 3.630 7.140
12.512 2.023 6.367
12.207 2.351 6.567
12.303 2.655 6.237
12.502 3.016 5.914
11.918 2.741 6.830
12.076 3.032 6.404
11.733 3.130 7.012
12.552 5.910 4.376
11.362 3.449 7.158
12.206 6.230 4.586
12.392 6.550 4.209
12.581 6.755 3.865
11.089 3.743 7.329
12.308 2.875 7.073
12.518 3.148 6.714
12.041 3.148 7.280
11.825 3.560 7.396
11.533 3.949 7.627
12.419 3.373 7.469
12.120 3.664 7.733
11.866 4.028 7.948
2.671 0.982 4.310
2.700 1.254 3.912
2.849 1.565 3.585
3.014 1.964 3.179
2.174 1.016 4.846
2.397 1.315 4.421
2.539 1.593 4.060
2.670 1.959 3.695
2.758 2.281 3.443
1.997 1.439 5.020
2.082 1.722 4.708
2.176 2.033 4.323
2.412 2.280 4.017
2.457 2.646 3.616
1.724 1.796 5.176
1.841 2.095 4.814
1.929 2.320 4.455
2.055 2.633 4.102
2.179 2.917 3.823
1.425 2.064 5.405
1.591 2.372 5.010
1.745 2.662 4.726
1.833 2.979 4.330
1.971 3.297 4.016
1.259 2.789 5.189
1.445 2.985 4.842
1.569 3.298 4.594
1.704 3.639 4.180
3.006 1.175 4.477
3.186 1.427 4.136
3.295 1.733 3.810
3.359 2.036 3.533
2.650 1.112 5.031
2.759 1.453 4.664
2.819 1.791 4.416
2.967 2.063 4.052
3.148 2.400 3.678
2.362 1.510 5.254
2.451 1.853 4.874
2.564 2.190 4.596
2.693 2.471 4.187
2.821 2.736 3.864
2.022 1.873 5.495
2.228 2.212 5.130
2.342 2.492 4.743
2.416 2.736 4.423
2.587 3.113 4.125
1.813 2.172 5.707
1.892 2.504 5.338
2.104 2.889 4.935
2.204 3.149 4.675
2.281 3.418 4.215
1.712 2.885 5.561
1.740 3.164 5.151
1.876 3.428 4.825
2.102 3.846 4.485
0.271 5.714 6.800
0.402 6.088 6.432
0.029 6.108 7.042
0.157 6.408 6.664
0.240 6.778 6.374
-0.012 7.032 6.464
3.798 1.255 4.250
3.977 1.490 3.891
3.272 0.917 5.182
3.418 1.248 4.778
3.514 1.547 4.496
3.657 1.921 4.092
3.736 2.142 3.746
2.951 1.296 5.382
3.115 1.566 5.019
3.193 1.907 4.601
3.392 2.248 4.297
3.519 2.485 3.947
2.576 1.369 5.883
2.686 1.708 5.521
2.897 1.996 5.184
2.991 2.239 4.810
3.070 2.595 4.449
3.272 2.820 4.186
2.341 1.671 6.109
2.458 2.000 5.702
2.610 2.292 5.369
2.680 2.640 5.066
2.839 2.924 4.731
3.039 3.250 4.308
2.168 2.401 5.916
2.289 2.679 5.587
2.416 2.928 5.250
2.584 3.282 4.904
2.753 3.610 4.498
0.755 0.286 8.892
1.916 2.709 6.112
2.071 3.065 5.772
2.118 3.292 5.382
2.328 3.594 5.118
2.412 3.960 4.699
0.256 -0.039 9.822
1.882 3.694 5.665
2.017 3.910 5.302
0.970 5.602 6.927
1.127 5.818 6.534
0.356 5.297 7.851
0.489 5.632 7.480
0.660 5.845 7.093
0.763 6.215 6.696
0.887 6.475 6.408
0.159 5.658 8.018
0.276 5.932 7.612
0.428 6.234 7.231
0.492 6.531 6.919
0.674 6.809 6.649
0.133 6.570 7.498
0.295 6.893 7.197
0.425 7.261 6.759
0.158 7.504 7.032
4.401 1.018 4.351
4.530 1.304 3.940
3.839 0.798 5.159
4.012 1.028 4.877
4.128 1.338 4.523
4.339 1.680 4.229
4.454 1.926 3.793
3.529 0.846 5.774
3.589 1.114 5.433
3.736 1.405 5.071
3.930 1.708 4.739
4.050 2.064 4.409
4.113 2.350 4.021
3.207 1.092 5.906
3.318 1.473 5.617
3.513 1.765 5.217
3.593 2.072 4.860
3.705 2.372 4.534
3.864 2.706 4.240
2.847 1.155 6.451
2.915 1.486 6.165
3.107 1.849 5.859
3.263 2.052 5.484
3.392 2.445 5.129
3.491 2.657 4.803
3.690 2.973 4.436
1.835 -0.006 8.495
2.022 0.341 8.077
2.492 1.505 6.767
2.722 1.820 6.417
2.816 2.166 5.985
2.914 2.465 5.661
3.035 2.740 5.251
3.207 3.082 5.022
3.387 3.304 4.615
1.479 0.066 9.020
1.527 0.411 8.590
2.427 2.224 6.564
2.569 2.505 6.222
2.680 2.811 5.906
2.853 3.134 5.534
3.010 3.423 5.143
3.069 3.768 4.842
0.995 0.169 9.557
1.205 0.423 9.197
1.350 0.672 8.788
2.157 2.576 6.787
2.289 2.789 6.454
2.390 3.192 6.085
2.579 3.418 5.659
2.677 3.794 5.352
2.840 4.072 4.973
0.657 0.173 10.131
0.806 0.493 9.725
0.890 0.741 9.412
2.016 3.150 6.657
2.145 3.497 6.198
2.288 3.785 5.862
2.455 4.071 5.517
2.514 4.458 5.233
0.187 0.142 10.655
0.335 0.503 10.341
2.066 4.109 6.144
2.116 4.416 5.696
-0.007 1.019 11.305
0.176 1.294 10.950
0.272 1.629 10.657
1.694 4.719 7.113
1.907 4.993 6.801
1.992 5.337 6.388
2.102 5.600 6.056
0.087 2.009 10.754
1.444 5.005 7.360
1.533 5.313 6.935
1.673 5.679 6.600
1.888 5.989 6.301
1.027 5.032 7.808
1.173 5.356 7.523
1.301 5.704 7.164
1.453 6.043 6.820
1.554 6.354 6.498
0.670 5.159 8.455
0.827 5.369 8.107
0.918 5.765 7.700
0.986 6.057 7.318
1.224 6.301 6.981
1.302 6.669 6.647
0.163 5.229 9.002
0.410 5.471 8.592
0.553 5.783 8.212
0.685 6.104 7.932
0.732 6.448 7.558
0.941 6.675 7.242
1.074 7.044 6.808
0.059 5.777 8.757
0.217 6.125 8.457
0.429 6.421 8.096
0.465 6.798 7.809
0.685 6.985 7.423
0.733 7.371 7.067
0.065 6.778 8.325
0.214 7.048 7.935
0.434 7.343 7.640
0.529 7.752 7.222
0.155 7.761 7.752
0.306 8.084 7.492
4.506 0.547 5.308
4.724 0.819 4.880
4.763 1.171 4.620
4.933 1.505 4.196
5.102 1.743 3.930
4.093 0.634 5.871
4.230 0.892 5.472
4.339 1.202 5.152
4.593 1.538 4.747
4.704 1.828 4.470
4.765 2.066 4.089
3.695 0.625 6.349
3.828 0.961 6.047
4.013 1.282 5.719
4.091 1.531 5.310
4.318 1.869 4.946
4.428 2.094 4.587
4.551 2.415 4.248
3.021 0.046 7.615
3.164 0.356 7.270
3.298 0.624 6.927
3.420 0.964 6.608
3.644 1.288 6.182
3.700 1.604 5.876
3.904 1.846 5.554
4.034 2.153 5.184
4.102 2.551 4.780
4.254 2.831 4.452
2.634 0.056 8.230
2.759 0.437 7.801
2.845 0.660 7.431
3.095 1.009 7.167
3.156 1.360 6.731
3.315 1.646 6.461
3.488 1.927 6.060
3.548 2.224 5.790
3.744 2.599 5.386
3.925 2.878 4.999
3.962 3.130 4.693
2.227 0.203 8.664
2.308 0.481 8.382
2.542 0.819 8.027
2.609 1.103 7.659
2.787 1.375 7.350
2.916 1.693 6.993
3.067 2.025 6.637
3.207 2.259 6.253
3.378 2.603 5.914
3.507 2.853 5.555
3.567 3.200 5.251
3.728 3.489 4.880
1.803 0.191 9.323
1.893 0.536 8.903
2.104 0.837 8.596
2.218 1.119 8.180
2.354 1.423 7.914
2.501 1.713 7.554
2.682 2.036 7.202
2.772 2.340 6.873
2.910 2.690 6.424
3.028 2.984 6.069
3.254 3.293 5.834
3.381 3.486 5.419
3.440 3.792 5.118
1.464 0.292 9.809
1.495 0.508 9.440
1.675 0.883 9.136
1.876 1.104 8.769
2.350 2.414 7.406
2.527 2.638 6.996
2.617 2.963 6.670
2.740 3.254 6.384
2.887 3.547 5.921
3.064 3.897 5.673
3.215 4.242 5.224
1.007 0.312 10.403
1.075 0.535 10.061
1.213 0.928 9.726
1.408 1.194 9.260
2.278 3.087 7.274
2.411 3.298 6.812
2.501 3.617 6.528
2.641 3.973 6.170
2.775 4.273 5.791
2.951 4.606 5.488
0.426 0.091 11.292
0.623 0.395 10.871
0.734 0.666 10.503
0.873 0.892 10.205
1.027 1.241 9.883
2.166 3.706 7.130
2.226 3.966 6.775
2.331 4.241 6.406
2.579 4.575 6.032
2.716 4.884 5.703
0.169 0.336 11.416
0.300 0.747 11.057
0.523 1.034 10.705
0.584 1.240 10.447
1.971 4.342 6.861
2.155 4.664 6.525
2.299 4.902 6.277
2.436 5.202 5.872
-0.001 1.040 11.343
0.148 1.347 10.961
0.293 1.697 10.598
1.729 4.731 7.064
1.814 5.043 6.806
1.970 5.238 6.450
2.169 5.550 6.103
0.185 0.604 12.277
0.294 0.885 11.900
0.460 1.159 11.577
0.558 1.498 11.276
0.744 1.765 10.936
0.898 2.027 10.521
1.991 4.465 7.767
2.151 4.862 7.405
2.253 5.130 7.052
2.310 5.414 6.659
2.472 5.690 6.320
0.083 1.279 12.076
0.170 1.579 11.737
0.264 1.846 11.383
0.474 2.131 11.041
0.611 2.373 10.772
1.697 4.929 7.994
1.760 5.159 7.589
2.006 5.506 7.245
2.135 5.798 6.922
2.276 6.037 6.567
0.068 2.169 11.600
0.120 2.507 11.305
0.325 2.764 10.909
1.413 5.187 8.096
1.613 5.565 7.786
1.702 5.811 7.380
1.781 6.156 7.123
2.016 6.386 6.723
0.004 3.179 11.162
0.176 3.423 10.811
1.033 5.292 8.715
1.195 5.628 8.357
1.280 5.864 8.000
1.440 6.115 7.601
1.526 6.531 7.244
1.715 6.842 6.974
0.084 4.102 10.620
0.159 4.354 10.227
0.312 4.644 9.942
0.409 4.961 9.544
0.636 5.338 9.277
0.692 5.651 8.936
0.932 5.897 8.504
0.982 6.280 8.218
1.201 6.480 7.859
1.349 6.773 7.426
1.393 7.082 7.111
0.024 5.109 10.120
0.241 5.379 9.725
0.391 5.688 9.467
0.466 6.003 9.096
0.620 6.215 8.732
0.763 6.529 8.318
0.927 6.819 8.087
1.073 7.150 7.733
1.176 7.527 7.272
0.122 6.009 9.606
0.212 6.365 9.241
0.299 6.632 8.922
0.457 6.879 8.533
0.665 7.260 8.284
0.750 7.556 7.906
0.892 7.805 7.565
0.130 7.002 9.081
0.219 7.324 8.752
0.357 7.578 8.417
0.464 7.904 8.071
0.682 8.233 7.737
0.032 7.941 8.597
0.208 8.229 8.283
0.403 8.570 7.949
0.105 8.907 8.135
4.937 0.642 5.573
5.051 1.000 5.163
5.187 1.239 4.807
5.289 1.606 4.532
5.425 1.898 4.133
4.485 0.778 6.152
4.663 0.993 5.697
4.819 1.293 5.417
4.865 1.626 5.087
5.065 1.935 4.702
5.131 2.231 4.379
3.777 0.130 7.325
3.958 0.458 7.053
4.118 0.744 6.595
4.246 1.072 6.262
4.314 1.431 5.994
4.558 1.626 5.633
4.680 2.037 5.300
4.765 2.226 4.953
4.975 2.536 4.590
3.458 0.200 7.877
3.515 0.467 7.587
3.625 0.790 7.171
3.886 1.150 6.878
3.946 1.393 6.472
4.044 1.672 6.166
4.249 2.023 5.755
4.365 2.314 5.503
4.454 2.574 5.129
4.663 2.978 4.732
2.962 0.298 8.454
3.165 0.524 8.044
3.261 0.906 7.692
3.387 1.104 7.364
3.553 1.481 7.104
3.719 1.794 6.701
3.783 2.076 6.304
3.983 2.368 5.948
4.097 2.678 5.654
4.207 2.931 5.317
4.445 3.257 4.956
2.651 0.233 8.955
2.708 0.588 8.691
2.908 0.941 8.342
3.070 1.171 7.885
3.151 1.528 7.548
3.266 1.807 7.260
3.451 2.063 6.934
3.621 2.391 6.485
3.641 2.685 6.138
3.808 2.991 5.857
3.948 3.372 5.482
4.111 3.683 5.199
2.008 0.010 9.920
2.137 0.297 9.495
2.345 0.691 9.157
2.475 1.000 8.887
2.621 1.206 8.437
2.687 1.610 8.110
2.924 1.909 7.828
3.026 2.185 7.410
3.106 2.450 7.101
3.288 2.788 6.731
3.445 3.098 6.364
3.568 3.420 6.086
3.659 3.687 5.757
3.797 3.975 5.378
1.671 0.076 10.403
1.778 0.398 10.061
1.909 0.694 9.758
2.044 1.017 9.335
2.139 1.257 9.029
2.278 1.580 8.661
2.533 1.953 8.331
2.580 2.242 8.017
2.731 2.499 7.613
2.907 2.853 7.269
2.992 3.155 6.974
3.125 3.425 6.562
3.291 3.706 6.183
3.393 4.060 5.947
3.601 4.331 5.511
1.222 0.152 10.976
1.433 0.376 10.609
1.576 0.722 10.287
1.708 1.036 9.915
1.763 1.347 9.549
2.643 3.222 7.534
2.749 3.514 7.133
2.891 3.721 6.801
3.035 4.138 6.498
3.225 4.409 6.038
3.367 4.688 5.760
0.787 0.150 11.509
0.996 0.461 11.225
1.127 0.801 10.889
1.302 1.094 10.436
1.403 1.445 10.153
2.482 3.798 7.291
2.664 4.140 7.002
2.803 4.481 6.587
2.853 4.719 6.262
3.076 5.013 5.987
0.372 0.169 12.034
0.614 0.565 11.723
0.712 0.848 11.432
0.791 1.117 11.017
0.953 1.381 10.631
1.060 1.704 10.381
2.241 4.131 7.477
2.381 4.476 7.184
2.492 4.773 6.824
2.645 5.139 6.491
2.832 5.340 6.194
0.114 0.508 12.301
0.306 0.921 11.951
0.410 1.211 11.571
0.627 1.416 11.270
0.735 1.805 10.847
0.811 2.079 10.541
1.958 4.481 7.737
2.074 4.828 7.355
2.189 5.105 6.996
2.349 5.397 6.734
2.529 5.674 6.362
0.526 0.663 12.489
0.618 0.975 12.178
0.774 1.256 11.904
1.007 1.627 11.554
1.024 1.862 11.167
1.231 2.251 10.757
2.389 4.605 8.041
2.419 4.960 7.625
2.639 5.273 7.259
2.791 5.531 7.018
2.853 5.893 6.659
0.463 1.382 12.391
0.535 1.610 12.050
0.637 1.991 11.664
0.782 2.208 11.303
0.918 2.556 11.019
2.087 4.975 8.202
2.225 5.323 7.894
2.372 5.601 7.523
2.420 5.911 7.188
2.603 6.253 6.850
0.264 1.988 12.241
0.427 2.275 11.843
0.580 2.668 11.552
0.721 2.935 11.199
0.782 3.196 10.814
1.640 5.036 8.767
1.828 5.318 8.426
1.946 5.680 7.990
2.058 6.021 7.661
2.149 6.233 7.305
2.353 6.610 6.999
-0.033 2.338 12.501
0.164 2.639 12.143
0.270 3.014 11.700
0.364 3.259 11.437
0.497 3.616 11.102
0.713 3.865 10.683
1.250 5.121 9.261
1.415 5.397 8.934
1.526 5.732 8.559
1.685 5.961 8.189
1.833 6.274 7.896
1.976 6.596 7.516
2.136 6.876 7.146
0.063 3.311 11.968
0.186 3.669 11.593
0.316 3.868 11.252
0.413 4.249 10.835
0.541 4.499 10.497
0.667 4.838 10.238
0.896 5.159 9.899
1.014 5.436 9.481
1.075 5.765 9.205
1.219 6.078 8.830
1.397 6.400 8.441
1.502 6.643 8.120
1.621 7.027 7.808
1.834 7.234 7.348
0.014 4.334 11.499
0.202 4.586 11.111
0.320 4.859 10.688
0.477 5.182 10.383
0.626 5.531 10.007
0.685 5.749 9.646
0.799 6.049 9.363
1.031 6.395 8.934
1.088 6.727 8.618
1.240 6.975 8.251
1.442 7.366 7.894
1.525 7.658 7.659
0.053 5.283 10.976
0.215 5.548 10.641
0.255 5.796 10.210
0.484 6.110 9.915
0.555 6.455 9.528
0.727 6.774 9.147
0.911 7.020 8.880
0.946 7.408 8.511
1.182 7.726 8.179
1.209 7.933 7.834
-0.018 6.153 10.396
0.208 6.538 10.055
0.279 6.770 9.763
0.430 7.072 9.379
0.628 7.406 9.041
0.738 7.766 8.645
0.906 8.064 8.296
0.944 8.261 7.982
0.033 7.200 9.933
0.152 7.512 9.586
0.331 7.734 9.200
0.409 8.015 8.847
0.644 8.387 8.532
0.753 8.693 8.132
0.039 8.079 9.491
0.192 8.380 9.116
0.360 8.734 8.757
0.467 9.051 8.418
0.112 9.090 8.924
0.151 9.375 8.604
5.188 0.476 6.213
5.335 0.785 5.816
5.448 1.154 5.431
5.620 1.416 5.106
5.720 1.675 4.778
5.843 1.991 4.443
4.689 0.539 6.740
4.917 0.821 6.338
4.959 1.167 6.000
5.174 1.439 5.658
5.333 1.773 5.320
5.375 2.108 4.966
5.605 2.370 4.624
4.158 0.264 7.646
4.376 0.581 7.317
4.511 0.863 6.923
4.596 1.156 6.557
4.787 1.469 6.235
4.894 1.785 5.920
5.071 2.165 5.514
5.181 2.407 5.216
5.239 2.747 4.885
3.690 0.027 8.512
3.746 0.352 8.144
3.912 0.673 7.780
4.064 0.914 7.478
4.171 1.235 7.136
4.382 1.576 6.708
4.525 1.888 6.377
4.608 2.226 6.103
4.813 2.423 5.704
4.834 2.795 5.360
5.083 3.057 5.065
3.210 0.123 9.048
3.415 0.327 8.659
3.478 0.679 8.337
3.618 0.999 8.015
3.822 1.276 7.689
3.986 1.565 7.335
4.035 1.918 6.996
4.224 2.228 6.648
4.292 2.460 6.236
4.451 2.802 5.960
4.645 3.091 5.627
4.766 3.401 5.192
2.792 0.080 9.620
2.998 0.405 9.308
3.110 0.789 8.923
3.202 1.076 8.519
3.394 1.325 8.232
3.571 1.692 7.892
3.665 1.955 7.459
3.860 2.213 7.223
3.988 2.575 6.780
4.030 2.856 6.436
4.243 3.139 6.089
4.299 3.437 5.732
4.443 3.748 5.434
2.488 0.208 10.124
2.623 0.502 9.868
2.650 0.773 9.503
2.801 1.129 9.118
2.984 1.372 8.757
3.121 1.663 8.433
3.212 2.049 8.091
3.451 2.276 7.682
3.490 2.603 7.406
3.621 2.911 6.997
3.806 3.199 6.698
3.951 3.485 6.294
4.067 3.863 5.931
4.212 4.077 5.590
1.970 0.181 10.743
2.112 0.540 10.345
2.354 0.858 9.997
2.467 1.108 9.615
2.518 1.491 9.254
2.747 1.705 8.926
2.852 2.009 8.589
2.938 2.358 8.222
3.141 2.670 7.851
3.317 2.992 7.614
3.378 3.276 7.185
3.587 3.620 6.897
3.694 3.908 6.498
3.775 4.173 6.200
3.976 4.440 5.872
1.560 0.201 11.221
1.712 0.554 10.935
1.918 0.860 10.530
1.978 1.132 10.189
2.174 1.516 9.870
2.318 1.754 9.528
2.886 3.031 8.088
3.038 3.264 7.722
3.187 3.546 7.428
3.327 3.856 7.048
3.381 4.263 6.740
3.544 4.555 6.396
3.642 4.870 6.000
1.051 0.022 12.165
1.151 0.292 11.794
1.363 0.555 11.480
1.426 0.915 11.151
1.648 1.261 10.747
1.737 1.504 10.461
1.932 1.880 10.008
2.683 3.667 7.973
2.860 4.009 7.626
3.037 4.207 7.308
3.146 4.622 6.849
3.267 4.861 6.559
3.460 5.197 6.151
0.751 0.307 12.356
0.942 0.639 12.038
1.108 0.903 11.642
1.207 1.317 11.259
1.303 1.620 10.954
1.501 1.853 10.603
2.550 4.367 7.779
2.727 4.664 7.442
2.817 4.952 7.081
3.014 5.262 6.752
3.202 5.495 6.385
0.510 0.656 12.518
0.617 1.034 12.159
0.808 1.298 11.825
0.909 1.611 11.535
1.076 1.912 11.160
1.280 2.224 10.849
2.282 4.654 7.947
2.520 5.011 7.652
2.651 5.261 7.295
2.805 5.562 6.919
2.822 5.819 6.606
0.999 1.092 12.483
1.219 1.445 12.087
1.381 1.763 11.732
1.462 2.019 11.393
1.646 2.415 11.110
2.717 4.849 8.295
2.783 5.145 7.936
3.038 5.443 7.564
3.155 5.720 7.210
3.261 6.059 6.927
0.958 1.760 12.293
1.083 2.052 12.006
1.169 2.391 11.610
1.297 2.724 11.304
2.432 5.085 8.485
2.579 5.504 8.181
2.704 5.755 7.733
2.791 6.071 7.483
2.964 6.362 7.049
0.638 2.166 12.464
0.730 2.511 12.173
0.943 2.787 11.773
1.036 3.018 11.425
1.154 3.331 11.158
2.088 5.144 8.977
2.154 5.546 8.667
2.263 5.793 8.335
2.458 6.130 7.918
2.532 6.450 7.683
2.710 6.746 7.327
0.508 2.857 12.330
0.628 3.159 11.952
0.737 3.438 11.657
0.961 3.738 11.276
1.031 4.074 11.021
1.579 5.172 9.526
1.727 5.478 9.259
1.935 5.861 8.840
2.062 6.133 8.568
2.224 6.500 8.176
2.289 6.739 7.813
2.475 7.007 7.519
0.211 3.183 12.579
0.330 3.436 12.260
0.533 3.725 11.859
0.691 4.079 11.490
0.840 4.364 11.184
0.961 4.612 10.810
1.036 4.958 10.469
1.211 5.305 10.121
1.315 5.536 9.754
1.478 5.830 9.395
1.602 6.250 9.096
1.827 6.553 8.669
1.955 6.775 8.352
2.068 7.118 8.074
2.196 7.354 7.673
0.104 3.778 12.457
0.313 4.077 12.044
0.365 4.472 11.703
0.498 4.670 11.417
0.612 5.048 11.032
0.798 5.375 10.703
0.897 5.638 10.338
1.126 5.902 9.920
1.224 6.291 9.674
1.370 6.564 9.302
1.443 6.894 8.889
1.628 7.089 8.569
1.816 7.490 8.191
1.962 7.710 7.911
0.185 4.744 11.869
0.270 5.097 11.587
0.462 5.353 11.233
0.591 5.647 10.844
0.644 6.009 10.521
0.809 6.335 10.154
0.979 6.593 9.809
1.080 6.907 9.422
1.207 7.207 9.139
1.394 7.501 8.769
1.463 7.796 8.456
1.657 8.086 8.122
0.169 5.715 11.456
0.215 5.999 11.118
0.378 6.356 10.706
0.551 6.611 10.410
0.694 6.906 10.067
0.860 7.288 9.600
1.024 7.544 9.305
1.071 7.830 8.994
1.226 8.123 8.584
1.357 8.495 8.307
-0.040 6.374 11.220
0.090 6.699 10.880
0.333 6.955 10.555
0.378 7.286 10.247
0.577 7.647 9.861
0.640 7.872 9.485
0.867 8.233 9.186
1.027 8.503 8.823
1.149 8.825 8.486
-0.008 7.307 10.727
0.094 7.631 10.451
0.326 7.963 10.046
0.379 8.257 9.719
0.590 8.536 9.343
0.673 8.868 9.018
0.895 9.096 8.653
-0.039 8.242 10.282
0.214 8.619 9.920
0.276 8.915 9.518
0.423 9.185 9.220
0.611 9.513 8.822
0.078 9.278 9.725
0.150 9.605 9.375
0.344 9.854 9.053
-0.013 10.205 9.197
5.544 0.629 6.474
5.611 0.889 6.109
5.752 1.214 5.727
5.895 1.510 5.380
6.064 1.854 5.066
6.217 2.213 4.755
5.132 0.652 7.008
5.278 1.030 6.591
5.334 1.305 6.353
5.523 1.554 5.991
5.637 1.901 5.585
5.754 2.255 5.290
5.887 2.498 4.901
4.463 0.117 8.273
4.543 0.437 7.886
4.687 0.758 7.538
4.791 1.059 7.221
5.016 1.286 6.888
5.064 1.697 6.464
5.280 1.919 6.113
5.361 2.316 5.843
5.566 2.543 5.454
5.696 2.835 5.069
4.081 0.112 8.789
4.207 0.477 8.456
4.292 0.801 8.095
4.463 1.107 7.691
4.539 1.411 7.410
4.725 1.672 7.088
4.823 1.950 6.714
5.041 2.267 6.278
5.163 2.581 5.940
5.265 2.921 5.590
5.428 3.176 5.309
3.620 0.215 9.318
3.780 0.553 8.966
3.854 0.880 8.650
4.077 1.122 8.308
4.208 1.481 7.970
4.303 1.775 7.547
4.488 2.043 7.235
4.597 2.290 6.906
4.751 2.711 6.548
4.906 2.906 6.208
4.957 3.307 5.877
5.124 3.574 5.431
3.165 0.324 9.918
3.295 0.535 9.471
3.495 0.886 9.156
3.626 1.122 8.789
3.759 1.479 8.494
3.927 1.805 8.163
4.078 2.031 7.799
4.176 2.412 7.483
4.312 2.719 7.050
4.421 3.063 6.692
4.609 3.274 6.409
4.774 3.595 5.980
4.869 3.868 5.657
2.699 0.020 10.780
2.838 0.337 10.401
2.988 0.613 10.043
3.057 0.873 9.768
3.276 1.249 9.336
3.329 1.471 9.016
3.483 1.843 8.734
3.686 2.122 8.383
3.825 2.396 7.932
3.889 2.779 7.647
4.097 3.091 7.292
4.242 3.358 6.979
4.331 3.609 6.533
4.450 3.995 6.185
4.584 4.243 5.911
2.282 0.095 11.317
2.395 0.405 10.916
2.537 0.706 10.576
2.723 0.921 10.247
2.867 1.263 9.938
2.958 1.568 9.530
3.043 1.874 9.201
3.223 2.200 8.887
3.422 2.545 8.561
3.545 2.815 8.159
3.661 3.105 7.793
3.824 3.349 7.508
3.951 3.740 7.163
4.116 4.042 6.782
4.158 4.288 6.430
4.296 4.621 6.142
1.856 0.089 11.878
1.991 0.342 11.552
2.108 0.738 11.222
2.251 1.064 10.843
2.419 1.261 10.523
2.503 1.555 10.099
2.665 1.960 9.727
3.223 3.198 8.317
3.365 3.396 8.071
3.498 3.769 7.739
3.659 4.052 7.346
3.776 4.333 6.967
3.873 4.609 6.680
4.027 4.928 6.281
1.406 0.120 12.461
1.553 0.428 12.027
1.731 0.744 11.719
1.822 0.991 11.318
1.979 1.357 11.018
2.085 1.717 10.635
2.230 1.912 10.303
3.065 3.773 8.235
3.239 4.156 7.927
3.405 4.442 7.482
3.458 4.730 7.123
3.602 5.034 6.784
3.766 5.300 6.541
1.374 0.778 12.284
1.475 1.076 11.937
1.537 1.361 11.615
1.792 1.656 11.216
1.830 2.062 10.849
2.959 4.450 8.125
3.162 4.734 7.754
3.253 5.103 7.412
3.366 5.354 7.055
3.542 5.693 6.661
1.069 1.190 12.418
1.241 1.508 12.177
1.274 1.726 11.718
1.419 2.043 11.427
1.598 2.387 11.077
2.731 4.733 8.288
2.872 5.084 7.946
2.993 5.453 7.550
3.170 5.693 7.284
3.248 6.062 6.922
1.582 1.620 12.409
1.686 1.912 12.076
1.830 2.224 11.724
1.949 2.459 11.378
3.023 4.947 8.539
3.199 5.280 8.187
3.350 5.519 7.876
3.444 5.840 7.544
3.623 6.096 7.110
1.372 2.257 12.218
1.576 2.546 11.938
1.736 2.789 11.549
2.816 5.276 8.691
2.995 5.615 8.445
3.094 5.947 8.065
3.278 6.228 7.662
3.402 6.471 7.382
1.214 2.557 12.447
1.305 2.925 12.075
1.445 3.183 11.789
2.559 5.645 8.895
2.741 5.969 8.569
2.842 6.178 8.276
2.919 6.571 7.841
3.038 6.836 7.509
1.030 3.287 12.275
1.219 3.505 11.900
1.356 3.802 11.629
2.168 5.735 9.438
2.220 6.009 9.189
2.448 6.297 8.798
2.546 6.644 8.396
2.752 6.861 8.068
2.846 7.197 7.731
0.739 3.631 12.424
0.955 3.844 12.143
1.017 4.245 11.759
1.221 4.509 11.383
1.256 4.835 11.102
1.507 5.122 10.719
1.619 5.391 10.376
1.728 5.713 10.021
1.810 5.976 9.730
2.052 6.313 9.350
2.183 6.649 8.974
2.334 6.959 8.686
2.458 7.239 8.295
2.594 7.505 7.908
0.578 4.204 12.302
0.747 4.488 12.031
0.962 4.809 11.684
1.060 5.184 11.268
1.180 5.448 10.978
1.270 5.810 10.605
1.423 6.091 10.276
1.608 6.413 9.845
1.723 6.653 9.577
1.937 7.018 9.224
2.006 7.229 8.831
2.100 7.590 8.469
2.301 7.948 8.164
0.394 4.600 12.579
0.479 4.905 12.155
0.633 5.221 11.876
0.734 5.458 11.501
0.883 5.831 11.101
1.088 6.144 10.728
1.253 6.386 10.386
1.350 6.775 10.043
1.455 7.020 9.717
1.654 7.301 9.405
1.796 7.633 8.988
1.825 7.946 8.665
2.076 8.253 8.350
0.193 5.263 12.335
0.392 5.566 12.039
0.489 5.813 11.737
0.609 6.109 11.318
0.818 6.460 11.002
0.976 6.802 10.587
1.007 7.075 10.283
1.143 7.342 9.984
1.282 7.634 9.578
1.517 8.007 9.227
1.656 8.288 8.926
1.737 8.538 8.498
0.125 5.876 12.204
0.198 6.165 11.839
0.384 6.457 11.479
0.468 6.831 11.228
0.611 7.078 10.807
0.797 7.471 10.501
0.961 7.757 10.165
1.086 8.064 9.778
1.228 8.391 9.443
1.345 8.674 9.022
1.518 9.003 8.770
0.106 6.810 11.754
0.258 7.144 11.326
0.401 7.520 11.084
0.543 7.746 10.633
0.683 8.122 10.304
0.779 8.433 10.032
0.957 8.697 9.606
1.087 8.941 9.272
1.181 9.348 8.897
0.246 8.162 10.905
0.406 8.470 10.571
0.589 8.750 10.214
0.615 9.017 9.809
0.839 9.378 9.485
0.893 9.669 9.154
0.166 8.748 10.720
0.259 9.096 10.315
0.389 9.439 9.968
0.581 9.639 9.643
0.719 9.955 9.381
0.090 9.742 10.233
0.302 10.013 9.849
0.424 10.304 9.514
0.064 10.442 10.105
0.130 10.744 9.709
5.978 1.133 6.343
6.122 1.438 6.061
6.370 1.678 5.674
6.417 1.987 5.290
6.583 2.325 4.907
5.667 1.137 6.883
5.750 1.386 6.531
5.968 1.714 6.223
6.006 2.042 5.854
6.240 2.361 5.487
6.366 2.707 5.220
4.868 0.299 8.460
5.008 0.512 8.203
5.128 0.921 7.809
5.251 1.180 7.496
5.379 1.527 7.147
5.537 1.731 6.700
5.621 2.146 6.464
5.716 2.395 6.081
5.934 2.757 5.673
6.068 3.057 5.379
4.264 0.032 9.412
4.346 0.355 9.015
4.586 0.560 8.688
4.724 0.946 8.411
4.797 1.281 8.010
4.978 1.537 7.603
5.120 1.803 7.338
5.194 2.167 6.913
5.333 2.391 6.615
5.549 2.743 6.287
5.653 2.989 5.926
5.729 3.304 5.564
3.854 0.060 9.895
3.994 0.308 9.552
4.185 0.696 9.246
4.278 0.970 8.882
4.415 1.214 8.505
4.587 1.519 8.150
4.635 1.864 7.860
4.832 2.187 7.480
4.927 2.482 7.096
5.086 2.827 6.789
5.256 3.104 6.468
5.380 3.382 6.112
5.500 3.715 5.797
3.436 0.134 10.441
3.613 0.398 10.204
3.703 0.691 9.786
3.891 1.058 9.483
3.984 1.363 9.157
4.105 1.675 8.770
4.277 1.941 8.392
4.390 2.175 8.077
4.581 2.530 7.716
4.663 2.805 7.314
4.797 3.094 7.008
5.018 3.420 6.674
5.062 3.738 6.356
5.213 4.070 5.988
3.019 0.150 10.999
3.192 0.502 10.729
3.316 0.769 10.374
3.495 1.002 9.973
3.631 1.370 9.637
3.728 1.633 9.358
3.827 1.986 8.950
4.016 2.312 8.628
4.208 2.602 8.253
4.313 2.933 7.909
4.469 3.160 7.543
4.599 3.478 7.209
4.691 3.776 6.796
4.858 4.101 6.472
4.999 4.373 6.116
2.580 0.238 11.574
2.815 0.520 11.275
2.912 0.836 10.873
3.106 1.074 10.603
3.207 1.405 10.136
3.353 1.745 9.854
3.476 2.038 9.452
3.645 2.362 9.126
3.793 2.617 8.751
3.858 2.866 8.388
3.991 3.189 8.100
4.106 3.494 7.706
4.288 3.890 7.386
4.467 4.132 7.025
4.569 4.440 6.648
4.682 4.759 6.359
2.195 0.216 12.079
2.352 0.524 11.786
2.558 0.890 11.425
2.707 1.160 11.051
2.730 1.422 10.744
2.910 1.694 10.376
3.755 3.589 8.349
3.856 3.868 7.923
4.049 4.187 7.571
4.201 4.457 7.217
4.269 4.813 6.912
4.452 5.156 6.497
1.977 0.568 12.301
2.086 0.878 11.931
2.194 1.239 11.674
2.409 1.476 11.274
2.471 1.768 10.916
3.602 4.272 8.198
3.812 4.505 7.740
3.885 4.863 7.401
4.047 5.137 7.135
4.149 5.471 6.721
1.753 0.923 12.582
1.776 1.286 12.182
1.987 1.500 11.855
2.054 1.792 11.491
2.295 2.130 11.165
3.369 4.568 8.313
3.496 4.888 7.947
3.628 5.250 7.610
3.768 5.458 7.321
3.924 5.809 7.006
1.504 1.613 12.425
1.668 1.840 12.049
1.789 2.234 11.671
2.021 2.537 11.324
3.037 4.983 8.539
3.236 5.272 8.161
3.367 5.584 7.790
3.549 5.881 7.518
3.667 6.172 7.152
2.111 2.036 12.270
2.237 2.311 11.951
3.599 5.422 8.439
3.759 5.624 8.052
3.837 5.952 7.759
4.053 6.312 7.452
1.759 2.316 12.507
1.973 2.732 12.177
3.293 5.753 8.708
3.457 6.064 8.334
3.641 6.307 8.009
3.739 6.605 7.625
1.704 3.078 12.320
1.836 3.392 12.049
2.933 5.822 9.196
3.103 6.100 8.856
3.209 6.424 8.478
3.383 6.661 8.110
3.524 7.007 7.810
1.383 3.373 12.567
1.510 3.737 12.145
1.668 4.030 11.812
2.528 5.790 9.727
2.598 6.128 9.365
2.774 6.458 9.111
2.883 6.753 8.651
3.058 6.974 8.360
3.148 7.376 8.018
1.325 4.021 12.340
1.444 4.329 12.086
1.550 4.656 11.707
2.120 5.824 10.266
2.228 6.174 9.896
2.380 6.502 9.594
2.491 6.726 9.220
2.634 7.031 8.857
2.775 7.427 8.606
2.912 7.623 8.234
1.194 4.645 12.248
1.260 4.942 11.842
1.425 5.239 11.541
1.581 5.540 11.154
1.675 5.870 10.872
1.807 6.210 10.514
1.949 6.458 10.211
2.162 6.793 9.791
2.308 7.140 9.417
2.412 7.453 9.071
2.510 7.680 8.713
2.635 7.971 8.391
0.901 5.038 12.465
0.969 5.281 12.060
1.149 5.694 11.690
1.306 5.957 11.456
1.404 6.289 10.987
1.600 6.568 10.708
1.734 6.857 10.353
1.816 7.158 10.004
1.946 7.456 9.602
2.108 7.816 9.344
2.318 8.058 8.940
2.422 8.416 8.590
0.804 5.679 12.251
0.931 5.950 11.906
1.065 6.259 11.621
1.137 6.572 11.275
1.342 6.901 10.929
1.460 7.165 10.608
1.539 7.532 10.173
1.779 7.771 9.889
1.883 8.118 9.555
1.936 8.417 9.097
2.106 8.763 8.759
0.442 6.013 12.513
0.616 6.397 12.138
0.756 6.705 11.786
0.887 6.987 11.389
0.991 7.205 11.043
1.231 7.600 10.758
1.338 7.811 10.405
1.446 8.182 10.106
1.536 8.450 9.749
1.766 8.808 9.352
1.899 9.085 8.993
0.814 7.656 11.262
0.893 7.905 10.997
1.022 8.198 10.641
1.239 8.466 10.187
1.325 8.786 9.902
1.410 9.182 9.557
1.534 9.419 9.189
0.664 8.235 11.093
0.735 8.577 10.800
0.949 8.833 10.428
1.057 9.111 10.070
1.227 9.524 9.806
1.364 9.721 9.346
0.476 8.857 11.020
0.606 9.228 10.601
0.839 9.498 10.320
0.944 9.861 9.892
1.080 10.088 9.547
0.378 9.612 10.884
0.559 9.894 10.537
0.663 10.203 10.126
0.839 10.515 9.840
0.064 9.866 11.099
0.274 10.161 10.743
0.331 10.581 10.367
0.527 10.791 9.946
0.106 10.910 10.515
0.216 11.130 10.203
6.425 1.247 6.595
6.588 1.524 6.248
6.660 1.798 5.936
6.881 2.141 5.632
7.025 2.494 5.190
5.963 1.295 7.147
6.131 1.526 6.876
6.291 1.846 6.502
6.474 2.133 6.179
6.548 2.502 5.779
6.725 2.739 5.468
5.019 0.037 9.069
5.621 1.266 7.756
5.769 1.570 7.329
5.906 1.930 7.048
5.990 2.241 6.644
6.136 2.476 6.334
6.263 2.881 5.957
6.379 3.079 5.623
4.616 0.134 9.675
4.795 0.413 9.275
4.960 0.729 9.032
5.089 1.039 8.569
5.196 1.391 8.284
5.315 1.606 7.937
5.417 1.963 7.616
5.558 2.267 7.176
5.725 2.535 6.864
5.900 2.924 6.530
5.987 3.180 6.158
6.186 3.537 5.784
4.281 0.187 10.275
4.423 0.437 9.836
4.458 0.737 9.565
4.666 1.074 9.197
4.752 1.401 8.879
4.910 1.659 8.533
5.077 2.055 8.172
5.205 2.283 7.749
5.301 2.658 7.388
5.507 2.965 7.111
5.655 3.171 6.710
5.696 3.474 6.319
5.853 3.893 6.039
3.847 0.253 10.765
4.024 0.556 10.445
4.122 0.860 10.114
4.277 1.190 9.705
4.437 1.468 9.399
4.509 1.708 9.012
4.648 2.023 8.626
4.824 2.367 8.269
4.886 2.660 8.017
5.094 2.944 7.617
5.190 3.224 7.227
5.324 3.534 6.946
5.525 3.910 6.593
5.571 4.207 6.265
3.463 0.219 11.315
3.547 0.548 10.979
3.747 0.941 10.618
3.865 1.188 10.235
4.024 1.478 9.889
4.110 1.778 9.552
4.240 2.091 9.276
4.363 2.441 8.808
4.551 2.664 8.555
4.655 3.062 8.153
4.743 3.280 7.824
4.960 3.669 7.434
5.066 3.906 7.127
5.273 4.222 6.804
5.337 4.590 6.456
2.903 0.020 12.261
3.029 0.290 11.839
3.203 0.598 11.554
3.336 0.944 11.140
3.408 1.292 10.860
3.509 1.572 10.513
3.747 1.836 10.079
4.243 3.080 8.769
4.434 3.328 8.377
4.595 3.645 8.037
4.624 3.925 7.653
4.756 4.233 7.344
4.895 4.528 6.924
5.075 4.895 6.592
2.617 0.393 12.381
2.796 0.659 12.037
2.903 1.022 11.755
3.069 1.228 11.311
3.170 1.586 11.006
3.266 1.911 10.609
4.124 3.671 8.566
4.235 4.000 8.213
4.464 4.347 7.888
4.536 4.568 7.469
4.676 4.946 7.139
4.813 5.235 6.785
2.436 1.041 12.210
2.562 1.296 11.922
2.697 1.662 11.575
2.933 1.946 11.166
3.956 4.309 8.376
4.158 4.676 8.044
4.330 4.922 7.749
4.384 5.290 7.341
4.580 5.537 7.038
2.249 1.319 12.485
2.323 1.643 12.067
2.435 1.980 11.732
3.806 5.024 8.280
4.012 5.373 7.946
4.109 5.680 7.569
4.292 5.909 7.188
2.125 2.047 12.314
2.177 2.339 11.896
3.629 5.388 8.485
3.751 5.736 8.154
3.895 6.008 7.815
3.958 6.261 7.398
3.562 6.481 8.763
3.753 6.878 8.429
1.982 3.802 12.497
3.087 6.260 9.733
3.181 6.528 9.367
3.274 6.925 8.939
3.394 7.227 8.668
3.567 7.414 8.264
1.797 4.435 12.365
2.650 6.309 10.239
2.801 6.630 9.931
2.871 6.914 9.468
3.054 7.177 9.189
3.236 7.576 8.811
3.305 7.871 8.488
1.492 4.792 12.547
2.313 6.607 10.384
2.517 6.976 10.047
2.577 7.305 9.768
2.774 7.522 9.404
2.945 7.894 8.982
3.071 8.121 8.653
1.407 5.494 12.363
1.956 6.677 10.989
2.133 7.026 10.562
2.279 7.284 10.266
2.398 7.661 9.894
2.560 7.887 9.539
2.594 8.207 9.218
2.761 8.567 8.838
1.131 5.806 12.584
1.706 7.056 11.152
1.819 7.328 10.770
1.964 7.591 10.511
2.117 7.992 10.165
2.234 8.282 9.820
2.396 8.563 9.368
2.461 8.930 9.094
1.548 7.746 11.058
1.716 7.944 10.688
1.854 8.296 10.348
1.961 8.646 9.972
2.093 8.924 9.604
2.206 9.170 9.307
1.246 8.086 11.272
1.423 8.352 10.850
1.591 8.710 10.481
1.656 8.994 10.149
1.848 9.223 9.760
1.984 9.537 9.439
1.117 8.695 11.017
1.245 8.952 10.713
1.366 9.327 10.410
1.541 9.563 9.980
1.753 9.884 9.720
1.220 9.720 10.619
1.321 9.926 10.249
7.027 2.021 6.144
7.179 2.279 5.801
6.489 1.663 7.132
6.618 2.009 6.705
6.812 2.325 6.389
6.973 2.594 6.111
7.065 2.876 5.699
6.153 1.814 7.656
6.206 2.062 7.344
6.422 2.322 6.949
6.516 2.634 6.654
6.706 2.950 6.290
6.764 3.283 5.885
4.968 0.292 9.967
5.809 2.090 7.792
6.000 2.444 7.486
6.181 2.776 7.159
6.228 2.967 6.803
6.432 3.357 6.444
6.496 3.632 6.117
4.504 -0.017 10.814
4.619 0.320 10.499
4.719 0.655 10.086
4.846 0.908 9.754
5.414 2.207 8.450
5.579 2.496 7.992
5.770 2.782 7.750
5.840 3.026 7.299
6.019 3.339 6.940
6.132 3.715 6.608
6.261 3.980 6.255
4.080 0.073 11.384
4.202 0.341 11.076
4.381 0.633 10.737
4.533 0.950 10.341
4.593 1.273 9.986
5.179 2.549 8.638
5.355 2.786 8.214
5.440 3.099 7.902
5.542 3.435 7.482
5.752 3.737 7.158
5.838 3.983 6.844
6.024 4.265 6.536
3.681 0.118 11.985
3.750 0.409 11.540
3.994 0.686 11.285
4.070 1.071 10.830
4.188 1.335 10.507
4.998 3.193 8.466
5.233 3.403 8.146
5.373 3.778 7.794
5.515 4.022 7.380
5.600 4.318 7.029
5.698 4.700 6.657
3.217 0.117 12.494
3.339 0.412 12.130
3.582 0.716 11.798
3.691 1.030 11.418
3.760 1.347 11.045
3.892 1.712 10.692
4.791 3.455 8.619
4.867 3.753 8.264
5.034 4.054 7.969
5.238 4.457 7.529
5.276 4.774 7.263
5.490 5.072 6.872
3.084 0.771 12.354
3.211 1.104 11.992
3.444 1.381 11.653
3.516 1.739 11.225
4.687 4.174 8.451
4.830 4.444 8.176
4.957 4.811 7.730
5.101 5.122 7.407
5.137 5.351 7.029
2.821 1.144 12.513
3.042 1.418 12.135
4.648 5.122 7.925
4.781 5.463 7.695
3.662 7.030 9.241
3.869 7.289 8.839
3.173 6.787 10.141
3.239 7.099 9.752
3.466 7.373 9.398
3.514 7.612 9.078
3.674 7.910 8.720
2.850 7.079 10.386
2.981 7.368 9.945
3.177 7.700 9.634
3.275 7.992 9.269
3.456 8.314 8.987
2.426 7.176 10.881
2.629 7.497 10.478
2.692 7.771 10.201
2.871 7.998 9.818
2.978 8.313 9.540
3.196 8.621 9.147
2.148 7.438 11.074
2.306 7.810 10.717
2.521 8.040 10.328
2.611 8.393 10.020
2.782 8.655 9.709
2.906 8.973 9.371
2.039 8.179 10.911
2.175 8.493 10.605
2.315 8.791 10.294
2.486 9.044 9.915
2.603 9.395 9.569
1.771 8.434 11.110
1.926 8.776 10.833
2.081 9.050 10.397
2.174 9.364 10.029
2.385 9.728 9.753
1.768 9.462 10.682
1.891 9.726 10.275
7.183 2.488 6.665
7.314 2.734 6.365
6.609 2.158 7.554
6.749 2.544 7.230
6.847 2.840 6.871
7.050 3.087 6.467
7.134 3.367 6.145
5.222 0.117 10.614
6.420 2.577 7.708
6.538 2.886 7.423
6.670 3.143 7.124
6.735 3.442 6.661
6.858 3.736 6.375
4.895 0.111 11.146
4.943 0.411 10.699
5.151 0.746 10.456
6.019 2.627 8.275
6.061 2.916 7.968
6.191 3.222 7.640
6.324 3.458 7.239
6.480 3.841 6.903
6.607 4.079 6.544
4.434 0.200 11.633
4.529 0.452 11.270
4.776 0.852 10.956
4.871 1.104 10.642
5.691 2.927 8.560
5.793 3.189 8.199
5.926 3.588 7.805
6.056 3.835 7.426
6.298 4.154 7.072
6.327 4.436 6.732
4.081 0.197 12.167
4.137 0.496 11.844
4.284 0.859 11.528
4.409 1.207 11.118
5.579 3.538 8.412
5.719 3.862 7.981
5.862 4.174 7.699
5.938 4.509 7.354
6.112 4.766 6.902
3.778 0.588 12.372
3.959 0.938 12.080
3.988 1.201 11.684
4.214 1.513 11.357
5.249 3.934 8.550
5.459 4.284 8.150
5.595 4.552 7.852
5.738 4.849 7.492
5.875 5.152 7.184
3.598 1.260 12.215
5.299 4.853 8.106
5.455 5.182 7.735
3.637 7.242 10.059
3.754 7.461 9.750
3.981 7.808 9.356
4.035 8.123 9.032
3.189 7.235 10.627
3.394 7.498 10.238
3.483 7.828 9.963
3.628 8.126 9.509
3.784 8.406 9.228
2.931 7.607 10.860
3.072 7.859 10.451
3.259 8.152 10.101
3.333 8.470 9.725
3.493 8.740 9.456
2.744 7.957 11.005
2.846 8.224 10.632
2.930 8.480 10.336
3.114 8.901 9.978
3.321 9.133 9.587
2.413 8.261 11.265
2.591 8.528 10.888
2.722 8.944 10.528
2.843 9.135 10.217
2.975 9.437 9.865
2.363 8.976 11.093
2.423 9.191 10.725
2.645 9.551 10.384
2.693 9.877 10.030
7.167 2.684 7.534
7.317 3.001 7.186
7.408 3.241 6.820
7.530 3.492 6.383
5.695 0.313 10.814
6.695 2.717 8.069
6.831 2.946 7.681
6.995 3.319 7.393
7.147 3.606 7.026
7.236 3.942 6.629
5.191 0.262 11.346
5.378 0.573 11.035
6.470 3.036 8.248
6.572 3.380 7.905
6.755 3.620 7.523
6.920 3.959 7.198
7.030 4.199 6.863
4.697 0.072 12.289
4.789 0.359 11.947
4.958 0.634 11.592
5.129 1.008 11.251
6.246 3.446 8.390
6.356 3.712 8.099
6.434 3.993 7.772
6.590 4.248 7.337
6.749 4.549 7.001
4.413 0.426 12.439
4.555 0.709 12.102
4.661 0.980 11.720
4.792 1.273 11.428
5.876 3.705 8.591
6.014 4.035 8.247
6.211 4.395 7.884
6.404 4.650 7.553
6.546 4.979 7.226
4.281 1.049 12.261
4.443 1.394 12.018
5.839 4.329 8.501
5.944 4.753 8.180
6.029 5.035 7.764
6.269 5.281 7.381
3.985 7.264 10.390
4.189 7.651 10.038
4.275 7.936 9.674
4.395 8.181 9.292
3.673 7.348 10.856
3.759 7.731 10.491
3.935 7.951 10.227
4.077 8.337 9.816
4.192 8.584 9.482
3.320 7.676 11.091
3.551 8.049 10.757
3.671 8.297 10.408
3.800 8.591 10.033
3.909 8.961 9.724
3.125 8.047 11.316
3.249 8.412 10.979
3.356 8.733 10.543
3.513 8.939 10.202
3.644 9.308 9.920
2.856 8.471 11.467
2.912 8.713 11.138
3.083 9.032 10.744
3.283 9.330 10.477
3.418 9.599 10.078
2.687 9.072 11.308
2.833 9.426 10.930
2.938 9.723 10.582
3.118 9.921 10.304
7.518 2.756 7.693
7.643 3.141 7.369
7.862 3.356 7.008
7.952 3.683 6.755
5.879 0.037 11.392
6.007 0.367 11.063
7.067 2.856 8.291
7.204 3.083 7.963
7.452 3.481 7.657
7.516 3.675 7.218
7.716 4.095 6.966
5.447 0.088 11.938
5.605 0.385 11.645
5.761 0.787 11.252
6.895 3.220 8.502
6.991 3.451 8.148
7.075 3.742 7.784
7.218 4.026 7.392
7.354 4.347 7.143
5.036 0.173 12.519
5.178 0.513 12.179
5.357 0.768 11.835
5.508 1.143 11.487
6.594 3.489 8.759
6.752 3.865 8.389
6.846 4.121 7.956
6.987 4.438 7.612
7.092 4.773 7.335
4.961 0.824 12.442
5.083 1.158 12.068
5.190 1.409 11.643
6.333 3.922 8.847
6.428 4.223 8.609
6.551 4.499 8.235
6.757 4.743 7.860
6.914 5.063 7.450
4.846 1.457 12.207
6.143 4.575 8.736
6.325 4.781 8.356
6.435 5.132 8.023
6.560 5.466 7.648
4.465 7.466 10.624
4.554 7.800 10.244
4.710 8.064 9.907
4.857 8.322 9.564
3.956 7.562 11.137
4.122 7.786 10.832
4.246 8.109 10.424
4.409 8.447 10.077
4.590 8.709 9.812
3.774 7.849 11.324
3.922 8.186 10.978
3.991 8.404 10.702
4.139 8.769 10.239
4.291 9.119 9.906
3.415 8.239 11.548
3.610 8.490 11.226
3.705 8.840 10.823
3.832 9.092 10.524
4.039 9.475 10.123
3.181 8.554 11.695
3.314 8.910 11.451
3.479 9.128 11.101
3.668 9.443 10.749
3.731 9.723 10.379
3.116 9.173 11.612
3.180 9.453 11.276
3.384 9.811 10.943
3.463 10.134 10.535
7.880 2.882 7.992
8.043 3.196 7.713
8.238 3.572 7.318
8.296 3.867 7.023
6.227 0.244 11.734
6.421 0.513 11.386
7.539 3.014 8.520
7.672 3.308 8.269
7.818 3.518 7.890
7.939 3.829 7.536
8.067 4.200 7.197
5.803 0.262 12.243
6.026 0.625 11.860
6.160 0.857 11.609
7.286 3.251 8.767
7.398 3.640 8.415
7.515 3.940 8.059
7.672 4.186 7.676
7.836 4.487 7.335
5.551 0.658 12.501
5.723 0.866 12.097
5.826 1.264 11.708
6.901 3.707 8.972
7.046 3.988 8.586
7.268 4.329 8.320
7.312 4.578 7.886
7.539 4.924 7.588
5.501 1.313 12.282
5.533 1.540 11.979
6.697 3.985 9.186
