1.270 0.431 2.726
1.022 0.121 2.767
1.628 0.539 2.864
2.200 0.276 3.092
2.538 0.449 3.430
3.046 0.253 3.606
6.762 0.064 5.918
0.056 6.467 0.178
0.373 7.804 0.137
0.111 7.450 0.469
0.296 8.585 0.234
0.154 7.959 0.621
0.002 8.695 0.524
11.945 1.184 0.266
10.632 0.974 0.300
11.472 1.931 -0.032
11.509 1.458 0.365
11.352 0.855 0.357
12.104 2.093 0.100
12.134 1.757 0.291
11.885 1.385 0.627
11.707 1.065 0.814
12.518 1.814 0.454
12.384 1.323 0.847
10.357 1.791 0.170
9.988 1.224 0.328
10.969 2.288 0.214
10.691 1.682 0.461
10.685 1.363 0.666
10.513 0.878 0.727
11.580 2.582 0.228
11.449 2.248 0.480
11.135 1.692 0.594
11.107 1.165 0.844
10.853 0.767 1.074
12.096 2.851 0.187
12.020 2.489 0.580
11.942 1.959 0.755
11.761 1.736 0.895
11.330 1.102 1.082
11.374 0.656 1.402
12.307 2.462 0.642
12.390 2.037 1.071
12.054 1.685 1.242
11.984 1.215 1.353
12.406 1.664 1.480
9.521 2.171 0.067
9.327 1.676 0.383
10.358 2.888 -0.058
10.340 2.441 0.199
10.098 2.029 0.391
9.920 1.608 0.580
9.789 1.128 0.894
10.938 3.333 0.138
10.846 2.963 0.329
10.785 2.514 0.615
10.602 1.959 0.661
10.293 1.708 0.880
10.076 1.232 1.194
10.132 0.591 1.475
9.786 0.302 1.701
11.683 3.842 0.194
11.406 3.387 0.470
11.415 2.753 0.628
11.053 2.546 0.698
10.925 1.894 1.150
10.814 1.558 1.236
10.530 0.971 1.490
10.565 0.656 1.855
10.395 0.215 2.006
12.170 4.153 0.254
12.044 3.547 0.412
12.062 3.116 0.704
11.840 2.887 0.838
11.654 2.430 1.110
11.477 1.988 1.259
11.161 1.374 1.586
10.967 1.184 1.899
10.751 0.741 2.038
10.633 0.064 2.324
12.352 3.298 0.909
12.263 2.845 0.978
12.080 2.447 1.260
11.878 1.921 1.618
11.814 1.381 1.724
11.520 1.150 2.059
12.603 2.291 1.471
12.307 1.907 1.895
12.176 1.368 2.017
5.205 0.049 -0.045
8.666 2.510 0.042
9.228 2.943 -0.009
9.026 2.352 0.183
8.875 2.056 0.530
9.703 3.152 0.182
9.683 2.687 0.227
9.565 2.251 0.549
9.283 2.009 0.900
9.108 1.391 1.065
10.340 3.547 0.079
10.312 3.352 0.480
10.025 2.684 0.513
9.885 2.211 0.860
9.671 1.774 0.962
9.575 1.554 1.455
9.426 1.026 1.563
9.150 0.627 1.898
9.030 0.224 2.084
10.900 4.123 0.292
10.876 3.748 0.410
10.647 3.290 0.682
10.572 2.630 1.038
10.277 2.255 1.122
10.128 1.734 1.331
10.002 1.509 1.532
9.878 0.943 1.699
9.701 0.544 2.170
9.485 0.009 2.310
11.902 5.002 0.142
11.605 4.390 0.341
11.352 3.886 0.420
11.209 3.593 0.770
11.107 3.236 0.999
10.883 2.637 1.261
10.903 2.321 1.396
10.597 1.914 1.746
10.285 1.480 1.893
10.182 0.862 2.134
10.194 0.427 2.246
9.844 0.206 2.624
12.539 5.172 0.024
12.389 4.728 0.292
12.215 4.410 0.388
11.941 4.111 0.698
11.854 3.588 1.059
11.501 2.961 1.295
11.396 2.547 1.542
11.264 2.102 1.596
10.937 1.664 1.797
10.791 1.490 2.202
10.619 0.952 2.432
10.582 0.423 2.739
10.322 -0.076 2.732
12.669 4.350 0.833
12.513 4.038 1.122
12.245 3.426 1.378
11.940 3.151 1.456
11.806 2.720 1.614
11.785 2.304 1.901
11.595 1.803 2.088
11.338 1.334 2.377
11.028 1.015 2.757
10.859 0.420 2.998
10.725 0.114 3.099
12.381 2.945 1.737
12.355 2.468 1.980
12.168 2.114 2.325
12.044 1.633 2.476
11.745 1.184 2.800
12.459 2.198 2.505
12.408 1.651 2.688
4.581 0.362 0.287
5.259 0.616 0.280
5.092 0.203 0.521
5.384 0.331 0.636
7.779 2.638 0.090
8.600 3.052 0.148
8.246 2.728 0.378
9.397 3.885 0.111
9.176 3.532 0.369
9.017 3.135 0.448
8.646 2.663 0.776
8.633 2.151 0.789
9.910 4.405 0.149
9.737 3.932 0.179
9.691 3.677 0.525
9.256 3.182 0.774
9.133 2.681 1.085
9.011 2.222 1.336
8.950 1.737 1.365
8.223 -0.005 2.378
10.617 4.875 0.097
10.391 4.404 0.368
10.288 3.979 0.538
9.997 3.553 0.740
9.948 2.954 1.131
9.585 2.527 1.385
9.515 2.108 1.497
9.415 1.783 1.780
9.058 1.309 1.942
8.899 0.853 2.213
8.729 0.501 2.365
8.685 0.017 2.500
11.311 5.151 0.066
11.014 4.864 0.304
10.794 4.399 0.526
10.749 3.933 0.785
10.439 3.474 1.062
10.351 2.886 1.406
10.157 2.621 1.560
10.035 2.295 1.796
9.702 1.595 1.931
9.519 1.244 2.134
9.425 0.987 2.346
9.365 0.285 2.691
11.895 5.730 0.264
11.551 5.095 0.359
11.498 4.624 0.557
11.345 4.292 0.946
10.960 3.937 1.220
10.799 3.370 1.340
10.783 3.123 1.436
10.654 2.644 1.868
10.498 2.065 2.078
10.187 1.719 2.211
10.147 1.325 2.625
9.772 0.842 2.855
9.577 0.462 2.980
12.429 6.133 0.171
12.246 5.440 0.529
12.078 5.024 0.687
11.783 4.753 0.945
11.817 4.244 1.163
11.653 3.870 1.461
11.466 3.400 1.586
11.245 2.892 1.852
10.979 2.502 1.967
10.807 2.140 2.378
10.514 1.563 2.413
10.384 1.144 2.675
10.153 0.790 2.971
10.060 0.420 3.250
12.308 6.051 0.204
12.430 4.980 0.826
12.316 4.545 1.034
12.042 4.100 1.516
11.953 3.823 1.649
11.857 3.246 1.905
11.498 3.040 2.178
11.590 2.573 2.218
11.331 2.070 2.649
11.152 1.612 2.698
11.010 1.208 3.062
10.637 0.621 3.243
10.590 0.317 3.359
12.529 3.702 1.946
12.318 3.376 2.027
12.211 2.969 2.257
11.757 2.457 2.580
11.834 1.908 2.882
11.649 1.668 3.077
12.476 2.755 2.757
12.388 2.325 2.741
12.232 1.996 3.189
3.348 0.721 0.126
3.425 0.210 0.172
4.044 1.217 0.061
4.064 0.774 0.394
3.782 0.357 0.390
4.615 1.391 0.045
4.611 1.174 0.429
4.516 0.733 0.423
4.153 0.074 0.698
5.253 2.051 0.256
5.107 1.590 0.248
4.977 1.122 0.576
4.813 0.563 0.762
4.689 0.217 1.125
5.953 2.343 0.261
5.379 0.695 1.022
5.015 0.127 1.325
6.620 2.687 0.341
5.478 0.222 1.534
7.468 3.560 0.046
7.264 3.213 0.134
7.972 4.008 -0.072
7.930 3.411 0.263
7.660 3.003 0.453
8.643 4.473 0.035
8.335 3.759 0.200
8.190 3.484 0.582
7.977 3.010 0.771
9.325 4.646 0.205
9.027 4.353 0.446
9.028 3.881 0.730
8.882 3.356 0.857
8.511 3.050 1.061
8.314 2.474 1.437
9.761 5.194 0.289
9.640 4.581 0.500
9.632 4.160 0.632
9.356 3.873 0.993
9.089 3.463 1.020
8.996 2.905 1.338
8.709 2.550 1.490
8.593 2.213 1.922
7.981 0.489 2.789
10.608 5.441 0.279
10.307 5.229 0.520
10.263 4.662 0.770
9.992 4.365 0.807
9.740 3.752 1.111
9.506 3.376 1.358
9.384 2.969 1.596
9.400 2.589 1.733
9.053 2.061 2.161
8.802 1.636 2.185
8.741 1.156 2.469
8.475 0.865 2.684
8.517 0.387 3.122
11.449 6.434 0.068
11.113 5.919 0.223
10.943 5.581 0.386
10.663 5.075 0.701
10.662 4.479 1.072
10.575 4.155 1.229
10.312 3.622 1.336
10.185 3.377 1.591
9.834 2.802 1.759
9.695 2.574 2.169
9.548 1.994 2.299
9.473 1.607 2.495
9.272 1.065 2.892
9.078 0.840 3.090
8.810 0.230 3.237
11.250 6.478 0.088
11.638 6.310 0.206
11.687 5.930 0.421
11.312 5.477 0.863
11.315 5.147 0.994
10.959 4.580 1.168
10.756 4.275 1.591
10.588 3.843 1.735
10.469 3.413 1.898
10.458 2.802 2.257
10.038 2.310 2.391
9.994 1.939 2.755
9.952 1.440 2.886
9.609 1.175 3.052
9.491 0.641 3.373
9.211 0.353 3.449
11.837 6.813 0.176
11.692 6.400 0.209
12.146 6.148 0.647
11.927 5.758 0.764
11.802 5.535 1.044
11.703 4.984 1.277
11.489 4.547 1.588
11.236 4.249 1.621
11.282 3.803 1.950
10.881 3.117 2.268
10.931 2.941 2.347
10.685 2.282 2.771
10.425 2.013 3.051
10.277 1.644 3.092
10.017 0.997 3.317
9.932 0.578 3.585
9.820 0.278 3.771
12.510 6.603 0.241
12.150 6.359 0.647
12.412 5.865 1.011
12.314 5.334 1.270
12.099 4.814 1.475
11.929 4.642 1.670
11.898 4.062 2.012
11.668 3.761 2.342
11.536 3.248 2.430
11.359 2.712 2.826
11.171 2.394 3.057
10.838 1.954 3.292
10.697 1.350 3.369
10.650 1.012 3.791
10.388 0.588 4.008
10.066 0.156 3.972
12.280 4.377 2.031
12.313 4.112 2.237
12.034 3.526 2.494
11.717 3.166 2.800
11.655 2.864 2.948
11.368 2.264 3.275
11.250 1.937 3.517
10.650 0.133 4.398
12.477 3.626 2.925
12.312 3.232 2.967
12.221 2.785 3.376
11.834 2.185 3.392
1.509 0.179 0.169
2.086 0.673 -0.017
2.003 0.103 0.397
2.729 1.070 0.155
2.531 0.480 0.459
2.389 0.224 0.544
3.320 1.392 0.303
3.151 0.952 0.439
3.025 0.481 0.659
3.004 0.154 0.779
4.206 1.940 0.173
3.893 1.502 0.378
3.841 0.833 0.564
3.455 0.612 0.974
3.231 0.025 1.127
4.915 2.699 -0.068
4.668 2.228 0.289
4.659 1.826 0.578
4.450 1.488 0.658
4.081 1.014 0.951
3.898 0.419 1.112
3.678 0.121 1.469
5.569 2.964 -0.002
5.398 2.543 0.302
4.487 0.894 1.114
4.402 0.597 1.516
4.253 0.157 1.812
6.261 3.481 0.061
5.891 2.987 0.458
4.924 0.331 1.688
6.688 3.741 0.050
6.556 3.527 0.369
7.499 4.216 0.071
7.147 3.863 0.357
7.856 4.616 0.331
7.823 4.251 0.423
7.697 3.861 0.719
8.323 4.662 0.490
8.383 4.058 0.695
8.016 3.680 0.953
9.065 5.089 0.488
8.927 4.633 0.639
8.807 4.090 1.108
8.661 3.790 1.250
8.309 3.175 1.527
9.826 5.395 0.693
9.612 4.908 0.745
9.256 4.670 0.991
9.136 4.223 1.413
9.009 3.675 1.405
8.894 3.199 1.628
8.507 2.710 1.847
7.575 0.230 3.294
10.240 5.918 0.676
10.074 5.426 0.794
9.825 4.824 1.037
9.763 4.556 1.282
9.526 3.981 1.475
9.542 3.690 1.783
9.166 3.076 1.958
9.151 2.912 2.310
8.962 2.283 2.437
8.035 0.656 3.268
8.118 0.088 3.600
11.235 6.649 0.323
10.870 6.087 0.730
10.813 5.703 0.991
10.500 5.302 1.248
10.513 4.882 1.221
10.146 4.602 1.460
10.187 4.175 1.918
9.840 3.687 1.948
9.764 3.188 2.252
9.527 2.817 2.493
9.242 2.187 2.795
9.089 1.745 2.914
9.060 1.479 3.093
8.660 1.036 3.457
8.703 0.683 3.803
8.358 0.030 3.787
11.164 7.186 0.217
11.067 6.653 0.446
11.527 6.471 0.794
11.477 6.184 0.946
11.271 5.823 1.225
11.110 5.198 1.529
10.767 4.917 1.536
10.788 4.427 1.979
10.465 4.138 2.133
10.263 3.634 2.460
10.192 3.253 2.413
9.962 2.577 2.857
9.659 2.269 3.144
9.652 1.812 3.355
9.392 1.463 3.473
9.348 1.093 3.727
8.999 0.586 3.857
8.966 0.086 4.196
11.793 7.433 0.186
11.640 6.926 0.350
11.568 6.705 0.562
11.875 6.538 0.987
11.834 6.014 1.189
11.785 5.612 1.548
11.607 5.232 1.801
11.371 4.932 1.800
11.124 4.341 2.236
10.797 4.006 2.417
10.633 3.560 2.596
10.709 3.122 2.722
10.351 2.574 2.954
10.223 2.182 3.209
10.040 1.750 3.640
9.859 1.289 3.677
9.650 1.018 4.071
9.497 0.462 4.188
9.279 0.079 4.431
12.591 7.987 0.259
12.334 7.398 0.373
12.274 6.954 0.767
11.886 6.565 0.934
12.224 5.685 1.741
12.015 5.194 2.004
11.694 4.929 2.218
11.581 4.255 2.416
11.394 4.000 2.697
11.157 3.529 2.791
11.078 3.173 3.117
10.754 2.678 3.445
10.544 2.318 3.494
9.839 0.468 4.402
9.875 -0.064 4.682
12.350 5.166 2.072
12.268 4.830 2.416
12.051 4.263 2.663
11.900 3.972 2.933
11.660 3.538 3.179
11.460 2.996 3.280
11.237 2.685 3.536
12.501 4.412 3.063
12.394 3.838 3.294
12.177 3.563 3.392
11.788 3.037 3.678
12.503 3.268 3.578
11.212 10.807 -0.015
11.685 11.220 0.218
11.552 10.927 0.332
12.142 11.221 0.339
11.980 10.816 0.455
12.280 10.731 0.914
10.910 11.294 0.320
11.426 11.530 0.482
11.401 11.253 0.701
11.959 11.533 0.712
11.800 10.990 1.009
12.436 11.508 1.008
12.136 11.199 1.361
10.119 11.583 0.559
10.944 11.955 0.547
10.757 11.540 0.895
11.397 12.360 0.575
11.255 11.738 0.839
11.209 11.324 0.947
11.785 12.198 0.837
11.664 11.899 1.031
11.550 11.255 1.354
12.301 12.256 1.146
12.286 11.818 1.471
12.069 11.341 1.522
12.537 11.455 1.873
9.677 11.955 0.547
10.242 12.195 0.807
10.122 11.899 1.016
10.683 12.255 0.879
10.566 11.740 1.124
11.058 12.262 1.109
10.940 11.744 1.423
11.668 12.577 1.196
11.544 12.204 1.474
11.398 11.643 1.603
12.161 12.457 1.648
12.082 12.104 1.772
11.724 11.643 1.924
12.325 11.933 2.023
12.148 11.579 2.321
7.974 12.273 0.270
8.564 12.308 0.579
8.995 12.065 0.798
9.407 12.439 0.919
9.218 12.135 1.095
10.015 12.580 1.067
9.925 12.011 1.411
10.539 12.406 1.353
10.155 12.084 1.448
10.872 12.413 1.523
10.775 12.062 1.950
11.196 12.417 1.879
11.112 12.041 2.103
11.642 12.307 2.265
11.687 11.855 2.454
12.100 12.197 2.546
12.145 11.865 2.752
12.558 11.749 3.014
7.229 12.449 0.329
7.748 12.415 0.632
8.167 12.501 0.881
8.593 12.362 1.217
9.199 12.488 1.326
9.675 12.274 1.748
10.125 12.378 2.093
10.423 12.267 2.130
10.912 12.319 2.518
11.281 12.207 2.784
11.681 12.131 2.992
12.168 12.206 3.461
10.614 12.414 2.879
11.033 12.539 3.147
11.669 12.444 3.459
12.153 12.555 3.726
12.625 12.525 4.037
12.251 10.462 0.084
11.154 10.889 -0.091
11.622 11.421 0.144
11.554 10.980 0.403
12.214 11.171 0.489
11.982 10.871 0.690
12.362 10.684 0.790
3.143 5.326 0.111
1.525 1.037 2.444
3.979 5.657 -0.024
3.599 5.128 0.335
3.461 4.891 0.529
2.118 1.334 2.506
1.956 0.950 2.640
4.581 6.087 0.225
4.368 5.636 0.214
4.186 5.307 0.621
3.838 4.602 0.830
2.451 1.298 2.548
2.243 0.935 2.816
4.973 6.366 0.249
4.874 5.901 0.393
4.662 5.473 0.607
4.440 5.266 0.958
4.472 4.800 1.069
2.976 1.102 2.905
2.671 0.686 3.040
5.429 6.087 0.531
5.113 5.559 0.918
5.048 5.150 1.053
3.222 0.812 3.494
8.803 5.568 2.808
8.654 5.256 3.041
8.723 4.728 3.237
6.777 0.475 5.511
10.784 10.478 0.226
10.801 9.899 0.431
9.681 6.022 2.955
9.452 5.590 3.100
9.089 5.189 3.319
9.051 4.657 3.719
8.925 4.314 3.882
7.432 0.896 5.757
7.149 0.513 5.827
11.282 10.310 0.445
11.071 10.053 0.872
10.881 9.636 1.122
10.098 5.956 3.176
9.751 5.642 3.359
9.658 5.287 3.682
9.461 4.824 3.956
9.355 4.275 3.954
7.838 0.795 5.954
7.668 0.265 6.220
11.667 10.338 0.802
11.696 10.057 1.150
11.364 9.596 1.332
10.362 6.101 3.375
10.372 5.455 3.736
10.138 5.255 3.752
9.920 4.603 3.978
9.684 4.253 4.254
8.215 0.918 6.184
8.052 0.397 6.432
12.304 10.384 1.024
12.065 9.816 1.474
11.912 9.418 1.548
10.781 5.546 3.890
10.500 5.028 4.043
10.344 4.741 4.527
8.514 0.223 6.747
12.385 9.964 1.547
3.233 5.894 0.078
2.895 5.511 0.307
1.263 1.171 2.622
3.773 6.334 0.142
3.764 5.792 0.369
3.443 5.578 0.542
3.228 5.170 0.913
1.995 1.465 2.682
1.557 1.296 3.009
4.489 6.744 0.367
4.297 6.301 0.566
4.219 5.871 0.658
3.875 5.437 0.935
3.743 4.969 1.091
2.446 1.591 3.022
2.202 1.144 3.172
4.867 6.643 0.395
4.680 6.294 0.884
4.653 5.883 1.123
4.413 5.549 1.369
4.285 5.035 1.517
2.673 1.522 3.257
2.600 1.038 3.608
5.174 6.310 1.126
5.010 5.699 1.196
4.724 5.432 1.394
3.135 1.007 3.908
8.780 6.010 3.169
8.568 5.505 3.483
8.378 5.024 3.688
6.713 0.806 5.931
10.808 10.861 0.804
10.483 10.252 1.015
9.360 6.455 3.136
9.221 5.905 3.421
8.924 5.633 3.665
8.845 5.116 4.003
8.617 4.657 4.124
7.223 1.266 6.018
7.014 0.686 6.236
11.182 10.648 0.863
11.004 10.242 1.089
10.846 9.777 1.318
9.935 6.333 3.448
9.659 5.897 3.686
9.444 5.395 4.075
9.296 5.014 4.307
9.135 4.671 4.385
7.757 0.981 6.309
7.578 0.548 6.589
11.536 10.727 1.275
11.273 10.204 1.578
11.292 9.767 1.535
10.183 6.286 3.689
10.194 5.951 4.117
9.808 5.339 4.200
9.768 5.031 4.451
9.630 4.695 4.803
8.174 1.203 6.511
7.992 0.510 6.777
12.155 10.721 1.471
11.916 10.201 1.782
11.616 9.897 1.990
10.639 5.743 4.318
10.327 5.315 4.673
10.105 4.902 4.667
8.237 0.516 7.235
12.523 10.731 1.781
12.226 10.057 2.113
2.770 6.628 -0.085
2.459 6.167 0.147
2.278 5.838 0.470
0.554 1.541 2.981
3.389 7.016 0.151
3.211 6.559 0.251
3.098 6.202 0.536
2.957 5.730 0.748
2.743 5.353 1.164
1.310 1.804 2.997
0.938 1.449 3.253
3.964 7.427 0.172
3.827 7.145 0.326
3.735 6.667 0.708
3.444 6.101 0.708
3.136 5.894 1.018
2.947 5.470 1.351
3.002 4.892 1.488
1.743 2.403 2.802
1.771 1.989 3.295
1.478 1.366 3.385
4.533 7.481 0.462
4.200 7.140 0.614
4.146 6.755 0.755
4.024 6.293 1.200
3.645 5.879 1.342
3.611 5.201 1.566
3.434 4.970 1.728
2.375 2.244 3.284
2.204 1.951 3.536
1.910 1.379 3.553
4.783 7.530 0.663
4.590 6.974 1.021
4.404 6.488 1.037
4.256 6.091 1.353
4.132 5.786 1.644
3.867 5.306 1.918
3.803 4.908 2.156
2.742 2.184 3.467
2.502 1.737 3.661
2.453 1.403 3.899
5.028 6.858 1.170
4.953 6.668 1.350
4.685 6.002 1.718
4.643 5.613 2.018
4.385 5.117 2.114
3.075 1.853 4.081
2.916 1.245 4.149
5.500 6.573 1.684
5.128 6.147 2.025
5.078 5.540 2.112
3.391 1.306 4.575
8.028 6.255 3.453
7.833 5.852 3.480
7.590 5.355 3.668
5.933 1.199 6.106
9.934 11.129 0.866
9.823 10.676 1.060
8.731 6.608 3.372
8.464 6.243 3.504
8.479 5.944 3.709
8.039 5.277 4.097
8.071 4.846 4.427
6.524 1.485 6.045
6.360 0.955 6.522
10.605 11.160 1.166
10.409 10.719 1.218
10.028 10.145 1.487
9.314 6.947 3.379
9.018 6.591 3.590
8.964 6.114 4.008
8.763 5.857 4.180
8.528 5.439 4.439
8.564 5.026 4.464
8.169 4.444 4.746
7.113 1.798 6.055
6.981 1.383 6.333
6.867 1.023 6.721
10.902 10.886 1.443
10.747 10.627 1.543
10.502 10.248 1.727
10.288 9.572 1.958
9.866 6.918 3.622
9.457 6.682 4.000
9.440 6.265 4.254
9.172 5.684 4.316
9.051 5.290 4.650
8.896 4.880 4.966
8.617 4.426 4.965
7.762 1.918 6.527
7.313 1.290 6.806
7.317 0.987 6.901
11.425 10.852 1.548
11.204 10.582 1.878
11.142 10.014 1.955
10.969 9.721 2.347
10.335 7.066 4.095
10.116 6.702 4.150
9.899 6.090 4.403
9.629 5.590 4.590
9.426 5.337 4.802
9.282 4.735 5.206
9.158 4.506 5.328
8.019 1.932 6.848
7.888 1.473 7.073
7.593 0.930 7.116
11.740 10.954 1.819
11.601 10.535 2.146
11.454 10.008 2.335
11.159 9.596 2.634
10.530 6.660 4.494
10.410 5.993 4.750
10.005 5.545 4.845
9.984 5.205 5.248
9.746 4.799 5.429
8.479 1.251 7.147
8.072 0.953 7.491
12.306 10.886 2.276
12.156 10.577 2.353
11.820 10.131 2.639
10.775 6.177 4.950
10.638 5.540 5.239
10.356 5.248 5.506
8.585 0.731 7.790
12.493 10.553 2.658
2.207 7.152 0.072
1.889 6.646 0.395
1.795 6.331 0.677
2.596 7.585 0.294
2.478 6.881 0.527
2.457 6.491 0.741
2.208 6.203 0.852
2.051 5.599 1.246
0.506 2.270 3.055
0.389 1.830 3.123
3.288 7.724 0.310
3.227 7.481 0.586
2.999 7.085 0.641
2.727 6.641 1.061
2.732 5.982 1.182
2.459 5.807 1.344
2.199 5.266 1.679
1.201 2.693 3.070
0.953 2.334 3.242
0.723 1.904 3.453
3.917 8.157 0.403
3.694 7.874 0.551
3.587 7.373 0.751
3.401 6.971 1.004
3.139 6.422 1.149
3.001 6.126 1.409
2.901 5.541 1.537
2.825 5.132 1.813
2.400 4.739 2.023
1.804 3.115 3.081
1.491 2.620 3.214
1.368 2.258 3.522
1.240 1.685 3.746
4.465 8.320 0.687
4.091 7.658 0.647
4.135 7.218 1.004
3.797 6.908 1.120
3.813 6.425 1.572
3.450 5.972 1.632
3.295 5.719 1.907
3.041 5.270 2.233
3.027 4.822 2.423
2.166 2.900 3.436
2.181 2.568 3.629
1.885 2.242 3.675
1.617 1.725 3.918
4.817 8.074 0.796
4.772 7.608 1.066
4.498 7.317 1.387
4.435 6.897 1.509
4.160 6.423 1.755
3.937 6.144 2.081
3.828 5.664 2.347
3.553 5.171 2.522
3.420 4.790 2.629
2.660 2.927 3.530
2.479 2.527 3.740
2.332 2.017 3.942
2.050 1.654 4.373
5.070 7.694 1.298
5.020 7.384 1.644
4.863 6.762 1.808
4.610 6.356 2.079
4.487 6.091 2.269
4.171 5.501 2.553
4.084 5.100 2.614
3.059 2.589 4.156
2.827 2.053 4.320
2.707 1.732 4.480
5.458 7.279 1.903
5.216 6.709 2.083
5.070 6.422 2.321
4.828 6.068 2.621
4.660 5.547 2.644
3.235 1.902 4.740
3.029 1.611 4.982
5.718 6.735 2.257
5.544 6.414 2.615
5.324 5.864 2.744
3.362 1.517 5.016
7.496 10.986 0.077
7.377 6.577 3.466
7.320 6.165 3.630
7.000 5.878 4.012
5.374 1.369 6.145
9.273 11.524 0.884
9.200 11.041 1.162
7.980 7.155 3.359
7.844 6.509 3.594
7.813 6.194 4.053
7.601 5.656 4.211
7.251 5.333 4.364
5.923 1.767 6.311
5.870 1.473 6.516
9.867 11.303 1.099
9.704 10.905 1.247
9.352 10.402 1.506
8.593 7.544 3.408
8.402 7.079 3.710
8.187 6.556 4.000
8.180 6.123 4.334
7.842 5.548 4.423
7.900 5.282 4.687
7.465 4.815 4.962
6.560 2.289 6.290
6.374 1.816 6.549
6.106 1.381 6.688
10.207 11.333 1.369
10.200 10.898 1.586
9.950 10.401 1.856
9.640 10.073 2.059
9.148 7.797 3.415
9.222 7.448 3.807
8.902 6.968 4.083
8.619 6.413 4.129
8.595 6.140 4.618
8.481 5.725 4.585
8.200 5.245 4.852
7.942 4.795 5.327
8.002 4.337 5.497
7.094 2.497 6.381
6.853 2.042 6.580
6.759 1.872 6.779
6.757 1.251 7.047
10.619 11.192 1.617
10.517 10.837 1.890
10.295 10.550 2.147
10.039 10.000 2.477
9.882 9.408 2.492
9.747 7.701 3.940
9.465 7.374 4.133
9.390 6.901 4.365
9.178 6.542 4.518
8.923 5.968 4.849
8.802 5.738 5.072
8.578 5.279 5.296
8.346 4.829 5.367
8.303 4.273 5.582
7.563 2.606 6.670
7.430 2.132 6.743
7.108 1.801 7.092
7.052 1.245 7.260
11.209 11.180 1.833
10.849 10.887 2.211
10.658 10.262 2.370
10.520 9.931 2.786
10.351 9.631 2.873
10.092 7.777 3.997
9.996 7.442 4.455
9.685 6.914 4.570
9.745 6.426 4.726
9.571 6.126 5.120
9.156 5.613 5.303
9.129 5.228 5.476
8.996 4.600 5.874
8.660 4.278 5.960
8.061 2.438 6.950
7.872 2.044 7.065
7.797 1.526 7.498
7.521 1.118 7.476
11.571 11.214 2.258
11.325 10.747 2.498
11.268 10.253 2.718
11.159 9.888 2.905
10.880 9.604 3.216
10.556 7.286 4.633
10.233 6.716 4.910
10.107 6.281 5.150
9.814 6.021 5.242
9.674 5.404 5.523
9.538 5.131 5.747
9.496 4.648 5.976
8.450 1.922 7.494
8.076 1.533 7.705
8.008 1.273 7.771
12.132 11.038 2.638
11.838 10.714 2.614
11.627 10.337 3.110
11.398 9.732 3.259
10.741 6.942 5.108
10.501 6.322 5.324
10.423 6.033 5.530
10.037 5.452 5.730
9.971 5.123 5.909
8.641 1.722 7.960
8.516 1.281 8.022
12.485 11.098 2.783
12.320 10.592 3.153
12.130 10.138 3.391
11.007 6.433 5.537
10.838 5.997 5.810
10.767 5.318 6.088
8.864 1.134 8.354
0.722 6.947 0.125
0.600 6.482 0.331
1.388 7.323 0.275
1.112 7.049 0.369
1.178 6.390 0.712
2.112 7.714 0.350
1.944 7.483 0.507
1.798 6.905 0.886
1.427 6.575 0.911
1.398 5.991 1.377
2.541 8.318 0.403
2.570 7.723 0.460
2.403 7.187 0.941
2.028 6.887 0.910
1.941 6.507 1.349
1.661 6.151 1.489
1.707 5.676 1.732
0.563 2.901 3.263
0.299 2.425 3.390
0.250 2.027 3.668
3.166 8.469 0.338
3.092 8.072 0.647
2.880 7.738 0.851
2.667 7.304 1.114
2.676 6.709 1.337
2.442 6.505 1.564
2.162 5.987 1.803
2.127 5.599 2.117
1.740 5.210 2.325
1.192 3.378 3.212
0.863 2.838 3.332
0.803 2.495 3.527
0.501 1.953 3.965
4.193 9.468 0.099
3.956 8.892 0.540
3.724 8.573 0.570
3.473 7.981 0.763
3.403 7.672 1.051
3.131 7.342 1.409
3.048 6.856 1.517
2.736 6.466 1.962
2.723 5.961 1.951
2.394 5.489 2.187
2.251 5.205 2.566
2.053 4.636 2.663
2.084 4.319 2.865
1.701 3.748 3.192
1.660 3.357 3.595
1.472 2.870 3.658
1.328 2.503 3.979
0.933 2.101 4.143
4.042 9.432 0.089
4.394 9.267 0.349
4.271 8.994 0.669
4.308 8.374 0.961
4.107 8.031 1.091
3.824 7.765 1.414
3.753 7.208 1.654
3.364 6.730 1.769
3.188 6.242 2.043
3.237 5.949 2.208
2.814 5.567 2.691
2.709 5.041 2.751
2.487 4.719 2.910
2.272 4.028 3.306
2.243 3.811 3.518
2.154 3.411 3.740
1.813 2.961 4.004
1.567 2.569 4.323
1.528 2.003 4.288
4.797 10.204 0.057
4.660 9.947 0.269
4.626 9.303 0.537
4.866 9.330 0.655
4.865 8.782 0.973
4.541 8.431 1.330
4.356 8.066 1.568
4.408 7.664 1.739
4.112 7.204 2.023
3.949 6.697 2.009
3.748 6.356 2.426
3.461 5.835 2.521
3.236 5.519 2.847
3.173 4.985 3.107
3.043 4.430 3.433
2.889 3.989 3.402
2.730 3.689 3.715
2.612 3.209 3.910
2.238 2.875 4.100
2.188 2.366 4.598
1.873 1.816 4.786
5.629 10.626 0.044
5.431 10.089 0.366
5.097 9.715 0.372
5.032 9.215 0.688
5.103 8.325 1.346
4.848 7.885 1.804
4.760 7.619 1.827
4.522 7.253 2.130
4.266 6.666 2.338
4.047 6.232 2.761
3.937 5.951 2.903
3.771 5.420 3.233
3.671 4.986 3.333
2.845 3.311 4.385
2.721 2.814 4.485
2.503 2.454 4.797
2.526 1.886 4.876
6.111 10.990 0.039
5.834 10.686 0.402
5.734 10.210 0.694
5.314 7.849 1.954
5.202 7.582 2.118
4.923 7.091 2.446
4.705 6.698 2.617
4.616 6.186 3.046
4.527 5.724 3.285
4.172 5.404 3.321
3.063 2.826 4.697
2.939 2.209 4.979
2.924 1.770 5.190
6.737 11.538 0.258
6.652 11.116 0.385
6.376 10.675 0.513
5.716 7.554 2.628
5.550 7.144 2.807
5.380 6.604 2.888
5.200 6.218 3.273
4.837 5.779 3.351
3.600 2.373 5.160
3.382 1.708 5.541
7.280 11.911 0.031
7.091 11.503 0.335
7.105 11.105 0.772
5.821 7.019 2.872
5.685 6.661 3.209
5.560 6.096 3.491
3.615 1.938 5.653
7.867 11.761 0.512
7.669 11.255 0.674
6.233 7.048 3.407
6.201 6.666 3.444
5.960 6.228 3.663
4.323 1.673 5.938
8.209 11.880 0.622
8.197 11.330 0.822
6.835 6.971 3.426
6.553 6.493 3.689
6.363 6.169 3.880
4.610 1.768 6.419
8.719 11.707 0.926
8.671 11.278 1.361
7.499 7.334 3.449
7.210 6.785 3.706
6.917 6.496 3.956
6.958 6.139 4.184
6.663 5.589 4.579
5.241 2.154 6.464
5.028 1.794 6.564
9.153 11.821 1.229
9.127 11.151 1.619
8.789 10.809 1.589
7.922 7.784 3.658
7.907 7.273 3.950
7.547 6.745 4.117
7.498 6.302 4.268
7.165 5.960 4.685
7.249 5.574 4.784
6.831 5.199 5.036
5.948 2.458 6.454
5.625 2.018 6.567
5.589 1.612 6.804
9.497 11.600 1.674
9.308 11.150 1.719
9.306 10.674 1.856
9.035 10.262 2.243
8.627 8.265 3.742
8.381 7.673 4.001
8.348 7.260 4.132
8.115 6.850 4.373
8.044 6.483 4.676
7.788 6.093 4.777
7.552 5.419 5.190
7.363 5.205 5.252
7.218 4.727 5.665
6.363 2.998 6.411
6.380 2.444 6.563
6.185 2.046 6.855
6.069 1.580 7.255
10.028 11.515 1.727
9.986 11.304 2.090
9.636 10.885 2.257
9.535 10.309 2.386
9.407 10.003 2.697
9.340 8.997 3.576
9.394 8.538 3.740
8.987 8.068 3.992
8.986 7.645 4.226
8.831 7.289 4.464
8.574 6.738 4.638
8.482 6.477 4.987
8.100 5.817 5.166
8.007 5.641 5.317
7.865 5.016 5.680
7.593 4.764 5.902
7.470 4.138 5.894
7.344 3.797 6.355
7.077 3.417 6.522
6.999 2.978 6.757
6.641 2.518 6.868
6.488 1.911 7.326
6.392 1.518 7.293
10.616 11.453 1.941
10.278 11.090 2.327
10.112 10.809 2.430
10.068 10.271 2.801
9.657 9.833 3.153
9.702 9.377 3.214
9.358 9.025 3.384
9.991 8.986 3.846
9.762 8.486 3.853
9.495 8.164 4.075
9.388 7.619 4.536
9.182 7.277 4.695
8.995 6.804 5.037
8.953 6.416 5.280
8.520 5.992 5.494
8.501 5.537 5.557
8.272 4.916 5.850
8.121 4.695 6.128
7.933 4.216 6.165
7.795 3.605 6.570
7.684 3.400 6.873
7.395 2.802 7.073
7.294 2.499 7.102
7.044 1.909 7.471
6.811 1.560 7.830
10.939 11.618 2.258
10.646 10.994 2.521
10.627 10.552 2.782
10.404 10.178 2.960
10.135 9.755 3.392
10.071 9.358 3.598
9.900 9.026 3.618
10.334 8.803 3.986
10.165 8.552 4.227
9.990 8.090 4.466
9.916 7.553 4.708
9.532 7.181 4.910
9.427 6.617 5.158
9.342 6.434 5.527
9.213 5.821 5.791
8.875 5.312 5.823
8.699 4.955 5.975
8.595 4.618 6.209
8.463 4.235 6.567
8.123 3.645 6.911
7.997 3.337 6.980
7.729 2.928 7.393
7.675 2.493 7.542
7.542 1.868 7.761
7.384 1.457 8.017
11.305 11.435 2.593
11.247 11.091 2.728
10.947 10.619 2.997
10.761 10.177 3.199
10.573 9.712 3.501
10.380 9.216 3.908
10.220 8.800 3.997
10.548 7.921 4.896
10.334 7.529 5.035
9.988 7.218 5.137
9.923 6.715 5.484
9.676 6.122 5.609
9.414 5.864 5.828
9.265 5.264 6.040
9.060 4.892 6.414
9.073 4.600 6.638
8.267 2.672 7.570
8.006 2.281 7.853
8.064 1.806 7.891
7.703 1.543 8.303
11.884 11.549 2.971
11.801 10.969 3.123
11.597 10.671 3.464
11.343 10.155 3.718
11.213 9.783 3.895
10.757 7.613 5.280
10.529 7.134 5.628
10.299 6.550 5.834
10.017 6.308 5.858
10.059 5.877 6.314
9.844 5.230 6.306
9.621 4.860 6.638
8.427 2.418 8.055
8.272 1.742 8.379
8.114 1.461 8.483
12.343 11.432 3.264
12.191 10.999 3.351
12.048 10.426 3.578
11.762 10.029 3.858
10.964 7.073 5.838
10.725 6.701 5.968
10.704 6.127 6.131
10.392 5.620 6.486
10.285 5.299 6.746
8.875 1.850 8.617
8.755 1.285 8.871
12.622 11.075 3.774
12.417 10.469 4.026
11.330 6.588 6.405
11.058 6.031 6.526
10.868 5.692 6.763
9.029 1.502 8.931
0.776 7.021 0.266
0.548 6.669 0.339
0.869 8.255 0.118
0.749 7.754 0.349
0.622 7.181 0.722
0.267 6.894 0.923
0.319 6.292 1.022
1.506 8.015 0.456
1.095 7.714 0.773
1.172 7.212 0.988
0.735 6.826 1.153
0.766 6.485 1.386
2.037 8.639 0.317
1.716 8.071 0.580
1.534 7.594 0.785
1.442 7.284 1.217
1.258 6.681 1.306
1.073 6.430 1.635
0.976 5.854 1.977
2.661 8.781 0.380
2.591 8.499 0.794
2.282 8.053 0.961
2.210 7.718 1.207
1.916 7.131 1.456
1.643 6.832 1.533
1.655 6.160 1.965
1.284 5.862 2.104
1.288 5.546 2.328
0.456 3.759 3.311
0.265 3.215 3.522
0.271 2.904 3.677
3.564 9.705 0.423
3.217 9.208 0.593
3.150 8.858 0.632
3.000 8.567 0.953
2.672 7.886 1.163
2.656 7.644 1.607
2.267 7.029 1.740
2.188 6.680 2.065
1.908 6.221 2.054
1.951 5.777 2.467
1.558 5.503 2.591
1.515 4.836 2.823
1.279 4.664 3.108
1.202 4.100 3.359
0.997 3.571 3.671
0.733 3.234 3.733
0.629 2.813 3.978
0.404 2.486 4.377
3.616 10.090 -0.055
3.402 9.727 0.221
3.774 9.776 0.454
3.756 9.288 0.896
3.576 8.865 0.997
3.467 8.477 1.305
3.169 8.041 1.639
2.867 7.490 1.753
2.751 7.058 2.030
2.747 6.594 2.152
2.575 6.085 2.477
2.229 5.821 2.801
1.977 5.498 3.034
2.057 4.996 3.197
1.850 4.514 3.308
1.577 4.136 3.697
1.389 3.507 3.724
1.221 3.072 3.961
1.067 2.803 4.204
0.795 2.219 4.426
4.097 10.537 0.027
4.173 10.121 0.398
3.859 9.799 0.657
4.214 9.613 0.926
4.247 9.319 1.080
3.957 8.825 1.332
3.648 8.297 1.428
3.562 7.814 1.743
3.565 7.466 1.942
3.371 7.089 2.264
2.954 6.485 2.346
2.889 6.238 2.857
2.775 5.763 3.077
2.492 5.350 3.096
2.477 4.960 3.318
2.253 4.544 3.534
2.025 3.925 3.858
1.819 3.598 4.103
1.767 3.180 4.266
1.453 2.637 4.675
1.289 2.215 4.913
4.917 10.880 0.066
4.656 10.536 0.433
4.428 10.028 0.627
4.255 9.592 0.734
4.691 9.533 1.191
4.538 9.068 1.401
4.469 8.859 1.700
4.304 8.237 1.705
4.020 7.977 2.042
4.009 7.373 2.201
3.761 7.091 2.646
3.388 6.662 2.816
3.396 6.014 3.115
3.065 5.766 3.197
3.097 5.366 3.418
2.920 4.710 3.730
2.710 4.439 3.841
2.341 4.118 4.062
2.329 3.448 4.371
2.201 3.141 4.557
1.928 2.743 4.803
1.862 2.121 5.066
5.527 11.398 0.087
5.347 10.993 0.425
5.138 10.525 0.672
4.857 10.070 1.026
4.708 9.643 1.076
5.258 9.508 1.464
5.103 9.144 1.489
4.888 8.601 1.927
4.765 8.302 2.110
4.384 7.805 2.201
4.266 7.406 2.645
4.217 6.949 2.890
3.986 6.444 2.990
3.680 6.090 3.163
3.729 5.780 3.625
3.384 5.130 3.747
3.200 4.697 3.868
3.001 4.507 4.126
2.797 3.911 4.307
2.608 3.577 4.571
2.439 2.939 4.977
2.455 2.671 5.051
2.133 2.314 5.356
6.307 12.103 0.035
6.051 11.684 0.154
6.061 11.193 0.480
5.720 11.029 0.683
5.588 10.450 0.995
5.336 9.910 1.070
5.267 9.715 1.386
5.227 8.688 2.160
5.102 8.223 2.387
4.820 7.783 2.636
4.704 7.337 2.723
4.711 6.900 3.053
4.320 6.483 3.362
4.165 6.115 3.671
4.064 5.605 3.630
3.766 5.136 4.140
3.293 3.581 4.943
3.083 3.060 5.083
2.853 2.692 5.512
2.548 2.259 5.701
6.748 12.298 0.333
6.668 11.836 0.532
6.386 11.307 0.768
6.305 10.803 0.833
5.892 10.294 1.325
5.681 8.126 2.686
5.262 7.670 2.869
5.194 7.264 3.069
5.093 6.926 3.411
4.755 6.613 3.572
4.596 6.016 3.865
4.573 5.670 4.057
3.534 2.873 5.317
3.135 2.449 5.807
3.086 2.220 5.891
7.296 12.180 0.612
6.960 11.550 0.845
6.937 11.348 1.119
6.720 10.953 1.376
5.844 7.758 3.244
5.577 7.438 3.476
5.489 6.860 3.659
5.379 6.568 3.851
5.108 5.903 4.030
3.598 2.523 6.072
3.504 2.084 6.307
7.671 12.026 0.934
7.452 11.513 1.175
7.230 11.258 1.175
6.377 7.823 3.323
6.185 7.366 3.521
5.975 6.777 3.792
5.803 6.365 4.066
5.676 6.012 4.484
4.057 2.409 6.142
3.874 2.183 6.584
8.113 12.045 1.219
7.896 11.640 1.226
7.591 11.105 1.644
6.684 7.807 3.705
6.639 7.345 3.972
6.499 6.797 4.279
6.089 6.380 4.481
5.985 5.833 4.588
4.519 2.407 6.534
4.401 1.929 6.686
8.574 12.053 1.371
8.291 11.473 1.719
8.251 11.128 1.892
7.247 8.147 3.650
7.174 7.773 3.895
7.049 7.240 4.252
6.791 6.654 4.526
6.518 6.264 4.778
6.368 5.915 4.963
6.276 5.359 5.015
5.331 2.809 6.566
5.003 2.567 6.790
4.867 1.896 7.034
9.073 11.977 1.729
8.864 11.590 1.779
8.612 11.087 2.053
8.369 10.713 2.334
8.079 8.457 3.717
7.742 7.898 3.972
7.622 7.513 4.227
7.400 7.239 4.549
7.213 6.752 4.713
6.953 6.317 4.958
6.992 5.844 5.276
6.606 5.326 5.335
6.575 4.974 5.569
5.776 3.274 6.555
5.643 2.900 6.766
5.523 2.291 7.117
5.434 1.934 7.181
9.324 11.936 1.847
9.340 11.593 2.153
9.053 11.027 2.299
8.943 10.600 2.499
8.585 10.104 2.886
8.877 9.330 3.573
8.470 8.972 3.937
8.314 8.366 4.088
8.320 8.072 4.214
7.970 7.470 4.610
7.747 6.994 4.847
7.749 6.746 4.918
7.410 6.399 5.082
7.226 5.782 5.412
7.186 5.279 5.576
7.119 5.007 5.841
6.748 4.504 6.168
6.722 4.204 6.233
6.371 3.595 6.516
6.264 3.095 6.837
6.167 2.835 7.006
6.039 2.486 7.168
5.836 2.028 7.494
9.953 11.894 2.310
9.738 11.593 2.444
9.493 11.084 2.598
9.297 10.590 2.830
9.198 10.208 3.027
8.899 9.763 3.213
8.834 9.429 3.519
9.089 9.241 3.807
8.966 8.841 3.945
8.934 8.275 4.191
8.608 8.009 4.614
8.605 7.638 4.706
8.225 7.085 5.105
8.266 6.576 5.127
7.853 6.352 5.612
7.883 5.881 5.622
7.630 5.429 6.045
7.528 5.065 6.213
7.330 4.383 6.278
7.097 4.018 6.755
6.780 3.644 6.958
6.769 3.287 7.102
6.494 2.781 7.245
6.311 2.276 7.701
6.127 1.957 7.812
10.161 11.857 2.523
10.060 11.485 2.820
9.836 10.877 2.912
9.878 10.469 3.245
9.536 10.011 3.450
9.537 9.677 3.523
9.100 9.127 3.724
9.807 9.272 4.055
9.554 8.661 4.494
9.203 8.454 4.456
9.058 8.025 4.793
9.018 7.436 5.151
8.663 7.000 5.249
8.620 6.516 5.433
8.313 6.143 5.787
8.161 5.884 5.849
8.077 5.428 6.265
7.941 4.871 6.567
7.802 4.442 6.768
7.449 3.987 6.890
7.313 3.714 7.195
7.279 3.254 7.338
7.052 2.705 7.523
6.872 2.171 7.893
6.522 1.878 8.015
10.634 11.702 2.603
10.545 11.425 2.877
10.491 10.979 3.108
10.144 10.607 3.572
10.135 10.086 3.642
9.943 9.664 3.878
9.526 9.210 4.082
10.082 9.142 4.438
9.797 8.636 4.603
9.676 8.256 4.767
9.561 8.008 5.067
9.401 7.396 5.384
9.339 6.997 5.491
9.001 6.471 5.929
8.902 6.270 5.929
8.736 5.789 6.372
8.588 5.408 6.534
8.475 4.974 6.586
8.223 4.491 7.057
7.981 3.972 7.164
7.903 3.449 7.349
7.620 3.216 7.731
7.386 2.784 7.914
7.203 2.202 8.099
7.141 1.798 8.251
11.150 11.772 3.033
10.986 11.293 3.376
10.830 10.951 3.481
10.687 10.606 3.566
10.425 10.183 3.987
10.174 9.623 4.086
10.038 9.330 4.429
10.679 9.130 4.592
10.385 8.736 5.038
10.094 8.190 5.222
9.992 7.952 5.389
9.836 7.524 5.567
9.722 6.896 5.771
9.379 6.478 6.161
9.400 6.133 6.342
9.056 5.697 6.567
9.017 5.229 6.768
8.874 4.850 6.921
8.613 4.355 7.319
8.416 3.861 7.376
8.335 3.612 7.646
8.119 3.148 7.940
7.863 2.634 8.254
7.604 2.143 8.517
7.652 1.913 8.594
11.726 11.765 3.183
11.441 11.447 3.524
11.325 10.754 3.604
11.071 10.540 3.915
11.050 10.019 4.210
10.745 9.475 4.308
10.472 9.194 4.664
10.775 8.285 5.437
10.361 7.873 5.551
10.188 7.265 5.960
10.074 6.903 6.071
10.053 6.630 6.309
9.786 5.962 6.688
9.493 5.745 6.813
9.477 5.112 7.009
9.117 4.894 7.162
8.611 3.172 8.093
8.438 2.731 8.496
8.187 2.087 8.741
8.052 1.742 9.000
11.955 11.833 3.574
11.754 11.376 3.700
11.715 10.955 3.981
11.479 10.499 4.255
11.235 9.971 4.393
10.989 7.740 6.049
10.674 7.209 6.097
10.427 6.938 6.286
10.415 6.354 6.515
10.271 6.098 6.870
10.085 5.691 6.982
9.784 5.077 7.447
8.829 2.625 8.851
8.717 2.197 9.049
8.434 1.758 9.254
12.517 11.741 3.686
12.376 11.278 3.948
12.024 10.890 4.185
12.059 10.513 4.431
11.049 7.356 6.332
10.905 6.990 6.763
10.696 6.550 6.950
10.566 5.888 7.114
10.396 5.639 7.448
9.082 2.047 9.316
8.791 1.632 9.447
0.900 8.042 0.036
0.836 7.784 0.310
0.652 7.360 0.516
0.489 6.816 0.977
0.227 6.491 1.192
0.645 8.515 0.626
0.427 8.111 0.707
0.325 7.506 0.859
0.253 6.992 1.338
-0.015 6.598 1.407
1.291 8.287 0.688
1.127 8.036 0.939
0.699 7.478 1.337
0.677 7.238 1.621
0.487 6.632 1.771
1.710 8.929 0.808
1.612 8.242 0.980
1.494 7.964 1.264
1.360 7.409 1.641
0.971 7.102 1.743
0.769 6.592 2.084
0.774 6.243 2.172
2.405 9.069 0.847
2.213 8.732 1.153
2.173 8.416 1.389
2.013 7.869 1.447
1.757 7.556 1.727
1.429 6.885 2.092
1.315 6.661 2.307
1.104 6.238 2.427
0.972 5.687 2.653
0.165 3.881 3.533
0.048 3.682 3.852
3.218 10.002 0.548
3.111 9.596 0.973
2.866 9.044 1.134
2.672 8.710 1.464
2.493 8.177 1.583
2.427 7.886 1.828
2.120 7.522 2.119
1.990 7.088 2.271
1.865 6.547 2.685
1.640 5.999 2.783
1.507 5.780 3.125
1.400 5.276 3.388
0.965 4.800 3.477
1.046 4.359 3.758
0.717 3.824 3.834
0.514 3.522 4.123
0.283 3.206 4.517
0.077 2.600 4.703
3.535 10.793 0.170
3.488 10.568 0.566
3.294 10.087 0.751
3.596 9.989 1.036
3.539 9.700 1.211
3.208 9.167 1.365
3.059 8.618 1.557
3.003 8.176 1.948
2.851 7.858 2.049
2.585 7.526 2.334
2.419 6.891 2.497
2.163 6.507 2.963
2.047 6.181 3.067
2.031 5.540 3.246
1.704 5.092 3.501
1.412 4.754 3.610
1.465 4.225 4.065
1.051 3.837 4.144
1.024 3.435 4.535
0.961 3.041 4.709
0.629 2.487 4.819
4.460 11.852 -0.026
4.128 11.293 0.206
4.135 10.898 0.478
3.715 10.376 0.816
3.601 9.902 0.881
4.025 10.075 1.270
4.009 9.604 1.431
3.806 9.062 1.638
3.633 8.575 2.062
3.403 8.241 2.183
3.269 7.917 2.539
2.931 7.288 2.501
2.941 6.870 2.748
2.795 6.579 3.003
2.530 6.006 3.190
2.220 5.597 3.521
2.076 5.289 3.652
2.056 4.776 4.031
1.662 4.286 4.387
1.647 3.951 4.552
1.305 3.440 4.795
1.202 2.920 4.861
1.184 2.598 5.247
5.111 12.195 0.116
4.948 11.828 0.205
4.778 11.249 0.463
4.429 10.871 0.799
4.370 10.348 0.893
3.990 9.815 1.364
4.627 10.037 1.644
4.324 9.613 1.870
4.285 8.960 2.087
3.975 8.617 2.323
3.918 8.158 2.472
3.622 7.607 2.535
3.364 7.329 2.895
3.207 6.750 3.113
3.131 6.538 3.442
3.090 6.012 3.708
2.841 5.443 3.964
2.673 5.132 4.078
2.419 4.818 4.245
2.260 4.280 4.455
2.040 3.853 4.630
1.964 3.537 5.069
1.676 2.888 5.167
1.437 2.476 5.323
5.668 12.397 0.055
5.366 12.188 0.401
5.170 11.582 0.472
5.014 11.181 0.940
5.019 10.650 1.002
4.822 10.397 1.232
4.460 9.869 1.570
5.010 9.973 1.748
4.758 9.589 1.948
4.507 9.122 2.226
4.470 8.488 2.463
4.218 8.285 2.703
4.115 7.706 3.014
3.905 7.232 3.208
3.797 6.914 3.432
3.516 6.384 3.764
3.449 6.037 3.804
3.206 5.683 4.140
3.114 5.001 4.333
2.795 4.551 4.450
2.577 4.262 4.687
2.564 3.780 4.947
2.242 3.352 5.325
2.069 2.992 5.418
1.938 2.397 5.754
5.981 12.512 0.295
5.996 11.918 0.680
5.656 11.617 0.750
5.411 11.308 1.075
5.428 10.789 1.337
5.196 10.299 1.497
4.901 9.888 1.782
5.051 8.979 2.382
4.894 8.468 2.773
4.688 8.054 3.041
4.455 7.643 3.188
4.427 7.143 3.478
4.292 6.854 3.570
3.930 6.395 3.841
3.789 5.839 4.037
3.802 5.584 4.349
2.952 3.878 5.329
2.679 3.362 5.570
2.731 3.036 5.890
2.468 2.374 6.084
6.410 12.560 0.615
6.413 11.987 0.934
6.070 11.590 1.054
5.950 11.155 1.215
5.950 10.741 1.631
5.288 8.508 2.890
5.137 8.019 3.277
5.066 7.506 3.545
4.959 7.312 3.839
4.576 6.708 4.063
4.598 6.286 4.114
4.324 5.867 4.369
3.229 3.419 5.780
2.963 2.791 6.030
2.993 2.517 6.300
6.968 12.552 0.951
6.911 11.990 1.276
6.560 11.456 1.513
6.345 11.054 1.632
5.673 8.035 3.672
5.316 7.545 3.847
5.290 7.231 4.116
5.040 6.819 4.110
4.848 6.320 4.523
3.514 2.802 6.256
3.177 2.304 6.586
7.284 12.385 1.099
7.353 11.874 1.378
6.947 11.494 1.632
6.038 8.037 3.888
5.934 7.689 3.939
5.860 6.988 4.210
5.542 6.633 4.564
5.409 6.212 4.638
3.948 2.714 6.728
3.874 2.299 6.740
7.791 12.259 1.559
7.678 12.019 1.854
7.498 11.335 1.937
6.650 7.932 4.147
6.305 7.484 4.355
6.107 6.951 4.434
6.055 6.614 4.792
5.822 6.102 4.994
4.293 2.638 6.846
4.211 2.185 7.048
8.303 12.194 1.846
8.236 11.973 1.956
8.001 11.422 2.243
7.244 8.409 4.198
6.854 7.978 4.319
6.900 7.534 4.518
6.577 7.055 4.826
6.308 6.502 5.169
6.343 6.220 5.270
6.126 5.846 5.439
4.866 3.033 7.036
4.688 2.682 7.073
4.699 2.183 7.482
8.680 12.167 2.015
8.521 11.848 2.289
8.522 11.482 2.614
8.340 10.858 2.712
7.704 8.657 4.167
7.663 8.397 4.390
7.388 8.015 4.491
7.283 7.513 4.881
7.007 6.950 5.151
6.827 6.468 5.353
6.676 6.290 5.551
6.517 5.824 5.888
6.397 5.367 6.068
5.686 3.596 6.953
5.512 3.246 7.237
5.147 2.807 7.471
5.095 2.373 7.556
9.243 12.208 2.318
9.087 11.739 2.656
8.939 11.372 2.787
8.731 11.005 3.118
8.572 10.507 3.233
8.568 9.461 3.940
8.295 9.067 4.170
8.307 8.842 4.428
7.927 8.194 4.684
7.962 7.789 4.765
7.714 7.336 5.219
7.640 6.847 5.275
7.456 6.636 5.473
7.209 5.992 5.875
7.071 5.712 6.159
6.837 5.174 6.228
6.640 4.834 6.390
6.375 4.435 6.833
6.325 4.046 6.892
6.207 3.458 7.217
5.790 3.073 7.352
5.851 2.720 7.565
5.652 2.193 7.887
9.739 12.204 2.504
9.492 11.748 2.807
9.395 11.350 3.065
9.239 10.961 3.361
8.803 10.589 3.624
8.832 10.062 3.692
8.452 9.596 4.082
9.117 9.554 4.171
8.936 9.093 4.335
8.619 8.800 4.759
8.496 8.357 4.935
8.178 7.940 5.221
8.108 7.385 5.467
7.902 7.076 5.573
7.776 6.654 5.817
7.479 6.028 6.187
7.370 5.718 6.403
7.111 5.345 6.672
7.169 4.741 6.653
6.795 4.295 6.942
6.690 3.997 7.380
6.486 3.511 7.548
6.302 3.121 7.762
6.189 2.506 7.992
6.036 2.312 8.168
10.039 12.204 2.932
9.872 11.597 3.097
9.733 11.204 3.268
9.629 10.736 3.652
9.511 10.399 3.864
9.314 10.074 4.132
8.945 9.515 4.185
9.595 9.516 4.566
9.392 9.062 4.701
8.966 8.767 5.041
8.882 8.259 5.335
8.667 7.737 5.476
8.591 7.480 5.550
8.325 7.050 5.847
8.307 6.470 6.122
8.038 6.077 6.326
7.732 5.629 6.497
7.802 5.109 6.922
7.481 4.773 7.085
7.430 4.448 7.295
7.249 3.957 7.411
6.840 3.509 7.832
6.708 3.099 8.052
6.572 2.507 8.300
6.316 2.278 8.388
10.627 12.054 3.146
10.397 11.645 3.442
10.177 11.120 3.626
10.080 10.765 3.882
9.718 10.524 3.964
9.776 9.959 4.161
9.436 9.408 4.368
9.868 9.579 4.791
9.642 9.159 5.041
9.594 8.749 5.237
9.283 8.124 5.623
9.086 7.833 5.701
9.141 7.420 5.978
8.826 6.827 6.104
8.669 6.348 6.282
8.428 6.069 6.557
8.176 5.591 6.897
8.000 5.159 7.074
7.879 4.620 7.279
7.670 4.254 7.496
7.699 3.923 7.666
7.553 3.320 8.159
7.253 2.985 8.214
7.149 2.561 8.379
6.979 2.124 8.840
10.982 12.110 3.354
10.746 11.756 3.592
10.600 11.168 3.883
10.522 10.897 4.219
10.370 10.212 4.388
9.960 10.026 4.695
9.814 9.443 4.708
10.362 9.514 4.952
10.224 9.003 5.430
10.059 8.507 5.606
9.845 8.005 5.752
9.742 7.773 6.028
9.539 7.387 6.212
9.379 6.957 6.577
9.103 6.473 6.790
8.977 5.850 6.898
8.648 5.577 7.106
8.480 5.053 7.339
8.501 4.580 7.625
8.191 4.268 7.867
8.104 3.892 7.981
7.790 3.318 8.247
7.820 3.008 8.494
7.581 2.602 8.730
7.382 2.123 8.926
11.372 12.071 3.633
11.283 11.623 4.019
11.160 11.164 4.170
10.774 10.666 4.478
10.830 10.197 4.565
10.508 9.870 4.825
10.224 9.453 5.187
10.543 8.633 5.789
10.368 8.038 6.124
9.948 7.693 6.266
9.828 7.251 6.512
9.664 6.869 6.839
9.549 6.432 6.965
9.488 5.887 7.196
9.136 5.366 7.345
8.995 4.993 7.644
8.307 3.351 8.632
8.247 3.000 8.899
7.982 2.387 9.043
7.829 1.969 9.396
11.763 12.151 3.907
11.664 11.499 4.089
11.487 11.129 4.310
11.306 10.796 4.628
11.136 10.246 4.972
10.795 7.932 6.313
10.658 7.537 6.640
10.486 7.198 6.793
10.113 6.721 7.054
10.009 6.283 7.283
9.953 5.791 7.603
9.738 5.571 7.665
8.696 2.751 9.144
8.383 2.568 9.208
8.329 2.083 9.516
12.308 11.958 4.320
12.247 11.459 4.571
11.860 11.104 4.581
11.709 10.642 4.937
11.028 7.568 6.949
10.790 7.116 7.141
10.698 6.830 7.236
10.309 6.347 7.605
10.367 5.804 7.661
8.736 2.396 9.633
8.706 2.035 9.685
12.522 11.177 4.866
0.590 8.511 0.659
0.566 8.122 0.829
0.266 7.680 1.043
0.194 7.225 1.343
0.020 6.637 1.509
0.522 8.833 0.970
0.393 8.275 1.076
0.188 7.801 1.301
1.060 8.747 1.218
0.782 8.274 1.496
0.580 7.698 1.508
0.352 7.403 1.873
0.270 6.944 2.199
1.668 9.158 1.169
1.471 8.623 1.455
1.110 8.226 1.697
1.001 7.839 1.834
0.991 7.475 2.224
0.763 6.834 2.420
0.469 6.370 2.650
2.254 9.378 1.146
2.105 9.168 1.371
1.802 8.678 1.799
1.801 8.207 1.893
1.443 7.646 2.096
1.404 7.268 2.318
1.052 6.803 2.714
0.931 6.495 3.016
0.930 6.059 3.026
-0.025 4.328 4.186
3.208 11.528 0.097
2.880 11.315 0.351
2.996 10.273 1.015
2.958 9.764 1.176
2.656 9.437 1.639
2.425 9.096 1.707
2.206 8.674 2.067
2.171 8.284 2.243
1.878 7.592 2.565
1.904 7.287 2.668
1.630 6.845 2.846
1.418 6.398 3.302
1.196 5.908 3.411
1.055 5.466 3.722
0.798 5.057 3.955
0.824 4.714 4.159
0.414 4.102 4.200
0.372 3.915 4.500
0.120 3.414 4.924
3.599 11.916 0.010
3.496 11.547 0.419
3.275 11.263 0.733
3.198 10.836 0.920
2.950 10.422 0.967
3.491 10.139 1.389
3.206 9.868 1.472
2.990 9.395 1.927
3.034 9.092 2.148
2.878 8.685 2.302
2.669 8.193 2.444
2.392 7.573 2.846
2.086 7.368 3.006
1.997 6.834 3.173
1.742 6.260 3.311
1.663 5.804 3.746
1.361 5.571 3.762
1.280 5.031 4.105
1.238 4.760 4.298
1.035 4.242 4.576
0.683 3.645 4.893
0.552 3.422 5.132
0.500 2.799 5.303
4.249 12.494 0.054
4.284 11.929 0.500
3.955 11.562 0.697
3.743 11.261 0.956
3.656 10.824 1.132
3.375 10.152 1.230
3.782 10.340 1.608
3.632 9.749 1.952
3.657 9.354 1.993
3.496 8.948 2.230
3.331 8.430 2.558
2.892 8.120 2.920
2.940 7.741 3.155
2.742 7.097 3.199
2.545 6.645 3.393
2.404 6.358 3.598
2.133 5.770 3.938
2.015 5.546 4.155
1.771 5.038 4.403
1.674 4.546 4.737
1.279 4.050 4.783
1.284 3.625 4.967
0.962 3.244 5.336
0.791 2.979 5.520
4.659 12.324 0.574
4.541 11.968 0.623
4.342 11.515 0.951
4.368 11.096 1.050
3.941 10.706 1.513
3.999 10.200 1.707
4.366 10.288 1.979
4.302 9.631 2.222
4.033 9.312 2.353
3.757 9.041 2.621
3.589 8.385 2.849
3.327 7.957 3.165
3.270 7.573 3.390
3.154 7.135 3.523
2.846 6.657 3.610
2.675 6.328 4.116
2.694 5.843 4.113
2.336 5.483 4.456
2.108 4.886 4.628
2.042 4.582 4.911
1.930 4.219 5.037
1.698 3.567 5.296
1.635 3.143 5.527
1.227 2.726 5.890
5.126 12.511 0.773
5.092 11.849 0.817
4.782 11.579 1.207
4.684 11.161 1.284
4.606 10.587 1.789
4.471 10.332 1.752
4.687 10.114 2.120
4.519 9.697 2.429
4.485 9.244 2.637
4.277 8.882 2.932
4.207 8.512 3.139
3.986 8.006 3.417
3.703 7.661 3.635
3.552 7.106 3.859
3.283 6.797 4.131
3.257 6.405 4.223
3.087 5.841 4.392
2.711 5.368 4.612
2.682 4.923 4.954
2.604 4.533 5.197
2.373 4.032 5.412
2.245 3.542 5.722
2.030 3.239 6.022
1.667 2.739 6.120
5.818 12.220 0.938
5.535 11.892 1.262
5.257 11.402 1.362
5.284 10.966 1.763
5.114 10.720 1.869
4.735 10.078 2.156
4.953 9.244 2.876
4.575 8.812 3.031
4.639 8.369 3.314
4.258 7.840 3.510
4.074 7.621 3.727
4.038 7.120 4.029
3.731 6.660 4.321
3.683 6.090 4.579
3.430 5.760 4.884
2.673 3.980 5.593
2.494 3.523 5.780
2.529 3.129 6.126
2.176 2.633 6.373
6.177 12.249 1.410
5.893 11.859 1.506
5.809 11.536 1.765
5.731 10.988 1.846
5.191 8.939 3.313
4.983 8.295 3.728
4.665 7.960 3.967
4.721 7.445 3.988
4.384 7.039 4.225
4.326 6.583 4.511
4.014 6.121 4.869
3.114 3.692 6.158
2.911 3.104 6.331
2.685 2.631 6.518
6.649 12.297 1.421
6.315 11.924 1.863
6.288 11.517 2.150
5.420 8.260 3.879
5.184 7.901 4.049
5.091 7.447 4.269
4.960 6.966 4.605
4.849 6.512 4.908
3.389 3.024 6.644
3.210 2.609 6.802
7.156 12.265 1.908
6.796 11.744 1.956
5.906 8.353 4.251
5.561 7.783 4.300
5.402 7.391 4.518
5.244 6.851 4.751
5.188 6.547 5.152
3.649 3.052 6.835
3.639 2.555 7.154
7.565 12.083 1.964
7.371 11.674 2.314
6.321 8.343 4.460
6.274 7.788 4.749
5.826 7.258 5.025
5.889 7.028 5.194
5.693 6.459 5.456
4.057 3.142 7.278
3.978 2.500 7.594
7.770 12.112 2.399
7.647 11.691 2.664
6.798 8.712 4.583
6.693 8.274 4.808
6.573 7.661 4.868
6.467 7.462 5.170
6.360 6.908 5.473
5.950 6.407 5.560
5.870 6.184 5.771
4.726 3.509 7.370
4.743 2.952 7.392
4.324 2.614 7.665
8.610 12.480 2.303
8.261 12.110 2.524
8.086 11.799 2.773
7.917 11.226 2.971
7.544 9.053 4.631
7.239 8.518 4.789
7.101 8.307 5.141
6.906 7.772 5.111
6.906 7.231 5.433
6.545 6.903 5.633
6.405 6.516 6.033
6.427 5.926 6.279
6.255 5.449 6.296
5.529 3.957 7.402
5.147 3.485 7.665
4.986 2.955 7.704
4.801 2.638 8.036
9.077 12.572 2.590
8.825 12.057 2.926
8.609 11.635 3.085
8.384 11.094 3.440
8.412 10.738 3.535
8.478 9.904 4.312
8.300 9.525 4.632
7.956 9.103 4.884
7.926 8.439 5.082
7.771 8.107 5.280
7.458 7.849 5.522
7.249 7.418 5.693
6.998 6.854 5.967
6.807 6.342 6.242
6.758 5.924 6.543
6.564 5.525 6.554
6.348 4.962 6.884
6.298 4.778 7.059
5.974 4.276 7.250
5.921 3.871 7.728
5.753 3.315 7.853
5.505 2.888 8.043
5.475 2.379 8.335
9.510 12.503 2.929
9.208 12.155 3.074
9.058 11.732 3.389
8.897 11.091 3.617
8.571 10.829 3.943
8.610 10.447 4.236
8.366 9.791 4.214
8.909 9.812 4.622
8.751 9.549 4.955
8.565 9.008 5.193
8.157 8.569 5.231
8.185 8.204 5.656
7.861 7.640 5.650
7.746 7.250 5.989
7.433 6.778 6.206
7.295 6.303 6.612
7.315 6.041 6.707
6.971 5.465 7.043
6.736 4.931 7.238
6.634 4.702 7.303
6.373 4.194 7.700
6.359 3.641 7.774
6.004 3.333 8.173
6.026 2.841 8.312
5.642 2.356 8.549
9.894 12.313 3.286
9.791 11.911 3.517
9.411 11.621 3.671
9.281 11.226 3.914
9.208 10.750 4.080
8.946 10.308 4.438
8.884 9.785 4.707
9.126 9.685 4.872
9.148 9.264 5.000
8.758 8.803 5.227
8.843 8.441 5.642
8.659 8.150 5.805
8.236 7.501 5.976
8.297 7.285 6.390
7.945 6.792 6.607
7.887 6.269 6.670
7.779 5.981 6.873
7.445 5.391 7.268
7.202 5.041 7.378
7.085 4.576 7.669
6.852 4.106 7.960
6.702 3.647 8.174
6.579 3.400 8.517
6.313 2.891 8.642
6.314 2.380 8.781
10.259 12.364 3.564
10.166 11.893 3.871
9.970 11.405 3.821
9.877 11.026 4.296
9.498 10.718 4.450
9.518 10.152 4.648
9.196 9.745 4.812
9.559 9.629 5.165
9.398 9.295 5.303
9.228 9.019 5.686
9.168 8.363 5.839
9.059 8.109 6.162
8.755 7.562 6.256
8.517 7.071 6.572
8.324 6.775 6.874
8.293 6.321 7.082
8.082 5.978 7.190
7.780 5.340 7.433
7.832 4.900 7.646
7.550 4.574 8.077
7.307 4.081 8.176
7.334 3.803 8.384
7.100 3.367 8.627
6.817 2.870 8.894
6.736 2.432 9.060
10.817 12.444 3.846
10.651 11.971 3.903
10.429 11.405 4.117
10.358 10.999 4.400
10.174 10.586 4.840
9.785 10.194 5.034
9.807 9.901 5.157
10.076 9.870 5.510
10.065 9.425 5.586
9.809 8.994 5.772
9.579 8.440 6.216
9.563 7.965 6.297
9.143 7.449 6.539
9.054 7.075 6.806
9.006 6.752 7.009
8.756 6.309 7.398
8.532 5.750 7.391
8.316 5.299 7.871
8.073 5.034 8.059
8.061 4.537 8.163
7.885 4.215 8.358
7.577 3.729 8.573
7.412 3.141 8.861
7.423 2.822 9.132
7.106 2.276 9.381
11.257 12.461 3.913
11.028 11.960 4.400
10.748 11.379 4.403
10.586 11.039 4.602
10.431 10.606 5.074
10.394 10.080 5.099
10.140 9.598 5.561
10.243 8.867 6.233
10.142 8.406 6.427
9.872 7.915 6.561
9.742 7.650 6.968
9.392 7.077 7.191
9.389 6.652 7.253
9.257 6.263 7.584
8.925 5.708 7.926
8.715 5.256 7.950
8.057 3.638 8.859
7.832 3.212 9.083
7.681 2.842 9.358
7.452 2.337 9.545
11.654 12.360 4.277
11.533 11.759 4.683
11.186 11.447 4.702
11.210 11.070 4.952
10.817 10.707 5.176
10.509 8.390 6.644
10.298 7.932 6.776
10.280 7.600 7.246
9.922 7.184 7.303
9.799 6.583 7.536
9.613 6.101 7.841
9.310 5.702 8.027
8.318 3.286 9.499
8.315 2.838 9.654
8.068 2.320 10.003
12.060 12.249 4.701
11.931 11.821 4.727
11.820 11.343 4.949
11.474 10.886 5.323
10.881 7.903 7.094
10.563 7.498 7.423
10.515 7.005 7.703
10.324 6.535 7.958
9.949 6.110 8.107
8.628 2.610 9.845
8.499 2.306 10.148
12.491 12.246 4.922
12.277 11.797 5.135
12.068 11.233 5.415
0.547 8.695 0.972
0.444 8.150 1.231
0.068 7.969 1.389
0.055 8.697 1.528
0.634 8.649 1.750
0.458 8.080 1.920
0.318 7.705 2.239
1.231 8.891 1.894
