7.323 1.795 7.044
7.928 2.013 7.086
8.478 2.224 7.119
9.064 2.307 7.273
9.611 2.460 7.320
1.640 0.183 6.708
2.190 0.357 6.748
2.792 0.419 6.804
3.347 0.619 6.764
3.921 0.797 6.830
6.799 1.691 6.403
7.474 1.828 6.446
7.958 1.933 6.485
8.547 2.177 6.570
9.102 2.266 6.575
1.632 0.098 6.101
2.291 0.266 6.157
2.784 0.416 6.112
3.447 0.621 6.168
7.469 1.819 5.903
8.012 1.997 5.957
8.550 2.103 5.927
9.208 2.308 6.034
1.698 0.086 5.481
2.245 0.340 5.482
2.833 0.523 5.501
7.500 1.802 5.301
8.129 1.999 5.352
8.665 2.127 5.376
9.251 2.315 5.380
1.773 0.162 4.820
2.389 0.235 4.983
2.913 0.399 4.935
7.035 1.598 4.702
7.497 1.835 4.687
8.198 1.971 4.799
8.689 2.160 4.745
9.328 2.331 4.902
1.798 0.083 4.329
2.365 0.330 4.328
3.015 0.489 4.401
3.532 0.628 4.349
6.486 1.454 3.977
6.978 1.617 4.056
7.584 1.767 4.082
8.130 1.919 4.206
8.718 2.156 4.249
9.298 2.238 4.282
9.931 2.480 4.327
1.917 0.074 3.664
2.460 0.233 3.666
2.989 0.388 3.728
3.548 0.644 3.857
4.161 0.749 3.900
5.361 1.083 3.350
5.891 1.297 3.413
6.541 1.444 3.495
7.131 1.630 3.472
7.617 1.742 3.578
8.257 1.925 3.512
8.825 2.075 3.585
9.422 2.303 3.671
9.948 2.438 3.627
10.539 2.545 3.765
11.144 2.810 3.717
11.726 2.921 3.818
1.989 0.036 3.061
2.540 0.226 3.112
3.135 0.376 3.113
3.660 0.565 3.201
4.192 0.710 3.324
4.859 0.892 3.332
5.373 1.112 3.302
5.367 1.110 2.738
5.970 1.201 2.853
6.531 1.430 2.813
7.186 1.616 2.829
7.672 1.766 2.862
8.244 1.887 2.918
8.903 2.140 3.019
9.462 2.206 3.040
9.981 2.388 3.045
10.516 2.528 3.202
11.078 2.782 3.155
11.756 2.942 3.195
1.984 0.119 2.465
2.583 0.179 2.585
3.126 0.390 2.613
3.716 0.621 2.585
4.265 0.795 2.616
4.814 0.869 2.721
5.389 1.058 2.752
5.492 1.068 2.119
6.054 1.205 2.212
6.659 1.407 2.192
7.217 1.606 2.349
7.809 1.679 2.374
8.283 1.854 2.362
8.898 2.113 2.426
9.409 2.280 2.406
10.032 2.339 2.500
10.647 2.629 2.498
11.152 2.688 2.610
11.783 2.936 2.669
1.997 -0.015 1.917
2.656 0.272 1.963
3.155 0.351 1.983
3.793 0.527 2.055
4.289 0.659 2.129
4.841 0.933 2.122
5.422 1.039 2.158
5.476 1.015 1.622
6.129 1.273 1.620
6.697 1.332 1.603
7.253 1.570 1.717
7.776 1.689 1.721
8.419 1.850 1.740
8.962 1.997 1.759
9.503 2.277 1.803
10.075 2.382 1.853
10.706 2.564 1.951
11.277 2.687 2.041
11.822 2.909 2.092
2.140 0.021 1.234
2.588 0.221 1.362
3.247 0.354 1.345
3.803 0.533 1.436
4.412 0.710 1.485
4.889 0.905 1.529
5.457 1.029 1.593
6.156 1.185 0.998
6.757 1.310 1.066
7.276 1.543 1.093
7.794 1.659 1.144
8.446 1.889 1.158
9.004 2.022 1.177
9.586 2.184 1.241
10.120 2.339 1.243
10.765 2.574 1.363
2.123 0.020 0.664
2.658 0.208 0.736
3.292 0.394 0.794
3.887 0.466 0.843
4.466 0.701 0.843
4.987 0.901 0.910
6.355 1.723 12.391
6.887 1.980 12.417
7.485 2.166 12.564
8.130 2.333 12.573
0.688 0.135 11.957
1.183 0.237 12.016
1.727 0.422 12.092
2.393 0.615 12.144
2.962 0.798 12.196
6.934 1.903 11.863
7.606 2.038 11.951
8.079 2.199 11.992
8.691 2.428 12.029
0.621 0.084 11.417
1.247 0.278 11.405
1.881 0.384 11.516
2.390 0.519 11.529
12.046 2.075 9.896
12.159 2.081 9.294
12.127 2.002 8.726
12.206 2.050 8.083
12.343 2.794 11.118
11.837 2.619 10.514
12.432 2.833 10.539
11.923 2.599 9.888
12.551 2.825 9.836
11.937 2.661 9.228
12.540 2.833 9.302
11.955 2.556 8.656
12.005 2.640 8.044
12.370 2.568 3.858
12.458 2.549 3.342
12.468 2.457 2.747
12.608 2.437 2.109
12.282 3.380 11.079
11.751 3.184 10.487
12.259 3.418 10.526
11.741 3.182 9.844
12.272 3.436 9.907
11.863 3.204 9.235
12.393 3.384 9.250
11.820 3.155 8.651
12.413 3.336 8.635
11.888 3.136 8.062
12.495 3.312 8.071
12.461 3.315 7.445
12.176 3.136 3.815
12.270 3.035 3.268
12.290 3.083 2.662
12.341 3.085 2.095
12.478 3.057 1.454
6.383 4.709 9.417
6.975 4.943 9.393
7.493 5.080 9.455
0.557 3.114 8.948
1.126 3.236 9.027
1.735 3.450 8.977
6.419 4.784 8.740
6.937 4.876 8.742
7.470 5.090 8.871
8.147 5.190 8.893
0.081 2.855 8.266
0.708 3.063 8.338
1.243 3.229 8.416
1.825 3.342 8.374
6.470 4.774 8.104
6.988 4.849 8.261
7.571 5.084 8.223
8.146 5.272 8.262
0.130 2.833 7.733
0.730 2.981 7.724
1.222 3.264 7.831
1.901 3.362 7.833
7.027 4.843 7.559
7.601 5.021 7.645
0.746 3.052 7.156
1.324 3.178 7.188
7.339 4.785 3.472
8.001 4.916 3.497
1.094 2.963 2.958
1.676 3.121 2.942
6.860 4.598 2.736
7.384 4.784 2.868
8.040 4.946 2.932
8.567 5.097 2.865
0.598 2.727 2.313
1.202 2.884 2.412
1.714 3.148 2.400
2.307 3.214 2.408
6.883 4.643 2.191
7.557 4.721 2.191
8.110 4.991 2.345
8.588 5.043 2.277
0.636 2.725 1.698
1.222 2.857 1.745
1.795 3.063 1.793
2.306 3.293 1.881
6.935 4.558 1.626
7.590 4.753 1.642
8.165 4.962 1.647
1.272 2.852 1.129
1.840 3.032 1.250
2.396 3.288 1.267
6.680 5.447 9.977
1.019 3.881 9.533
6.145 5.326 9.297
6.734 5.454 9.415
7.377 5.645 9.370
7.947 5.776 9.509
0.420 3.616 8.929
0.967 3.824 8.959
1.623 3.954 8.938
5.621 5.076 8.727
6.220 5.345 8.707
6.782 5.491 8.713
7.325 5.645 8.813
7.959 5.872 8.860
0.482 3.601 8.302
1.089 3.833 8.281
1.685 4.006 8.333
2.252 4.193 8.415
6.235 5.269 8.148
6.884 5.487 8.184
7.362 5.628 8.201
7.957 5.807 8.241
0.490 3.602 7.656
1.140 3.728 7.701
1.717 3.973 7.844
6.262 5.226 7.537
6.870 5.503 7.549
7.428 5.633 7.623
0.543 3.621 7.133
1.158 3.807 7.136
1.782 3.880 7.149
6.655 5.245 3.366
7.270 5.400 3.440
7.788 5.531 3.411
0.871 3.503 2.965
1.549 3.743 3.008
2.125 3.896 2.993
6.667 5.197 2.806
7.296 5.297 2.853
7.852 5.462 2.797
8.373 5.660 2.920
0.459 3.371 2.284
1.003 3.457 2.293
1.602 3.673 2.423
2.075 3.818 2.466
6.203 4.966 2.163
6.818 5.170 2.163
7.316 5.362 2.248
7.881 5.447 2.290
8.431 5.613 2.280
0.487 3.357 1.731
1.026 3.437 1.800
1.610 3.727 1.764
2.126 3.861 1.886
2.790 3.993 1.894
6.847 5.178 1.635
7.357 5.292 1.606
7.998 5.516 1.715
8.509 5.631 1.644
0.526 3.300 1.071
1.088 3.494 1.082
1.596 3.609 1.243
2.246 3.827 1.204
7.415 5.315 0.967
1.745 3.681 0.646
5.948 5.849 9.836
6.586 6.036 9.967
7.121 6.228 10.050
7.630 6.360 10.060
0.242 4.188 9.532
0.853 4.333 9.459
1.367 4.570 9.603
5.422 5.680 9.256
6.049 5.898 9.328
6.552 6.095 9.330
7.204 6.184 9.419
7.775 6.370 9.419
0.223 4.262 8.910
0.808 4.374 8.864
1.393 4.520 8.929
1.934 4.678 9.044
5.521 5.683 8.655
6.045 5.895 8.750
6.607 6.065 8.818
7.257 6.251 8.820
7.816 6.363 8.826
8.392 6.537 8.909
0.330 4.193 8.292
0.934 4.316 8.344
1.434 4.526 8.386
2.089 4.671 8.366
5.575 5.761 8.076
6.044 5.920 8.064
6.721 6.094 8.209
7.308 6.243 8.252
7.760 6.436 8.287
8.441 6.508 8.296
0.347 4.202 7.712
1.002 4.395 7.662
1.520 4.464 7.773
2.056 4.726 7.747
5.522 5.753 7.524
6.159 5.870 7.572
6.677 6.047 7.526
7.242 6.163 7.586
7.907 6.367 7.671
0.463 4.214 7.088
1.033 4.397 7.155
1.590 4.509 7.187
2.208 4.634 7.150
6.775 6.041 6.982
7.285 6.240 6.960
0.493 4.124 6.456
1.080 4.353 6.571
7.037 5.898 3.932
7.612 6.062 4.007
0.662 4.144 3.444
1.298 4.268 3.609
5.856 5.664 3.347
6.544 5.738 3.367
7.054 5.937 3.353
7.624 6.044 3.401
8.208 6.305 3.458
0.190 3.919 2.858
0.767 4.063 2.961
1.355 4.264 2.962
1.951 4.483 3.025
2.454 4.593 3.061
5.925 5.625 2.687
6.511 5.748 2.694
7.111 5.904 2.741
7.751 6.129 2.815
8.271 6.328 2.895
8.879 6.435 2.871
0.212 3.957 2.327
0.786 4.024 2.277
1.373 4.238 2.408
1.981 4.378 2.399
2.509 4.579 2.386
6.056 5.562 2.157
6.652 5.689 2.099
7.195 5.897 2.224
7.717 6.056 2.187
8.306 6.289 2.246
8.938 6.378 2.264
0.248 3.837 1.654
0.832 4.096 1.735
1.420 4.254 1.722
1.953 4.441 1.743
2.556 4.548 1.813
6.002 5.572 1.560
6.683 5.762 1.538
7.164 5.881 1.584
7.812 6.079 1.649
8.347 6.247 1.637
0.386 3.883 1.038
0.877 4.118 1.145
1.450 4.274 1.119
2.075 4.329 1.228
2.666 4.581 1.202
6.676 5.715 0.993
7.315 5.953 1.040
7.858 6.047 1.092
8.365 6.209 1.129
0.349 3.853 0.440
0.964 4.009 0.553
1.541 4.270 0.624
2.103 4.384 0.553
6.279 6.735 11.138
0.487 5.004 10.695
5.709 6.555 10.536
6.373 6.622 10.462
6.843 6.861 10.557
7.431 6.969 10.608
0.033 4.852 9.975
0.538 4.974 10.071
1.142 5.086 10.075
5.281 6.363 9.834
5.736 6.473 9.868
6.393 6.632 9.916
6.963 6.765 9.973
7.455 7.007 9.992
8.044 7.172 10.062
0.010 4.780 9.482
0.588 4.939 9.523
1.166 5.173 9.503
1.818 5.277 9.548
4.743 6.086 9.224
5.291 6.346 9.221
5.877 6.452 9.273
6.447 6.661 9.329
7.025 6.859 9.338
7.517 6.945 9.403
8.111 7.116 9.409
0.136 4.791 8.789
0.698 4.901 8.938
1.245 5.106 8.896
1.891 5.250 8.946
2.414 5.446 8.973
4.218 5.985 8.545
4.714 6.157 8.605
5.297 6.254 8.676
5.952 6.509 8.670
6.422 6.562 8.684
7.096 6.797 8.733
7.545 6.938 8.790
8.150 7.109 8.811
8.767 7.338 8.836
0.135 4.817 8.207
0.746 4.995 8.284
1.289 5.162 8.319
1.943 5.229 8.393
2.505 5.448 8.460
2.965 5.674 8.403
4.788 6.094 8.013
5.307 6.230 8.035
5.947 6.496 8.104
6.567 6.621 8.090
7.042 6.728 8.127
7.624 7.011 8.201
8.174 7.074 8.225
8.795 7.258 8.260
0.272 4.761 7.689
0.723 4.932 7.699
1.329 5.047 7.797
1.915 5.304 7.808
2.452 5.432 7.867
4.887 6.059 7.469
5.475 6.199 7.506
5.961 6.405 7.549
6.516 6.655 7.573
7.103 6.716 7.600
7.646 6.990 7.678
8.253 7.097 7.657
0.217 4.764 7.052
0.814 4.896 7.119
1.379 5.068 7.092
1.957 5.219 7.142
2.497 5.428 7.233
5.520 6.281 6.887
6.009 6.409 6.843
6.671 6.640 6.907
7.194 6.740 6.976
7.737 6.918 7.023
0.368 4.768 6.436
0.857 4.868 6.518
1.472 5.066 6.589
2.061 5.292 6.632
6.616 6.557 6.312
7.177 6.764 6.406
0.319 4.748 5.927
0.874 4.925 5.933
6.759 6.590 4.518
7.331 6.653 4.638
0.508 4.674 4.120
1.108 4.832 4.063
5.683 6.126 3.915
6.317 6.390 3.866
6.794 6.584 3.988
7.421 6.723 3.989
7.969 6.816 4.107
0.496 4.692 3.451
1.108 4.837 3.476
1.734 5.023 3.557
2.228 5.234 3.629
5.217 6.014 3.255
5.720 6.186 3.299
6.268 6.374 3.260
6.922 6.546 3.354
7.426 6.670 3.375
8.045 6.860 3.447
8.637 7.070 3.431
-0.026 4.521 2.803
0.617 4.653 2.825
1.128 4.777 2.887
1.696 4.967 2.927
2.310 5.146 2.971
2.842 5.343 3.066
5.208 6.000 2.664
5.809 6.212 2.725
6.392 6.276 2.754
6.901 6.540 2.814
7.576 6.639 2.754
8.132 6.877 2.797
8.723 6.976 2.931
9.298 7.185 2.936
0.132 4.444 2.201
0.659 4.666 2.337
1.222 4.878 2.346
1.733 5.037 2.384
2.403 5.174 2.402
2.892 5.306 2.503
4.713 5.816 2.002
5.306 6.002 2.031
5.794 6.125 2.117
6.482 6.364 2.130
6.946 6.455 2.155
7.505 6.617 2.199
8.130 6.861 2.254
8.708 6.968 2.342
9.344 7.100 2.384
0.139 4.481 1.677
0.729 4.583 1.667
1.215 4.840 1.697
1.860 4.926 1.760
2.460 5.099 1.769
2.979 5.266 1.926
3.522 5.524 1.947
5.281 5.989 1.452
5.890 6.177 1.520
6.479 6.340 1.490
6.982 6.430 1.506
7.637 6.683 1.601
8.250 6.828 1.647
8.745 7.008 1.736
0.184 4.502 1.075
0.783 4.623 1.105
1.333 4.849 1.089
1.834 4.964 1.153
2.419 5.074 1.215
3.082 5.301 1.309
5.888 6.068 0.888
6.459 6.281 0.997
7.126 6.408 1.016
7.606 6.696 0.962
8.182 6.819 1.067
8.826 6.991 1.135
0.206 4.405 0.511
0.777 4.642 0.508
1.381 4.755 0.510
1.959 4.944 0.525
2.483 5.131 0.620
0.354 5.015 12.516
0.947 5.146 12.529
6.124 6.649 12.279
0.465 5.067 11.817
5.519 7.082 11.600
6.089 7.221 11.635
6.638 7.380 11.790
0.381 5.638 11.217
0.957 5.809 11.251
5.553 7.068 11.001
6.066 7.270 11.131
6.720 7.390 11.158
7.196 7.571 11.148
0.308 5.585 10.636
0.912 5.678 10.697
4.960 6.959 10.451
5.528 7.132 10.384
6.213 7.249 10.509
6.704 7.337 10.478
7.270 7.631 10.523
0.484 5.558 10.029
1.034 5.768 10.166
1.503 5.855 10.195
4.471 6.717 9.780
5.006 6.944 9.820
5.656 7.044 9.791
6.162 7.193 9.957
6.720 7.442 9.979
7.303 7.523 9.951
7.975 7.724 10.048
0.426 5.607 9.527
1.052 5.658 9.445
1.646 5.868 9.563
2.186 6.009 9.559
3.440 6.424 9.096
3.954 6.591 9.130
4.538 6.735 9.170
5.140 6.915 9.193
5.683 7.097 9.289
6.275 7.163 9.272
6.862 7.421 9.326
7.456 7.557 9.319
7.950 7.669 9.456
8.548 7.836 9.527
9.049 8.110 9.563
9.668 8.205 9.515
0.488 5.518 8.829
1.120 5.742 8.897
1.655 5.878 8.930
2.290 6.080 9.008
2.870 6.219 9.036
3.376 6.405 9.130
3.430 6.348 8.514
3.993 6.579 8.546
4.569 6.737 8.534
5.169 6.846 8.628
5.658 7.011 8.671
6.273 7.248 8.713
6.919 7.325 8.744
7.483 7.506 8.794
8.064 7.667 8.847
8.540 7.882 8.908
9.223 8.087 8.971
9.754 8.255 8.910
0.581 5.458 8.287
1.094 5.674 8.358
1.771 5.902 8.323
2.267 6.064 8.335
2.904 6.224 8.480
3.417 6.414 8.443
3.503 6.347 7.862
4.103 6.465 7.954
4.588 6.644 8.010
5.179 6.820 8.045
5.826 6.956 8.035
6.372 7.185 8.049
6.893 7.386 8.209
7.539 7.515 8.202
8.121 7.640 8.272
8.663 7.866 8.280
9.229 8.071 8.321
9.730 8.252 8.372
0.100 5.284 7.685
0.624 5.538 7.633
1.154 5.693 7.662
1.727 5.793 7.772
2.344 6.027 7.762
2.967 6.171 7.897
3.468 6.304 7.829
4.158 6.507 7.353
4.634 6.669 7.353
5.290 6.872 7.374
5.826 7.045 7.447
6.423 7.132 7.531
6.942 7.323 7.504
7.524 7.500 7.540
8.124 7.616 7.610
8.670 7.906 7.628
0.040 5.286 7.040
0.714 5.467 7.070
1.201 5.724 7.098
1.813 5.784 7.108
2.332 6.013 7.162
2.913 6.208 7.209
5.344 6.871 6.787
5.905 6.934 6.840
6.474 7.140 6.932
6.948 7.317 6.985
7.587 7.494 6.989
8.221 7.613 7.098
0.142 5.286 6.446
0.717 5.422 6.469
1.235 5.691 6.517
1.821 5.762 6.618
5.893 6.944 6.324
6.542 7.104 6.331
7.025 7.292 6.395
7.625 7.433 6.431
0.160 5.247 5.856
0.699 5.445 5.875
1.320 5.596 5.887
6.009 7.029 5.720
6.602 7.185 5.676
7.107 7.296 5.796
0.210 5.256 5.194
0.831 5.522 5.257
1.337 5.649 5.300
6.052 6.989 5.071
6.581 7.190 5.119
7.163 7.318 5.225
0.268 5.342 4.695
0.907 5.488 4.742
1.367 5.653 4.744
6.062 6.921 4.537
6.622 7.082 4.463
7.220 7.233 4.600
7.716 7.455 4.613
0.362 5.306 4.004
0.880 5.468 4.039
1.536 5.536 4.081
5.591 6.760 3.795
6.091 6.902 3.916
6.709 7.150 3.875
7.290 7.254 3.921
7.891 7.415 3.967
8.466 7.599 4.024
0.385 5.242 3.432
0.968 5.363 3.469
1.507 5.580 3.604
2.127 5.808 3.632
4.386 6.372 3.170
5.003 6.637 3.172
5.533 6.703 3.253
6.162 6.944 3.340
6.747 7.107 3.276
7.258 7.231 3.432
7.834 7.455 3.398
8.443 7.538 3.462
9.029 7.718 3.505
0.471 5.231 2.922
0.950 5.359 2.839
1.562 5.553 2.980
2.152 5.711 2.985
2.676 5.963 3.078
3.355 6.044 3.033
3.908 6.216 2.530
4.498 6.379 2.619
5.011 6.520 2.625
5.665 6.722 2.617
6.217 6.928 2.697
6.734 7.041 2.802
7.352 7.267 2.750
7.939 7.407 2.830
8.559 7.533 2.891
9.081 7.757 2.929
9.632 7.957 2.953
10.179 8.029 2.973
0.503 5.280 2.208
1.048 5.337 2.297
1.611 5.555 2.395
2.136 5.790 2.433
2.833 5.896 2.397
3.347 6.037 2.520
3.927 6.253 2.475
3.925 6.173 1.967
4.475 6.369 1.968
5.117 6.527 2.072
5.620 6.755 2.007
6.288 6.872 2.109
6.849 7.123 2.132
7.338 7.273 2.223
7.919 7.424 2.284
8.507 7.624 2.322
9.148 7.724 2.316
9.725 7.941 2.382
10.288 8.066 2.414
0.576 5.225 1.711
1.052 5.389 1.763
1.630 5.590 1.741
2.187 5.760 1.747
2.827 5.908 1.812
3.443 6.072 1.923
3.903 6.178 1.921
3.949 6.255 1.366
4.522 6.438 1.399
5.155 6.539 1.464
5.705 6.745 1.407
6.292 6.906 1.518
6.822 7.008 1.573
7.434 7.193 1.653
8.009 7.396 1.632
8.611 7.595 1.638
9.137 7.775 1.712
9.750 7.844 1.822
10.320 8.087 1.783
-0.014 5.053 1.085
0.628 5.160 1.040
1.176 5.373 1.099
1.675 5.476 1.206
2.265 5.648 1.257
2.896 5.818 1.224
3.429 6.070 1.260
4.014 6.226 1.303
5.176 6.527 0.781
5.785 6.666 0.879
6.392 6.929 0.861
6.946 7.072 0.950
7.445 7.256 1.051
8.103 7.376 0.995
8.592 7.598 1.095
0.008 4.998 0.438
0.634 5.236 0.443
1.260 5.415 0.512
1.716 5.526 0.581
2.325 5.735 0.625
2.884 5.925 0.662
0.241 5.648 12.475
0.840 5.835 12.475
1.411 5.902 12.522
5.428 7.071 12.178
5.988 7.224 12.298
6.549 7.392 12.314
7.198 7.571 12.383
0.231 5.553 11.791
0.855 5.702 11.826
5.437 7.123 11.661
6.085 7.317 11.680
6.601 7.478 11.788
0.365 5.641 11.270
0.855 5.763 11.334
5.288 7.729 11.675
5.882 7.812 11.673
6.411 8.001 11.668
6.983 8.193 11.715
0.117 6.211 11.203
0.692 6.362 11.274
4.762 7.475 11.011
5.390 7.692 11.081
5.941 7.785 11.063
6.508 8.044 11.168
7.126 8.095 11.198
0.248 6.120 10.611
0.732 6.261 10.617
1.350 6.458 10.766
4.786 7.424 10.400
5.346 7.645 10.417
5.959 7.759 10.488
6.500 8.025 10.517
7.114 8.192 10.549
7.662 8.283 10.645
0.248 6.077 10.055
0.861 6.345 10.052
1.444 6.401 10.170
3.716 7.190 9.718
4.358 7.332 9.796
4.847 7.493 9.758
5.408 7.579 9.840
5.974 7.769 9.883
6.575 8.009 9.860
7.241 8.100 9.961
7.761 8.322 9.952
8.367 8.457 10.006
0.261 6.167 9.460
0.845 6.271 9.451
1.489 6.431 9.542
2.024 6.626 9.626
2.653 6.813 9.592
3.232 6.886 9.083
3.820 7.068 9.152
4.348 7.302 9.083
4.926 7.485 9.172
5.570 7.655 9.266
6.117 7.793 9.207
6.657 7.891 9.284
7.184 8.066 9.399
7.741 8.345 9.357
8.326 8.520 9.430
8.973 8.636 9.462
9.529 8.850 9.503
0.353 6.099 8.862
0.915 6.305 8.929
1.473 6.489 8.876
2.059 6.621 8.996
2.699 6.733 8.971
3.205 6.914 9.106
3.204 6.871 8.468
3.816 7.077 8.440
4.383 7.291 8.607
5.004 7.385 8.602
5.542 7.546 8.654
6.125 7.779 8.699
6.708 7.999 8.775
7.248 8.083 8.756
7.842 8.287 8.782
8.369 8.397 8.833
8.954 8.638 8.929
9.544 8.822 8.897
0.436 6.113 8.202
0.982 6.204 8.225
1.527 6.416 8.346
2.116 6.596 8.399
2.673 6.788 8.476
3.256 6.900 8.459
3.258 6.939 7.925
3.950 7.145 7.953
4.400 7.284 7.900
4.990 7.437 8.025
5.669 7.642 8.037
6.113 7.809 8.073
6.812 7.885 8.182
7.288 8.130 8.118
7.843 8.319 8.147
8.513 8.422 8.282
9.097 8.601 8.346
9.593 8.737 8.302
0.495 6.063 7.663
1.070 6.197 7.733
1.581 6.428 7.774
2.203 6.611 7.727
2.703 6.815 7.806
3.366 6.966 7.874
3.296 6.858 7.239
3.980 7.141 7.278
4.532 7.205 7.291
5.144 7.366 7.461
5.657 7.556 7.476
6.273 7.773 7.488
6.862 7.885 7.468
7.313 8.050 7.598
7.947 8.294 7.641
8.499 8.435 7.640
9.127 8.619 7.700
9.653 8.712 7.750
0.438 6.128 6.986
1.122 6.251 7.150
1.648 6.360 7.112
2.252 6.516 7.217
2.750 6.750 7.238
3.313 6.855 7.245
4.602 7.202 6.735
5.070 7.376 6.750
5.739 7.575 6.873
6.239 7.774 6.832
6.880 7.940 6.928
7.417 8.074 6.972
7.947 8.201 7.054
0.482 6.104 6.442
1.175 6.278 6.490
1.641 6.337 6.481
2.297 6.576 6.574
5.175 7.424 6.240
5.732 7.582 6.221
6.302 7.740 6.323
6.864 7.844 6.300
7.533 8.069 6.394
0.072 5.817 5.754
0.634 6.050 5.794
1.152 6.198 5.902
1.791 6.426 5.952
5.836 7.528 5.634
6.375 7.753 5.744
6.942 7.853 5.783
7.471 8.005 5.771
0.120 5.836 5.188
0.667 5.999 5.199
1.169 6.265 5.241
5.797 7.588 5.005
6.456 7.696 5.058
6.933 7.809 5.084
7.526 8.066 5.191
0.152 5.795 4.682
0.721 6.045 4.678
1.278 6.140 4.650
5.323 7.359 4.376
5.920 7.516 4.435
6.480 7.644 4.541
7.028 7.867 4.572
7.613 8.087 4.628
0.182 5.900 3.961
0.790 5.990 4.121
1.357 6.128 4.111
1.887 6.384 4.097
4.847 7.138 3.793
5.347 7.292 3.806
5.916 7.518 3.918
6.516 7.671 3.846
7.053 7.801 3.908
7.603 8.062 4.040
8.256 8.136 4.015
0.264 5.885 3.475
0.783 6.032 3.442
1.421 6.174 3.578
1.920 6.338 3.510
2.496 6.558 3.637
3.678 6.859 3.114
4.242 7.026 3.197
4.877 7.184 3.240
5.357 7.306 3.171
5.965 7.456 3.331
6.620 7.641 3.345
7.099 7.773 3.394
7.661 8.052 3.397
8.246 8.228 3.402
8.906 8.378 3.518
9.385 8.445 3.580
9.961 8.611 3.506
0.301 5.764 2.871
0.784 5.977 2.927
1.388 6.101 2.886
1.991 6.362 2.909
2.576 6.465 3.059
3.161 6.624 3.041
3.651 6.832 3.120
3.749 6.769 2.473
4.302 7.030 2.492
4.885 7.185 2.641
5.525 7.343 2.680
6.081 7.437 2.666
6.643 7.696 2.750
7.136 7.827 2.814
7.751 7.996 2.843
8.317 8.113 2.794
8.951 8.322 2.926
9.458 8.460 2.971
10.008 8.637 2.980
0.290 5.762 2.242
0.918 5.913 2.338
1.470 6.147 2.282
2.035 6.325 2.362
2.588 6.464 2.419
3.141 6.691 2.469
3.805 6.859 2.456
3.770 6.776 1.963
4.393 7.014 1.959
4.962 7.071 1.945
5.546 7.249 2.038
6.073 7.504 2.079
6.684 7.665 2.138
7.229 7.755 2.125
7.834 7.925 2.175
8.429 8.128 2.300
8.981 8.332 2.270
9.564 8.500 2.377
10.035 8.662 2.359
0.323 5.740 1.616
0.975 5.988 1.675
1.572 6.191 1.665
2.017 6.345 1.815
2.595 6.435 1.778
3.241 6.683 1.846
3.824 6.773 1.840
3.829 6.731 1.338
4.396 6.991 1.348
5.032 7.165 1.353
5.518 7.277 1.387
6.172 7.482 1.466
6.674 7.668 1.570
7.253 7.819 1.519
7.838 7.912 1.661
8.476 8.177 1.624
9.032 8.353 1.747
9.630 8.441 1.672
10.156 8.618 1.807
0.362 5.816 1.012
0.986 5.987 1.095
1.572 6.061 1.094
2.121 6.240 1.190
2.691 6.460 1.171
3.324 6.579 1.300
3.864 6.795 1.354
4.415 6.959 0.696
5.020 7.118 0.833
5.596 7.313 0.829
6.244 7.414 0.825
6.722 7.631 0.884
7.365 7.845 1.031
7.963 7.922 1.010
8.439 8.162 1.115
9.034 8.226 1.162
0.441 5.796 0.432
1.046 5.980 0.526
1.567 6.117 0.510
2.192 6.321 0.632
2.739 6.446 0.578
3.312 6.659 0.607
0.072 6.229 12.415
0.607 6.298 12.502
1.141 6.511 12.493
4.742 7.567 12.179
5.303 7.717 12.216
5.801 7.877 12.247
6.388 7.965 12.346
6.975 8.124 12.368
0.058 6.136 11.844
0.670 6.347 11.862
1.231 6.553 11.965
5.254 7.659 11.593
5.826 7.787 11.688
6.434 7.940 11.736
7.014 8.146 11.803
0.186 6.183 11.236
0.777 6.277 11.281
5.141 8.265 11.654
5.669 8.344 11.665
6.354 8.636 11.671
6.858 8.704 11.769
0.541 6.950 11.289
5.143 8.256 10.939
5.789 8.343 11.018
6.368 8.616 11.074
6.917 8.787 11.157
0.022 6.690 10.659
0.596 6.861 10.637
4.612 8.034 10.289
5.247 8.238 10.350
5.838 8.448 10.419
6.352 8.584 10.419
6.946 8.681 10.589
7.558 8.908 10.587
0.068 6.656 9.986
0.722 6.852 10.080
1.239 7.039 10.028
4.170 7.812 9.757
4.772 7.981 9.757
5.240 8.172 9.775
5.908 8.321 9.794
6.467 8.531 9.872
7.011 8.757 9.884
7.647 8.913 9.978
8.098 9.077 10.064
0.157 6.650 9.475
0.733 6.853 9.443
1.256 7.001 9.523
1.879 7.235 9.594
3.094 7.494 9.042
3.598 7.752 9.111
4.246 7.813 9.130
4.732 8.043 9.203
5.302 8.212 9.142
5.927 8.308 9.208
6.547 8.506 9.268
7.022 8.692 9.355
7.567 8.918 9.321
8.266 9.077 9.441
8.816 9.166 9.413
9.400 9.407 9.549
0.141 6.716 8.772
0.760 6.797 8.922
1.359 6.968 8.951
1.917 7.243 8.900
2.537 7.355 8.965
3.010 7.533 9.035
3.067 7.558 8.450
3.711 7.655 8.536
4.264 7.789 8.460
4.845 7.994 8.545
5.361 8.184 8.611
6.013 8.352 8.706
6.599 8.551 8.705
7.067 8.645 8.697
7.726 8.828 8.844
8.297 9.046 8.789
8.812 9.246 8.866
9.337 9.378 8.932
0.210 6.629 8.177
0.795 6.774 8.249
1.379 7.005 8.359
1.918 7.165 8.363
2.505 7.372 8.441
3.104 7.543 8.452
3.121 7.445 7.897
3.734 7.640 7.871
4.280 7.856 7.922
4.882 7.993 7.958
5.438 8.184 8.011
5.970 8.282 8.033
6.632 8.566 8.101
7.133 8.622 8.176
7.678 8.849 8.238
8.356 8.985 8.184
8.921 9.143 8.253
9.399 9.400 8.332
0.328 6.645 7.644
0.821 6.814 7.654
1.379 6.961 7.656
2.018 7.166 7.748
2.589 7.387 7.735
3.193 7.535 7.840
3.167 7.459 7.186
3.796 7.688 7.278
4.400 7.882 7.294
4.948 7.953 7.425
5.547 8.142 7.359
6.078 8.318 7.466
6.657 8.553 7.445
7.167 8.679 7.517
7.721 8.787 7.556
8.353 9.024 7.590
8.868 9.149 7.646
9.503 9.372 7.683
0.351 6.669 7.091
0.944 6.760 7.049
1.453 6.942 7.092
2.037 7.098 7.131
2.651 7.289 7.188
3.162 7.496 7.238
4.433 7.828 6.736
4.963 8.020 6.712
5.586 8.105 6.781
6.042 8.368 6.925
6.738 8.419 6.901
7.280 8.697 6.997
7.784 8.868 6.934
0.445 6.577 6.460
0.962 6.818 6.523
1.498 7.022 6.511
2.060 7.083 6.619
5.039 7.970 6.146
5.642 8.068 6.182
6.117 8.234 6.296
6.731 8.513 6.292
7.345 8.635 6.332
0.470 6.656 5.883
1.051 6.792 5.812
1.585 6.950 5.937
5.617 8.146 5.573
6.182 8.307 5.605
6.781 8.495 5.692
7.346 8.566 5.800
0.538 6.619 5.223
1.102 6.723 5.254
5.643 8.164 5.060
6.195 8.326 5.078
6.849 8.415 5.159
7.341 8.574 5.163
0.547 6.550 4.584
1.051 6.710 4.724
5.128 7.928 4.439
5.703 8.112 4.379
6.322 8.282 4.520
6.826 8.451 4.565
7.457 8.650 4.572
0.006 6.355 4.022
0.629 6.626 4.105
1.115 6.800 4.055
1.749 6.954 4.144
4.631 7.724 3.694
5.182 7.942 3.745
5.726 8.079 3.838
6.381 8.199 3.930
6.884 8.455 3.907
7.532 8.640 3.985
8.057 8.706 4.075
0.064 6.428 3.439
0.673 6.559 3.490
1.217 6.769 3.454
1.779 6.855 3.535
2.327 7.127 3.618
3.516 7.443 3.084
4.115 7.562 3.115
4.691 7.710 3.187
5.248 7.841 3.151
5.827 8.077 3.249
6.431 8.251 3.233
6.972 8.373 3.311
7.547 8.553 3.365
8.096 8.745 3.367
8.750 8.865 3.478
9.328 9.078 3.559
9.819 9.235 3.488
0.144 6.419 2.812
0.701 6.599 2.793
1.184 6.782 2.949
1.870 6.842 2.911
2.396 7.054 2.921
2.989 7.220 3.057
3.517 7.430 3.036
3.582 7.333 2.460
4.190 7.492 2.526
4.695 7.772 2.591
5.328 7.920 2.592
5.816 8.083 2.597
6.471 8.201 2.704
7.021 8.366 2.732
7.575 8.602 2.835
8.202 8.723 2.794
8.773 8.859 2.911
9.274 9.115 2.892
9.831 9.297 2.922
0.187 6.336 2.151
0.781 6.528 2.260
1.286 6.677 2.301
1.917 6.883 2.286
2.392 7.109 2.362
3.030 7.266 2.373
3.554 7.447 2.420
3.630 7.415 1.835
4.153 7.541 1.958
4.724 7.703 2.004
5.411 7.817 2.014
5.971 8.057 2.101
6.477 8.274 2.094
7.029 8.335 2.144
7.650 8.497 2.188
8.209 8.696 2.212
8.759 8.921 2.296
9.305 8.993 2.356
9.928 9.256 2.388
0.255 6.362 1.634
0.786 6.525 1.671
1.351 6.707 1.707
1.859 6.894 1.773
2.517 7.007 1.751
3.113 7.169 1.879
3.613 7.416 1.862
3.628 7.337 1.269
4.316 7.524 1.378
4.785 7.731 1.386
5.374 7.920 1.450
5.970 8.022 1.497
6.588 8.253 1.460
7.127 8.366 1.580
7.745 8.475 1.576
8.279 8.749 1.677
8.844 8.889 1.697
9.424 8.979 1.763
10.008 9.186 1.791
0.193 6.293 0.976
0.829 6.482 1.091
1.423 6.715 1.046
1.927 6.821 1.110
2.491 7.047 1.206
3.168 7.165 1.283
3.714 7.348 1.285
4.857 7.706 0.744
5.451 7.810 0.829
6.049 7.955 0.909
6.574 8.144 0.844
7.185 8.364 0.937
7.698 8.462 0.959
8.268 8.650 0.981
8.905 8.907 1.097
0.346 6.353 0.463
0.836 6.475 0.405
1.479 6.644 0.529
1.963 6.800 0.596
2.531 6.991 0.593
0.428 6.913 12.391
0.979 7.033 12.470
5.087 8.304 12.120
5.613 8.381 12.233
6.213 8.579 12.289
6.838 8.744 12.380
0.571 6.966 11.862
5.086 8.249 11.561
5.722 8.454 11.683
6.244 8.607 11.657
6.928 8.725 11.743
0.606 6.952 11.281
5.593 8.989 11.568
6.167 9.162 11.661
5.028 8.821 10.981
5.647 9.006 11.012
6.140 9.080 11.035
0.430 7.396 10.565
4.541 8.672 10.369
5.055 8.747 10.425
5.702 8.975 10.375
6.247 9.082 10.468
6.819 9.291 10.447
0.517 7.469 9.981
1.023 7.631 10.099
3.988 8.476 9.644
4.490 8.647 9.789
5.188 8.768 9.728
5.762 8.972 9.865
6.308 9.171 9.924
6.825 9.229 9.886
7.403 9.507 9.959
0.557 7.406 9.417
1.150 7.653 9.427
1.638 7.723 9.482
3.519 8.279 9.039
4.093 8.401 9.041
4.655 8.565 9.165
5.141 8.708 9.150
5.768 8.975 9.230
6.327 9.149 9.226
6.946 9.320 9.248
7.453 9.394 9.300
7.981 9.603 9.356
0.042 7.295 8.815
0.600 7.365 8.823
1.226 7.602 8.935
1.800 7.820 8.890
2.305 7.901 8.903
2.876 8.103 8.461
3.442 8.256 8.389
4.090 8.482 8.560
4.649 8.617 8.477
5.158 8.691 8.571
5.787 8.980 8.626
6.313 9.114 8.660
6.900 9.318 8.760
7.544 9.461 8.770
8.044 9.532 8.762
8.686 9.737 8.818
9.218 9.890 8.883
0.078 7.231 8.166
0.642 7.372 8.263
1.268 7.618 8.241
1.721 7.738 8.360
2.296 7.860 8.390
2.883 8.046 8.345
2.954 8.051 7.774
3.500 8.245 7.853
4.145 8.433 7.939
4.713 8.580 7.908
5.321 8.795 7.955
5.880 8.918 7.989
6.425 9.086 8.020
6.997 9.277 8.123
7.585 9.348 8.123
8.181 9.533 8.164
8.694 9.783 8.244
9.303 9.942 8.264
0.061 7.234 7.638
0.638 7.450 7.687
1.285 7.597 7.645
1.898 7.739 7.744
2.467 7.965 7.821
3.038 8.010 7.873
4.201 8.419 7.361
4.740 8.579 7.407
5.366 8.745 7.441
5.950 8.893 7.466
6.494 9.013 7.472
7.006 9.267 7.481
7.673 9.464 7.514
8.136 9.593 7.652
0.174 7.275 7.012
0.713 7.442 7.016
1.352 7.593 7.046
1.863 7.718 7.180
4.747 8.590 6.808
5.317 8.652 6.751
5.919 8.864 6.898
6.538 9.087 6.914
7.087 9.159 6.944
0.232 7.181 6.402
0.815 7.356 6.490
1.352 7.586 6.484
5.445 8.712 6.218
5.977 8.842 6.187
6.545 9.075 6.304
7.125 9.154 6.321
0.328 7.183 5.748
0.876 7.399 5.854
6.097 8.849 5.592
6.606 9.013 5.643
0.325 7.146 5.198
6.081 8.890 5.032
6.637 9.067 5.124
0.337 7.152 4.580
5.564 8.672 4.442
6.132 8.831 4.398
6.667 9.004 4.515
7.284 9.183 4.538
0.345 7.102 4.031
0.983 7.339 4.015
5.018 8.533 3.761
5.645 8.594 3.781
6.242 8.826 3.833
6.709 9.002 3.898
7.269 9.113 3.965
0.405 7.189 3.371
1.029 7.285 3.459
1.580 7.437 3.462
4.562 8.363 3.139
5.051 8.459 3.116
5.646 8.646 3.261
6.281 8.830 3.291
6.781 9.031 3.253
7.350 9.180 3.286
7.886 9.314 3.349
8.472 9.507 3.438
0.492 7.145 2.807
1.100 7.287 2.837
1.715 7.450 2.867
2.277 7.612 2.977
3.437 7.903 2.457
4.030 8.081 2.513
4.517 8.306 2.472
5.078 8.502 2.512
5.765 8.574 2.628
6.314 8.810 2.702
6.802 8.981 2.717
7.401 9.181 2.751
7.948 9.357 2.801
8.575 9.427 2.844
9.146 9.686 2.940
9.740 9.743 2.880
0.536 7.100 2.265
1.098 7.237 2.294
1.761 7.486 2.304
2.309 7.632 2.324
2.824 7.815 2.345
3.448 7.956 2.489
3.520 7.914 1.826
4.103 8.102 1.863
4.630 8.242 1.921
5.239 8.498 1.991
5.778 8.649 2.074
6.314 8.739 2.050
6.906 9.018 2.127
7.416 9.175 2.137
8.041 9.301 2.167
8.605 9.436 2.269
9.177 9.565 2.343
9.726 9.807 2.269
0.077 6.881 1.615
0.640 7.157 1.607
1.178 7.321 1.652
1.769 7.429 1.670
2.285 7.552 1.762
2.915 7.821 1.771
3.444 7.902 1.877
4.032 8.091 1.300
4.644 8.278 1.279
5.248 8.424 1.340
5.749 8.609 1.443
6.345 8.819 1.481
6.970 8.981 1.567
7.462 9.152 1.620
8.105 9.295 1.569
8.728 9.424 1.700
0.119 6.973 0.957
0.611 7.096 1.039
1.183 7.313 1.139
1.822 7.485 1.158
2.353 7.538 1.111
2.926 7.750 1.263
4.706 8.196 0.760
5.243 8.471 0.779
5.889 8.599 0.854
6.488 8.816 0.938
7.026 8.894 0.869
7.607 9.140 1.008
8.144 9.312 1.018
0.156 6.935 0.335
0.725 7.044 0.381
1.240 7.254 0.532
1.871 7.369 0.583
2.424 7.636 0.520
0.341 7.536 12.395
0.917 7.702 12.489
4.883 8.820 12.174
5.445 8.937 12.204
6.124 9.181 12.221
0.390 7.499 11.864
5.554 8.926 11.642
6.140 9.095 11.636
5.431 9.525 10.386
6.040 9.756 10.446
4.323 9.145 9.743
4.972 9.392 9.722
5.577 9.500 9.807
6.083 9.649 9.865
6.706 9.907 9.898
0.402 7.975 9.459
0.943 8.237 9.430
4.384 9.215 9.161
4.990 9.353 9.209
5.615 9.501 9.257
6.135 9.693 9.294
6.773 9.809 9.298
7.323 9.965 9.314
0.423 7.991 8.829
1.054 8.206 8.811
3.899 8.933 8.463
4.427 9.159 8.473
5.079 9.311 8.619
5.636 9.550 8.548
6.153 9.673 8.640
6.733 9.877 8.621
7.297 10.056 8.722
0.515 7.986 8.276
1.097 8.088 8.229
1.680 8.255 8.235
3.939 8.916 7.895
4.510 9.143 7.954
5.093 9.280 7.968
5.698 9.421 8.049
6.226 9.697 8.041
6.850 9.819 8.114
7.360 9.979 8.081
0.488 7.928 7.565
1.148 8.129 7.607
1.610 8.353 7.686
4.581 9.074 7.265
5.104 9.354 7.321
5.760 9.452 7.433
6.321 9.649 7.474
6.892 9.794 7.521
0.589 7.974 6.982
1.157 8.180 7.033
5.152 9.285 6.784
5.749 9.432 6.801
6.304 9.648 6.870
0.078 7.719 6.420
0.589 7.967 6.388
5.504 9.215 3.757
6.015 9.359 3.849
6.547 9.510 3.937
0.317 7.661 3.410
0.902 7.909 3.500
4.938 9.060 3.185
5.484 9.238 3.170
6.115 9.431 3.280
6.704 9.560 3.303
7.161 9.754 3.311
0.395 7.663 2.757
0.902 7.838 2.870
1.425 8.053 2.834
4.350 8.888 2.456
4.933 8.993 2.616
5.548 9.216 2.594
6.055 9.381 2.684
6.688 9.591 2.655
7.196 9.700 2.746
7.883 9.907 2.784
0.343 7.754 2.251
0.981 7.870 2.228
1.569 8.021 2.280
2.111 8.149 2.320
4.488 8.829 1.957
5.067 9.043 1.937
5.530 9.212 1.947
6.220 9.339 2.021
6.796 9.496 2.114
7.318 9.758 2.116
7.848 9.839 2.178
0.401 7.694 1.666
1.053 7.864 1.596
1.599 8.076 1.759
2.169 8.154 1.724
5.061 8.981 1.412
5.592 9.121 1.350
6.186 9.376 1.471
6.825 9.551 1.521
7.342 9.676 1.498
7.993 9.838 1.578
0.486 7.701 1.025
1.100 7.791 1.004
1.597 8.051 1.083
5.168 8.948 0.704
5.643 9.158 0.844
6.203 9.390 0.912
6.784 9.456 0.847
7.434 9.737 0.919
0.596 7.705 0.397
1.150 7.784 0.441
1.641 8.031 0.556
5.363 10.122 9.820
5.970 10.227 9.751
4.839 9.919 9.167
5.415 10.109 9.139
6.022 10.199 9.226
6.505 10.437 9.305
0.302 8.606 8.743
4.326 9.776 8.477
4.864 9.859 8.477
5.430 10.022 8.625
6.082 10.197 8.644
6.589 10.429 8.649
0.300 8.572 8.142
0.896 8.719 8.226
4.311 9.767 7.945
4.995 9.877 7.989
5.572 10.019 7.954
6.084 10.228 7.998
6.706 10.434 8.127
0.403 8.504 7.546
0.924 8.650 7.621
4.923 9.908 7.303
5.560 10.050 7.410
6.143 10.177 7.484
6.687 10.316 7.439
0.393 8.500 6.981
5.325 9.796 3.130
5.869 9.911 3.166
6.420 10.130 3.190
7.040 10.338 3.261
0.235 8.340 2.827
0.744 8.486 2.817
4.862 9.672 2.505
5.439 9.815 2.526
5.898 9.912 2.655
6.499 10.063 2.697
7.123 10.348 2.758
0.191 8.316 2.117
0.823 8.371 2.216
1.347 8.553 2.262
4.810 9.594 1.977
5.414 9.794 1.969
6.029 9.986 2.034
6.508 10.122 2.121
7.088 10.276 2.057
0.242 8.280 1.529
0.899 8.432 1.607
1.369 8.594 1.627
5.448 9.775 1.326
6.079 9.916 1.451
6.611 10.128 1.434
7.130 10.201 1.531
0.315 8.254 0.983
0.869 8.373 0.967
6.085 9.892 0.876
6.619 10.075 0.896
0.420 8.236 0.429
4.672 10.487 9.097
5.225 10.639 9.193
5.804 10.829 9.185
0.074 9.153 8.791
4.758 10.493 8.476
5.319 10.590 8.540
5.895 10.866 8.637
6.470 10.984 8.632
0.117 9.152 8.103
4.783 10.441 7.915
5.288 10.605 7.913
5.859 10.769 7.995
6.511 10.911 8.104
0.145 9.172 7.548
5.351 10.608 7.330
6.015 10.809 7.366
5.797 10.546 3.238
6.272 10.656 3.182
0.014 8.865 2.687
5.219 10.358 2.520
5.799 10.524 2.553
6.375 10.651 2.653
6.896 10.882 2.671
0.116 8.865 2.192
0.675 9.008 2.149
5.249 10.398 1.901
5.797 10.517 2.006
6.380 10.683 1.980
6.961 10.900 2.033
0.134 8.784 1.602
0.623 8.938 1.585
5.295 10.266 1.402
5.863 10.525 1.395
6.499 10.658 1.379
0.121 8.827 0.981
0.720 9.030 0.974
4.523 11.123 9.098
5.079 11.267 9.084
5.695 11.410 9.163
4.602 11.059 8.514
5.067 11.199 8.525
5.679 11.354 8.606
6.235 11.492 8.634
4.579 11.018 7.940
5.114 11.219 7.940
5.747 11.323 7.995
6.260 11.521 8.046
0.088 9.640 7.557
5.188 11.179 7.351
5.758 11.325 7.420
5.599 11.147 3.100
6.173 11.267 3.143
5.062 10.961 2.467
5.671 11.117 2.588
6.219 11.199 2.590
6.772 11.396 2.661
0.497 9.542 2.114
5.155 10.906 1.923
5.668 11.031 1.971
6.268 11.193 2.062
6.864 11.427 2.091
0.450 9.628 1.567
5.086 10.918 1.302
5.756 11.096 1.342
6.263 11.249 1.450
0.540 9.612 1.023
4.806 11.821 9.703
5.430 12.022 9.776
4.398 11.633 9.071
4.971 11.777 9.047
5.532 12.037 9.140
6.013 12.170 9.119
3.829 11.437 8.473
4.390 11.674 8.477
4.943 11.845 8.481
5.496 11.921 8.568
6.166 12.067 8.624
0.328 10.390 8.140
3.840 11.470 7.855
4.486 11.549 7.916
5.062 11.756 7.847
5.529 12.012 7.904
6.166 12.164 7.995
0.493 10.377 7.550
4.518 11.555 7.282
5.047 11.785 7.266
5.691 11.891 7.394
6.196 12.088 7.421
4.767 11.525 3.097
5.443 11.666 3.109
5.972 11.808 3.165
6.547 11.992 3.255
0.259 10.130 2.702
4.326 11.398 2.469
4.880 11.485 2.545
5.444 11.650 2.479
6.056 11.847 2.524
6.631 12.000 2.617
0.273 10.221 2.084
0.846 10.367 2.203
4.389 11.276 1.799
4.870 11.517 1.949
5.537 11.665 1.875
6.028 11.777 1.995
6.668 11.939 1.995
0.361 10.086 1.503
0.884 10.323 1.532
5.002 11.430 1.282
5.521 11.598 1.397
6.162 11.816 1.437
6.713 12.022 1.445
0.388 10.177 0.995
5.576 11.573 0.738
6.231 11.744 0.787
4.629 12.466 10.269
3.527 12.020 9.589
4.120 12.247 9.604
4.698 12.353 9.657
5.291 12.567 9.740
0.099 11.020 9.328
3.583 12.031 9.044
4.238 12.233 8.995
4.688 12.424 9.109
5.353 12.606 9.061
0.131 11.064 8.764
3.048 11.803 8.328
3.641 12.062 8.333
4.244 12.141 8.367
4.781 12.322 8.445
5.371 12.490 8.495
0.200 11.081 8.146
0.802 11.169 8.232
3.123 11.790 7.791
3.694 12.029 7.853
4.273 12.241 7.778
4.860 12.358 7.886
5.450 12.519 7.871
0.244 10.966 7.550
0.795 11.195 7.625
3.748 12.052 7.148
4.259 12.124 7.252
4.828 12.338 7.292
5.450 12.516 7.365
0.346 10.971 6.904
4.346 12.193 6.612
5.003 12.373 6.748
5.534 12.519 6.731
4.669 12.164 3.623
5.220 12.212 3.671
5.810 12.447 3.689
0.049 10.744 3.335
4.057 11.955 2.985
4.707 12.099 3.058
5.243 12.312 3.075
5.759 12.433 3.109
0.090 10.687 2.705
0.694 10.976 2.762
3.590 11.676 2.319
4.187 11.971 2.396
4.677 12.130 2.461
5.261 12.274 2.494
5.897 12.430 2.541
0.186 10.681 2.184
0.737 10.877 2.181
1.310 11.125 2.221
3.569 11.770 1.737
4.206 11.941 1.875
4.797 12.061 1.865
5.375 12.269 1.922
5.901 12.460 1.903
0.152 10.665 1.490
0.806 10.828 1.565
1.274 10.994 1.586
4.223 11.921 1.166
4.823 12.115 1.223
5.444 12.216 1.263
5.906 12.356 1.371
6.537 12.621 1.415
0.242 10.748 0.967
0.811 10.898 0.946
4.242 11.870 0.654
4.877 12.078 0.644
5.377 12.189 0.717
5.995 12.419 0.733
6.576 12.554 0.850
0.229 10.750 0.312
0.859 10.803 0.314
2.795 12.429 9.514
0.485 11.851 9.305
2.324 12.303 8.852
2.843 12.475 8.961
0.518 11.733 8.785
1.201 11.935 8.807
1.765 12.126 8.215
2.369 12.308 8.255
2.910 12.421 8.342
0.049 11.565 8.074
0.593 11.758 8.148
1.224 11.869 8.243
1.737 12.147 8.227
1.810 12.079 7.577
2.334 12.318 7.634
2.973 12.370 7.743
0.088 11.614 7.456
0.639 11.691 7.541
1.287 11.925 7.655
1.764 12.052 7.608
2.994 12.388 7.167
0.140 11.630 6.868
0.755 11.794 6.969
0.209 11.574 6.282
3.823 12.515 3.596
0.457 11.437 3.397
3.285 12.333 3.007
3.909 12.449 2.949
0.484 11.477 2.707
1.024 11.681 2.825
2.282 11.979 2.285
2.798 12.207 2.336
3.399 12.377 2.363
4.001 12.511 2.456
0.594 11.480 2.194
1.086 11.664 2.173
1.617 11.780 2.182
2.204 11.992 2.243
2.334 12.003 1.654
2.897 12.199 1.723
3.423 12.298 1.703
4.042 12.418 1.771
-0.031 11.289 1.499
0.523 11.466 1.533
1.124 11.618 1.538
1.670 11.803 1.592
2.241 11.955 1.674
2.908 12.096 1.095
3.503 12.278 1.220
4.026 12.460 1.239
0.018 11.337 0.928
0.646 11.385 0.958
1.205 11.644 1.041
1.795 11.732 1.022
3.497 12.226 0.613
4.077 12.432 0.586
0.146 11.308 0.332
0.632 11.447 0.333
1.247 11.652 0.458
0.417 12.358 9.254
0.408 12.413 8.661
0.964 12.505 8.728
0.408 12.276 8.113
1.032 12.559 8.134
0.543 12.354 7.470
1.036 12.518 7.621
0.604 12.352 6.865
1.101 12.476 6.987
0.090 12.161 6.258
0.586 12.310 6.311
0.036 12.063 5.697
0.279 12.095 3.905
0.306 12.068 3.371
0.853 12.294 3.379
1.976 12.568 2.796
0.279 12.115 2.736
0.840 12.228 2.762
1.470 12.386 2.809
2.075 12.615 2.873
2.150 12.597 2.182
0.382 12.076 2.049
0.933 12.251 2.203
1.534 12.375 2.232
2.092 12.527 2.238
2.191 12.556 1.706
0.475 11.995 1.502
1.044 12.268 1.534
1.532 12.400 1.588
2.126 12.584 1.608
2.189 12.496 1.033
0.488 11.991 0.984
1.087 12.223 0.979
1.561 12.327 0.962
2.154 12.521 1.096
0.536 12.023 0.346
1.021 12.130 0.369
6.862 2.490 11.779
7.417 2.680 11.868
8.013 2.857 11.968
1.124 0.804 11.397
1.667 0.982 11.395
2.289 1.154 11.499
6.843 2.440 11.236
7.485 2.663 11.274
8.010 2.764 11.392
8.634 2.977 11.396
0.542 0.594 10.785
1.145 0.848 10.815
1.712 1.017 10.852
2.237 1.169 10.871
6.389 2.272 10.644
6.968 2.467 10.654
7.419 2.627 10.636
8.106 2.811 10.732
8.591 2.912 10.751
0.606 0.598 10.188
1.125 0.827 10.239
1.723 0.912 10.311
2.390 1.183 10.275
2.878 1.264 10.378
5.871 2.118 10.007
6.371 2.298 10.049
7.002 2.457 10.095
7.482 2.609 10.126
8.096 2.745 10.146
8.691 2.986 10.149
9.311 3.172 10.193
0.060 0.412 9.520
0.636 0.592 9.567
1.284 0.724 9.573
1.824 0.922 9.631
2.433 1.124 9.661
2.935 1.260 9.712
3.523 1.446 9.856
4.728 1.839 9.345
5.307 1.989 9.287
5.816 2.120 9.371
6.415 2.244 9.423
7.034 2.459 9.514
7.589 2.554 9.518
8.100 2.828 9.589
8.768 3.010 9.600
9.324 3.171 9.659
9.905 3.319 9.640
10.422 3.428 9.763
10.978 3.619 9.778
0.113 0.383 9.001
0.755 0.570 8.976
1.279 0.745 9.037
1.839 0.889 9.030
2.485 1.143 9.109
2.957 1.211 9.104
3.623 1.394 9.205
4.117 1.590 9.300
4.760 1.720 9.348
4.744 1.716 8.692
5.282 1.896 8.748
5.859 2.098 8.765
6.439 2.214 8.778
7.035 2.377 8.835
7.654 2.628 8.867
8.238 2.747 8.914
8.744 2.909 8.944
9.295 3.105 9.088
9.920 3.282 9.032
10.512 3.450 9.058
11.089 3.560 9.206
0.203 0.411 8.358
0.738 0.526 8.350
1.313 0.702 8.420
1.843 0.908 8.448
2.476 1.090 8.560
3.074 1.280 8.583
3.567 1.422 8.659
4.255 1.602 8.679
4.819 1.742 8.688
4.770 1.736 8.092
5.333 1.953 8.142
5.902 2.144 8.205
6.582 2.228 8.261
7.141 2.381 8.271
7.650 2.540 8.312
8.190 2.752 8.344
8.865 2.960 8.406
9.363 3.039 8.434
9.955 3.269 8.419
10.518 3.430 8.544
11.149 3.543 8.614
0.246 0.387 7.693
0.844 0.545 7.749
1.385 0.712 7.804
1.970 0.960 7.852
2.583 1.105 7.863
3.042 1.192 7.941
3.663 1.476 8.064
4.299 1.527 7.997
4.788 1.814 8.130
5.398 1.867 7.533
5.979 2.096 7.605
6.630 2.190 7.571
7.119 2.438 7.715
7.739 2.586 7.707
8.240 2.742 7.749
8.849 2.948 7.840
9.459 3.036 7.817
10.078 3.210 7.896
0.266 0.445 7.120
0.790 0.535 7.192
1.464 0.693 7.170
2.052 0.870 7.328
2.578 1.019 7.360
3.155 1.207 7.340
3.654 1.438 7.419
4.308 1.580 7.509
6.631 2.280 7.034
7.217 2.413 7.024
7.720 2.607 7.098
8.327 2.710 7.170
8.957 2.936 7.178
9.553 3.007 7.195
0.350 0.346 6.612
0.849 0.536 6.630
1.456 0.761 6.699
1.998 0.891 6.646
2.590 1.120 6.683
3.165 1.239 6.794
7.216 2.323 6.521
7.785 2.594 6.515
8.453 2.725 6.560
9.002 2.897 6.653
0.997 0.550 6.001
1.490 0.673 6.050
2.095 0.912 6.089
2.641 1.101 6.068
7.350 2.376 5.839
7.908 2.490 5.947
8.503 2.658 5.976
1.590 0.705 5.385
2.110 0.811 5.498
2.701 0.970 5.515
7.305 2.384 5.327
7.958 2.492 5.336
8.533 2.702 5.322
1.584 0.674 4.798
2.168 0.895 4.948
2.790 0.991 4.992
7.370 2.397 4.747
7.985 2.462 4.697
8.558 2.643 4.795
9.112 2.809 4.752
1.154 0.529 4.246
1.679 0.684 4.215
2.246 0.809 4.259
2.848 1.064 4.287
6.914 2.203 4.013
7.506 2.374 4.119
8.073 2.483 4.161
8.639 2.735 4.227
9.178 2.789 4.187
9.678 3.025 4.275
0.590 0.291 3.516
1.168 0.446 3.654
1.718 0.640 3.655
2.344 0.788 3.735
2.833 1.055 3.793
3.394 1.227 3.820
5.789 1.777 3.332
6.385 2.037 3.395
6.932 2.140 3.462
7.450 2.326 3.531
8.069 2.465 3.486
8.597 2.669 3.536
9.150 2.842 3.564
9.801 3.038 3.670
10.400 3.198 3.670
0.046 0.190 2.920
0.601 0.339 2.983
1.244 0.515 2.978
1.728 0.648 3.018
2.400 0.828 3.126
2.849 1.031 3.108
3.447 1.137 3.158
3.995 1.322 3.172
4.659 1.430 3.334
5.248 1.695 2.678
5.769 1.776 2.820
6.445 2.030 2.822
6.918 2.164 2.819
7.589 2.316 2.932
8.116 2.539 2.882
8.683 2.599 3.020
9.221 2.799 2.996
9.801 3.038 3.042
10.460 3.205 3.157
11.039 3.360 3.135
11.486 3.488 3.193
0.061 0.147 2.368
0.633 0.240 2.383
1.255 0.468 2.386
1.821 0.626 2.515
2.363 0.777 2.479
2.913 1.009 2.587
3.593 1.145 2.565
4.152 1.286 2.611
4.628 1.460 2.657
5.249 1.608 2.765
5.271 1.690 2.142
5.856 1.848 2.183
6.387 1.944 2.273
6.955 2.162 2.300
7.572 2.300 2.243
8.210 2.429 2.350
8.739 2.691 2.450
9.321 2.770 2.425
9.945 2.920 2.525
10.414 3.181 2.522
11.049 3.280 2.615
11.591 3.526 2.572
0.198 0.132 1.675
0.664 0.338 1.772
1.351 0.455 1.832
1.802 0.575 1.916
2.427 0.782 1.854
3.057 0.971 1.978
3.521 1.151 2.032
4.197 1.231 2.061
4.763 1.515 2.039
5.265 1.579 2.168
5.331 1.565 1.508
5.934 1.841 1.574
6.434 1.895 1.584
7.108 2.185 1.599
7.606 2.252 1.757
8.232 2.471 1.814
8.843 2.662 1.850
9.397 2.749 1.872
9.957 2.979 1.940
10.554 3.119 1.859
11.111 3.302 1.936
11.699 3.506 1.998
0.155 0.059 1.097
0.727 0.266 1.243
1.328 0.478 1.249
1.886 0.650 1.279
2.530 0.843 1.305
3.113 0.999 1.319
3.580 1.056 1.344
4.204 1.223 1.450
4.755 1.484 1.446
5.349 1.672 1.511
6.562 1.913 1.004
7.064 2.116 1.073
7.625 2.247 1.066
8.238 2.465 1.196
8.767 2.628 1.143
9.362 2.785 1.284
9.952 2.985 1.241
0.797 0.297 0.538
1.434 0.416 0.654
1.947 0.630 0.644
2.481 0.752 0.702
3.101 0.883 0.756
3.730 1.080 0.819
4.213 1.335 0.876
0.389 0.622 12.554
6.769 2.564 12.398
7.398 2.734 12.467
7.939 2.798 12.469
0.524 0.699 12.018
0.970 0.885 11.963
1.596 1.063 12.102
2.132 1.202 12.154
6.747 2.442 11.866
7.352 2.679 11.948
7.990 2.820 11.916
1.085 0.882 11.426
1.595 1.045 11.391
2.174 1.151 11.558
7.318 3.205 11.327
1.517 1.517 10.826
6.759 3.053 10.571
7.289 3.160 10.650
7.888 3.427 10.715
8.443 3.582 10.742
0.378 1.184 10.178
0.953 1.330 10.249
1.613 1.546 10.194
2.157 1.718 10.244
6.235 2.831 9.922
6.799 3.010 9.991
7.359 3.192 10.119
7.941 3.415 10.163
8.471 3.555 10.187
9.071 3.666 10.240
0.440 1.250 9.490
1.068 1.319 9.595
1.685 1.578 9.681
2.210 1.640 9.722
2.757 1.847 9.675
5.699 2.721 9.380
6.260 2.818 9.345
6.812 3.045 9.473
7.477 3.200 9.456
7.967 3.299 9.515
8.529 3.544 9.596
9.073 3.644 9.654
0.518 1.230 8.941
1.054 1.404 9.008
1.728 1.522 9.069
2.263 1.631 9.113
2.816 1.910 9.141
3.340 2.032 9.159
5.202 2.530 8.697
5.764 2.704 8.738
6.339 2.802 8.808
6.904 3.069 8.837
7.498 3.139 8.930
7.970 3.391 8.887
8.598 3.525 8.907
9.143 3.636 9.062
9.707 3.904 9.082
-0.026 0.973 8.317
0.608 1.123 8.381
1.177 1.369 8.460
1.762 1.521 8.467
2.357 1.654 8.431
2.927 1.846 8.498
3.426 2.032 8.581
3.964 2.167 8.615
5.741 2.658 8.172
6.314 2.850 8.251
6.922 3.023 8.205
7.554 3.168 8.345
8.101 3.316 8.305
8.682 3.557 8.356
9.179 3.689 8.449
9.792 3.840 8.430
0.039 0.919 7.723
0.662 1.197 7.772
1.206 1.300 7.786
1.834 1.546 7.800
2.418 1.649 7.855
2.976 1.876 7.947
3.508 1.967 8.043
5.775 2.674 7.595
6.410 2.776 7.647
7.001 3.025 7.621
7.579 3.156 7.689
8.077 3.357 7.696
8.767 3.494 7.711
9.331 3.621 7.830
0.138 1.005 7.102
0.643 1.184 7.165
1.272 1.367 7.157
1.841 1.521 7.231
2.422 1.590 7.322
2.969 1.876 7.363
3.520 1.935 7.343
6.522 2.868 7.007
7.043 3.011 7.038
7.669 3.203 7.082
8.209 3.341 7.158
8.805 3.467 7.156
0.760 1.113 6.537
1.257 1.293 6.652
1.853 1.410 6.615
2.478 1.611 6.728
3.087 1.820 6.800
7.651 3.137 6.477
8.290 3.243 6.551
1.338 1.298 6.059
1.952 1.455 6.013
7.807 3.086 4.664
8.392 3.295 4.793
1.549 1.302 4.180
2.123 1.401 4.278
6.711 2.713 3.991
7.233 2.902 4.116
7.901 3.040 4.071
8.399 3.278 4.115
9.046 3.398 4.209
1.041 1.063 3.567
1.579 1.258 3.647
2.157 1.391 3.698
2.742 1.526 3.690
3.312 1.749 3.808
6.139 2.575 3.380
6.731 2.798 3.375
7.339 2.870 3.508
7.955 3.028 3.487
8.485 3.222 3.507
9.087 3.385 3.607
9.631 3.523 3.678
0.443 0.873 2.999
0.996 1.099 2.965
1.536 1.232 2.993
2.138 1.383 3.042
2.740 1.584 3.112
3.262 1.674 3.201
3.893 1.920 3.154
6.210 2.553 2.784
6.772 2.731 2.840
7.365 2.922 2.856
7.975 3.076 2.941
8.553 3.289 2.958
9.090 3.433 3.035
9.726 3.580 3.051
10.222 3.683 3.132
0.463 0.877 2.319
1.021 1.023 2.385
1.661 1.195 2.408
2.184 1.340 2.476
2.781 1.553 2.484
3.369 1.690 2.568
3.887 1.924 2.591
5.702 2.360 2.209
6.282 2.534 2.228
6.816 2.726 2.217
7.486 2.831 2.240
7.967 3.007 2.269
8.564 3.239 2.348
9.148 3.385 2.360
9.709 3.506 2.464
10.349 3.717 2.480
0.516 0.811 1.730
1.186 1.083 1.787
1.754 1.206 1.876
2.268 1.327 1.924
2.882 1.553 1.900
3.349 1.682 1.974
4.019 1.894 1.983
4.612 1.978 1.998
6.374 2.497 1.574
6.859 2.634 1.651
7.465 2.852 1.641
8.051 3.019 1.672
8.587 3.208 1.786
9.232 3.387 1.854
9.779 3.510 1.801
0.617 0.797 1.218
1.132 0.982 1.245
1.787 1.234 1.207
2.306 1.353 1.290
2.847 1.480 1.376
3.497 1.725 1.324
4.081 1.841 1.382
7.011 2.642 1.075
7.523 2.824 1.087
8.054 2.964 1.161
8.664 3.201 1.157
9.197 3.373 1.257
9.835 3.561 1.318
0.601 0.901 0.621
1.241 1.023 0.560
1.777 1.234 0.615
2.359 1.369 0.760
2.934 1.508 0.738
3.544 1.720 0.731
0.230 1.253 12.523
7.128 3.287 12.450
1.460 1.536 12.015
6.614 3.658 9.999
7.201 3.720 9.982
7.705 3.951 10.062
8.349 4.130 10.121
0.385 1.822 9.504
0.962 1.979 9.512
1.504 2.119 9.616
2.069 2.278 9.702
6.070 3.407 9.386
6.718 3.622 9.466
7.281 3.788 9.438
7.858 3.904 9.544
8.452 4.054 9.529
0.314 1.693 8.989
0.955 1.899 8.944
1.481 2.034 9.005
2.072 2.293 9.055
2.608 2.379 9.067
6.198 3.401 8.760
6.762 3.618 8.761
7.311 3.757 8.827
7.909 3.912 8.957
8.454 4.146 8.994
8.961 4.271 8.971
0.477 1.704 8.346
0.993 1.934 8.395
1.617 2.018 8.416
2.130 2.219 8.417
2.759 2.474 8.556
6.207 3.456 8.225
6.777 3.602 8.178
7.299 3.721 8.241
7.930 3.849 8.365
8.481 4.130 8.383
9.088 4.204 8.386
0.529 1.665 7.759
0.983 1.893 7.816
1.614 2.027 7.877
2.203 2.293 7.811
2.794 2.437 7.967
6.233 3.362 7.551
6.775 3.498 7.603
7.452 3.751 7.682
7.910 3.881 7.669
8.509 4.113 7.694
0.460 1.663 7.154
1.043 1.824 7.133
1.607 2.036 7.207
2.253 2.194 7.241
2.835 2.388 7.252
7.497 3.753 7.018
8.078 3.835 7.132
1.109 1.930 6.537
1.713 2.057 6.610
7.713 3.679 4.088
8.302 3.767 4.110
1.428 1.839 3.621
1.927 2.034 3.707
6.647 3.314 3.387
7.174 3.422 3.423
7.696 3.678 3.475
8.319 3.759 3.491
8.888 3.948 3.638
0.889 1.693 3.004
1.409 1.798 3.042
2.014 2.008 3.012
2.515 2.126 3.088
3.134 2.254 3.170
6.604 3.354 2.822
7.266 3.402 2.807
7.754 3.586 2.939
8.415 3.781 2.896
8.982 3.902 2.948
9.475 4.129 3.051
0.354 1.433 2.324
0.939 1.629 2.391
1.445 1.743 2.396
2.008 2.007 2.465
2.690 2.154 2.494
3.237 2.310 2.601
6.629 3.340 2.242
7.281 3.488 2.235
7.777 3.556 2.325
8.461 3.816 2.368
9.034 3.939 2.392
9.590 4.140 2.436
0.429 1.457 1.678
0.955 1.643 1.759
1.571 1.766 1.872
2.062 1.962 1.805
2.683 2.098 1.951
3.261 2.225 1.958
6.717 3.232 1.638
7.249 3.480 1.710
7.863 3.647 1.677
8.477 3.782 1.781
8.963 3.977 1.822
1.026 1.557 1.181
1.601 1.710 1.167
2.188 1.953 1.268
2.713 2.065 1.368
3.290 2.206 1.411
7.337 3.454 1.113
7.876 3.620 1.111
8.503 3.698 1.181
9.096 3.940 1.236
1.056 1.551 0.558
1.597 1.804 0.596
2.235 1.889 0.653
2.809 2.083 0.778
7.079 4.352 10.045
1.261 2.727 9.638
6.542 4.173 9.406
7.141 4.338 9.457
7.707 4.538 9.444
8.254 4.727 9.566
0.259 2.290 8.951
0.775 2.504 8.949
1.348 2.614 9.050
1.972 2.794 9.041
6.035 3.940 8.780
6.543 4.111 8.739
7.076 4.348 8.794
7.700 4.482 8.899
8.333 4.662 8.858
0.267 2.257 8.321
0.843 2.490 8.379
1.460 2.596 8.403
2.025 2.830 8.385
2.491 2.993 8.473
6.642 4.119 8.225
7.227 4.262 8.181
7.794 4.498 8.293
8.360 4.638 8.343
0.303 2.243 7.740
0.921 2.463 7.789
1.438 2.637 7.850
2.011 2.832 7.806
6.616 4.172 7.580
7.195 4.350 7.572
7.832 4.419 7.656
0.928 2.474 7.177
1.527 2.628 7.195
2.046 2.751 7.201
7.033 4.040 3.477
7.500 4.235 3.480
8.089 4.330 3.519
1.309 2.305 2.949
1.802 2.579 3.027
2.366 2.694 3.051
7.042 4.049 2.836
7.587 4.229 2.883
8.124 4.365 2.927
8.705 4.558 3.004
0.715 2.211 2.305
1.304 2.388 2.439
1.888 2.588 2.434
2.493 2.742 2.464
6.551 3.856 2.167
7.028 4.017 2.240
7.632 4.137 2.226
8.191 4.316 2.357
8.758 4.496 2.398
0.756 2.173 1.703
