4.514 7.083 1.020
5.323 7.049 1.157
5.799 6.900 1.308
6.404 6.944 1.297
7.099 6.935 1.332
7.461 6.754 1.545
8.171 6.835 1.619
8.688 6.690 1.678
9.380 6.691 1.818
9.923 6.586 1.809
10.632 6.487 2.070
11.082 6.358 1.905
11.828 6.285 2.151
12.158 6.170 2.231
1.167 7.538 0.340
1.835 7.472 0.418
1.524 6.977 0.758
2.235 6.856 0.807
2.885 6.785 1.116
3.431 6.648 0.942
3.943 6.685 1.315
4.642 6.524 1.163
5.096 6.667 1.367
5.675 6.457 1.493
6.296 6.339 1.493
7.002 6.357 1.752
7.454 6.422 1.801
7.951 6.100 1.922
8.567 6.143 2.027
9.219 6.034 1.999
9.776 5.888 2.142
10.522 5.937 2.115
10.991 5.797 2.168
11.536 5.715 2.417
12.121 5.751 2.338
1.149 6.979 0.646
1.666 7.063 0.748
2.701 6.250 1.224
3.330 6.275 1.257
3.776 6.117 1.409
4.516 5.966 1.545
5.058 5.930 1.634
5.542 6.067 1.714
6.203 5.960 1.872
9.235 5.616 2.228
9.603 5.523 2.399
10.286 5.441 2.486
10.951 5.230 2.625
11.481 5.161 2.593
12.133 5.231 2.637
3.123 5.626 1.679
3.756 5.541 1.629
4.303 5.598 1.660
4.939 5.603 1.813
5.464 5.314 1.902
9.687 4.998 2.689
10.359 4.903 2.566
10.826 4.904 2.742
11.299 4.636 2.892
12.011 4.785 3.011
3.561 5.160 1.959
4.343 5.110 2.089
4.726 4.842 2.079
5.485 4.943 2.198
9.405 4.286 2.782
10.023 4.229 2.975
10.779 4.184 3.035
11.188 4.100 3.027
3.421 4.534 2.273
4.027 4.484 2.230
4.705 4.344 2.262
5.305 4.281 2.449
9.365 3.956 3.158
9.970 3.745 3.073
10.479 3.671 3.298
11.171 3.780 3.291
2.884 4.017 2.393
3.489 3.990 2.298
3.997 3.855 2.582
4.508 3.800 2.656
5.357 3.817 2.841
9.284 3.433 3.240
9.900 3.353 3.402
10.460 3.129 3.499
11.003 3.024 3.613
11.613 3.116 3.656
2.250 3.614 2.440
2.705 3.613 2.626
3.242 3.424 2.683
3.892 3.387 2.753
4.484 3.328 2.835
5.135 3.341 2.947
5.583 3.191 2.932
8.754 2.741 3.427
9.353 2.775 3.705
9.802 2.719 3.830
10.456 2.564 3.722
10.901 2.614 3.805
11.449 2.496 4.028
12.195 2.499 4.062
0.917 3.244 2.555
1.504 3.129 2.753
2.087 3.048 2.778
2.793 3.088 2.806
3.395 2.985 2.959
3.920 2.959 3.014
4.406 2.801 3.083
5.019 2.792 3.166
5.545 2.812 3.248
6.159 2.567 3.480
6.785 2.595 3.479
7.507 2.392 3.577
7.846 2.511 3.577
8.426 2.430 3.693
9.250 2.362 3.765
9.579 2.316 3.834
10.208 2.268 4.130
10.904 2.209 4.057
11.432 2.004 4.199
12.014 1.992 4.301
0.408 3.419 2.470
0.920 3.206 2.593
0.873 2.620 2.780
1.291 2.525 2.846
2.051 2.460 3.041
2.676 2.387 3.154
3.154 2.398 3.155
3.780 2.488 3.160
4.449 2.248 3.369
4.943 2.279 3.550
5.561 2.211 3.441
6.071 2.117 3.773
6.566 1.994 3.676
7.176 2.085 3.933
7.726 1.883 3.866
8.374 1.679 4.016
8.984 1.754 3.986
9.607 1.658 4.193
10.191 1.558 4.173
10.771 1.555 4.371
11.436 1.500 4.340
11.929 1.328 4.474
0.176 2.684 2.637
0.837 2.648 2.930
0.593 2.266 3.164
1.182 2.166 3.277
1.919 1.909 3.220
2.579 2.050 3.419
3.021 1.894 3.479
3.735 1.844 3.552
4.279 1.872 3.544
4.886 1.604 3.816
5.313 1.558 3.704
6.096 1.455 3.954
6.688 1.598 4.045
7.307 1.459 4.005
7.707 1.433 4.065
8.313 1.173 4.192
9.048 1.299 4.243
9.601 1.058 4.557
10.213 1.068 4.666
10.768 0.875 4.721
11.181 0.917 4.729
11.938 0.937 4.722
0.149 2.084 2.873
0.652 2.145 3.205
0.475 1.546 3.314
1.170 1.677 3.464
1.640 1.466 3.459
2.369 1.454 3.730
2.814 1.444 3.771
3.614 1.166 3.647
4.123 1.329 3.779
4.608 1.130 4.079
5.288 1.097 4.091
5.807 0.918 4.240
6.442 0.900 4.107
7.031 0.814 4.269
7.644 0.777 4.359
8.129 0.878 4.541
8.948 0.618 4.721
9.430 0.717 4.697
9.986 0.607 4.912
10.704 0.514 5.019
11.312 0.407 4.896
11.761 0.423 4.964
-0.081 1.753 3.345
0.564 1.515 3.298
11.789 10.812 0.074
12.583 10.643 0.210
10.564 10.380 0.015
11.259 10.138 0.151
11.831 10.243 0.168
12.527 10.058 0.278
10.433 9.793 0.227
11.034 9.730 0.436
11.782 9.490 0.527
12.334 9.465 0.510
12.288 9.231 -0.020
10.564 8.902 0.112
11.070 8.886 0.111
11.543 8.870 0.218
12.193 8.680 0.395
9.796 8.590 0.224
10.265 8.356 0.320
10.896 8.250 0.457
11.616 8.188 0.525
12.238 8.295 0.521
6.701 8.319 -0.045
7.357 8.182 0.136
9.070 7.935 0.277
9.685 7.956 0.467
10.370 7.980 0.508
10.906 7.748 0.692
11.364 7.683 0.640
11.924 7.719 0.781
5.559 7.955 0.040
6.168 7.757 0.162
6.604 7.739 0.324
7.236 7.680 0.332
7.842 7.750 0.357
8.345 7.603 0.427
8.971 7.448 0.744
9.529 7.447 0.813
10.190 7.265 0.905
10.836 7.347 1.008
11.308 7.327 0.969
12.081 7.081 0.987
12.402 7.011 1.229
3.680 7.559 0.022
4.121 7.523 0.047
4.877 7.515 0.205
5.435 7.480 0.439
5.993 7.375 0.362
6.557 7.340 0.575
7.102 7.217 0.529
7.622 7.083 0.644
8.297 7.037 0.648
9.014 7.036 0.857
9.416 6.955 1.050
10.177 6.952 0.936
10.544 6.806 1.241
11.130 6.815 1.177
11.842 6.618 1.347
12.432 6.536 1.556
1.821 7.143 0.158
2.468 7.082 0.032
2.860 7.073 0.194
3.397 7.103 0.212
4.002 6.977 0.262
4.728 6.916 0.381
5.351 6.824 0.509
5.786 6.620 0.695
6.406 6.712 0.740
6.995 6.494 0.728
7.685 6.458 1.013
8.278 6.418 0.978
8.757 6.489 1.076
9.331 6.483 1.126
9.943 6.262 1.443
10.706 6.171 1.291
11.222 6.252 1.565
11.644 6.067 1.456
12.204 6.080 1.717
1.692 7.185 -0.032
1.695 6.605 0.310
2.201 6.740 0.498
2.701 6.616 0.510
3.309 6.476 0.563
4.025 6.485 0.743
4.607 6.237 0.822
5.255 6.409 0.938
5.783 6.145 0.792
6.463 6.236 1.014
6.958 5.948 0.977
7.614 6.142 1.066
8.088 5.833 1.220
8.684 5.986 1.410
9.359 5.877 1.498
9.847 5.751 1.605
10.366 5.676 1.694
11.071 5.499 1.628
11.571 5.448 1.860
12.336 5.344 1.913
1.081 6.861 0.122
1.567 6.590 0.382
2.824 6.016 0.798
3.364 6.044 0.752
3.955 5.862 0.762
4.628 5.953 0.883
5.159 5.838 1.106
5.590 5.674 1.145
6.193 5.690 1.228
9.259 5.306 1.792
9.781 5.284 1.832
10.353 5.060 1.908
11.056 5.215 1.870
11.441 5.156 2.029
12.053 4.897 2.170
3.153 5.414 1.028
3.949 5.423 1.132
4.368 5.362 1.166
5.079 5.263 1.191
5.505 5.156 1.396
9.745 4.644 2.121
10.303 4.739 2.275
10.808 4.424 2.154
11.325 4.429 2.212
12.174 4.488 2.403
3.634 4.926 1.468
4.206 4.830 1.566
4.901 4.810 1.511
5.393 4.696 1.748
9.682 4.093 2.288
10.233 3.957 2.321
10.846 4.018 2.540
11.270 3.941 2.698
3.635 4.374 1.748
4.276 4.327 1.815
4.774 4.087 1.900
5.418 4.031 1.845
9.516 3.755 2.466
10.133 3.662 2.729
10.555 3.619 2.849
11.220 3.503 2.712
2.820 3.730 1.852
3.596 3.718 1.981
4.176 3.760 1.850
4.808 3.494 2.190
5.313 3.534 2.161
9.395 3.019 2.897
9.862 2.933 2.838
10.528 2.955 3.103
11.267 2.822 3.076
11.664 2.883 3.188
2.238 3.398 2.056
2.733 3.185 2.067
3.420 3.224 2.212
4.045 3.024 2.335
4.618 3.018 2.396
5.256 3.103 2.446
5.895 2.840 2.617
8.828 2.630 2.962
9.300 2.573 3.155
9.783 2.398 3.268
10.473 2.282 3.160
11.058 2.379 3.224
11.559 2.411 3.475
12.239 2.272 3.419
0.932 2.856 2.123
1.443 2.787 2.144
2.218 2.722 2.087
2.738 2.833 2.397
3.201 2.825 2.491
3.879 2.698 2.555
4.433 2.471 2.686
5.145 2.404 2.618
5.758 2.455 2.805
6.224 2.378 2.788
6.833 2.307 3.012
7.363 2.356 3.133
8.040 2.037 3.208
8.604 2.053 3.265
9.310 1.947 3.385
9.859 2.021 3.509
10.405 1.896 3.521
11.042 1.793 3.544
11.646 1.607 3.622
12.044 1.654 3.859
0.323 3.098 1.814
0.821 3.045 1.970
0.812 2.525 2.231
1.515 2.447 2.372
2.152 2.259 2.509
2.630 2.288 2.621
3.184 2.297 2.760
3.911 2.123 2.795
4.503 2.036 2.837
5.031 1.947 2.964
5.639 1.797 3.120
6.169 1.758 3.183
6.649 1.863 3.334
7.203 1.824 3.342
7.796 1.712 3.296
8.488 1.596 3.454
9.081 1.443 3.551
9.653 1.390 3.587
10.179 1.284 3.665
10.713 1.373 3.884
11.312 1.136 3.879
11.941 1.173 4.026
0.198 2.550 2.176
0.881 2.405 2.178
0.749 1.864 2.624
1.460 1.905 2.719
1.845 1.639 2.587
2.394 1.550 2.898
3.247 1.509 2.813
3.666 1.556 2.955
4.198 1.533 2.999
4.826 1.288 3.247
5.341 1.294 3.384
5.981 1.385 3.245
6.765 1.209 3.522
7.303 1.117 3.455
7.727 1.021 3.677
8.432 0.912 3.641
8.849 1.007 3.745
9.584 0.797 3.947
10.114 0.952 4.121
10.622 0.667 4.127
11.272 0.789 4.148
11.979 0.516 4.330
0.172 1.986 2.391
0.831 1.802 2.491
0.564 1.382 2.819
1.263 1.250 2.951
1.784 1.260 2.863
2.301 1.093 3.064
2.912 1.104 3.256
3.685 1.116 3.251
4.153 0.839 3.261
4.806 0.982 3.446
5.232 0.910 3.429
5.861 0.767 3.511
6.495 0.633 3.633
7.007 0.734 3.666
7.768 0.667 3.820
8.290 0.556 3.852
8.978 0.537 4.022
9.475 0.419 4.148
10.118 0.191 4.279
10.725 0.298 4.293
11.145 0.245 4.558
11.716 -0.057 4.397
0.128 1.520 2.562
0.558 1.417 2.913
12.343 9.344 0.170
12.117 7.829 -0.035
10.327 7.714 -0.090
10.853 7.568 0.018
11.583 7.394 0.271
12.100 7.538 0.203
9.198 7.362 0.119
9.672 7.250 0.158
10.351 7.179 0.229
10.925 7.049 0.381
11.492 6.991 0.488
12.145 6.960 0.679
7.096 6.810 0.005
7.856 6.878 0.216
8.272 6.870 0.333
8.883 6.588 0.446
9.547 6.558 0.412
10.109 6.657 0.651
10.866 6.566 0.477
11.288 6.354 0.670
11.814 6.259 0.846
12.509 6.348 0.764
5.440 6.654 -0.074
5.880 6.377 0.160
6.493 6.512 0.133
7.135 6.416 0.234
7.774 6.175 0.477
8.166 6.365 0.404
9.004 6.174 0.584
9.360 6.081 0.774
10.157 6.000 0.833
10.694 5.982 0.742
11.332 5.811 0.855
11.736 5.923 0.974
12.484 5.731 1.195
3.420 6.220 -0.069
4.057 6.244 0.163
4.774 6.071 0.176
5.260 5.942 0.307
5.963 5.846 0.344
6.501 5.841 0.413
6.875 5.844 0.700
8.639 5.672 0.839
9.420 5.469 1.014
10.032 5.449 0.933
10.426 5.284 1.130
11.035 5.213 1.281
11.595 5.388 1.230
12.229 5.340 1.457
3.401 5.674 0.368
3.952 5.671 0.283
4.470 5.528 0.342
5.099 5.535 0.616
5.769 5.508 0.740
6.179 5.491 0.708
9.273 5.129 1.231
9.712 4.980 1.277
10.360 4.806 1.459
10.921 4.848 1.547
11.729 4.724 1.511
12.071 4.572 1.763
3.943 5.214 0.667
4.319 4.995 0.703
5.077 4.953 0.772
5.734 4.814 0.989
9.673 4.298 1.509
10.297 4.338 1.557
10.909 4.290 1.749
11.520 4.094 1.942
4.310 4.449 0.967
4.840 4.523 1.039
10.118 3.800 1.933
10.855 3.782 2.061
4.148 4.059 1.181
4.783 4.028 1.310
10.177 3.240 2.194
10.580 3.110 2.134
3.585 3.516 1.247
4.156 3.362 1.468
4.761 3.444 1.460
5.345 3.307 1.658
9.569 2.915 2.378
10.128 2.653 2.277
10.692 2.812 2.547
11.324 2.699 2.504
2.909 3.017 1.410
3.569 2.984 1.619
3.950 2.945 1.723
4.525 2.959 1.726
5.328 2.879 1.759
5.726 2.696 2.078
8.727 2.246 2.562
9.293 2.427 2.497
10.050 2.177 2.573
10.472 2.066 2.688
11.002 2.035 2.787
11.608 1.920 2.960
2.117 2.677 1.646
2.806 2.591 1.806
3.449 2.511 1.864
3.814 2.441 1.978
4.677 2.200 2.029
5.082 2.155 2.020
5.674 2.286 2.312
6.302 1.982 2.438
8.107 1.756 2.639
8.775 1.926 2.801
9.167 1.690 2.648
9.962 1.556 2.817
10.361 1.539 2.843
11.105 1.677 3.022
11.573 1.606 3.271
12.272 1.509 3.348
1.039 2.085 1.669
1.631 1.976 1.848
2.051 1.984 1.833
2.765 2.017 2.043
3.388 1.767 2.212
3.721 1.828 2.107
4.316 1.849 2.288
5.021 1.790 2.401
5.752 1.524 2.393
6.181 1.474 2.696
6.800 1.539 2.599
7.424 1.512 2.671
8.071 1.347 2.759
8.497 1.332 2.881
9.198 1.181 3.044
9.663 1.137 3.131
10.280 1.060 3.189
11.029 1.024 3.304
11.556 0.885 3.323
12.059 0.979 3.458
0.218 2.139 1.552
0.864 2.296 1.678
0.755 1.701 1.868
1.450 1.530 2.056
1.860 1.505 2.129
2.493 1.472 2.281
3.084 1.309 2.352
3.794 1.391 2.382
4.245 1.190 2.482
4.991 1.069 2.536
5.512 1.217 2.732
6.168 1.102 2.898
6.785 1.031 3.061
7.256 0.957 2.991
7.816 0.806 3.172
8.393 0.876 3.250
9.058 0.813 3.281
9.727 0.549 3.520
10.103 0.672 3.570
10.661 0.380 3.557
11.525 0.535 3.633
11.947 0.234 3.664
0.116 1.683 1.804
0.810 1.767 2.096
1.368 1.083 2.480
1.953 0.955 2.318
2.606 0.958 2.405
3.065 0.893 2.715
3.571 0.741 2.596
4.229 0.755 2.901
4.929 0.517 3.030
5.532 0.570 2.859
5.953 0.385 3.171
7.835 0.176 3.218
8.265 0.329 3.554
9.055 0.244 3.600
9.646 0.073 3.567
10.096 0.159 3.721
0.075 1.284 2.123
12.039 6.631 -0.053
10.816 6.337 0.172
11.449 6.223 0.268
11.832 6.080 0.354
12.679 5.920 0.422
9.630 5.810 0.254
10.098 5.770 0.249
10.707 5.777 0.320
11.279 5.693 0.415
11.841 5.564 0.560
12.430 5.494 0.517
9.315 5.335 0.266
10.105 5.233 0.588
10.653 5.271 0.627
11.123 5.197 0.701
11.888 5.105 0.629
12.451 4.840 0.830
5.166 5.135 -0.094
5.809 5.300 0.088
9.914 4.593 0.759
10.363 4.760 0.844
11.097 4.663 0.982
11.655 4.484 1.109
3.617 2.667 0.969
4.177 2.619 1.082
4.617 2.614 1.307
5.230 2.628 1.400
9.355 2.126 1.985
9.847 1.979 2.112
10.525 1.911 2.110
11.107 1.763 2.332
2.781 2.320 1.117
3.315 2.117 1.370
3.964 1.979 1.317
4.486 2.086 1.422
5.275 1.917 1.717
5.783 1.995 1.757
8.683 1.463 2.018
9.359 1.402 2.362
10.003 1.494 2.442
10.554 1.467 2.368
10.914 1.364 2.392
11.765 1.160 2.706
2.040 1.756 1.530
2.701 1.634 1.384
3.454 1.622 1.703
3.950 1.680 1.609
4.400 1.462 1.889
4.959 1.504 1.835
5.793 1.396 1.995
8.511 1.148 2.290
9.294 0.865 2.638
9.680 1.011 2.521
10.290 0.759 2.771
11.004 0.864 2.893
11.420 0.587 2.948
12.145 0.570 3.047
2.122 1.182 1.597
2.735 1.139 1.807
3.270 1.230 1.803
3.902 1.137 1.795
4.432 0.885 2.158
5.082 0.867 2.217
5.696 0.838 2.323
8.474 0.499 2.729
9.156 0.319 2.652
9.773 0.401 2.879
10.242 0.261 2.959
10.737 0.279 2.944
11.391 0.239 3.057
12.073 0.217 3.354
2.601 0.722 2.084
3.241 0.623 2.047
3.723 0.398 2.160
4.350 0.349 2.360
5.003 0.223 2.283
5.553 0.232 2.473
12.596 5.367 0.015
10.607 4.864 0.142
11.324 4.714 0.243
11.679 4.814 0.289
3.489 1.939 0.895
3.977 1.801 1.022
4.521 1.868 0.893
5.286 1.570 0.936
9.257 1.157 1.834
9.833 1.173 1.760
10.428 1.228 1.969
11.081 1.004 2.051
2.722 1.450 1.043
3.313 1.396 1.144
3.866 1.312 1.262
4.521 1.095 1.116
5.205 1.248 1.425
9.214 0.606 1.960
9.806 0.595 2.173
10.397 0.545 2.177
11.018 0.405 2.242
11.602 0.402 2.403
2.778 0.898 1.078
3.311 0.752 1.158
3.979 0.850 1.355
4.481 0.568 1.518
5.074 0.574 1.460
9.071 0.242 2.180
9.827 0.131 2.398
10.429 0.040 2.271
2.480 0.258 1.469
3.054 0.253 1.450
3.687 0.180 1.603
4.441 0.178 1.671
4.895 0.043 1.738
4.180 1.627 0.388
4.760 1.461 0.461
9.854 0.907 1.195
10.594 0.931 1.458
3.353 0.984 0.636
3.938 1.147 0.504
4.596 0.922 0.732
5.198 0.879 0.785
9.406 0.332 1.319
9.935 0.269 1.393
10.371 0.428 1.552
11.058 0.168 1.738
3.271 0.673 0.783
4.014 0.419 0.782
4.525 0.466 1.048
5.153 0.290 1.041
3.239 0.112 0.890
10.052 0.548 0.705
10.597 0.663 0.842
4.016 0.692 0.185
4.780 0.647 0.130
5.176 0.736 0.196
9.376 0.252 0.846
9.994 0.131 0.903
10.426 0.042 1.063
3.422 0.295 0.154
4.019 0.233 0.354
4.670 0.060 0.356
5.165 0.047 0.614
3.746 12.404 7.682
4.244 12.428 7.762
4.690 12.310 7.862
9.963 11.666 8.639
10.707 11.710 8.652
11.137 11.567 8.910
2.874 12.078 7.747
3.494 11.931 7.955
4.053 11.920 7.969
4.638 11.694 8.177
5.233 11.881 8.141
9.300 11.291 8.726
10.060 11.238 8.968
10.687 11.212 9.029
11.143 11.034 9.119
11.636 11.152 9.243
2.778 11.496 8.097
3.296 11.302 8.238
3.964 11.277 8.190
4.628 11.328 8.276
5.134 11.091 8.389
9.309 10.699 9.164
9.770 10.816 9.077
10.325 10.530 9.139
11.152 10.634 9.441
11.541 10.569 9.403
2.729 11.005 8.307
3.436 10.956 8.473
3.889 10.805 8.476
4.605 10.797 8.479
5.196 10.576 8.610
9.112 10.228 9.426
9.897 10.215 9.294
10.286 10.199 9.461
10.968 10.061 9.577
11.603 9.885 9.670
3.099 10.498 8.739
3.847 10.391 8.823
4.512 10.357 8.781
5.013 10.141 8.909
8.987 9.735 9.532
9.695 9.708 9.773
10.146 9.500 9.684
10.792 9.589 9.947
2.639 6.489 10.391
3.078 6.541 10.466
3.604 6.421 10.627
4.192 6.559 10.768
8.475 5.944 11.449
9.088 5.883 11.502
9.675 5.854 11.552
10.010 5.828 11.555
1.855 6.040 10.578
2.306 6.149 10.606
3.131 6.087 10.826
3.640 5.931 10.872
4.075 5.810 10.955
8.324 5.423 11.574
8.841 5.312 11.565
9.560 5.381 11.748
10.094 5.305 11.762
10.506 5.174 11.839
1.659 5.627 10.850
2.217 5.475 11.029
2.775 5.446 10.943
3.481 5.486 11.093
4.072 5.452 11.223
8.236 4.906 11.709
8.703 4.696 11.803
9.419 4.851 12.173
9.851 4.600 12.256
10.468 4.545 12.108
1.610 5.165 11.202
2.283 4.942 11.184
2.868 5.057 11.184
3.360 4.922 11.260
3.934 4.858 11.460
8.129 4.249 12.153
8.651 4.402 12.275
9.371 4.228 12.321
9.777 4.266 12.272
10.531 4.051 12.381
10.182 12.039 7.842
10.903 12.017 7.977
2.943 12.383 7.142
3.757 12.363 7.155
4.301 12.164 7.273
4.774 11.986 7.306
5.390 12.040 7.264
9.530 11.634 7.913
10.097 11.355 8.167
10.797 11.561 8.272
11.301 11.403 8.212
11.808 11.403 8.487
3.066 11.706 7.351
3.694 11.686 7.495
4.045 11.655 7.403
4.655 11.658 7.429
5.249 11.466 7.792
5.931 11.527 7.632
8.803 11.093 8.156
9.414 10.913 8.365
9.930 10.979 8.450
10.642 10.756 8.541
11.136 10.778 8.601
11.916 10.700 8.548
2.366 11.172 7.491
2.765 11.146 7.535
3.437 11.167 7.627
4.034 11.173 7.845
4.620 10.929 7.744
5.253 11.005 8.028
5.687 10.837 8.091
8.757 10.624 8.388
9.361 10.576 8.575
10.054 10.298 8.587
10.436 10.440 8.756
10.966 10.212 8.692
11.772 10.240 8.902
12.200 10.272 8.916
2.319 10.735 7.670
2.842 10.629 7.809
3.442 10.602 7.968
4.069 10.583 7.931
4.558 10.541 8.203
5.181 10.509 8.085
5.604 10.467 8.275
8.738 10.115 8.726
9.258 9.849 8.723
9.954 9.843 8.923
10.316 9.728 9.010
10.897 9.832 9.000
11.669 9.827 9.198
12.262 9.559 9.136
2.782 10.133 7.985
3.122 10.131 8.171
3.751 9.968 8.211
4.410 10.088 8.383
5.129 9.910 8.451
5.538 9.853 8.423
8.431 9.584 9.053
9.149 9.463 8.983
9.658 9.468 9.109
10.252 9.313 9.350
10.863 9.104 9.185
11.528 9.047 9.467
3.217 9.485 8.372
3.804 9.630 8.370
4.391 9.484 8.618
4.883 9.375 8.669
9.101 8.915 9.342
9.736 8.877 9.409
10.228 8.894 9.472
10.761 8.594 9.493
2.595 6.970 9.775
3.332 6.843 9.724
3.733 6.842 9.858
4.306 6.669 9.808
8.577 6.314 10.439
9.118 6.185 10.691
9.835 6.210 10.879
10.192 6.019 10.952
2.100 6.436 9.923
2.575 6.499 9.956
3.097 6.377 10.115
3.638 6.272 10.143
4.433 6.188 10.213
4.950 6.218 10.247
7.952 5.673 10.712
8.396 5.626 10.915
9.127 5.705 10.892
9.631 5.643 10.992
10.248 5.439 11.110
10.784 5.497 11.102
1.167 5.957 9.989
1.990 5.785 9.935
2.536 5.834 10.070
2.974 5.692 10.115
3.499 5.583 10.265
4.135 5.762 10.362
4.795 5.603 10.416
7.846 5.124 11.073
8.340 5.031 10.952
8.945 5.011 11.272
9.620 5.007 11.168
10.191 4.936 11.272
10.550 5.001 11.312
11.369 4.945 11.559
1.119 5.319 10.122
1.895 5.269 10.313
2.429 5.191 10.420
2.832 5.096 10.518
3.602 5.192 10.443
4.073 5.040 10.576
4.644 5.135 10.845
7.717 4.561 11.354
8.265 4.704 11.241
8.941 4.644 11.482
9.403 4.433 11.415
10.010 4.356 11.464
10.638 4.480 11.673
11.253 4.301 11.634
1.545 4.754 10.640
2.129 4.686 10.691
2.744 4.785 10.719
3.401 4.607 10.703
4.084 4.683 11.056
4.743 4.598 10.991
7.608 4.175 11.514
8.207 3.996 11.432
8.734 4.074 11.745
9.180 4.031 11.677
9.899 3.873 11.913
10.581 3.695 11.967
10.263 12.388 7.000
10.890 12.272 7.267
11.535 12.044 7.334
3.884 12.405 6.236
4.309 12.368 6.476
5.079 12.406 6.588
5.625 12.409 6.628
9.669 11.891 7.134
10.255 11.669 7.372
10.801 11.755 7.320
11.491 11.736 7.444
12.008 11.529 7.721
2.636 11.979 6.429
3.039 12.088 6.486
3.780 11.867 6.658
4.272 11.959 6.786
4.879 11.777 6.674
5.515 11.905 6.965
5.990 11.774 6.872
8.871 11.279 7.499
9.712 11.379 7.483
10.284 11.111 7.542
10.692 11.290 7.727
11.360 11.202 7.883
11.802 10.992 7.745
12.607 10.862 8.022
1.922 11.607 6.593
2.541 11.500 6.584
3.013 11.558 6.861
3.566 11.420 6.849
4.111 11.344 6.873
4.766 11.383 7.081
5.473 11.204 7.190
6.027 11.064 7.200
6.659 11.062 7.382
8.320 11.010 7.626
8.921 10.716 7.640
9.446 10.775 7.662
10.072 10.800 7.877
10.800 10.516 7.905
11.373 10.442 7.900
11.762 10.516 8.208
12.507 10.549 8.308
0.548 11.635 6.515
1.180 11.149 6.834
1.626 10.967 6.826
2.326 11.047 6.932
3.002 10.866 6.866
3.461 10.970 6.995
4.017 10.704 7.073
4.767 10.829 7.390
5.304 10.806 7.279
5.992 10.575 7.433
6.337 10.644 7.567
7.135 10.598 7.642
7.706 10.402 7.676
8.207 10.464 7.832
8.684 10.189 8.012
9.518 10.155 8.105
10.078 10.173 8.000
10.651 9.997 8.097
11.156 10.166 8.401
11.856 10.000 8.390
12.455 10.030 8.393
0.472 11.207 6.663
1.207 11.107 6.588
0.987 10.722 6.869
1.785 10.465 7.038
2.293 10.590 7.096
2.739 10.387 7.350
3.326 10.276 7.279
3.942 10.177 7.321
4.619 10.142 7.587
5.165 10.046 7.513
5.747 10.179 7.806
6.237 10.004 7.783
7.017 9.933 7.858
7.389 10.002 8.098
7.987 9.718 8.086
8.591 9.728 8.101
9.359 9.685 8.198
9.798 9.520 8.344
10.370 9.476 8.546
10.924 9.423 8.668
11.670 9.358 8.712
12.329 9.451 8.697
0.355 10.664 6.864
1.143 10.602 6.991
2.152 10.034 7.304
2.707 9.932 7.570
3.223 9.909 7.473
3.828 9.796 7.742
4.498 9.746 7.684
5.117 9.721 7.767
5.714 9.697 7.922
6.355 9.485 8.171
7.945 9.411 8.222
8.569 9.152 8.442
9.167 9.080 8.501
9.700 9.034 8.547
10.340 9.040 8.712
10.887 9.001 8.682
11.633 8.783 8.834
12.102 8.937 8.973
2.746 9.340 7.752
3.353 9.224 7.773
3.859 9.151 8.073
4.275 9.146 8.164
4.954 9.175 8.225
5.446 9.000 8.355
8.521 8.647 8.722
9.122 8.743 8.701
9.757 8.662 8.973
10.344 8.542 9.070
10.971 8.543 9.074
11.322 8.286 9.093
3.046 8.736 8.071
3.633 8.770 8.137
4.366 8.507 8.409
4.971 8.637 8.269
9.038 8.135 8.982
9.627 8.024 9.083
10.258 7.937 9.172
10.790 7.965 9.405
3.684 8.252 8.528
4.178 8.107 8.628
9.454 7.519 9.484
10.143 7.291 9.337
3.517 7.496 8.730
4.158 7.556 8.652
9.378 6.886 9.600
10.075 6.963 9.680
2.684 7.068 8.916
3.514 7.222 9.080
4.062 7.129 8.996
4.586 6.952 9.201
8.584 6.626 9.819
9.352 6.555 9.990
9.804 6.339 9.907
10.583 6.430 9.935
2.172 6.759 8.924
2.697 6.725 9.104
3.251 6.641 9.272
3.827 6.559 9.333
4.512 6.419 9.413
5.175 6.489 9.538
8.134 6.125 9.851
8.625 5.912 10.004
9.188 5.918 10.057
9.838 5.943 10.330
10.488 5.729 10.205
10.895 5.623 10.362
1.455 6.104 9.283
1.887 6.288 9.376
2.514 5.976 9.294
3.081 6.049 9.414
3.925 5.834 9.633
4.284 5.891 9.711
4.943 5.823 9.864
5.689 5.812 9.856
7.345 5.626 10.032
7.849 5.585 10.314
8.397 5.416 10.295
9.110 5.237 10.462
9.565 5.376 10.547
10.324 5.234 10.561
10.703 5.054 10.529
11.409 5.023 10.599
0.190 5.699 9.357
0.784 5.878 9.425
1.412 5.720 9.521
1.997 5.621 9.459
2.551 5.551 9.717
3.198 5.437 9.753
3.725 5.384 9.857
4.208 5.256 9.913
4.885 5.258 9.986
5.337 5.291 10.156
6.033 5.139 10.190
6.638 4.964 10.380
7.110 5.008 10.446
7.912 5.053 10.572
8.489 4.881 10.432
9.079 4.929 10.560
9.450 4.816 10.725
10.061 4.736 10.725
10.634 4.639 10.789
11.369 4.560 10.926
0.099 5.830 9.323
0.084 5.219 9.612
0.566 5.323 9.678
1.300 5.064 9.734
1.927 5.042 9.716
2.276 4.957 9.986
3.126 4.934 9.923
3.463 5.018 10.030
4.073 4.905 10.124
4.812 4.882 10.109
5.335 4.697 10.323
5.920 4.676 10.310
6.485 4.541 10.470
7.148 4.452 10.633
7.598 4.348 10.810
8.245 4.421 10.732
8.778 4.349 10.952
9.527 4.352 11.065
9.917 4.085 11.008
10.621 4.043 11.218
11.084 3.961 11.171
-0.060 5.198 9.378
0.548 4.748 9.773
1.100 4.590 9.794
1.818 4.559 9.972
2.268 4.519 10.185
2.947 4.438 10.304
3.370 4.379 10.260
4.055 4.336 10.250
4.672 4.186 10.586
5.371 4.203 10.674
7.035 3.833 10.982
7.648 3.967 11.059
8.092 3.704 11.051
8.761 3.812 10.987
9.233 3.788 11.305
9.953 3.562 11.211
10.475 3.518 11.432
11.208 3.527 11.479
11.195 12.547 6.270
11.844 12.360 6.438
9.796 12.153 6.507
10.498 12.085 6.496
11.051 12.100 6.747
11.703 11.786 6.609
3.181 12.243 5.792
3.964 12.232 5.726
4.510 12.302 5.913
5.066 12.176 5.877
5.612 12.153 6.127
6.309 12.051 6.211
9.187 11.517 6.528
9.612 11.558 6.723
10.339 11.368 6.949
10.968 11.482 7.017
11.573 11.347 6.870
12.222 11.184 7.095
2.691 11.970 5.997
3.245 11.829 5.931
3.758 11.794 5.939
4.290 11.714 6.194
4.952 11.591 6.188
5.459 11.447 6.288
6.151 11.408 6.309
6.618 11.477 6.396
8.549 11.231 6.832
8.918 11.136 6.884
9.542 11.168 6.955
10.198 11.049 6.997
10.714 10.786 7.166
11.277 10.959 7.225
12.034 10.703 7.287
1.283 11.402 6.007
1.902 11.427 5.988
2.491 11.221 6.002
3.072 11.119 6.276
3.654 11.285 6.428
4.280 11.156 6.387
4.767 11.135 6.367
5.537 10.881 6.628
5.917 10.877 6.704
6.709 10.851 6.746
7.224 10.715 6.885
7.643 10.692 6.930
8.291 10.569 7.134
9.069 10.703 7.152
9.534 10.377 7.210
10.075 10.311 7.315
10.817 10.399 7.388
11.314 10.398 7.496
11.791 10.160 7.729
12.361 10.272 7.557
0.762 11.394 5.888
1.297 11.553 5.830
1.145 11.017 6.266
1.742 10.763 6.141
2.459 10.850 6.450
3.018 10.578 6.478
3.616 10.544 6.536
4.225 10.443 6.535
4.774 10.602 6.639
5.334 10.444 6.817
6.007 10.449 6.860
6.551 10.308 7.001
7.210 10.289 7.016
7.761 10.240 7.072
8.339 10.191 7.264
8.818 9.936 7.311
9.308 9.998 7.578
10.142 9.961 7.696
10.626 9.785 7.727
11.151 9.688 7.816
11.794 9.784 7.907
12.340 9.548 7.841
0.666 10.981 6.044
1.245 10.956 6.165
1.153 10.480 6.309
1.759 10.392 6.459
2.234 10.295 6.505
2.874 10.199 6.827
3.607 9.969 6.676
4.021 10.142 6.851
4.690 9.902 6.986
5.315 9.883 7.157
5.872 9.918 7.162
6.318 9.638 7.351
6.889 9.795 7.442
7.573 9.611 7.399
8.288 9.441 7.677
8.762 9.485 7.508
9.425 9.487 7.615
9.878 9.421 7.848
10.614 9.384 7.967
11.174 9.094 8.141
11.571 9.070 8.037
12.319 9.083 8.194
0.504 10.304 6.344
1.143 10.247 6.511
1.138 9.965 6.617
1.530 9.690 6.853
2.301 9.630 6.827
2.718 9.671 7.001
3.264 9.612 6.963
3.967 9.637 7.135
4.675 9.516 7.145
5.041 9.291 7.384
5.844 9.442 7.439
6.446 9.285 7.432
6.897 9.235 7.735
7.490 8.965 7.580
8.101 9.176 7.896
8.640 8.842 7.754
9.311 8.780 7.947
9.764 8.894 8.092
10.452 8.871 8.151
10.906 8.835 8.264
11.637 8.758 8.352
12.096 8.508 8.465
0.565 9.916 6.522
1.143 9.844 6.712
2.075 9.077 7.042
2.567 9.141 7.112
3.221 9.157 7.257
3.792 8.969 7.268
4.403 9.045 7.386
5.028 8.823 7.668
5.696 8.718 7.597
8.552 8.544 8.134
9.039 8.457 8.202
9.707 8.232 8.427
10.444 8.168 8.374
10.807 8.216 8.410
11.522 8.187 8.576
11.991 8.006 8.742
2.447 8.440 7.552
3.254 8.595 7.486
3.873 8.481 7.695
4.303 8.313 7.627
4.987 8.353 7.717
8.972 7.873 8.392
9.620 7.798 8.500
10.164 7.594 8.539
10.812 7.588 8.722
11.388 7.693 8.836
3.175 7.987 7.793
3.563 7.930 8.000
4.129 7.820 8.080
4.925 7.704 8.132
9.056 7.253 8.869
9.612 7.363 8.948
10.202 7.243 8.952
10.598 7.107 8.946
2.880 7.315 8.115
3.623 7.513 8.026
4.168 7.184 8.227
4.860 7.325 8.478
8.865 6.751 8.861
9.349 6.584 9.095
10.032 6.501 9.144
10.680 6.594 9.323
2.332 6.847 8.113
2.868 6.838 8.233
3.370 6.858 8.517
4.083 6.665 8.503
4.684 6.613 8.730
8.719 6.184 9.291
9.408 6.257 9.317
9.809 6.120 9.354
10.407 6.164 9.570
10.960 5.956 9.504
1.585 6.413 8.503
2.125 6.434 8.569
2.680 6.377 8.636
3.278 6.424 8.761
4.003 6.101 8.695
4.572 6.270 8.906
5.117 6.210 8.922
8.158 5.731 9.414
8.715 5.741 9.455
9.358 5.677 9.510
9.760 5.646 9.736
10.296 5.554 9.896
11.125 5.425 9.738
11.695 5.315 10.036
0.291 6.059 8.356
0.954 6.074 8.681
1.363 6.074 8.572
2.125 5.986 8.644
2.625 5.859 8.780
3.258 5.830 8.951
3.852 5.607 9.124
4.551 5.526 9.176
5.066 5.690 9.246
5.576 5.369 9.224
6.263 5.473 9.239
6.768 5.241 9.593
7.282 5.408 9.559
7.962 5.191 9.666
8.651 5.187 9.707
9.062 5.063 9.904
9.634 4.994 9.890
10.296 5.059 10.156
10.798 4.758 10.137
11.563 4.731 10.085
0.442 6.114 8.421
0.140 5.510 8.711
0.766 5.507 8.926
1.294 5.508 9.008
1.902 5.358 8.993
2.572 5.371 9.132
3.190 5.098 9.270
3.700 5.061 9.372
4.443 5.047 9.488
4.910 4.950 9.393
5.402 5.110 9.575
6.091 4.834 9.638
6.622 4.726 9.842
7.354 4.807 9.839
7.864 4.824 9.831
8.500 4.701 10.014
9.042 4.700 10.148
9.497 4.602 10.088
10.272 4.392 10.345
10.734 4.430 10.424
11.470 4.209 10.506
0.302 5.483 8.722
0.087 5.152 8.835
0.626 4.862 9.113
1.322 4.812 9.226
1.862 4.734 9.370
2.513 4.641 9.354
3.030 4.628 9.365
3.741 4.586 9.416
4.284 4.666 9.707
4.948 4.370 9.688
5.377 4.517 9.678
5.947 4.479 9.840
6.648 4.353 10.106
7.109 4.312 10.115
7.848 4.184 10.261
8.244 4.072 10.338
8.897 3.993 10.393
9.480 4.001 10.389
10.122 3.853 10.597
10.796 3.782 10.528
11.230 3.723 10.596
0.254 4.920 8.872
-0.099 4.518 9.343
0.640 4.420 9.416
1.196 4.403 9.255
1.841 4.370 9.527
2.294 4.264 9.701
3.069 4.103 9.688
3.408 4.094 9.800
4.129 3.913 9.724
4.782 3.851 9.999
5.390 3.887 9.905
5.773 3.730 10.052
6.610 3.671 10.094
7.050 3.579 10.402
7.627 3.727 10.287
8.099 3.527 10.602
8.781 3.428 10.579
9.439 3.486 10.652
9.880 3.274 10.751
10.479 3.237 10.730
11.309 3.153 10.862
-0.041 4.451 9.210
11.196 12.490 6.398
11.785 12.529 6.414
10.039 12.496 5.565
10.627 12.238 5.638
11.309 12.353 5.808
11.674 12.262 6.015
3.963 12.411 5.063
4.706 12.570 5.025
5.177 12.410 5.207
5.844 12.280 5.408
9.953 11.934 6.061
10.536 11.733 5.935
11.183 11.732 6.035
11.741 11.744 6.224
12.288 11.513 6.203
3.472 11.918 5.237
3.872 12.109 5.227
4.409 11.917 5.442
5.232 11.800 5.431
5.814 11.908 5.468
6.319 11.609 5.582
9.236 11.391 6.141
9.830 11.231 6.046
10.426 11.333 6.206
11.076 11.295 6.342
11.647 11.243 6.489
12.283 10.912 6.682
2.196 11.581 5.172
2.605 11.647 5.384
3.182 11.508 5.526
3.934 11.568 5.497
4.388 11.244 5.521
4.894 11.280 5.756
5.671 11.277 5.677
6.282 11.188 6.026
6.742 11.072 6.037
8.505 10.821 6.394
9.021 10.911 6.396
9.617 10.690 6.515
10.256 10.845 6.477
10.957 10.653 6.703
11.502 10.564 6.795
12.178 10.549 6.726
0.879 11.675 5.020
1.487 11.173 5.491
2.100 11.231 5.362
2.618 11.061 5.521
3.005 11.072 5.819
3.698 10.860 5.894
4.210 10.948 5.829
5.008 10.786 5.963
5.376 10.650 5.980
6.180 10.505 6.252
6.591 10.641 6.174
7.165 10.372 6.312
7.953 10.569 6.423
8.296 10.301 6.412
9.098 10.353 6.566
9.731 10.316 6.622
10.273 10.255 6.800
10.838 10.089 6.987
11.329 10.164 6.948
11.928 9.897 7.110
12.592 10.030 7.252
0.750 11.332 5.426
1.328 11.115 5.482
1.365 10.751 5.669
1.764 10.602 5.861
2.399 10.486 5.723
2.906 10.442 5.864
3.488 10.389 6.106
4.295 10.244 6.050
4.852 10.206 6.307
5.361 10.077 6.217
5.940 10.040 6.368
6.577 9.933 6.420
7.122 9.936 6.561
7.783 10.015 6.652
8.243 9.824 6.857
8.908 9.653 6.828
9.503 9.758 6.920
10.158 9.569 6.983
10.629 9.654 7.201
11.357 9.635 7.152
11.854 9.421 7.363
12.548 9.252 7.332
0.824 10.767 5.477
1.334 10.661 5.706
1.153 10.099 6.046
1.639 10.140 5.936
2.411 9.952 6.140
3.054 9.775 6.284
3.553 9.753 6.325
4.228 9.724 6.243
4.655 9.600 6.585
5.323 9.767 6.534
5.984 9.492 6.718
6.521 9.440 6.762
6.945 9.394 6.957
7.761 9.257 6.932
8.143 9.394 6.936
8.882 9.353 7.164
9.432 9.242 7.143
10.001 8.975 7.209
10.516 9.132 7.333
11.046 8.984 7.421
11.679 8.967 7.550
12.467 8.758 7.570
0.647 10.216 5.771
1.273 10.214 5.904
1.012 9.612 6.181
1.672 9.579 6.213
2.147 9.357 6.273
2.894 9.509 6.470
3.459 9.261 6.436
4.080 9.191 6.540
4.517 9.153 6.775
5.133 9.066 6.702
5.823 9.134 6.986
6.262 9.016 6.954
7.066 8.917 7.124
7.415 8.869 7.168
8.060 8.643 7.255
8.755 8.714 7.229
9.280 8.514 7.426
9.843 8.430 7.542
10.600 8.381 7.693
11.198 8.354 7.757
11.703 8.363 7.827
12.156 8.363 7.990
0.387 9.772 6.002
1.131 9.644 6.067
2.212 8.967 6.463
2.690 8.730 6.619
3.403 8.654 6.658
3.980 8.773 6.770
4.481 8.526 6.842
5.063 8.466 7.168
5.658 8.549 7.117
8.498 8.087 7.657
9.311 8.222 7.565
9.784 7.985 7.877
10.314 7.887 7.829
10.835 7.889 7.954
11.658 7.940 8.119
12.153 7.821 8.042
2.713 8.222 6.946
3.215 8.234 7.052
3.875 8.202 7.139
4.265 8.180 7.248
5.051 7.945 7.398
9.219 7.689 7.826
9.640 7.488 8.042
10.329 7.467 8.255
10.737 7.315 8.255
11.377 7.179 8.416
3.113 7.583 7.143
3.689 7.526 7.308
4.176 7.448 7.576
4.806 7.440 7.647
8.934 6.959 8.191
9.556 7.082 8.410
10.041 6.867 8.460
10.628 6.942 8.525
2.948 7.295 7.446
3.554 7.118 7.534
4.093 7.160 7.694
4.774 6.952 7.902
9.027 6.521 8.367
9.344 6.348 8.576
10.029 6.282 8.700
10.778 6.188 8.741
2.407 6.813 7.712
3.046 6.749 7.894
3.446 6.596 7.902
4.031 6.626 8.081
4.580 6.579 7.929
8.800 6.063 8.752
9.418 6.014 8.754
10.062 5.849 8.983
10.504 5.805 8.846
11.218 5.822 8.964
1.511 6.381 7.861
2.304 6.281 7.858
2.691 6.139 8.061
3.450 5.907 8.054
3.855 6.098 8.202
4.670 5.929 8.173
5.096 5.977 8.403
8.155 5.425 8.886
8.659 5.429 9.077
9.207 5.252 9.117
9.811 5.241 9.170
10.370 5.332 9.225
10.922 5.129 9.267
11.700 5.159 9.347
0.329 5.874 7.880
1.096 5.771 8.030
1.465 5.846 8.059
2.266 5.529 8.215
2.620 5.501 8.157
3.174 5.424 8.273
3.922 5.309 8.443
4.596 5.386 8.488
5.122 5.188 8.643
5.608 5.121 8.654
6.361 5.185 8.756
6.783 5.030 8.850
7.460 5.157 9.045
8.043 4.960 9.170
8.475 4.778 9.088
9.147 4.877 9.353
9.895 4.844 9.487
10.488 4.789 9.461
10.852 4.496 9.620
11.429 4.662 9.753
0.326 5.862 7.978
0.329 5.219 8.059
0.800 5.233 8.269
1.390 5.186 8.308
2.039 5.000 8.339
2.520 4.967 8.595
3.088 4.920 8.696
3.809 5.032 8.831
4.429 4.896 8.818
5.093 4.695 8.983
5.490 4.659 8.988
6.165 4.643 9.109
6.687 4.467 9.120
7.239 4.485 9.291
7.944 4.432 9.428
8.406 4.509 9.387
9.116 4.415 9.416
9.577 4.373 9.763
10.353 4.270 9.682
10.746 4.206 9.936
11.410 4.128 10.044
0.140 5.277 8.133
0.120 4.898 8.286
0.735 4.851 8.532
1.482 4.508 8.470
1.963 4.701 8.764
2.378 4.584 8.905
3.081 4.357 8.802
3.728 4.491 8.906
4.176 4.310 9.161
4.850 4.229 9.129
5.363 4.298 9.360
5.966 4.216 9.275
6.648 4.094 9.505
7.284 3.913 9.398
7.860 3.897 9.539
8.364 3.878 9.580
8.925 3.823 9.888
9.553 3.676 10.026
10.289 3.757 9.902
10.831 3.593 10.092
11.269 3.389 10.221
0.142 4.893 8.353
0.042 4.157 8.587
0.739 4.077 8.738
1.215 4.140 8.909
1.845 3.992 8.914
2.296 3.887 9.062
3.019 3.828 9.078
3.640 3.902 9.274
4.041 3.897 9.318
4.680 3.683 9.271
5.267 3.538 9.368
5.899 3.526 9.689
6.619 3.531 9.654
7.172 3.477 9.813
7.777 3.322 9.886
8.242 3.235 9.988
8.775 3.346 9.951
9.380 3.074 10.170
10.062 3.238 10.367
10.628 2.899 10.328
11.260 3.045 10.329
-0.066 4.179 8.645
9.917 12.362 5.772
10.494 12.377 5.812
11.099 12.324 5.862
11.668 12.103 5.993
10.611 12.126 5.118
11.117 11.836 5.273
11.872 12.005 5.293
4.162 12.212 4.387
4.537 12.076 4.607
5.168 11.987 4.752
5.839 11.974 4.797
10.057 11.472 5.426
10.663 11.540 5.553
11.049 11.549 5.450
11.825 11.442 5.704
3.525 11.864 4.691
3.970 11.583 4.694
4.463 11.706 4.799
5.276 11.544 4.830
5.867 11.479 4.915
9.893 10.957 5.525
10.457 10.887 5.691
11.025 10.853 5.732
11.641 10.746 6.039
12.095 10.683 5.888
2.798 11.278 4.718
3.337 11.255 4.800
3.972 11.204 5.019
4.430 11.011 5.059
5.025 11.045 5.130
5.677 10.951 5.374
6.220 10.841 5.407
6.927 10.784 5.318
8.524 10.694 5.821
9.159 10.559 5.885
9.884 10.413 5.919
10.396 10.349 5.886
10.828 10.318 6.095
11.558 10.280 6.174
12.078 10.344 6.221
1.462 10.803 4.784
1.926 10.963 5.094
2.645 10.895 4.918
3.322 10.719 5.244
3.688 10.654 5.130
4.320 10.598 5.418
5.055 10.453 5.486
5.617 10.350 5.543
6.093 10.464 5.476
6.737 10.276 5.817
7.189 10.274 5.926
7.756 10.263 5.801
8.412 10.072 6.026
9.105 10.094 6.005
9.676 9.907 6.275
10.218 9.792 6.230
10.753 9.896 6.478
11.432 9.766 6.465
12.026 9.701 6.470
0.760 10.933 4.899
1.361 11.053 4.808
1.300 10.464 5.253
2.020 10.388 5.095
2.569 10.383 5.257
3.170 10.322 5.310
3.777 10.243 5.528
4.323 10.127 5.706
4.811 9.865 5.567
5.515 9.875 5.667
6.074 9.749 5.739
6.668 9.881 5.879
7.316 9.836 6.044
7.873 9.692 6.009
8.322 9.631 6.283
9.080 9.635 6.184
9.683 9.383 6.315
10.035 9.354 6.437
10.679 9.202 6.599
11.328 9.312 6.708
11.833 9.314 6.730
12.363 9.087 6.961
0.622 10.485 5.061
1.215 10.338 5.089
1.341 9.830 5.351
1.711 9.674 5.417
2.304 9.781 5.584
3.077 9.532 5.580
3.592 9.524 5.651
4.053 9.527 5.778
4.758 9.553 6.036
5.293 9.368 5.987
5.954 9.382 6.243
6.595 9.374 6.083
7.190 9.154 6.338
7.695 9.128 6.442
8.220 9.184 6.471
8.789 9.112 6.606
9.460 8.879 6.649
10.137 8.844 6.758
10.737 8.699 6.808
11.271 8.672 6.999
11.913 8.590 6.972
12.456 8.692 7.140
0.735 10.000 5.185
1.134 9.982 5.440
1.853 9.127 5.670
2.192 9.225 5.761
2.951 8.977 5.909
3.372 8.988 5.878
4.204 9.037 5.952
4.717 8.793 6.043
5.247 8.732 6.253
5.963 8.751 6.448
6.481 8.700 6.419
8.224 8.465 6.762
8.631 8.441 6.901
9.418 8.245 6.896
9.963 8.225 6.893
10.585 8.177 7.143
11.065 8.091 7.155
11.790 8.095 7.414
12.397 8.036 7.428
0.552 9.273 5.542
2.780 8.647 6.166
3.332 8.482 6.156
3.859 8.326 6.222
4.526 8.271 6.444
5.025 8.402 6.551
5.702 8.196 6.724
8.527 7.910 7.061
9.232 7.801 7.032
9.968 7.787 7.273
10.434 7.778 7.304
10.930 7.704 7.538
11.733 7.671 7.465
2.738 8.025 6.404
3.200 8.061 6.479
3.862 8.019 6.657
4.533 7.900 6.797
5.166 7.741 6.906
9.256 7.321 7.438
9.657 7.186 7.627
10.302 7.148 7.719
10.911 6.974 7.698
11.582 7.134 7.800
3.233 7.536 6.745
3.716 7.251 6.975
4.354 7.344 7.027
9.533 6.629 7.855
10.303 6.698 7.716
10.945 6.528 8.072
3.077 6.901 7.113
3.590 6.829 6.950
4.282 6.728 7.284
9.459 6.076 8.094
10.190 5.969 8.125
10.818 5.987 8.242
2.519 6.577 7.075
2.968 6.381 7.120
3.556 6.389 7.460
4.146 6.235 7.330
4.605 6.179 7.410
8.977 5.753 8.076
9.529 5.725 8.251
9.928 5.516 8.250
10.631 5.422 8.549
11.070 5.358 8.585
2.229 5.833 7.460
2.918 5.740 7.468
3.441 5.703 7.491
4.084 5.725 7.680
4.597 5.697 7.646
5.230 5.494 7.758
8.244 5.345 8.348
8.750 5.285 8.341
9.475 5.097 8.598
9.923 4.955 8.526
10.639 5.053 8.606
11.100 5.022 8.657
0.965 5.489 7.349
1.564 5.500 7.434
2.121 5.502 7.798
2.840 5.278 7.879
3.325 5.256 7.881
3.836 5.286 7.861
4.651 5.247 7.926
5.087 5.023 8.169
5.580 5.015 8.308
7.572 4.686 8.371
8.141 4.604 8.485
8.560 4.752 8.645
9.273 4.611 8.890
9.711 4.585 8.858
10.491 4.354 8.855
11.047 4.420 8.957
11.559 4.445 9.187
0.448 5.029 7.709
0.823 5.112 7.681
1.577 4.999 7.946
2.059 4.822 7.989
2.582 4.664 8.026
3.377 4.735 8.156
3.865 4.762 8.112
4.366 4.649 8.335
5.057 4.567 8.359
5.712 4.419 8.434
6.267 4.382 8.692
6.828 4.181 8.618
7.503 4.239 8.872
8.091 4.228 8.886
8.504 4.027 8.911
9.008 3.907 8.953
9.666 3.969 9.060
10.345 3.854 9.096
10.787 3.699 9.251
11.553 3.704 9.514
0.393 5.049 7.527
0.285 4.607 7.907
0.924 4.512 7.948
1.483 4.321 8.175
2.124 4.232 8.177
2.451 4.341 8.187
3.090 4.202 8.473
3.841 4.087 8.379
4.255 3.985 8.482
4.927 4.033 8.490
5.518 3.901 8.758
6.060 3.819 8.868
6.572 3.692 8.821
7.212 3.823 9.109
7.876 3.735 9.045
8.405 3.611 9.131
9.019 3.631 9.356
9.516 3.490 9.486
10.088 3.326 9.406
10.832 3.185 9.574
11.473 3.232 9.714
0.094 4.655 7.986
0.220 4.079 8.106
0.701 3.824 8.239
1.412 3.859 8.462
1.783 3.878 8.400
2.547 3.633 8.545
2.990 3.785 8.537
3.631 3.535 8.600
4.322 3.637 8.701
4.729 3.405 9.009
5.356 3.264 8.834
5.962 3.261 9.070
6.669 3.340 9.239
7.271 3.184 9.364
7.724 3.048 9.412
8.436 2.944 9.353
9.047 2.916 9.587
9.588 2.994 9.709
10.126 2.863 9.645
10.708 2.859 9.775
11.309 2.772 9.909
0.158 3.852 8.086
11.305 12.391 5.218
11.883 12.373 5.296
10.584 11.927 5.202
11.338 12.088 5.361
11.751 12.049 5.500
4.759 11.814 4.021
11.047 11.291 4.964
4.020 11.548 4.187
4.718 11.369 4.296
5.342 11.441 4.318
5.765 11.269 4.350
9.914 10.733 5.170
10.520 10.653 5.299
11.202 10.506 5.363
11.721 10.506 5.509
3.407 10.983 4.275
3.794 11.027 4.585
4.618 10.867 4.448
5.120 10.701 4.539
5.834 10.583 4.786
6.213 10.639 4.845
9.123 10.361 5.276
9.719 10.204 5.341
10.446 10.298 5.556
11.120 10.057 5.541
11.549 10.149 5.733
12.293 10.074 5.617
2.656 10.511 4.467
3.303 10.433 4.679
3.912 10.485 4.755
4.284 10.373 4.796
5.033 10.144 4.777
5.683 10.263 5.044
6.093 10.219 5.163
6.629 9.935 5.056
8.451 9.750 5.563
9.021 9.796 5.657
9.695 9.838 5.557
10.253 9.609 5.717
10.879 9.502 5.857
11.567 9.432 5.913
11.978 9.499 5.891
2.007 10.016 4.540
2.531 10.008 4.762
3.021 9.889 4.906
3.592 9.970 4.958
4.356 9.880 4.937
5.012 9.668 5.066
5.467 9.653 5.206
6.175 9.541 5.439
6.564 9.619 5.460
8.474 9.284 5.579
8.927 9.326 5.653
9.478 9.291 5.782
10.331 8.979 6.046
10.655 9.150 6.020
11.299 9.021 6.063
12.040 8.828 6.365
12.632 8.876 6.219
0.743 10.050 4.449
2.515 9.314 4.929
3.000 9.336 5.157
3.594 9.210 5.328
4.175 9.310 5.293
4.734 9.166 5.428
5.283 9.019 5.400
6.055 8.935 5.512
6.560 8.974 5.794
8.386 8.641 5.993
8.847 8.818 5.895
9.483 8.770 6.048
10.176 8.479 6.238
10.786 8.404 6.225
11.257 8.528 6.373
11.731 8.245 6.566
12.336 8.339 6.475
2.263 8.890 5.147
3.051 8.897 5.445
3.583 8.684 5.575
4.152 8.666 5.469
4.742 8.686 5.501
5.368 8.541 5.706
5.938 8.440 5.888
8.682 8.321 6.253
9.285 7.974 6.492
9.914 8.028 6.485
10.464 8.108 6.419
11.091 8.046 6.696
11.829 7.799 6.816
12.324 7.800 6.810
2.850 8.458 5.745
3.332 8.254 5.569
3.924 8.203 5.700
4.490 8.001 5.995
5.181 8.086 5.918
9.347 7.565 6.590
9.815 7.379 6.751
10.359 7.310 6.867
10.953 7.408 6.897
11.794 7.367 6.966
3.398 7.765 5.938
4.042 7.544 6.114
4.542 7.454 6.146
9.656 7.042 7.086
10.494 7.026 7.019
11.058 6.763 7.273
2.918 6.208 6.698
3.492 5.952 6.706
4.158 6.094 7.025
9.476 5.443 7.671
10.083 5.256 7.719
10.533 5.104 7.811
2.202 5.680 6.981
2.843 5.519 7.003
3.543 5.655 6.916
3.963 5.434 7.056
4.700 5.282 7.318
8.882 4.943 7.890
9.282 4.920 8.036
10.032 4.844 8.080
10.659 4.626 8.141
11.154 4.727 8.385
1.626 5.199 6.903
2.239 5.047 7.082
2.703 5.002 7.282
3.334 4.879 7.362
4.042 4.836 7.339
4.591 4.972 7.522
5.058 4.830 7.467
8.096 4.306 7.917
8.740 4.272 8.040
9.231 4.188 8.164
9.948 4.153 8.354
10.345 4.230 8.317
11.048 4.056 8.421
11.536 4.060 8.491
1.581 4.608 7.317
2.228 4.462 7.425
2.763 4.613 7.336
3.372 4.481 7.504
3.901 4.502 7.657
4.438 4.265 7.648
5.154 4.253 7.957
5.711 4.081 8.045
7.332 3.934 8.339
8.084 3.864 8.207
8.569 3.852 8.276
9.087 3.660 8.377
9.742 3.825 8.444
10.427 3.531 8.740
10.852 3.606 8.645
11.635 3.428 8.917
0.821 4.082 7.362
1.470 4.076 7.511
2.170 3.950 7.711
2.655 3.893 7.746
3.103 3.849 7.759
3.804 3.980 7.906
4.326 3.708 7.860
5.039 3.836 8.008
5.603 3.632 8.239
7.348 3.487 8.501
7.895 3.315 8.544
8.472 3.386 8.690
9.192 3.172 8.782
9.550 3.160 8.776
10.249 3.140 8.911
10.986 3.089 9.106
11.328 3.084 9.027
1.238 3.552 7.825
1.946 3.558 7.750
2.451 3.480 7.930
2.987 3.470 8.007
3.739 3.345 8.121
4.366 3.367 8.197
4.754 3.145 8.205
5.367 3.058 8.344
7.243 2.895 8.757
7.848 2.730 8.842
8.365 2.902 8.895
9.087 2.718 9.010
9.481 2.704 8.960
10.262 2.581 9.190
10.736 2.455 9.240
11.389 2.308 9.478
11.394 12.199 4.426
3.998 10.552 3.776
4.634 10.523 3.956
5.180 10.620 4.098
5.787 10.337 4.164
9.971 10.105 4.762
10.502 9.888 4.858
11.023 9.727 5.070
11.563 9.702 5.138
3.186 10.306 4.153
3.996 10.056 4.114
4.536 10.108 4.157
5.022 10.009 4.391
5.534 10.036 4.382
9.647 9.585 4.957
10.313 9.509 5.077
10.817 9.346 5.201
11.615 9.365 5.469
12.078 9.088 5.324
3.082 9.737 4.277
3.766 9.484 4.539
4.501 9.597 4.412
5.091 9.336 4.466
5.499 9.422 4.564
6.132 9.460 4.923
8.940 9.086 5.171
9.629 8.925 5.465
10.282 8.721 5.416
10.925 8.882 5.527
11.368 8.659 5.701
12.081 8.715 5.626
3.019 9.176 4.689
3.584 8.997 4.703
4.205 9.056 4.811
4.917 9.044 4.937
5.521 8.782 5.057
6.098 8.756 4.966
9.090 8.386 5.469
9.601 8.249 5.493
10.030 8.346 5.744
10.788 8.151 5.802
11.265 8.320 5.914
11.865 8.076 5.912
2.881 8.598 4.918
3.518 8.446 5.022
4.171 8.361 5.047
4.884 8.282 5.126
5.384 8.376 5.113
9.486 7.730 5.959
10.175 7.776 6.070
10.547 7.709 6.105
11.321 7.620 6.110
11.703 7.514 6.118
3.971 7.802 5.314
4.524 7.741 5.300
9.904 7.349 6.151
10.600 7.091 6.316
3.636 5.225 6.390
4.070 5.301 6.576
9.539 4.717 7.540
9.892 4.417 7.544
2.157 4.794 6.615
2.892 4.733 6.710
3.381 4.855 6.716
4.063 4.627 6.817
4.737 4.725 7.022
8.787 4.090 7.684
9.399 3.927 7.704
10.038 4.010 7.695
10.619 3.896 7.845
10.999 3.815 7.868
2.111 4.381 6.941
2.844 4.189 6.950
3.275 4.130 7.050
4.094 4.189 7.175
4.592 4.139 7.084
5.181 4.091 7.367
8.161 3.637 7.853
8.591 3.719 7.789
9.376 3.573 8.054
9.758 3.354 8.004
10.364 3.490 8.038
10.918 3.324 8.222
2.051 3.793 7.195
2.682 3.847 7.242
3.221 3.583 7.322
3.991 3.474 7.398
4.551 3.432 7.335
5.147 3.406 7.454
8.011 3.072 8.014
8.468 3.038 8.185
9.217 2.883 8.229
9.675 2.922 8.261
10.249 2.959 8.432
10.943 2.841 8.438
2.123 3.194 7.449
2.645 3.208 7.308
3.161 3.016 7.393
3.687 2.988 7.487
4.481 2.973 7.603
8.487 2.594 8.259
9.016 2.400 8.376
9.531 2.477 8.506
10.266 2.401 8.732
10.721 2.312 8.853
4.521 10.438 3.370
11.199 9.720 4.511
3.984 9.854 3.548
4.633 9.811 3.596
5.127 9.710 3.894
5.610 9.634 3.942
9.857 9.311 4.421
10.474 9.093 4.583
10.981 9.178 4.638
11.487 9.085 4.700
3.203 9.312 3.869
3.890 9.348 3.861
4.561 9.212 3.938
4.890 9.270 4.188
5.552 9.224 4.091
9.845 8.685 4.824
10.202 8.464 4.984
10.769 8.398 4.992
11.486 8.460 5.202
12.036 8.478 5.110
3.693 8.820 4.150
4.309 8.835 4.125
4.972 8.637 4.327
5.634 8.617 4.356
9.569 8.169 5.127
10.257 8.139 5.207
10.690 7.926 5.329
11.460 7.843 5.461
3.763 8.287 4.454
4.246 8.303 4.491
4.751 8.187 4.675
10.170 7.633 5.457
10.716 7.380 5.374
11.151 7.268 5.440
2.951 4.535 6.200
3.435 4.399 6.288
4.019 4.488 6.261
9.431 3.743 7.286
10.081 3.642 7.200
10.480 3.583 7.481
2.934 3.995 6.429
3.287 3.839 6.436
3.892 3.876 6.639
4.471 3.899 6.724
8.570 3.266 7.350
9.424 3.365 7.431
9.930 3.236 7.470
10.515 3.106 7.591
2.175 3.518 6.424
2.835 3.481 6.700
3.203 3.485 6.847
3.916 3.460 6.749
4.460 3.161 6.885
8.716 2.771 7.708
9.173 2.707 7.688
9.771 2.602 7.872
10.432 2.598 7.720
10.930 2.559 7.863
2.526 3.038 6.979
3.325 2.766 6.974
3.777 2.846 6.960
4.273 2.686 7.066
8.445 2.342 7.860
9.161 2.149 7.776
9.686 2.033 8.045
10.400 2.021 7.985
3.999 9.619 3.222
4.471 9.562 3.300
5.084 9.360 3.353
10.402 8.805 4.059
10.982 8.820 4.102
11.653 8.617 4.173
3.807 9.114 3.473
4.544 8.935 3.509
5.205 8.927 3.585
5.761 8.984 3.498
9.797 8.295 4.263
10.424 8.294 4.437
11.006 8.188 4.589
11.435 8.138 4.517
3.915 8.464 3.571
4.401 8.339 3.721
5.032 8.517 3.869
5.638 8.358 3.979
9.796 7.841 4.401
10.388 7.707 4.721
10.792 7.708 4.810
11.334 7.565 4.803
4.336 7.901 3.945
4.867 7.979 4.120
10.108 7.147 4.906
10.877 7.127 5.066
3.438 4.164 5.829
4.031 4.089 5.788
9.405 3.573 6.737
10.168 3.530 6.589
2.771 3.709 5.871
3.348 3.540 5.947
4.059 3.703 6.083
4.603 3.627 6.172
8.728 3.054 6.716
9.346 3.075 6.866
9.975 3.009 6.866
10.437 2.787 6.926
2.703 3.138 6.161
3.374 3.159 6.318
4.021 2.962 6.345
4.614 2.962 6.321
8.569 2.547 7.130
9.352 2.418 7.120
9.911 2.462 7.082
10.531 2.305 7.189
2.738 2.643 6.228
3.276 2.673 6.415
3.957 2.580 6.567
9.078 1.883 7.339
9.839 1.888 7.487
10.404 1.899 7.457
12.208 1.300 6.082
12.628 1.643 5.116
12.335 0.999 5.407
12.317 0.564 5.570
12.528 1.412 4.744
12.390 0.900 4.890
12.305 0.143 5.169
12.624 0.656 4.441
12.511 0.138 4.548
12.668 0.338 3.727
12.376 4.546 11.245
11.847 4.419 10.948
12.570 4.529 11.225
12.521 3.986 11.383
11.702 3.819 11.426
12.340 3.770 11.544
11.681 3.541 11.615
12.127 4.753 10.202
12.665 4.210 10.509
12.099 4.305 10.537
12.469 4.158 10.598
12.503 3.573 10.910
11.753 3.604 10.683
12.376 3.730 10.848
12.212 3.102 11.101
11.808 3.160 11.095
12.333 3.046 11.257
12.056 4.530 9.825
11.916 3.905 9.899
12.556 3.279 10.426
11.941 3.338 10.181
12.598 3.253 10.236
12.451 2.794 10.545
11.863 2.805 10.463
12.341 2.755 10.573
12.159 4.286 9.203
12.030 3.825 9.544
12.431 3.193 9.824
11.900 3.212 9.610
12.449 3.228 9.882
12.446 2.459 10.163
11.935 2.677 10.003
12.435 2.514 9.932
11.969 2.776 9.284
9.466 0.362 -0.031
10.206 0.241 0.193
10.665 0.171 0.425
11.193 0.358 0.250
3.172 1.857 6.103
9.809 0.952 7.210
2.616 1.505 5.608
3.344 1.421 5.744
3.865 1.344 5.860
4.539 1.514 5.757
8.688 0.817 6.560
9.096 0.929 6.466
9.817 0.852 6.671
10.298 0.744 6.778
2.031 1.398 5.053
2.724 1.322 4.923
3.357 1.220 5.102
4.061 1.117 5.190
4.618 1.036 5.233
5.200 0.962 5.490
8.016 0.861 5.760
8.678 0.761 5.811
9.176 0.643 6.122
9.718 0.482 6.059
10.271 0.561 6.179
10.898 0.310 6.283
2.761 0.819 5.268
3.174 0.620 5.297
3.774 0.658 5.426
4.356 0.546 5.662
8.477 0.162 6.143
9.123 0.034 6.172
9.795 -0.138 6.372
3.240 0.194 5.732
1.575 1.293 4.204
2.299 1.066 4.337
2.830 1.045 4.577
3.343 0.877 4.661
4.090 1.082 4.693
4.510 0.952 4.838
5.128 0.826 4.895
5.839 0.671 4.920
7.444 0.421 5.073
8.147 0.538 5.311
8.586 0.387 5.495
9.339 0.335 5.475
9.749 0.304 5.463
10.476 0.252 5.563
10.937 0.128 5.843
11.537 0.190 5.724
2.160 0.687 4.711
2.644 0.441 4.709
3.156 0.454 4.771
3.818 0.277 4.925
4.599 0.367 5.106
2.585 0.128 4.865
1.098 1.111 3.738
1.697 0.879 3.842
2.378 0.846 3.717
2.769 0.812 3.978
3.569 0.712 3.992
3.958 0.694 4.098
4.736 0.607 4.343
5.278 0.591 4.246
5.782 0.578 4.536
7.518 0.409 4.664
8.002 0.109 4.841
8.769 0.249 4.851
9.220 0.198 4.864
10.029 0.042 5.156
2.030 0.317 4.033
2.749 0.416 4.064
3.392 0.154 4.262
4.011 0.134 4.511
4.601 0.156 4.498
5.216 0.146 4.449
1.761 0.693 3.117
2.387 0.537 3.431
2.958 0.449 3.267
3.502 0.517 3.370
4.218 0.495 3.710
4.718 0.459 3.561
5.186 0.259 3.799
5.779 0.259 3.831
7.586 0.135 4.015
2.141 0.152 3.490
2.825 -0.054 3.647
1.768 0.338 2.661
2.291 0.221 2.911
2.837 0.314 2.737
3.573 0.147 2.885
4.259 0.190 2.964
4.790 0.188 3.281
5.189 -0.001 3.120
2.467 0.147 2.303
2.950 0.105 2.227
2.177 4.509 11.509
2.691 4.395 11.530
3.339 4.306 11.675
8.645 3.869 12.399
9.173 3.679 12.539
2.130 1.379 12.149
2.717 1.402 12.464
0.850 1.182 12.189
1.654 1.057 12.329
2.137 0.981 12.418
1.519 4.194 10.842
2.138 4.321 10.834
2.832 4.284 11.007
3.271 4.220 10.971
4.042 3.998 11.306
8.055 3.623 11.714
8.624 3.382 11.818
9.292 3.535 12.003
9.808 3.477 12.205
10.458 3.216 12.184
2.680 3.637 11.207
3.198 3.476 11.430
8.593 2.850 12.113
9.068 2.976 12.121
2.566 2.172 11.283
3.130 2.227 11.426
8.407 1.528 12.053
8.999 1.539 12.183
1.794 1.867 11.378
2.336 1.658 11.345
2.894 1.570 11.691
8.219 1.008 12.333
8.983 1.132 12.425
9.546 0.844 12.433
1.114 1.472 11.574
1.799 1.193 11.740
2.348 1.305 11.787
2.915 1.037 11.696
3.344 1.098 11.909
7.685 0.626 12.592
0.295 0.787 11.581
1.050 0.772 11.789
