7.514 5.097 7.802
7.146 5.278 8.361
6.903 5.675 8.572
6.699 5.730 9.213
6.659 6.419 9.376
6.424 6.749 9.826
6.149 6.737 10.278
6.041 7.037 10.761
5.877 7.483 10.968
5.694 7.714 11.697
5.509 8.097 12.051
5.159 8.632 12.080
9.710 1.765 4.180
9.308 2.022 4.237
9.202 2.372 4.837
9.096 2.772 5.151
9.529 2.920 4.985
9.332 3.455 5.738
9.069 3.787 6.071
8.823 4.000 6.440
8.658 4.498 6.759
8.282 4.757 7.046
7.982 4.843 7.433
8.127 5.224 8.045
7.725 5.517 8.449
7.711 6.002 8.591
7.496 6.262 9.279
7.040 6.641 9.432
6.924 6.746 9.815
6.625 7.143 10.487
6.321 7.506 10.528
6.431 7.864 11.161
5.939 7.981 11.666
5.757 8.607 11.976
5.553 8.860 12.358
10.162 2.030 3.883
9.838 2.557 4.488
9.470 2.618 4.591
9.614 3.004 5.170
9.690 3.302 5.297
9.720 3.914 5.596
9.318 3.892 5.804
9.353 4.144 6.321
9.194 4.790 6.906
8.895 5.105 6.980
8.477 5.371 7.572
8.216 5.682 8.108
8.026 5.984 8.123
7.829 6.269 8.789
7.701 6.609 9.238
7.436 7.044 9.568
7.297 7.214 9.943
7.014 7.302 10.481
6.894 7.980 10.625
6.690 8.318 11.155
6.496 8.504 11.245
6.162 8.883 11.889
6.307 9.045 12.367
10.263 2.503 3.816
10.464 2.572 4.195
10.099 3.295 4.894
9.749 3.254 5.019
9.923 4.358 6.000
9.682 4.545 6.290
9.501 4.997 6.888
9.310 5.184 6.893
8.908 5.550 7.288
8.793 5.891 7.788
8.637 6.328 8.074
8.571 6.547 8.586
7.371 7.950 10.802
7.053 8.427 10.838
7.118 8.908 11.583
6.868 9.269 11.725
6.655 9.226 12.238
11.124 2.828 4.118
10.904 3.075 4.455
10.245 4.942 6.210
10.068 5.310 6.510
9.799 5.625 7.072
9.286 5.744 7.342
9.349 6.404 7.960
8.919 6.472 8.173
7.759 8.793 11.121
7.601 8.875 11.396
7.314 9.361 11.632
7.091 9.859 12.340
11.303 3.069 4.040
10.295 5.413 6.818
9.964 5.818 6.937
9.929 6.067 7.453
9.752 6.726 7.824
9.698 7.018 8.301
8.107 9.289 10.908
7.671 9.496 11.513
7.660 9.765 11.909
7.300 9.837 12.010
10.857 6.121 6.710
10.495 6.113 6.857
10.204 6.708 7.591
10.135 6.869 7.693
9.861 7.153 8.147
8.487 9.268 10.956
8.384 9.618 11.475
8.025 10.228 11.705
7.999 10.196 12.114
7.860 10.508 12.667
11.527 5.948 6.016
11.422 6.299 6.728
11.111 6.583 6.943
10.668 6.675 7.193
10.561 7.367 7.695
10.617 7.713 8.262
8.773 9.872 10.762
8.759 10.167 11.161
8.469 10.393 11.775
8.138 10.793 12.155
8.271 10.882 12.546
0.733 0.337 8.337
0.845 0.367 8.536
0.555 0.797 9.146
1.634 0.145 7.740
1.364 0.653 8.218
1.083 0.773 8.635
0.786 1.282 9.208
0.624 1.602 9.585
0.516 1.581 9.835
0.427 2.204 10.393
0.148 2.528 10.465
2.000 -0.006 7.229
1.783 0.581 7.848
1.745 0.916 8.342
1.388 1.025 8.614
1.515 1.507 9.064
1.219 1.867 9.491
0.977 2.084 9.748
0.879 2.432 10.072
0.295 2.542 10.530
0.495 3.248 10.882
-0.114 3.528 11.582
2.848 0.416 7.202
2.528 0.432 7.216
2.252 1.034 7.799
2.088 1.013 8.133
2.115 1.595 8.683
1.584 1.709 8.796
1.444 2.211 9.280
1.389 2.374 9.953
1.352 2.702 10.075
0.933 2.853 10.644
0.827 3.395 11.099
0.470 3.876 11.258
0.525 4.105 11.849
-0.072 4.430 12.143
3.405 0.114 6.530
3.346 0.390 6.920
3.159 0.840 7.408
3.035 1.035 7.567
2.417 1.298 7.963
2.284 1.625 8.519
2.396 2.059 8.777
1.991 2.558 9.369
1.870 2.558 9.755
1.402 3.173 10.088
1.241 3.337 10.356
1.127 3.509 10.935
1.114 3.969 11.536
0.733 4.312 11.609
0.541 4.424 12.186
0.422 4.817 12.604
4.230 0.325 6.263
4.049 0.466 6.684
3.740 0.719 6.884
3.673 1.259 7.244
3.250 1.275 7.663
3.282 1.957 8.087
2.984 2.054 8.430
2.509 2.286 9.044
2.464 2.799 9.311
2.361 3.190 9.660
2.174 3.406 10.104
1.977 3.598 10.470
1.459 4.035 10.826
1.547 4.512 11.412
1.355 4.639 11.616
0.962 4.811 12.065
0.744 5.322 12.508
4.764 0.508 6.017
4.519 0.883 6.501
4.237 0.975 6.913
3.925 1.618 7.437
3.835 1.779 7.658
3.618 2.160 8.014
3.172 2.354 8.573
2.895 2.715 8.707
2.699 3.161 9.371
2.144 3.863 10.463
1.929 4.124 11.035
1.932 4.709 11.168
1.676 4.981 11.510
1.606 5.083 12.118
1.443 5.745 12.571
4.821 1.263 6.679
4.742 1.640 6.714
4.533 1.672 7.415
4.032 2.228 7.539
4.062 2.504 8.150
3.735 2.876 8.332
3.495 3.146 8.914
2.427 4.439 10.988
2.424 5.062 11.091
1.889 5.178 11.556
1.732 5.623 12.073
1.646 5.861 12.310
5.033 1.727 7.024
4.955 2.234 7.141
4.776 2.322 7.662
4.592 2.610 8.016
4.126 3.204 8.419
2.811 5.153 11.268
2.730 5.552 11.665
2.116 5.740 12.091
2.067 6.127 12.281
5.374 2.052 7.083
5.410 2.306 7.341
5.033 2.781 7.724
4.755 3.149 7.906
4.838 3.452 8.579
3.013 5.683 11.035
2.807 5.803 11.542
2.590 6.132 12.195
2.360 6.446 12.535
5.207 2.544 6.948
4.854 3.233 7.189
4.399 3.401 7.667
2.839 6.043 11.172
2.544 6.410 11.530
2.260 6.709 12.015
5.696 2.715 6.625
5.396 2.864 6.734
5.407 3.504 7.408
4.868 3.822 7.797
3.342 6.731 11.254
2.823 6.828 11.829
2.600 7.155 11.938
2.738 7.362 12.592
5.910 2.999 6.420
6.074 3.576 7.054
5.559 3.750 7.178
5.448 3.887 7.724
5.444 4.363 8.125
3.949 6.574 10.979
3.619 6.906 11.118
3.338 7.350 11.735
3.347 7.540 11.845
2.921 7.909 12.458
6.705 2.861 5.857
6.515 3.311 6.648
6.413 3.653 6.704
6.274 4.170 7.309
5.986 4.430 7.690
5.848 4.590 8.080
5.363 5.176 8.345
4.664 6.614 10.447
4.275 6.869 10.828
3.925 7.171 11.028
3.981 7.389 11.710
3.719 7.597 12.136
3.364 7.958 12.314
7.987 1.189 3.733
7.670 2.670 5.044
7.448 3.023 5.617
7.104 3.584 6.196
7.130 3.594 6.281
6.773 4.016 7.014
6.495 4.228 7.047
6.382 4.590 7.441
6.007 5.006 8.093
5.795 5.306 8.477
5.811 5.678 8.992
5.075 6.664 9.799
4.950 6.932 10.484
4.705 6.974 10.749
4.570 7.502 11.010
4.121 7.901 11.535
3.984 8.154 12.051
4.097 8.612 12.379
8.410 1.390 3.643
8.285 1.752 4.255
8.158 1.938 4.429
8.116 2.872 4.982
7.897 3.102 5.169
8.008 3.314 5.557
7.673 3.568 6.167
7.414 4.140 6.499
7.239 4.195 6.943
6.963 4.496 7.007
6.744 4.909 7.546
6.767 5.122 8.094
6.453 5.454 8.550
6.099 6.030 8.780
6.006 6.249 9.345
5.997 6.583 9.349
5.569 6.717 9.966
5.343 7.229 10.355
5.196 7.532 10.629
5.005 7.887 10.977
4.578 8.006 11.602
4.450 8.587 11.925
4.521 8.611 12.296
8.813 1.850 3.628
8.693 1.979 4.006
8.692 2.374 4.579
8.294 2.871 4.994
8.601 3.142 4.647
8.382 3.216 5.157
8.507 3.836 5.435
8.251 4.195 5.850
7.907 4.327 6.358
7.775 4.584 6.718
7.478 4.787 7.372
7.431 5.275 7.724
6.941 5.395 7.777
6.776 5.814 8.437
6.536 6.155 8.899
6.266 6.705 8.959
6.309 6.672 9.711
5.874 7.298 10.074
5.719 7.344 10.511
5.425 7.615 10.721
5.405 8.071 11.028
5.318 8.543 11.716
4.895 8.836 11.749
4.872 9.029 12.264
9.358 2.253 3.825
9.221 2.271 4.183
9.139 2.926 4.259
8.750 3.229 4.926
8.957 3.336 4.594
9.170 3.636 5.072
8.669 3.971 5.461
8.573 4.269 5.877
8.459 4.508 6.330
8.020 5.004 6.933
8.113 5.306 7.135
7.706 5.645 7.739
7.630 5.718 8.003
7.308 6.302 8.240
6.991 6.547 8.535
6.725 6.919 9.282
6.609 7.040 9.519
6.266 7.643 10.076
6.412 7.664 10.320
6.114 8.083 10.634
6.050 8.483 11.298
5.807 8.733 11.307
5.513 8.862 11.895
5.173 9.323 12.420
9.774 2.333 3.384
9.633 2.862 4.168
9.268 2.893 4.207
8.957 3.458 4.722
9.232 4.303 5.502
8.918 4.683 6.121
8.684 4.880 6.432
8.662 5.351 6.879
8.259 5.410 7.232
8.249 5.765 7.515
7.817 6.049 8.014
7.774 6.632 8.246
6.895 8.009 10.428
6.281 8.522 10.477
6.074 8.880 11.222
5.923 9.100 11.653
5.747 9.495 11.803
5.669 9.749 12.227
10.422 2.684 3.767
10.120 2.892 4.171
9.578 4.941 5.946
9.373 5.118 6.505
8.992 5.770 6.700
8.690 5.969 7.077
8.482 6.399 7.444
8.597 6.424 7.968
6.741 8.613 10.513
6.730 9.148 11.025
6.424 9.550 11.379
6.283 9.806 11.945
6.270 9.940 12.321
10.598 2.879 3.390
9.481 5.446 6.403
9.425 5.992 6.621
9.323 6.406 6.970
9.235 6.713 7.323
7.197 9.354 11.003
6.957 9.605 11.496
6.888 10.229 11.714
6.543 10.298 12.435
9.791 6.186 6.498
9.899 6.375 7.082
9.523 6.762 7.305
7.472 9.798 11.097
7.604 9.859 11.587
7.126 10.249 11.656
10.247 6.533 6.538
10.154 6.729 7.131
9.949 6.991 7.293
7.965 10.208 10.823
7.774 10.365 11.498
7.571 10.633 11.834
11.166 6.772 6.307
10.598 6.740 6.707
10.494 6.988 6.961
10.543 7.422 7.449
8.296 10.204 10.780
8.193 10.810 11.440
8.300 10.795 11.855
7.900 11.418 12.347
0.677 0.107 7.619
0.773 0.315 7.997
0.596 1.031 8.187
1.349 0.150 6.861
1.330 0.365 7.335
1.254 0.638 7.660
0.953 1.297 8.133
0.650 1.426 8.539
2.283 0.144 6.618
1.982 0.317 7.221
1.895 0.849 7.249
1.680 1.075 7.867
1.260 1.341 8.197
1.054 1.679 8.640
0.869 2.266 9.128
0.819 2.447 9.557
0.475 2.911 9.693
0.078 3.028 10.066
-0.150 3.359 10.492
2.854 0.180 6.166
2.452 0.464 6.781
2.162 0.900 6.860
2.000 1.023 7.320
1.922 1.675 7.820
1.704 1.952 8.414
1.641 2.304 8.551
1.170 2.272 9.091
1.137 2.684 9.349
0.972 2.884 9.930
0.720 3.507 10.106
0.625 3.676 10.608
0.482 3.965 11.097
0.121 4.160 11.405
3.578 0.162 5.721
3.205 0.701 6.132
3.021 0.689 6.535
2.796 1.005 6.797
2.668 1.431 7.558
2.304 1.970 7.775
2.385 2.025 8.213
2.174 2.282 8.492
1.792 2.838 9.041
1.427 2.996 9.343
1.554 3.300 9.633
1.316 3.500 10.120
0.730 4.145 10.580
0.870 4.396 11.152
0.474 4.761 11.249
0.400 4.917 11.931
-0.111 5.417 12.290
3.994 0.158 5.281
4.067 0.536 5.935
3.745 0.933 6.144
3.255 1.373 6.723
3.436 1.324 6.923
3.244 1.964 7.291
2.835 2.142 7.957
2.465 2.386 8.142
2.626 2.924 8.398
2.382 2.854 8.944
1.389 4.042 10.057
1.553 4.392 10.665
1.039 4.771 10.969
0.918 4.924 11.521
0.899 5.460 11.913
0.715 5.597 12.186
0.432 5.692 12.641
4.221 1.151 6.276
4.021 1.583 6.678
3.533 1.777 7.033
3.318 2.194 7.403
3.240 2.588 7.598
3.070 2.746 8.195
2.659 3.060 8.464
1.802 4.492 10.510
1.457 4.752 10.827
1.550 5.189 11.354
1.260 5.649 11.657
1.068 5.782 12.276
0.929 6.349 12.359
4.132 1.591 6.503
4.279 2.318 6.795
3.907 2.490 7.405
3.753 2.799 7.917
3.594 2.850 7.978
2.227 5.184 11.071
2.033 5.433 11.240
1.739 5.939 11.498
1.600 6.096 11.963
1.330 6.578 12.641
4.834 2.098 6.634
4.379 2.604 6.719
4.221 2.833 7.320
4.294 3.151 7.702
2.423 6.108 11.191
2.255 6.207 11.697
1.790 6.512 12.179
1.628 6.959 12.634
5.178 2.802 7.009
4.884 3.030 7.504
4.498 3.185 7.771
2.842 6.360 11.185
2.338 6.599 11.744
2.242 6.678 12.119
5.452 3.713 6.532
5.640 4.190 6.932
5.414 4.403 7.302
3.178 7.046 10.759
3.069 7.297 11.361
2.852 8.003 11.570
6.330 3.524 6.171
6.082 3.821 6.438
5.709 4.505 7.057
5.828 4.822 7.141
5.558 4.858 7.827
4.188 7.212 10.431
3.996 7.643 10.837
3.551 7.757 11.076
3.254 8.192 11.608
3.044 8.412 11.960
6.839 3.672 5.502
6.825 4.138 6.051
6.640 4.492 6.471
6.330 4.546 6.929
5.938 4.831 7.279
5.841 5.349 7.453
5.732 5.475 8.125
4.588 7.026 10.136
4.464 7.542 10.441
4.467 7.702 10.953
3.931 8.238 11.300
3.928 8.252 11.487
3.623 8.734 11.915
8.417 1.816 3.334
7.806 3.892 5.045
7.534 4.090 5.759
7.379 4.427 5.865
6.958 4.651 6.542
6.859 4.992 6.832
6.713 5.374 7.081
6.521 5.609 7.692
6.295 6.117 8.207
6.057 6.067 8.540
5.495 7.152 9.460
5.207 7.406 9.818
4.982 7.885 10.306
4.691 8.146 10.715
4.419 8.624 11.127
4.149 8.857 11.571
4.243 9.110 11.965
8.836 2.250 3.153
8.620 2.481 3.485
8.053 3.815 5.379
7.723 4.491 5.683
7.562 4.869 5.896
7.436 5.025 6.339
7.340 5.178 6.788
6.833 5.765 7.128
6.728 6.081 7.495
6.485 6.187 7.841
6.278 6.391 8.212
5.619 7.336 9.610
5.510 7.759 9.872
5.295 8.193 10.406
5.051 8.366 10.887
5.149 8.609 11.310
4.814 9.134 11.461
4.620 9.176 11.976
9.278 2.528 3.199
8.982 2.638 3.602
8.303 4.400 5.329
8.310 4.780 5.586
8.232 4.828 6.012
7.885 5.186 6.332
7.637 5.497 6.584
7.383 5.829 7.229
7.236 6.137 7.447
7.148 6.550 7.784
6.107 7.970 9.802
5.683 8.459 10.125
5.473 8.832 10.748
5.519 8.978 11.166
5.018 9.355 11.312
4.800 9.795 12.008
9.546 2.790 3.161
9.344 3.170 3.799
8.913 4.848 5.674
8.406 5.159 5.899
8.406 5.710 6.409
8.065 6.123 6.956
7.939 6.387 7.167
7.523 6.748 7.351
6.264 8.937 10.347
6.017 9.159 10.560
5.654 9.444 10.981
5.769 9.627 11.417
5.219 9.997 12.095
9.898 3.171 3.072
8.797 5.812 6.100
8.628 6.039 6.483
8.470 6.315 6.737
8.278 6.717 6.976
6.605 9.421 10.481
6.296 9.535 11.145
6.138 9.923 11.395
5.880 10.541 11.896
9.106 6.189 6.405
8.893 6.522 6.821
6.672 9.871 11.200
6.374 10.262 11.444
10.748 7.346 6.093
10.234 7.613 6.551
7.998 11.019 10.838
7.927 11.298 11.338
0.876 0.033 6.842
0.774 0.388 6.891
0.501 0.883 7.584
1.533 0.065 6.254
1.207 0.409 6.725
0.926 0.869 7.235
0.801 1.296 7.689
0.537 1.273 8.063
1.989 0.246 5.887
2.009 0.540 6.113
1.507 0.792 6.480
1.423 1.344 7.187
1.424 1.585 7.516
0.881 1.873 7.824
0.863 2.301 8.458
2.720 0.098 5.636
2.363 0.337 5.732
2.446 0.689 6.169
2.046 1.331 6.705
1.824 1.257 7.221
1.734 1.928 7.611
1.364 2.011 7.868
1.339 2.247 8.055
0.888 2.930 8.718
0.275 3.787 9.871
0.138 4.116 10.174
-0.034 4.094 10.742
3.277 0.601 5.526
2.970 0.662 5.843
2.746 1.069 6.346
2.376 1.502 6.481
2.139 1.949 6.811
2.345 1.892 7.546
1.993 2.453 7.854
1.827 2.718 8.313
1.699 3.041 8.522
1.031 3.819 9.651
0.664 4.402 10.177
0.536 4.501 10.641
0.127 4.780 10.871
0.275 5.304 11.554
3.559 1.117 5.632
3.256 1.452 6.109
2.912 1.863 6.472
2.803 2.108 6.835
2.450 2.548 7.489
2.374 2.639 7.639
2.254 2.949 8.326
1.201 4.539 10.098
1.018 4.809 10.468
0.870 5.413 11.071
0.689 5.429 11.506
0.300 5.680 11.812
0.113 6.105 12.102
3.815 1.721 6.053
3.625 2.307 6.492
3.064 2.540 7.085
2.849 2.669 7.535
2.894 2.839 7.870
1.189 5.078 10.735
1.161 5.536 10.874
1.049 6.031 11.302
0.921 6.060 11.711
0.432 6.693 12.208
3.879 2.346 6.408
3.574 2.814 7.115
3.298 3.198 7.462
1.516 5.762 10.751
1.335 6.204 11.115
1.123 6.443 11.647
5.815 4.484 6.285
5.838 4.560 6.448
5.621 5.074 6.967
3.587 7.603 10.461
3.344 8.281 10.828
3.262 8.470 11.308
6.342 4.525 5.874
6.145 4.844 6.181
6.258 5.058 6.392
5.807 5.182 6.967
5.708 5.457 7.222
4.213 7.952 9.963
4.163 8.116 10.315
3.632 8.344 11.000
3.540 8.909 11.162
3.439 8.933 11.645
7.210 4.475 5.139
6.772 4.668 5.708
6.733 4.909 5.832
6.732 5.167 6.546
6.306 5.638 6.698
6.253 5.730 7.312
6.038 6.251 7.713
4.979 7.596 9.787
4.762 8.251 10.080
4.555 8.380 10.274
4.322 8.669 10.709
4.066 8.975 11.275
3.633 9.205 11.745
8.361 2.602 2.785
7.639 4.563 5.224
7.440 5.164 5.822
7.192 5.447 6.216
6.909 5.787 6.457
6.799 5.945 6.890
6.373 6.430 7.145
6.531 6.650 7.735
5.379 8.073 9.781
5.276 8.221 10.077
4.795 8.538 10.434
4.727 8.911 10.552
4.298 9.233 11.189
4.429 9.532 11.699
8.699 2.930 3.010
7.958 5.158 5.273
7.722 5.385 5.651
7.652 5.550 6.020
7.486 6.028 6.515
7.374 6.088 6.888
7.198 6.431 7.056
5.527 8.686 9.762
5.323 9.055 10.522
4.950 9.302 10.531
4.819 9.901 10.994
4.745 10.081 11.333
9.437 3.166 3.053
8.111 5.718 5.493
8.137 6.090 6.175
7.932 6.449 6.383
7.703 6.421 6.946
5.701 9.331 10.508
5.554 9.747 10.621
5.324 9.828 10.983
5.074 10.540 11.518
8.523 6.054 6.163
8.314 6.379 6.319
5.843 9.882 10.739
5.725 10.255 10.937
0.347 0.607 6.180
0.175 0.724 6.648
0.985 0.318 5.903
0.831 0.711 6.111
0.625 1.170 6.870
0.625 1.331 7.214
1.957 0.446 5.407
1.825 0.827 6.037
1.378 1.125 6.436
1.096 1.268 6.684
1.117 1.782 6.947
0.994 2.096 7.501
2.203 0.855 5.562
2.201 0.982 6.007
1.981 1.307 6.231
1.639 1.824 6.607
1.387 1.984 7.128
1.071 2.495 7.256
1.058 2.701 7.714
0.053 4.426 9.881
2.621 1.039 5.473
2.439 1.286 5.793
2.244 1.773 6.109
1.900 2.154 6.660
1.895 2.346 6.910
1.566 2.845 7.277
1.528 2.943 8.006
0.524 4.413 9.701
0.069 4.720 10.331
-0.030 5.105 10.432
2.964 1.737 5.855
2.881 2.045 6.051
2.406 2.270 6.503
2.348 2.800 6.869
2.108 3.099 7.270
0.478 5.231 10.125
0.580 5.529 10.720
0.382 5.696 11.166
0.042 6.049 11.366
3.276 2.431 6.291
2.967 2.728 6.622
2.770 3.027 6.847
0.954 5.867 10.343
0.511 6.142 11.035
0.362 6.605 11.152
5.348 4.881 6.184
3.080 8.631 10.616
6.291 4.620 5.381
6.205 4.842 5.732
5.731 5.160 6.181
5.662 5.595 6.349
3.984 8.461 9.881
3.717 8.811 10.535
3.319 9.053 10.944
3.271 9.180 11.215
6.921 4.953 5.437
6.482 5.080 5.463
6.475 5.522 6.060
6.215 6.092 6.570
6.045 6.190 6.833
4.224 8.606 9.617
4.278 8.897 9.963
4.085 9.003 10.343
3.700 9.518 10.715
3.693 9.820 11.337
7.482 5.038 4.666
7.092 5.332 5.394
6.810 5.716 5.489
6.684 5.789 6.052
6.598 6.347 6.621
6.375 6.557 6.747
4.802 8.772 9.516
4.584 9.149 10.170
4.414 9.233 10.462
4.465 9.687 10.690
3.960 10.138 11.082
8.724 2.973 2.455
7.534 5.696 5.249
7.608 5.757 5.570
7.301 6.178 6.011
7.168 6.639 6.371
6.566 6.978 6.818
5.370 8.970 9.662
5.140 9.487 9.822
4.739 9.656 10.531
4.537 10.050 10.801
4.391 10.463 11.002
7.843 6.049 5.452
7.652 6.724 6.213
7.220 7.063 6.569
5.760 9.775 9.919
5.376 9.938 10.330
5.081 10.245 10.770
0.595 0.998 6.127
0.566 1.616 6.486
0.278 1.645 6.526
1.562 1.205 5.480
1.031 1.501 6.052
0.916 1.982 6.316
0.979 2.197 6.792
0.649 2.454 7.020
2.203 1.353 4.994
1.775 1.622 5.295
1.616 1.709 5.824
1.418 2.202 6.277
1.096 2.346 6.499
1.183 2.762 7.253
2.106 1.977 5.489
1.947 2.007 5.759
1.918 2.414 6.416
1.447 2.802 6.651
1.481 3.004 7.255
2.780 1.922 5.651
2.733 2.383 5.848
2.164 2.736 6.166
2.212 3.000 6.639
0.368 6.072 10.241
0.124 6.254 10.394
2.970 3.185 6.089
0.342 6.590 10.376
5.072 5.408 5.544
2.951 8.941 10.125
6.197 4.750 4.827
5.882 5.203 5.300
5.451 5.509 5.812
5.243 5.784 6.008
3.343 8.670 9.850
3.181 8.974 10.105
3.041 9.308 10.652
3.059 9.643 10.659
6.690 5.436 5.065
6.435 5.752 5.270
6.261 5.720 5.823
5.958 6.344 6.030
5.583 6.566 6.646
4.138 8.797 9.446
3.890 9.090 9.553
3.710 9.564 9.822
3.773 9.688 10.222
3.555 9.880 11.026
7.207 5.282 4.610
6.978 5.651 4.849
6.831 5.947 5.164
6.388 6.208 5.533
6.408 6.400 6.174
6.016 7.048 6.404
4.843 9.152 9.084
4.447 9.216 9.655
4.347 9.586 9.988
3.824 9.964 10.409
3.923 10.285 10.777
8.217 3.522 1.899
7.171 6.042 5.068
7.091 6.143 5.284
6.810 6.423 5.556
6.576 6.853 6.185
6.417 6.972 6.638
5.201 9.565 9.031
4.769 9.541 9.765
4.752 9.969 9.791
4.490 10.391 10.591
4.059 10.461 10.893
7.775 6.598 5.124
7.283 7.067 5.489
7.243 6.965 5.869
5.224 9.906 9.667
4.999 10.150 9.813
4.709 10.759 10.419
0.536 1.451 5.487
0.363 1.855 5.777
-0.001 2.036 6.239
1.166 1.519 5.182
1.120 1.611 5.553
0.744 2.061 5.816
0.335 2.613 6.151
0.528 2.666 6.878
1.605 1.639 4.608
1.644 1.630 5.157
1.534 1.950 5.559
1.098 2.475 6.100
0.905 2.803 6.177
0.582 3.010 6.528
1.931 2.016 5.170
1.937 2.268 5.638
1.714 2.918 6.008
1.559 2.894 6.288
1.169 3.440 6.656
2.646 2.455 4.999
2.279 2.867 5.401
2.083 2.899 6.046
1.768 3.334 6.153
2.581 3.379 5.908
0.272 6.708 10.162
5.102 5.113 5.091
5.011 5.743 5.160
4.621 5.772 5.583
2.767 8.671 9.168
2.639 9.232 9.835
2.567 9.497 10.223
5.698 5.411 4.642
5.791 5.641 5.148
5.451 5.894 5.408
5.157 6.364 5.890
5.126 6.693 6.261
3.321 8.592 9.087
3.290 9.251 9.250
3.249 9.517 9.718
2.888 9.680 10.042
2.677 10.162 10.365
6.301 5.085 4.239
6.132 5.766 4.660
5.904 5.747 4.814
5.900 6.172 5.497
5.804 6.688 5.709
5.323 6.900 6.005
5.203 7.255 6.532
4.146 8.843 8.389
3.945 8.874 9.048
3.633 9.536 9.405
3.437 9.597 9.533
3.475 9.992 9.932
3.162 10.429 10.623
7.802 3.313 1.915
6.947 5.637 3.941
6.738 5.714 4.343
6.462 6.329 4.776
6.123 6.702 5.406
6.162 6.941 5.667
5.981 7.051 6.149
5.693 7.613 6.329
4.499 9.028 8.551
4.471 9.297 8.731
4.055 9.803 9.102
4.065 9.801 9.725
3.800 10.519 9.821
3.657 10.787 10.436
8.085 3.762 1.648
7.300 5.794 3.955
7.123 6.270 4.350
7.002 6.395 4.979
6.557 6.731 5.357
6.358 7.251 5.761
6.427 7.325 6.059
4.842 9.806 8.883
4.527 10.057 9.209
4.589 10.276 9.749
4.048 10.825 9.870
4.211 10.919 10.551
8.487 3.873 1.897
7.711 6.537 4.512
7.189 6.762 4.858
7.047 7.223 5.384
6.976 7.330 5.646
5.160 10.181 9.301
5.033 10.553 9.433
4.866 10.852 10.129
4.419 11.179 10.221
7.642 7.260 4.757
7.456 7.577 5.133
5.212 10.779 9.591
5.158 11.207 10.133
0.679 1.238 4.896
0.146 1.801 5.223
0.047 2.224 5.423
1.095 1.554 4.454
0.860 1.727 4.848
0.585 2.138 5.039
0.692 2.506 5.452
0.161 2.866 5.814
0.104 2.889 6.432
1.709 1.582 4.303
1.481 1.953 4.895
1.331 2.546 5.139
0.790 2.648 5.558
0.677 2.960 6.088
0.494 3.558 6.427
0.282 3.482 6.851
2.061 2.105 4.465
1.817 2.354 4.879
1.788 2.695 5.008
1.268 2.895 5.437
1.282 3.482 5.871
1.140 3.754 6.267
0.707 3.799 6.611
3.358 0.224 2.129
2.252 2.585 4.649
1.863 2.836 5.131
1.633 3.276 5.478
1.626 3.553 5.805
1.280 4.160 6.269
2.272 3.167 5.015
2.346 3.540 5.311
1.863 3.842 5.656
0.143 6.728 9.558
4.430 5.280 4.585
4.360 5.570 4.814
3.843 5.701 5.470
2.236 8.677 9.017
1.856 9.212 9.225
1.779 9.525 9.667
5.122 5.308 4.345
4.918 5.607 4.692
4.596 5.945 4.865
4.441 6.265 5.158
4.301 6.475 5.668
2.911 8.944 8.402
2.809 8.842 8.960
2.443 9.152 9.121
2.281 9.775 9.862
1.966 10.119 10.291
5.626 5.137 3.854
5.454 5.405 3.953
5.352 5.964 4.576
5.057 6.285 4.754
5.120 6.473 5.321
4.789 6.971 5.895
4.623 7.249 6.253
3.511 8.655 7.987
3.244 8.978 8.317
3.136 9.244 8.973
2.661 9.694 9.157
2.786 9.919 9.787
2.458 10.480 9.943
6.894 3.428 1.358
6.346 5.462 3.155
6.071 5.519 3.538
6.056 5.857 4.292
5.812 6.357 4.530
5.777 6.743 5.090
5.433 6.926 5.320
5.185 7.094 5.513
4.852 7.348 5.928
4.769 7.600 6.617
4.131 8.639 7.883
3.743 9.132 8.119
3.728 9.159 8.391
3.578 9.800 8.806
3.469 9.857 9.163
3.253 10.520 9.834
3.077 10.730 10.143
7.474 3.835 1.261
7.148 3.979 1.881
6.771 5.591 3.540
6.644 6.035 3.833
6.437 6.105 4.197
6.249 6.448 4.458
5.970 6.751 4.882
5.813 7.149 5.473
5.481 7.658 5.633
5.221 7.975 6.132
5.045 8.150 6.500
4.650 9.232 7.594
4.235 9.379 7.881
3.944 9.730 8.313
4.002 9.968 8.694
3.640 10.193 9.122
3.594 10.589 9.615
3.288 10.974 9.863
8.094 3.828 1.512
7.734 4.411 1.618
7.091 5.887 3.283
7.123 6.080 3.501
6.827 6.551 3.899
6.863 7.035 4.651
6.589 7.261 4.798
6.320 7.602 5.083
6.039 7.868 5.685
5.915 8.229 5.864
4.797 9.577 8.251
4.746 10.037 8.476
4.354 10.150 9.047
4.300 10.820 9.253
3.781 10.747 9.807
3.582 11.255 10.023
8.166 4.165 1.333
8.000 4.764 1.720
7.409 6.434 3.784
7.126 7.020 3.996
6.907 7.099 4.471
6.948 7.420 5.003
6.633 8.006 5.284
6.510 8.071 5.732
5.179 10.490 8.616
5.033 10.471 8.692
4.727 10.759 9.168
4.317 11.438 9.752
3.999 11.523 10.015
8.820 4.841 1.438
7.563 7.071 4.079
7.677 7.528 4.611
7.184 7.600 4.999
7.180 8.043 5.416
5.082 10.961 8.713
5.210 11.212 9.196
4.803 11.638 9.561
4.804 11.771 9.939
7.926 7.957 4.495
7.999 8.240 4.923
5.373 11.417 9.182
5.181 11.711 9.758
9.245 8.810 4.248
9.253 9.192 4.796
6.791 12.581 9.191
0.282 1.486 4.080
0.414 1.869 4.276
0.086 2.207 4.951
0.899 1.339 3.757
1.011 1.644 3.788
0.516 1.966 4.243
0.369 2.276 4.629
0.345 2.608 5.050
0.157 3.066 5.697
1.855 0.046 1.996
1.342 1.640 3.718
1.362 2.279 3.769
1.164 2.234 4.455
0.825 2.664 4.732
0.536 2.826 5.077
0.350 3.190 5.362
0.495 3.740 5.813
0.088 4.105 6.322
2.620 0.116 1.800
2.163 0.590 1.880
2.050 1.999 3.572
1.609 2.588 4.075
1.722 2.843 4.534
1.382 3.147 4.586
0.956 3.488 4.929
1.095 3.645 5.723
0.592 3.862 5.984
0.696 4.390 6.445
0.483 4.483 6.639
3.108 0.566 1.521
2.602 0.789 2.030
2.304 2.915 3.916
1.869 3.181 4.492
1.793 3.419 4.670
1.389 3.606 5.035
1.387 4.065 5.467
1.259 4.161 5.881
0.852 4.448 6.267
3.357 0.854 1.586
2.485 3.159 4.236
2.234 3.575 4.725
2.239 4.137 5.135
1.764 4.335 5.552
1.811 4.626 5.736
0.132 6.714 8.788
2.538 4.189 4.622
2.558 4.192 5.245
2.059 4.459 5.443
0.518 7.509 8.850
0.019 7.558 9.622
3.358 4.948 4.222
2.934 5.058 4.795
3.021 5.743 5.214
1.115 8.374 8.808
0.659 8.713 8.809
0.671 8.893 9.557
3.777 5.111 3.785
3.705 5.276 4.088
3.751 5.427 4.441
3.565 6.020 5.179
1.518 8.790 8.650
1.303 8.891 8.984
0.875 9.476 9.363
0.827 9.515 9.856
4.564 5.358 3.706
4.082 5.607 4.377
4.096 5.707 4.406
3.774 6.057 5.202
3.770 6.506 5.590
2.178 8.923 8.354
2.115 9.141 8.563
1.868 9.484 8.996
1.690 9.617 9.449
1.250 10.118 9.848
5.248 5.450 3.596
4.861 5.534 3.984
4.764 5.733 4.284
4.442 6.050 4.472
4.092 6.333 4.971
4.011 6.785 5.527
3.683 7.008 5.587
2.785 8.939 7.646
2.386 9.142 7.973
2.308 9.396 8.663
2.271 9.474 8.848
1.766 9.843 9.360
1.749 10.153 9.926
6.275 3.472 1.130
6.108 4.846 2.762
5.790 5.172 2.869
5.321 5.390 3.358
5.245 6.064 3.731
5.146 6.163 4.202
4.847 6.496 4.701
4.607 6.708 4.912
4.457 6.959 5.349
4.328 7.369 5.637
3.867 7.608 6.352
3.303 8.579 7.403
3.388 9.041 7.709
3.138 9.269 8.206
2.738 9.863 8.340
2.817 9.971 8.782
2.259 10.492 9.371
2.260 10.749 9.771
6.558 3.694 0.908
6.619 4.186 1.379
6.305 4.360 2.010
6.490 5.034 2.197
6.222 5.191 2.367
6.024 5.623 2.951
5.913 5.707 3.292
5.919 6.198 3.676
5.556 6.366 4.237
5.333 6.864 4.447
5.342 7.151 4.749
5.054 7.626 5.219
4.690 7.883 5.540
4.423 8.129 6.253
4.154 8.263 6.691
4.087 8.589 6.744
3.734 9.260 7.380
3.475 9.378 7.854
3.344 9.538 7.899
3.187 10.120 8.478
3.087 10.161 8.782
2.980 10.563 9.400
2.584 11.100 9.750
7.383 3.834 1.169
7.093 4.534 1.586
6.979 4.645 1.719
6.395 5.010 2.110
7.040 5.351 2.202
6.879 5.712 2.429
6.578 6.093 3.083
6.301 6.252 3.346
6.142 6.523 3.699
5.952 6.640 4.328
5.821 7.233 4.677
5.570 7.481 4.717
5.211 7.585 5.489
5.185 8.097 5.521
5.116 8.324 6.266
4.947 8.743 6.325
4.505 9.132 7.099
4.221 9.481 7.129
4.125 9.557 7.839
4.095 9.976 8.165
3.570 10.369 8.532
3.305 10.765 8.871
3.403 10.868 9.225
2.903 11.451 9.811
7.620 4.158 0.971
7.498 4.448 1.160
7.126 5.121 1.910
7.158 5.182 2.255
7.300 5.766 2.078
7.062 5.962 2.656
7.257 6.397 3.046
6.942 6.513 3.267
6.733 6.905 3.912
6.570 7.142 4.139
6.149 7.574 4.471
6.163 7.983 5.118
5.829 8.122 5.463
5.556 8.504 5.848
5.198 8.547 5.881
5.070 9.267 6.654
4.976 9.517 7.066
4.978 9.726 7.371
4.485 9.924 7.620
4.547 10.386 8.034
4.074 10.748 8.453
4.023 10.804 8.761
3.537 11.224 9.274
3.733 11.747 9.472
7.974 4.490 0.752
7.804 4.883 1.390
7.736 5.438 1.835
7.292 5.514 2.049
7.427 6.356 2.784
7.406 6.916 3.358
7.181 7.124 3.564
7.011 7.279 3.944
6.630 7.799 4.468
6.278 8.289 4.844
6.221 8.548 5.117
5.914 8.942 5.712
4.957 10.143 7.598
4.989 10.613 8.189
4.418 11.026 8.262
4.288 11.350 9.012
4.287 11.782 9.330
4.026 11.697 9.437
8.400 4.877 1.098
8.484 5.161 1.294
7.655 7.162 3.364
7.426 7.321 3.858
7.196 7.849 4.222
7.105 8.074 4.481
6.914 8.590 4.757
6.908 8.891 5.342
5.325 10.978 7.983
4.898 11.114 8.553
4.926 11.661 8.762
4.530 11.853 9.255
4.507 12.277 9.456
8.853 5.144 0.951
7.773 8.010 3.763
7.641 8.194 3.875
7.752 8.641 4.370
7.314 8.634 4.971
5.414 11.461 8.472
5.402 11.903 8.913
5.184 12.074 9.387
5.057 12.461 9.636
8.319 8.588 3.964
8.083 8.860 4.386
7.712 8.986 4.932
5.887 11.912 8.231
5.751 12.218 8.912
5.439 12.549 9.073
8.761 8.796 3.906
8.267 8.957 4.561
8.195 9.465 4.591
6.315 12.018 8.490
6.124 12.391 8.877
9.355 8.861 3.547
9.008 9.255 3.954
8.806 9.390 4.234
8.680 9.894 4.600
6.862 12.733 8.166
0.503 1.338 3.409
0.303 1.941 3.738
1.407 -0.021 1.514
1.441 1.042 2.485
1.193 1.650 2.973
0.634 1.923 3.070
0.845 1.951 3.795
0.442 2.429 4.222
0.217 2.873 4.451
0.147 3.001 4.835
2.043 0.375 1.416
1.758 0.642 1.752
1.358 0.671 1.973
1.459 1.079 2.293
1.669 1.465 2.296
1.291 1.702 2.879
1.393 1.926 3.410
1.143 2.600 3.603
0.924 2.776 4.071
0.549 3.111 4.440
0.298 3.312 4.575
0.250 3.635 5.289
-0.106 3.912 5.658
2.423 0.636 1.114
1.916 0.807 1.560
2.026 1.019 1.936
1.902 1.390 2.226
2.302 1.725 2.394
1.957 2.150 2.583
1.815 2.384 3.346
1.493 2.604 3.576
1.475 2.990 4.122
1.318 3.396 4.436
0.984 3.682 4.562
0.852 3.871 5.167
0.322 4.102 5.750
0.453 4.631 5.787
0.151 4.946 6.530
2.681 0.645 1.336
2.664 1.346 1.511
2.457 1.485 2.156
2.108 1.791 2.502
2.548 2.549 2.973
2.164 2.768 2.992
1.900 2.990 3.497
1.905 3.409 3.916
1.755 3.572 4.554
1.198 3.920 4.757
1.219 4.164 5.217
1.127 4.652 5.558
0.681 5.037 5.751
0.376 5.129 6.113
3.244 1.278 1.254
2.914 1.461 1.458
2.782 1.906 1.807
2.290 3.340 3.489
2.159 3.854 4.092
2.104 4.015 4.298
1.606 4.501 4.751
1.707 4.554 4.925
1.342 4.730 5.407
1.264 5.086 6.109
0.101 6.823 8.017
3.510 1.279 1.091
2.454 3.940 3.840
2.636 4.365 4.170
2.099 4.420 4.578
1.952 4.868 5.276
1.918 5.456 5.416
0.548 7.382 8.286
0.128 7.947 8.703
2.951 4.127 4.093
2.903 4.662 4.405
2.809 5.063 4.856
2.553 5.182 5.038
0.724 7.910 8.739
0.269 8.273 8.880
0.257 8.871 9.453
3.229 5.151 4.390
3.316 5.410 4.708
2.761 5.772 5.181
0.833 8.290 8.444
0.732 8.874 9.144
0.657 9.163 9.469
3.079 5.141 3.459
3.105 5.437 4.089
2.919 5.442 4.467
2.768 5.926 4.866
2.652 6.073 4.984
1.130 8.317 7.851
0.739 8.718 8.388
0.394 8.917 8.440
0.354 9.439 8.815
0.105 9.457 9.587
3.941 5.233 3.490
3.515 5.476 3.805
3.414 6.034 4.154
2.993 6.253 4.634
2.775 6.550 4.918
1.511 8.543 7.873
1.407 9.095 8.247
1.000 9.181 8.484
0.961 9.733 8.808
0.420 10.152 9.547
4.547 5.395 3.199
4.142 5.536 3.576
3.902 5.922 3.638
3.736 6.071 4.121
3.702 6.489 4.817
3.398 6.953 4.914
3.283 7.197 5.349
1.989 8.529 7.220
1.941 9.131 7.805
1.817 9.268 8.056
1.651 9.702 8.375
1.148 10.052 9.059
1.120 10.087 9.277
5.553 3.487 0.541
5.181 5.085 2.453
4.664 5.694 2.961
4.700 6.064 3.506
4.570 6.090 3.794
4.269 6.492 4.201
3.906 6.909 4.801
3.712 7.232 5.211
3.565 7.455 5.274
3.340 7.934 5.942
2.592 8.618 6.867
2.437 8.851 7.472
2.405 9.154 7.589
2.185 9.822 8.371
2.051 9.969 8.552
1.675 10.493 8.944
1.562 10.604 9.168
6.048 3.506 0.757
6.059 3.905 1.026
5.973 4.982 1.620
5.667 5.270 2.302
5.286 5.666 2.436
5.459 5.879 2.926
5.020 6.240 3.548
4.689 6.450 3.690
4.598 6.715 4.218
4.297 7.286 4.496
4.309 7.268 5.035
4.201 7.688 5.223
3.868 8.028 5.847
3.760 8.530 5.973
3.266 8.563 6.400
3.178 8.957 7.154
3.036 9.236 7.477
2.956 9.601 7.903
2.758 9.848 8.332
2.516 10.405 8.401
2.127 10.491 8.773
2.060 10.725 9.274
6.556 3.812 0.838
6.379 4.291 1.098
6.214 4.686 1.525
6.014 5.102 1.832
6.443 5.322 1.770
6.060 5.474 2.358
5.852 5.739 2.499
5.760 6.178 3.079
5.551 6.462 3.196
5.144 6.701 3.578
4.992 7.294 4.255
4.820 7.530 4.502
4.543 7.746 4.776
4.331 8.304 5.361
4.418 8.307 5.685
3.962 8.533 6.204
3.715 9.045 6.385
3.690 9.158 7.083
3.534 9.629 7.447
3.034 9.794 7.523
3.222 10.215 8.155
2.954 10.526 8.555
2.411 10.760 8.996
2.593 11.226 9.405
7.134 4.273 0.563
6.618 4.659 1.101
6.645 4.804 1.620
6.297 5.112 1.933
6.925 5.714 1.628
6.755 5.933 2.108
6.516 6.076 2.566
6.083 6.365 3.132
5.794 6.853 3.566
5.584 7.001 3.850
5.418 7.549 4.193
5.478 7.762 4.361
5.307 7.941 5.040
4.891 8.510 5.438
4.510 8.762 5.645
4.682 9.052 6.206
4.187 9.434 6.438
4.126 9.762 6.807
3.783 9.797 7.333
3.678 10.141 7.682
3.546 10.554 7.933
3.114 10.736 8.410
2.925 11.404 8.897
2.939 11.475 9.409
7.488 4.654 0.719
7.024 5.003 0.955
6.929 5.248 1.281
6.983 5.686 1.980
7.207 5.802 1.800
6.954 6.324 2.286
6.681 6.692 2.640
6.417 6.640 2.820
6.498 7.026 3.490
6.027 7.594 3.543
5.804 7.855 4.183
5.601 8.263 4.724
5.489 8.259 4.731
5.216 8.732 5.418
5.191 9.199 5.750
4.879 9.270 5.917
4.891 9.580 6.666
4.615 9.995 6.985
4.129 10.528 7.297
4.179 10.723 7.496
3.790 11.094 8.095
3.649 11.141 8.302
3.504 11.566 8.966
3.250 12.075 9.298
7.986 4.809 0.494
7.790 5.277 0.876
7.550 5.522 1.525
7.134 5.995 1.892
7.555 6.253 1.896
7.272 6.364 1.941
7.264 6.803 2.686
7.022 7.037 2.995
7.026 7.456 3.520
6.594 7.685 3.697
6.330 8.254 4.073
6.276 8.432 4.603
5.978 8.680 4.709
5.913 8.993 5.459
5.576 9.177 5.727
5.454 9.492 6.208
5.094 10.050 6.462
4.983 10.239 6.763
4.578 10.568 7.426
4.627 10.801 7.579
4.512 11.225 8.102
3.985 11.549 8.492
4.062 11.755 8.840
3.630 12.144 9.124
8.191 5.187 0.669
8.017 5.537 1.059
7.972 6.096 1.437
7.548 6.239 1.714
7.742 7.223 2.427
7.386 7.429 2.727
7.305 7.958 3.252
6.914 8.279 3.665
6.745 8.638 4.066
6.643 8.834 4.315
6.477 9.259 4.702
6.418 9.386 5.262
5.394 10.902 7.251
5.187 11.340 7.683
4.642 11.738 7.962
4.650 12.105 8.325
4.274 12.126 8.796
4.119 12.495 9.207
8.812 5.734 0.450
8.473 5.756 1.047
7.922 7.950 2.847
7.515 8.302 3.078
7.666 8.358 3.704
7.393 8.572 3.894
7.078 9.135 4.444
6.806 9.419 4.984
5.439 11.716 7.839
5.031 11.696 7.987
5.117 12.035 8.276
4.675 12.461 8.944
9.249 5.839 0.499
7.970 8.426 3.224
7.787 8.668 3.730
7.949 9.119 3.990
7.596 9.216 4.254
7.429 9.621 4.712
5.888 11.764 7.641
5.680 12.098 8.160
5.282 12.420 8.498
8.570 8.546 3.298
8.377 9.224 3.626
8.262 9.453 4.236
8.164 9.789 4.235
7.721 10.094 4.701
6.194 12.227 7.699
6.142 12.521 7.857
9.157 8.875 2.990
9.045 8.989 3.037
9.024 9.570 3.452
8.541 9.630 4.052
8.469 9.929 4.246
8.120 10.300 4.984
6.832 12.694 7.412
10.565 6.900 0.450
0.626 0.320 1.448
0.440 1.070 2.040
0.219 1.635 2.625
0.339 1.784 2.792
1.032 0.072 0.841
0.870 0.542 1.348
0.643 0.710 1.869
0.774 1.306 2.102
0.994 1.317 1.939
0.868 1.782 2.608
0.412 1.941 2.729
0.492 2.200 3.223
0.377 2.760 3.524
1.720 0.365 0.665
1.617 0.775 1.356
1.432 1.240 1.619
1.170 1.559 2.029
1.323 1.924 1.884
1.304 1.984 2.415
1.227 2.559 2.819
0.976 2.719 3.403
0.761 2.874 3.475
0.385 3.406 3.899
0.413 3.541 4.575
-0.172 4.030 4.958
1.999 0.892 0.844
1.967 1.293 1.084
1.685 1.485 1.511
1.403 1.630 2.136
1.761 2.034 2.208
1.527 2.296 2.298
1.387 2.610 2.984
1.402 2.937 3.279
1.050 3.380 3.400
0.915 3.588 3.987
0.628 3.937 4.503
0.638 4.475 4.925
0.393 4.466 5.307
0.081 5.094 5.694
2.709 1.247 0.797
2.169 1.265 1.072
2.142 1.753 1.771
1.747 2.186 1.968
2.305 2.404 1.908
2.086 2.916 2.391
2.146 3.016 2.663
1.676 3.243 3.031
1.437 3.479 3.632
1.203 3.837 3.886
0.912 4.367 4.478
1.079 4.749 4.668
0.589 5.057 5.250
0.628 5.286 5.719
0.314 5.670 6.001
0.164 5.763 6.456
2.870 1.614 0.750
2.607 1.818 1.028
2.758 2.134 1.435
2.531 2.327 1.961
2.293 3.325 2.554
2.270 3.539 3.268
1.787 4.097 3.547
1.667 4.137 3.860
1.340 4.444 4.349
1.482 4.978 4.650
1.316 5.078 5.289
0.723 5.716 5.690
0.673 5.846 5.925
0.053 7.004 7.267
3.249 1.986 0.916
3.082 1.990 1.062
2.539 3.866 3.106
2.220 4.264 3.696
2.316 4.688 3.993
2.128 4.994 4.498
1.863 5.390 4.894
1.473 5.572 4.915
1.180 5.767 5.482
0.508 7.306 7.535
0.025 7.608 7.762
3.717 1.981 0.675
2.681 4.830 3.306
2.651 4.741 3.982
2.384 5.397 4.110
2.258 5.523 4.800
2.017 5.777 5.028
0.564 8.091 8.057
0.148 8.193 8.451
-0.024 8.577 8.669
3.315 5.021 3.612
3.042 5.266 4.085
2.966 5.589 4.188
2.582 5.683 4.789
2.510 6.030 5.108
0.807 8.427 7.886
0.821 8.656 8.220
0.429 8.875 8.587
0.429 9.139 9.089
0.008 9.725 9.268
3.139 5.053 2.735
2.875 5.177 3.017
2.633 5.350 3.640
2.810 6.030 3.753
2.525 6.140 4.328
2.210 6.572 4.568
0.683 8.874 7.482
0.511 8.874 8.052
0.383 9.436 8.336
0.259 9.490 8.675
4.410 2.891 0.326
3.813 5.085 2.492
3.481 5.469 3.186
3.217 5.747 3.325
3.230 6.343 3.726
2.853 6.413 4.255
2.684 6.616 4.859
1.283 8.990 7.304
1.170 9.232 7.908
0.878 9.810 8.416
0.733 10.178 8.832
0.243 10.418 8.965
4.869 3.470 0.172
4.243 5.388 2.316
4.261 5.669 2.762
3.901 5.702 3.065
3.823 6.376 3.282
3.582 6.624 3.846
3.164 6.948 4.145
3.197 7.343 4.723
2.785 7.606 5.043
1.887 9.143 6.824
1.709 9.409 7.440
1.476 9.734 7.754
1.124 10.164 8.339
0.829 10.388 8.681
0.689 10.471 8.953
5.586 3.665 0.280
5.136 3.941 0.536
5.037 5.064 1.537
4.981 5.404 1.902
4.795 5.535 2.061
4.733 5.685 2.550
4.178 6.107 3.162
4.088 6.358 3.625
4.116 6.622 3.835
3.958 6.978 4.221
3.469 7.640 4.737
3.486 7.958 5.141
3.116 8.188 5.477
2.856 8.432 5.753
2.819 8.912 6.314
2.578 8.863 6.609
2.271 9.317 6.879
2.066 9.795 7.474
2.011 9.989 7.929
1.858 10.451 8.150
1.540 10.671 8.703
1.457 10.736 9.034
5.760 3.995 0.102
5.563 4.296 0.691
5.361 4.478 0.989
5.000 4.787 1.429
5.530 5.294 1.391
5.421 5.783 1.887
5.068 5.721 2.359
4.827 6.154 2.846
4.641 6.689 3.036
4.639 6.676 3.581
4.561 6.946 3.765
4.337 7.582 4.197
3.928 7.900 4.724
3.800 8.303 5.071
3.578 8.307 5.399
3.380 8.776 5.696
3.254 9.124 6.025
2.999 9.195 6.797
2.887 9.631 6.819
2.698 10.068 7.506
2.226 10.426 7.714
1.958 10.603 8.275
1.770 11.061 8.692
1.503 11.146 8.919
6.362 4.488 0.398
6.200 4.509 0.845
5.956 4.828 1.193
5.715 5.140 1.661
5.963 5.704 1.398
5.873 5.795 1.758
5.503 6.270 2.278
5.529 6.379 2.405
5.347 7.022 3.078
4.948 7.204 3.226
4.693 7.550 3.689
4.579 7.838 4.042
4.326 7.917 4.471
4.417 8.552 5.116
4.181 8.916 5.236
3.662 9.203 5.598
3.404 9.387 6.064
3.570 9.557 6.588
3.211 10.066 6.823
2.794 10.515 7.493
2.639 10.628 7.723
2.459 10.924 8.060
2.326 11.317 8.441
1.973 11.771 9.065
6.671 4.797 0.415
6.581 5.108 0.851
6.249 5.268 1.052
6.163 5.465 1.462
6.590 5.895 1.370
6.350 6.263 1.706
6.042 6.461 2.155
5.986 6.683 2.755
5.710 7.161 2.875
5.618 7.469 3.212
5.105 7.792 3.578
4.996 8.018 4.088
5.073 8.570 4.566
4.553 8.689 4.824
4.350 9.263 5.259
4.426 9.238 5.653
4.104 9.550 6.010
4.047 10.006 6.382
3.441 10.126 7.022
3.582 10.732 7.286
3.148 10.728 7.549
2.883 11.282 7.970
2.648 11.540 8.542
2.541 12.005 9.016
7.331 5.018 0.259
6.791 5.390 0.540
6.573 5.557 1.080
6.557 5.887 1.394
6.932 6.384 1.534
6.968 6.690 1.609
6.731 6.831 2.295
6.441 7.255 2.660
6.024 7.440 2.792
6.047 7.960 3.265
5.869 8.003 3.833
5.428 8.611 4.346
5.385 8.549 4.655
5.049 8.866 5.013
4.873 9.166 5.442
4.607 9.705 5.652
4.360 9.895 6.136
4.115 10.383 6.423
3.985 10.522 7.092
3.687 10.996 7.509
3.545 11.311 7.501
3.308 11.516 7.907
3.426 12.015 8.642
3.091 12.203 8.980
7.789 5.358 0.254
7.389 5.645 0.718
6.989 6.000 1.147
7.088 6.096 1.345
7.406 6.375 1.448
7.304 6.959 1.976
7.139 7.354 2.012
6.951 7.330 2.624
6.425 7.832 2.783
6.549 8.244 3.418
6.168 8.602 3.923
5.960 8.573 4.135
5.921 9.217 4.572
5.660 9.403 4.862
5.382 9.720 5.497
5.058 9.895 5.892
4.752 10.287 5.939
4.733 10.455 6.424
4.405 11.130 6.725
4.156 11.390 7.241
4.292 11.731 7.522
3.915 12.050 8.076
3.733 12.001 8.646
3.381 12.715 8.791
8.182 5.473 0.165
7.787 5.716 0.636
7.772 6.293 1.071
7.233 6.717 1.219
7.307 7.359 1.953
7.283 7.881 2.574
6.977 8.142 3.040
6.994 8.522 3.198
6.504 8.790 3.702
6.617 8.960 4.262
6.200 9.372 4.477
5.795 9.559 4.791
5.950 10.085 5.309
5.098 10.964 6.301
5.158 11.174 6.841
4.654 11.404 7.399
4.664 11.710 7.751
4.136 12.164 7.926
3.939 12.463 8.320
8.710 5.787 -0.021
8.440 6.399 0.469
7.661 8.242 2.651
7.643 8.427 3.019
7.368 8.606 3.260
7.262 9.202 3.488
6.748 9.371 4.124
6.525 9.646 4.666
6.427 9.957 4.881
5.539 11.549 6.676
5.242 11.737 7.373
5.040 12.111 7.546
4.735 12.380 7.939
8.997 6.213 0.084
8.259 8.602 2.652
7.983 8.864 2.885
7.882 9.116 3.384
7.319 9.325 3.669
7.383 9.873 3.898
7.083 9.841 4.376
5.591 12.030 7.109
5.251 12.608 7.597
9.174 6.482 0.285
8.670 8.698 2.532
8.264 9.059 2.836
8.019 9.330 3.091
8.021 9.665 3.644
7.799 10.004 4.055
7.564 10.115 4.436
5.881 12.393 7.091
9.910 6.900 0.201
9.171 9.212 2.574
8.774 9.560 2.978
8.440 9.573 3.027
8.298 9.903 3.705
8.166 10.417 3.960
8.034 10.698 4.597
7.597 10.750 4.978
6.582 12.734 6.833
10.403 7.118 0.124
0.553 0.172 0.376
0.462 0.595 0.917
0.302 1.340 1.801
-0.060 1.944 2.006
0.863 0.449 0.703
0.818 1.010 0.833
0.523 1.070 1.271
0.121 1.501 1.617
0.782 1.678 1.828
0.625 1.926 1.917
0.179 2.589 2.434
-0.031 2.796 2.721
1.298 0.789 0.300
1.130 1.160 1.010
0.796 1.622 1.084
0.814 1.973 1.760
1.191 2.265 1.723
1.162 2.363 2.178
0.725 2.780 2.289
0.735 3.185 2.932
0.316 3.183 3.340
-0.007 3.625 3.846
1.628 0.970 0.287
1.684 1.450 0.867
1.636 1.667 1.060
1.406 2.001 1.679
1.679 2.532 1.807
1.460 2.920 2.069
1.224 2.878 2.578
0.972 3.191 2.794
0.823 3.707 3.221
0.819 4.077 3.548
0.227 4.107 3.870
0.128 4.564 4.507
-0.099 5.052 4.659
2.409 1.312 0.526
2.022 1.974 0.694
1.818 1.873 1.126
1.827 2.274 1.812
1.900 2.916 1.469
1.855 3.069 1.893
1.514 3.347 2.404
1.666 3.644 2.909
1.268 3.824 3.115
0.903 4.243 3.446
0.842 4.460 4.160
0.502 4.983 4.344
0.331 5.433 4.681
0.260 5.586 5.319
0.076 6.034 5.376
2.847 1.557 0.616
2.732 2.275 1.012
2.518 2.513 1.420
1.895 2.751 1.662
2.570 3.180 1.514
2.277 3.491 1.938
2.123 3.690 2.315
1.921 3.924 2.955
1.756 4.343 3.003
1.484 4.558 3.706
1.310 5.052 3.809
0.900 5.270 4.217
0.886 5.731 4.904
0.587 5.683 5.233
0.671 6.014 5.602
0.426 6.415 5.890
0.098 6.650 6.359
3.198 2.217 0.571
2.756 2.509 0.999
2.926 2.836 1.348
2.410 3.064 1.461
2.766 3.828 2.200
2.548 4.121 2.893
2.008 4.759 3.131
1.922 5.060 3.465
1.551 5.040 4.122
1.720 5.348 4.292
1.471 5.942 4.547
1.121 6.370 4.952
-0.094 7.931 7.199
3.432 2.617 0.185
3.480 2.819 0.934
2.737 4.411 2.639
2.730 5.085 3.307
2.585 5.385 3.615
2.141 5.397 3.898
1.785 5.782 4.261
1.930 6.125 4.615
0.182 8.268 7.587
0.167 8.645 7.801
3.894 2.786 0.456
3.104 5.019 2.894
3.100 5.459 3.203
2.653 5.378 3.410
2.697 5.678 3.831
2.227 5.984 4.146
2.149 6.487 4.685
0.699 8.798 7.352
0.595 9.037 8.032
0.415 9.380 8.081
0.123 9.837 8.635
4.454 2.901 0.292
9.056 0.373 12.525
9.717 0.415 12.073
9.528 0.794 12.445
10.532 0.409 11.840
10.220 0.405 12.251
10.046 1.010 12.333
11.099 0.252 11.178
11.000 0.689 11.710
10.653 0.879 11.964
10.459 1.263 12.541
11.610 0.377 10.887
11.309 0.768 11.154
11.142 1.070 11.527
11.133 1.260 12.260
10.914 1.455 12.271
12.405 0.449 10.605
12.259 0.468 11.054
11.938 0.948 11.415
11.748 1.393 11.622
11.713 1.538 12.229
11.382 1.842 12.286
12.374 1.278 11.413
12.361 1.596 11.797
11.923 1.859 12.212
11.654 2.099 12.449
12.195 2.299 12.185
12.077 2.459 12.224
8.477 0.190 12.062
9.067 0.098 11.631
8.983 0.517 12.099
8.728 0.764 12.437
9.798 0.173 11.409
9.316 0.701 11.769
9.274 0.829 11.977
9.189 1.225 12.506
10.285 0.089 11.099
10.218 0.654 11.198
10.069 0.967 11.680
9.843 1.343 12.063
9.711 1.316 12.558
11.150 0.061 10.628
10.987 0.497 10.962
10.428 0.877 11.482
10.444 1.116 11.868
10.273 1.746 11.973
10.136 1.752 12.557
11.520 0.379 10.192
11.610 0.634 10.542
11.445 0.991 11.063
11.032 1.411 11.085
10.715 1.431 11.578
10.624 1.822 11.998
10.382 2.166 12.276
12.337 0.254 9.493
11.957 0.483 10.037
11.861 0.751 10.547
11.681 1.228 11.001
11.402 1.627 11.347
11.323 1.918 11.795
11.248 2.297 12.007
10.721 2.629 12.482
12.199 1.218 10.274
12.243 1.623 10.764
11.782 1.819 11.413
11.563 2.310 11.714
11.398 2.415 12.012
11.281 2.664 12.212
12.512 2.052 11.171
12.284 2.553 11.698
11.775 2.725 11.993
11.851 3.170 12.351
12.281 3.174 12.016
8.204 0.223 11.526
8.058 0.723 11.810
8.904 0.404 10.831
8.630 0.375 11.409
8.495 0.769 11.866
8.255 1.025 12.177
9.681 0.339 10.742
9.269 0.381 11.042
9.169 1.017 11.475
8.856 1.365 11.836
8.905 1.737 12.357
8.674 1.949 12.498
10.407 0.084 10.176
10.129 0.703 10.707
9.698 1.049 11.006
9.845 1.309 11.410
9.425 1.536 11.741
9.081 1.690 12.153
9.165 2.026 12.720
11.133 0.399 9.682
10.840 0.627 9.994
10.500 0.997 10.648
10.147 1.047 10.836
10.220 1.693 11.492
9.833 2.033 11.852
9.602 2.329 11.915
9.392 2.423 12.454
11.455 0.596 9.600
11.062 1.092 10.089
11.072 1.238 10.374
10.955 1.425 10.933
10.501 1.950 11.499
10.475 2.266 11.754
10.042 2.446 12.266
10.005 2.676 12.627
11.792 1.396 10.241
11.327 1.445 10.377
11.286 1.812 10.766
11.063 2.320 11.155
10.876 2.402 11.462
10.581 2.802 12.002
10.317 2.996 12.318
11.703 1.768 10.510
11.790 2.348 10.854
11.328 2.570 11.374
11.399 2.738 11.578
11.063 2.972 11.853
12.260 2.541 10.738
12.086 2.892 11.338
11.550 2.988 11.434
12.309 3.230 11.294
8.172 0.522 11.196
9.021 0.449 10.376
8.918 0.782 10.460
8.520 0.781 11.115
8.461 1.237 11.552
9.549 0.362 9.875
9.281 0.378 9.990
9.308 1.077 10.683
8.797 1.346 11.066
8.868 1.427 11.485
8.532 1.628 11.905
10.176 0.532 9.980
9.738 0.897 10.058
9.624 1.134 10.549
9.658 1.581 11.144
9.102 1.779 11.552
8.835 2.152 11.581
8.939 2.257 12.200
10.853 0.451 9.181
10.433 1.075 9.548
10.179 1.146 10.064
10.087 1.438 10.544
9.696 1.920 10.840
9.508 2.354 11.219
9.271 2.432 11.935
9.073 2.864 12.146
11.120 1.016 9.644
10.615 1.562 10.126
10.616 1.783 10.373
10.337 2.079 10.863
10.309 2.319 11.516
9.718 2.775 11.666
9.872 3.265 12.090
11.172 1.863 10.160
11.028 2.024 10.440
10.667 2.573 10.804
10.756 2.922 11.224
10.423 3.218 11.629
11.261 2.352 10.666
11.191 2.692 10.923
11.223 3.210 11.110
8.604 0.996 10.293
8.193 1.296 10.816
9.323 0.973 9.900
9.127 1.154 10.216
8.650 1.592 10.504
8.440 1.928 10.820
8.402 2.190 11.212
9.948 0.911 9.294
9.557 1.177 9.714
9.460 1.597 10.130
9.060 1.783 10.481
9.049 2.242 10.805
8.586 2.564 11.502
10.283 1.084 9.308
10.128 1.503 9.693
9.914 2.056 9.982
9.844 2.257 10.626
9.238 2.322 10.847
9.297 2.688 11.161
10.618 1.931 9.610
10.174 2.004 10.018
9.896 2.372 10.566
9.824 2.861 10.822
9.795 3.184 11.522
10.911 2.220 9.941
10.838 2.272 10.059
10.605 2.866 10.394
10.149 3.150 10.948
8.125 1.664 10.208
9.114 1.200 9.311
8.692 1.509 9.714
8.349 1.824 10.191
8.286 2.350 10.630
9.530 1.709 9.515
9.139 1.773 9.733
9.138 2.213 10.216
8.760 2.528 10.430
8.706 2.842 10.879
9.902 1.630 8.793
9.824 2.041 9.584
9.767 2.349 9.667
9.273 2.315 10.275
9.220 2.979 10.465
8.966 3.113 10.770
10.378 2.339 9.358
10.026 2.271 9.968
10.022 2.620 10.188
9.526 3.213 10.428
9.322 3.327 10.776
10.317 2.831 9.690
10.191 2.950 10.273
10.047 3.274 10.688
3.308 9.136 12.435
4.019 9.546 12.353
4.196 9.542 12.343
4.884 9.928 12.203
5.157 10.369 12.328
3.581 9.577 12.042
3.975 10.035 12.070
4.455 10.240 11.890
3.845 10.532 11.645
3.624 10.454 11.224
3.071 10.537 10.651
3.215 11.090 10.850
3.895 11.157 10.920
2.137 10.807 10.451
1.453 12.374 12.573
2.645 10.907 10.300
2.474 11.392 11.043
2.970 11.460 10.633
2.951 11.480 10.725
3.648 11.676 10.599
3.428 11.907 10.823
4.166 11.888 10.312
0.266 12.375 12.419
1.746 10.831 10.253
1.280 12.408 11.894
0.912 12.633 11.930
2.015 10.797 10.007
1.796 11.163 10.600
1.709 11.490 10.792
1.656 12.077 11.440
1.495 12.676 11.716
2.616 11.167 10.152
2.287 11.377 10.361
1.963 12.050 10.965
1.726 11.993 11.479
2.158 12.481 11.376
2.669 11.608 10.158
2.710 11.907 10.652
2.298 12.296 11.032
2.335 12.546 11.037
3.103 11.845 10.051
2.898 12.299 10.411
2.693 12.703 10.651
3.554 12.173 9.855
3.517 12.519 10.238
4.365 12.484 10.102
0.883 10.567 9.594
0.267 12.446 11.890
1.260 10.880 9.890
1.248 11.198 10.290
1.128 12.060 10.908
0.884 12.476 11.256
1.886 11.404 9.831
1.730 11.380 10.229
1.294 11.723 10.357
1.051 12.348 10.923
1.590 12.447 10.787
2.268 11.743 9.506
2.139 11.747 10.285
1.685 12.028 10.520
1.380 12.569 10.888
2.625 12.075 9.594
2.467 12.338 10.237
2.005 12.438 10.522
2.981 12.081 9.677
2.776 12.428 10.110
3.694 12.338 9.706
0.240 10.671 9.572
0.584 10.916 9.384
0.415 11.321 9.589
0.468 12.048 10.558
0.354 12.483 11.096
1.178 11.152 9.286
0.975 11.726 9.725
0.726 11.730 10.147
0.256 12.077 10.385
1.077 12.343 10.551
1.701 11.433 9.228
1.465 11.955 9.691
1.281 12.221 10.000
0.699 12.674 10.340
1.776 11.850 9.489
1.547 12.171 9.596
1.734 12.562 10.022
2.549 12.259 9.509
2.275 12.476 9.614
2.873 12.434 9.177
0.477 11.042 8.932
0.976 11.428 8.999
0.754 11.739 9.561
0.191 12.358 9.754
1.470 12.081 8.871
1.039 12.368 9.274
0.633 12.716 9.960
1.516 12.290 8.893
1.346 12.644 9.250
2.196 12.325 8.790
0.254 11.374 8.519
0.453 12.057 8.469
0.157 12.381 8.983
0.978 11.995 8.744
0.798 12.605 8.947
1.320 12.484 8.461
0.119 12.293 8.114
0.864 12.366 8.074
12.159 5.275 0.472
12.168 5.719 0.863
12.530 6.068 0.687
12.239 6.203 1.347
12.228 5.606 0.177
12.032 6.110 0.312
11.679 6.340 0.727
12.156 6.037 0.570
12.206 6.467 0.716
12.528 6.850 0.864
11.571 6.365 0.127
11.221 6.710 0.323
12.146 6.507 0.212
12.020 6.732 0.191
12.144 7.392 0.304
11.081 6.816 0.143
11.510 7.089 0.035
12.531 5.639 9.089
12.247 5.867 9.831
12.568 6.525 9.889
11.630 8.825 12.323
12.200 9.267 12.296
12.311 5.786 8.695
12.132 5.776 8.801
12.039 6.271 9.246
11.859 6.698 9.708
10.323 8.918 12.483
12.633 6.638 9.428
12.228 7.109 9.585
11.900 7.126 9.920
11.061 8.588 12.124
10.902 8.949 12.223
12.434 7.653 9.852
12.285 8.014 10.457
11.500 8.740 11.717
11.496 9.185 12.190
11.348 9.278 12.406
12.581 8.480 10.732
12.277 8.748 11.391
12.287 9.051 11.785
11.879 9.597 11.980
11.561 9.651 12.536
12.743 9.436 11.452
12.150 9.797 12.086
12.018 10.198 12.535
12.257 5.807 7.700
12.247 6.162 8.287
12.146 6.221 8.723
11.768 6.785 8.731
11.707 6.956 9.110
11.505 7.335 9.493
10.182 8.586 11.607
9.957 9.012 12.189
9.711 9.306 12.631
12.279 6.558 8.428
12.390 6.752 8.761
12.033 7.154 9.259
11.634 7.716 9.802
11.603 7.796 10.088
11.108 8.661 11.258
10.706 9.219 11.822
10.492 9.489 12.126
10.159 9.552 12.292
12.293 7.347 9.150
12.300 7.903 9.586
12.043 8.027 9.971
11.903 8.530 10.661
11.828 8.964 10.938
11.392 8.996 11.094
11.287 9.233 11.570
10.867 9.805 12.201
10.879 9.978 12.549
12.475 8.523 10.231
12.196 8.853 10.433
12.063 9.240 10.705
12.038 9.414 11.090
11.873 9.737 11.613
11.287 10.014 11.979
11.257 10.532 12.240
12.408 9.452 10.659
12.418 9.589 11.183
11.950 10.205 11.491
12.058 10.287 11.859
11.682 10.628 12.424
12.689 10.240 11.782
12.428 10.555 11.791
12.120 11.155 12.522
12.240 5.586 7.087
12.249 5.999 7.312
12.056 6.376 7.804
11.801 6.665 8.052
11.392 7.041 8.356
11.525 7.287 8.777
10.916 7.511 9.433
10.747 7.790 9.766
10.296 8.803 11.082
10.248 9.057 11.435
9.827 9.610 11.730
9.659 9.566 12.232
9.582 10.115 12.301
12.437 6.641 7.573
12.240 6.817 7.958
11.983 7.389 8.585
11.990 7.484 8.710
11.500 7.990 9.176
11.383 8.036 9.496
11.302 8.534 9.914
10.933 8.588 10.644
10.824 8.986 10.679
10.633 9.217 11.437
10.394 9.875 11.603
10.230 10.181 11.878
9.839 10.434 12.311
12.326 7.363 8.642
12.327 7.995 8.738
12.216 8.083 9.168
12.001 8.280 9.810
11.700 8.881 9.938
11.474 9.075 10.511
11.313 9.512 10.922
11.032 9.617 11.184
10.562 9.876 11.460
10.495 10.559 12.119
10.373 10.839 12.366
