11.170 0.596 9.552
11.020 0.880 8.916
11.077 0.548 8.598
10.951 0.322 7.927
10.530 0.109 9.314
10.440 -0.040 8.892
10.119 0.384 2.962
12.081 2.101 8.092
11.820 1.957 7.825
9.886 0.093 3.404
11.908 1.959 8.831
11.748 2.121 8.350
11.459 1.615 7.677
11.701 1.477 7.194
11.847 1.751 8.992
11.471 1.620 8.393
11.411 1.353 7.910
10.910 1.085 7.606
10.678 1.023 7.097
11.360 1.670 9.431
11.270 1.209 8.741
10.959 0.927 8.217
10.689 0.893 7.766
10.737 0.899 7.473
10.859 1.104 9.785
10.645 1.006 9.023
10.407 0.890 8.698
10.495 0.607 7.937
10.515 0.876 9.644
10.228 0.595 9.215
10.394 0.446 8.701
12.739 2.013 0.069
12.655 2.005 1.140
12.539 1.903 0.728
10.268 0.549 3.398
10.123 0.622 2.601
9.867 0.263 2.272
9.632 0.114 1.800
12.010 2.861 8.418
11.916 2.846 8.145
11.668 2.486 7.674
11.670 2.396 6.936
9.928 0.697 3.921
9.975 0.488 3.403
9.633 0.162 3.218
9.538 0.089 2.321
11.618 2.481 8.863
11.288 2.632 8.133
11.393 2.307 7.593
10.899 2.229 7.124
10.729 1.974 6.912
9.447 0.160 4.474
9.155 0.351 3.700
11.143 2.260 9.293
10.982 2.148 8.410
10.734 1.634 8.168
10.696 1.738 7.464
10.532 1.441 7.309
8.912 0.146 4.256
10.999 2.026 9.231
10.864 2.009 8.720
10.364 1.749 8.395
10.611 1.203 8.057
10.207 1.205 7.450
10.548 1.548 9.637
10.257 1.477 9.026
10.082 1.229 8.802
10.218 1.210 8.148
9.809 0.899 7.733
10.258 1.470 9.772
10.209 1.275 9.537
9.694 0.920 8.876
9.455 0.908 8.390
9.645 1.046 9.365
9.278 0.701 8.941
12.745 2.633 1.021
12.147 2.540 0.599
12.354 2.568 0.069
12.382 2.456 1.546
11.924 2.467 1.098
11.883 2.269 0.680
11.750 2.221 0.262
10.183 1.450 2.437
10.302 1.306 1.769
12.054 3.874 7.613
12.150 3.322 7.005
10.177 1.273 3.060
9.802 1.174 2.325
9.568 1.336 2.069
9.334 0.789 1.613
11.899 3.646 8.328
11.961 3.329 7.813
11.841 3.051 7.505
11.685 2.783 6.980
9.737 1.238 3.782
9.543 0.964 3.383
9.468 1.251 2.656
9.162 0.798 2.411
9.108 0.837 1.840
8.958 0.215 1.439
11.831 3.285 8.763
11.211 3.337 8.126
11.315 2.918 7.553
11.035 2.850 7.120
11.075 2.474 6.402
9.621 1.014 4.344
9.557 0.940 3.795
9.308 1.067 3.522
9.103 0.601 2.915
9.227 0.549 2.762
8.787 0.086 2.156
8.777 -0.032 1.576
11.513 3.024 8.886
10.988 2.560 8.185
11.056 2.800 7.813
10.605 2.585 7.311
10.635 2.133 7.081
10.404 2.190 6.601
9.370 1.049 4.945
9.463 0.941 4.555
9.177 0.632 4.461
8.921 0.699 3.853
8.749 0.353 3.461
8.468 0.414 2.829
8.422 0.239 2.366
10.990 2.705 8.803
10.928 2.470 8.654
10.667 2.044 7.855
10.522 2.026 7.379
10.452 1.701 7.030
9.846 1.870 6.359
9.993 1.747 6.188
8.989 0.587 5.262
9.091 0.529 4.728
8.787 0.661 4.431
8.484 0.450 3.935
8.202 -0.057 3.572
10.575 2.218 9.221
10.480 2.277 8.771
10.222 1.882 8.304
9.957 2.029 7.683
9.960 1.404 7.341
9.889 1.345 6.972
9.281 0.995 6.634
8.485 0.169 5.074
8.344 0.037 4.718
10.273 2.307 9.424
10.058 2.091 9.230
9.682 1.470 8.784
9.482 1.407 8.194
9.343 1.392 7.549
9.058 0.858 6.920
9.664 1.550 9.884
9.565 1.352 9.271
9.557 1.243 9.041
9.042 1.348 8.541
9.250 1.085 7.754
9.425 1.579 10.095
9.284 1.172 9.754
9.233 1.054 9.293
8.957 0.894 8.678
9.186 1.299 10.322
8.819 0.871 9.623
8.783 0.834 9.095
7.977 0.189 11.089
7.992 0.242 10.595
12.369 3.623 0.799
12.491 3.046 0.353
12.322 3.454 1.836
12.126 3.290 1.605
12.216 3.266 0.752
12.148 2.778 0.582
11.995 3.307 2.172
12.010 3.000 1.814
11.576 2.902 1.123
11.715 2.844 0.608
11.693 2.420 0.436
11.562 2.526 1.762
11.300 2.670 1.488
11.154 2.409 0.911
11.275 2.203 0.655
11.076 2.114 1.864
11.054 1.977 1.232
10.712 2.785 2.247
10.234 2.128 2.059
10.209 2.162 1.382
9.957 1.863 0.997
12.266 4.629 7.519
12.442 4.685 7.190
12.175 4.089 6.756
12.027 3.951 6.114
10.253 2.285 2.638
9.851 2.155 2.324
9.551 1.731 1.602
9.443 1.687 1.228
11.993 4.452 8.186
11.848 4.019 7.691
11.442 3.805 7.214
11.712 3.918 6.367
10.123 2.195 3.381
9.543 1.752 3.024
9.733 1.871 2.442
9.621 1.315 2.128
9.005 1.098 1.345
8.901 1.304 0.869
11.393 3.998 8.078
11.691 3.854 7.595
11.326 3.640 7.062
11.365 3.346 6.532
10.967 3.005 6.135
9.527 1.967 4.054
9.371 1.872 3.594
9.456 1.425 3.200
9.162 1.364 2.602
8.954 1.274 2.303
8.648 0.881 1.938
8.889 0.769 0.998
8.634 0.575 0.916
11.058 3.726 8.318
10.848 3.325 7.906
11.044 3.310 7.471
10.615 3.305 7.278
10.448 2.869 6.587
10.259 2.568 6.169
9.816 2.194 5.194
9.726 1.622 5.108
9.367 1.540 4.293
9.054 1.668 4.060
9.070 1.375 3.315
8.697 1.264 2.703
8.590 0.715 2.566
8.420 0.898 1.766
8.513 0.552 1.414
7.952 0.149 1.263
8.201 -0.024 0.770
10.768 3.347 8.836
10.539 3.203 8.087
10.358 2.873 7.809
10.466 2.948 7.296
9.957 2.386 6.766
10.155 2.199 6.292
9.661 2.433 5.661
9.538 2.154 5.428
9.426 1.859 5.675
8.932 1.424 5.234
8.829 1.530 4.848
8.737 0.945 4.286
8.519 1.120 3.747
8.204 0.850 3.064
8.528 0.406 2.985
8.339 0.367 2.142
7.929 -0.041 1.604
7.523 0.217 1.265
10.300 3.037 8.812
10.250 2.848 8.442
10.022 2.574 7.904
9.904 2.653 7.718
9.781 2.158 7.300
9.882 2.261 6.694
9.497 1.709 6.214
9.535 1.929 5.789
8.934 1.330 5.858
8.864 1.358 5.634
8.788 0.921 5.001
8.327 0.703 4.513
8.288 0.524 3.825
8.344 0.358 3.635
8.059 0.496 2.888
7.751 -0.147 2.312
10.389 2.712 9.318
9.965 2.463 8.536
9.848 2.616 8.133
9.534 2.172 7.645
9.577 2.255 7.440
9.241 1.691 6.932
9.032 1.501 6.394
8.765 1.260 6.060
8.494 1.120 6.117
8.378 1.193 5.477
8.260 0.709 5.314
8.151 0.392 4.509
7.947 0.610 4.034
7.518 0.426 3.486
9.973 2.668 9.354
9.636 2.060 9.242
9.387 2.260 8.300
9.206 1.659 8.011
8.910 1.755 7.356
8.948 1.553 6.995
8.581 1.283 6.616
8.628 1.380 6.255
7.944 0.659 5.387
7.920 0.342 5.136
7.661 -0.064 4.250
9.493 2.290 9.720
9.165 1.912 9.313
9.000 1.926 9.052
9.126 1.770 8.479
8.621 1.608 7.918
8.335 1.383 7.602
9.057 1.985 9.851
8.767 1.572 9.453
8.836 1.693 8.971
8.744 1.352 8.633
8.334 1.091 8.138
8.542 1.692 10.447
8.336 1.186 9.703
8.539 1.106 9.172
8.232 0.764 8.773
8.138 0.978 10.704
8.078 1.210 10.008
7.755 1.072 9.501
7.814 0.753 9.248
8.089 1.104 10.623
7.774 0.714 10.413
7.529 0.790 9.712
7.345 0.402 9.387
7.506 0.493 10.825
7.586 0.412 10.793
7.168 0.218 10.004
6.920 0.075 9.518
12.616 3.954 0.255
12.261 4.330 1.406
12.530 4.169 1.145
12.024 3.859 0.577
11.960 3.931 0.006
12.261 4.362 2.707
12.527 4.026 2.275
12.290 3.879 1.974
12.183 3.723 1.369
11.942 3.503 0.944
11.475 3.403 0.342
12.173 3.618 2.542
11.914 3.671 2.192
11.490 3.339 1.539
11.406 3.294 1.322
11.319 2.872 0.532
11.161 2.978 0.119
11.260 3.582 2.321
11.346 3.050 1.970
10.918 3.087 1.425
10.746 2.513 0.971
10.552 2.809 0.616
12.201 4.641 5.410
10.973 2.871 2.410
10.541 2.525 1.798
10.301 2.250 1.136
10.335 2.188 0.907
12.550 4.640 6.252
12.252 4.523 6.042
10.601 2.644 2.366
10.359 2.404 1.850
10.191 2.182 1.489
9.948 1.762 1.057
12.382 4.607 7.567
11.959 4.212 7.267
11.847 4.404 6.689
11.949 3.996 6.401
10.093 2.731 2.297
10.081 2.807 1.735
9.793 2.590 1.639
9.647 2.298 0.686
9.386 1.985 0.464
12.165 5.111 7.743
11.654 4.875 7.174
11.619 4.499 6.931
11.375 4.392 6.210
9.996 2.692 3.225
9.648 2.503 2.469
9.685 2.458 2.047
9.631 2.234 1.873
9.055 2.021 1.071
9.067 1.970 0.456
11.409 4.635 7.711
11.321 4.286 7.507
11.544 4.325 7.042
10.910 4.362 6.431
10.971 3.814 6.030
9.700 2.502 3.148
9.631 2.266 2.991
9.207 2.114 2.572
9.202 1.890 1.995
8.732 1.655 1.639
8.843 1.743 0.832
8.292 1.543 0.742
11.505 4.226 8.108
11.276 4.260 7.808
11.021 4.065 7.120
11.001 3.905 6.628
10.847 3.655 6.338
9.514 2.547 4.413
9.167 2.334 3.887
9.130 2.396 3.830
9.050 2.167 2.968
8.638 1.895 2.431
8.904 1.777 1.947
8.678 1.553 1.696
8.422 1.229 1.020
8.231 0.889 0.813
8.061 0.819 0.072
11.104 4.128 8.502
10.578 4.103 7.879
10.752 3.687 7.311
10.314 3.635 7.130
10.119 3.517 6.589
10.099 3.274 5.781
9.765 2.765 5.362
9.161 2.504 5.144
8.982 2.463 4.818
9.146 2.333 4.160
8.576 1.682 3.850
8.847 1.538 3.494
8.426 1.751 2.787
8.158 1.548 2.347
8.292 1.208 1.864
7.788 0.707 1.652
7.750 0.964 0.943
7.675 0.783 0.359
7.577 0.448 -0.223
10.334 3.586 8.955
10.460 3.541 8.088
10.434 3.659 7.845
10.131 3.211 7.428
9.712 2.980 6.925
9.539 2.661 6.466
9.649 2.447 5.792
9.261 2.234 5.475
8.813 1.980 5.439
8.913 2.212 5.021
8.357 1.879 4.403
8.696 1.482 4.008
8.486 1.180 3.767
7.897 1.094 3.308
7.784 0.941 2.676
7.896 0.771 2.001
7.759 0.419 1.587
7.492 0.668 1.374
7.403 0.101 0.820
7.223 0.223 0.450
10.213 3.618 8.975
9.805 3.201 8.252
9.959 3.076 8.181
9.833 2.844 7.641
9.562 2.739 7.009
9.179 2.571 6.327
8.991 2.450 5.825
9.042 2.229 5.796
8.553 1.822 5.885
8.220 1.430 5.381
8.104 1.297 5.044
7.845 1.470 4.467
7.986 1.335 3.794
7.572 1.107 3.595
7.480 0.676 3.160
7.345 0.556 2.609
6.995 0.326 1.790
7.200 0.241 1.369
9.858 3.237 9.083
9.618 3.152 8.921
9.442 2.728 8.257
9.301 2.454 7.717
8.944 2.249 7.436
8.820 2.005 6.975
8.583 1.949 6.415
8.588 1.874 5.969
8.103 1.672 6.072
7.937 1.093 5.860
8.046 1.237 4.883
7.579 0.914 4.810
7.491 0.922 4.130
7.267 0.477 3.631
6.924 0.171 3.111
7.174 0.033 2.494
6.704 0.159 2.442
9.470 2.993 9.311
9.107 2.898 8.797
9.089 2.579 8.558
8.681 2.237 7.978
8.995 2.270 7.382
8.309 1.710 6.951
8.179 1.746 6.334
7.982 1.548 6.342
7.794 1.423 6.150
7.427 1.091 5.953
7.600 0.998 5.590
7.175 0.497 5.091
7.318 0.415 4.572
6.891 0.016 4.179
6.744 0.313 3.501
9.212 2.755 9.775
8.746 2.125 9.039
8.726 2.284 8.788
8.610 1.852 8.380
8.390 1.574 7.689
8.047 1.720 7.148
8.265 1.461 7.026
7.856 1.173 6.246
6.893 0.766 5.644
6.944 0.445 5.385
6.670 0.174 4.813
8.935 2.013 10.227
8.438 1.845 9.349
8.236 1.848 8.992
7.924 1.636 8.603
7.978 1.442 8.115
7.824 1.100 7.626
6.762 -0.218 5.603
8.092 1.710 10.034
8.062 1.836 10.000
7.942 1.526 9.373
7.738 1.271 8.844
7.782 1.218 8.209
8.152 1.630 10.258
7.769 1.506 9.924
7.513 1.027 9.406
7.247 1.139 9.078
7.337 1.173 10.505
7.625 1.064 10.178
7.277 0.809 10.005
7.025 0.524 9.257
7.013 1.197 11.025
7.204 0.801 10.641
7.025 0.609 10.168
6.836 0.376 9.758
6.417 0.338 9.289
12.347 4.719 0.141
12.566 5.186 1.172
12.425 4.785 0.629
12.228 4.668 0.134
12.559 5.264 2.435
12.558 4.782 1.847
12.108 4.575 1.490
11.736 4.742 1.322
11.696 4.449 0.848
11.669 4.086 -0.080
12.271 4.686 3.230
12.215 4.594 2.557
12.065 4.436 2.180
11.990 4.511 2.078
11.791 4.350 1.200
11.285 3.795 0.938
11.240 3.854 0.377
12.357 4.984 3.936
12.160 4.984 3.448
11.827 4.299 2.934
11.820 4.119 2.604
11.589 4.089 2.062
11.291 3.616 1.506
11.012 3.669 0.959
11.024 3.682 0.400
10.714 3.524 0.226
12.232 5.118 4.871
12.403 5.010 4.436
11.919 4.644 4.079
11.025 3.982 2.126
10.665 3.725 1.974
10.594 3.309 1.407
10.692 3.121 0.856
10.366 2.902 0.660
12.252 5.486 5.978
12.186 4.984 5.469
12.075 5.049 4.988
10.728 3.406 2.862
10.446 3.122 2.277
10.244 3.276 1.611
10.033 2.668 1.018
9.842 2.863 0.492
9.848 2.286 -0.004
12.416 5.538 7.681
12.413 5.205 7.055
12.086 5.104 6.326
11.803 4.684 6.007
11.876 4.572 5.286
9.875 2.837 2.567
9.883 2.770 1.985
9.771 2.643 1.450
9.783 2.618 0.877
9.655 2.025 0.536
11.879 5.072 7.473
12.079 4.730 7.176
11.497 4.448 6.690
11.493 4.666 6.036
9.938 3.326 2.444
9.580 3.002 1.640
9.172 2.839 1.530
9.393 2.795 0.976
8.957 2.666 0.514
11.733 5.232 7.786
11.603 5.426 7.344
11.273 4.819 6.623
10.911 4.668 6.329
9.627 3.403 3.265
9.561 2.805 2.581
9.467 2.621 2.104
8.798 2.786 1.390
8.921 2.233 1.372
8.860 2.299 0.887
11.351 5.105 7.684
10.878 5.046 7.471
11.180 4.895 7.074
10.819 4.426 6.537
10.594 4.626 5.818
9.022 2.864 3.543
8.989 2.606 3.038
9.052 2.571 2.327
8.612 2.366 2.022
8.520 2.367 1.552
8.077 1.875 0.753
8.052 1.552 0.489
11.069 4.690 8.122
10.694 4.455 7.683
10.828 4.518 7.025
10.344 4.091 6.959
10.370 4.250 6.470
9.250 3.037 4.817
9.206 2.792 4.015
8.922 2.700 3.424
8.469 2.197 2.899
8.621 2.074 2.475
8.252 2.066 2.327
8.081 2.091 1.832
7.737 1.901 0.983
7.828 1.520 0.964
7.649 1.507 0.103
10.404 4.621 8.556
10.203 4.088 7.973
10.196 4.078 7.197
10.103 3.770 7.096
9.621 3.974 6.449
9.777 3.584 5.776
9.282 3.223 5.441
9.117 3.066 5.051
8.541 2.456 4.648
8.634 2.623 4.102
8.368 2.284 3.772
8.273 2.010 3.568
8.171 1.805 2.775
8.152 1.617 2.425
7.633 1.424 1.691
7.624 1.337 1.673
7.568 1.052 0.824
7.072 1.190 0.724
6.952 0.872 -0.254
10.409 4.244 8.898
9.882 3.834 8.180
9.954 3.828 7.492
9.450 3.593 7.463
9.362 3.197 6.801
9.106 3.322 6.384
9.297 2.880 5.891
9.012 3.054 5.361
8.405 2.310 5.697
8.172 2.574 5.039
8.218 2.384 4.556
8.089 2.060 4.056
7.921 1.864 3.819
7.674 1.753 2.890
7.411 1.492 2.726
7.637 1.268 2.032
7.405 0.827 1.779
6.803 1.003 1.159
6.678 0.808 0.785
6.746 0.608 0.421
10.036 3.847 8.929
9.864 3.909 8.493
9.335 3.714 7.939
9.331 3.399 7.356
8.884 3.040 7.051
9.071 2.712 6.581
8.895 2.714 5.844
8.537 2.699 5.734
8.338 2.349 5.693
8.051 2.201 5.451
7.842 1.698 4.783
7.856 1.464 4.577
7.635 1.402 3.901
7.178 1.042 3.573
7.293 1.260 2.742
6.777 0.883 2.264
6.873 0.930 1.902
6.662 0.673 1.457
6.386 0.115 1.200
6.481 0.366 0.765
9.214 3.808 9.177
9.017 3.168 8.667
8.882 3.159 8.067
8.949 2.814 7.776
8.864 2.683 7.004
8.500 2.873 6.541
8.390 2.407 6.076
7.979 2.258 5.990
7.619 2.095 5.825
7.620 1.508 5.522
7.337 1.523 5.117
7.593 1.111 4.612
6.969 1.408 4.258
7.018 1.213 3.463
6.629 0.792 3.346
6.800 0.449 2.579
6.364 0.340 2.313
6.310 0.330 1.651
6.027 -0.214 1.065
9.099 3.431 9.551
9.045 3.301 8.988
8.745 2.695 8.712
8.453 2.839 8.244
8.265 2.452 7.634
8.145 2.273 7.083
7.910 2.068 6.803
8.056 2.029 6.294
7.551 1.742 6.444
7.472 1.416 5.785
7.046 1.403 5.195
7.067 0.819 4.991
6.602 0.827 4.306
6.385 0.792 3.666
6.680 0.621 3.404
6.426 0.137 3.104
6.208 0.014 2.535
8.598 2.971 9.463
8.731 2.630 9.209
8.285 2.568 8.983
8.121 2.565 8.414
7.868 2.142 7.876
7.631 1.956 7.212
7.909 1.669 7.062
7.631 1.871 6.267
6.839 0.727 5.874
6.758 0.598 5.257
6.312 0.376 4.655
6.033 0.561 3.958
5.896 0.284 3.865
8.195 2.706 10.035
8.173 2.655 9.242
7.819 2.516 9.182
7.926 2.122 8.319
7.874 1.670 7.818
7.554 1.898 7.338
6.461 0.207 5.231
5.896 0.193 5.146
6.000 0.050 4.413
8.068 2.468 9.958
7.953 2.027 9.945
7.490 2.200 9.175
7.290 1.951 8.809
7.193 1.570 8.328
7.504 2.125 10.541
7.472 1.803 9.959
7.129 1.712 9.483
7.059 1.285 8.764
7.371 1.729 10.839
7.274 1.468 10.033
6.651 1.325 10.009
6.556 1.328 9.344
6.928 1.182 10.913
6.475 1.193 10.298
6.581 0.852 10.168
6.312 0.796 9.428
6.213 0.447 9.235
12.704 5.746 1.154
12.123 5.504 0.383
12.183 5.212 0.243
12.618 5.881 2.435
12.099 5.560 1.778
12.315 5.219 1.318
12.039 5.377 0.964
11.649 5.170 0.115
12.344 5.853 3.199
12.079 5.498 2.262
11.861 5.521 2.031
11.923 5.063 1.512
11.860 4.726 1.069
11.395 4.537 0.687
11.510 4.617 0.236
12.455 5.623 3.438
12.165 5.483 3.005
11.699 5.258 3.150
11.726 4.999 2.572
11.437 5.120 2.089
11.206 4.990 2.048
11.378 4.741 1.552
11.260 4.349 1.055
10.673 4.103 0.602
12.191 5.870 4.481
12.397 5.803 4.161
12.196 5.797 3.638
11.835 5.380 3.221
11.249 4.828 2.921
11.060 4.566 2.540
11.296 4.238 1.845
11.071 4.416 1.450
10.802 4.235 1.232
10.524 3.868 0.383
10.436 3.894 -0.077
12.178 5.938 6.108
12.321 5.881 5.689
12.122 5.392 5.081
11.863 5.489 4.489
11.979 5.363 3.795
10.467 3.977 2.262
10.615 3.794 1.800
10.320 3.535 1.532
10.032 3.810 1.115
10.167 3.361 0.593
12.335 6.088 6.944
12.248 5.699 6.855
12.004 5.605 5.969
11.761 5.367 5.475
11.813 5.486 5.106
10.211 4.020 2.759
10.149 3.644 1.872
10.174 3.452 1.756
9.546 3.106 0.956
9.778 3.054 0.852
9.209 2.967 0.230
11.905 5.603 7.319
11.664 5.427 7.027
11.808 5.173 6.196
11.324 5.305 5.993
11.329 4.970 5.712
9.939 3.373 2.298
9.356 3.394 1.846
9.426 3.123 1.625
9.402 2.542 0.836
8.958 2.767 0.349
11.835 5.422 7.751
11.419 5.386 7.151
11.121 5.113 6.483
11.078 4.881 6.015
9.438 3.972 2.082
9.184 3.421 1.903
8.847 3.195 1.356
8.651 3.186 0.917
11.322 5.730 7.592
11.073 5.814 7.140
11.029 5.360 6.429
10.562 5.409 6.400
8.862 3.529 2.565
9.073 3.325 2.172
8.790 3.102 1.526
8.590 3.020 1.056
8.276 2.729 0.784
11.048 5.380 8.078
10.602 5.459 7.310
10.706 5.304 6.696
10.497 4.865 6.449
8.908 3.228 3.524
8.748 3.286 2.992
8.417 2.811 2.113
8.173 2.567 1.630
8.143 2.711 1.323
7.886 2.251 1.097
10.396 5.094 8.281
10.385 5.083 7.800
10.334 4.962 7.211
10.059 4.618 6.826
9.901 4.703 6.377
8.810 3.146 4.101
8.525 2.784 3.511
8.203 3.023 2.926
8.066 2.767 2.840
7.786 2.216 2.309
7.913 2.035 1.793
7.715 1.860 1.058
7.637 1.766 0.652
7.013 1.931 -0.028
10.035 5.045 8.324
10.176 4.886 8.153
10.028 4.574 7.431
9.897 4.271 7.046
9.680 4.054 6.259
9.371 3.936 5.834
8.712 3.107 5.520
8.528 3.092 4.535
8.023 3.045 4.313
8.031 2.798 4.055
7.900 2.376 3.229
7.583 2.086 2.866
7.664 2.243 2.228
7.533 2.138 2.145
7.098 1.519 1.492
6.969 1.322 0.887
6.943 1.320 0.700
9.686 4.643 8.884
9.666 4.622 8.214
9.422 4.008 7.535
9.218 3.858 6.978
8.918 4.095 6.792
9.054 3.656 5.997
8.853 3.722 5.978
8.415 3.227 5.276
8.423 2.949 5.749
7.925 2.902 5.267
8.080 2.360 4.676
7.890 2.599 3.965
7.310 2.291 3.486
7.535 1.904 3.103
7.013 1.898 2.388
6.800 1.473 2.349
6.837 1.209 1.493
6.763 1.346 0.975
6.551 1.268 0.468
6.409 0.971 0.120
9.437 4.547 8.752
9.292 4.140 8.577
9.193 3.971 8.102
8.844 3.807 7.483
8.637 3.402 7.067
8.508 3.451 6.542
8.229 3.171 6.234
8.164 2.914 5.617
7.860 2.581 5.555
7.891 2.534 5.091
7.476 2.114 4.869
7.343 1.980 4.128
7.254 2.085 3.766
6.787 1.915 3.212
6.684 1.704 2.801
6.590 1.161 2.207
6.432 1.283 2.102
6.432 0.982 1.320
5.987 0.726 0.755
6.215 0.747 0.253
5.630 0.203 0.194
8.983 3.851 8.895
8.804 3.943 8.478
8.543 3.675 8.043
8.696 3.575 7.631
8.467 3.213 7.461
8.435 3.277 6.954
8.044 2.706 6.403
7.818 2.540 5.726
7.377 2.347 5.895
7.513 2.263 5.665
6.966 1.960 5.249
6.850 1.941 4.803
6.993 1.671 4.298
6.380 1.561 3.536
6.693 1.128 3.361
6.254 1.158 2.814
6.192 1.064 2.144
6.151 0.833 1.855
5.750 0.338 1.231
5.720 0.042 0.988
5.424 0.199 0.376
8.628 3.506 9.347
8.380 3.511 9.136
8.420 3.548 8.241
8.202 3.022 7.742
7.936 3.024 7.724
7.689 2.941 6.860
7.623 2.768 6.477
7.376 2.401 5.888
6.846 1.705 5.938
6.898 1.470 5.405
6.856 1.376 4.774
6.178 1.301 4.611
6.155 1.229 3.744
6.077 1.016 3.382
5.838 0.925 2.866
5.662 0.504 2.330
5.724 0.398 1.917
5.386 -0.097 1.383
8.100 3.635 9.910
7.943 3.192 9.106
7.813 2.886 8.582
7.812 2.857 8.132
7.497 2.498 7.697
7.315 2.448 7.216
7.522 2.249 6.715
6.480 1.392 5.216
6.269 1.124 4.523
5.908 0.914 4.030
5.554 0.749 3.407
5.596 0.621 3.137
5.623 0.016 2.818
5.445 -0.143 2.244
7.886 2.990 10.074
7.770 3.024 9.332
7.411 2.646 9.111
7.622 2.439 8.467
7.233 2.283 8.040
5.630 0.626 5.593
5.592 0.501 5.032
5.303 0.688 4.308
5.129 0.449 3.736
5.101 0.251 3.527
7.364 2.653 10.048
7.528 2.491 9.704
7.394 2.286 9.340
7.045 2.081 8.643
6.795 2.223 8.300
5.391 0.227 5.323
5.115 0.160 4.514
7.247 2.640 10.492
7.285 2.474 9.912
6.624 2.139 9.478
6.644 1.650 9.238
4.754 0.042 5.299
6.940 1.901 10.554
6.447 1.996 10.340
6.608 1.971 9.533
6.523 1.430 9.246
6.736 1.587 10.755
6.533 1.593 10.636
6.091 1.394 9.871
6.120 1.181 9.513
5.752 1.174 8.864
12.599 6.383 0.707
12.442 6.226 0.285
12.587 6.428 2.197
12.385 6.183 1.446
12.102 5.988 1.265
12.173 5.889 0.411
11.863 5.701 -0.105
12.192 6.424 2.694
11.898 6.370 2.142
11.811 5.797 1.955
11.554 6.017 1.062
11.804 5.842 0.772
11.461 5.366 0.090
12.638 6.538 3.120
12.253 6.549 2.544
12.055 5.825 3.095
11.908 5.653 2.314
11.556 5.659 1.991
11.277 5.717 1.517
11.037 5.299 0.789
10.837 4.885 0.551
11.017 4.874 0.288
12.428 6.479 4.519
12.267 6.398 4.072
12.217 6.419 3.530
12.105 6.161 3.116
11.487 5.859 3.023
11.506 5.756 2.496
11.019 5.423 2.484
11.077 4.964 1.980
11.092 5.113 1.216
10.529 4.769 1.010
10.521 4.460 0.431
12.308 6.676 5.392
12.377 6.722 4.897
12.057 6.488 4.547
12.012 6.076 4.316
11.628 5.772 3.752
11.546 5.631 3.222
10.741 5.188 2.462
10.688 5.032 2.211
10.660 4.603 1.301
10.130 4.584 1.177
10.164 4.455 0.844
10.190 4.132 0.031
12.263 6.542 6.820
12.237 6.485 6.311
12.272 6.641 6.126
11.734 5.964 5.658
11.934 5.991 5.177
11.568 5.906 4.638
10.067 4.500 2.334
10.284 4.526 1.970
9.886 4.300 1.233
9.893 3.913 0.995
9.526 3.899 0.361
11.855 6.685 7.108
11.617 6.294 6.402
11.442 6.091 6.102
11.519 5.886 5.704
11.592 5.481 5.236
9.754 3.974 2.084
9.533 3.919 1.585
9.316 3.863 1.091
9.337 3.486 0.587
8.962 3.448 -0.116
11.559 6.021 7.196
11.484 6.187 6.685
11.497 5.543 6.462
11.029 5.839 5.713
9.486 3.572 2.477
9.255 3.379 2.051
9.039 3.566 1.396
8.905 3.412 0.638
11.243 5.686 7.494
11.224 5.485 6.880
10.723 5.476 6.511
10.580 5.346 6.072
9.000 3.910 1.624
8.467 3.940 1.154
10.772 6.118 7.070
10.674 6.048 6.729
8.442 3.799 2.278
8.216 3.696 1.329
8.320 3.028 1.171
10.629 6.083 7.785
10.536 5.666 7.222
10.176 5.571 6.705
8.527 3.689 2.642
7.867 3.328 2.415
7.903 2.981 1.764
7.597 3.161 1.118
7.602 2.958 0.713
10.084 5.883 8.290
10.089 5.639 7.402
9.742 5.158 6.948
9.725 5.304 6.751
8.339 3.475 3.299
7.864 3.150 2.802
7.945 2.931 2.630
7.787 2.934 2.129
7.486 2.885 1.692
7.330 2.616 0.932
6.945 2.027 0.451
9.904 5.349 8.293
9.809 5.324 7.897
9.663 4.783 7.345
9.084 4.896 7.027
9.288 4.734 6.318
8.146 3.171 4.105
7.514 3.248 3.565
7.766 2.829 3.390
7.492 2.811 2.892
7.404 2.557 2.387
6.901 2.153 1.813
6.712 1.928 1.412
6.588 1.760 0.991
6.386 1.928 0.376
9.316 4.773 8.771
9.240 4.958 8.361
8.917 4.543 7.472
8.717 4.669 7.051
8.559 4.306 6.887
8.819 3.833 6.451
7.789 3.510 5.520
7.866 3.338 4.756
7.462 3.016 4.630
7.405 2.968 3.897
7.077 2.576 3.762
6.884 2.534 2.995
7.050 2.210 2.361
6.787 1.933 2.189
6.571 1.788 1.885
6.091 1.905 0.901
6.209 1.363 0.907
6.148 1.106 0.235
9.007 4.518 8.623
9.115 4.589 8.533
8.499 4.092 7.863
8.414 3.950 7.626
8.365 3.918 6.854
8.440 3.522 6.579
8.027 3.352 5.793
7.903 3.553 5.564
7.686 2.882 5.735
7.504 2.708 5.037
7.119 2.936 4.565
6.802 2.414 4.215
6.938 2.087 3.911
6.731 1.896 3.460
6.629 1.752 2.953
6.100 1.518 2.401
5.986 1.428 2.043
5.814 1.535 1.421
5.516 1.192 0.844
5.404 0.896 0.428
8.827 4.466 9.326
8.345 4.411 8.789
8.409 3.946 8.024
8.280 3.963 7.915
8.140 3.824 7.389
7.951 3.256 6.761
7.608 3.336 6.034
7.412 3.227 5.836
7.003 2.374 5.582
6.848 2.541 4.853
6.748 2.109 4.454
6.362 1.979 3.970
6.010 1.560 3.387
5.973 1.389 2.866
5.783 1.385 2.560
5.673 1.099 2.124
5.704 0.926 1.429
5.472 1.037 1.344
5.198 0.673 0.788
5.251 0.574 0.088
8.331 4.256 9.407
7.942 4.133 8.836
8.218 3.503 8.233
7.648 3.411 7.836
7.551 3.332 7.223
7.295 3.390 6.889
7.047 2.977 6.621
6.456 2.042 5.542
6.393 2.088 5.026
6.235 1.457 4.143
6.046 1.499 3.678
5.636 1.343 3.566
5.401 0.939 2.646
5.315 0.938 2.380
5.211 0.650 1.740
8.109 3.922 9.444
7.904 3.776 8.935
7.874 3.468 8.658
7.493 3.457 8.264
7.397 2.815 7.839
7.215 2.867 7.106
5.844 1.490 5.269
5.739 1.542 4.837
5.289 0.946 4.212
5.562 1.005 3.638
5.040 0.613 3.228
4.751 0.716 2.551
7.822 3.243 10.028
7.677 3.208 9.420
7.396 3.145 8.829
7.009 2.873 8.459
7.145 2.724 7.719
5.268 1.265 4.968
5.029 0.939 4.576
4.976 0.609 4.060
4.827 0.387 3.162
7.091 3.298 9.911
7.037 2.940 9.904
6.846 2.854 9.293
6.948 2.516 8.588
5.016 0.354 4.737
4.378 0.422 3.967
4.362 0.427 3.855
6.633 2.742 10.174
6.751 2.636 10.086
6.258 2.696 9.186
4.504 0.432 5.119
4.468 0.302 4.549
6.604 2.291 10.783
6.090 2.246 10.112
6.020 2.277 9.612
4.120 0.052 5.724
6.251 2.030 11.051
5.709 1.922 10.409
5.647 2.095 10.088
5.799 1.835 9.654
12.732 6.948 0.395
12.532 7.219 1.244
11.994 6.877 0.496
12.132 6.503 0.480
12.252 6.797 2.059
11.865 6.455 1.684
11.886 6.362 0.802
11.443 6.070 0.323
11.696 6.075 0.058
12.251 7.282 2.943
12.101 6.823 2.692
11.621 6.471 2.388
11.795 6.342 1.925
11.538 5.985 1.108
11.087 5.934 0.839
11.250 6.082 0.044
12.314 7.566 3.932
12.350 7.368 3.658
11.971 6.896 3.414
11.716 6.904 2.488
11.790 6.527 3.042
11.523 6.398 2.279
11.036 5.948 2.038
11.254 5.744 1.508
10.806 5.476 1.102
10.937 5.649 0.700
10.381 5.249 -0.151
12.216 7.254 5.202
12.050 7.242 4.616
12.083 6.808 4.414
12.068 7.013 3.978
11.672 6.499 3.536
11.581 6.542 2.829
10.895 5.767 2.177
10.625 5.504 1.635
10.582 5.590 1.473
10.183 5.310 0.927
9.946 4.928 0.533
12.666 7.532 6.315
12.289 7.481 6.001
12.061 7.131 5.760
11.898 6.722 5.346
11.979 6.593 4.538
11.511 6.763 3.930
10.328 5.169 2.029
10.118 4.909 1.508
10.178 4.713 1.105
9.760 4.909 0.373
9.625 4.440 0.067
12.218 7.154 6.965
11.721 7.131 6.473
11.512 6.804 5.643
11.771 6.794 5.459
11.457 6.620 4.941
9.610 4.897 1.834
9.811 4.495 1.505
9.269 4.268 0.609
9.354 4.371 0.576
11.428 6.773 7.208
11.506 6.864 6.409
11.231 6.749 5.937
11.411 6.220 5.428
9.360 4.172 1.663
9.026 4.083 0.950
9.043 4.015 0.482
11.291 6.595 7.329
11.080 6.545 6.913
11.062 6.207 6.444
8.720 3.904 1.933
8.807 3.679 1.352
10.957 6.205 7.254
10.592 5.726 6.738
7.847 3.901 2.439
7.524 3.597 1.776
9.534 6.013 7.796
9.524 5.628 6.919
7.398 3.802 2.849
7.159 3.346 2.657
7.419 3.357 2.241
6.910 3.255 1.496
6.949 3.081 0.927
9.460 5.856 8.365
9.058 5.363 7.970
9.157 5.204 7.570
8.850 5.034 7.112
7.507 3.268 3.781
7.243 3.275 3.302
7.259 3.210 2.924
7.038 3.034 2.337
6.418 2.959 1.992
6.247 2.815 1.099
6.244 2.421 0.800
8.869 5.421 8.717
8.952 5.056 7.914
8.590 5.222 7.430
8.781 4.655 6.968
8.225 4.820 6.692
6.939 3.360 4.388
6.872 3.324 3.973
6.824 2.880 3.354
6.520 2.735 3.110
6.309 2.436 2.634
6.179 2.619 1.920
6.162 2.101 1.704
6.151 2.074 1.161
8.639 5.041 9.053
8.642 5.166 8.275
8.294 4.826 7.713
7.980 4.537 7.457
8.021 4.391 7.144
7.834 3.971 6.182
6.656 2.941 4.918
6.561 2.662 4.272
6.473 2.713 3.741
6.343 2.350 3.559
6.064 2.160 2.767
5.809 2.027 2.529
5.553 2.052 2.045
5.332 1.501 1.624
8.589 4.840 8.920
8.061 4.707 8.672
8.177 4.462 7.947
7.705 4.068 7.582
7.874 4.298 6.943
7.721 3.809 6.901
6.323 2.736 4.785
6.249 2.226 3.889
5.673 2.120 3.377
5.529 2.233 3.046
5.560 1.815 2.491
5.581 1.394 2.126
5.413 1.289 1.649
7.989 4.579 9.151
8.058 4.206 8.963
7.634 4.369 8.193
7.493 3.702 8.148
7.446 3.567 7.513
5.747 2.042 4.991
5.713 1.840 4.093
5.471 1.972 3.959
5.499 1.922 3.452
5.378 1.537 2.932
4.800 1.138 2.333
7.382 4.084 9.516
7.271 3.813 9.021
7.426 3.903 8.454
6.959 3.842 8.069
7.141 3.197 7.599
5.349 1.802 4.681
5.252 1.750 4.044
5.110 1.265 3.602
4.896 1.037 3.108
7.419 4.102 9.862
7.115 3.643 9.297
6.691 3.301 8.637
6.488 3.120 8.332
12.036 7.093 0.905
11.641 7.139 0.414
11.536 6.707 0.782
11.124 6.495 0.348
12.424 8.237 3.909
11.092 6.742 1.923
11.177 6.833 1.395
11.041 6.397 0.878
10.482 6.191 0.182
12.474 8.371 4.953
12.095 8.137 4.805
12.138 7.800 3.927
12.165 7.352 3.712
10.819 6.366 1.943
10.474 6.515 1.257
10.717 6.143 1.183
10.306 6.119 0.561
10.094 5.826 0.112
12.676 8.200 6.366
12.410 8.206 6.013
11.887 7.697 5.378
12.044 7.468 4.790
11.754 7.377 4.307
11.800 7.358 3.857
10.420 6.137 1.669
10.303 5.612 1.221
10.225 5.769 0.831
9.874 5.225 0.348
11.989 8.141 6.749
11.641 7.470 6.239
11.844 7.721 5.687
11.406 7.408 4.885
11.436 7.129 4.515
9.638 5.747 1.501
9.636 5.200 1.189
9.664 5.346 0.436
9.421 4.990 -0.147
11.553 7.436 6.997
11.643 7.487 6.413
11.300 7.170 6.000
11.172 7.234 5.472
9.407 5.024 1.323
9.051 4.870 0.926
11.075 6.918 6.593
11.040 7.079 5.944
7.077 4.108 2.547
6.751 3.553 1.787
6.502 3.337 1.772
9.251 6.269 8.496
9.007 6.210 7.843
8.585 5.798 7.346
6.984 3.510 3.414
6.771 3.774 2.735
6.333 3.114 2.281
6.458 3.008 2.006
6.150 2.749 1.430
8.729 5.981 8.401
8.332 5.876 7.967
8.410 5.462 7.338
7.987 5.309 6.878
6.561 3.838 3.935
6.628 3.649 3.745
6.455 3.318 3.050
5.864 3.054 2.611
5.887 3.065 2.236
5.937 2.847 1.795
8.368 5.495 8.893
8.339 5.322 8.378
7.894 5.027 7.955
7.661 4.701 7.267
7.656 4.915 7.015
6.443 3.134 4.248
5.956 3.066 3.513
6.007 2.880 3.021
5.901 2.778 2.808
5.509 2.663 2.351
5.553 2.576 1.645
7.920 5.129 8.880
7.940 4.781 8.796
7.401 5.012 8.323
7.434 4.864 7.818
7.203 4.527 6.881
6.131 3.165 4.640
5.509 2.652 3.873
5.391 2.516 3.739
5.120 2.287 3.043
5.141 2.325 2.748
4.884 2.265 1.993
7.412 4.803 9.243
7.535 4.930 8.817
7.411 4.567 8.192
6.988 4.512 7.652
6.825 4.239 7.319
5.405 2.633 4.045
5.405 2.560 3.877
5.138 2.266 3.087
5.023 1.930 2.633
7.016 4.770 9.813
6.907 4.547 8.999
7.119 4.236 8.793
6.570 3.961 7.979
11.416 7.549 0.426
10.897 7.110 0.996
10.933 7.202 0.483
12.457 8.819 4.814
12.533 8.426 4.163
11.960 8.617 3.862
10.588 6.970 1.162
10.473 6.602 0.635
10.602 6.590 0.071
12.557 8.813 5.814
12.241 8.993 5.412
11.833 8.585 5.136
12.135 8.157 4.782
11.542 8.261 3.912
10.543 6.566 1.468
9.956 6.665 0.824
9.773 6.318 0.690
12.120 8.872 6.356
11.965 8.260 5.945
11.581 8.489 5.260
11.623 8.099 5.051
11.394 7.640 4.091
9.868 6.187 1.175
9.848 5.885 0.828
9.408 5.730 0.350
11.451 8.227 6.750
11.702 7.981 6.181
11.388 7.715 5.431
11.392 7.530 4.933
9.334 5.923 0.818
8.822 5.590 0.652
8.693 5.261 0.251
11.169 8.004 6.695
11.051 7.902 6.185
10.971 7.498 5.884
6.640 4.074 3.369
6.307 3.720 2.735
6.119 3.565 2.435
5.782 3.482 1.637
8.494 6.353 8.536
7.983 5.906 7.820
7.912 6.057 7.790
7.787 5.490 7.267
6.326 3.766 3.351
6.031 3.816 2.779
5.591 3.665 2.286
5.440 3.149 2.259
5.210 3.119 1.664
7.968 6.015 8.914
7.790 5.748 8.294
7.902 5.630 7.657
7.336 5.308 7.551
5.851 3.700 3.654
5.679 3.210 3.191
5.273 3.113 2.569
5.414 3.003 2.445
5.248 2.609 1.677
7.611 5.389 9.242
7.600 5.393 8.415
7.441 5.451 8.132
7.360 4.834 7.666
5.216 3.161 4.008
5.127 3.030 3.434
5.195 2.937 3.018
5.043 2.433 2.403
4.411 2.336 1.821
7.226 5.365 9.167
6.882 5.143 8.550
6.817 4.685 8.068
6.655 4.825 7.938
4.913 2.815 3.749
4.428 2.744 3.488
4.314 2.412 3.023
6.900 4.756 9.392
6.512 4.596 9.133
6.314 4.405 8.688
12.269 9.692 4.399
10.722 7.361 0.285
12.222 9.771 5.854
12.283 9.667 5.317
12.242 9.471 4.631
11.888 8.918 4.378
10.199 7.077 0.497
9.807 7.094 0.309
12.271 9.133 6.150
11.748 9.245 5.711
11.471 8.971 4.797
11.728 8.644 4.416
9.827 7.032 0.924
9.412 6.605 0.186
11.864 8.841 6.171
11.713 8.974 5.798
11.107 8.783 5.083
10.934 8.499 4.852
9.355 6.804 1.008
9.245 6.431 0.596
9.208 6.039 0.326
11.091 8.860 6.555
11.216 8.324 5.998
11.173 8.543 5.375
10.911 8.323 4.763
6.212 4.641 3.054
5.963 4.319 2.705
5.784 4.123 2.398
5.380 4.162 1.489
7.885 6.901 8.366
7.810 6.589 8.210
7.845 6.271 7.371
7.466 6.052 6.820
5.899 4.141 3.635
5.536 4.039 2.866
5.597 4.032 2.518
5.288 3.486 1.743
5.100 3.410 1.643
7.531 6.181 8.678
7.248 6.030 8.145
7.408 5.757 7.614
6.975 5.850 7.428
5.312 3.768 3.900
5.352 3.593 3.159
5.132 3.609 2.561
4.971 3.331 2.100
4.514 3.412 1.825
7.210 6.129 9.058
6.996 5.823 8.262
7.151 5.430 7.853
6.972 5.243 7.457
4.849 3.826 3.739
4.720 3.636 3.560
4.679 3.103 3.081
4.422 3.132 2.736
4.419 2.682 2.054
6.664 5.634 9.292
6.728 5.474 8.675
6.529 5.243 8.105
6.385 4.992 7.570
4.262 3.258 3.563
4.040 3.049 3.071
4.240 2.542 2.685
6.464 5.165 9.367
6.249 5.285 8.889
6.306 4.909 8.513
12.480 10.138 5.315
12.323 9.961 4.735
12.345 10.092 4.376
10.393 7.968 0.424
12.114 9.953 5.857
11.678 9.699 5.230
11.784 9.633 4.710
11.803 9.622 4.386
9.788 7.826 0.555
9.636 7.695 -0.086
11.851 9.615 5.823
11.494 9.451 5.503
11.201 9.539 4.962
11.157 9.389 4.342
9.497 7.529 1.091
9.243 7.079 0.418
11.304 9.279 6.008
11.012 9.000 5.685
11.070 9.304 5.066
10.985 8.690 4.852
9.270 7.239 0.893
8.903 6.701 0.864
8.881 6.864 0.382
10.976 8.879 6.631
10.623 9.163 5.753
10.395 8.857 5.236
10.689 8.401 5.185
5.731 5.090 2.223
5.538 4.664 1.936
5.789 4.719 1.417
8.073 7.163 8.425
7.701 7.212 7.892
7.634 7.191 7.261
5.724 4.744 3.031
5.477 4.623 2.656
5.171 4.833 2.326
4.964 4.629 1.598
5.135 4.391 1.474
7.596 7.138 8.308
7.573 6.956 7.870
7.260 6.498 7.710
7.181 6.554 6.956
5.368 4.649 3.890
5.338 4.686 3.165
5.019 4.398 2.935
5.222 4.500 2.693
4.999 3.906 2.102
4.900 3.933 1.684
7.104 6.865 8.914
7.351 6.396 8.050
7.035 6.332 7.619
6.498 6.321 7.070
6.430 6.093 6.556
5.153 4.352 4.385
5.009 4.178 3.822
4.577 4.118 2.968
4.809 3.973 2.618
4.255 3.846 1.979
4.240 3.582 1.660
6.892 6.647 8.779
6.970 6.190 8.420
6.691 5.805 8.110
6.447 5.764 7.488
6.222 5.508 7.208
4.641 4.387 4.476
4.517 3.990 3.952
4.705 3.996 3.365
4.425 3.683 2.998
4.165 3.307 2.364
3.715 3.275 1.816
6.756 5.935 9.028
6.124 5.796 8.842
6.337 5.832 8.075
5.860 5.513 7.788
5.987 5.561 7.068
4.209 3.657 4.297
4.109 3.365 3.531
4.124 3.114 3.060
3.764 3.181 2.635
6.144 5.985 9.662
5.765 5.701 9.100
5.694 5.558 8.504
5.726 5.040 7.793
10.086 8.552 0.331
11.845 10.527 5.423
12.132 10.504 4.787
11.773 10.523 4.470
11.819 10.142 3.867
10.213 8.370 0.588
9.789 8.588 0.312
11.628 10.413 5.708
11.339 10.501 5.287
11.388 10.032 4.887
11.116 10.109 3.977
10.778 9.653 3.585
9.766 8.371 1.053
9.289 8.143 0.688
9.269 7.797 0.167
11.203 10.129 5.735
11.124 9.925 5.581
11.051 9.547 4.708
10.900 9.367 4.447
10.776 9.369 4.015
9.486 7.695 1.492
9.168 7.595 0.934
8.820 7.787 0.576
11.212 9.640 6.024
10.940 9.663 5.858
10.514 9.610 5.163
10.324 9.291 4.604
10.195 8.971 4.165
8.545 7.633 1.058
8.699 7.134 0.817
8.459 6.915 0.366
10.474 9.512 6.581
10.239 9.469 5.947
10.405 9.096 5.461
9.994 8.716 5.129
8.329 7.009 0.930
8.217 6.761 0.614
10.298 9.142 6.849
9.991 8.879 6.386
10.130 8.966 5.891
12.425 0.269 7.489
12.294 0.089 6.952
12.649 0.461 8.686
12.546 0.381 8.011
12.041 0.010 7.556
12.422 0.367 9.588
11.974 0.059 9.183
11.984 0.010 9.569
12.568 1.108 8.501
12.200 1.044 7.788
12.094 0.541 7.331
12.088 1.009 9.003
12.352 1.111 8.835
11.806 0.773 8.322
11.958 0.315 7.821
11.818 0.068 7.019
11.945 0.482 9.513
11.815 0.331 8.683
11.748 0.434 8.195
11.521 0.028 7.822
11.832 0.537 9.776
11.381 0.238 8.975
11.371 0.073 8.582
11.353 -0.133 9.893
12.158 1.592 9.079
12.402 1.323 8.303
11.862 1.236 7.838
11.851 1.333 7.531
11.899 1.522 9.225
11.786 1.406 8.841
11.520 1.217 7.992
11.271 0.960 7.840
11.570 1.031 9.387
11.695 1.175 9.080
11.272 0.976 8.294
11.263 0.513 7.804
11.249 0.763 9.769
11.092 0.449 9.149
11.037 0.245 8.847
10.775 0.165 8.073
10.915 0.142 9.388
10.736 0.336 8.850
5.153 12.285 12.194
3.867 11.016 8.701
4.575 12.186 12.515
3.475 10.519 9.236
3.634 11.652 9.032
4.060 12.711 12.304
3.302 11.078 9.319
2.542 10.707 9.294
3.495 11.947 8.581
3.160 12.082 9.320
3.010 11.683 8.967
3.137 11.922 9.755
2.481 11.531 9.303
2.584 11.053 9.158
1.866 10.654 9.683
3.139 12.488 8.290
2.942 12.498 9.314
2.742 12.164 8.575
2.678 12.094 9.976
2.785 12.274 9.645
2.562 12.109 9.202
2.588 11.899 10.491
2.000 12.067 9.985
2.183 11.783 9.339
2.403 12.255 12.536
1.898 11.522 10.028
1.633 11.139 9.352
1.120 11.043 9.856
2.202 12.468 9.696
1.823 12.472 9.181
2.088 12.416 9.964
1.851 12.031 9.566
1.814 11.878 9.100
1.826 11.879 10.670
1.570 12.047 10.179
1.251 11.921 9.654
1.153 11.670 10.287
0.660 11.612 9.972
0.517 11.043 10.112
1.095 12.191 9.438
1.217 12.396 10.275
1.231 12.506 10.219
0.688 12.191 9.580
0.692 12.201 10.364
0.695 11.762 9.802
0.272 11.314 10.230
0.479 12.390 9.466
0.555 12.471 10.316
0.152 12.018 9.786
9.075 9.691 12.503
8.861 9.434 12.190
8.059 7.862 8.797
8.845 9.114 12.414
8.543 8.858 11.922
7.809 7.636 9.237
7.650 7.849 8.939
8.520 8.900 12.611
8.114 8.430 12.096
7.259 7.514 9.536
7.320 7.383 9.298
7.860 8.233 12.266
6.769 7.183 9.655
6.457 7.151 9.199
7.305 8.128 12.532
6.328 6.684 10.277
6.309 6.700 9.496
5.887 6.549 10.063
12.085 11.538 5.894
12.721 12.150 8.762
11.449 11.429 6.429
11.563 10.944 6.142
12.439 12.061 10.076
12.207 12.272 9.649
12.441 11.884 9.322
11.434 10.746 7.003
11.330 10.834 6.249
12.278 12.144 11.242
12.300 11.970 11.077
12.384 12.215 10.313
12.215 11.719 9.824
11.679 11.620 9.347
10.856 10.765 6.991
11.021 10.494 6.690
12.336 12.001 12.124
11.891 12.121 11.750
12.006 11.633 11.222
11.865 11.814 10.765
11.472 11.304 9.998
11.533 11.491 9.854
10.512 10.368 7.135
10.535 10.116 6.674
12.093 11.782 12.174
11.553 11.565 11.886
11.837 11.736 11.647
11.277 11.179 11.189
11.335 10.925 10.579
10.198 9.892 7.212
11.348 11.655 12.383
10.972 11.377 11.518
10.236 11.107 12.132
9.599 10.851 12.683
9.708 10.274 12.005
8.978 10.001 12.176
8.959 10.216 11.895
7.809 8.642 8.111
9.069 10.048 12.367
8.672 9.943 12.077
8.478 9.596 11.315
7.725 8.643 8.893
7.553 8.137 8.790
8.483 9.248 12.433
8.165 9.197 11.876
7.707 9.245 11.020
7.563 8.349 9.754
7.313 8.066 9.240
7.278 8.134 9.037
8.094 8.892 12.363
8.012 8.767 11.819
7.644 8.958 11.674
7.296 8.709 10.974
7.052 8.372 10.819
7.039 7.946 10.150
6.913 8.067 9.839
6.657 7.792 9.034
7.507 8.588 12.392
7.033 8.525 11.913
7.261 8.024 11.396
6.817 7.954 10.726
6.620 8.073 10.257
6.607 7.733 9.612
6.217 7.206 9.622
7.165 8.059 12.533
6.956 8.324 12.270
6.580 7.810 11.394
6.296 7.917 11.196
6.455 7.467 10.492
5.907 7.542 10.317
6.149 7.055 9.777
5.764 6.991 10.177
5.632 6.641 9.928
5.275 6.552 10.064
11.870 12.210 5.507
11.739 12.034 6.376
11.664 12.010 5.863
11.940 12.261 8.339
11.808 12.240 7.899
11.512 11.882 7.727
11.330 11.943 7.119
11.412 11.672 6.502
10.974 11.520 6.125
11.825 12.539 9.729
11.794 12.441 9.212
11.636 12.142 8.760
11.443 11.917 8.042
11.110 11.584 7.820
11.212 11.422 7.529
11.092 11.109 6.735
10.709 11.237 6.200
11.722 12.473 10.451
11.445 12.295 9.778
11.486 12.227 9.446
11.266 11.746 8.919
10.978 11.800 8.235
11.049 11.342 7.829
10.524 11.423 7.441
10.694 11.195 7.011
10.492 10.624 6.745
11.734 12.700 11.527
11.612 12.092 10.954
11.422 12.068 10.924
11.307 11.756 10.123
11.040 11.800 9.616
10.913 11.258 9.000
10.337 10.706 7.748
10.437 10.603 7.057
10.292 10.739 6.938
11.805 12.516 12.214
11.340 12.211 11.829
11.493 12.187 11.393
10.881 11.665 10.924
11.066 11.719 10.578
10.836 11.190 9.744
9.654 10.390 7.688
9.888 10.401 6.895
10.850 11.694 12.382
11.058 11.543 11.798
10.516 11.395 11.046
10.675 11.185 10.815
9.204 9.772 7.541
10.800 11.537 12.647
10.437 11.506 11.791
10.478 11.315 11.593
10.052 10.833 12.232
9.931 11.476 12.245
9.444 11.380 11.676
9.216 11.106 12.441
9.411 10.884 11.996
8.893 10.882 11.237
7.678 9.536 8.122
9.082 10.605 12.201
8.573 10.317 11.473
7.373 9.125 8.289
8.526 10.532 12.244
8.280 10.190 11.916
7.932 9.864 11.519
8.150 9.850 10.920
7.555 9.309 9.519
7.472 8.899 9.164
6.920 8.714 8.474
7.740 10.057 12.442
7.838 9.854 11.678
7.370 9.237 11.145
7.272 9.438 10.577
7.346 9.107 10.438
6.918 9.002 9.552
7.098 8.694 9.473
6.752 8.522 9.081
7.804 9.401 12.362
7.270 9.366 12.200
7.178 9.022 11.364
7.066 9.061 11.028
6.639 8.996 10.391
6.607 8.468 10.210
6.483 8.442 9.431
6.308 8.284 8.901
7.073 9.057 12.321
6.681 8.890 11.741
6.561 8.631 11.267
6.591 8.309 10.623
6.277 8.079 10.126
6.285 8.102 9.998
6.087 7.678 9.322
6.443 8.656 12.278
6.527 8.390 12.088
6.356 8.082 11.700
5.943 8.288 10.806
5.734 7.856 10.631
5.782 7.714 10.210
5.860 7.413 9.403
5.852 8.352 12.385
6.117 7.942 12.000
5.568 7.725 11.331
5.391 7.664 11.024
5.505 7.220 10.181
5.355 7.070 9.617
4.933 7.359 10.823
5.010 6.867 10.007
4.735 6.760 10.278
4.360 6.533 10.511
3.568 6.013 10.744
3.438 5.832 11.374
11.453 12.476 5.363
11.457 12.266 6.477
11.052 12.109 5.513
11.568 12.295 7.428
10.963 12.391 7.182
11.088 12.068 6.757
10.658 11.664 6.259
11.159 12.653 8.866
11.285 12.451 8.129
10.793 12.367 7.775
10.685 11.926 7.295
10.630 11.600 6.770
10.509 11.457 6.152
10.916 12.265 9.521
11.110 12.101 8.836
10.795 12.266 8.216
10.650 11.925 8.229
10.243 11.453 7.746
10.164 11.208 7.061
9.873 11.101 6.513
11.095 12.237 10.539
11.006 12.227 10.022
10.598 12.259 9.886
10.701 11.664 8.941
10.525 11.607 8.638
10.452 11.783 8.420
10.211 11.533 7.563
9.869 10.960 7.360
9.805 11.046 6.714
11.090 12.487 11.737
11.042 12.544 11.412
10.680 12.255 11.006
10.665 11.747 10.492
10.281 12.045 10.002
10.100 11.722 9.486
9.566 10.869 8.140
9.266 10.857 7.381
9.283 10.547 6.989
10.917 12.250 11.988
10.653 11.865 11.651
10.087 11.642 11.070
9.935 11.863 10.830
8.882 10.288 7.554
10.079 11.834 12.528
9.898 11.671 11.897
9.882 11.339 11.517
9.829 11.418 10.677
8.562 10.140 7.433
9.740 11.276 11.984
9.715 11.383 11.473
9.242 11.723 12.031
9.391 11.537 11.567
8.941 11.425 10.912
7.746 10.197 7.704
8.918 11.745 12.241
8.638 11.212 12.045
8.519 11.133 11.544
7.305 9.970 8.249
8.632 10.848 12.382
8.512 10.963 11.886
8.087 10.898 10.971
7.396 9.581 8.745
7.082 9.634 8.388
7.988 10.763 12.644
7.971 10.313 11.966
7.638 10.475 11.396
7.842 10.139 10.762
6.991 9.619 9.338
6.655 9.587 8.781
6.598 9.357 8.712
7.668 10.243 12.424
7.166 9.818 11.661
7.099 9.954 11.228
7.258 9.696 10.772
6.816 9.285 10.069
6.658 9.228 9.943
6.613 9.026 9.061
6.140 8.944 8.628
6.964 10.023 12.573
6.818 9.636 11.801
6.910 9.656 11.483
6.652 9.436 10.840
6.712 8.963 10.750
6.261 9.110 10.095
5.965 8.764 9.317
6.238 8.342 9.041
6.856 9.445 12.392
6.371 8.964 11.527
6.513 8.850 11.453
6.295 8.826 10.669
5.903 8.404 10.347
5.860 8.568 9.597
5.608 8.184 9.368
6.267 9.126 12.568
6.148 8.879 11.748
6.161 8.575 11.570
5.865 8.629 10.814
5.489 8.192 10.292
5.495 8.079 9.801
5.129 8.078 9.371
5.687 8.831 12.471
5.564 8.541 11.839
5.577 8.050 11.230
5.057 7.975 10.626
4.834 7.804 10.227
4.680 7.804 10.019
4.549 7.502 10.551
4.599 7.198 10.207
4.240 6.879 10.503
3.685 6.775 10.703
3.187 6.561 10.886
3.026 6.168 10.958
10.838 12.374 6.380
10.184 12.098 6.189
10.541 12.374 7.836
10.236 12.418 7.126
10.134 12.415 6.947
9.900 11.971 6.365
10.628 12.692 8.642
10.270 12.181 8.062
9.914 12.253 7.603
9.783 11.746 7.147
9.528 11.565 6.400
10.475 12.473 9.443
10.305 12.551 9.403
10.038 11.948 8.935
9.824 11.936 8.194
9.711 11.909 7.491
9.332 11.775 7.050
9.209 11.508 6.785
10.378 12.346 10.615
10.019 12.192 10.087
9.574 12.007 9.553
9.449 11.280 7.975
9.105 11.025 7.521
8.998 11.106 7.227
10.273 12.538 11.733
10.040 12.429 11.207
9.663 12.104 10.648
9.798 11.857 9.948
8.891 11.035 7.822
8.539 10.535 7.087
9.814 12.244 12.522
9.860 11.937 11.839
9.820 12.100 11.400
9.496 11.994 10.960
8.455 10.654 7.665
9.596 11.663 12.260
9.147 11.746 11.667
9.309 11.575 10.966
7.655 10.074 7.949
8.962 12.633 12.504
8.941 12.318 12.208
8.839 12.017 11.507
8.688 12.018 10.992
7.275 10.544 7.709
8.729 12.146 12.126
8.750 11.966 11.652
8.128 11.719 11.260
6.983 10.271 8.240
8.294 11.626 12.111
7.972 11.309 11.458
7.643 10.822 11.178
6.966 10.101 8.517
6.667 9.961 8.261
7.847 11.154 12.218
7.595 10.850 12.009
7.326 10.738 11.220
7.372 10.371 10.690
6.753 10.161 9.403
6.625 10.040 9.247
6.415 9.632 8.308
7.345 10.720 12.275
7.212 10.402 11.595
6.860 10.011 11.433
6.700 10.002 10.633
6.528 9.783 10.364
6.332 9.918 9.858
6.050 9.629 9.197
6.087 9.474 8.690
6.976 10.463 12.387
6.614 10.226 11.889
6.733 10.130 11.320
6.245 9.809 10.744
6.278 9.462 10.611
5.720 9.580 9.774
5.676 9.404 9.763
5.398 8.740 8.923
6.548 9.778 12.060
6.332 9.670 11.818
5.788 9.510 11.410
5.821 9.458 10.657
5.594 9.127 10.183
5.217 9.072 9.572
5.265 8.530 9.218
5.738 9.699 12.225
5.598 9.478 12.161
5.793 9.237 11.339
5.636 8.781 10.883
5.490 8.507 10.418
5.059 8.739 9.955
5.072 8.360 9.569
5.285 8.911 12.428
5.140 8.897 11.967
5.275 8.521 11.440
4.794 8.436 10.854
4.819 7.999 10.160
4.446 8.301 9.751
4.516 8.151 10.362
4.043 7.836 9.836
3.845 7.188 10.187
3.416 7.337 10.437
3.063 6.855 10.989
2.635 6.433 10.966
9.885 12.222 6.434
9.832 12.342 7.313
9.251 12.523 6.771
9.088 12.292 6.664
9.811 12.678 8.796
9.630 12.262 8.058
9.173 12.320 7.541
9.385 12.174 7.005
9.164 11.683 6.788
9.463 12.206 9.428
8.679 11.832 8.064
8.589 11.715 7.531
8.678 11.671 6.929
9.251 12.301 10.688
9.211 12.336 10.358
8.356 11.473 7.934
8.191 11.228 7.243
9.334 12.459 11.634
9.117 12.136 11.432
8.945 12.259 11.107
7.866 10.903 7.251
9.081 12.516 12.786
9.028 12.183 11.848
8.942 12.078 11.580
8.562 11.923 11.294
7.396 10.703 7.843
8.751 12.691 11.670
8.287 12.484 12.458
8.210 11.960 11.917
7.765 11.908 12.717
7.858 11.595 11.946
7.410 11.683 11.832
6.254 10.238 8.264
7.614 11.327 12.215
7.094 11.231 11.879
6.810 11.390 11.437
6.345 10.282 8.937
5.970 10.064 8.406
6.621 11.284 12.139
6.544 10.611 11.826
6.259 10.803 11.325
6.334 10.512 10.846
6.005 10.054 10.095
6.193 9.869 9.621
6.025 9.683 9.028
5.759 9.549 8.899
6.590 10.797 12.253
6.229 10.346 12.086
6.158 10.355 11.251
5.761 10.163 10.897
5.903 10.213 10.479
5.819 9.926 9.911
5.593 9.668 9.452
5.076 9.496 8.953
5.945 10.101 11.993
6.015 10.123 11.626
5.783 9.633 11.386
5.352 9.672 10.912
5.038 9.588 10.405
4.942 9.340 9.550
4.693 8.922 9.416
5.525 9.924 12.277
5.195 9.636 12.143
5.271 9.504 11.651
5.260 9.450 10.963
4.986 8.905 10.730
4.708 9.078 10.031
4.464 8.819 9.267
5.146 9.283 12.267
4.437 8.929 10.698
4.341 8.504 10.249
4.203 8.339 9.945
3.734 8.561 10.699
3.930 8.257 10.112
3.247 7.723 10.337
2.460 7.063 11.172
8.753 12.319 6.228
8.912 12.426 7.509
8.948 12.241 7.396
8.757 12.017 6.806
8.467 12.172 7.504
8.086 11.729 6.720
8.015 11.332 7.174
8.606 12.516 11.742
7.465 12.482 12.470
7.170 12.260 12.282
7.233 11.694 12.188
6.621 11.587 11.612
5.835 10.371 8.587
6.579 11.551 12.608
6.260 11.202 11.838
6.240 11.152 11.799
5.573 10.276 9.209
5.458 9.961 8.561
6.370 11.370 12.418
5.888 10.854 11.922
5.850 10.830 11.476
5.206 10.317 10.087
4.839 9.780 9.698
4.850 9.811 8.814
5.635 10.556 12.134
5.385 10.269 11.605
5.090 9.877 10.061
4.699 9.690 9.571
4.570 9.566 9.187
5.391 10.500 12.585
4.993 10.028 11.693
4.394 9.621 10.371
4.570 9.244 10.091
4.325 8.979 9.509
3.722 9.173 10.459
3.842 8.672 9.812
3.214 8.379 9.860
7.700 12.030 6.894
6.850 12.497 12.127
6.216 11.836 12.570
6.190 11.901 11.864
5.081 10.343 8.467
5.656 11.433 12.303
5.702 11.228 11.778
4.582 10.378 9.616
4.796 10.113 8.888
5.570 11.309 12.356
5.011 10.898 12.076
4.567 10.306 9.804
4.230 9.763 9.352
4.027 9.738 9.346
3.507 9.173 9.665
5.803 12.641 12.376
5.482 12.151 12.408
4.164 10.647 9.085
4.904 11.880 12.730
3.747 10.153 8.947
3.395 9.769 9.496
5.017 12.294 12.252
3.975 10.999 8.912
4.811 12.159 12.649
3.207 10.577 9.195
2.049 9.132 3.090
1.865 8.822 2.354
1.937 8.645 1.858
1.610 8.337 1.581
3.972 11.297 8.173
3.755 10.689 7.864
3.456 10.551 7.214
3.358 10.458 6.819
1.697 8.562 2.948
1.555 8.276 2.691
1.236 8.405 2.027
1.271 8.043 1.429
1.287 7.769 1.353
3.775 10.632 8.551
3.239 10.814 8.161
3.345 10.386 7.518
3.003 10.058 7.119
1.443 8.253 3.419
1.049 7.978 2.640
1.016 7.784 2.263
0.914 7.854 1.900
0.797 7.620 1.314
3.031 10.538 8.691
3.292 10.482 8.364
2.986 9.914 7.705
2.822 10.194 7.243
1.056 8.226 3.390
0.781 8.015 2.980
0.825 7.957 2.645
0.438 7.648 2.368
2.929 10.335 8.909
2.481 9.967 8.297
2.617 9.671 7.809
2.450 9.854 7.216
0.619 7.797 3.303
0.460 7.635 3.091
2.110 9.682 8.646
2.172 9.318 8.001
6.189 12.320 0.106
5.566 11.884 0.060
5.501 11.643 0.723
5.041 11.429 0.002
5.327 11.296 0.853
4.903 11.294 0.079
1.818 9.549 2.253
1.574 9.465 1.832
4.091 11.737 7.615
3.781 11.626 6.992
1.619 9.257 2.634
1.660 9.147 2.323
1.281 8.974 2.040
1.478 8.972 1.596
3.586 11.453 8.081
3.222 11.186 7.866
3.417 11.042 7.084
2.895 10.767 6.443
1.544 9.352 3.706
1.354 9.031 2.909
1.255 8.724 2.442
1.035 8.998 2.259
0.737 8.558 1.872
0.903 8.513 1.075
3.164 11.147 8.530
3.317 10.933 7.886
3.065 10.812 7.271
3.000 10.587 7.103
2.522 10.509 6.332
1.396 9.132 3.812
0.967 9.048 3.097
1.076 8.509 2.787
0.764 8.549 2.428
0.676 8.304 1.791
0.248 8.292 1.418
2.689 10.818 8.800
2.749 10.569 8.338
2.800 10.608 7.865
2.215 10.441 7.150
2.436 10.148 6.926
0.651 8.353 3.756
0.604 8.173 3.070
0.377 8.312 2.413
0.168 7.746 1.926
2.502 10.791 8.664
2.227 10.338 8.291
2.271 10.351 7.731
1.990 9.794 7.582
-0.058 8.022 3.317
2.330 10.327 9.145
2.169 10.182 8.448
1.860 9.836 8.150
5.311 12.789 0.220
5.255 12.164 0.874
5.177 12.193 0.729
4.852 11.998 0.118
4.881 11.798 0.559
4.441 11.839 0.413
4.251 11.459 0.679
4.043 11.239 -0.154
1.676 10.362 2.735
1.697 9.851 1.942
1.577 9.988 1.365
1.140 9.555 1.124
3.513 12.369 7.991
3.549 12.102 7.276
3.421 11.834 6.696
3.053 11.601 6.190
1.765 10.177 3.034
1.482 9.638 2.547
1.208 9.647 2.173
1.293 9.370 1.669
0.970 9.151 1.439
0.501 8.954 1.056
3.096 11.700 7.938
2.935 11.929 7.421
3.150 11.614 7.116
2.721 11.255 6.414
2.800 11.053 6.004
1.443 9.840 3.634
1.211 9.567 3.263
0.735 9.295 2.704
0.465 9.070 2.242
0.631 9.156 1.379
0.403 9.031 1.202
0.174 8.636 0.410
2.822 11.611 8.216
2.904 11.243 7.919
2.636 11.472 7.233
2.345 11.076 6.704
2.300 10.781 6.354
0.736 9.292 3.717
0.901 9.043 3.514
0.469 8.845 2.730
0.098 9.067 2.065
0.323 8.598 2.085
2.711 11.518 8.573
2.134 11.211 8.143
2.072 10.829 7.506
2.230 10.788 7.196
1.917 10.749 6.820
0.533 9.350 3.905
0.224 8.693 3.714
0.007 8.944 3.182
2.284 11.076 8.843
1.868 10.724 8.473
1.849 10.773 7.907
1.692 10.342 7.425
1.694 10.170 6.692
1.857 10.816 9.132
1.725 10.304 8.643
1.685 10.562 8.181
1.505 9.906 7.658
1.293 10.243 8.951
1.005 10.250 8.468
4.369 12.349 1.208
4.202 12.313 0.514
4.328 12.339 0.158
3.922 12.115 0.864
3.704 11.728 0.328
3.874 11.822 0.120
1.751 11.067 1.744
1.868 10.755 0.936
1.822 10.685 2.128
1.626 10.793 1.906
1.533 10.744 1.443
1.424 10.060 0.601
3.219 12.546 6.237
