2.009 10.985 5.188
2.584 11.410 4.693
2.802 12.266 4.880
3.614 12.472 5.045
0.345 7.544 5.173
0.905 7.912 5.305
0.997 8.881 5.073
1.438 9.050 5.259
1.832 9.633 5.375
2.061 9.862 4.934
2.836 10.462 4.963
3.231 10.862 5.174
3.227 11.838 4.805
3.994 12.102 4.995
4.037 12.657 4.649
0.553 6.840 5.363
0.927 7.074 5.483
1.143 7.632 5.354
1.466 8.094 5.130
2.011 8.660 4.935
2.442 9.371 5.040
2.572 9.825 5.174
3.210 10.495 4.663
3.786 10.829 4.671
4.007 10.939 5.037
4.297 11.541 4.683
4.834 12.133 4.679
0.335 5.611 5.363
0.460 6.164 5.769
0.735 6.312 5.142
1.451 7.127 5.468
1.637 7.237 5.280
2.085 7.788 4.981
2.273 8.216 5.241
2.900 8.919 5.187
3.326 9.371 5.043
3.420 9.584 4.937
4.070 10.127 4.629
4.473 10.594 4.614
4.942 11.243 4.686
5.407 11.869 4.778
5.628 12.349 4.752
-0.109 4.483 5.424
0.464 4.844 5.408
0.728 5.527 5.593
1.611 6.308 5.285
1.500 6.521 5.327
2.077 7.046 5.021
2.730 7.307 5.363
2.738 7.764 4.959
3.538 8.164 5.232
3.845 8.852 5.123
4.229 9.354 4.879
4.603 10.075 4.708
5.068 10.322 4.483
5.088 11.015 4.519
5.580 11.468 4.344
5.959 11.997 4.259
0.068 3.630 5.548
0.559 3.929 5.355
1.013 4.477 5.279
1.482 5.316 5.202
1.819 5.616 5.260
2.228 6.355 5.388
2.645 6.422 4.930
4.112 8.243 4.831
4.344 9.286 5.042
5.115 9.255 4.788
5.658 10.141 4.628
5.851 10.350 4.777
6.275 10.774 4.348
6.787 11.140 4.563
0.953 3.638 5.675
1.665 4.474 5.260
1.706 4.716 5.392
2.291 5.001 5.194
2.752 5.994 5.068
5.291 8.861 5.062
5.689 9.334 4.826
6.147 9.485 4.586
6.346 9.892 4.346
6.756 10.561 4.408
1.713 3.648 5.647
2.014 3.785 5.172
2.208 4.561 5.575
2.777 4.626 5.504
3.011 5.218 5.196
5.323 8.032 4.600
5.676 8.864 4.848
6.495 8.988 4.672
6.615 9.717 4.444
7.335 10.228 4.438
2.011 3.119 5.454
2.668 3.507 5.549
2.696 3.841 5.482
3.481 4.158 5.091
3.629 4.869 5.240
6.177 7.767 4.565
6.157 8.178 4.792
6.886 8.626 4.498
7.176 9.464 4.683
7.831 9.652 4.517
0.456 12.498 5.113
1.176 11.777 4.208
1.404 12.365 4.283
1.802 11.433 4.432
1.939 11.758 4.164
2.142 12.274 4.415
-0.116 8.586 4.475
0.257 8.925 4.434
1.076 10.169 4.458
1.829 10.376 4.200
2.197 11.038 4.117
2.670 11.234 4.352
2.752 11.971 4.444
3.284 12.695 4.293
0.448 7.618 4.663
0.683 8.154 4.431
0.735 8.727 4.431
1.551 9.040 4.518
1.845 9.678 4.547
2.010 10.240 4.369
2.461 10.777 4.548
3.125 11.013 4.137
3.256 11.815 3.940
3.836 12.001 4.245
4.460 12.426 4.120
0.023 6.659 4.736
0.464 7.195 4.686
1.389 7.810 4.418
1.244 8.508 4.405
1.959 8.961 4.571
2.448 9.367 4.563
2.634 9.473 4.201
2.967 10.414 4.503
3.318 10.785 4.425
3.949 11.108 4.294
4.464 11.381 4.345
4.531 12.134 4.128
0.227 5.774 4.806
1.051 6.305 5.015
0.921 6.598 4.912
1.307 7.648 4.664
2.212 7.750 4.685
2.213 8.156 4.778
2.720 8.971 4.645
3.421 9.306 4.588
3.328 9.850 4.529
3.881 10.436 4.282
4.216 11.022 4.401
4.490 11.239 4.019
5.348 11.468 4.103
5.280 12.383 3.738
0.032 4.767 4.898
0.299 5.278 5.139
1.141 5.342 5.067
1.208 5.964 5.042
1.857 6.366 4.520
2.181 7.090 4.788
2.361 7.711 4.702
3.381 8.544 4.365
3.856 8.961 4.290
3.913 9.582 4.027
4.525 9.703 4.364
4.662 10.367 4.108
5.305 11.082 4.076
5.512 11.054 3.812
5.788 11.867 3.664
0.326 3.868 4.799
1.209 4.440 5.038
1.478 5.026 4.700
1.490 5.738 4.631
1.895 6.041 4.554
4.480 9.088 4.019
4.664 9.492 3.874
5.362 10.197 4.007
5.900 10.566 3.831
6.140 11.006 3.930
0.812 3.793 4.861
1.340 4.248 4.924
1.920 4.636 4.591
2.272 5.430 4.618
2.517 5.802 4.469
5.288 8.284 4.114
5.466 9.219 4.113
5.827 9.531 3.920
6.231 10.247 4.101
6.548 10.685 3.630
1.985 3.798 4.594
2.195 4.239 4.898
2.801 4.839 4.693
5.894 8.920 3.848
6.319 9.307 4.147
6.760 9.386 3.826
1.957 2.990 4.616
2.384 3.210 4.641
2.855 4.017 4.695
3.453 4.599 4.579
3.324 4.737 4.813
6.240 8.053 4.103
6.335 8.353 4.172
6.576 8.705 3.884
6.970 9.337 3.792
7.276 9.888 3.668
1.722 12.161 3.892
1.337 11.470 3.737
1.772 12.085 3.915
2.223 12.415 3.633
0.216 8.308 4.148
1.915 10.742 3.682
2.160 10.834 4.028
2.421 11.421 3.513
2.588 11.646 3.580
3.204 12.186 3.390
0.033 7.682 4.034
0.691 8.412 4.095
1.208 8.572 4.121
1.596 9.842 3.666
2.042 10.131 3.586
2.488 10.746 3.755
2.810 11.145 3.784
3.499 11.496 3.780
3.824 11.728 3.438
3.871 12.517 3.312
0.492 7.045 3.998
0.794 7.161 4.098
0.809 7.607 4.192
1.660 8.100 3.742
1.975 8.638 4.121
1.967 9.415 3.673
2.474 9.640 3.538
2.848 9.893 3.814
3.514 10.891 3.899
3.579 11.275 3.718
4.479 11.685 3.469
4.864 11.800 3.468
4.721 12.375 3.090
0.346 5.779 4.032
0.952 6.232 4.139
1.206 6.825 4.233
1.240 7.444 4.113
2.158 7.596 3.779
2.674 8.749 3.581
2.972 9.542 3.597
3.588 9.613 3.912
3.694 10.267 3.348
4.272 10.717 3.379
4.779 11.101 3.371
4.853 11.681 3.163
5.433 11.936 3.463
-0.136 4.433 4.272
0.667 4.832 4.149
0.597 5.196 4.321
1.372 5.741 4.188
1.515 6.294 4.234
2.243 7.151 4.246
3.412 8.751 3.883
4.232 9.505 3.524
4.476 9.602 3.478
4.830 10.503 3.636
4.873 10.846 3.334
5.561 11.075 3.305
5.678 11.877 3.481
0.321 4.345 4.379
1.081 4.668 4.370
1.107 5.044 4.415
1.475 5.468 4.165
2.005 5.785 4.256
4.706 8.731 3.749
5.113 9.651 3.322
5.224 9.931 3.673
5.420 10.553 3.494
5.866 11.125 3.105
1.294 3.992 4.458
1.867 4.675 4.271
2.130 5.307 4.032
5.327 9.160 3.216
5.672 9.222 3.668
5.886 10.042 3.273
2.455 3.987 3.882
6.215 8.922 3.517
2.283 3.350 4.219
2.544 3.945 4.025
3.019 4.112 3.728
6.495 7.948 3.630
6.875 8.433 3.494
7.192 8.998 3.292
2.198 12.119 3.041
1.687 10.631 3.005
2.450 11.641 3.259
2.583 11.974 3.076
2.940 12.599 3.123
0.127 7.482 3.774
2.563 10.245 3.058
2.833 11.049 2.818
3.491 11.576 2.962
3.927 11.860 3.120
3.872 12.719 2.951
0.003 7.020 3.310
0.708 7.380 3.535
1.197 7.514 3.472
2.494 9.915 3.326
3.078 10.304 2.867
3.055 10.840 3.162
3.536 11.111 3.090
4.342 11.318 2.845
4.343 12.088 2.526
4.686 12.570 2.743
0.108 5.816 3.622
0.711 6.225 3.282
1.273 6.601 3.548
3.563 9.511 3.092
3.892 10.425 3.042
4.355 10.391 3.102
4.330 11.362 2.916
4.828 11.381 2.904
0.359 5.231 3.726
0.461 5.196 3.707
0.882 6.156 3.299
1.341 6.691 3.575
4.137 9.159 3.037
4.583 9.942 2.655
4.960 10.122 3.144
5.218 10.473 3.000
5.362 11.240 2.706
1.171 4.800 3.634
5.223 9.632 2.782
2.179 11.179 2.555
2.907 12.030 2.526
3.301 12.139 2.562
-0.241 7.565 2.843
2.611 10.582 2.607
2.991 11.034 2.373
3.145 11.321 2.521
3.639 11.829 2.522
3.859 12.227 1.922
0.075 6.559 2.874
0.580 7.215 2.909
3.023 10.015 2.334
3.187 10.560 2.385
3.422 11.144 2.571
4.094 11.543 1.972
4.562 12.151 1.926
0.167 6.057 3.225
0.797 6.452 3.208
0.849 6.885 3.024
3.144 9.921 2.205
3.478 9.914 2.278
4.183 10.686 2.316
4.733 11.184 2.127
5.165 11.859 1.847
0.387 4.791 3.152
0.531 5.683 2.883
0.923 6.163 2.900
4.079 9.879 2.208
4.874 10.109 2.015
4.829 10.623 2.124
2.474 11.527 1.620
2.431 10.836 1.587
2.895 11.427 1.764
3.341 11.731 1.906
0.275 6.929 2.370
0.694 7.329 2.337
2.933 9.988 1.629
2.940 10.753 1.867
3.657 10.834 1.538
3.928 11.496 1.395
4.327 11.812 1.427
0.082 6.007 2.303
0.632 6.222 2.509
3.604 10.260 1.795
4.309 10.314 1.483
4.682 11.250 1.852
0.513 5.178 2.274
4.454 10.254 1.458
2.286 11.482 0.993
2.591 12.050 0.837
2.878 12.273 1.055
2.059 10.686 1.247
2.348 11.142 1.030
3.018 11.255 1.305
3.278 11.969 1.113
3.688 12.080 1.236
0.372 6.973 1.482
2.714 9.872 1.266
2.917 10.508 0.911
3.221 11.163 0.858
3.695 11.527 0.810
4.476 11.727 0.869
0.125 5.700 1.775
0.457 5.961 1.496
0.608 6.890 1.801
2.926 9.770 1.210
3.453 9.867 1.142
4.062 10.814 0.835
4.231 10.957 0.914
4.719 11.476 0.827
0.137 4.605 1.978
0.253 5.561 1.950
0.725 5.926 1.743
4.331 9.554 1.071
4.525 10.105 1.146
4.804 10.586 1.078
1.779 12.247 0.285
1.949 10.865 0.929
1.833 11.057 0.506
2.291 11.685 0.425
2.982 12.224 0.159
2.318 10.153 0.361
2.455 10.716 0.362
2.948 11.532 0.514
3.200 11.888 0.126
3.656 12.072 0.466
0.385 7.048 0.994
0.512 7.781 1.012
2.434 9.598 0.882
2.570 10.020 0.688
2.974 10.165 0.727
3.380 11.145 0.697
4.110 11.331 0.578
3.972 11.623 0.099
4.580 12.591 0.345
0.286 6.334 0.914
0.763 6.440 0.779
3.163 9.673 0.565
3.536 10.277 0.721
3.735 10.455 0.377
4.302 11.060 0.151
4.694 11.641 0.154
-0.131 4.610 1.423
0.451 5.234 1.098
0.711 5.799 0.907
1.279 6.238 0.884
3.503 9.155 0.649
3.835 9.391 0.177
4.449 10.245 0.622
4.716 10.893 0.284
4.942 11.186 -0.003
0.962 4.786 1.202
4.945 9.992 0.076
0.912 12.128 -0.151
1.214 11.169 -0.168
0.951 10.524 0.086
1.769 10.537 0.092
0.315 7.993 0.198
0.259 8.436 0.005
1.099 9.254 -0.150
1.586 10.038 0.150
0.031 7.276 0.611
0.714 7.281 0.320
0.992 8.028 0.514
1.339 8.757 0.124
1.798 9.011 0.136
2.371 9.402 -0.255
0.409 6.083 0.226
0.432 6.644 0.217
1.348 7.128 0.113
1.477 7.745 -0.009
2.302 8.539 0.307
0.406 5.101 0.707
0.684 5.897 0.530
1.406 6.096 0.184
1.789 6.871 0.129
0.282 3.979 0.521
0.543 4.287 0.789
0.749 5.107 0.196
1.169 5.518 0.082
1.458 5.743 0.524
0.721 4.244 0.225
1.360 4.744 0.519
1.584 5.183 0.540
1.643 4.359 0.627
1.833 3.032 0.510
2.160 3.635 0.557
2.492 3.907 0.041
1.396 12.432 11.523
2.100 12.234 11.455
-0.173 8.984 11.637
0.431 9.628 11.756
2.146 11.423 11.512
2.439 11.632 11.063
2.632 12.193 11.473
0.326 8.194 11.653
0.265 8.668 11.617
0.877 9.001 11.546
1.250 9.671 11.799
1.959 10.066 11.561
1.863 10.568 11.198
2.287 10.618 11.066
2.648 11.626 11.045
3.570 11.607 11.049
3.432 12.580 11.235
0.158 7.136 11.846
0.864 7.829 11.459
0.765 7.915 11.704
1.614 8.805 11.846
1.787 9.217 11.575
2.245 9.630 11.495
2.473 9.799 11.275
3.070 10.199 11.337
3.330 10.688 11.073
3.853 11.637 11.215
4.020 11.823 11.279
4.354 12.148 11.124
0.358 6.483 11.826
0.637 6.602 11.828
1.059 7.314 11.494
1.418 7.721 11.537
1.949 8.272 11.648
2.070 8.620 11.327
2.702 8.879 11.646
2.824 9.700 11.473
3.351 9.955 11.195
4.146 10.670 11.033
4.454 10.918 11.207
4.790 11.236 10.984
5.140 12.120 10.740
5.278 12.397 10.713
-0.108 4.617 11.775
0.154 5.105 11.989
0.604 5.728 11.840
1.133 6.464 11.842
1.493 6.965 11.658
1.864 7.531 11.341
2.617 7.723 11.643
2.643 8.310 11.142
3.026 8.698 11.138
3.555 9.287 11.420
3.873 9.929 11.388
4.092 9.863 11.409
4.927 10.760 11.157
5.056 11.161 10.766
5.618 11.838 11.087
5.722 11.923 10.620
6.189 12.556 10.850
0.355 3.723 11.996
0.410 4.560 12.000
0.593 4.682 11.716
1.352 5.379 11.625
1.928 6.161 11.843
1.899 6.183 11.814
2.535 6.649 11.315
2.723 7.352 11.670
2.974 7.820 11.191
3.642 8.325 11.477
4.105 8.680 11.147
4.721 9.164 11.331
5.096 9.647 11.365
5.221 10.368 11.164
5.845 10.741 10.751
5.946 11.393 10.792
6.610 11.702 10.877
7.069 12.391 10.814
1.121 4.052 11.977
1.514 4.795 11.679
1.860 4.912 11.622
2.396 5.253 11.609
2.778 5.739 11.547
3.171 6.187 11.436
3.129 7.218 11.202
5.191 8.963 11.382
5.121 9.611 10.829
5.765 10.017 11.281
6.245 10.184 11.095
6.445 10.744 10.759
6.734 11.419 10.869
7.470 11.601 10.734
1.744 4.339 11.914
2.403 4.605 11.863
2.533 4.916 11.463
3.014 5.357 11.497
3.245 6.288 11.269
5.704 8.782 11.089
6.388 9.709 10.748
6.447 9.921 10.971
6.783 10.466 10.680
7.568 11.032 10.544
2.176 3.872 11.588
2.478 4.004 11.472
3.381 4.898 11.783
3.776 5.392 11.569
4.111 5.452 11.440
6.115 8.767 10.900
6.944 9.280 11.006
7.002 9.370 10.620
7.680 9.741 10.562
7.666 10.359 10.980
2.737 3.403 11.901
3.240 3.575 11.816
3.717 4.061 11.586
3.819 4.908 11.756
4.665 5.464 11.363
7.004 8.405 11.233
7.437 8.829 10.692
7.853 9.122 10.822
8.011 9.784 10.467
8.117 10.064 10.795
1.320 12.790 11.299
1.615 11.902 10.813
2.364 11.700 10.450
2.874 11.977 10.711
0.141 7.811 11.287
0.516 8.285 11.188
0.695 8.911 10.822
1.378 9.583 10.756
2.338 10.609 10.801
2.278 10.994 10.667
2.882 11.430 10.365
3.172 11.734 10.780
3.760 12.472 10.291
-0.031 7.233 11.116
0.399 7.812 10.982
0.783 8.096 11.065
1.153 8.529 10.685
1.674 9.159 10.909
2.295 9.411 11.046
2.651 10.122 10.508
2.747 10.510 10.711
3.211 11.010 10.783
3.550 11.425 10.473
4.182 12.114 10.294
4.224 12.358 10.630
0.035 6.278 11.233
0.617 6.511 11.316
1.052 7.275 11.111
1.329 7.564 10.960
1.565 8.120 10.883
2.366 8.354 10.934
2.410 8.791 10.706
3.101 9.611 10.808
3.683 10.116 10.708
3.847 10.425 10.503
4.282 11.179 10.763
4.846 11.585 10.618
4.724 11.855 10.431
5.615 12.611 9.984
0.591 5.384 11.079
0.910 5.861 11.073
1.003 6.543 11.152
1.358 6.959 10.875
1.700 7.360 10.702
2.083 7.849 10.924
2.698 8.454 10.564
3.340 8.872 10.822
3.470 8.993 10.748
4.028 9.535 10.775
4.059 9.982 10.644
4.445 10.581 10.558
5.340 11.340 10.097
5.394 11.831 10.139
6.025 12.326 10.065
6.024 12.724 9.889
-0.196 3.823 11.497
0.694 4.205 11.254
0.689 5.147 11.013
1.243 5.436 11.154
1.812 5.995 11.146
1.744 6.207 10.776
2.461 6.836 11.168
2.864 7.215 10.923
2.920 7.952 10.968
3.882 8.826 10.710
4.339 9.280 10.362
4.750 9.998 10.534
5.207 10.201 10.375
5.596 10.858 10.095
5.741 11.253 10.348
6.492 11.427 10.121
6.890 12.373 10.103
1.208 4.592 10.917
1.908 5.064 11.124
2.338 5.553 10.980
2.423 5.865 11.222
3.026 6.325 10.727
5.000 9.093 10.197
5.506 9.920 10.513
6.142 10.087 10.368
6.646 10.654 10.016
7.058 11.130 10.011
2.062 4.183 10.938
2.320 4.473 10.807
2.535 5.230 11.203
3.198 5.712 11.120
3.118 5.983 10.780
5.914 8.828 10.395
5.968 9.117 10.181
6.371 10.090 10.471
7.110 10.609 10.269
7.227 10.706 10.117
2.699 4.270 11.268
2.772 4.898 11.021
3.219 5.314 10.628
6.713 8.852 10.270
6.937 9.443 10.213
7.232 9.782 9.994
2.457 3.093 11.063
2.946 3.969 11.240
3.688 4.396 10.893
4.200 4.979 10.627
4.505 5.136 11.049
6.412 8.351 10.412
7.146 8.575 9.995
7.529 8.827 10.008
8.168 9.554 10.197
8.555 10.312 10.338
2.103 11.800 10.032
2.816 12.066 9.736
0.443 8.116 10.690
0.553 8.959 10.159
2.525 10.745 10.234
2.638 11.555 9.785
3.031 11.506 10.142
3.348 12.071 9.975
0.297 6.741 10.665
0.657 7.594 10.204
0.693 7.716 10.670
1.113 8.210 10.405
1.889 8.857 10.225
2.317 10.003 9.977
3.120 10.454 10.241
3.031 11.096 10.070
3.567 11.246 10.146
3.986 12.130 9.721
4.524 12.081 9.600
0.322 6.113 10.854
0.739 6.374 10.587
1.157 6.844 10.593
1.473 7.817 10.374
1.735 8.182 10.193
2.287 8.602 10.212
2.290 9.095 10.159
2.705 9.273 10.248
3.235 10.133 10.256
3.491 10.566 10.120
4.078 11.128 9.946
4.491 11.656 9.996
4.963 11.971 9.988
5.595 12.545 9.909
0.262 5.312 10.344
0.764 5.870 10.559
1.184 6.496 10.634
1.559 6.906 10.111
1.568 6.956 10.229
2.190 7.500 10.059
2.460 8.016 10.042
3.566 8.838 10.200
3.890 9.397 10.191
3.998 9.796 9.618
4.872 10.791 9.759
5.200 10.893 9.885
5.239 11.567 9.882
6.000 12.075 9.781
6.372 12.684 9.560
0.102 4.586 10.529
0.693 5.002 10.499
1.269 5.577 10.273
1.326 5.628 10.590
1.723 6.373 10.652
2.538 6.759 10.094
2.707 7.029 10.143
4.553 9.363 9.939
4.516 9.461 9.867
5.189 10.118 9.649
5.506 10.363 9.467
5.772 10.904 9.462
6.434 11.331 9.661
6.500 11.873 9.581
1.364 4.218 10.672
1.822 5.088 10.373
2.147 5.218 10.691
2.544 5.724 10.280
3.091 6.621 10.205
5.063 9.520 9.873
5.368 9.864 9.481
6.027 10.368 9.820
6.400 10.827 9.829
6.954 10.974 9.346
2.285 4.577 10.339
2.669 4.835 10.264
2.796 5.434 10.122
5.802 9.635 9.817
6.170 9.603 9.714
6.657 10.044 9.631
3.082 4.652 10.438
6.935 9.673 9.696
3.128 3.634 10.585
3.382 4.066 10.337
3.710 4.431 10.132
6.886 8.718 9.490
7.240 8.978 9.394
7.610 9.410 9.547
0.173 8.307 9.530
2.713 11.355 9.488
3.222 11.971 9.247
3.217 12.207 9.119
0.185 7.043 9.775
0.176 7.658 9.848
0.747 7.878 9.989
3.360 11.074 9.472
3.593 11.148 9.133
3.693 12.075 9.102
4.620 12.156 9.258
-0.171 6.063 10.086
0.496 6.748 9.595
0.899 7.092 9.566
1.027 7.584 9.726
1.537 8.046 9.442
3.502 10.075 9.411
3.763 10.255 9.594
4.295 10.989 9.245
4.730 11.290 9.237
4.902 11.861 9.264
5.059 12.151 8.853
0.134 5.308 9.894
0.758 5.639 10.067
0.924 5.972 9.728
1.502 6.681 9.672
1.531 7.319 9.570
3.915 10.205 9.178
4.582 10.492 9.380
5.224 11.263 9.085
5.314 11.235 8.847
5.507 11.804 9.144
0.647 4.683 10.077
0.850 5.196 10.132
1.344 5.767 9.767
1.816 6.490 9.792
2.188 6.533 9.562
4.350 9.724 9.497
5.224 10.378 9.219
5.433 10.543 9.059
5.874 11.090 8.991
6.023 11.287 8.801
2.221 5.292 9.805
6.134 10.161 8.976
3.054 11.662 8.490
3.473 12.252 8.326
0.461 7.601 9.426
0.876 8.149 8.925
3.197 10.626 8.837
3.583 11.401 8.713
4.096 12.018 8.625
4.278 12.520 8.522
-0.224 6.323 9.054
0.240 6.470 9.507
0.579 7.327 9.094
1.281 7.542 9.035
3.362 10.439 8.565
3.706 11.185 8.720
4.625 11.367 8.481
4.854 11.849 8.462
5.238 12.604 8.322
0.187 4.952 9.180
0.375 5.609 9.407
1.005 6.079 9.437
1.562 6.778 9.008
1.515 6.920 9.259
4.140 10.183 8.585
4.508 10.374 8.749
5.119 10.884 8.213
5.518 11.398 8.176
5.404 11.913 8.468
0.918 5.190 9.075
1.301 5.975 9.152
1.664 6.209 9.222
4.982 10.136 8.591
5.292 10.430 8.440
5.493 11.051 8.585
3.312 12.414 8.220
0.070 7.209 8.760
3.207 11.046 8.088
4.059 11.560 7.850
3.973 12.058 7.892
0.615 6.340 8.455
0.883 7.204 8.477
0.961 7.648 8.713
3.498 10.215 8.059
3.746 10.681 8.199
4.579 11.109 7.984
4.529 12.068 8.101
5.153 12.203 7.756
0.179 5.905 8.410
0.995 6.379 8.657
1.191 6.431 8.799
4.194 10.354 7.927
5.029 11.031 7.941
5.071 11.405 8.082
1.043 5.883 8.562
5.519 10.751 8.028
6.829 12.437 5.342
6.780 12.564 4.223
6.706 12.072 3.954
9.300 9.002 12.812
9.545 9.212 12.470
9.345 8.701 12.231
9.847 9.132 12.513
9.506 7.608 12.745
9.854 7.919 12.245
10.302 8.606 12.353
10.780 8.921 12.371
10.309 7.251 12.473
10.319 7.583 12.193
11.227 8.333 12.230
10.363 6.537 12.676
10.545 6.760 12.485
11.279 7.117 12.579
11.575 7.849 12.208
11.023 6.314 12.345
8.246 0.830 12.519
11.918 5.684 11.664
8.348 0.451 12.288
9.227 1.004 12.607
12.317 4.482 11.832
12.266 4.879 11.542
9.486 0.465 12.623
9.579 1.047 12.076
12.294 3.856 12.054
9.839 -0.210 12.338
10.191 0.256 12.321
10.439 0.748 12.325
12.257 2.636 12.077
11.033 0.367 12.014
10.952 0.561 11.858
11.314 1.151 11.951
12.349 2.267 11.978
11.560 -0.006 11.877
11.862 0.714 11.746
12.261 1.212 12.128
7.687 7.686 12.151
8.061 8.411 12.078
8.024 8.528 12.257
8.627 9.260 12.087
8.926 9.772 11.662
5.922 5.177 12.265
7.716 7.031 12.226
7.624 7.336 12.043
8.104 7.975 12.150
8.848 8.133 12.163
8.970 8.700 12.193
9.733 9.064 12.147
10.012 10.060 11.985
6.008 4.048 12.426
6.565 4.685 12.241
6.962 4.912 12.410
7.774 5.859 12.291
7.994 6.346 12.047
8.619 7.132 11.951
8.993 7.343 12.291
9.226 7.787 11.883
9.594 8.546 12.062
10.005 8.821 12.110
10.269 9.147 11.735
6.275 3.506 12.488
6.758 4.328 12.709
7.369 4.624 12.415
7.793 4.963 12.250
8.162 5.353 12.483
8.454 5.856 12.162
8.974 6.745 12.242
9.217 6.828 11.824
9.835 7.816 11.842
9.829 8.161 11.929
10.583 8.439 12.025
10.849 8.775 12.006
6.807 2.594 12.372
6.687 3.164 12.627
7.129 3.692 12.389
7.862 4.003 12.510
8.331 5.053 12.105
8.954 5.672 12.170
9.505 6.269 11.970
9.561 6.949 11.924
10.302 7.377 11.993
10.264 7.755 11.884
11.111 8.401 11.894
11.168 8.385 11.825
7.144 2.474 12.747
7.251 3.185 12.732
7.710 3.437 12.441
9.517 5.395 12.293
10.078 5.960 12.058
10.294 6.520 11.679
10.547 6.979 12.130
11.289 7.140 11.854
11.676 7.799 11.578
11.944 8.045 11.624
6.890 1.354 12.765
7.741 1.942 12.315
8.128 2.420 12.399
10.488 5.140 11.961
10.579 5.863 11.879
11.337 6.190 11.648
11.567 6.664 11.653
11.837 7.436 11.541
7.687 1.116 12.509
8.191 1.385 12.184
11.055 5.676 11.647
11.815 5.919 12.050
11.949 6.213 11.903
7.976 0.594 12.391
12.252 5.384 11.511
7.530 0.159 11.951
8.111 0.597 12.053
8.258 0.967 11.986
11.567 4.974 11.252
11.857 5.346 11.054
12.604 5.917 10.790
8.606 0.213 12.068
8.649 0.566 11.790
9.331 1.299 11.564
11.746 4.332 11.483
12.134 4.566 10.963
12.468 5.120 10.916
9.247 0.585 11.829
9.661 0.851 11.805
12.394 3.858 11.183
12.371 4.175 11.340
10.467 0.509 11.419
10.674 0.734 11.602
10.862 1.690 11.515
11.911 2.254 11.584
12.168 3.131 11.523
10.686 0.148 11.746
10.926 0.769 11.330
11.758 1.097 11.357
11.682 1.782 11.499
12.370 1.972 11.166
11.444 0.373 11.285
11.940 0.850 11.153
12.624 1.303 11.426
12.540 0.343 11.224
3.529 3.095 12.029
3.666 3.299 12.235
4.356 3.877 12.220
4.482 4.310 12.093
5.156 4.670 12.087
7.402 7.553 11.287
7.605 8.481 11.237
8.349 8.460 11.356
8.452 9.115 11.195
8.955 9.625 11.132
2.865 1.624 12.296
3.221 2.248 12.469
3.777 2.427 12.262
4.134 3.298 12.254
4.600 3.519 12.324
5.046 3.820 12.016
5.506 4.323 12.020
6.053 5.009 12.055
6.278 5.322 11.563
7.109 6.262 11.778
7.616 7.023 11.383
7.768 7.268 11.495
8.223 7.917 11.538
8.334 8.391 11.381
8.969 8.803 11.351
9.197 9.044 11.384
9.642 9.741 11.424
2.421 0.418 12.758
3.263 0.829 12.143
3.360 1.324 12.299
3.896 1.511 12.426
4.074 2.224 12.489
4.968 2.572 12.379
4.885 2.870 12.359
5.772 3.523 11.899
5.862 4.356 12.054
6.157 4.289 12.002
6.681 5.008 11.626
7.262 5.483 11.505
7.355 5.945 11.751
8.075 6.487 11.437
8.380 6.962 11.353
8.689 7.654 11.603
8.860 8.138 11.195
9.472 8.341 11.165
9.946 8.830 11.466
10.509 9.528 11.057
2.679 0.048 12.253
3.199 0.676 12.293
3.643 0.018 12.596
3.885 0.742 12.576
4.671 1.385 12.397
4.579 1.869 12.076
5.431 2.406 12.247
5.756 2.764 12.205
6.213 3.162 12.032
6.499 3.390 12.041
6.934 3.887 11.824
6.900 4.750 11.947
7.844 5.005 11.930
8.029 5.763 11.319
8.193 6.188 11.520
8.684 6.549 11.550
8.943 6.821 11.173
9.708 7.665 11.132
10.100 8.122 11.269
10.567 8.360 11.433
10.480 8.871 11.348
3.628 0.552 12.665
4.360 0.494 12.491
4.851 0.989 12.084
5.361 1.386 11.962
5.758 1.972 11.878
6.021 2.474 12.240
6.489 2.576 12.182
6.590 3.009 11.623
7.094 3.568 11.601
7.765 4.005 11.767
8.257 4.971 11.876
8.741 5.430 11.561
8.654 5.575 11.750
9.398 6.016 11.637
9.690 6.642 11.601
10.158 7.000 11.169
10.380 7.580 11.486
11.091 8.352 11.394
11.465 8.437 10.883
5.626 0.679 11.959
5.573 0.914 12.156
6.318 1.143 11.765
6.730 2.171 11.890
6.981 2.550 11.712
7.196 2.650 11.906
7.652 3.641 11.740
8.101 3.763 11.866
8.845 4.796 11.697
9.522 5.433 11.715
9.926 5.865 11.602
10.164 6.321 11.428
10.304 6.773 10.996
10.939 7.007 10.974
11.424 7.772 11.053
11.732 8.298 11.288
6.100 0.321 11.989
6.748 1.174 12.044
7.283 1.604 12.080
7.334 1.725 11.785
7.740 2.739 11.832
10.015 5.598 11.257
10.761 5.606 11.285
11.025 6.161 11.139
11.270 6.754 11.301
11.843 7.095 11.189
6.560 0.432 11.834
7.394 0.720 12.157
7.489 1.302 12.009
7.905 1.826 11.943
8.086 1.789 11.923
10.476 4.711 11.326
11.065 5.174 11.075
11.239 5.923 11.325
11.864 6.251 11.353
12.243 6.864 10.803
7.434 0.043 11.891
8.131 0.712 11.808
8.162 0.903 11.558
11.629 4.927 11.277
12.027 5.493 11.254
12.461 6.292 11.133
12.003 12.520 12.035
12.199 11.873 11.781
12.368 10.805 11.843
11.698 11.533 11.654
11.563 11.946 11.695
11.735 10.945 11.754
11.988 11.199 11.706
12.093 11.887 11.194
10.711 9.642 11.717
11.339 10.047 11.387
12.178 10.271 11.585
12.148 10.658 11.261
11.447 9.635 11.754
11.886 10.105 11.375
12.568 10.036 11.603
11.953 8.819 11.409
10.756 10.969 10.662
11.092 11.542 10.775
11.883 12.010 10.638
10.363 10.138 11.036
11.261 10.117 11.137
11.249 10.830 10.822
11.581 11.210 10.685
12.239 11.983 10.651
10.594 9.840 11.267
10.972 10.504 11.127
11.305 9.921 10.695
11.904 10.611 10.646
12.281 10.804 10.523
10.902 9.583 11.215
11.785 10.048 10.744
11.755 9.352 11.017
12.605 9.858 10.835
11.398 9.350 10.772
12.169 9.606 10.844
12.297 8.638 11.184
0.628 0.127 5.702
0.799 -0.033 11.997
1.205 0.226 11.814
1.878 0.057 11.882
1.971 -0.021 11.416
1.690 0.112 10.658
4.118 3.246 8.171
8.004 8.358 7.806
4.531 2.408 8.573
4.959 2.957 8.440
5.270 3.177 8.531
8.264 7.123 7.456
8.668 7.723 7.422
9.223 8.090 7.429
4.358 1.393 8.611
4.570 1.919 8.466
5.452 2.287 8.457
5.702 3.181 8.239
5.834 3.399 8.147
8.575 6.252 7.706
8.928 6.778 7.398
9.153 7.365 7.652
9.340 7.753 7.625
10.124 8.250 7.714
5.519 1.565 8.474
5.397 2.219 8.454
5.875 2.420 8.475
8.939 6.522 7.873
9.887 6.891 7.289
9.892 7.165 7.280
6.162 1.689 8.394
10.352 6.416 7.694
12.468 3.597 6.626
3.612 2.764 7.835
4.170 3.077 7.641
4.730 3.704 7.733
7.499 7.592 7.305
8.205 7.932 7.056
8.490 8.705 6.990
3.577 1.900 7.930
4.006 2.379 8.047
4.753 2.661 7.759
5.231 3.086 7.910
5.229 3.908 7.568
7.857 6.745 7.098
8.290 7.279 7.163
8.445 7.978 6.800
9.158 8.286 6.625
9.096 8.677 6.738
4.154 1.534 7.796
4.463 2.089 7.995
5.139 2.550 7.605
5.754 3.063 7.442
5.964 3.710 7.240
8.086 6.229 7.125
8.884 7.070 6.848
8.929 7.374 6.680
9.198 7.915 6.987
10.051 8.185 6.871
4.733 1.146 7.804
5.187 1.636 7.514
5.801 2.016 7.738
6.057 2.635 7.839
6.288 2.912 7.472
8.634 6.077 7.319
9.407 6.198 6.726
9.776 6.955 6.867
9.721 7.598 6.972
10.613 7.768 6.937
5.872 1.288 7.484
6.053 1.533 7.676
6.323 2.148 7.759
9.337 5.775 7.001
9.880 6.384 7.058
10.353 6.782 7.027
12.362 4.322 5.803
9.746 0.440 6.632
11.880 3.079 5.915
12.596 3.325 6.168
12.724 2.705 6.038
3.503 3.612 7.010
7.667 8.726 6.229
3.193 2.346 7.082
3.614 2.730 7.229
4.076 3.450 6.891
4.727 3.547 7.151
4.911 4.403 6.913
7.498 7.038 6.563
7.612 7.729 6.702
8.187 8.088 6.435
8.298 8.749 6.033
8.605 9.053 6.349
3.585 1.880 7.045
4.110 2.535 7.228
4.437 2.864 7.139
4.848 3.107 6.737
5.544 3.837 6.958
7.989 6.540 6.663
8.243 7.132 6.662
8.473 7.816 6.544
8.907 7.936 6.421
9.180 8.445 6.137
3.555 1.277 7.500
4.295 1.663 7.165
4.802 1.747 7.237
5.055 2.509 7.272
5.199 3.069 7.067
5.983 3.402 6.847
6.105 3.607 6.605
7.602 5.692 6.416
8.191 6.157 6.609
8.400 6.583 6.404
8.792 7.440 6.113
9.224 7.738 6.411
9.509 8.302 6.293
10.243 8.690 5.866
4.749 0.905 7.241
5.367 1.653 7.312
5.233 1.758 6.853
6.184 2.810 7.043
6.452 3.247 6.615
8.720 5.798 6.431
8.981 6.418 6.628
9.197 7.129 6.170
9.639 7.132 6.086
10.477 7.719 6.310
5.415 0.602 6.923
5.403 0.954 7.201
6.059 1.397 6.727
6.105 2.331 6.690
6.616 2.588 6.910
9.383 5.763 6.163
9.675 5.709 6.432
9.835 6.465 6.270
10.355 6.662 6.423
10.726 7.141 5.978
6.584 1.070 7.054
10.372 6.281 6.163
7.169 0.235 6.489
11.118 5.336 5.535
8.265 0.194 6.047
11.410 4.362 5.506
11.701 4.784 5.393
12.361 5.502 5.692
8.587 -0.066 6.345
9.177 0.678 5.955
11.210 3.532 5.489
11.725 4.156 5.468
12.384 4.214 5.527
9.604 0.042 5.969
9.891 0.545 6.085
11.699 2.591 5.559
11.743 2.932 5.283
12.410 3.774 5.334
10.583 0.511 6.146
10.652 0.597 6.069
11.560 1.979 5.617
12.175 2.353 5.899
12.371 2.567 5.775
11.138 0.215 6.044
11.620 1.023 5.873
12.323 1.536 5.674
12.724 1.746 5.831
2.764 2.708 6.913
2.846 3.240 6.466
3.337 3.607 6.269
3.889 4.253 6.415
4.496 4.478 6.155
6.551 7.511 6.210
7.257 7.789 5.910
7.242 8.680 5.936
7.855 8.996 5.443
7.994 9.227 5.949
3.083 2.012 6.452
3.216 2.104 6.488
3.800 2.451 6.495
3.930 3.139 6.752
4.674 3.698 6.703
4.560 4.337 6.254
5.137 4.593 6.046
6.840 6.643 5.747
7.370 7.166 5.992
7.831 7.786 5.935
8.199 7.961 5.661
8.260 8.729 5.987
8.804 9.009 5.905
8.874 9.244 5.349
2.862 0.830 7.030
3.209 1.622 6.683
3.673 1.732 6.796
4.338 2.069 6.277
4.304 2.810 6.364
4.848 3.000 6.232
5.184 3.866 6.518
5.688 4.103 6.483
6.264 4.581 6.249
6.816 5.494 5.992
7.497 5.914 5.745
7.880 6.940 6.069
8.286 7.088 5.563
8.542 7.908 5.458
8.916 7.981 5.423
9.497 8.810 5.530
9.786 8.791 5.685
3.363 0.205 6.481
4.001 0.704 6.716
4.166 1.617 6.693
4.517 1.721 6.634
5.031 2.637 6.213
5.580 3.156 6.090
5.723 3.420 6.345
6.314 4.094 6.234
6.596 4.216 6.363
7.038 4.813 6.327
7.255 5.236 6.094
7.938 5.951 6.133
7.837 6.185 5.679
8.326 6.680 5.784
9.140 6.993 5.575
9.204 7.943 5.897
9.659 7.909 5.398
10.125 8.918 5.679
3.612 0.049 6.467
4.527 0.310 6.862
4.863 1.173 6.290
4.758 1.329 6.494
5.423 2.057 6.425
5.721 2.220 6.220
6.156 2.789 6.469
6.688 3.458 6.391
7.092 3.950 5.897
8.062 5.059 5.985
8.347 5.594 6.061
8.363 5.663 5.850
8.966 6.160 5.792
9.582 6.634 5.724
9.629 7.388 5.765
10.126 8.062 5.793
10.439 8.489 5.519
5.009 0.334 6.375
5.024 0.785 6.605
5.442 1.372 6.277
5.726 1.829 6.349
6.389 2.035 6.403
6.987 2.755 6.089
6.890 3.049 6.203
8.419 4.786 6.132
9.031 5.664 5.822
9.412 6.196 5.960
9.988 6.317 5.359
10.221 6.774 5.833
10.436 7.140 5.533
10.822 7.926 5.573
5.590 0.384 6.681
5.871 0.485 6.502
6.569 0.936 6.384
6.837 1.435 6.252
7.012 2.409 6.296
9.472 5.231 5.540
10.193 5.288 5.516
10.090 6.052 5.776
10.850 6.366 5.430
11.402 6.724 5.518
6.637 0.371 6.075
6.728 0.679 6.027
7.258 1.389 5.930
10.271 5.396 5.593
10.675 5.441 5.284
11.105 6.162 5.257
7.126 0.371 6.418
11.200 5.299 5.373
7.369 0.359 5.860
7.506 0.646 5.309
10.813 4.429 4.747
11.100 5.398 5.095
11.651 5.528 4.989
8.061 0.297 5.264
8.421 1.046 5.534
10.848 3.549 4.940
11.475 4.223 4.891
11.477 4.816 4.995
12.031 5.417 5.003
12.656 5.663 4.704
8.656 0.078 5.356
8.836 0.407 5.646
11.284 3.334 4.824
12.066 3.731 4.924
12.273 4.488 4.709
9.476 0.050 5.272
10.047 0.610 5.491
10.096 1.181 5.197
11.229 1.933 5.298
11.422 2.434 5.151
11.975 3.135 5.197
12.222 3.236 4.955
10.474 0.283 5.244
11.061 0.695 5.451
11.452 1.178 4.926
11.778 1.524 4.870
12.034 1.925 5.116
12.230 2.720 5.016
11.285 0.105 5.352
11.609 0.826 5.059
12.123 1.198 4.858
12.274 1.912 5.095
11.968 0.410 4.988
12.371 1.087 4.886
2.909 2.610 6.042
3.166 3.101 5.700
3.299 3.510 6.029
3.872 3.842 6.043
4.014 4.451 5.794
6.419 7.716 5.459
7.005 7.801 5.043
7.455 8.153 5.379
7.933 8.743 5.049
8.422 9.105 5.171
2.223 0.992 6.365
2.499 1.706 5.863
3.139 2.008 6.057
3.375 2.428 5.947
4.021 3.170 5.650
4.399 3.637 5.616
4.918 3.865 5.640
5.068 4.401 5.909
5.773 5.341 5.321
6.301 6.099 5.674
6.497 6.327 5.475
7.126 7.057 5.461
7.435 7.321 4.948
7.828 7.866 4.976
7.993 8.704 5.014
8.489 8.889 4.894
9.286 9.519 4.792
1.630 0.113 6.178
2.666 0.644 6.052
2.822 0.688 6.013
3.080 1.543 6.149
3.674 1.951 6.268
3.727 2.177 6.124
4.213 2.795 5.663
4.643 3.384 5.702
5.084 3.601 5.633
5.476 4.205 5.904
5.946 4.932 5.752
6.318 5.156 5.536
6.773 5.816 5.648
7.130 5.924 5.218
7.479 6.732 5.036
8.180 7.247 5.442
8.152 7.580 4.921
8.686 7.866 4.819
9.070 8.389 5.009
9.461 9.180 4.788
2.507 0.603 6.141
3.318 0.519 6.355
3.707 0.950 5.868
3.973 1.118 6.118
4.595 1.841 6.089
4.611 2.245 5.562
5.158 2.574 5.944
5.448 3.236 5.536
5.830 3.931 5.623
6.379 4.233 5.739
7.037 4.932 5.497
7.101 5.311 5.517
7.562 5.826 5.192
7.871 6.283 5.049
8.332 6.614 4.875
9.056 7.050 4.958
9.465 7.518 5.260
9.920 8.018 5.033
10.016 8.806 4.940
3.524 -0.115 5.935
3.902 0.296 6.040
4.343 1.215 5.795
4.764 1.674 6.125
5.439 1.834 5.496
5.923 2.575 5.490
5.969 2.751 5.444
6.715 3.431 5.581
7.218 3.811 5.535
7.226 4.510 5.614
7.774 4.782 5.147
8.308 5.236 5.111
8.314 5.961 5.120
8.771 6.335 5.328
9.562 6.512 4.809
9.776 7.529 4.683
9.835 7.777 5.110
10.512 8.043 4.568
4.720 0.225 5.948
5.091 0.492 6.072
5.440 1.066 5.831
5.657 1.720 5.575
6.358 1.937 5.721
6.706 2.396 5.301
7.152 3.011 5.557
7.318 3.329 5.279
8.459 4.384 5.308
8.397 4.947 5.068
9.039 5.218 5.200
9.549 5.757 5.155
10.003 6.158 4.749
10.050 6.951 5.199
10.664 7.270 4.875
10.935 7.726 4.980
5.331 0.087 5.755
5.913 0.612 5.676
6.063 0.891 5.797
6.959 1.842 5.754
7.306 2.162 5.538
9.444 4.789 5.212
10.167 5.384 4.801
10.293 5.945 5.137
10.719 6.726 4.871
10.996 6.801 4.782
6.564 0.567 5.620
6.723 0.930 5.622
6.985 1.048 5.562
7.892 1.834 5.621
10.025 4.913 4.932
10.658 5.343 4.740
10.730 5.613 4.698
11.016 6.133 4.910
11.702 6.575 5.050
7.449 0.158 5.581
7.585 1.137 5.402
11.017 4.695 4.741
11.016 5.421 5.062
11.375 5.850 4.742
6.978 0.474 5.148
7.901 0.739 4.893
8.299 1.514 5.067
10.318 3.981 4.593
10.565 4.650 4.520
10.966 5.277 4.363
11.429 5.824 3.964
12.103 6.371 4.072
8.158 0.436 5.173
8.480 1.070 4.981
10.852 3.659 4.564
11.174 4.455 4.036
11.773 4.935 4.052
12.261 5.474 4.372
12.454 5.437 4.010
8.679 0.077 4.677
8.786 0.784 5.060
9.220 0.821 4.532
11.080 3.042 4.372
11.234 3.659 4.644
11.656 4.033 4.420
12.040 4.522 3.995
12.377 4.723 4.036
9.551 0.115 4.481
9.679 0.317 4.683
10.483 1.270 4.487
10.693 1.589 4.781
10.852 1.936 4.347
11.494 2.670 4.390
12.013 2.886 4.337
12.055 3.449 4.038
10.497 0.294 4.506
10.695 0.497 4.766
11.173 1.208 4.625
11.631 1.660 4.550
12.137 2.100 4.602
12.141 2.498 4.403
11.402 0.243 4.348
11.887 0.854 4.720
11.802 0.997 4.529
12.166 1.720 4.562
11.841 0.115 4.560
12.724 0.829 4.272
2.359 2.282 5.273
2.371 2.369 5.665
3.170 2.789 5.355
3.298 3.542 5.096
3.546 3.925 5.434
4.011 4.406 5.352
4.280 5.269 5.020
6.365 6.693 4.724
6.531 7.448 4.814
7.139 7.745 4.870
7.309 8.467 4.835
7.903 8.681 4.424
7.864 9.072 4.353
8.459 9.523 4.230
1.801 0.601 5.872
2.033 0.959 5.360
2.511 1.977 5.629
2.852 2.415 5.328
3.185 2.395 5.390
4.010 3.353 5.523
4.063 3.850 4.924
4.447 4.196 4.966
4.993 4.409 5.000
5.400 5.303 5.092
6.046 5.635 4.745
6.483 5.996 5.100
6.830 6.777 4.568
7.045 6.869 4.798
7.590 7.446 4.338
7.616 8.035 4.581
7.943 8.174 4.574
8.514 8.903 4.617
9.172 9.637 4.383
1.536 0.365 5.659
1.974 0.722 5.678
2.370 0.360 5.301
3.011 0.954 5.433
3.267 1.454 5.462
3.652 1.960 5.577
3.783 2.176 5.446
4.456 2.556 5.145
4.652 2.973 5.376
4.851 3.564 5.292
5.714 4.340 4.875
5.728 4.952 4.836
6.473 5.179 5.127
6.704 5.607 4.957
7.156 5.963 4.695
7.566 6.801 4.486
8.039 7.257 4.436
8.414 7.614 4.536
8.865 8.150 4.351
9.063 8.422 4.102
9.713 9.170 4.307
2.167 0.072 5.726
3.008 0.233 5.205
3.684 0.697 5.175
3.909 1.616 5.500
4.490 1.624 5.099
4.797 2.301 5.420
4.959 2.676 5.171
5.746 3.117 5.322
5.727 3.657 5.120
6.302 4.170 4.942
6.825 4.705 4.797
7.016 5.140 4.756
7.756 5.640 4.949
7.734 6.173 4.859
8.663 6.850 4.771
8.978 7.040 4.168
9.324 7.802 4.147
9.592 8.035 4.477
10.027 8.365 4.301
3.751 -0.077 5.493
4.180 0.557 5.274
4.438 1.105 5.062
4.932 1.600 5.050
5.320 2.209 5.087
5.718 2.317 5.046
6.186 2.821 5.170
6.607 3.409 5.176
7.017 3.738 4.813
7.238 4.588 4.523
7.895 4.552 4.843
7.952 5.121 4.469
8.190 6.049 4.561
9.122 6.154 4.518
9.178 6.917 4.549
9.709 7.256 4.437
10.130 7.971 4.382
10.376 8.097 4.198
4.676 0.211 5.549
5.050 0.812 5.192
5.513 1.297 5.382
5.491 1.390 5.127
6.057 1.836 5.222
6.398 2.300 4.686
7.143 3.171 4.798
7.191 3.743 5.022
7.959 4.238 4.677
8.405 4.353 4.838
8.460 4.828 4.782
8.901 5.596 4.570
9.484 5.917 4.389
9.811 6.421 4.153
9.928 6.656 4.567
10.546 7.103 4.419
10.869 7.975 3.981
5.385 0.107 4.988
5.591 0.919 5.213
6.414 0.873 5.309
6.537 1.557 5.103
6.965 1.942 4.909
7.618 2.640 5.031
8.830 4.542 4.721
9.394 5.158 4.306
9.786 5.307 4.172
10.035 5.953 4.100
10.644 6.666 4.131
11.145 6.738 4.404
11.679 7.129 4.116
6.088 0.144 4.835
6.914 0.987 5.076
7.180 0.994 5.206
7.565 1.731 4.663
9.956 4.356 4.710
10.266 4.876 4.119
10.790 5.827 4.072
10.954 5.792 4.359
11.272 6.551 4.073
7.189 0.346 5.093
7.855 0.759 4.784
7.912 1.532 4.729
10.140 3.958 4.665
10.668 4.604 4.500
11.372 4.950 4.071
11.713 5.676 4.422
11.966 6.203 4.028
6.933 0.559 4.395
7.384 0.812 4.172
10.454 4.475 3.615
10.871 5.220 3.436
11.570 5.574 3.565
8.197 0.127 4.561
8.289 0.632 3.991
10.660 3.893 3.870
11.157 4.404 3.738
11.779 4.553 3.392
11.715 5.298 3.661
12.544 5.868 3.681
8.910 0.576 4.400
11.275 3.214 3.733
11.611 3.665 3.733
11.980 4.519 3.304
12.226 4.513 3.447
9.593 -0.210 4.149
9.640 0.753 4.232
10.292 0.836 3.939
11.061 2.202 3.872
11.099 2.745 3.650
11.494 3.231 3.478
12.308 3.515 3.387
12.431 3.796 3.638
10.288 -0.069 4.246
10.919 0.783 3.795
11.091 1.366 3.948
11.184 1.828 3.592
11.626 1.967 3.630
12.036 2.702 3.514
11.291 -0.028 3.854
11.629 0.642 3.662
12.039 1.213 3.999
12.230 1.661 3.421
11.741 0.349 3.912
12.362 0.935 3.539
2.708 2.561 4.541
2.693 2.739 4.770
3.333 3.349 4.616
3.769 3.772 4.740
4.112 4.638 4.731
6.477 7.169 3.869
7.045 8.138 4.220
7.317 8.615 3.698
7.654 8.897 4.149
7.851 9.036 3.948
2.096 1.178 5.075
2.546 1.930 4.930
2.886 2.156 4.550
3.489 2.377 4.750
3.697 2.873 4.848
3.940 3.335 4.805
4.852 3.989 4.768
4.897 4.348 4.497
5.385 5.087 4.504
5.925 6.196 3.960
6.770 6.692 4.394
6.718 6.683 4.287
7.593 7.435 4.069
7.742 7.751 3.807
8.360 8.512 3.900
8.261 8.870 3.935
9.108 9.174 3.400
1.422 0.482 4.883
2.327 0.125 5.055
2.451 0.581 5.081
2.902 1.158 4.714
3.660 2.010 4.635
4.061 2.116 4.893
4.522 2.661 4.709
4.366 3.391 4.480
5.111 3.635 4.544
5.617 3.873 4.451
5.675 4.780 4.109
6.033 5.382 3.990
6.541 5.346 3.932
6.911 6.286 3.874
7.505 6.588 4.095
7.785 7.157 3.797
7.992 7.383 3.664
8.529 8.052 3.695
8.794 8.703 3.510
9.208 8.870 3.879
2.496 0.126 5.184
2.882 0.626 4.647
3.517 0.908 4.973
4.100 1.499 4.758
4.316 2.096 4.748
4.608 2.125 4.500
5.310 2.705 4.386
5.459 3.425 4.412
5.695 3.965 4.428
6.131 4.329 4.368
6.881 4.767 4.049
7.179 5.374 4.374
7.654 5.910 4.085
7.701 6.184 4.188
8.124 6.768 4.171
8.826 7.017 3.849
9.349 7.406 3.907
9.381 8.030 3.600
10.080 8.292 3.567
3.964 0.199 4.882
4.346 0.897 4.858
4.597 1.482 4.379
5.214 1.889 4.452
5.818 2.540 4.434
6.141 2.952 4.579
6.572 3.382 4.261
6.611 3.725 4.048
7.285 4.250 4.414
7.379 4.587 4.197
8.080 5.265 4.158
8.225 5.499 4.218
8.730 6.369 3.662
9.104 6.606 3.920
9.517 7.292 3.619
10.091 7.799 3.475
10.558 8.276 3.782
4.622 0.022 4.995
4.915 0.695 4.485
5.581 0.822 4.351
5.777 1.341 4.732
5.827 2.203 4.237
6.689 2.449 4.266
7.134 3.025 4.408
7.421 3.661 4.111
8.144 4.251 4.127
8.543 4.681 4.185
8.707 5.120 3.805
8.986 5.650 3.695
9.806 6.556 3.538
9.886 6.711 3.936
10.462 7.326 3.602
11.063 8.042 3.381
5.626 0.268 4.848
6.012 0.606 4.250
6.160 1.000 4.685
6.808 1.866 4.200
7.165 2.066 4.039
9.580 5.002 3.984
9.955 5.242 3.753
10.431 6.065 3.599
10.365 6.535 3.883
10.985 7.081 3.339
6.012 0.434 4.219
6.815 0.523 4.620
7.267 1.057 4.412
7.303 1.716 4.291
10.105 4.374 3.980
10.214 4.763 3.593
10.664 5.299 3.737
10.870 5.862 3.700
11.437 6.379 3.758
6.908 0.365 4.402
7.708 0.890 4.342
10.916 4.770 3.810
10.862 5.098 3.639
11.608 5.636 3.380
6.931 0.047 3.792
11.031 5.323 2.756
8.208 0.265 3.767
11.345 4.456 2.899
11.551 4.923 3.278
11.704 5.065 2.734
8.606 0.172 3.567
11.048 3.384 3.394
11.685 3.522 2.889
11.913 4.381 2.946
12.361 4.605 3.077
9.168 0.162 3.252
9.719 0.740 3.404
11.324 2.688 3.420
11.641 2.715 2.971
12.153 3.666 3.034
12.715 4.136 2.800
10.007 0.056 3.574
10.515 0.869 3.059
11.615 1.516 3.445
11.615 1.957 3.376
12.229 2.662 3.071
10.802 0.273 3.411
11.199 0.436 3.008
11.651 1.373 2.981
12.341 1.510 2.976
12.349 0.723 3.379
2.560 2.728 4.191
2.776 3.032 4.196
3.092 3.367 4.114
3.472 3.846 3.879
3.835 4.274 4.102
6.479 7.250 3.532
6.628 7.999 3.365
6.954 8.366 3.333
7.490 8.751 3.237
8.083 9.425 3.229
2.709 1.559 4.447
2.905 2.042 3.920
3.270 2.842 4.315
3.432 3.197 3.780
3.840 3.421 3.903
4.365 4.028 3.833
4.916 4.273 3.962
6.319 6.286 3.282
6.849 7.078 3.397
7.434 7.428 3.233
7.538 7.902 3.092
8.098 8.211 3.419
8.206 8.702 3.127
8.819 9.399 2.788
2.341 0.494 4.220
3.282 1.191 3.925
3.621 1.675 4.230
3.767 1.955 3.780
3.938 2.818 3.722
4.710 3.072 3.686
5.004 3.828 3.830
5.318 3.848 3.650
5.620 4.737 3.825
6.456 5.619 3.415
6.962 6.292 3.482
7.257 6.293 3.396
7.498 6.980 3.182
7.888 7.372 3.384
8.260 7.936 3.117
8.993 8.517 3.380
9.137 9.217 3.022
3.310 0.181 4.237
3.404 0.990 3.957
3.649 1.190 4.219
4.506 1.964 3.879
4.625 2.208 4.111
5.118 2.545 3.841
5.641 2.988 3.779
5.803 3.937 3.565
6.273 4.147 3.694
6.534 4.831 3.523
7.299 4.935 3.402
7.447 5.726 3.547
7.941 6.107 3.253
8.019 6.548 3.262
8.845 7.233 3.297
8.795 7.304 2.971
9.612 8.261 3.057
9.689 8.411 3.044
4.023 0.258 4.094
4.515 0.683 4.264
4.479 1.307 3.978
4.865 1.699 3.668
5.726 2.515 3.826
5.931 2.927 3.963
6.217 3.184 3.523
6.676 4.078 3.509
7.338 4.701 3.637
7.773 5.406 3.386
8.449 6.001 3.358
8.728 6.170 3.371
9.245 6.819 2.930
9.476 7.304 3.022
9.952 7.734 3.048
10.408 8.332 3.202
4.684 -0.083 4.333
4.640 0.716 4.130
5.165 0.710 3.987
5.891 1.694 4.155
6.209 1.660 3.727
6.418 2.154 3.865
7.101 2.916 3.597
8.174 5.003 3.603
8.558 5.085 3.090
9.011 5.562 3.327
9.698 6.575 3.113
10.121 6.712 3.249
10.369 7.534 3.078
11.063 7.492 3.086
5.090 0.052 3.994
5.526 0.370 3.900
6.205 0.963 3.994
6.221 1.473 3.938
6.922 2.238 3.731
9.103 4.739 3.183
9.562 5.588 2.890
10.097 5.775 3.304
10.649 6.621 3.214
10.944 6.942 2.765
6.011 0.234 3.691
6.773 0.950 3.903
6.929 1.019 3.749
10.117 5.154 3.202
10.678 5.526 3.207
11.063 6.144 3.149
6.915 0.518 3.612
11.056 5.045 2.752
11.683 4.103 2.337
11.748 3.016 2.351
12.098 3.337 2.455
12.162 3.776 2.051
11.813 2.750 2.711
12.451 3.165 2.247
11.964 1.326 2.559
3.173 3.350 3.326
7.263 8.248 2.431
2.906 1.792 3.626
3.313 2.458 3.546
3.821 3.038 3.558
3.797 3.243 3.523
4.271 3.809 3.202
6.829 6.975 2.663
7.159 7.251 2.540
7.816 7.812 2.378
7.723 8.556 2.552
8.300 8.831 2.663
3.352 1.783 3.226
3.650 2.430 3.397
4.326 2.486 3.218
4.765 3.295 3.558
4.624 3.621 3.211
7.513 6.324 2.642
7.824 6.887 2.671
8.353 7.190 2.905
8.629 8.157 2.753
8.632 8.652 2.203
3.178 0.642 3.272
3.866 1.451 3.225
4.454 1.722 3.243
4.760 2.318 3.332
4.854 2.589 3.418
5.401 2.947 3.246
6.020 3.553 3.289
7.469 5.688 2.886
7.875 6.306 2.997
8.008 6.296 2.551
8.503 6.908 2.360
8.843 7.676 2.594
9.338 8.156 2.579
9.694 8.500 2.639
4.047 1.002 3.433
4.815 1.397 3.091
5.158 1.911 3.426
5.558 2.155 3.111
5.968 2.760 3.063
8.339 5.796 2.623
8.630 6.081 2.542
8.859 6.538 2.347
9.598 6.860 2.675
9.887 7.771 2.400
5.014 0.542 3.429
5.386 1.061 3.414
5.785 1.176 3.029
5.925 1.723 3.430
6.532 2.109 3.219
8.495 5.403 2.951
9.140 5.808 2.829
9.674 6.337 2.360
9.943 6.998 2.618
10.359 7.281 2.091
6.107 1.075 2.931
10.015 5.731 2.425
12.108 3.341 1.904
12.590 3.907 1.500
12.068 2.520 1.838
12.343 3.076 1.489
12.800 2.055 1.924
2.944 2.327 2.654
3.660 2.971 2.775
3.983 3.415 2.435
6.870 7.112 2.054
7.774 8.056 2.314
7.654 8.423 2.182
3.310 1.475 2.836
3.804 2.295 2.962
3.755 2.441 2.468
4.386 3.078 2.619
4.675 3.313 2.564
7.338 6.701 2.408
7.594 7.127 1.924
8.106 7.686 2.019
8.241 7.974 1.783
8.649 8.432 1.846
3.472 1.082 2.705
4.024 1.918 2.914
4.367 2.451 2.600
4.964 2.714 2.894
5.415 2.888 2.592
7.759 6.322 1.835
8.107 6.404 2.057
8.550 7.025 1.815
8.815 7.358 1.828
9.203 8.030 1.927
4.278 1.016 2.989
4.803 1.319 2.916
5.154 1.767 2.754
5.119 2.545 2.306
5.938 2.685 2.400
8.107 5.766 1.983
8.396 5.916 1.835
8.882 6.701 2.173
9.418 7.284 2.095
9.816 7.497 1.521
5.349 1.203 2.741
5.482 1.223 2.816
6.092 1.819 2.723
8.791 5.965 1.720
9.320 6.179 2.104
9.651 6.926 1.986
12.481 3.838 0.952
12.388 2.688 1.361
12.284 1.917 1.005
3.425 2.743 2.207
7.458 7.751 1.424
3.596 1.978 2.322
3.762 2.852 1.947
4.356 2.801 2.125
7.435 6.701 1.462
8.086 7.535 1.335
8.539 7.735 1.418
3.718 1.417 2.004
3.798 1.844 2.387
4.364 2.143 1.831
5.040 2.784 1.858
5.279 3.318 1.897
7.734 5.962 1.588
7.942 6.258 1.159
8.288 6.949 1.106
8.603 7.408 1.557
8.980 8.102 1.274
4.702 1.384 1.854
4.720 1.741 1.845
5.459 2.108 1.723
8.571 6.061 1.508
8.780 6.469 1.092
9.215 6.884 0.961
5.619 1.433 2.069
9.578 6.462 1.078
11.799 3.283 0.738
12.462 3.888 0.205
11.870 2.361 0.726
12.311 3.052 0.620
12.116 1.803 0.608
3.155 2.314 1.505
3.583 3.072 1.472
4.037 3.465 1.507
6.781 6.989 0.775
7.139 7.592 0.737
8.037 8.097 0.544
3.022 1.550 1.626
3.738 2.023 1.586
3.708 2.740 1.283
4.479 3.242 1.372
4.685 3.431 1.392
7.204 6.136 0.776
7.620 6.841 0.543
8.135 7.165 0.509
8.247 7.613 0.642
8.538 8.206 0.620
3.503 0.951 1.687
4.232 1.423 1.333
4.356 2.313 1.339
4.992 2.544 1.559
5.117 3.195 1.076
7.690 5.904 1.029
7.847 6.622 0.884
8.326 7.175 0.676
8.815 7.420 0.608
9.315 8.185 0.730
4.123 0.772 1.802
4.561 1.074 1.560
4.834 1.887 1.209
5.209 1.993 1.324
5.925 2.413 1.182
7.774 5.635 0.758
8.469 5.931 0.470
8.860 6.324 0.540
9.110 6.830 0.558
9.861 7.413 0.454
4.771 0.830 1.314
5.498 1.343 1.087
5.778 1.996 1.073
8.656 5.431 0.686
9.482 6.246 0.854
9.830 6.867 0.799
2.630 3.296 0.822
6.532 8.228 -0.020
2.494 1.699 1.207
2.820 2.255 0.980
3.518 2.715 0.775
3.456 3.225 1.041
4.157 3.823 0.517
6.559 6.929 0.075
6.765 7.110 0.414
7.392 7.665 -0.113
7.714 8.227 0.138
8.288 8.641 0.072
3.306 1.563 1.031
3.554 1.908 1.005
4.075 2.486 0.654
3.985 3.224 1.025
4.844 3.423 0.825
6.904 6.211 0.549
7.340 6.930 0.309
7.653 7.435 0.190
8.155 7.755 0.273
3.145 0.588 1.148
3.798 1.155 1.090
3.825 1.330 1.025
4.384 2.358 0.999
4.623 2.860 0.731
4.814 3.083 0.592
5.703 3.513 0.803
6.814 5.263 0.298
7.734 5.727 0.502
7.677 6.184 0.245
8.072 6.669 0.005
8.828 7.429 0.112
3.799 0.607 0.871
4.165 1.428 1.080
4.952 1.599 0.643
4.979 2.359 0.455
5.360 2.530 0.594
8.004 5.747 0.446
8.496 5.896 -0.014
9.015 6.522 0.021
4.716 0.593 1.012
5.036 0.928 0.985
4.975 1.366 0.972
5.434 1.547 0.639
5.794 2.552 0.724
8.538 4.934 0.131
8.791 5.456 0.357
9.292 5.913 -0.133
5.900 0.952 0.707
6.875 0.198 -0.092
1.837 2.394 0.186
2.482 2.807 0.555
2.933 3.253 0.105
3.273 3.927 0.199
3.717 3.949 0.022
2.135 1.146 0.643
2.583 2.167 0.620
2.856 2.311 0.413
3.048 2.648 0.382
3.735 3.519 0.050
3.770 4.123 0.299
4.389 4.200 -0.036
2.164 0.485 0.516
2.845 0.963 0.265
2.939 1.745 0.186
3.515 1.723 0.437
4.007 2.592 0.489
4.120 2.786 0.177
4.789 3.383 0.201
4.845 3.636 0.188
2.719 0.353 0.770
3.099 0.698 0.644
3.224 1.365 0.136
3.854 1.551 0.208
4.218 1.935 0.235
4.626 2.837 -0.125
4.867 2.985 0.074
3.264 0.484 0.146
3.668 0.726 0.522
4.421 1.123 0.096
4.950 1.896 0.034
5.379 2.395 0.193
5.509 2.480 -0.272
4.639 0.417 0.082
4.931 0.983 0.143
5.396 1.282 0.111
5.464 1.673 -0.154
5.154 0.509 0.315
5.942 1.110 0.126
5.946 1.232 -0.180
5.911 0.740 0.016
6.619 -0.068 0.097
7.442 0.210 11.377
7.793 0.409 11.409
8.154 1.220 11.284
8.496 1.515 11.160
11.247 4.469 10.402
11.351 5.045 10.388
12.190 5.506 10.542
12.321 5.937 10.268
8.209 0.051 10.951
8.835 0.477 11.025
9.350 1.333 10.884
11.796 3.963 10.865
12.038 4.326 10.458
12.548 5.379 10.385
9.308 0.153 11.369
9.936 0.710 10.863
10.260 1.181 11.165
11.673 3.469 10.525
11.788 3.783 10.396
12.292 4.492 10.735
10.103 0.313 11.152
10.354 1.004 10.777
11.051 1.242 10.971
11.270 1.902 10.749
11.883 2.364 10.488
12.300 2.799 10.895
12.327 3.103 10.440
10.675 -0.118 10.859
11.101 0.374 10.665
11.591 0.730 10.935
11.849 1.399 10.690
12.383 1.964 10.807
11.637 -0.042 10.786
12.087 0.760 10.932
12.338 1.271 10.901
12.414 0.444 10.794
2.735 2.273 11.875
3.491 2.894 11.885
3.937 3.545 11.520
4.087 3.918 11.707
4.517 4.616 11.281
5.159 5.130 11.466
5.285 5.525 11.474
7.028 7.248 11.192
6.974 7.500 10.988
7.859 8.122 10.772
7.954 8.926 10.998
8.712 9.073 10.444
8.602 9.764 10.887
9.520 10.201 10.509
2.621 1.032 11.865
2.742 1.832 12.053
3.223 1.982 11.733
3.909 2.789 11.698
4.008 2.938 11.706
4.713 3.363 11.747
5.232 3.971 11.212
5.358 4.549 11.265
5.518 4.786 11.055
6.388 5.697 11.096
6.385 5.748 10.901
6.845 6.609 11.034
7.623 6.577 10.776
7.774 7.120 10.699
8.367 7.627 10.611
8.461 8.274 10.992
8.781 8.624 10.798
9.498 9.058 10.494
9.966 9.602 10.465
2.175 0.746 11.982
2.603 0.865 11.838
2.864 0.825 11.564
3.554 0.931 11.655
3.981 1.392 11.704
4.045 1.938 11.550
4.406 2.658 11.521
4.925 2.883 11.681
5.176 3.687 11.330
5.901 4.180 11.228
6.409 4.301 10.969
6.907 5.061 11.096
6.948 5.692 11.318
7.704 6.209 10.735
7.751 6.517 11.179
8.085 6.947 10.724
8.856 7.256 10.618
9.203 8.042 10.467
9.225 8.622 10.750
9.686 8.853 10.344
10.001 9.070 10.730
2.946 0.262 12.030
3.210 0.651 11.928
3.396 0.230 11.518
4.157 0.876 11.789
4.403 1.205 11.365
4.855 1.485 11.780
5.395 2.433 11.365
5.515 2.787 11.613
5.982 3.412 11.490
6.506 3.643 11.210
6.778 4.000 11.003
6.889 4.765 11.190
7.747 5.171 11.221
7.834 5.789 10.829
8.394 6.289 11.028
8.890 6.760 10.653
9.302 6.826 10.816
9.709 7.522 10.806
9.663 7.860 10.503
10.156 8.406 10.632
10.689 8.868 10.291
3.279 0.255 11.853
4.269 0.557 11.484
4.892 0.827 11.864
5.320 1.154 11.669
5.772 1.787 11.396
6.284 2.561 11.347
6.398 2.478 11.548
6.787 3.463 11.025
6.968 3.991 11.314
7.735 4.202 10.814
8.169 4.667 11.253
8.621 5.287 11.033
8.684 5.705 10.868
9.086 6.205 10.898
9.820 6.836 10.737
9.704 7.152 10.647
10.251 7.788 10.779
10.903 8.220 10.289
11.143 8.657 10.326
5.323 0.325 11.590
5.499 1.061 11.297
6.098 1.291 11.438
6.558 1.705 11.536
6.901 2.226 11.320
7.063 2.575 10.946
7.497 3.453 11.152
8.226 3.725 10.858
8.393 4.388 10.741
8.709 4.806 10.954
9.211 5.206 10.753
9.776 5.626 11.035
10.286 6.057 10.719
10.488 6.978 10.879
11.045 7.002 10.268
11.056 7.517 10.762
11.541 7.909 10.468
6.015 0.177 11.596
6.365 0.247 11.540
6.668 0.805 11.547
6.723 1.340 11.189
7.256 1.843 11.178
7.581 2.544 10.981
7.945 3.014 10.876
9.668 4.856 10.698
9.881 5.115 10.908
10.528 5.837 10.371
10.690 6.043 10.540
11.071 6.952 10.495
11.631 7.432 10.243
12.124 7.754 10.279
6.791 0.029 11.492
7.026 0.714 11.374
7.461 0.864 11.479
8.067 1.313 11.439
7.990 2.069 11.087
10.438 5.132 10.561
10.893 5.140 10.765
11.236 6.096 10.810
12.019 6.476 10.222
12.040 6.922 10.505
7.326 0.114 11.071
8.036 0.768 11.478
8.103 0.936 10.891
8.944 1.406 11.319
11.020 4.604 10.418
11.379 4.730 10.634
11.778 5.589 10.314
12.337 6.026 10.647
7.434 -0.115 10.453
8.125 0.545 10.906
8.287 1.162 10.433
11.412 5.246 9.767
11.751 5.678 9.735
12.290 6.176 9.613
8.192 0.085 10.351
8.646 0.793 10.366
9.154 1.015 10.288
11.713 4.311 10.077
11.654 4.562 9.716
12.583 5.302 10.117
9.467 0.194 10.657
