4.603 5.297 8.941
4.795 5.429 8.928
5.228 5.374 9.067
5.899 5.543 9.316
6.246 5.590 9.363
6.478 5.630 9.562
7.024 5.772 9.523
7.581 5.592 9.888
7.890 5.645 9.768
8.192 5.831 9.944
8.881 6.024 10.103
9.098 5.961 10.309
0.290 4.677 7.677
0.613 4.801 7.974
0.970 5.008 8.102
1.451 5.062 8.145
1.970 5.024 8.393
2.187 4.954 8.319
2.599 4.932 8.638
3.280 5.124 8.556
3.170 4.628 8.575
3.651 4.907 8.839
4.098 4.809 8.720
4.658 4.710 8.999
5.049 4.805 8.968
5.229 4.963 9.104
5.704 4.995 9.181
6.184 5.119 9.588
6.773 5.144 9.551
7.176 5.127 9.608
7.441 5.275 9.638
7.900 5.164 9.776
8.407 5.432 9.944
8.689 5.295 10.205
9.176 5.351 10.236
0.155 4.404 7.782
0.498 4.339 8.104
1.234 4.427 8.054
1.637 4.357 8.098
2.043 4.380 8.224
2.454 4.658 8.461
2.679 4.759 8.423
3.379 4.572 8.676
3.204 4.238 8.587
3.562 4.250 8.669
4.146 4.468 8.992
4.604 4.271 9.044
4.864 4.389 9.271
5.452 4.493 9.207
5.716 4.496 9.373
6.378 4.586 9.417
6.577 4.660 9.742
7.138 4.790 9.754
7.435 4.880 9.954
8.086 4.882 9.933
8.323 4.856 10.053
8.991 4.927 10.013
9.214 5.035 10.288
0.202 4.007 8.025
0.734 4.023 8.088
1.255 3.959 8.161
1.616 4.054 8.222
1.935 3.940 8.347
2.397 4.139 8.362
2.852 4.057 8.443
3.243 4.280 8.540
3.617 3.728 8.894
4.279 3.862 8.897
4.546 4.077 8.970
5.197 4.057 9.256
5.501 4.182 9.262
5.767 4.175 9.341
6.273 4.167 9.608
6.743 4.234 9.680
7.109 4.407 9.759
7.511 4.391 9.746
8.149 4.502 10.044
8.409 4.528 10.158
8.994 4.510 10.063
0.256 3.397 7.780
0.812 3.321 7.956
1.025 3.581 8.115
1.763 3.615 8.161
2.161 3.549 8.304
2.562 3.777 8.475
2.964 3.693 8.547
4.525 3.675 9.113
5.231 3.669 9.073
5.462 3.511 9.168
5.897 3.746 9.566
6.272 3.654 9.578
6.933 3.901 9.586
7.316 3.891 9.691
7.603 4.019 9.832
8.011 3.906 9.959
0.400 2.897 7.971
0.733 3.181 8.143
1.171 3.155 8.319
1.752 3.147 8.230
1.973 3.073 8.524
5.175 3.159 9.261
5.600 3.043 9.431
6.151 3.292 9.495
6.317 3.399 9.586
6.794 3.501 9.548
7.402 3.504 9.843
7.695 3.609 9.812
0.353 2.468 7.840
0.888 2.721 7.931
1.321 2.741 8.239
1.701 2.843 8.370
5.576 2.770 9.517
6.078 2.764 9.445
6.474 2.992 9.591
6.776 2.890 9.579
7.303 2.875 9.848
0.058 1.927 7.827
0.574 1.987 8.102
1.029 2.213 8.034
1.413 2.096 8.126
5.770 2.189 9.460
6.003 2.249 9.351
6.646 2.269 9.511
6.866 2.532 9.650
7.414 2.532 9.998
0.204 1.509 7.973
0.535 1.545 7.869
0.883 1.791 8.040
1.283 1.678 8.397
6.175 2.005 9.643
6.611 1.957 9.705
7.153 1.902 9.793
0.143 1.007 7.882
0.575 1.218 8.121
1.003 1.221 8.199
5.699 1.482 9.531
6.279 1.418 9.707
6.623 1.441 9.712
7.164 1.551 9.642
7.398 1.570 9.818
0.314 0.729 7.900
0.713 0.759 8.105
1.088 0.773 8.160
1.611 0.973 8.296
0.286 12.343 7.495
0.630 12.379 7.605
3.524 12.528 8.425
3.975 12.492 8.725
4.676 12.442 8.675
0.077 12.008 7.621
0.702 12.075 7.837
1.206 12.102 7.702
2.973 12.016 8.177
3.266 11.948 8.341
3.798 11.847 8.538
4.067 12.108 8.731
4.429 11.978 8.859
5.083 12.258 8.778
5.436 12.361 9.107
6.003 12.238 9.082
6.448 12.243 9.101
6.601 12.372 9.443
7.163 12.316 9.361
7.566 12.379 9.647
7.933 12.470 9.607
0.189 11.411 7.711
0.802 11.455 7.587
1.106 11.761 7.699
1.425 11.865 7.877
1.887 11.872 8.030
2.420 11.403 8.268
2.820 11.336 8.474
3.499 11.633 8.433
3.660 11.609 8.511
4.136 11.663 8.576
4.731 11.741 8.933
4.982 11.785 8.795
5.642 11.918 9.166
5.954 11.946 9.113
6.306 11.847 9.110
6.771 12.009 9.337
7.067 12.064 9.473
7.511 11.948 9.541
8.080 12.084 9.561
8.403 12.056 9.954
0.305 11.047 7.494
0.873 11.127 7.900
1.189 11.056 7.736
1.770 11.170 8.029
2.137 11.402 8.096
2.565 11.389 8.277
2.489 10.884 8.362
2.991 10.866 8.447
3.313 10.929 8.447
3.751 11.026 8.449
4.128 11.103 8.672
4.820 11.055 8.896
4.991 11.330 8.998
5.477 11.389 9.141
6.120 11.397 9.221
6.469 11.544 9.115
6.938 11.642 9.378
7.303 11.451 9.448
7.582 11.696 9.565
8.008 11.719 9.692
8.434 11.781 9.944
0.276 10.581 7.645
0.793 10.699 7.948
1.257 10.627 7.959
1.780 10.875 8.120
1.961 10.964 7.982
2.569 10.894 8.403
2.623 10.501 8.345
2.999 10.665 8.467
3.575 10.581 8.347
3.966 10.570 8.708
4.252 10.592 8.807
4.756 10.891 8.777
5.208 10.757 8.962
5.455 10.982 8.951
6.001 10.978 9.221
6.323 10.844 9.357
6.931 10.969 9.259
7.356 11.145 9.386
7.639 11.056 9.715
8.039 11.114 9.722
8.478 11.307 10.014
0.031 10.294 7.631
0.363 10.170 7.730
0.909 10.322 7.878
1.271 10.241 7.981
1.765 10.244 8.004
1.996 10.443 8.283
2.625 10.566 8.173
3.104 10.066 8.439
3.403 10.246 8.381
3.936 10.075 8.777
4.364 10.228 8.617
4.684 10.413 8.823
5.201 10.271 9.143
5.572 10.506 9.069
5.996 10.350 9.118
6.379 10.385 9.287
7.036 10.570 9.398
7.415 10.611 9.712
7.707 10.650 9.819
8.258 10.639 9.812
0.090 9.629 7.608
0.635 9.899 7.880
0.981 9.715 7.743
1.399 9.765 8.045
1.658 9.843 8.014
2.123 9.913 8.251
3.897 9.710 8.523
4.490 9.814 8.651
4.984 9.862 8.891
5.380 10.030 9.017
5.618 10.113 8.986
6.044 9.934 9.377
6.587 10.005 9.208
6.990 10.164 9.510
7.504 10.170 9.499
0.089 9.198 7.765
0.474 9.167 7.851
1.025 9.437 7.765
1.396 9.582 8.062
4.580 9.339 8.910
4.733 9.467 8.995
5.440 9.465 9.163
5.654 9.424 9.168
6.251 9.495 9.152
6.723 9.547 9.440
7.006 9.595 9.603
0.210 8.960 7.707
0.563 8.942 7.689
1.098 9.028 8.008
5.087 9.051 8.990
5.401 8.974 9.110
5.888 8.939 9.173
6.243 9.221 9.284
6.707 9.350 9.340
0.203 8.261 7.664
0.681 8.286 7.883
5.010 8.680 8.998
5.264 8.644 9.071
5.863 8.797 9.146
6.158 8.593 9.184
6.687 8.816 9.458
0.358 8.076 7.879
0.817 7.971 7.924
5.438 8.188 9.150
5.879 8.204 9.214
6.460 8.115 9.480
0.424 7.555 7.649
6.068 7.831 8.995
0.120 7.020 7.275
5.642 7.220 8.624
6.135 7.368 8.997
6.415 7.492 8.920
0.156 6.440 7.238
0.467 6.495 7.278
5.380 6.667 8.732
5.628 6.935 8.924
6.094 6.892 8.812
6.525 7.029 8.980
6.915 6.965 9.092
0.126 6.144 7.264
0.627 5.993 7.423
1.052 6.099 7.602
5.069 6.400 8.514
5.229 6.447 8.738
5.797 6.419 8.846
6.296 6.514 8.861
6.516 6.318 8.895
7.170 6.438 9.086
7.429 6.440 9.291
0.259 5.476 7.241
0.728 5.836 7.400
0.899 5.717 7.602
1.415 5.768 7.704
4.438 5.672 8.504
4.945 5.806 8.657
5.525 5.919 8.761
5.932 6.039 8.901
6.184 6.083 9.099
6.725 5.925 9.070
7.211 6.036 9.229
7.473 6.068 9.326
7.979 6.287 9.421
0.161 5.267 7.315
0.752 5.103 7.594
0.960 5.239 7.571
1.669 5.379 7.748
1.959 5.515 7.762
4.290 5.196 8.421
4.474 5.401 8.484
4.963 5.376 8.789
5.351 5.463 8.742
5.879 5.465 8.845
6.174 5.664 8.849
6.590 5.706 9.237
7.275 5.769 9.298
7.455 5.603 9.351
8.142 5.626 9.289
8.358 5.875 9.416
0.262 4.688 7.396
0.799 4.862 7.653
1.199 5.009 7.617
1.614 4.983 7.596
2.076 4.831 7.767
2.462 5.156 8.022
3.902 4.721 8.325
4.177 4.657 8.493
4.583 4.900 8.581
5.003 5.026 8.730
5.468 5.075 8.845
5.812 5.145 8.804
6.403 5.113 8.925
6.732 5.081 9.110
7.095 5.219 9.313
7.610 5.144 9.471
8.164 5.418 9.428
8.644 5.474 9.435
8.998 5.439 9.801
0.268 4.263 7.394
0.662 4.267 7.489
1.155 4.352 7.676
1.557 4.412 7.655
1.958 4.446 7.956
2.465 4.449 8.022
2.809 4.757 8.035
4.152 4.342 8.400
4.772 4.276 8.444
4.974 4.454 8.757
5.672 4.576 8.878
5.842 4.600 9.021
6.429 4.536 9.084
6.842 4.728 9.066
7.342 4.743 9.318
7.851 4.874 9.307
8.143 4.912 9.426
8.456 5.051 9.629
0.329 3.926 7.449
0.697 3.776 7.707
1.388 4.082 7.615
1.808 4.054 7.663
2.198 4.185 7.863
2.576 3.981 7.951
4.812 3.809 8.612
5.068 3.991 8.806
5.626 3.927 8.861
5.885 4.167 9.092
6.341 4.111 9.037
6.941 4.223 9.124
7.245 4.398 9.139
7.846 4.428 9.293
8.073 4.561 9.614
0.003 3.490 7.366
0.452 3.497 7.380
1.014 3.612 7.657
1.241 3.602 7.694
1.586 3.545 7.770
2.199 3.532 7.961
5.324 3.544 8.837
5.565 3.629 8.783
6.130 3.724 9.001
6.495 3.891 9.195
6.967 3.888 9.107
7.460 3.805 9.196
7.752 3.919 9.356
0.144 2.826 7.298
0.572 2.812 7.659
1.053 3.003 7.741
1.276 2.923 7.785
1.869 3.231 7.727
5.657 3.259 8.988
6.180 3.301 9.012
6.557 3.372 8.967
7.041 3.416 9.357
7.420 3.308 9.499
0.249 2.311 7.316
0.563 2.556 7.533
0.941 2.639 7.652
1.422 2.764 7.626
6.239 2.679 9.171
6.677 2.821 9.018
7.038 2.945 9.336
0.028 1.990 7.449
0.608 2.145 7.656
1.116 2.092 7.657
6.815 2.339 9.150
0.699 1.625 7.449
6.677 1.549 9.118
0.624 0.805 7.641
0.355 12.453 7.248
4.263 12.537 8.107
4.795 12.399 8.224
0.327 11.894 7.186
0.864 12.152 7.419
3.946 11.929 8.141
4.152 11.969 8.090
4.622 12.034 8.314
5.271 12.212 8.497
5.703 12.160 8.471
5.914 12.242 8.683
6.547 12.152 8.631
6.882 12.269 8.866
7.248 12.409 8.884
0.488 11.628 7.284
0.837 11.610 7.192
1.294 11.628 7.281
3.379 11.355 7.979
3.812 11.542 8.201
4.472 11.605 8.331
4.650 11.537 8.452
5.229 11.778 8.565
5.551 11.700 8.467
6.033 11.692 8.838
6.464 11.848 8.836
6.951 11.949 8.958
7.376 12.057 8.885
7.787 12.122 9.208
0.018 11.023 7.058
0.581 11.189 7.348
0.965 11.177 7.387
1.339 11.175 7.322
1.664 11.160 7.433
3.163 11.034 8.016
3.394 10.890 7.893
3.920 11.199 8.178
4.436 11.118 8.230
4.694 11.283 8.390
5.096 11.196 8.357
5.557 11.231 8.744
5.993 11.438 8.849
6.644 11.261 8.914
7.026 11.403 9.085
7.389 11.639 9.159
7.862 11.729 9.161
8.311 11.610 9.319
0.014 10.458 7.105
0.382 10.622 7.331
0.831 10.604 7.299
1.381 10.630 7.383
1.795 10.863 7.602
2.247 10.936 7.717
3.684 10.737 8.093
3.920 10.561 8.318
4.331 10.817 8.282
4.712 10.671 8.372
5.161 10.867 8.523
5.663 11.003 8.496
6.166 10.953 8.650
6.436 11.091 8.844
6.948 11.124 8.931
7.310 10.936 9.044
7.935 11.120 9.084
-0.037 10.274 7.283
0.414 10.072 7.310
1.024 10.186 7.235
1.351 10.448 7.388
1.789 10.348 7.548
3.968 10.171 8.336
4.333 10.338 8.267
5.023 10.311 8.283
5.334 10.431 8.410
5.667 10.419 8.695
6.321 10.364 8.701
6.666 10.641 8.759
7.109 10.517 8.921
7.462 10.623 9.274
0.252 9.774 7.278
0.451 9.806 7.319
1.118 9.907 7.500
1.492 9.708 7.664
4.628 9.654 8.432
4.985 9.820 8.559
5.437 10.033 8.526
5.929 10.117 8.743
6.321 10.021 8.846
6.748 9.948 8.792
6.996 10.174 8.998
0.206 9.328 7.075
0.739 9.281 7.276
1.072 9.364 7.556
4.915 9.413 8.526
5.432 9.591 8.711
6.014 9.441 8.651
6.339 9.652 8.929
6.824 9.551 8.830
0.237 8.820 7.100
0.756 8.995 7.442
5.554 8.953 8.486
5.793 9.081 8.787
6.274 9.186 9.014
0.175 8.232 7.242
6.001 8.728 8.907
5.842 6.664 8.467
6.429 6.837 8.443
6.843 6.950 8.706
0.365 5.972 6.898
0.653 6.134 7.013
5.435 6.370 8.387
5.843 6.471 8.500
6.282 6.394 8.428
6.898 6.395 8.661
7.246 6.657 8.826
0.451 5.676 6.973
0.881 5.517 6.927
1.060 5.884 7.219
4.946 5.820 8.095
5.618 5.988 8.372
6.047 5.922 8.536
6.253 5.807 8.608
6.780 6.093 8.513
7.268 6.005 8.760
7.587 6.053 8.716
0.428 5.311 6.946
0.791 5.312 7.132
1.341 5.337 7.259
1.554 5.315 7.242
4.587 5.391 8.194
5.296 5.233 8.268
5.483 5.448 8.293
6.148 5.385 8.410
6.548 5.585 8.471
6.878 5.502 8.610
7.318 5.536 8.926
7.750 5.604 8.880
8.208 5.688 8.962
0.422 4.656 7.084
0.768 4.673 6.998
1.274 4.842 7.180
1.637 4.802 7.299
2.106 4.854 7.489
4.622 4.858 8.075
5.045 4.804 8.317
5.626 4.976 8.478
5.979 4.942 8.505
6.361 4.906 8.572
6.886 5.095 8.831
7.216 5.205 8.698
7.701 5.108 8.989
8.265 5.390 9.010
-0.133 4.250 6.986
0.366 4.228 6.967
0.742 4.347 7.102
1.386 4.292 7.231
1.866 4.399 7.373
2.294 4.396 7.471
4.940 4.492 8.267
5.389 4.387 8.171
5.573 4.381 8.440
6.150 4.534 8.597
6.445 4.608 8.607
7.105 4.764 8.696
7.525 4.710 8.937
7.698 4.825 8.796
8.291 4.834 9.200
0.185 3.642 6.845
0.576 3.988 6.998
0.914 3.845 7.169
1.480 3.990 7.324
1.674 4.012 7.305
2.329 3.902 7.386
5.386 4.135 8.397
5.738 3.996 8.433
6.057 4.219 8.602
6.568 4.153 8.585
6.962 4.338 8.620
7.455 4.263 8.925
7.940 4.367 9.075
0.065 3.245 6.817
0.620 3.296 7.147
1.133 3.389 7.181
1.567 3.533 7.390
1.922 3.667 7.448
5.660 3.487 8.365
6.138 3.779 8.646
6.641 3.848 8.814
6.989 3.867 8.649
7.393 3.728 8.791
0.325 2.860 6.928
0.670 2.886 7.104
1.110 2.869 7.173
1.399 3.095 7.238
6.263 3.168 8.701
6.648 3.309 8.633
7.115 3.454 8.933
0.117 2.313 6.909
0.576 2.609 7.028
1.007 2.573 7.062
4.842 12.584 7.751
-0.002 12.057 6.675
0.307 11.911 6.697
4.472 11.863 7.673
4.917 12.160 7.798
5.405 12.033 8.078
5.539 12.240 8.021
6.237 12.263 8.130
6.481 12.262 8.288
7.102 12.505 8.393
0.167 11.385 6.594
0.359 11.645 6.603
0.892 11.457 6.764
3.943 11.589 7.851
4.389 11.629 7.792
4.994 11.574 7.953
5.185 11.835 7.910
5.601 11.819 8.286
6.249 11.800 8.398
6.705 11.978 8.366
6.870 11.766 8.533
7.311 11.843 8.492
0.158 10.888 6.589
0.522 11.093 6.929
0.891 11.226 6.957
1.491 11.210 6.857
3.947 10.934 7.836
4.368 11.217 7.893
4.898 11.202 7.936
5.263 11.228 8.209
5.858 11.177 8.196
6.151 11.487 8.275
6.655 11.403 8.379
7.165 11.345 8.639
7.538 11.603 8.598
0.039 10.683 6.709
0.535 10.639 6.701
1.055 10.613 6.959
1.463 10.577 7.164
4.003 10.759 7.874
4.510 10.559 7.752
4.830 10.801 7.917
5.482 10.800 8.024
5.681 10.874 8.357
6.299 10.896 8.384
6.567 10.926 8.435
6.998 11.157 8.602
7.586 10.972 8.707
0.313 10.147 6.863
0.705 10.247 6.924
1.018 10.247 7.088
1.538 10.141 7.086
4.709 10.243 7.910
4.936 10.179 7.945
5.522 10.411 8.175
5.875 10.368 8.375
6.290 10.573 8.262
6.601 10.570 8.405
7.308 10.704 8.624
0.327 9.732 6.722
0.736 9.641 6.864
1.079 9.738 6.969
5.223 9.799 8.149
5.656 10.056 8.289
6.080 9.880 8.167
6.409 10.017 8.288
6.795 9.923 8.495
0.319 9.257 6.711
0.791 9.191 7.036
5.697 9.449 8.213
5.932 9.410 8.425
6.525 9.546 8.399
0.256 8.675 6.782
5.911 6.402 7.830
6.429 6.514 7.924
6.803 6.302 8.328
0.394 5.563 6.322
0.835 5.709 6.426
5.761 5.675 7.985
6.017 5.764 7.902
6.375 5.987 8.134
7.019 5.838 8.112
7.285 6.158 8.237
-0.093 5.129 6.532
0.338 5.177 6.648
0.974 5.195 6.752
1.356 5.232 6.657
5.406 5.201 7.680
5.744 5.370 7.868
6.022 5.591 8.151
6.427 5.508 7.981
6.994 5.554 8.167
7.532 5.650 8.291
7.719 5.714 8.501
0.112 4.669 6.287
0.586 4.688 6.395
1.062 4.745 6.625
1.472 4.937 6.713
1.658 4.749 6.809
5.358 4.732 7.840
5.815 4.984 7.950
6.098 5.056 8.074
6.463 5.164 8.052
6.962 5.204 8.272
7.312 5.212 8.454
7.743 5.170 8.565
-0.012 4.126 6.353
0.606 4.198 6.660
1.080 4.300 6.719
1.378 4.464 6.826
1.910 4.422 6.819
5.410 4.319 7.877
5.874 4.637 7.799
6.087 4.418 8.166
6.548 4.712 8.281
7.197 4.519 8.314
7.531 4.653 8.515
7.918 4.838 8.546
0.316 3.724 6.328
0.691 3.950 6.566
1.195 3.804 6.777
1.478 3.860 6.731
1.972 3.993 6.940
5.738 4.160 8.075
6.340 4.162 8.189
6.809 4.295 8.095
7.216 4.184 8.307
7.417 4.315 8.539
0.188 3.454 6.480
0.606 3.296 6.666
0.961 3.481 6.817
1.473 3.332 6.969
6.354 3.628 8.220
6.836 3.695 8.141
7.131 3.803 8.342
0.433 2.723 6.608
0.640 2.926 6.620
1.088 2.866 6.828
5.388 12.509 7.531
0.303 12.028 6.276
4.929 12.004 7.470
5.301 12.093 7.483
5.712 12.101 7.610
6.272 12.285 7.895
6.635 12.392 7.987
0.330 11.357 6.080
0.587 11.572 6.357
4.483 11.530 7.239
4.982 11.618 7.459
5.544 11.754 7.494
5.976 11.709 7.771
6.188 11.927 7.737
6.595 11.901 7.860
7.031 11.930 8.149
0.367 10.944 6.085
0.689 10.992 6.327
1.223 11.235 6.318
4.544 11.060 7.447
4.947 11.068 7.495
5.582 11.214 7.753
6.046 11.329 7.717
6.324 11.395 7.868
6.796 11.371 8.033
7.208 11.543 8.086
0.388 10.466 6.333
0.705 10.719 6.401
1.146 10.780 6.583
4.674 10.568 7.479
5.146 10.731 7.491
5.605 10.872 7.531
6.065 10.965 7.783
6.491 10.819 7.888
6.807 10.896 8.030
7.217 11.026 7.981
0.243 9.973 6.198
0.891 10.209 6.464
1.218 10.271 6.543
5.123 10.399 7.673
5.590 10.467 7.680
5.931 10.515 7.872
6.297 10.458 7.867
6.984 10.616 7.987
0.494 9.800 6.224
0.827 9.764 6.469
5.732 9.912 7.756
5.895 9.885 7.981
6.511 10.065 8.006
0.104 9.317 6.260
0.293 9.110 6.250
6.624 6.230 7.741
0.402 5.736 6.123
5.867 5.771 7.551
6.238 5.839 7.599
6.642 5.976 7.527
7.104 5.989 7.915
7.339 5.915 7.866
0.186 5.102 6.094
0.618 5.070 6.184
0.872 5.118 6.025
1.500 5.193 6.230
5.714 5.461 7.546
6.183 5.329 7.500
6.582 5.584 7.638
6.944 5.404 7.736
7.559 5.493 8.014
0.335 4.511 5.817
0.668 4.738 5.951
1.044 4.854 6.162
1.555 4.955 6.226
5.547 4.736 7.248
5.884 4.806 7.407
6.273 4.850 7.607
6.787 5.102 7.590
7.020 5.100 7.739
7.574 5.249 8.087
7.882 5.268 8.141
0.216 4.211 6.099
0.765 4.377 6.274
1.109 4.198 6.113
1.419 4.238 6.480
2.008 4.387 6.355
5.908 4.401 7.586
6.409 4.626 7.602
6.653 4.701 7.749
7.309 4.699 7.749
7.722 4.724 8.113
0.448 3.733 6.049
0.823 3.769 6.299
1.103 3.727 6.311
1.597 3.997 6.484
5.867 4.036 7.513
6.272 4.161 7.629
6.777 4.015 7.693
7.282 4.313 7.971
7.679 4.314 7.858
0.236 3.199 6.125
0.935 3.513 6.018
1.354 3.302 6.391
1.710 3.479 6.515
6.755 3.758 7.862
0.853 3.037 6.191
5.024 11.933 6.934
5.638 11.947 7.008
5.907 12.251 7.277
6.254 12.211 7.386
6.732 12.374 7.355
0.347 11.391 5.870
0.654 11.414 5.862
5.138 11.698 7.039
5.561 11.763 7.302
6.056 11.848 7.433
6.489 11.893 7.519
6.932 11.718 7.364
0.417 11.024 5.817
0.781 10.946 5.973
4.704 10.940 7.075
5.299 11.046 7.077
5.536 11.148 7.256
5.991 11.111 7.416
6.574 11.454 7.417
6.757 11.365 7.381
7.275 11.355 7.768
0.405 10.449 5.986
0.709 10.439 6.015
1.369 10.706 5.948
5.280 10.614 6.990
5.746 10.855 7.139
6.056 10.901 7.303
6.467 10.995 7.424
6.984 10.924 7.437
0.005 10.014 5.597
0.474 9.961 5.770
1.043 10.196 6.018
5.127 10.222 7.176
5.755 10.442 7.272
6.121 10.526 7.223
6.535 10.296 7.350
6.915 10.551 7.469
0.185 9.635 5.651
0.571 9.492 5.969
0.797 9.561 6.133
6.027 9.856 7.391
0.124 9.106 5.909
6.387 5.753 6.980
6.783 5.851 7.069
7.006 6.118 7.263
0.212 5.104 5.587
0.631 5.040 5.636
1.028 5.214 5.877
5.946 5.462 6.954
6.260 5.345 7.192
6.675 5.334 7.141
7.171 5.386 7.394
7.734 5.616 7.562
0.270 4.522 5.470
0.838 4.550 5.696
1.034 4.679 5.662
1.483 4.664 6.038
5.902 4.845 7.082
6.467 4.819 7.169
6.814 5.075 7.343
7.315 5.168 7.398
7.831 5.001 7.369
0.514 4.318 5.536
0.780 4.348 5.647
1.196 4.247 5.847
1.580 4.208 5.826
5.908 4.608 7.107
6.442 4.598 7.208
6.736 4.724 7.312
7.350 4.742 7.352
7.655 4.552 7.377
0.317 3.688 5.441
0.862 3.671 5.659
1.124 3.815 5.801
1.856 4.020 5.990
6.365 3.968 7.294
7.016 4.130 7.178
7.203 4.043 7.394
0.457 3.262 5.498
0.981 3.289 5.890
1.378 3.298 5.916
5.450 12.147 6.736
6.084 12.065 6.926
6.314 12.331 6.962
0.055 11.250 5.126
0.531 11.476 5.201
5.115 11.548 6.604
5.519 11.523 6.716
6.083 11.730 6.806
6.385 11.842 6.953
7.023 11.724 6.968
0.064 10.909 5.369
0.338 10.935 5.254
0.825 10.976 5.337
5.233 11.173 6.594
5.631 11.219 6.730
6.051 11.288 6.897
6.617 11.400 6.951
7.078 11.252 7.036
0.114 10.505 5.144
0.546 10.556 5.499
0.849 10.485 5.408
5.319 10.634 6.606
5.640 10.877 6.778
6.096 10.883 6.861
6.610 10.741 6.961
7.015 11.059 7.035
0.112 9.919 5.409
0.448 10.202 5.548
0.962 10.242 5.568
5.672 10.394 6.881
6.077 10.465 7.004
6.690 10.454 7.178
0.328 9.551 5.425
0.535 9.630 5.509
6.678 6.217 6.613
0.821 5.644 5.160
6.034 5.651 6.409
6.339 5.682 6.787
6.690 6.021 6.817
7.343 5.904 6.907
7.782 6.155 7.126
0.258 4.997 5.096
0.914 5.043 5.219
1.151 5.247 5.427
1.819 5.333 5.423
6.047 5.397 6.579
6.579 5.457 6.751
6.781 5.594 6.889
7.187 5.382 6.998
7.692 5.683 7.063
0.063 4.597 4.868
0.468 4.631 5.043
0.773 4.594 5.194
1.207 4.735 5.327
1.854 4.914 5.315
5.514 4.790 6.421
6.152 5.010 6.729
6.482 5.098 6.885
6.897 4.947 6.692
7.250 5.022 6.960
7.731 5.198 7.111
8.371 5.016 7.112
0.172 4.178 5.160
0.449 4.056 5.265
1.059 4.080 5.367
1.194 4.169 5.472
1.628 4.484 5.473
2.290 4.519 5.621
6.043 4.499 6.560
6.545 4.362 6.873
7.127 4.691 6.756
7.362 4.507 7.093
7.716 4.706 7.143
0.018 3.528 4.956
0.538 3.714 5.097
0.815 3.698 5.184
1.347 3.915 5.378
1.986 3.899 5.485
6.206 3.859 6.780
6.463 4.010 6.653
6.982 4.185 6.776
7.322 4.091 6.989
8.031 4.289 6.986
0.231 3.362 5.158
0.463 3.120 5.173
0.864 3.254 5.301
1.497 3.262 5.531
1.983 3.581 5.400
6.980 3.751 6.823
1.032 3.036 5.302
0.117 11.828 4.853
5.427 12.090 6.232
5.574 12.000 6.256
6.150 12.171 6.232
6.683 12.047 6.479
6.857 12.214 6.521
0.261 11.238 4.822
0.630 11.434 4.947
0.922 11.312 4.923
5.240 11.498 6.135
5.904 11.518 6.207
6.082 11.521 6.444
6.520 11.822 6.681
7.206 11.693 6.715
0.315 10.775 4.818
0.745 10.835 4.897
1.091 10.987 5.166
5.034 11.027 5.968
5.255 11.050 6.061
5.736 11.030 6.412
6.374 11.381 6.317
6.752 11.250 6.579
7.207 11.384 6.674
7.380 11.393 6.864
0.088 10.592 4.865
0.757 10.598 5.046
1.087 10.454 5.030
1.390 10.701 5.225
5.469 10.598 6.173
5.740 10.855 6.497
6.355 10.780 6.366
6.622 10.908 6.583
7.170 10.961 6.648
0.186 9.905 4.864
0.583 10.218 5.100
1.283 10.105 4.983
5.624 10.352 6.322
5.825 10.186 6.333
6.488 10.269 6.646
6.702 10.423 6.630
7.152 10.380 6.710
0.329 9.467 4.836
0.860 9.686 4.952
1.098 9.581 5.245
6.308 9.982 6.571
0.364 9.219 4.784
6.417 6.261 6.284
6.865 6.259 6.370
7.416 6.421 6.315
0.527 5.450 4.563
0.967 5.557 4.601
1.261 5.647 4.974
6.000 5.761 5.977
6.657 5.936 6.212
6.817 5.736 6.314
7.344 6.076 6.595
7.682 6.122 6.671
-0.027 5.104 4.611
0.633 5.151 4.614
1.054 4.973 4.764
1.423 5.092 4.897
1.757 5.220 5.110
5.807 5.335 5.973
6.217 5.176 6.053
6.692 5.392 6.214
6.996 5.330 6.516
7.304 5.409 6.401
7.815 5.503 6.725
8.349 5.519 6.735
0.046 4.477 4.515
0.603 4.664 4.588
0.827 4.785 4.780
1.399 4.645 4.921
1.900 4.709 4.884
2.183 4.959 5.028
5.677 4.718 6.055
6.085 4.862 6.298
6.617 5.041 6.244
7.208 4.922 6.297
7.643 5.055 6.603
7.773 5.210 6.679
8.206 5.307 6.723
0.313 4.119 4.562
0.579 4.060 4.762
1.060 4.190 4.957
1.365 4.212 4.951
1.803 4.262 4.968
2.461 4.471 5.190
5.895 4.231 6.159
6.381 4.540 6.355
6.614 4.339 6.239
7.199 4.492 6.447
7.660 4.615 6.704
7.885 4.652 6.783
8.493 4.864 6.893
0.162 3.734 4.621
0.532 3.854 4.851
0.965 3.667 4.795
1.551 3.688 4.846
1.969 3.822 5.036
2.450 3.959 5.158
6.403 3.982 6.207
6.798 3.977 6.440
7.301 4.191 6.367
7.706 4.125 6.734
7.995 4.184 6.558
0.133 3.210 4.768
0.671 3.235 4.894
1.125 3.318 4.818
1.603 3.456 5.138
2.058 3.381 5.034
6.925 3.651 6.449
7.277 3.715 6.653
7.697 3.747 6.672
0.840 2.677 4.710
1.162 3.007 5.018
1.567 3.060 5.163
5.862 12.367 5.776
6.299 12.707 5.905
0.074 11.684 4.196
0.555 11.808 4.463
5.320 12.061 5.633
5.684 12.001 5.806
6.386 12.007 5.954
6.779 12.173 5.980
7.132 12.325 6.205
0.167 11.384 4.209
0.720 11.474 4.320
1.056 11.564 4.597
5.111 11.633 5.616
5.471 11.424 5.841
5.795 11.535 5.719
6.417 11.767 6.049
6.816 11.618 6.074
7.299 11.808 6.072
7.563 11.755 6.437
0.193 10.904 4.292
0.789 10.971 4.507
1.265 11.097 4.743
1.448 11.174 4.880
4.966 10.955 5.515
5.597 11.086 5.906
6.084 11.296 5.892
6.461 11.348 6.117
6.740 11.184 6.195
7.314 11.452 6.396
7.790 11.474 6.511
0.378 10.560 4.416
0.701 10.349 4.454
1.143 10.445 4.666
1.492 10.621 4.880
5.275 10.629 5.691
5.576 10.774 5.900
5.924 10.825 5.887
6.435 10.661 6.006
6.742 10.765 5.997
7.155 10.992 6.306
7.861 10.871 6.467
0.347 9.990 4.433
0.765 10.189 4.456
1.393 9.993 4.664
1.820 10.233 4.920
5.739 10.072 5.874
5.989 10.187 5.970
6.467 10.306 6.048
6.942 10.447 6.135
7.368 10.478 6.231
0.143 9.364 4.450
0.402 9.463 4.552
0.767 9.627 4.493
1.400 9.703 4.553
6.070 9.949 5.841
6.532 9.821 6.129
6.820 10.012 6.315
-0.088 8.903 4.281
0.515 8.991 4.440
0.780 9.059 4.563
6.543 6.840 5.637
7.020 6.618 5.865
7.417 6.860 6.117
0.437 5.766 4.204
0.946 5.961 4.266
1.302 6.052 4.231
6.205 6.072 5.640
6.445 6.133 5.774
6.885 6.392 6.049
7.481 6.258 5.939
7.771 6.414 6.205
0.196 5.565 4.074
0.687 5.482 4.313
0.885 5.426 4.242
1.370 5.720 4.390
1.855 5.552 4.670
5.936 5.649 5.431
6.154 5.665 5.765
6.553 5.869 5.670
7.141 5.805 5.926
7.443 5.768 6.053
8.044 5.894 6.209
8.406 6.151 6.374
0.222 4.848 4.099
0.464 5.083 4.150
1.028 5.054 4.409
1.629 5.289 4.433
1.779 5.079 4.626
2.401 5.370 4.714
5.415 5.077 5.382
5.962 5.161 5.662
6.397 5.296 5.699
6.613 5.511 5.974
7.007 5.448 5.817
7.613 5.453 6.047
8.030 5.436 6.299
8.433 5.459 6.345
8.876 5.589 6.505
0.363 4.640 4.152
0.691 4.504 4.096
1.082 4.778 4.357
1.552 4.679 4.499
1.840 4.687 4.579
2.302 4.708 4.850
2.895 4.971 4.945
5.375 4.613 5.621
5.987 4.945 5.787
6.194 4.936 5.603
6.624 4.836 5.765
7.220 4.858 6.099
7.734 4.902 6.076
8.094 5.050 6.280
8.567 5.007 6.192
8.860 5.271 6.365
0.219 4.087 4.032
0.692 4.264 4.415
1.117 4.223 4.286
1.548 4.133 4.614
2.048 4.285 4.561
2.458 4.369 4.849
2.798 4.483 4.973
5.618 4.183 5.548
6.092 4.407 5.638
6.522 4.324 5.693
6.890 4.497 5.905
7.287 4.605 5.990
7.788 4.574 6.092
8.152 4.722 6.233
8.368 4.654 6.311
8.795 4.802 6.357
0.293 3.779 4.119
0.868 3.748 4.207
1.148 3.883 4.487
1.669 3.954 4.482
2.035 3.725 4.623
2.431 3.895 4.798
2.946 4.014 4.766
6.063 3.784 5.779
6.324 4.080 5.814
6.890 4.076 5.991
7.158 4.107 6.182
7.660 4.147 6.129
8.283 4.129 6.346
8.700 4.345 6.275
0.497 3.287 4.344
0.919 3.397 4.249
1.312 3.310 4.408
1.603 3.391 4.504
2.263 3.498 4.690
2.563 3.576 4.716
6.535 3.534 5.761
6.864 3.665 5.887
7.345 3.734 5.976
7.754 3.797 6.093
8.215 3.877 6.184
0.288 2.747 4.197
0.736 2.865 4.241
1.225 2.764 4.508
1.871 2.888 4.543
2.280 3.018 4.716
6.813 3.122 6.066
7.523 3.276 5.948
7.854 3.164 6.161
0.763 2.333 4.429
1.504 2.351 4.473
1.763 2.601 4.632
0.131 12.057 3.904
0.775 12.138 3.830
5.565 12.584 5.156
5.981 12.609 5.338
6.343 12.537 5.502
0.332 11.733 3.774
0.646 11.932 3.968
1.282 11.836 4.228
5.215 11.852 5.186
5.509 11.958 5.443
5.917 12.067 5.280
6.361 12.185 5.560
6.786 12.167 5.652
7.282 12.306 5.758
7.818 12.260 5.911
0.371 11.432 3.823
0.792 11.505 3.925
1.292 11.461 4.073
1.575 11.561 4.233
4.617 11.355 5.010
5.134 11.469 5.130
5.413 11.576 5.173
6.056 11.440 5.504
6.517 11.760 5.587
6.933 11.791 5.599
7.239 11.701 5.811
7.816 11.855 5.991
8.109 12.005 6.120
0.402 10.928 3.826
0.837 11.019 4.222
1.126 10.996 4.200
1.773 10.998 4.399
2.089 11.034 4.279
4.815 10.919 5.029
5.279 10.934 5.135
5.688 10.979 5.305
6.193 11.025 5.603
6.529 11.192 5.430
6.931 11.109 5.757
7.328 11.269 5.955
7.724 11.515 6.020
8.256 11.519 6.189
0.171 10.308 3.852
0.505 10.429 4.132
0.792 10.581 4.237
1.348 10.664 4.146
1.692 10.536 4.364
2.307 10.784 4.308
4.758 10.573 5.267
5.230 10.566 5.295
5.660 10.493 5.451
6.063 10.649 5.525
6.491 10.743 5.627
6.938 10.854 5.804
7.480 10.767 5.734
7.681 11.049 6.025
8.292 10.976 5.919
0.208 9.827 3.762
0.434 10.035 4.152
0.868 10.095 4.161
1.341 10.244 4.288
1.745 10.015 4.265
2.106 10.183 4.525
5.178 10.294 5.188
5.592 10.319 5.293
6.271 10.115 5.646
6.485 10.300 5.577
7.137 10.280 5.812
7.512 10.409 5.838
7.813 10.433 5.854
0.096 9.370 3.828
0.584 9.573 4.174
0.876 9.635 4.264
1.372 9.677 4.266
1.726 9.666 4.420
5.852 9.790 5.508
6.270 9.771 5.533
6.485 9.761 5.618
6.953 10.033 5.643
7.499 9.851 5.871
0.207 8.980 3.997
0.595 8.961 4.139
0.952 9.134 4.324
1.324 9.242 4.304
6.174 9.416 5.474
6.773 9.467 5.722
7.074 9.542 5.659
0.303 8.560 4.097
0.766 8.671 3.947
1.005 8.847 4.349
6.847 7.746 5.387
1.048 6.852 3.796
6.673 7.126 5.335
7.003 7.236 5.276
7.490 7.354 5.578
0.435 6.329 3.717
0.881 6.478 3.861
1.489 6.334 3.810
6.187 6.496 5.109
6.686 6.619 5.296
7.161 6.885 5.494
7.568 6.880 5.450
8.065 6.962 5.578
0.119 5.818 3.614
0.681 6.016 3.629
1.028 5.824 3.897
1.436 6.037 3.938
2.071 5.962 4.107
5.951 6.094 5.178
6.277 6.281 5.366
6.642 6.129 5.309
7.039 6.316 5.587
7.631 6.397 5.657
7.950 6.494 5.538
8.443 6.324 5.763
0.137 5.411 3.513
0.815 5.522 3.650
1.039 5.611 3.885
1.589 5.532 3.842
2.076 5.747 4.038
2.456 5.571 4.235
5.452 5.582 5.115
6.051 5.575 5.197
6.420 5.881 5.317
6.873 5.665 5.309
7.202 5.859 5.449
7.751 5.795 5.471
8.144 6.032 5.756
8.458 5.869 5.702
8.971 5.966 5.798
0.328 4.871 3.747
0.800 5.121 3.920
1.035 5.108 3.988
1.635 5.034 4.099
2.077 5.193 4.107
2.481 5.217 4.217
2.954 5.209 4.392
5.107 5.081 4.965
5.593 5.120 5.217
6.010 5.385 5.205
6.479 5.243 5.199
6.957 5.447 5.396
7.092 5.303 5.468
7.689 5.353 5.626
8.192 5.592 5.879
8.689 5.547 5.868
8.963 5.620 6.031
9.471 5.555 6.207
0.370 4.515 3.605
0.912 4.687 3.686
1.340 4.581 3.929
1.738 4.806 4.181
2.033 4.657 4.063
2.512 4.892 4.209
3.029 4.898 4.398
3.253 4.773 4.470
4.797 4.482 4.791
5.177 4.690 4.898
5.693 4.760 5.180
6.115 4.689 5.207
6.461 4.971 5.381
6.798 4.994 5.438
7.147 5.102 5.490
7.812 4.917 5.768
8.244 5.013 5.915
8.743 5.101 6.005
9.113 5.037 6.088
9.439 5.133 6.179
9.749 5.176 6.265
0.312 3.927 3.776
0.910 4.153 3.945
1.275 4.151 3.965
1.548 4.314 3.978
2.229 4.206 4.057
2.582 4.487 4.136
2.924 4.507 4.540
3.317 4.577 4.637
3.876 4.492 4.710
5.240 4.192 4.900
5.643 4.367 5.216
5.942 4.216 5.106
6.473 4.333 5.462
6.957 4.464 5.497
7.497 4.586 5.719
7.789 4.540 5.694
8.282 4.567 5.648
8.653 4.600 5.834
8.977 4.666 5.949
9.528 4.880 6.177
0.145 3.477 3.506
0.382 3.638 3.662
0.731 3.615 3.869
1.408 3.795 4.075
1.760 3.762 3.952
2.328 3.767 4.173
2.592 3.754 4.363
3.097 4.078 4.353
3.506 4.105 4.588
5.530 3.746 5.075
6.143 4.040 5.117
6.686 3.800 5.436
7.045 4.152 5.462
7.282 4.113 5.492
7.924 4.154 5.573
8.173 4.134 5.963
8.604 4.255 6.061
9.093 4.245 6.017
0.100 3.152 3.732
0.576 3.319 3.776
0.816 3.183 3.943
1.365 3.370 3.980
1.736 3.486 3.984
2.298 3.428 4.375
2.549 3.352 4.218
2.934 3.530 4.445
6.205 3.451 5.344
6.476 3.504 5.264
7.057 3.639 5.425
7.530 3.512 5.734
8.003 3.638 5.696
8.259 3.658 5.751
8.767 3.713 5.976
0.057 2.783 3.663
0.672 2.867 3.917
0.967 2.840 3.961
1.537 2.763 3.950
1.710 2.913 4.203
2.180 3.013 4.193
2.604 2.914 4.415
6.761 3.091 5.472
7.067 3.102 5.693
7.648 3.040 5.746
7.868 3.257 5.729
8.252 3.246 5.899
0.679 2.311 3.995
0.882 2.303 3.996
1.480 2.359 4.091
2.004 2.542 4.319
2.204 2.485 4.210
7.070 2.682 5.588
7.664 2.726 5.674
7.951 2.793 5.875
0.951 1.816 3.869
1.374 1.962 4.084
1.926 2.040 4.298
7.667 2.279 5.707
1.435 1.596 4.089
7.652 1.496 5.641
1.696 0.508 4.204
0.294 12.143 3.377
0.945 12.105 3.601
1.123 12.413 3.559
5.198 12.293 4.567
5.586 12.479 4.788
6.132 12.588 4.971
6.327 12.518 5.130
0.488 11.770 3.369
0.771 11.838 3.622
1.149 11.981 3.658
1.691 12.043 3.859
4.728 11.853 4.684
5.120 11.969 4.656
5.507 11.970 4.917
5.913 12.116 4.873
6.622 12.217 5.132
7.059 12.282 5.198
7.302 12.125 5.315
7.690 12.308 5.545
8.117 12.150 5.677
0.079 11.130 3.317
0.552 11.302 3.569
0.972 11.439 3.634
1.466 11.529 3.584
1.703 11.365 3.904
2.133 11.423 3.961
4.280 11.216 4.696
4.977 11.314 4.711
5.384 11.433 4.696
5.588 11.498 4.783
6.264 11.544 5.037
6.657 11.706 4.985
6.822 11.638 5.249
7.527 11.841 5.365
7.985 11.767 5.316
8.358 11.858 5.678
8.651 11.886 5.630
-0.009 10.771 3.554
0.390 10.860 3.471
0.827 10.888 3.580
1.266 10.889 3.635
1.957 10.968 4.008
2.200 11.068 3.987
2.816 11.211 4.234
3.938 10.975 4.379
4.527 10.810 4.691
4.921 11.123 4.779
5.318 11.048 4.713
5.851 11.033 5.061
6.121 11.114 4.928
6.503 11.335 4.992
6.924 11.226 5.180
7.477 11.300 5.239
7.936 11.396 5.562
8.206 11.396 5.673
8.868 11.467 5.683
9.242 11.600 5.762
0.141 10.482 3.546
0.493 10.417 3.464
1.048 10.336 3.673
1.345 10.555 3.714
1.722 10.628 4.024
2.421 10.520 3.980
2.816 10.559 4.164
3.051 10.721 4.300
4.403 10.331 4.723
4.852 10.458 4.632
5.467 10.685 4.751
5.768 10.704 5.045
6.293 10.704 5.119
6.767 10.681 5.311
7.096 10.680 5.262
7.457 10.912 5.265
7.970 11.056 5.637
8.455 10.844 5.732
8.648 11.089 5.797
0.187 9.995 3.543
0.518 9.901 3.515
1.003 10.168 3.651
1.375 10.114 3.956
1.777 10.011 4.014
2.185 10.283 3.961
2.663 10.355 4.212
5.081 10.040 4.752
5.457 9.977 4.918
5.784 10.270 4.974
6.207 10.131 5.033
6.577 10.414 5.317
6.993 10.472 5.249
7.638 10.439 5.569
8.069 10.349 5.396
8.467 10.515 5.620
0.118 9.322 3.436
0.736 9.628 3.760
1.066 9.573 3.581
1.423 9.535 3.878
1.926 9.752 4.077
2.310 9.605 4.163
5.608 9.754 4.984
5.997 9.797 4.964
6.368 9.871 5.029
6.653 9.964 5.113
7.128 9.884 5.392
7.634 9.929 5.342
7.900 10.168 5.685
0.197 8.949 3.428
0.589 9.099 3.613
1.082 9.089 3.761
1.498 9.150 3.973
2.013 9.156 4.079
5.838 9.166 4.971
6.411 9.412 5.006
6.805 9.522 5.146
7.162 9.586 5.217
7.620 9.534 5.535
0.340 8.690 3.664
0.894 8.702 3.554
1.105 8.803 3.858
1.580 8.674 3.997
6.277 8.939 5.068
6.959 8.898 5.322
7.213 8.978 5.481
0.395 8.277 3.633
0.919 8.268 3.613
1.093 8.179 3.743
6.977 8.504 5.200
0.853 7.608 3.652
6.496 8.141 4.761
7.079 8.143 4.963
7.512 8.040 5.160
0.479 7.284 3.319
0.892 7.298 3.361
1.604 7.351 3.505
6.318 7.346 4.671
6.711 7.640 4.824
7.071 7.740 5.006
7.551 7.637 5.071
7.867 7.768 5.194
0.086 6.582 3.130
0.675 6.842 3.277
0.944 6.874 3.422
1.415 6.981 3.510
2.059 7.019 3.612
6.415 6.923 4.791
6.614 7.197 5.001
7.142 7.289 4.945
7.601 7.102 4.956
8.008 7.248 5.238
0.349 6.210 3.149
0.702 6.253 3.227
0.986 6.287 3.463
1.452 6.456 3.367
2.032 6.613 3.752
5.927 6.529 4.792
6.251 6.637 4.713
6.708 6.821 4.843
7.190 6.565 5.052
7.545 6.815 4.975
7.979 6.782 5.113
8.509 6.945 5.401
0.458 5.961 3.305
0.621 5.910 3.180
1.042 5.988 3.251
1.511 5.976 3.600
1.977 5.897 3.715
2.366 5.963 3.589
5.478 6.008 4.581
5.825 6.059 4.553
6.275 6.216 4.663
6.920 6.122 4.756
7.154 6.282 5.055
7.588 6.324 5.267
8.159 6.374 5.337
8.678 6.567 5.378
9.106 6.614 5.627
0.355 5.417 3.334
0.762 5.567 3.292
1.368 5.550 3.408
1.763 5.461 3.577
2.198 5.649 3.586
2.578 5.611 3.857
2.993 5.597 3.767
4.771 5.457 4.286
5.018 5.598 4.359
5.575 5.719 4.710
6.089 5.765 4.769
6.364 5.808 4.945
6.888 5.878 4.849
7.444 5.709 5.169
7.868 5.757 5.114
8.329 6.039 5.288
8.521 6.000 5.252
9.170 6.167 5.482
9.431 5.997 5.521
9.871 6.009 5.855
0.486 4.882 3.091
0.748 4.863 3.214
1.155 4.981 3.498
1.660 5.248 3.458
2.038 5.124 3.777
2.427 5.338 3.845
3.069 5.414 4.037
3.494 5.192 3.918
3.772 5.298 4.197
4.216 5.065 4.220
4.737 5.202 4.252
5.353 5.004 4.431
5.646 5.052 4.547
6.200 5.304 4.825
6.427 5.373 4.712
6.803 5.340 4.988
7.340 5.372 4.935
7.771 5.570 5.281
8.372 5.537 5.465
8.672 5.556 5.527
9.025 5.593 5.386
9.616 5.717 5.555
9.995 5.584 5.865
10.344 5.910 5.746
-0.074 4.370 3.029
0.523 4.552 3.402
0.907 4.516 3.261
1.388 4.527 3.520
1.727 4.593 3.612
2.238 4.574 3.849
2.589 4.771 3.743
3.060 4.949 3.916
3.538 4.792 4.039
3.784 4.938 4.076
4.448 5.066 4.425
4.497 4.585 4.165
4.830 4.542 4.288
5.237 4.738 4.701
5.544 4.791 4.797
6.205 4.788 4.736
6.653 4.963 4.867
7.136 4.977 5.124
7.418 5.004 5.000
7.951 5.067 5.340
8.139 5.154 5.377
8.844 5.154 5.403
9.103 5.178 5.565
9.676 5.166 5.722
9.871 5.394 5.873
10.453 5.246 5.811
0.151 4.090 3.272
0.465 4.089 3.317
0.902 4.255 3.450
1.389 4.043 3.569
1.748 4.190 3.762
2.366 4.313 3.678
2.710 4.200 3.761
2.981 4.317 3.853
3.462 4.389 4.161
3.870 4.392 4.089
4.551 4.410 4.400
4.392 3.984 4.490
4.849 4.255 4.552
5.310 4.126 4.447
5.762 4.374 4.696
6.046 4.371 4.921
6.581 4.511 4.841
7.101 4.444 5.149
7.341 4.376 5.265
7.910 4.693 5.120
8.374 4.477 5.393
8.632 4.658 5.604
9.176 4.567 5.588
9.514 4.663 5.621
9.987 4.942 5.698
10.375 4.960 6.001
0.145 3.441 3.149
0.456 3.524 3.276
0.907 3.813 3.432
1.378 3.690 3.667
1.746 3.626 3.676
2.198 3.694 3.749
2.689 3.942 3.797
3.143 4.030 3.942
3.523 3.975 4.209
3.902 3.952 4.369
4.457 4.130 4.358
4.827 3.640 4.474
5.242 3.671 4.642
5.846 3.738 4.843
6.196 4.037 4.960
6.533 4.043 4.889
7.150 4.134 4.908
7.559 4.070 5.041
8.035 4.041 5.193
8.277 4.262 5.264
8.826 4.303 5.655
9.118 4.363 5.766
9.639 4.393 5.892
10.047 4.254 5.703
0.101 3.144 3.171
0.776 3.163 3.365
0.903 3.279 3.487
1.443 3.219 3.584
1.867 3.406 3.781
2.225 3.371 3.884
2.802 3.382 3.998
3.143 3.405 3.880
3.513 3.707 4.238
4.046 3.620 4.181
5.927 3.319 4.766
6.248 3.462 4.729
6.816 3.647 4.824
7.168 3.642 5.136
7.694 3.588 5.129
8.080 3.765 5.335
8.306 3.670 5.302
8.949 3.727 5.622
9.411 3.975 5.757
0.151 2.540 3.242
0.734 2.786 3.374
1.156 2.844 3.562
1.551 2.723 3.499
1.982 2.743 3.746
2.530 2.990 3.948
2.969 2.992 4.012
3.149 3.139 4.088
6.183 3.121 4.995
6.667 3.152 4.877
7.054 2.996 5.092
7.518 3.191 5.261
8.157 3.128 5.439
8.502 3.296 5.311
8.889 3.342 5.564
0.317 2.261 3.382
0.620 2.354 3.312
1.044 2.338 3.414
1.698 2.521 3.561
2.154 2.281 3.785
2.479 2.423 3.795
2.966 2.407 3.955
6.949 2.451 4.954
7.193 2.608 5.123
7.810 2.611 5.182
7.996 2.703 5.505
8.531 2.972 5.358
0.728 1.697 3.363
1.205 1.751 3.610
1.779 2.026 3.791
1.944 2.052 3.890
2.570 1.969 4.000
6.864 2.225 5.110
7.362 2.277 5.274
7.620 2.225 5.347
8.101 2.455 5.397
8.506 2.433 5.525
0.776 1.357 3.519
1.138 1.317 3.647
1.809 1.649 3.659
2.056 1.622 3.733
2.521 1.632 3.971
7.399 1.633 5.217
7.818 1.830 5.431
8.237 1.975 5.360
1.161 1.053 3.671
1.692 1.162 3.764
2.174 1.100 3.908
6.996 1.334 5.034
7.441 1.378 5.340
7.943 1.502 5.293
8.269 1.359 5.440
8.591 1.573 5.633
0.793 0.448 3.486
1.504 0.691 3.664
1.844 0.685 3.833
2.124 0.690 3.719
2.513 0.708 4.087
0.105 12.612 2.798
-0.024 12.127 2.743
0.523 12.167 3.069
0.899 12.270 3.031
1.198 12.338 3.128
1.755 12.406 3.325
4.899 12.175 4.093
5.151 12.265 4.378
5.612 12.468 4.349
6.198 12.367 4.465
6.715 12.548 4.698
6.940 12.634 4.678
0.250 11.662 2.770
0.457 11.745 2.967
0.855 11.928 3.026
1.526 11.912 3.174
1.925 11.972 3.242
2.130 11.839 3.496
4.013 11.675 4.057
4.377 11.787 3.971
4.831 11.907 4.250
5.459 11.744 4.296
5.615 11.998 4.473
6.043 11.975 4.655
6.731 12.152 4.725
7.134 12.156 4.641
7.549 12.290 4.811
7.873 12.247 5.043
8.285 12.197 5.173
8.646 12.375 5.207
9.189 12.392 5.322
0.034 11.220 2.877
0.459 11.193 3.097
0.976 11.436 3.197
1.382 11.364 3.398
1.817 11.597 3.257
2.348 11.373 3.393
2.874 11.414 3.601
3.208 11.623 3.808
3.675 11.198 3.783
4.124 11.134 4.078
4.581 11.457 4.131
5.074 11.360 4.303
5.239 11.410 4.226
5.943 11.524 4.350
6.269 11.658 4.658
6.765 11.738 4.815
7.232 11.538 4.819
7.594 11.714 4.916
7.998 11.862 5.132
8.238 11.905 5.158
8.697 11.807 5.381
9.124 11.952 5.301
9.617 11.953 5.466
0.245 10.687 3.044
0.792 10.892 2.998
1.070 10.821 3.216
1.467 10.806 3.223
1.928 10.907 3.311
2.395 11.017 3.678
2.901 11.187 3.538
3.323 11.122 3.717
3.650 11.274 3.876
3.844 10.655 3.786
4.092 10.924 3.969
4.543 10.945 4.219
4.933 10.844 4.413
5.497 10.884 4.471
5.732 11.143 4.362
6.235 11.198 4.747
6.736 11.161 4.588
7.105 11.303 4.905
7.509 11.134 4.806
8.086 11.290 4.972
8.345 11.258 5.282
8.929 11.607 5.416
9.305 11.658 5.241
9.700 11.581 5.538
0.388 10.475 2.999
0.608 10.356 3.227
1.220 10.412 3.111
1.405 10.589 3.435
2.042 10.612 3.601
2.373 10.721 3.467
2.741 10.642 3.553
3.411 10.880 3.922
3.611 10.819 4.044
3.793 10.356 3.901
4.193 10.264 4.053
4.637 10.576 4.119
4.934 10.379 4.263
5.560 10.649 4.298
5.775 10.505 4.559
6.392 10.759 4.734
6.750 10.844 4.707
7.041 10.636 4.919
7.470 10.815 5.094
8.073 10.840 4.953
8.428 10.878 5.072
8.915 11.142 5.166
9.422 10.966 5.570
9.773 11.265 5.487
0.304 9.916 3.179
0.809 9.797 3.226
1.127 9.910 3.239
1.463 10.154 3.304
2.134 10.213 3.614
2.362 10.191 3.534
2.912 10.348 3.570
3.317 10.334 3.823
3.732 10.235 3.993
4.086 9.899 4.228
4.686 10.117 4.294
5.085 9.966 4.293
5.459 10.079 4.481
6.067 10.190 4.676
6.250 10.091 4.805
6.882 10.338 4.923
7.378 10.480 4.803
7.564 10.391 4.872
8.073 10.296 5.065
8.424 10.396 5.142
9.044 10.697 5.295
9.405 10.774 5.403
0.368 9.393 3.132
0.643 9.450 3.201
1.265 9.703 3.362
1.703 9.772 3.298
2.189 9.823 3.641
2.482 9.751 3.744
2.823 9.918 3.891
3.333 9.976 3.779
5.109 9.508 4.208
5.652 9.769 4.410
6.082 9.722 4.531
6.403 9.870 4.659
6.841 9.744 4.945
7.357 9.742 4.817
7.792 9.999 4.981
8.205 10.056 5.023
8.580 10.150 5.297
0.559 8.889 3.009
0.720 9.193 3.187
1.183 9.134 3.412
1.585 9.213 3.565
1.985 9.175 3.413
2.447 9.307 3.727
5.578 9.208 4.515
5.920 9.308 4.537
6.586 9.202 4.706
6.754 9.400 4.814
7.408 9.481 4.924
7.709 9.448 4.941
8.213 9.458 5.313
0.031 8.441 3.053
0.366 8.549 3.195
0.940 8.659 3.107
1.220 8.553 3.279
1.756 8.752 3.437
2.111 8.776 3.603
6.072 8.919 4.545
6.644 8.992 4.824
6.813 9.073 4.702
7.528 9.151 4.928
7.828 9.119 5.043
-0.066 8.051 3.017
0.371 8.071 3.232
0.965 8.283 3.135
1.286 8.324 3.266
1.687 8.341 3.423
6.200 8.405 4.503
6.524 8.399 4.744
7.144 8.632 4.945
7.578 8.715 4.930
7.894 8.485 4.970
0.133 7.470 3.052
0.600 7.776 3.241
0.941 7.788 3.221
1.529 7.912 3.528
1.709 7.877 3.440
6.752 7.912 4.876
6.910 7.921 4.776
7.578 8.211 5.042
0.603 7.114 3.317
1.118 7.346 3.263
1.546 7.314 3.483
6.259 7.793 4.187
6.818 8.056 4.500
7.231 8.054 4.558
7.728 8.250 4.728
8.185 8.287 4.768
0.163 7.075 2.682
0.702 7.283 2.770
1.093 7.117 2.983
1.504 7.420 3.100
2.106 7.247 2.995
6.470 7.612 4.285
6.896 7.680 4.247
7.184 7.541 4.651
7.518 7.681 4.769
8.171 7.576 4.774
0.397 6.743 2.625
0.784 6.812 2.781
1.169 6.691 2.871
1.761 6.855 3.058
2.013 7.061 2.985
6.068 7.105 4.046
6.456 6.897 4.384
6.904 7.031 4.536
7.319 6.996 4.453
7.741 7.140 4.592
8.055 7.415 4.628
8.594 7.239 4.777
0.521 6.410 2.853
0.823 6.185 2.815
1.223 6.325 3.054
1.821 6.509 3.174
2.149 6.489 3.127
2.509 6.624 3.391
5.695 6.434 4.266
5.987 6.508 4.339
6.396 6.618 4.243
6.911 6.497 4.330
7.457 6.607 4.434
7.884 6.873 4.722
8.305 6.818 4.660
8.730 6.877 4.919
9.187 6.848 5.000
-0.134 5.916 2.717
0.593 5.811 2.695
0.755 5.779 2.763
1.217 5.828 3.047
1.802 6.025 3.153
2.073 6.159 3.077
2.496 5.992 3.422
3.166 6.096 3.552
5.206 6.042 3.929
5.664 5.896 4.086
6.120 6.126 4.370
6.416 6.056 4.215
6.855 6.251 4.397
7.358 6.305 4.545
7.941 6.419 4.591
8.083 6.334 4.746
8.651 6.406 5.054
9.013 6.352 4.945
9.496 6.496 5.052
0.170 5.300 2.656
0.385 5.302 2.806
0.879 5.540 2.995
1.495 5.395 2.883
1.722 5.394 3.034
2.097 5.499 3.304
2.790 5.765 3.289
3.207 5.594 3.400
3.644 5.628 3.498
4.438 5.500 3.672
4.700 5.598 3.928
5.201 5.584 4.063
5.722 5.489 4.319
6.058 5.707 4.310
6.514 5.626 4.528
6.857 5.720 4.658
7.549 5.917 4.590
7.883 5.933 4.756
8.292 6.086 4.797
8.650 5.959 5.116
9.205 6.023 5.135
9.736 6.065 5.212
9.893 6.057 5.285
10.503 6.296 5.296
-0.047 5.019 2.802
0.594 5.000 2.881
0.830 4.857 2.813
1.506 4.931 3.042
1.902 5.216 3.101
2.366 5.023 3.108
2.750 5.223 3.342
3.066 5.329 3.496
3.500 5.422 3.529
3.990 5.442 3.854
4.465 5.469 3.887
4.513 4.881 3.712
4.849 5.113 3.865
5.356 5.203 3.949
5.877 5.267 4.278
6.244 5.077 4.217
6.725 5.384 4.524
7.065 5.340 4.469
7.610 5.423 4.727
7.817 5.282 4.828
8.432 5.533 5.035
8.646 5.601 5.110
9.153 5.708 5.072
9.552 5.724 5.133
9.973 5.752 5.237
10.467 5.886 5.537
0.149 4.406 2.678
0.542 4.594 2.911
1.041 4.437 2.873
1.576 4.534 3.138
1.760 4.677 3.208
2.378 4.696 3.254
2.605 4.611 3.396
3.165 4.885 3.383
3.506 4.976 3.742
3.994 4.831 3.873
4.517 4.825 3.797
4.597 4.569 3.725
4.914 4.529 4.001
5.282 4.548 4.025
5.686 4.687 4.198
6.113 4.665 4.478
6.584 4.846 4.438
6.964 4.901 4.547
7.629 4.980 4.703
7.842 4.876 4.838
8.282 4.920 5.032
8.975 5.251 5.071
9.383 5.162 5.069
9.647 5.250 5.386
10.265 5.170 5.364
10.624 5.285 5.419
0.292 3.976 2.604
0.604 3.976 2.786
1.035 3.974 2.852
1.387 4.028 3.207
1.885 4.048 3.268
2.221 4.214 3.329
2.946 4.434 3.565
3.327 4.507 3.674
3.623 4.425 3.711
4.064 4.385 3.780
4.499 4.568 3.814
4.602 4.070 3.982
4.875 4.073 3.881
5.356 4.352 4.075
5.728 4.137 4.342
6.328 4.328 4.494
6.750 4.414 4.594
7.137 4.371 4.726
7.661 4.482 4.816
8.148 4.488 4.910
8.375 4.464 5.011
8.986 4.548 5.125
9.206 4.792 5.179
9.664 4.646 5.336
10.305 4.732 5.384
10.646 4.899 5.647
0.321 3.383 2.809
0.763 3.704 2.808
1.168 3.797 3.110
1.454 3.661 3.051
2.067 3.728 3.151
2.265 3.688 3.484
2.980 3.873 3.489
3.162 3.845 3.624
3.695 4.053 3.559
4.275 4.003 3.705
4.669 3.936 4.027
4.715 3.556 3.909
5.112 3.660 4.194
5.496 3.826 4.215
5.866 3.782 4.131
6.373 4.006 4.459
6.764 3.808 4.497
7.228 4.073 4.631
7.673 3.929 4.680
8.045 4.130 4.757
8.532 4.175 4.844
8.841 4.174 5.063
9.294 4.281 5.138
9.842 4.332 5.176
10.171 4.253 5.555
10.588 4.363 5.457
0.187 3.181 2.762
0.735 3.000 3.034
1.317 3.114 2.968
1.627 3.361 3.131
2.027 3.339 3.288
2.495 3.259 3.229
2.977 3.439 3.515
3.297 3.550 3.523
3.877 3.630 3.812
4.058 3.536 3.740
4.569 3.632 3.964
5.585 3.412 4.292
6.051 3.453 4.263
6.255 3.416 4.501
6.814 3.501 4.528
7.151 3.625 4.753
7.757 3.538 4.923
8.183 3.551 4.834
8.656 3.565 5.061
8.951 3.676 5.117
9.469 3.828 5.298
9.789 3.937 5.434
0.479 2.510 2.935
0.898 2.605 3.082
1.305 2.613 3.120
1.623 2.779 3.115
2.066 2.929 3.414
2.661 3.008 3.254
2.959 2.871 3.590
3.285 3.022 3.597
3.900 3.134 3.853
5.961 2.811 4.377
6.426 2.997 4.544
6.987 3.117 4.484
7.374 3.195 4.721
7.852 3.243 4.804
8.108 3.246 4.942
8.690 3.139 5.092
8.927 3.259 5.118
9.340 3.372 5.318
0.280 2.055 2.963
0.860 2.359 2.822
1.332 2.170 3.124
1.804 2.249 3.059
2.124 2.452 3.184
2.510 2.598 3.387
3.144 2.663 3.435
3.314 2.553 3.686
6.338 2.380 4.480
6.857 2.540 4.476
7.327 2.710 4.577
7.715 2.848 4.685
8.324 2.699 4.807
8.745 2.677 4.947
9.148 2.921 5.228
0.375 1.900 2.790
0.798 1.775 2.920
1.250 1.720 3.160
1.893 1.852 3.293
2.074 2.114 3.414
2.612 2.116 3.457
3.001 2.194 3.592
6.938 2.292 4.566
7.415 2.210 4.849
7.767 2.196 4.979
8.233 2.440 5.011
8.789 2.346 5.053
0.967 1.336 2.987
1.324 1.292 3.294
1.761 1.484 3.347
2.307 1.420 3.217
2.720 1.659 3.505
6.933 1.793 4.652
7.302 1.869 4.676
7.868 1.942 4.940
8.413 1.949 5.012
8.806 1.900 5.241
1.009 0.844 3.017
1.324 0.995 3.089
1.713 0.906 3.286
2.129 1.139 3.275
2.726 1.165 3.546
7.213 1.260 4.680
7.562 1.245 4.949
7.809 1.395 4.792
8.220 1.502 5.080
8.871 1.554 5.069
1.090 0.502 2.989
1.409 0.472 3.214
1.903 0.681 3.337
2.305 0.760 3.507
2.628 0.626 3.481
0.057 12.652 2.289
0.177 12.179 2.355
0.688 12.171 2.497
0.876 12.316 2.606
1.341 12.306 2.871
2.014 12.396 2.873
2.259 12.319 3.090
4.651 12.220 3.476
4.942 12.282 3.622
5.328 12.362 3.789
5.733 12.462 3.972
6.226 12.509 4.055
6.779 12.353 4.300
7.002 12.571 4.162
0.358 11.708 2.360
0.700 11.789 2.487
1.034 11.858 2.682
1.615 11.808 2.739
1.839 11.913 2.817
2.297 11.977 3.159
2.801 11.898 3.267
3.848 11.760 3.496
4.165 11.697 3.439
4.497 11.721 3.658
4.899 11.905 3.663
5.358 11.925 3.925
5.836 11.865 3.841
6.315 12.107 4.061
6.789 12.085 4.203
7.093 12.055 4.238
7.438 12.317 4.538
8.144 12.282 4.561
8.405 12.220 4.594
8.946 12.331 4.639
9.178 12.450 4.982
9.773 12.571 5.150
0.284 11.371 2.492
0.848 11.301 2.639
1.284 11.204 2.792
1.636 11.231 2.930
2.003 11.282 2.904
2.422 11.645 3.139
2.892 11.703 3.144
3.327 11.600 3.211
3.841 11.507 3.561
3.917 11.102 3.342
4.295 11.327 3.432
4.735 11.232 3.539
5.018 11.289 3.750
5.621 11.345 3.789
5.846 11.597 3.888
6.275 11.405 4.036
6.809 11.715 4.386
7.106 11.774 4.207
7.538 11.870 4.339
8.226 11.630 4.547
8.637 11.951 4.690
8.906 11.876 4.681
9.299 12.014 5.018
9.790 12.092 4.894
0.208 10.917 2.592
0.677 10.711 2.641
1.190 11.031 2.712
1.753 11.075 2.870
2.056 10.892 3.003
2.620 10.920 2.963
2.891 11.214 3.277
3.281 11.137 3.419
3.630 11.316 3.578
3.761 10.799 3.445
4.228 10.929 3.521
4.782 11.012 3.668
5.152 10.959 3.691
5.534 11.033 3.909
5.981 11.007 3.994
6.547 11.145 4.128
6.728 11.237 4.300
7.173 11.084 4.263
7.652 11.163 4.354
8.183 11.322 4.533
8.539 11.284 4.856
9.078 11.498 4.823
9.330 11.419 5.100
9.950 11.619 5.061
0.491 10.198 2.562
0.901 10.383 2.785
1.386 10.281 2.746
1.780 10.399 2.988
1.975 10.564 3.158
2.569 10.588 3.174
2.994 10.508 3.105
3.247 10.847 3.423
3.832 10.724 3.386
3.907 10.273 3.498
4.162 10.529 3.627
4.694 10.566 3.681
5.010 10.385 3.902
5.462 10.527 3.983
5.966 10.502 4.008
6.581 10.643 4.208
6.950 10.847 4.161
7.243 10.735 4.567
7.636 10.732 4.560
8.202 10.864 4.744
8.493 10.825 4.826
9.076 10.967 4.999
9.537 10.935 5.136
9.741 11.239 4.995
0.442 10.036 2.564
0.866 9.819 2.648
1.142 9.895 2.802
1.843 10.056 2.807
2.165 10.074 3.034
2.564 10.069 3.038
2.983 10.358 3.351
3.576 10.268 3.386
3.726 10.233 3.353
4.014 9.870 3.560
4.434 9.918 3.572
4.637 10.049 3.779
5.328 10.119 3.911
5.495 10.095 4.142
6.128 10.104 4.016
6.500 10.352 4.173
6.794 10.397 4.234
7.501 10.330 4.502
7.872 10.329 4.592
8.177 10.474 4.705
8.564 10.360 4.868
9.198 10.505 4.938
9.462 10.750 5.125
10.009 10.650 5.055
0.026 9.536 2.463
0.402 9.562 2.611
0.759 9.615 2.688
1.457 9.548 2.944
1.728 9.729 2.841
2.278 9.650 3.193
2.625 9.572 3.179
2.952 9.815 3.310
3.499 9.779 3.536
3.911 9.882 3.656
4.944 9.554 3.916
5.329 9.716 4.030
5.768 9.727 4.120
6.097 9.746 4.158
6.450 9.686 4.258
7.053 9.837 4.391
7.261 9.767 4.348
7.988 10.076 4.439
8.266 10.073 4.779
8.656 10.120 4.753
9.009 10.019 5.022
0.217 9.053 2.701
0.614 9.122 2.626
1.092 9.198 2.730
1.260 9.197 2.741
1.692 9.219 2.853
2.218 9.117 3.235
2.549 9.326 3.299
3.159 9.378 3.487
5.298 9.265 4.060
5.840 9.170 4.172
6.150 9.156 4.039
6.484 9.299 4.376
7.052 9.304 4.269
7.305 9.428 4.625
7.893 9.580 4.479
8.329 9.428 4.874
8.600 9.631 4.812
0.109 8.504 2.698
0.436 8.575 2.765
0.960 8.631 2.931
1.303 8.640 2.879
1.781 8.842 2.950
2.318 8.765 3.257
2.699 8.875 3.110
5.861 8.720 4.156
6.276 8.845 4.143
6.792 8.728 4.390
7.042 8.981 4.474
7.472 9.129 4.439
7.993 9.164 4.628
8.454 9.184 4.726
0.036 7.886 2.631
0.536 8.070 2.793
1.148 8.044 2.809
1.514 8.270 2.841
1.986 8.335 2.944
2.403 8.218 3.213
6.375 8.445 4.246
6.541 8.277 4.241
6.997 8.351 4.298
7.428 8.687 4.649
8.011 8.712 4.783
0.140 7.530 2.547
0.824 7.807 2.802
1.174 7.592 2.909
1.688 7.765 3.033
1.955 7.762 3.117
6.438 8.081 4.095
