6.219 7.082 10.678
5.734 7.165 10.471
5.223 7.283 10.353
3.844 8.024 9.938
3.412 7.992 9.869
2.747 8.142 9.757
2.271 8.178 9.449
1.812 8.210 9.355
1.319 8.214 9.193
0.880 8.341 8.984
0.376 8.454 8.864
9.743 7.144 11.764
9.348 7.156 11.677
8.824 7.203 11.565
8.267 7.348 11.375
7.706 7.366 11.249
7.363 7.512 10.964
6.770 7.421 10.843
6.365 7.639 10.679
5.744 7.665 10.525
3.290 8.440 9.913
2.844 8.669 9.840
2.295 8.735 9.709
1.790 8.747 9.476
1.321 8.804 9.395
0.934 8.941 9.137
0.402 8.967 8.994
9.318 7.721 11.708
8.853 7.696 11.634
8.329 7.846 11.474
7.859 7.963 11.307
7.311 7.905 11.193
6.773 7.956 10.921
6.425 8.133 10.892
2.850 9.081 9.935
2.374 9.231 9.610
2.016 9.261 9.482
1.383 9.342 9.317
1.004 9.278 9.242
8.906 8.185 11.584
8.392 8.322 11.470
7.881 8.465 11.419
7.348 8.430 11.144
6.807 8.562 10.998
2.388 9.591 9.682
1.972 9.710 9.636
1.450 9.821 9.571
8.350 8.847 11.530
8.000 8.821 11.363
7.348 8.941 11.219
2.113 10.359 9.762
8.045 9.440 11.586
2.599 10.734 10.011
2.145 10.789 9.857
1.573 10.857 9.684
8.530 9.964 11.747
7.936 9.957 11.708
7.479 9.977 11.549
0.525 0.074 7.925
0.135 0.144 7.732
3.530 0.183 8.936
3.039 0.208 8.661
2.550 0.268 8.552
2.109 0.254 8.534
1.609 0.464 8.308
1.186 0.444 8.126
0.709 0.540 7.960
0.242 0.702 7.826
4.137 0.663 9.093
3.640 0.654 8.984
3.193 0.771 8.878
2.673 0.699 8.725
2.177 0.879 8.621
1.697 0.944 8.432
1.148 0.970 8.144
0.737 1.097 8.111
0.102 1.096 7.833
8.161 0.096 10.351
7.549 0.091 10.154
7.096 0.179 10.077
6.577 0.152 9.922
6.147 0.269 9.758
5.578 0.360 9.536
5.143 0.478 9.360
4.721 0.446 9.316
4.138 0.513 9.189
3.700 1.191 8.964
3.129 1.249 8.999
2.672 1.371 8.739
2.218 1.449 8.511
1.702 1.493 8.446
1.166 1.549 8.355
0.769 1.654 8.154
0.163 1.562 8.007
9.600 0.245 10.918
9.118 0.377 10.824
8.765 0.425 10.596
8.180 0.614 10.382
7.706 0.530 10.234
7.128 0.672 10.100
6.732 0.763 9.959
6.141 0.895 9.772
5.796 0.944 9.652
5.107 0.999 9.494
4.711 1.047 9.408
3.356 1.761 8.939
2.811 1.905 8.907
2.262 1.831 8.604
1.806 2.002 8.525
1.287 1.961 8.481
0.748 2.001 8.199
0.349 2.194 8.094
9.176 0.899 10.736
8.698 0.919 10.752
8.294 0.963 10.435
7.636 1.064 10.401
7.210 1.250 10.214
6.814 1.203 10.016
6.154 1.300 9.889
5.707 1.358 9.713
5.248 1.396 9.568
2.845 2.385 9.016
2.369 2.413 8.852
1.874 2.520 8.722
1.413 2.486 8.552
0.817 2.570 8.410
0.409 2.732 8.141
8.695 1.552 10.708
8.214 1.532 10.527
7.865 1.664 10.510
7.310 1.782 10.339
6.731 1.746 10.195
6.257 1.838 9.913
5.767 1.859 9.772
2.441 2.960 8.914
1.837 2.981 8.718
1.294 2.966 8.593
0.802 3.215 8.465
0.356 3.144 8.206
8.364 2.115 10.693
7.732 2.189 10.461
7.309 2.263 10.402
6.880 2.366 10.275
6.427 2.343 10.050
1.843 3.474 8.787
1.415 3.561 8.578
0.978 3.617 8.505
7.929 2.694 10.512
7.342 2.665 10.478
6.850 2.785 10.297
1.504 4.104 8.703
7.346 3.171 10.444
2.067 4.104 8.397
1.617 4.140 8.269
1.043 4.287 8.019
8.176 3.324 10.198
7.611 3.351 10.119
7.091 3.388 9.964
2.604 4.546 8.592
2.085 4.534 8.405
1.687 4.592 8.264
1.106 4.759 8.078
0.705 4.843 8.045
8.542 3.793 10.473
8.047 3.815 10.308
7.557 3.763 10.155
7.182 3.988 9.894
6.595 4.067 9.849
2.798 4.991 8.781
2.280 5.049 8.519
1.642 5.178 8.484
1.256 5.247 8.339
0.823 5.259 8.134
8.684 4.274 10.607
8.128 4.379 10.395
7.618 4.432 10.303
7.155 4.380 10.139
6.657 4.541 9.937
3.227 5.501 8.905
2.756 5.546 8.741
2.267 5.690 8.528
1.662 5.655 8.479
1.312 5.707 8.356
0.765 5.894 8.229
0.246 5.958 8.032
9.204 4.678 10.655
8.617 4.652 10.687
8.126 4.859 10.463
7.649 4.789 10.284
7.273 5.015 10.216
6.747 5.001 9.941
6.176 5.052 9.883
4.201 5.847 9.377
3.744 6.004 9.136
3.234 5.903 9.014
2.900 6.079 8.811
2.308 6.152 8.807
1.750 6.194 8.476
1.214 6.262 8.497
0.883 6.385 8.285
0.296 6.485 8.181
10.287 5.046 11.070
9.789 5.109 11.052
9.316 5.270 10.890
8.708 5.147 10.583
8.162 5.217 10.496
7.723 5.463 10.465
7.367 5.400 10.247
6.772 5.584 10.011
6.225 5.669 9.866
5.832 5.559 9.668
5.329 5.747 9.539
4.736 6.405 9.609
4.288 6.343 9.313
3.872 6.364 9.310
3.393 6.589 9.020
2.775 6.561 9.001
2.367 6.690 8.815
1.921 6.709 8.638
1.274 6.781 8.409
0.955 6.775 8.245
0.430 6.932 8.246
10.332 5.479 11.236
9.758 5.541 11.020
9.272 5.775 10.820
8.797 5.697 10.814
8.324 5.912 10.577
7.815 5.979 10.392
7.342 5.880 10.354
6.836 6.037 10.191
6.237 6.093 10.062
5.758 6.085 9.939
5.265 6.247 9.641
4.827 6.245 9.636
4.819 6.741 9.572
4.331 6.904 9.385
3.894 7.062 9.279
3.405 7.126 9.173
2.956 7.149 9.024
2.312 7.181 8.845
1.947 7.287 8.792
1.499 7.235 8.525
0.848 7.286 8.337
0.451 7.443 8.283
10.387 6.156 11.380
9.775 6.064 11.145
9.281 6.206 10.898
8.833 6.251 10.905
8.433 6.320 10.766
7.827 6.402 10.600
7.402 6.388 10.304
6.828 6.451 10.216
6.408 6.677 10.106
5.945 6.597 9.840
5.417 6.802 9.871
4.976 6.903 9.713
4.893 7.338 9.706
4.412 7.466 9.528
3.841 7.445 9.323
3.483 7.478 9.201
2.926 7.596 9.129
2.418 7.724 9.013
1.942 7.754 8.865
1.498 7.799 8.662
1.054 7.882 8.526
0.384 8.019 8.445
10.396 6.653 11.472
9.839 6.616 11.210
9.391 6.782 11.008
8.804 6.792 11.015
8.389 6.852 10.831
7.882 7.022 10.541
7.417 6.976 10.465
6.838 7.120 10.345
6.409 7.038 10.118
5.976 7.181 10.111
5.392 7.306 9.833
4.846 7.319 9.710
4.429 7.936 9.744
3.885 7.942 9.539
3.502 8.099 9.259
3.012 8.147 9.199
2.508 8.267 9.099
1.975 8.282 8.817
1.494 8.399 8.819
1.089 8.353 8.663
0.548 8.567 8.432
-0.047 8.548 8.359
10.525 7.112 11.460
9.910 7.214 11.377
9.354 7.252 11.189
8.927 7.236 11.015
8.510 7.455 10.801
7.959 7.476 10.676
7.473 7.506 10.583
6.966 7.531 10.348
6.519 7.598 10.280
6.063 7.636 10.108
5.421 7.862 9.960
3.491 8.660 9.459
3.116 8.580 9.214
2.506 8.708 9.022
2.124 8.812 8.950
1.510 8.936 8.775
1.147 8.967 8.568
0.612 8.957 8.420
9.533 7.680 11.221
9.056 7.844 11.017
8.445 7.794 11.034
7.904 7.983 10.720
7.450 8.019 10.607
7.067 8.065 10.396
6.419 8.109 10.317
3.022 9.236 9.426
2.628 9.172 9.274
2.158 9.312 8.994
1.668 9.276 8.905
1.035 9.373 8.837
9.084 8.255 11.150
8.444 8.337 11.066
8.058 8.442 10.815
7.564 8.630 10.744
7.020 8.643 10.601
3.216 9.720 9.357
2.615 9.817 9.352
2.041 9.757 9.141
1.566 9.873 8.925
1.223 9.944 8.740
9.125 8.925 11.255
8.584 8.949 11.187
8.034 8.891 11.033
7.633 8.983 10.718
7.194 9.170 10.644
2.737 10.322 9.274
2.171 10.400 9.191
1.644 10.441 9.129
8.642 9.471 11.142
8.112 9.562 11.099
7.543 9.571 10.824
3.242 10.708 9.579
2.711 10.812 9.477
2.257 10.889 9.355
1.814 10.884 9.228
1.192 10.978 8.921
9.132 9.975 11.432
8.584 9.863 11.337
8.167 9.922 11.194
7.705 10.059 10.978
7.206 10.210 10.904
1.341 0.010 7.663
0.757 0.162 7.395
0.225 0.077 7.361
4.200 0.223 8.533
3.712 0.168 8.429
3.191 0.255 8.201
2.777 0.373 8.176
2.377 0.332 7.893
1.730 0.395 7.806
1.377 0.602 7.574
0.717 0.573 7.451
0.282 0.700 7.412
4.801 0.093 8.756
4.194 0.067 8.583
4.227 0.612 8.686
3.740 0.751 8.437
3.257 0.831 8.425
2.801 0.769 8.178
2.414 0.914 8.079
1.862 1.053 7.782
1.365 1.145 7.752
0.821 1.175 7.604
0.363 1.265 7.359
8.749 0.109 9.988
8.220 0.176 9.879
7.742 0.236 9.604
7.261 0.282 9.615
6.776 0.378 9.466
6.262 0.426 9.304
5.885 0.403 9.127
5.387 0.479 8.947
4.856 0.534 8.796
4.234 0.741 8.568
4.457 1.154 8.688
3.900 1.311 8.523
3.312 1.284 8.425
2.906 1.299 8.231
2.312 1.482 8.167
1.945 1.589 7.935
1.358 1.657 7.793
0.846 1.737 7.681
0.335 1.694 7.465
9.743 0.427 10.299
9.301 0.559 10.221
8.871 0.491 10.148
8.294 0.615 10.012
7.840 0.608 9.842
7.263 0.812 9.604
6.766 0.841 9.425
6.453 0.790 9.236
5.867 1.012 9.084
5.287 1.017 8.938
4.800 1.178 8.845
4.302 1.207 8.682
3.884 1.740 8.634
3.433 1.869 8.516
2.915 1.948 8.422
2.463 2.038 8.226
1.997 2.003 8.043
1.341 2.107 7.910
1.004 2.093 7.741
0.507 2.193 7.513
9.847 0.860 10.442
9.473 0.938 10.294
8.790 1.049 10.119
8.382 1.164 9.950
7.877 1.140 9.809
7.334 1.182 9.748
6.973 1.298 9.513
6.483 1.325 9.355
5.875 1.501 9.164
5.327 1.551 9.097
4.905 1.698 8.868
2.915 2.437 8.375
2.459 2.443 8.368
2.043 2.530 8.225
1.520 2.689 7.985
0.910 2.711 7.759
0.569 2.709 7.684
8.952 1.617 10.236
8.533 1.587 10.091
8.019 1.726 9.885
7.505 1.826 9.812
7.009 1.944 9.673
6.440 1.854 9.414
5.912 2.010 9.406
2.460 2.906 8.293
2.106 3.142 8.298
1.621 3.175 8.089
1.107 3.137 7.954
0.495 3.189 7.680
8.444 2.058 10.144
7.977 2.228 10.043
7.471 2.261 9.905
6.958 2.301 9.719
6.536 2.441 9.560
2.538 3.473 8.356
2.053 3.530 8.249
1.674 3.634 8.184
1.176 3.623 7.894
0.537 3.810 7.757
8.505 2.596 10.166
8.076 2.718 10.013
7.559 2.903 10.012
7.072 2.888 9.764
6.606 3.015 9.732
2.192 4.085 8.443
1.627 4.144 8.197
1.098 4.219 8.112
8.142 3.349 10.121
7.508 3.356 10.035
7.037 3.295 9.974
2.857 3.994 8.117
2.307 4.215 7.855
1.793 4.259 7.749
1.351 4.384 7.666
0.797 4.397 7.498
8.633 3.214 9.889
8.147 3.255 9.712
7.780 3.453 9.570
7.270 3.367 9.427
6.757 3.589 9.185
2.827 4.663 8.092
2.308 4.662 7.867
1.889 4.769 7.913
1.287 4.816 7.610
0.911 4.918 7.486
8.764 3.680 9.956
8.326 3.866 9.853
7.817 3.860 9.704
7.212 4.037 9.520
6.813 4.041 9.329
3.420 4.998 8.378
2.814 5.187 8.245
2.407 5.256 8.015
1.880 5.221 7.813
1.383 5.230 7.755
0.800 5.344 7.689
0.385 5.461 7.532
9.376 4.231 10.248
8.905 4.362 9.935
8.276 4.324 9.935
7.895 4.342 9.789
7.335 4.504 9.477
6.767 4.613 9.343
6.305 4.677 9.207
3.881 5.452 8.677
3.365 5.457 8.387
2.826 5.584 8.247
2.412 5.681 8.167
1.910 5.725 8.000
1.396 5.840 7.857
0.883 5.928 7.641
0.365 6.045 7.533
9.829 4.607 10.405
9.375 4.636 10.191
8.773 4.704 10.062
8.309 4.908 9.947
7.968 4.978 9.891
7.307 5.090 9.730
6.797 5.100 9.432
6.378 5.182 9.313
5.831 5.135 9.111
4.944 5.929 8.978
4.523 5.998 8.846
3.883 6.080 8.630
3.373 6.061 8.478
2.895 6.159 8.431
2.482 6.180 8.212
1.946 6.366 8.035
1.542 6.321 7.812
1.067 6.366 7.702
0.406 6.396 7.679
10.439 5.063 10.599
9.898 5.095 10.405
9.424 5.168 10.348
8.949 5.296 10.220
8.383 5.348 10.067
7.999 5.416 9.901
7.444 5.445 9.778
6.890 5.607 9.521
6.407 5.654 9.497
5.921 5.733 9.182
5.357 5.717 9.190
5.021 5.824 8.924
5.011 6.463 9.095
4.597 6.383 8.883
3.952 6.508 8.777
3.533 6.643 8.543
3.033 6.580 8.403
2.414 6.793 8.197
2.012 6.881 8.156
1.452 6.879 8.001
1.069 7.003 7.851
0.539 6.970 7.633
-0.006 7.017 7.635
10.377 5.587 10.791
10.007 5.612 10.527
9.427 5.798 10.433
9.065 5.876 10.322
8.430 5.870 10.057
8.059 6.057 9.927
7.496 6.047 9.811
6.973 6.106 9.665
6.451 6.145 9.584
5.890 6.244 9.398
5.488 6.236 9.253
4.925 6.420 9.139
5.015 6.916 9.127
4.543 6.895 8.987
3.951 7.067 8.740
3.507 7.103 8.776
3.094 7.159 8.470
2.609 7.309 8.370
1.965 7.351 8.246
1.612 7.330 8.047
1.035 7.439 7.996
0.633 7.458 7.789
-0.005 7.505 7.565
10.542 6.040 10.812
10.023 6.210 10.715
9.470 6.321 10.471
9.065 6.390 10.416
8.461 6.343 10.272
8.032 6.550 10.109
7.443 6.457 9.875
7.022 6.676 9.738
6.604 6.631 9.541
5.934 6.738 9.454
5.493 6.867 9.346
5.000 6.981 9.110
5.145 7.424 9.262
4.590 7.385 9.129
4.161 7.520 8.894
3.498 7.553 8.857
3.068 7.627 8.617
2.692 7.790 8.383
2.093 7.800 8.267
1.516 7.924 8.118
1.047 7.960 7.939
0.687 8.089 7.871
0.117 8.157 7.681
10.560 6.546 10.981
10.054 6.717 10.799
9.637 6.817 10.533
9.120 6.852 10.343
8.479 7.001 10.341
8.071 6.941 10.212
7.544 6.978 9.918
7.060 7.195 9.806
6.598 7.155 9.763
6.069 7.326 9.487
5.620 7.340 9.465
5.183 7.492 9.310
5.206 7.913 9.294
4.734 7.978 9.199
4.107 7.977 8.978
3.704 8.198 8.907
3.133 8.125 8.720
2.698 8.319 8.606
2.216 8.363 8.329
1.573 8.477 8.213
1.120 8.465 8.026
0.713 8.571 7.915
0.202 8.533 7.785
10.579 7.065 10.961
10.085 7.181 10.720
9.600 7.303 10.635
9.200 7.327 10.526
8.545 7.435 10.302
8.150 7.565 10.114
7.674 7.611 9.998
7.186 7.650 9.938
6.551 7.799 9.759
6.224 7.872 9.507
5.698 7.771 9.372
5.064 7.825 9.342
4.223 8.574 9.175
3.657 8.661 9.026
3.122 8.791 8.742
2.678 8.772 8.660
2.287 8.834 8.484
1.797 8.946 8.367
1.193 9.083 8.170
0.704 9.118 7.974
0.277 9.179 7.871
10.173 7.693 10.805
9.662 7.860 10.736
9.210 7.887 10.571
8.742 7.892 10.435
8.197 7.998 10.327
7.611 8.043 10.127
7.067 8.196 10.011
6.721 8.128 9.904
6.260 8.327 9.600
3.665 9.069 9.056
3.289 9.243 8.880
2.810 9.329 8.777
2.170 9.288 8.506
1.723 9.438 8.368
1.203 9.534 8.262
0.683 9.542 8.158
9.670 8.313 10.750
9.243 8.482 10.624
8.732 8.414 10.522
8.168 8.526 10.279
7.656 8.510 10.129
7.310 8.635 10.041
6.719 8.663 9.890
3.348 9.755 8.864
2.848 9.733 8.865
2.306 9.782 8.599
1.784 10.001 8.522
1.267 9.963 8.366
9.278 8.828 10.795
8.738 8.903 10.613
8.332 9.027 10.444
7.768 9.117 10.396
7.349 9.287 10.205
3.319 10.276 8.935
2.761 10.426 8.921
2.343 10.380 8.779
1.838 10.470 8.576
1.325 10.547 8.451
9.352 9.341 10.851
8.894 9.560 10.660
8.394 9.542 10.477
7.728 9.723 10.407
7.347 9.654 10.201
3.391 10.852 9.082
2.831 10.762 8.884
2.454 10.875 8.706
1.858 11.040 8.595
1.470 10.950 8.477
9.332 9.992 11.006
8.897 9.934 10.753
8.291 10.092 10.694
7.925 10.096 10.403
7.407 10.275 10.252
1.811 0.109 7.277
1.440 0.077 6.982
0.818 0.150 6.993
0.460 0.273 6.792
4.409 0.195 8.021
3.890 0.244 7.867
3.423 0.262 7.822
2.876 0.427 7.516
2.459 0.390 7.374
2.027 0.497 7.221
1.436 0.604 7.196
1.007 0.699 7.026
0.503 0.746 6.849
5.365 0.121 8.460
4.976 0.130 8.197
4.472 0.219 8.102
4.476 0.782 8.186
3.986 0.696 7.907
3.405 0.873 7.792
3.030 0.891 7.667
2.400 1.014 7.615
2.003 1.117 7.334
1.523 1.146 7.171
0.947 1.152 7.097
0.568 1.289 6.906
0.001 1.258 6.868
9.388 0.038 9.716
8.988 0.067 9.592
8.510 0.111 9.357
7.890 0.194 9.288
7.523 0.345 8.970
7.045 0.408 8.916
6.465 0.452 8.808
5.976 0.474 8.580
5.455 0.652 8.371
5.071 0.700 8.282
4.482 0.697 8.114
4.627 1.309 8.184
3.976 1.214 8.126
3.549 1.383 7.872
3.124 1.503 7.772
2.446 1.413 7.605
2.016 1.547 7.408
1.584 1.692 7.287
1.139 1.805 7.222
0.600 1.720 7.012
0.102 1.761 6.937
10.030 0.390 9.921
9.491 0.591 9.838
9.002 0.693 9.673
8.435 0.720 9.430
8.009 0.699 9.262
7.578 0.804 9.183
7.056 0.808 8.937
6.585 0.907 8.786
6.116 0.944 8.641
5.448 1.134 8.515
4.928 1.222 8.456
4.597 1.206 8.204
4.572 1.816 8.306
4.093 1.854 8.167
3.580 1.929 8.006
3.136 1.977 7.859
2.630 1.932 7.739
2.049 2.179 7.539
1.597 2.072 7.455
1.055 2.278 7.267
0.625 2.376 7.191
0.177 2.317 6.988
10.006 0.888 9.971
9.579 1.052 9.770
9.014 1.204 9.705
8.644 1.204 9.449
8.014 1.242 9.370
7.649 1.405 9.197
7.025 1.400 9.144
6.522 1.564 8.974
6.090 1.434 8.804
5.644 1.663 8.576
5.004 1.753 8.527
4.668 1.754 8.213
3.623 2.381 8.155
3.171 2.402 8.007
2.579 2.447 7.694
2.229 2.621 7.609
1.649 2.702 7.484
1.244 2.680 7.398
0.639 2.725 7.266
0.151 2.800 7.121
9.622 1.631 10.002
9.087 1.679 9.839
8.569 1.609 9.671
8.155 1.678 9.498
7.585 1.925 9.334
7.188 2.004 9.190
6.576 2.049 8.936
6.128 2.133 8.905
5.631 2.078 8.779
3.109 3.048 8.020
2.654 3.118 7.775
2.173 3.127 7.623
1.713 3.274 7.523
1.171 3.178 7.410
0.771 3.350 7.315
0.157 3.478 7.022
9.157 2.141 9.767
8.646 2.307 9.647
8.153 2.213 9.486
7.675 2.434 9.364
7.065 2.431 9.327
6.707 2.449 8.989
6.168 2.482 8.921
2.804 3.539 7.855
2.182 3.670 7.784
1.703 3.682 7.696
1.319 3.751 7.577
0.774 3.765 7.274
8.735 2.683 9.718
8.101 2.885 9.532
7.628 2.855 9.545
7.140 2.972 9.395
6.720 2.939 9.170
2.686 4.051 8.011
2.305 4.125 7.857
1.760 4.257 7.682
1.247 4.356 7.549
0.784 4.428 7.479
8.659 3.263 9.888
8.235 3.235 9.773
7.757 3.373 9.485
7.279 3.541 9.416
6.810 3.519 9.257
2.347 4.133 7.327
1.937 4.289 7.151
1.349 4.414 7.039
8.449 3.291 9.168
7.842 3.513 8.975
7.398 3.521 8.811
3.008 4.561 7.637
2.406 4.808 7.535
1.957 4.861 7.246
1.474 4.907 7.083
0.910 5.029 7.100
8.903 3.866 9.526
8.450 3.953 9.221
7.901 3.959 9.225
7.405 4.042 8.987
7.052 4.097 8.891
3.054 5.138 7.779
2.549 5.332 7.555
2.011 5.394 7.457
1.498 5.303 7.210
1.023 5.536 7.146
9.076 4.291 9.544
8.453 4.312 9.391
7.941 4.492 9.149
7.517 4.625 9.047
6.998 4.674 8.986
3.613 5.632 8.007
3.042 5.744 7.832
2.488 5.848 7.555
1.990 5.821 7.473
1.633 5.867 7.258
1.041 5.869 7.203
0.547 6.027 6.966
9.429 4.822 9.819
8.939 4.813 9.676
8.455 4.987 9.486
8.111 5.091 9.285
7.624 5.147 9.150
7.063 5.101 8.914
6.630 5.140 8.918
4.707 5.925 8.388
4.104 6.001 8.131
3.703 6.107 7.992
3.077 6.247 7.823
2.556 6.230 7.623
2.047 6.310 7.642
1.668 6.418 7.422
1.186 6.402 7.185
0.738 6.449 7.172
0.206 6.688 6.907
10.509 5.150 10.047
10.049 5.239 9.958
9.587 5.278 9.911
9.080 5.399 9.711
8.551 5.532 9.502
8.014 5.438 9.421
7.509 5.523 9.311
7.062 5.580 9.109
6.615 5.704 8.944
6.131 5.837 8.710
5.562 5.769 8.624
5.089 6.539 8.521
4.623 6.479 8.434
4.253 6.491 8.202
3.705 6.561 8.077
3.100 6.814 7.934
2.686 6.696 7.730
2.197 6.847 7.558
1.773 6.841 7.530
1.137 7.041 7.350
0.595 7.104 7.256
0.127 7.107 7.068
10.672 5.716 10.240
10.102 5.756 10.036
9.712 5.852 9.991
9.051 5.795 9.687
8.713 5.955 9.702
8.154 5.933 9.382
7.590 6.064 9.327
7.108 6.154 9.120
6.709 6.149 8.953
6.212 6.387 8.774
5.650 6.284 8.703
5.194 6.494 8.532
5.282 7.001 8.572
4.684 6.958 8.577
4.108 7.072 8.424
3.625 7.133 8.132
3.217 7.329 8.070
2.718 7.223 7.864
2.274 7.466 7.683
1.765 7.501 7.512
1.153 7.501 7.399
0.740 7.591 7.185
0.241 7.559 7.176
10.714 6.256 10.347
10.168 6.236 10.110
9.762 6.328 9.953
9.078 6.402 9.821
8.584 6.510 9.751
8.168 6.452 9.636
7.701 6.647 9.483
7.116 6.678 9.160
6.713 6.671 9.060
6.153 6.890 8.932
5.707 6.803 8.761
5.291 6.859 8.542
5.153 7.557 8.684
4.709 7.511 8.573
4.177 7.676 8.431
3.785 7.603 8.178
3.203 7.675 8.033
2.852 7.749 7.973
2.210 7.888 7.814
1.805 7.916 7.704
1.243 8.122 7.517
0.770 8.132 7.412
0.364 8.133 7.298
10.661 6.718 10.338
10.125 6.700 10.305
9.666 6.868 10.122
9.281 7.007 10.034
8.723 6.897 9.735
8.126 7.066 9.705
7.762 7.093 9.534
7.226 7.288 9.407
6.744 7.270 9.267
6.139 7.364 9.005
5.703 7.339 8.821
5.162 7.385 8.737
4.801 7.979 8.562
4.233 8.047 8.576
3.891 8.217 8.394
3.250 8.198 8.206
2.771 8.295 8.066
2.347 8.348 7.995
1.747 8.468 7.667
1.394 8.621 7.528
0.834 8.614 7.539
0.317 8.760 7.233
10.845 7.254 10.534
10.340 7.360 10.392
9.793 7.429 10.250
9.165 7.458 9.939
8.724 7.529 9.852
8.274 7.500 9.674
7.825 7.644 9.494
7.247 7.799 9.497
6.790 7.827 9.197
6.254 7.808 9.135
5.704 7.917 8.977
3.785 8.685 8.370
3.424 8.767 8.301
2.804 8.812 8.200
2.322 8.884 7.921
1.881 8.958 7.906
1.308 9.128 7.753
0.888 9.141 7.562
9.882 7.831 10.202
9.315 7.960 10.021
8.724 8.013 9.931
8.326 8.102 9.873
7.791 8.214 9.651
7.308 8.196 9.497
6.891 8.333 9.348
3.326 9.258 8.393
2.908 9.288 8.118
2.417 9.359 8.114
1.886 9.456 7.964
1.332 9.586 7.726
9.430 8.404 10.132
8.779 8.560 9.960
8.376 8.561 9.946
7.926 8.767 9.769
7.432 8.661 9.583
3.478 9.846 8.404
3.009 9.831 8.375
2.411 9.983 8.109
1.865 10.110 8.086
1.450 10.151 7.836
9.334 8.993 10.250
8.940 9.072 10.191
8.477 9.156 10.011
7.953 9.192 9.719
7.390 9.312 9.573
2.919 10.412 8.344
2.561 10.441 8.213
1.906 10.503 8.158
8.872 9.471 10.130
8.388 9.638 10.101
7.943 9.730 9.854
3.562 10.833 8.587
3.005 10.868 8.445
2.467 11.006 8.290
2.090 10.968 8.257
1.462 11.053 8.076
9.466 9.930 10.409
8.914 10.133 10.274
8.471 10.237 10.067
7.968 10.146 9.962
7.610 10.254 9.771
2.562 0.090 6.967
2.161 -0.005 6.664
1.633 0.234 6.504
1.126 0.294 6.409
0.483 0.270 6.248
0.131 0.323 6.133
4.531 0.239 7.494
4.037 0.267 7.437
3.670 0.410 7.216
3.146 0.562 7.169
2.696 0.626 7.046
2.075 0.667 6.876
1.699 0.652 6.710
1.116 0.716 6.565
0.604 0.886 6.304
0.086 0.896 6.208
5.987 0.146 8.040
5.627 0.077 7.867
5.108 0.276 7.750
4.661 0.201 7.533
4.660 0.751 7.703
4.147 0.900 7.474
3.685 0.984 7.287
3.205 1.019 7.116
2.556 1.138 7.138
2.260 1.184 6.963
1.661 1.229 6.782
1.091 1.274 6.632
0.613 1.306 6.538
0.221 1.420 6.279
10.073 0.018 9.242
9.582 0.168 9.094
9.153 0.211 8.949
8.666 0.310 8.852
8.137 0.372 8.664
7.605 0.448 8.457
7.188 0.511 8.375
6.561 0.420 8.194
6.130 0.517 8.093
5.684 0.664 8.020
5.076 0.748 7.825
4.701 0.792 7.723
4.601 1.250 7.817
4.279 1.327 7.621
3.697 1.451 7.512
3.122 1.589 7.255
2.625 1.613 7.094
2.219 1.558 6.905
1.619 1.699 6.742
1.311 1.706 6.703
0.807 1.894 6.590
0.127 1.967 6.349
10.177 0.617 9.379
9.593 0.599 9.195
9.072 0.656 9.048
8.568 0.724 9.022
8.168 0.763 8.842
7.751 0.889 8.663
7.079 0.926 8.531
6.713 1.093 8.298
6.176 1.070 8.124
5.671 1.244 7.990
5.094 1.287 7.868
4.604 1.340 7.654
4.234 1.934 7.597
3.739 1.940 7.511
3.153 2.023 7.436
2.732 2.171 7.145
2.249 2.233 7.104
1.789 2.153 6.976
1.233 2.390 6.669
0.672 2.352 6.574
0.360 2.393 6.497
10.175 0.994 9.391
9.605 1.104 9.341
9.163 1.277 9.216
8.637 1.161 9.036
8.116 1.341 8.781
7.623 1.331 8.677
7.273 1.525 8.579
6.789 1.597 8.427
6.226 1.565 8.279
5.657 1.760 8.120
5.209 1.671 7.916
3.266 2.555 7.498
2.836 2.540 7.300
2.273 2.730 7.216
1.806 2.777 7.006
1.209 2.764 6.805
0.734 2.922 6.720
0.368 3.007 6.444
9.263 1.785 9.279
8.733 1.714 9.137
8.307 1.748 8.981
7.661 1.979 8.727
7.337 2.040 8.721
6.719 2.090 8.427
6.198 2.177 8.406
2.744 3.031 7.363
2.309 3.237 7.249
1.804 3.237 7.130
1.273 3.417 6.833
0.858 3.401 6.741
8.770 2.353 9.158
8.347 2.264 8.985
7.780 2.328 8.901
7.345 2.469 8.704
6.889 2.502 8.524
2.949 3.598 7.557
2.463 3.758 7.288
1.914 3.840 7.173
1.324 3.854 7.022
0.945 3.827 6.772
8.860 2.776 9.222
8.396 2.951 9.036
7.917 2.878 8.964
7.351 2.931 8.759
6.905 3.120 8.726
2.497 4.307 7.404
1.984 4.339 7.193
1.449 4.291 7.163
8.445 3.303 9.295
7.819 3.500 9.102
7.469 3.582 8.907
2.089 4.263 6.702
8.091 3.547 8.535
2.688 4.863 7.060
2.157 4.913 6.921
1.641 5.025 6.763
8.664 3.866 8.868
8.128 4.129 8.619
7.707 4.155 8.511
3.115 5.178 7.185
2.790 5.208 7.159
2.146 5.324 6.958
1.775 5.493 6.698
1.168 5.534 6.558
9.115 4.407 9.017
8.651 4.576 8.905
8.063 4.575 8.823
7.561 4.688 8.487
7.217 4.653 8.512
3.753 5.610 7.454
3.230 5.753 7.209
2.743 5.777 7.130
2.174 5.901 6.899
1.666 5.921 6.764
1.283 6.063 6.666
0.692 6.167 6.578
9.716 4.869 9.241
9.291 4.922 9.097
8.751 4.959 8.987
8.105 5.142 8.896
7.785 5.225 8.721
7.219 5.191 8.596
6.709 5.276 8.398
4.323 6.221 7.779
3.697 6.270 7.617
3.286 6.167 7.406
2.872 6.319 7.305
2.230 6.310 7.082
1.788 6.461 6.836
1.235 6.537 6.742
0.774 6.584 6.641
0.352 6.648 6.488
10.247 5.268 9.506
9.643 5.367 9.415
9.208 5.469 9.115
8.823 5.475 9.036
8.241 5.642 8.930
7.659 5.709 8.715
7.282 5.667 8.562
6.771 5.873 8.532
6.331 5.771 8.209
4.721 6.544 7.953
4.397 6.591 7.745
3.860 6.753 7.515
3.346 6.743 7.477
2.766 6.890 7.229
2.431 6.886 7.087
1.741 7.015 6.911
1.352 7.005 6.808
0.845 7.155 6.667
0.331 7.247 6.622
10.775 5.780 9.741
10.322 5.740 9.653
9.844 5.787 9.484
9.384 6.014 9.328
8.797 6.119 9.092
8.373 6.072 9.070
7.892 6.163 8.844
7.273 6.281 8.726
6.832 6.337 8.585
6.353 6.431 8.438
5.809 6.450 8.216
5.370 7.101 8.140
4.803 7.135 7.956
4.407 7.215 7.914
3.953 7.176 7.626
3.458 7.216 7.605
2.850 7.431 7.395
2.411 7.520 7.220
1.828 7.527 7.180
1.414 7.516 6.941
0.807 7.659 6.828
0.414 7.791 6.645
10.887 6.169 9.911
10.402 6.428 9.574
9.907 6.471 9.481
9.411 6.498 9.438
8.807 6.558 9.163
8.244 6.607 9.024
7.786 6.724 8.817
7.348 6.664 8.736
6.939 6.735 8.512
6.258 6.962 8.500
5.936 6.854 8.209
5.392 7.029 8.053
4.950 7.583 8.084
4.408 7.722 7.919
3.993 7.840 7.773
3.335 7.751 7.699
2.932 7.836 7.416
2.440 7.971 7.272
1.933 8.042 7.257
1.388 8.124 7.051
0.851 8.180 6.898
0.402 8.283 6.780
10.849 6.823 9.905
10.451 6.910 9.678
9.898 6.917 9.589
9.440 6.913 9.436
8.855 7.142 9.208
8.416 7.052 9.199
7.920 7.251 8.987
7.301 7.194 8.761
6.827 7.311 8.716
6.366 7.418 8.631
5.972 7.427 8.408
4.466 8.222 7.985
3.939 8.251 7.769
3.500 8.235 7.797
3.020 8.456 7.492
2.387 8.443 7.469
2.014 8.634 7.229
1.471 8.621 7.025
1.000 8.769 6.967
0.550 8.791 6.744
10.452 7.410 9.757
9.978 7.438 9.771
9.425 7.517 9.534
8.832 7.474 9.326
8.389 7.564 9.158
7.836 7.800 9.152
7.467 7.793 8.943
6.844 7.886 8.676
6.432 7.978 8.586
4.002 8.826 7.865
3.567 8.828 7.859
3.097 8.928 7.576
2.539 8.982 7.503
1.962 9.066 7.364
1.601 9.162 7.187
0.940 9.281 6.944
9.941 7.939 9.663
9.493 7.962 9.701
9.033 8.089 9.422
8.437 8.072 9.203
8.059 8.269 9.187
7.470 8.348 9.053
6.925 8.292 8.781
3.465 9.370 7.771
3.143 9.336 7.632
2.591 9.464 7.502
1.991 9.612 7.442
1.585 9.606 7.284
9.476 8.547 9.631
8.947 8.623 9.581
8.540 8.764 9.329
7.974 8.657 9.158
7.504 8.855 9.051
3.098 9.887 7.727
2.535 9.932 7.655
2.023 10.002 7.418
9.155 9.133 9.604
8.539 9.193 9.547
8.070 9.188 9.307
2.740 10.601 7.800
8.609 9.598 9.639
3.150 10.916 7.934
2.619 11.027 7.825
2.175 11.027 7.671
9.194 10.186 9.725
8.636 10.172 9.643
8.230 10.363 9.525
3.221 0.019 6.519
2.645 0.095 6.468
2.202 0.152 6.223
1.774 0.314 6.173
1.256 0.361 6.010
0.722 0.389 5.684
0.328 0.353 5.538
4.194 0.479 6.936
3.689 0.501 6.729
3.310 0.527 6.686
2.849 0.628 6.395
2.207 0.710 6.337
1.771 0.802 6.239
1.194 0.905 6.005
0.862 0.858 5.934
0.242 0.892 5.729
6.784 0.013 7.641
6.246 0.136 7.528
5.714 0.117 7.353
5.153 0.251 7.298
4.722 0.917 7.193
4.344 1.005 6.987
3.830 0.969 6.836
3.260 1.121 6.716
2.741 1.099 6.611
2.390 1.228 6.357
1.840 1.176 6.302
1.282 1.357 6.170
0.906 1.345 6.040
0.340 1.538 5.703
10.258 0.148 8.841
9.804 0.237 8.704
9.176 0.221 8.452
8.793 0.195 8.423
8.215 0.284 8.287
7.703 0.365 8.067
7.203 0.466 7.891
6.703 0.596 7.724
6.389 0.623 7.701
5.879 0.724 7.359
5.343 0.773 7.293
4.740 0.813 7.216
4.361 1.351 7.124
3.793 1.494 6.859
3.270 1.545 6.850
2.909 1.652 6.688
2.326 1.732 6.554
1.948 1.809 6.358
1.422 1.826 6.093
0.851 1.894 6.052
0.359 2.012 5.969
10.291 0.560 8.947
9.871 0.687 8.700
9.361 0.638 8.501
8.768 0.881 8.432
8.226 0.799 8.367
7.876 0.985 8.130
7.418 1.076 8.025
6.930 1.012 7.790
6.268 1.116 7.647
5.742 1.200 7.579
5.384 1.199 7.486
3.852 2.064 6.988
3.332 1.994 6.792
2.821 2.101 6.648
2.468 2.205 6.542
1.897 2.257 6.319
1.358 2.299 6.218
0.876 2.410 6.114
0.385 2.395 6.049
9.936 1.119 8.770
9.302 1.301 8.637
8.784 1.263 8.565
8.328 1.313 8.391
7.931 1.410 8.209
7.338 1.456 8.137
6.866 1.500 8.021
6.328 1.690 7.788
5.863 1.666 7.542
3.352 2.686 6.904
3.006 2.714 6.759
2.393 2.788 6.666
2.014 2.732 6.458
1.516 2.818 6.364
1.040 2.876 6.141
0.442 2.979 5.952
9.504 1.670 8.793
8.960 1.847 8.574
8.343 1.853 8.378
7.884 1.925 8.355
7.377 1.965 8.186
6.830 2.148 8.076
6.527 2.257 7.757
3.064 3.109 6.948
2.593 3.340 6.740
2.090 3.384 6.573
1.590 3.429 6.386
1.068 3.544 6.291
8.998 2.442 8.650
8.406 2.353 8.516
7.930 2.544 8.346
7.476 2.557 8.157
6.886 2.586 8.184
2.556 3.813 6.811
1.962 3.751 6.567
1.523 3.882 6.430
8.540 2.998 8.570
8.067 2.918 8.559
7.499 2.996 8.372
2.147 4.433 6.654
8.038 3.443 8.568
2.375 5.376 6.384
8.287 4.584 8.321
3.492 5.892 6.895
2.942 5.826 6.710
2.348 5.940 6.558
1.909 6.083 6.271
1.366 6.001 6.200
9.363 5.076 8.614
8.765 5.153 8.467
8.330 5.043 8.271
7.824 5.208 8.238
7.294 5.272 8.039
3.874 6.185 7.001
3.518 6.375 6.887
2.848 6.305 6.688
2.534 6.439 6.677
1.898 6.490 6.450
1.533 6.629 6.328
0.975 6.677 6.056
9.909 5.485 8.917
9.465 5.440 8.621
8.963 5.551 8.615
8.487 5.585 8.424
7.825 5.796 8.144
7.379 5.838 8.169
6.829 5.766 7.902
3.991 6.775 7.084
3.586 6.881 6.928
2.976 6.887 6.722
2.512 7.052 6.620
1.938 7.030 6.488
1.549 7.156 6.431
1.005 7.128 6.258
9.899 5.998 8.941
9.505 6.047 8.759
9.026 6.151 8.611
8.414 6.111 8.545
8.005 6.187 8.387
7.514 6.314 8.199
6.873 6.428 7.925
4.625 7.299 7.411
4.092 7.360 7.248
3.456 7.284 7.121
3.064 7.468 6.933
2.557 7.432 6.758
2.037 7.503 6.668
1.470 7.665 6.428
1.150 7.758 6.304
0.524 7.791 6.083
10.401 6.392 9.230
9.913 6.426 9.043
9.497 6.446 8.789
8.956 6.654 8.761
8.549 6.673 8.518
7.953 6.817 8.327
7.505 6.713 8.268
7.025 6.853 8.206
6.495 6.855 8.002
4.170 7.801 7.291
3.529 7.902 7.171
3.024 7.871 6.974
2.660 7.978 6.835
2.171 8.147 6.641
1.604 8.229 6.434
1.073 8.143 6.451
10.095 7.027 9.097
9.538 6.955 8.887
8.991 7.126 8.711
8.601 7.212 8.619
8.068 7.158 8.539
7.463 7.247 8.425
6.979 7.330 8.094
4.204 8.243 7.346
3.706 8.457 7.151
3.161 8.520 7.151
2.616 8.531 6.964
2.050 8.519 6.673
1.734 8.670 6.638
1.085 8.720 6.485
10.004 7.438 9.216
9.657 7.646 9.122
9.142 7.720 8.845
8.527 7.738 8.683
8.011 7.719 8.479
7.617 7.809 8.488
7.143 8.008 8.351
3.609 8.896 7.263
3.152 8.880 7.153
2.733 9.122 6.892
2.110 9.076 6.769
1.610 9.142 6.596
9.631 8.107 9.025
9.063 8.106 8.998
8.619 8.307 8.889
8.101 8.300 8.704
7.622 8.395 8.482
2.827 9.639 7.139
8.621 8.814 8.823
3.378 0.077 5.944
2.836 0.096 5.831
2.427 0.214 5.753
1.836 0.362 5.675
1.409 0.329 5.436
0.986 0.517 5.263
0.493 0.548 5.035
3.441 0.501 6.033
2.975 0.686 5.930
2.491 0.817 5.899
1.879 0.790 5.727
1.418 0.968 5.466
0.904 0.937 5.442
0.477 0.996 5.243
7.447 0.065 7.386
6.993 0.040 7.206
6.504 0.170 6.963
3.943 1.012 6.347
3.472 1.210 6.172
3.008 1.203 5.966
2.549 1.350 5.923
2.074 1.294 5.672
1.459 1.373 5.669
0.936 1.491 5.388
0.544 1.566 5.249
9.887 0.239 8.153
9.466 0.251 7.980
8.875 0.439 7.947
8.471 0.494 7.784
7.891 0.468 7.610
7.435 0.471 7.329
7.042 0.580 7.194
6.547 0.670 7.020
6.047 0.682 6.925
3.483 1.716 6.331
2.961 1.728 6.069
2.607 1.782 5.916
1.988 1.769 5.825
1.616 1.901 5.586
1.015 1.927 5.463
0.466 1.973 5.463
9.421 0.833 8.015
8.966 0.835 7.959
8.438 0.891 7.865
7.908 1.064 7.569
7.420 1.063 7.517
6.895 1.212 7.368
6.522 1.213 7.238
3.601 2.060 6.384
2.982 2.158 6.257
2.473 2.243 6.010
2.058 2.416 5.936
1.666 2.416 5.863
1.074 2.500 5.708
0.602 2.507 5.458
9.476 1.318 8.236
9.022 1.380 8.113
8.617 1.424 7.795
8.108 1.543 7.714
7.579 1.604 7.496
6.949 1.594 7.468
6.615 1.644 7.222
3.131 2.707 6.222
2.550 2.761 6.182
2.131 2.831 6.097
1.615 2.856 5.768
1.072 2.954 5.607
9.034 1.824 8.219
8.575 2.062 7.990
8.043 2.094 7.760
7.683 2.093 7.764
7.166 2.104 7.593
2.189 3.408 6.134
8.171 2.452 7.936
2.579 5.922 6.017
8.608 5.103 7.780
3.527 6.401 6.465
3.190 6.450 6.142
2.703 6.616 6.126
2.188 6.699 5.838
1.592 6.617 5.733
9.489 5.540 8.275
9.156 5.548 7.963
8.653 5.732 7.990
8.156 5.803 7.776
7.493 5.904 7.536
3.715 6.856 6.549
3.074 6.887 6.271
2.603 7.107 6.156
2.097 7.065 5.986
1.597 7.255 5.787
9.682 6.057 8.277
9.055 6.078 8.143
8.618 6.230 7.999
8.081 6.323 7.857
7.624 6.452 7.644
4.102 7.454 6.686
3.642 7.389 6.564
3.137 7.488 6.421
2.729 7.518 6.170
2.145 7.681 6.178
1.653 7.768 6.016
1.218 7.861 5.851
10.120 6.455 8.620
9.688 6.670 8.356
9.160 6.673 8.256
8.654 6.781 8.080
8.080 6.798 7.964
7.727 6.821 7.824
7.172 6.855 7.665
3.815 8.004 6.568
3.207 8.090 6.462
2.662 8.099 6.258
2.288 8.196 6.277
1.752 8.277 6.018
9.741 7.077 8.430
9.156 7.191 8.286
8.673 7.337 8.129
8.221 7.258 8.068
7.811 7.486 7.752
3.808 8.428 6.692
3.291 8.576 6.509
2.787 8.549 6.488
2.355 8.623 6.293
1.744 8.790 6.132
9.714 7.579 8.550
9.201 7.644 8.463
8.686 7.733 8.264
8.293 7.762 8.064
7.782 7.809 7.945
2.892 9.030 6.520
8.715 8.264 8.252
3.030 0.160 5.411
2.506 0.253 5.196
2.131 0.286 5.155
1.650 0.506 4.989
1.027 0.558 4.847
3.136 0.725 5.495
2.595 0.787 5.291
2.034 0.948 5.118
1.615 0.902 5.072
1.109 1.020 4.802
8.063 0.095 6.980
7.519 0.156 6.922
7.112 0.121 6.655
3.661 1.185 5.806
3.092 1.252 5.530
2.692 1.297 5.392
2.202 1.375 5.195
1.641 1.523 5.167
1.175 1.434 4.941
0.590 1.636 4.736
9.653 0.270 7.502
9.187 0.474 7.429
8.509 0.519 7.153
8.128 0.477 7.014
7.511 0.649 6.868
7.031 0.646 6.829
6.666 0.818 6.681
3.274 1.855 5.617
2.587 1.898 5.478
2.138 1.943 5.437
1.669 1.983 5.260
1.290 2.089 5.012
9.125 0.882 7.409
8.737 0.921 7.219
8.077 1.024 7.138
7.647 1.125 6.983
7.205 1.203 6.825
3.317 2.226 5.727
2.671 2.431 5.667
2.172 2.404 5.398
1.646 2.483 5.232
1.257 2.482 5.116
9.209 1.390 7.535
8.767 1.551 7.314
8.244 1.657 7.236
7.618 1.613 7.081
7.131 1.676 6.855
2.237 2.985 5.574
8.167 2.129 7.320
3.315 6.606 5.711
2.753 6.546 5.494
2.231 6.608 5.440
9.172 5.732 7.651
8.638 5.836 7.405
8.243 5.931 7.349
3.852 6.952 6.060
3.285 7.005 5.921
2.832 7.126 5.710
2.316 7.134 5.469
1.812 7.209 5.410
9.846 6.195 7.859
9.263 6.211 7.645
8.844 6.322 7.512
8.344 6.314 7.293
7.716 6.378 7.150
3.763 7.483 6.077
3.303 7.637 5.870
2.897 7.653 5.688
2.293 7.734 5.570
1.930 7.723 5.420
9.827 6.697 7.904
9.402 6.750 7.758
8.724 6.892 7.636
8.222 6.847 7.358
7.771 6.957 7.297
3.904 7.923 6.057
3.448 8.013 6.067
2.957 8.240 5.806
2.398 8.136 5.685
1.885 8.283 5.622
9.941 7.153 7.870
9.412 7.220 7.830
8.957 7.359 7.652
8.451 7.383 7.575
7.878 7.405 7.394
3.521 8.687 6.125
2.998 8.738 5.871
2.540 8.708 5.809
9.466 7.680 7.817
8.910 7.775 7.791
8.505 7.973 7.604
2.678 0.381 4.731
2.304 0.488 4.684
1.793 0.451 4.476
3.191 0.814 4.965
2.729 0.835 4.788
2.245 0.952 4.635
1.729 1.070 4.485
1.252 0.994 4.301
8.801 0.030 6.661
8.299 0.132 6.504
7.705 0.186 6.433
7.133 0.260 6.153
3.249 1.291 5.079
2.705 1.315 5.015
2.323 1.494 4.811
1.732 1.537 4.656
1.378 1.594 4.490
9.214 0.542 6.805
8.787 0.510 6.832
8.261 0.709 6.679
7.689 0.627 6.494
7.216 0.787 6.305
3.375 1.753 5.072
2.804 1.883 4.958
2.330 2.031 4.870
1.823 1.990 4.693
1.455 2.106 4.547
9.266 1.062 7.033
8.786 1.149 6.885
8.354 1.150 6.647
7.865 1.260 6.417
7.342 1.355 6.334
2.959 2.468 4.993
2.483 2.439 4.943
1.828 2.543 4.682
8.820 1.481 6.949
8.357 1.681 6.753
7.813 1.701 6.626
2.964 6.573 5.052
8.860 5.918 6.971
3.547 7.013 5.354
2.950 7.174 5.227
2.526 7.264 5.100
9.483 6.267 7.232
8.883 6.263 6.955
8.409 6.409 6.755
4.051 7.584 5.477
3.483 7.558 5.454
3.050 7.678 5.283
2.441 7.680 5.091
2.055 7.763 4.995
9.926 6.638 7.480
9.414 6.883 7.323
8.946 6.847 7.159
8.526 6.971 6.894
7.973 7.001 6.870
3.508 8.171 5.472
3.162 8.162 5.434
2.502 8.203 5.153
9.549 7.225 7.319
8.993 7.463 7.209
8.558 7.488 7.010
3.206 8.789 5.506
9.159 7.883 7.202
2.465 0.453 4.172
2.919 0.944 4.347
2.329 0.912 4.241
1.920 1.167 4.038
8.930 0.011 6.079
8.360 0.229 5.953
7.888 0.192 5.875
3.424 1.360 4.478
2.936 1.426 4.338
2.444 1.603 4.275
1.975 1.626 4.072
1.534 1.682 4.034
9.374 0.509 6.402
9.006 0.631 6.266
8.376 0.610 6.091
7.989 0.731 6.025
7.505 0.819 5.767
2.988 1.877 4.521
2.486 2.122 4.316
2.042 2.071 4.158
8.981 1.208 6.227
8.521 1.266 6.173
7.887 1.299 6.055
2.517 2.533 4.501
8.500 1.662 6.313
3.583 6.564 4.666
3.128 6.726 4.525
2.597 6.788 4.367
9.624 5.746 6.594
8.961 5.849 6.320
8.647 5.914 6.328
4.153 7.200 4.926
3.620 7.207 4.887
3.180 7.295 4.655
2.729 7.296 4.488
2.141 7.328 4.282
10.146 6.332 6.713
9.667 6.430 6.704
9.166 6.330 6.535
8.649 6.454 6.416
8.132 6.601 6.164
4.098 7.648 5.014
3.672 7.737 5.004
3.180 7.833 4.811
2.698 7.908 4.542
2.191 7.950 4.465
10.092 6.735 6.981
9.630 6.892 6.784
9.183 6.970 6.582
8.687 7.031 6.462
8.072 7.040 6.225
4.160 8.070 5.129
3.675 8.114 4.921
3.285 8.353 4.767
2.665 8.266 4.796
2.226 8.334 4.503
10.238 7.393 6.962
9.773 7.304 6.878
9.130 7.424 6.648
8.706 7.513 6.482
8.268 7.567 6.335
3.819 8.694 5.058
3.252 8.720 4.966
2.747 8.893 4.802
9.711 7.803 6.843
9.261 7.929 6.765
8.697 8.068 6.628
3.075 0.563 3.698
2.542 0.499 3.683
1.961 0.701 3.459
3.513 0.987 4.025
3.067 1.016 3.881
2.552 1.054 3.668
2.091 1.180 3.546
1.665 1.186 3.477
9.549 0.115 5.740
8.968 0.263 5.682
8.491 0.185 5.608
7.941 0.212 5.401
7.512 0.337 5.200
3.527 1.392 4.166
3.081 1.585 3.955
2.570 1.526 3.829
2.186 1.610 3.536
1.712 1.652 3.385
9.513 0.668 5.938
9.112 0.617 5.647
8.657 0.757 5.592
8.146 0.761 5.516
7.662 0.882 5.356
3.606 2.022 4.089
3.211 2.087 4.072
2.644 2.010 3.767
2.157 2.168 3.757
1.631 2.325 3.548
9.674 1.136 6.001
9.054 1.259 5.819
8.601 1.314 5.696
8.178 1.304 5.431
7.640 1.483 5.306
3.239 2.633 4.089
2.808 2.709 3.969
2.133 2.721 3.689
9.225 1.650 6.006
8.744 1.764 5.686
8.223 1.831 5.688
3.202 6.346 4.077
9.197 5.381 5.767
4.208 6.707 4.406
3.694 6.754 4.307
3.252 6.704 4.194
2.655 6.874 3.872
2.289 7.033 3.838
10.170 5.732 6.287
9.652 5.949 6.114
9.127 5.926 5.970
8.727 5.979 5.818
8.291 6.154 5.694
4.366 7.188 4.411
3.733 7.290 4.251
3.211 7.222 4.170
2.840 7.376 4.006
2.287 7.492 3.806
10.324 6.356 6.223
9.788 6.327 6.152
9.215 6.396 5.989
8.817 6.630 5.954
8.224 6.667 5.786
4.890 7.572 4.712
4.285 7.664 4.611
3.886 7.836 4.469
3.367 7.824 4.273
2.935 7.886 4.038
2.376 8.033 3.978
1.886 8.053 3.772
10.879 6.689 6.635
10.258 6.905 6.334
9.847 6.974 6.211
9.217 7.046 5.997
8.898 7.082 5.839
8.287 7.192 5.831
7.794 7.123 5.694
4.463 8.291 4.635
3.930 8.358 4.545
3.398 8.293 4.280
2.853 8.341 4.261
2.411 8.553 4.081
10.393 7.368 6.551
9.760 7.369 6.231
9.265 7.468 6.109
8.840 7.608 5.957
8.346 7.731 5.880
4.468 8.808 4.665
3.944 8.804 4.680
3.371 8.945 4.460
2.993 8.952 4.353
2.470 9.009 4.162
10.349 7.841 6.594
9.971 7.859 6.456
9.342 7.972 6.295
8.949 8.132 6.044
8.309 8.231 5.976
3.460 9.312 4.462
9.511 8.594 6.430
2.641 0.197 2.941
3.698 0.454 3.493
3.238 0.624 3.227
2.659 0.563 3.126
2.203 0.644 2.966
1.792 0.687 2.865
3.631 0.969 3.428
3.158 1.079 3.343
2.670 1.207 3.287
2.242 1.189 3.041
1.723 1.318 2.930
9.712 0.129 5.292
9.181 0.245 5.254
8.641 0.318 4.931
8.152 0.417 4.942
7.646 0.443 4.774
4.175 1.351 3.819
3.864 1.454 3.656
3.367 1.643 3.387
2.784 1.583 3.329
2.371 1.795 3.182
1.847 1.703 2.938
1.361 1.856 2.769
10.135 0.670 5.568
9.690 0.757 5.449
9.225 0.835 5.347
8.704 0.881 4.999
8.213 0.941 4.960
7.754 1.032 4.868
7.165 1.080 4.551
3.883 1.948 3.643
3.293 2.142 3.438
2.736 2.076 3.350
2.397 2.278 3.208
1.813 2.248 3.122
9.794 1.210 5.383
9.240 1.206 5.318
8.797 1.412 5.184
8.368 1.342 4.983
7.759 1.430 4.896
3.868 2.487 3.698
3.416 2.638 3.518
2.846 2.702 3.432
2.439 2.653 3.205
1.810 2.752 3.134
9.728 1.788 5.599
9.251 1.800 5.474
8.925 1.746 5.209
8.255 1.889 5.029
7.779 1.897 5.045
3.012 3.218 3.594
8.874 2.439 5.364
3.322 5.843 3.502
9.340 5.015 5.165
4.355 6.295 3.902
3.772 6.297 3.659
3.376 6.258 3.627
2.838 6.359 3.332
2.464 6.457 3.250
10.294 5.372 5.710
9.822 5.469 5.532
9.322 5.507 5.389
8.771 5.492 5.270
8.293 5.596 5.129
4.936 6.729 4.051
4.310 6.682 3.902
3.825 6.856 3.672
3.347 6.874 3.560
2.940 6.924 3.500
2.469 6.900 3.326
1.846 7.149 3.200
10.866 5.836 5.909
10.259 5.803 5.702
9.905 5.884 5.573
9.395 5.980 5.526
8.805 6.102 5.198
8.273 6.231 5.060
7.890 6.262 5.049
4.917 7.252 4.124
4.456 7.208 3.987
3.937 7.293 3.896
3.359 7.448 3.789
3.051 7.379 3.540
2.412 7.597 3.482
1.868 7.542 3.267
10.867 6.384 6.043
10.352 6.367 5.769
9.852 6.518 5.636
9.383 6.548 5.543
9.008 6.584 5.298
8.483 6.701 5.189
7.831 6.771 4.985
5.496 7.703 4.327
5.046 7.673 4.188
4.578 7.712 4.159
3.953 7.839 3.933
3.589 7.819 3.749
2.934 7.913 3.707
2.557 8.122 3.422
2.046 8.010 3.338
1.602 8.094 3.151
11.447 6.695 6.275
10.930 6.807 6.148
10.536 7.003 5.870
9.938 7.076 5.721
9.527 7.117 5.665
9.004 7.221 5.376
8.367 7.148 5.374
7.961 7.226 5.078
7.414 7.406 4.926
5.080 8.249 4.371
4.598 8.276 4.223
4.107 8.293 4.052
3.508 8.333 3.957
3.084 8.453 3.631
2.592 8.520 3.596
2.023 8.686 3.452
10.926 7.275 6.144
10.405 7.467 6.044
9.905 7.545 5.789
9.585 7.610 5.591
9.015 7.617 5.463
8.485 7.662 5.460
7.993 7.723 5.195
5.034 8.708 4.310
4.544 8.747 4.147
4.184 8.787 4.039
3.615 8.914 3.982
3.001 9.075 3.720
2.571 9.100 3.548
2.097 9.215 3.546
10.983 7.894 6.173
10.554 7.945 6.048
10.088 8.004 5.842
9.451 8.089 5.799
8.997 8.186 5.688
8.642 8.284 5.533
8.020 8.251 5.312
4.566 9.339 4.315
4.128 9.289 4.155
3.660 9.467 4.109
3.210 9.461 3.919
2.734 9.578 3.651
10.686 8.544 6.071
10.049 8.628 5.973
9.668 8.669 5.894
9.092 8.640 5.718
8.588 8.794 5.521
3.763 9.979 4.108
9.598 9.086 5.999
3.836 -0.041 2.801
3.315 0.118 2.596
2.717 0.187 2.613
2.239 0.328 2.369
1.792 0.274 2.156
4.351 0.531 3.096
3.885 0.466 2.982
3.411 0.630 2.722
2.795 0.632 2.701
2.343 0.844 2.568
1.765 0.753 2.287
1.378 0.926 2.132
7.372 0.112 3.941
4.383 0.937 3.208
3.964 1.011 2.973
3.383 1.079 2.909
2.948 1.169 2.667
2.444 1.191 2.533
1.920 1.269 2.375
1.358 1.449 2.169
10.363 0.161 4.948
9.749 0.284 4.760
9.258 0.270 4.669
8.865 0.362 4.563
8.303 0.524 4.313
7.786 0.517 4.176
7.353 0.591 4.079
4.914 1.442 3.489
4.486 1.435 3.261
3.923 1.572 3.065
3.462 1.601 3.025
2.963 1.734 2.774
2.487 1.827 2.581
2.008 1.888 2.534
1.449 1.912 2.251
0.963 2.053 2.176
10.875 0.664 5.280
10.463 0.735 5.100
9.887 0.841 4.827
9.394 0.733 4.770
8.996 0.866 4.615
8.405 1.039 4.502
7.869 0.946 4.384
7.446 1.170 4.247
6.933 1.121 3.938
4.562 2.024 3.359
4.048 1.993 3.226
3.521 2.208 2.966
3.007 2.232 2.899
2.524 2.219 2.744
1.915 2.404 2.522
1.503 2.427 2.460
10.357 1.108 5.147
9.903 1.159 5.077
9.472 1.342 4.928
8.928 1.303 4.704
8.414 1.509 4.456
7.899 1.525 4.314
7.458 1.702 4.271
4.440 2.631 3.360
3.949 2.622 3.263
3.500 2.618 3.011
3.098 2.667 2.997
2.447 2.745 2.884
2.003 2.891 2.708
1.600 2.896 2.441
10.493 1.654 5.132
9.995 1.843 5.001
9.425 1.805 4.831
8.927 1.875 4.784
8.396 1.884 4.631
7.990 2.045 4.367
7.524 2.072 4.309
3.977 3.122 3.428
3.492 3.247 3.100
3.081 3.177 2.962
2.594 3.300 2.876
2.031 3.401 2.748
10.114 2.330 5.080
9.455 2.436 4.991
8.973 2.494 4.932
8.452 2.594 4.773
8.130 2.584 4.457
3.133 3.676 3.041
9.009 2.954 5.027
3.359 4.881 2.816
9.331 4.098 4.664
3.879 5.335 3.010
3.369 5.318 2.811
2.921 5.350 2.668
9.799 4.402 4.812
9.332 4.513 4.590
8.952 4.634 4.620
4.382 5.690 3.286
3.959 5.917 3.100
3.496 5.883 2.952
3.019 5.924 2.768
2.578 6.066 2.590
10.339 4.925 4.973
9.984 5.030 4.975
9.481 5.095 4.683
8.906 5.133 4.615
8.440 5.164 4.383
5.102 6.240 3.589
4.486 6.321 3.298
3.999 6.361 3.214
3.451 6.334 2.986
3.007 6.513 2.846
2.594 6.495 2.815
2.005 6.585 2.537
10.969 5.380 5.377
10.507 5.481 5.097
9.935 5.551 4.988
9.561 5.596 4.885
9.039 5.624 4.713
8.424 5.734 4.605
8.029 5.703 4.484
5.624 6.746 3.748
5.036 6.724 3.501
4.482 6.837 3.412
4.010 6.863 3.332
3.499 6.961 3.083
3.040 6.903 2.948
2.649 7.083 2.762
2.054 7.074 2.598
1.515 7.260 2.557
11.447 5.883 5.492
11.041 5.857 5.402
10.500 5.982 5.192
10.089 6.059 5.176
9.608 6.186 5.017
9.084 6.173 4.844
8.602 6.324 4.592
8.079 6.327 4.516
7.460 6.457 4.357
6.119 7.132 4.052
5.657 7.161 3.760
5.070 7.292 3.609
4.697 7.263 3.439
4.011 7.302 3.362
3.525 7.510 3.224
3.184 7.510 3.056
2.698 7.658 2.972
2.198 7.637 2.697
1.598 7.686 2.680
1.051 7.693 2.517
12.027 6.315 5.708
11.459 6.411 5.611
11.105 6.368 5.562
10.489 6.402 5.285
10.105 6.498 5.134
9.641 6.706 5.074
9.059 6.669 4.784
8.569 6.748 4.694
8.101 6.771 4.642
7.499 6.839 4.457
6.996 6.900 4.210
6.692 7.620 4.274
6.081 7.550 3.955
5.745 7.625 3.812
5.060 7.752 3.766
4.647 7.738 3.684
4.138 7.955 3.389
3.750 8.019 3.304
3.195 8.111 3.206
2.741 8.103 3.039
2.194 8.186 2.798
1.594 8.318 2.714
1.215 8.245 2.584
0.692 8.316 2.317
12.112 6.723 5.876
11.617 6.795 5.608
11.084 6.869 5.601
10.665 6.900 5.423
10.116 7.034 5.295
9.646 7.066 5.176
9.107 7.165 4.940
8.654 7.259 4.846
8.209 7.330 4.560
7.576 7.423 4.449
7.035 7.416 4.397
6.691 7.596 4.231
6.226 8.073 4.109
5.634 8.247 3.917
5.096 8.258 3.806
4.609 8.278 3.622
4.290 8.339 3.551
3.759 8.489 3.342
3.173 8.492 3.142
2.732 8.609 3.145
2.211 8.709 3.004
1.767 8.836 2.851
1.130 8.841 2.662
12.059 7.238 5.996
11.601 7.295 5.745
11.238 7.483 5.723
10.621 7.452 5.500
10.227 7.627 5.252
9.594 7.626 5.132
9.116 7.771 5.036
8.725 7.800 4.849
8.106 7.874 4.818
7.605 7.885 4.630
7.249 8.028 4.336
5.710 8.755 4.090
5.326 8.763 3.828
4.810 8.886 3.691
4.229 8.946 3.621
3.655 9.058 3.493
3.313 9.041 3.389
2.790 9.221 3.161
2.196 9.134 3.069
1.827 9.243 2.936
11.733 7.857 5.924
11.169 7.969 5.775
10.753 7.969 5.612
10.212 8.133 5.359
9.805 8.214 5.305
9.263 8.245 5.179
8.734 8.335 4.887
8.210 8.372 4.776
7.664 8.372 4.581
5.241 9.268 3.904
4.740 9.348 3.920
4.259 9.398 3.606
3.883 9.442 3.469
3.232 9.539 3.468
2.728 9.553 3.265
2.265 9.627 3.129
11.227 8.485 5.801
10.761 8.449 5.750
10.191 8.633 5.531
9.667 8.677 5.345
9.321 8.780 5.159
8.771 8.856 5.080
8.236 8.816 4.927
4.812 9.905 3.997
4.311 10.029 3.724
3.823 9.923 3.582
3.340 10.117 3.378
2.913 10.065 3.336
10.751 9.052 5.773
10.347 9.158 5.674
9.889 9.280 5.529
9.331 9.341 5.203
8.831 9.377 5.047
4.456 10.540 3.855
3.899 10.628 3.624
3.462 10.652 3.497
10.432 9.605 5.598
9.915 9.637 5.538
9.272 9.715 5.329
3.847 11.094 3.691
9.798 10.306 5.599
4.456 11.506 4.026
3.930 11.543 3.874
3.520 11.613 3.650
10.468 10.598 5.734
9.853 10.718 5.597
9.515 10.852 5.471
4.461 0.065 2.462
4.015 0.030 2.257
3.444 0.137 2.246
2.898 0.196 1.960
2.550 0.222 1.881
1.876 0.385 1.668
1.385 0.526 1.548
4.958 0.487 2.730
4.530 0.511 2.519
3.912 0.667 2.478
3.474 0.585 2.184
3.095 0.670 2.079
2.584 0.766 1.891
1.985 0.886 1.797
1.469 0.857 1.699
0.993 1.000 1.445
7.942 -0.031 3.608
7.422 0.194 3.510
6.969 0.166 3.418
5.566 0.823 3.020
4.973 1.038 2.859
4.532 0.961 2.740
4.018 1.127 2.497
3.467 1.113 2.371
3.075 1.305 2.189
2.460 1.263 1.989
2.027 1.426 1.870
1.538 1.461 1.769
1.044 1.526 1.513
0.611 1.557 1.448
11.415 0.177 4.803
10.923 0.094 4.537
10.547 0.131 4.516
9.997 0.200 4.387
9.421 0.397 4.082
8.982 0.476 3.977
8.553 0.570 3.861
8.027 0.512 3.668
7.430 0.603 3.670
7.006 0.797 3.357
6.515 0.820 3.307
6.001 1.378 3.232
5.610 1.368 3.118
5.104 1.435 2.897
4.514 1.578 2.748
4.062 1.654 2.531
3.696 1.804 2.498
3.045 1.726 2.319
2.580 1.883 2.058
2.120 1.931 1.912
1.592 2.024 1.809
1.136 1.956 1.731
0.708 2.218 1.560
0.171 2.095 1.362
11.636 0.698 4.872
11.060 0.710 4.650
10.516 0.796 4.538
10.149 0.869 4.372
9.630 0.935 4.227
9.000 0.909 4.032
8.555 1.060 3.950
7.995 0.994 3.876
7.604 1.099 3.594
7.171 1.259 3.594
6.598 1.287 3.403
6.153 1.368 3.252
5.588 1.900 3.190
5.131 1.921 2.935
4.677 2.091 2.801
4.097 2.146 2.708
3.621 2.224 2.609
3.155 2.284 2.285
2.697 2.412 2.291
2.120 2.388 2.067
1.615 2.534 1.834
1.248 2.468 1.724
0.643 2.716 1.522
11.517 1.157 4.971
11.173 1.235 4.806
10.563 1.350 4.556
10.051 1.322 4.584
9.521 1.321 4.419
9.092 1.418 4.168
8.601 1.459 4.096
8.189 1.674 3.797
7.548 1.693 3.666
7.035 1.781 3.671
6.675 1.864 3.457
5.116 2.521 3.155
4.596 2.687 2.811
4.150 2.676 2.762
3.701 2.637 2.587
3.205 2.873 2.490
2.762 2.810 2.250
2.153 2.878 2.073
1.698 2.993 1.908
1.274 3.076 1.831
11.075 1.626 4.805
10.689 1.703 4.666
10.070 1.767 4.611
9.636 1.865 4.520
9.109 1.916 4.229
8.749 2.054 4.088
8.163 2.066 4.008
7.707 2.212 3.871
7.183 2.301 3.677
4.639 3.105 3.077
4.316 3.228 2.836
3.725 3.215 2.780
3.275 3.391 2.550
2.770 3.423 2.402
2.222 3.506 2.312
1.745 3.627 1.997
10.740 2.228 4.746
10.253 2.425 4.645
9.665 2.504 4.546
9.135 2.540 4.284
8.615 2.576 4.191
8.184 2.650 3.992
7.617 2.765 3.844
4.341 3.772 2.886
3.831 3.706 2.712
3.249 3.827 2.598
2.774 3.916 2.440
2.238 4.021 2.235
10.338 2.928 4.684
9.687 2.927 4.671
9.265 2.921 4.486
8.662 2.992 4.322
8.304 3.239 4.065
3.878 4.339 2.802
3.369 4.391 2.639
2.762 4.399 2.633
9.866 3.432 4.720
9.323 3.428 4.619
8.702 3.515 4.440
3.426 4.844 2.845
9.416 3.996 4.561
4.117 4.843 2.411
3.452 4.865 2.380
2.955 5.047 2.177
10.063 4.076 4.322
9.457 4.173 4.153
9.008 4.267 3.971
4.669 5.362 2.717
3.999 5.330 2.589
3.627 5.519 2.395
3.089 5.599 2.146
2.637 5.529 1.997
10.609 4.491 4.406
10.060 4.529 4.327
9.513 4.526 4.232
9.143 4.772 4.089
8.524 4.781 3.983
4.718 5.759 2.726
4.189 5.907 2.527
3.706 5.938 2.394
3.089 5.961 2.313
2.666 6.019 2.198
10.492 5.029 4.571
10.183 5.047 4.386
9.540 5.092 4.222
9.031 5.253 4.072
8.628 5.224 4.027
5.184 6.231 2.951
4.637 6.304 2.783
4.096 6.436 2.740
3.769 6.403 2.573
3.112 6.624 2.358
2.621 6.625 2.188
2.226 6.630 2.133
11.186 5.496 4.714
10.728 5.604 4.611
10.065 5.537 4.492
9.611 5.694 4.353
9.093 5.636 4.163
8.566 5.716 4.035
8.176 5.950 3.864
6.120 6.571 3.432
5.805 6.725 3.270
5.271 6.793 3.033
4.720 6.829 2.831
4.143 6.965 2.778
3.804 6.915 2.604
3.256 7.122 2.569
2.786 7.043 2.373
2.176 7.248 2.250
1.728 7.339 2.084
1.332 7.296 1.895
12.201 5.779 5.109
11.699 5.861 5.071
11.125 6.001 4.809
10.728 6.043 4.804
10.244 5.994 4.573
9.662 6.210 4.527
9.199 6.285 4.294
8.618 6.359 4.161
8.184 6.403 4.035
7.764 6.414 3.905
7.180 6.536 3.723
6.737 7.141 3.613
6.351 7.162 3.512
5.674 7.262 3.287
5.187 7.264 3.134
4.678 7.280 2.937
4.243 7.402 2.938
3.678 7.586 2.768
3.224 7.493 2.612
2.859 7.598 2.454
2.257 7.809 2.223
1.719 7.836 2.179
1.349 7.877 1.996
0.822 7.946 1.891
12.140 6.379 5.318
11.649 6.478 5.194
11.301 6.452 4.978
10.750 6.635 4.831
10.157 6.514 4.774
9.776 6.697 4.425
9.305 6.658 4.458
8.673 6.845 4.281
8.215 6.896 3.978
7.762 6.930 3.949
7.327 7.023 3.820
6.719 7.078 3.553
6.745 7.693 3.751
6.271 7.590 3.625
5.836 7.760 3.347
5.384 7.732 3.198
4.876 7.900 3.081
4.351 8.032 2.890
3.759 8.105 2.757
3.249 8.171 2.559
2.855 8.216 2.414
2.253 8.144 2.335
1.897 8.395 2.155
1.388 8.400 2.047
0.824 8.476 1.971
12.311 6.790 5.358
11.803 6.844 5.183
11.344 7.004 5.065
10.770 7.083 4.876
10.290 7.154 4.658
9.733 7.233 4.551
9.191 7.167 4.366
8.715 7.372 4.294
8.355 7.436 4.171
7.821 7.470 4.053
7.213 7.535 3.818
6.773 7.683 3.753
6.753 8.137 3.874
6.415 8.147 3.627
5.927 8.341 3.492
5.446 8.327 3.232
