5.802 8.558 5.775
5.812 8.949 5.605
5.868 9.439 5.595
5.908 9.979 5.490
5.973 10.439 5.488
6.112 10.926 5.364
6.000 11.481 5.309
5.316 1.589 6.669
5.316 1.944 6.442
5.492 2.570 6.480
5.389 3.019 6.384
5.486 3.598 6.276
5.451 3.965 6.230
5.585 4.466 6.147
5.693 4.956 6.064
5.889 8.425 5.272
6.054 8.854 5.188
5.919 9.481 5.096
6.015 9.874 4.950
6.091 10.425 4.965
6.216 10.967 4.807
5.462 1.972 6.090
5.378 2.505 6.035
5.522 2.943 5.989
5.467 3.502 5.947
5.556 3.882 5.779
5.673 4.542 5.827
5.973 8.789 4.580
6.034 9.476 4.630
6.029 9.972 4.592
6.130 10.460 4.401
5.554 2.504 5.419
5.647 2.840 5.412
5.717 3.420 5.257
5.766 3.999 5.215
6.088 8.708 4.228
6.162 9.253 4.056
6.235 9.858 3.934
5.595 2.752 4.862
5.660 3.359 4.913
5.769 3.913 4.761
6.231 8.757 3.730
6.169 9.123 3.703
6.246 9.730 3.514
5.743 2.827 4.358
5.800 3.264 4.329
5.798 3.738 4.416
6.368 8.639 3.210
6.447 9.116 3.130
6.477 9.628 3.081
6.503 10.121 3.029
5.862 2.207 4.022
5.867 2.734 3.843
5.960 3.232 3.873
5.844 3.586 3.923
6.272 8.127 2.806
6.332 8.560 2.746
6.414 9.027 2.515
6.425 9.691 2.545
6.514 10.160 2.392
6.558 10.617 2.419
5.832 1.674 3.480
5.955 2.140 3.498
6.002 2.644 3.402
5.949 3.207 3.424
6.097 3.700 3.270
5.945 4.170 3.338
6.438 7.526 2.403
6.526 8.007 2.351
6.433 8.612 2.115
6.448 9.045 2.081
6.570 9.430 1.965
6.549 9.987 2.069
6.522 10.489 1.987
6.690 11.008 1.891
5.945 1.086 3.170
5.853 1.549 3.053
5.983 2.132 2.976
6.071 2.654 3.050
6.090 3.060 2.819
5.976 3.627 2.882
6.052 4.006 2.797
6.161 4.569 2.802
6.332 6.373 1.859
6.401 6.885 1.822
6.483 7.364 1.937
6.597 7.947 1.669
6.650 8.484 1.648
6.494 9.014 1.592
6.711 9.354 1.502
6.694 9.898 1.412
6.799 10.433 1.521
6.750 10.897 1.414
6.747 11.372 1.363
6.006 0.603 2.636
6.037 0.906 2.750
6.045 1.491 2.587
6.097 2.017 2.633
6.088 2.543 2.374
6.050 2.929 2.465
6.070 3.593 2.431
6.152 3.955 2.339
6.212 4.541 2.138
6.178 4.877 2.117
6.384 5.503 2.113
6.394 5.839 1.542
6.508 6.406 1.375
6.407 6.905 1.357
6.480 7.486 1.237
6.626 7.948 1.182
6.573 8.488 1.266
6.637 8.854 1.154
6.704 9.435 1.164
6.646 9.849 0.940
6.788 10.401 0.924
6.829 10.884 0.995
6.821 11.378 0.817
6.878 11.880 0.669
6.005 0.415 2.154
6.035 0.997 2.250
6.050 1.483 2.065
6.092 1.904 2.033
6.238 2.453 2.033
6.140 2.971 1.978
6.305 3.357 1.919
6.259 3.855 1.746
6.395 4.441 1.675
6.404 4.916 1.630
6.298 5.467 1.658
6.434 5.956 1.577
6.510 5.753 1.073
6.630 6.414 0.867
6.577 6.792 0.811
6.607 7.345 0.906
6.620 7.897 0.802
6.633 8.351 0.644
6.823 8.869 0.552
6.838 9.417 0.541
6.910 9.730 0.574
6.935 10.300 0.480
6.945 10.761 0.292
6.850 11.358 0.284
7.030 11.788 0.337
6.196 0.368 1.743
6.102 0.798 1.758
6.064 1.440 1.644
6.200 1.886 1.594
6.294 2.457 1.528
6.296 2.873 1.493
6.246 3.272 1.423
6.462 3.901 1.337
6.381 4.250 1.323
6.349 4.904 1.187
6.574 5.425 1.189
6.619 5.935 1.111
6.587 5.666 0.523
6.562 6.265 0.538
6.602 6.760 0.327
6.612 7.304 0.279
6.797 7.816 0.232
6.753 8.145 0.265
6.848 8.680 0.230
6.870 9.347 0.188
6.802 9.690 0.051
6.135 0.330 1.280
6.229 0.687 1.136
6.311 1.187 1.064
6.285 1.747 1.022
6.303 2.254 0.936
6.345 2.841 0.908
6.321 3.195 0.936
6.481 3.732 0.896
6.514 4.346 0.847
6.507 4.876 0.650
6.507 5.264 0.577
6.684 5.758 0.523
4.690 8.458 12.180
4.854 9.010 12.048
4.910 9.416 11.990
4.858 9.959 12.107
4.882 10.323 12.039
4.931 10.865 11.913
4.879 11.325 11.723
4.911 12.011 11.675
5.132 12.426 11.709
4.639 6.041 12.492
4.642 6.390 12.489
4.967 8.777 11.712
4.834 9.384 11.700
5.044 9.928 11.426
5.048 10.360 11.525
4.987 10.826 11.458
5.092 11.285 11.292
5.203 11.880 11.211
4.331 2.911 12.378
4.348 3.435 12.372
4.384 3.781 12.314
4.458 4.359 12.168
4.492 4.900 12.104
4.560 5.319 12.134
4.712 5.774 12.031
5.016 9.188 11.052
5.105 9.816 11.067
5.128 10.324 10.968
4.990 10.676 10.842
5.145 11.173 10.792
4.619 3.310 11.887
4.488 3.719 11.879
4.508 4.362 11.729
4.686 4.831 11.712
4.610 5.255 11.711
5.021 9.807 10.637
5.196 10.196 10.557
5.223 10.742 10.334
5.277 11.255 10.349
4.676 3.306 11.474
4.674 3.814 11.355
4.764 4.153 11.339
4.650 4.717 11.270
5.240 9.584 9.982
5.119 10.119 10.042
5.354 10.728 10.016
4.814 3.663 10.741
4.700 4.220 10.744
4.727 4.705 10.634
4.705 9.101 10.071
4.746 9.714 9.880
4.725 10.164 9.821
4.752 10.577 9.917
4.792 11.105 9.860
4.084 3.256 10.727
4.240 3.596 10.805
4.259 4.200 10.592
4.410 4.792 10.580
4.426 5.122 10.498
4.713 9.195 9.641
4.781 9.558 9.407
4.818 10.178 9.439
4.809 10.664 9.415
4.813 11.182 9.392
4.265 3.128 10.293
4.393 3.555 10.292
4.339 4.104 10.140
4.444 4.651 10.037
4.443 5.104 10.166
4.826 8.624 9.016
4.892 8.954 9.144
4.749 9.429 8.974
4.926 10.070 8.885
4.827 10.478 8.922
4.917 11.113 8.887
4.945 11.448 8.680
4.346 2.650 9.893
4.253 2.994 9.869
4.344 3.609 9.750
4.398 3.967 9.616
4.467 4.649 9.603
4.601 5.044 9.663
4.620 5.457 9.392
4.903 8.065 8.620
4.872 8.508 8.676
4.953 9.041 8.634
5.001 9.408 8.496
4.956 9.880 8.329
5.015 10.505 8.404
4.952 10.883 8.363
5.008 11.418 8.141
5.134 11.860 8.117
4.453 2.005 9.455
4.352 2.396 9.384
4.362 2.938 9.373
4.573 3.536 9.328
4.499 4.068 9.158
4.452 4.515 9.113
4.525 4.904 9.087
4.607 5.431 9.066
4.662 6.021 8.907
4.767 6.977 8.230
4.767 7.357 8.310
4.938 7.985 8.273
5.024 8.295 8.101
4.863 8.956 8.130
5.044 9.422 7.914
4.976 9.900 7.911
5.121 10.430 7.896
5.049 10.880 7.874
5.106 11.478 7.823
5.216 11.799 7.681
5.210 12.345 7.621
4.399 0.911 9.121
4.362 1.396 9.076
4.445 1.905 8.929
4.504 2.464 8.826
4.557 2.866 8.815
4.494 3.321 8.759
4.619 3.889 8.708
4.527 4.522 8.665
4.653 4.891 8.523
4.625 5.421 8.465
4.676 5.824 8.464
4.742 6.337 8.317
4.920 6.932 8.306
4.824 6.819 7.796
5.000 7.253 7.843
5.063 7.884 7.610
5.054 8.398 7.731
5.003 8.806 7.574
5.044 9.307 7.553
5.169 9.839 7.538
5.076 10.367 7.380
5.247 10.785 7.215
5.178 11.262 7.332
5.363 11.707 7.234
5.273 12.258 7.143
4.412 0.892 8.655
4.426 1.422 8.625
4.453 1.949 8.553
4.460 2.435 8.514
4.664 2.772 8.411
4.534 3.317 8.309
4.664 3.832 8.219
4.737 4.284 8.050
4.843 4.944 8.100
4.758 5.375 8.063
4.736 5.815 8.056
4.884 6.403 7.886
4.842 6.917 7.748
5.078 6.710 7.416
4.929 7.354 7.339
5.052 7.842 7.129
4.985 8.223 7.124
5.079 8.828 7.017
5.098 9.298 6.958
5.105 9.810 6.974
5.144 10.226 6.825
5.225 10.668 6.747
5.328 11.187 6.751
5.462 11.791 6.602
5.297 12.240 6.718
4.530 0.750 8.032
4.455 1.252 8.022
4.562 1.824 7.981
4.528 2.346 7.945
4.598 2.726 7.884
4.727 3.369 7.702
4.739 3.752 7.699
4.887 4.261 7.692
4.847 4.864 7.492
4.860 5.270 7.480
4.883 5.729 7.484
4.867 6.335 7.443
5.062 6.667 7.353
4.952 6.627 6.852
5.158 7.084 6.773
5.026 7.757 6.648
5.218 8.098 6.624
5.254 8.769 6.644
5.297 9.148 6.608
5.353 9.687 6.525
5.404 10.128 6.424
5.449 10.678 6.324
5.289 11.252 6.292
5.348 11.563 6.295
5.432 12.166 6.199
4.631 0.718 7.640
4.670 1.243 7.538
4.585 1.726 7.401
4.765 2.181 7.338
4.733 2.749 7.461
4.731 3.277 7.371
4.750 3.636 7.297
4.928 4.254 7.108
4.833 4.627 7.185
4.846 5.110 7.097
4.980 5.636 6.941
5.022 6.144 6.812
4.994 6.734 6.924
5.198 6.543 6.331
5.066 7.101 6.253
5.255 7.548 6.175
5.143 8.059 6.222
5.329 8.501 6.152
5.305 9.046 6.059
5.289 9.522 5.867
5.346 10.072 5.959
5.415 10.594 5.744
5.483 11.124 5.835
5.538 11.686 5.760
5.578 11.987 5.629
4.757 0.681 7.059
4.818 1.169 7.159
4.780 1.739 6.919
4.781 2.093 6.834
4.934 2.613 6.803
4.898 3.057 6.912
5.005 3.567 6.645
4.961 4.123 6.613
5.039 4.678 6.566
5.018 5.030 6.543
4.974 5.639 6.542
5.118 6.026 6.380
5.167 6.671 6.460
5.278 7.483 5.834
5.356 7.970 5.612
5.340 8.526 5.612
5.446 9.102 5.576
5.381 9.588 5.539
5.516 10.119 5.440
5.616 10.433 5.321
5.575 11.084 5.296
5.677 11.605 5.258
5.653 11.997 5.179
4.728 0.984 6.503
4.782 1.514 6.441
4.920 2.163 6.481
4.882 2.654 6.365
4.961 3.155 6.358
4.890 3.640 6.363
4.966 3.981 6.203
5.172 4.609 6.071
5.001 5.094 6.171
5.213 5.642 5.892
5.433 8.008 5.161
5.415 8.545 5.021
5.532 9.046 4.965
5.570 9.447 5.027
5.547 10.052 4.972
5.542 10.560 4.794
5.658 10.937 4.798
5.711 11.543 4.662
4.968 1.618 6.085
4.889 2.041 5.979
5.059 2.474 5.854
5.098 3.059 5.764
5.142 3.583 5.834
5.083 3.906 5.627
5.043 4.385 5.607
5.247 4.901 5.507
5.539 8.366 4.603
5.484 8.838 4.676
5.552 9.496 4.552
5.542 9.875 4.491
5.655 10.377 4.297
5.719 10.885 4.302
4.944 1.951 5.426
5.011 2.408 5.301
5.032 2.881 5.341
5.098 3.536 5.308
5.266 3.927 5.300
5.278 4.361 5.238
5.671 8.371 4.095
5.708 8.854 4.129
5.646 9.410 3.989
5.687 9.819 3.890
5.805 10.366 3.785
5.138 2.370 4.870
5.239 2.760 4.847
5.131 3.372 4.887
5.347 3.861 4.707
5.262 4.435 4.721
5.624 8.207 3.705
5.834 8.699 3.658
5.846 9.151 3.486
5.746 9.802 3.537
5.809 10.310 3.461
5.316 2.231 4.383
5.291 2.827 4.359
5.289 3.256 4.283
5.377 3.815 4.193
5.445 4.317 4.250
5.792 8.185 3.151
5.720 8.745 3.175
5.947 9.081 2.991
5.930 9.761 2.869
5.995 10.124 2.930
5.976 10.703 2.826
5.267 1.714 3.947
5.340 2.172 3.950
5.404 2.632 3.862
5.291 3.185 3.688
5.510 3.693 3.750
5.448 4.273 3.731
5.722 7.703 2.627
5.834 8.168 2.659
5.951 8.612 2.645
5.921 9.069 2.524
6.031 9.644 2.561
6.027 10.176 2.307
6.113 10.716 2.432
6.115 11.125 2.273
5.233 1.251 3.662
5.303 1.604 3.573
5.309 2.181 3.344
5.417 2.562 3.341
5.418 3.129 3.408
5.477 3.736 3.207
5.515 4.172 3.146
5.583 4.730 3.209
5.845 7.081 2.206
5.979 7.540 2.228
5.897 8.068 2.204
5.858 8.492 2.186
5.954 8.996 2.023
6.018 9.615 2.056
6.016 10.065 1.964
6.191 10.440 1.899
6.142 11.114 1.703
6.216 11.600 1.692
5.362 0.498 3.095
5.362 1.168 3.026
5.336 1.496 3.040
5.546 2.087 2.892
5.511 2.687 2.778
5.607 2.993 2.802
5.585 3.533 2.719
5.537 4.130 2.695
5.614 4.598 2.583
5.646 4.970 2.590
5.796 5.998 1.883
5.941 6.486 1.954
5.956 6.952 1.896
6.036 7.380 1.783
6.099 8.062 1.741
6.031 8.586 1.526
6.105 9.071 1.540
6.151 9.444 1.395
6.258 9.923 1.345
6.288 10.507 1.265
6.167 10.867 1.363
6.248 11.518 1.183
6.396 12.042 1.178
5.370 0.025 2.650
5.460 0.453 2.641
5.462 0.927 2.635
5.602 1.453 2.581
5.595 1.931 2.387
5.574 2.434 2.454
5.665 2.943 2.301
5.558 3.554 2.286
5.608 4.069 2.102
5.669 4.427 2.119
5.729 5.053 2.114
5.863 5.512 1.959
5.882 5.980 1.872
5.872 5.928 1.499
6.016 6.516 1.376
6.088 6.909 1.408
6.105 7.419 1.190
6.044 7.829 1.089
6.110 8.434 1.231
6.209 8.830 1.158
6.139 9.468 0.901
6.182 9.951 0.933
6.297 10.303 0.812
6.279 10.849 0.801
6.282 11.482 0.842
6.311 11.817 0.713
5.518 0.535 2.128
5.583 0.880 1.982
5.653 1.345 1.938
5.534 1.892 1.879
5.626 2.510 1.810
5.653 2.945 1.792
5.662 3.467 1.872
5.714 3.886 1.612
5.804 4.459 1.705
5.903 4.927 1.672
5.797 5.336 1.443
5.914 6.036 1.381
5.945 5.751 0.910
6.062 6.460 0.838
6.101 6.952 0.903
6.107 7.375 0.870
6.251 7.867 0.727
6.181 8.371 0.647
6.288 8.752 0.582
6.237 9.391 0.442
6.386 9.769 0.397
6.329 10.310 0.361
6.374 10.935 0.281
6.532 11.394 0.253
6.576 11.889 0.088
5.680 0.408 1.706
5.606 0.889 1.634
5.595 1.322 1.519
5.701 1.848 1.405
5.805 2.448 1.319
5.775 2.971 1.405
5.904 3.332 1.363
5.969 3.907 1.213
5.857 4.329 1.089
6.007 4.931 1.107
5.898 5.351 1.004
5.998 5.875 1.012
6.053 5.679 0.513
6.114 6.364 0.337
6.085 6.729 0.378
6.121 7.243 0.233
6.179 7.704 0.245
6.239 8.172 0.232
6.264 8.670 0.184
6.379 9.217 -0.003
5.700 0.343 1.274
5.765 0.830 1.112
5.741 1.260 1.012
5.711 1.810 0.969
5.886 2.286 1.004
5.934 2.731 0.917
5.823 3.196 0.719
5.846 3.836 0.628
5.911 4.333 0.682
6.106 4.824 0.613
6.145 5.196 0.542
6.151 5.832 0.506
4.110 7.536 12.332
4.268 7.911 12.118
4.308 8.534 12.230
4.329 9.037 11.972
4.285 9.511 11.977
4.261 10.026 12.003
4.377 10.490 11.908
4.442 10.906 11.864
4.462 11.530 11.779
4.486 11.940 11.612
4.455 12.360 11.549
4.083 5.531 12.548
4.100 5.901 12.397
3.994 6.431 12.347
4.058 6.952 12.283
4.116 7.446 12.188
4.377 8.432 11.631
4.353 8.840 11.493
4.411 9.373 11.544
4.443 9.789 11.469
4.393 10.283 11.417
4.552 10.902 11.419
4.631 11.342 11.174
4.606 11.774 11.261
4.574 12.334 11.139
3.841 2.424 12.436
4.003 2.864 12.404
3.991 3.471 12.346
3.920 3.878 12.121
4.093 4.469 12.224
4.131 4.951 12.040
4.209 5.429 11.934
4.034 5.822 12.023
4.238 6.494 11.843
4.429 8.849 11.096
4.380 9.306 11.050
4.598 9.882 10.911
4.633 10.309 10.845
4.518 10.885 10.874
4.630 11.211 10.829
4.634 11.789 10.604
3.901 2.833 11.869
3.998 3.237 11.768
4.121 3.854 11.821
4.161 4.307 11.698
4.067 4.926 11.658
4.230 5.342 11.496
4.314 5.826 11.365
4.469 9.149 10.602
4.706 9.770 10.360
4.549 10.318 10.299
4.765 10.675 10.412
4.756 11.223 10.202
4.194 3.331 11.397
4.220 3.670 11.267
4.102 4.337 11.099
4.125 4.746 11.079
4.330 5.220 10.996
4.755 9.168 10.060
4.672 9.672 9.885
4.648 10.131 9.922
4.856 10.588 9.747
4.732 11.083 9.802
4.274 3.132 10.770
4.201 3.732 10.706
4.350 4.149 10.784
4.304 4.669 10.711
4.340 5.124 10.532
4.156 9.117 10.030
4.256 9.659 9.806
4.163 10.139 9.752
4.346 10.722 9.865
4.283 11.176 9.795
4.264 11.714 9.582
3.763 2.686 10.805
3.760 3.258 10.762
3.763 3.789 10.762
3.681 4.323 10.495
3.850 4.610 10.596
3.746 5.215 10.396
4.204 9.211 9.466
4.241 9.712 9.437
4.227 10.185 9.411
4.360 10.600 9.348
4.470 11.062 9.302
4.411 11.708 9.075
3.677 2.643 10.267
3.866 3.087 10.234
3.847 3.662 10.105
3.877 4.173 10.013
3.890 4.659 10.091
3.948 5.142 9.952
4.292 8.563 9.116
4.308 9.053 9.030
4.311 9.507 9.003
4.328 10.155 8.735
4.400 10.622 8.822
4.392 10.994 8.794
4.396 11.442 8.698
3.714 2.522 9.821
3.895 3.023 9.744
3.869 3.653 9.665
3.980 4.170 9.668
4.054 4.485 9.574
3.952 5.129 9.563
3.959 5.651 9.398
4.272 7.891 8.560
4.373 8.570 8.511
4.305 9.045 8.573
4.340 9.455 8.318
4.453 9.933 8.301
4.573 10.410 8.338
4.625 11.059 8.189
4.630 11.460 8.239
4.654 12.050 8.063
4.682 12.438 7.989
3.867 1.459 9.374
3.953 1.933 9.446
3.900 2.484 9.271
3.911 3.055 9.243
4.003 3.446 9.250
3.996 4.006 9.108
4.107 4.597 9.036
4.010 5.021 8.997
4.076 5.456 9.003
4.244 6.008 8.801
4.247 6.893 8.288
4.357 7.391 8.168
4.422 7.844 8.200
4.461 8.408 7.953
4.579 8.888 8.028
4.445 9.469 7.814
4.647 9.893 7.883
4.567 10.468 7.741
4.685 10.842 7.723
4.667 11.366 7.754
4.778 11.799 7.517
4.824 12.416 7.562
3.911 1.058 9.117
3.859 1.532 9.041
4.010 1.976 8.948
4.043 2.534 8.905
3.962 3.010 8.850
3.989 3.356 8.782
4.128 3.990 8.667
4.092 4.537 8.596
4.135 4.923 8.525
4.253 5.353 8.344
4.203 5.984 8.268
4.343 6.357 8.372
4.405 6.888 8.266
4.464 6.966 7.803
4.499 7.438 7.631
4.426 7.794 7.616
4.454 8.308 7.546
4.546 8.857 7.446
4.655 9.380 7.392
4.626 9.839 7.356
4.652 10.316 7.243
4.744 10.843 7.155
4.759 11.258 7.169
4.754 11.725 7.046
4.874 12.435 7.122
3.958 0.963 8.417
3.934 1.304 8.452
4.064 1.993 8.288
3.995 2.436 8.295
4.079 2.868 8.320
4.165 3.436 8.308
4.202 3.768 8.172
4.171 4.361 7.968
4.203 4.791 7.902
4.355 5.414 8.023
4.235 5.880 7.970
4.344 6.319 7.818
4.436 6.791 7.847
4.477 6.800 7.249
4.458 7.216 7.239
4.498 7.791 7.113
4.687 8.240 7.094
4.577 8.868 7.087
4.599 9.228 6.842
4.735 9.679 6.814
4.793 10.321 6.796
4.821 10.810 6.704
4.785 11.312 6.768
4.799 11.654 6.674
4.880 12.214 6.523
4.134 0.929 8.015
4.046 1.425 7.942
4.149 1.711 7.799
4.134 2.216 7.764
4.239 2.915 7.699
4.250 3.276 7.766
4.282 3.894 7.590
4.206 4.238 7.483
4.354 4.718 7.460
4.303 5.249 7.479
4.436 5.889 7.330
4.383 6.369 7.291
4.385 6.774 7.219
4.665 6.639 6.725
4.679 7.303 6.808
4.724 7.682 6.615
4.767 8.223 6.561
4.713 8.695 6.447
4.664 9.173 6.339
4.782 9.769 6.445
4.748 10.182 6.258
4.887 10.802 6.182
4.843 11.194 6.284
4.986 11.785 6.216
5.045 12.195 5.961
4.149 0.657 7.500
4.043 1.335 7.537
4.199 1.813 7.438
4.325 2.235 7.370
4.160 2.686 7.214
4.336 3.196 7.120
4.411 3.831 7.136
4.441 4.188 7.047
4.433 4.643 7.072
4.432 5.303 6.962
4.378 5.786 6.919
4.548 6.206 6.921
4.511 6.697 6.734
4.660 6.703 6.228
4.786 7.099 6.313
4.618 7.718 6.046
4.745 8.087 6.061
4.767 8.652 6.046
4.901 9.236 6.042
4.775 9.668 5.797
4.965 10.231 5.927
4.840 10.607 5.781
4.919 11.201 5.725
5.114 11.590 5.633
5.016 12.094 5.477
4.146 0.705 7.075
4.307 1.245 6.948
4.241 1.639 6.843
4.330 2.201 6.783
4.379 2.718 6.780
4.310 3.204 6.695
4.359 3.636 6.722
4.484 4.212 6.622
4.586 4.659 6.470
4.418 5.223 6.499
4.460 5.599 6.431
4.571 6.220 6.350
4.697 6.700 6.294
4.811 6.566 5.857
4.868 7.141 5.683
4.766 7.674 5.684
4.826 8.034 5.528
4.836 8.501 5.450
4.816 9.148 5.434
4.985 9.529 5.495
4.919 10.023 5.320
4.989 10.470 5.233
5.152 10.994 5.261
5.128 11.605 5.122
5.129 12.071 5.091
5.160 12.585 4.962
4.248 0.627 6.658
4.235 1.136 6.557
4.407 1.683 6.366
4.486 2.204 6.372
4.422 2.614 6.269
4.504 3.143 6.165
4.465 3.566 6.154
4.527 4.118 6.156
4.548 4.545 6.025
4.649 5.005 5.990
4.541 5.583 5.865
4.648 6.183 5.894
4.688 6.555 5.878
4.898 7.917 5.128
4.989 8.461 5.132
4.996 8.920 4.966
4.997 9.394 4.854
5.003 9.931 4.741
5.035 10.566 4.824
5.235 11.091 4.679
5.238 11.563 4.643
4.513 1.582 5.976
4.461 2.108 5.935
4.449 2.575 5.900
4.542 3.013 5.719
4.650 3.424 5.722
4.651 4.129 5.716
4.648 4.539 5.516
4.644 5.118 5.427
4.910 7.853 4.509
5.130 8.402 4.512
5.016 8.914 4.430
5.113 9.457 4.324
5.092 9.974 4.378
5.238 10.515 4.313
5.217 10.854 4.227
4.577 1.982 5.335
4.616 2.562 5.294
4.588 2.863 5.338
4.672 3.489 5.099
4.744 4.015 5.104
4.774 4.381 5.159
4.795 4.874 4.936
5.009 8.251 4.077
5.248 8.942 3.940
5.113 9.248 4.030
5.186 9.893 3.874
5.344 10.416 3.794
5.229 10.815 3.787
4.556 1.859 4.894
4.583 2.388 4.774
4.653 2.940 4.750
4.761 3.290 4.613
4.740 3.924 4.562
4.745 4.289 4.524
5.167 8.207 3.487
5.326 8.682 3.524
5.229 9.182 3.419
5.358 9.791 3.377
5.272 10.286 3.296
5.283 10.868 3.255
4.662 1.784 4.376
4.710 2.412 4.419
4.675 2.823 4.243
4.811 3.211 4.202
4.928 3.822 4.191
4.795 4.344 4.134
5.174 7.636 3.118
5.252 8.326 3.026
5.363 8.747 3.106
5.372 9.286 2.933
5.394 9.678 2.858
5.371 10.120 2.907
5.533 10.658 2.645
4.690 1.770 4.005
4.869 2.342 3.804
4.862 2.793 3.826
4.817 3.251 3.769
4.900 3.796 3.694
4.944 4.349 3.670
4.932 4.770 3.540
5.403 7.570 2.643
5.418 8.176 2.587
5.380 8.644 2.446
5.391 9.199 2.485
5.511 9.619 2.435
5.485 10.156 2.431
5.496 10.670 2.206
5.537 11.143 2.197
4.775 1.223 3.559
4.937 1.610 3.459
4.883 2.236 3.428
4.889 2.623 3.245
4.934 3.121 3.216
4.977 3.756 3.124
5.061 4.186 3.026
5.072 4.773 2.958
5.175 6.096 2.278
5.236 6.680 2.261
5.309 7.088 2.237
5.358 7.499 2.065
5.329 7.988 2.021
5.426 8.583 2.122
5.415 9.044 2.006
5.571 9.573 1.854
5.614 10.142 1.824
5.642 10.628 1.863
5.658 11.104 1.703
5.635 11.609 1.744
5.795 11.974 1.627
4.827 0.164 3.082
4.871 0.629 3.119
4.947 1.135 2.929
5.002 1.618 2.904
4.978 2.028 2.790
5.116 2.594 2.733
5.092 3.031 2.686
4.990 3.644 2.639
5.130 4.093 2.592
5.218 4.502 2.497
5.123 5.012 2.441
5.242 5.629 2.519
5.243 6.139 2.241
5.298 5.979 1.899
5.387 6.579 1.844
5.463 7.102 1.785
5.393 7.451 1.580
5.531 8.112 1.706
5.645 8.560 1.633
5.572 9.013 1.578
5.524 9.544 1.375
5.560 10.029 1.394
5.716 10.517 1.357
5.663 10.963 1.245
5.792 11.524 1.080
5.916 12.052 1.137
4.936 0.030 2.547
5.051 0.562 2.518
5.046 1.030 2.449
4.992 1.452 2.354
4.969 1.965 2.353
5.076 2.647 2.324
5.076 2.970 2.186
5.202 3.485 2.217
5.175 4.040 2.095
5.186 4.571 2.146
5.365 5.132 2.024
5.383 5.510 1.928
5.298 6.126 1.819
5.510 5.940 1.286
5.378 6.459 1.288
5.573 7.005 1.337
5.504 7.409 1.195
5.512 7.920 1.039
5.698 8.373 1.011
5.762 8.857 1.085
5.657 9.412 0.903
5.792 9.830 0.811
5.792 10.415 0.726
5.740 10.938 0.640
5.866 11.389 0.686
5.934 11.940 0.567
4.988 0.440 2.141
5.123 0.959 1.939
5.060 1.397 1.973
5.116 2.018 1.961
5.182 2.405 1.806
5.202 2.899 1.777
5.189 3.365 1.606
5.275 3.909 1.600
5.326 4.475 1.492
5.282 5.001 1.446
5.426 5.381 1.405
5.403 5.869 1.398
5.477 5.941 0.947
5.468 6.387 0.753
5.594 6.892 0.771
5.625 7.465 0.635
5.673 7.769 0.669
5.610 8.358 0.496
5.675 8.800 0.554
5.837 9.379 0.482
5.882 9.806 0.257
5.805 10.289 0.278
5.837 10.814 0.297
5.874 11.354 0.094
5.940 11.753 0.124
5.198 0.515 1.629
5.126 0.889 1.603
5.276 1.515 1.429
5.166 1.922 1.447
5.231 2.375 1.304
5.318 2.927 1.212
5.338 3.306 1.094
5.301 3.861 1.133
5.447 4.452 1.115
5.493 4.789 0.894
5.516 5.421 0.962
5.446 5.912 0.963
5.581 5.825 0.410
5.730 6.285 0.208
5.754 6.912 0.286
5.763 7.268 0.289
5.802 7.865 0.070
5.723 8.284 0.058
5.074 0.433 1.047
5.128 0.853 0.933
5.260 1.237 0.851
5.213 1.755 0.967
5.327 2.340 0.870
5.449 2.916 0.677
5.443 3.421 0.768
5.375 3.722 0.594
5.416 4.404 0.568
5.469 4.776 0.403
5.622 5.246 0.537
5.553 5.884 0.412
3.604 7.496 12.219
3.706 8.031 12.202
3.764 8.373 11.967
3.751 8.968 12.008
3.729 9.383 11.952
3.961 9.881 11.897
4.012 10.493 11.719
4.033 11.005 11.774
4.048 11.415 11.750
4.071 11.882 11.611
4.047 12.365 11.552
3.490 4.517 12.514
3.396 5.104 12.564
3.630 5.450 12.494
3.657 5.893 12.346
3.708 6.422 12.406
3.601 6.949 12.198
3.691 7.441 12.079
3.838 8.478 11.522
3.847 8.978 11.444
3.967 9.380 11.357
3.891 9.943 11.333
3.945 10.404 11.353
4.105 10.960 11.144
4.019 11.355 11.062
4.006 11.840 11.178
4.194 12.284 11.072
3.317 1.950 12.476
3.467 2.454 12.411
3.345 3.030 12.255
3.564 3.441 12.207
3.598 4.014 12.171
3.567 4.394 12.166
3.646 4.914 11.907
3.629 5.496 11.906
3.740 6.010 11.863
3.723 6.381 11.852
4.053 8.877 10.983
4.099 9.436 10.863
3.996 9.878 10.937
4.015 10.226 10.852
4.180 10.714 10.727
4.118 11.394 10.711
4.100 11.896 10.559
3.394 2.963 11.834
3.477 3.368 11.732
3.512 3.849 11.715
3.655 4.380 11.547
3.570 4.819 11.404
3.619 5.377 11.343
3.702 5.906 11.329
4.059 9.162 10.360
4.014 9.825 10.478
4.084 10.358 10.318
4.112 10.828 10.285
4.318 11.283 10.204
4.275 11.709 10.173
3.580 2.775 11.210
3.661 3.198 11.288
3.627 3.800 11.082
3.634 4.357 10.999
3.685 4.694 10.991
3.879 5.381 11.042
4.254 9.203 9.856
4.095 9.600 9.806
4.241 10.204 9.852
4.182 10.693 9.701
4.227 11.073 9.685
4.434 11.621 9.574
3.655 2.779 10.757
3.776 3.268 10.712
3.684 3.738 10.550
3.838 4.262 10.639
3.847 4.729 10.562
3.822 5.282 10.562
3.638 9.133 9.809
3.787 9.779 9.738
3.808 10.122 9.664
3.751 10.710 9.566
3.859 11.287 9.571
3.267 3.268 10.720
3.318 3.860 10.582
3.292 4.168 10.514
3.327 4.681 10.505
3.353 5.177 10.347
3.815 9.107 9.283
3.810 9.616 9.213
3.716 10.240 9.261
3.847 10.586 9.205
3.905 11.083 9.183
3.839 11.623 9.034
3.152 2.675 10.251
3.301 3.252 10.184
3.417 3.577 10.172
3.423 4.176 9.930
3.289 4.750 9.902
3.520 5.173 9.955
3.786 8.638 8.992
3.829 9.016 8.837
3.946 9.613 8.844
3.809 10.152 8.701
3.958 10.524 8.759
3.980 11.009 8.649
4.085 11.583 8.569
3.244 2.603 9.818
3.297 3.066 9.636
3.488 3.527 9.657
3.330 4.045 9.563
3.498 4.589 9.449
3.417 5.207 9.304
3.537 5.587 9.323
3.898 8.019 8.440
3.784 8.463 8.368
3.857 9.078 8.369
3.873 9.527 8.354
4.071 9.982 8.317
3.968 10.548 8.205
4.023 11.078 8.159
4.093 11.553 8.017
4.222 11.986 8.071
3.293 2.147 9.349
3.432 2.557 9.334
3.533 3.129 9.258
3.411 3.463 9.039
3.531 4.099 8.979
3.491 4.460 8.942
3.531 5.085 8.962
3.601 5.548 8.889
3.583 6.025 8.791
3.844 7.009 8.083
3.928 7.412 8.063
4.009 7.870 8.121
3.841 8.399 7.997
3.929 8.917 7.985
3.963 9.540 7.938
3.959 9.998 7.810
4.178 10.334 7.640
4.099 10.919 7.728
4.206 11.487 7.604
4.184 11.923 7.519
4.162 12.402 7.409
3.428 1.041 8.902
3.378 1.426 8.769
3.421 1.889 8.862
3.514 2.484 8.653
3.431 3.060 8.708
3.597 3.562 8.598
3.512 4.059 8.567
3.623 4.524 8.520
3.725 4.855 8.366
3.642 5.431 8.380
3.723 5.859 8.382
3.844 6.521 8.134
3.804 6.990 8.080
3.922 6.937 7.568
3.927 7.348 7.596
4.030 7.833 7.525
4.108 8.413 7.570
3.978 8.913 7.412
4.117 9.272 7.424
4.173 9.824 7.180
4.138 10.277 7.135
4.255 10.811 7.094
4.169 11.424 7.016
4.189 11.799 6.950
4.283 12.342 7.048
3.536 0.989 8.369
3.410 1.435 8.441
3.463 1.878 8.299
3.570 2.498 8.256
3.544 2.947 8.196
3.692 3.305 8.135
3.781 3.982 8.055
3.765 4.399 8.081
3.673 4.883 7.895
3.720 5.454 7.848
3.775 5.895 7.884
3.846 6.332 7.632
3.988 6.867 7.557
4.025 6.922 7.224
3.974 7.345 7.203
4.172 7.875 7.124
4.102 8.223 6.880
4.232 8.891 7.021
4.262 9.264 6.843
4.229 9.829 6.823
4.186 10.279 6.730
4.320 10.713 6.589
4.380 11.238 6.538
4.312 11.803 6.621
4.504 12.235 6.473
3.452 0.945 7.983
3.532 1.433 7.894
3.524 1.798 7.871
3.627 2.381 7.814
3.789 2.829 7.710
3.622 3.302 7.602
3.757 3.933 7.619
3.805 4.246 7.491
3.758 4.760 7.448
3.787 5.369 7.306
4.005 5.916 7.390
4.018 6.305 7.212
3.992 6.794 7.193
4.130 6.813 6.593
4.128 7.245 6.656
4.169 7.703 6.536
4.261 8.219 6.496
4.289 8.658 6.518
4.180 9.156 6.460
4.326 9.762 6.343
4.419 10.161 6.264
4.359 10.822 6.276
4.329 11.249 6.197
4.473 11.700 5.979
4.559 12.162 6.028
3.546 0.887 7.455
3.724 1.353 7.466
3.740 1.811 7.414
3.663 2.208 7.329
3.741 2.813 7.109
3.783 3.344 7.221
3.739 3.728 7.125
3.842 4.247 6.952
3.924 4.788 6.986
3.893 5.311 6.850
3.971 5.811 6.726
3.949 6.214 6.707
3.960 6.668 6.644
4.209 6.747 6.125
4.239 7.216 6.148
4.319 7.750 6.117
4.257 8.140 6.107
4.310 8.565 5.996
4.386 9.198 5.818
4.420 9.660 5.827
4.494 10.064 5.752
4.436 10.583 5.651
4.534 11.216 5.514
4.543 11.732 5.626
4.561 12.164 5.538
3.663 0.613 6.879
3.762 1.140 6.913
3.781 1.721 6.779
3.772 2.187 6.876
3.877 2.674 6.667
3.972 3.126 6.567
3.920 3.674 6.472
3.868 4.270 6.410
4.001 4.723 6.511
4.008 5.238 6.324
4.055 5.715 6.400
4.018 6.284 6.252
4.097 6.737 6.105
4.329 7.165 5.606
4.262 7.667 5.619
4.353 8.164 5.609
4.361 8.582 5.393
4.314 9.153 5.292
4.561 9.523 5.309
4.581 10.083 5.181
4.502 10.654 5.254
4.597 11.178 5.075
4.669 11.558 5.167
4.585 12.146 4.919
3.836 1.139 6.307
3.886 1.697 6.323
3.799 2.136 6.354
4.027 2.659 6.201
4.004 3.122 6.136
3.956 3.603 6.105
3.963 4.076 5.981
4.061 4.514 5.891
4.048 5.104 5.880
4.151 5.541 5.790
4.092 6.137 5.764
4.516 8.001 5.049
4.483 8.608 5.036
4.503 8.961 4.807
4.527 9.546 4.742
4.482 9.975 4.826
4.598 10.490 4.747
4.735 11.108 4.529
4.674 11.598 4.636
3.977 1.540 5.843
3.982 2.066 5.788
3.949 2.639 5.628
4.096 2.986 5.563
4.131 3.645 5.613
4.024 4.016 5.583
4.245 4.479 5.520
4.197 5.045 5.421
4.509 8.384 4.431
4.597 8.905 4.295
4.547 9.390 4.333
4.558 10.034 4.196
4.621 10.494 4.185
4.838 10.893 4.214
4.079 2.020 5.304
4.008 2.558 5.132
4.159 3.007 5.188
4.121 3.535 5.047
4.286 4.043 4.969
4.172 4.527 5.060
4.537 8.374 3.890
4.624 8.909 3.974
4.796 9.354 3.813
4.757 9.778 3.692
4.788 10.409 3.675
4.167 2.486 4.808
4.292 2.827 4.603
4.245 3.332 4.676
4.371 3.891 4.622
4.323 4.353 4.449
4.675 8.383 3.370
4.695 8.712 3.488
4.874 9.304 3.339
4.790 9.897 3.390
4.950 10.404 3.149
4.334 2.253 4.145
4.237 2.813 4.173
4.359 3.391 4.148
4.269 3.788 4.102
4.414 4.295 3.938
4.836 8.343 3.007
4.735 8.840 3.018
4.928 9.294 2.854
4.921 9.638 2.794
4.916 10.264 2.840
4.935 10.825 2.733
4.356 1.776 3.797
4.413 2.246 3.814
4.254 2.743 3.722
4.336 3.195 3.536
4.329 3.709 3.533
4.506 4.284 3.549
4.866 7.697 2.659
4.804 8.070 2.502
4.981 8.770 2.430
4.982 9.270 2.271
4.875 9.600 2.290
5.097 10.132 2.141
5.066 10.593 2.100
4.991 11.141 2.085
4.398 1.295 3.429
4.367 1.734 3.302
4.341 2.167 3.312
4.493 2.701 3.112
4.468 3.271 3.097
4.568 3.639 3.063
4.560 4.287 3.082
4.599 4.656 3.002
4.740 6.639 2.226
4.757 7.016 2.026
4.975 7.651 2.104
4.970 8.167 2.044
5.037 8.569 1.982
5.064 9.190 1.802
5.097 9.652 1.861
5.084 10.016 1.702
5.063 10.587 1.636
5.246 11.078 1.682
5.287 11.626 1.651
4.266 0.707 3.008
4.302 1.197 2.942
4.488 1.743 2.817
4.378 2.135 2.681
4.584 2.730 2.702
4.464 3.043 2.561
4.580 3.626 2.520
4.553 4.065 2.440
4.570 4.586 2.528
4.788 5.155 2.318
4.695 5.648 2.270
4.908 6.119 1.699
4.851 6.471 1.699
4.964 7.035 1.552
5.008 7.552 1.549
5.126 8.144 1.585
5.002 8.471 1.425
5.005 9.068 1.339
5.078 9.470 1.289
5.074 9.999 1.367
5.139 10.508 1.283
5.268 11.128 1.151
5.363 11.593 1.147
5.389 11.970 1.019
4.325 0.023 2.548
4.555 0.692 2.373
4.519 1.154 2.460
4.513 1.591 2.388
4.480 2.077 2.247
4.552 2.669 2.255
4.586 3.105 2.210
4.679 3.486 2.025
4.668 4.012 2.032
4.748 4.467 1.965
4.851 5.137 1.890
4.766 5.585 1.876
4.767 6.092 1.675
5.033 5.960 1.289
4.942 6.370 1.297
5.050 7.057 1.082
5.155 7.401 1.164
5.010 7.991 1.011
5.208 8.381 0.998
5.123 8.924 0.998
5.115 9.562 0.801
5.239 10.029 0.697
5.296 10.377 0.656
5.220 11.025 0.708
5.263 11.536 0.620
5.385 11.997 0.620
4.382 0.007 2.065
4.521 0.542 1.966
4.535 1.001 1.891
4.644 1.577 1.935
4.627 1.996 1.805
4.684 2.597 1.654
4.774 3.100 1.642
4.797 3.512 1.650
4.720 4.097 1.576
4.874 4.559 1.483
4.944 4.915 1.438
4.856 5.587 1.300
4.913 6.047 1.302
4.925 5.923 0.785
5.011 6.442 0.614
5.127 6.982 0.610
5.124 7.441 0.597
5.131 7.888 0.488
5.222 8.380 0.416
5.309 8.826 0.509
5.310 9.375 0.289
5.404 9.942 0.192
5.470 10.331 0.101
5.418 10.803 0.086
5.358 11.486 0.064
5.525 11.951 0.090
4.680 0.397 1.450
4.698 0.870 1.530
4.706 1.481 1.391
4.661 1.910 1.321
4.712 2.466 1.237
4.859 2.897 1.094
4.883 3.486 1.082
4.960 3.891 1.021
4.819 4.391 0.880
5.058 5.014 0.856
5.065 5.459 0.844
4.983 5.943 0.695
5.204 5.821 0.269
5.160 6.444 0.311
5.104 6.850 0.194
5.225 7.261 0.156
5.189 7.889 -0.066
4.628 0.372 0.969
4.790 0.792 0.969
4.734 1.406 0.863
4.695 1.824 0.797
4.920 2.316 0.829
4.793 2.803 0.728
4.957 3.396 0.676
5.043 3.849 0.578
4.924 4.448 0.544
4.954 4.789 0.491
4.974 5.249 0.432
5.015 5.888 0.374
3.281 7.595 12.119
3.256 8.081 12.008
3.310 8.599 11.913
3.326 9.012 11.921
3.247 9.583 11.870
3.422 10.031 11.863
3.509 10.525 11.710
3.435 11.023 11.707
3.583 11.432 11.521
3.509 11.922 11.520
3.593 12.502 11.452
2.858 4.082 12.607
2.873 4.627 12.407
3.102 4.915 12.474
3.014 5.597 12.438
2.979 5.931 12.186
3.069 6.427 12.320
3.183 6.930 12.091
3.226 7.574 12.140
3.385 8.434 11.482
3.344 8.830 11.328
3.452 9.454 11.274
3.547 9.986 11.267
3.455 10.325 11.110
3.455 10.895 11.102
3.619 11.520 11.011
3.687 11.844 11.103
3.571 12.490 10.962
2.910 2.502 12.236
3.008 2.935 12.212
2.937 3.495 12.008
2.992 3.991 12.042
3.067 4.454 11.907
3.163 5.046 11.877
3.073 5.560 11.792
3.065 5.947 11.855
3.242 6.478 11.663
3.443 8.946 10.925
3.567 9.280 10.845
3.590 9.924 10.802
3.557 10.384 10.653
3.604 10.824 10.664
3.687 11.379 10.602
3.623 11.905 10.430
3.069 2.865 11.610
3.001 3.285 11.525
3.172 3.922 11.595
3.181 4.469 11.390
3.194 4.795 11.529
3.213 5.398 11.375
3.328 5.935 11.403
3.680 9.391 10.346
3.570 9.714 10.204
3.567 10.331 10.237
3.784 10.683 10.254
3.819 11.354 10.022
3.854 11.706 9.970
3.134 2.888 11.176
3.126 3.285 11.106
3.256 3.891 11.011
3.119 4.330 11.037
3.326 4.739 10.842
3.343 5.224 10.961
3.624 9.199 9.800
3.631 9.617 9.766
3.812 10.260 9.826
3.666 10.713 9.750
3.873 11.157 9.701
3.118 3.150 10.733
3.283 3.860 10.520
3.195 4.346 10.511
3.355 4.842 10.349
3.297 5.177 10.460
3.156 9.810 9.640
3.186 10.186 9.744
3.334 10.748 9.668
3.261 11.339 9.597
2.685 3.250 10.628
2.767 3.813 10.394
2.779 4.377 10.439
2.810 4.822 10.315
3.233 9.232 9.262
3.200 9.776 9.214
3.246 10.190 9.070
3.430 10.767 9.035
3.466 11.202 8.943
2.821 3.305 10.164
2.760 3.802 9.938
2.820 4.102 9.951
2.940 4.738 9.894
2.893 5.194 9.898
3.345 9.003 8.760
3.336 9.561 8.778
3.487 10.200 8.647
3.384 10.574 8.611
3.419 11.138 8.532
3.609 11.680 8.545
2.844 2.621 9.529
2.898 3.242 9.611
2.953 3.706 9.419
2.987 4.200 9.445
3.091 4.621 9.394
3.045 5.056 9.307
3.460 8.576 8.367
3.351 9.056 8.352
3.465 9.621 8.219
3.547 10.062 8.264
3.416 10.442 8.186
3.526 11.082 8.028
3.703 11.584 7.886
3.568 11.924 7.909
2.891 2.014 9.258
2.956 2.680 9.152
2.927 3.169 9.058
2.897 3.564 8.988
3.119 3.961 8.850
2.993 4.613 8.819
3.020 4.968 8.876
3.156 5.522 8.738
3.310 7.445 8.014
3.360 7.965 7.961
3.540 8.455 7.895
3.486 8.984 7.872
3.567 9.525 7.653
3.609 9.876 7.583
3.577 10.457 7.652
3.657 10.899 7.591
3.583 11.509 7.503
3.715 11.866 7.508
3.645 12.535 7.364
2.978 1.471 8.733
2.867 1.927 8.773
3.002 2.534 8.615
3.065 2.947 8.685
3.162 3.488 8.425
3.124 3.966 8.461
3.043 4.457 8.436
3.102 5.043 8.273
3.200 5.538 8.220
3.272 6.032 8.113
3.351 6.504 8.199
3.447 6.895 7.479
3.401 7.392 7.574
3.446 7.906 7.371
3.585 8.426 7.465
3.633 8.872 7.245
3.662 9.331 7.305
3.736 9.962 7.184
3.778 10.408 7.156
3.685 10.829 7.155
3.756 11.406 6.972
3.817 11.800 6.999
3.868 12.337 6.941
3.009 0.934 8.410
3.023 1.402 8.274
2.975 2.049 8.270
2.981 2.508 8.172
3.156 2.954 8.060
3.037 3.341 8.069
3.128 3.848 8.031
3.223 4.415 7.982
3.269 4.816 7.890
3.229 5.471 7.847
3.403 5.900 7.746
3.414 6.343 7.738
3.351 6.802 7.541
3.517 6.898 7.086
3.452 7.416 7.120
3.587 7.940 7.001
3.658 8.418 6.816
3.714 8.907 6.735
3.710 9.314 6.770
3.691 9.821 6.721
3.848 10.425 6.740
3.827 10.757 6.651
3.804 11.388 6.517
3.813 11.703 6.549
3.832 12.272 6.314
3.098 0.783 7.947
3.046 1.314 7.865
3.076 1.872 7.651
3.156 2.450 7.606
3.293 2.963 7.589
3.237 3.466 7.614
3.255 3.949 7.463
3.293 4.354 7.366
3.395 4.946 7.272
3.299 5.443 7.242
3.482 5.852 7.285
3.552 6.237 7.172
3.445 6.886 7.056
3.581 6.677 6.651
3.635 7.374 6.480
3.690 7.681 6.476
3.694 8.335 6.306
3.754 8.827 6.271
3.678 9.212 6.252
3.755 9.710 6.194
3.926 10.318 6.089
3.858 10.794 6.065
3.822 11.295 5.917
3.873 11.737 6.066
3.936 12.285 5.822
3.192 0.863 7.437
3.213 1.368 7.335
3.204 1.827 7.266
3.246 2.231 7.105
3.179 2.836 7.157
3.397 3.352 7.048
3.348 3.768 6.888
3.388 4.327 6.877
3.431 4.822 6.856
3.392 5.267 6.849
3.532 5.780 6.792
3.489 6.206 6.566
3.485 6.684 6.527
3.619 6.758 6.032
3.798 7.309 6.072
3.686 7.618 5.971
3.840 8.100 5.949
3.709 8.761 5.874
3.782 9.100 5.874
3.801 9.628 5.725
3.922 10.286 5.674
4.062 10.694 5.535
4.090 11.156 5.494
3.958 11.736 5.413
4.090 12.204 5.349
3.192 0.684 6.983
3.161 1.233 6.717
3.324 1.778 6.768
3.389 2.195 6.794
3.365 2.624 6.634
3.407 3.188 6.626
3.373 3.696 6.520
3.473 4.244 6.502
3.474 4.740 6.378
3.458 5.221 6.272
3.530 5.733 6.161
3.600 6.268 6.218
3.714 6.731 6.011
3.721 7.559 5.520
3.940 8.200 5.394
3.841 8.679 5.441
3.963 9.184 5.256
3.921 9.640 5.283
3.925 10.087 5.093
3.933 10.640 5.021
4.016 11.196 5.020
4.213 11.615 5.033
3.262 1.757 6.205
3.375 2.154 6.210
3.357 2.751 6.108
3.495 3.196 6.149
3.578 3.752 6.100
3.460 4.129 6.025
3.598 4.564 5.889
3.532 5.174 5.910
3.635 5.665 5.730
3.971 8.122 4.973
4.035 8.491 4.802
4.099 9.032 4.858
4.025 9.583 4.750
4.154 10.017 4.767
4.069 10.600 4.630
4.098 11.071 4.525
3.383 2.060 5.613
3.600 2.598 5.648
3.475 3.086 5.523
3.599 3.612 5.573
3.727 4.182 5.381
3.592 4.633 5.426
3.797 4.975 5.275
4.026 8.519 4.355
4.166 8.931 4.339
4.117 9.448 4.207
4.157 10.026 4.207
4.107 10.437 4.076
3.672 2.582 5.231
3.660 2.917 5.144
3.683 3.470 4.984
3.634 3.960 5.029
3.643 4.497 4.814
4.233 9.014 3.746
4.172 9.493 3.701
4.235 9.876 3.609
4.304 10.482 3.683
3.765 2.551 4.748
3.683 2.891 4.639
3.777 3.353 4.563
3.780 3.942 4.493
4.277 8.784 3.286
4.335 9.372 3.169
4.367 9.788 3.254
4.263 10.251 3.046
3.824 2.454 4.248
3.791 2.822 4.160
3.920 3.451 3.939
3.800 3.868 3.885
4.366 8.233 2.915
4.296 8.859 2.745
4.430 9.363 2.768
4.398 9.767 2.791
4.475 10.205 2.606
3.844 2.357 3.593
3.779 2.833 3.580
3.855 3.311 3.617
4.040 3.770 3.572
4.043 4.366 3.451
4.253 7.677 2.453
4.441 8.286 2.483
4.486 8.712 2.349
4.526 9.138 2.311
4.398 9.603 2.147
4.622 10.091 2.188
4.458 10.723 2.063
3.955 1.633 3.205
4.002 2.291 3.192
3.916 2.737 3.224
3.959 3.227 3.097
4.051 3.677 3.020
4.022 4.312 2.994
4.163 4.635 2.915
4.337 7.124 2.122
4.425 7.735 2.083
4.469 8.142 1.928
4.565 8.530 1.809
4.446 9.222 1.877
4.533 9.698 1.804
4.569 10.087 1.566
4.659 10.717 1.553
4.654 11.180 1.583
3.947 1.285 2.797
3.879 1.690 2.732
4.064 2.142 2.674
4.008 2.701 2.534
4.165 3.123 2.551
4.131 3.712 2.538
4.236 4.200 2.539
4.130 4.555 2.462
4.108 5.104 2.410
4.377 6.043 1.584
4.408 6.593 1.544
4.454 7.166 1.618
4.548 7.618 1.533
4.598 8.004 1.524
4.626 8.532 1.353
4.705 9.104 1.196
4.724 9.454 1.209
4.720 10.085 1.222
4.694 10.611 1.125
4.810 11.089 1.021
4.847 11.477 0.890
4.932 12.068 1.007
3.838 0.185 2.467
3.980 0.513 2.416
3.885 1.046 2.238
4.130 1.502 2.163
4.157 2.096 2.174
4.143 2.614 2.239
4.212 3.168 1.982
4.129 3.651 1.912
4.132 4.025 1.990
4.239 4.501 1.928
4.403 5.040 1.776
4.388 5.544 1.704
4.294 6.065 1.621
4.440 5.917 1.170
4.587 6.598 1.059
4.428 7.042 1.020
4.644 7.492 0.942
4.582 7.936 0.932
4.586 8.553 0.949
4.574 9.062 0.912
4.763 9.441 0.733
4.747 9.959 0.653
4.825 10.485 0.622
4.853 10.921 0.514
4.916 11.512 0.407
4.967 11.969 0.320
3.941 -0.002 2.038
4.061 0.552 1.817
4.105 0.996 1.859
4.167 1.470 1.740
4.124 2.112 1.814
4.079 2.600 1.618
4.236 2.939 1.490
4.298 3.523 1.466
4.320 4.029 1.360
4.279 4.434 1.339
4.458 4.965 1.217
4.471 5.522 1.250
4.501 6.052 1.211
4.589 6.014 0.712
4.512 6.416 0.562
4.634 7.000 0.554
4.587 7.531 0.501
4.771 7.967 0.350
4.663 8.354 0.322
4.685 8.919 0.419
4.868 9.359 0.169
4.794 10.002 0.139
4.856 10.430 0.063
4.935 11.006 -0.017
4.094 0.455 1.425
4.183 0.930 1.402
4.227 1.524 1.335
4.136 1.890 1.290
4.280 2.516 1.126
4.332 2.862 1.073
4.423 3.437 1.064
4.311 3.920 1.008
4.431 4.378 0.894
4.442 4.981 0.725
4.386 5.493 0.775
4.611 5.881 0.697
4.514 5.946 0.296
4.691 6.417 0.124
4.638 6.890 0.072
4.631 7.294 0.074
4.101 0.459 0.900
4.158 0.978 0.748
4.376 1.437 0.779
4.361 1.964 0.679
4.285 2.304 0.647
4.448 2.832 0.537
4.322 3.389 0.431
4.449 3.901 0.426
4.591 4.440 0.376
4.521 4.856 0.278
4.651 5.481 0.168
4.606 5.915 0.301
2.683 8.019 11.897
2.752 8.548 11.803
2.722 8.958 11.911
2.884 9.418 11.696
2.863 9.950 11.669
2.829 10.444 11.573
2.975 11.043 11.554
2.997 11.555 11.459
3.019 11.943 11.339
3.049 12.421 11.369
2.362 3.468 12.438
2.437 4.096 12.364
2.539 4.604 12.429
2.550 4.962 12.266
2.581 5.651 12.155
2.586 5.976 12.203
2.712 6.482 12.136
2.650 7.138 12.052
2.885 9.021 11.423
3.033 9.481 11.274
3.013 9.992 11.214
2.945 10.486 11.212
2.965 10.907 10.973
3.071 11.403 10.905
3.043 11.940 11.044
3.046 12.485 10.906
2.477 2.420 12.234
2.328 2.983 12.091
2.572 3.386 12.061
2.588 4.063 11.924
2.579 4.575 11.967
2.621 5.037 11.848
2.548 5.492 11.860
2.564 5.959 11.746
3.016 9.415 10.657
2.961 9.858 10.778
2.974 10.309 10.534
3.017 10.964 10.517
3.239 11.350 10.440
3.175 11.952 10.530
2.539 2.844 11.550
2.606 3.460 11.479
2.563 3.888 11.524
2.591 4.420 11.360
2.641 4.876 11.284
2.648 5.302 11.344
3.193 9.382 10.198
3.118 9.798 10.233
3.160 10.202 10.195
3.275 10.833 10.178
3.253 11.253 10.015
2.590 3.245 11.091
2.683 3.880 10.896
2.689 4.290 11.020
2.823 4.838 10.753
2.845 5.449 10.744
3.222 9.635 9.721
3.237 10.315 9.721
3.311 10.648 9.522
3.350 11.269 9.517
2.812 3.345 10.616
2.756 3.758 10.388
2.835 4.376 10.504
2.904 4.674 10.294
2.665 10.196 9.516
2.324 4.290 10.344
2.752 10.278 9.140
2.846 10.775 8.961
2.361 3.837 9.984
2.416 4.222 9.775
2.808 9.602 8.576
2.963 10.065 8.630
2.846 10.583 8.442
2.928 11.109 8.559
2.425 3.125 9.579
2.356 3.624 9.404
2.535 4.191 9.413
2.528 4.691 9.402
2.991 9.069 8.152
2.862 9.556 8.123
2.921 10.035 8.089
2.925 10.596 8.102
3.048 11.008 7.991
3.044 11.654 7.916
2.358 2.653 9.009
2.542 3.002 8.953
2.544 3.607 8.926
2.628 4.033 8.772
2.650 4.683 8.832
2.583 5.026 8.648
3.030 8.599 7.841
2.971 8.948 7.697
3.085 9.492 7.626
3.093 10.036 7.668
3.033 10.437 7.498
3.197 10.994 7.509
3.121 11.547 7.324
3.309 12.000 7.458
2.409 2.051 8.582
2.391 2.535 8.655
2.464 2.921 8.454
2.475 3.636 8.504
2.548 3.965 8.299
2.665 4.487 8.292
2.679 5.113 8.272
2.784 5.577 8.088
3.073 8.030 7.295
3.107 8.445 7.381
3.092 8.935 7.170
3.048 9.430 7.250
3.111 9.888 7.198
3.093 10.521 7.127
3.217 10.854 7.015
3.322 11.460 6.813
3.193 11.809 6.885
3.287 12.463 6.785
2.460 1.514 8.099
2.453 2.024 8.069
2.516 2.421 7.981
2.561 2.882 8.049
2.608 3.500 8.037
2.752 4.046 7.877
2.744 4.349 7.710
2.831 4.914 7.777
2.856 5.434 7.747
2.789 5.894 7.625
2.893 6.848 6.919
3.061 7.336 6.867
3.083 7.906 6.867
3.101 8.314 6.854
3.064 8.955 6.697
3.228 9.406 6.788
3.161 9.829 6.628
3.260 10.346 6.589
3.317 10.847 6.566
3.414 11.306 6.435
3.448 11.780 6.454
3.479 12.332 6.242
2.556 0.904 7.851
2.654 1.391 7.680
2.571 1.966 7.735
2.581 2.415 7.588
2.789 2.815 7.500
2.816 3.484 7.471
2.855 3.811 7.486
2.894 4.343 7.324
2.937 4.938 7.284
2.796 5.363 7.298
2.852 5.778 7.069
2.900 6.383 7.059
2.940 6.902 7.055
3.052 7.263 6.445
3.110 7.825 6.404
3.149 8.333 6.397
3.285 8.896 6.303
3.370 9.214 6.264
3.204 9.787 6.049
3.341 10.187 6.081
3.319 10.816 6.106
3.449 11.195 5.907
3.423 11.845 5.928
3.523 12.252 5.824
2.578 1.259 7.186
2.700 1.801 7.237
2.811 2.232 7.169
2.681 2.871 7.066
2.813 3.413 7.030
2.826 3.879 6.987
2.954 4.270 6.730
2.999 4.897 6.728
2.880 5.352 6.814
3.107 5.856 6.545
3.006 6.347 6.627
3.330 7.816 5.932
3.295 8.124 5.893
3.419 8.674 5.865
3.285 9.130 5.792
3.292 9.735 5.649
3.459 10.208 5.626
3.435 10.709 5.605
3.603 11.142 5.377
3.598 11.631 5.395
2.856 1.761 6.629
2.831 2.289 6.697
2.752 2.647 6.429
2.926 3.341 6.384
2.837 3.708 6.381
3.026 4.200 6.313
3.045 4.632 6.284
3.047 5.155 6.144
3.134 5.728 6.184
3.250 8.134 5.311
3.473 8.698 5.171
3.470 9.037 5.243
3.457 9.640 5.239
3.555 10.087 5.017
3.580 10.552 4.971
3.687 11.116 4.854
2.874 2.098 6.165
2.859 2.647 5.983
2.966 3.287 6.031
2.986 3.759 5.986
3.017 4.176 5.926
3.066 4.771 5.863
3.037 5.270 5.798
3.433 8.574 4.796
3.593 8.979 4.646
3.607 9.675 4.760
3.659 10.135 4.543
3.638 10.534 4.636
3.086 2.581 5.579
3.127 3.179 5.419
3.006 3.651 5.507
3.111 4.105 5.349
3.086 4.597 5.280
3.490 9.050 4.286
3.706 9.575 4.226
3.667 9.899 4.069
3.090 3.125 5.051
3.105 3.458 4.871
3.227 4.101 4.976
3.636 9.402 3.749
3.308 3.438 4.344
3.756 9.446 3.257
3.255 3.409 4.027
3.811 8.727 2.703
3.955 9.381 2.720
3.996 9.841 2.715
3.475 2.897 3.450
3.414 3.420 3.454
3.373 3.848 3.422
3.824 8.176 2.402
3.838 8.793 2.352
3.905 9.269 2.186
4.003 9.702 2.153
3.969 10.133 2.024
3.474 2.157 3.145
3.488 2.784 3.055
3.415 3.320 2.910
3.503 3.796 2.875
3.542 4.176 2.900
3.958 7.655 1.819
4.055 8.182 1.865
4.063 8.691 1.782
4.101 9.047 1.787
4.096 9.649 1.573
4.014 10.064 1.551
4.220 10.642 1.469
3.477 1.633 2.692
3.566 2.161 2.707
3.570 2.725 2.626
3.483 3.271 2.420
3.623 3.750 2.373
3.735 4.103 2.398
3.703 4.695 2.236
4.037 7.073 1.443
4.047 7.511 1.384
3.983 8.022 1.362
4.131 8.613 1.308
4.174 9.179 1.234
4.106 9.635 1.110
4.239 10.098 1.146
4.271 10.604 0.995
4.356 11.032 0.947
3.596 1.132 2.291
3.546 1.696 2.138
3.669 2.105 2.186
3.711 2.656 1.966
3.613 3.043 2.063
3.792 3.638 1.846
3.825 4.100 1.748
3.780 4.542 1.806
3.828 5.129 1.798
3.939 6.605 1.001
4.017 7.075 1.076
3.979 7.503 0.934
4.169 8.039 0.816
4.094 8.507 0.830
4.259 9.064 0.716
4.212 9.449 0.614
4.168 10.050 0.630
4.341 10.443 0.499
4.354 10.977 0.479
4.443 11.417 0.358
3.619 0.543 1.818
3.615 1.028 1.791
3.641 1.590 1.692
3.646 2.057 1.588
3.611 2.456 1.513
3.778 3.046 1.589
3.849 3.595 1.405
3.698 4.103 1.261
3.791 4.556 1.264
3.976 5.032 1.306
4.003 5.634 1.097
4.021 5.954 0.530
4.174 6.449 0.534
4.048 7.055 0.523
4.115 7.503 0.510
4.131 7.899 0.344
4.259 8.501 0.295
4.356 8.849 0.267
4.355 9.337 0.156
4.407 10.008 0.201
4.390 10.365 0.049
3.671 -0.013 1.487
3.684 0.410 1.294
3.625 0.927 1.300
3.634 1.498 1.242
3.744 2.079 1.227
3.671 2.447 0.993
3.709 2.931 0.978
3.774 3.523 0.940
3.976 3.980 0.869
3.943 4.387 0.709
3.860 5.014 0.744
4.025 5.377 0.630
4.050 5.938 0.663
3.588 0.427 0.776
3.744 1.017 0.819
3.749 1.411 0.630
3.749 1.933 0.546
3.837 2.335 0.530
3.932 2.944 0.434
3.986 3.476 0.344
3.938 3.915 0.316
4.008 4.465 0.327
4.091 4.959 0.331
2.314 9.067 11.837
2.373 9.486 11.699
2.418 10.021 11.536
2.487 10.631 11.441
2.375 10.944 11.442
2.542 11.637 11.365
2.470 12.028 11.293
2.616 12.490 11.292
1.720 2.639 12.664
1.925 3.035 12.471
1.822 3.618 12.370
1.824 3.984 12.378
2.009 4.606 12.243
2.094 5.029 12.185
2.106 5.644 12.102
2.180 5.963 12.196
2.353 9.438 11.069
2.489 10.006 11.008
2.440 10.517 11.027
2.450 11.032 10.919
2.499 11.365 10.946
2.527 12.064 10.788
1.952 3.080 12.048
2.050 3.478 12.031
2.025 4.059 11.773
1.984 4.421 11.783
1.991 5.061 11.711
2.178 5.464 11.741
2.510 9.976 10.580
2.605 10.317 10.448
2.608 10.837 10.459
2.589 11.492 10.350
2.135 3.515 11.362
2.193 3.968 11.453
2.065 4.544 11.346
2.104 4.901 11.260
2.759 10.357 10.074
2.611 10.757 10.020
2.231 3.890 10.940
2.141 4.400 10.764
2.669 10.221 9.636
2.279 4.292 10.242
2.369 9.498 8.132
2.479 10.159 7.977
2.633 10.615 7.909
2.511 10.990 7.850
1.964 3.068 8.996
1.924 3.522 8.940
2.009 4.098 8.881
2.064 4.649 8.707
2.582 9.071 7.696
2.575 9.463 7.621
2.614 9.932 7.478
2.544 10.509 7.512
2.673 11.054 7.459
2.749 11.485 7.426
2.048 2.623 8.583
2.062 3.163 8.523
1.984 3.642 8.428
2.081 3.972 8.382
2.216 4.593 8.273
2.106 4.981 8.228
2.502 8.365 7.160
2.606 8.900 7.223
2.601 9.551 7.198
2.675 10.049 7.085
2.733 10.429 6.883
2.789 10.865 6.970
2.725 11.448 6.886
2.887 11.891 6.766
1.966 2.075 8.014
2.015 2.385 7.986
2.195 2.934 7.842
2.087 3.593 7.956
2.109 3.956 7.709
2.295 4.397 7.814
2.289 4.994 7.659
2.310 5.502 7.698
2.696 8.487 6.721
2.754 8.789 6.731
2.639 9.423 6.633
2.705 9.780 6.573
2.665 10.439 6.473
2.914 10.929 6.394
2.871 11.417 6.283
2.974 11.939 6.338
2.076 1.973 7.512
2.254 2.471 7.589
2.132 2.902 7.430
2.197 3.506 7.422
2.374 3.835 7.370
2.210 4.357 7.156
2.326 4.946 7.087
2.463 5.351 7.137
2.804 8.308 6.272
2.637 8.750 6.269
2.804 9.390 6.127
2.835 9.794 5.949
2.922 10.242 6.063
2.891 10.798 5.916
2.839 11.246 5.917
3.070 11.836 5.684
2.190 1.767 7.111
2.149 2.336 7.102
2.191 2.789 6.905
2.358 3.360 6.899
2.264 3.929 6.876
2.392 4.303 6.731
2.539 4.736 6.663
2.380 5.303 6.637
2.669 8.161 5.730
2.803 8.657 5.680
2.908 9.284 5.720
2.915 9.781 5.650
2.878 10.345 5.562
2.987 10.679 5.357
2.949 11.137 5.339
2.412 2.362 6.511
2.336 2.696 6.518
2.315 3.186 6.437
2.324 3.862 6.413
2.579 4.211 6.309
2.466 4.848 6.169
2.542 5.269 6.069
2.859 8.569 5.128
3.035 9.183 5.120
3.054 9.700 5.163
2.957 10.086 5.051
3.069 10.676 4.938
2.545 2.759 6.026
2.409 3.176 5.895
2.437 3.710 5.840
2.588 4.188 5.840
2.524 4.786 5.659
3.001 9.073 4.699
3.061 9.546 4.525
3.007 10.206 4.513
2.563 3.130 5.347
2.698 3.694 5.274
2.584 4.229 5.244
3.505 8.783 2.102
3.504 9.266 2.104
3.490 9.683 2.062
2.880 2.773 3.035
3.012 3.202 2.783
2.995 3.775 2.723
3.560 8.147 1.665
3.396 8.705 1.770
3.433 9.135 1.727
3.540 9.788 1.616
3.627 10.167 1.409
2.968 2.154 2.499
3.116 2.822 2.353
3.045 3.295 2.372
3.121 3.791 2.232
3.043 4.133 2.216
3.487 7.567 1.235
3.509 8.050 1.231
3.485 8.688 1.213
3.710 9.163 1.057
3.563 9.518 1.102
3.669 10.033 0.896
3.768 10.647 0.894
3.002 1.626 1.985
3.010 2.254 2.074
3.190 2.742 2.064
3.117 3.094 1.975
3.185 3.554 1.926
3.235 4.245 1.787
3.181 4.568 1.703
3.482 7.515 0.726
3.552 8.102 0.828
3.723 8.541 0.757
3.605 8.971 0.630
3.764 9.582 0.676
3.689 9.935 0.502
3.734 10.584 0.405
3.922 11.074 0.440
3.016 1.023 1.769
3.138 1.630 1.590
3.050 2.028 1.548
3.173 2.600 1.401
3.232 3.141 1.492
3.260 3.559 1.432
3.286 4.148 1.349
3.427 4.538 1.125
3.587 7.403 0.360
3.623 8.002 0.212
3.776 8.486 0.149
3.739 8.948 0.234
3.797 9.451 0.039
3.935 9.946 -0.039
3.190 1.053 1.245
3.268 1.618 1.157
3.298 2.030 1.081
3.347 2.471 0.953
3.398 2.981 0.968
3.372 3.497 0.784
3.352 3.956 0.777
3.418 4.454 0.751
3.163 0.962 0.631
3.351 1.406 0.523
3.268 1.910 0.537
3.306 2.508 0.394
3.320 2.987 0.394
3.494 3.426 0.390
3.406 3.937 0.213
3.575 4.366 0.278
1.793 9.578 11.507
1.992 10.148 11.556
1.927 10.655 11.417
2.024 11.109 11.430
2.056 11.615 11.291
1.998 12.153 11.327
1.354 3.156 12.519
1.356 3.710 12.425
1.393 4.192 12.249
1.514 4.627 12.283
1.555 5.119 12.126
1.493 5.597 12.136
1.876 9.906 11.003
2.004 10.422 11.015
1.942 10.937 10.910
2.022 11.485 10.908
1.567 3.652 11.897
1.555 4.078 11.709
1.571 4.603 11.650
1.503 5.066 11.679
2.034 10.194 7.913
1.507 4.185 8.593
1.956 9.475 7.402
2.004 9.947 7.408
2.176 10.546 7.306
2.181 10.934 7.241
1.591 3.003 8.271
1.485 3.565 8.301
1.721 4.107 8.118
1.721 4.494 8.179
2.089 8.884 7.055
2.055 9.570 6.996
2.261 9.954 6.999
2.292 10.506 6.978
2.307 10.941 6.906
2.169 11.373 6.668
1.563 2.524 7.988
1.729 3.100 7.834
1.695 3.478 7.708
1.797 3.926 7.660
1.838 4.593 7.732
1.826 5.035 7.495
2.127 8.390 6.605
2.117 8.929 6.547
2.246 9.491 6.598
2.292 9.944 6.356
2.298 10.507 6.308
2.243 10.881 6.302
2.247 11.460 6.215
1.671 2.458 7.518
1.726 2.999 7.414
1.751 3.352 7.350
1.732 3.896 7.313
1.875 4.472 7.192
1.874 4.967 7.137
1.795 5.428 6.934
2.184 8.782 6.023
2.302 9.334 6.111
2.221 9.907 6.002
2.295 10.297 5.968
2.346 10.805 5.858
2.390 11.291 5.742
1.666 2.390 6.847
1.828 2.847 6.870
1.834 3.460 6.793
1.829 3.786 6.749
1.945 4.407 6.562
1.860 4.922 6.657
2.379 8.772 5.524
2.465 9.238 5.447
2.423 9.687 5.387
2.452 10.289 5.415
2.515 10.660 5.426
1.868 2.707 6.263
1.937 3.211 6.246
1.847 3.770 6.314
1.922 4.324 6.250
2.017 4.888 6.117
2.539 9.108 4.944
2.497 9.620 5.049
2.461 10.246 4.896
2.003 3.250 5.713
