3.505 10.567 9.737
3.479 10.430 9.636
6.440 11.796 12.316
6.292 11.432 11.942
5.638 11.445 11.782
5.722 10.916 11.279
4.374 10.311 9.555
3.796 10.034 9.515
6.769 11.381 12.216
6.805 11.080 11.904
6.000 10.712 11.372
4.175 9.515 9.076
7.346 11.094 12.041
6.930 10.675 11.609
8.350 10.964 12.576
7.963 10.922 12.082
7.437 10.286 11.464
8.557 10.340 12.354
8.307 10.308 11.916
7.961 10.273 11.554
8.944 10.334 12.199
8.474 9.775 11.878
8.410 9.989 11.494
7.997 9.590 10.810
5.710 8.145 8.448
9.463 9.938 12.694
9.445 9.757 12.108
8.776 9.541 11.484
8.929 9.332 11.447
8.517 9.285 10.618
8.194 8.750 10.362
6.582 8.035 8.534
6.523 7.658 8.180
10.264 9.483 12.171
9.710 9.604 11.864
9.318 9.186 11.652
9.133 8.868 11.243
8.887 8.572 10.668
8.351 8.726 10.232
8.224 8.414 9.923
7.551 8.317 9.190
7.614 7.964 9.082
7.154 7.844 8.579
6.750 7.419 8.265
10.703 9.749 12.306
10.659 9.420 12.052
10.143 9.060 11.923
9.621 8.756 11.387
9.448 8.576 10.990
9.135 8.705 10.604
8.929 8.047 10.269
8.383 7.995 9.586
8.102 7.531 9.514
7.789 7.655 8.945
7.447 7.457 8.731
7.183 7.077 8.013
11.288 9.132 12.190
11.178 9.220 12.096
10.447 8.693 11.831
10.484 8.561 11.265
10.218 8.414 10.573
9.384 7.902 10.383
9.263 8.102 10.041
9.000 7.756 9.656
8.421 7.357 9.012
8.057 7.201 8.970
7.821 7.170 8.152
7.766 6.642 8.141
11.576 8.734 12.351
11.251 8.586 11.651
11.305 8.631 11.418
10.595 8.050 11.120
10.542 8.204 10.609
10.057 7.758 10.085
9.820 7.595 10.009
9.245 7.227 9.418
8.938 7.104 9.193
8.591 7.005 8.478
8.243 6.639 8.303
7.947 6.312 7.742
0.191 12.462 10.855
0.601 11.885 10.706
1.199 12.117 10.704
0.866 11.807 10.697
3.232 12.691 12.491
2.941 12.344 12.022
2.544 11.929 11.505
2.154 11.934 11.304
1.804 11.787 10.730
1.538 11.362 10.526
3.392 11.976 12.384
3.499 11.959 11.781
3.182 11.768 11.550
2.413 11.558 11.026
2.048 11.188 10.694
1.794 11.076 10.430
4.145 11.838 12.379
4.173 11.842 12.321
3.806 11.352 11.926
3.377 11.513 11.270
3.111 11.313 10.906
2.842 10.845 10.503
2.333 10.852 9.977
4.695 11.460 12.571
4.692 11.252 12.061
3.903 11.342 11.792
3.663 11.121 11.377
3.483 10.680 10.598
2.906 10.347 10.560
2.875 10.434 10.109
5.434 11.277 12.029
4.691 10.863 11.690
4.542 10.700 11.306
4.457 10.641 11.193
4.143 10.243 10.641
3.719 9.960 10.384
3.308 9.671 9.903
6.119 11.172 12.357
5.799 11.157 11.881
5.392 10.671 11.436
5.212 10.644 11.330
4.480 10.185 11.012
4.384 9.888 10.469
3.922 9.621 9.853
3.612 9.821 9.548
6.461 10.807 12.120
6.077 10.689 11.916
5.574 10.531 11.773
4.360 9.248 9.962
3.853 9.283 9.679
6.802 10.364 12.061
6.702 10.230 11.720
4.526 8.658 9.406
7.403 10.108 12.495
7.392 10.265 12.003
6.720 9.754 11.531
4.776 8.446 9.109
7.783 10.189 12.451
7.404 9.629 11.663
7.387 9.468 11.296
5.370 8.393 8.806
8.902 9.863 12.508
8.391 9.333 12.396
7.903 9.359 11.540
7.752 9.232 11.426
7.445 8.888 10.731
6.253 8.067 9.349
5.794 7.923 8.914
9.015 9.455 12.197
8.761 9.045 12.146
8.416 8.976 11.568
8.339 8.698 11.137
7.926 8.751 10.624
7.488 8.543 10.591
7.265 7.936 9.892
6.633 7.639 9.706
6.748 7.463 8.977
6.075 7.576 8.656
9.487 9.233 12.144
9.495 8.857 11.865
8.694 8.434 11.337
8.529 8.426 11.289
8.515 8.062 10.479
8.123 8.091 10.051
7.588 7.628 10.011
7.181 7.688 9.503
6.727 7.222 8.901
6.349 6.955 8.353
10.487 9.139 12.739
10.113 8.636 12.297
9.774 8.647 11.534
9.371 8.336 11.056
8.931 8.127 10.758
8.814 7.642 10.584
8.532 7.484 10.040
7.776 7.340 9.758
7.817 6.953 9.040
7.461 6.772 8.838
7.055 6.509 8.686
10.998 8.597 12.519
10.272 8.440 11.829
9.933 7.992 11.410
9.867 7.951 10.907
9.268 7.522 10.823
9.183 7.503 10.397
8.979 7.246 9.982
8.506 7.203 9.767
8.068 6.606 8.938
7.974 6.630 8.831
7.680 6.162 8.309
11.426 8.464 12.221
11.019 8.158 11.591
10.500 7.556 11.509
10.129 7.790 10.980
9.802 7.203 10.521
9.404 6.924 9.977
9.326 6.729 9.928
8.738 6.784 9.406
8.361 6.486 8.794
8.208 6.476 8.670
7.846 5.926 8.327
0.334 12.333 10.995
-0.141 12.256 10.964
0.381 11.538 10.946
1.215 11.367 11.536
1.022 11.057 10.687
2.689 11.895 12.609
2.536 11.571 12.117
2.169 11.398 11.816
1.681 11.250 11.345
1.560 10.802 10.778
3.044 11.647 12.265
2.889 11.360 11.836
2.499 11.110 11.481
2.287 10.759 10.940
1.641 10.377 10.478
4.060 11.525 12.368
3.485 11.121 12.328
3.305 10.887 11.619
2.912 10.837 11.150
2.288 10.233 10.788
2.300 10.234 10.417
4.134 11.035 12.465
4.161 10.684 12.183
3.657 10.454 11.482
3.126 10.257 11.353
2.785 10.028 10.601
2.591 9.774 10.478
4.930 10.754 12.263
4.138 10.307 11.750
4.000 10.359 11.339
3.689 9.772 10.953
3.494 9.639 10.605
2.868 9.560 10.004
5.449 10.665 12.245
4.894 10.049 11.957
4.932 9.845 11.664
4.480 9.974 10.997
4.213 9.585 10.620
3.774 9.431 10.474
3.449 9.043 10.155
6.122 10.172 12.214
5.531 10.104 11.866
4.179 8.954 10.221
3.665 8.897 9.878
6.795 10.029 12.656
6.459 9.988 12.277
4.188 8.283 9.542
7.107 9.424 12.399
6.817 9.609 12.034
4.517 8.312 9.318
7.425 9.098 12.414
7.206 9.059 12.098
5.074 7.860 9.452
8.100 9.315 12.559
8.029 8.762 12.131
7.493 8.599 11.753
7.196 8.451 11.083
6.115 7.448 9.531
5.564 7.389 9.340
8.882 8.858 12.568
8.471 8.758 11.915
8.188 8.640 11.661
7.859 8.343 10.922
7.143 8.144 10.879
7.210 7.877 10.176
6.481 7.743 9.742
6.221 7.238 9.504
5.903 6.810 9.150
9.055 8.298 12.247
8.736 8.442 11.746
8.248 8.140 11.341
7.936 7.983 10.818
7.971 7.787 10.423
7.148 7.417 10.133
6.969 7.097 9.986
6.863 6.974 9.527
6.628 6.706 8.939
9.939 8.375 12.541
9.638 8.000 12.091
9.350 7.685 11.678
9.065 7.731 11.031
8.460 7.421 10.817
8.065 7.296 10.611
8.039 6.868 9.898
7.280 6.860 9.863
7.184 6.372 9.094
6.630 6.445 8.732
10.462 7.841 12.335
10.086 7.840 11.896
9.811 7.692 11.695
9.121 7.513 11.017
8.937 7.056 10.724
8.517 6.826 10.529
8.098 6.707 9.827
7.783 6.334 9.264
7.603 6.246 8.845
7.086 5.970 8.859
10.824 7.422 12.248
10.224 7.386 11.984
9.943 7.354 11.521
9.855 7.114 11.002
9.395 6.726 10.626
9.248 6.736 10.357
8.663 6.470 9.545
8.400 5.839 9.232
7.927 6.091 9.136
7.838 5.830 8.282
0.179 11.768 11.274
0.540 11.071 11.175
1.578 10.882 11.486
1.080 10.506 10.908
2.598 10.994 12.380
2.168 10.413 11.748
1.828 10.193 11.143
1.549 10.386 10.788
3.159 10.790 12.634
2.975 10.776 12.293
2.658 10.539 11.463
2.569 10.222 10.998
1.967 10.019 10.659
3.752 10.138 12.486
3.476 10.110 11.688
3.041 9.835 11.619
2.927 9.962 11.163
2.348 9.587 10.840
4.703 10.308 12.575
4.104 9.902 12.089
3.777 9.836 11.732
3.741 9.794 11.243
3.387 9.285 11.050
2.658 9.017 10.527
5.151 10.054 12.536
3.728 8.763 10.832
3.296 8.676 10.439
3.834 8.279 10.095
7.606 8.466 12.555
7.578 8.501 12.110
5.349 6.811 9.434
8.342 8.320 12.293
7.579 8.114 11.808
7.302 7.803 11.433
6.165 6.717 9.681
5.822 6.457 9.508
8.623 8.086 12.092
7.992 7.885 11.825
7.802 7.347 11.383
7.752 6.990 11.030
7.182 6.758 10.457
6.634 6.645 10.065
6.708 6.748 9.769
5.965 6.561 9.276
9.487 7.905 12.617
9.048 7.543 11.959
8.681 7.321 11.771
8.468 6.880 11.045
7.790 6.607 10.916
7.827 6.877 10.574
7.308 6.236 10.107
6.727 6.205 9.716
6.480 6.007 9.152
9.957 7.603 12.179
9.159 7.311 12.114
9.104 7.164 11.432
8.697 6.553 10.927
8.373 6.311 10.533
8.201 6.467 10.015
7.792 6.056 9.923
7.279 5.974 9.221
7.098 5.557 8.882
10.715 7.445 12.568
10.257 6.890 12.260
10.003 6.588 11.709
9.657 6.722 11.440
9.303 6.165 11.065
8.774 6.158 10.412
8.607 5.834 10.224
8.032 5.888 9.879
7.856 5.666 9.109
7.302 5.046 9.049
8.484 12.464 0.987
9.565 12.683 1.656
9.285 12.373 1.267
8.706 11.985 1.001
8.633 12.070 0.358
10.119 12.361 1.942
9.994 12.067 1.320
9.600 12.053 1.284
9.244 11.453 0.662
8.833 11.625 0.126
10.622 12.151 1.547
10.254 11.587 1.297
10.146 11.616 1.054
9.710 11.544 0.620
9.059 12.533 2.177
8.413 12.368 1.985
8.311 12.067 1.629
9.828 12.213 2.238
9.052 12.260 1.995
8.935 11.708 1.894
8.728 11.569 1.409
8.127 11.406 1.015
10.212 11.955 2.132
9.687 11.499 1.653
9.387 11.462 1.312
9.155 11.541 0.882
8.815 11.278 0.567
10.616 11.655 2.275
10.153 11.321 1.618
9.814 11.192 1.282
9.553 11.090 1.092
7.343 12.509 2.415
8.355 12.273 2.516
7.956 12.159 2.099
7.628 12.009 2.142
9.161 12.178 2.746
8.908 12.028 2.330
8.319 11.764 2.153
7.856 11.772 1.586
7.513 11.333 1.160
9.541 11.724 3.026
9.069 11.623 2.557
8.909 11.560 2.098
8.277 11.168 1.604
7.953 11.064 1.453
7.803 10.873 0.806
9.878 11.573 2.636
9.335 11.204 2.325
9.032 11.017 2.053
8.781 10.849 1.404
8.591 10.896 1.156
8.209 10.655 0.517
10.175 11.169 2.488
10.154 10.991 2.313
9.752 11.029 1.779
9.450 10.318 1.212
8.695 10.237 1.041
2.250 12.588 0.482
1.650 12.194 0.159
2.266 12.096 0.318
6.872 12.539 3.147
7.515 12.381 3.173
7.037 12.265 2.703
6.976 11.824 2.425
8.153 12.159 3.708
7.858 11.789 2.884
7.844 11.804 2.835
7.209 11.360 2.062
7.176 11.183 1.650
8.706 12.117 3.527
8.711 11.422 2.904
7.893 11.443 2.622
7.583 11.050 1.891
7.451 10.996 1.805
6.881 10.712 1.349
6.723 9.894 0.302
9.319 11.418 3.182
8.732 11.356 2.830
8.571 10.848 2.585
8.245 10.693 2.229
7.920 10.516 1.472
7.727 10.299 1.333
7.204 10.412 0.776
6.694 9.858 0.590
7.415 9.650 0.067
9.751 11.410 3.034
9.271 11.105 2.563
8.767 10.667 2.080
8.760 10.275 1.985
8.404 10.546 1.562
7.730 9.859 1.000
7.886 9.630 0.431
7.419 9.719 -0.022
10.063 10.612 2.688
9.535 10.466 2.684
9.396 10.469 2.002
9.047 9.929 1.802
8.791 10.088 1.133
8.566 9.782 0.927
0.516 12.224 0.280
1.336 12.333 1.191
1.301 12.281 0.553
1.059 11.978 0.348
2.377 12.505 1.723
2.130 12.395 1.368
1.849 12.156 0.604
1.596 11.911 0.515
1.111 11.600 0.271
2.766 12.108 0.877
2.198 11.884 0.917
2.177 11.435 0.451
2.700 11.394 0.348
2.304 11.127 -0.095
6.215 12.380 3.646
6.054 12.048 3.140
6.874 12.123 3.985
6.453 12.310 3.577
6.245 12.070 2.923
7.892 12.334 3.865
7.582 12.050 3.466
7.058 12.019 3.441
6.589 11.620 2.880
6.494 11.524 2.357
5.182 9.706 0.029
8.134 11.636 4.035
7.779 11.475 3.470
7.376 11.476 3.306
7.331 10.963 2.838
6.823 10.948 2.221
6.520 10.943 1.972
6.063 9.814 1.037
6.084 9.637 0.649
5.448 9.606 0.135
8.730 11.322 3.528
8.410 11.523 3.328
7.906 11.051 3.162
7.797 10.589 2.568
7.434 10.751 1.923
6.896 10.515 1.772
6.599 10.416 1.089
6.207 10.198 0.859
6.868 9.801 0.885
6.322 9.201 0.077
8.867 11.220 3.803
8.455 11.124 3.324
8.122 10.909 2.543
8.131 10.551 2.142
7.927 10.314 2.106
7.411 9.917 1.793
6.839 10.071 0.977
6.625 9.677 0.928
7.022 9.490 0.446
6.641 8.794 0.299
9.271 10.751 3.434
8.985 10.379 3.264
8.671 10.591 2.820
8.457 10.342 2.285
8.242 9.947 1.553
7.677 9.867 1.549
7.312 9.347 0.828
7.304 9.399 0.605
7.290 8.813 0.275
7.030 8.508 0.106
9.918 10.612 3.430
9.758 10.380 2.895
9.332 10.222 2.233
8.962 9.642 2.092
8.636 9.568 1.724
8.298 9.275 1.020
7.808 8.885 0.995
7.597 8.741 0.474
0.705 12.194 1.457
0.471 12.108 1.353
0.417 11.928 0.474
2.182 12.680 2.305
1.829 12.268 1.909
1.175 12.263 1.264
0.864 11.772 0.718
0.496 11.639 0.655
0.057 11.524 0.354
2.921 12.444 2.354
2.194 12.237 1.995
1.942 12.091 1.866
1.674 11.724 1.040
1.629 11.749 0.696
1.170 11.519 0.401
2.713 12.561 2.679
3.251 11.876 2.444
2.835 12.035 2.010
2.274 11.361 1.621
1.933 11.462 1.309
1.785 11.132 0.473
1.464 11.154 0.217
3.767 12.614 2.941
3.235 12.022 2.532
2.897 12.096 2.386
2.913 11.381 1.340
2.639 11.234 0.710
2.120 10.688 0.685
2.033 10.717 0.184
4.547 12.601 3.574
4.341 12.172 3.008
3.011 10.618 0.946
2.778 10.383 0.176
5.382 12.302 3.812
5.350 12.158 3.527
5.082 12.162 2.978
3.482 10.309 0.833
3.297 9.899 0.160
6.558 12.473 4.618
6.250 12.420 4.060
5.914 12.249 4.094
5.724 11.989 3.566
5.152 11.395 3.311
3.602 10.106 0.258
3.557 9.903 -0.062
7.279 12.241 4.444
6.661 11.941 4.314
6.319 11.854 3.976
5.980 11.463 3.568
6.035 11.053 2.999
4.722 9.808 0.481
4.014 9.647 0.394
7.332 11.599 4.542
7.368 11.458 4.150
7.144 11.211 3.589
6.326 10.998 3.310
6.366 10.781 2.619
5.835 10.619 2.341
5.858 9.928 1.609
5.099 9.934 1.217
5.192 9.248 0.356
4.830 9.423 0.092
8.031 11.563 4.120
7.651 11.119 3.597
7.213 10.825 3.675
7.013 10.906 2.991
6.547 10.563 2.657
6.122 10.410 2.033
5.961 10.375 2.024
5.459 10.015 1.451
6.331 9.813 1.464
5.619 9.448 0.903
5.382 8.950 0.566
5.278 8.705 0.001
8.335 10.951 3.888
7.994 11.042 3.657
7.895 10.554 3.204
7.256 10.281 3.013
6.957 10.318 2.615
6.546 10.141 2.046
6.400 9.749 1.438
6.094 9.701 1.279
6.269 8.957 0.880
6.321 9.094 0.669
5.838 8.798 0.428
9.059 10.550 4.087
8.533 10.771 3.525
8.237 10.546 3.029
7.647 9.973 2.835
7.451 9.686 2.169
7.211 9.766 1.959
6.946 9.416 1.756
6.643 9.027 0.841
7.060 8.898 0.752
6.778 8.421 0.762
6.154 8.650 0.122
9.003 10.509 3.704
8.744 10.422 3.252
8.814 10.013 3.151
8.235 9.964 2.634
7.953 9.641 2.194
7.802 9.387 1.608
7.334 9.140 1.162
6.764 8.820 1.189
7.186 8.582 0.767
7.135 8.460 0.384
9.922 9.884 3.900
9.430 10.030 3.158
8.952 9.787 2.674
8.732 9.175 2.409
8.298 9.063 2.191
8.196 9.080 1.832
7.737 8.630 1.343
7.536 8.507 0.945
0.117 12.453 1.805
1.452 12.646 2.902
1.197 12.324 2.087
0.518 12.023 1.837
0.115 11.776 1.716
-0.066 11.538 1.314
2.103 12.217 2.819
1.978 11.961 2.731
1.588 11.679 2.251
1.315 11.810 1.976
0.610 11.338 1.333
0.288 11.204 0.827
0.296 10.924 0.375
1.948 12.314 3.216
2.702 12.193 2.801
2.037 11.822 2.414
1.737 11.681 1.861
1.527 11.418 1.810
1.095 11.366 1.267
1.026 10.789 0.754
0.508 10.880 0.469
3.086 12.230 3.670
2.599 12.145 3.256
2.589 12.074 2.652
2.780 11.546 2.876
2.548 11.645 1.998
2.489 11.226 1.717
2.172 11.105 1.260
1.751 10.523 1.154
1.054 10.354 0.490
1.146 10.270 0.420
4.175 12.698 4.476
3.857 12.201 3.784
3.733 11.998 3.328
3.054 11.743 3.201
3.052 11.855 2.700
2.704 10.605 1.519
2.365 10.833 1.317
1.831 10.218 0.629
1.837 10.105 0.493
1.279 10.111 -0.174
4.839 12.643 4.474
4.767 12.219 4.361
4.285 12.180 3.831
4.215 11.861 3.529
2.672 10.390 1.081
2.323 9.956 0.899
2.012 9.760 0.490
6.112 12.664 5.290
5.930 12.535 4.727
5.342 12.259 4.366
5.306 11.975 4.161
4.616 11.783 3.333
3.096 9.863 1.217
2.814 9.896 0.415
2.549 9.231 0.330
6.755 12.107 5.064
5.968 12.047 4.420
5.949 11.458 4.074
5.441 11.373 3.934
5.376 11.032 3.626
3.610 9.550 0.821
3.052 9.242 0.514
2.925 8.995 -0.136
6.841 12.022 4.954
6.420 11.642 4.497
6.423 11.466 4.325
5.790 11.235 3.936
5.654 10.921 3.375
4.630 9.245 1.268
3.795 9.016 0.892
3.786 9.085 0.536
7.513 11.690 4.550
7.069 11.013 4.268
6.709 10.749 3.740
6.575 11.003 3.759
5.947 10.725 2.911
5.849 10.449 2.494
5.686 9.431 1.890
5.335 9.306 1.279
4.785 9.297 0.716
4.396 8.808 0.626
3.973 8.449 0.025
7.631 10.867 4.815
7.555 10.618 4.023
7.049 10.671 3.886
6.808 10.554 3.479
6.516 9.954 2.884
5.895 10.125 2.597
6.015 9.641 2.257
5.459 9.341 1.812
5.825 9.414 1.691
5.742 9.106 1.074
5.275 8.889 0.987
5.034 8.385 0.234
8.060 10.716 4.217
8.016 10.642 4.092
7.726 10.235 3.768
7.453 9.976 3.162
6.821 9.671 2.896
6.494 9.714 2.532
6.103 9.212 1.861
5.647 9.345 1.788
6.186 8.880 1.655
5.896 8.701 0.907
5.701 8.244 0.742
5.185 8.036 0.007
8.493 10.391 4.520
8.078 10.033 3.786
7.794 9.920 3.567
7.776 9.720 3.184
7.320 9.262 2.490
6.923 9.208 2.441
6.466 9.222 1.708
6.383 8.629 1.248
6.891 8.421 1.365
6.390 8.077 0.976
6.216 7.851 0.628
5.494 7.968 0.173
8.822 9.992 4.094
8.652 9.755 3.973
8.438 9.415 3.184
8.278 9.239 2.966
7.899 8.907 2.546
7.582 9.149 2.307
6.992 8.717 1.598
6.653 8.299 1.286
7.369 8.279 1.079
6.783 7.895 0.693
6.743 7.632 0.100
9.315 9.661 4.079
8.952 9.529 3.581
8.966 9.060 3.074
8.461 9.051 3.052
8.171 8.673 2.437
7.628 8.548 1.842
7.345 8.150 1.782
7.036 7.979 0.922
0.769 12.349 3.267
0.535 12.100 3.031
0.131 11.984 2.212
1.440 12.210 3.314
1.147 12.191 2.856
0.711 11.814 2.699
0.656 11.605 2.292
0.196 11.252 1.943
1.898 12.758 4.044
1.513 12.196 3.327
2.106 12.023 3.317
1.529 11.523 2.801
1.025 11.519 2.387
0.781 11.155 1.917
0.690 11.051 1.847
0.196 10.901 1.457
2.508 12.402 4.370
2.228 11.966 3.974
2.047 12.018 3.100
2.250 11.391 3.233
1.876 11.477 2.971
1.610 11.040 2.617
1.180 10.893 1.745
0.931 10.793 1.500
0.559 10.624 1.044
0.417 10.340 0.663
3.827 12.427 5.059
3.199 12.044 4.391
2.786 12.302 3.905
2.883 11.885 3.841
2.178 11.824 3.320
2.253 10.935 2.341
1.549 10.698 1.746
1.227 10.348 1.166
1.308 10.007 0.948
0.813 10.121 0.539
0.290 9.729 -0.063
4.610 12.570 4.836
4.206 12.387 4.554
3.717 12.189 4.258
3.378 11.919 3.751
2.226 10.300 1.561
1.918 10.237 1.381
1.593 9.719 0.652
1.215 9.535 0.284
0.800 9.224 -0.054
5.391 12.381 5.859
5.239 12.005 5.360
4.997 12.167 4.863
4.433 12.017 4.634
4.279 11.664 4.164
2.375 9.479 1.218
2.177 9.306 0.582
1.566 9.469 0.444
5.891 12.014 5.477
5.477 11.834 5.124
5.159 11.597 4.911
4.830 11.669 4.405
2.755 9.308 1.153
2.581 8.883 0.689
2.157 8.739 0.188
6.410 11.611 5.487
6.175 11.386 5.227
5.550 11.314 4.678
5.333 10.893 4.100
2.888 9.042 0.778
2.888 8.488 0.296
6.944 11.499 5.215
6.498 11.097 4.733
6.279 10.767 4.473
5.933 10.854 4.308
3.910 8.938 1.045
3.755 8.771 0.466
3.429 8.624 0.431
7.010 10.846 5.059
6.802 10.791 4.791
6.332 10.404 4.436
6.032 10.592 3.769
5.962 10.107 3.269
4.599 8.669 1.412
4.427 8.639 0.779
4.181 8.084 0.688
3.361 7.840 -0.007
7.493 10.690 4.918
7.415 10.558 4.382
7.039 10.305 4.279
6.500 10.218 3.942
6.436 9.930 3.284
6.183 9.780 2.907
5.455 8.623 1.850
5.207 8.341 1.686
4.892 8.162 0.934
4.592 7.986 0.649
4.179 7.709 0.410
7.772 10.381 4.975
7.625 9.968 4.233
7.564 9.959 3.788
6.944 9.813 3.483
6.891 9.505 3.416
6.275 9.408 3.015
5.859 8.883 2.423
5.824 8.942 1.977
5.961 8.452 2.032
5.874 8.377 1.605
5.468 8.026 1.115
5.096 7.621 0.605
4.687 7.528 0.003
8.318 9.823 4.739
8.306 9.994 4.335
7.665 9.409 4.085
7.238 9.140 3.425
7.054 9.173 2.913
6.935 8.762 2.555
6.407 8.800 2.138
6.346 8.612 1.858
6.524 7.944 1.826
5.984 7.865 1.501
5.861 7.387 0.805
5.678 7.229 0.527
5.402 7.295 0.195
8.639 9.396 4.318
8.703 9.293 4.030
7.949 9.397 3.951
8.061 9.222 3.322
7.492 8.490 3.141
7.133 8.611 2.739
7.078 8.269 2.069
6.466 7.994 1.831
7.143 7.949 1.372
6.666 7.583 1.112
6.104 7.339 0.866
5.705 6.948 0.524
9.123 9.248 4.589
9.106 9.280 4.079
8.550 8.754 3.769
8.402 8.761 3.095
7.717 8.418 2.582
7.612 7.958 2.193
7.523 7.957 1.725
6.961 7.661 1.452
0.334 12.085 3.142
1.188 11.886 4.069
1.042 11.855 3.507
0.578 11.474 3.199
0.369 11.076 2.643
2.081 12.314 4.724
1.744 12.248 4.461
1.361 12.056 3.891
1.918 11.651 3.671
1.618 11.141 3.137
0.884 10.915 2.668
0.954 10.892 2.473
0.404 10.565 2.249
0.292 10.597 1.467
3.039 12.607 5.187
2.448 12.233 5.000
2.517 12.259 4.510
1.976 11.631 4.358
1.873 11.519 3.745
1.627 10.592 2.577
1.157 10.720 2.247
0.627 10.285 1.870
0.215 10.241 1.432
0.057 9.961 1.234
3.837 12.186 5.845
3.416 12.225 5.061
3.092 11.674 4.644
2.991 11.462 4.416
1.554 10.390 1.935
1.237 9.784 1.587
0.954 9.959 1.355
0.406 9.393 0.732
0.112 9.428 0.333
4.955 12.414 6.203
4.531 12.155 5.935
4.436 11.765 5.311
4.009 11.532 5.193
3.350 11.535 4.690
1.469 9.779 1.761
1.319 9.263 1.124
1.009 9.305 1.041
0.694 9.195 0.460
5.540 12.224 5.850
4.822 11.728 5.941
4.427 11.428 5.485
4.134 11.461 5.099
1.491 8.932 0.927
1.205 8.884 0.863
5.229 11.357 5.492
4.984 11.278 5.332
2.238 8.953 0.988
1.624 8.387 0.574
5.934 11.098 5.476
5.309 10.895 5.236
2.559 8.190 0.858
2.146 8.096 0.598
6.169 11.055 5.316
6.067 10.446 4.861
3.321 8.314 1.165
2.897 8.126 0.445
2.909 7.522 0.294
6.927 10.453 5.327
6.500 10.700 5.288
6.206 10.479 4.709
5.839 9.836 4.308
4.212 8.200 1.473
3.674 7.724 0.655
3.177 7.518 0.679
3.108 7.663 -0.158
7.425 10.103 5.564
6.975 10.266 4.961
6.718 9.956 4.444
6.645 9.403 4.334
6.057 9.646 3.907
4.636 8.049 1.421
4.351 7.643 1.274
4.292 7.412 0.658
4.082 7.109 0.461
8.039 9.806 5.358
7.482 9.574 4.843
7.132 9.711 4.404
6.770 9.062 3.831
6.329 9.183 3.522
6.187 9.001 3.409
5.838 7.877 2.135
5.776 7.931 1.890
5.219 7.516 1.408
4.954 7.398 1.184
4.505 6.934 0.795
4.106 6.865 -0.067
8.262 9.404 5.203
8.076 9.481 4.580
7.376 9.262 4.346
7.216 9.090 3.761
6.887 8.646 3.327
6.371 8.271 2.803
6.138 8.280 2.463
5.949 8.226 2.127
6.387 7.684 2.218
6.010 7.662 1.535
5.601 7.138 1.139
5.383 7.026 0.753
5.003 6.585 0.193
4.922 6.416 0.169
8.668 9.392 4.744
8.512 8.805 4.699
7.795 8.917 4.273
7.741 8.582 3.701
7.482 8.272 3.246
6.773 7.935 2.851
6.722 7.728 2.423
6.457 7.837 2.087
6.261 7.009 1.294
5.936 6.840 0.683
5.689 6.652 0.498
9.267 8.720 5.010
8.548 8.637 4.138
8.214 8.317 3.952
8.188 7.984 3.300
7.572 8.191 3.213
7.414 7.738 2.530
0.191 10.895 3.388
0.290 11.046 2.822
2.338 12.335 6.084
2.203 12.110 5.380
1.886 12.141 4.886
0.803 10.549 3.010
0.439 10.611 3.015
0.381 10.464 2.303
3.424 12.698 6.666
3.210 12.407 6.060
3.001 12.294 5.738
2.409 11.815 5.545
2.113 11.487 5.142
0.982 10.298 2.868
0.588 9.910 2.532
0.344 9.818 1.719
4.026 12.297 6.810
3.810 12.323 6.368
3.685 12.145 6.171
3.143 11.810 5.382
2.751 11.334 5.059
0.799 9.507 2.045
0.915 9.420 1.854
0.299 9.341 1.125
0.046 8.917 0.868
4.831 12.020 6.480
4.296 11.941 6.334
4.160 11.691 5.836
3.698 11.446 5.289
1.311 9.192 1.718
0.803 8.581 0.932
4.555 11.364 5.954
4.188 11.116 5.596
2.768 7.785 0.913
2.705 7.450 0.484
6.549 10.154 5.255
6.205 9.610 4.950
3.343 7.450 1.334
3.417 7.135 1.041
2.896 6.947 0.402
2.713 6.816 -0.089
7.066 9.707 5.656
6.754 9.523 5.345
6.688 9.515 5.143
6.095 9.427 4.307
4.260 7.191 1.729
3.839 7.081 0.904
3.823 6.938 0.724
3.158 6.857 0.540
7.690 9.321 5.397
7.537 9.169 5.182
7.027 8.958 4.720
6.609 8.908 4.200
6.227 8.612 3.975
5.185 6.979 1.967
4.633 7.231 1.416
4.407 6.529 1.193
3.811 6.693 0.716
3.536 6.464 0.110
8.226 9.207 5.188
7.616 9.146 5.089
7.453 8.877 4.505
7.274 8.474 4.343
6.618 8.408 4.054
6.283 8.239 3.219
5.678 6.766 1.859
4.964 6.701 1.244
4.688 6.422 0.620
4.636 6.082 0.474
8.217 8.710 5.492
8.250 8.401 4.861
7.893 8.449 4.507
7.524 8.406 4.258
7.193 8.082 3.578
6.866 7.628 3.442
5.729 6.049 1.302
5.286 6.163 0.630
5.160 5.943 0.171
8.995 8.753 4.966
8.309 8.118 4.622
8.427 7.829 4.182
7.789 8.017 3.980
7.662 7.591 3.550
1.891 12.514 6.342
2.869 12.569 7.177
2.566 12.174 6.488
2.249 12.069 6.300
2.083 11.939 5.708
0.375 10.091 3.442
3.619 12.431 7.082
3.176 11.925 6.683
2.733 12.170 6.404
2.471 11.696 6.191
2.326 11.358 5.525
0.473 9.411 2.833
0.135 9.574 2.063
3.843 11.892 7.332
3.471 11.644 6.953
3.637 11.425 6.481
3.156 11.565 6.177
0.286 9.100 1.956
0.053 8.561 1.525
4.054 11.260 6.627
4.025 11.401 6.291
2.842 6.689 1.041
2.575 6.555 0.729
6.697 9.367 5.629
6.211 9.136 5.098
3.585 6.479 1.323
3.558 6.249 1.120
3.210 6.087 0.499
2.867 6.025 0.073
7.313 9.309 6.113
7.264 9.184 5.450
6.721 8.792 5.277
6.254 8.492 4.980
4.694 6.770 1.637
4.215 6.124 1.471
3.764 5.957 1.081
3.554 5.737 0.545
2.967 5.929 -0.152
7.903 8.905 6.008
7.603 8.751 5.633
7.412 8.336 4.873
6.821 8.410 4.516
6.452 8.067 3.998
4.839 6.019 1.382
4.784 6.211 0.947
4.233 5.966 0.836
3.817 5.423 0.358
8.353 8.540 5.421
7.811 8.369 5.058
7.709 7.999 4.904
7.382 8.052 4.408
7.103 7.416 4.141
5.040 5.889 1.228
4.853 5.694 0.690
4.378 5.047 0.333
8.608 8.300 5.468
8.215 8.075 5.351
7.910 7.541 4.891
7.844 7.214 4.051
2.503 12.583 7.558
1.682 12.248 7.302
1.797 11.903 6.817
3.012 12.388 7.827
2.802 12.110 7.389
2.343 12.135 7.120
1.918 11.908 6.349
1.768 11.666 6.413
0.300 9.546 3.369
3.366 11.925 7.690
2.990 11.719 7.364
2.581 11.346 6.713
2.194 11.385 6.643
2.237 11.123 6.283
0.126 9.385 3.205
4.042 11.821 7.521
3.709 11.387 7.169
3.361 11.127 6.638
2.756 10.736 6.184
0.051 8.381 2.339
3.770 11.147 6.978
3.828 10.672 6.623
3.035 6.363 1.732
2.245 6.095 1.394
6.395 8.936 5.918
6.398 8.458 5.619
3.718 6.128 1.856
3.050 6.214 1.374
2.752 5.971 0.857
2.814 5.704 0.420
7.400 9.042 6.220
6.677 8.596 6.016
6.581 8.274 5.658
6.054 8.125 5.028
4.232 6.340 2.246
4.251 6.204 1.662
3.814 5.673 1.404
3.405 5.477 1.010
2.978 5.095 0.336
2.699 5.152 0.004
7.569 8.517 6.212
7.322 8.419 5.551
7.183 8.069 5.211
6.715 7.799 4.985
6.319 7.414 4.693
4.513 5.648 1.991
4.651 5.662 1.340
4.214 5.273 1.301
3.978 5.013 0.546
3.675 4.844 0.135
7.919 8.048 6.027
7.987 7.609 5.856
7.434 7.656 5.072
7.168 7.168 4.772
6.849 7.017 4.477
4.859 5.494 1.536
4.290 4.990 0.888
4.124 4.658 0.731
3.784 4.610 0.313
8.755 7.506 5.887
8.025 7.450 5.648
7.792 7.419 5.220
7.725 7.254 4.753
1.765 12.210 7.908
1.449 12.231 7.747
2.415 12.214 8.296
2.029 11.973 7.814
1.929 11.909 7.401
1.196 11.821 7.318
2.701 12.096 8.040
2.367 11.702 7.845
2.214 11.738 7.420
2.023 11.222 7.182
1.438 10.976 6.502
3.068 11.815 8.224
2.664 11.366 7.664
2.691 11.034 7.401
2.323 10.807 6.865
2.129 10.842 6.409
0.018 8.932 3.583
3.783 11.419 7.857
3.419 11.025 7.352
2.912 10.576 6.857
2.493 10.327 6.733
0.251 8.263 2.637
3.516 10.646 7.257
3.673 10.576 7.172
2.632 6.129 1.799
2.344 5.955 1.656
6.423 8.593 6.460
6.203 8.350 5.969
3.476 5.904 2.086
3.057 5.499 2.049
2.833 5.601 1.545
2.155 5.086 1.198
7.153 8.279 6.823
6.532 8.329 6.436
6.164 8.050 6.026
6.024 7.738 5.605
4.263 5.597 2.699
3.664 5.543 2.201
3.445 5.241 1.810
2.997 5.122 1.308
2.596 5.065 0.589
2.732 4.647 0.536
7.406 7.857 6.484
7.264 7.894 6.020
6.785 7.705 5.596
6.488 7.515 5.486
5.987 7.081 5.142
4.573 5.633 2.189
4.401 5.284 1.852
3.871 5.178 1.465
3.694 5.008 0.998
3.349 4.375 0.472
2.866 4.233 0.525
8.012 7.917 6.409
7.374 7.334 5.959
7.048 7.411 5.619
7.044 7.232 4.920
6.759 6.885 4.691
4.633 5.083 1.970
4.283 4.856 1.110
4.057 4.576 0.795
3.639 4.117 0.679
8.331 7.512 6.480
7.975 7.293 6.050
7.605 6.892 5.434
7.547 6.597 5.261
0.832 12.623 8.834
0.563 12.203 8.378
1.575 12.168 8.768
1.255 11.837 8.670
1.167 12.049 8.032
0.597 11.822 7.798
2.329 11.942 8.657
1.633 11.698 8.059
1.692 11.696 7.688
1.092 11.473 7.719
1.109 10.860 6.987
2.840 11.482 8.378
2.508 11.437 8.393
1.921 10.914 7.531
1.628 10.671 7.141
1.331 10.896 6.834
0.780 10.333 6.556
0.085 9.116 4.884
3.098 11.001 8.578
2.780 10.859 7.893
2.516 10.878 7.439
1.916 10.794 7.307
1.907 10.378 6.543
1.180 9.894 6.281
0.257 8.748 4.096
3.435 10.662 8.237
3.329 10.811 8.077
2.939 10.191 7.654
2.390 10.022 6.882
2.139 9.816 6.877
0.281 7.933 3.601
3.869 10.717 8.307
3.338 10.422 7.697
3.006 9.966 7.525
2.735 9.681 7.039
0.379 7.616 2.958
4.135 9.720 7.767
3.798 9.734 7.299
2.246 6.015 2.702
1.715 5.695 1.917
5.692 8.713 6.786
5.566 8.252 6.802
2.695 6.070 2.901
2.522 5.798 2.425
2.304 5.644 2.031
1.858 5.004 1.603
6.442 8.443 7.078
5.962 8.100 6.639
5.612 8.072 6.333
5.459 7.942 6.229
3.322 5.568 2.770
3.163 5.735 2.337
2.922 5.437 2.213
2.543 4.873 1.713
2.410 5.134 1.270
1.863 4.909 0.731
6.769 8.002 7.216
6.451 7.789 6.559
6.287 7.815 6.206
6.001 7.270 5.795
5.436 7.197 5.396
4.208 5.801 3.171
4.070 5.426 2.626
3.762 5.126 2.490
3.313 4.923 2.223
3.196 4.944 1.688
2.380 4.749 1.016
2.326 4.102 0.710
1.921 4.314 0.268
7.125 7.493 6.764
7.091 7.494 6.642
6.803 7.442 6.193
6.311 7.153 5.775
6.193 6.997 5.393
5.531 6.629 4.670
4.793 5.100 3.171
4.517 5.008 2.679
3.832 4.998 2.312
3.724 4.669 1.979
3.371 4.165 1.672
2.840 4.246 1.047
2.543 4.088 0.642
2.620 3.692 0.250
7.722 7.135 6.834
7.258 7.011 6.411
6.881 6.801 5.784
6.639 6.809 5.689
6.263 6.454 4.935
6.244 6.331 4.675
4.956 4.626 2.795
4.464 4.246 2.113
4.125 4.099 1.687
3.883 4.193 1.386
3.517 3.815 0.823
3.295 3.380 0.560
8.204 7.179 6.621
7.904 6.662 6.170
7.398 6.286 5.760
7.266 6.264 5.587
6.568 5.905 5.042
0.312 12.334 9.350
-0.004 12.272 8.921
1.257 12.304 9.545
0.843 12.196 9.160
0.293 11.573 8.682
0.409 11.699 7.935
1.395 12.116 9.363
1.502 11.457 8.695
1.023 11.462 8.667
0.360 11.199 8.223
0.173 10.967 7.515
2.123 11.760 8.931
1.922 11.514 8.442
1.372 10.952 8.101
1.109 10.929 7.890
0.562 10.794 7.620
0.476 10.410 7.208
0.362 9.362 5.913
2.682 11.386 8.785
2.019 10.920 8.761
1.858 10.806 8.173
1.518 10.527 7.882
1.318 10.127 7.451
0.546 10.156 6.719
0.225 9.826 6.273
0.130 9.453 6.111
0.669 9.438 6.039
0.353 9.262 5.503
3.094 10.955 8.787
2.703 10.558 8.363
2.028 10.609 7.798
1.985 9.976 7.435
1.774 9.831 7.104
1.271 9.551 6.509
0.770 9.679 6.320
0.549 9.168 6.021
0.474 8.558 5.216
3.302 10.428 8.622
3.134 10.194 8.083
2.672 10.138 8.056
2.169 10.023 7.396
2.127 9.344 6.894
1.501 9.367 6.793
0.408 7.908 4.534
0.136 7.541 3.809
3.546 10.197 8.485
3.168 9.738 7.995
2.869 9.679 7.669
2.794 9.451 7.135
2.560 9.361 7.034
0.491 7.534 3.998
-0.107 6.867 3.580
3.969 9.874 8.089
4.016 9.782 8.014
3.324 9.215 7.600
3.012 8.901 7.035
0.684 6.870 3.505
0.214 6.534 3.082
4.193 9.293 7.636
3.779 9.042 7.580
1.220 6.230 2.959
0.441 5.946 2.890
4.610 8.679 7.522
4.470 8.519 7.037
1.192 5.950 3.061
0.899 6.003 2.339
5.048 8.697 7.642
4.814 8.410 7.240
2.099 5.942 3.025
1.727 5.760 2.913
1.630 5.474 2.570
1.190 5.058 2.095
5.879 8.450 7.488
5.693 8.128 7.212
5.283 7.652 7.176
4.692 7.624 6.554
2.726 5.976 3.292
2.735 5.297 3.175
2.190 5.381 2.479
1.900 5.048 2.048
1.822 4.895 1.994
1.350 4.425 1.624
6.267 7.875 7.825
5.906 7.810 7.167
5.657 7.713 6.819
4.982 7.125 6.288
4.716 7.106 6.047
3.744 5.367 3.797
3.534 5.343 3.302
3.164 5.049 2.922
2.775 4.792 2.658
2.179 4.955 2.280
2.256 4.266 1.703
1.759 4.371 1.110
1.279 4.065 0.993
6.543 7.403 7.617
6.153 7.379 6.810
5.889 7.214 6.859
5.778 7.027 6.218
5.135 6.564 5.809
4.985 6.538 5.616
4.675 5.953 4.609
4.639 5.348 3.836
4.208 5.012 3.557
3.543 4.891 3.325
3.578 4.709 3.047
3.220 4.457 2.206
2.778 4.334 2.212
2.270 4.295 1.370
2.328 3.703 1.236
1.678 3.620 0.815
1.467 3.575 0.457
7.199 7.094 7.410
6.667 6.931 6.725
6.367 6.941 6.572
6.226 6.622 6.223
5.620 6.201 5.556
5.217 6.068 5.292
4.978 6.138 4.924
4.584 5.874 4.204
4.957 5.407 4.209
4.773 5.315 3.914
4.372 4.828 3.662
4.341 4.764 2.979
3.633 4.235 2.535
3.683 4.492 2.235
3.299 3.806 2.083
2.670 3.856 1.567
2.524 3.693 0.820
2.006 3.299 0.435
2.034 3.267 0.202
7.337 7.103 7.057
7.262 6.900 6.517
7.022 6.610 6.208
6.409 6.445 5.769
5.965 5.802 5.652
5.845 5.825 5.168
5.362 5.497 4.790
5.360 5.228 4.294
4.771 4.515 3.120
4.575 4.334 2.966
4.437 4.012 2.749
3.972 4.048 2.307
3.767 3.715 1.782
3.207 3.248 1.325
2.958 3.415 0.874
2.768 3.059 0.647
7.671 6.617 7.116
7.772 6.360 6.437
7.500 6.318 6.159
6.697 5.911 5.580
6.494 5.588 5.286
6.204 5.446 5.145
0.422 12.130 9.707
0.298 12.075 9.647
0.749 11.757 9.665
0.461 11.859 9.470
0.222 11.549 9.153
1.146 11.360 9.481
1.303 11.185 9.290
0.954 11.270 8.765
0.444 11.074 8.534
0.204 10.675 7.802
1.594 11.374 9.336
1.642 10.968 8.950
1.408 10.858 8.544
0.660 10.696 8.172
0.380 10.310 7.922
0.402 10.143 7.540
2.271 10.664 9.462
1.683 10.344 8.835
1.798 10.370 8.315
1.135 10.312 8.171
1.093 9.780 7.667
0.764 9.874 7.203
0.194 9.516 7.028
0.376 8.655 6.091
0.004 8.834 5.947
2.488 10.546 8.971
2.260 10.020 8.966
1.763 10.071 8.406
1.413 9.973 8.039
1.188 9.750 7.708
1.112 9.511 6.910
0.610 9.249 6.829
0.392 8.803 6.255
0.736 8.770 6.141
0.351 8.389 5.824
0.108 8.294 5.110
3.042 9.883 8.815
2.855 9.976 8.838
2.617 9.519 8.051
1.880 9.578 7.841
1.935 8.997 7.251
1.433 8.762 6.733
0.873 8.607 6.409
0.714 8.540 6.125
0.427 7.947 5.132
0.006 7.601 4.950
3.396 9.701 8.721
3.148 9.585 8.615
2.837 9.177 7.970
2.425 9.016 7.773
2.157 9.030 6.980
1.826 8.556 6.970
0.572 7.343 4.466
0.410 6.850 4.260
3.986 9.211 8.788
3.695 9.058 8.365
3.407 8.923 8.107
2.941 8.851 7.610
2.449 8.435 6.937
0.749 6.450 4.081
0.242 6.381 3.692
0.182 6.076 3.024
4.361 8.861 8.417
3.820 8.852 8.392
3.917 8.776 7.970
3.397 8.301 7.450
1.261 6.258 4.057
0.649 6.029 3.728
0.458 5.858 3.107
0.300 5.705 2.542
4.985 8.716 8.613
4.527 8.187 8.113
3.877 8.393 7.815
3.585 8.002 7.138
1.494 5.678 3.602
1.021 5.447 3.243
0.971 5.265 2.879
0.734 4.955 2.369
5.177 8.551 8.316
4.699 8.286 7.696
4.320 7.733 7.456
4.365 7.703 7.287
2.103 5.655 4.167
1.936 5.498 3.695
1.761 5.382 3.267
1.213 5.074 2.777
0.954 4.793 2.529
0.650 4.576 1.837
5.873 7.972 7.858
5.325 7.665 7.649
5.030 7.727 7.054
4.702 7.315 6.740
4.248 6.964 6.461
2.996 5.732 4.471
2.483 5.410 4.056
2.287 5.337 3.354
2.083 4.674 3.282
1.812 4.944 2.607
1.354 4.520 2.485
1.311 4.237 1.893
0.718 3.956 1.682
5.874 7.645 7.858
5.948 7.373 7.669
5.155 7.383 6.952
4.816 7.081 6.533
4.904 6.662 6.144
4.196 6.615 5.903
4.378 5.477 5.042
3.570 5.673 4.323
3.714 5.370 4.321
3.202 4.766 3.650
2.684 4.873 3.332
2.721 4.618 2.858
2.082 4.526 2.737
2.039 4.013 2.061
1.667 3.972 1.627
0.923 3.736 1.224
1.041 3.515 0.821
0.364 3.393 0.580
0.190 3.131 0.168
6.452 7.149 7.558
6.098 7.064 7.459
5.776 6.873 6.789
5.538 6.636 6.684
4.979 6.307 6.073
5.019 6.252 5.589
4.662 5.875 5.328
4.073 5.555 5.144
4.601 5.120 5.009
4.196 5.244 4.553
4.020 4.799 3.787
3.604 4.662 3.625
3.045 4.334 3.294
3.116 4.003 2.542
2.799 4.168 2.517
2.458 3.860 1.919
2.139 3.458 1.601
1.385 3.270 1.029
0.994 3.027 0.805
0.975 2.851 0.301
7.052 6.756 7.858
6.786 6.772 7.371
6.272 6.362 7.011
5.821 6.458 6.587
5.621 5.745 6.268
5.282 5.602 5.553
5.044 5.589 5.090
4.743 5.301 5.031
5.195 5.207 4.728
4.603 4.631 4.361
4.465 4.612 3.969
3.770 4.206 3.299
3.837 3.877 3.148
3.297 3.745 2.472
2.970 3.815 2.374
2.556 3.609 2.029
2.342 3.339 1.320
2.227 3.083 0.949
1.793 2.777 0.647
1.392 2.352 0.333
7.241 6.413 7.638
7.103 6.127 7.218
6.649 5.954 6.740
6.120 5.998 6.175
6.027 5.723 5.631
5.546 5.273 5.267
5.359 5.273 4.951
4.879 5.029 4.450
5.572 4.595 4.551
4.944 4.621 4.135
4.959 4.061 3.700
4.514 4.152 3.299
4.047 3.668 2.859
3.864 3.618 2.312
3.386 3.261 1.848
3.277 2.926 1.652
2.672 2.900 1.261
2.306 2.707 0.844
2.002 2.454 0.188
1.817 2.044 0.066
7.714 6.192 7.247
7.173 6.120 7.053
7.076 5.508 6.743
6.981 5.366 6.160
6.564 5.533 5.546
6.307 5.210 5.579
5.701 4.957 5.153
5.481 4.519 4.260
0.304 11.627 10.225
0.256 11.847 10.087
0.574 11.485 10.266
0.327 11.240 9.827
-0.122 10.782 9.068
1.269 11.304 9.724
0.868 10.638 9.528
0.731 10.580 8.937
0.457 10.308 8.845
1.669 10.785 9.871
1.305 10.626 9.273
1.208 10.529 9.173
0.500 10.149 8.391
0.050 9.612 8.125
2.264 10.295 9.524
1.704 10.032 9.326
1.480 9.880 8.851
0.863 9.635 8.405
0.632 9.262 7.877
0.145 9.145 7.818
0.211 9.113 7.200
0.374 8.357 6.438
2.222 10.233 9.610
2.224 9.700 9.004
1.932 9.846 8.773
1.469 9.631 8.529
1.207 9.339 7.760
0.611 8.989 7.714
0.516 8.867 6.966
0.205 8.344 6.596
0.492 8.007 6.656
0.003 8.115 5.930
2.743 9.766 9.535
2.427 9.645 8.864
2.167 9.498 8.771
2.037 8.904 8.008
1.783 8.563 7.556
1.144 8.327 7.475
0.891 8.379 6.741
0.314 8.208 6.271
0.879 7.931 6.213
0.451 7.365 5.815
0.194 7.583 5.508
3.128 9.403 9.208
2.808 8.863 8.887
2.896 9.021 8.434
2.173 8.883 8.080
2.238 8.675 7.381
1.755 8.481 7.073
1.458 8.146 6.719
1.218 7.696 6.284
0.893 7.175 5.626
0.210 6.549 4.785
0.198 6.517 4.604
3.834 8.980 8.843
3.287 9.019 8.417
3.192 8.308 8.168
2.693 8.534 7.783
2.397 7.895 7.381
1.926 7.984 7.105
0.757 6.635 4.605
0.632 6.026 4.513
0.285 6.104 3.907
4.325 8.855 9.103
3.986 8.291 8.338
3.353 8.211 8.001
3.071 8.096 7.624
2.670 7.781 7.222
1.101 5.812 4.708
0.881 5.974 4.167
0.705 5.474 3.677
0.010 5.554 3.452
4.828 8.205 8.561
4.067 7.996 8.158
3.819 7.687 7.722
3.613 7.599 7.452
3.197 7.269 7.397
1.548 5.562 4.604
1.200 5.641 4.220
0.836 5.279 3.746
0.468 5.122 3.149
0.398 4.701 3.131
0.235 4.725 2.534
4.976 7.710 8.622
4.482 7.524 8.023
4.166 7.409 8.003
4.088 7.083 7.606
3.494 6.979 7.238
2.258 5.401 4.586
2.131 5.456 4.423
1.924 5.323 3.760
1.360 4.690 3.812
1.036 4.790 3.320
0.539 4.348 2.731
0.279 4.318 2.137
0.138 3.906 1.790
5.303 7.515 8.735
5.081 7.510 8.181
4.692 7.167 7.657
4.413 6.823 7.509
4.026 6.713 7.060
3.655 6.195 6.447
3.635 5.622 5.712
3.106 5.630 5.248
3.035 5.384 4.726
2.496 5.060 4.363
2.418 4.952 3.696
2.052 4.615 3.610
1.535 4.112 2.909
1.171 3.978 2.537
0.889 4.087 2.293
0.389 3.886 1.742
0.016 3.310 1.580
6.068 7.435 8.466
5.658 6.840 7.766
5.217 6.719 7.319
4.916 6.330 7.104
4.647 6.402 6.844
4.306 6.009 6.208
3.776 5.723 6.006
3.650 5.511 5.655
3.900 5.126 5.321
3.747 4.897 4.871
3.255 4.658 4.488
3.015 4.729 4.155
2.534 4.438 3.666
2.286 4.090 3.429
1.904 3.966 3.140
1.820 3.965 2.661
1.477 3.708 2.049
0.859 3.459 1.429
0.429 3.268 1.017
0.522 2.869 0.652
6.505 6.638 8.103
5.737 6.804 7.545
5.664 6.160 7.163
5.423 6.395 7.069
5.155 5.803 6.711
4.814 5.849 6.066
4.481 5.649 5.609
4.118 5.536 5.165
4.450 5.096 5.226
4.025 4.497 4.580
3.451 4.620 4.129
3.575 4.379 3.786
3.104 4.110 3.595
2.668 3.888 3.108
2.195 3.570 2.667
1.923 3.254 2.227
1.677 3.075 1.923
1.458 3.161 1.662
0.878 2.524 0.950
0.641 2.451 0.861
0.207 2.284 0.503
6.758 6.687 8.249
6.266 6.268 7.794
6.047 5.906 7.243
5.462 6.024 6.810
5.180 5.754 6.658
5.184 5.334 6.061
4.508 5.293 5.791
4.366 4.967 5.331
4.948 4.563 5.156
4.437 4.394 4.492
4.291 4.151 4.388
3.917 3.928 3.918
3.483 3.923 3.336
3.142 3.266 2.806
2.914 3.126 2.544
2.478 3.200 2.197
1.990 2.786 1.776
2.035 2.813 1.429
1.489 2.444 0.968
1.249 2.075 0.400
0.611 1.769 0.009
7.204 6.181 8.138
6.584 5.682 7.282
6.344 5.556 6.918
6.171 5.329 6.552
5.730 5.021 6.124
5.544 5.265 6.005
5.095 4.566 5.359
4.599 4.500 5.263
5.241 4.077 4.695
4.889 3.793 4.303
4.319 3.785 4.204
4.409 3.516 3.418
3.992 3.506 3.058
3.319 2.874 2.965
3.284 3.121 2.349
2.890 2.520 2.028
2.327 2.346 1.685
2.412 2.327 1.418
1.643 2.201 1.028
1.691 1.652 0.623
7.287 5.808 7.855
7.366 5.650 7.221
6.766 5.254 7.164
6.664 5.327 6.402
6.020 5.145 5.906
5.835 4.771 5.466
5.525 4.388 5.211
5.306 4.204 4.674
-0.025 11.251 10.793
0.725 10.893 10.351
0.458 10.920 10.253
1.173 10.630 10.560
0.698 10.320 9.750
0.345 10.268 9.399
0.147 9.931 9.203
1.367 10.254 10.283
1.305 10.027 9.594
0.723 9.828 9.273
0.184 9.907 8.848
0.106 9.727 8.384
1.815 9.939 9.905
1.775 9.663 9.424
1.059 9.666 9.202
0.807 9.571 8.860
0.708 9.001 8.483
0.236 8.764 7.984
2.127 9.570 9.765
2.148 9.348 9.354
1.557 9.063 9.262
1.120 8.743 8.921
0.748 8.810 8.513
0.470 8.296 7.938
0.236 8.262 7.234
0.543 7.581 6.771
0.242 7.402 6.631
2.901 9.523 9.784
2.260 9.072 9.100
1.971 8.687 8.962
1.479 8.605 8.594
1.156 8.305 7.984
0.992 8.194 7.502
0.847 7.783 7.429
0.340 7.902 6.847
0.854 7.204 6.681
0.580 7.295 6.259
0.103 7.079 6.062
3.031 8.931 9.385
2.616 8.600 9.004
2.415 8.745 8.756
1.972 8.108 8.525
2.027 8.171 7.994
1.632 7.972 7.353
1.167 7.638 7.243
0.857 7.471 6.697
0.751 6.397 5.831
0.460 6.131 5.378
3.527 8.735 9.488
3.383 8.231 9.121
2.981 7.908 8.549
2.699 7.705 8.479
2.152 7.938 7.656
1.796 7.654 7.552
0.533 5.767 5.429
0.287 5.590 4.605
3.981 8.003 9.243
3.603 7.969 8.881
3.161 7.726 8.472
2.984 7.358 8.033
2.570 7.596 7.834
1.049 5.648 4.887
0.670 5.495 4.863
0.424 5.146 4.279
0.253 5.030 3.829
4.165 7.962 9.050
3.926 7.649 8.753
3.718 7.574 8.124
3.469 7.242 7.712
3.134 6.808 7.480
1.422 5.370 4.872
1.236 4.946 4.559
0.824 4.972 4.337
0.338 4.585 3.856
0.395 4.639 3.327
4.993 7.640 8.768
4.717 7.500 8.442
3.986 7.110 8.042
3.874 6.632 7.675
3.282 6.680 7.565
2.290 5.207 5.350
1.803 5.195 5.010
1.769 4.917 4.337
1.359 4.646 4.104
0.866 4.164 3.362
0.355 4.250 2.931
0.444 3.597 2.906
5.398 7.293 8.979
4.642 7.190 8.241
4.477 6.943 8.161
4.230 6.533 7.667
4.134 6.119 7.093
3.570 6.115 6.821
3.376 5.460 5.839
2.890 4.841 5.319
2.658 4.944 4.956
2.383 4.639 4.611
1.947 4.199 4.071
1.509 3.944 3.658
1.300 4.029 3.595
1.119 3.479 2.796
0.909 3.376 2.815
0.122 3.037 2.099
-0.082 2.957 1.527
5.809 6.601 8.713
5.573 6.370 8.471
5.089 6.151 8.105
4.873 6.290 7.333
4.531 5.775 6.895
3.853 5.636 6.515
3.472 5.568 6.426
3.159 5.409 5.788
3.837 4.701 5.709
3.662 4.832 5.271
3.027 4.486 4.929
2.616 4.151 4.547
2.307 3.952 4.322
2.328 3.712 3.857
1.574 3.773 3.006
1.251 3.292 2.995
1.319 2.886 2.251
0.775 3.123 2.006
0.534 2.849 1.837
0.088 2.321 0.997
6.289 6.456 8.536
5.956 6.115 8.363
5.195 5.903 7.825
5.268 5.671 7.246
4.834 5.483 6.929
4.628 5.436 6.362
4.026 5.053 6.341
3.568 4.676 5.581
4.237 4.299 5.680
3.770 4.160 5.336
3.347 4.077 4.919
3.333 3.980 4.352
2.672 3.880 3.977
2.301 3.652 3.698
2.279 3.290 2.986
2.067 3.099 2.609
1.468 2.684 2.352
1.062 2.479 1.953
0.700 2.401 1.595
0.632 2.168 1.232
0.414 2.052 0.700
6.444 6.198 8.462
6.284 5.878 8.103
5.670 5.487 7.602
5.645 5.449 7.168
4.964 5.069 6.735
5.042 5.205 6.133
4.690 4.696 5.885
4.368 4.576 5.504
4.537 4.304 5.652
4.251 4.168 5.071
4.119 3.751 4.389
3.691 3.363 4.328
3.055 3.305 3.756
3.145 3.037 3.581
2.631 2.953 3.000
2.145 2.715 2.517
2.013 2.649 2.318
1.447 2.390 1.607
1.075 1.970 1.156
0.753 1.571 0.854
0.670 1.603 0.627
0.126 1.349 -0.142
6.819 5.605 8.282
6.708 5.633 7.855
6.320 5.153 7.263
5.963 5.286 7.163
5.810 4.649 6.821
5.486 4.525 5.987
4.861 4.455 5.698
4.818 3.946 5.478
4.988 4.026 5.354
4.684 3.806 4.823
4.385 3.145 4.204
4.261 3.347 4.243
3.604 2.905 3.791
3.429 2.622 3.124
2.765 2.345 2.874
2.879 2.245 2.216
2.194 2.003 2.053
2.074 2.001 1.796
1.905 1.529 1.147
1.300 1.569 0.548
1.220 1.408 0.523
7.309 5.599 7.954
6.913 5.238 7.800
6.425 5.095 7.538
6.241 4.539 6.895
6.036 4.474 6.684
5.893 4.348 6.174
5.178 3.953 5.779
5.243 3.678 5.017
0.304 10.521 10.846
0.206 10.347 10.485
0.974 10.139 10.490
0.714 9.967 10.226
0.196 9.964 9.821
1.295 10.013 10.392
0.875 9.717 10.328
0.502 9.654 9.508
0.195 9.436 9.532
1.517 9.439 10.491
1.368 9.327 10.110
0.795 9.201 9.483
0.748 8.723 9.097
0.357 8.618 9.004
2.126 9.163 10.438
1.954 9.270 9.978
1.231 9.020 9.436
0.898 8.606 9.248
0.878 8.287 8.761
0.350 8.270 8.471
0.228 8.009 7.863
-0.071 7.432 7.238
2.527 9.078 10.150
2.058 8.558 9.674
1.917 8.643 9.267
1.333 8.109 9.123
1.325 7.845 8.485
0.660 7.773 8.307
0.580 7.352 7.922
0.205 7.233 7.504
2.830 8.376 9.879
2.367 8.593 9.355
2.283 8.108 9.252
2.016 7.936 8.809
1.756 7.848 8.582
1.453 7.449 7.938
0.048 6.031 5.667
3.598 8.458 9.967
2.771 7.769 9.569
2.869 7.864 9.088
2.529 7.319 8.496
2.005 7.435 8.411
0.083 5.152 5.128
3.861 7.887 9.599
3.325 7.413 9.218
3.020 7.221 8.930
2.853 7.013 8.428
0.625 5.034 5.136
0.245 4.894 4.415
4.279 7.671 9.661
3.927 7.228 9.296
3.499 6.847 8.924
3.296 7.021 8.342
1.013 4.755 5.116
0.689 4.526 4.451
0.491 3.995 3.976
4.586 7.206 9.556
4.146 6.707 8.810
4.105 6.890 8.779
3.677 6.523 7.921
1.865 4.460 5.246
1.256 4.575 4.628
1.030 4.124 4.568
0.657 3.644 3.879
0.315 3.905 3.484
0.300 3.287 3.144
4.862 6.818 9.183
4.924 6.489 9.071
4.405 6.530 8.257
3.967 5.985 7.801
3.851 5.756 7.520
2.513 4.571 5.375
2.218 4.448 4.769
1.908 3.737 4.560
1.256 3.753 4.300
1.357 3.489 3.776
0.874 3.396 3.220
0.560 3.162 3.075
0.067 3.106 2.635
5.587 6.473 8.908
4.938 6.013 8.819
4.686 5.966 8.469
4.483 5.539 7.761
3.908 5.335 7.427
3.663 5.338 7.138
3.301 4.517 5.927
3.168 4.132 5.817
3.008 4.129 5.253
2.590 3.930 4.719
2.279 3.586 4.612
1.892 3.201 4.004
1.737 2.979 3.687
1.355 2.905 3.221
1.024 2.749 3.017
0.381 2.458 2.442
0.458 2.380 2.176
6.042 6.097 9.102
5.720 6.059 8.717
5.239 5.460 7.916
4.875 5.567 7.629
4.796 5.370 7.051
4.313 5.068 7.073
4.005 4.730 6.460
3.594 4.370 5.822
3.782 4.342 6.170
3.722 3.771 5.489
3.426 3.862 5.210
3.188 3.536 4.774
2.482 3.525 4.290
2.192 2.876 4.002
1.987 2.858 3.518
1.482 2.514 2.840
1.308 2.374 2.636
1.127 2.060 2.128
0.466 2.141 2.051
0.401 1.859 1.218
6.158 5.958 8.543
6.109 5.474 8.531
5.772 5.442 7.935
5.051 5.095 7.424
5.094 4.867 7.109
4.543 4.713 6.961
4.480 4.622 6.193
3.984 4.331 6.041
4.422 3.718 5.985
3.976 3.819 5.334
3.884 3.531 4.888
3.146 3.188 4.650
3.172 3.107 4.334
2.728 2.472 3.973
2.634 2.577 3.479
1.987 2.216 2.736
1.987 2.269 2.664
1.347 1.651 1.943
1.089 1.795 1.893
0.789 1.301 1.229
0.635 0.889 0.891
0.057 0.786 0.596
6.693 5.542 8.823
6.361 4.946 8.048
6.035 4.908 7.622
5.729 4.477 7.567
5.194 4.457 7.115
4.935 4.020 6.845
4.739 4.207 6.052
4.236 3.677 5.770
5.033 3.234 5.494
4.323 3.314 5.172
4.118 2.795 4.957
3.705 2.952 4.549
3.496 2.649 3.962
3.182 2.407 3.387
2.791 2.351 3.317
2.323 1.656 2.558
2.172 1.884 2.260
2.079 1.686 2.131
1.624 1.014 1.369
1.035 1.137 1.277
1.021 0.982 0.973
0.574 0.472 0.342
7.193 4.995 8.419
7.008 5.028 7.874
6.587 4.741 7.700
6.136 4.569 7.421
5.577 4.377 6.599
5.383 3.956 6.473
5.370 3.635 6.133
4.991 3.326 5.458
10.681 12.667 0.838
10.197 12.536 0.394
9.208 12.318 0.539
8.697 12.169 0.138
10.183 12.453 1.062
9.536 12.521 0.891
9.371 12.184 0.260
10.898 12.201 1.653
10.261 11.912 1.047
9.928 11.864 0.857
9.636 11.489 0.250
8.193 12.325 1.066
9.449 12.475 1.491
9.196 12.221 1.165
9.005 11.795 1.106
8.229 12.060 0.290
10.443 12.578 2.173
9.909 11.943 1.376
9.509 11.793 1.155
9.090 11.599 0.482
8.712 11.636 0.531
10.799 11.957 2.011
10.397 11.816 1.330
9.848 11.607 1.006
9.541 11.363 0.755
1.244 8.386 12.279
1.511 7.755 12.045
6.015 4.258 10.527
6.249 3.958 10.715
1.658 7.759 12.614
5.679 4.021 10.852
6.096 3.759 10.882
4.836 3.949 11.562
5.867 3.927 11.590
5.219 3.877 11.560
6.236 3.457 11.420
6.140 3.354 11.342
6.146 2.879 11.041
4.322 3.988 12.111
5.083 3.925 12.588
4.876 3.585 11.711
5.421 3.457 12.221
5.143 3.204 11.819
6.284 3.330 12.305
5.978 2.891 12.198
5.555 3.064 11.655
6.537 2.526 11.673
6.343 2.311 11.416
4.017 3.804 12.545
4.773 3.085 12.089
5.370 3.235 12.381
4.901 2.648 12.335
5.691 2.564 12.517
5.443 2.366 12.261
6.404 2.371 12.493
5.938 1.935 11.858
4.812 2.638 12.274
5.062 2.081 12.605
5.685 1.777 11.973
0.774 10.307 11.736
1.714 10.044 11.946
1.434 9.677 11.489
2.911 9.922 12.255
2.676 9.958 12.081
1.915 9.494 11.394
1.903 9.457 11.316
3.224 9.779 12.133
2.859 9.429 11.949
2.479 9.547 11.576
2.296 9.003 11.200
3.066 9.146 11.433
2.856 8.861 10.898
2.939 8.315 10.696
7.391 7.680 12.417
5.811 6.193 9.950
8.156 7.462 12.605
8.196 7.153 12.256
7.663 7.254 11.632
6.514 5.961 10.231
5.930 6.044 9.475
9.010 7.145 12.193
8.555 6.681 12.154
7.865 6.596 11.392
7.563 6.221 11.071
7.433 6.105 10.585
7.273 6.267 10.164
7.022 5.678 9.756
6.190 5.640 9.534
9.296 6.844 12.452
8.931 6.523 11.673
8.735 6.560 11.633
7.967 5.882 11.051
7.670 5.630 10.703
7.342 5.721 10.107
7.301 5.245 9.562
7.084 5.301 9.329
9.940 6.438 12.597
9.476 6.180 12.048
9.427 6.442 11.547
8.988 5.806 11.364
7.490 5.166 9.831
7.445 4.720 9.071
1.266 9.310 11.886
1.798 9.374 11.789
1.581 9.110 11.596
2.361 9.092 11.952
2.184 8.696 11.240
2.502 8.279 11.510
7.712 7.067 12.367
6.027 5.613 10.062
8.261 6.306 12.162
7.971 6.382 12.093
6.386 5.344 10.581
6.424 5.053 9.890
8.718 6.196 12.239
8.343 6.020 11.787
6.752 4.876 10.101
6.586 4.864 9.636
9.548 5.941 12.238
8.925 5.665 12.224
7.161 4.483 9.412
1.343 8.614 12.134
1.732 8.433 11.864
5.800 5.037 10.461
6.616 4.348 10.372
1.319 8.062 12.504
1.392 8.127 12.031
5.696 4.628 10.904
6.457 4.271 10.509
0.675 8.466 12.068
-0.004 8.137 11.863
0.979 7.886 11.781
0.334 8.005 11.604
0.024 7.569 11.209
1.078 7.731 11.975
1.000 7.394 11.171
0.428 7.166 10.812
0.158 6.952 10.473
1.535 7.535 11.364
1.565 7.146 11.425
1.098 6.914 10.620
0.477 6.766 10.369
2.045 6.925 10.902
1.544 6.639 10.746
0.902 2.427 5.719
0.574 2.183 5.368
4.160 4.463 10.283
3.962 4.694 9.617
1.612 2.170 5.679
1.088 1.651 5.486
0.548 1.391 5.111
0.298 1.511 4.878
4.883 4.450 10.579
4.575 4.187 10.144
4.530 4.112 9.379
4.176 3.652 9.402
2.052 1.997 5.939
1.962 1.843 5.846
1.684 1.396 5.399
1.312 1.404 4.955
0.993 1.063 4.787
0.767 0.663 3.929
5.735 3.983 10.107
5.033 3.710 9.840
5.091 3.549 9.586
4.676 3.268 9.096
4.306 3.316 8.792
2.876 1.529 5.799
2.060 1.400 5.447
1.854 1.012 5.430
1.535 1.164 4.973
1.383 0.736 4.492
0.913 0.685 3.769
6.171 4.062 10.271
5.667 3.730 9.784
5.374 3.505 9.386
4.832 2.905 8.901
4.597 2.681 8.252
2.563 1.228 5.339
2.200 0.954 4.954
2.177 0.591 4.805
1.713 0.318 4.256
6.119 3.391 10.016
6.163 3.286 9.619
5.619 3.224 9.037
5.345 2.867 8.649
0.408 7.816 12.396
0.483 7.521 12.161
0.530 7.299 12.094
-0.192 7.286 11.270
1.357 7.590 12.264
1.018 6.932 11.856
0.555 6.698 11.198
-0.101 6.525 11.112
1.602 7.085 12.040
0.947 7.012 11.486
0.633 6.291 11.089
0.651 6.495 10.923
1.559 6.318 11.508
1.391 6.111 11.223
0.309 1.678 6.287
-0.084 1.455 5.551
4.246 4.223 10.687
3.744 4.249 10.359
1.161 1.599 6.197
0.675 1.296 5.819
0.418 1.125 5.601
0.066 1.001 5.008
4.802 4.262 10.533
4.560 3.915 10.559
4.396 3.691 10.033
3.667 3.291 9.638
2.071 1.473 6.615
1.441 1.200 6.073
1.456 1.347 5.855
0.993 0.989 5.381
0.640 0.707 5.172
0.145 0.618 4.374
5.505 4.030 10.406
5.090 3.557 10.260
4.476 3.386 9.883
4.515 3.268 9.333
3.773 3.018 8.788
2.547 1.126 6.478
2.102 1.020 5.792
1.650 0.924 5.806
1.257 0.591 5.390
1.323 0.558 5.027
0.687 0.252 4.172
5.957 3.323 10.362
5.537 3.218 10.185
5.257 3.015 9.610
4.783 2.872 9.330
4.394 2.521 8.763
2.529 0.451 5.815
2.221 0.170 5.472
1.779 0.417 4.852
6.060 2.906 10.443
5.784 2.842 9.880
5.500 2.482 9.374
4.942 2.568 9.322
0.121 6.959 12.364
1.088 6.839 12.731
0.443 6.813 12.095
0.106 6.630 11.807
1.131 6.597 12.467
0.911 6.560 12.126
0.895 6.001 11.357
0.405 6.150 10.982
-0.062 5.613 10.830
1.926 6.411 12.409
1.590 5.857 11.548
