4.987 6.542 8.237
5.107 6.098 8.499
2.517 12.378 6.428
2.716 11.865 6.617
0.201 7.170 12.157
0.451 6.700 12.258
0.590 6.116 12.432
0.243 8.366 11.395
0.442 7.750 11.526
0.641 7.310 11.791
0.859 6.713 11.900
1.103 6.191 12.051
1.366 5.648 12.251
0.424 8.878 10.907
0.639 8.392 11.003
0.932 7.839 11.213
1.074 7.303 11.323
1.288 6.841 11.580
1.539 6.307 11.707
1.105 8.446 10.669
1.301 7.932 10.860
1.608 7.366 11.011
1.832 6.846 11.131
1.643 8.557 10.256
1.816 7.958 10.494
1.993 7.484 10.570
2.012 8.578 9.896
2.322 8.114 10.021
2.457 7.524 10.296
2.505 8.658 9.534
2.772 8.144 9.715
2.958 7.661 9.857
3.177 7.065 9.996
2.730 9.318 8.940
2.958 8.800 9.205
3.208 8.266 9.357
3.381 7.747 9.484
3.665 7.127 9.653
3.903 6.606 9.851
1.409 12.432 7.913
2.990 9.917 8.474
3.261 9.387 8.594
3.459 8.771 8.831
3.689 8.303 8.969
3.934 7.759 9.146
4.094 7.279 9.339
4.360 6.734 9.492
4.536 6.224 9.662
1.857 12.514 7.605
2.084 11.955 7.799
3.000 11.009 7.729
3.285 10.538 7.917
3.497 10.005 8.071
3.727 9.439 8.238
3.873 8.869 8.357
4.107 8.325 8.575
4.371 7.843 8.738
4.579 7.299 8.962
4.817 6.734 9.086
5.045 6.245 9.220
5.193 5.696 9.465
2.558 12.100 7.433
2.785 11.532 7.559
2.982 10.986 7.729
3.432 11.086 7.395
3.662 10.583 7.525
3.902 10.004 7.694
4.163 9.517 7.814
4.348 8.967 7.990
4.579 8.408 8.255
4.780 7.874 8.365
5.036 7.393 8.543
5.245 6.818 8.735
5.519 6.283 8.886
5.717 5.828 9.065
3.005 12.154 7.049
3.239 11.617 7.206
3.466 11.124 7.344
0.110 0.950 1.180
0.213 1.763 1.518
0.444 1.160 1.665
0.012 3.123 1.610
0.251 2.553 1.791
0.122 3.860 1.885
0.368 3.356 2.028
0.162 3.488 2.784
-0.035 5.170 1.952
0.239 4.661 2.099
0.418 4.093 2.275
0.722 3.627 2.485
2.092 0.079 4.415
2.507 0.134 4.120
1.966 0.315 5.236
2.131 0.886 4.705
2.356 0.404 4.933
2.578 1.012 4.310
2.877 0.437 4.533
1.744 0.499 6.066
2.060 1.087 5.502
2.216 0.586 5.651
2.441 -0.012 5.861
2.205 1.698 4.945
2.468 1.199 5.110
2.720 0.644 5.298
2.895 0.146 5.519
2.462 2.303 4.465
2.709 1.796 4.649
2.957 1.241 4.802
3.154 0.673 4.992
3.330 0.138 5.168
0.254 0.521 8.000
0.709 0.574 7.624
0.884 0.053 7.794
1.122 0.586 7.252
1.377 0.051 7.420
1.582 0.707 6.870
1.844 0.183 7.009
1.820 1.332 6.367
2.122 0.806 6.469
2.281 0.233 6.644
1.896 2.434 5.612
2.122 1.903 5.793
2.285 1.376 5.910
2.496 0.813 6.183
2.817 0.346 6.264
2.300 2.481 5.212
2.579 1.957 5.430
2.819 1.469 5.589
3.041 0.905 5.705
3.226 0.393 5.956
2.776 2.537 4.890
3.044 2.029 5.058
3.234 1.501 5.168
3.470 0.949 5.366
3.694 0.498 5.602
0.064 0.670 8.787
0.266 0.175 9.027
0.369 1.320 8.311
0.583 0.780 8.433
0.826 0.258 8.654
0.974 0.789 8.079
1.212 0.251 8.270
1.491 0.845 7.681
1.688 0.376 7.899
1.741 1.498 7.168
1.952 1.005 7.366
2.160 0.409 7.444
1.933 2.140 6.606
2.136 1.529 6.746
2.346 1.070 6.948
2.608 0.546 7.063
2.170 2.680 6.022
2.454 2.161 6.233
2.618 1.649 6.383
2.883 1.158 6.544
3.097 0.606 6.785
3.335 -0.000 6.871
2.669 2.783 5.664
2.884 2.185 5.890
3.140 1.753 5.990
3.300 1.138 6.180
3.530 0.630 6.372
3.793 0.126 6.483
3.108 2.884 5.257
3.318 2.302 5.469
3.566 1.802 5.605
3.778 1.259 5.869
3.948 0.717 5.988
4.216 0.160 6.112
0.210 0.285 9.752
0.222 1.517 9.091
0.382 0.967 9.302
0.633 0.419 9.389
0.904 1.035 8.888
1.057 0.491 9.032
1.348 1.037 8.472
1.586 0.567 8.673
1.723 0.031 8.810
1.734 1.212 8.145
1.998 0.678 8.244
2.243 0.149 8.493
2.197 1.254 7.749
2.435 0.697 7.968
2.678 0.129 8.142
2.526 1.792 7.188
2.689 1.311 7.399
2.921 0.797 7.597
3.201 0.198 7.729
2.482 2.983 6.467
2.722 2.482 6.667
2.942 1.949 6.781
3.220 1.352 6.962
3.355 0.876 7.146
3.605 0.356 7.384
2.943 3.010 6.066
3.165 2.500 6.261
3.413 1.945 6.491
3.594 1.395 6.630
3.822 0.877 6.756
4.117 0.372 6.944
3.439 3.063 5.749
3.625 2.531 5.891
3.847 2.042 6.053
4.047 1.562 6.248
4.315 1.022 6.420
4.502 0.477 6.585
-0.036 0.503 10.610
0.250 -0.038 10.811
0.071 1.642 9.904
0.293 1.105 10.032
0.490 0.654 10.177
0.712 0.041 10.412
0.455 1.737 9.474
0.757 1.193 9.640
0.974 0.696 9.862
1.157 0.106 9.986
1.187 1.249 9.340
1.438 0.803 9.526
1.619 0.234 9.623
1.824 0.819 9.158
2.032 0.329 9.301
2.301 0.846 8.726
2.568 0.349 8.920
2.601 1.475 8.194
2.808 0.981 8.338
3.043 0.390 8.496
2.801 2.063 7.637
2.972 1.577 7.857
3.207 0.998 8.025
3.440 0.515 8.104
3.016 2.732 7.102
3.251 2.136 7.290
3.428 1.619 7.435
3.701 1.072 7.660
3.935 0.561 7.735
4.194 0.082 7.955
3.306 3.274 6.516
3.487 2.809 6.695
3.672 2.264 6.887
3.987 1.713 7.023
4.124 1.202 7.222
4.358 0.631 7.432
4.641 0.078 7.622
3.709 3.400 6.229
3.943 2.826 6.318
4.217 2.266 6.503
4.361 1.793 6.664
4.607 1.296 6.888
4.889 0.763 6.988
5.068 0.168 7.218
0.036 0.249 11.543
0.141 1.323 10.833
0.290 0.782 11.054
0.565 0.315 11.195
0.347 1.962 10.369
0.519 1.426 10.498
0.739 0.891 10.618
1.011 0.326 10.831
0.987 1.469 10.117
1.237 0.932 10.333
1.517 0.412 10.498
1.958 0.517 10.130
3.346 0.669 8.970
3.344 1.883 8.284
3.573 1.313 8.376
3.773 0.742 8.548
3.955 0.293 8.743
3.564 2.407 7.737
3.797 1.967 7.860
4.021 1.360 8.054
4.232 0.875 8.235
4.484 0.296 8.352
4.020 2.542 7.291
4.252 1.990 7.514
4.490 1.476 7.640
4.721 0.965 7.791
4.917 0.430 7.967
4.259 3.131 6.805
4.475 2.608 6.928
4.742 2.071 7.139
4.940 1.534 7.259
5.148 0.973 7.513
5.399 0.468 7.633
0.148 0.968 11.815
0.400 0.500 11.975
0.361 1.606 11.324
0.625 1.123 11.501
0.880 0.513 11.591
1.040 -0.036 11.783
0.828 1.659 10.969
1.137 1.095 11.099
1.262 0.577 11.271
1.589 0.096 11.432
1.749 0.637 10.931
4.109 1.060 9.053
4.059 2.151 8.285
4.325 1.702 8.529
4.580 1.123 8.593
4.816 0.552 8.809
4.569 2.246 7.976
4.824 1.762 8.091
5.033 1.219 8.240
5.264 0.701 8.476
5.466 0.090 8.616
4.791 2.811 7.429
4.989 2.323 7.603
5.247 1.757 7.733
5.465 1.271 7.947
5.651 0.780 8.120
5.951 0.182 8.234
0.242 1.845 12.138
0.451 1.250 12.304
0.695 0.688 12.443
0.674 1.902 11.685
0.964 1.360 11.901
1.179 0.854 12.108
1.426 0.271 12.268
1.367 1.377 11.484
1.675 0.911 11.756
1.872 0.375 11.896
4.627 1.919 8.893
4.862 1.405 9.108
5.110 0.853 9.215
4.909 2.557 8.343
5.096 1.996 8.579
5.302 1.493 8.661
5.519 0.917 8.902
5.341 2.605 7.964
5.523 2.089 8.137
5.820 1.504 8.376
5.973 1.058 8.511
6.250 0.466 8.689
0.522 2.031 12.579
0.982 2.144 12.191
1.240 1.654 12.370
1.480 1.043 12.501
1.742 1.663 11.983
1.932 1.163 12.101
2.204 0.662 12.314
4.920 2.224 9.380
5.111 1.688 9.487
5.410 1.147 9.704
5.203 2.810 8.752
5.381 2.308 8.923
5.663 1.748 9.112
5.808 1.256 9.284
5.649 2.851 8.463
5.870 2.369 8.637
6.121 1.801 8.745
6.316 1.309 8.939
6.526 0.713 9.130
1.812 2.467 12.189
2.074 1.915 12.441
2.665 1.546 12.148
5.046 1.900 10.275
5.022 2.989 9.575
5.289 2.424 9.814
5.505 1.948 9.947
5.680 1.404 10.098
5.475 3.072 9.256
5.746 2.575 9.446
5.913 1.956 9.531
6.152 1.475 9.754
6.332 0.899 9.965
5.745 3.671 8.709
5.995 3.190 8.889
6.224 2.658 9.044
6.379 2.064 9.193
6.630 1.578 9.361
6.798 0.989 9.561
1.916 3.243 12.449
2.527 2.833 12.263
2.814 2.350 12.515
3.484 1.854 12.250
4.825 2.017 11.178
4.925 3.219 10.389
5.049 2.679 10.560
5.307 2.105 10.777
5.529 1.581 10.944
5.153 3.775 9.847
5.323 3.307 10.010
5.538 2.698 10.190
5.780 2.195 10.357
6.010 1.635 10.573
6.256 1.101 10.706
5.549 3.820 9.551
5.761 3.345 9.616
6.007 2.859 9.846
6.233 2.245 10.053
6.418 1.746 10.155
6.698 1.220 10.402
6.938 0.686 10.472
5.865 4.433 8.943
5.999 3.910 9.152
6.253 3.391 9.298
6.490 2.925 9.478
6.670 2.340 9.587
6.973 1.863 9.783
7.156 1.336 10.008
7.410 0.768 10.166
2.663 3.661 12.542
3.329 3.142 12.374
3.583 2.686 12.476
4.014 2.736 12.122
4.249 2.169 12.266
4.509 1.694 12.521
4.511 2.770 11.757
4.736 2.234 11.952
4.891 1.715 12.101
4.772 3.387 11.178
4.947 2.884 11.349
5.123 2.362 11.576
5.425 1.758 11.692
5.004 4.026 10.718
5.237 3.504 10.844
5.416 2.917 11.074
5.688 2.440 11.190
5.871 1.846 11.381
6.024 1.309 11.481
5.202 4.610 10.175
5.379 4.035 10.340
5.655 3.537 10.494
5.893 3.046 10.684
6.125 2.439 10.827
6.280 1.998 11.013
6.586 1.377 11.105
6.719 0.909 11.379
5.440 5.165 9.559
5.681 4.691 9.747
5.927 4.145 9.959
6.151 3.615 10.053
6.325 3.114 10.299
6.559 2.544 10.456
6.796 2.038 10.637
7.032 1.516 10.731
7.208 1.004 10.967
7.457 0.381 11.128
5.881 5.273 9.190
6.092 4.737 9.402
6.325 4.227 9.517
6.568 3.634 9.741
6.820 3.143 9.898
7.027 2.591 10.092
7.200 2.102 10.251
7.470 1.603 10.414
7.700 1.048 10.539
7.953 0.475 10.727
0.030 0.151 0.953
0.364 0.462 1.348
0.347 0.117 2.343
0.657 0.641 1.786
0.880 0.112 1.988
5.786 10.211 12.031
6.010 9.676 12.162
6.046 10.828 11.470
6.347 10.222 11.630
6.558 9.735 11.763
6.719 9.247 11.929
6.540 10.862 11.111
6.780 10.311 11.246
7.011 9.824 11.405
7.224 9.275 11.633
5.888 11.026 12.236
6.171 10.461 12.460
6.147 11.586 11.731
6.433 11.042 11.902
6.593 10.505 12.028
6.798 9.989 12.237
7.010 9.431 12.358
6.651 11.683 11.372
6.861 11.145 11.458
7.022 10.628 11.703
7.305 10.043 11.891
7.477 9.581 12.037
5.967 11.808 12.471
6.484 11.840 12.128
6.744 11.356 12.326
6.885 10.786 12.468
6.723 12.444 11.651
6.936 11.875 11.776
7.180 11.395 11.993
7.425 10.914 12.086
7.625 10.368 12.292
7.815 9.810 12.416
7.205 12.223 12.194
7.465 11.685 12.420
7.736 11.172 12.571
0.022 8.540 12.173
0.324 7.974 12.390
0.475 7.484 12.592
0.024 9.643 11.459
0.301 9.154 11.677
0.546 8.600 11.856
0.715 8.070 11.973
0.973 7.499 12.170
1.219 7.032 12.328
1.440 6.462 12.513
0.494 9.749 11.080
0.795 9.134 11.289
0.946 8.616 11.516
1.230 8.163 11.596
1.458 7.548 11.781
1.687 7.105 11.979
1.814 6.582 12.113
1.182 9.292 10.880
1.400 8.726 11.092
1.698 8.211 11.296
1.928 7.664 11.392
2.068 7.112 11.595
1.900 8.848 10.733
2.119 8.295 10.844
2.385 7.699 11.045
2.582 7.228 11.172
2.418 8.854 10.361
2.540 8.393 10.533
2.839 7.812 10.723
3.051 7.302 10.857
2.586 9.510 9.806
2.836 8.944 9.953
3.046 8.455 10.123
3.259 7.888 10.269
3.491 7.318 10.485
2.828 10.074 9.269
3.053 9.563 9.469
3.339 9.025 9.626
3.487 8.457 9.735
3.700 7.909 9.952
3.993 7.409 10.107
4.126 6.920 10.270
1.909 12.209 8.563
2.913 11.181 8.582
3.098 10.719 8.686
3.327 10.130 8.921
3.512 9.673 9.002
3.706 9.097 9.172
3.927 8.514 9.372
4.143 7.990 9.573
4.406 7.518 9.770
4.683 6.982 9.919
4.825 6.444 10.112
5.091 5.969 10.256
2.406 12.307 8.186
2.673 11.698 8.321
2.841 11.158 8.535
3.283 11.238 8.107
3.568 10.780 8.370
3.752 10.256 8.497
3.933 9.738 8.713
4.250 9.213 8.798
4.419 8.686 9.041
4.676 8.151 9.167
4.901 7.558 9.313
5.115 7.084 9.550
5.271 6.478 9.648
5.508 5.997 9.851
2.854 12.371 7.847
3.066 11.806 7.978
3.359 11.311 8.126
3.787 11.380 7.828
3.962 10.782 7.968
4.211 10.322 8.147
4.456 9.741 8.319
4.710 9.246 8.454
4.871 8.763 8.618
5.164 8.236 8.761
5.346 7.618 9.022
5.559 7.118 9.102
5.760 6.568 9.286
6.018 6.029 9.525
3.306 12.365 7.472
3.607 11.898 7.571
3.756 11.362 7.761
0.170 9.352 12.453
0.190 10.485 11.789
0.438 9.882 11.899
0.567 9.396 12.093
0.843 8.806 12.267
1.078 8.292 12.389
0.798 9.984 11.611
1.062 9.510 11.688
1.298 8.963 11.926
1.565 8.452 12.087
1.785 7.903 12.285
1.935 7.350 12.365
1.566 9.499 11.401
1.802 8.990 11.493
1.955 8.454 11.662
2.177 7.989 11.872
2.439 7.409 12.019
2.646 6.938 12.232
2.003 9.601 11.032
2.257 9.119 11.171
2.452 8.505 11.362
2.679 8.068 11.534
2.859 7.442 11.683
2.423 9.697 10.657
2.723 9.151 10.806
2.940 8.649 10.983
3.155 8.038 11.120
3.339 7.560 11.300
2.921 9.772 10.244
3.091 9.166 10.412
3.395 8.650 10.535
3.551 8.131 10.787
3.763 7.621 10.955
4.051 7.137 11.085
3.164 10.358 9.651
3.371 9.834 9.901
3.582 9.252 9.998
3.769 8.780 10.147
4.087 8.206 10.395
4.285 7.712 10.493
4.526 7.178 10.693
4.692 6.649 10.821
2.246 12.456 8.979
3.190 11.529 9.017
3.376 10.981 9.093
3.574 10.378 9.310
3.869 9.880 9.501
4.076 9.350 9.660
4.236 8.801 9.795
4.506 8.357 9.999
4.765 7.828 10.191
4.932 7.194 10.323
5.159 6.676 10.499
5.372 6.227 10.641
2.776 12.517 8.587
2.951 11.996 8.844
3.164 11.507 8.953
3.623 11.558 8.562
3.886 11.075 8.767
4.062 10.521 8.932
4.283 9.925 9.058
4.563 9.411 9.298
4.714 8.950 9.452
4.984 8.334 9.588
5.235 7.839 9.810
5.418 7.267 9.930
5.597 6.779 10.136
5.834 6.210 10.281
3.407 12.078 8.437
3.633 11.572 8.640
4.130 11.585 8.231
4.297 11.045 8.431
4.578 10.571 8.510
4.811 10.014 8.785
4.961 9.550 8.890
5.252 8.995 9.102
5.453 8.419 9.281
5.640 7.870 9.456
5.842 7.413 9.561
6.104 6.870 9.761
6.328 6.314 9.899
3.873 12.189 8.077
4.121 11.598 8.256
0.528 10.692 12.233
0.693 10.178 12.370
0.912 9.690 12.563
-0.005 11.727 11.824
1.196 10.298 12.023
1.424 9.759 12.170
1.632 9.232 12.292
1.803 8.673 12.487
0.249 12.362 11.351
1.841 9.819 11.791
2.066 9.239 12.001
2.335 8.743 12.139
2.477 8.251 12.302
2.719 7.660 12.478
2.532 9.301 11.530
2.724 8.773 11.802
3.019 8.296 11.923
3.173 7.781 12.105
2.970 9.460 11.197
3.159 8.857 11.330
3.431 8.406 11.551
3.667 7.872 11.692
3.218 9.982 10.711
3.468 9.527 10.848
3.690 8.967 10.972
3.865 8.451 11.153
4.064 7.914 11.341
3.459 10.574 10.111
3.657 10.093 10.291
3.935 9.594 10.445
4.115 9.023 10.607
4.305 8.514 10.797
4.584 7.947 10.918
4.762 7.477 11.123
3.735 11.261 9.529
3.889 10.704 9.771
4.176 10.178 9.953
4.368 9.643 10.105
4.561 9.146 10.223
4.791 8.569 10.440
4.999 8.070 10.601
5.298 7.503 10.808
5.461 6.998 10.907
5.669 6.497 11.126
3.216 12.232 9.268
3.949 11.782 8.983
4.217 11.312 9.225
4.349 10.775 9.319
4.600 10.264 9.513
4.861 9.712 9.702
5.021 9.205 9.845
5.235 8.667 10.090
5.445 8.071 10.248
5.680 7.561 10.439
5.979 7.029 10.523
6.165 6.527 10.726
3.745 12.340 8.824
3.925 11.817 9.071
4.377 11.853 8.605
4.588 11.418 8.879
4.801 10.866 8.969
5.023 10.258 9.159
5.295 9.726 9.354
5.458 9.289 9.455
5.698 8.692 9.695
6.003 8.161 9.892
6.205 7.641 10.064
6.372 7.109 10.154
6.616 6.653 10.346
4.139 12.384 8.432
4.430 11.844 8.673
2.409 9.493 12.434
2.603 8.992 12.512
3.026 9.054 12.152
3.467 9.106 11.813
3.780 9.709 11.254
3.992 9.266 11.428
4.227 8.694 11.625
4.037 10.370 10.724
4.189 9.837 10.905
4.473 9.344 11.114
4.617 8.822 11.221
4.933 8.259 11.387
4.257 10.994 10.209
4.453 10.407 10.382
4.647 9.908 10.466
4.899 9.402 10.699
5.152 8.881 10.814
5.394 8.316 11.049
5.562 7.800 11.183
4.449 11.605 9.591
4.708 11.073 9.784
4.937 10.529 10.022
5.119 9.967 10.163
5.385 9.449 10.285
5.634 8.959 10.533
5.836 8.423 10.669
6.071 7.912 10.865
6.203 7.311 11.026
4.903 11.612 9.300
5.135 11.097 9.445
5.411 10.531 9.568
5.646 10.028 9.764
5.843 9.510 9.886
6.070 9.040 10.116
6.282 8.408 10.263
6.500 7.930 10.460
6.714 7.418 10.620
6.967 6.925 10.757
4.554 10.117 11.279
4.722 9.594 11.552
4.926 8.989 11.667
4.768 10.728 10.833
5.005 10.163 10.902
5.255 9.671 11.087
5.398 9.086 11.333
5.656 8.635 11.484
5.273 10.808 10.439
5.465 10.210 10.550
5.630 9.705 10.720
5.848 9.172 10.936
6.095 8.648 11.080
6.359 8.103 11.289
5.422 11.377 9.879
5.737 10.856 10.037
5.916 10.334 10.238
6.150 9.774 10.368
6.365 9.251 10.582
6.537 8.753 10.748
6.848 8.200 10.923
5.345 10.478 11.358
5.557 9.876 11.538
5.695 9.365 11.768
5.582 11.052 10.885
5.715 10.552 11.002
5.991 9.978 11.218
6.195 9.407 11.399
6.403 8.968 11.518
6.044 11.102 10.441
6.224 10.605 10.673
6.479 10.093 10.773
6.638 9.580 10.977
6.861 9.023 11.179
5.886 10.140 11.997
6.020 9.701 12.183
6.089 10.815 11.468
6.262 10.235 11.574
6.541 9.739 11.794
6.684 9.187 11.979
6.548 10.891 11.088
6.795 10.311 11.222
6.974 9.842 11.369
7.247 9.287 11.626
4.141 3.555 12.412
4.562 3.626 12.021
4.851 3.016 12.237
5.005 2.565 12.430
5.203 1.975 12.524
5.073 3.683 11.635
5.211 3.126 11.858
5.535 2.581 12.002
5.700 2.068 12.220
5.966 1.514 12.360
5.331 4.287 11.147
5.526 3.739 11.307
5.747 3.243 11.463
5.900 2.723 11.638
6.155 2.092 11.745
6.417 1.601 11.948
6.651 1.057 12.155
7.565 0.099 12.097
5.251 5.396 10.433
5.503 4.877 10.618
5.786 4.385 10.786
6.010 3.799 10.957
6.181 3.290 11.127
6.404 2.746 11.278
6.678 2.249 11.476
6.859 1.677 11.647
7.097 1.106 11.737
7.301 0.597 11.939
7.546 0.089 12.088
8.022 0.159 11.699
5.800 5.453 10.075
5.993 4.938 10.228
6.214 4.362 10.367
6.377 3.905 10.565
6.596 3.341 10.747
6.824 2.782 10.920
7.137 2.290 11.067
7.337 1.757 11.232
7.490 1.274 11.357
7.771 0.683 11.563
7.967 0.117 11.744
8.431 0.273 11.304
6.262 5.499 9.654
6.394 5.038 9.846
6.703 4.441 10.007
6.831 3.898 10.134
7.118 3.440 10.282
7.297 2.884 10.541
7.513 2.320 10.674
7.724 1.853 10.828
8.028 1.320 10.976
8.267 0.762 11.150
8.431 0.234 11.353
4.905 3.827 12.437
5.176 4.444 11.899
5.328 3.928 12.097
5.586 3.409 12.228
5.785 2.893 12.479
5.336 5.003 11.424
5.547 4.479 11.539
5.789 3.989 11.717
6.064 3.483 11.944
6.226 2.915 12.020
6.504 2.402 12.180
6.680 1.856 12.383
7.843 0.352 12.485
5.638 5.674 10.852
5.861 5.110 11.031
6.047 4.592 11.201
6.305 4.017 11.337
6.487 3.515 11.505
6.682 2.968 11.644
6.917 2.507 11.867
7.209 1.969 11.999
7.353 1.474 12.169
7.573 0.846 12.406
7.807 0.359 12.506
8.325 0.437 12.115
6.030 5.784 10.449
6.276 5.164 10.654
6.511 4.643 10.768
6.686 4.190 10.951
6.920 3.604 11.156
7.206 3.042 11.308
7.378 2.587 11.434
7.596 1.981 11.678
7.848 1.524 11.801
8.114 0.987 11.988
8.336 0.462 12.193
8.697 0.464 11.779
6.530 5.837 10.057
6.755 5.271 10.221
6.971 4.745 10.458
7.245 4.221 10.589
7.406 3.645 10.760
7.607 3.139 10.891
7.831 2.643 11.123
8.093 2.074 11.304
8.262 1.588 11.470
8.540 1.034 11.580
8.769 0.550 11.751
5.704 4.243 12.577
5.904 4.811 11.992
6.149 4.219 12.115
6.377 3.697 12.325
6.611 3.234 12.509
5.922 5.882 11.282
6.130 5.411 11.470
6.366 4.913 11.665
6.569 4.308 11.817
6.778 3.833 11.988
7.042 3.317 12.094
7.264 2.729 12.248
7.458 2.236 12.502
6.358 5.952 10.852
6.583 5.437 11.107
6.825 4.977 11.255
7.017 4.388 11.404
7.273 3.890 11.608
7.483 3.397 11.728
7.736 2.839 11.915
7.936 2.288 12.075
8.146 1.805 12.255
8.363 1.227 12.479
9.095 0.815 12.171
9.321 0.262 12.445
6.829 6.034 10.567
7.063 5.492 10.733
7.313 5.043 10.827
7.486 4.469 11.054
7.749 3.920 11.176
7.999 3.407 11.380
8.132 2.911 11.560
8.410 2.344 11.663
8.589 1.841 11.848
8.811 1.269 12.037
9.006 0.836 12.272
6.725 5.194 12.021
6.880 4.570 12.167
7.077 4.122 12.400
7.316 3.518 12.534
6.951 5.734 11.550
7.125 5.229 11.662
7.348 4.671 11.812
7.558 4.155 11.990
7.765 3.626 12.217
8.072 3.131 12.403
8.267 2.582 12.469
7.200 6.363 10.937
7.384 5.786 11.159
7.543 5.314 11.347
7.796 4.738 11.499
8.010 4.176 11.588
8.296 3.662 11.855
8.463 3.180 11.988
8.721 2.642 12.139
8.975 2.091 12.357
9.179 1.591 12.518
7.497 5.461 12.154
7.619 4.953 12.272
7.834 4.473 12.396
7.863 5.564 11.726
8.159 4.997 11.906
8.321 4.527 12.085
8.531 3.975 12.246
8.799 3.484 12.380
8.468 5.317 12.378
8.626 4.763 12.474
0.420 5.268 1.545
0.743 4.738 1.707
0.902 4.243 1.946
0.814 5.558 1.988
0.950 4.979 2.128
1.195 4.450 2.378
1.402 3.959 2.561
1.410 5.132 1.764
1.697 4.509 1.921
4.062 5.739 0.311
4.756 5.247 0.176
4.980 4.771 0.377
5.695 4.244 0.131
0.905 6.311 2.285
1.063 5.781 2.444
1.291 5.310 2.573
1.482 4.746 2.803
1.709 4.271 2.945
1.929 3.661 3.080
1.562 5.933 2.022
1.770 5.336 2.262
1.971 4.775 2.448
2.254 4.260 2.556
2.214 5.448 1.823
-0.006 10.672 0.164
3.968 5.895 1.131
4.142 5.392 1.382
4.132 6.507 0.660
4.358 6.033 0.849
4.614 5.425 1.003
4.830 4.972 1.168
4.435 7.096 0.113
4.589 6.559 0.257
4.862 6.013 0.409
5.024 5.537 0.573
5.253 4.969 0.762
5.556 4.441 0.977
5.323 6.110 0.061
5.538 5.648 0.266
5.723 5.056 0.355
6.016 4.572 0.580
6.199 3.982 0.774
6.198 5.145 -0.012
6.431 4.575 0.233
6.646 4.100 0.361
6.912 3.511 0.540
0.907 7.152 2.490
1.167 6.563 2.750
1.393 6.110 2.923
1.616 5.527 3.079
1.859 4.966 3.171
2.107 4.464 3.386
2.252 3.998 3.505
2.536 3.473 3.769
0.057 9.260 1.803
1.592 6.634 2.326
1.881 6.112 2.529
2.096 5.630 2.672
2.298 5.083 2.829
2.514 4.559 3.008
2.778 4.064 3.175
0.117 10.332 1.088
0.281 9.857 1.346
2.377 6.171 2.097
2.554 5.663 2.292
2.722 5.166 2.497
2.959 4.684 2.591
0.067 11.568 0.394
0.379 10.970 0.555
0.571 10.512 0.778
3.008 5.812 1.891
3.241 5.202 2.127
0.523 11.576 0.043
0.778 11.036 0.196
3.533 6.684 1.783
3.746 6.098 2.020
3.998 5.561 2.100
1.311 11.977 0.070
1.544 11.446 0.272
1.766 10.920 0.450
3.974 6.730 1.456
4.217 6.235 1.625
4.515 5.694 1.815
4.698 5.173 2.000
2.280 10.930 0.104
4.281 7.265 0.870
4.434 6.731 1.101
4.727 6.244 1.233
4.893 5.772 1.426
5.173 5.229 1.558
5.335 4.667 1.720
4.510 7.919 0.331
4.772 7.421 0.530
4.967 6.882 0.688
5.165 6.305 0.810
5.352 5.810 1.064
5.596 5.241 1.182
5.836 4.746 1.347
6.047 4.264 1.584
5.138 7.451 0.152
5.433 6.951 0.305
5.645 6.390 0.457
5.836 5.888 0.680
6.058 5.361 0.828
6.297 4.831 0.971
6.471 4.293 1.179
6.719 3.759 1.355
6.032 6.448 0.083
6.349 5.890 0.259
6.555 5.390 0.454
6.799 4.865 0.613
7.019 4.383 0.735
7.166 3.808 1.008
6.960 5.537 0.040
7.234 4.943 0.247
7.384 4.436 0.395
7.626 3.946 0.567
7.862 4.473 0.089
8.142 3.937 0.233
0.840 8.438 2.628
1.100 7.943 2.840
1.324 7.430 2.992
1.545 6.893 3.165
1.745 6.344 3.327
1.927 5.824 3.429
2.145 5.299 3.612
2.426 4.711 3.774
2.563 4.253 4.018
2.834 3.682 4.204
3.088 3.212 4.333
0.170 10.022 2.174
0.437 9.546 2.333
0.571 8.949 2.496
0.869 8.469 2.684
1.728 7.454 2.633
1.948 6.903 2.806
2.173 6.422 2.916
2.377 5.846 3.125
2.666 5.361 3.272
2.816 4.794 3.411
3.104 4.295 3.563
3.315 3.767 3.749
0.126 11.131 1.458
0.450 10.616 1.538
0.605 10.178 1.797
0.895 9.581 1.957
2.448 6.973 2.417
2.610 6.527 2.586
2.858 5.963 2.715
3.115 5.398 2.849
3.338 4.891 3.071
3.506 4.347 3.218
0.215 12.287 0.645
0.376 11.739 0.849
0.686 11.243 1.064
0.858 10.764 1.235
1.113 10.227 1.396
3.140 6.598 2.208
3.362 6.028 2.407
3.546 5.500 2.477
3.793 4.965 2.747
0.627 12.402 0.269
0.872 11.853 0.515
1.086 11.322 0.613
1.336 10.747 0.814
3.504 6.624 1.799
3.739 6.075 2.009
3.968 5.568 2.170
1.364 11.935 0.136
1.522 11.401 0.267
1.815 10.828 0.440
3.919 6.868 2.243
4.050 6.433 2.435
4.278 5.811 2.627
4.540 5.366 2.754
1.682 12.191 0.521
1.889 11.642 0.683
2.058 11.127 0.860
4.109 7.458 1.748
4.334 6.990 1.838
4.560 6.483 2.037
4.771 5.871 2.227
5.039 5.402 2.423
2.098 12.318 0.159
2.361 11.759 0.338
2.532 11.172 0.484
2.753 10.678 0.704
4.361 8.103 1.177
4.582 7.545 1.320
4.766 7.034 1.537
4.963 6.516 1.651
5.181 5.996 1.794
5.426 5.508 2.008
5.729 4.899 2.205
3.025 11.269 0.169
3.221 10.774 0.294
3.478 10.223 0.477
4.550 8.760 0.624
4.833 8.197 0.741
4.998 7.693 1.000
5.242 7.088 1.112
5.493 6.604 1.335
5.728 6.098 1.442
5.920 5.593 1.679
6.145 4.985 1.856
6.367 4.502 1.954
6.624 3.969 2.131
3.868 10.304 0.056
4.127 9.797 0.276
4.865 9.322 0.120
4.993 8.813 0.215
5.287 8.218 0.431
5.526 7.729 0.574
5.715 7.210 0.741
5.916 6.620 0.964
6.193 6.160 1.121
6.410 5.605 1.211
6.634 5.135 1.422
6.855 4.536 1.586
7.087 4.003 1.762
4.856 9.363 0.019
5.692 8.355 0.020
5.984 7.821 0.206
6.217 7.254 0.360
6.388 6.748 0.567
6.634 6.253 0.712
6.851 5.660 0.881
7.046 5.106 1.060
7.277 4.662 1.226
7.525 4.043 1.381
6.855 6.839 0.168
7.034 6.248 0.329
7.284 5.795 0.557
7.466 5.199 0.659
7.688 4.739 0.836
7.989 4.129 1.068
7.721 5.880 0.143
7.944 5.291 0.346
8.195 4.735 0.461
8.380 4.193 0.607
8.612 4.831 0.122
1.124 8.782 3.058
1.365 8.187 3.264
1.620 7.720 3.391
1.844 7.184 3.553
1.993 6.652 3.716
2.260 6.122 3.946
2.430 5.513 4.131
2.659 4.995 4.297
2.890 4.489 4.463
3.098 3.990 4.640
3.349 3.444 4.808
-0.022 11.415 2.236
0.213 10.827 2.401
0.434 10.282 2.507
0.658 9.812 2.741
0.881 9.245 2.891
1.147 8.709 3.107
1.766 8.317 2.872
2.033 7.711 3.072
2.287 7.238 3.239
2.529 6.728 3.367
2.688 6.215 3.540
2.895 5.631 3.763
3.137 5.088 3.877
3.413 4.609 4.041
3.573 4.051 4.240
3.805 3.481 4.385
0.064 12.474 1.545
0.287 12.010 1.725
0.476 11.418 1.850
0.716 10.897 1.998
0.887 10.343 2.180
1.179 9.902 2.362
1.337 9.327 2.482
2.492 7.866 2.679
2.738 7.313 2.829
2.944 6.755 2.951
3.166 6.226 3.207
3.367 5.677 3.311
3.593 5.185 3.556
3.805 4.673 3.630
0.717 12.016 1.303
1.000 11.473 1.458
1.121 10.971 1.650
1.373 10.521 1.754
1.583 9.932 2.019
3.195 7.390 2.409
3.402 6.878 2.632
3.669 6.354 2.806
3.818 5.825 2.932
4.030 5.277 3.110
1.166 12.136 0.939
1.367 11.638 1.112
1.619 11.093 1.224
1.896 10.500 1.460
3.896 6.908 2.290
4.109 6.349 2.404
4.294 5.861 2.613
4.586 5.338 2.756
1.619 12.250 0.564
1.834 11.630 0.699
2.131 11.188 0.885
4.179 7.218 2.694
4.373 6.598 2.902
4.587 6.095 3.073
4.894 5.586 3.240
1.961 12.490 1.015
2.196 11.961 1.178
2.354 11.438 1.274
4.411 7.787 2.165
4.666 7.229 2.321
4.824 6.723 2.503
5.078 6.142 2.638
5.328 5.694 2.861
2.454 12.527 0.619
2.671 12.038 0.745
2.846 11.524 0.900
3.047 10.957 1.085
4.831 7.806 1.772
5.146 7.345 1.933
5.315 6.784 2.050
5.496 6.284 2.257
5.716 5.749 2.471
6.000 5.176 2.618
3.157 12.041 0.417
3.378 11.554 0.607
3.527 11.047 0.727
4.889 9.024 1.053
5.067 8.448 1.242
5.363 7.918 1.366
5.535 7.405 1.585
5.786 6.861 1.702
5.983 6.368 1.860
6.241 5.765 2.016
6.494 5.232 2.264
6.636 4.728 2.383
3.522 12.192 0.045
3.746 11.659 0.193
4.028 11.106 0.337
4.262 10.572 0.506
4.426 10.084 0.678
5.147 9.543 0.489
5.312 9.059 0.682
5.550 8.537 0.845
5.803 7.984 1.015
6.019 7.471 1.226
6.245 6.945 1.390
6.518 6.394 1.507
6.724 5.852 1.639
6.926 5.400 1.886
7.181 4.804 2.073
7.370 4.317 2.246
4.722 10.672 0.151
4.930 10.070 0.347
5.139 9.638 0.514
5.610 9.685 0.160
5.850 9.171 0.321
6.091 8.611 0.516
6.284 8.121 0.623
6.509 7.590 0.761
6.743 7.059 0.978
6.920 6.462 1.192
7.192 6.003 1.328
7.385 5.371 1.465
7.552 4.857 1.680
7.838 4.418 1.875
5.616 9.690 0.134
6.509 8.640 0.044
6.748 8.171 0.309
6.968 7.607 0.463
7.193 7.122 0.591
7.424 6.529 0.804
7.559 6.069 0.902
7.822 5.532 1.106
8.035 4.946 1.304
8.274 4.409 1.496
7.440 7.732 0.066
7.638 7.209 0.232
7.880 6.581 0.412
8.122 6.073 0.563
8.248 5.519 0.762
8.535 5.005 0.934
8.769 4.463 1.061
8.341 6.707 0.057
8.561 6.202 0.185
8.756 5.630 0.360
1.484 8.965 3.549
1.677 8.525 3.620
1.874 7.999 3.840
2.130 7.450 4.026
2.302 6.890 4.202
2.546 6.398 4.394
2.820 5.836 4.549
2.985 5.271 4.691
3.166 4.734 4.848
3.416 4.245 4.996
3.656 3.739 5.161
0.140 12.201 2.520
0.394 11.681 2.654
0.569 11.085 2.809
0.819 10.544 2.936
1.007 10.071 3.208
1.258 9.520 3.344
1.465 8.979 3.496
2.154 8.569 3.275
2.342 8.061 3.499
2.625 7.474 3.644
2.768 6.932 3.766
2.988 6.393 4.011
3.241 5.915 4.105
3.458 5.365 4.325
3.713 4.811 4.518
3.937 4.365 4.610
0.598 12.263 2.103
0.830 11.719 2.292
1.015 11.204 2.459
1.267 10.707 2.627
1.501 10.149 2.812
1.659 9.581 2.922
2.983 7.551 3.278
3.264 7.026 3.474
3.444 6.465 3.617
3.751 5.951 3.718
3.953 5.484 3.976
4.180 4.952 4.148
1.044 12.283 1.732
1.227 11.768 1.913
1.502 11.242 2.055
1.759 10.762 2.234
3.539 7.599 2.896
3.722 7.139 3.049
3.957 6.608 3.226
4.154 6.039 3.362
4.426 5.501 3.524
1.451 12.408 1.323
1.736 11.918 1.514
1.967 11.313 1.681
2.120 10.822 1.841
4.172 7.135 2.669
4.406 6.646 2.868
4.581 6.115 3.051
4.804 5.622 3.153
1.997 12.448 0.993
2.203 11.921 1.197
2.439 11.385 1.310
4.701 6.934 3.294
4.984 6.443 3.481
2.444 12.218 1.550
4.929 7.489 2.783
5.123 7.040 2.879
5.396 6.487 3.058
2.959 12.273 1.221
3.214 11.737 1.411
5.227 8.122 2.224
5.461 7.560 2.348
5.599 7.066 2.552
5.816 6.554 2.653
6.043 6.055 2.889
3.369 12.322 0.822
3.593 11.790 0.961
3.860 11.298 1.162
5.438 8.749 1.655
5.626 8.201 1.829
5.906 7.715 1.984
6.099 7.171 2.147
6.362 6.620 2.307
6.510 6.098 2.468
6.784 5.545 2.666
3.871 12.423 0.452
4.130 11.952 0.687
4.329 11.369 0.794
4.500 10.876 0.966
5.674 9.291 1.149
5.848 8.812 1.224
6.073 8.272 1.426
6.328 7.760 1.602
6.551 7.247 1.818
6.811 6.653 1.947
6.973 6.168 2.134
7.192 5.597 2.327
7.473 5.057 2.498
7.671 4.602 2.677
4.305 12.472 0.120
4.569 12.022 0.309
4.784 11.407 0.439
5.042 10.872 0.556
5.180 10.373 0.812
5.908 9.953 0.512
6.116 9.450 0.759
6.353 8.921 0.898
6.520 8.313 1.065
6.815 7.865 1.244
7.048 7.276 1.427
7.255 6.733 1.593
7.461 6.247 1.753
7.667 5.726 1.925
7.949 5.183 2.121
8.144 4.652 2.208
5.195 11.553 0.090
5.515 10.962 0.240
5.649 10.509 0.354
5.888 9.937 0.606
6.368 9.997 0.139
6.538 9.465 0.336
6.793 8.923 0.500
6.984 8.455 0.714
7.270 7.930 0.900
7.431 7.389 1.030
7.730 6.833 1.222
7.940 6.335 1.406
8.193 5.810 1.576
8.334 5.278 1.668
8.613 4.674 1.871
6.172 10.518 -0.021
6.401 9.958 0.228
7.241 9.041 0.108
7.461 8.518 0.303
7.686 8.011 0.467
7.968 7.395 0.627
8.160 6.885 0.839
8.358 6.317 0.950
8.621 5.841 1.213
8.790 5.275 1.295
8.214 7.976 0.066
8.397 7.548 0.244
8.569 6.958 0.428
8.885 6.424 0.628
9.018 5.913 0.753
9.091 7.011 0.104
9.300 6.469 0.218
1.954 8.750 4.143
2.231 8.206 4.235
2.460 7.641 4.478
2.677 7.146 4.617
2.869 6.632 4.833
3.079 6.054 4.925
3.331 5.567 5.114
3.539 5.063 5.269
3.722 4.523 5.410
3.990 3.962 5.656
0.472 12.421 2.939
0.619 11.973 3.130
0.841 11.431 3.290
1.048 10.850 3.431
1.355 10.314 3.550
1.487 9.774 3.787
2.611 8.267 3.846
2.871 7.763 4.100
3.095 7.199 4.256
3.358 6.704 4.395
3.551 6.179 4.625
3.756 5.664 4.784
3.954 5.088 4.920
0.840 12.499 2.504
1.138 12.045 2.745
1.330 11.417 2.933
1.557 10.946 3.015
1.729 10.373 3.194
3.303 7.833 3.666
3.590 7.277 3.868
3.791 6.726 4.010
3.986 6.199 4.257
4.265 5.747 4.329
1.551 12.076 2.382
1.746 11.553 2.479
2.063 11.051 2.695
4.033 7.390 3.514
4.251 6.793 3.645
4.476 6.274 3.824
2.030 12.144 1.991
2.212 11.608 2.121
4.662 6.948 3.267
4.913 6.384 3.439
2.479 12.216 1.625
5.694 7.824 2.802
5.932 7.327 2.938
6.149 6.811 3.185
3.930 12.057 1.401
5.946 8.417 2.242
6.162 7.904 2.397
6.402 7.355 2.645
6.673 6.840 2.756
6.841 6.308 2.915
4.361 12.143 1.084
4.665 11.625 1.184
6.169 9.119 1.765
6.394 8.587 1.935
6.599 7.964 2.069
6.870 7.443 2.261
7.076 6.912 2.387
7.343 6.406 2.538
7.554 5.858 2.750
4.833 12.287 0.716
5.140 11.748 0.821
5.343 11.173 1.079
6.608 9.132 1.296
6.922 8.594 1.486
7.135 8.055 1.656
7.353 7.570 1.800
7.571 7.070 1.976
7.721 6.503 2.198
8.003 5.987 2.394
8.209 5.444 2.575
5.336 12.318 0.296
5.559 11.756 0.463
5.746 11.287 0.634
7.142 9.176 0.948
7.376 8.727 1.180
7.543 8.200 1.269
7.822 7.651 1.424
7.999 7.090 1.592
8.213 6.606 1.842
8.446 6.006 2.012
6.052 11.908 0.156
6.243 11.355 0.335
7.850 8.765 0.797
8.045 8.242 0.944
8.272 7.730 1.149
8.505 7.131 1.270
8.667 6.620 1.387
8.874 6.063 1.642
8.525 8.307 0.549
8.742 7.801 0.698
8.964 7.253 0.841
9.202 6.725 1.013
9.149 7.813 0.330
2.507 8.453 4.719
2.730 8.000 4.873
2.958 7.432 5.073
3.202 6.932 5.247
3.436 6.353 5.434
3.657 5.879 5.601
3.789 5.285 5.773
0.975 12.225 3.555
1.219 11.693 3.731
1.424 11.183 3.882
1.627 10.551 3.979
3.173 8.005 4.493
3.418 7.504 4.636
3.641 7.011 4.812
3.883 6.453 5.044
4.055 5.869 5.215
1.440 12.211 3.105
1.692 11.699 3.296
1.831 11.163 3.520
3.919 7.549 4.312
4.086 7.080 4.446
4.286 6.559 4.593
1.840 12.329 2.795
2.154 11.813 2.913
6.526 8.211 2.898
6.709 7.643 3.018
6.928 7.094 3.222
4.745 12.426 1.537
6.712 8.842 2.342
6.921 8.228 2.459
7.130 7.750 2.698
7.378 7.199 2.850
7.641 6.741 3.020
5.189 12.510 1.171
5.362 11.963 1.248
7.150 8.915 1.903
7.381 8.313 2.117
7.660 7.789 2.261
7.820 7.240 2.496
8.121 6.784 2.579
8.275 6.240 2.764
5.868 12.070 0.929
7.611 8.920 1.528
7.844 8.388 1.783
8.067 7.844 1.898
8.295 7.331 2.097
8.513 6.831 2.255
6.353 12.088 0.512
8.296 8.524 1.345
8.584 8.017 1.525
8.760 7.386 1.650
9.019 6.896 1.837
8.989 8.001 1.165
3.052 8.240 5.339
3.318 7.748 5.516
3.445 7.113 5.694
3.669 6.655 5.814
3.969 6.147 6.024
1.316 12.499 3.918
1.542 11.976 4.149
1.738 11.381 4.286
3.773 7.780 5.088
3.967 7.269 5.249
4.180 6.759 5.429
1.764 12.530 3.596
1.928 12.002 3.781
7.036 7.931 3.472
7.255 8.592 2.972
7.533 7.965 3.047
7.685 7.437 3.302
7.972 6.949 3.479
7.453 9.194 2.398
7.731 8.625 2.530
7.912 8.123 2.702
8.166 7.510 2.924
8.421 7.053 3.030
6.222 12.355 1.336
8.233 8.725 2.140
8.413 8.132 2.320
8.589 7.681 2.516
8.870 7.059 2.683
8.675 8.801 1.835
8.862 8.261 2.003
9.124 7.760 2.109
3.581 7.987 5.955
3.781 7.484 6.110
4.066 6.879 6.236
4.251 6.409 6.445
1.802 12.164 4.525
4.238 7.471 5.685
7.283 8.181 3.905
7.574 8.846 3.339
7.791 8.311 3.537
8.029 7.756 3.698
8.280 7.237 3.825
7.811 9.445 2.842
8.005 8.859 2.949
8.239 8.399 3.159
8.528 7.829 3.358
8.693 7.314 3.465
8.530 9.002 2.557
8.717 8.471 2.763
8.985 7.857 2.959
9.186 7.349 3.125
8.981 9.063 2.262
9.189 8.520 2.432
9.369 7.981 2.542
3.924 8.187 6.372
4.147 7.752 6.542
4.277 7.208 6.661
4.502 6.628 6.860
2.167 12.485 4.945
4.621 7.757 6.101
7.440 9.008 4.157
7.627 8.437 4.328
7.862 7.909 4.457
7.611 9.570 3.598
7.845 9.105 3.807
8.075 8.523 4.003
8.348 7.984 4.166
8.513 7.515 4.319
8.083 9.665 3.238
8.347 9.155 3.388
8.550 8.606 3.558
8.775 8.095 3.769
9.055 7.620 3.904
9.204 7.023 4.056
8.604 9.712 2.914
8.855 9.202 3.075
9.000 8.675 3.176
9.287 8.145 3.405
9.444 7.651 3.512
9.275 9.357 2.616
9.481 8.820 2.831
9.708 8.206 3.035
9.978 7.763 3.193
9.997 8.799 2.414
12.220 9.165 0.539
12.516 9.811 0.004
3.945 9.032 6.660
4.228 8.488 6.788
4.384 7.924 6.955
4.674 7.452 7.083
4.895 6.863 7.265
2.628 12.218 5.590
4.682 8.578 6.392
4.926 8.072 6.533
5.114 7.468 6.802
7.281 9.164 5.026
7.539 8.669 5.142
7.739 8.108 5.304
7.496 9.790 4.382
7.686 9.326 4.632
7.954 8.732 4.760
8.125 8.214 4.968
8.360 7.725 5.110
7.758 10.391 3.874
7.964 9.924 4.018
8.220 9.321 4.247
8.437 8.836 4.418
8.686 8.292 4.546
8.837 7.714 4.700
9.045 7.249 4.859
6.824 12.492 3.163
8.180 10.512 3.478
8.487 9.959 3.676
8.651 9.447 3.839
8.869 8.908 4.004
9.140 8.325 4.238
9.355 7.841 4.390
9.499 7.268 4.501
9.804 6.782 4.745
8.686 10.552 3.188
8.868 10.083 3.339
9.137 9.460 3.428
9.314 8.941 3.630
9.553 8.458 3.774
9.815 7.934 3.997
9.979 7.362 4.123
9.321 10.157 2.970
9.631 9.616 3.049
9.800 9.038 3.276
9.993 8.528 3.488
10.208 7.975 3.564
10.455 7.452 3.770
10.042 9.666 2.720
10.294 9.067 2.851
10.510 8.586 3.014
10.758 8.083 3.277
10.774 9.204 2.549
12.065 9.440 1.452
12.297 10.014 0.804
4.075 9.800 6.898
4.263 9.312 7.051
4.551 8.797 7.174
4.700 8.265 7.371
4.986 7.742 7.592
5.182 7.227 7.727
5.381 6.677 7.879
2.946 12.504 6.046
3.128 11.974 6.227
4.766 9.416 6.648
4.991 8.878 6.828
5.157 8.329 6.978
5.398 7.743 7.196
5.629 7.289 7.360
3.428 12.596 5.616
5.395 8.878 6.526
5.642 8.369 6.631
5.907 7.890 6.859
6.897 8.789 6.283
7.149 8.251 6.538
7.081 9.412 5.746
7.324 8.880 5.934
7.616 8.358 6.121
7.418 10.007 5.247
7.536 9.499 5.417
7.791 8.918 5.612
8.066 8.430 5.778
8.220 7.881 5.918
7.605 10.558 4.691
7.872 10.128 4.815
8.007 9.513 5.006
8.311 9.066 5.258
8.521 8.540 5.353
8.680 7.974 5.521
8.982 7.397 5.761
7.880 11.183 4.161
8.028 10.710 4.300
8.251 10.110 4.486
8.506 9.579 4.665
8.778 9.135 4.788
8.985 8.582 5.039
9.164 8.073 5.194
9.343 7.551 5.380
9.588 7.003 5.503
9.849 6.447 5.633
7.446 12.324 3.781
8.134 11.864 3.574
8.285 11.297 3.801
8.492 10.706 3.968
8.709 10.262 4.167
8.978 9.695 4.278
9.141 9.166 4.501
9.372 8.613 4.584
9.671 8.117 4.748
9.854 7.598 4.923
10.113 7.083 5.083
10.292 6.518 5.274
7.904 12.365 3.415
8.115 11.847 3.650
8.536 11.933 3.260
8.726 11.382 3.380
8.962 10.851 3.526
9.254 10.277 3.729
9.432 9.816 3.913
9.639 9.250 4.065
9.877 8.737 4.212
10.072 8.175 4.401
10.314 7.639 4.606
10.498 7.100 4.798
10.750 6.602 4.923
8.368 12.378 3.045
8.591 11.900 3.207
9.420 10.928 3.221
9.640 10.354 3.415
9.867 9.858 3.562
10.091 9.343 3.692
10.319 8.757 3.855
10.510 8.229 3.992
10.730 7.752 4.166
11.012 7.213 4.335
10.162 10.392 2.995
10.350 9.921 3.180
10.607 9.335 3.370
10.788 8.808 3.492
11.003 8.298 3.619
11.257 7.792 3.801
10.811 10.013 2.781
11.041 9.476 2.977
11.245 8.900 3.141
11.498 8.369 3.277
11.314 10.009 2.429
11.502 9.556 2.538
11.760 8.990 2.792
11.767 10.107 2.074
11.949 9.634 2.241
12.151 9.116 2.332
12.247 10.196 1.704
12.426 9.713 1.848
12.405 10.821 1.161
4.121 10.655 7.190
4.347 10.124 7.323
4.572 9.581 7.518
4.793 9.003 7.646
5.086 8.463 7.831
5.227 7.994 7.969
5.457 7.421 8.194
5.740 6.902 8.362
5.906 6.345 8.455
6.147 5.895 8.687
3.453 12.250 6.593
3.670 11.698 6.803
4.798 10.141 6.906
5.047 9.643 7.105
5.301 9.149 7.246
5.474 8.618 7.498
5.753 8.026 7.672
5.960 7.582 7.746
6.192 7.018 8.003
3.986 12.282 6.252
5.513 9.772 6.757
5.739 9.161 6.875
6.004 8.644 7.024
6.149 8.102 7.251
6.378 7.626 7.407
6.197 9.209 6.527
6.445 8.730 6.675
6.649 8.156 6.901
6.899 8.822 6.285
7.152 8.240 6.520
0.060 1.229 0.263
0.243 0.731 0.468
0.735 0.781 0.050
0.127 2.055 0.523
0.288 1.548 0.665
0.561 1.004 0.846
0.606 2.199 0.162
0.786 1.612 0.267
0.228 2.851 0.755
0.473 2.383 0.958
0.604 1.768 1.116
0.195 4.004 0.085
0.397 3.515 0.212
0.674 2.918 0.428
0.847 2.412 0.576
1.120 2.991 0.031
0.092 4.153 0.834
0.248 3.716 1.008
0.508 3.131 1.244
0.681 2.611 1.362
0.293 4.837 0.280
0.565 4.241 0.496
0.807 3.728 0.685
1.018 3.242 0.862
1.013 4.359 0.171
0.143 5.053 1.155
0.423 4.490 1.342
0.563 3.931 1.456
0.830 3.360 1.700
0.893 4.514 0.907
1.043 4.055 1.096
0.467 5.236 1.620
0.744 4.724 1.709
0.912 4.223 1.914
10.688 11.559 7.744
10.927 10.960 7.905
11.109 10.487 7.997
11.163 11.592 7.301
11.353 11.024 7.550
11.547 10.574 7.624
11.813 10.037 7.818
11.578 11.683 6.915
11.808 11.153 7.137
12.040 10.597 7.252
12.248 10.028 7.428
12.254 11.228 6.792
12.470 10.681 6.969
6.982 10.983 10.705
7.186 10.418 10.908
7.491 9.865 10.993
10.716 11.144 8.692
10.938 10.704 8.883
11.042 11.749 8.149
11.168 11.212 8.312
11.426 10.698 8.509
11.694 10.144 8.620
11.258 12.377 7.593
11.409 11.869 7.812
11.718 11.278 7.879
11.893 10.769 8.132
12.120 10.284 8.256
11.720 12.462 7.236
11.960 11.925 7.369
12.100 11.402 7.509
12.361 10.870 7.749
12.376 12.003 7.010
7.260 11.198 11.106
7.538 10.699 11.348
7.740 10.170 11.424
7.935 9.623 11.697
8.003 10.698 10.971
8.253 10.188 11.094
10.579 11.365 9.438
10.893 11.937 8.928
11.064 11.418 9.154
11.334 10.936 9.238
11.458 10.366 9.479
11.261 12.033 8.535
11.513 11.543 8.760
11.720 10.946 8.957
11.942 10.437 9.121
12.236 9.913 9.299
11.791 12.090 8.218
12.019 11.623 8.360
12.193 11.071 8.547
12.439 10.583 8.747
12.223 12.161 7.871
12.494 11.711 8.019
7.431 11.987 11.402
7.667 11.488 11.549
7.871 10.887 11.739
8.069 10.428 11.873
8.302 9.837 12.101
8.532 9.368 12.282
8.117 11.498 11.147
8.245 10.984 11.361
8.527 10.461 11.502
8.794 9.961 11.678
8.744 11.124 10.990
10.475 11.556 10.252
10.670 11.049 10.456
10.643 12.164 9.742
10.965 11.625 9.917
11.134 11.151 10.102
11.315 10.605 10.309
11.181 12.278 9.387
11.322 11.732 9.591
11.636 11.201 9.687
11.852 10.628 9.859
12.011 10.178 10.079
11.597 12.320 8.991
11.823 11.815 9.222
12.082 11.271 9.389
12.268 10.752 9.492
12.479 10.216 9.711
12.125 12.363 8.601
12.312 11.894 8.797
12.567 11.302 8.976
12.570 12.455 8.263
7.732 12.274 11.831
7.889 11.767 11.982
8.159 11.243 12.121
8.380 10.679 12.329
8.640 10.150 12.490
8.192 12.291 11.487
8.382 11.844 11.607
8.613 11.276 11.776
8.861 10.734 11.936
9.037 10.199 12.094
9.303 9.653 12.346
8.839 11.917 11.284
9.021 11.312 11.399
9.331 10.877 11.628
9.463 10.250 11.760
9.547 11.412 11.006
9.771 10.951 11.219
10.095 12.258 10.956
10.294 11.800 11.079
10.534 11.190 11.249
10.556 12.382 10.588
10.729 11.837 10.748
11.028 11.269 10.897
11.183 10.808 11.108
11.008 12.394 10.160
11.238 11.875 10.412
11.421 11.397 10.581
11.717 10.826 10.747
11.845 10.317 10.845
11.445 12.512 9.773
11.705 11.983 9.969
11.946 11.451 10.132
12.113 10.904 10.297
12.363 10.447 10.462
12.177 12.059 9.662
12.366 11.580 9.803
8.027 12.537 12.304
8.192 11.977 12.419
8.751 12.032 12.018
8.952 11.599 12.285
9.159 11.064 12.412
9.106 12.200 11.638
9.415 11.587 11.899
9.627 11.136 12.081
9.874 10.605 12.178
10.026 10.002 12.353
9.589 12.180 11.334
9.869 11.672 11.517
10.029 11.163 11.705
10.322 10.624 11.844
10.093 12.276 10.919
10.354 11.751 11.136
10.550 11.223 11.238
10.604 12.005 11.542
10.797 11.529 11.743
11.043 11.028 11.899
11.077 12.118 11.220
11.303 11.531 11.353
11.546 11.086 11.532
11.498 12.168 10.827
11.702 11.694 11.018
11.956 11.142 11.086
12.225 10.644 11.255
12.019 12.311 10.416
12.192 11.745 10.548
12.476 11.186 10.732
12.504 12.321 10.071
8.979 12.352 12.462
9.506 12.429 12.084
9.673 11.928 12.240
9.895 11.344 12.472
9.970 12.489 11.795
10.180 11.957 11.909
10.325 11.441 12.074
10.600 10.876 12.206
10.631 12.007 11.497
10.874 11.507 11.717
11.073 10.928 11.850
10.927 12.261 11.990
11.158 11.833 12.190
11.346 11.295 12.307
11.420 12.406 11.592
11.572 11.894 11.754
11.813 11.341 11.966
11.819 12.447 11.221
12.057 11.902 11.408
12.285 11.374 11.617
12.532 10.869 11.717
12.269 12.561 10.841
12.536 12.036 11.009
10.473 12.206 12.349
10.672 11.739 12.549
10.903 12.338 11.977
11.142 11.729 12.101
11.370 11.225 12.350
11.887 12.143 12.202
12.410 12.201 11.855
6.932 9.618 6.591
7.219 9.056 6.791
7.464 8.562 6.901
7.600 8.032 7.129
7.164 10.154 6.001
7.426 9.711 6.166
7.655 9.164 6.442
7.927 8.587 6.514
8.052 8.040 6.694
7.635 10.229 5.653
7.851 9.773 5.871
8.066 9.198 5.971
8.320 8.646 6.218
8.533 8.157 6.392
8.732 7.600 6.502
7.644 11.462 4.973
7.950 10.885 5.127
8.141 10.366 5.271
8.357 9.843 5.467
8.623 9.300 5.648
8.785 8.783 5.828
9.069 8.262 5.959
9.265 7.677 6.129
9.502 7.124 6.271
7.240 12.498 4.639
7.984 11.985 4.438
8.131 11.441 4.569
8.386 10.912 4.708
8.600 10.440 4.918
8.847 9.948 5.116
9.000 9.354 5.313
9.296 8.879 5.455
9.457 8.254 5.646
9.714 7.777 5.782
9.940 7.268 5.951
10.169 6.695 6.147
7.667 12.595 4.290
7.945 12.040 4.453
8.412 12.069 3.988
8.569 11.549 4.216
8.799 11.035 4.402
9.044 10.453 4.547
9.243 9.958 4.771
9.516 9.388 4.848
9.672 8.886 5.090
9.891 8.331 5.191
10.179 7.803 5.352
10.363 7.282 5.518
10.641 6.826 5.753
8.354 12.119 4.025
8.881 12.187 3.678
9.097 11.679 3.813
9.347 11.045 3.981
9.511 10.592 4.172
9.793 10.023 4.296
9.979 9.485 4.509
10.136 8.936 4.642
10.430 8.423 4.833
10.594 7.946 5.037
10.797 7.402 5.248
11.027 6.873 5.345
8.878 12.113 3.662
9.263 12.253 3.301
9.521 11.655 3.491
9.706 11.130 3.662
9.985 10.620 3.820
10.203 10.113 3.936
10.405 9.637 4.100
10.602 9.106 4.322
10.833 8.486 4.478
11.113 7.980 4.660
11.333 7.425 4.862
11.517 6.974 4.974
9.269 12.219 3.341
10.178 11.248 3.222
10.449 10.669 3.464
10.610 10.213 3.601
10.885 9.696 3.751
11.101 9.177 3.941
11.328 8.586 4.121
11.586 8.042 4.258
10.896 10.760 3.005
11.165 10.301 3.231
11.369 9.734 3.396
11.572 9.192 3.511
11.752 8.627 3.685
11.586 10.299 2.844
11.804 9.751 3.068
12.037 9.273 3.149
12.213 8.766 3.330
12.004 10.388 2.425
12.269 9.913 2.693
12.514 9.383 2.793
12.236 11.015 1.949
12.546 10.439 2.152
12.557 11.633 1.408
4.264 11.378 7.368
4.469 10.853 7.564
4.726 10.386 7.806
4.957 9.790 7.912
5.169 9.307 8.144
5.388 8.770 8.304
5.576 8.262 8.411
5.807 7.695 8.636
5.987 7.165 8.728
6.239 6.689 8.922
6.459 6.149 9.109
3.815 12.523 7.125
3.970 11.987 7.295
4.201 11.440 7.386
4.877 10.920 7.247
5.176 10.414 7.403
5.329 9.928 7.507
5.618 9.378 7.668
5.784 8.828 7.932
5.995 8.350 8.049
6.257 7.809 8.182
6.442 7.302 8.344
6.673 6.716 8.597
4.296 12.522 6.713
4.491 11.987 6.823
5.828 9.954 7.175
6.026 9.458 7.313
6.224 8.976 7.537
6.511 8.409 7.731
6.688 7.842 7.903
6.903 7.350 8.056
6.269 10.010 6.794
6.535 9.533 6.978
6.682 8.951 7.181
6.906 8.510 7.260
7.189 7.958 7.474
7.016 9.653 6.569
7.174 9.052 6.765
7.453 8.536 6.975
7.674 7.999 7.079
7.269 9.846 6.977
7.487 9.340 7.166
7.717 8.795 7.352
7.911 8.324 7.541
7.505 10.424 6.436
7.769 9.928 6.678
7.918 9.471 6.778
8.161 8.912 6.977
8.378 8.320 7.204
7.817 11.040 5.942
7.954 10.588 6.070
8.221 10.017 6.294
8.402 9.536 6.419
8.703 8.969 6.630
8.909 8.435 6.771
9.111 7.868 7.001
8.033 11.727 5.343
8.212 11.158 5.559
8.451 10.659 5.740
8.654 10.125 5.950
8.851 9.538 6.050
9.121 9.062 6.191
9.304 8.532 6.362
9.583 8.013 6.634
9.737 7.426 6.775
9.984 6.891 6.897
8.202 12.266 4.888
8.501 11.782 5.020
8.646 11.231 5.202
8.874 10.686 5.403
9.085 10.208 5.504
9.354 9.584 5.742
9.591 9.089 5.887
9.751 8.557 6.014
10.067 8.034 6.244
10.208 7.535 6.325
10.450 6.962 6.590
8.246 12.255 4.881
8.654 12.356 4.507
8.896 11.821 4.670
9.179 11.260 4.863
9.344 10.774 4.984
9.623 10.245 5.192
9.757 9.737 5.358
9.981 9.185 5.513
10.291 8.597 5.632
10.460 8.075 5.887
10.742 7.587 5.998
10.868 7.114 6.126
8.757 12.318 4.468
9.202 12.441 4.115
9.413 11.929 4.224
9.588 11.337 4.398
9.817 10.854 4.593
10.056 10.340 4.773
10.237 9.744 4.940
10.443 9.303 5.083
10.744 8.769 5.303
10.971 8.176 5.420
11.146 7.693 5.681
11.368 7.093 5.780
9.210 12.429 4.086
9.571 12.450 3.763
9.832 12.009 3.856
10.106 11.434 4.043
10.278 10.865 4.288
10.512 10.360 4.358
10.779 9.844 4.576
10.906 9.351 4.788
11.141 8.802 4.908
11.366 8.230 5.111
11.613 7.709 5.249
11.816 7.171 5.373
9.576 12.506 3.769
10.481 11.492 3.718
10.796 11.026 3.914
10.923 10.422 4.032
11.199 9.896 4.250
11.468 9.364 4.340
11.673 8.836 4.558
11.806 8.330 4.682
12.092 7.846 4.840
11.250 11.005 3.518
11.381 10.581 3.642
11.686 10.042 3.788
11.849 9.451 3.968
12.077 8.945 4.132
12.350 8.430 4.303
11.655 11.133 3.115
11.879 10.603 3.321
12.110 10.073 3.481
12.339 9.525 3.667
12.554 8.996 3.738
12.176 11.172 2.778
12.377 10.698 2.857
4.502 11.667 7.822
4.757 11.200 8.029
5.047 10.693 8.179
5.264 10.077 8.322
5.475 9.533 8.496
5.703 9.080 8.671
5.903 8.490 8.839
6.059 7.971 9.023
6.279 7.488 9.224
6.527 6.919 9.353
6.819 6.429 9.552
4.295 12.276 7.722
4.515 11.726 7.880
5.193 11.273 7.597
5.510 10.718 7.855
5.696 10.210 8.002
5.899 9.671 8.106
6.176 9.113 8.297
6.376 8.545 8.455
6.561 8.051 8.714
6.777 7.496 8.800
7.036 6.986 8.987
7.259 6.441 9.139
4.835 12.292 7.304
5.912 10.779 7.402
6.139 10.276 7.561
6.329 9.719 7.745
6.613 9.197 7.949
6.753 8.687 8.147
6.989 8.190 8.258
7.302 7.564 8.412
6.563 10.374 7.215
6.862 9.818 7.383
7.031 9.223 7.611
7.319 8.795 7.763
7.496 8.222 7.905
7.317 9.872 7.072
7.476 9.346 7.175
7.694 8.781 7.419
7.920 8.232 7.574
7.603 10.158 7.441
7.866 9.577 7.612
8.008 9.054 7.849
8.098 10.175 7.063
8.318 9.715 7.261
8.508 9.156 7.450
8.731 8.589 7.577
8.306 10.799 6.517
8.538 10.306 6.738
8.740 9.811 6.898
8.943 9.196 7.009
9.166 8.692 7.255
9.426 8.121 7.358
8.520 11.396 6.025
8.706 10.908 6.163
8.995 10.365 6.317
9.229 9.869 6.513
9.381 9.306 6.664
9.590 8.777 6.847
9.872 8.234 7.048
10.101 7.682 7.242
8.564 12.591 5.319
8.763 12.065 5.421
9.032 11.455 5.631
9.242 10.969 5.840
9.450 10.451 6.018
9.697 9.881 6.113
9.858 9.325 6.348
10.124 8.794 6.427
10.378 8.341 6.602
10.523 7.739 6.857
10.747 7.312 6.933
8.554 12.504 5.270
9.257 12.083 5.126
9.428 11.536 5.201
9.640 11.077 5.431
9.890 10.509 5.629
10.114 9.933 5.804
10.294 9.411 5.912
10.524 8.872 6.139
10.799 8.418 6.252
10.971 7.831 6.404
11.210 7.377 6.616
9.646 12.147 4.732
9.930 11.661 4.880
10.182 11.115 5.055
10.337 10.574 5.184
10.609 10.098 5.420
10.784 9.483 5.573
11.017 8.957 5.759
11.197 8.493 5.856
11.477 7.914 6.025
11.676 7.364 6.277
10.198 12.213 4.370
10.385 11.677 4.482
10.561 11.133 4.677
10.853 10.656 4.882
11.045 10.089 5.054
11.294 9.595 5.185
11.441 9.107 5.314
11.655 8.581 5.504
11.881 7.961 5.641
12.098 7.430 5.891
10.869 11.791 4.112
11.089 11.260 4.264
11.279 10.750 4.455
11.494 10.157 4.646
11.750 9.715 4.800
11.935 9.158 4.994
12.199 8.576 5.154
11.544 11.312 3.870
11.762 10.792 4.054
12.003 10.300 4.285
12.203 9.721 4.389
12.412 9.202 4.564
12.176 10.830 3.703
12.449 10.305 3.848
4.847 11.953 8.335
5.100 11.424 8.397
5.296 10.857 8.632
5.562 10.363 8.739
5.764 9.841 8.912
5.991 9.326 9.121
6.201 8.839 9.310
6.407 8.232 9.436
6.650 7.710 9.604
6.813 7.234 9.850
7.065 6.722 10.014
4.630 12.533 8.091
4.908 11.958 8.333
5.725 10.999 8.228
6.011 10.508 8.392
6.195 9.872 8.579
6.415 9.381 8.724
6.637 8.888 8.927
6.922 8.380 9.127
7.078 7.762 9.252
7.311 7.298 9.391
6.476 10.527 8.077
6.634 9.963 8.194
6.846 9.422 8.434
7.124 8.941 8.570
7.388 8.423 8.690
7.549 7.881 8.926
7.110 10.040 7.836
7.336 9.501 8.035
7.594 8.971 8.209
7.779 8.533 8.310
7.602 10.192 7.516
7.791 9.647 7.632
8.051 9.044 7.806
8.579 9.915 7.705
8.836 9.392 7.822
8.876 10.520 7.131
9.072 9.985 7.294
9.236 9.538 7.440
9.546 8.934 7.617
9.017 11.188 6.630
9.298 10.670 6.786
9.477 10.112 6.945
9.683 9.590 7.167
9.904 9.042 7.239
10.172 8.487 7.462
9.274 11.720 6.106
9.561 11.220 6.282
9.711 10.676 6.432
9.995 10.140 6.571
10.200 9.610 6.689
10.391 9.143 6.880
10.605 8.615 7.060
10.811 8.023 7.222
9.571 12.404 5.493
9.737 11.835 5.660
10.031 11.288 5.806
10.264 10.773 6.016
10.460 10.295 6.164
10.621 9.742 6.417
10.850 9.137 6.525
11.059 8.645 6.678
11.276 8.135 6.882
11.582 7.645 7.094
9.966 12.474 5.177
10.186 11.957 5.320
10.447 11.378 5.489
10.680 10.879 5.702
10.938 10.323 5.779
11.122 9.807 6.014
11.375 9.253 6.175
11.610 8.708 6.340
11.769 8.216 6.525
10.709 12.013 4.918
10.868 11.445 5.122
11.169 10.926 5.323
11.382 10.377 5.495
11.598 9.819 5.600
11.830 9.370 5.821
11.996 8.785 5.912
11.338 11.491 4.762
11.608 11.023 4.929
11.813 10.480 5.049
12.086 9.906 5.209
