9.710 9.850 4.263
6.059 9.066 12.055
6.098 9.060 11.974
6.398 9.010 11.366
6.859 9.027 10.843
6.693 8.856 10.379
6.877 8.912 10.054
7.369 9.062 9.388
7.277 9.262 8.902
7.346 9.139 8.358
7.924 9.031 8.106
7.743 9.008 7.617
8.136 9.150 7.222
8.112 9.299 6.535
8.445 9.428 5.939
8.447 9.456 5.812
8.940 9.111 5.426
8.981 9.181 4.609
9.209 9.274 4.151
5.429 8.651 12.654
5.649 8.639 12.009
5.950 8.794 11.462
6.176 8.539 11.024
6.176 8.893 10.574
6.123 9.048 10.046
6.726 9.017 9.928
7.270 9.170 7.287
7.805 8.854 6.642
7.990 9.151 6.636
8.189 8.922 5.861
8.000 9.102 5.585
8.271 9.095 4.996
8.441 9.062 4.550
8.712 9.297 3.942
12.251 12.506 12.478
12.054 12.278 12.016
12.565 12.485 11.451
12.421 12.518 11.272
11.749 12.223 12.462
11.824 11.897 12.054
11.733 11.989 11.418
12.253 11.990 11.201
12.450 11.978 10.558
12.477 12.275 9.785
11.358 11.817 12.096
11.312 11.944 11.703
11.539 11.797 11.457
12.003 12.163 9.626
12.442 12.078 9.168
12.214 12.067 9.033
10.420 11.540 12.344
10.584 11.887 11.907
11.049 11.855 11.459
11.648 11.773 9.176
12.164 11.783 8.687
12.398 12.140 8.340
12.218 11.990 7.657
12.773 12.113 7.201
10.261 11.367 12.105
10.191 11.316 11.771
11.633 11.492 8.583
11.747 11.517 8.042
12.016 11.884 7.798
12.048 11.694 7.217
12.210 11.983 6.829
12.330 11.575 5.974
9.613 11.296 11.919
11.280 11.711 8.009
11.424 11.408 7.304
11.656 11.696 7.229
11.835 11.348 6.296
11.941 11.550 6.229
8.953 10.720 12.225
9.461 10.844 11.967
10.771 11.100 7.870
11.201 11.172 7.470
11.158 11.326 6.675
11.439 11.492 6.103
11.512 11.416 5.656
8.773 10.841 12.381
8.672 10.997 11.598
9.322 10.834 11.332
10.315 11.079 8.077
10.360 10.996 7.408
10.900 11.093 7.225
10.940 10.901 6.560
10.895 10.970 6.084
11.260 11.063 5.767
8.301 10.470 12.603
8.459 10.559 11.885
8.614 10.370 11.394
8.602 10.536 11.290
8.933 10.566 10.617
9.507 10.731 8.199
10.023 10.813 7.909
10.206 10.831 7.497
10.207 10.706 6.970
10.433 10.644 6.319
10.656 10.672 6.044
10.683 11.022 5.590
11.169 10.928 4.941
7.883 10.335 12.205
8.080 10.107 11.827
8.206 10.360 11.409
8.416 10.472 10.894
8.534 10.467 10.383
8.851 10.341 10.093
9.138 10.393 8.624
9.513 10.563 8.344
9.480 10.778 7.911
9.770 10.745 7.064
9.619 10.392 6.746
10.223 10.672 6.434
10.224 10.858 5.777
10.609 10.834 5.330
10.573 10.516 4.768
7.270 10.254 12.425
7.545 10.279 11.956
7.834 9.969 11.351
7.972 10.008 11.040
7.804 10.238 10.517
8.376 10.014 9.770
8.547 10.015 9.322
8.535 10.484 8.756
8.492 10.223 8.247
8.987 10.116 8.068
9.294 10.114 7.534
9.047 10.576 6.977
9.603 10.236 6.687
9.552 10.365 6.211
9.611 10.269 5.764
10.086 10.309 5.209
10.235 10.662 4.779
6.763 9.733 12.450
6.870 9.814 12.089
7.284 9.681 11.562
7.296 10.074 11.085
7.656 9.968 10.633
7.363 9.785 9.957
7.999 9.850 9.768
8.115 10.201 9.217
7.996 10.177 8.997
8.245 10.127 8.242
8.726 9.995 7.629
8.882 9.972 7.210
8.652 10.035 6.748
8.941 10.204 6.542
9.345 9.980 5.879
9.209 10.493 5.428
9.601 10.412 5.021
9.501 10.415 4.586
6.111 9.661 12.554
6.328 9.571 11.889
6.771 9.824 11.170
6.925 9.549 10.771
7.132 9.951 10.475
7.387 9.850 10.005
7.326 9.877 9.431
7.734 9.945 9.182
7.539 10.052 8.832
8.134 10.023 8.269
8.136 9.908 7.452
8.165 9.795 7.191
8.189 10.006 6.775
8.833 10.163 6.152
8.973 10.029 5.741
9.144 9.944 5.427
9.366 9.920 4.922
9.437 9.842 4.451
6.017 9.435 12.170
5.933 9.655 11.585
6.116 9.510 11.314
6.589 9.465 10.606
6.632 9.510 10.330
6.590 9.566 9.859
7.048 9.467 9.479
7.026 9.468 9.107
7.471 9.730 8.416
7.560 9.656 8.146
7.869 9.676 7.526
7.964 9.775 7.213
7.913 9.855 6.453
8.255 9.732 6.140
8.414 9.570 5.766
8.465 9.742 5.162
8.564 9.665 4.641
9.110 9.810 4.309
5.460 9.025 12.395
5.261 9.123 11.776
5.529 9.084 11.378
5.960 9.296 11.008
5.973 9.093 10.771
6.322 9.291 9.865
6.540 9.097 9.514
6.554 9.402 8.962
6.918 9.608 8.656
6.893 9.345 8.074
7.117 9.279 7.586
7.039 9.251 7.320
7.352 9.615 6.897
7.495 9.618 6.493
7.818 9.385 5.938
7.939 9.754 5.476
8.185 9.524 4.795
8.433 9.768 4.244
8.362 9.560 4.172
11.154 12.492 12.166
11.136 12.117 12.061
11.051 12.546 11.824
11.341 12.621 11.126
11.738 12.215 10.780
11.530 12.277 10.182
11.992 12.309 9.995
12.078 12.422 9.188
12.081 12.762 8.945
10.153 11.935 12.338
10.460 11.978 12.150
10.641 12.323 11.664
11.451 12.399 9.313
11.804 12.180 8.446
11.917 12.291 8.134
12.123 12.190 7.552
12.484 12.625 7.201
12.427 12.271 6.935
10.125 11.787 12.114
9.963 12.146 11.604
11.366 12.129 8.456
11.567 12.376 8.206
11.522 12.052 7.362
12.153 12.066 7.028
12.224 12.129 6.786
12.192 12.375 6.321
12.416 12.141 5.652
9.231 11.526 12.535
9.680 11.610 12.278
9.535 11.879 11.557
11.187 11.686 8.394
11.098 11.832 7.889
11.418 12.060 7.191
11.460 12.066 6.798
11.820 12.045 6.343
11.818 12.125 5.882
8.842 11.482 12.336
9.204 11.409 11.845
9.087 11.675 11.445
10.620 11.476 8.019
10.928 11.763 7.688
10.914 11.885 7.211
11.268 11.828 6.581
11.197 11.757 6.489
11.268 11.630 5.648
8.343 11.336 12.317
8.700 11.373 11.491
8.655 11.441 11.459
10.111 11.479 7.785
10.096 11.632 7.450
10.321 11.262 7.238
10.482 11.681 6.689
10.711 11.602 6.063
11.190 11.465 5.750
10.966 11.427 5.019
8.153 11.202 12.483
8.170 10.918 12.103
8.331 11.180 11.734
8.299 11.272 11.279
8.688 11.146 10.436
9.533 11.388 8.197
9.799 11.322 7.872
10.003 11.505 7.174
9.862 11.511 6.973
10.238 11.151 6.482
10.562 11.394 6.001
10.411 11.612 5.563
10.835 11.201 5.015
7.476 10.595 12.444
7.523 10.921 11.882
7.865 10.683 11.343
8.006 10.895 10.678
8.468 10.644 10.549
8.641 10.697 10.067
8.701 10.738 9.705
8.589 10.749 8.873
9.135 10.887 8.788
9.360 10.806 8.107
9.077 11.068 7.561
9.619 11.070 6.988
9.569 11.034 6.887
9.762 11.237 6.252
10.243 11.106 5.966
10.355 11.224 5.208
10.169 11.142 4.862
7.125 10.383 12.210
7.220 10.760 11.746
7.345 10.625 11.128
7.591 10.596 10.914
7.977 10.484 10.152
8.171 10.792 9.718
8.080 10.615 9.271
8.392 10.913 8.709
8.737 10.539 8.402
8.812 10.968 7.990
8.739 10.602 7.359
9.178 10.814 7.249
9.359 10.616 6.330
9.278 10.646 6.136
9.705 11.158 5.404
9.892 10.818 5.246
9.885 11.194 4.597
6.584 10.283 12.258
6.591 10.468 12.059
6.842 10.149 11.629
6.923 10.259 11.026
7.310 10.290 10.745
7.493 10.442 10.344
7.587 10.220 9.787
7.927 10.598 9.147
7.726 10.630 8.455
7.858 10.500 8.431
8.200 10.373 7.800
8.349 10.692 7.327
8.489 10.459 6.985
8.886 10.654 6.600
9.002 10.614 5.984
9.084 10.663 5.649
9.138 10.956 5.175
9.346 10.505 4.476
5.881 10.152 12.191
6.190 10.000 11.982
6.293 10.040 11.440
6.443 10.270 11.041
6.580 9.961 10.525
7.035 9.966 9.995
6.925 10.262 9.712
7.145 10.036 8.765
7.649 10.103 8.688
7.907 10.194 8.259
7.760 10.402 7.699
8.093 10.424 7.371
8.107 10.408 6.883
8.175 10.433 6.156
8.811 10.327 5.958
8.816 10.521 5.167
8.895 10.664 4.636
9.236 10.759 4.259
5.755 9.859 12.154
5.771 9.783 11.603
6.248 9.658 11.287
6.309 9.997 10.544
6.165 9.715 10.397
6.481 10.137 9.739
6.552 10.253 9.406
7.132 10.127 9.047
7.138 9.910 8.194
7.119 10.162 7.798
7.223 10.275 7.660
7.827 10.189 6.704
8.027 10.407 6.648
8.091 10.255 5.870
8.261 10.459 5.773
8.501 10.459 5.103
8.545 10.287 4.546
8.671 10.334 3.910
5.252 9.397 12.509
5.427 9.811 11.751
5.244 9.866 11.468
5.713 9.499 11.070
5.668 9.501 10.375
6.095 9.711 9.959
6.059 9.972 9.364
6.489 9.568 9.254
6.331 9.944 8.600
6.504 9.900 8.110
6.846 9.806 7.658
6.897 10.130 7.103
7.007 9.879 6.767
7.399 10.106 6.315
7.345 9.813 5.806
7.913 9.833 5.280
7.978 10.038 4.982
8.089 10.028 4.623
8.162 10.042 3.912
10.207 12.586 12.229
9.828 12.160 12.445
9.755 12.219 11.629
11.381 12.761 8.283
9.396 11.969 12.264
9.441 12.206 12.207
11.135 12.565 7.593
11.067 12.366 7.448
11.303 12.228 6.923
11.515 12.490 6.371
11.616 12.558 6.053
8.774 11.895 12.393
8.794 11.979 11.801
10.723 12.069 7.702
10.562 12.179 7.405
10.836 11.969 6.768
11.243 12.452 6.035
11.180 12.025 5.788
8.482 11.643 12.214
8.458 11.625 11.571
8.747 11.927 11.283
9.979 11.911 8.070
10.122 11.878 7.629
10.394 11.886 7.146
10.309 11.893 6.700
10.764 12.104 6.275
11.035 12.230 5.424
7.714 11.494 12.575
7.681 11.202 11.944
8.054 11.288 11.432
8.058 11.384 11.018
8.227 11.578 10.528
9.551 11.780 8.101
9.667 11.463 7.812
9.700 11.475 7.485
9.914 11.524 6.913
9.941 11.658 6.260
10.102 11.807 5.679
10.404 11.591 5.602
10.484 11.914 4.991
7.312 11.304 12.181
7.445 11.347 12.052
7.631 11.061 11.386
8.009 11.299 10.958
7.814 11.101 10.190
7.981 11.171 9.948
8.500 11.211 8.367
9.141 11.215 7.856
9.241 11.366 7.698
9.343 11.380 6.891
9.478 11.734 6.636
9.523 11.358 6.213
9.808 11.495 5.918
10.216 11.678 5.009
10.396 11.592 4.781
7.042 11.146 12.221
6.805 11.183 11.830
7.023 11.030 11.145
7.499 10.990 10.925
7.517 10.896 10.098
7.847 10.970 10.008
8.100 11.179 9.318
8.321 10.999 8.793
8.554 11.163 8.400
8.696 11.130 7.928
8.684 11.030 7.586
8.692 11.476 7.093
8.963 11.256 6.709
9.278 11.526 5.783
9.384 11.186 5.529
9.770 11.392 5.012
9.800 11.274 4.793
6.490 10.564 12.181
6.479 10.516 11.800
6.842 10.744 11.643
6.876 10.960 11.195
7.107 10.758 10.450
7.315 10.752 10.161
7.574 11.019 9.586
7.642 11.080 9.214
7.795 10.915 8.885
8.107 10.994 8.076
7.899 11.129 7.491
8.165 10.793 7.290
8.197 11.273 6.752
8.448 11.109 6.523
8.570 11.151 5.639
8.830 11.365 5.617
9.289 11.052 4.942
9.307 11.281 4.412
5.671 10.452 12.104
5.923 10.673 11.908
6.117 10.583 11.131
6.547 10.440 10.661
6.567 10.873 10.374
6.950 10.796 9.680
6.984 10.760 9.223
7.010 10.902 8.885
7.192 10.555 8.402
7.424 10.731 8.031
7.519 10.940 7.577
7.801 10.799 6.881
7.763 10.931 6.365
8.222 10.964 6.022
8.214 11.075 5.827
8.302 10.988 5.146
8.701 10.969 4.888
8.778 11.195 4.350
5.277 10.507 12.718
5.525 10.485 11.927
5.768 10.493 11.523
5.693 10.446 11.295
6.166 10.427 10.868
6.279 10.285 10.035
6.427 10.235 9.794
6.484 10.576 9.453
6.901 10.341 8.995
7.068 10.426 8.458
7.186 10.398 7.989
7.192 10.636 7.329
7.325 10.508 6.714
7.452 10.383 6.471
7.741 10.487 6.176
7.992 10.916 5.571
8.018 10.683 4.910
8.293 10.670 4.701
8.237 10.855 4.030
4.686 9.827 12.408
4.949 9.914 11.830
5.136 9.909 11.487
5.520 10.127 11.026
5.529 10.130 10.573
5.574 10.215 9.827
6.043 10.052 9.579
6.103 10.207 9.309
6.436 10.326 8.678
6.456 10.274 8.246
6.427 10.441 7.643
6.929 10.245 6.995
6.809 10.564 6.733
7.364 10.486 6.103
7.243 10.212 5.774
7.774 10.691 5.414
7.581 10.624 4.708
8.078 10.443 4.588
8.296 10.422 4.046
8.723 12.414 12.252
8.518 12.435 12.155
8.651 12.155 11.585
8.161 12.332 12.212
8.381 11.919 11.388
10.006 12.189 7.403
10.215 12.336 7.136
10.137 12.197 6.587
10.556 12.587 6.148
10.649 12.337 5.496
7.278 11.738 12.332
7.870 12.126 11.753
7.775 11.803 11.696
8.168 11.932 10.911
9.164 12.138 7.787
9.495 12.267 7.140
9.811 12.317 6.755
9.909 12.077 6.404
10.207 12.107 5.774
9.981 12.074 5.485
10.303 12.149 5.028
6.983 11.649 12.167
7.428 11.686 11.527
7.202 11.551 11.045
7.846 11.830 10.997
7.832 11.847 10.179
8.806 12.085 7.779
8.829 12.021 7.312
8.852 12.056 7.151
9.353 12.127 6.830
9.172 12.166 6.192
9.628 11.803 5.639
10.003 12.102 5.327
9.719 12.326 4.553
6.646 11.454 12.324
6.854 11.292 12.141
6.705 11.355 11.759
7.118 11.596 10.900
7.154 11.330 10.530
7.376 11.737 10.189
7.465 11.404 9.942
7.501 11.640 9.484
7.908 11.798 8.788
8.236 11.860 8.386
8.154 11.502 7.684
8.574 11.908 7.295
8.622 11.720 6.867
8.957 11.923 6.381
8.873 11.552 6.012
9.136 11.605 5.262
9.563 11.899 5.014
9.728 11.872 4.746
6.198 11.088 12.110
6.340 11.305 12.020
6.490 11.058 11.354
6.623 11.083 10.929
6.996 11.211 10.522
6.915 11.262 9.804
7.170 11.508 9.547
7.530 11.201 8.863
7.518 11.393 8.574
7.612 11.619 8.145
8.100 11.497 7.846
7.828 11.399 7.115
8.085 11.761 6.523
8.577 11.613 6.152
8.600 11.688 5.607
8.957 11.556 5.185
8.972 11.638 4.972
8.866 11.442 4.552
5.748 11.139 12.156
5.689 10.923 11.686
6.047 11.216 11.130
6.046 11.135 11.002
6.368 10.899 10.260
6.577 10.947 9.631
6.490 11.354 9.133
6.819 11.240 8.713
7.182 10.962 8.483
7.048 10.999 7.900
7.594 11.024 7.563
7.450 11.316 7.115
7.555 11.105 6.717
8.002 11.196 5.905
7.918 11.151 5.537
8.203 11.304 5.225
8.529 11.599 4.457
8.917 11.605 4.153
4.974 10.665 12.512
5.397 10.705 11.863
5.201 10.663 11.320
5.719 10.574 11.287
5.794 10.925 10.707
6.180 10.644 9.985
5.909 10.752 9.788
6.211 10.705 9.370
6.279 11.063 8.793
6.770 11.075 8.411
6.660 11.215 7.942
6.776 11.059 7.188
7.185 10.974 6.763
7.138 10.979 6.184
7.670 11.251 5.861
7.910 11.257 5.393
8.156 11.065 4.810
8.203 11.126 4.514
8.336 11.093 4.046
4.706 10.620 12.323
4.753 10.290 11.606
4.879 10.655 11.296
5.373 10.398 10.711
5.302 10.601 10.518
5.359 10.704 10.061
5.550 10.845 9.676
6.128 10.854 9.032
6.653 10.967 7.556
6.422 10.687 7.197
6.726 10.780 6.442
6.782 10.919 6.133
7.115 10.781 5.914
7.472 10.951 5.158
7.470 10.847 4.667
7.880 10.995 4.461
7.614 10.977 3.664
7.661 12.437 12.722
7.919 12.493 12.236
7.200 12.287 12.470
7.617 12.314 11.730
7.618 12.385 11.582
6.987 12.271 12.087
6.817 12.229 11.541
7.059 12.055 11.437
7.587 12.093 10.949
8.746 12.381 7.549
8.800 12.550 7.159
8.862 12.640 6.514
9.413 12.236 6.050
9.304 12.459 5.491
9.606 12.331 4.943
9.494 12.638 4.826
6.330 12.054 12.626
6.296 11.763 11.902
6.661 11.687 11.310
6.826 11.785 11.252
7.000 11.876 10.772
7.059 11.899 10.294
8.036 12.207 7.679
8.168 12.358 7.377
8.507 12.358 7.012
8.441 12.226 6.475
8.587 12.228 5.755
8.947 12.423 5.312
9.143 12.387 4.928
9.468 12.560 4.676
5.649 11.531 12.417
6.121 11.686 11.595
6.239 11.523 11.587
6.556 11.901 11.115
6.743 11.786 10.208
6.984 11.587 9.910
6.838 11.615 9.269
7.332 12.134 8.268
7.766 12.156 7.708
7.910 11.705 7.063
7.923 12.018 6.742
8.287 12.010 6.061
8.391 12.193 5.693
8.319 11.973 5.293
8.494 11.995 4.900
8.883 12.336 4.174
5.189 11.345 12.288
5.422 11.203 11.679
5.734 11.586 11.424
5.950 11.674 10.633
6.003 11.377 10.044
6.172 11.334 9.922
6.326 11.493 9.144
6.601 11.700 8.719
6.918 11.403 8.458
6.920 11.497 7.663
7.032 11.483 7.568
7.472 11.884 6.795
7.491 11.966 6.553
7.587 11.608 5.860
7.811 11.707 5.768
8.167 12.058 5.094
8.339 11.931 4.458
8.330 11.734 3.924
5.011 11.044 12.294
4.878 11.251 11.934
5.153 11.228 11.342
5.434 11.212 11.163
5.698 11.453 10.363
5.775 11.146 10.258
5.945 11.262 9.697
6.231 11.429 9.089
6.445 11.347 7.673
6.830 11.521 7.318
6.888 11.644 6.643
7.099 11.538 6.414
7.498 11.513 5.647
7.369 11.638 5.317
7.697 11.825 4.740
7.929 11.436 4.495
8.282 11.884 3.887
4.560 11.015 12.270
4.575 10.924 11.584
4.705 11.215 11.360
4.706 11.222 10.774
5.207 11.250 10.295
5.143 11.305 10.041
5.481 11.337 9.377
6.257 11.300 7.078
6.344 11.085 6.639
6.522 11.406 6.337
6.755 11.106 5.492
6.910 11.445 5.095
7.444 11.264 4.601
7.243 11.423 4.256
7.616 11.486 3.720
6.458 12.605 12.163
6.133 12.391 12.645
6.092 12.197 12.058
6.264 12.391 11.294
6.650 12.322 11.075
6.974 12.364 10.678
5.600 11.921 12.193
6.030 12.309 11.908
6.206 11.965 11.452
6.185 11.950 10.975
6.241 12.134 10.570
6.497 12.419 9.954
7.201 12.478 7.620
7.739 12.209 7.314
7.826 12.501 6.699
7.927 12.248 6.200
7.961 12.606 5.710
8.444 12.319 5.415
8.277 12.641 4.904
8.794 12.397 4.251
4.830 11.861 12.297
5.177 12.082 12.114
5.608 11.747 11.356
5.666 11.758 10.982
5.551 12.026 10.875
5.796 12.217 10.335
6.232 11.966 9.776
7.240 12.292 7.456
7.086 11.972 6.801
7.325 12.328 6.397
7.353 12.248 6.114
7.738 12.212 5.599
8.150 12.050 5.181
7.867 12.190 4.407
8.504 12.501 3.925
4.585 11.508 12.592
4.578 11.764 11.867
4.756 11.742 11.475
4.964 11.569 10.830
5.148 11.720 10.587
5.346 11.668 10.146
5.732 11.906 9.433
6.539 11.839 7.417
6.917 12.207 6.714
6.711 12.043 6.039
7.160 12.263 6.004
7.477 12.085 5.088
7.351 12.101 4.929
7.542 12.036 4.401
7.635 12.376 3.830
4.286 11.643 12.152
4.513 11.312 11.624
4.756 11.624 11.099
4.532 11.253 10.827
4.873 11.278 10.513
4.992 11.590 9.719
6.152 11.680 6.331
6.406 11.683 6.266
6.806 11.714 5.584
6.717 11.727 5.318
7.048 11.746 4.498
7.106 12.007 4.038
5.514 12.477 12.356
5.046 12.141 12.385
5.032 12.350 11.991
5.304 12.379 11.758
5.330 12.362 11.238
5.794 12.219 10.794
5.857 12.433 10.249
4.256 12.060 12.465
4.651 12.295 11.958
5.002 12.045 11.306
5.045 12.079 10.827
5.306 12.199 10.501
5.422 12.025 10.107
6.539 12.517 6.723
6.629 12.220 6.206
6.688 12.342 5.526
7.124 12.741 5.255
7.480 12.589 4.959
7.409 12.391 4.575
4.264 11.955 11.845
4.433 11.828 11.182
4.741 12.098 10.848
4.480 11.835 10.133
6.210 12.013 5.904
6.588 12.362 5.654
6.925 12.178 5.345
6.914 12.157 4.616
3.956 12.769 12.020
4.408 12.710 11.537
4.128 12.357 11.603
4.131 12.463 11.153
4.156 12.595 10.695
10.865 6.684 12.343
12.223 7.186 8.129
10.418 6.576 12.233
10.786 6.460 11.568
11.955 6.612 8.483
12.046 6.701 7.706
12.353 6.701 7.519
12.168 6.685 6.790
12.642 6.881 6.539
9.666 6.129 12.163
9.886 6.444 11.984
10.350 6.060 11.541
10.582 6.525 11.203
11.228 6.330 8.445
11.348 6.432 8.070
11.491 6.380 7.771
11.742 6.795 7.246
12.106 6.730 7.009
12.339 6.824 6.474
12.121 6.823 5.619
12.604 6.895 5.396
9.235 6.201 12.028
9.446 6.202 11.536
9.866 5.845 11.377
9.914 6.129 10.588
9.982 6.201 10.262
10.886 6.314 8.940
10.887 6.345 8.430
11.109 6.350 7.928
11.311 6.441 7.767
11.519 6.355 7.242
11.555 6.548 6.513
11.867 6.629 5.998
11.760 6.366 5.447
12.107 6.261 5.230
8.769 5.798 12.420
8.995 5.642 12.119
9.304 5.597 11.675
9.392 6.022 10.915
9.398 5.807 10.802
9.506 6.162 10.320
9.732 5.780 9.904
9.894 6.165 9.475
10.171 6.060 8.936
10.176 6.128 8.236
10.472 6.275 7.944
10.831 6.264 7.151
11.024 5.905 6.894
11.147 6.184 6.413
11.249 6.160 5.836
11.617 6.002 5.635
11.903 6.363 5.031
8.617 5.593 12.357
8.512 5.644 11.721
8.770 5.604 11.615
8.797 5.495 10.883
9.251 5.575 10.644
9.354 5.620 10.209
9.211 5.926 9.502
9.604 5.879 9.034
9.880 5.941 8.694
10.093 5.620 8.265
10.069 5.911 7.555
10.582 5.640 7.223
10.746 6.127 6.867
10.724 5.874 6.493
10.896 5.799 5.783
10.812 6.076 5.531
11.016 5.792 4.610
8.152 5.245 12.124
8.323 5.195 11.840
8.276 5.298 11.414
8.692 5.563 11.017
8.642 5.252 10.527
8.979 5.295 9.716
8.864 5.583 9.351
9.130 5.668 8.901
9.419 5.568 8.648
9.692 5.489 7.923
9.880 5.632 7.375
9.732 5.575 6.958
10.278 5.554 6.643
10.466 5.754 6.247
10.213 5.831 5.541
10.694 6.014 5.195
10.868 5.559 4.898
7.260 5.298 12.468
7.717 5.095 11.906
7.613 5.195 11.418
8.138 5.196 10.949
8.099 4.977 10.629
8.481 5.166 10.185
9.061 5.347 7.872
9.078 5.264 7.530
9.578 5.525 7.095
9.916 5.374 6.185
9.786 5.617 6.039
9.825 5.597 5.224
10.274 5.392 4.788
10.327 5.789 4.395
9.936 6.897 12.764
10.282 6.714 11.826
11.653 6.990 7.588
11.921 7.377 7.155
12.142 7.493 7.112
12.282 7.072 6.672
9.793 6.635 12.102
9.978 6.572 11.869
9.955 6.870 11.554
11.146 7.181 8.022
11.242 6.960 7.504
11.781 7.226 7.057
11.983 6.937 6.781
12.158 6.962 6.501
12.287 6.921 5.897
8.985 6.716 12.105
9.368 6.510 11.595
9.738 6.457 11.354
9.865 6.644 10.600
10.598 6.656 8.595
10.699 6.532 7.730
11.039 6.571 7.495
11.382 6.905 6.882
11.166 6.928 6.329
11.275 7.012 5.997
11.608 6.805 5.555
11.647 7.086 5.235
8.720 6.342 12.498
8.834 6.018 12.005
9.043 6.071 11.765
9.279 6.442 10.943
9.215 6.416 10.428
10.333 6.363 8.089
10.394 6.622 7.818
10.726 6.554 7.185
10.724 6.623 6.929
10.951 6.845 6.267
11.059 6.447 6.122
11.031 6.624 5.432
11.650 6.862 4.846
8.261 6.009 12.479
8.326 5.908 11.802
8.390 6.194 11.448
8.590 6.088 10.836
8.681 6.042 10.456
8.812 5.975 9.718
9.495 6.052 8.744
10.004 6.490 8.030
10.033 6.386 7.471
10.352 6.273 6.926
10.293 6.416 6.466
10.668 6.455 6.152
10.595 6.280 5.606
10.680 6.213 5.451
10.839 6.476 4.853
7.634 5.950 12.075
7.780 5.756 11.734
8.180 5.702 11.211
8.278 5.790 10.840
8.361 5.866 10.112
9.135 5.880 7.666
9.742 5.998 7.480
9.647 6.187 6.930
10.079 6.116 6.509
10.150 6.162 6.180
10.464 6.357 5.684
10.268 6.261 4.915
10.752 6.055 4.862
7.237 5.458 12.268
7.528 5.538 12.058
7.621 5.379 11.310
7.755 5.595 11.233
7.795 5.634 10.696
9.135 5.723 7.283
9.095 5.942 6.909
9.675 6.089 6.417
9.708 5.895 5.686
9.914 5.865 5.449
10.172 5.893 4.819
9.969 5.964 4.667
9.179 7.279 12.316
9.359 7.018 11.815
11.369 7.663 7.576
11.218 7.441 7.022
11.386 7.642 6.618
11.899 7.486 6.289
9.092 7.159 11.952
9.362 7.123 11.694
9.164 7.109 11.114
10.336 7.324 7.824
10.532 7.453 7.513
10.910 7.323 7.151
10.917 7.350 6.653
11.229 7.227 5.834
11.322 7.197 5.653
8.182 6.826 12.221
8.614 6.505 12.112
8.832 6.804 11.352
8.757 6.623 11.045
10.335 7.145 7.959
10.131 6.956 7.015
10.661 6.961 6.827
10.893 7.172 6.346
10.706 6.961 5.943
10.865 7.259 5.478
11.239 6.955 4.900
8.078 6.488 12.366
7.991 6.515 11.665
8.489 6.558 11.458
8.321 6.613 10.896
9.666 6.756 7.795
10.087 6.890 6.946
9.873 6.652 6.817
10.152 6.971 6.079
10.523 6.878 5.824
10.878 6.855 5.208
11.022 7.155 4.743
7.435 6.210 12.680
7.580 6.432 12.320
7.778 6.498 11.610
7.739 6.285 11.258
8.068 6.304 10.856
9.325 6.482 7.483
9.457 6.472 7.134
9.713 6.581 6.603
9.901 6.809 6.222
10.272 6.695 5.447
10.141 6.763 5.116
10.448 6.859 4.768
6.811 6.121 12.536
7.265 6.108 12.075
7.501 6.181 11.491
7.385 6.307 11.164
8.874 6.495 6.916
9.060 6.464 6.178
9.191 6.367 5.806
9.730 6.518 5.114
9.854 6.367 5.000
9.270 7.824 12.194
11.111 8.077 7.123
11.239 7.867 6.640
8.731 7.458 12.413
8.724 7.241 11.895
8.701 7.643 11.838
10.405 7.596 7.228
10.665 7.913 6.979
10.662 7.859 6.434
10.912 7.614 6.136
11.225 7.909 5.535
8.239 6.923 12.228
8.152 7.068 11.843
8.341 7.231 11.499
8.816 7.053 10.869
9.878 7.462 7.574
10.335 7.510 7.354
10.376 7.705 6.492
10.534 7.529 6.304
10.703 7.546 5.887
10.670 7.677 5.498
7.891 6.843 12.228
7.915 7.031 11.757
7.853 7.073 11.347
8.347 7.115 11.000
9.370 7.101 7.313
9.850 7.193 7.168
9.803 7.221 6.697
9.832 7.418 5.931
10.217 7.553 5.605
10.230 7.363 4.991
6.923 6.478 12.470
7.471 6.647 12.078
7.659 6.792 11.391
7.561 6.681 10.985
9.192 6.824 7.070
9.329 7.011 6.303
9.467 6.917 6.121
9.749 7.307 5.312
9.939 7.045 4.855
6.725 6.285 12.538
6.827 6.484 12.061
7.132 6.745 11.201
7.234 6.637 10.711
9.090 6.635 6.750
9.028 6.982 6.218
9.107 6.971 5.844
9.442 6.962 5.262
10.882 8.614 6.667
8.469 8.034 12.731
8.674 7.618 11.933
8.603 7.874 11.602
10.362 7.939 7.404
10.634 8.355 6.760
10.589 8.339 6.203
11.074 8.362 5.841
8.101 7.791 12.391
8.166 7.404 11.872
8.274 7.586 11.198
9.969 7.734 7.178
10.304 7.690 6.727
10.321 7.841 5.985
10.210 8.032 5.933
10.605 8.206 5.352
7.574 7.354 12.235
7.886 7.326 11.570
7.729 7.391 11.406
8.236 7.422 10.744
9.456 7.467 7.537
9.456 7.758 6.782
9.557 7.564 6.730
9.651 7.923 5.853
9.931 7.993 5.460
10.138 7.653 5.277
6.853 7.113 12.195
7.126 7.301 11.930
7.379 7.116 11.576
7.501 7.336 11.270
9.283 7.330 6.825
9.074 7.408 6.348
9.395 7.735 5.625
9.719 7.517 5.280
9.709 7.722 5.046
6.555 6.765 12.351
6.869 7.027 11.896
6.687 6.966 11.136
8.803 7.151 6.020
9.097 7.462 5.903
9.257 7.118 5.037
12.157 8.035 1.532
12.068 8.434 1.266
12.345 8.151 0.374
11.568 8.028 1.544
11.849 7.871 0.671
11.973 7.981 0.274
11.270 7.794 1.338
11.281 7.871 0.744
11.731 7.641 0.437
10.778 7.504 0.386
11.125 7.640 0.008
12.372 9.150 1.419
12.379 9.155 1.120
11.776 8.818 1.531
12.155 8.763 1.199
12.113 8.716 0.371
12.189 8.798 0.159
11.214 8.360 1.359
11.840 8.609 0.778
11.661 8.292 0.422
10.808 8.485 0.936
11.371 8.496 0.685
11.177 8.078 0.399
10.543 8.180 0.262
10.800 7.855 -0.210
11.907 9.121 1.512
12.384 9.500 1.202
12.427 9.426 0.744
11.685 9.330 1.781
11.636 9.263 1.568
11.762 9.042 0.764
12.055 9.281 0.461
12.241 9.170 0.013
11.145 8.655 1.698
11.317 8.675 1.297
11.162 8.961 0.840
11.799 8.858 0.070
10.572 8.431 1.546
11.019 8.685 0.906
11.034 8.977 0.622
11.178 8.847 0.348
10.286 8.294 0.789
10.392 8.618 0.501
12.022 10.063 1.773
12.612 10.037 1.346
11.869 9.566 1.841
11.714 9.818 1.568
12.046 9.924 0.968
12.111 9.659 0.578
12.532 9.758 0.316
11.160 9.355 2.296
11.090 9.549 1.872
11.548 9.350 1.523
11.361 9.595 0.862
11.856 9.675 0.233
10.254 9.382 4.056
10.617 9.290 1.999
10.854 9.438 1.829
10.851 9.254 1.130
11.139 9.581 0.674
11.594 9.227 0.461
9.839 9.435 4.061
10.468 9.044 1.777
10.311 9.132 1.706
10.681 9.282 1.020
10.576 9.316 0.547
10.767 9.009 0.197
9.546 8.846 3.794
9.804 8.719 1.226
10.152 8.723 1.075
10.466 8.780 0.351
12.308 10.897 1.957
11.709 10.646 2.195
12.013 10.597 1.579
12.002 10.333 1.401
12.208 10.757 0.482
11.242 9.966 2.886
11.387 10.186 2.449
11.542 10.224 1.777
11.444 10.349 1.476
11.712 10.363 0.922
11.912 10.122 0.762
12.156 10.400 0.050
10.592 10.316 4.447
10.746 10.170 3.839
10.338 9.765 3.373
10.898 9.887 2.689
11.090 10.165 2.371
10.939 10.000 1.651
11.450 9.879 1.061
11.583 9.872 0.894
11.635 10.233 0.374
10.298 9.657 3.882
10.161 10.039 3.614
10.295 10.018 3.435
10.111 9.611 2.961
10.052 9.835 2.508
10.391 9.742 2.040
10.369 9.755 1.522
10.955 9.929 1.037
11.024 9.849 0.485
10.912 9.890 0.376
9.835 9.553 4.169
9.848 9.644 3.474
10.305 9.609 2.872
9.809 9.478 2.905
9.790 9.466 2.324
10.042 9.457 2.001
10.408 9.399 1.266
10.177 9.567 1.115
10.342 9.457 0.488
10.540 9.758 -0.158
9.182 9.340 3.755
9.263 9.506 3.355
9.650 9.715 2.884
9.645 9.559 1.751
9.710 9.540 1.043
9.894 9.364 0.764
10.217 9.660 0.364
8.676 9.380 3.745
12.076 11.253 2.013
12.137 11.221 1.747
12.287 11.338 1.409
11.720 10.746 2.693
11.524 10.813 1.828
11.950 10.943 1.640
12.031 11.176 1.215
12.317 10.854 0.603
12.196 10.912 0.223
10.623 10.735 4.591
10.766 10.816 3.354
10.693 10.740 2.979
10.887 10.884 2.431
11.060 10.615 1.655
11.286 10.847 1.186
11.781 10.594 1.135
11.795 10.928 0.740
12.187 10.916 0.143
10.363 10.680 4.436
10.293 10.367 3.918
10.920 10.554 3.542
10.035 10.588 3.263
10.290 10.450 2.419
10.629 10.346 2.142
10.785 10.606 1.959
11.219 10.513 1.072
11.419 10.424 0.914
11.471 10.489 0.495
9.872 10.112 3.838
9.869 10.598 3.767
10.460 10.234 3.208
9.817 10.062 3.171
10.243 10.006 2.596
10.191 10.222 2.008
10.224 10.219 1.321
10.660 10.369 1.199
10.942 10.359 0.611
11.056 10.163 0.239
9.328 9.991 3.657
9.460 10.160 3.656
9.789 10.159 2.862
9.272 9.748 2.641
9.812 10.061 2.129
9.890 10.150 1.981
10.065 9.794 1.367
10.185 9.896 0.833
10.398 10.150 0.515
9.123 9.663 3.500
9.280 9.827 3.080
9.564 10.184 2.572
9.049 9.875 2.660
9.167 9.512 2.325
9.574 9.706 1.681
9.812 9.606 1.410
9.860 9.978 0.723
10.025 9.968 0.461
8.853 9.838 3.669
8.634 9.741 3.056
9.041 9.720 2.640
12.484 11.577 2.135
12.371 11.706 1.706
11.786 11.659 2.171
12.079 11.606 1.657
12.377 11.429 1.076
12.650 11.830 0.835
10.750 11.413 3.496
11.121 11.523 2.922
11.358 11.157 2.672
11.521 11.247 1.812
11.547 11.262 1.320
11.678 11.346 1.017
11.928 11.466 0.431
12.078 11.337 0.338
10.377 10.980 4.593
10.626 11.380 4.117
10.812 11.132 3.429
10.464 11.070 3.422
10.890 10.844 2.533
10.993 11.277 2.103
11.009 11.218 1.825
10.995 11.247 1.338
11.220 10.970 1.116
11.814 11.290 0.640
10.366 11.119 4.139
10.412 11.105 3.604
10.294 11.041 3.370
9.936 10.752 2.837
10.416 10.655 2.642
10.360 10.995 2.329
10.499 10.757 1.644
10.550 11.097 1.357
10.959 10.967 0.499
10.956 10.925 0.316
9.779 10.917 3.830
9.654 10.629 3.717
9.962 10.881 3.146
9.833 10.429 2.811
9.984 10.764 2.472
10.141 10.828 1.798
10.095 10.596 1.371
10.511 10.527 0.830
10.320 10.813 0.512
10.821 10.811 0.284
9.210 10.485 4.078
9.715 10.656 3.540
9.693 10.555 2.995
9.071 10.507 2.706
9.391 10.502 2.057
9.733 10.639 1.932
9.580 10.421 1.366
9.945 10.671 0.990
10.366 10.503 0.632
8.655 10.534 3.866
9.172 10.413 3.331
9.051 10.257 2.799
8.833 10.190 2.423
8.998 10.117 2.168
9.061 10.219 1.529
9.478 10.357 1.304
9.345 10.170 0.630
9.532 10.478 0.280
8.561 10.056 3.419
8.835 9.962 3.141
8.856 9.990 2.338
12.377 12.456 2.037
12.453 12.234 1.213
11.604 11.988 2.233
11.892 12.142 1.915
12.091 12.210 1.056
12.148 11.983 0.571
12.434 11.980 0.226
10.932 11.589 3.136
11.195 11.806 2.334
11.252 11.593 1.810
11.239 12.006 1.374
11.806 11.876 1.096
11.762 11.700 0.469
12.016 12.046 -0.120
10.185 11.796 4.463
10.341 11.922 3.660
10.275 11.607 3.016
10.634 11.478 2.697
10.505 11.780 2.221
10.779 11.583 1.859
10.948 11.831 1.375
11.071 11.758 0.809
11.318 11.775 0.185
9.906 11.643 4.373
10.246 11.489 3.425
10.167 11.449 3.295
9.831 11.075 2.958
10.271 11.534 2.548
10.397 11.512 1.909
10.570 11.561 1.842
10.504 11.365 0.941
10.984 11.538 0.927
10.780 11.510 0.001
9.716 11.215 3.993
9.783 11.094 3.658
9.610 11.344 3.227
9.619 10.999 2.837
9.585 11.106 2.609
9.627 11.224 1.929
10.119 11.089 1.575
10.081 10.953 1.098
10.347 11.420 0.484
10.444 11.110 -0.154
9.139 11.158 3.839
9.260 11.184 3.423
9.489 10.961 2.662
9.185 11.011 2.896
9.225 11.078 2.156
9.334 10.824 1.690
9.462 11.043 1.095
9.583 11.086 0.978
9.996 11.135 0.498
8.416 11.047 3.785
8.597 10.768 3.301
9.220 10.643 2.764
8.688 10.689 2.550
8.636 10.502 2.135
9.011 10.791 1.453
9.143 10.845 1.100
9.339 10.861 0.675
9.411 10.836 -0.010
8.311 10.358 3.570
8.379 10.793 3.137
8.430 10.790 2.698
11.494 12.582 2.105
11.571 12.498 1.472
11.783 12.448 1.298
12.003 12.454 0.709
10.835 11.989 2.301
10.891 12.277 1.914
11.214 12.318 1.563
11.290 12.405 1.065
11.473 12.433 0.621
11.911 12.427 -0.214
10.089 12.174 4.392
9.846 12.106 3.157
10.414 11.851 2.683
10.524 11.936 2.427
10.618 12.158 1.815
10.623 12.181 1.279
11.024 11.999 0.735
10.905 12.359 0.166
9.532 11.944 3.883
9.977 11.956 3.416
9.824 11.886 2.949
9.672 11.895 3.127
9.589 11.727 2.551
9.913 11.952 2.267
10.434 11.728 1.792
10.156 11.762 1.108
10.674 12.014 0.632
10.863 12.102 -0.055
9.249 11.896 3.770
9.571 11.499 3.292
9.795 11.945 2.913
9.049 11.476 2.785
9.482 11.603 2.397
9.541 11.701 1.942
9.630 11.625 1.535
10.066 11.705 0.682
10.082 11.640 0.503
8.767 11.587 3.551
9.112 11.585 3.324
9.140 11.390 2.906
8.707 11.501 2.814
9.052 11.265 1.987
8.956 11.412 1.777
9.309 11.477 1.313
9.690 11.573 0.660
9.525 11.571 0.315
8.512 11.320 3.746
8.567 11.443 3.139
8.856 11.529 2.614
8.330 11.227 1.933
8.813 10.943 1.509
8.855 11.294 1.078
9.213 11.147 0.402
9.084 11.340 -0.054
8.235 11.261 3.262
8.102 11.128 3.132
10.284 12.587 2.203
10.602 12.320 1.529
10.641 12.273 1.196
10.632 12.570 0.542
9.544 12.589 4.029
9.863 11.992 2.206
9.922 12.013 2.144
9.997 12.150 1.644
10.116 12.245 0.800
10.220 12.106 0.356
10.495 12.359 0.213
8.985 12.079 3.651
9.471 12.214 3.539
9.173 12.154 2.775
9.162 11.780 2.440
9.527 12.252 1.941
9.335 12.013 1.531
9.807 12.247 0.842
9.719 12.231 0.605
8.568 11.971 3.628
8.648 11.993 3.127
8.860 11.947 2.941
8.941 12.041 1.639
9.127 12.056 1.313
9.191 11.749 0.868
9.609 12.141 0.251
8.345 11.597 3.621
8.932 11.555 0.882
8.929 11.801 0.411
8.915 11.741 0.064
9.431 12.332 1.394
9.648 12.615 0.607
9.002 12.364 1.100
9.239 12.444 0.626
9.101 12.252 0.095
8.912 12.306 0.297
12.072 6.377 4.946
12.275 6.545 4.047
11.989 6.426 3.712
12.127 6.303 3.253
12.771 6.516 2.849
11.600 6.427 4.460
11.979 6.236 4.036
12.271 6.112 3.416
11.622 5.925 3.403
11.865 6.149 3.106
12.346 6.308 2.486
12.310 6.302 2.188
12.522 6.175 1.355
11.634 5.897 4.392
11.530 5.948 4.034
11.628 6.298 3.396
11.571 5.861 3.185
11.377 5.696 2.781
11.838 5.924 2.377
12.018 6.073 2.041
11.823 5.742 1.529
12.135 6.067 0.951
12.254 6.251 0.392
10.809 5.625 4.033
11.058 5.809 3.574
11.511 5.746 3.457
11.060 5.748 2.317
11.374 5.717 1.659
11.666 5.819 1.023
11.856 5.715 0.827
11.972 5.684 0.494
10.617 5.682 3.984
12.394 6.885 2.813
12.283 7.045 2.330
11.458 6.902 4.625
12.051 6.430 2.290
11.889 6.690 2.115
12.435 6.418 1.458
12.481 6.902 1.119
11.019 6.667 4.140
11.615 6.453 2.241
11.492 6.470 1.937
12.108 6.629 1.134
12.144 6.246 0.865
12.085 6.530 0.479
10.937 6.390 3.982
11.465 5.963 1.785
11.256 6.428 1.159
11.660 6.156 0.948
11.914 6.384 0.393
12.535 7.279 2.294
12.505 7.286 1.675
11.997 7.179 1.695
11.816 7.319 1.316
12.317 6.987 0.995
12.280 7.294 0.281
11.367 6.802 1.535
11.466 6.893 1.406
11.904 7.119 0.878
12.189 6.730 0.251
10.980 6.733 1.220
11.497 6.928 0.550
11.531 6.825 0.307
12.118 7.662 1.589
12.237 7.979 1.021
11.881 7.480 1.522
11.810 7.629 0.824
12.392 7.509 0.299
12.468 7.798 0.006
11.587 7.369 1.243
11.485 7.351 0.741
11.871 7.380 0.417
10.962 7.108 0.603
11.556 7.383 0.180
11.896 8.045 1.478
12.218 8.159 1.274
12.515 8.357 0.541
11.882 7.943 1.572
11.632 8.211 0.657
12.073 8.079 0.334
11.248 7.966 1.089
11.214 7.751 0.903
11.622 8.017 0.203
10.949 7.438 0.586
11.039 7.493 0.317
11.218 0.017 7.091
11.393 0.435 6.917
11.609 0.430 6.215
12.052 0.377 5.855
9.270 0.470 12.452
11.721 0.793 6.450
7.986 0.142 5.512
8.118 0.076 4.839
8.579 0.255 4.423
5.953 0.445 11.088
8.364 0.567 4.899
5.455 0.108 11.384
5.910 0.337 11.004
6.081 0.267 10.666
6.081 0.261 9.851
7.429 0.525 5.832
7.998 0.529 5.332
7.763 0.340 4.969
8.159 0.555 4.392
5.133 -0.159 10.933
5.650 0.110 10.413
5.457 -0.008 10.102
5.694 0.209 9.630
6.933 0.234 5.936
7.194 0.464 5.893
7.436 0.418 4.984
7.813 0.370 4.655
7.978 0.325 4.457
8.067 0.512 3.583
6.619 0.319 6.019
6.553 0.011 5.387
7.145 -0.068 4.789
7.268 0.217 4.523
7.295 0.180 3.981
7.287 0.040 3.663
7.477 0.408 3.333
8.665 1.851 12.247
11.149 2.016 6.273
5.869 1.018 11.782
5.640 0.956 11.192
6.148 1.129 10.501
6.239 1.119 10.346
7.877 1.243 5.764
8.056 1.227 5.400
8.425 1.261 4.859
8.134 1.183 4.499
4.962 0.679 11.678
5.076 0.631 11.471
5.504 0.680 10.741
5.866 0.679 10.634
5.935 0.771 10.217
6.177 0.799 9.365
7.437 0.822 6.042
7.478 1.091 5.636
7.447 1.248 5.286
7.548 1.015 5.081
8.113 1.146 4.591
8.213 0.944 4.013
4.571 0.627 11.986
4.738 0.517 11.717
4.686 0.623 11.270
5.183 0.653 10.907
5.371 0.411 10.322
5.556 0.566 9.910
5.632 0.726 9.181
5.523 0.558 9.018
6.862 0.788 6.526
6.834 0.598 6.065
6.876 0.816 5.494
7.317 0.610 5.323
7.171 0.591 4.452
7.441 0.994 4.309
7.750 0.730 3.832
7.960 0.834 3.463
4.118 0.399 12.100
4.148 -0.022 11.422
4.441 0.028 11.028
4.782 0.148 10.574
4.831 0.118 10.118
4.930 0.213 9.646
5.131 0.337 9.266
5.213 0.322 8.849
6.358 0.382 6.316
6.543 0.414 5.755
6.376 0.706 5.292
7.011 0.520 4.833
7.031 0.735 4.422
7.058 0.730 4.035
7.349 0.579 3.556
7.684 0.510 3.050
3.787 -0.239 10.744
4.160 0.215 10.239
4.487 0.147 9.835
4.371 -0.119 9.483
4.644 0.141 9.075
5.124 0.021 8.564
5.835 0.232 6.411
5.931 0.471 5.520
6.125 0.450 5.419
6.573 0.503 5.032
6.478 0.278 4.449
6.714 0.169 4.014
7.058 0.531 3.588
7.144 0.336 2.697
5.592 0.091 5.536
5.776 0.336 5.000
5.677 0.130 4.576
6.016 0.066 4.237
6.350 -0.027 3.719
6.588 0.017 3.451
6.586 0.174 2.896
6.132 -0.221 3.098
8.300 2.256 12.069
8.750 2.152 11.939
8.683 2.054 11.034
10.389 2.748 7.239
10.664 2.641 6.288
10.955 2.529 6.123
11.042 2.829 5.612
6.972 2.022 11.674
9.004 2.451 5.298
6.408 1.848 11.344
6.826 1.981 10.900
8.723 1.997 5.839
8.701 2.024 5.488
5.915 1.761 11.603
5.922 1.336 11.209
6.505 1.403 10.804
6.451 1.689 10.400
8.017 2.047 5.889
8.054 1.898 5.485
8.269 2.109 5.024
8.488 2.185 4.807
5.528 1.481 11.766
5.700 1.494 11.329
5.883 1.421 10.889
5.639 1.290 10.581
6.255 1.394 10.251
6.091 1.592 9.821
7.267 1.624 6.175
7.563 1.826 6.016
7.604 1.758 5.644
8.077 1.594 4.872
8.287 1.630 4.717
8.467 1.918 3.800
4.778 1.263 12.236
4.814 1.076 11.802
4.914 0.918 11.443
5.419 1.053 11.068
5.219 1.000 10.187
5.688 1.020 9.709
5.843 1.133 9.698
6.010 1.238 8.989
7.032 1.350 6.600
6.824 1.163 6.061
7.408 1.392 5.540
7.412 1.256 5.289
7.731 1.259 4.902
7.939 1.572 4.298
7.900 1.325 3.919
8.238 1.634 3.521
4.381 1.053 12.277
4.639 0.712 11.494
4.409 0.763 11.280
5.026 1.086 10.674
4.936 0.828 10.339
5.060 1.021 9.861
5.472 0.934 9.139
5.746 1.132 8.816
5.878 1.210 8.182
6.305 1.283 6.936
6.302 1.387 6.332
6.721 1.430 6.067
6.792 1.061 5.429
6.870 1.215 4.960
6.978 1.433 4.417
7.297 1.499 4.363
7.515 1.570 3.527
7.585 1.573 2.989
3.453 0.527 12.370
3.915 0.383 12.052
4.095 0.673 11.625
4.345 0.713 10.771
4.612 0.518 10.422
4.625 0.641 9.960
4.648 0.895 9.435
4.730 0.852 9.353
5.200 0.856 8.662
5.356 1.067 8.030
5.704 0.689 7.607
5.779 0.959 7.430
5.605 1.131 6.713
6.219 0.990 6.255
6.268 0.886 5.622
6.372 1.131 5.247
6.478 1.261 4.763
6.861 1.136 4.311
7.123 1.317 3.945
7.270 1.140 3.450
7.085 1.202 2.844
3.288 0.431 12.416
3.603 0.348 11.701
3.780 0.321 11.157
3.574 0.448 10.900
4.030 0.337 10.254
4.342 0.338 9.899
4.339 0.668 9.558
4.512 0.753 9.208
4.550 0.814 8.639
4.680 0.437 7.789
5.544 0.512 6.638
5.524 0.695 5.918
5.553 0.515 5.797
5.755 0.863 5.346
5.989 0.631 4.553
6.122 0.644 4.108
6.542 0.971 3.690
6.871 0.842 3.155
7.039 1.121 3.117
2.646 0.082 11.971
3.118 -0.041 11.826
3.074 0.030 11.028
3.467 0.466 10.594
3.510 0.443 10.052
3.774 0.376 9.983
3.902 0.319 9.160
4.294 0.406 8.613
4.237 0.276 8.420
4.937 0.754 6.025
5.147 0.310 5.354
5.368 0.506 5.273
5.693 0.816 4.499
5.921 0.865 3.870
6.004 0.718 3.849
6.329 0.532 3.111
6.317 0.851 2.527
2.870 -0.150 10.370
2.931 -0.062 10.267
3.407 0.140 9.457
3.386 0.213 8.926
3.853 0.306 8.693
5.180 0.406 5.560
5.194 0.425 4.775
5.530 0.451 4.416
5.700 0.217 3.836
5.631 0.590 3.343
5.775 0.370 3.219
5.853 0.439 2.561
4.900 0.225 4.485
4.836 0.395 4.410
5.149 0.289 3.569
5.371 0.433 3.503
5.545 0.088 2.627
4.792 0.069 3.094
8.419 2.861 11.986
8.146 2.470 11.698
8.456 2.503 11.121
8.743 2.496 10.927
9.793 2.972 7.419
10.266 3.171 6.978
10.201 3.068 6.467
10.573 2.826 5.847
10.921 3.133 5.642
10.914 3.203 4.858
7.355 2.329 12.601
7.574 2.345 12.121
7.847 2.659 11.556
8.212 2.394 10.861
9.855 2.609 6.610
9.978 2.791 6.352
9.913 2.650 5.691
10.281 2.925 5.619
7.355 2.257 11.602
7.626 2.032 11.444
9.523 2.521 5.916
9.835 2.628 5.847
6.687 2.229 11.551
9.379 2.442 5.409
6.713 2.409 11.845
6.494 2.552 11.493
6.764 2.580 11.224
6.904 2.737 10.530
8.809 2.831 6.310
8.607 2.977 5.808
9.193 2.665 5.486
9.288 2.809 5.014
5.913 2.373 12.341
6.276 2.052 11.630
6.122 2.352 11.149
6.421 2.485 11.094
6.602 2.209 10.649
8.143 2.749 6.250
8.576 2.813 5.736
8.725 2.620 5.417
8.776 2.737 4.755
9.174 2.697 4.280
5.690 2.106 11.969
5.681 2.011 11.559
5.666 2.206 11.414
5.985 2.218 10.884
6.381 2.186 10.145
6.154 2.160 9.706
7.840 2.193 6.311
7.626 2.208 5.815
7.794 2.310 5.314
7.971 2.404 5.231
8.225 2.284 4.418
8.438 2.325 4.229
4.903 1.801 12.602
5.090 1.562 11.871
5.154 1.572 11.599
5.234 1.683 11.174
5.678 1.689 10.405
5.966 1.713 10.101
5.814 2.078 9.745
6.071 1.895 9.080
7.150 2.234 6.556
7.265 2.238 6.285
7.217 2.001 5.684
7.694 1.968 5.349
7.620 2.406 4.730
7.981 2.145 4.309
8.045 2.187 3.805
8.481 2.366 3.567
4.292 1.684 12.348
4.840 1.668 11.870
4.614 1.651 11.444
5.000 1.391 10.611
5.005 1.364 10.229
5.466 1.479 10.133
5.777 1.434 9.605
5.666 1.867 9.040
6.152 1.692 8.288
6.484 2.010 7.247
6.409 1.611 6.509
6.784 1.865 6.337
6.981 1.939 5.678
7.257 1.927 5.021
7.370 1.770 4.559
7.729 1.840 4.454
7.831 1.912 3.891
8.057 1.860 3.417
4.086 1.298 12.557
4.073 1.100 11.896
4.227 1.401 11.522
4.253 1.228 11.384
4.802 1.484 10.766
4.571 1.311 10.096
4.873 1.463 9.972
5.028 1.542 9.121
5.307 1.665 8.762
5.390 1.683 8.147
5.575 1.485 8.000
6.039 1.676 7.165
6.065 1.775 6.937
6.056 1.440 6.423
6.189 1.831 5.939
6.422 1.669 5.459
6.744 1.719 4.868
6.725 1.949 4.408
6.959 1.634 4.310
7.241 1.730 3.396
7.359 1.871 3.117
3.643 0.928 12.604
3.654 1.305 11.856
3.609 0.990 11.681
3.960 1.311 11.091
4.319 1.131 10.427
4.221 1.022 10.218
4.685 1.055 9.661
4.587 1.447 9.277
4.911 1.094 8.624
5.152 1.362 8.192
5.177 1.446 7.922
5.394 1.152 7.068
5.441 1.203 6.916
5.992 1.417 6.060
5.823 1.551 5.785
6.098 1.423 5.125
6.543 1.345 4.905
6.464 1.425 4.529
6.525 1.733 3.887
6.832 1.649 3.575
6.903 1.623 3.117
2.991 1.012 12.248
3.275 0.616 11.863
3.511 0.943 11.230
3.790 1.004 10.555
3.938 0.900 10.238
4.151 1.198 10.010
3.899 0.815 9.207
4.482 0.839 9.019
4.529 0.963 8.393
4.478 1.240 7.929
5.034 1.111 7.613
5.235 1.297 7.123
4.974 1.382 6.700
5.336 1.378 5.998
5.587 1.310 5.611
5.870 1.485 5.067
6.038 1.088 4.817
6.282 1.185 4.005
6.033 1.479 3.532
6.491 1.264 3.517
6.705 1.534 3.004
2.208 0.785 12.378
2.720 0.834 11.938
2.649 0.831 11.578
3.160 0.639 11.074
3.183 0.617 10.413
3.136 0.555 10.227
3.777 0.496 9.484
3.643 0.837 9.105
3.695 0.599 8.516
4.258 1.023 8.444
4.084 1.104 7.945
4.404 0.798 7.249
4.849 0.729 6.735
4.577 0.916 6.439
5.061 0.767 5.822
5.354 0.981 5.489
5.226 1.189 4.965
5.387 0.991 4.309
5.818 1.214 4.265
5.885 1.113 3.587
5.932 0.991 2.886
6.175 0.915 2.604
2.212 0.473 11.925
2.322 0.433 11.185
2.392 0.682 10.784
2.670 0.575 10.583
2.905 0.364 9.757
3.076 0.677 9.731
3.201 0.450 9.106
3.315 0.693 8.738
3.845 0.637 8.171
4.514 0.995 5.670
4.819 0.852 5.186
5.151 0.930 4.952
5.048 0.674 4.308
5.061 0.769 3.956
5.638 1.112 3.262
5.745 1.029 3.170
5.849 0.720 2.233
2.139 0.274 11.418
2.033 0.469 10.518
2.511 0.234 10.336
2.610 0.057 9.810
2.848 0.412 9.266
2.727 0.443 8.944
3.237 0.494 8.189
4.310 0.492 5.238
4.269 0.507 4.711
4.550 0.724 4.298
5.024 0.803 3.592
5.038 0.840 3.205
5.188 0.880 2.932
5.432 0.513 2.266
1.698 -0.024 10.354
1.905 -0.052 10.091
2.192 0.245 9.875
2.276 0.204 8.974
2.291 -0.109 8.563
3.838 0.382 4.658
4.162 0.212 4.130
4.344 0.326 3.339
4.618 0.507 2.918
4.957 0.648 2.630
3.847 0.358 4.377
3.782 0.299 3.740
4.050 0.089 3.563
4.063 0.364 2.807
3.881 0.114 2.621
7.543 3.031 12.617
7.973 2.924 12.291
7.936 3.076 11.511
8.078 3.242 10.911
8.506 3.372 10.554
8.484 3.229 9.958
9.614 3.557 7.845
9.686 3.424 7.346
9.946 3.559 6.694
10.338 3.385 6.251
10.176 3.534 6.091
10.634 3.522 5.336
10.534 3.624 4.887
10.763 3.487 4.638
7.212 3.089 12.201
7.527 2.743 11.868
7.878 2.833 11.556
7.873 3.046 10.961
7.970 3.049 10.257
9.408 3.297 7.274
9.530 3.358 6.858
9.616 3.296 6.209
9.831 3.167 5.619
9.931 3.386 5.535
10.155 3.064 4.800
6.949 2.632 12.206
7.159 2.919 11.782
7.217 2.918 11.246
7.613 2.896 10.838
9.155 2.753 6.763
9.347 2.797 6.305
9.452 2.947 5.489
9.505 3.210 5.303
9.903 3.279 4.739
6.701 2.346 11.910
6.462 2.409 11.598
7.121 2.357 10.848
7.098 2.332 10.804
8.445 2.992 6.559
8.612 2.741 5.842
8.915 2.673 5.430
9.403 3.044 5.120
5.954 2.969 12.493
6.389 2.963 11.802
6.546 2.978 11.358
6.533 2.870 11.008
6.724 3.150 10.570
8.391 3.267 6.160
8.522 3.365 5.967
8.632 3.497 5.498
9.011 3.070 4.947
8.954 3.294 4.465
5.858 2.776 12.017
6.063 2.887 11.587
6.011 2.825 11.061
6.012 2.838 11.025
6.578 2.694 10.364
6.690 3.010 9.968
8.044 2.892 6.401
8.200 2.813 6.289
8.362 3.172 5.727
8.485 3.217 5.023
8.500 2.980 4.934
8.731 2.946 4.082
4.942 2.487 12.408
5.194 2.365 12.170
5.640 2.649 11.839
5.443 2.423 11.221
6.014 2.723 10.723
6.031 2.330 10.077
6.082 2.618 9.824
7.442 2.634 6.605
7.848 2.741 6.063
7.759 2.886 5.605
7.900 2.648 5.260
8.032 2.645 4.574
8.204 2.823 4.204
8.605 3.142 3.609
4.660 2.389 12.275
5.095 2.355 11.680
4.908 2.268 11.604
5.331 2.190 11.105
5.414 2.441 10.348
5.581 2.310 9.812
5.855 2.253 9.408
5.715 2.321 9.310
6.870 2.426 6.719
7.198 2.330 6.232
7.000 2.544 6.012
7.327 2.540 5.219
7.419 2.806 4.917
7.681 2.442 4.465
8.079 2.453 4.072
8.345 2.727 3.528
4.340 2.142 12.428
4.580 1.926 11.953
4.627 2.065 11.154
4.989 1.908 10.761
4.955 2.312 10.183
5.374 1.874 9.762
5.509 2.132 9.225
5.715 2.028 9.015
5.534 2.357 8.386
5.899 1.991 7.762
5.862 2.092 7.554
6.058 2.202 6.832
6.275 2.230 6.533
6.627 2.093 6.108
6.847 2.369 5.769
7.150 2.593 4.981
7.313 2.215 4.741
7.277 2.424 4.459
7.335 2.529 3.740
7.788 2.604 3.193
3.733 1.832 12.348
3.726 1.775 12.078
3.926 1.860 11.687
3.992 1.651 11.266
4.165 1.649 10.446
4.741 2.050 10.055
4.962 1.987 9.569
5.105 1.833 9.280
5.219 1.787 8.658
5.314 2.161 8.351
5.230 1.864 7.850
5.759 1.921 7.155
5.943 2.029 7.075
6.071 1.845 6.425
6.142 2.076 6.117
6.422 1.973 5.401
6.722 2.137 5.030
6.570 2.118 4.631
6.786 2.051 3.831
7.037 2.031 3.373
7.290 2.249 3.345
3.419 1.320 12.393
3.591 1.612 11.721
3.401 1.754 11.514
3.932 1.338 10.818
3.774 1.537 10.457
4.340 1.686 9.969
4.573 1.904 9.683
4.466 1.462 8.994
4.734 1.736 8.397
5.089 1.888 8.147
4.864 1.872 7.792
5.329 1.706 7.292
5.260 1.799 6.924
5.447 1.813 6.103
5.841 2.081 5.677
6.044 1.982 5.269
6.179 2.157 4.829
6.335 1.780 4.445
6.731 1.878 3.893
6.655 1.986 3.568
7.077 2.011 2.987
3.051 1.437 12.273
3.260 1.271 11.916
3.216 1.438 11.308
3.597 1.352 10.620
3.687 1.323 10.352
3.885 1.204 9.824
3.912 1.614 9.259
4.260 1.631 9.104
4.145 1.506 8.365
4.266 1.726 8.064
4.640 1.375 7.551
4.873 1.490 7.230
4.884 1.794 6.610
5.391 1.712 6.235
5.480 1.699 5.468
5.636 1.572 5.078
5.579 1.613 4.774
6.091 1.776 4.388
6.110 1.912 3.759
6.232 1.682 3.119
6.272 1.960 2.860
2.479 0.913 12.537
2.634 1.164 12.177
2.738 1.102 11.516
2.776 0.880 11.036
3.069 1.003 10.395
3.093 1.037 10.036
3.540 1.175 9.803
3.641 1.447 9.072
3.696 1.491 8.907
4.093 1.225 8.349
4.148 1.326 7.624
4.182 1.245 7.233
4.617 1.539 6.730
4.476 1.177 6.354
4.947 1.286 5.986
5.167 1.617 5.202
4.863 1.368 4.768
5.154 1.690 4.553
5.365 1.450 4.160
5.605 1.747 3.440
5.638 1.436 3.139
5.918 1.492 2.443
1.713 1.033 12.042
1.872 0.821 11.982
2.155 0.802 11.313
2.392 0.653 10.715
2.508 0.840 10.579
2.482 0.974 9.890
3.134 0.790 9.429
2.964 0.905 8.828
3.504 0.806 8.641
3.661 1.240 8.294
3.806 0.909 7.416
4.144 1.125 6.303
4.160 1.289 5.730
4.710 1.208 5.424
4.778 1.087 4.874
4.731 1.340 4.502
4.910 1.489 3.683
5.161 1.527 3.441
5.447 1.488 2.830
5.356 1.540 2.346
1.995 0.641 11.036
1.894 0.624 10.878
2.020 0.537 10.169
2.462 0.678 9.568
2.583 0.805 9.315
2.762 0.734 8.782
2.828 0.658 8.493
2.961 0.917 8.100
3.678 0.845 5.673
4.274 0.829 5.224
4.296 1.173 4.587
4.374 0.904 4.237
4.673 1.116 3.667
4.670 0.969 3.221
5.228 1.314 2.755
5.190 1.080 2.248
1.603 0.512 10.469
1.476 0.245 10.132
1.798 0.379 9.382
2.092 0.574 9.237
2.122 0.570 8.759
2.451 0.668 8.113
3.561 0.713 4.937
4.070 0.591 4.554
4.063 0.674 3.892
4.040 0.710 3.626
4.372 0.981 2.847
4.672 0.886 2.522
1.258 0.471 10.533
1.075 0.172 9.633
1.472 0.407 9.497
1.757 0.312 8.836
1.821 0.151 8.545
3.567 0.680 4.169
3.418 0.827 3.529
3.733 0.692 3.474
3.746 0.755 2.841
4.157 0.824 2.144
0.594 -0.033 10.141
0.894 -0.069 9.916
1.005 0.319 9.437
0.990 0.339 8.645
1.267 0.279 8.385
2.990 0.599 4.300
3.302 0.555 3.584
3.473 0.427 3.277
3.767 0.290 2.482
3.636 0.357 2.035
2.663 -0.097 4.518
2.726 0.329 3.929
2.728 0.448 3.640
2.870 -0.015 2.817
2.899 0.015 2.390
3.081 0.167 2.129
2.341 -0.118 2.636
2.536 0.261 2.480
2.783 0.261 1.753
2.944 0.093 1.536
7.778 3.312 12.621
7.918 3.491 11.993
8.088 3.428 11.774
8.174 3.795 11.144
8.431 3.792 10.462
8.491 3.523 9.889
9.476 3.669 7.695
9.442 3.927 7.285
9.762 3.677 7.005
10.018 3.660 6.585
10.096 3.726 5.946
10.215 3.976 5.463
10.335 4.129 4.908
10.457 4.157 4.249
7.320 3.428 12.537
7.106 3.414 11.615
7.528 3.450 11.280
7.658 3.599 10.915
8.099 3.346 10.524
8.996 3.644 7.213
9.311 3.782 6.726
9.679 3.924 6.301
9.677 3.586 5.920
9.725 3.536 5.380
10.245 3.529 4.832
10.429 3.884 4.430
6.864 2.850 11.967
6.837 3.142 11.507
7.003 3.189 11.119
7.369 2.936 10.699
7.375 3.124 10.391
8.853 3.438 6.793
8.763 3.345 6.672
9.102 3.705 5.824
9.022 3.439 5.745
9.547 3.534 5.006
9.818 3.433 4.770
5.946 2.862 12.246
6.261 2.961 11.974
6.633 2.765 11.507
6.489 2.836 10.781
7.057 3.010 10.673
8.516 3.006 6.079
8.819 3.097 5.782
8.765 3.458 5.235
9.023 3.123 5.084
9.289 3.088 4.439
6.092 3.490 12.241
6.168 3.283 12.093
6.128 3.500 11.511
6.621 3.246 10.736
6.723 3.574 10.474
6.909 3.661 9.995
8.097 3.432 6.521
8.272 3.705 6.097
8.458 3.663 5.986
8.364 3.921 5.249
8.683 3.572 4.949
9.107 3.904 4.518
5.719 2.906 12.189
5.922 2.972 11.894
5.746 2.937 11.066
5.798 3.049 10.756
6.165 3.043 10.258
6.158 3.456 9.877
7.494 3.231 6.589
7.767 3.408 5.932
8.061 3.306 5.485
8.359 3.470 5.034
8.470 3.382 4.469
8.316 3.702 4.270
4.833 2.942 12.278
5.320 3.068 11.838
5.244 3.086 11.344
5.377 2.770 10.909
5.583 3.180 10.421
5.599 3.109 10.379
6.218 2.987 9.625
7.395 3.202 6.209
7.651 3.209 5.920
7.652 3.343 5.206
7.818 3.508 5.213
7.832 3.489 4.443
8.319 3.265 4.050
8.502 3.372 3.496
4.731 2.651 12.280
4.813 2.443 11.690
4.606 2.446 11.157
5.126 2.820 11.066
5.391 2.573 10.289
5.163 2.677 9.829
5.606 2.574 9.709
5.568 2.767 8.863
5.740 2.655 8.755
6.398 3.155 7.116
6.626 2.757 6.608
6.856 2.920 6.124
6.873 3.145 5.913
7.269 3.202 5.254
7.333 3.050 4.860
7.579 2.897 4.260
7.591 3.298 4.050
7.955 3.244 3.522
4.170 2.312 12.176
4.342 2.403 11.586
4.418 2.401 11.010
4.583 2.472 10.713
4.677 2.633 10.020
5.069 2.610 9.820
5.261 2.416 9.494
5.511 2.411 9.022
5.538 2.419 8.603
5.895 2.746 8.033
5.621 2.503 7.607
6.090 2.763 7.179
5.980 2.786 6.404
6.283 2.609 5.861
6.553 2.777 5.418
6.564 2.601 4.989
6.807 2.902 4.715
7.178 3.080 4.028
7.165 2.754 3.598
7.345 2.730 3.185
3.540 2.213 12.522
3.716 2.314 12.060
4.072 2.017 11.627
4.101 2.180 11.274
4.152 2.383 10.660
4.499 2.463 10.292
4.770 2.264 9.601
4.828 2.547 9.074
