5.547 8.775 10.378
5.415 8.698 9.792
5.057 8.316 7.334
4.730 8.324 6.961
4.537 8.410 6.478
4.527 8.377 6.062
4.262 8.335 5.434
3.954 8.391 5.025
3.849 8.196 4.615
3.834 8.399 4.114
3.654 8.216 3.570
2.776 8.205 1.239
2.437 8.114 0.927
2.364 8.120 0.384
6.237 8.453 10.679
5.950 8.575 10.122
5.723 8.549 9.656
5.664 8.388 9.331
5.414 8.259 7.682
5.318 8.203 7.203
5.099 8.147 6.807
4.957 8.169 6.212
4.820 8.102 5.936
4.532 8.024 5.435
4.394 8.173 4.940
4.235 8.082 4.358
4.113 8.085 3.923
3.959 8.103 3.410
3.681 7.974 2.951
3.654 8.096 2.481
3.544 7.948 2.044
3.336 7.942 1.600
3.119 7.870 1.243
2.863 7.836 0.634
2.751 7.885 0.282
6.651 8.296 10.675
6.377 8.249 10.053
6.172 8.239 9.535
6.005 8.362 9.058
5.910 8.203 8.728
6.224 8.050 8.069
6.014 7.845 7.659
5.824 7.842 7.210
5.570 7.832 6.540
5.404 7.761 6.200
5.351 7.857 5.822
5.026 7.736 5.339
4.961 7.814 4.800
4.747 7.686 4.212
4.462 7.670 3.724
4.276 7.870 3.331
4.167 7.787 2.980
4.078 7.746 2.341
3.830 7.669 1.931
3.671 7.720 1.596
3.385 7.643 0.956
3.384 7.540 0.595
3.063 7.552 -0.056
6.902 7.950 10.461
6.700 8.025 10.021
6.702 7.966 9.376
6.481 7.990 8.952
6.354 8.043 8.474
6.020 7.965 8.036
6.400 7.753 7.533
6.068 7.640 7.044
6.114 7.712 6.607
5.845 7.669 6.071
5.603 7.562 5.629
5.350 7.694 5.059
5.336 7.659 4.740
5.112 7.609 4.037
5.035 7.518 3.721
4.690 7.422 3.226
4.666 7.577 2.659
4.099 7.372 1.254
3.964 7.319 0.924
3.780 7.344 0.299
7.475 7.908 10.263
7.226 7.685 9.807
7.097 7.759 9.407
6.787 7.773 8.831
6.758 7.786 8.374
6.428 7.284 6.277
6.301 7.405 5.856
6.013 7.398 5.503
5.864 7.350 4.986
5.762 7.382 4.468
5.452 7.415 4.115
5.323 7.354 3.490
5.082 7.328 3.122
4.242 7.108 0.793
4.180 7.212 0.279
7.740 7.646 10.112
7.611 7.457 9.753
7.426 7.507 9.277
-0.066 11.617 12.205
0.524 11.439 12.185
0.315 11.306 11.632
0.163 11.468 11.296
0.148 10.960 10.244
0.949 11.082 12.554
0.782 11.068 11.995
0.594 11.017 11.497
0.363 11.022 11.001
0.361 10.986 10.510
0.018 11.112 10.122
0.614 10.841 9.909
0.346 10.700 9.503
0.118 10.775 8.970
0.049 10.862 8.536
1.490 10.945 12.325
1.230 10.930 11.844
1.169 10.998 11.517
0.980 10.817 10.856
0.735 10.939 10.378
0.491 10.940 10.060
1.052 10.643 9.859
0.873 10.670 9.419
0.610 10.462 9.005
0.424 10.603 8.493
0.322 10.485 7.895
0.015 10.541 7.542
1.765 10.585 12.245
1.758 10.738 11.786
1.429 10.665 11.330
1.404 10.607 10.759
1.201 10.607 10.280
1.064 10.471 9.827
1.468 10.435 9.764
1.228 10.300 9.367
0.958 10.165 8.826
0.886 10.327 8.300
0.622 10.186 7.744
0.518 10.238 7.353
0.428 10.097 6.923
0.029 10.083 6.454
2.124 10.493 12.186
2.001 10.274 11.609
1.836 10.494 11.188
1.748 10.290 10.726
1.463 10.234 10.175
1.458 10.432 9.825
1.525 10.067 8.734
1.200 9.918 8.203
1.111 9.892 7.758
0.935 9.986 7.204
0.786 9.838 6.761
0.591 9.847 6.381
0.391 9.900 5.937
0.120 10.005 5.269
0.020 9.893 4.826
2.570 10.065 11.920
2.473 10.088 11.474
2.219 10.191 11.015
2.160 9.988 10.501
1.728 9.728 8.058
1.543 9.732 7.523
1.196 9.757 7.025
1.108 9.630 6.641
0.895 9.789 6.051
0.835 9.546 5.690
0.526 9.754 5.248
3.130 9.834 11.751
2.871 9.958 11.219
2.721 9.942 10.773
1.789 9.433 7.332
1.686 9.557 6.992
1.671 9.496 6.585
1.407 9.520 6.045
1.102 9.281 5.646
3.545 9.721 11.717
3.214 9.576 11.244
2.251 9.141 6.708
1.942 9.242 6.400
1.751 9.078 5.780
1.535 9.249 5.425
-0.042 8.973 1.269
4.000 9.449 11.618
2.639 8.886 6.561
2.355 9.024 6.263
2.265 9.019 5.845
2.044 8.959 5.194
0.401 8.795 1.078
0.370 8.752 0.581
0.051 8.769 0.085
4.366 9.037 11.456
3.073 8.799 7.055
2.992 8.599 6.422
2.726 8.634 5.964
2.648 8.682 5.695
2.388 8.565 5.092
0.782 8.573 0.925
0.660 8.354 0.390
4.691 8.987 11.143
4.512 8.757 10.662
3.666 8.436 7.243
3.454 8.470 6.914
3.280 8.546 6.365
3.261 8.483 5.883
2.914 8.472 5.523
2.943 8.378 4.857
2.735 8.316 4.497
1.431 8.185 1.122
1.313 8.195 0.768
1.111 8.304 0.167
5.149 8.631 11.071
4.915 8.694 10.587
4.788 8.513 10.083
4.319 8.127 7.626
4.197 8.220 7.222
4.025 8.326 6.734
3.659 8.308 6.264
3.652 8.059 5.749
3.460 8.042 5.213
3.201 8.097 4.803
3.025 8.009 4.347
2.961 8.167 3.890
1.977 7.913 1.531
1.755 7.884 1.114
1.691 7.905 0.476
1.452 7.825 0.202
5.475 8.460 10.992
5.271 8.288 10.451
5.090 8.322 9.937
4.959 8.286 9.497
5.098 7.972 8.391
4.768 7.955 7.926
4.773 8.069 7.608
4.495 7.930 7.086
4.240 8.058 6.673
4.276 7.964 6.114
4.085 7.809 5.643
3.874 8.012 5.236
3.634 7.923 4.640
3.397 7.898 4.256
3.214 7.738 3.810
3.066 7.707 3.288
2.988 7.892 2.874
2.853 7.744 2.288
2.562 7.734 1.866
2.415 7.796 1.447
2.345 7.682 0.869
2.143 7.708 0.339
5.927 8.087 10.820
5.848 8.170 10.305
5.567 8.128 9.801
5.436 7.998 9.429
5.349 7.988 8.911
5.044 7.974 8.475
5.366 7.765 8.212
5.388 7.673 7.946
5.142 7.769 7.396
5.062 7.683 6.784
4.796 7.773 6.499
4.545 7.749 6.062
4.441 7.649 5.528
4.310 7.706 5.044
4.066 7.602 4.559
3.910 7.619 4.011
3.668 7.512 3.565
3.592 7.527 3.235
3.278 7.485 2.694
3.229 7.451 2.156
3.016 7.409 1.650
2.924 7.425 1.203
2.636 7.488 0.669
2.522 7.572 0.228
6.266 7.765 10.580
6.089 7.802 10.120
5.918 7.852 9.629
5.819 7.828 9.369
5.580 7.842 8.821
5.384 7.709 8.369
5.799 7.408 8.091
5.802 7.552 7.707
5.425 7.479 7.243
5.284 7.372 6.680
5.281 7.557 6.205
4.908 7.419 5.892
4.720 7.379 5.458
4.719 7.293 4.995
4.586 7.370 4.284
4.193 7.413 3.998
4.077 7.390 3.474
3.836 7.372 3.071
3.707 7.202 2.423
3.656 7.224 2.034
3.498 7.352 1.551
3.248 7.263 1.003
3.022 7.132 0.532
3.005 7.307 0.278
6.634 7.714 10.462
6.686 7.690 10.103
6.473 7.639 9.480
6.269 7.566 9.188
6.048 7.515 8.706
5.757 7.505 8.058
6.187 7.331 7.926
6.177 7.244 7.624
5.817 7.186 7.106
5.662 7.196 6.692
5.509 7.204 6.173
5.346 7.108 5.679
5.180 7.074 5.291
5.103 7.102 4.628
4.794 7.160 4.341
4.794 6.984 3.710
4.479 7.043 3.432
4.427 7.099 2.961
4.238 7.145 2.449
3.951 6.913 1.818
3.801 7.023 1.375
3.633 7.042 0.874
3.442 7.016 0.421
3.370 6.830 -0.020
7.184 7.404 10.475
7.019 7.230 9.979
6.760 7.328 9.331
6.652 7.425 9.027
6.539 7.233 8.591
6.176 7.196 8.097
6.465 6.986 7.446
6.437 6.953 6.863
6.165 6.884 6.368
6.090 6.929 6.004
5.887 6.891 5.462
5.622 6.846 5.016
5.415 6.925 4.668
5.206 6.891 4.098
5.204 6.893 3.741
4.902 6.912 3.295
4.790 6.784 2.606
4.193 6.652 1.407
3.974 6.761 0.784
4.001 6.753 0.310
7.500 7.079 10.159
7.342 7.105 9.672
7.132 7.059 9.411
7.150 7.169 8.797
6.872 7.032 8.480
0.291 10.906 12.330
0.061 11.026 11.759
0.577 10.598 12.066
0.387 10.671 11.685
0.186 10.748 11.124
0.042 10.724 10.754
0.251 10.280 10.163
0.142 10.411 9.624
1.175 10.379 12.564
1.072 10.566 12.082
0.721 10.494 11.498
0.646 10.432 11.146
0.422 10.457 10.530
0.406 10.407 10.209
0.771 10.075 9.927
0.634 10.056 9.423
0.493 9.988 9.040
0.225 9.976 8.538
-0.063 10.179 8.181
1.643 10.121 12.232
1.312 10.319 11.851
1.193 10.202 11.507
0.986 10.254 10.891
0.933 10.064 10.445
0.825 10.150 9.977
1.232 9.795 9.733
1.031 9.954 9.400
0.775 9.956 8.887
0.522 9.912 8.387
0.501 9.822 7.962
0.360 9.684 7.455
0.082 9.655 6.934
2.082 9.955 12.203
1.864 9.992 11.786
1.715 9.888 11.324
1.470 9.887 10.777
1.395 9.852 10.335
1.237 9.963 9.741
1.197 9.711 8.804
1.056 9.613 8.316
0.955 9.448 7.697
0.754 9.617 7.401
0.551 9.599 6.882
0.392 9.588 6.346
0.214 9.408 5.910
2.407 9.775 12.041
2.339 9.809 11.688
2.068 9.682 11.030
2.007 9.551 10.516
1.350 9.274 8.227
1.282 9.395 7.660
0.992 9.365 7.198
0.970 9.369 6.723
0.664 9.342 6.280
0.678 9.155 5.714
0.335 9.318 5.210
0.151 9.126 4.932
2.904 9.448 11.967
2.555 9.454 11.320
2.461 9.368 10.851
1.546 8.939 7.601
1.379 8.996 6.993
1.236 8.940 6.474
1.158 8.999 6.066
0.997 9.006 5.642
0.699 8.965 5.146
3.324 9.243 11.682
3.011 9.300 11.281
2.165 8.861 7.285
1.953 8.865 6.979
1.827 8.656 6.454
1.449 8.681 5.923
1.326 8.719 5.535
3.612 8.893 11.687
3.502 8.945 11.209
2.471 8.636 7.278
2.415 8.440 6.732
2.114 8.482 6.349
1.995 8.510 5.718
1.890 8.540 5.248
0.260 8.191 1.200
-0.052 8.368 0.718
3.975 8.587 11.419
3.816 8.791 10.888
2.973 8.334 7.215
2.814 8.360 6.744
2.460 8.321 6.247
2.287 8.265 5.685
2.309 8.326 5.176
1.963 8.076 4.801
0.789 8.017 1.356
0.613 8.123 0.871
0.372 7.899 0.405
0.323 7.902 -0.001
4.527 8.418 11.420
4.311 8.475 10.780
3.444 8.034 7.509
3.398 7.975 6.946
3.206 8.129 6.401
3.005 7.985 6.054
2.823 8.037 5.578
2.524 7.932 5.017
2.355 8.039 4.674
2.365 7.930 4.124
1.359 7.838 1.872
1.293 7.917 1.426
1.069 7.751 0.852
0.903 7.759 0.367
4.901 8.252 11.313
4.822 8.212 10.703
4.537 8.086 10.348
3.956 7.930 7.880
4.000 7.810 7.373
3.716 7.758 6.764
3.639 7.742 6.317
3.245 7.844 5.767
3.146 7.719 5.388
2.974 7.718 5.015
2.734 7.677 4.363
2.557 7.751 3.899
2.511 7.720 3.587
2.084 7.562 2.075
1.753 7.614 1.674
1.503 7.540 1.164
1.396 7.490 0.720
1.330 7.485 0.305
5.185 7.911 11.014
5.195 8.002 10.468
4.857 7.954 10.090
4.808 7.988 9.733
4.928 7.631 8.635
4.707 7.684 8.127
4.513 7.538 7.726
4.362 7.643 7.193
4.009 7.547 6.737
3.858 7.541 6.195
3.799 7.517 5.732
3.516 7.579 5.315
3.485 7.493 4.671
3.276 7.307 4.231
3.052 7.444 3.794
3.023 7.312 3.365
2.666 7.359 2.861
2.538 7.289 2.488
2.476 7.277 2.049
2.176 7.210 1.472
1.996 7.185 1.053
1.802 7.200 0.556
1.599 7.217 0.090
5.719 7.772 10.851
5.442 7.668 10.526
5.418 7.668 10.004
5.185 7.554 9.600
5.057 7.596 8.949
4.790 7.567 8.516
5.332 7.444 8.374
4.940 7.350 7.928
4.943 7.238 7.521
4.649 7.405 6.901
4.619 7.207 6.511
4.388 7.349 5.975
4.208 7.275 5.681
4.116 7.161 5.034
3.904 7.307 4.731
3.703 7.267 4.097
3.383 7.054 3.741
3.303 7.242 3.335
3.034 7.127 2.808
3.048 7.192 2.244
2.742 7.111 1.767
2.681 6.951 1.248
2.433 7.114 0.884
2.381 7.122 0.327
6.120 7.357 10.890
6.052 7.521 10.382
5.852 7.404 9.805
5.480 7.427 9.451
5.358 7.311 8.785
5.188 7.284 8.496
5.634 7.066 8.187
5.540 7.180 7.691
5.273 7.048 7.389
5.214 6.956 6.946
4.995 6.905 6.294
4.872 6.878 5.870
4.667 7.086 5.347
4.389 6.924 5.043
4.341 6.975 4.406
3.997 6.999 4.146
3.911 6.926 3.642
3.836 6.971 3.044
3.631 6.916 2.744
3.351 6.825 2.177
3.277 6.732 1.778
2.961 6.857 1.175
2.889 6.678 0.674
2.692 6.707 0.273
6.570 7.096 10.566
6.283 7.170 10.144
6.274 7.059 9.568
5.982 7.143 9.220
5.751 7.001 8.803
5.677 7.016 8.240
6.101 6.870 8.247
5.931 6.745 7.731
5.822 6.873 7.268
5.638 6.877 6.785
5.388 6.768 6.368
5.289 6.723 5.726
5.114 6.783 5.408
4.763 6.601 4.888
4.537 6.743 4.245
4.510 6.737 3.810
4.357 6.592 3.308
4.130 6.669 3.058
3.998 6.705 2.461
3.696 6.609 2.094
3.571 6.632 1.541
3.344 6.567 1.163
3.358 6.589 0.605
3.040 6.407 0.140
6.948 6.883 10.437
6.673 6.982 10.068
6.480 6.910 9.485
6.354 6.982 9.129
6.112 6.880 8.518
5.953 6.814 8.157
6.484 6.462 7.885
6.355 6.486 7.400
6.097 6.579 6.993
5.980 6.532 6.532
5.648 6.553 6.101
5.491 6.576 5.692
5.506 6.384 5.270
5.157 6.469 4.753
5.015 6.447 4.234
4.884 6.470 3.792
4.691 6.423 3.209
4.520 6.355 2.701
4.416 6.431 2.346
4.167 6.321 1.899
4.141 6.433 1.383
3.824 6.207 0.868
3.746 6.321 0.358
7.309 6.709 10.233
7.056 6.669 9.943
7.099 6.649 9.355
6.852 6.643 8.919
6.702 6.715 8.463
6.392 6.661 7.876
0.346 10.370 12.281
0.236 10.346 11.715
0.010 10.279 11.363
0.168 10.015 10.106
0.873 9.980 12.166
0.650 10.108 11.730
0.425 10.095 11.265
0.342 10.061 10.694
-0.000 9.846 10.261
0.404 9.611 10.187
0.318 9.781 9.557
0.188 9.616 9.132
1.474 9.710 12.520
1.261 9.721 11.980
1.113 9.863 11.416
0.741 9.737 11.123
0.732 9.775 10.529
0.390 9.592 10.024
1.007 9.417 10.024
0.846 9.341 9.501
0.436 9.526 8.901
0.375 9.511 8.416
0.143 9.321 7.964
0.071 9.245 7.637
1.894 9.654 12.394
1.565 9.431 11.704
1.396 9.395 11.463
1.290 9.489 10.972
0.963 9.588 10.523
0.953 9.406 9.869
0.959 9.228 8.972
0.838 9.086 8.397
0.502 9.201 7.895
0.371 9.026 7.463
0.157 8.976 6.956
0.043 9.075 6.458
2.096 9.376 12.128
2.024 9.186 11.787
1.848 9.334 11.223
1.544 9.171 10.723
1.136 8.972 8.313
0.950 8.847 7.658
0.845 8.847 7.341
0.741 8.832 6.858
0.502 8.858 6.362
0.366 8.857 5.981
0.110 8.690 5.345
2.691 9.025 12.070
2.301 9.129 11.458
2.193 8.929 11.099
1.523 8.712 7.513
1.259 8.624 7.266
0.969 8.644 6.757
0.936 8.550 6.203
0.792 8.541 5.816
0.611 8.448 5.360
3.094 8.821 11.960
2.858 8.711 11.394
1.741 8.475 7.468
1.637 8.309 6.976
1.467 8.306 6.457
1.420 8.274 6.079
1.095 8.382 5.555
3.522 8.532 11.695
3.150 8.530 11.211
2.229 8.033 7.400
2.037 7.964 6.804
1.835 7.990 6.402
1.663 8.033 5.925
1.660 7.934 5.497
3.893 8.375 11.681
3.538 8.162 11.192
2.634 7.788 7.263
2.574 7.863 6.611
2.269 7.906 6.147
2.037 7.680 5.813
1.967 7.887 5.394
1.763 7.676 4.840
0.483 7.555 1.660
0.274 7.681 1.158
0.276 7.487 0.582
0.058 7.478 0.256
4.239 7.952 11.416
4.075 8.111 10.896
3.145 7.671 7.436
2.967 7.609 6.978
2.893 7.542 6.613
2.617 7.612 6.181
2.589 7.483 5.721
2.429 7.624 5.062
2.288 7.604 4.770
1.024 7.276 1.396
0.885 7.268 0.960
0.690 7.289 0.469
4.698 7.810 11.395
4.466 7.853 10.730
4.386 7.813 10.296
3.868 7.293 7.832
3.643 7.348 7.334
3.464 7.419 6.934
3.318 7.347 6.369
3.217 7.314 6.087
2.894 7.387 5.428
2.743 7.354 4.942
2.569 7.225 4.487
2.483 7.281 4.032
2.279 7.106 3.546
1.715 7.254 2.268
1.567 7.141 1.814
1.417 7.016 1.308
1.102 7.183 0.792
1.007 7.083 0.370
5.023 7.500 11.276
4.779 7.575 10.642
4.598 7.368 10.151
4.617 7.430 9.724
4.535 7.222 8.699
4.434 7.207 8.198
4.275 7.077 7.833
4.117 7.127 7.190
3.818 7.064 6.752
3.620 7.078 6.387
3.498 6.976 5.745
3.490 7.045 5.331
3.103 7.024 4.813
2.963 6.897 4.352
2.832 6.943 3.949
2.760 7.044 3.516
2.391 6.840 3.020
2.246 7.011 2.503
2.221 6.937 2.022
2.009 6.829 1.538
1.887 6.766 1.008
1.622 6.913 0.541
1.405 6.883 0.214
5.481 7.302 11.052
5.356 7.215 10.568
5.232 7.108 10.067
5.037 7.321 9.715
4.807 7.269 9.041
4.544 7.254 8.642
5.002 6.842 8.518
4.738 6.857 8.095
4.561 6.761 7.695
4.493 6.863 7.131
4.309 6.799 6.650
4.225 6.718 6.085
4.070 6.817 5.742
3.817 6.708 5.161
3.523 6.788 4.750
3.543 6.702 4.213
3.266 6.840 3.921
3.094 6.596 3.272
2.889 6.683 2.879
2.831 6.690 2.334
2.661 6.547 1.967
2.474 6.733 1.455
2.267 6.597 1.105
1.956 6.526 0.622
1.915 6.574 0.048
5.843 6.966 10.806
5.672 6.873 10.495
5.593 6.888 9.894
5.288 6.857 9.582
5.274 6.952 9.035
4.990 6.839 8.413
5.362 6.583 8.433
5.194 6.668 7.976
5.034 6.541 7.391
4.905 6.517 7.024
4.713 6.589 6.461
4.590 6.484 5.976
4.314 6.619 5.468
4.113 6.481 5.050
4.062 6.590 4.715
3.729 6.374 4.101
3.660 6.488 3.760
3.577 6.401 3.232
3.256 6.473 2.707
3.161 6.500 2.176
3.070 6.502 1.831
2.762 6.453 1.306
2.551 6.473 0.947
2.483 6.342 0.466
6.228 6.810 10.751
6.148 6.714 10.334
5.871 6.642 9.720
5.837 6.739 9.302
5.628 6.582 8.931
5.412 6.740 8.446
5.783 6.359 8.292
5.549 6.304 7.735
5.424 6.268 7.406
5.312 6.401 6.763
5.183 6.381 6.260
5.065 6.280 5.780
4.776 6.411 5.321
4.524 6.203 4.898
4.414 6.166 4.587
4.169 6.243 3.900
4.192 6.108 3.613
3.888 6.137 3.038
3.737 6.244 2.687
3.604 6.124 2.183
3.363 6.053 1.729
3.145 6.227 1.254
3.152 6.058 0.614
2.951 5.986 0.269
6.612 6.616 10.657
6.486 6.547 10.143
6.459 6.497 9.639
6.118 6.497 9.221
5.932 6.460 8.645
5.817 6.495 8.194
5.984 6.012 7.669
5.771 6.072 7.134
5.809 6.009 6.614
5.421 6.049 6.196
5.426 6.158 5.860
5.141 5.984 5.254
5.012 6.055 4.849
4.924 6.032 4.389
4.637 6.018 3.853
4.549 5.839 3.409
4.265 5.873 2.969
4.069 5.989 2.323
3.939 5.832 2.072
3.871 5.833 1.585
3.577 5.795 1.010
3.553 5.811 0.642
3.352 5.760 0.138
7.106 6.168 10.379
6.874 6.338 10.042
6.654 6.146 9.549
6.691 6.137 9.095
6.385 6.099 8.687
0.037 9.814 12.461
0.609 9.573 12.312
0.314 9.458 11.750
0.262 9.540 11.386
0.117 9.653 10.817
0.369 9.163 10.173
0.119 9.371 9.709
1.068 9.350 12.522
1.024 9.234 11.999
0.707 9.412 11.686
0.676 9.350 11.008
0.495 9.369 10.679
0.220 9.220 10.106
0.572 8.963 9.653
0.320 8.973 9.150
0.245 8.897 8.703
1.479 9.195 12.306
1.359 8.988 11.826
1.072 9.154 11.517
1.065 8.968 10.985
0.956 8.994 10.507
0.562 8.684 8.458
0.426 8.617 7.996
0.246 8.643 7.488
0.027 8.664 7.048
1.981 8.761 12.312
1.720 8.772 11.795
1.603 8.709 11.408
0.824 8.337 7.958
0.717 8.336 7.281
0.321 8.315 6.887
0.293 8.273 6.465
0.074 8.242 5.933
2.394 8.488 12.083
2.227 8.623 11.688
0.938 8.085 7.291
0.946 8.197 6.698
0.599 8.131 6.431
0.475 8.082 5.933
2.667 8.266 11.977
1.377 8.001 7.053
1.280 7.994 6.645
1.121 7.842 6.184
3.207 8.059 11.791
1.778 7.580 7.076
1.550 7.615 6.529
1.380 7.586 5.967
3.565 7.863 11.612
2.222 7.470 6.844
2.022 7.330 6.285
2.016 7.314 5.889
1.823 7.439 5.402
0.175 7.188 1.243
3.954 7.645 11.521
2.797 7.109 7.111
2.761 7.154 6.685
2.502 7.127 6.116
2.393 7.107 5.680
2.145 7.099 5.381
1.944 7.080 4.694
0.819 6.978 1.407
0.599 6.924 1.102
0.344 6.945 0.603
0.231 6.795 0.091
4.434 7.385 11.514
4.132 7.229 11.006
3.356 7.015 7.464
3.344 6.981 6.933
3.056 6.980 6.550
2.884 6.977 6.005
2.812 6.790 5.575
2.557 6.795 5.058
2.327 6.923 4.737
2.283 6.877 4.266
1.357 6.718 1.873
1.159 6.771 1.473
1.104 6.781 0.895
0.885 6.639 0.544
4.917 7.027 11.385
4.647 7.037 10.815
4.426 7.022 10.379
4.096 6.647 8.186
3.970 6.588 7.810
3.740 6.722 7.259
3.698 6.651 6.981
3.571 6.643 6.327
3.390 6.614 6.011
3.108 6.536 5.357
2.950 6.617 4.963
2.836 6.440 4.581
2.568 6.560 4.178
2.389 6.419 3.703
2.020 6.373 2.260
1.734 6.506 1.589
1.656 6.327 1.168
1.382 6.501 0.703
1.208 6.436 0.332
5.121 6.940 11.048
5.141 6.916 10.555
4.761 6.767 10.170
4.780 6.692 9.763
4.417 6.812 9.224
4.831 6.578 8.519
4.633 6.457 8.179
4.332 6.320 7.653
4.124 6.405 7.164
4.057 6.285 6.777
4.018 6.319 6.284
3.796 6.338 5.703
3.472 6.385 5.411
3.468 6.291 4.955
3.206 6.280 4.287
2.966 6.307 4.018
2.796 6.260 3.536
2.639 6.336 3.055
2.407 6.112 2.426
2.219 6.300 2.144
2.244 6.203 1.471
2.037 6.064 1.181
1.835 6.094 0.545
1.509 6.065 0.187
5.524 6.685 11.065
5.394 6.524 10.500
5.370 6.634 10.062
5.059 6.573 9.638
4.921 6.486 9.082
4.761 6.442 8.508
5.286 6.330 8.573
4.964 6.248 7.995
4.710 6.271 7.465
4.692 6.266 7.124
4.476 6.200 6.719
4.280 6.043 6.138
4.074 6.110 5.646
4.026 5.977 5.163
3.782 6.025 4.833
3.547 6.084 4.193
3.520 5.913 3.875
3.319 5.973 3.362
2.971 5.982 2.904
2.799 5.957 2.284
2.837 6.051 1.829
2.639 5.915 1.482
2.450 6.007 0.896
2.222 5.969 0.453
2.025 5.880 0.047
6.003 6.340 10.735
5.882 6.397 10.346
5.809 6.251 9.929
5.579 6.334 9.372
5.337 6.138 8.956
5.294 6.105 8.483
5.652 5.937 8.276
5.405 6.013 7.766
5.274 5.960 7.419
5.100 5.956 6.925
4.831 5.834 6.391
4.595 5.811 5.983
4.444 5.912 5.440
4.372 5.717 5.008
4.285 5.891 4.501
3.996 5.748 4.170
3.848 5.733 3.599
3.712 5.640 3.086
3.442 5.767 2.691
3.251 5.738 2.116
3.226 5.637 1.749
2.997 5.798 1.303
2.682 5.726 0.899
2.713 5.564 0.289
6.412 6.095 10.637
6.335 5.968 10.252
6.080 6.001 9.870
5.899 6.046 9.290
5.798 6.016 8.724
5.567 5.859 8.281
5.586 5.636 7.306
5.414 5.632 6.786
5.324 5.702 6.309
5.026 5.541 5.874
4.855 5.486 5.493
4.698 5.632 4.913
4.677 5.596 4.502
4.405 5.564 3.853
4.367 5.495 3.521
3.444 5.473 1.085
3.142 5.519 0.782
2.997 5.397 0.137
6.835 5.692 10.638
6.780 5.730 10.201
6.533 5.879 9.607
6.296 5.826 9.170
0.367 9.273 12.349
0.167 9.205 11.912
0.705 8.964 12.268
0.500 9.010 11.691
0.422 8.851 11.214
1.363 8.585 12.609
1.194 8.751 12.032
0.841 8.560 11.593
0.216 8.355 8.116
1.661 8.372 12.299
1.521 8.376 11.955
0.279 7.890 7.445
0.284 7.990 7.101
0.071 8.005 6.504
2.177 8.169 12.198
0.711 7.713 6.958
0.415 7.648 6.436
1.950 6.868 6.529
1.741 7.041 6.086
2.550 6.832 6.713
2.368 6.767 6.416
2.190 6.771 5.785
1.865 6.696 5.504
0.269 6.561 1.050
0.270 6.454 0.628
4.196 6.929 11.437
3.090 6.448 7.244
2.814 6.546 6.628
2.576 6.354 6.096
2.490 6.352 5.694
2.259 6.307 5.337
2.210 6.295 4.837
0.895 6.170 1.387
0.865 6.135 0.917
0.507 6.178 0.594
0.318 6.082 -0.012
4.553 6.527 11.434
4.370 6.718 10.993
3.602 6.174 7.466
3.516 6.256 7.093
3.207 6.189 6.619
3.030 6.082 5.930
2.859 6.103 5.609
2.843 6.033 4.989
2.473 6.203 4.680
2.410 6.122 4.166
1.504 6.113 1.895
1.399 6.065 1.252
1.066 5.927 0.953
1.090 6.049 0.348
4.991 6.331 11.267
4.924 6.257 10.833
4.719 6.336 10.250
4.161 6.077 7.710
3.995 6.090 7.313
3.771 5.860 6.916
3.724 5.975 6.454
3.509 6.019 5.922
3.312 5.933 5.380
3.039 5.988 4.846
2.920 5.832 4.520
2.743 5.765 3.967
2.730 5.851 3.489
2.145 5.712 2.074
1.805 5.680 1.720
1.739 5.665 1.210
1.619 5.817 0.806
1.372 5.783 0.313
5.310 6.236 11.102
5.227 6.107 10.509
5.070 6.197 10.197
4.839 6.160 9.716
4.676 5.727 7.578
4.543 5.800 7.251
4.267 5.626 6.774
4.122 5.606 6.165
3.987 5.651 5.810
3.781 5.694 5.310
3.659 5.673 4.816
3.273 5.568 4.440
3.217 5.722 3.790
2.926 5.516 3.510
2.455 5.482 2.065
2.355 5.491 1.439
2.213 5.472 1.105
1.951 5.521 0.584
1.855 5.400 0.084
5.799 5.820 11.043
5.551 5.983 10.427
5.388 5.920 10.068
5.187 5.950 9.646
4.964 5.438 7.391
4.885 5.487 6.982
4.577 5.348 6.554
4.473 5.514 6.043
4.315 5.402 5.559
4.087 5.436 5.235
4.051 5.430 4.597
3.892 5.330 4.093
3.710 5.436 3.751
2.677 5.140 1.388
2.565 5.335 0.928
2.358 5.260 0.442
6.153 5.746 10.827
6.036 5.686 10.244
5.831 5.528 9.945
5.811 5.591 9.402
5.145 5.294 6.827
5.174 5.256 6.452
4.832 5.273 6.015
4.784 5.180 5.540
4.480 5.085 5.081
4.487 5.141 4.511
4.219 5.206 4.008
2.930 4.934 0.659
2.858 5.024 0.400
6.688 5.489 10.583
6.549 5.431 10.259
6.381 5.294 9.679
0.051 8.648 12.511
0.490 8.446 12.262
0.314 8.436 11.835
0.824 8.165 12.252
1.363 8.111 12.350
1.996 6.280 6.455
2.626 6.124 6.833
2.379 5.932 6.349
2.279 6.097 5.728
2.095 5.875 5.432
0.482 5.805 1.229
0.266 5.785 0.543
0.271 5.834 0.285
4.330 6.312 11.487
3.179 5.803 7.058
3.021 5.797 6.633
2.764 5.821 6.264
2.563 5.743 5.677
2.547 5.738 5.085
2.305 5.763 4.623
1.198 5.499 1.357
0.807 5.474 1.017
0.845 5.509 0.539
0.640 5.476 0.069
4.886 5.968 11.227
4.583 6.009 10.887
3.770 5.581 7.363
3.568 5.495 6.853
3.501 5.617 6.421
3.375 5.571 5.957
3.014 5.413 5.570
3.002 5.577 5.099
2.739 5.371 4.655
1.437 5.429 1.296
1.293 5.393 0.909
1.184 5.253 0.309
5.225 5.635 11.075
5.041 5.595 10.620
4.829 5.789 10.229
4.151 5.415 7.289
4.011 5.173 6.803
3.757 5.225 6.413
3.728 5.331 5.814
3.553 5.227 5.338
3.334 5.252 4.974
3.123 5.083 4.429
2.916 5.083 3.890
2.131 5.159 1.714
1.945 5.154 1.150
1.842 5.153 0.768
1.475 4.974 0.214
5.566 5.343 11.107
5.512 5.356 10.558
5.336 5.390 10.196
4.698 5.010 7.219
4.406 4.924 6.711
4.248 4.923 6.199
4.115 4.955 5.602
3.946 4.973 5.372
3.721 5.006 4.746
3.677 4.901 4.285
2.394 4.797 0.959
2.063 4.718 0.521
1.892 4.763 0.001
6.017 5.195 10.791
5.874 5.267 10.325
5.708 5.191 9.916
4.841 4.892 6.434
4.638 4.693 6.105
4.544 4.829 5.549
4.310 4.820 5.199
4.207 4.787 4.704
2.637 4.597 0.518
6.287 4.885 10.826
6.220 5.020 10.231
0.208 7.979 12.277
2.212 5.599 6.314
1.993 5.604 5.956
0.035 5.385 0.712
2.788 5.282 6.749
2.524 5.425 6.169
2.488 5.257 5.814
2.242 5.235 5.266
0.757 5.141 1.001
0.600 5.107 0.593
0.275 5.112 0.182
4.447 5.466 11.425
3.346 5.152 7.158
3.130 5.022 6.652
2.941 4.988 6.147
2.903 5.049 5.619
2.579 5.077 5.208
2.579 4.965 4.587
1.238 4.804 1.445
1.093 4.908 0.987
0.879 4.853 0.573
5.022 5.295 11.340
4.832 5.148 10.907
3.844 4.947 6.889
3.582 4.762 6.467
3.553 4.930 6.053
3.225 4.841 5.527
2.983 4.812 5.036
3.030 4.836 4.464
1.784 4.506 1.148
1.463 4.674 0.684
1.326 4.490 0.293
5.439 4.960 11.129
5.107 5.042 10.732
4.162 4.704 6.689
3.947 4.614 6.180
3.903 4.642 5.759
3.740 4.468 5.250
3.613 4.565 4.946
2.037 4.313 0.715
1.824 4.348 0.166
5.820 4.680 10.913
5.690 4.741 10.657
4.412 4.343 6.224
4.208 4.375 5.764
4.086 4.289 5.156
2.067 4.138 -0.016
6.281 4.490 10.851
0.135 7.549 12.375
2.590 4.788 6.759
2.266 4.848 6.471
2.250 4.940 5.847
0.171 4.709 0.605
0.170 4.564 0.274
4.290 5.209 11.494
3.194 4.582 7.186
2.921 4.670 6.615
2.886 4.546 6.157
2.705 4.566 5.766
2.324 4.671 5.390
0.907 4.304 0.931
0.814 4.478 0.456
0.631 4.374 0.121
4.709 4.928 11.373
4.493 4.895 10.999
3.498 4.507 6.936
3.261 4.353 6.552
3.119 4.456 6.106
3.059 4.250 5.571
2.819 4.355 5.223
1.180 4.268 0.931
1.030 4.193 0.368
5.037 4.674 11.214
4.938 4.552 10.801
3.756 4.192 6.318
3.719 4.243 5.926
3.423 4.075 5.441
3.276 4.120 4.923
1.810 3.958 0.839
1.482 3.780 0.378
5.529 4.367 11.093
4.138 3.972 5.746
3.875 3.931 5.201
2.012 3.614 0.047
2.279 4.413 6.853
2.234 4.483 6.350
1.948 4.534 6.034
0.116 4.110 0.874
4.070 4.586 11.549
2.961 4.218 7.312
2.823 4.238 6.684
2.530 4.200 6.224
2.296 4.266 5.812
2.256 4.078 5.315
0.541 3.952 1.105
0.411 3.919 0.572
0.284 3.899 0.080
4.536 4.425 11.496
4.380 4.445 11.080
3.394 4.034 7.028
3.166 3.898 6.699
2.912 3.868 6.075
2.808 3.818 5.667
2.649 3.890 5.117
0.954 3.681 1.044
0.803 3.713 0.585
0.759 3.591 -0.050
4.985 4.149 11.251
4.707 4.241 10.865
3.643 3.659 6.515
3.355 3.575 5.924
3.169 3.565 5.536
2.970 3.687 5.059
1.400 3.597 0.796
1.385 3.579 0.436
5.311 3.842 11.124
3.813 3.483 5.901
3.636 3.483 5.536
1.732 3.298 0.198
1.574 4.330 6.603
1.218 4.338 6.216
2.208 3.924 7.008
1.906 4.025 6.511
1.631 4.109 6.176
1.567 3.864 5.683
3.958 4.110 11.621
2.719 3.695 7.433
2.618 3.810 6.791
2.365 3.646 6.463
2.090 3.844 5.987
1.940 3.704 5.409
1.827 3.799 4.886
0.674 3.613 1.795
0.338 3.578 1.123
0.319 3.456 0.775
-0.007 3.488 0.240
4.221 4.034 11.486
3.974 3.905 11.032
3.134 3.625 7.268
2.896 3.594 6.812
2.671 3.435 6.301
2.546 3.470 5.881
2.310 3.377 5.347
2.212 3.427 4.959
1.101 3.276 1.462
0.730 3.293 0.994
0.609 3.358 0.658
0.515 3.266 0.273
4.722 3.689 11.338
4.378 3.585 11.102
3.419 3.252 7.200
3.318 3.313 6.530
3.046 3.182 6.141
2.965 3.242 5.758
2.828 3.328 5.297
1.212 3.109 0.879
1.111 2.989 0.410
0.891 2.924 -0.105
5.173 3.512 11.200
4.774 3.353 10.912
3.624 2.968 6.493
3.609 3.000 5.960
3.435 3.076 5.557
1.518 2.687 0.227
5.476 3.131 11.152
0.966 4.013 6.868
1.426 3.889 7.365
1.339 3.820 6.763
1.008 3.933 6.367
0.994 3.736 5.853
3.303 3.946 11.977
1.997 3.520 7.536
1.814 3.514 7.014
1.738 3.688 6.744
1.503 3.475 6.116
1.231 3.479 5.649
1.258 3.436 5.182
3.697 3.741 11.904
3.521 3.694 11.432
2.700 3.315 7.956
2.450 3.370 7.513
2.209 3.296 7.037
2.027 3.313 6.595
1.810 3.314 6.103
1.855 3.282 5.522
1.631 3.191 5.217
0.336 3.077 1.727
0.167 3.226 1.228
0.041 3.179 0.753
4.083 3.442 11.667
3.819 3.452 11.150
3.726 3.594 10.642
3.028 3.195 7.770
2.783 3.049 7.415
2.639 2.982 6.856
2.391 3.006 6.493
2.427 3.071 5.847
2.251 3.072 5.455
1.995 2.973 5.082
1.875 2.964 4.390
1.053 2.921 2.070
0.646 2.784 1.549
0.672 2.844 1.160
0.502 2.918 0.644
0.248 2.782 0.188
4.535 3.299 11.655
4.343 3.241 10.988
3.958 3.321 10.651
3.540 2.980 7.536
3.160 2.827 7.138
2.978 2.749 6.820
3.018 2.814 6.245
2.738 2.746 5.682
2.464 2.903 5.311
2.509 2.861 4.884
1.124 2.686 1.565
0.987 2.552 0.980
0.913 2.689 0.560
0.573 2.520 0.136
4.840 3.062 11.341
4.621 3.109 10.994
4.509 2.982 10.538
3.767 2.713 7.110
3.474 2.479 6.488
3.239 2.536 6.074
3.061 2.640 5.521
2.872 2.532 5.095
1.468 2.422 0.868
1.292 2.296 0.435
5.205 2.848 11.315
4.971 2.696 10.894
0.253 3.882 7.147
0.074 3.890 6.667
0.728 3.717 7.407
0.550 3.701 6.952
0.424 3.528 6.462
0.248 3.736 6.149
2.560 3.911 12.312
1.315 3.465 7.885
1.213 3.456 7.291
0.953 3.524 6.879
0.867 3.414 6.534
0.587 3.312 5.941
0.465 3.441 5.381
2.965 3.709 12.193
2.696 3.689 11.714
1.894 3.249 8.288
1.795 3.121 7.770
1.522 3.261 7.223
1.566 3.179 6.799
1.252 3.247 6.412
1.155 3.032 5.722
0.814 3.048 5.311
0.634 3.122 4.810
3.299 3.262 12.044
3.313 3.269 11.440
3.080 3.378 10.900
2.678 2.920 8.545
2.425 2.930 8.004
2.294 3.025 7.490
1.965 2.878 7.045
1.810 2.924 6.717
1.665 2.964 6.134
1.517 2.913 5.568
1.406 2.938 5.266
1.114 2.840 4.855
0.987 2.705 4.234
0.397 2.815 2.745
0.187 2.660 2.460
0.034 2.652 2.031
3.693 3.110 11.802
3.518 3.167 11.391
3.467 3.058 10.812
3.293 3.048 10.414
2.891 2.665 8.423
2.765 2.745 7.834
2.607 2.592 7.325
2.506 2.667 7.031
2.245 2.658 6.414
2.015 2.714 5.914
1.971 2.713 5.480
1.812 2.509 5.024
1.566 2.546 4.598
1.442 2.668 4.219
0.840 2.530 2.798
0.776 2.421 2.358
0.495 2.352 1.752
0.283 2.526 1.294
0.225 2.378 0.729
-0.048 2.300 0.467
4.144 2.786 11.667
3.961 2.719 11.116
3.734 2.711 10.618
3.789 2.802 10.146
3.486 2.550 8.267
3.103 2.564 7.676
3.060 2.427 7.322
2.869 2.476 6.740
2.802 2.452 6.367
2.458 2.375 5.976
2.241 2.237 5.450
2.221 2.290 5.001
2.007 2.230 4.444
1.041 2.207 2.107
1.020 2.105 1.606
0.667 2.179 1.283
0.620 2.073 0.619
0.525 2.090 0.293
4.551 2.544 11.569
4.393 2.484 11.083
4.211 2.462 10.521
4.114 2.546 10.108
3.673 2.312 7.574
3.480 2.197 7.107
3.166 2.105 6.585
3.008 2.029 6.105
2.962 2.226 5.736
2.808 2.067 5.271
2.530 2.129 4.730
1.265 1.882 1.410
1.253 1.935 0.937
1.055 1.844 0.671
0.941 1.876 0.190
4.892 2.237 11.306
4.765 2.402 10.916
4.544 2.186 10.534
0.128 3.613 7.885
1.919 3.684 12.570
0.730 3.144 8.198
0.534 3.349 7.639
0.300 3.190 7.116
0.151 3.248 6.616
-0.016 3.102 6.165
2.347 3.523 12.395
2.089 3.378 11.767
1.421 3.133 8.382
1.097 2.913 7.940
1.014 3.097 7.475
0.773 3.063 6.951
0.534 2.919 6.567
0.392 2.913 6.067
0.171 3.000 5.545
0.133 2.783 5.128
2.777 3.083 12.100
2.444 3.250 11.707
2.468 3.239 11.288
2.149 2.817 9.185
1.954 2.859 8.834
1.766 2.822 8.270
1.680 2.747 7.869
1.315 2.649 7.385
1.246 2.699 6.993
1.160 2.676 6.478
0.767 2.679 5.903
0.787 2.747 5.527
0.643 2.709 5.054
0.311 2.543 4.479
3.026 2.828 12.130
2.984 2.967 11.659
2.703 2.802 11.227
2.517 2.811 10.634
2.374 2.873 10.054
2.720 2.545 9.443
2.558 2.513 9.167
2.267 2.591 8.655
2.117 2.489 8.186
1.989 2.613 7.740
1.820 2.517 7.145
1.660 2.497 6.818
1.435 2.323 6.290
1.366 2.368 5.838
1.164 2.440 5.382
0.898 2.297 4.742
0.783 2.433 4.466
0.481 2.300 3.890
0.435 2.383 3.371
0.280 2.234 2.932
0.062 2.283 2.530
3.533 2.570 11.818
3.311 2.678 11.432
3.250 2.551 11.056
3.030 2.559 10.422
2.849 2.585 10.069
2.600 2.659 9.463
3.043 2.385 9.437
2.996 2.182 8.823
2.802 2.368 8.442
2.601 2.357 7.964
2.462 2.236 7.604
2.290 2.161 7.155
2.142 2.257 6.658
1.954 2.211 6.009
1.775 2.112 5.599
1.568 2.185 5.177
1.455 2.092 4.631
1.138 2.200 4.190
0.950 2.182 3.775
0.902 2.171 3.188
0.672 2.067 2.843
0.561 2.093 2.341
0.351 2.110 1.969
0.046 1.952 1.433
3.891 2.311 11.742
3.682 2.402 11.243
3.672 2.370 10.918
3.530 2.405 10.242
3.299 2.462 9.804
3.117 2.297 9.456
3.489 2.139 9.325
3.326 2.021 8.803
3.186 2.133 8.243
2.924 2.050 7.954
2.770 1.913 7.294
2.638 1.859 6.977
2.360 1.948 6.398
2.287 2.034 6.029
2.046 2.003 5.384
2.029 1.897 5.005
1.659 1.824 4.614
1.514 1.953 4.028
1.447 1.731 3.665
1.178 1.720 3.115
0.979 1.892 2.777
0.943 1.800 2.318
0.654 1.656 1.734
0.459 1.643 1.295
0.363 1.672 0.899
0.062 1.752 0.331
4.458 2.093 11.708
4.313 2.150 11.150
4.129 2.045 10.766
3.948 2.158 10.233
3.636 2.145 9.651
3.522 1.993 9.365
3.507 1.788 8.179
3.503 1.848 7.809
3.246 1.771 7.261
3.037 1.710 6.722
2.841 1.620 6.206
2.757 1.702 5.821
2.550 1.737 5.251
2.437 1.702 4.800
2.263 1.544 4.509
1.282 1.465 2.037
1.153 1.576 1.663
0.908 1.424 1.196
0.653 1.356 0.688
0.533 1.422 0.154
4.849 1.798 11.592
4.628 1.799 10.998
4.459 1.889 10.461
4.344 1.840 10.156
0.218 3.952 12.589
0.610 3.856 12.475
1.105 3.485 12.176
0.073 3.013 8.404
1.431 3.348 12.204
0.627 2.882 8.712
0.423 2.846 8.273
0.273 2.815 7.740
0.160 2.773 7.228
1.976 2.943 12.516
1.833 2.998 12.090
1.828 2.964 11.577
1.218 2.567 8.896
1.109 2.604 8.473
0.989 2.508 8.032
0.699 2.537 7.576
0.461 2.445 7.094
0.293 2.541 6.743
0.350 2.414 6.196
-0.040 2.479 5.780
2.378 2.711 12.262
2.426 2.743 11.855
2.055 2.643 11.410
2.008 2.636 10.911
2.050 2.487 9.735
1.901 2.386 9.344
1.731 2.312 8.944
1.449 2.301 8.434
1.301 2.434 7.958
1.219 2.339 7.342
1.022 2.398 7.020
0.874 2.172 6.479
0.573 2.346 5.976
0.408 2.321 5.502
0.312 2.243 5.053
0.094 2.270 4.740
2.884 2.491 12.121
2.750 2.571 11.768
2.622 2.427 11.178
2.402 2.507 10.716
2.320 2.378 10.256
1.952 2.327 9.894
2.336 2.246 9.590
2.209 2.095 9.104
2.216 2.022 8.792
2.005 2.127 8.153
1.775 2.048 7.886
1.577 1.993 7.199
1.471 2.056 6.803
1.312 2.121 6.440
0.992 2.096 5.796
0.969 1.953 5.380
0.698 1.928 4.921
0.459 1.819 4.415
0.359 1.991 4.012
0.195 1.776 3.557
-0.062 1.819 2.949
3.375 2.161 11.926
3.172 2.172 11.604
2.967 2.196 11.107
2.722 2.061 10.625
2.671 2.181 10.167
2.554 2.051 9.596
2.842 1.981 9.476
2.797 1.975 9.122
2.468 1.740 8.680
2.414 1.885 8.001
2.153 1.692 7.579
2.090 1.773 7.240
1.825 1.692 6.574
1.670 1.680 6.195
1.364 1.829 5.668
1.262 1.815 5.212
1.233 1.626 4.856
0.968 1.686 4.218
0.863 1.581 3.847
0.521 1.616 3.497
0.311 1.529 2.806
0.174 1.541 2.477
0.053 1.649 1.948
3.850 1.927 11.939
3.631 2.021 11.447
3.456 1.843 10.869
3.155 1.904 10.520
2.939 1.915 10.011
2.811 1.800 9.574
3.253 1.740 9.256
3.061 1.596 8.935
2.838 1.546 8.413
2.748 1.532 8.025
2.622 1.505 7.479
2.508 1.637 6.908
2.263 1.636 6.508
2.100 1.515 6.007
1.767 1.510 5.589
1.591 1.526 5.216
1.510 1.349 4.589
1.245 1.525 4.182
1.206 1.442 3.683
1.042 1.299 3.375
0.735 1.289 2.898
0.615 1.472 2.230
0.499 1.220 1.862
0.271 1.378 1.464
0.107 1.285 1.015
4.170 1.726 11.641
4.021 1.670 11.367
3.892 1.666 10.839
3.587 1.646 10.267
3.484 1.668 9.927
3.351 1.720 9.341
3.453 1.449 8.783
3.233 1.244 8.314
3.183 1.271 7.863
3.009 1.190 7.409
2.748 1.189 6.992
2.748 1.345 6.514
2.485 1.367 5.817
2.289 1.191 5.445
2.003 1.147 5.020
2.019 1.296 4.434
1.671 1.267 3.943
1.689 1.076 3.465
1.356 1.088 3.119
1.342 1.135 2.635
1.123 1.088 2.200
0.851 1.094 1.769
0.691 0.940 1.270
0.484 0.927 0.661
0.252 1.113 0.186
4.445 1.491 11.623
4.388 1.559 11.026
4.188 1.489 10.634
3.903 1.351 10.287
3.785 1.286 9.620
0.410 3.374 12.576
0.904 3.100 12.426
1.368 2.738 12.207
0.384 2.439 8.734
0.278 2.403 8.276
0.139 2.363 7.894
1.849 2.565 12.449
1.696 2.567 12.047
1.521 2.560 11.603
1.102 2.077 9.098
0.775 2.088 8.529
0.660 2.207 8.123
0.558 2.013 7.656
0.460 2.079 7.164
0.194 2.137 6.709
2.194 2.289 12.445
2.037 2.262 12.035
1.831 2.318 11.395
1.751 2.256 11.067
1.792 1.974 9.810
1.555 1.893 9.473
1.440 1.994 9.067
1.315 1.824 8.611
1.050 1.874 8.116
0.922 1.836 7.560
0.811 1.728 7.042
0.498 1.908 6.626
0.289 1.711 6.223
0.151 1.771 5.601
0.068 1.755 5.276
2.651 1.979 12.239
2.498 1.959 11.903
2.444 2.096 11.307
2.041 1.935 10.728
2.093 1.931 10.394
1.906 1.942 10.011
2.184 1.658 9.853
1.985 1.803 9.392
1.829 1.640 8.722
1.771 1.732 8.435
1.480 1.574 7.842
1.265 1.627 7.478
1.114 1.653 7.010
1.086 1.544 6.478
0.697 1.468 6.070
0.685 1.451 5.434
0.512 1.452 5.004
0.201 1.492 4.627
0.011 1.365 4.101
3.061 1.811 12.108
2.936 1.702 11.589
2.751 1.764 11.214
2.682 1.691 10.711
2.381 1.840 10.326
2.295 1.592 9.741
2.668 1.569 9.555
2.532 1.464 9.033
2.318 1.313 8.712
1.989 1.430 8.231
1.900 1.396 7.658
1.840 1.449 7.197
1.589 1.224 6.728
1.330 1.363 6.366
1.238 1.406 5.919
1.059 1.401 5.410
0.805 1.208 4.839
0.663 1.306 4.333
0.517 1.123 4.039
0.418 1.112 3.418
0.150 1.295 3.143
0.057 1.246 2.675
3.602 1.501 11.959
3.390 1.568 11.535
3.039 1.528 11.138
2.907 1.598 10.486
2.703 1.480 9.982
2.681 1.462 9.601
3.008 1.252 9.501
2.919 1.250 8.939
2.571 1.089 8.444
2.409 1.105 7.979
2.290 1.214 7.675
2.151 1.172 7.090
2.068 1.020 6.554
1.887 1.105 6.161
1.595 0.974 5.767
1.421 0.921 5.174
1.238 1.009 4.767
1.116 1.077 4.284
0.948 1.041 3.945
0.677 1.064 3.451
0.667 0.923 2.855
0.319 1.001 2.473
0.319 0.956 1.945
0.122 0.854 1.461
3.962 1.279 11.790
3.735 1.275 11.464
3.484 1.211 10.861
3.351 1.278 10.331
3.140 1.264 10.057
3.098 1.118 9.456
3.436 1.017 9.269
3.348 0.961 8.844
3.132 0.915 8.465
2.901 0.794 7.914
2.845 0.956 7.447
2.478 0.760 7.025
2.295 0.756 6.458
2.197 0.922 6.150
2.045 0.676 5.664
1.982 0.872 5.034
1.724 0.804 4.638
1.563 0.849 4.144
1.229 0.791 3.714
1.106 0.604 3.122
0.936 0.738 2.727
0.875 0.713 2.192
0.573 0.653 1.782
0.439 0.607 1.316
0.341 0.725 0.883
0.159 0.517 0.325
4.269 0.924 11.649
4.208 1.040 11.148
3.911 1.015 10.675
3.718 0.995 10.334
3.629 1.038 9.788
3.394 0.923 9.314
6.383 12.447 6.260
6.182 12.509 5.787
6.196 12.438 5.207
5.978 12.503 4.814
5.667 12.436 4.307
5.661 12.383 3.791
5.443 12.425 3.323
5.250 12.322 2.810
4.264 12.283 0.454
4.297 12.237 0.049
7.312 12.393 7.342
7.238 12.447 7.057
7.015 12.442 6.479
6.805 12.294 6.055
6.573 12.414 5.585
6.590 12.204 5.092
6.388 12.313 4.662
6.157 12.357 4.014
5.931 12.273 3.609
5.690 12.265 3.274
5.665 12.207 2.716
5.538 12.158 2.228
5.279 12.169 1.776
5.077 12.221 1.345
4.962 12.172 0.769
4.669 12.079 0.467
8.237 12.457 9.717
8.118 12.345 9.220
7.827 12.539 8.945
7.840 12.316 8.271
7.604 12.399 7.835
7.296 12.345 7.323
7.803 12.125 7.225
7.592 12.198 6.864
7.417 12.160 6.316
7.253 11.974 5.955
6.988 12.111 5.435
6.847 11.985 4.821
6.761 12.076 4.442
6.648 11.985 4.076
6.488 11.919 3.525
6.236 12.050 3.052
6.136 11.835 2.540
5.928 11.999 2.008
5.713 11.994 1.709
5.542 11.754 1.174
5.337 11.930 0.776
5.274 11.729 0.305
8.689 12.252 9.570
8.468 12.217 9.109
8.351 12.175 8.738
8.235 12.041 8.245
7.966 12.082 7.699
7.726 12.218 7.248
8.100 11.808 7.098
8.044 11.916 6.573
7.917 11.832 6.302
7.689 11.757 5.768
7.595 11.724 5.261
7.213 11.728 4.758
7.042 11.697 4.229
6.928 11.738 3.791
6.872 11.645 3.350
6.751 11.568 2.967
6.498 11.689 2.523
6.279 11.666 1.931
6.209 11.523 1.562
5.850 11.556 0.903
5.782 11.593 0.656
5.693 11.688 0.124
9.070 11.868 9.435
8.826 11.911 8.913
8.724 12.029 8.552
8.513 11.989 8.085
8.430 11.986 7.642
8.254 11.943 7.025
8.553 11.716 6.940
8.389 11.681 6.422
8.175 11.630 6.004
8.043 11.652 5.620
7.799 11.581 5.143
7.675 11.597 4.573
7.568 11.581 4.236
7.417 11.405 3.758
7.138 11.405 3.347
6.946 11.366 2.758
6.788 11.470 2.388
6.695 11.426 1.861
6.584 11.423 1.270
6.340 11.243 0.876
6.138 11.338 0.341
9.411 11.698 9.232
9.244 11.614 8.905
9.022 11.771 8.316
8.984 11.613 7.926
8.802 11.633 7.563
8.712 11.661 6.926
8.891 11.354 6.475
8.600 11.424 6.016
8.411 11.388 5.520
8.271 11.285 5.054
8.154 11.266 4.463
8.083 11.331 4.014
7.809 11.198 3.486
7.683 11.174 3.044
7.349 11.254 2.598
7.301 11.075 2.223
7.099 11.104 1.631
6.489 10.999 0.148
9.816 11.377 9.184
9.639 11.374 8.719
9.657 11.369 8.181
9.424 11.278 7.796
9.187 11.263 7.202
4.778 12.639 4.531
5.693 12.478 5.851
5.389 12.282 5.352
5.170 12.417 4.906
5.079 12.191 4.447
4.827 12.176 4.096
7.186 12.489 10.242
7.064 12.440 9.726
6.187 12.179 6.294
6.086 12.179 5.757
5.957 12.067 5.278
5.624 11.953 4.833
5.584 12.066 4.351
5.270 12.122 3.877
5.087 12.131 3.493
3.863 11.824 0.086
7.573 12.313 10.039
7.393 12.224 9.581
7.260 12.280 8.988
6.712 11.947 6.701
6.616 11.959 6.213
6.536 11.923 5.623
6.261 11.784 5.051
6.149 11.781 4.662
5.969 11.869 4.272
5.822 11.857 3.744
5.478 11.712 3.404
5.500 11.688 2.796
4.580 11.722 0.384
8.069 12.112 9.930
7.759 11.994 9.479
7.571 12.097 8.838
7.523 11.918 8.364
7.479 11.626 6.970
7.220 11.717 6.546
6.955 11.671 6.012
6.974 11.600 5.528
6.729 11.653 4.987
6.421 11.604 4.494
6.279 11.450 4.122
6.165 11.463 3.707
5.969 11.456 3.209
5.910 11.461 2.711
5.608 11.445 2.107
5.392 11.572 1.767
5.397 11.469 1.244
5.017 11.448 0.799
4.828 11.438 0.286
8.455 11.803 9.716
8.135 11.853 9.329
8.115 11.632 8.703
8.005 11.813 8.415
7.794 11.638 7.837
8.004 11.363 7.287
7.724 11.478 6.739
7.533 11.299 6.337
7.451 11.324 5.782
7.230 11.229 5.360
7.108 11.240 4.897
6.817 11.211 4.483
6.715 11.240 3.957
6.653 11.310 3.429
6.434 11.307 3.102
6.270 11.123 2.644
6.084 11.180 1.975
5.764 11.118 1.611
5.818 11.274 1.118
5.419 11.140 0.538
5.450 11.188 0.167
8.818 11.427 9.532
8.654 11.534 9.178
8.568 11.523 8.596
8.418 11.566 8.113
8.049 11.411 7.642
7.851 11.345 7.293
8.104 11.187 6.717
8.080 11.192 6.087
7.806 11.228 5.668
7.622 11.159 5.214
7.469 11.013 4.654
7.385 11.006 4.282
7.060 11.093 3.736
7.075 11.133 3.265
6.703 11.058 2.785
6.671 11.011 2.486
6.347 10.911 1.839
5.997 10.956 0.595
5.712 10.860 0.131
9.304 11.159 9.445
8.993 11.244 8.919
8.925 11.336 8.442
8.703 11.155 7.992
8.495 11.222 7.582
8.366 10.953 5.567
7.997 10.890 5.022
7.837 10.779 4.546
7.739 10.685 4.116
7.530 10.850 3.668
7.391 10.869 3.261
7.206 10.772 2.762
6.993 10.671 2.137
9.641 11.111 9.360
9.423 11.047 8.924
9.258 11.000 8.465
5.322 12.010 5.439
4.972 11.809 5.015
4.889 11.976 4.624
6.973 12.162 10.354
5.863 11.678 5.882
5.733 11.704 5.402
5.466 11.551 5.038
5.270 11.611 4.510
5.056 11.512 4.005
7.265 11.887 10.094
7.296 11.840 9.651
6.505 11.564 6.171
6.252 11.380 5.834
5.980 11.422 5.152
5.811 11.336 4.745
5.688 11.390 4.248
5.566 11.356 3.911
5.459 11.343 3.329
4.162 11.275 0.154
7.680 11.543 9.947
7.670 11.487 9.549
7.360 11.471 9.038
6.730 11.251 5.961
6.662 11.165 5.559
6.455 11.209 5.075
6.236 11.110 4.777
6.043 11.188 4.134
5.963 10.987 3.751
5.817 11.166 3.265
5.546 11.103 2.747
4.748 10.965 0.405
8.149 11.334 9.852
8.138 11.434 9.459
7.828 11.406 8.833
7.392 10.935 6.288
7.231 11.022 5.831
7.073 10.912 5.528
6.766 10.892 4.920
6.808 10.811 4.522
6.464 10.759 3.930
6.433 10.915 3.642
6.133 10.823 3.218
6.011 10.837 2.564
5.165 10.697 0.400
8.631 11.049 9.666
8.364 11.097 9.127
8.216 11.044 8.687
8.191 11.051 8.164
7.547 10.694 5.813
7.535 10.638 5.347
7.370 10.743 4.891
6.990 10.659 4.457
6.949 10.725 3.967
6.760 10.612 3.338
6.675 10.580 2.955
6.484 10.607 2.495
5.510 10.512 0.193
8.970 10.952 9.493
8.818 10.892 9.123
8.673 10.720 8.727
7.853 10.456 5.199
7.787 10.269 4.814
7.476 10.469 4.285
7.274 10.374 3.836
7.220 10.376 3.355
6.984 10.206 2.702
9.373 10.632 9.497
9.353 10.599 8.847
5.468 11.110 5.502
5.212 11.175 5.156
5.062 11.075 4.519
7.061 11.512 10.205
5.876 11.106 5.840
5.910 10.853 5.459
5.741 10.964 4.855
5.398 10.962 4.421
5.226 10.976 4.063
7.514 11.043 10.011
7.466 11.118 9.495
6.411 10.677 5.726
6.339 10.721 5.269
6.156 10.665 4.860
5.940 10.682 4.223
5.673 10.699 3.729
5.569 10.704 3.301
4.242 10.422 0.038
8.040 10.946 9.945
7.769 10.973 9.383
6.912 10.483 6.121
6.810 10.442 5.469
6.574 10.540 5.117
6.567 10.554 4.562
6.237 10.448 4.158
6.140 10.345 3.770
5.891 10.403 3.099
8.487 10.542 9.743
8.091 10.756 9.299
8.052 10.699 8.792
7.308 10.142 5.322
7.026 10.238 5.009
6.771 10.248 4.399
6.763 10.156 4.115
6.411 10.190 3.597
6.382 10.183 3.015
8.892 10.343 9.581
8.512 10.391 9.166
7.374 10.015 4.732
7.265 9.834 4.427
6.989 9.828 3.888
6.834 9.964 3.471
9.269 10.155 9.529
5.509 10.571 5.525
5.307 10.459 4.975
5.204 10.618 4.483
5.069 10.452 4.114
7.318 10.615 10.132
6.239 10.183 5.875
5.968 10.297 5.249
5.703 10.341 4.753
5.572 10.265 4.515
5.374 10.201 3.827
7.715 10.357 10.037
7.474 10.534 9.553
6.598 10.091 5.788
6.480 10.099 5.127
6.115 10.086 4.611
6.015 9.903 4.237
5.772 10.037 3.715
8.092 10.308 9.827
8.053 10.123 9.490
6.907 9.831 5.635
6.817 9.746 5.062
6.661 9.765 4.625
6.551 9.848 4.092
6.182 9.613 3.551
8.601 9.921 9.716
8.263 9.839 9.210
7.168 9.503 4.856
6.961 9.594 4.324
6.968 9.365 4.002
9.010 9.806 9.578
1.743 12.323 6.927
1.424 12.459 6.489
1.305 12.427 5.901
5.316 9.997 5.591
5.056 10.123 5.004
4.972 10.007 4.588
7.202 10.274 10.327
5.692 9.794 5.559
5.638 9.722 5.067
5.366 9.922 4.513
5.349 9.774 4.066
7.415 10.098 10.191
6.280 9.598 5.651
6.227 9.483 5.200
5.935 9.614 4.852
5.912 9.657 4.446
5.652 9.581 3.945
7.878 9.690 9.999
7.673 9.819 9.465
6.586 9.335 5.093
6.288 9.356 4.599
6.167 9.305 4.127
6.024 9.224 3.785
8.330 9.420 9.787
6.831 9.178 4.456
3.373 1.128 12.639
3.933 0.924 12.437
4.231 0.647 12.291
3.552 0.562 12.559
4.072 0.242 12.406
1.137 2.274 12.401
0.342 1.860 8.779
0.168 1.847 8.364
1.423 2.091 12.156
1.263 1.993 11.825
0.785 1.670 9.282
0.613 1.741 8.674
0.500 1.822 8.217
0.376 1.591 7.865
0.115 1.705 7.435
2.047 1.864 12.572
1.834 1.804 12.049
1.708 1.741 11.544
1.574 1.874 11.099
1.599 1.639 9.914
1.304 1.452 9.597
1.245 1.405 8.992
1.026 1.382 8.689
0.884 1.563 8.169
0.767 1.466 7.660
0.641 1.377 7.291
0.230 1.386 6.657
0.063 1.422 6.229
-0.065 1.311 5.825
2.375 1.669 12.317
2.184 1.506 11.947
2.029 1.597 11.312
1.927 1.641 11.011
1.663 1.469 10.390
1.633 1.561 9.971
1.980 1.177 9.828
1.737 1.168 9.478
1.615 1.160 8.918
1.456 1.312 8.569
1.166 1.216 8.096
1.211 1.248 7.520
0.838 1.133 7.013
0.799 1.033 6.530
0.696 1.043 6.115
0.405 1.169 5.589
0.230 1.077 5.228
0.117 1.150 4.798
2.916 1.419 12.249
2.772 1.257 11.791
2.519 1.212 11.291
2.435 1.324 10.714
2.062 1.264 10.244
1.901 1.171 9.940
2.434 0.963 9.694
2.186 1.102 9.231
2.026 0.923 8.849
1.877 0.907 8.388
1.742 0.911 7.888
1.502 0.875 7.382
1.294 0.993 6.836
1.158 0.952 6.439
0.943 0.900 5.873
0.770 0.947 5.586
0.685 0.855 4.959
0.477 0.857 4.639
0.239 0.687 3.968
0.024 0.673 3.650
3.371 1.017 12.081
3.025 1.105 11.704
2.823 0.963 11.135
2.856 1.005 10.683
2.608 0.967 10.177
2.436 1.080 9.643
2.756 0.838 9.466
2.510 0.790 9.036
2.457 0.722 8.625
2.352 0.790 8.100
2.034 0.748 7.585
1.888 0.716 7.111
1.766 0.606 6.863
1.639 0.580 6.188
1.305 0.575 5.914
1.342 0.490 5.350
1.088 0.491 4.808
0.989 0.447 4.311
0.620 0.422 3.895
0.540 0.467 3.340
0.464 0.497 2.962
0.121 0.546 2.424
-0.031 0.387 2.065
3.666 0.951 11.935
3.620 0.926 11.500
3.416 0.720 10.896
3.115 0.758 10.503
3.005 0.670 10.032
2.725 0.695 9.543
3.059 0.576 9.043
2.854 0.449 8.495
2.703 0.547 8.089
2.629 0.502 7.506
2.331 0.387 7.004
2.187 0.486 6.680
1.905 0.350 6.210
1.908 0.250 5.629
1.751 0.376 5.231
1.534 0.330 4.616
1.391 0.405 4.262
0.715 0.148 2.796
0.625 0.322 2.474
0.305 0.323 1.863
0.264 0.229 1.516
0.076 0.217 1.070
4.057 0.497 11.745
3.879 0.559 11.209
3.684 0.531 10.742
3.605 0.475 10.415
3.372 0.501 9.795
1.148 1.723 12.344
0.362 1.334 8.807
0.251 1.305 8.411
0.045 1.143 7.818
1.559 1.513 12.115
1.420 1.352 11.787
1.069 1.170 9.088
0.933 0.991 8.597
0.593 1.031 8.114
0.577 0.933 7.635
0.216 0.952 7.235
0.002 0.866 6.845
2.153 1.210 12.485
2.154 1.147 12.082
1.973 1.139 11.620
1.603 1.086 11.069
1.528 0.808 9.421
1.472 0.908 8.940
1.204 0.678 8.570
1.039 0.725 8.092
0.862 0.868 7.504
0.742 0.622 7.043
0.524 0.746 6.745
0.469 0.775 6.317
0.210 0.735 5.719
0.065 0.561 5.275
2.706 0.893 12.280
2.457 1.011 11.838
2.382 0.778 11.416
2.216 0.957 10.889
1.933 0.977 10.533
2.271 0.623 9.913
1.936 0.573 9.447
1.723 0.491 8.793
1.518 0.602 8.505
1.350 0.537 7.949
1.215 0.586 7.352
1.099 0.595 7.075
0.965 0.395 6.482
0.648 0.384 6.084
0.657 0.540 5.548
0.461 0.364 5.154
0.222 0.374 4.768
0.128 0.276 4.271
2.996 0.692 12.194
2.846 0.771 11.790
2.565 0.705 11.185
2.580 0.606 10.699
2.334 0.635 10.247
2.198 0.530 9.925
2.277 0.400 9.286
2.149 0.354 8.662
2.042 0.219 8.315
1.970 0.142 7.710
1.668 0.304 7.373
1.548 0.228 6.776
1.315 0.191 6.357
1.199 0.139 5.801
0.925 0.225 5.339
0.925 0.208 4.884
0.640 0.241 4.535
0.182 0.093 3.120
3.440 0.435 11.987
3.216 0.430 11.521
3.199 0.336 11.069
2.990 0.363 10.688
2.628 0.447 10.046
2.465 0.052 8.143
2.274 0.086 7.551
3.890 0.079 11.816
3.786 0.217 11.446
3.550 0.023 11.038
1.450 0.991 12.256
0.585 0.499 8.844
0.423 0.531 8.278
0.190 0.499 7.864
0.011 0.431 7.429
1.829 0.671 12.088
1.537 0.737 11.665
1.098 0.351 8.672
0.821 0.350 8.147
0.614 0.413 7.840
0.560 0.303 7.182
0.348 0.268 6.846
0.048 0.225 6.375
2.443 0.390 12.334
2.308 0.528 11.955
2.092 0.463 11.593
1.559 0.081 8.872
1.376 0.186 8.641
1.115 0.142 8.013
1.111 0.121 7.594
0.819 0.033 7.046
0.760 -0.075 6.714
0.438 0.090 6.248
2.702 0.274 12.385
2.509 0.329 11.934
2.342 0.113 11.435
2.385 0.315 10.841
0.175 0.210 8.531
-0.058 0.030 7.957
1.474 0.327 12.130
2.108 0.086 12.499
2.000 -0.033 12.038
12.342 11.688 8.833
11.526 12.547 10.241
11.464 12.603 9.677
11.067 12.577 9.215
12.003 12.178 10.086
11.784 12.207 9.660
11.495 12.280 9.115
12.422 12.007 9.862
12.210 11.954 9.479
11.950 12.099 8.992
12.374 11.727 8.713
12.511 11.264 9.737
12.422 11.254 9.319
12.242 11.375 8.976
11.541 12.196 11.184
11.445 12.190 10.783
11.251 12.136 10.315
11.199 12.088 9.911
10.959 11.996 9.423
11.795 11.876 10.517
11.653 11.933 10.017
11.611 11.879 9.621
11.473 11.723 9.302
12.225 11.649 10.018
11.904 11.525 9.563
11.849 11.524 8.966
12.507 11.437 9.827
12.368 11.355 9.480
12.135 11.315 8.973
12.274 10.911 9.840
12.060 10.904 9.501
11.960 10.870 8.971
12.524 10.652 9.358
12.441 10.562 8.980
11.388 11.743 11.239
11.127 11.824 10.863
11.079 11.769 10.442
10.794 11.736 9.941
10.672 11.610 9.347
11.744 11.416 10.664
11.448 11.390 10.143
11.183 11.338 9.721
11.109 11.408 9.355
11.988 11.274 10.168
11.649 11.080 9.533
11.460 11.031 9.069
12.263 10.959 9.897
12.235 10.885 9.585
11.933 10.999 9.025
12.492 11.735 1.767
12.214 11.731 2.883
11.983 11.622 2.601
11.830 11.549 2.050
12.515 11.481 2.264
12.138 11.253 1.833
12.088 11.429 1.341
12.444 11.077 1.381
12.192 11.014 0.707
12.458 10.910 0.270
11.496 11.440 3.189
11.458 11.418 2.657
11.132 11.487 2.286
12.218 11.177 3.664
11.839 11.156 3.024
11.704 11.252 2.518
11.708 11.219 2.224
11.441 11.262 1.717
12.567 10.898 3.334
12.398 10.905 2.837
12.099 10.825 2.429
12.123 10.869 2.051
11.941 10.870 1.482
