5.545 2.071 10.449
7.097 5.227 9.490
7.453 5.677 9.351
7.749 6.074 9.271
7.944 6.474 9.038
8.202 6.828 8.861
8.453 7.062 8.668
8.672 7.507 8.669
10.468 10.067 7.605
10.772 10.424 7.364
10.901 10.766 7.318
11.214 11.142 7.171
4.700 1.689 10.950
4.930 2.026 10.748
5.207 2.495 10.663
6.629 5.175 9.774
6.978 5.577 9.750
7.103 5.962 9.548
7.417 6.417 9.400
7.635 6.660 9.252
7.858 6.944 9.077
8.234 7.503 8.957
8.361 7.727 8.940
8.663 8.224 8.715
9.923 10.060 8.067
10.208 10.385 7.866
10.486 10.791 7.763
10.636 11.120 7.478
11.004 11.390 7.393
4.378 1.970 11.119
4.634 2.343 11.083
4.902 2.767 10.849
5.190 3.146 10.786
5.943 4.844 10.487
6.149 5.194 10.133
6.398 5.590 10.012
6.649 5.927 9.951
6.836 6.265 9.769
7.203 6.714 9.567
7.393 6.946 9.512
7.656 7.438 9.320
7.800 7.740 9.200
8.240 7.973 9.056
8.466 8.343 8.863
8.679 8.855 8.851
9.431 9.829 8.371
9.621 10.307 8.263
9.993 10.674 8.112
10.167 11.093 7.916
10.401 11.368 7.701
10.744 11.723 7.728
4.070 2.330 11.396
4.362 2.515 11.313
4.650 2.962 11.147
4.890 3.329 11.034
5.116 3.750 10.875
5.366 4.115 10.677
5.325 4.784 10.819
5.688 5.157 10.588
5.745 5.466 10.408
6.177 5.902 10.387
6.444 6.127 10.149
6.526 6.587 10.058
6.951 6.857 9.815
7.161 7.192 9.826
7.351 7.694 9.709
7.655 7.981 9.518
7.797 8.425 9.288
8.211 8.649 9.141
8.406 9.052 9.025
8.675 9.508 8.862
8.874 9.745 8.821
9.132 10.091 8.680
9.348 10.554 8.493
9.655 10.981 8.338
9.813 11.270 8.063
10.173 11.675 8.056
10.467 12.011 7.884
3.775 2.422 11.706
4.116 2.858 11.501
4.401 3.151 11.327
4.487 3.580 11.121
4.874 4.057 11.082
5.163 4.308 10.981
5.357 4.693 10.748
5.046 5.003 10.897
5.275 5.289 10.927
5.557 5.648 10.711
5.786 6.144 10.583
6.159 6.489 10.345
6.343 6.736 10.254
6.587 7.090 10.109
6.834 7.566 10.089
7.128 7.843 9.870
7.285 8.366 9.608
7.625 8.732 9.607
7.850 9.009 9.306
8.115 9.471 9.338
8.268 9.844 9.068
8.520 10.115 8.862
8.722 10.532 8.862
9.047 10.906 8.624
9.352 11.231 8.499
9.586 11.607 8.302
9.756 11.981 8.339
10.025 12.252 8.096
3.593 2.811 11.775
3.849 3.107 11.651
4.160 3.591 11.615
4.268 3.982 11.361
4.566 4.207 11.179
4.780 4.529 11.181
4.999 5.081 11.032
4.737 5.315 11.241
5.099 5.570 11.100
5.289 5.907 10.950
5.629 6.342 10.856
5.795 6.780 10.597
6.075 7.151 10.482
6.197 7.376 10.355
6.568 7.920 10.256
6.748 8.281 10.056
7.000 8.640 9.815
7.216 9.023 9.701
7.641 9.255 9.646
7.823 9.629 9.474
8.110 10.050 9.426
8.321 10.452 9.254
8.528 10.654 9.049
8.884 11.062 8.923
9.004 11.505 8.715
9.384 11.793 8.706
9.639 12.224 8.489
3.286 3.049 11.986
3.548 3.369 11.953
3.806 3.758 11.708
4.048 4.272 11.604
4.320 4.615 11.413
4.545 5.022 11.327
4.778 5.321 11.290
4.583 5.470 11.347
4.707 5.928 11.412
5.103 6.352 11.272
5.140 6.713 10.959
5.597 6.985 10.878
5.837 7.309 10.752
6.022 7.755 10.481
6.310 8.076 10.335
6.552 8.533 10.324
6.815 8.755 10.210
6.916 9.111 10.081
7.230 9.502 9.937
7.516 10.022 9.630
7.838 10.274 9.655
7.940 10.642 9.470
8.181 11.055 9.323
8.549 11.451 9.109
8.762 11.663 8.970
9.044 12.044 8.923
9.146 12.588 8.751
2.992 3.371 12.397
3.262 3.655 12.116
3.482 4.183 12.024
3.842 4.416 11.968
3.925 4.943 11.832
4.246 5.111 11.622
4.388 5.615 11.557
4.313 5.888 11.736
4.473 6.168 11.538
4.714 6.668 11.354
4.862 7.014 11.256
5.295 7.349 11.173
5.484 7.599 10.916
5.638 7.988 10.880
5.881 8.510 10.675
6.239 8.855 10.561
6.451 9.174 10.389
6.717 9.521 10.290
7.073 9.828 10.067
7.157 10.247 9.979
7.573 10.635 9.897
7.705 10.868 9.730
7.927 11.284 9.465
8.116 11.741 9.267
8.403 12.085 9.152
8.736 12.527 9.003
2.635 3.767 12.511
3.001 3.975 12.387
3.293 4.403 12.350
3.532 4.748 12.185
3.640 5.156 12.002
3.861 5.457 11.784
4.126 5.764 11.632
4.320 6.943 11.623
4.617 7.182 11.461
4.969 7.679 11.321
5.075 7.952 11.169
5.383 8.256 10.943
5.651 8.770 10.895
5.915 9.078 10.670
6.143 9.323 10.600
6.485 9.851 10.377
6.571 10.095 10.398
7.867 12.021 9.537
8.108 12.415 9.477
2.825 4.774 12.535
3.229 5.137 12.426
3.514 5.340 12.189
4.475 7.418 11.744
4.534 7.943 11.572
4.811 8.175 11.468
5.044 8.681 11.246
5.432 8.936 11.102
5.543 9.365 11.081
5.972 9.620 10.912
6.191 10.118 10.662
4.394 8.171 11.902
4.550 8.584 11.585
4.780 8.819 11.546
5.116 9.349 11.387
5.330 9.565 11.181
5.696 10.048 11.020
4.400 8.938 11.894
4.500 9.226 11.687
4.758 9.496 11.491
5.067 9.941 11.373
5.248 10.214 11.214
4.075 9.182 12.126
4.311 9.571 11.867
4.646 9.882 11.831
4.747 10.162 11.650
5.078 10.614 11.574
3.478 9.034 12.431
3.744 9.345 12.425
3.979 9.678 12.110
4.235 10.051 12.015
4.436 10.517 11.913
4.707 10.932 11.750
3.712 10.163 12.398
4.020 10.526 12.221
4.286 10.849 12.178
4.434 11.111 12.076
4.708 11.540 11.741
3.760 10.779 12.611
3.922 11.077 12.412
4.292 11.518 12.203
4.364 11.804 12.078
4.678 12.068 12.031
3.980 11.758 12.379
4.237 12.175 12.354
4.487 12.495 12.263
3.912 12.428 12.436
8.299 1.932 8.537
8.435 2.138 8.250
8.778 2.575 8.211
9.047 3.014 8.027
9.155 3.188 7.925
9.382 3.636 7.723
9.704 4.121 7.505
10.040 4.407 7.396
10.104 4.686 7.386
10.489 5.192 7.071
10.634 5.571 6.942
10.943 5.912 6.885
11.130 6.313 6.778
11.404 6.511 6.622
11.702 6.844 6.411
11.862 7.276 6.275
12.293 7.723 6.067
12.566 7.954 5.950
7.025 0.087 9.230
7.150 0.314 8.964
7.349 0.747 8.827
7.672 1.068 8.672
8.024 1.388 8.705
8.281 1.863 8.426
8.229 2.390 8.447
8.336 2.888 8.488
8.733 3.281 8.268
8.988 3.478 8.031
9.263 3.978 8.006
9.503 4.304 7.901
9.579 4.736 7.635
9.915 5.020 7.532
10.109 5.385 7.347
10.344 5.730 7.352
10.726 6.203 7.114
10.960 6.463 6.956
11.642 7.663 6.441
11.851 7.940 6.418
12.072 8.430 6.298
12.518 8.586 6.098
6.682 0.351 9.416
6.809 0.639 9.307
7.095 1.073 9.133
7.340 1.457 9.088
7.552 1.706 8.816
8.449 3.523 8.519
8.593 3.826 8.298
8.892 4.287 8.186
9.070 4.669 8.060
9.423 4.950 7.938
9.727 5.402 7.758
9.788 5.699 7.649
10.211 6.084 7.397
10.385 6.361 7.376
11.707 8.208 6.649
11.829 8.693 6.501
12.201 9.048 6.363
12.335 9.274 6.083
6.048 0.256 9.835
6.264 0.602 9.565
6.559 0.935 9.547
6.818 1.285 9.254
8.424 4.175 8.518
8.567 4.472 8.356
8.760 4.780 8.389
9.043 5.310 8.122
9.355 5.541 7.913
9.679 5.904 7.892
9.938 6.365 7.772
11.666 8.853 6.781
11.876 9.357 6.612
12.165 9.639 6.387
12.318 10.036 6.267
5.760 0.576 10.087
6.123 0.880 9.831
6.444 1.199 9.743
8.020 4.514 8.847
8.212 4.775 8.747
8.610 5.110 8.411
8.903 5.614 8.371
9.166 5.835 8.295
9.266 6.281 8.183
11.635 9.573 6.838
11.849 9.860 6.656
12.099 10.285 6.438
5.624 0.868 10.140
5.833 1.102 10.040
5.952 1.480 9.972
8.101 5.004 8.990
8.284 5.532 8.701
8.590 5.719 8.526
8.747 6.168 8.539
9.077 6.466 8.412
11.235 9.808 7.042
11.587 10.108 6.885
11.796 10.546 6.674
5.215 1.007 10.587
5.527 1.443 10.366
8.546 5.403 9.229
8.837 5.793 8.936
8.995 6.120 8.920
11.806 10.159 7.139
11.972 10.449 7.003
5.635 1.142 10.928
8.118 5.262 9.434
8.179 5.691 9.307
8.556 6.177 9.117
8.662 6.413 8.988
11.472 10.407 7.553
11.852 10.898 7.432
5.275 1.276 11.177
5.573 1.661 10.898
7.716 5.532 9.689
7.888 6.050 9.507
8.165 6.376 9.410
8.368 6.786 9.299
8.776 7.004 9.150
11.070 10.334 7.815
11.238 10.748 7.784
11.409 11.049 7.586
4.942 1.522 11.287
5.259 1.909 11.269
7.084 5.572 10.004
7.541 5.832 10.049
7.715 6.334 9.759
7.948 6.720 9.747
8.126 7.022 9.436
8.433 7.365 9.342
8.785 7.652 9.265
10.442 10.345 8.282
10.750 10.718 8.005
10.989 11.076 7.932
11.229 11.388 7.725
4.614 1.829 11.485
5.035 2.296 11.461
5.135 2.680 11.223
6.589 5.439 10.434
6.809 5.859 10.384
7.192 6.103 10.238
7.415 6.605 9.998
7.705 6.835 9.964
8.006 7.239 9.851
8.218 7.572 9.630
8.311 7.996 9.440
8.598 8.466 9.365
9.969 10.258 8.629
10.084 10.656 8.397
10.415 11.016 8.264
10.772 11.373 8.208
10.944 11.672 8.015
4.477 2.161 11.805
4.620 2.665 11.632
4.969 3.035 11.561
5.222 3.330 11.430
5.881 5.074 11.089
6.079 5.474 10.837
6.463 5.810 10.703
6.524 6.143 10.504
6.932 6.529 10.341
7.109 6.829 10.324
7.397 7.265 10.197
7.637 7.609 10.052
7.956 7.889 9.861
8.068 8.233 9.613
8.420 8.637 9.574
8.621 9.118 9.472
9.459 10.192 9.065
9.576 10.414 8.793
9.950 10.841 8.717
10.039 11.343 8.641
10.398 11.580 8.356
10.725 12.067 8.312
4.131 2.451 11.932
4.415 2.939 11.780
4.703 3.267 11.818
4.759 3.613 11.478
5.123 3.981 11.532
5.396 4.342 11.180
5.421 5.035 11.361
5.483 5.363 11.262
5.939 5.603 11.122
6.182 5.996 11.019
6.318 6.420 10.698
6.683 6.853 10.697
6.727 7.051 10.515
7.039 7.524 10.443
7.367 7.839 10.241
7.587 8.226 10.004
7.785 8.536 9.892
8.010 9.014 9.724
8.414 9.334 9.566
8.513 9.770 9.562
8.945 10.062 9.294
9.075 10.449 9.168
9.310 10.763 9.036
9.651 11.073 8.829
9.873 11.465 8.804
10.171 11.852 8.619
10.387 12.168 8.515
3.767 2.689 12.164
4.061 3.135 12.071
4.338 3.514 11.939
4.587 3.785 11.696
4.790 4.176 11.618
4.978 4.532 11.502
5.269 5.005 11.470
4.954 5.355 11.695
5.242 5.522 11.447
5.585 6.069 11.241
5.808 6.439 11.130
5.972 6.654 11.099
6.204 7.131 10.836
6.598 7.380 10.654
6.790 7.833 10.675
7.098 8.201 10.523
7.296 8.490 10.355
7.465 8.912 10.247
7.782 9.200 9.933
7.988 9.613 9.768
8.375 9.965 9.718
8.546 10.286 9.657
8.887 10.625 9.494
9.018 11.089 9.264
9.207 11.341 9.239
9.649 11.849 8.926
9.721 12.073 8.764
9.953 12.474 8.663
3.565 3.119 12.399
3.856 3.319 12.407
4.016 3.769 12.266
4.286 4.199 11.959
4.601 4.516 11.873
4.768 4.831 11.848
5.095 5.224 11.646
4.827 5.633 11.895
4.973 5.863 11.677
5.221 6.165 11.541
5.483 6.568 11.344
5.796 6.996 11.167
5.993 7.294 11.113
6.276 7.673 10.873
6.408 8.082 10.907
6.792 8.526 10.685
7.072 8.846 10.584
7.269 9.223 10.448
7.580 9.589 10.166
7.869 9.881 10.019
7.948 10.358 10.023
8.209 10.570 9.874
8.442 11.104 9.620
8.867 11.372 9.586
9.017 11.651 9.441
9.258 12.034 9.254
9.486 12.552 9.013
3.481 3.728 12.481
3.808 4.131 12.420
3.987 4.545 12.232
4.206 4.717 12.019
4.566 5.249 11.876
4.718 5.519 11.932
5.068 6.613 11.702
5.133 6.936 11.644
5.410 7.209 11.463
5.677 7.625 11.438
5.984 8.099 11.191
6.340 8.470 11.129
6.411 8.724 10.929
6.657 9.021 10.764
7.044 9.424 10.529
7.244 9.792 10.508
7.483 10.119 10.332
8.285 11.391 9.882
8.551 11.619 9.671
8.838 11.933 9.533
9.027 12.493 9.409
3.772 4.632 12.463
4.067 5.018 12.451
4.936 7.255 11.903
5.127 7.659 11.711
5.388 7.930 11.669
5.729 8.233 11.431
5.992 8.566 11.189
6.229 9.050 11.086
6.468 9.334 11.002
6.654 9.826 10.778
8.482 12.323 9.782
4.873 7.935 11.903
5.112 8.150 11.892
5.338 8.520 11.584
5.744 8.889 11.412
5.920 9.278 11.459
6.209 9.724 11.316
4.814 8.481 11.998
5.032 8.899 11.843
5.372 9.163 11.790
5.531 9.536 11.668
5.814 10.022 11.404
4.827 9.088 12.037
5.065 9.593 12.035
5.344 9.844 11.850
4.598 9.426 12.452
4.780 9.917 12.205
4.986 10.143 11.949
4.505 10.077 12.528
4.675 10.421 12.190
5.094 10.850 12.134
4.475 10.644 12.416
4.813 11.142 12.283
4.723 11.707 12.524
4.758 12.440 12.470
8.719 2.080 8.689
9.038 2.497 8.600
9.311 2.830 8.312
9.395 3.349 8.220
9.805 3.733 8.160
9.915 4.030 7.929
10.314 4.410 7.752
10.404 4.786 7.720
10.740 5.151 7.456
10.867 5.379 7.308
11.278 5.856 7.149
11.437 6.262 6.996
12.281 7.275 6.613
12.486 7.676 6.551
7.547 0.445 9.500
7.788 0.705 9.253
7.931 1.028 9.069
8.299 1.411 9.009
8.880 3.185 8.726
9.239 3.532 8.410
9.336 3.911 8.254
9.716 4.324 8.233
9.967 4.622 8.058
10.204 4.907 7.848
10.328 5.282 7.807
10.756 5.741 7.547
10.873 6.072 7.421
12.095 7.927 6.812
12.468 8.299 6.661
6.825 0.291 9.690
7.225 0.619 9.577
7.494 0.938 9.566
8.880 3.916 8.796
9.242 4.125 8.538
9.399 4.624 8.490
9.751 4.876 8.259
9.980 5.393 8.172
10.050 5.620 7.889
10.368 6.032 7.927
12.117 8.681 6.894
12.502 8.998 6.799
6.443 0.291 10.138
6.624 0.615 10.072
6.934 0.961 9.831
8.885 4.449 8.744
9.034 4.848 8.714
9.435 5.298 8.464
9.692 5.479 8.388
9.877 5.982 8.240
12.088 9.134 6.965
12.403 9.594 6.778
6.184 0.480 10.460
6.249 0.875 10.330
8.538 4.737 9.087
8.816 5.109 8.793
9.083 5.459 8.657
9.302 5.971 8.582
12.003 9.829 6.976
12.341 10.210 6.898
5.912 0.687 10.599
6.130 1.026 10.545
8.523 5.491 9.177
8.853 5.746 8.922
9.147 6.173 8.830
11.728 10.232 7.328
11.952 10.458 7.082
5.628 0.999 10.771
8.340 5.992 9.985
8.394 6.304 9.864
8.697 6.644 9.692
11.512 10.652 8.180
11.739 11.081 7.886
5.254 1.687 11.685
7.621 5.829 10.315
8.053 6.145 10.229
8.187 6.660 10.035
8.519 6.974 9.936
8.684 7.254 9.741
10.884 10.611 8.400
11.199 10.887 8.258
11.527 11.253 8.179
5.038 1.945 12.026
5.116 2.278 11.681
7.194 5.721 10.800
7.384 6.160 10.564
7.635 6.466 10.311
7.960 6.891 10.264
8.132 7.243 10.087
8.379 7.549 9.991
8.657 8.068 9.946
10.427 10.570 8.936
10.700 10.953 8.577
10.861 11.344 8.470
11.077 11.550 8.475
4.594 2.066 12.259
4.844 2.516 12.080
5.102 2.976 11.807
6.651 5.656 11.033
6.948 6.066 10.908
7.220 6.566 10.806
7.327 6.760 10.641
7.568 7.202 10.566
7.798 7.505 10.382
8.106 7.889 10.115
8.499 8.183 10.124
8.538 8.643 9.904
9.855 10.373 9.266
10.189 10.887 8.984
10.379 11.275 8.887
10.702 11.661 8.719
10.976 11.882 8.672
4.370 2.388 12.372
4.615 2.894 12.156
4.871 3.079 12.107
5.057 3.437 11.866
6.026 5.682 11.546
6.276 5.960 11.412
6.545 6.425 11.163
6.780 6.761 11.065
7.145 7.217 10.926
7.314 7.566 10.689
7.676 7.817 10.552
7.824 8.118 10.525
8.153 8.584 10.197
8.393 8.943 10.189
9.645 10.790 9.439
9.858 11.052 9.250
10.181 11.514 9.171
10.305 11.833 9.002
10.662 12.254 8.810
4.412 3.006 12.487
4.582 3.387 12.302
4.934 3.798 12.223
5.123 4.286 12.027
5.870 5.981 11.654
6.151 6.392 11.548
6.221 6.752 11.434
6.612 6.969 11.165
6.881 7.477 11.156
7.149 7.713 10.954
7.304 8.070 10.846
7.611 8.544 10.676
7.864 8.834 10.632
8.156 9.309 10.323
8.231 9.679 10.342
9.144 10.618 9.802
9.292 11.057 9.618
9.640 11.339 9.485
9.836 11.738 9.271
9.992 12.126 9.255
10.334 12.431 9.016
4.264 3.772 12.577
4.632 4.118 12.509
4.867 4.590 12.220
5.618 6.328 12.006
5.727 6.547 11.704
6.125 6.949 11.625
6.379 7.352 11.547
6.518 7.646 11.403
6.827 8.019 11.099
7.007 8.349 11.134
7.225 8.811 10.934
7.602 9.140 10.790
7.757 9.490 10.612
9.142 11.353 9.940
9.192 11.695 9.784
9.637 11.994 9.617
9.833 12.407 9.421
4.463 4.874 12.409
5.451 6.894 12.014
5.826 7.271 11.963
6.062 7.518 11.615
6.202 7.971 11.632
6.528 8.404 11.496
6.711 8.794 11.260
6.952 8.972 11.047
7.238 9.525 11.053
9.039 11.974 10.064
9.364 12.395 9.868
5.488 7.558 12.191
5.696 7.831 11.879
6.009 8.166 11.857
6.247 8.639 11.699
6.456 8.936 11.469
6.788 9.445 11.275
5.463 8.245 12.178
5.615 8.607 11.934
6.033 8.807 11.822
6.225 9.385 11.677
5.561 9.197 12.015
9.547 2.770 8.713
9.713 3.319 8.553
10.009 3.540 8.395
10.311 3.884 8.346
10.396 4.378 8.288
10.676 4.670 8.088
11.037 5.073 7.973
11.161 5.453 7.749
11.409 5.740 7.564
7.678 0.335 9.770
8.028 0.672 9.551
9.430 3.497 8.946
9.617 3.899 8.675
9.964 4.334 8.680
10.269 4.713 8.410
10.476 4.921 8.212
10.625 5.404 8.187
11.003 5.718 7.917
7.266 0.260 10.174
7.388 0.544 10.024
9.487 4.232 8.998
9.764 4.581 8.729
9.992 4.983 8.686
10.089 5.306 8.485
10.384 5.601 8.273
6.734 0.095 10.573
6.923 0.423 10.322
9.320 4.855 9.075
9.679 5.145 8.994
9.824 5.472 8.649
6.383 0.463 10.843
1.054 7.192 0.318
1.093 7.513 0.181
1.407 7.982 0.120
0.311 7.160 0.692
0.573 7.435 0.554
0.922 7.859 0.424
1.245 8.136 0.383
1.483 8.654 0.068
0.191 7.338 0.941
0.369 7.689 0.823
0.635 8.132 0.738
0.815 8.573 0.578
1.053 8.897 0.441
1.317 9.256 0.329
-0.007 8.068 0.951
0.326 8.306 0.984
0.666 8.825 0.796
0.772 9.036 0.581
1.061 9.601 0.429
-0.022 8.607 1.125
0.312 9.073 0.925
0.501 9.356 0.777
0.919 9.735 0.738
-0.062 9.438 1.261
0.369 9.775 1.182
0.426 10.096 0.965
0.326 0.509 0.270
0.384 0.884 0.186
0.281 1.081 0.320
0.754 7.051 1.121
0.904 7.471 1.076
1.294 7.785 0.908
1.378 8.162 0.731
0.216 6.922 1.388
0.396 7.252 1.269
0.559 7.679 1.210
0.932 8.145 0.991
1.187 8.500 0.998
1.506 8.863 0.696
0.128 7.656 1.632
0.299 7.903 1.400
0.555 8.454 1.323
0.948 8.687 1.181
1.159 9.178 1.011
1.270 9.533 0.793
0.176 8.374 1.625
0.353 8.725 1.616
0.599 9.018 1.481
0.785 9.348 1.322
0.990 9.685 1.127
2.806 12.369 0.144
-0.006 8.869 1.699
0.258 9.242 1.598
0.467 9.759 1.416
-0.049 9.693 1.819
0.161 9.904 1.709
0.446 0.422 0.597
0.699 0.734 0.439
1.038 1.187 0.449
0.286 0.780 0.840
0.403 1.080 0.707
1.124 7.494 1.301
1.560 7.686 1.233
1.638 8.028 1.161
0.733 7.211 1.709
1.024 7.575 1.669
1.245 8.098 1.367
1.443 8.510 1.320
1.765 8.796 1.201
0.145 7.246 2.073
0.409 7.666 1.946
0.619 7.884 1.917
0.859 8.417 1.690
1.079 8.653 1.496
1.435 9.132 1.382
3.546 12.319 0.156
0.105 7.912 2.171
0.314 8.181 2.063
0.539 8.674 1.991
0.769 9.071 1.787
1.033 9.247 1.569
1.292 9.752 1.461
3.199 12.334 0.454
0.074 8.516 2.231
0.282 8.988 2.197
0.559 9.175 2.083
0.876 9.655 1.918
0.002 9.143 2.345
0.181 9.612 2.222
0.657 0.455 0.915
0.972 0.846 0.799
0.576 0.738 1.211
2.157 0.364 -0.055
1.537 0.309 0.398
1.902 0.630 0.335
1.040 0.135 0.810
1.287 0.569 0.572
1.629 0.855 0.553
2.340 0.190 0.488
1.855 0.085 0.760
2.035 0.657 0.703
1.423 0.168 1.125
1.635 0.441 1.031
1.820 0.833 0.951
2.742 0.275 0.813
2.834 0.692 0.742
4.234 3.156 0.053
2.132 0.234 1.252
2.291 0.599 0.976
2.542 0.987 0.933
3.861 3.321 0.221
4.010 3.749 0.117
1.546 0.020 1.497
1.850 0.524 1.304
2.196 0.710 1.242
2.297 1.243 1.169
3.526 0.359 0.715
4.344 2.296 0.398
4.699 2.677 0.083
4.999 3.008 -0.042
2.968 0.279 1.097
3.159 0.631 1.042
3.445 0.994 0.961
4.229 2.759 0.436
4.442 3.120 0.328
4.699 3.438 0.270
4.798 3.667 0.142
2.437 0.093 1.628
2.641 0.437 1.485
2.794 0.926 1.264
3.084 1.268 1.199
3.808 2.899 0.692
4.127 3.281 0.624
4.406 3.623 0.399
4.646 4.119 0.282
4.958 4.364 0.150
5.218 4.673 0.022
1.814 0.148 1.907
2.063 0.466 1.780
2.286 0.717 1.551
2.556 1.230 1.474
2.936 1.499 1.422
5.617 2.189 0.038
4.979 2.149 0.509
5.319 2.366 0.264
5.549 2.815 0.122
5.787 3.092 0.054
3.721 0.200 1.132
4.026 0.693 1.092
4.091 1.563 0.999
4.538 1.909 0.783
4.665 2.420 0.608
4.950 2.751 0.601
5.141 3.053 0.384
5.492 3.424 0.327
5.667 3.697 0.136
3.091 0.223 1.544
3.515 0.612 1.376
3.767 0.843 1.294
3.994 1.278 1.046
4.135 1.528 0.900
3.916 1.962 1.105
4.200 2.199 1.107
4.509 2.599 0.954
4.566 2.948 0.697
4.910 3.398 0.719
5.204 3.767 0.370
5.435 4.155 0.286
5.599 4.531 0.260
5.933 4.898 0.143
2.737 0.076 1.999
2.956 0.456 1.846
3.199 0.892 1.532
3.426 1.246 1.475
3.716 1.504 1.286
3.960 1.868 1.181
3.536 2.151 1.423
3.962 2.637 1.211
4.154 2.912 1.084
4.470 3.374 0.929
4.612 3.656 0.945
4.843 3.993 0.754
5.121 4.393 0.638
5.418 4.779 0.370
5.540 5.102 0.329
5.979 5.481 0.179
2.214 0.004 2.386
2.312 0.356 2.254
2.718 0.815 1.976
2.792 1.160 1.861
3.188 1.389 1.796
3.398 1.927 1.669
3.731 2.255 1.531
5.976 1.918 0.234
6.336 2.212 -0.018
5.442 1.734 0.585
5.712 2.051 0.395
6.076 2.429 0.333
6.288 2.805 0.126
6.487 3.292 0.061
4.443 0.300 1.261
4.708 1.314 1.159
4.903 1.732 1.033
5.164 2.051 0.933
5.525 2.453 0.649
5.770 2.698 0.569
6.028 3.066 0.469
6.243 3.580 0.302
6.582 3.955 0.153
3.995 0.257 1.599
4.296 0.610 1.432
4.589 0.823 1.364
4.836 1.383 1.148
4.468 1.582 1.310
4.795 1.991 1.185
5.068 2.315 1.120
5.177 2.623 0.892
5.397 3.123 0.875
5.740 3.321 0.644
5.921 3.806 0.461
6.320 4.133 0.270
6.442 4.523 0.291
6.682 4.908 0.051
3.485 0.068 1.838
3.736 0.534 1.743
4.005 0.809 1.636
4.192 1.222 1.541
4.391 1.653 1.268
4.248 1.816 1.536
4.335 2.164 1.360
4.761 2.629 1.303
5.038 2.994 1.036
5.165 3.268 0.911
5.425 3.695 0.850
5.780 3.964 0.647
5.858 4.416 0.600
6.121 4.750 0.424
6.369 5.086 0.222
6.689 5.434 0.167
2.934 -0.009 2.210
3.097 0.354 2.048
3.448 0.743 2.003
3.668 1.115 1.899
3.912 1.449 1.787
4.273 1.926 1.581
3.853 2.129 1.896
4.258 2.441 1.702
4.388 2.956 1.496
4.722 3.145 1.283
4.991 3.545 1.271
5.103 4.026 1.177
5.416 4.349 0.863
5.560 4.710 0.892
5.893 5.159 0.669
6.190 5.365 0.459
6.317 5.866 0.435
6.736 6.153 0.174
6.904 6.613 0.100
2.665 0.232 2.581
2.882 0.637 2.280
3.244 1.165 2.246
3.366 1.414 2.189
3.733 1.738 1.971
3.961 2.107 1.736
6.802 1.829 0.119
7.167 2.258 -0.006
6.384 1.816 0.635
6.500 2.079 0.495
6.737 2.551 0.410
7.049 2.915 0.121
7.321 3.225 -0.023
5.598 1.357 1.058
5.916 1.677 0.874
5.959 2.168 0.938
6.302 2.434 0.634
6.656 2.782 0.438
6.834 3.148 0.362
6.991 3.498 0.157
7.242 3.779 0.156
4.850 0.201 1.521
5.129 0.532 1.384
5.072 1.199 1.551
5.246 1.641 1.355
5.477 1.941 1.266
5.755 2.303 0.983
6.088 2.634 0.844
6.181 3.059 0.664
6.598 3.396 0.586
6.766 3.906 0.456
7.004 4.170 0.239
7.327 4.606 0.256
7.591 4.890 0.052
4.179 0.165 1.840
4.551 0.578 1.842
4.813 0.966 1.600
4.945 1.221 1.499
4.675 1.532 1.780
4.960 1.851 1.542
5.292 2.288 1.413
5.539 2.599 1.322
5.776 3.067 1.187
5.910 3.348 1.104
6.267 3.677 0.913
6.567 4.079 0.779
6.760 4.415 0.497
6.925 4.804 0.519
7.137 5.099 0.301
7.503 5.639 0.119
3.651 0.151 2.239
3.924 0.409 2.159
4.182 0.728 2.021
4.577 1.217 1.927
4.837 1.556 1.637
4.557 1.808 1.915
4.788 2.101 1.876
4.921 2.471 1.640
5.303 2.856 1.413
5.529 3.215 1.414
5.686 3.717 1.256
6.036 4.041 0.991
6.117 4.297 0.913
6.363 4.708 0.693
6.692 5.013 0.679
6.944 5.389 0.594
7.109 5.805 0.425
7.380 6.163 0.263
7.693 6.655 0.048
3.115 0.003 2.778
3.515 0.328 2.459
3.647 0.719 2.281
3.925 1.179 2.353
4.157 1.510 2.170
4.356 1.729 1.916
4.196 2.016 2.130
4.411 2.499 2.055
4.743 2.810 1.868
4.870 3.171 1.735
5.115 3.665 1.548
5.409 3.997 1.465
5.679 4.243 1.309
5.868 4.742 1.092
6.147 5.122 1.052
6.492 5.413 0.852
6.646 5.844 0.685
7.022 6.069 0.663
7.208 6.453 0.424
7.358 6.815 0.274
7.779 7.170 0.235
7.971 7.601 -0.091
2.865 0.310 2.826
3.127 0.749 2.668
3.436 1.003 2.547
3.678 1.446 2.430
3.993 1.670 2.384
4.155 2.218 2.226
7.752 0.598 0.028
7.662 1.272 0.147
7.529 1.591 0.395
7.791 1.828 0.246
7.910 2.154 -0.020
6.840 1.391 0.643
7.110 1.730 0.601
7.396 2.247 0.455
7.712 2.489 0.309
7.965 2.894 0.110
8.067 3.297 -0.023
6.709 1.683 0.941
6.959 2.021 0.917
7.029 2.576 0.675
7.302 2.887 0.485
7.622 3.184 0.408
7.941 3.495 0.343
8.143 3.921 0.186
5.515 0.907 1.631
5.777 1.258 1.589
6.140 1.711 1.375
6.412 2.055 1.285
6.573 2.311 1.050
6.928 2.755 0.917
7.149 3.218 0.692
7.284 3.463 0.713
7.520 3.841 0.492
7.842 4.294 0.341
7.976 4.577 0.292
8.232 5.010 0.105
4.977 0.196 1.993
5.241 0.590 1.748
5.603 0.907 1.735
5.288 1.165 1.981
5.651 1.603 1.727
5.869 1.908 1.641
6.024 2.347 1.414
6.303 2.750 1.301
6.649 2.968 1.165
6.880 3.488 1.064
6.986 3.794 0.913
7.327 4.137 0.774
7.518 4.577 0.481
7.776 4.860 0.339
8.049 5.198 0.261
8.359 5.653 0.166
4.576 0.221 2.288
4.728 0.498 2.263
5.070 0.919 1.960
5.300 1.228 1.860
4.959 1.468 2.103
5.214 1.787 1.952
5.470 2.340 1.771
5.731 2.506 1.700
6.041 3.010 1.531
6.303 3.366 1.421
6.536 3.590 1.180
6.748 4.169 0.982
6.944 4.357 0.894
7.310 4.697 0.740
7.591 5.213 0.609
7.823 5.572 0.497
8.062 5.813 0.309
8.291 6.349 0.269
8.533 6.582 0.143
3.928 -0.026 2.635
4.248 0.389 2.534
4.488 0.774 2.490
4.722 1.164 2.191
5.052 1.470 2.172
4.766 1.845 2.340
4.920 2.093 2.281
5.188 2.571 1.996
5.429 2.785 1.880
5.683 3.278 1.661
6.068 3.705 1.570
6.199 4.058 1.486
6.545 4.343 1.378
6.691 4.628 1.126
6.941 5.061 0.989
7.320 5.471 0.943
7.576 5.731 0.831
7.695 6.168 0.700
7.902 6.466 0.499
8.271 6.838 0.336
8.517 7.306 0.245
8.677 7.664 -0.073
3.691 0.269 2.990
4.079 0.743 2.822
4.284 1.081 2.581
4.367 1.422 2.580
4.626 1.902 2.411
4.431 2.129 2.626
4.611 2.384 2.491
5.015 2.893 2.382
5.196 3.142 2.199
5.534 3.638 1.926
5.785 3.914 1.843
5.915 4.210 1.730
6.258 4.572 1.483
6.363 5.042 1.332
6.756 5.387 1.346
6.985 5.826 1.049
7.180 6.075 1.070
7.470 6.432 0.837
7.621 6.752 0.694
7.948 7.174 0.625
8.238 7.463 0.453
8.490 7.928 0.222
8.622 8.203 0.155
3.251 0.266 3.357
3.326 0.707 3.240
3.639 0.901 3.039
3.923 1.410 2.955
4.275 1.625 2.769
4.380 2.092 2.637
8.207 0.327 0.294
8.606 0.581 -0.006
8.361 0.958 0.387
8.587 1.321 0.197
8.881 1.730 -0.059
8.041 1.156 0.479
8.284 1.551 0.470
8.491 1.917 0.175
8.784 2.319 0.150
7.788 1.523 0.804
8.018 1.923 0.640
8.276 2.180 0.532
8.439 2.553 0.303
8.648 2.986 0.193
8.977 3.370 0.007
7.440 1.799 0.958
7.600 2.125 0.809
7.864 2.580 0.757
8.206 2.777 0.471
8.319 3.312 0.347
8.634 3.711 0.192
8.878 3.936 0.144
6.938 1.708 1.408
7.113 2.044 1.223
7.460 2.431 1.018
7.644 2.698 0.901
7.835 3.167 0.810
8.051 3.562 0.569
8.427 3.906 0.469
8.730 4.274 0.307
8.930 4.562 0.227
6.265 1.677 1.708
6.522 2.020 1.478
6.925 2.383 1.470
7.022 2.809 1.277
7.331 3.043 1.214
7.569 3.438 1.105
7.812 3.819 0.782
8.170 4.250 0.746
8.460 4.448 0.646
8.589 4.823 0.340
8.753 5.239 0.182
5.322 0.094 2.374
5.470 1.212 2.201
5.776 1.651 2.151
6.031 1.891 1.873
6.301 2.187 1.892
6.570 2.567 1.688
6.879 2.914 1.620
6.973 3.382 1.337
7.366 3.691 1.340
7.674 4.009 1.002
7.869 4.531 0.846
8.123 4.827 0.827
8.363 5.169 0.556
8.633 5.657 0.545
8.762 6.034 0.307
9.030 6.354 0.170
9.376 6.578 0.151
4.914 0.058 2.725
5.103 0.530 2.464
5.275 0.737 2.475
5.506 1.215 2.222
5.355 1.428 2.542
5.629 1.795 2.366
5.879 2.227 2.155
6.095 2.510 2.061
6.173 3.036 2.001
6.443 3.195 1.729
6.699 3.620 1.696
7.059 3.974 1.573
7.294 4.285 1.375
7.472 4.785 1.254
7.770 5.088 0.996
7.941 5.380 0.938
8.244 5.891 0.720
8.542 6.256 0.618
8.829 6.548 0.357
9.064 6.835 0.320
9.273 7.323 0.178
9.529 7.660 0.050
4.264 0.122 3.164
4.587 0.465 2.924
4.746 0.835 2.706
5.071 1.084 2.648
5.295 1.502 2.543
4.904 1.797 2.639
5.325 2.143 2.636
5.413 2.400 2.337
5.819 2.947 2.264
5.960 3.234 2.072
6.321 3.593 1.993
6.478 3.843 1.928
6.768 4.302 1.589
6.946 4.700 1.557
7.285 5.142 1.354
7.455 5.501 1.245
7.836 5.860 1.114
7.995 6.042 0.951
8.223 6.610 0.768
8.592 6.927 0.752
8.684 7.177 0.638
9.035 7.608 0.501
9.315 7.984 0.180
9.581 8.248 0.024
4.049 0.241 3.219
4.207 0.687 3.189
4.579 0.986 3.017
4.668 1.361 2.930
4.981 1.844 2.708
4.677 2.062 2.869
4.886 2.418 2.781
5.122 2.730 2.640
5.380 3.231 2.449
5.673 3.556 2.432
5.943 3.966 2.236
6.217 4.341 2.174
6.385 4.572 1.980
6.627 5.052 1.812
7.069 5.308 1.697
7.166 5.681 1.528
7.515 5.982 1.318
7.815 6.384 1.292
7.860 6.742 1.134
8.235 7.147 0.832
8.476 7.465 0.864
8.762 7.842 0.615
8.891 8.195 0.554
9.286 8.577 0.406
9.501 9.028 0.203
9.671 9.434 -0.002
3.563 0.319 3.602
3.801 0.665 3.470
3.870 1.015 3.467
4.253 1.217 3.259
4.395 1.780 2.995
4.708 2.120 3.000
9.065 0.253 0.154
9.390 0.769 0.117
8.804 0.656 0.468
8.988 0.953 0.298
9.389 1.414 0.099
9.556 1.786 0.092
8.477 0.954 0.603
8.765 1.319 0.536
9.055 1.526 0.472
9.354 1.975 0.175
9.653 2.298 0.074
8.438 1.539 0.827
8.655 1.866 0.587
8.938 2.334 0.500
9.286 2.601 0.408
9.440 2.901 0.128
8.207 1.817 1.000
8.485 2.101 0.770
8.678 2.503 0.681
8.914 2.939 0.554
9.121 3.358 0.469
7.770 1.826 1.432
7.897 2.193 1.298
8.256 2.443 1.087
8.334 2.784 0.859
8.714 3.153 0.853
8.940 3.618 0.675
7.448 1.968 1.537
7.671 2.363 1.474
7.915 2.695 1.195
8.258 3.077 1.100
8.411 3.578 0.917
8.610 3.867 0.829
8.932 4.220 0.637
6.770 1.950 1.865
7.041 2.417 1.803
7.342 2.708 1.705
7.550 3.013 1.480
7.927 3.498 1.467
8.073 3.761 1.294
8.408 4.131 1.178
8.550 4.585 1.036
8.864 4.797 0.849
10.018 6.654 0.106
6.090 1.420 2.552
6.227 1.779 2.341
6.633 2.352 2.149
6.780 2.536 2.006
7.089 2.981 1.805
7.408 3.316 1.790
7.656 3.806 1.637
7.900 4.148 1.545
8.056 4.423 1.432
8.277 4.727 1.098
8.582 5.132 1.025
8.788 5.450 0.883
9.085 5.897 0.851
9.259 6.195 0.559
9.589 6.546 0.397
9.861 6.924 0.337
10.068 7.303 0.067
10.412 7.654 0.112
5.070 -0.009 3.114
5.253 0.462 2.905
5.566 0.842 2.706
5.635 1.387 2.946
5.693 1.805 2.686
6.009 2.086 2.497
6.260 2.601 2.426
6.643 2.828 2.337
6.738 3.183 2.194
7.012 3.556 1.899
7.207 3.935 1.855
7.659 4.328 1.643
7.870 4.786 1.623
8.007 5.110 1.311
8.271 5.346 1.353
8.530 5.899 1.090
8.724 6.270 0.994
9.001 6.443 0.733
9.267 6.910 0.690
9.579 7.325 0.541
9.800 7.740 0.401
10.074 7.952 0.205
10.346 8.384 0.175
4.852 0.401 3.350
4.976 0.681 3.061
5.239 1.087 2.962
5.570 1.482 2.941
5.178 1.785 3.096
5.486 2.009 2.899
5.743 2.485 2.729
5.949 2.842 2.582
6.229 3.156 2.618
6.543 3.638 2.439
6.723 3.811 2.258
6.970 4.240 2.038
7.192 4.539 1.861
7.449 4.899 1.874
7.823 5.321 1.577
7.962 5.739 1.397
8.231 6.204 1.245
8.612 6.561 1.140
8.720 6.758 0.956
9.036 7.276 0.856
9.189 7.525 0.769
9.614 7.987 0.569
9.707 8.272 0.459
10.000 8.633 0.384
10.307 9.116 0.210
4.304 0.207 3.666
4.544 0.664 3.574
4.654 1.006 3.275
5.041 1.468 3.341
5.336 1.822 3.172
5.061 1.924 3.410
5.211 2.353 3.264
5.375 2.802 3.011
5.656 3.146 2.985
5.872 3.547 2.713
6.138 3.800 2.523
6.527 4.099 2.531
6.735 4.620 2.354
7.066 4.871 2.063
7.267 5.344 1.957
7.388 5.639 1.978
7.683 6.051 1.646
8.069 6.399 1.687
8.257 6.724 1.517
8.440 7.024 1.235
8.765 7.404 1.238
8.982 7.769 1.051
9.299 8.194 0.897
9.465 8.670 0.691
9.767 8.866 0.607
10.087 9.390 0.407
3.687 0.286 3.977
3.917 0.461 3.938
4.327 0.995 3.757
4.408 1.378 3.524
4.685 1.709 3.484
4.890 2.010 3.295
9.907 0.253 0.269
10.202 0.764 0.085
9.290 0.257 0.480
9.736 0.726 0.431
9.958 1.102 0.328
10.197 1.348 0.153
10.427 1.804 0.093
9.361 0.912 0.603
9.700 1.371 0.560
9.827 1.758 0.276
10.079 2.132 0.166
10.284 2.293 0.049
9.268 1.483 0.692
9.575 1.921 0.668
9.903 2.253 0.415
9.054 1.791 0.981
9.197 2.321 0.869
8.764 2.054 1.222
8.956 2.503 1.008
8.526 2.532 1.453
8.738 2.904 1.362
8.985 3.090 1.157
7.871 2.287 1.816
8.116 2.712 1.734
8.327 2.994 1.566
8.591 3.460 1.457
8.964 3.857 1.235
7.421 2.208 2.116
7.727 2.745 2.010
7.913 2.991 1.853
8.036 3.290 1.833
8.456 3.710 1.621
8.684 4.113 1.550
8.982 4.408 1.438
10.617 7.119 0.216
10.862 7.408 0.176
11.056 7.834 0.014
6.823 2.131 2.560
7.039 2.676 2.338
7.347 2.901 2.188
7.520 3.328 2.074
7.861 3.570 1.953
8.065 3.981 1.778
8.295 4.355 1.753
8.535 4.672 1.500
8.916 5.199 1.463
10.099 7.004 0.759
10.443 7.404 0.580
10.598 7.707 0.306
10.894 7.995 0.213
11.005 8.300 0.193
5.379 0.065 3.484
6.258 2.194 2.873
6.575 2.415 2.782
6.775 2.820 2.576
7.003 3.117 2.607
7.402 3.649 2.366
7.461 3.971 2.144
7.775 4.382 1.981
8.180 4.616 1.862
8.312 5.019 1.852
8.521 5.364 1.678
8.783 5.772 1.442
9.555 6.974 1.072
9.861 7.151 0.948
10.083 7.663 0.774
10.383 8.011 0.737
10.669 8.391 0.411
10.809 8.710 0.262
5.011 0.303 3.578
5.262 0.773 3.609
5.436 1.594 3.401
5.741 2.011 3.297
6.091 2.486 3.182
6.193 2.700 3.011
6.493 3.075 2.873
6.795 3.605 2.765
6.958 3.932 2.621
7.256 4.343 2.375
7.550 4.534 2.213
7.828 4.996 2.175
8.146 5.443 2.108
8.365 5.721 1.774
8.431 6.015 1.744
8.893 6.472 1.494
8.965 6.715 1.434
9.297 7.071 1.216
9.464 7.622 1.071
9.815 7.904 1.098
10.050 8.324 0.893
10.296 8.565 0.679
10.508 8.975 0.533
4.444 0.281 4.096
4.702 0.620 3.918
5.122 0.895 3.779
5.388 1.235 3.516
5.604 1.731 3.388
5.583 2.259 3.451
5.785 2.758 3.456
6.102 3.126 3.287
6.158 3.454 3.080
6.432 3.858 3.068
6.828 4.086 2.731
7.019 4.516 2.724
7.165 4.969 2.463
7.609 5.354 2.293
7.858 5.599 2.193
7.979 5.972 2.031
8.286 6.289 1.855
8.471 6.639 1.714
8.813 7.087 1.738
9.038 7.424 1.541
9.257 7.846 1.307
9.552 8.078 1.183
9.683 8.466 1.017
9.907 8.839 1.003
10.334 9.191 0.808
3.916 0.100 4.354
4.267 0.629 4.372
4.485 0.777 4.067
4.825 1.210 3.988
5.024 1.590 3.856
10.376 0.081 0.306
10.814 0.319 0.278
10.979 0.736 -0.003
10.131 0.310 0.498
10.438 0.681 0.345
10.792 1.051 0.391
11.024 1.484 0.163
11.103 1.872 -0.093
9.908 0.623 0.896
10.144 1.045 0.574
10.329 1.310 0.638
10.743 1.674 0.312
10.796 2.034 0.271
9.898 1.291 0.999
10.183 1.700 0.839
10.391 2.033 0.532
8.345 2.681 2.120
8.613 3.129 1.926
8.887 3.452 1.833
11.644 7.429 0.273
12.017 7.866 0.116
7.888 2.598 2.441
8.156 3.024 2.229
8.347 3.267 2.062
8.699 3.789 2.038
8.862 4.089 1.861
11.187 7.460 0.638
11.515 7.776 0.431
11.649 8.010 0.195
7.472 2.516 2.712
7.643 2.889 2.568
7.919 3.231 2.580
8.200 3.714 2.289
8.318 3.995 2.332
8.551 4.255 1.977
8.862 4.834 1.883
10.535 7.195 0.835
10.856 7.607 0.858
11.235 7.949 0.613
11.335 8.455 0.484
6.943 2.428 3.112
7.073 2.888 3.108
7.314 3.169 2.955
7.520 3.449 2.843
7.851 3.891 2.590
8.005 4.373 2.557
8.241 4.646 2.302
8.557 5.058 2.115
8.837 5.303 2.060
10.061 7.277 1.248
10.285 7.518 1.228
10.548 7.898 0.945
10.955 8.245 0.803
11.046 8.736 0.811
5.255 0.349 3.998
6.623 2.687 3.384
6.838 3.039 3.328
7.004 3.472 3.135
7.270 3.855 2.911
7.454 4.236 2.854
7.776 4.659 2.621
7.975 4.874 2.496
8.416 5.305 2.362
8.494 5.641 2.314
9.844 7.434 1.540
10.013 7.798 1.369
10.321 8.189 1.287
10.594 8.591 1.172
10.787 8.896 1.023
4.756 0.209 4.390
5.098 0.491 4.304
6.212 2.939 3.620
6.436 3.444 3.411
6.789 3.810 3.260
6.993 4.036 3.097
7.170 4.412 3.150
7.569 4.865 3.014
7.862 5.276 2.714
8.014 5.549 2.609
8.239 5.958 2.527
9.419 7.872 1.678
9.693 8.126 1.717
10.040 8.486 1.484
10.365 8.791 1.322
10.468 9.141 1.203
4.178 0.138 4.768
4.447 0.424 4.588
4.863 0.833 4.457
11.369 0.173 0.459
11.515 0.454 0.201
11.675 0.889 0.170
10.918 0.285 0.618
11.298 0.783 0.345
11.523 1.170 0.284
11.679 1.544 0.209
12.065 1.841 -0.047
10.369 0.195 0.908
10.792 0.731 0.723
10.905 0.974 0.744
11.136 1.481 0.585
11.429 1.702 0.444
10.503 0.933 1.084
10.674 1.317 0.872
10.833 1.569 0.859
8.410 2.853 2.714
8.671 3.224 2.536
8.922 3.617 2.482
11.787 7.729 0.779
11.869 8.153 0.628
7.572 2.525 3.252
7.844 2.803 3.046
8.172 3.202 2.808
8.441 3.569 2.742
8.629 3.978 2.593
8.970 4.338 2.551
11.137 7.501 1.267
11.415 7.934 1.051
11.573 8.247 0.874
7.359 2.853 3.317
7.713 3.186 3.376
7.956 3.536 3.033
8.088 3.931 2.987
8.458 4.321 2.730
8.528 4.565 2.678
8.909 5.069 2.460
10.556 7.625 1.460
10.932 7.868 1.497
11.197 8.311 1.212
11.435 8.662 1.069
6.804 2.729 3.765
7.036 2.999 3.586
7.336 3.518 3.497
7.566 3.800 3.349
7.875 4.209 3.217
8.119 4.531 3.023
8.304 4.798 2.876
8.574 5.330 2.834
10.309 7.816 1.677
10.625 8.160 1.608
10.890 8.598 1.404
10.981 8.946 1.338
5.118 0.113 4.699
5.210 0.440 4.576
6.749 3.446 3.873
7.139 3.763 3.790
7.337 4.069 3.657
7.592 4.428 3.404
7.813 4.747 3.228
7.950 5.114 3.251
8.208 5.539 3.088
9.945 8.057 1.940
10.402 8.401 1.880
10.482 8.807 1.721
10.795 9.112 1.492
4.594 0.181 5.077
4.759 0.448 5.037
12.012 0.021 0.310
12.352 0.554 0.326
11.479 0.096 0.666
11.886 0.311 0.600
12.081 0.677 0.451
12.197 1.182 0.389
12.510 1.489 0.081
11.329 0.314 0.930
11.437 0.615 0.821
11.670 1.070 0.701
12.107 1.327 0.466
10.710 0.193 1.350
11.008 0.671 1.294
11.327 0.993 1.043
11.396 1.348 0.887
11.804 1.626 0.704
10.699 0.920 1.518
10.844 1.315 1.331
8.658 2.899 3.127
8.980 3.203 2.915
12.189 8.090 1.080
8.058 2.883 3.333
8.439 3.195 3.200
8.588 3.499 3.214
8.852 3.819 3.089
9.167 4.342 2.887
11.480 7.505 1.444
11.569 7.856 1.380
11.922 8.309 1.237
7.616 2.683 3.738
7.876 3.067 3.550
8.140 3.497 3.476
8.404 3.786 3.324
8.659 4.141 3.201
8.835 4.611 3.165
11.114 7.757 1.678
11.442 8.139 1.593
11.554 8.479 1.432
7.276 2.999 4.068
7.632 3.441 3.928
7.944 3.821 3.776
8.023 4.085 3.670
8.337 4.534 3.479
8.496 4.910 3.370
8.822 5.252 3.084
10.697 7.868 2.065
10.921 8.077 2.076
10.994 8.472 1.871
11.401 8.785 1.725
5.348 0.232 5.092
6.974 3.366 4.335
7.363 3.685 4.005
7.483 4.077 3.920
7.780 4.331 3.849
8.062 4.733 3.579
8.388 5.245 3.579
8.546 5.513 3.366
10.257 8.175 2.433
10.651 8.416 2.127
10.885 8.692 2.013
11.034 9.114 1.917
4.797 0.048 5.486
5.069 0.416 5.425
12.272 0.066 0.740
11.758 -0.066 1.073
12.068 0.319 1.028
12.297 0.679 0.847
11.433 0.183 1.329
11.764 0.563 1.249
11.995 1.086 1.083
12.389 1.294 0.926
10.971 0.237 1.658
11.159 0.634 1.603
11.420 0.971 1.377
11.690 1.401 1.189
12.051 1.754 1.043
11.059 0.847 1.899
11.235 1.145 1.667
9.016 2.966 3.335
9.318 3.175 3.315
12.408 8.059 1.497
8.423 2.795 3.745
8.700 3.063 3.586
8.850 3.626 3.434
9.253 3.800 3.262
9.450 4.203 3.122
11.631 7.562 1.819
11.851 7.940 1.683
12.189 8.259 1.521
7.883 2.623 4.174
8.254 3.159 4.021
8.376 3.422 3.969
8.668 3.845 3.764
8.848 4.077 3.648
9.160 4.465 3.554
11.306 7.723 2.114
11.582 8.268 2.015
11.958 8.466 1.917
7.588 3.016 4.427
7.767 3.299 4.241
8.025 3.785 4.207
8.369 4.191 3.946
8.552 4.395 3.837
8.842 4.752 3.634
9.106 5.182 3.544
10.920 7.644 2.468
11.172 8.105 2.370
11.400 8.450 2.263
11.544 8.899 2.052
5.543 0.128 5.529
7.252 3.220 4.685
7.645 3.621 4.448
7.777 4.046 4.424
8.065 4.298 4.180
8.238 4.670 4.150
8.472 5.060 3.886
8.748 5.395 3.663
10.666 8.108 2.693
10.775 8.436 2.660
10.995 8.843 2.553
11.416 9.216 2.209
5.148 0.019 5.880
5.256 0.442 5.727
12.265 0.293 1.404
11.772 0.312 1.708
12.027 0.724 1.601
12.252 0.900 1.335
12.586 1.334 1.235
11.227 0.173 2.095
11.569 0.466 2.022
11.742 0.837 1.913
12.122 1.286 1.653
12.368 1.599 1.604
11.168 0.873 2.275
11.400 1.277 1.982
11.753 1.666 1.896
9.313 2.770 3.862
9.459 3.312 3.742
9.683 3.509 3.559
12.517 7.610 1.831
8.364 2.405 4.338
8.690 2.841 4.111
9.054 3.032 3.977
9.100 3.459 3.833
9.390 3.842 3.787
9.734 4.328 3.578
12.005 7.579 2.357
12.246 7.831 2.087
12.389 8.209 1.925
8.064 2.636 4.588
8.370 3.084 4.335
8.597 3.380 4.275
8.932 3.671 4.117
9.211 4.150 4.002
9.467 4.433 3.875
9.725 4.826 3.723
11.320 7.401 2.592
11.749 7.735 2.629
12.026 8.206 2.271
12.284 8.564 2.331
7.666 2.529 4.983
7.792 3.059 4.763
8.130 3.328 4.622
8.390 3.712 4.475
8.525 4.171 4.442
8.958 4.463 4.187
9.085 4.880 4.155
9.313 5.245 3.978
11.117 7.813 2.866
11.405 8.069 2.736
11.548 8.487 2.705
11.801 8.720 2.391
5.885 0.164 6.012
6.189 0.453 5.724
7.619 3.263 4.978
7.905 3.693 4.757
8.133 4.068 4.732
8.247 4.256 4.482
8.657 4.685 4.534
8.831 4.973 4.232
9.193 5.435 4.050
10.812 7.989 3.183
11.079 8.426 2.889
11.455 8.779 2.883
11.704 9.140 2.747
5.575 0.416 6.179
12.051 0.257 2.150
12.234 0.528 1.900
11.569 0.158 2.533
11.881 0.421 2.411
11.944 0.951 2.283
12.206 1.193 1.975
12.509 1.627 1.790
11.169 0.378 2.687
11.432 0.789 2.480
11.692 1.228 2.346
11.974 1.581 2.217
12.239 1.847 2.237
11.240 1.034 2.792
11.524 1.410 2.599
11.800 1.805 2.449
9.799 2.414 4.045
10.097 2.970 3.717
10.324 3.269 3.739
9.318 2.330 4.261
9.549 2.836 4.074
9.685 3.274 4.136
10.030 3.580 3.935
10.342 3.954 3.726
12.584 7.080 2.490
8.757 2.327 4.713
8.900 2.643 4.508
9.282 3.050 4.461
9.366 3.508 4.345
9.686 3.882 4.158
9.996 4.078 3.867
10.265 4.559 3.865
12.024 7.171 2.918
12.217 7.568 2.713
12.455 7.798 2.510
8.087 2.213 5.110
8.517 2.650 4.992
8.654 2.930 4.715
9.004 3.309 4.672
9.143 3.816 4.479
9.432 4.149 4.283
9.743 4.471 4.234
9.874 4.827 4.114
10.099 5.307 3.855
11.467 7.109 3.265
11.685 7.352 2.993
11.982 7.694 2.853
12.272 8.152 2.650
12.392 8.563 2.517
6.719 -0.003 5.893
7.854 2.640 5.271
8.132 2.984 5.149
8.405 3.220 4.925
8.620 3.693 4.918
8.910 3.928 4.629
9.232 4.433 4.530
9.316 4.727 4.409
9.611 5.110 4.319
9.958 5.543 4.165
11.157 7.344 3.320
11.324 7.768 3.233
11.657 8.039 3.055
11.963 8.471 2.888
12.077 8.819 2.747
6.137 -0.080 6.213
6.369 0.368 6.223
7.512 2.850 5.614
7.761 3.191 5.378
8.011 3.486 5.169
8.327 3.901 5.083
8.666 4.403 4.892
8.958 4.644 4.746
9.146 5.054 4.673
9.276 5.380 4.549
9.554 5.759 4.301
10.938 7.618 3.668
11.202 8.059 3.600
11.418 8.431 3.266
11.600 8.747 3.160
11.768 8.973 3.161
5.943 0.381 6.542
6.060 0.710 6.475
12.249 0.146 2.565
11.849 0.010 2.761
12.160 0.365 2.728
12.319 0.898 2.489
12.471 1.162 2.403
11.278 0.066 3.324
11.461 0.494 3.048
11.859 0.776 3.021
11.938 1.062 2.742
12.353 1.448 2.749
12.497 1.826 2.438
11.217 0.785 3.331
11.441 0.985 3.114
11.691 1.378 3.095
11.925 1.698 2.814
12.270 2.171 2.798
11.169 1.336 3.296
11.360 1.688 3.256
11.634 2.153 3.067
10.915 1.516 3.591
11.086 1.932 3.476
10.555 1.836 3.835
10.781 2.356 3.633
10.337 2.150 4.149
10.665 2.597 3.939
10.769 3.004 3.740
9.864 2.193 4.532
9.963 2.519 4.264
10.322 2.811 4.138
10.614 3.160 3.975
10.893 3.609 3.835
9.300 2.116 4.809
9.493 2.492 4.778
9.788 2.877 4.459
10.090 3.144 4.361
10.291 3.397 4.159
10.520 3.901 4.199
10.851 4.181 3.908
12.488 6.714 2.943
8.728 1.991 5.325
9.078 2.310 5.051
9.142 2.763 5.012
9.467 3.140 4.673
9.672 3.373 4.617
9.910 3.892 4.533
10.246 4.118 4.407
10.404 4.491 4.260
10.758 4.918 3.960
11.925 6.644 3.320
12.179 7.062 3.186
12.427 7.416 3.008
8.096 1.808 5.630
8.560 2.142 5.416
8.604 2.573 5.309
8.860 2.988 5.169
9.180 3.387 5.032
9.376 3.804 4.923
9.805 4.108 4.642
9.930 4.498 4.682
10.244 4.887 4.356
10.458 5.071 4.317
10.787 5.585 4.099
11.412 6.662 3.795
11.719 6.890 3.560
11.874 7.363 3.331
12.250 7.790 3.372
12.547 8.085 3.165
6.924 0.055 6.234
7.162 0.521 6.234
7.421 1.428 6.158
7.672 1.839 5.870
7.925 2.202 5.768
8.104 2.630 5.673
8.447 2.948 5.486
8.602 3.159 5.390
8.912 3.554 5.299
9.151 3.888 4.996
9.490 4.460 4.941
9.776 4.808 4.845
10.013 5.108 4.728
10.146 5.550 4.596
10.337 5.776 4.425
10.691 6.249 4.194
10.946 6.504 4.098
11.165 6.952 3.941
11.370 7.379 3.834
11.590 7.541 3.662
11.891 7.938 3.496
12.209 8.373 3.438
12.498 8.751 3.226
6.664 0.249 6.613
6.836 0.665 6.405
7.063 1.034 6.217
7.380 1.344 6.203
7.298 2.014 6.219
7.636 2.485 5.987
7.816 2.807 5.966
8.240 3.268 5.701
8.348 3.493 5.574
8.704 4.024 5.420
8.933 4.218 5.304
9.145 4.743 5.111
9.294 5.026 5.026
9.661 5.313 4.853
9.994 5.826 4.694
10.158 6.082 4.566
10.306 6.575 4.493
10.694 6.776 4.216
10.967 7.109 4.112
11.124 7.476 4.014
11.442 7.943 3.869
11.645 8.286 3.709
11.897 8.743 3.618
12.049 8.991 3.451
6.049 0.347 7.006
6.346 0.618 6.736
6.627 1.100 6.560
6.921 1.350 6.449
12.171 0.089 3.323
12.432 0.459 3.090
11.734 0.264 3.365
12.049 0.658 3.425
12.391 1.168 3.207
12.464 1.410 3.089
11.259 0.282 3.800
11.514 0.733 3.688
11.743 1.024 3.476
12.099 1.445 3.455
12.315 1.642 3.305
12.601 2.189 3.045
10.909 0.593 3.995
11.283 0.962 3.996
11.382 1.207 3.755
11.678 1.715 3.684
12.077 2.033 3.452
12.213 2.350 3.241
10.971 1.128 4.045
11.134 1.686 3.906
11.524 1.840 3.873
11.738 2.366 3.669
11.904 2.625 3.620
10.718 1.576 4.450
10.971 1.795 4.336
11.079 2.247 4.082
11.380 2.627 4.051
11.639 2.945 3.740
10.151 1.491 4.675
10.274 1.877 4.671
10.688 2.130 4.468
10.949 2.545 4.391
11.024 2.888 4.147
11.413 3.209 4.076
9.720 1.696 4.915
10.052 2.089 4.811
10.376 2.450 4.700
10.533 2.909 4.576
10.881 3.280 4.476
11.092 3.581 4.246
11.315 3.907 4.076
9.198 1.625 5.277
9.634 1.897 5.284
9.848 2.470 5.035
10.148 2.804 4.877
10.193 3.013 4.809
10.551 3.502 4.582
10.787 3.920 4.468
11.075 4.288 4.423
11.333 4.466 4.100
12.634 6.444 3.556
8.443 1.212 5.804
8.767 1.586 5.700
8.922 1.911 5.520
9.319 2.336 5.346
9.482 2.587 5.401
9.676 3.036 5.242
9.943 3.459 5.018
10.205 3.741 4.788
10.476 4.122 4.819
10.695 4.454 4.502
10.948 4.780 4.501
11.287 5.145 4.235
11.431 5.499 4.078
11.857 6.006 3.982
11.922 6.231 3.915
12.309 6.642 3.778
12.537 7.047 3.582
7.845 0.127 6.318
8.001 0.528 6.088
7.999 1.166 6.249
8.218 1.592 6.067
8.408 1.883 5.911
8.805 2.105 5.751
9.003 2.481 5.716
9.204 2.868 5.463
9.389 3.323 5.424
9.680 3.634 5.316
9.994 4.086 5.189
10.159 4.477 4.939
10.411 4.808 4.725
10.799 5.133 4.587
10.930 5.438 4.557
11.207 5.843 4.402
11.573 6.223 4.183
11.666 6.483 4.095
11.914 6.914 3.920
12.306 7.277 3.812
12.546 7.736 3.735
7.174 -0.065 6.592
7.497 0.484 6.607
7.806 0.751 6.486
8.016 1.088 6.337
7.741 1.416 6.575
8.045 1.797 6.359
8.202 2.124 6.273
8.371 2.480 6.104
8.717 2.887 5.811
8.924 3.137 5.874
9.112 3.535 5.572
9.433 4.022 5.526
9.726 4.342 5.396
9.895 4.636 5.285
10.175 5.140 5.081
10.420 5.429 4.873
10.728 5.804 4.854
11.028 6.124 4.501
11.265 6.546 4.568
11.353 6.815 4.341
11.796 7.281 4.115
12.009 7.566 4.028
12.255 7.902 3.802
12.540 8.332 3.835
7.042 0.220 6.906
7.251 0.749 6.849
7.523 1.049 6.526
7.732 1.420 6.471
7.384 1.696 6.779
7.623 2.140 6.472
7.894 2.319 6.415
8.090 2.835 6.349
8.495 3.097 6.150
8.752 3.549 5.930
8.884 3.787 5.916
9.114 4.170 5.664
9.446 4.586 5.620
9.751 5.051 5.404
9.858 5.340 5.300
10.121 5.799 5.148
10.393 6.141 5.010
10.623 6.468 4.942
10.941 6.895 4.611
11.121 7.129 4.491
11.448 7.470 4.466
11.644 7.829 4.282
11.979 8.158 4.124
12.161 8.613 3.974
12.400 9.021 3.929
6.398 0.209 7.347
6.695 0.598 7.182
6.943 0.992 7.031
7.151 1.225 6.860
7.402 1.771 6.689
12.411 -0.046 3.681
12.056 0.248 3.838
12.251 0.729 3.700
12.483 0.980 3.510
11.544 0.267 4.244
11.670 0.658 4.011
11.995 1.030 3.963
12.222 1.295 3.691
12.446 1.605 3.726
11.313 0.582 4.489
11.493 0.862 4.373
11.784 1.216 4.061
12.045 1.664 3.912
12.143 2.036 3.834
12.396 2.351 3.652
10.907 0.756 4.677
11.304 1.161 4.466
11.444 1.653 4.444
11.671 1.917 4.347
12.018 2.292 4.139
12.125 2.704 4.059
10.681 1.008 5.012
10.962 1.380 4.706
11.083 1.787 4.682
11.436 2.283 4.398
11.565 2.646 4.230
11.919 2.921 4.135
10.314 1.300 5.065
10.552 1.751 4.992
10.933 2.158 4.776
11.114 2.449 4.739
11.416 2.890 4.597
11.730 3.229 4.339
11.793 3.529 4.327
9.749 1.313 5.474
10.060 1.620 5.359
10.450 1.947 5.276
10.576 2.365 5.148
10.943 2.844 4.890
11.015 3.109 4.696
11.310 3.586 4.700
11.706 3.793 4.447
11.769 4.208 4.317
9.350 1.292 5.985
9.551 1.659 5.633
9.906 2.076 5.524
10.092 2.243 5.359
10.304 2.678 5.387
10.513 3.056 5.252
10.808 3.403 4.972
10.962 3.867 4.872
11.401 4.225 4.726
11.489 4.422 4.605
11.752 4.796 4.402
8.421 0.796 6.343
8.731 1.166 6.225
9.026 1.427 6.097
9.276 1.858 5.992
9.575 2.150 5.808
9.879 2.643 5.727
10.021 3.035 5.477
10.322 3.317 5.347
10.575 3.795 5.224
10.880 4.057 5.208
10.990 4.448 4.851
11.208 4.838 4.871
11.555 5.240 4.612
11.869 5.509 4.607
12.069 5.941 4.399
12.220 6.158 4.145
12.568 6.695 4.197
8.037 0.004 6.597
8.226 0.349 6.480
8.599 0.707 6.381
8.300 1.021 6.734
8.474 1.448 6.451
8.757 1.776 6.358
8.991 2.214 6.157
9.322 2.447 6.136
9.390 2.907 5.930
9.762 3.343 5.781
9.894 3.720 5.529
10.277 3.966 5.520
10.600 4.410 5.380
10.771 4.691 5.114
11.065 5.011 5.062
11.181 5.514 4.965
11.489 5.759 4.846
11.764 6.187 4.621
12.070 6.490 4.455
12.173 7.000 4.299
12.437 7.197 4.199
7.839 0.367 6.977
7.920 0.752 6.836
8.152 1.050 6.611
7.928 1.276 6.824
8.292 1.825 6.702
8.454 2.137 6.607
8.634 2.415 6.476
9.016 2.880 6.373
9.111 3.247 6.126
9.445 3.609 5.961
9.623 3.896 5.870
9.936 4.293 5.676
10.232 4.581 5.636
10.496 4.987 5.386
10.642 5.433 5.232
10.923 5.637 5.092
11.162 6.194 5.070
11.461 6.427 4.825
11.807 6.847 4.662
11.905 7.245 4.527
12.244 7.584 4.313
12.558 7.970 4.235
7.099 0.286 7.320
7.527 0.612 7.089
7.662 0.969 6.962
8.061 1.473 6.782
7.623 1.678 7.189
7.826 2.103 7.032
8.240 2.410 6.714
8.424 2.780 6.587
8.637 3.036 6.448
8.945 3.491 6.293
9.071 3.784 6.228
9.342 4.317 6.187
9.779 4.494 6.042
9.958 4.870 5.829
10.246 5.365 5.588
10.465 5.705 5.597
10.600 6.035 5.420
10.860 6.316 5.315
11.089 6.847 5.117
11.515 7.022 4.960
11.699 7.420 4.824
11.915 7.887 4.546
12.184 8.173 4.425
12.468 8.492 4.323
6.600 0.266 7.660
6.897 0.511 7.486
7.068 0.927 7.448
7.487 1.340 7.244
7.731 1.722 7.001
12.420 0.213 4.113
11.857 0.115 4.676
12.046 0.570 4.439
12.375 0.852 4.196
12.482 1.222 4.116
11.187 0.089 4.895
11.610 0.394 4.917
11.764 0.889 4.632
12.031 1.174 4.442
12.209 1.673 4.346
12.404 1.938 4.137
11.243 0.720 4.998
11.528 1.140 4.822
11.713 1.588 4.719
11.950 1.844 4.710
12.150 2.280 4.415
12.443 2.579 4.238
10.944 1.004 5.256
11.237 1.450 5.049
11.548 1.751 4.891
11.588 2.147 4.813
11.950 2.623 4.814
12.266 2.910 4.502
12.396 3.154 4.409
10.330 0.940 5.704
10.547 1.374 5.475
10.913 1.665 5.322
11.064 2.119 5.320
11.347 2.501 4.978
11.551 2.778 4.895
11.923 3.084 4.773
12.114 3.437 4.738
10.032 1.231 5.909
10.355 1.545 5.694
10.579 2.020 5.628
10.946 2.371 5.491
11.102 2.821 5.302
11.436 3.018 5.199
11.571 3.382 5.060
11.963 3.862 4.870
12.194 4.299 4.735
9.183 0.382 6.619
9.302 0.765 6.480
9.628 1.295 6.314
9.742 1.529 6.222
10.158 1.988 6.059
10.250 2.330 5.917
10.483 2.562 5.631
10.779 3.130 5.500
11.003 3.344 5.342
11.250 3.847 5.188
11.630 4.101 5.041
11.894 4.577 5.034
12.073 4.839 4.895
12.278 5.282 4.737
8.935 0.174 6.776
9.147 0.446 6.459
8.891 0.706 6.787
9.061 1.130 6.604
9.218 1.399 6.552
9.651 1.758 6.344
9.706 2.295 6.226
9.954 2.681 6.164
10.268 2.956 5.921
10.569 3.205 5.730
10.817 3.656 5.599
11.087 4.111 5.430
11.278 4.367 5.331
11.476 4.783 5.114
11.728 5.079 5.038
12.043 5.417 4.870
12.367 5.764 4.752
12.584 6.292 4.524
8.342 0.051 6.974
8.640 0.363 6.995
8.703 0.732 6.771
8.590 0.975 7.073
8.823 1.410 6.896
8.970 1.754 6.736
9.237 2.233 6.563
9.622 2.598 6.370
9.666 2.812 6.214
10.122 3.298 6.220
10.201 3.690 6.064
10.475 3.861 5.817
10.856 4.367 5.714
11.057 4.625 5.585
11.319 5.002 5.518
11.496 5.420 5.342
11.836 5.714 5.119
11.925 6.163 4.892
12.377 6.545 4.859
12.550 6.832 4.685
8.061 0.247 7.375
8.365 0.619 7.199
8.519 1.019 6.988
8.243 1.351 7.151
8.558 1.707 7.075
8.710 2.167 6.891
8.998 2.468 6.800
9.328 2.762 6.717
9.465 3.130 6.456
9.676 3.456 6.299
9.930 3.870 6.258
10.190 4.351 6.008
10.590 4.685 5.945
10.759 4.888 5.851
10.920 5.437 5.672
11.310 5.697 5.584
11.385 6.171 5.351
11.822 6.371 5.242
11.889 6.855 5.125
12.142 7.172 4.923
12.447 7.632 4.823
