1.273 0.422 5.128
1.330 0.683 4.498
1.448 0.989 4.318
1.220 0.755 3.586
1.194 1.008 3.602
1.034 1.339 2.828
1.141 1.176 2.369
0.791 1.349 2.433
0.506 1.405 1.698
0.829 1.476 1.538
0.624 1.620 0.819
2.040 0.096 5.324
1.895 0.282 4.839
1.451 0.419 4.282
1.715 0.220 4.173
1.285 0.372 3.826
1.622 0.961 3.242
1.575 0.983 2.974
0.983 0.955 2.641
0.907 1.372 1.953
1.092 1.351 1.759
0.933 1.400 1.196
0.990 1.660 0.696
1.962 0.220 4.398
1.821 0.410 3.996
1.907 0.392 3.708
1.481 0.263 2.844
1.702 0.392 2.490
1.258 0.545 2.049
1.402 0.678 2.066
1.532 0.964 1.636
1.354 1.250 1.144
0.929 1.474 0.624
0.452 0.977 8.387
0.136 0.770 8.069
0.167 0.971 7.615
0.505 0.634 8.503
0.320 0.753 8.032
0.395 0.722 7.633
0.621 0.655 7.419
0.352 0.963 6.982
0.410 0.949 6.723
0.053 1.439 6.109
0.797 0.224 8.460
1.078 0.331 7.966
0.631 0.447 7.720
0.581 0.573 7.147
0.347 0.812 6.929
0.596 0.770 6.218
0.175 0.792 5.978
0.439 0.910 5.580
1.117 -0.123 7.597
0.814 0.441 7.295
0.929 0.597 6.798
0.811 0.536 6.377
0.481 0.759 6.038
0.559 0.789 5.220
0.705 0.819 5.048
0.021 1.473 3.231
0.239 1.321 2.667
1.176 0.203 6.569
0.864 0.281 6.135
0.722 0.301 5.623
0.763 0.586 5.428
0.614 0.420 4.726
0.655 0.575 4.331
0.443 0.806 4.185
0.359 0.939 3.424
0.290 1.014 3.214
0.271 1.222 2.655
0.257 1.235 2.132
0.211 1.451 2.128
-0.125 1.575 1.411
1.523 0.034 5.220
1.422 0.272 5.158
1.346 0.525 4.545
0.807 0.482 4.124
0.793 0.734 3.982
0.955 0.574 3.577
0.946 0.620 3.219
0.596 0.726 2.529
0.261 1.147 2.055
0.605 1.091 1.585
0.490 1.521 1.394
0.047 1.513 1.030
1.578 0.081 4.280
1.074 0.344 4.322
1.231 0.219 3.614
1.218 0.606 3.313
0.981 0.662 2.869
1.158 0.414 2.199
0.820 0.733 2.050
0.520 0.814 1.484
0.736 0.982 1.144
0.652 1.397 0.806
1.159 0.290 2.660
1.283 0.131 2.164
1.007 0.573 1.571
0.885 0.714 1.237
1.129 0.625 0.733
1.061 1.180 0.806
0.019 0.461 8.383
0.020 0.289 7.847
-0.021 0.630 7.476
0.560 -0.031 7.653
0.598 0.444 7.082
0.483 0.348 6.794
0.329 0.274 6.322
0.111 0.366 5.929
0.370 0.087 6.878
0.332 0.434 6.436
0.352 0.092 5.826
0.466 0.657 5.208
0.739 -0.032 5.695
0.806 0.130 5.146
0.230 0.286 3.144
0.144 0.740 2.766
0.178 0.649 2.012
-0.030 1.151 1.946
0.770 0.194 2.583
0.742 0.325 2.188
0.182 0.512 1.739
0.031 0.985 1.377
0.101 0.678 0.795
0.842 0.067 2.154
0.556 0.047 1.810
0.846 0.142 1.356
0.409 0.579 1.222
0.742 0.364 0.468
0.344 0.346 1.902
-0.108 0.490 1.653
0.459 0.104 1.339
0.126 0.208 0.912
0.262 0.455 0.777
4.853 12.208 10.377
4.473 12.501 10.173
4.251 12.604 9.938
5.055 11.905 10.580
5.000 11.826 10.512
4.809 12.033 10.028
4.625 11.985 9.776
4.835 12.183 9.004
5.518 11.282 11.308
5.503 11.717 10.545
5.039 11.931 10.245
5.322 11.727 9.821
5.267 12.106 9.370
5.049 11.820 9.207
5.030 12.104 8.711
5.932 10.973 10.752
5.810 11.317 10.339
5.637 11.252 9.898
5.398 11.368 9.903
5.351 11.723 9.416
5.109 11.995 8.840
5.151 11.862 8.231
6.120 10.970 10.792
6.135 10.985 10.516
5.843 11.075 9.973
5.679 11.000 9.530
5.717 11.378 9.346
5.642 11.485 8.755
5.373 11.470 8.427
6.197 10.658 10.182
6.013 10.960 10.014
5.865 10.890 9.178
5.895 11.201 9.027
5.958 11.397 8.421
4.832 12.727 4.485
6.738 10.678 9.804
6.302 10.891 9.418
6.378 10.512 8.702
4.984 12.509 3.582
5.286 12.780 3.265
8.951 8.069 8.114
8.808 8.276 7.712
8.764 8.331 7.610
7.423 10.122 2.282
7.640 10.100 1.858
9.194 7.784 8.636
8.926 7.938 8.327
9.049 8.089 7.517
8.691 8.070 7.504
9.113 7.986 7.109
7.796 9.693 2.594
8.013 9.962 2.481
7.482 9.763 1.669
9.507 7.367 8.758
9.532 7.147 8.286
9.328 7.750 8.033
9.421 7.903 7.647
9.297 7.901 7.348
9.083 7.958 6.895
8.920 7.836 6.282
8.337 9.323 3.163
8.017 9.111 2.536
8.314 9.478 1.972
7.798 9.832 1.862
10.393 6.170 12.490
10.202 6.228 12.353
9.780 6.768 8.433
9.965 7.331 8.213
9.868 7.113 7.847
9.432 7.588 7.221
9.461 7.620 7.076
9.282 7.562 6.601
9.545 7.881 6.155
8.500 8.829 2.699
8.305 8.850 2.435
8.564 9.199 2.002
8.456 9.082 1.599
10.915 5.917 12.459
10.554 5.711 12.011
10.305 6.437 8.655
10.091 7.019 7.907
9.989 6.775 7.469
9.712 6.913 7.429
9.881 7.148 7.057
9.753 7.448 6.385
9.542 7.415 5.790
9.104 8.847 2.481
8.991 8.943 1.985
8.656 8.983 1.996
8.523 8.728 1.553
11.349 5.282 12.128
11.142 5.848 11.779
10.171 6.345 7.696
10.455 6.729 7.660
10.190 6.639 7.015
10.113 6.858 6.673
10.036 7.160 6.175
8.917 8.617 2.310
9.067 8.580 1.452
8.617 8.489 1.475
11.536 4.839 12.670
11.584 4.987 11.910
4.205 11.941 10.449
4.395 12.216 10.409
4.405 12.122 9.552
4.724 11.350 10.870
4.454 11.872 10.213
4.834 11.757 10.153
4.260 12.101 9.635
4.320 12.128 8.904
5.396 11.161 11.077
5.322 11.309 10.825
4.793 11.176 10.114
4.614 11.722 10.027
4.916 11.774 9.363
4.908 11.992 8.956
4.847 11.873 8.366
5.512 10.957 10.969
5.605 10.971 10.350
5.352 11.221 9.839
5.232 11.106 9.576
4.894 11.086 9.082
4.963 11.515 8.775
4.792 11.609 8.364
5.685 10.370 10.532
5.503 10.797 10.335
5.664 10.557 9.835
5.569 11.128 9.693
5.349 11.220 9.146
5.214 11.018 8.834
5.235 11.469 8.367
4.469 12.259 5.080
4.191 12.431 4.665
5.736 10.458 10.392
5.705 10.705 9.622
6.003 10.372 9.349
5.721 10.741 9.048
5.372 10.873 8.622
4.622 12.241 4.418
4.660 12.593 3.901
4.567 12.719 3.236
5.976 10.052 9.394
6.161 10.470 9.251
5.871 10.243 8.966
4.923 12.157 3.688
4.545 12.214 3.163
8.589 7.818 8.339
8.262 7.898 7.662
8.477 8.077 7.532
7.207 9.759 2.599
6.886 9.970 1.937
9.111 7.293 8.620
8.655 7.739 7.920
8.674 7.541 7.787
8.363 7.930 7.193
8.716 8.133 6.621
7.747 9.262 2.613
7.224 9.208 2.396
7.329 9.609 1.901
9.105 6.934 8.965
9.183 7.355 8.350
9.268 6.979 7.847
9.144 7.113 7.558
9.051 7.293 7.131
8.720 7.752 6.462
8.531 7.512 6.405
7.984 8.656 2.758
7.898 9.089 2.730
7.957 9.139 1.867
7.483 9.243 1.857
10.424 5.722 12.556
10.310 5.623 12.350
9.573 6.742 8.415
9.287 6.580 8.210
9.604 6.757 7.834
9.106 6.827 7.167
9.258 7.290 6.811
9.318 7.162 6.477
8.863 7.312 5.992
8.462 8.497 2.711
8.116 8.480 2.589
7.840 8.743 2.157
7.954 9.158 1.366
10.666 5.357 12.440
10.577 5.605 12.045
9.766 6.441 8.271
9.583 6.463 8.109
9.637 6.603 7.715
9.831 6.571 7.406
9.263 6.832 6.613
9.541 7.262 6.255
9.406 7.354 5.689
8.446 8.168 2.579
8.382 8.285 2.225
8.345 8.446 2.019
8.039 8.588 1.342
10.838 5.171 12.213
10.680 5.269 11.715
10.352 6.066 7.775
10.081 6.145 7.620
10.156 6.640 6.927
10.018 6.841 6.635
9.733 6.596 6.151
8.505 8.280 1.812
8.464 8.455 1.527
8.720 8.229 1.061
11.260 4.726 12.705
11.138 4.692 12.004
4.463 12.606 3.049
6.959 9.988 1.363
7.175 9.623 1.529
7.391 9.955 1.271
7.769 9.593 1.161
7.540 9.461 0.922
7.403 9.693 0.548
7.694 9.003 1.252
7.719 9.053 0.589
7.936 9.289 0.270
7.944 8.829 1.079
8.298 8.846 0.599
7.792 9.077 0.129
8.222 8.361 0.595
8.128 8.581 0.097
4.113 12.575 3.023
3.713 12.353 2.531
4.339 12.277 2.869
6.800 9.643 1.812
7.070 9.462 1.253
7.066 9.628 1.173
7.138 9.248 1.308
6.929 9.039 0.951
7.222 9.502 0.146
7.411 8.940 1.080
7.330 9.196 0.553
7.322 8.981 0.289
7.603 8.598 1.071
7.654 8.550 0.472
7.914 8.638 0.324
8.335 8.084 0.734
8.011 8.118 0.137
3.273 12.138 3.307
3.035 12.575 2.789
3.876 11.778 2.881
3.690 12.223 2.716
3.413 12.551 2.195
3.708 11.753 2.947
3.659 12.053 2.539
6.091 9.183 1.416
6.013 9.430 1.278
6.536 8.815 1.573
6.455 8.962 0.797
6.206 9.141 0.397
6.869 8.640 1.270
6.822 9.104 0.937
6.984 9.284 0.422
7.268 8.741 0.792
7.029 8.787 0.606
6.961 8.745 -0.000
7.477 8.000 0.650
7.326 8.225 0.722
7.359 8.718 -0.155
7.856 7.776 0.734
7.971 7.864 0.256
2.545 12.222 3.485
2.834 12.526 2.785
2.780 12.360 2.669
2.976 12.132 3.115
3.183 12.046 2.543
2.636 12.441 2.271
2.714 12.484 1.857
3.604 11.774 2.794
3.205 11.632 2.333
3.296 11.839 2.366
3.166 11.965 1.516
3.791 11.334 2.946
3.401 11.412 2.298
3.452 11.630 2.261
4.082 11.183 2.756
3.796 11.299 2.295
5.592 9.566 1.714
5.604 9.742 1.028
6.078 8.834 1.395
5.925 9.308 1.145
5.853 9.456 0.765
6.204 8.949 1.549
6.359 9.085 0.884
6.306 8.834 0.551
6.051 9.011 0.030
6.376 8.279 1.406
6.415 8.769 0.616
6.452 8.642 0.353
7.067 8.289 0.780
6.685 8.167 0.452
6.762 8.608 -0.058
7.360 7.644 0.701
6.974 8.249 0.704
7.084 8.223 -0.113
7.322 7.332 0.592
7.266 7.825 0.475
2.177 12.240 3.416
2.091 12.605 3.079
1.832 12.810 2.800
2.310 11.736 3.217
2.295 12.046 3.025
2.402 12.249 2.680
2.029 12.391 1.971
2.202 12.286 1.774
2.113 12.760 0.520
2.535 11.923 3.174
2.894 11.580 2.476
2.316 11.853 2.491
2.560 12.157 1.967
2.123 12.007 1.689
2.188 12.385 0.961
2.361 12.738 0.885
3.081 11.577 2.992
2.930 11.381 2.689
3.008 11.415 2.219
2.676 11.567 1.725
2.696 11.779 1.207
3.360 11.074 2.550
3.331 11.122 2.220
2.882 11.239 2.134
3.208 11.658 1.400
3.413 10.736 2.830
3.573 11.201 2.442
3.203 11.261 1.713
3.927 10.515 2.346
3.993 10.507 2.222
4.437 10.311 2.177
4.677 9.947 2.250
4.582 9.448 2.208
4.965 9.145 1.990
5.007 9.256 1.661
5.128 8.923 1.515
5.144 9.216 1.296
5.177 9.050 0.760
5.781 8.557 1.248
5.640 8.764 1.057
5.304 9.033 0.585
5.405 8.894 0.417
5.744 8.323 1.415
5.790 8.645 0.863
5.599 8.678 0.281
5.609 8.845 0.022
6.165 8.334 1.168
6.195 8.168 0.950
6.347 8.414 0.364
6.738 7.665 0.923
6.464 8.168 0.327
6.571 8.244 0.422
6.752 7.431 0.772
6.678 7.917 0.685
6.819 8.082 0.239
7.074 7.022 0.494
6.858 7.635 0.276
1.116 12.640 3.850
1.609 12.100 3.498
1.539 12.415 3.065
1.103 12.397 2.982
1.733 12.059 3.562
1.750 11.996 3.057
1.542 12.236 2.545
1.325 12.474 1.965
1.622 12.693 1.712
1.537 12.370 0.745
2.176 11.561 3.532
1.994 11.649 2.856
2.097 11.775 2.576
1.891 12.003 1.802
1.630 12.070 1.730
1.885 12.330 1.269
1.690 12.708 0.735
1.757 11.989 0.420
1.629 12.487 0.136
2.408 11.388 3.366
2.372 11.645 2.577
2.216 11.836 2.173
1.938 11.521 1.841
2.013 11.875 1.610
2.117 12.138 0.769
1.878 11.949 0.667
1.913 12.025 0.430
2.091 11.942 -0.176
2.573 11.160 2.931
2.478 11.479 2.608
2.510 11.435 2.367
2.636 11.684 1.896
2.281 11.677 1.446
2.321 11.933 1.099
2.204 11.855 0.230
3.022 10.921 2.777
2.992 10.926 2.503
2.915 10.994 1.892
2.544 11.395 1.617
2.747 11.321 0.869
3.469 10.333 2.819
3.230 10.683 2.268
2.990 10.940 1.853
2.945 11.010 1.285
3.624 10.290 2.376
3.658 10.458 2.154
3.424 10.434 1.536
3.686 10.053 2.525
4.049 9.967 1.658
3.986 9.439 2.286
4.246 9.616 1.831
4.216 9.478 1.917
4.409 9.303 1.343
4.669 9.282 1.756
4.728 9.417 1.461
4.395 9.379 1.114
5.069 8.884 1.642
5.056 8.944 1.132
4.859 9.019 0.917
4.870 9.276 0.456
5.479 8.685 1.643
5.079 8.420 1.126
4.997 8.831 0.408
5.270 9.046 0.428
5.905 7.999 1.254
5.645 8.320 1.093
5.246 8.157 0.536
5.181 8.753 0.201
6.224 7.637 1.097
5.977 8.085 0.778
5.512 8.248 0.124
6.278 7.514 1.030
6.121 7.869 0.333
5.897 8.087 0.314
6.819 7.319 0.702
6.378 7.320 0.156
6.974 6.778 0.658
6.767 7.188 0.442
0.496 12.373 3.854
0.836 12.368 3.877
0.539 12.261 3.378
0.483 12.274 2.820
1.180 11.847 3.706
1.282 12.261 3.027
0.743 12.154 2.562
1.068 12.275 2.082
0.579 12.284 1.753
1.091 12.294 0.727
1.557 11.922 3.354
1.189 11.713 3.183
1.407 12.153 2.512
1.164 11.807 2.009
1.072 12.156 1.483
1.183 12.508 1.389
0.776 12.269 0.759
0.995 11.936 0.895
0.957 12.422 0.339
2.043 11.229 3.350
1.921 11.232 2.622
1.755 11.674 2.582
1.648 11.759 1.833
1.335 11.887 1.632
1.377 11.967 1.289
1.099 12.399 0.479
1.621 11.857 0.540
1.507 11.883 0.177
1.994 10.917 3.323
1.767 11.383 2.808
1.950 11.586 2.365
1.667 11.703 2.054
1.643 11.651 1.195
1.747 11.674 1.020
1.579 12.054 0.736
1.796 11.671 0.620
1.744 11.795 -0.102
2.121 10.811 3.063
2.126 10.880 2.701
2.199 11.082 2.000
2.086 11.016 1.860
2.137 11.446 1.144
1.899 11.604 0.916
1.799 11.840 0.163
2.087 11.120 0.168
2.759 10.504 2.536
2.730 10.856 2.179
2.463 10.846 1.695
2.130 10.934 1.387
2.283 10.988 1.089
2.031 11.200 0.822
1.989 11.551 0.054
2.863 10.431 2.490
2.798 10.171 2.283
2.562 10.266 1.661
2.708 10.786 1.135
3.286 9.821 2.392
2.955 9.989 2.048
2.889 10.281 1.754
3.362 9.827 2.131
3.360 9.981 2.105
3.532 9.800 1.617
3.958 9.476 2.121
3.949 9.433 1.731
3.409 9.359 1.406
3.955 8.851 1.772
3.925 9.174 1.759
3.884 9.329 1.020
4.460 8.604 1.732
4.484 8.658 1.459
4.369 9.145 0.685
4.540 8.255 1.670
4.600 8.587 1.412
4.770 8.881 1.027
4.377 8.621 0.553
4.863 8.194 1.178
5.144 8.491 1.034
4.680 8.489 0.705
4.489 8.421 0.159
5.480 8.026 1.364
5.203 7.769 1.105
5.007 8.102 0.396
5.168 7.999 -0.161
5.565 7.646 1.198
5.345 7.713 0.474
5.403 7.646 0.418
5.924 7.254 1.001
5.985 7.478 0.367
5.795 7.289 -0.000
6.084 7.000 0.874
6.267 7.066 0.506
6.529 6.825 0.538
6.287 6.970 0.297
0.277 12.475 3.740
0.150 12.102 3.636
0.128 12.716 2.949
0.700 11.802 3.475
0.655 11.874 3.217
0.256 12.452 2.941
0.170 12.329 2.415
0.248 12.731 2.149
0.042 12.545 1.079
0.903 11.659 3.416
0.774 11.684 3.312
0.861 11.715 2.654
0.592 12.027 2.081
0.708 12.258 1.896
0.138 12.224 1.698
0.249 12.553 0.939
0.636 11.940 1.019
0.240 12.209 0.312
0.431 12.473 0.260
1.275 11.308 3.169
1.029 11.367 2.902
0.956 11.644 2.683
1.134 11.550 2.189
0.548 11.649 1.735
0.547 11.777 1.472
0.515 12.097 1.051
0.940 12.092 0.978
0.667 11.853 0.456
1.595 10.872 3.430
1.594 11.286 2.897
1.324 11.523 2.567
1.183 11.670 2.212
1.113 11.458 1.589
0.747 11.959 0.978
0.738 12.100 0.613
1.345 11.813 0.307
1.095 11.527 0.224
1.871 10.818 3.319
1.511 10.667 2.376
1.454 10.911 2.404
1.684 11.057 1.887
1.197 11.336 1.128
1.044 11.170 0.848
1.112 11.570 0.776
1.548 11.352 0.234
2.250 10.310 3.084
1.805 10.806 2.691
2.049 10.980 1.870
1.541 10.689 1.713
1.873 10.884 1.056
1.541 11.402 0.644
1.450 11.440 0.446
1.892 10.862 0.302
2.186 10.206 2.818
2.514 10.495 2.440
1.982 10.260 1.993
1.921 10.733 1.526
1.879 10.873 0.959
2.097 10.866 0.395
2.024 10.993 0.193
2.760 9.934 2.732
2.745 10.186 2.127
2.249 10.345 1.682
2.292 10.333 1.109
2.144 10.379 1.044
2.979 9.644 2.522
3.015 9.976 1.749
2.797 10.082 1.756
2.697 9.752 0.897
3.429 9.082 2.198
3.229 9.404 1.871
2.965 9.742 1.361
3.755 8.904 1.959
3.509 8.866 1.391
3.176 9.035 1.018
3.980 8.596 2.083
3.941 9.013 1.326
3.573 9.029 1.031
4.136 8.313 1.605
4.251 8.278 1.179
3.817 8.795 0.920
4.037 8.904 0.574
4.430 8.263 1.627
4.568 8.229 1.301
4.393 8.167 0.996
4.133 8.450 0.461
4.608 7.567 1.551
4.768 7.858 0.914
4.468 8.122 0.425
4.547 8.170 0.134
4.753 7.277 0.996
4.871 7.827 0.708
4.925 7.825 0.467
4.577 7.958 0.038
5.382 7.408 1.099
5.167 7.420 0.463
5.187 7.431 0.015
5.877 6.747 0.728
5.376 7.322 0.285
5.182 6.982 -0.140
5.677 6.752 0.833
5.775 6.602 0.561
6.259 6.442 0.807
6.268 6.472 0.097
0.354 11.787 3.926
0.295 11.681 3.254
-0.211 11.975 2.755
0.412 11.580 3.610
0.693 11.708 3.091
0.406 11.475 2.722
0.014 11.939 2.338
0.392 11.902 1.618
-0.199 11.837 1.375
0.353 11.687 1.059
-0.059 12.154 0.368
0.136 12.361 0.227
0.843 10.827 3.298
0.974 10.990 2.933
0.599 11.181 2.409
0.447 11.585 2.207
0.229 11.469 1.906
0.584 11.930 1.036
0.369 11.688 0.932
0.397 11.753 0.851
0.383 11.870 0.437
1.127 10.589 3.221
1.139 10.815 2.576
0.901 10.952 2.503
0.651 11.361 1.717
0.732 11.411 1.295
0.771 11.586 1.137
0.361 11.321 0.586
0.895 11.472 0.462
0.825 11.403 0.337
1.192 10.518 3.203
1.106 10.611 2.688
1.416 10.846 2.349
0.967 11.072 1.949
0.959 10.943 1.440
1.032 11.111 1.125
0.793 11.108 0.471
1.397 11.008 0.341
1.465 10.213 2.918
1.827 10.137 2.184
1.746 10.299 2.251
1.320 10.757 1.452
1.427 10.586 1.411
1.267 10.590 0.804
1.328 11.037 0.239
1.577 10.538 0.285
1.863 9.687 2.525
1.778 9.993 2.259
1.629 9.927 2.023
1.561 10.471 1.369
1.465 10.291 0.956
1.545 10.528 0.734
1.217 10.446 -0.040
2.074 9.318 2.619
2.448 9.646 2.354
2.012 9.961 1.540
1.933 10.203 1.340
2.831 9.376 2.182
2.695 9.241 1.964
2.304 9.725 1.757
2.665 8.787 1.957
2.588 8.856 1.633
2.843 9.385 1.188
3.081 8.507 2.148
3.313 8.625 1.710
3.186 8.831 1.213
3.414 8.305 1.671
3.637 8.360 1.676
3.571 8.719 0.919
3.863 7.836 1.669
3.460 8.261 1.196
3.513 8.424 1.067
3.997 7.602 1.467
3.746 8.169 1.022
3.983 8.162 0.698
3.748 8.212 0.342
4.196 7.732 1.583
4.426 7.843 1.172
4.427 7.897 0.793
4.049 7.765 -0.097
4.491 7.305 1.452
4.544 7.181 0.545
4.421 7.630 0.497
4.975 6.649 0.943
5.096 7.102 0.823
5.050 6.975 0.265
5.074 6.698 1.117
5.006 6.849 0.450
5.150 6.842 0.320
5.719 6.278 0.896
5.711 6.523 0.522
6.091 5.960 0.575
5.964 6.375 0.107
0.225 10.890 3.620
0.099 11.219 2.838
0.141 11.296 2.752
0.370 10.523 3.520
0.480 11.031 2.895
0.447 11.058 2.699
0.207 10.913 2.170
0.320 11.287 1.509
0.148 11.296 1.237
0.157 11.228 0.464
0.329 11.424 0.063
0.577 10.551 3.395
0.600 10.627 2.790
0.407 10.520 2.079
0.727 10.676 1.825
0.318 11.192 1.685
0.396 10.985 1.098
0.207 11.401 0.463
0.748 10.736 0.748
0.359 11.243 0.128
0.973 10.318 2.784
0.866 10.156 2.824
1.144 10.323 2.361
0.913 10.525 1.644
0.620 10.470 1.073
0.407 10.982 0.806
0.696 10.954 0.762
1.055 10.711 0.246
1.369 9.765 3.065
1.136 9.773 2.215
1.233 10.000 1.810
1.246 10.499 1.478
1.000 10.579 1.387
1.191 10.288 0.829
1.081 10.575 0.551
1.712 9.290 2.774
1.782 9.869 2.173
1.570 9.736 1.791
1.275 9.727 1.539
1.578 10.084 0.849
1.739 9.165 2.356
1.795 9.336 1.845
1.881 9.275 1.631
1.894 9.617 1.108
2.466 8.978 2.413
2.267 8.849 1.989
1.990 8.981 1.487
2.416 8.675 2.010
2.683 8.718 1.635
2.813 8.214 1.938
2.791 8.297 1.770
3.074 7.873 1.972
3.183 8.165 1.650
3.388 7.856 1.477
3.479 7.851 1.364
3.501 7.810 0.642
3.819 7.577 1.753
3.829 7.720 1.040
3.703 7.723 0.443
3.588 7.693 0.203
3.913 7.183 1.400
4.102 7.209 0.857
4.087 7.260 0.522
3.895 7.429 0.319
4.237 6.883 1.177
4.165 7.122 0.869
4.409 7.230 0.345
4.521 6.485 1.198
4.406 6.843 0.443
4.704 6.688 0.021
5.173 6.190 0.737
4.682 6.436 0.522
4.605 6.408 -0.010
5.083 6.179 0.477
5.023 5.959 0.029
5.716 5.574 0.621
5.359 5.888 -0.127
-0.033 10.195 3.276
0.081 10.779 2.830
0.212 10.506 2.590
0.604 9.941 3.208
0.467 10.090 2.738
0.061 10.476 2.384
0.394 10.283 1.810
0.192 10.784 1.252
-0.021 10.967 1.097
0.470 10.424 0.575
0.295 10.712 0.080
0.749 9.722 2.868
0.485 10.172 2.428
0.811 10.042 2.223
0.476 10.347 1.926
0.267 10.469 1.390
0.263 10.460 0.632
-0.027 10.414 0.706
1.140 9.281 2.682
1.223 9.619 2.171
0.991 9.795 2.226
0.917 10.113 1.305
0.771 10.035 1.372
1.602 9.237 2.763
1.141 9.434 1.975
0.969 9.647 1.751
1.068 9.892 1.259
1.447 9.133 2.455
1.505 9.270 2.073
1.573 9.044 1.850
2.064 8.420 2.568
1.668 9.020 1.738
2.168 8.426 2.359
2.407 7.941 2.006
3.020 7.621 1.862
3.017 7.237 1.524
2.861 7.614 1.337
3.231 7.126 1.564
3.432 7.128 0.938
3.233 7.557 0.576
3.842 7.116 1.335
3.502 6.851 0.869
3.727 6.946 0.560
3.428 7.032 0.056
3.875 6.734 1.028
4.034 6.722 0.814
3.814 6.673 0.444
4.134 6.279 1.147
4.205 6.257 0.852
4.282 6.693 -0.044
4.616 6.103 0.866
4.570 5.952 0.442
4.423 6.208 0.006
4.813 5.795 0.861
4.590 5.887 0.041
5.092 5.647 0.691
4.965 5.602 0.055
0.398 10.045 3.015
0.043 10.054 2.750
0.731 9.755 3.164
0.457 9.619 2.476
0.228 9.862 1.915
0.003 9.792 1.656
0.552 9.121 3.007
0.734 9.136 2.532
0.613 9.555 2.161
0.511 9.849 1.464
0.832 8.890 2.669
0.985 9.062 2.070
1.088 9.122 1.707
1.608 8.679 2.342
1.241 8.737 1.907
3.096 7.032 1.285
3.091 6.764 1.083
3.464 6.347 1.079
3.342 6.592 0.908
3.402 7.008 0.600
3.662 6.451 1.127
3.858 6.228 0.863
3.668 6.657 0.088
3.912 6.173 0.796
3.704 6.032 0.615
3.706 6.263 0.265
4.529 5.843 0.842
4.239 5.935 0.495
4.608 5.582 0.682
4.563 5.645 0.070
5.044 5.254 0.484
5.045 5.049 -0.008
0.093 9.398 2.930
-0.093 9.308 2.676
0.641 8.686 2.938
0.401 8.852 2.390
0.270 9.073 2.146
0.941 8.569 2.405
0.712 8.894 2.286
3.162 6.375 1.034
2.957 6.641 1.004
3.180 5.941 1.167
3.316 6.201 0.895
3.463 6.265 0.286
3.783 5.818 1.149
3.387 5.662 0.655
3.444 6.191 -0.112
3.809 5.251 0.984
4.024 5.464 0.129
4.333 4.944 0.538
4.185 5.033 0.161
4.392 4.982 0.331
4.544 4.816 0.028
0.063 8.806 2.834
0.181 8.765 2.496
0.216 8.442 2.482
2.565 5.837 1.149
2.875 5.903 0.983
3.243 5.767 0.928
3.573 5.386 0.781
3.150 5.251 0.250
3.437 5.417 0.053
3.532 4.975 0.843
3.525 5.141 0.249
3.950 5.032 0.541
3.858 5.044 0.449
4.167 4.697 0.349
4.371 4.759 -0.042
-0.107 8.195 2.358
2.483 5.676 1.041
2.729 5.192 1.014
2.770 5.461 0.810
3.062 5.229 0.802
3.087 5.380 0.344
2.738 5.244 0.043
3.498 4.739 0.876
3.089 5.042 0.179
3.740 4.480 0.490
3.358 4.838 0.282
3.713 4.097 0.227
2.367 5.068 1.369
2.655 5.030 0.856
2.400 5.196 0.483
2.500 4.723 1.046
2.727 4.783 0.385
2.311 5.087 -0.129
3.237 4.248 0.923
2.788 4.464 0.441
3.134 4.177 0.740
3.030 4.022 0.045
3.674 4.077 0.409
1.632 4.957 1.212
1.486 4.974 0.752
1.987 4.846 1.025
1.915 4.643 0.572
1.871 5.215 0.392
2.323 4.274 0.653
2.231 4.662 0.529
2.004 4.861 0.025
2.667 4.181 0.457
2.478 4.513 0.189
2.816 3.984 0.275
2.862 3.837 -0.108
3.300 3.708 0.328
1.165 5.256 1.141
1.075 4.944 1.042
1.492 4.681 0.958
1.211 5.042 0.852
1.218 4.957 0.492
1.899 4.347 1.255
1.650 4.412 0.750
1.705 4.657 0.169
1.998 4.367 0.676
2.044 4.304 0.383
2.511 3.707 0.761
2.293 4.054 0.174
2.794 3.701 0.254
2.551 3.499 0.241
3.181 3.294 0.551
0.141 5.053 1.424
0.502 5.011 1.680
0.422 4.991 1.151
0.821 4.648 1.133
0.835 5.015 0.684
0.702 5.033 0.600
1.347 4.206 1.290
0.985 4.290 0.580
0.890 4.428 0.324
1.555 4.004 0.953
1.262 4.025 0.785
1.317 4.334 0.221
1.627 3.922 0.817
1.776 4.174 0.195
1.840 3.278 0.855
1.805 3.717 0.441
2.162 3.201 0.509
2.202 3.483 -0.166
2.490 2.920 0.151
0.463 4.915 1.648
0.113 4.848 0.856
-0.003 4.757 0.597
0.746 4.577 1.315
0.223 4.440 0.816
0.346 4.798 0.406
0.469 5.035 -0.182
0.738 4.247 1.098
0.646 4.155 0.938
0.643 4.103 0.360
1.393 3.792 1.105
0.998 3.728 0.436
0.974 4.149 0.056
1.628 3.234 0.886
1.515 3.400 0.503
1.868 2.966 0.493
1.562 3.572 0.029
1.922 2.861 0.669
1.917 3.223 0.174
2.309 2.516 0.450
0.058 4.025 1.043
0.240 4.127 0.644
0.016 4.462 0.486
0.483 3.520 1.039
0.389 3.898 0.779
0.559 3.980 0.399
0.812 3.225 0.917
0.559 3.780 0.606
0.878 3.768 -0.073
1.027 3.029 0.729
0.786 3.543 0.450
1.347 3.146 0.684
1.194 3.110 -0.026
1.684 2.798 0.503
1.670 2.537 -0.170
1.996 2.310 0.090
0.115 3.212 1.236
0.314 3.417 0.655
0.129 3.554 0.134
0.371 3.390 0.662
0.564 3.440 0.613
0.513 3.394 0.273
0.895 2.922 0.910
0.682 3.032 0.383
1.123 2.472 0.715
1.206 2.960 -0.002
1.270 2.084 0.462
1.508 1.895 0.201
0.410 2.704 0.811
0.096 2.989 0.229
0.230 2.540 0.703
0.460 2.632 0.421
0.591 2.029 0.383
0.624 2.535 0.164
0.854 1.908 0.632
1.253 1.801 0.068
0.403 2.197 0.855
0.081 2.173 0.106
0.238 1.928 0.760
0.390 2.336 0.346
0.839 1.897 0.166
0.851 1.287 0.096
0.189 1.683 0.558
-0.187 1.883 0.089
0.247 1.462 0.162
0.707 0.873 0.155
0.131 1.218 0.370
0.279 0.667 0.180
0.013 0.318 0.289
7.118 10.181 1.456
7.339 10.141 1.567
7.247 10.242 1.216
7.962 9.952 1.528
7.979 9.730 0.655
7.890 10.060 0.390
8.363 9.350 0.990
7.993 9.786 0.722
8.074 9.868 0.381
8.532 9.157 1.025
8.638 9.274 0.602
8.536 9.135 0.394
8.979 8.793 0.868
8.663 8.710 0.245
4.828 12.305 3.154
7.246 9.724 1.486
7.199 9.637 1.587
6.922 10.072 0.846
7.757 9.564 1.034
7.416 9.531 0.851
7.428 9.746 0.378
7.626 9.321 0.852
7.852 9.182 0.630
7.694 9.618 0.360
7.938 9.031 0.971
8.118 8.697 0.556
7.899 9.196 0.237
8.495 8.463 0.970
8.548 8.437 0.463
12.703 11.226 1.525
12.270 11.629 1.087
12.720 10.561 3.052
12.255 10.908 2.310
12.221 10.788 2.043
12.421 10.822 1.490
12.072 10.938 1.120
12.569 10.631 1.382
12.464 11.109 1.305
12.501 10.335 3.596
11.965 10.280 2.841
12.050 10.474 2.258
12.141 10.392 2.160
11.768 10.703 1.455
11.508 10.716 1.368
12.301 10.233 2.570
12.123 10.290 2.123
12.336 10.395 1.861
11.909 10.587 1.593
11.825 10.756 1.158
12.798 9.879 1.962
12.256 10.260 1.284
12.236 10.518 0.874
12.571 9.330 5.578
12.550 9.160 5.487
12.397 9.503 4.887
12.321 9.582 4.477
12.293 9.877 4.244
12.048 9.731 3.630
12.043 9.786 3.231
11.671 10.056 2.798
11.729 10.283 2.501
11.459 10.102 2.104
11.777 10.665 1.899
11.314 10.760 1.199
12.028 9.759 2.563
11.822 9.884 2.575
12.055 9.862 2.018
11.641 9.877 1.275
11.539 10.362 1.030
12.500 9.705 2.146
12.016 9.817 1.984
12.180 10.048 1.411
11.979 9.842 0.664
12.526 9.351 1.347
12.456 9.568 1.377
12.534 9.697 0.818
12.471 8.971 1.586
12.470 9.080 0.710
12.164 9.249 0.716
12.700 8.315 7.409
12.298 8.347 7.262
12.342 8.324 6.433
12.423 8.425 6.056
12.122 8.720 5.610
12.065 9.069 5.611
11.823 8.860 5.179
11.877 9.228 4.576
11.634 9.112 4.269
11.804 9.385 3.731
11.442 9.561 3.444
11.358 9.572 2.847
11.637 9.958 2.592
11.277 9.769 2.222
11.204 10.040 1.817
10.910 10.140 1.022
12.645 8.511 5.611
12.487 8.408 5.443
12.483 8.725 5.055
11.770 9.556 3.367
11.712 9.603 2.966
11.708 9.690 2.098
11.642 9.824 1.798
11.291 9.844 1.707
11.592 10.228 0.977
12.160 8.876 2.493
11.844 9.362 2.400
11.648 9.543 1.528
11.865 9.659 1.226
11.757 9.666 1.048
12.389 9.098 2.179
12.442 9.117 1.405
12.104 9.069 1.013
11.978 9.600 0.569
12.259 8.676 1.212
12.210 8.851 1.082
12.428 8.914 0.531
12.455 8.196 1.610
11.920 8.444 1.419
12.194 8.745 1.133
12.147 8.605 0.348
12.693 8.023 1.619
12.593 8.095 1.289
12.324 8.346 0.800
12.157 8.482 0.399
12.546 7.472 8.535
12.515 7.457 8.513
12.345 7.748 7.731
12.363 7.689 7.239
12.049 8.289 7.007
11.919 8.215 6.390
11.739 8.224 6.143
12.028 8.278 5.812
12.007 8.491 5.568
11.740 8.675 4.835
11.393 9.021 4.382
11.674 9.127 4.343
11.256 9.193 3.698
11.444 9.218 3.447
11.169 9.163 2.683
11.014 9.523 2.373
11.142 9.918 2.269
10.853 9.665 1.834
11.049 9.907 1.345
12.416 7.841 7.124
12.658 7.977 6.884
12.565 7.873 6.235
12.288 7.846 5.805
12.381 8.081 5.417
11.999 8.229 5.435
11.460 9.045 2.738
11.566 9.333 2.400
11.219 9.483 2.116
11.152 9.364 1.547
11.101 9.484 0.818
12.377 7.924 5.823
12.362 7.951 5.469
11.911 9.068 2.164
11.685 9.284 1.841
11.439 9.040 1.528
11.509 9.461 0.988
11.983 8.700 1.905
11.986 8.857 1.710
11.531 9.093 1.084
11.568 8.916 0.740
12.144 8.220 1.904
11.982 8.507 1.112
11.948 8.620 0.981
11.879 8.714 0.618
11.908 8.448 1.153
11.706 8.212 1.156
11.501 8.480 0.621
12.028 8.048 1.395
11.914 7.862 0.807
11.764 8.000 0.195
12.315 7.696 1.338
12.401 7.441 1.152
12.514 7.829 0.346
12.033 7.618 0.112
12.742 7.650 0.208
12.401 7.110 9.245
12.284 7.254 8.503
11.931 7.278 8.361
11.750 7.582 7.617
11.802 7.379 7.525
11.718 7.994 6.825
11.666 7.841 6.542
11.373 7.973 6.307
11.351 8.027 5.712
11.577 8.428 5.111
11.417 8.189 4.962
11.005 8.776 3.453
11.100 9.269 2.704
10.883 9.106 2.659
10.581 9.148 2.238
10.349 9.574 1.829
10.612 9.572 1.237
12.426 7.002 8.717
12.668 6.942 8.124
12.331 6.918 7.736
12.092 7.276 7.500
12.312 7.563 6.886
12.128 7.741 6.244
12.093 7.807 5.772
11.708 7.850 5.701
11.676 7.795 5.152
11.228 8.582 2.691
11.049 8.754 2.265
11.026 9.271 1.944
10.599 9.143 1.389
10.665 9.414 0.759
12.502 6.791 7.326
12.226 7.216 6.497
12.154 7.275 6.033
12.274 7.674 5.752
11.983 7.478 5.164
11.113 8.523 1.839
11.265 8.773 1.475
11.124 9.060 1.054
11.259 9.106 0.667
12.571 6.954 5.837
11.643 8.512 1.734
11.355 8.565 1.149
11.372 8.677 0.553
12.001 8.116 1.353
11.691 8.175 0.660
11.726 8.562 0.502
11.595 8.159 0.979
11.308 8.336 0.720
11.740 7.908 0.913
11.471 7.775 0.218
12.037 7.249 0.920
12.067 7.674 0.501
12.012 7.336 0.312
12.475 6.979 1.267
12.479 6.991 0.928
12.128 7.268 0.169
11.845 6.810 8.378
11.709 7.130 8.022
11.513 6.968 7.912
11.796 7.131 7.642
11.543 7.648 6.843
11.634 7.408 6.577
11.070 7.762 6.291
11.211 7.804 5.515
10.990 7.873 5.048
10.637 8.733 2.551
10.279 8.998 2.320
10.290 9.182 1.931
10.076 9.232 1.746
10.352 9.071 1.266
12.719 6.090 11.823
12.539 6.101 11.366
11.863 6.885 8.029
11.827 6.649 7.470
11.689 6.854 7.199
11.838 6.952 6.620
11.824 7.147 6.637
11.786 7.203 6.094
11.333 7.625 5.537
10.988 8.531 1.979
10.502 8.720 1.562
10.321 9.008 1.443
10.514 9.079 0.832
12.119 6.588 7.562
12.425 6.974 6.859
11.919 6.936 6.582
11.972 7.203 6.439
11.977 7.095 5.804
11.153 8.557 1.676
11.078 8.789 1.240
10.801 8.681 0.803
12.316 6.311 6.852
12.320 6.329 6.462
12.330 6.554 5.876
10.872 8.261 1.056
11.069 8.564 0.447
11.213 8.263 0.825
11.496 8.302 0.333
11.855 7.178 0.347
12.077 6.432 0.599
12.029 6.564 0.534
12.726 6.150 1.212
12.226 6.390 0.587
12.229 6.763 0.140
11.316 6.600 8.431
11.207 6.686 7.823
11.323 6.904 7.484
11.008 7.176 6.882
11.262 7.284 6.756
10.968 7.515 6.241
10.683 7.435 5.677
10.031 8.840 2.326
10.166 8.779 1.883
9.801 8.821 1.671
9.699 8.760 1.045
12.542 5.614 12.620
12.488 5.287 12.003
12.236 5.510 11.589
11.506 6.382 7.630
11.466 6.774 7.147
11.563 7.052 6.764
11.539 7.062 6.137
11.320 7.299 5.740
10.054 8.243 1.595
10.019 8.852 1.567
10.364 8.964 1.184
11.735 6.314 6.511
10.434 8.222 0.980
12.306 6.066 0.360
11.888 6.152 0.127
12.295 5.835 0.799
12.518 5.847 0.462
12.370 6.185 0.247
11.302 6.515 7.889
10.843 6.906 7.599
11.092 6.909 7.072
10.564 6.930 6.340
10.807 6.995 5.964
9.775 8.221 1.729
9.572 8.583 1.274
9.735 8.619 0.976
11.855 5.157 12.552
11.912 5.433 11.755
11.032 6.330 6.919
9.718 8.341 0.849
12.489 12.084 0.256
12.154 11.880 1.025
12.422 11.769 0.227
12.259 11.963 0.287
12.480 11.539 0.196
12.175 11.161 0.947
11.630 11.652 0.693
11.544 11.641 0.053
12.216 10.860 0.867
11.957 11.006 0.143
12.349 10.626 0.288
11.558 10.904 0.729
11.347 11.237 0.453
11.527 11.464 -0.078
11.874 10.984 0.779
11.764 10.896 0.276
12.400 10.645 0.761
12.108 10.778 0.169
12.327 9.948 0.439
12.421 9.753 0.076
11.405 10.864 0.567
11.308 10.698 0.338
11.734 10.606 0.633
11.306 10.473 0.101
11.728 10.258 0.749
11.573 10.022 0.284
12.360 9.803 0.082
12.347 9.783 0.083
12.316 9.057 0.194
11.215 10.439 0.879
11.138 10.491 0.281
11.057 9.873 0.711
11.003 10.307 0.034
11.353 10.063 0.571
11.647 10.010 0.220
11.965 9.531 0.536
11.988 9.458 0.291
11.748 8.704 0.276
10.477 10.098 0.907
10.490 10.151 0.286
10.971 9.952 0.426
11.108 9.698 0.022
11.427 9.252 0.254
11.269 9.637 -0.201
11.591 9.286 0.269
11.720 8.645 0.338
11.307 8.573 -0.018
10.345 9.979 0.595
10.138 10.175 0.515
10.836 9.595 0.504
10.603 9.515 0.261
10.805 9.049 0.546
11.090 9.304 -0.062
11.518 8.980 0.055
11.546 8.743 0.149
11.150 8.365 -0.064
9.820 9.353 0.463
9.701 9.368 0.489
10.122 9.160 0.355
10.492 9.096 0.062
10.792 9.129 0.410
10.814 8.531 0.431
11.228 8.031 0.202
9.954 9.208 0.956
9.819 9.095 0.293
9.988 8.842 0.282
9.900 9.090 0.199
9.270 8.759 0.863
9.043 8.819 0.346
11.060 3.279 12.738
12.120 1.832 11.577
11.143 2.902 12.686
11.290 2.785 12.563
11.720 1.978 12.528
11.370 1.900 12.169
11.824 1.257 12.448
11.611 1.341 11.575
12.101 1.048 12.697
11.955 1.051 11.922
11.930 1.554 11.406
12.389 0.789 12.238
12.317 1.081 12.097
12.299 0.735 11.529
10.394 2.976 12.439
10.877 2.370 12.450
11.300 1.885 12.707
11.293 2.275 12.080
11.428 1.649 12.223
11.189 1.859 12.021
11.059 1.494 12.355
11.317 1.810 11.970
11.686 1.052 12.156
11.231 1.373 11.703
12.179 0.775 12.624
11.823 0.989 12.248
11.701 1.206 11.679
12.100 0.479 12.392
11.850 0.567 11.608
11.913 0.792 11.544
12.604 0.194 12.336
12.589 0.414 11.766
12.082 0.321 11.423
10.266 2.284 12.183
10.738 2.276 12.230
11.065 1.643 12.673
10.995 2.013 11.904
11.162 1.241 12.233
11.296 1.590 12.116
11.044 1.040 12.535
10.854 1.324 11.981
11.220 0.715 12.542
11.218 0.842 12.060
11.159 0.786 11.661
11.548 0.402 12.209
11.550 0.517 11.882
11.405 0.755 11.621
11.664 -0.065 12.375
11.582 0.102 11.735
11.957 0.228 11.342
11.727 0.269 11.079
9.723 2.549 12.666
9.730 2.264 12.543
10.065 2.071 12.094
10.778 1.418 12.353
10.472 1.293 12.191
10.885 1.005 12.080
10.743 1.346 12.141
10.386 1.065 12.121
10.740 1.066 11.992
10.734 0.216 12.549
10.674 0.329 11.914
10.722 0.520 11.453
11.453 0.118 12.324
11.073 -0.019 12.134
11.131 0.225 11.681
11.218 0.215 11.518
9.140 2.110 12.538
9.417 2.036 12.267
9.689 1.523 11.994
10.041 1.181 12.227
10.424 1.134 11.958
10.640 1.045 12.191
10.709 1.162 11.647
10.505 0.577 12.118
10.162 0.896 11.873
10.520 -0.140 12.369
10.735 0.136 11.907
10.348 0.336 11.459
10.493 -0.149 11.709
9.029 1.625 12.680
9.383 1.734 12.272
9.598 0.989 11.960
9.767 1.017 12.443
9.747 0.729 12.210
10.457 0.456 12.213
10.141 0.768 11.584
9.813 0.132 12.253
9.593 0.518 11.951
10.290 0.207 11.905
8.581 1.274 12.209
9.120 0.951 12.533
9.383 0.701 12.590
9.253 0.982 12.250
9.723 0.312 12.226
9.788 0.824 12.193
9.787 0.228 12.222
10.010 0.090 11.610
9.462 -0.248 11.978
8.326 1.277 12.228
8.418 0.697 12.474
8.786 0.686 12.641
9.098 0.515 11.935
9.276 0.285 12.332
9.005 0.387 11.918
9.305 0.043 11.611
7.967 1.050 12.229
8.440 0.499 12.480
8.700 0.294 11.898
7.892 0.717 12.395
8.229 0.379 12.362
7.336 0.330 12.156
12.603 4.065 4.895
11.375 5.367 0.337
11.703 5.191 0.427
12.181 4.535 0.584
12.080 4.728 0.038
12.306 4.478 0.488
12.215 4.413 -0.068
10.407 5.942 7.124
10.018 5.982 7.058
10.093 6.564 6.345
8.806 8.103 1.200
9.031 7.827 1.196
11.483 4.293 12.222
12.491 3.439 5.971
12.194 3.646 5.330
12.020 3.623 5.117
10.871 5.438 0.286
12.793 3.034 5.608
12.236 3.217 4.861
12.266 3.466 4.472
11.485 5.051 0.489
12.713 3.169 3.717
11.625 4.186 0.880
11.667 4.730 0.418
12.303 3.903 0.404
12.246 4.527 -0.101
12.310 3.574 0.444
9.986 5.614 7.349
9.805 5.923 7.009
9.647 6.059 6.256
8.452 7.872 1.449
8.712 7.534 1.050
10.989 3.991 12.465
11.803 3.339 5.728
11.868 2.971 6.513
11.982 2.868 5.885
12.180 3.156 5.347
11.848 3.171 4.935
11.932 3.519 4.573
10.622 4.625 0.482
10.559 4.973 0.348
12.420 2.609 6.698
12.622 2.597 6.383
12.585 2.991 5.609
11.962 3.007 5.106
12.190 2.802 4.848
11.994 3.095 4.366
11.878 3.196 3.873
11.316 4.244 0.623
11.169 4.556 0.131
12.570 2.790 4.935
12.688 2.617 4.727
12.098 2.772 4.144
12.448 2.885 3.907
11.293 4.355 0.409
11.515 4.274 -0.003
12.773 2.513 3.692
12.622 2.680 3.155
11.869 3.462 1.060
11.949 3.647 0.678
11.841 4.139 0.012
11.861 3.309 0.298
12.227 3.302 0.223
9.869 5.132 7.529
9.496 5.622 6.974
9.740 5.711 6.982
9.679 5.896 6.163
9.404 6.048 5.779
8.620 7.354 1.704
8.400 7.396 1.142
8.317 7.716 0.783
10.793 3.983 12.138
10.658 3.853 11.907
9.847 5.222 6.792
8.278 7.276 1.019
11.085 3.295 5.816
11.664 2.924 6.230
11.295 2.811 5.902
11.514 3.221 5.883
11.069 3.325 5.359
11.258 3.332 4.605
10.050 4.761 0.777
9.957 4.753 0.180
12.594 1.241 11.106
12.379 1.419 10.886
12.009 2.596 6.950
11.940 2.516 6.556
11.544 2.849 5.693
11.572 2.652 5.402
11.379 3.140 4.960
11.534 3.077 4.392
11.416 3.135 4.025
10.588 4.452 1.014
10.322 4.473 0.622
10.551 4.793 -0.022
12.210 2.254 6.917
12.046 2.250 6.723
12.311 2.517 6.255
11.912 2.331 5.963
11.923 2.865 5.177
11.961 2.642 4.722
11.583 3.026 4.216
11.435 3.140 3.983
11.371 3.375 3.513
11.043 3.884 1.261
10.770 4.112 0.974
10.804 4.339 0.262
12.439 2.062 6.380
12.350 1.944 5.789
12.047 2.212 5.768
11.937 2.418 5.101
11.990 2.441 4.977
12.025 2.454 4.359
11.962 2.979 3.634
12.017 2.745 3.622
11.405 3.427 1.216
11.105 3.931 0.696
11.264 4.065 0.230
12.295 1.829 5.208
12.325 1.917 4.393
12.494 2.340 4.396
12.218 2.499 3.480
12.183 2.746 3.186
11.828 2.720 2.837
11.431 3.338 1.115
11.754 3.330 0.807
11.443 3.647 0.271
12.631 1.954 3.611
12.162 2.119 3.140
11.578 3.078 0.808
11.663 3.273 0.202
11.945 2.588 0.412
12.256 2.802 0.154
9.397 4.941 8.159
9.649 4.928 7.692
9.582 4.983 6.951
9.360 5.194 7.055
9.155 5.623 6.169
9.076 5.618 5.732
8.982 5.635 5.662
7.965 6.653 1.972
7.855 7.085 2.042
7.829 7.122 1.515
7.929 7.411 0.727
10.357 3.380 12.169
10.656 3.443 11.942
10.055 3.984 11.248
9.488 4.900 7.581
9.447 4.707 6.973
9.743 5.113 6.660
9.329 5.243 6.267
9.201 5.488 6.006
8.583 6.479 1.711
8.072 6.784 1.363
8.156 6.598 0.960
10.533 3.339 12.243
10.923 3.589 11.888
10.004 4.428 6.691
8.743 6.301 0.644
9.948 3.543 6.432
9.861 3.826 6.263
10.034 4.146 5.484
8.709 5.486 0.773
8.979 5.422 0.502
11.358 2.020 11.505
10.306 3.424 6.116
10.538 3.248 5.850
10.157 3.466 5.626
9.082 5.287 0.461
9.223 5.623 0.255
11.513 1.727 11.148
11.051 2.870 6.374
10.849 3.121 6.102
10.958 3.432 5.640
10.387 3.444 5.319
10.665 3.568 5.134
9.586 4.787 0.865
9.676 5.182 0.439
12.186 1.381 11.173
11.764 1.801 10.747
11.410 2.327 6.625
11.411 2.443 6.398
10.846 2.893 6.214
10.753 2.922 5.857
11.109 3.093 4.964
10.930 2.965 4.826
10.763 3.408 4.350
9.682 4.632 0.807
9.714 4.370 0.837
9.773 4.433 0.408
12.379 1.351 10.796
12.193 1.212 10.778
11.956 1.617 10.423
11.420 1.835 7.313
11.785 2.317 6.485
11.308 2.335 6.136
11.276 2.277 6.040
11.277 2.805 5.553
11.091 2.973 5.119
10.961 2.898 4.450
11.160 2.941 4.219
11.129 3.362 3.674
10.321 3.900 1.103
10.332 3.978 0.952
10.018 4.402 0.703
9.824 4.403 0.023
12.318 0.802 10.632
12.603 0.748 10.691
12.476 1.004 10.240
12.165 1.073 9.478
12.329 1.639 7.185
11.839 1.888 6.742
12.026 1.779 6.525
11.918 1.917 5.893
11.846 2.048 5.472
11.742 2.198 5.553
11.457 2.362 4.715
11.356 2.547 4.663
11.542 2.811 3.799
11.304 2.803 3.821
10.883 2.975 3.029
10.490 3.626 1.603
10.668 3.810 1.209
10.558 3.660 0.593
10.676 4.143 0.382
12.580 0.687 9.194
12.657 1.300 8.816
12.356 1.165 7.777
12.667 1.369 7.571
12.152 1.576 7.274
12.473 1.612 6.834
11.971 1.441 6.640
11.859 1.841 5.918
12.095 1.894 5.285
11.871 1.891 4.869
11.729 1.947 4.721
11.579 2.299 4.032
11.527 2.632 3.863
11.379 2.309 3.547
11.199 2.546 3.233
11.559 2.673 2.658
11.365 2.898 2.158
11.222 3.287 1.653
10.982 3.315 1.424
10.769 3.428 1.148
10.759 3.340 0.709
10.853 3.408 0.255
12.587 1.079 8.037
12.734 1.358 6.770
12.406 1.067 5.976
12.511 1.406 5.806
12.164 1.835 5.174
11.918 1.478 5.144
11.977 2.008 4.438
12.026 1.934 4.280
11.968 1.868 3.887
11.917 2.293 3.120
11.494 2.525 2.929
11.824 2.695 2.618
11.458 2.621 2.282
11.309 2.649 1.649
11.538 3.095 1.414
11.292 2.854 0.774
10.977 3.239 0.566
12.681 1.214 4.564
12.597 1.519 4.303
12.427 1.460 3.760
12.155 1.830 3.474
12.029 1.856 3.246
11.756 2.256 2.879
11.729 2.005 2.433
11.878 2.562 1.741
11.528 2.699 1.623
11.378 2.510 1.067
11.290 2.630 0.679
11.309 3.139 0.129
12.681 1.558 3.548
12.557 1.795 3.115
12.523 1.734 2.374
11.649 2.555 0.707
11.886 2.237 0.357
11.527 2.615 0.148
12.223 2.077 0.181
9.323 4.416 8.351
9.459 4.337 8.157
9.174 4.733 7.423
9.018 4.809 7.137
8.979 4.872 6.921
9.024 4.913 6.488
8.496 5.289 5.880
8.645 5.413 5.737
8.339 5.348 5.011
8.201 6.459 2.763
7.920 6.485 2.420
7.994 6.578 2.020
7.703 6.925 1.506
7.685 7.076 0.714
9.993 3.035 12.148
10.293 3.257 11.929
10.143 3.412 11.342
10.063 3.640 11.170
9.740 4.027 7.761
9.188 4.630 7.276
9.526 4.781 6.868
9.219 4.536 6.811
8.890 5.047 6.014
8.854 4.988 5.577
8.784 5.075 5.150
8.124 6.220 1.896
8.280 6.451 1.438
8.220 6.337 0.916
7.978 6.659 0.880
10.689 2.866 11.978
10.261 3.168 11.608
10.393 3.084 11.058
9.621 4.223 7.271
9.354 4.325 6.705
9.400 4.551 6.480
9.616 4.267 5.878
9.186 4.385 5.860
8.228 6.175 1.362
8.437 5.955 0.971
8.346 6.265 0.568
10.629 2.561 11.855
10.616 2.777 11.362
9.823 3.878 6.788
9.884 4.326 6.299
9.528 4.330 5.722
8.338 5.811 1.068
8.645 5.990 0.510
11.221 2.266 11.590
10.221 3.732 6.551
10.304 3.600 6.335
9.997 4.051 5.844
9.057 5.467 0.481
8.705 5.621 0.260
11.345 1.975 11.603
9.728 3.141 6.986
10.073 3.385 6.441
9.908 3.407 6.265
9.496 3.383 5.749
9.580 3.600 5.498
8.696 5.000 0.866
8.524 5.277 0.664
8.502 5.273 0.198
11.285 1.533 11.366
11.119 1.728 11.173
10.334 2.916 6.902
10.259 3.036 6.180
9.951 2.904 5.748
10.239 3.345 5.428
9.833 3.662 5.251
8.887 4.804 1.064
8.579 4.838 0.753
8.923 5.011 0.210
11.259 1.591 11.202
11.260 1.495 11.029
10.395 2.388 7.215
10.657 2.510 6.387
10.666 2.880 6.308
10.422 2.967 5.577
10.502 3.126 5.487
9.964 2.896 4.723
9.937 3.103 4.445
9.103 4.232 1.297
8.997 4.623 0.617
9.209 4.778 0.549
11.725 1.271 11.296
11.577 1.031 10.895
11.405 1.172 10.393
11.254 1.796 7.426
10.765 2.172 6.793
10.715 2.116 6.371
10.567 2.482 5.824
10.713 2.376 5.515
10.492 2.599 5.376
10.313 2.829 4.745
10.322 2.964 4.487
10.395 3.267 3.991
9.564 3.727 1.424
9.749 3.953 1.152
9.616 4.150 0.743
9.662 4.507 -0.006
11.672 0.876 11.071
11.648 0.860 10.600
11.728 1.028 10.199
11.580 1.455 9.776
11.650 1.522 7.530
11.253 1.842 6.911
11.328 1.867 6.621
11.186 2.000 6.385
10.800 2.397 5.884
10.922 2.153 5.345
10.932 2.639 5.181
10.554 2.635 4.824
10.694 2.808 4.035
10.328 2.843 3.822
10.441 2.907 3.314
10.049 3.647 1.596
10.116 3.793 1.295
9.837 3.593 1.073
9.541 3.997 0.588
9.766 3.983 0.038
12.134 0.623 10.619
12.162 0.713 10.386
12.147 0.934 9.798
12.171 0.817 9.803
11.838 1.104 9.159
12.137 0.790 8.406
11.723 1.355 7.980
11.900 1.482 7.428
11.408 1.649 6.869
11.467 1.536 6.285
11.198 1.785 6.280
11.549 2.092 5.627
11.009 2.025 5.078
11.160 2.232 4.874
11.038 2.046 4.164
10.749 2.451 3.922
10.663 2.595 3.842
10.909 2.412 3.235
10.696 2.666 2.943
10.626 3.202 2.501
10.377 2.986 2.030
10.352 3.397 1.768
10.126 3.546 1.126
10.465 3.382 0.605
10.251 3.601 0.285
12.392 0.391 10.755
12.506 0.371 10.345
12.414 0.346 9.773
11.992 0.506 9.470
12.011 0.867 8.878
12.217 0.900 8.487
11.670 0.906 8.085
12.239 0.915 8.134
12.326 0.937 7.514
12.163 1.127 7.062
12.187 0.889 6.506
11.804 1.081 6.524
11.658 1.344 6.167
11.710 1.743 5.440
11.618 1.718 5.205
11.718 1.738 4.576
11.605 1.972 4.513
11.480 1.953 3.776
10.989 2.347 3.454
11.186 2.427 3.247
11.156 2.768 2.854
11.116 2.453 2.184
10.549 2.906 1.923
10.602 2.994 1.582
10.786 3.243 0.958
10.317 3.113 0.652
10.552 3.574 -0.101
12.556 0.606 9.122
12.577 0.443 8.898
12.268 0.595 8.361
12.057 0.691 7.755
12.631 0.401 8.008
12.455 0.647 7.578
12.294 0.775 6.951
11.990 0.963 6.756
12.384 1.248 6.121
11.834 0.990 5.961
11.978 1.206 5.243
11.743 1.294 5.128
11.975 1.783 4.320
11.677 1.421 4.306
11.733 1.634 3.888
11.489 1.778 3.414
11.610 1.818 2.676
11.209 2.462 2.506
11.141 2.206 1.777
11.049 2.521 1.533
11.244 2.676 0.979
10.699 2.696 0.981
10.754 2.928 0.185
12.547 0.227 7.679
12.686 0.560 6.508
12.644 0.858 5.791
12.076 0.877 5.392
12.410 1.129 4.947
12.206 1.077 4.600
11.826 1.176 4.122
12.143 1.197 3.765
12.072 1.431 3.642
12.014 1.595 3.094
11.416 1.617 2.721
11.514 1.986 2.140
11.426 2.052 1.591
11.204 2.349 1.591
11.448 2.589 1.230
10.942 2.491 0.442
11.091 2.789 0.341
12.797 0.666 4.963
12.327 0.982 4.550
12.562 0.760 4.306
12.013 1.341 3.907
12.311 1.009 3.583
12.122 1.605 2.948
11.997 1.713 2.571
11.907 1.535 2.171
11.659 1.568 1.590
11.778 1.726 1.327
11.761 2.083 1.000
11.516 2.172 0.209
11.473 2.452 -0.047
12.590 0.631 3.746
12.649 1.162 2.948
12.527 0.904 2.941
12.314 0.993 2.282
11.913 1.758 0.483
11.883 1.716 0.460
12.268 1.449 0.094
9.226 3.765 8.670
9.235 3.991 8.621
8.981 4.180 7.964
9.033 4.570 7.679
8.611 4.730 7.129
8.822 4.433 6.851
8.381 4.939 6.127
8.256 4.736 6.067
8.490 5.026 5.430
8.385 5.158 5.261
7.955 5.335 4.863
7.743 5.809 2.785
7.833 6.093 2.541
7.756 6.019 2.141
7.464 6.367 1.782
7.212 6.525 1.104
7.142 6.423 1.025
10.068 3.034 12.219
9.750 2.816 11.717
9.862 2.896 11.546
9.382 3.242 10.872
9.273 3.598 10.317
9.173 4.000 8.464
9.085 4.113 7.596
9.058 4.227 7.290
8.811 4.176 7.092
9.151 4.473 6.481
8.684 4.685 5.929
8.827 4.487 5.828
8.598 4.919 5.148
8.327 4.913 4.799
7.955 5.945 2.452
7.938 5.785 1.729
7.483 6.046 1.497
7.687 5.934 1.245
7.711 6.452 0.792
9.902 2.440 11.733
10.226 2.940 11.663
9.924 2.697 10.927
9.843 2.774 10.826
9.458 3.443 7.409
9.405 3.962 7.362
9.114 4.108 7.059
9.202 3.914 6.370
9.338 4.105 6.066
8.789 4.459 5.540
8.991 4.234 5.171
7.929 5.572 2.066
8.070 5.596 1.268
8.069 5.554 0.728
7.882 5.954 0.374
10.395 2.329 11.853
10.273 2.218 11.609
10.304 2.335 11.158
9.780 3.660 7.001
9.492 3.468 6.744
9.709 3.562 6.212
9.591 3.986 5.966
9.452 4.131 5.330
8.127 5.598 1.492
8.206 5.562 0.654
8.142 5.481 0.527
10.792 1.957 11.917
10.878 2.299 11.235
9.736 3.149 6.959
9.839 3.160 6.511
10.028 3.262 6.262
9.755 3.335 5.533
9.334 3.632 5.385
8.446 4.873 1.070
8.293 5.040 0.926
8.620 5.343 0.058
11.201 1.688 11.323
11.066 2.052 10.828
9.536 2.670 7.509
9.701 2.638 6.828
9.787 3.185 6.439
9.292 3.126 5.826
9.553 3.387 5.485
9.119 3.262 5.093
9.426 3.517 4.725
8.311 4.906 1.378
8.368 4.753 1.035
8.453 4.669 0.452
7.861 4.789 0.144
10.678 1.227 11.704
10.817 1.794 10.934
10.572 1.460 10.745
10.090 2.264 7.045
10.058 2.763 6.499
9.599 2.604 6.108
9.885 3.080 5.664
9.774 2.924 5.598
9.777 3.318 4.796
9.402 3.318 4.657
8.559 4.355 1.083
8.742 4.721 1.121
8.695 4.638 0.566
8.253 4.499 0.021
10.901 0.878 11.336
10.682 1.320 10.666
10.687 1.368 10.384
10.231 2.114 6.891
10.299 2.402 6.351
10.205 2.633 6.362
9.827 2.327 5.780
9.832 2.762 5.368
9.710 2.939 5.003
9.838 2.820 4.485
9.148 4.196 1.202
9.064 4.354 0.493
8.545 4.315 0.239
11.178 0.980 10.955
11.228 0.944 10.524
10.849 1.016 10.493
10.482 1.985 7.383
10.426 2.112 6.596
10.641 1.924 6.211
10.669 2.213 5.976
10.474 2.318 5.769
10.236 2.138 5.216
10.135 2.503 4.749
9.874 2.809 4.245
10.210 2.626 4.081
9.260 3.497 1.312
9.278 3.988 0.895
9.445 3.909 0.723
9.009 3.859 0.346
11.582 0.675 11.022
11.528 0.881 10.516
11.306 0.742 10.073
11.444 0.878 10.000
11.281 0.882 8.197
11.238 1.019 7.831
11.156 1.164 7.401
10.836 1.237 7.270
10.878 1.320 6.727
10.973 1.954 6.065
10.547 2.011 5.707
10.406 1.888 5.136
10.651 1.945 4.807
10.576 2.163 4.393
10.562 2.353 4.305
10.372 2.711 3.940
10.133 2.895 3.356
10.025 2.809 3.003
9.932 2.760 2.546
10.122 2.933 2.012
9.849 3.054 1.553
9.822 3.559 1.255
9.506 3.613 0.833
9.287 3.679 0.247
11.670 0.448 10.642
12.045 0.337 10.457
11.641 0.523 9.913
11.648 0.640 9.528
11.666 0.603 9.007
11.222 0.825 8.499
11.352 1.138 8.420
11.605 0.875 7.891
11.575 0.983 7.679
11.499 1.020 7.284
11.455 1.155 6.714
11.270 1.180 6.306
11.348 1.625 5.914
10.790 1.667 5.575
11.126 1.813 5.279
11.041 2.020 5.013
10.715 2.123 4.165
10.587 2.146 3.790
10.734 2.381 3.746
10.378 2.232 3.200
10.469 2.642 2.776
10.206 2.471 2.336
10.367 2.690 2.001
10.015 2.837 1.485
9.840 2.825 0.882
9.632 2.941 0.461
9.926 3.551 0.304
11.994 -0.049 10.504
12.145 0.381 9.699
12.073 0.566 9.203
11.858 0.656 9.022
11.890 0.497 8.618
11.789 0.864 7.919
11.853 0.557 8.242
12.071 0.647 7.363
11.715 0.466 7.281
11.497 0.889 6.761
11.413 0.840 6.205
11.222 1.339 5.714
11.364 1.433 5.358
11.113 1.281 4.901
11.367 1.741 4.543
10.984 1.503 4.333
11.002 1.987 3.767
11.063 1.714 3.585
10.732 2.323 2.957
10.741 2.288 2.717
10.645 2.115 2.248
10.628 2.590 1.725
10.353 2.797 1.527
10.308 2.914 1.111
10.294 3.130 0.577
10.277 2.808 -0.112
11.994 -0.208 9.368
11.965 0.063 8.611
12.234 0.185 8.471
11.781 0.325 7.979
12.389 0.063 8.072
11.992 0.106 7.159
11.846 0.629 6.858
12.022 0.313 6.335
11.993 0.849 6.223
11.481 0.720 5.582
11.563 0.832 5.177
11.308 1.068 5.150
11.425 1.364 4.264
11.412 1.529 3.898
11.395 1.743 3.703
11.261 1.897 3.471
10.901 1.940 2.979
10.978 2.044 2.292
11.115 1.963 2.046
10.559 2.403 1.416
10.648 2.121 1.136
10.724 2.364 0.712
10.522 2.741 0.446
12.553 0.113 8.281
12.221 -0.011 7.887
12.424 0.091 6.814
12.379 0.245 6.466
11.918 0.135 6.005
12.179 0.726 5.841
11.830 0.687 5.049
11.951 0.910 4.511
11.550 0.824 4.405
11.864 0.915 4.162
11.465 1.355 3.610
11.642 1.593 2.842
11.305 1.610 2.902
11.388 1.733 2.235
11.059 1.690 1.653
11.067 2.061 1.637
11.034 1.748 1.135
11.031 2.085 0.379
10.865 2.231 0.236
12.237 0.122 5.815
12.359 0.187 5.450
12.229 0.191 5.083
11.918 0.739 4.470
12.273 0.864 4.120
11.909 0.713 3.998
11.877 0.717 3.497
11.839 1.231 3.175
11.680 1.154 2.391
11.596 1.302 2.193
11.650 1.373 1.775
11.582 1.401 1.377
11.243 1.627 0.957
11.366 1.812 0.332
12.376 0.253 4.858
12.236 0.112 4.542
12.058 0.187 4.029
12.094 0.364 3.564
12.100 0.460 3.371
11.790 0.617 2.976
11.974 0.661 2.283
12.013 0.790 1.727
11.652 1.231 1.342
11.633 1.464 1.273
11.784 1.456 0.425
11.598 1.606 0.117
12.766 0.376 3.663
12.644 0.151 2.736
12.528 0.566 2.652
11.643 1.047 0.011
8.888 3.202 9.582
8.994 3.681 9.181
8.832 3.480 8.890
8.806 3.942 8.347
8.804 4.186 7.725
8.706 3.981 7.628
8.369 3.957 7.117
8.133 4.436 6.705
8.147 4.322 6.300
8.159 4.651 6.126
7.916 4.893 5.234
8.090 4.857 5.104
8.035 4.940 4.527
7.745 5.244 4.302
7.347 5.177 3.747
7.505 5.502 3.544
7.349 5.625 2.764
7.257 5.671 2.769
7.454 5.707 2.293
7.045 5.794 1.617
6.965 6.036 1.162
7.093 6.208 1.028
9.479 2.533 11.915
9.173 2.603 11.787
9.426 2.965 11.475
9.009 3.219 10.793
8.940 3.240 10.350
8.956 3.142 10.074
8.879 3.536 9.572
9.215 3.537 8.434
8.914 3.554 7.697
8.736 3.538 7.195
8.435 3.830 7.149
8.418 4.209 6.591
8.331 4.220 6.216
8.132 4.369 5.585
8.076 4.621 5.093
8.407 4.436 4.719
7.540 5.212 2.292
7.425 5.312 1.946
7.576 5.518 1.774
7.123 5.765 1.366
7.355 5.716 0.752
9.755 2.120 11.704
9.695 2.196 11.704
9.733 2.297 10.881
9.371 2.459 10.852
9.395 3.406 7.781
9.113 3.235 7.248
9.142 3.586 7.057
8.789 3.765 6.256
8.734 3.841 5.917
8.779 3.995 5.335
8.529 4.333 5.316
7.680 5.173 1.955
7.622 5.602 1.514
7.583 5.478 0.859
7.260 5.575 0.358
9.935 1.961 11.916
10.222 2.174 11.265
9.798 2.508 10.876
9.518 2.844 7.322
9.585 3.014 6.790
9.401 3.455 6.509
9.220 3.568 6.323
9.196 3.545 5.982
9.220 3.792 5.605
