3.574 1.050 5.089
3.756 1.246 4.453
3.789 1.216 3.827
3.944 1.438 3.228
3.917 1.704 2.822
4.319 2.068 2.272
4.160 2.186 1.762
3.046 0.017 7.883
3.694 -0.089 7.897
3.841 0.337 7.321
3.854 0.518 6.658
4.089 0.650 6.350
3.943 0.779 5.635
4.313 0.836 5.082
4.186 1.079 4.651
4.367 1.276 3.911
4.583 1.641 3.258
4.646 1.570 2.879
4.642 1.925 2.350
4.722 1.940 1.737
3.675 0.050 7.912
4.373 0.023 8.067
4.420 0.098 7.285
4.545 0.304 6.818
4.595 0.417 6.230
4.565 0.850 5.665
4.948 0.811 5.295
4.819 1.243 4.612
5.003 1.245 4.028
5.210 1.548 3.621
5.316 1.810 2.963
5.327 1.697 2.400
5.555 1.880 1.704
4.165 0.002 7.914
5.203 0.415 7.131
5.210 0.411 6.563
5.336 0.836 5.739
5.344 0.840 5.277
5.403 0.982 4.759
5.711 1.226 4.176
5.686 1.530 3.479
5.900 1.498 3.003
5.770 0.420 6.559
5.967 0.632 6.079
5.920 0.950 5.407
6.015 1.176 4.828
6.058 1.131 4.304
6.174 1.242 3.666
6.373 0.757 6.079
6.712 0.941 5.376
6.671 0.904 5.066
6.800 1.063 4.324
7.035 0.571 6.217
7.291 0.652 5.595
7.219 1.023 5.166
7.674 0.415 6.135
7.580 0.611 5.623
7.943 0.761 5.227
8.287 0.457 6.421
8.434 0.570 5.904
8.568 0.839 5.401
8.693 0.963 4.671
8.614 0.376 7.066
8.956 0.566 6.605
9.058 0.696 5.948
9.145 0.959 5.386
8.980 1.147 4.855
9.202 1.097 4.215
9.230 0.108 7.618
9.278 0.352 7.112
9.409 0.343 6.603
9.456 0.685 6.157
9.738 0.671 5.420
9.661 0.887 5.062
9.764 1.118 4.251
9.926 1.231 3.697
9.743 0.158 7.705
9.928 0.264 7.356
9.934 0.380 6.766
10.023 0.703 6.146
10.127 0.830 5.419
10.170 0.870 5.094
10.447 1.088 4.518
10.451 1.156 4.015
10.498 1.434 3.425
10.679 1.794 2.879
10.500 0.287 7.505
10.446 0.442 6.898
10.546 0.450 6.137
10.729 0.710 5.644
11.027 0.920 5.167
11.102 1.000 4.604
11.227 1.227 4.155
11.145 1.314 3.323
11.387 1.544 2.846
11.102 0.037 7.426
11.235 0.171 7.007
11.302 0.323 6.375
11.375 0.667 5.806
11.622 0.849 5.312
11.664 1.021 4.518
11.776 1.268 4.064
11.929 1.534 3.664
11.989 1.487 2.928
0.135 1.391 4.281
0.139 1.338 3.905
0.227 1.724 3.337
0.484 1.026 5.038
0.741 1.167 4.442
0.805 1.329 3.758
1.064 1.103 5.057
1.234 1.285 4.554
1.463 1.252 4.051
2.338 0.333 5.278
2.548 0.569 4.677
2.437 0.618 4.078
2.851 0.029 5.971
2.763 0.255 5.287
3.007 0.488 4.564
3.163 0.819 4.223
3.158 0.920 3.474
3.383 0.016 5.942
3.493 0.416 5.484
3.558 0.545 4.847
3.623 0.605 4.358
3.755 0.947 3.776
4.091 1.077 2.974
3.975 0.065 6.092
4.140 0.247 5.432
4.257 0.420 4.799
4.425 0.676 4.208
4.397 0.885 3.792
4.408 0.805 3.229
4.779 1.193 2.644
4.659 0.058 5.574
4.651 0.422 5.129
4.751 0.598 4.559
5.152 0.603 3.877
5.120 0.783 3.279
5.120 0.142 5.629
5.520 0.281 4.992
5.421 0.380 4.531
5.741 0.698 3.965
5.658 0.709 3.582
5.750 0.225 5.677
5.824 0.205 5.200
5.991 0.508 4.693
6.318 0.620 4.180
6.460 0.340 5.348
8.246 0.056 5.713
8.923 -0.002 5.599
9.030 0.352 5.045
9.065 0.304 4.575
9.624 -0.100 5.943
9.760 0.065 5.269
9.626 0.359 4.777
9.760 0.613 4.260
10.145 0.026 5.405
10.296 0.344 4.792
10.397 0.575 4.266
10.878 0.076 5.400
11.004 0.320 4.970
11.137 0.581 4.394
11.070 0.803 3.945
11.213 0.099 5.500
11.528 0.409 5.076
11.472 0.578 4.342
-0.049 0.821 4.193
0.117 0.718 3.549
3.032 0.255 4.080
3.625 -0.072 4.213
3.749 0.367 3.430
4.284 0.119 4.137
4.332 0.093 3.512
4.513 0.295 3.158
4.874 0.220 3.770
5.439 0.181 3.787
3.073 10.075 8.495
3.207 10.068 8.003
3.115 10.472 7.153
3.566 9.756 9.004
3.676 10.003 8.531
3.621 10.044 7.824
3.826 10.281 7.449
4.063 10.582 6.810
2.818 8.544 12.557
4.190 9.682 9.093
4.209 9.911 8.658
4.272 10.178 7.966
4.463 10.238 7.619
4.434 10.532 6.805
4.745 10.532 6.284
3.391 8.682 12.679
4.718 9.702 9.339
4.933 9.724 8.749
4.907 9.983 8.286
5.119 10.274 7.491
5.152 10.367 6.903
5.282 9.890 8.883
5.532 10.034 8.253
5.703 10.074 7.613
5.718 10.320 7.160
6.002 9.906 8.399
9.015 9.783 8.917
9.532 9.649 9.615
9.545 9.843 9.066
9.765 9.968 8.580
9.960 10.106 7.758
10.110 9.189 10.108
10.195 9.476 9.586
10.122 9.786 9.142
10.359 9.930 8.566
10.518 10.133 7.937
10.448 9.239 10.305
10.525 9.298 9.915
10.773 9.542 9.213
10.835 9.827 8.509
11.073 10.089 8.165
11.112 10.108 7.492
11.178 9.221 10.453
11.170 9.354 9.901
11.218 9.527 9.321
11.539 9.855 8.832
11.719 9.885 8.238
2.502 9.428 8.067
2.473 9.594 7.434
2.539 9.963 6.943
2.815 9.219 8.885
2.869 9.415 8.164
3.061 9.675 7.694
3.210 9.768 7.264
3.407 9.916 6.445
2.264 8.284 12.095
3.420 9.078 9.423
3.565 9.215 8.969
3.725 9.336 8.225
3.725 9.442 7.781
3.861 9.642 7.211
3.880 9.890 6.646
4.038 10.058 6.216
2.791 8.148 12.310
2.815 8.366 11.798
3.894 9.001 9.521
4.035 9.295 9.130
4.048 9.382 8.329
4.438 9.615 7.794
4.485 9.577 7.224
4.471 9.738 6.696
4.595 10.128 6.147
4.782 10.184 5.583
3.562 8.068 12.307
3.426 8.149 11.864
4.615 8.880 9.642
4.612 9.175 9.097
4.925 9.280 8.443
4.965 9.615 7.971
5.102 9.491 7.268
5.236 9.917 6.732
5.184 10.159 6.244
4.009 7.864 12.322
4.080 8.284 12.029
5.202 9.080 9.090
5.497 9.291 8.494
5.556 9.451 8.227
5.714 9.748 7.640
5.643 9.815 7.085
5.769 9.845 6.378
4.609 7.889 12.720
5.947 9.197 8.684
6.199 9.286 8.190
6.086 9.434 7.554
6.286 9.644 6.940
6.652 9.431 8.455
8.320 9.246 8.734
8.938 8.853 9.122
8.906 9.294 8.726
9.026 9.428 8.136
9.148 9.651 7.566
9.237 8.644 10.018
9.448 9.021 9.270
9.633 9.276 8.873
9.694 9.290 8.312
9.901 9.637 7.839
10.047 9.591 7.056
9.790 8.624 10.739
9.940 8.606 10.002
10.043 8.921 9.590
10.267 9.005 9.027
10.300 9.324 8.372
10.521 9.351 7.792
10.455 9.738 7.163
10.459 8.352 10.790
10.694 8.643 10.074
10.585 9.016 9.700
10.915 9.058 9.165
10.918 9.113 8.590
11.029 9.328 7.838
11.132 9.707 7.445
11.362 9.739 6.641
10.978 8.383 10.860
11.058 8.792 10.187
11.238 8.723 9.769
11.368 9.052 9.226
11.470 9.082 8.562
11.692 9.418 7.946
11.562 9.618 7.505
-0.000 9.595 7.844
0.092 9.783 7.163
0.453 9.866 6.716
1.320 8.941 7.633
1.515 9.042 7.305
1.629 9.291 6.468
0.336 7.369 12.254
1.858 8.937 7.895
1.851 9.142 7.295
2.214 9.352 6.674
0.991 7.580 12.220
2.438 8.800 8.635
2.366 9.009 7.811
2.562 9.066 7.385
2.705 9.285 6.787
2.872 9.369 6.183
1.515 7.566 12.356
1.560 7.652 11.912
2.681 8.397 9.309
2.848 8.774 8.548
3.146 8.790 8.107
3.053 9.119 7.348
3.144 9.106 6.850
3.439 9.284 6.444
3.463 9.523 5.924
2.160 7.365 12.599
2.162 7.650 12.042
2.408 7.726 11.272
3.196 8.080 10.230
3.121 8.190 9.719
3.280 8.432 9.299
3.411 8.638 8.794
3.581 8.873 8.152
3.840 8.942 7.684
3.810 9.220 7.149
3.854 9.465 6.620
4.155 9.364 5.936
4.116 9.588 5.250
4.125 10.005 4.938
4.487 10.203 4.237
2.950 7.644 11.966
2.860 7.658 11.466
2.906 7.891 10.824
3.175 8.062 10.331
3.862 7.950 10.515
3.790 8.303 9.902
3.882 8.452 9.271
3.993 8.598 8.715
4.303 8.816 8.378
4.435 9.085 7.615
4.551 8.967 7.280
4.683 9.197 6.623
4.537 9.614 6.047
4.768 9.569 5.496
4.882 9.705 4.755
5.075 9.898 4.479
3.485 7.562 12.074
3.489 7.626 11.474
3.676 7.704 11.158
3.878 7.933 10.626
4.226 7.977 10.660
4.345 8.082 9.942
4.447 8.477 9.561
4.616 8.423 8.876
4.737 8.610 8.450
4.846 8.744 7.741
4.968 8.945 7.312
4.979 9.169 6.575
5.202 9.576 6.163
5.481 9.490 5.688
5.508 9.887 5.038
5.488 9.933 4.553
4.045 7.366 12.278
4.036 7.677 11.838
4.261 7.928 11.135
4.392 8.016 10.714
5.208 8.206 9.502
5.292 8.338 8.907
5.372 8.806 8.572
5.413 8.775 7.879
5.612 9.180 7.219
5.805 9.352 6.698
5.684 9.479 6.330
5.888 9.623 5.726
4.580 7.325 12.524
4.687 7.691 11.770
5.747 8.594 9.017
5.818 8.648 8.672
5.920 8.705 8.098
6.261 9.064 7.586
6.296 9.250 6.769
6.255 9.272 6.283
5.229 7.276 12.340
6.445 8.641 8.640
6.545 8.884 8.015
6.738 9.012 7.431
6.990 9.124 7.076
7.119 8.674 8.644
7.279 8.708 8.346
7.268 8.993 7.563
7.619 8.457 8.793
7.840 8.606 8.304
7.988 8.792 7.898
8.310 8.500 9.114
8.270 8.648 8.421
8.405 8.824 7.810
8.535 9.122 7.176
8.797 8.262 9.576
8.937 8.298 9.014
9.051 8.450 8.437
9.260 8.919 7.859
9.248 8.934 7.356
9.221 9.233 6.984
9.285 8.020 10.402
9.265 8.238 9.636
9.607 8.322 9.307
9.703 8.574 8.741
9.649 8.786 8.055
9.793 8.843 7.650
9.850 9.219 7.012
10.168 9.376 6.396
8.967 7.203 12.474
9.583 7.591 11.681
9.641 7.938 10.913
9.964 7.905 10.275
10.100 8.289 9.938
10.203 8.495 9.180
10.342 8.369 8.805
10.194 8.644 8.219
10.556 8.805 7.607
10.613 9.050 7.141
10.547 9.316 6.416
10.809 9.419 5.830
10.950 9.760 5.432
9.608 7.473 12.120
9.683 7.530 11.421
10.088 7.478 11.656
10.387 7.651 10.950
10.540 8.027 10.530
10.587 8.041 9.872
10.511 8.410 9.306
10.744 8.544 8.858
10.963 8.768 8.133
11.030 8.943 7.870
10.997 9.170 7.018
11.358 9.308 6.602
11.261 9.255 6.117
11.374 9.426 5.604
9.996 7.404 12.245
10.207 7.600 11.536
10.728 7.446 11.781
10.805 7.724 11.245
11.023 7.987 10.739
11.125 8.005 10.108
11.155 8.291 9.534
11.348 8.388 9.086
11.483 8.585 8.259
11.607 8.810 7.734
11.735 8.829 7.347
11.940 9.275 6.718
11.859 9.468 6.009
12.114 9.496 5.504
10.790 7.454 12.357
10.821 7.636 11.597
0.002 9.176 7.376
0.259 9.292 6.848
0.236 9.322 6.465
0.395 9.552 5.969
0.693 9.040 7.637
0.923 9.056 7.211
0.768 9.489 6.628
1.168 8.858 7.802
1.275 9.120 7.283
1.624 9.206 6.483
0.336 7.602 12.347
1.333 8.310 7.430
1.484 8.421 6.964
1.566 8.856 6.463
1.492 9.078 5.932
0.259 6.986 12.077
1.631 8.102 8.364
1.781 8.486 7.636
1.960 8.566 7.116
1.981 8.778 6.441
2.328 8.897 5.828
1.036 6.822 12.106
1.022 7.002 11.501
2.209 8.248 8.447
2.511 8.172 7.801
2.625 8.387 7.124
2.795 8.767 6.604
2.837 8.710 6.077
2.890 9.008 5.411
1.407 6.738 12.226
1.500 7.135 11.766
2.790 7.569 9.404
2.802 8.056 9.086
2.741 7.989 8.408
3.083 8.387 7.962
3.120 8.332 7.320
3.382 8.479 6.786
3.296 8.776 6.152
3.466 9.011 5.754
3.561 9.212 5.043
2.192 6.855 12.298
2.254 6.916 11.683
2.427 7.233 11.100
2.557 7.512 10.535
3.199 7.545 10.158
3.407 7.755 9.556
3.368 7.843 9.126
3.597 7.900 8.388
3.723 8.382 7.885
3.589 8.531 7.426
3.949 8.605 6.959
3.897 8.884 6.147
4.117 8.868 5.654
4.132 8.990 5.212
4.392 9.409 4.755
4.459 9.647 4.167
2.546 6.883 12.305
2.853 6.941 11.998
2.959 7.082 11.238
2.900 7.191 10.647
3.132 7.569 10.163
3.737 7.398 10.146
3.770 7.640 9.620
4.019 7.904 9.103
3.972 7.932 8.591
4.080 8.097 8.011
4.416 8.258 7.404
4.375 8.663 6.856
4.518 8.585 6.545
4.539 8.962 5.815
4.840 8.970 5.166
4.728 9.132 4.639
4.919 9.493 4.199
3.149 6.774 12.411
3.326 7.005 11.892
3.559 7.162 11.384
3.500 7.292 10.983
3.663 7.541 10.266
4.216 7.292 10.451
4.480 7.753 9.729
4.673 7.878 9.361
4.608 8.095 8.680
4.704 8.205 8.188
4.768 8.362 7.755
4.947 8.397 6.990
4.957 8.704 6.524
5.222 8.779 6.041
5.373 8.954 5.257
5.351 9.239 4.905
5.604 9.539 4.133
3.905 6.744 12.050
4.055 7.008 11.464
4.066 7.190 10.909
4.291 7.553 10.277
4.807 7.420 10.631
4.880 7.647 9.984
5.027 7.796 9.504
5.132 7.929 8.962
5.218 8.235 8.309
5.529 8.414 7.615
5.554 8.365 7.269
5.844 8.739 6.491
5.738 8.873 6.097
6.066 8.873 5.365
6.061 9.240 4.992
6.292 9.293 4.480
4.695 6.881 12.159
4.663 7.149 11.745
4.759 7.220 11.164
5.042 7.321 10.493
5.825 7.627 9.638
5.689 7.744 8.898
5.830 8.179 8.306
6.132 8.146 7.681
6.317 8.284 7.370
6.185 8.518 6.561
6.448 8.861 6.213
5.293 6.893 12.451
5.319 6.854 11.839
6.349 7.845 9.094
6.385 8.147 8.603
6.786 8.326 8.082
6.893 8.300 7.223
6.945 8.467 6.934
5.799 6.681 12.402
7.160 8.034 8.737
7.150 8.001 7.958
7.209 8.289 7.432
7.363 8.413 7.038
7.780 7.846 8.623
7.816 8.120 8.237
7.947 8.385 7.638
7.947 8.512 7.027
8.116 7.656 9.314
8.196 8.013 8.845
8.407 8.047 8.355
8.455 8.191 7.604
8.733 8.326 7.005
8.619 7.452 9.985
8.860 7.713 9.391
8.821 7.807 8.777
8.936 8.180 8.278
9.258 8.118 7.755
9.186 8.423 7.277
9.222 8.488 6.698
8.191 6.663 12.253
8.923 7.064 11.379
9.025 7.176 10.689
9.102 7.310 10.069
9.451 7.692 9.434
9.455 7.920 8.934
9.680 7.931 8.355
9.661 8.026 7.763
9.816 8.384 7.478
9.795 8.534 6.892
10.132 8.649 6.230
10.243 8.860 5.646
10.201 9.036 5.213
8.922 6.838 12.467
8.991 6.783 11.875
9.123 6.947 11.354
9.465 7.145 11.214
9.807 7.375 10.857
9.917 7.521 10.285
9.891 7.432 9.764
10.100 7.784 9.179
10.250 7.842 8.462
10.162 8.023 8.055
10.360 8.402 7.540
10.617 8.498 6.801
10.608 8.628 6.223
10.816 8.977 5.635
10.966 9.074 5.213
9.468 6.571 12.547
9.443 7.012 11.754
9.656 7.078 11.307
10.063 7.017 11.304
10.385 7.225 10.901
10.288 7.479 10.297
10.396 7.395 9.871
10.770 7.716 9.337
10.904 7.834 8.635
10.987 7.965 8.072
10.872 8.299 7.656
10.944 8.440 7.068
11.105 8.665 6.562
11.357 8.732 5.765
11.450 9.040 5.442
10.224 6.970 12.030
10.109 6.982 11.515
10.705 6.910 11.410
10.980 7.195 10.870
11.021 7.458 10.538
11.148 7.423 9.977
11.382 7.619 9.226
11.506 7.871 8.690
11.484 8.147 8.177
11.509 8.360 7.567
11.776 8.510 7.072
11.788 8.495 6.530
11.796 8.698 6.040
11.913 8.944 5.436
10.561 6.892 12.193
10.700 6.804 11.402
-0.086 9.280 4.588
-0.068 8.419 7.470
0.037 8.685 6.632
0.233 8.768 6.213
0.475 8.921 5.516
0.416 9.071 5.002
0.568 8.139 7.946
0.663 8.439 7.596
0.926 8.636 6.812
0.908 8.928 6.278
1.103 8.916 5.907
1.224 8.492 7.397
1.428 8.672 6.866
1.502 8.731 6.474
1.631 8.854 5.954
0.462 6.796 11.959
1.285 7.664 8.026
1.168 7.790 7.420
1.356 8.093 6.833
1.491 8.300 6.369
1.524 8.289 5.789
0.149 6.309 12.448
0.345 6.311 11.962
0.451 6.683 11.229
1.807 7.458 8.075
1.970 7.644 7.336
1.918 8.072 6.762
2.188 7.990 6.226
2.145 8.252 5.871
0.877 6.027 12.393
0.979 6.275 11.863
0.905 6.635 11.235
2.064 7.498 8.626
2.203 7.580 8.070
2.372 7.811 7.435
2.647 8.017 7.040
2.718 8.139 6.588
2.847 8.384 5.949
2.710 8.543 5.295
1.523 6.146 12.137
1.678 6.538 11.552
1.840 6.584 10.787
2.704 7.026 9.813
2.523 7.081 9.506
2.843 7.280 8.744
3.018 7.629 8.284
3.158 7.646 7.779
3.181 7.826 7.174
3.350 8.197 6.672
3.362 8.394 5.901
3.608 8.570 5.371
3.488 8.663 4.817
3.758 8.641 4.185
3.700 8.835 3.834
2.108 6.311 12.179
2.349 6.452 11.720
2.399 6.556 11.050
2.318 6.686 10.339
2.686 6.823 9.957
3.146 6.775 10.041
3.271 7.117 9.492
3.408 7.171 8.755
3.368 7.497 8.388
3.549 7.501 7.922
3.643 7.794 7.285
3.938 8.068 6.772
4.046 8.160 6.003
4.098 8.382 5.423
4.297 8.642 4.870
4.325 8.797 4.427
4.377 9.080 3.937
2.607 6.328 12.322
2.893 6.349 11.755
2.856 6.690 11.152
3.147 6.795 10.436
3.169 6.906 10.024
3.666 6.749 10.223
3.746 7.002 9.654
3.995 7.234 9.073
4.048 7.492 8.282
4.045 7.720 7.731
4.433 7.832 7.255
4.330 8.118 6.718
4.386 8.309 6.349
4.626 8.454 5.581
4.866 8.670 5.032
4.993 8.676 4.384
5.036 8.917 4.105
3.391 6.064 12.408
3.400 6.472 11.704
3.578 6.560 11.289
3.727 6.794 10.541
3.661 6.734 10.097
4.214 6.832 10.175
4.329 6.989 9.740
4.468 7.204 9.073
4.646 7.236 8.464
4.789 7.448 7.999
4.786 7.768 7.361
5.024 8.042 6.744
5.116 8.087 6.174
5.217 8.292 5.788
5.322 8.637 5.139
5.369 8.672 4.774
5.561 8.700 4.147
3.873 6.052 12.419
4.035 6.239 11.886
4.212 6.340 11.456
4.071 6.621 10.933
4.474 6.764 10.364
4.890 6.821 10.336
4.887 6.898 9.806
5.110 7.321 9.311
5.264 7.376 8.515
5.513 7.659 8.239
5.419 7.686 7.528
5.554 8.045 7.006
5.678 8.200 6.562
5.800 8.172 5.869
5.794 8.451 5.204
6.092 8.712 4.593
6.005 8.737 4.214
4.604 6.023 12.535
4.477 6.327 12.129
4.695 6.386 11.544
4.820 6.506 10.788
4.888 6.952 10.315
5.665 7.218 9.201
5.931 7.465 8.633
5.803 7.500 8.248
5.982 7.755 7.558
6.046 7.865 7.186
6.338 7.955 6.637
6.370 8.191 5.989
6.466 8.480 5.527
5.249 6.107 12.219
5.164 6.322 11.556
6.575 7.259 8.750
6.456 7.361 8.173
6.542 7.771 7.662
6.881 7.840 7.296
6.788 7.947 6.497
7.056 8.125 6.039
5.640 6.283 12.316
6.942 7.285 8.817
7.168 7.517 8.458
7.257 7.439 7.792
7.196 7.805 7.293
7.578 8.056 6.856
6.211 6.226 12.318
7.656 7.241 8.964
7.622 7.368 8.373
7.924 7.690 7.811
7.891 7.622 7.495
7.957 7.949 6.867
6.796 5.945 12.472
8.032 7.048 9.180
8.452 7.269 8.548
8.263 7.607 7.974
8.568 7.724 7.435
8.583 7.743 7.011
8.683 8.113 6.520
7.623 6.160 12.684
8.726 7.045 9.850
8.783 7.225 9.318
8.747 7.279 8.667
9.085 7.467 8.294
9.193 7.560 7.691
9.362 7.965 6.991
9.387 8.001 6.612
9.578 8.191 6.058
8.271 6.134 12.148
9.155 6.440 11.028
8.976 6.544 10.393
9.156 6.762 10.082
9.303 7.144 9.311
9.372 7.278 8.676
9.542 7.534 8.349
9.765 7.667 7.597
9.652 7.754 7.060
9.895 8.088 6.699
9.913 8.153 5.982
10.163 8.460 5.395
10.376 8.396 4.989
8.952 6.043 12.128
8.954 6.476 11.700
8.978 6.414 11.000
9.626 6.496 11.041
9.832 6.753 10.613
9.695 6.826 10.089
10.092 6.976 9.368
9.908 7.297 8.947
10.150 7.235 8.323
10.310 7.456 7.856
10.425 7.792 7.151
10.421 7.862 6.687
10.502 8.156 6.268
10.767 8.267 5.632
10.690 8.624 5.123
9.486 6.225 12.140
9.521 6.422 11.651
9.694 6.351 11.145
10.155 6.313 11.381
10.289 6.747 10.571
10.476 6.869 10.191
10.449 6.952 9.469
10.727 7.080 9.169
10.839 7.401 8.525
10.805 7.560 7.959
11.108 7.587 7.279
11.106 7.990 6.754
11.076 8.181 6.351
11.362 8.145 5.554
11.550 8.478 5.037
10.009 5.975 12.393
10.105 6.119 11.840
10.247 6.343 11.143
10.897 6.244 11.468
10.912 6.507 10.959
11.026 6.755 10.361
11.243 6.816 9.773
11.258 7.024 8.976
11.295 7.153 8.557
11.574 7.626 7.931
11.419 7.788 7.569
11.602 7.887 6.772
11.853 8.082 6.341
11.778 8.114 5.869
11.905 8.490 5.102
10.509 6.005 12.460
10.711 6.265 11.861
10.798 6.442 11.368
0.156 8.921 4.270
0.258 9.123 3.645
0.172 9.275 3.044
0.037 7.872 7.022
0.190 8.191 6.619
0.207 8.303 6.068
0.551 8.586 5.466
0.372 8.576 4.971
0.579 7.634 7.964
0.587 7.837 7.169
0.698 7.908 6.689
0.979 8.135 6.031
1.090 8.392 5.726
1.219 7.701 7.885
1.295 7.884 7.429
1.347 8.109 6.846
1.319 8.118 6.397
1.490 8.499 5.706
0.283 6.180 12.294
0.238 6.509 11.967
0.426 6.460 11.280
1.244 7.250 7.329
1.321 7.416 6.603
1.326 7.743 6.030
1.667 7.825 5.561
0.369 5.585 12.349
0.437 5.957 11.627
1.862 7.252 7.180
2.060 7.292 6.594
1.917 7.441 6.064
2.082 7.638 5.567
0.920 5.598 12.383
0.892 5.722 11.653
2.421 6.957 8.077
2.360 7.098 7.488
2.680 7.464 6.920
2.671 7.633 6.188
2.890 7.623 5.753
2.748 7.775 5.204
1.432 5.493 12.405
1.484 5.652 11.935
1.712 5.936 11.307
2.932 6.765 8.634
2.912 6.855 8.019
2.868 7.209 7.363
2.970 7.180 7.032
3.345 7.642 6.252
3.212 7.659 5.768
3.569 7.754 5.267
3.527 8.066 4.548
2.109 5.638 12.514
2.008 5.726 12.100
2.235 5.706 11.398
2.224 5.986 10.915
3.126 6.483 9.681
3.202 6.421 9.186
3.424 6.588 8.730
3.583 7.038 8.297
3.539 7.242 7.616
3.670 7.344 7.150
3.926 7.433 6.494
4.005 7.536 5.818
3.914 7.863 5.350
3.996 7.982 4.830
4.234 8.150 4.230
4.228 8.303 3.642
2.630 5.544 11.912
2.845 5.908 11.357
3.030 5.886 10.864
3.087 6.139 10.289
3.008 6.427 9.858
3.749 6.265 9.855
3.939 6.438 9.520
3.807 6.678 8.966
4.151 6.801 8.121
4.177 7.096 7.549
4.308 7.336 7.254
4.386 7.381 6.531
4.418 7.604 5.931
4.692 7.825 5.395
4.817 7.807 4.946
4.887 7.981 4.495
4.921 8.312 3.778
3.121 5.702 12.017
3.513 5.621 11.499
3.454 5.950 11.053
3.704 6.214 10.576
3.602 6.169 10.046
4.324 6.238 9.906
4.542 6.453 9.569
4.651 6.701 8.960
4.776 6.909 8.371
4.790 6.899 7.816
4.938 7.207 7.312
4.920 7.499 6.745
4.974 7.512 6.227
5.128 7.728 5.531
5.191 8.069 5.136
5.568 8.203 4.466
5.674 8.394 4.024
3.732 5.507 12.403
4.047 5.661 11.789
3.957 6.003 11.200
4.339 6.149 10.495
4.176 6.233 9.885
4.799 6.360 10.213
4.941 6.363 9.565
5.254 6.467 8.868
5.251 6.640 8.374
5.494 6.860 8.010
5.444 7.010 7.241
5.449 7.248 6.883
5.659 7.434 6.114
5.929 7.684 5.698
5.768 7.813 5.247
6.002 8.050 4.497
6.245 8.220 3.969
4.441 5.444 12.517
4.589 5.720 11.897
4.753 5.941 11.392
4.762 5.960 10.550
5.003 6.364 10.251
5.795 6.492 9.060
5.872 6.870 8.670
5.883 7.070 8.038
5.926 7.213 7.481
6.194 7.128 6.996
6.423 7.463 6.333
6.295 7.760 5.743
5.110 5.565 12.338
5.096 5.776 11.855
5.180 5.741 11.357
6.258 6.606 8.566
6.472 6.754 8.005
6.587 7.184 7.610
6.855 7.172 6.866
6.962 7.458 6.579
5.713 5.664 12.082
7.142 6.886 8.358
7.163 6.866 7.599
7.456 7.291 7.065
7.399 7.516 6.387
7.650 6.764 8.404
7.672 6.842 7.733
8.027 7.083 7.075
8.091 7.270 6.620
8.107 6.598 8.925
8.202 6.781 8.544
8.490 6.788 7.902
8.440 7.249 7.287
8.762 7.204 6.906
7.586 5.559 12.422
8.628 6.467 9.580
8.713 6.471 9.044
8.942 6.618 8.483
9.073 6.828 8.127
9.088 7.152 7.532
9.341 7.247 6.869
9.429 7.408 6.264
8.161 5.494 12.458
8.122 5.599 11.778
8.925 5.879 10.890
9.045 6.006 10.379
9.205 6.460 9.601
9.426 6.648 9.287
9.341 6.546 8.747
9.495 6.784 7.958
9.640 7.016 7.381
9.708 7.172 7.084
10.061 7.352 6.427
10.102 7.640 5.817
10.220 7.823 5.208
10.189 7.895 4.861
8.575 5.370 12.477
8.675 5.451 12.056
8.872 5.844 11.399
8.985 5.815 10.824
9.647 6.042 10.874
9.761 6.066 10.419
9.705 6.233 9.886
9.851 6.437 9.166
9.977 6.722 8.607
10.023 6.761 8.143
10.187 6.852 7.605
10.349 7.051 7.008
10.477 7.277 6.374
10.592 7.418 5.921
10.647 7.870 5.247
10.833 7.937 4.783
9.403 5.558 12.122
9.568 5.816 11.553
9.531 5.869 10.849
10.282 5.818 11.237
10.355 6.126 10.546
10.310 6.207 10.074
10.426 6.409 9.502
10.532 6.747 8.977
10.639 6.825 8.281
10.782 6.859 7.763
10.925 7.163 7.059
11.040 7.269 6.694
11.305 7.542 6.109
11.359 7.737 5.434
11.477 7.725 4.909
10.047 5.472 12.141
10.179 5.625 11.505
10.168 5.844 11.058
10.633 5.977 11.339
10.993 6.120 10.610
11.152 6.078 9.971
11.253 6.319 9.451
11.341 6.601 8.931
11.188 6.806 8.355
11.525 7.068 7.704
11.617 7.104 7.195
11.725 7.203 6.654
11.761 7.472 6.169
11.822 7.718 5.492
11.915 7.708 4.879
10.598 5.484 12.223
10.766 5.594 11.833
10.874 5.847 11.153
0.072 8.386 4.117
0.014 7.453 7.011
0.323 7.391 6.335
0.168 7.762 5.814
0.339 7.906 5.238
0.562 7.907 4.645
0.786 7.302 7.119
0.716 7.485 6.491
0.830 7.696 5.937
1.027 7.884 5.483
1.324 7.278 7.308
1.328 7.370 6.650
1.507 7.481 5.943
1.446 7.919 5.594
0.282 5.702 12.218
0.484 5.763 11.672
1.381 6.988 6.504
0.219 5.197 11.877
1.874 6.874 6.442
2.178 7.139 6.081
0.870 5.117 12.134
2.442 6.662 7.323
2.399 6.653 6.509
2.686 7.092 6.035
2.659 7.258 5.448
1.422 4.880 12.173
1.453 5.031 11.603
2.816 6.296 7.718
3.116 6.566 7.343
3.236 6.780 6.687
3.167 6.987 6.054
3.376 7.078 5.554
3.447 7.232 5.042
2.078 5.039 12.420
2.034 5.048 11.671
2.350 5.176 11.320
3.253 6.250 8.546
3.504 6.242 8.019
3.593 6.454 7.416
3.667 6.553 6.901
3.873 6.944 6.294
3.775 7.147 5.716
3.874 7.357 5.124
4.286 7.276 4.460
2.686 4.852 12.491
2.761 4.939 12.034
2.738 5.266 11.308
2.766 5.529 10.779
3.802 5.716 9.650
3.779 6.024 9.302
4.080 6.263 8.769
4.000 6.194 7.924
4.187 6.507 7.593
4.128 6.687 6.934
4.518 6.776 6.322
4.552 6.985 5.849
4.725 7.275 5.204
4.792 7.364 4.850
4.838 7.648 4.094
4.859 7.784 3.697
3.030 4.920 12.431
3.274 5.080 12.091
3.230 5.201 11.416
3.606 5.485 10.886
3.497 5.502 10.359
3.591 5.775 9.706
4.437 5.927 9.146
4.558 5.966 8.616
4.672 6.217 8.128
4.735 6.397 7.624
4.922 6.531 7.013
4.931 6.647 6.649
5.042 6.844 5.965
5.339 7.128 5.329
5.161 7.366 4.808
3.936 5.138 12.203
3.939 5.041 11.543
3.930 5.219 11.109
4.270 5.540 10.520
5.233 6.125 8.929
5.352 6.345 8.331
5.190 6.544 7.863
5.527 6.454 7.129
5.658 6.889 6.625
5.835 6.976 6.096
5.904 7.246 5.527
4.509 4.953 12.177
4.448 5.026 11.769
4.598 5.243 11.180
5.773 6.062 8.508
6.038 6.220 7.877
6.029 6.411 7.313
6.201 6.865 6.718
6.204 6.926 6.182
5.036 4.965 12.257
4.989 5.136 11.682
6.662 6.307 7.885
6.559 6.544 7.256
6.674 6.582 6.666
5.581 4.780 12.277
7.220 6.405 7.494
7.937 6.565 7.424
8.428 6.267 8.308
8.350 6.376 7.708
8.500 6.422 7.030
8.903 5.912 8.843
8.995 6.176 8.311
9.102 6.346 7.745
9.217 6.553 7.150
9.345 6.655 6.797
8.005 4.784 12.212
9.151 5.692 9.622
9.201 6.000 8.916
9.323 6.092 8.491
9.677 6.401 7.864
9.699 6.318 7.375
9.649 6.610 6.662
9.852 6.769 6.322
8.777 4.937 12.508
8.752 5.112 11.679
9.649 5.471 10.168
9.755 5.671 9.671
9.898 6.037 8.988
10.115 6.149 8.464
10.078 6.239 8.039
10.386 6.389 7.575
10.499 6.539 6.864
10.535 6.940 6.218
10.511 6.878 5.730
9.222 4.826 12.318
9.500 4.888 12.027
9.382 5.201 11.503
10.069 5.387 10.885
10.387 5.365 10.178
10.467 5.738 9.870
10.638 5.685 9.323
10.674 5.865 8.663
10.815 6.331 8.233
10.833 6.502 7.546
11.034 6.672 7.138
11.117 6.899 6.315
11.058 7.075 5.921
11.163 7.268 5.435
11.310 7.186 4.668
9.960 4.808 11.923
10.148 4.978 11.327
10.204 5.419 11.005
10.996 5.762 9.744
11.157 5.712 9.363
11.356 6.092 8.676
11.427 6.079 8.325
11.505 6.381 7.597
11.713 6.661 7.013
11.517 6.770 6.451
11.701 6.822 6.097
10.550 4.802 12.250
0.210 6.610 6.631
0.219 7.094 6.094
0.203 7.082 5.812
0.298 7.368 5.226
0.888 6.868 6.374
0.915 7.212 5.806
1.347 6.997 6.318
0.086 4.906 12.008
2.656 6.194 6.386
1.310 4.357 12.104
2.869 5.997 7.120
3.083 6.213 6.583
3.076 6.338 5.872
3.401 6.499 5.391
2.074 4.442 12.245
2.069 4.530 11.563
3.323 5.860 7.720
3.456 5.838 7.293
3.656 6.125 6.656
3.889 6.246 6.079
3.878 6.532 5.603
3.985 6.574 5.038
2.509 4.187 12.169
2.558 4.371 11.613
2.873 4.768 11.216
4.081 5.546 8.375
4.201 5.704 8.005
4.047 5.780 7.171
4.372 6.156 6.852
4.259 6.144 6.267
4.370 6.322 5.505
4.554 6.637 4.956
3.097 4.417 12.241
3.414 4.485 11.882
3.281 4.606 11.354
3.472 4.976 10.630
4.601 5.715 8.110
4.715 5.973 7.400
4.970 5.897 6.714
4.852 6.197 6.324
5.068 6.343 5.603
5.190 6.747 5.215
3.596 4.127 12.496
3.839 4.314 11.782
4.034 4.491 11.485
5.241 5.614 8.226
5.438 5.777 7.599
5.413 5.952 7.118
5.627 6.339 6.291
5.684 6.294 5.880
4.388 4.179 12.657
4.467 4.360 12.034
4.416 4.432 11.305
5.783 5.738 7.623
5.876 5.913 6.994
6.039 6.170 6.451
5.004 4.327 12.168
9.019 5.700 8.092
8.877 5.735 7.485
8.971 6.040 7.098
9.223 5.241 8.841
9.522 5.413 8.219
9.471 5.572 7.816
9.649 5.819 7.122
9.833 5.941 6.511
8.747 4.240 12.286
9.937 5.293 8.792
9.982 5.384 8.367
10.101 5.641 7.686
10.126 5.958 7.375
10.402 6.166 6.795
10.360 6.326 5.997
9.125 4.201 12.151
10.253 5.180 9.571
10.479 5.159 8.965
10.772 5.522 8.327
10.669 5.620 7.860
10.961 5.906 7.444
10.903 5.895 6.952
11.196 6.074 6.318
9.837 4.307 12.479
9.898 4.473 11.936
11.258 5.275 9.293
11.207 5.542 8.621
11.292 5.707 8.010
11.571 5.665 7.591
11.444 6.055 6.924
11.797 5.987 6.333
10.392 4.061 12.538
0.148 6.234 6.118
3.000 5.746 6.327
3.228 5.666 5.939
1.760 3.462 12.588
2.050 3.919 11.811
3.424 5.430 6.971
3.762 5.570 6.336
3.857 5.590 5.938
3.909 6.006 5.386
2.677 3.882 12.223
2.596 4.054 11.511
4.183 5.221 7.778
4.213 5.313 7.133
4.378 5.553 6.610
4.477 5.766 5.942
4.580 5.824 5.598
3.129 3.861 12.126
3.206 3.790 11.510
3.278 4.135 10.978
4.485 5.181 7.922
4.899 5.177 7.253
4.920 5.325 6.650
5.120 5.519 6.034
4.928 5.717 5.692
3.603 3.670 12.404
3.731 3.939 11.717
3.825 4.086 11.193
5.229 5.169 7.280
5.425 5.426 6.718
5.483 5.473 6.316
4.426 3.681 12.228
4.554 3.649 11.762
9.333 4.969 7.926
9.512 5.174 7.446
9.694 5.217 6.826
8.423 3.559 12.689
10.043 4.611 8.791
9.882 5.023 8.074
10.267 5.172 7.647
10.213 5.313 7.180
10.514 5.316 6.444
9.132 3.641 11.955
10.368 4.713 8.924
10.768 4.842 8.372
10.862 5.204 7.664
10.914 5.113 7.098
10.976 5.453 6.527
9.865 3.488 12.073
11.106 4.976 8.494
11.463 5.017 7.806
11.410 5.274 7.179
11.614 5.316 6.793
3.100 4.893 6.186
1.856 3.307 11.882
3.429 4.915 6.750
3.783 5.096 6.349
3.816 5.136 5.582
3.764 5.262 5.152
2.384 2.852 12.368
2.543 3.086 11.726
2.673 3.247 11.344
4.015 4.571 7.493
4.197 4.626 7.036
4.393 4.918 6.271
4.218 5.048 5.780
4.615 5.418 5.275
2.877 2.909 12.394
2.982 3.253 12.109
3.335 3.255 11.357
3.224 3.654 11.025
4.724 4.851 6.950
4.879 4.994 6.607
4.883 5.192 5.949
5.131 5.217 5.289
3.672 3.085 12.175
3.780 3.197 11.530
5.396 4.685 7.201
5.355 4.814 6.603
5.603 4.912 5.942
4.384 2.936 12.238
4.512 3.313 11.611
9.316 4.344 7.767
9.682 4.508 7.209
9.611 4.740 6.839
8.448 2.858 12.475
10.025 4.315 7.954
10.204 4.615 7.552
10.315 4.732 6.771
10.438 4.947 6.414
9.239 2.851 12.375
10.616 4.267 8.543
10.685 4.170 8.230
10.712 4.609 7.658
10.990 4.530 7.090
10.986 4.925 6.390
9.862 2.977 12.119
11.057 4.248 8.260
11.441 4.364 7.520
11.503 4.758 7.053
11.640 4.764 6.644
4.335 6.965 -0.102
4.588 6.612 1.196
4.942 6.963 0.694
5.021 6.952 0.014
5.232 6.552 1.509
5.308 6.916 0.787
5.523 6.982 0.306
5.953 6.669 1.571
5.881 6.685 0.873
6.203 6.925 0.391
6.452 6.798 0.898
6.588 6.931 0.327
10.519 6.469 1.605
10.722 6.572 1.213
11.038 6.675 0.764
11.107 6.134 2.377
11.140 6.249 1.767
11.431 6.469 1.298
11.403 6.629 0.849
11.864 6.242 2.583
11.713 6.362 1.886
11.869 6.439 1.514
12.068 6.533 0.855
12.155 6.998 0.280
12.320 6.057 2.496
12.582 6.229 2.044
12.551 6.557 1.461
4.092 6.381 0.334
4.758 6.059 1.109
4.913 6.283 0.587
5.253 6.033 1.199
5.343 6.187 0.669
5.634 6.516 0.192
5.828 6.121 1.364
5.922 6.212 0.588
6.128 6.381 0.221
6.468 6.121 0.736
6.790 6.413 0.180
10.535 5.940 1.666
10.742 5.949 1.112
10.838 6.075 0.579
11.249 5.559 2.243
11.332 5.867 1.548
11.339 5.820 1.074
11.559 6.124 0.386
11.627 5.424 2.457
11.834 5.769 1.798
12.093 5.850 1.063
11.915 6.223 0.601
12.329 6.310 0.072
12.205 5.396 2.565
12.387 5.732 1.789
12.657 5.851 1.459
4.068 5.634 0.814
4.034 5.649 0.164
4.592 5.165 1.580
4.554 5.597 0.880
4.840 5.788 0.220
5.269 5.248 1.449
5.215 5.472 0.859
5.388 5.498 0.575
5.797 5.118 1.596
5.991 5.436 1.132
5.861 5.731 0.452
6.538 5.354 1.213
6.625 5.658 0.518
6.793 5.663 -0.024
7.080 5.559 0.701
7.317 5.592 0.114
10.126 5.372 1.390
10.110 5.334 0.752
10.317 5.813 0.127
10.620 5.106 1.849
10.765 5.186 1.334
10.883 5.443 0.952
10.806 5.708 0.145
11.125 4.927 2.492
11.105 4.936 2.148
11.265 5.068 1.515
11.212 5.455 0.871
11.619 5.499 0.423
11.547 4.686 2.767
11.648 5.069 2.187
11.905 5.236 1.504
11.923 5.486 1.145
12.208 5.531 0.404
12.144 4.731 2.757
12.304 4.811 2.091
12.290 4.987 1.555
12.575 5.229 1.111
0.530 5.903 0.115
3.474 5.113 0.536
4.109 4.788 1.011
4.211 5.081 0.639
4.188 5.219 0.104
4.311 4.575 1.711
4.474 4.808 1.233
4.570 4.793 0.569
4.644 5.197 0.025
5.167 4.462 2.060
4.992 4.792 1.372
5.255 4.760 0.654
5.220 4.947 0.280
5.565 4.315 2.009
5.562 4.587 1.564
5.763 4.806 0.793
5.946 4.896 0.323
6.224 4.650 1.489
6.344 4.843 0.904
6.610 4.945 0.411
6.953 4.788 0.977
7.275 4.953 0.538
7.771 4.997 0.681
7.945 5.004 0.106
8.468 5.079 0.287
8.941 5.025 0.208
9.575 4.744 0.864
9.483 4.812 0.398
10.065 4.462 1.770
10.020 4.662 0.986
10.272 4.763 0.454
10.426 4.299 2.174
10.411 4.586 1.770
10.515 4.843 1.245
10.650 4.995 0.494
10.948 5.112 0.118
10.874 4.180 3.047
11.120 4.292 2.325
11.104 4.320 1.741
11.245 4.618 1.204
11.453 4.950 0.635
11.465 5.085 0.091
11.437 4.075 2.992
11.688 4.321 2.486
11.685 4.543 1.816
11.941 4.500 1.279
11.848 4.757 0.820
12.116 4.963 0.332
12.166 3.878 3.048
12.265 4.096 2.523
12.251 4.413 2.112
12.282 4.711 1.648
12.499 4.797 0.786
0.282 5.129 0.538
1.281 5.150 -0.045
2.284 4.661 -0.051
2.957 4.363 0.320
3.401 4.133 0.756
3.536 4.506 0.213
3.782 4.032 1.597
4.011 4.172 0.945
3.995 4.378 0.276
4.459 4.099 1.678
4.507 4.159 1.188
4.644 4.397 0.630
4.869 3.937 1.676
5.181 4.237 1.059
5.297 4.151 0.566
5.496 4.615 0.193
5.513 3.799 1.794
5.832 4.175 1.341
5.712 4.412 0.730
5.785 4.305 0.222
6.118 3.843 1.893
6.409 4.138 1.244
6.519 4.127 0.859
6.566 4.466 0.119
7.040 4.016 1.593
7.067 4.207 1.077
7.226 4.466 0.332
7.440 4.114 1.045
7.775 4.247 0.420
8.188 4.254 1.096
8.356 4.150 0.508
8.322 4.593 -0.127
8.754 4.156 1.221
8.781 4.270 0.702
8.945 4.553 0.206
9.340 3.969 1.398
9.329 4.267 0.703
9.638 4.514 0.367
9.915 3.914 2.101
9.996 3.922 1.602
9.932 4.058 0.894
10.079 4.330 0.412
10.302 3.511 2.566
10.315 3.766 2.065
10.503 3.971 1.480
10.790 4.093 1.135
10.884 4.436 0.468
10.787 3.530 2.718
10.925 3.819 2.256
11.236 4.010 1.796
11.295 3.943 0.966
11.490 4.294 0.609
11.589 3.339 2.992
11.539 3.794 2.400
11.573 3.708 1.804
11.790 4.093 1.092
11.928 4.240 0.708
11.934 4.381 0.219
11.971 3.589 2.892
12.092 3.671 2.283
12.253 3.721 1.857
12.322 3.983 1.344
12.597 4.241 0.646
0.318 4.355 0.860
0.269 4.599 0.410
1.052 4.280 0.371
2.175 4.559 0.054
2.831 3.767 0.046
3.476 3.560 0.571
3.507 3.991 0.198
3.723 3.457 1.493
3.915 3.638 0.764
4.062 3.675 0.170
4.551 3.398 1.328
4.438 3.456 0.831
4.589 3.881 0.187
5.005 3.389 1.448
5.190 3.703 1.024
5.194 3.831 0.395
5.660 3.289 1.506
5.779 3.620 1.044
5.919 3.710 0.396
6.297 3.237 1.603
6.296 3.511 1.349
6.379 3.657 0.675
6.576 3.908 0.003
6.740 3.228 1.814
6.893 3.279 1.209
6.994 3.467 0.641
7.003 3.685 0.294
7.437 3.472 1.452
7.664 3.614 0.816
7.538 3.855 0.333
8.074 3.539 0.819
8.235 3.560 0.373
8.892 3.374 1.032
8.918 3.782 0.390
9.381 3.427 1.724
9.358 3.295 1.128
9.436 3.788 0.533
9.589 3.875 0.005
9.765 3.199 2.330
9.829 3.086 1.924
9.889 3.296 1.187
10.014 3.718 0.810
10.278 3.791 0.136
10.210 2.940 2.351
10.397 3.318 1.883
10.447 3.317 1.384
10.580 3.695 0.914
10.693 3.597 0.378
10.746 2.919 2.609
10.866 2.990 2.140
11.151 3.326 1.396
11.119 3.647 0.929
11.381 3.826 0.424
11.354 2.822 2.715
11.547 3.003 2.004
11.545 3.303 1.667
11.817 3.328 1.163
11.804 3.494 0.453
12.117 2.858 2.899
12.022 3.162 2.251
12.172 3.119 1.730
12.328 3.379 1.139
12.372 3.684 0.611
0.305 3.711 0.749
0.410 4.020 0.280
0.945 3.704 0.298
3.217 2.960 0.504
3.883 2.782 1.203
4.048 3.016 0.637
4.056 3.224 0.153
4.495 2.724 1.229
4.622 2.957 0.782
4.638 3.255 0.253
4.861 2.806 1.456
5.164 2.947 0.878
5.236 3.065 0.205
5.474 2.834 1.475
5.844 2.948 0.944
5.929 2.993 0.300
6.098 2.850 1.597
6.224 2.786 0.956
6.453 3.225 0.430
6.835 2.863 1.238
6.953 3.195 0.682
7.454 2.885 0.571
7.569 3.144 0.081
8.138 3.102 0.737
8.315 3.138 0.202
8.770 3.009 0.957
8.801 3.047 0.334
9.231 2.861 0.898
9.538 3.092 0.482
9.691 2.575 1.602
9.912 2.950 1.139
9.983 2.921 0.425
10.292 2.361 2.157
10.373 2.460 1.894
10.401 2.906 1.136
10.702 3.001 0.692
10.790 3.159 -0.005
10.838 2.444 2.289
11.113 2.465 1.845
11.127 2.775 1.196
11.369 3.082 0.771
11.293 3.032 0.323
11.507 2.365 2.430
11.605 2.410 1.940
11.644 2.630 1.537
11.810 3.054 0.787
11.799 3.155 0.360
11.946 2.211 2.663
12.286 2.572 2.115
12.184 2.535 1.623
12.480 2.887 0.895
12.590 3.143 0.399
0.382 3.185 0.422
0.894 3.428 -0.017
4.084 2.390 0.333
4.367 2.312 0.944
4.423 2.542 0.381
4.958 2.369 1.229
5.114 2.348 0.480
5.280 2.709 0.198
5.429 2.145 1.430
5.823 2.521 0.724
5.656 2.432 0.260
6.115 2.039 1.393
6.240 2.484 0.683
6.526 2.419 0.292
6.788 2.253 0.889
7.113 2.362 0.346
7.440 2.280 0.496
8.128 2.625 -0.074
8.955 2.661 -0.015
9.190 2.279 0.926
9.320 2.419 0.106
9.855 2.030 1.420
9.966 2.396 0.843
10.182 2.392 0.437
10.441 1.758 2.000
10.413 2.151 1.558
10.612 2.310 1.103
10.522 2.391 0.316
10.958 1.979 2.144
11.054 2.014 1.740
10.986 2.254 0.973
11.112 2.275 0.454
11.335 1.709 2.387
11.539 1.981 1.695
11.778 2.008 1.275
11.897 2.371 0.581
11.948 2.450 0.102
12.093 1.812 2.448
12.149 2.038 2.017
12.358 2.161 1.281
12.242 2.268 0.708
12.527 2.363 0.305
4.604 2.029 0.197
4.868 1.718 0.844
4.980 1.829 0.295
5.593 1.941 0.469
6.162 1.842 0.687
6.447 1.869 0.209
6.842 1.842 0.063
9.792 1.749 0.604
9.997 1.829 0.307
10.412 1.332 1.250
10.655 1.594 0.750
10.483 1.789 0.320
10.856 1.505 1.602
11.204 1.545 1.067
11.344 1.715 0.474
11.543 1.107 2.208
11.478 1.541 1.604
11.571 1.710 1.159
11.883 1.899 0.604
12.298 1.297 1.538
12.107 1.600 1.069
12.258 1.584 0.706
12.458 2.019 0.034
4.949 1.274 0.370
10.448 0.948 0.551
10.746 1.393 -0.070
11.207 1.043 0.820
11.206 1.189 0.328
11.406 0.867 1.321
11.534 1.092 0.730
11.851 1.133 0.219
12.353 0.956 1.063
12.307 1.065 0.451
11.141 0.476 0.558
11.817 0.591 0.630
11.693 0.730 0.077
12.128 0.522 0.598
12.289 0.606 0.190
12.478 -0.073 0.076
4.157 12.020 2.109
4.497 12.142 1.624
4.542 12.192 1.193
4.738 11.773 2.902
4.754 12.064 2.475
4.864 11.991 1.705
5.156 12.231 1.171
5.127 12.504 0.597
5.183 11.502 3.750
5.253 11.792 2.882
5.351 11.740 2.560
5.630 11.938 1.827
5.622 12.204 1.290
5.800 12.399 0.776
5.866 11.532 3.127
6.130 11.731 2.623
6.292 12.148 2.077
6.162 12.166 1.588
6.335 12.292 1.054
6.415 11.571 3.276
6.524 11.860 2.589
6.685 11.928 2.201
6.837 12.208 1.559
7.201 12.051 2.179
10.114 11.806 2.818
10.590 11.392 3.882
10.835 11.476 3.492
10.828 11.569 2.905
11.062 11.801 2.286
11.177 11.418 4.079
11.190 11.513 3.371
11.297 11.711 2.896
11.444 11.813 2.281
11.810 11.968 1.852
11.800 11.003 4.778
11.797 11.161 4.322
11.756 11.465 3.731
12.176 11.553 2.912
12.277 11.772 2.353
12.299 11.878 1.788
12.380 11.249 4.218
12.551 11.287 3.735
0.813 12.247 1.618
0.909 12.378 1.175
3.669 11.537 1.968
3.853 11.754 1.541
3.831 11.711 0.743
4.161 11.123 2.711
4.177 11.501 2.117
4.283 11.539 1.550
4.469 11.846 1.018
4.523 11.897 0.430
4.690 11.011 3.253
4.863 11.328 2.735
4.772 11.268 2.100
4.882 11.685 1.588
5.059 11.606 1.056
5.144 11.841 0.437
4.984 10.693 3.956
5.098 10.953 3.361
5.303 11.280 2.728
5.400 11.458 2.426
5.491 11.591 1.683
5.519 11.716 1.322
5.629 11.793 0.723
5.833 12.153 0.180
5.940 10.868 3.634
5.768 10.994 2.867
5.918 11.205 2.412
6.238 11.536 1.943
6.184 11.793 1.208
6.325 11.865 0.568
6.423 11.993 0.017
6.513 11.003 3.551
6.388 11.109 3.214
6.461 11.368 2.437
6.814 11.382 1.931
6.802 11.732 1.367
7.053 11.777 0.950
7.074 10.921 3.004
7.212 11.186 2.498
7.315 11.289 1.939
7.436 11.650 1.606
8.007 11.299 2.007
9.505 11.247 2.367
10.071 10.687 3.655
10.285 11.061 3.042
10.242 11.253 2.560
10.514 11.362 1.897
10.354 10.446 4.488
10.765 10.818 3.629
10.758 10.802 3.356
10.983 11.173 2.678
10.955 11.417 2.079
10.940 11.367 1.419
11.171 10.499 4.455
11.167 10.563 3.954
11.391 10.835 3.305
11.382 11.119 2.632
11.603 11.216 2.104
11.586 11.454 1.718
11.708 11.629 0.955
11.698 10.356 5.147
11.690 10.640 4.427
11.727 10.629 3.932
11.981 10.760 3.535
12.095 11.136 2.847
12.138 11.119 2.376
12.081 11.378 1.841
12.298 11.629 1.208
12.264 10.476 4.776
12.430 10.685 4.105
12.608 10.890 3.452
0.700 11.480 1.898
0.574 11.639 1.551
0.758 11.859 0.798
0.915 12.164 0.181
1.326 11.708 1.550
1.487 11.883 1.122
1.466 12.092 0.552
2.375 10.922 1.534
2.566 11.130 0.879
2.734 11.433 0.576
2.967 10.950 1.745
3.224 10.949 1.054
3.151 11.164 0.662
3.440 10.560 2.270
3.565 10.728 1.846
3.701 10.929 1.171
3.884 11.109 0.625
3.857 11.508 0.124
4.093 10.388 3.126
4.269 10.725 2.543
4.171 10.791 1.845
4.257 11.069 1.190
4.610 11.106 0.896
4.731 11.493 0.261
4.587 10.102 3.549
4.537 10.515 3.110
4.643 10.553 2.493
4.840 10.838 2.151
5.076 11.013 1.296
4.908 11.178 0.852
5.237 11.458 0.253
4.935 10.262 3.638
5.278 10.530 3.101
5.375 10.570 2.523
5.532 10.803 1.994
5.676 10.813 1.580
5.615 10.993 0.843
5.758 11.365 0.361
5.603 10.097 3.917
5.813 10.456 3.449
5.852 10.387 2.611
6.056 10.651 2.266
6.097 10.922 1.642
6.171 11.004 1.219
6.296 11.383 0.473
6.168 10.208 4.140
6.274 10.299 3.544
6.567 10.560 2.809
6.647 10.572 2.317
6.789 10.832 1.756
6.813 10.976 1.192
7.052 11.284 0.492
7.178 11.312 0.061
7.068 10.132 3.623
7.077 10.337 2.939
7.089 10.679 2.276
7.295 10.894 1.963
7.413 11.117 1.151
7.605 11.157 0.825
7.568 10.520 3.166
7.763 10.536 2.370
7.868 10.811 2.057
8.071 10.898 1.337
8.336 10.500 2.489
8.469 10.778 1.940
8.502 11.015 1.546
8.852 10.498 2.845
8.948 10.658 2.075
9.137 10.897 1.509
9.330 10.306 3.465
9.505 10.410 2.970
9.656 10.776 2.250
9.691 10.873 1.639
9.765 9.938 3.899
9.930 10.360 3.479
9.977 10.353 2.830
10.178 10.591 2.375
10.382 10.852 1.864
10.550 11.115 1.228
10.496 9.808 4.687
10.553 9.925 4.015
10.751 10.333 3.611
10.793 10.501 3.149
10.944 10.601 2.597
11.056 10.894 1.819
10.900 10.787 1.307
11.105 10.950 0.794
10.815 9.854 4.762
11.184 10.001 4.329
11.055 10.183 3.783
11.322 10.384 3.012
11.304 10.472 2.502
11.413 10.686 1.965
11.547 10.830 1.553
11.826 11.080 0.996
11.744 11.092 0.430
11.637 9.881 4.923
11.783 9.807 4.501
11.673 9.989 3.875
11.947 10.390 3.302
11.965 10.540 2.568
12.005 10.620 2.157
12.157 10.731 1.641
12.473 11.126 0.872
12.451 11.229 0.556
12.217 9.843 5.113
12.206 9.798 4.594
12.457 10.018 3.767
12.505 10.389 3.383
0.424 10.592 2.457
0.519 10.829 1.721
0.575 10.954 1.292
0.712 11.302 0.702
1.058 11.580 0.210
1.270 10.927 2.087
1.376 10.927 1.324
1.487 11.316 0.921
1.422 11.384 0.337
1.829 10.863 1.630
2.068 11.313 0.859
2.123 11.386 0.497
2.567 10.929 1.497
2.660 11.235 1.089
2.614 11.345 0.576
2.507 10.243 1.849
2.438 10.328 1.492
2.662 10.677 0.786
2.633 10.668 0.288
2.840 10.192 2.063
3.223 10.275 1.398
3.293 10.595 1.081
3.266 10.718 0.497
3.529 9.980 2.633
3.463 10.015 2.085
3.671 10.230 1.635
3.877 10.376 1.027
3.880 10.591 0.423
3.788 9.845 3.273
3.932 9.761 2.747
4.130 10.105 2.306
4.195 10.384 1.630
4.416 10.577 1.120
4.345 10.500 0.567
4.500 10.886 0.133
4.454 9.814 3.487
4.469 9.766 3.020
4.832 10.135 2.317
4.933 10.091 1.899
5.051 10.420 1.217
5.200 10.556 0.559
5.098 10.771 0.252
5.156 9.621 3.521
5.252 9.937 3.041
5.378 9.934 2.554
5.420 10.283 2.055
5.673 10.231 1.434
5.728 10.495 0.834
5.753 10.865 0.149
5.654 9.581 3.841
5.715 9.686 3.218
5.981 9.906 2.700
6.008 10.244 2.126
6.157 10.350 1.496
6.158 10.361 0.893
6.473 10.604 0.258
6.106 9.464 3.858
6.322 9.703 3.274
6.617 9.815 2.811
6.649 10.125 2.096
6.575 10.222 1.477
6.673 10.533 1.100
6.918 10.639 0.430
6.989 9.711 3.491
7.038 9.791 2.858
7.261 10.055 2.110
7.197 10.133 1.538
7.259 10.319 1.033
7.395 10.631 0.519
7.540 9.695 3.036
7.880 9.877 2.225
7.815 10.083 1.737
7.972 10.531 1.283
8.188 10.553 0.639
8.145 9.886 3.102
8.230 9.843 2.375
8.450 10.277 1.966
8.704 10.412 1.186
8.681 9.769 3.156
9.065 10.076 2.599
9.006 10.117 2.018
9.266 10.352 1.563
9.379 9.864 3.286
9.602 9.760 2.620
9.789 9.930 2.025
9.679 10.308 1.416
9.722 10.306 1.123
9.800 9.519 3.914
10.015 9.515 3.256
10.113 9.770 2.905
10.331 10.038 2.125
10.419 10.298 1.538
10.560 10.298 1.051
10.498 10.710 0.360
10.371 9.408 4.582
10.562 9.371 3.923
10.498 9.573 3.443
10.691 9.927 2.971
10.835 9.995 2.188
10.927 10.058 1.609
11.162 10.254 1.058
11.277 10.390 0.773
11.256 10.660 -0.017
11.079 9.325 4.695
11.130 9.367 4.051
11.035 9.543 3.561
11.201 9.624 3.019
11.555 9.953 2.254
11.413 10.154 1.935
11.522 10.171 1.363
11.784 10.580 0.574
11.978 10.713 0.131
11.537 9.281 4.778
11.634 9.230 4.055
11.900 9.443 3.536
11.824 9.812 3.013
12.011 10.013 2.599
12.191 10.221 2.070
12.273 10.317 1.303
12.406 10.295 0.788
12.361 10.657 0.382
12.242 9.216 4.701
12.165 9.307 4.362
12.317 9.548 3.608
12.461 9.623 3.163
0.295 9.941 2.725
0.381 10.048 2.196
0.513 10.479 1.602
0.726 10.516 0.932
0.884 10.768 0.478
1.156 10.150 2.349
1.208 10.148 1.645
1.315 10.501 1.086
1.490 10.500 0.699
1.399 10.687 -0.074
1.861 10.132 1.852
1.745 10.385 1.218
2.060 10.743 0.706
2.244 10.880 0.281
2.307 10.341 1.934
2.617 10.292 1.374
2.536 10.553 0.827
2.736 10.597 0.402
2.289 9.514 1.675
2.433 9.757 1.126
2.661 10.069 0.753
2.733 10.127 0.177
2.981 9.704 1.991
3.154 9.904 1.273
3.188 10.043 0.862
3.382 10.102 0.267
3.475 9.443 2.669
3.687 9.699 1.999
3.590 9.660 1.540
3.803 9.932 1.006
4.011 10.114 0.378
3.929 9.031 3.265
4.022 9.213 2.616
4.090 9.546 2.084
4.082 9.726 1.428
4.279 9.876 1.084
4.595 10.197 0.417
4.350 9.046 3.171
4.444 9.276 2.791
4.721 9.442 2.102
4.774 9.566 1.705
4.789 9.786 1.027
4.966 10.144 0.521
4.982 9.083 3.565
5.041 9.348 2.716
5.197 9.553 2.370
5.348 9.557 1.690
5.547 9.637 1.112
5.708 9.924 0.484
5.786 10.207 0.098
5.804 9.180 3.618
5.910 9.186 2.807
6.021 9.502 2.303
5.915 9.701 1.677
6.118 9.777 1.121
6.299 10.051 0.810
6.466 10.248 0.235
6.175 9.058 3.769
6.403 9.005 3.108
6.406 9.202 2.358
6.557 9.424 2.038
6.709 9.571 1.427
6.929 9.951 0.929
6.780 10.091 0.365
6.831 8.995 3.878
7.099 9.045 3.161
6.929 9.166 2.609
7.207 9.374 2.140
7.239 9.523 1.418
7.532 10.002 0.962
7.463 10.126 0.250
7.408 8.992 3.234
7.616 9.255 2.720
7.908 9.568 2.000
7.721 9.773 1.691
7.848 9.768 1.017
8.090 10.136 0.415
8.179 9.326 2.786
8.364 9.558 2.209
8.474 9.632 1.535
8.687 9.882 1.027
8.779 10.095 0.438
8.975 9.065 2.994
8.863 9.427 2.425
9.114 9.692 1.715
9.118 9.709 1.353
9.377 9.803 0.521
9.388 9.042 3.426
9.279 9.261 3.137
9.579 9.193 2.525
9.771 9.540 2.050
9.881 9.530 1.275
10.013 9.765 0.872
9.835 8.649 4.389
9.771 9.071 3.547
9.884 9.191 3.202
10.216 9.273 2.558
10.356 9.593 2.108
10.331 9.650 1.405
10.534 9.777 0.939
10.670 10.160 0.299
10.225 8.719 4.484
10.388 8.777 3.764
10.643 8.973 3.213
10.812 9.167 2.620
10.796 9.516 2.002
10.948 9.516 1.627
11.053 9.914 1.095
11.203 10.040 0.383
11.070 8.790 4.576
11.045 8.738 3.871
11.090 9.061 3.339
11.395 9.042 2.666
11.400 9.478 2.338
11.494 9.715 1.663
11.485 9.826 1.168
11.684 10.053 0.541
11.656 8.481 4.665
11.734 8.726 4.140
11.915 8.870 3.302
12.014 9.038 2.804
12.098 9.180 2.203
12.122 9.454 1.720
12.242 9.587 1.249
12.465 9.871 0.651
12.583 10.180 0.231
11.979 8.416 4.797
12.283 8.675 4.046
12.490 8.841 3.678
12.405 9.155 3.033
0.458 9.533 2.691
0.470 9.583 2.126
0.542 9.639 1.385
0.595 9.785 0.896
0.906 10.272 0.295
1.075 9.676 2.171
1.042 9.660 1.657
1.175 9.914 0.950
1.526 10.187 0.394
1.693 9.688 1.691
1.929 9.940 1.132
1.877 10.184 0.536
2.509 9.493 1.612
2.457 9.757 1.163
2.443 10.079 0.732
2.830 10.204 -0.040
2.387 9.070 1.586
2.520 9.310 0.937
2.666 9.329 0.569
2.902 8.987 1.745
3.128 9.133 1.235
3.138 9.470 0.625
3.122 9.490 -0.080
3.571 8.839 2.411
3.402 8.899 1.805
3.765 9.247 1.237
3.875 9.334 0.566
3.719 9.425 0.264
3.951 8.574 3.047
4.000 8.901 2.433
4.016 9.069 1.795
4.248 9.239 1.247
4.357 9.454 0.917
4.334 9.433 0.256
4.398 8.526 3.036
4.728 8.763 2.433
4.601 9.005 1.970
4.958 9.045 1.580
5.022 9.330 0.801
5.037 9.289 0.291
5.087 8.495 3.262
5.195 8.698 2.738
5.336 8.770 2.056
5.455 9.036 1.533
5.495 9.108 1.089
5.605 9.343 0.337
5.803 8.428 3.353
5.926 8.496 2.659
5.873 8.684 2.263
6.143 8.845 1.776
6.126 9.129 1.168
6.159 9.311 0.542
6.169 8.507 3.508
6.514 8.630 2.910
6.610 8.806 2.202
6.673 8.993 1.875
6.537 9.263 1.225
6.744 9.212 0.548
7.043 9.558 -0.002
7.023 8.422 2.902
7.197 8.577 2.423
7.142 8.918 1.982
7.372 9.231 1.359
7.486 9.368 0.583
7.451 9.375 0.167
7.653 8.605 2.415
7.627 8.754 2.008
7.942 8.990 1.411
7.964 9.282 0.742
8.088 9.314 0.177
8.207 8.806 2.673
8.313 8.766 2.147
8.497 8.915 1.626
8.549 9.314 0.831
8.752 8.716 2.769
8.872 8.846 2.125
8.906 8.899 1.641
9.169 9.263 0.940
9.528 8.717 2.695
9.569 8.809 2.148
9.486 8.956 1.772
9.660 9.155 1.125
9.714 9.204 0.747
9.928 8.190 3.560
9.951 8.660 3.094
10.248 8.795 2.471
10.185 8.792 1.714
10.226 8.955 1.202
10.530 9.327 0.810
10.670 9.326 0.200
10.418 8.124 4.098
10.399 8.431 3.664
10.470 8.557 3.126
10.721 8.786 2.403
10.935 8.872 1.819
10.969 9.166 1.499
10.953 9.240 0.865
11.192 9.523 0.256
10.985 7.960 4.279
10.902 8.294 3.804
11.294 8.315 3.228
11.356 8.616 2.744
11.433 8.866 1.879
11.663 8.890 1.625
11.748 9.328 1.061
11.792 9.442 0.219
11.562 7.982 4.371
11.687 8.098 3.750
11.867 8.465 3.328
11.958 8.715 2.631
11.957 8.619 1.996
12.038 8.936 1.495
12.237 9.224 1.053
12.463 9.364 0.570
12.268 7.890 4.426
12.224 8.138 3.992
12.218 8.227 3.479
12.449 8.445 2.721
0.448 8.677 2.472
0.492 9.083 1.726
0.566 9.198 1.377
0.756 9.300 0.666
0.684 9.470 0.194
1.196 8.989 1.881
1.331 9.144 1.217
1.261 9.314 0.675
1.460 9.450 0.235
1.753 9.050 1.589
1.791 9.444 1.019
2.131 9.588 0.402
2.386 9.180 1.713
2.347 9.314 0.883
2.569 9.402 0.573
2.692 8.899 0.121
3.000 8.710 0.922
3.206 8.885 0.403
3.419 8.379 1.524
3.736 8.616 0.935
3.603 8.901 0.530
4.063 8.281 2.167
4.153 8.501 1.574
4.368 8.451 1.198
4.465 8.650 0.522
4.551 8.897 -0.068
4.493 7.937 2.993
4.432 8.099 2.308
4.551 8.372 1.835
4.818 8.428 1.339
5.016 8.540 0.778
5.191 8.723 0.092
5.073 7.892 2.970
5.032 8.128 2.483
5.242 8.367 1.970
5.280 8.420 1.477
5.423 8.582 0.647
5.622 8.768 0.205
5.702 7.936 3.275
5.640 7.968 2.627
5.985 8.102 1.994
5.870 8.565 1.590
6.186 8.677 0.791
6.177 8.689 0.396
6.249 8.085 2.529
6.487 8.293 2.258
6.641 8.303 1.556
6.600 8.523 0.888
6.721 8.866 0.494
6.906 8.071 2.316
7.162 8.403 1.601
7.305 8.404 1.012
7.283 8.732 0.614
7.700 8.336 1.906
7.933 8.491 1.078
7.867 8.519 0.769
8.568 8.400 1.335
8.903 8.498 1.361
9.396 8.259 2.117
9.547 8.284 1.424
9.853 8.697 0.946
9.830 8.111 2.892
9.943 8.293 2.109
10.238 8.209 1.574
10.325 8.651 0.954
10.554 8.706 0.498
10.390 7.782 3.502
10.716 8.035 2.942
10.598 8.177 2.394
10.950 8.214 1.894
10.996 8.320 1.214
10.988 8.757 0.633
11.242 8.924 0.136
10.833 7.657 4.120
10.992 7.657 3.438
11.171 8.024 2.952
11.342 8.023 2.540
11.287 8.389 1.817
11.561 8.413 1.433
11.732 8.703 0.611
11.734 8.717 0.195
11.619 7.319 4.117
11.537 7.748 3.686
11.609 7.747 2.974
11.840 7.933 2.470
11.857 8.067 2.064
12.113 8.376 1.412
12.181 8.495 0.899
12.305 8.832 0.273
12.079 7.509 4.346
12.357 7.770 3.804
12.428 7.809 3.088
12.536 8.052 2.733
12.503 8.256 1.985
0.628 8.519 1.677
0.450 8.687 0.997
0.722 8.944 0.378
1.199 8.712 1.145
1.235 8.863 0.746
1.506 8.794 0.223
1.801 8.864 0.786
2.110 9.059 0.190
2.658 8.826 0.158
3.590 8.297 0.339
4.213 7.874 1.489
4.089 8.075 1.064
4.257 8.225 0.493
4.530 7.545 2.319
4.814 7.654 1.675
4.909 8.024 0.959
4.956 8.103 0.625
5.174 7.517 2.330
5.257 7.813 1.705
5.386 7.745 1.275
5.622 7.958 0.628
5.695 8.274 0.205
