8.196 8.547 6.298
12.203 11.934 11.913
12.000 11.707 11.660
11.597 11.498 11.431
11.406 11.220 10.901
11.253 11.014 10.569
10.910 10.938 10.390
10.467 10.657 9.901
10.344 10.373 9.796
9.912 10.232 9.245
9.620 10.072 8.897
9.438 9.874 8.710
9.067 9.560 8.424
8.864 9.388 7.993
8.672 9.193 7.790
8.272 8.979 7.325
8.028 8.722 7.030
7.839 8.649 6.700
12.495 12.075 12.229
12.164 11.911 11.965
11.847 11.856 12.306
11.652 11.603 11.888
11.257 11.505 11.630
11.045 11.402 11.434
10.856 11.052 10.917
10.430 10.960 10.593
10.315 10.703 10.214
9.947 10.513 9.923
9.610 10.364 9.721
9.432 10.145 9.368
9.176 9.938 9.022
8.802 9.639 8.750
8.492 9.348 8.380
8.216 9.253 8.031
8.042 9.049 7.668
7.737 8.770 7.440
7.481 8.509 7.092
11.906 12.024 12.325
11.232 11.793 12.245
10.922 11.388 12.014
10.641 11.394 11.552
10.459 10.994 11.299
10.162 10.927 11.013
9.930 10.596 10.629
9.544 10.418 10.254
9.358 10.155 10.031
9.102 10.036 9.703
8.778 9.921 9.258
8.396 9.527 9.060
8.069 9.500 8.670
7.964 9.234 8.367
7.553 9.054 8.010
7.239 8.806 7.637
7.112 8.533 7.355
10.687 11.402 12.361
10.276 11.224 11.908
9.947 11.052 11.697
9.868 10.736 11.338
9.480 10.586 11.076
9.235 10.392 10.525
8.961 10.196 10.249
8.691 10.080 10.050
8.382 9.864 9.575
8.072 9.640 9.338
7.886 9.284 8.961
7.523 9.090 8.614
7.147 9.014 8.318
6.887 8.807 7.924
6.783 8.638 7.535
12.282 9.336 2.386
12.464 9.663 3.460
12.276 9.398 3.116
12.013 9.109 2.744
12.548 9.833 4.018
12.105 9.611 3.811
11.958 9.459 3.371
11.606 9.286 3.114
12.286 9.943 4.746
11.995 9.899 4.438
11.820 9.547 4.132
11.490 9.479 3.806
11.166 9.112 3.347
12.217 10.286 5.257
12.119 9.909 5.060
11.635 9.916 4.781
11.511 9.546 4.240
11.124 9.390 4.031
10.875 9.266 3.603
12.494 10.621 6.426
12.157 10.343 5.961
11.955 10.318 5.603
10.866 9.296 4.330
10.404 9.243 3.956
12.321 10.737 6.890
12.219 10.701 6.548
11.932 10.347 6.218
10.162 9.227 4.221
12.334 11.081 7.550
12.141 10.858 7.243
11.763 10.609 6.909
12.482 11.526 8.563
12.269 11.230 8.167
12.040 11.062 7.925
11.653 10.748 7.504
12.276 11.454 8.856
11.802 11.227 8.536
11.719 10.965 8.280
11.305 10.770 7.855
11.718 11.262 9.307
11.607 11.246 8.825
11.313 10.852 8.590
10.922 10.776 8.298
11.660 11.535 9.880
11.361 11.393 9.623
11.202 11.151 9.314
10.870 10.966 8.960
10.568 10.816 8.482
10.379 10.618 8.253
11.524 11.695 10.613
11.454 11.629 10.312
11.083 11.317 9.783
10.692 11.052 9.520
10.527 10.822 9.225
10.235 10.688 8.782
9.884 10.622 8.634
9.658 10.402 8.098
7.922 9.149 6.218
11.455 11.947 11.282
11.163 11.641 10.974
11.094 11.546 10.468
10.633 11.292 10.092
10.542 11.042 9.875
10.085 10.863 9.574
9.751 10.673 9.119
9.521 10.467 8.947
9.272 10.311 8.643
8.995 10.048 8.137
7.860 9.361 6.771
7.703 9.084 6.444
11.837 12.445 12.244
11.393 12.257 11.841
11.144 11.975 11.487
10.887 11.830 11.074
10.529 11.428 10.938
10.264 11.362 10.443
10.150 11.011 10.210
9.891 10.844 9.941
9.586 10.680 9.475
9.134 10.520 9.222
8.861 10.299 8.833
8.728 10.087 8.486
8.490 9.965 8.135
8.016 9.659 7.924
7.872 9.543 7.520
7.505 9.301 7.237
7.156 9.126 6.795
11.750 12.268 12.094
11.466 12.399 12.476
11.174 12.222 12.138
10.898 11.878 11.761
10.432 11.813 11.418
10.154 11.599 11.165
9.927 11.281 10.773
9.775 11.055 10.556
9.486 10.781 10.224
9.257 10.628 9.951
8.829 10.385 9.578
8.491 10.210 9.263
8.276 10.057 8.765
8.121 9.955 8.534
7.798 9.535 8.094
7.562 9.537 7.758
7.122 9.314 7.560
6.933 8.988 7.166
11.438 12.408 12.385
10.764 12.218 12.533
10.572 11.802 12.211
10.162 11.660 11.739
9.912 11.395 11.478
9.673 11.304 11.234
9.249 11.117 10.891
8.987 10.919 10.501
8.711 10.686 10.240
8.607 10.559 9.861
8.120 10.176 9.461
8.043 9.997 9.162
7.576 9.935 8.755
7.302 9.710 8.484
7.082 9.304 8.043
6.842 9.121 7.933
6.576 9.092 7.489
12.177 9.568 2.184
11.759 9.594 2.565
11.704 9.864 3.273
11.455 9.661 2.911
12.523 10.644 4.924
11.335 9.920 3.468
11.210 9.706 3.145
12.382 10.919 5.459
10.802 9.574 3.474
12.449 10.941 6.219
12.138 10.836 5.909
10.309 9.497 3.838
12.590 11.413 7.042
12.341 11.225 6.790
11.948 10.951 6.523
12.366 11.647 7.824
12.118 11.335 7.501
11.079 11.673 9.028
10.630 11.283 8.815
11.295 12.058 9.959
10.919 11.890 9.620
10.636 11.675 9.438
10.417 11.418 9.075
9.985 11.087 8.663
9.800 10.949 8.304
11.018 12.106 10.736
10.800 12.036 10.307
10.679 11.676 10.000
10.248 11.622 9.598
10.078 11.318 9.326
9.644 11.257 9.107
9.399 10.919 8.682
9.269 10.632 8.369
7.415 9.373 6.311
10.835 12.076 10.920
10.488 11.936 10.690
10.155 11.801 10.340
9.914 11.516 10.049
9.554 11.425 9.751
9.325 11.106 9.312
9.162 10.914 8.948
8.703 10.750 8.601
7.163 9.556 6.802
10.793 12.439 11.794
10.360 12.133 11.367
10.173 11.910 11.076
9.776 11.646 10.688
9.495 11.476 10.350
9.250 11.269 9.910
8.951 11.131 9.715
8.762 10.893 9.297
8.544 10.581 9.055
8.261 10.503 8.602
6.950 9.752 7.307
6.777 9.483 7.067
10.402 12.407 12.104
10.075 12.200 11.627
9.792 11.906 11.409
9.437 11.641 11.119
9.185 11.398 10.581
8.974 11.381 10.261
8.651 11.153 9.969
8.399 10.940 9.571
8.026 10.659 9.282
7.684 10.388 9.010
6.552 9.569 7.786
6.427 9.385 7.357
11.244 10.074 2.833
11.002 10.119 3.087
12.630 11.605 5.615
12.413 11.706 6.294
12.221 11.576 6.099
12.392 11.975 6.915
10.390 12.013 9.173
10.319 11.890 8.923
10.765 12.311 10.145
10.434 12.123 9.925
10.243 12.011 9.604
9.837 11.810 9.201
9.543 11.463 8.996
9.302 11.436 8.546
10.409 12.508 10.612
9.984 12.232 10.301
9.736 12.047 9.892
9.436 11.864 9.568
9.304 11.508 9.183
8.935 11.326 8.992
10.004 12.431 10.804
9.695 12.162 10.633
9.496 11.899 10.251
9.108 11.698 9.843
8.888 11.605 9.596
8.581 11.443 9.323
8.267 11.147 8.982
6.700 9.921 6.861
9.660 12.317 11.199
9.394 12.110 10.966
9.129 11.869 10.499
8.787 11.735 10.194
8.369 11.485 9.943
8.105 11.242 9.632
7.904 11.197 9.095
6.271 9.915 7.214
12.474 11.939 5.604
12.425 12.074 6.170
10.047 12.334 9.322
9.739 12.306 9.086
9.420 12.098 8.804
9.523 12.432 9.621
9.291 12.258 9.457
8.955 12.015 9.182
8.879 11.778 8.827
9.311 12.497 10.039
8.920 12.238 9.699
8.747 12.016 9.449
8.518 11.796 9.127
8.866 12.473 10.401
8.543 12.182 10.037
8.356 11.940 9.812
8.145 11.664 9.451
12.250 12.334 5.310
9.244 12.548 8.592
8.862 12.467 9.006
8.521 12.163 8.673
8.631 12.484 9.171
8.194 12.190 8.828
8.103 12.301 9.581
7.909 12.165 9.237
11.270 10.571 1.095
10.854 10.438 0.839
10.702 10.233 0.493
10.382 9.997 0.149
11.182 10.806 1.734
10.752 10.568 1.444
10.482 10.409 1.132
10.327 10.224 0.759
9.918 10.005 0.505
9.627 9.711 0.126
10.834 10.771 2.192
10.413 10.484 1.801
10.066 10.292 1.493
9.877 10.156 1.192
9.639 9.792 0.898
9.429 9.708 0.348
10.285 10.748 2.391
10.124 10.533 2.078
9.882 10.232 1.850
9.553 10.040 1.468
9.279 9.978 1.158
8.882 9.743 0.770
9.941 10.818 2.859
9.682 10.500 2.511
9.403 10.374 2.046
9.146 10.144 1.746
8.793 9.947 1.500
8.550 9.684 1.024
9.380 10.570 2.713
9.091 10.164 2.394
8.749 10.170 1.968
8.455 9.757 1.750
2.833 7.635 0.986
2.507 7.405 0.717
2.304 7.286 0.273
6.418 10.405 5.201
6.238 10.077 5.057
5.947 10.052 4.535
5.632 9.749 4.400
2.652 7.734 1.689
2.418 7.531 1.255
2.055 7.466 0.833
1.858 7.170 0.557
1.558 7.073 0.398
6.356 10.566 6.024
6.173 10.274 5.590
5.872 10.120 5.180
5.560 9.912 4.817
5.188 9.668 4.608
5.077 9.572 4.257
2.411 7.738 2.011
1.946 7.723 1.657
1.854 7.444 1.360
1.491 7.156 0.974
1.143 7.062 0.683
0.908 6.818 0.292
5.921 10.431 6.146
5.808 10.332 5.917
5.373 10.123 5.517
5.195 9.996 5.308
4.874 9.685 4.835
4.542 9.609 4.479
1.945 7.889 2.299
1.666 7.502 1.958
1.478 7.283 1.505
1.117 7.139 1.287
0.797 6.857 0.831
0.624 6.739 0.517
5.704 10.593 6.652
5.409 10.373 6.249
5.057 10.218 5.946
4.761 9.968 5.609
4.521 9.689 5.138
4.321 9.413 4.887
11.009 10.900 0.983
10.705 10.697 0.665
10.567 10.548 0.445
10.167 10.289 -0.050
10.850 11.196 1.545
10.558 10.974 1.242
10.301 10.813 0.985
10.168 10.586 0.715
9.913 10.365 0.324
10.578 11.120 1.912
10.398 10.962 1.728
10.015 10.750 1.215
9.679 10.477 1.002
9.573 10.362 0.559
9.097 10.228 0.250
10.159 11.245 2.356
9.932 10.890 2.054
9.682 10.680 1.546
9.382 10.468 1.389
9.078 10.241 1.010
8.733 10.134 0.685
9.878 11.034 2.534
9.550 10.973 2.349
9.254 10.779 1.857
8.989 10.629 1.697
8.775 10.209 1.210
8.374 10.159 1.016
9.296 10.957 2.642
9.045 10.814 2.372
8.676 10.475 1.938
8.437 10.289 1.696
2.605 8.132 0.887
2.357 7.917 0.573
2.014 7.658 0.047
6.308 10.712 5.210
5.957 10.512 4.901
5.681 10.398 4.431
5.497 10.222 4.057
2.552 8.187 1.361
2.387 8.062 1.241
1.921 7.941 0.859
1.812 7.704 0.395
1.471 7.372 0.017
6.264 11.047 5.900
5.981 10.703 5.446
5.768 10.484 5.005
5.287 10.415 4.898
5.011 10.090 4.570
4.873 9.946 4.122
2.076 8.247 1.710
2.016 7.941 1.451
1.690 7.779 1.097
1.448 7.512 0.853
0.964 7.349 0.417
0.815 7.208 0.213
5.935 10.898 6.150
5.635 10.778 5.802
5.266 10.508 5.420
4.899 10.410 5.153
4.644 10.208 4.839
4.413 9.961 4.340
1.715 8.296 2.212
1.505 8.120 1.856
1.361 7.725 1.345
1.103 7.625 1.157
0.608 7.499 0.755
0.420 7.297 0.495
5.440 10.992 6.384
5.271 10.650 6.119
4.900 10.607 5.676
4.669 10.288 5.395
4.398 10.192 5.114
4.187 10.013 4.735
11.049 11.205 0.217
11.233 11.685 1.259
10.824 11.390 0.854
10.654 11.141 0.511
10.216 10.903 0.239
10.800 11.641 1.522
10.498 11.443 1.275
10.262 11.136 0.799
10.018 10.946 0.420
9.703 10.696 0.109
10.470 11.510 1.914
10.224 11.315 1.508
9.825 11.305 1.227
9.571 11.039 0.911
9.193 10.892 0.402
8.916 10.636 0.106
10.150 11.651 2.093
9.770 11.451 1.880
9.579 11.063 1.429
9.309 11.034 1.150
8.941 10.652 0.918
8.549 10.652 0.485
8.417 10.288 0.049
9.663 11.552 2.442
9.374 11.392 2.122
9.044 11.093 1.879
8.962 10.878 1.573
8.503 10.724 1.053
8.372 10.654 0.771
9.456 11.606 2.734
9.178 11.337 2.505
8.893 11.246 2.026
8.573 11.025 1.693
8.294 10.789 1.533
7.931 10.592 1.226
8.461 11.229 2.471
8.080 11.002 1.991
2.656 8.328 0.005
6.311 10.929 4.404
5.899 10.928 4.075
2.890 8.808 1.041
2.543 8.631 0.750
2.175 8.280 0.232
1.998 8.140 0.064
6.367 11.327 5.434
6.161 11.311 5.003
5.930 11.060 4.766
5.703 10.832 4.217
5.287 10.664 3.972
5.069 10.512 3.544
2.421 8.596 1.250
2.172 8.470 1.095
1.764 8.282 0.568
1.618 8.052 0.217
6.145 11.318 5.664
5.722 11.101 5.190
5.518 11.051 4.921
5.147 10.804 4.586
4.934 10.692 4.193
4.737 10.350 4.021
2.265 8.848 2.026
2.104 8.648 1.552
1.747 8.559 1.374
1.511 8.285 0.966
1.282 8.149 0.553
0.866 7.851 0.240
5.694 11.319 5.916
5.318 11.211 5.582
5.030 10.872 5.193
4.872 10.791 5.046
4.574 10.676 4.628
4.337 10.316 4.197
4.081 10.103 3.968
1.965 8.955 2.317
1.661 8.611 1.915
1.447 8.369 1.539
1.092 8.198 1.395
0.886 8.132 0.973
0.441 7.789 0.595
0.245 7.652 0.307
5.284 11.339 6.251
5.132 11.162 5.903
4.800 11.063 5.699
4.435 10.823 5.294
4.144 10.599 4.919
3.841 10.302 4.544
3.550 10.126 4.378
11.326 12.003 0.613
11.135 11.880 0.476
10.790 11.680 0.064
10.988 12.022 1.087
10.739 11.922 0.657
10.504 11.604 0.394
10.128 11.499 0.037
10.575 12.132 1.380
10.415 11.811 0.974
10.041 11.529 0.735
9.744 11.493 0.427
9.636 11.120 0.111
10.189 12.152 1.788
9.933 11.771 1.369
9.829 11.738 0.950
9.464 11.490 0.729
9.186 11.114 0.264
8.870 11.032 0.074
9.923 12.135 1.896
9.603 11.770 1.633
9.451 11.659 1.368
9.168 11.500 1.004
8.730 11.203 0.722
8.532 10.942 0.259
9.493 12.130 2.310
9.176 11.909 1.973
8.896 11.622 1.679
8.812 11.506 1.283
8.371 11.094 0.948
8.041 11.085 0.674
7.814 10.872 0.375
9.144 12.097 2.516
8.934 11.674 2.225
8.521 11.465 1.978
8.400 11.440 1.708
8.165 11.234 1.249
7.811 10.854 1.059
7.510 10.654 0.632
8.789 11.905 2.840
8.648 11.785 2.643
8.297 11.616 2.285
8.083 11.257 1.975
7.786 11.135 1.674
7.444 10.965 1.220
8.022 11.434 2.637
7.727 11.244 2.276
6.335 11.597 3.866
6.241 11.195 3.483
3.094 9.059 0.593
2.610 8.896 0.221
6.678 11.906 4.905
6.395 11.770 4.459
6.031 11.584 4.181
5.765 11.172 3.784
5.440 11.157 3.508
5.204 10.881 3.105
2.855 9.269 1.146
2.567 9.230 0.832
2.288 8.909 0.413
2.173 8.627 0.142
6.193 11.807 5.163
5.918 11.731 4.922
5.624 11.496 4.624
5.481 11.350 4.179
5.150 11.130 3.903
4.958 10.772 3.424
4.612 10.598 3.218
2.484 9.304 1.510
2.150 9.054 1.146
2.049 8.874 0.721
1.653 8.613 0.396
1.417 8.539 0.156
5.939 11.931 5.561
5.745 11.705 5.098
5.301 11.346 4.905
5.133 11.279 4.581
4.838 10.939 4.243
4.552 10.819 3.922
4.238 10.539 3.522
2.462 9.528 2.224
2.131 9.309 1.728
1.782 9.220 1.411
1.519 8.895 1.060
1.352 8.715 0.792
1.091 8.533 0.509
0.772 8.304 0.135
5.650 11.843 5.729
5.317 11.558 5.489
4.943 11.471 5.149
4.792 11.115 4.848
4.404 10.983 4.468
4.221 10.891 4.101
3.776 10.515 3.886
3.631 10.450 3.469
1.980 9.556 2.400
1.907 9.205 2.207
1.501 9.085 1.837
1.304 8.791 1.518
0.969 8.811 1.079
0.578 8.378 0.742
0.523 8.336 0.488
0.065 8.015 0.252
5.209 11.766 6.169
4.930 11.548 5.869
4.539 11.433 5.479
4.427 11.133 5.199
4.085 11.033 4.870
3.689 10.852 4.432
3.471 10.676 4.176
3.266 10.462 3.762
11.590 12.559 0.229
11.239 12.635 0.506
10.986 12.214 0.269
10.792 12.578 0.934
10.619 12.282 0.476
10.244 11.991 0.218
10.435 12.417 1.137
10.307 12.314 0.925
10.056 12.178 0.532
9.651 11.898 0.254
10.249 12.568 1.629
9.793 12.333 1.275
9.687 12.074 0.815
9.231 11.957 0.590
8.990 11.533 0.115
9.739 12.450 1.838
9.403 12.373 1.426
9.210 12.061 1.109
9.016 11.742 0.755
8.624 11.658 0.445
8.440 11.456 0.219
9.311 12.375 2.168
9.164 12.177 1.863
8.825 11.931 1.420
8.472 11.820 1.099
8.322 11.609 0.731
8.088 11.366 0.559
7.645 11.207 0.124
9.032 12.455 2.498
8.840 12.205 2.226
8.461 12.035 1.925
8.317 11.918 1.585
7.806 11.546 1.097
7.576 11.355 0.775
7.340 11.083 0.383
7.085 11.024 0.225
8.765 12.339 2.833
8.477 12.202 2.494
8.073 11.976 2.064
7.841 11.737 1.783
7.534 11.634 1.478
7.179 11.311 1.237
7.065 11.052 0.729
8.427 12.288 3.027
8.011 12.173 2.801
7.823 12.092 2.469
7.586 11.765 2.010
7.304 11.521 1.695
6.932 11.393 1.413
7.749 12.231 3.106
7.361 11.939 2.772
7.183 11.866 2.522
6.813 11.591 2.203
7.385 12.266 3.508
6.927 11.910 2.971
6.781 11.775 2.758
6.353 11.433 2.407
6.864 12.174 3.725
6.595 11.904 3.372
6.399 11.735 3.008
6.056 11.478 2.831
3.119 9.581 0.056
6.790 12.381 4.385
6.467 12.078 4.088
6.268 11.900 3.669
6.040 11.793 3.332
5.737 11.387 3.070
5.443 11.409 2.833
3.033 9.892 0.639
2.833 9.498 0.456
2.523 9.464 0.008
6.446 12.381 4.620
6.219 12.053 4.465
5.987 11.818 4.107
5.673 11.647 3.616
5.286 11.515 3.491
5.052 11.251 2.963
4.748 11.176 2.747
2.938 10.020 1.290
2.861 9.684 1.101
2.410 9.629 0.757
2.158 9.418 0.477
2.015 9.187 0.110
6.169 12.343 5.077
5.808 12.144 4.618
5.557 11.949 4.312
5.343 11.755 4.006
5.009 11.444 3.601
4.754 11.335 3.383
4.439 11.041 3.094
4.240 10.964 2.650
3.220 10.301 2.410
2.900 10.216 2.002
2.734 10.066 1.615
2.478 9.687 1.377
2.111 9.663 1.041
1.867 9.468 0.702
1.437 9.225 0.247
1.224 8.849 0.063
5.838 12.390 5.267
5.503 12.201 4.986
5.133 11.936 4.793
4.958 11.729 4.327
4.639 11.431 3.904
4.293 11.229 3.627
4.104 11.055 3.302
3.807 10.716 3.091
3.421 10.548 2.567
3.191 10.416 2.377
2.886 10.401 2.730
2.700 10.292 2.289
2.390 10.015 2.002
1.928 9.856 1.694
1.817 9.668 1.431
1.454 9.413 1.115
1.226 9.109 0.746
0.918 8.843 0.319
0.557 8.794 -0.022
5.439 12.204 5.548
5.136 11.963 5.343
4.905 11.933 5.109
4.666 11.551 4.653
4.375 11.338 4.289
3.960 11.269 3.927
3.796 10.938 3.753
3.362 10.785 3.376
3.257 10.541 2.939
2.971 10.333 2.682
2.605 10.315 2.899
2.315 10.078 2.628
2.007 9.893 2.336
1.762 9.641 2.051
1.311 9.514 1.729
1.157 9.350 1.433
0.746 9.198 1.080
0.589 8.887 0.555
0.246 8.700 0.333
5.048 12.371 6.094
4.864 11.993 5.589
4.406 11.894 5.345
4.265 11.567 5.096
3.813 11.369 4.650
3.620 11.109 4.288
3.432 11.101 4.063
3.143 10.785 3.685
2.860 10.669 3.372
2.517 10.387 2.927
10.186 12.469 0.024
9.810 12.598 0.327
9.626 12.278 0.081
9.331 12.550 0.705
9.190 12.394 0.351
8.854 12.146 0.030
8.989 12.393 0.942
8.846 12.304 0.639
8.519 12.100 0.475
8.237 11.828 0.004
8.641 12.490 1.428
8.474 12.206 1.113
8.235 12.019 0.785
7.951 11.856 0.401
7.503 11.623 -0.075
8.436 12.531 1.638
8.075 12.288 1.343
7.753 11.943 1.103
7.592 11.778 0.784
7.170 11.700 0.271
6.925 11.322 0.037
7.985 12.536 2.099
7.644 12.218 1.570
7.464 12.000 1.416
7.214 11.884 1.058
6.926 11.690 0.648
7.590 12.363 2.236
7.426 12.235 1.869
7.010 11.929 1.566
6.766 11.746 1.332
7.324 12.330 2.644
7.057 12.105 2.235
6.736 11.920 1.995
6.482 11.769 1.740
6.809 12.390 2.872
6.619 12.283 2.514
6.430 11.944 2.290
6.124 11.823 1.942
6.569 12.478 3.318
6.128 12.220 2.805
5.969 11.924 2.586
5.726 11.758 2.262
6.219 12.446 3.512
5.848 12.164 3.272
5.703 11.999 2.900
5.249 11.759 2.468
2.916 10.147 0.580
2.786 10.003 0.274
6.111 12.581 4.266
5.785 12.269 3.993
5.561 12.169 3.669
5.288 11.810 3.339
4.848 11.637 2.783
4.567 11.592 2.643
3.482 10.888 1.937
3.258 10.674 1.450
2.789 10.530 1.269
2.568 10.314 0.866
2.254 9.975 0.672
2.131 9.891 0.332
5.729 12.653 4.514
5.315 12.285 4.169
5.190 12.003 3.877
4.826 11.966 3.603
4.677 11.790 3.286
4.194 11.585 2.916
3.963 11.165 2.495
3.844 11.166 2.110
3.573 10.848 1.932
2.980 10.912 2.203
2.779 10.578 1.928
2.549 10.519 1.463
2.310 10.293 1.220
1.909 10.015 0.972
1.669 9.890 0.447
1.358 9.654 0.276
5.337 12.426 4.770
5.041 12.220 4.554
4.813 12.185 4.141
4.565 11.924 3.811
4.216 11.799 3.437
3.903 11.445 3.095
3.577 11.297 2.828
3.258 11.163 2.418
3.141 10.871 2.316
2.724 10.950 2.455
2.348 10.699 2.128
2.056 10.372 1.828
1.877 10.252 1.446
1.639 9.909 1.211
1.398 9.860 0.847
0.973 9.640 0.596
0.796 9.325 0.228
4.887 12.537 5.133
4.817 12.286 4.885
4.320 12.014 4.440
4.111 11.906 4.182
3.885 11.641 3.753
3.488 11.426 3.459
3.274 11.185 3.164
2.952 10.933 2.916
2.699 10.871 2.432
2.447 10.872 2.852
2.171 10.556 2.617
1.715 10.494 2.193
1.536 10.146 1.916
1.188 10.007 1.443
0.858 9.763 1.243
0.717 9.660 0.896
0.425 9.408 0.399
0.127 9.032 0.125
4.672 12.514 5.508
4.436 12.332 5.233
3.970 12.057 4.813
3.733 11.803 4.410
3.417 11.580 4.167
3.254 11.328 3.939
2.841 11.269 3.422
2.646 11.066 3.230
2.381 10.893 2.729
8.235 12.455 0.100
8.089 12.453 0.492
7.787 12.241 0.311
7.596 12.563 0.817
7.262 12.365 0.621
7.166 12.017 0.144
7.286 12.451 1.054
7.056 12.243 0.914
6.756 12.144 0.418
6.496 11.893 0.231
6.934 12.491 1.581
6.652 12.280 1.169
6.233 12.135 0.931
6.459 12.498 1.825
6.143 12.199 1.525
6.066 12.470 2.047
5.999 12.083 1.831
5.732 12.376 2.546
5.627 12.109 2.043
3.169 10.716 0.000
5.364 12.339 2.767
5.059 12.269 2.364
4.847 12.075 2.166
3.181 10.882 0.750
2.865 10.796 0.436
2.490 10.574 0.004
5.195 12.442 3.120
4.784 12.104 2.674
4.443 11.937 2.338
4.277 11.692 2.153
3.243 11.367 1.790
3.032 11.188 1.368
2.645 10.829 0.992
2.515 10.611 0.718
2.156 10.506 0.468
1.783 10.143 0.153
5.112 12.572 3.631
4.682 12.234 3.349
4.500 12.191 3.172
4.131 12.006 2.794
3.883 11.762 2.320
3.635 11.614 1.986
3.329 11.263 1.843
3.013 11.302 1.959
2.734 10.998 1.677
2.397 10.839 1.414
2.069 10.600 1.105
1.806 10.377 0.667
1.522 10.268 0.353
1.285 9.915 0.026
4.740 12.514 3.944
4.384 12.330 3.626
4.038 12.235 3.313
3.677 11.838 3.075
3.390 11.738 2.778
3.169 11.458 2.374
2.862 11.339 2.156
2.597 11.347 2.426
2.311 11.055 1.935
1.979 10.798 1.630
1.662 10.591 1.360
1.349 10.473 0.983
1.238 10.246 0.750
0.870 10.068 0.426
0.597 9.739 0.047
4.270 12.529 4.434
3.926 12.220 4.135
3.793 12.069 3.713
3.409 11.905 3.287
3.235 11.710 3.060
2.854 11.457 2.588
2.578 11.219 2.367
2.314 11.301 2.771
1.894 10.969 2.252
1.735 10.765 1.987
1.260 10.525 1.602
1.198 10.412 1.423
0.720 10.267 0.968
0.428 10.002 0.602
0.318 9.739 0.298
3.820 12.513 4.721
3.607 12.356 4.464
3.378 12.139 4.025
2.997 11.830 3.749
2.752 11.746 3.320
2.396 11.566 3.078
2.111 11.175 2.579
6.922 12.526 0.016
6.523 12.550 0.383
6.158 12.273 0.074
6.183 12.570 0.772
4.716 12.340 1.966
2.967 11.376 0.580
2.600 11.085 0.326
4.422 12.367 2.290
4.047 12.165 1.958
3.170 11.820 1.527
2.980 11.580 1.162
2.640 11.260 0.940
2.276 11.028 0.700
1.944 10.796 0.215
3.912 12.430 2.624
3.788 12.110 2.253
3.548 11.826 1.836
3.234 11.804 1.489
2.887 11.791 1.837
2.552 11.498 1.644
2.204 11.230 1.275
1.975 11.119 0.884
1.573 10.933 0.693
1.296 10.638 0.130
4.028 12.609 3.284
3.587 12.304 3.000
3.435 12.160 2.578
3.046 12.013 2.273
2.843 11.740 2.024
2.407 11.789 2.336
2.074 11.413 1.962
1.779 11.321 1.481
1.665 11.085 1.317
1.217 10.933 0.936
1.046 10.673 0.606
0.846 10.534 0.336
3.523 12.633 3.442
3.335 12.338 3.127
3.094 12.226 2.813
2.636 11.984 2.490
2.502 11.733 2.276
1.975 11.579 2.517
1.824 11.535 2.321
1.618 11.193 1.950
1.192 11.162 1.447
0.910 10.804 1.235
0.721 10.557 0.996
0.428 10.338 0.638
0.049 10.169 0.101
3.206 12.605 3.886
2.814 12.412 3.569
2.711 12.078 3.168
2.244 11.903 2.943
2.033 11.591 2.502
2.563 11.506 0.148
3.075 12.213 1.499
2.739 11.930 1.076
2.487 11.735 0.737
2.079 11.445 0.546
1.807 11.288 0.172
3.241 12.432 1.722
3.063 12.218 1.485
2.591 12.071 1.641
2.419 12.017 1.332
2.053 11.666 1.024
1.721 11.636 0.741
1.624 11.260 0.520
1.226 11.089 0.172
2.859 12.360 2.113
2.648 12.121 1.749
2.165 12.187 2.053
1.995 11.814 1.752
1.648 11.664 1.448
1.479 11.477 1.163
1.237 11.237 0.692
0.860 10.994 0.355
0.500 10.901 0.160
2.929 12.621 2.694
2.616 12.233 2.519
2.292 12.120 2.137
1.949 12.172 2.423
1.639 11.930 2.035
1.276 11.757 1.632
0.987 11.537 1.372
0.681 11.227 1.127
0.443 11.075 0.768
0.306 10.976 0.497
2.421 12.599 3.172
2.084 12.303 2.671
1.921 12.083 2.390
2.215 12.103 0.596
2.131 11.966 0.281
2.300 12.463 1.339
1.931 12.148 0.979
1.559 11.854 0.721
1.403 11.725 0.280
1.865 12.344 1.582
1.528 12.268 1.225
1.353 11.868 0.854
1.016 11.768 0.709
0.771 11.592 0.165
1.723 12.494 2.251
1.577 12.458 2.033
1.198 12.219 1.522
0.965 12.015 1.250
0.711 11.713 0.910
0.251 11.631 0.498
0.182 11.230 0.344
1.685 12.625 2.265
1.844 12.523 0.050
1.591 12.381 0.452
1.327 12.274 0.075
1.254 12.334 0.879
0.895 12.088 0.569
0.525 12.066 0.088
0.775 12.304 0.988
0.402 12.115 0.851
0.262 12.034 0.536
0.161 12.476 0.347
12.523 5.565 2.363
12.208 5.462 2.093
11.907 5.210 1.746
11.680 4.979 1.430
12.516 5.834 3.107
12.189 5.632 2.857
11.846 5.360 2.431
11.519 5.063 2.210
11.256 4.963 1.642
12.399 6.006 3.758
12.111 5.738 3.332
11.764 5.631 3.143
11.480 5.313 2.662
11.169 5.202 2.335
10.844 4.823 2.047
10.651 4.706 1.749
8.549 3.450 0.056
11.910 5.973 4.087
11.747 5.650 3.796
11.327 5.483 3.395
11.071 5.289 3.014
10.978 5.160 2.738
10.679 4.812 2.304
10.259 4.712 2.160
8.062 3.303 -0.001
11.571 5.816 4.467
11.376 5.737 3.936
11.082 5.582 3.784
10.777 5.299 3.369
10.445 5.079 2.983
10.131 4.907 2.606
7.526 3.078 0.330
7.422 2.968 -0.068
11.282 5.837 4.799
10.896 5.759 4.264
10.641 5.526 4.045
10.398 5.290 3.612
10.127 5.009 3.294
9.980 4.932 3.034
6.564 2.818 0.013
10.374 5.510 4.373
10.131 5.362 4.049
4.569 2.698 1.907
4.148 2.531 1.497
8.058 5.351 6.234
7.902 5.197 5.813
4.617 3.000 2.820
4.365 2.806 2.604
4.214 2.683 2.331
3.754 2.357 2.027
3.499 2.207 1.537
3.311 2.072 1.241
8.401 5.877 7.224
8.090 5.539 6.919
7.919 5.443 6.585
7.488 5.079 6.143
7.232 4.956 5.913
7.005 4.702 5.527
4.384 3.038 3.329
4.057 2.772 2.962
3.697 2.687 2.532
3.562 2.536 2.155
3.183 2.166 1.980
2.854 1.945 1.583
8.025 5.674 7.487
7.780 5.639 7.261
7.474 5.229 7.002
7.268 5.046 6.460
6.828 4.889 6.172
6.584 4.758 5.820
4.200 3.316 3.957
3.977 3.001 3.646
3.809 2.711 3.203
3.444 2.662 2.982
3.096 2.468 2.572
2.788 2.083 2.144
2.624 2.071 1.850
2.273 1.888 1.471
7.542 5.822 7.912
7.440 5.571 7.466
6.993 5.353 7.181
6.696 5.046 6.931
6.453 4.827 6.500
6.177 4.770 6.211
5.847 4.608 5.771
3.817 3.317 4.152
3.695 2.917 3.886
3.268 2.765 3.599
3.060 2.537 3.185
2.823 2.500 2.991
2.594 2.184 2.575
2.125 2.055 2.156
2.025 1.724 1.878
7.309 5.768 8.151
7.106 5.410 7.825
6.617 5.407 7.636
6.324 5.104 7.159
6.202 4.856 6.869
5.927 4.781 6.579
5.630 4.531 6.259
12.428 5.753 1.757
12.180 5.612 1.320
11.811 5.342 1.014
12.447 5.946 2.271
12.104 5.775 1.976
11.720 5.700 1.570
11.591 5.260 1.405
11.266 5.180 0.990
12.348 6.294 2.917
12.124 6.100 2.607
11.727 5.720 2.204
11.503 5.462 1.975
11.077 5.322 1.695
10.774 5.096 1.212
12.202 6.408 3.563
11.904 6.089 3.271
11.658 5.942 2.986
11.447 5.861 2.547
11.076 5.600 2.306
10.866 5.331 2.004
10.436 5.114 1.704
10.194 5.005 1.242
8.682 4.159 0.149
11.931 6.399 3.810
11.521 6.112 3.606
11.234 5.952 3.288
10.888 5.669 2.850
10.774 5.517 2.605
10.396 5.327 2.231
10.067 5.201 1.864
9.804 4.830 1.676
8.109 3.860 0.304
11.524 6.346 4.248
11.280 6.168 3.942
10.839 5.885 3.455
10.561 5.824 3.333
10.372 5.488 2.873
10.082 5.269 2.654
9.818 4.992 2.202
7.656 3.723 0.455
7.558 3.565 0.265
11.229 6.272 4.618
10.926 6.073 4.181
10.470 5.953 3.850
10.303 5.597 3.590
9.904 5.594 3.219
9.648 5.297 2.830
9.414 5.198 2.479
7.116 3.506 0.567
6.796 3.422 0.300
10.810 6.230 4.764
10.448 6.051 4.647
10.251 5.957 4.155
9.814 5.722 3.850
9.549 5.605 3.563
9.406 5.294 3.322
6.281 3.079 0.243
9.911 5.860 4.528
9.647 5.721 4.216
4.690 3.035 1.501
4.325 2.890 1.234
8.286 5.749 5.704
8.011 5.594 5.479
4.899 3.470 2.553
4.735 3.350 2.089
4.367 3.173 1.871
4.143 2.908 1.437
3.769 2.573 1.023
3.580 2.562 0.780
8.624 6.205 6.670
8.257 6.042 6.492
8.107 5.920 6.150
7.705 5.556 5.869
7.487 5.425 5.368
7.065 5.224 5.005
4.827 3.709 3.024
4.447 3.405 2.867
4.366 3.301 2.525
4.066 3.134 2.111
3.635 2.759 1.877
3.539 2.558 1.408
3.026 2.428 1.087
2.950 2.341 0.802
8.326 6.145 7.179
7.933 5.964 6.792
7.650 5.732 6.368
7.467 5.693 6.135
6.975 5.362 5.714
6.905 5.190 5.355
6.523 5.003 4.993
4.455 3.694 3.377
4.152 3.554 3.171
4.022 3.250 2.698
3.553 3.118 2.475
3.271 2.932 2.141
3.024 2.694 1.703
2.688 2.386 1.464
2.396 2.315 1.138
7.892 6.094 7.453
7.539 5.936 6.994
7.351 5.797 6.717
6.922 5.512 6.415
6.644 5.448 5.970
6.355 5.034 5.769
6.078 4.967 5.383
4.444 3.775 4.007
4.097 3.603 3.671
3.935 3.482 3.380
3.654 3.313 3.049
3.275 3.053 2.659
3.019 2.780 2.310
2.600 2.598 2.048
2.348 2.419 1.699
2.105 2.218 1.426
1.867 1.950 1.018
7.506 6.250 7.733
7.134 5.976 7.415
6.880 5.837 6.960
6.760 5.622 6.618
6.374 5.254 6.336
6.170 5.212 6.145
5.762 5.038 5.644
5.627 4.734 5.461
3.975 3.978 4.334
3.824 3.771 4.014
3.458 3.378 3.660
3.143 3.285 3.474
2.977 3.129 2.971
2.730 2.844 2.734
2.363 2.536 2.504
1.985 2.500 1.951
1.813 2.188 1.786
1.452 1.980 1.494
0.352 1.254 0.163
7.106 6.132 7.994
6.918 6.031 7.816
6.564 5.676 7.449
6.208 5.443 7.131
6.053 5.408 6.755
5.625 5.008 6.423
5.337 5.011 6.059
5.064 4.629 5.709
12.457 6.016 0.766
12.004 5.762 0.621
12.430 6.159 1.490
12.100 6.041 1.092
11.674 5.846 0.862
11.533 5.601 0.609
12.478 6.638 2.569
12.131 6.486 2.040
12.030 6.271 1.720
11.609 6.037 1.457
11.308 5.843 1.148
11.129 5.514 0.699
10.785 5.451 0.599
9.813 5.068 0.022
12.456 6.734 3.088
12.036 6.581 2.832
11.935 6.317 2.440
11.635 6.319 2.223
11.397 6.062 1.828
11.030 5.735 1.537
10.848 5.610 1.203
10.506 5.290 0.787
10.253 5.071 0.552
9.872 4.857 0.131
9.577 4.972 0.347
9.263 4.677 0.066
11.965 6.709 3.489
11.856 6.504 3.057
11.394 6.362 2.740
11.326 6.268 2.439
10.982 6.089 2.059
10.648 5.745 1.800
10.308 5.607 1.465
9.982 5.338 1.223
9.907 5.158 0.764
9.457 4.859 0.440
9.145 5.015 0.653
8.803 4.624 0.460
8.649 4.483 0.103
11.680 6.733 3.835
11.391 6.484 3.389
11.073 6.305 3.023
10.937 6.227 2.849
10.612 5.872 2.505
10.399 5.857 1.996
10.073 5.524 1.798
9.806 5.430 1.326
9.474 5.180 1.032
9.218 4.835 0.813
8.765 4.987 1.200
8.567 4.600 0.649
8.205 4.395 0.400
8.032 4.206 -0.024
11.308 6.819 4.071
11.054 6.651 3.803
10.719 6.363 3.397
10.592 6.150 2.975
10.158 6.064 2.852
10.043 5.629 2.304
9.676 5.630 2.177
9.264 5.405 1.809
9.115 5.166 1.442
8.687 4.859 1.208
7.924 4.358 0.743
7.689 4.265 0.459
7.375 4.010 0.091
10.897 6.672 4.512
10.711 6.641 4.058
10.382 6.473 3.766
10.177 6.062 3.452
9.941 6.000 3.165
9.489 5.759 2.735
9.317 5.412 2.353
8.956 5.408 2.163
7.331 4.202 0.809
6.964 4.098 0.302
6.617 3.840 0.105
10.577 6.674 4.650
10.246 6.566 4.421
10.081 6.428 4.069
9.765 6.245 3.644
9.550 5.913 3.352
9.154 5.747 2.995
8.841 5.436 2.820
6.700 4.021 0.647
6.406 3.814 0.448
5.940 3.726 0.065
10.306 6.817 5.016
10.070 6.645 4.802
9.661 6.234 4.476
9.520 6.011 3.944
9.223 5.802 3.780
8.938 5.778 3.355
5.963 3.900 0.714
5.730 3.679 0.347
5.293 3.471 0.119
9.531 6.629 5.036
9.323 6.212 4.576
9.046 6.164 4.249
8.678 5.951 3.941
5.536 3.797 0.992
5.323 3.483 0.759
5.031 3.288 0.317
4.748 3.212 -0.050
9.335 6.520 5.379
8.951 6.222 4.957
8.605 5.970 4.721
8.382 5.903 4.422
5.149 3.722 1.251
4.954 3.450 0.964
4.738 3.353 0.692
4.308 3.030 0.299
8.891 6.406 5.629
8.533 6.263 5.333
8.288 5.955 5.055
8.080 5.968 4.709
5.101 3.954 1.910
4.922 3.646 1.594
4.488 3.572 1.340
4.236 3.337 0.884
4.100 3.019 0.555
3.737 3.031 0.329
8.800 6.586 6.288
8.523 6.475 5.895
8.151 6.220 5.544
7.846 6.104 5.263
7.571 5.910 5.096
7.291 5.680 4.598
5.102 4.043 2.740
4.759 3.848 2.367
4.433 3.721 1.933
4.129 3.429 1.696
3.907 3.388 1.410
3.566 3.040 0.899
3.315 2.822 0.699
3.159 2.592 0.201
8.366 6.697 6.727
8.088 6.512 6.265
7.765 6.294 6.061
7.493 6.053 5.700
7.249 5.853 5.381
7.128 5.556 5.004
6.760 5.351 4.588
4.938 4.259 3.185
4.797 4.042 3.036
4.325 3.968 2.626
4.169 3.799 2.183
3.842 3.573 1.865
3.611 3.355 1.574
3.168 3.087 1.289
3.066 3.001 0.910
2.805 2.745 0.512
2.384 2.356 0.369
8.066 6.705 7.043
7.691 6.355 6.603
7.603 6.344 6.172
7.274 6.128 5.898
6.868 5.902 5.635
6.640 5.595 5.332
6.489 5.359 4.949
6.071 5.083 4.593
5.160 4.789 4.255
4.948 4.617 3.854
4.505 4.332 3.591
4.310 4.032 3.351
3.979 3.815 2.846
3.811 3.786 2.714
3.501 3.444 2.309
3.149 3.265 1.891
3.015 2.979 1.580
2.612 2.765 1.292
2.233 2.581 1.004
2.090 2.531 0.522
1.738 2.281 0.356
7.612 6.680 7.147
7.330 6.528 6.861
7.197 6.286 6.605
6.855 6.038 6.297
6.481 5.801 5.889
6.208 5.639 5.615
6.005 5.474 5.353
5.635 5.135 5.048
5.542 4.850 4.498
5.184 4.802 4.288
4.820 4.646 4.527
4.501 4.491 4.362
4.322 4.312 3.979
3.943 4.132 3.510
3.616 3.940 3.236
3.457 3.647 2.978
3.214 3.508 2.565
2.897 3.343 2.315
2.619 3.077 1.926
2.155 2.952 1.648
1.943 2.549 1.193
1.596 2.338 0.954
1.463 2.209 0.704
1.121 2.130 0.191
7.443 6.643 7.538
6.995 6.472 7.132
6.841 6.113 7.013
6.593 5.904 6.537
6.312 5.662 6.340
6.046 5.591 5.903
5.686 5.273 5.659
5.435 5.060 5.229
5.171 5.038 5.002
4.864 4.734 4.549
4.500 4.643 4.897
4.126 4.448 4.664
3.966 4.347 4.221
3.526 4.029 3.934
3.273 3.768 3.461
2.999 3.577 3.283
2.794 3.350 3.028
2.510 3.177 2.597
2.222 3.081 2.161
1.827 2.758 1.933
1.701 2.521 1.689
1.302 2.346 1.155
1.164 2.217 0.827
0.660 2.035 0.596
0.461 1.786 0.233
7.050 6.617 7.813
6.799 6.475 7.628
6.382 6.175 7.226
6.220 6.034 6.810
5.804 5.667 6.461
5.517 5.527 6.294
5.379 5.296 6.005
4.928 5.188 5.477
4.747 4.941 5.207
4.463 4.757 4.804
12.260 6.296 0.136
12.614 6.782 0.951
12.158 6.578 0.646
11.933 6.260 0.428
12.387 6.873 1.678
12.256 6.582 1.323
11.776 6.441 0.942
11.690 6.309 0.784
11.407 6.036 0.292
12.276 7.070 2.419
12.020 6.841 2.066
11.714 6.624 1.623
11.497 6.463 1.224
11.229 6.148 0.948
11.068 5.982 0.566
10.738 5.879 0.444
10.357 5.642 0.099
12.198 7.238 3.063
11.939 7.085 2.639
11.679 6.887 2.364
11.474 6.585 1.895
11.116 6.390 1.631
10.818 6.208 1.375
10.635 6.093 0.906
10.236 5.739 0.660
10.025 5.707 0.231
9.380 5.265 0.424
11.988 7.165 3.346
11.671 7.105 2.995
11.357 6.805 2.598
11.092 6.665 2.234
10.801 6.317 2.063
10.471 6.307 1.564
10.142 6.001 1.270
9.920 5.814 0.993
9.775 5.548 0.555
9.391 5.418 0.351
8.951 5.438 0.623
8.737 5.248 0.295
11.651 7.143 3.515
11.226 6.927 3.248
10.958 6.849 2.910
10.629 6.529 2.602
10.401 6.324 2.392
10.195 6.283 2.007
9.882 5.939 1.620
9.671 5.778 1.173
9.402 5.609 0.891
8.932 5.297 0.578
8.604 5.371 1.059
8.301 5.127 0.655
8.094 4.987 0.197
11.270 7.281 4.042
10.995 7.007 3.510
10.564 6.745 3.252
10.353 6.558 2.947
10.067 6.272 2.504
9.685 6.102 2.181
9.461 5.927 2.032
9.228 5.760 1.630
9.041 5.626 1.376
8.744 5.303 1.015
8.213 5.441 1.312
8.042 5.099 0.885
7.650 4.857 0.502
7.329 4.632 0.259
10.912 7.197 4.329
10.548 7.102 3.882
10.196 6.755 3.557
9.880 6.607 3.340
9.699 6.462 2.880
9.366 6.178 2.509
9.134 6.023 2.143
8.794 5.703 1.897
8.502 5.509 1.479
8.334 5.313 1.348
6.990 4.609 0.568
6.728 4.517 0.191
10.501 7.253 4.657
10.115 6.989 4.178
9.901 6.781 4.015
9.710 6.557 3.663
9.303 6.312 3.207
9.048 6.175 2.801
8.886 5.887 2.694
6.500 4.348 0.586
6.056 4.256 0.238
10.113 7.283 4.976
9.741 6.944 4.539
9.560 6.705 4.135
9.365 6.438 3.845
8.905 6.391 3.574
8.810 6.241 3.285
5.984 4.544 0.929
5.725 4.234 0.533
5.563 4.056 0.324
9.708 7.180 5.114
9.396 6.940 4.804
9.247 6.739 4.557
8.971 6.611 4.118
8.654 6.315 3.776
8.356 6.065 3.657
5.785 4.426 1.156
5.328 4.327 0.773
5.242 4.047 0.650
4.884 3.796 0.282
9.475 7.105 5.448
9.145 6.997 5.121
8.715 6.625 4.874
8.585 6.532 4.587
8.291 6.365 4.156
7.885 6.113 3.798
5.398 4.505 1.444
5.008 4.257 1.182
4.708 4.049 0.967
4.501 3.837 0.471
4.338 3.476 0.227
9.126 7.158 5.800
8.709 6.833 5.419
8.362 6.694 5.084
8.088 6.434 4.882
7.861 6.335 4.515
7.651 5.969 4.077
4.928 4.334 1.793
4.645 4.269 1.614
4.345 4.080 1.184
4.244 3.655 0.933
3.747 3.588 0.587
3.571 3.286 0.138
8.656 7.167 6.217
8.278 6.844 5.748
8.196 6.736 5.586
7.686 6.459 5.144
7.551 6.229 4.799
7.174 6.164 4.477
4.930 4.680 2.590
4.580 4.430 2.103
4.415 4.196 1.889
4.041 3.946 1.578
3.810 3.834 1.112
3.582 3.433 0.832
3.271 3.270 0.602
2.810 3.198 0.164
8.274 7.101 6.576
7.890 6.973 6.234
7.686 6.580 5.899
7.417 6.437 5.485
7.200 6.343 5.268
6.883 5.947 4.815
6.704 5.945 4.507
5.278 5.278 3.743
5.000 4.876 3.375
4.740 4.812 3.248
4.548 4.520 2.782
4.332 4.262 2.371
4.020 4.094 2.103
3.710 3.936 1.708
3.473 3.729 1.569
3.145 3.552 1.158
2.941 3.297 0.863
2.516 3.049 0.561
2.208 3.004 0.060
7.881 7.039 6.904
7.658 6.940 6.518
7.363 6.749 6.186
7.104 6.548 5.877
6.830 6.233 5.383
6.501 6.030 5.029
6.327 5.850 4.784
6.025 5.553 4.496
5.582 5.494 4.149
5.486 5.277 3.880
4.949 5.194 4.104
4.845 5.074 3.815
4.481 4.797 3.521
4.201 4.520 3.064
3.859 4.312 2.745
3.592 4.150 2.400
3.325 4.037 2.072
3.159 3.834 1.870
2.808 3.586 1.579
2.597 3.207 1.128
2.180 3.182 0.798
1.961 2.843 0.372
1.722 2.782 0.225
7.543 7.053 7.005
7.349 6.957 6.678
6.929 6.534 6.484
6.810 6.405 6.219
6.410 6.169 5.715
6.215 5.976 5.402
5.780 5.808 5.119
5.617 5.672 4.694
5.412 5.482 4.543
5.079 5.272 4.040
4.556 5.227 4.355
4.275 4.992 3.998
4.105 4.773 3.761
3.801 4.582 3.460
3.636 4.309 3.016
3.347 4.070 2.798
2.894 3.894 2.551
2.634 3.762 2.038
2.353 3.540 1.730
2.192 3.371 1.500
1.897 3.134 1.140
1.658 2.805 0.887
1.261 2.759 0.553
0.965 2.542 0.233
7.270 7.048 7.545
6.979 6.911 7.089
6.558 6.551 6.720
6.316 6.390 6.448
6.001 6.281 6.038
5.697 6.019 5.707
5.574 5.884 5.511
5.111 5.635 5.194
5.050 5.465 4.813
4.688 5.170 4.423
4.349 5.238 4.749
4.066 4.842 4.364
3.667 4.836 4.060
3.513 4.583 3.731
3.112 4.323 3.341
2.841 4.147 3.197
2.706 3.961 2.821
2.208 3.689 2.491
2.115 3.445 2.020
1.731 3.170 1.654
1.474 3.107 1.431
1.138 2.878 1.060
0.847 2.764 0.781
0.674 2.350 0.324
0.324 2.315 0.107
6.898 7.061 7.855
6.621 6.854 7.402
6.219 6.575 7.091
5.910 6.300 6.728
5.590 6.315 6.414
5.415 6.031 5.978
5.023 5.679 5.751
4.832 5.668 5.324
4.636 5.265 5.184
4.290 5.113 4.772
12.363 6.838 0.326
12.456 7.173 0.791
12.029 6.976 0.545
11.855 6.631 0.184
12.261 7.256 1.626
11.964 7.060 1.313
11.626 7.013 0.750
11.365 6.682 0.421
11.114 6.467 0.293
12.510 7.795 2.566
12.332 7.446 2.115
11.975 7.370 1.734
11.693 7.053 1.507
11.367 6.869 1.255
11.063 6.599 0.826
10.838 6.451 0.555
10.560 6.380 0.297
12.025 7.612 2.771
11.824 7.477 2.557
11.557 7.391 2.212
11.342 7.052 1.869
10.952 6.982 1.514
10.689 6.633 1.184
10.432 6.395 0.950
10.200 6.142 0.503
9.941 6.102 0.082
9.233 5.774 0.079
11.776 7.783 3.228
11.392 7.578 2.762
11.164 7.232 2.525
11.012 7.086 2.142
10.634 6.966 1.831
10.419 6.690 1.386
10.098 6.444 1.250
9.797 6.160 0.905
9.573 5.995 0.583
9.351 5.714 0.102
8.767 5.807 0.557
8.700 5.616 0.118
11.361 7.691 3.415
11.110 7.563 3.075
10.841 7.355 2.764
10.664 7.012 2.451
10.342 6.748 2.187
10.006 6.671 1.807
9.667 6.370 1.470
9.512 6.217 1.144
9.111 5.963 0.898
8.930 5.729 0.381
8.427 5.662 0.728
8.167 5.472 0.539
8.002 5.462 0.050
11.036 7.755 3.890
10.753 7.416 3.410
10.437 7.158 3.181
10.147 6.941 2.878
9.863 6.727 2.368
9.694 6.731 2.162
9.301 6.494 1.824
9.039 6.243 1.424
8.781 6.104 1.209
8.542 5.749 0.889
8.065 5.767 1.167
7.846 5.595 0.678
7.498 5.370 0.557
7.355 5.020 0.202
10.618 7.685 4.120
10.323 7.539 3.701
10.092 7.180 3.418
9.845 6.931 3.015
9.582 6.846 2.810
9.379 6.623 2.401
8.999 6.339 2.206
8.593 6.163 1.805
8.325 6.007 1.475
8.153 5.806 1.095
7.332 5.394 0.768
6.912 5.107 0.371
6.733 4.868 0.190
10.381 7.589 4.400
10.127 7.408 4.177
9.853 7.329 3.827
9.540 7.109 3.429
9.224 6.678 3.144
8.801 6.657 2.868
8.513 6.462 2.409
8.336 6.227 1.988
6.575 5.076 0.679
6.202 4.844 0.468
5.975 4.587 0.112
10.006 7.495 4.763
9.759 7.392 4.374
9.391 7.146 3.989
9.159 7.071 3.686
8.780 6.878 3.509
8.559 6.571 2.983
8.365 6.380 2.656
5.946 4.959 0.844
5.644 4.769 0.522
5.292 4.482 0.142
9.498 7.609 5.009
9.222 7.361 4.751
9.098 7.277 4.278
8.690 7.059 4.022
8.581 6.779 3.700
8.157 6.436 3.325
5.659 4.748 0.945
5.230 4.579 0.824
4.945 4.484 0.334
4.831 4.160 -0.005
9.236 7.629 5.399
8.827 7.264 4.963
8.631 7.087 4.793
8.347 6.932 4.308
8.036 6.778 4.030
7.834 6.605 3.733
5.171 4.897 1.272
5.010 4.556 1.010
4.627 4.459 0.692
4.447 4.340 0.436
3.968 3.941 -0.074
8.939 7.580 5.761
8.655 7.434 5.405
8.340 7.197 4.983
7.940 6.891 4.626
7.684 6.800 4.451
7.448 6.531 4.119
5.090 5.049 1.959
4.947 4.930 1.642
4.551 4.694 1.338
4.309 4.504 0.965
4.096 4.192 0.579
3.609 4.039 0.380
3.339 3.822 -0.000
8.412 7.539 6.092
8.134 7.320 5.591
7.870 7.057 5.437
7.639 6.828 5.030
7.444 6.785 4.607
7.169 6.513 4.289
6.725 6.195 3.918
5.098 5.172 2.754
4.664 4.930 2.353
4.500 4.881 1.931
4.105 4.715 1.604
3.811 4.315 1.385
3.719 4.083 0.997
3.322 3.995 0.683
2.972 3.880 0.372
2.891 3.580 0.035
8.245 7.422 6.401
7.967 7.298 5.980
7.479 7.221 5.606
7.214 6.820 5.343
7.040 6.780 4.930
6.726 6.386 4.613
6.507 6.206 4.361
6.089 5.969 4.030
5.175 5.689 3.744
5.063 5.532 3.231
4.691 5.179 3.081
4.287 5.064 2.744
4.154 4.888 2.239
3.808 4.548 2.094
3.654 4.462 1.780
3.172 4.079 1.255
2.882 3.981 0.890
2.777 3.673 0.588
2.470 3.657 0.279
2.145 3.307 0.011
7.688 7.496 6.729
7.423 7.403 6.356
7.116 7.105 5.964
6.973 6.886 5.668
6.749 6.766 5.304
6.264 6.370 5.075
5.993 6.260 4.688
5.757 6.136 4.356
5.458 5.898 3.888
5.305 5.686 3.632
4.899 5.707 4.028
4.492 5.486 3.650
4.366 5.289 3.247
3.947 5.107 3.049
3.746 4.858 2.630
3.531 4.554 2.427
3.182 4.428 1.910
2.898 4.097 1.575
2.625 3.869 1.349
2.286 3.802 1.029
1.948 3.488 0.671
1.874 3.383 0.291
7.383 7.577 7.036
7.089 7.386 6.629
6.866 7.102 6.276
6.508 6.812 6.027
6.268 6.556 5.575
5.967 6.384 5.349
5.686 6.239 4.938
5.447 6.004 4.745
5.138 5.856 4.411
4.892 5.587 4.027
4.451 5.495 4.335
4.109 5.453 3.857
4.013 5.113 3.514
3.579 5.052 3.267
3.360 4.823 2.931
2.993 4.646 2.701
2.899 4.464 2.222
2.540 4.182 2.057
2.222 3.924 1.702
1.947 3.734 1.410
1.799 3.433 0.870
1.454 3.250 0.587
1.010 2.985 0.351
7.017 7.603 7.331
6.797 7.280 6.941
6.419 7.063 6.689
6.108 6.951 6.311
5.879 6.640 5.983
5.588 6.383 5.714
5.441 6.286 5.353
5.108 6.037 4.894
4.857 5.932 4.577
4.447 5.519 4.350
4.146 5.699 4.577
3.898 5.425 4.363
3.646 5.119 4.065
3.290 4.919 3.559
3.086 4.656 3.336
2.648 4.596 3.014
2.446 4.238 2.735
2.227 4.023 2.220
1.820 3.885 1.848
1.578 3.814 1.621
1.440 3.485 1.326
0.995 3.221 1.048
0.830 3.001 0.551
0.364 2.951 0.338
6.609 7.399 7.514
6.409 7.335 7.266
6.097 7.034 6.861
5.845 6.827 6.643
5.466 6.538 6.172
5.366 6.342 5.904
4.954 6.225 5.543
4.645 6.117 5.178
4.334 5.890 4.936
4.032 5.597 4.608
12.280 7.398 0.026
12.520 7.663 1.031
12.327 7.504 0.846
12.064 7.432 0.413
11.748 7.140 0.003
12.411 7.976 1.728
12.069 7.872 1.419
11.933 7.576 1.088
11.482 7.273 0.614
11.244 7.154 0.403
10.989 6.854 0.011
12.354 8.250 2.323
12.140 7.984 2.001
11.801 7.823 1.775
11.541 7.437 1.321
11.283 7.226 1.150
10.873 7.126 0.638
10.713 6.857 0.484
10.350 6.781 -0.053
11.993 8.190 2.756
11.600 7.933 2.452
11.319 7.842 2.060
11.210 7.600 1.711
10.763 7.335 1.399
10.589 7.019 1.097
10.379 6.853 0.579
10.047 6.748 0.286
9.724 6.574 0.087
9.178 6.300 0.091
11.510 8.197 3.040
11.447 8.027 2.723
11.143 7.826 2.443
10.672 7.383 2.085
10.541 7.311 1.553
10.154 6.993 1.339
9.859 6.920 1.085
9.543 6.696 0.627
9.266 6.446 0.274
9.146 6.136 -0.007
8.791 6.226 0.319
11.237 8.061 3.430
10.860 7.799 2.955
10.743 7.624 2.647
10.341 7.581 2.229
10.184 7.366 1.938
9.781 7.038 1.607
9.630 6.946 1.405
9.185 6.695 1.031
9.053 6.440 0.592
8.796 6.289 0.338
8.456 6.173 0.601
8.092 5.972 0.431
10.985 8.113 3.746
10.629 7.786 3.283
10.390 7.573 2.993
10.147 7.501 2.581
9.732 7.168 2.267
9.411 7.027 2.077
9.142 6.744 1.583
8.973 6.558 1.396
8.615 6.391 1.080
8.245 6.155 0.553
7.898 6.241 0.942
7.595 6.007 0.701
7.372 5.670 0.279
10.532 8.008 3.929
10.146 7.967 3.538
9.905 7.767 3.333
9.694 7.460 2.942
9.471 7.223 2.617
9.035 7.141 2.195
8.929 6.890 2.015
8.607 6.601 1.596
8.307 6.347 1.248
7.925 6.184 1.038
7.154 5.850 0.579
6.794 5.543 0.322
10.245 8.082 4.264
9.885 7.744 3.946
9.538 7.619 3.610
9.309 7.382 3.206
8.940 7.223 2.994
8.717 7.119 2.684
8.444 6.742 2.191
8.195 6.557 2.036
6.380 5.639 0.513
6.201 5.408 0.252
9.819 8.067 4.546
9.440 7.725 4.286
9.336 7.671 3.853
8.904 7.327 3.545
8.774 7.221 3.225
8.328 7.089 2.895
8.152 6.832 2.524
5.797 5.280 0.585
5.425 5.035 0.292
9.346 8.078 5.006
9.196 7.875 4.677
8.924 7.675 4.153
8.657 7.290 3.956
8.236 7.218 3.534
8.110 6.968 3.277
5.327 5.410 1.003
5.142 5.179 0.529
4.815 4.927 0.241
9.064 8.030 5.268
8.752 7.912 4.983
8.546 7.693 4.478
8.195 7.438 4.301
8.063 7.129 4.009
7.614 6.890 3.673
5.067 5.173 1.151
4.864 5.126 0.910
4.375 4.834 0.667
4.201 4.701 0.315
8.777 7.931 5.663
8.421 7.768 5.123
8.142 7.631 4.878
7.896 7.492 4.603
7.539 7.193 4.204
7.284 7.050 3.896
4.873 5.544 1.803
4.721 5.199 1.643
4.462 5.117 1.115
4.173 4.919 0.943
3.857 4.679 0.602
3.487 4.544 0.281
8.404 7.938 5.839
8.021 7.691 5.641
7.704 7.588 5.169
7.446 7.303 4.963
7.113 7.161 4.429
6.898 7.025 4.106
6.718 6.757 3.856
4.802 5.672 2.443
4.579 5.350 2.306
4.231 5.307 1.860
4.109 5.153 1.471
3.857 4.880 1.100
3.526 4.610 0.921
3.285 4.359 0.614
2.919 4.274 0.132
7.967 7.885 6.247
7.711 7.727 5.959
7.426 7.484 5.554
7.161 7.275 5.283
6.967 7.210 4.897
6.638 6.825 4.405
6.329 6.710 4.134
5.950 6.423 3.793
5.009 5.994 3.540
4.726 5.928 3.148
4.634 5.575 2.786
4.210 5.481 2.493
3.861 5.173 2.132
3.795 4.943 1.873
3.331 4.922 1.559
3.060 4.666 1.070
2.885 4.507 0.870
2.648 4.084 0.460
2.325 3.962 0.212
7.509 8.007 6.443
7.335 7.819 6.078
7.058 7.587 5.828
6.671 7.384 5.399
6.467 7.127 5.068
6.309 6.867 4.922
5.892 6.797 4.414
5.769 6.549 4.109
5.387 6.359 3.742
5.078 5.965 3.556
4.670 5.954 3.926
4.351 5.780 3.392
4.075 5.682 3.144
3.951 5.421 2.934
3.481 5.255 2.530
3.209 5.071 2.250
2.968 4.763 1.753
2.690 4.585 1.490
2.520 4.416 1.267
2.135 4.257 0.890
1.882 3.881 0.620
1.673 3.656 0.073
7.215 7.946 6.726
7.033 7.779 6.558
6.757 7.593 6.145
6.423 7.354 5.919
6.237 7.192 5.449
5.892 6.788 5.135
5.482 6.680 4.911
5.312 6.441 4.424
5.106 6.244 4.085
4.671 6.000 3.790
4.408 6.155 4.202
4.029 5.843 3.707
3.893 5.556 3.461
3.475 5.485 3.203
3.217 5.149 2.796
3.067 4.884 2.368
2.762 4.906 2.248
2.394 4.639 1.842
2.217 4.427 1.494
1.851 4.133 1.183
1.457 4.013 0.903
1.285 3.813 0.569
0.958 3.472 0.077
6.971 7.886 7.233
6.558 7.811 6.824
6.368 7.436 6.472
6.038 7.356 6.066
5.727 7.129 5.722
5.516 6.896 5.573
5.147 6.566 5.127
4.909 6.545 4.794
4.622 6.331 4.552
4.437 6.059 4.050
3.915 5.963 4.500
3.754 5.707 4.084
3.400 5.509 3.707
3.139 5.385 3.504
2.916 5.261 3.214
2.533 5.071 2.870
2.424 4.807 2.572
2.122 4.622 2.119
1.688 4.345 1.831
1.495 4.058 1.360
1.249 3.920 1.203
0.993 3.705 0.755
0.698 3.533 0.487
0.413 3.277 0.151
6.417 7.942 7.490
6.365 7.691 7.229
6.046 7.377 6.792
5.712 7.309 6.514
5.437 7.132 6.237
5.022 6.821 5.851
4.750 6.745 5.439
4.508 6.531 5.195
4.214 6.300 4.886
3.924 6.130 4.562
12.381 7.996 0.361
12.475 8.202 0.925
12.045 7.953 0.679
11.742 7.716 0.273
12.491 8.512 1.828
12.269 8.375 1.526
11.938 8.269 1.280
11.822 7.974 0.950
11.441 7.891 0.533
11.127 7.659 0.297
12.246 8.542 2.209
11.970 8.274 1.778
11.687 8.069 1.449
11.345 8.014 1.247
11.119 7.807 0.947
10.869 7.593 0.646
10.436 7.346 0.283
11.822 8.606 2.496
11.503 8.283 2.202
11.221 8.165 1.799
11.066 7.934 1.579
10.760 7.789 1.219
10.416 7.503 0.989
10.179 7.404 0.648
9.900 7.027 0.125
11.477 8.478 2.950
11.190 8.295 2.484
10.793 8.130 2.303
10.554 7.921 1.873
10.370 7.793 1.549
9.947 7.408 1.225
9.755 7.260 0.908
9.614 7.146 0.428
9.237 6.933 0.308
8.458 6.711 0.071
11.050 8.591 3.252
10.925 8.226 2.837
10.535 8.059 2.611
10.266 7.939 2.179
9.907 7.790 1.879
9.603 7.417 1.463
9.319 7.359 1.082
9.083 7.087 0.938
8.945 6.768 0.570
8.681 6.616 0.246
8.184 6.662 0.455
7.855 6.481 0.160
10.841 8.434 3.407
10.490 8.342 3.158
10.112 8.115 2.937
9.904 7.877 2.599
9.530 7.752 2.114
9.345 7.395 1.898
9.055 7.215 1.534
8.815 7.138 1.180
8.535 6.898 0.811
8.240 6.676 0.527
7.780 6.564 0.702
7.622 6.351 0.481
7.175 6.183 0.083
10.279 8.531 3.698
10.097 8.310 3.585
9.728 8.076 3.194
9.512 7.958 2.887
9.156 7.574 2.382
9.040 7.439 2.072
8.690 7.215 1.856
8.494 6.937 1.363
8.105 6.753 1.231
7.802 6.556 0.855
6.590 5.980 0.248
10.126 8.514 4.084
9.713 8.317 3.813
9.452 8.182 3.384
9.225 7.933 3.135
8.926 7.631 2.892
8.547 7.352 2.385
8.366 7.343 2.190
6.093 5.787 0.051
9.716 8.530 4.367
9.483 8.237 4.075
9.026 7.970 3.827
8.760 7.843 3.524
8.611 7.744 3.019
8.150 7.418 2.695
5.559 5.719 0.486
5.378 5.520 0.102
9.240 8.441 4.717
8.947 8.200 4.435
8.678 8.056 4.118
8.563 7.901 3.752
8.152 7.723 3.342
7.853 7.533 3.018
5.284 5.687 0.676
4.945 5.444 0.473
4.657 5.230 0.156
8.959 8.496 5.142
8.647 8.356 4.723
8.453 7.935 4.454
8.027 7.839 4.106
7.749 7.526 3.798
7.613 7.312 3.419
4.871 5.736 1.053
4.565 5.432 0.840
4.432 5.373 0.518
4.140 5.001 0.018
8.619 8.509 5.508
8.184 8.228 5.104
8.083 8.057 4.832
7.782 7.885 4.499
7.554 7.614 4.073
7.273 7.505 3.798
4.504 5.786 1.389
4.248 5.557 1.142
3.960 5.303 0.825
3.786 5.176 0.485
3.412 4.985 -0.042
8.157 8.352 5.680
7.822 8.204 5.403
7.630 8.097 4.990
7.273 7.827 4.724
6.996 7.673 4.461
6.683 7.352 4.126
4.420 5.811 1.975
4.292 5.805 1.794
3.794 5.393 1.418
3.701 5.246 1.166
3.403 5.062 0.738
3.056 4.960 0.501
2.674 4.557 0.133
7.747 8.478 6.067
7.612 8.082 5.591
7.325 8.062 5.452
6.902 7.725 4.966
6.728 7.650 4.799
6.422 7.299 4.456
6.104 7.191 4.011
5.044 6.601 3.344
4.683 6.353 3.104
4.299 6.195 2.682
4.016 5.964 2.258
3.838 5.748 1.957
3.497 5.412 1.611
3.362 5.326 1.471
2.955 5.134 1.078
2.791 4.802 0.694
2.447 4.666 0.327
2.151 4.531 0.110
7.492 8.282 6.455
7.187 8.183 5.991
7.025 8.034 5.734
6.528 7.653 5.437
6.234 7.655 5.010
6.069 7.275 4.743
5.817 7.111 4.284
5.434 6.980 4.066
5.319 6.647 3.812
4.900 6.432 3.411
4.481 6.531 3.765
4.311 6.301 3.343
4.007 6.176 3.124
3.785 5.866 2.588
3.511 5.619 2.346
3.172 5.557 2.077
2.989 5.325 1.766
2.707 5.060 1.312
2.389 4.824 0.981
1.938 4.667 0.723
1.707 4.423 0.242
1.426 4.258 -0.059
7.206 8.401 6.626
6.838 8.098 6.309
6.603 7.929 6.083
6.175 7.743 5.705
5.987 7.494 5.279
5.736 7.439 5.062
5.368 7.126 4.781
5.136 6.946 4.329
4.900 6.738 4.043
4.497 6.528 3.759
4.241 6.587 3.885
4.035 6.263 3.548
3.636 6.009 3.448
3.405 5.810 2.993
3.014 5.656 2.655
2.802 5.404 2.298
2.505 5.307 1.901
2.294 4.950 1.637
2.061 4.773 1.312
1.765 4.645 0.904
1.461 4.306 0.750
1.060 4.140 0.459
0.808 4.084 0.123
6.681 8.458 6.928
6.487 8.236 6.704
6.102 8.027 6.372
5.950 7.807 5.959
5.548 7.467 5.610
5.308 7.257 5.357
5.132 7.011 4.898
4.845 6.816 4.732
4.545 6.648 4.275
4.213 6.439 3.923
3.733 6.538 4.347
3.553 6.270 3.909
3.244 6.140 3.738
3.042 5.775 3.362
2.739 5.705 3.070
2.443 5.442 2.753
2.070 5.109 2.291
1.979 4.975 1.877
1.696 4.703 1.753
1.401 4.586 1.256
0.963 4.260 1.106
0.733 4.078 0.598
0.532 3.869 0.394
6.381 8.334 7.262
5.986 8.116 6.897
5.932 7.830 6.535
5.628 7.645 6.329
5.296 7.503 5.979
5.042 7.249 5.735
4.725 7.095 5.308
4.380 6.897 4.882
4.030 6.564 4.616
3.868 6.537 4.244
12.306 8.398 0.172
12.450 8.837 1.208
12.185 8.659 0.738
11.948 8.520 0.542
11.722 8.304 0.204
12.490 9.083 1.665
12.117 8.937 1.486
11.926 8.618 1.038
11.559 8.435 0.797
11.254 8.102 0.523
