8.398 9.399 5.743
8.317 9.951 5.445
8.549 10.376 4.864
8.494 10.915 4.552
8.570 11.249 4.032
8.821 11.751 3.662
8.787 12.245 3.174
7.716 6.258 8.453
7.743 6.672 8.065
7.803 7.090 7.742
7.957 7.591 7.249
7.898 8.169 7.019
8.214 8.968 6.810
8.200 9.286 6.474
8.239 9.894 6.166
8.265 10.264 5.907
8.464 10.763 5.334
8.443 11.173 4.798
8.636 11.745 4.468
8.496 12.242 4.144
7.598 6.739 9.030
7.642 7.148 8.780
7.794 7.421 8.319
7.844 8.169 7.918
8.024 10.160 6.449
8.124 10.724 6.302
8.387 11.090 5.845
8.353 11.681 5.434
8.380 12.232 5.091
7.499 6.968 9.607
7.515 7.580 8.985
7.915 10.640 6.926
8.014 11.180 6.646
8.214 11.728 6.408
8.226 12.112 5.733
7.283 7.321 10.060
7.441 7.765 9.610
7.971 11.783 6.962
7.975 12.137 6.534
7.993 12.539 6.442
7.314 7.923 10.260
7.723 11.677 8.079
8.001 12.128 7.651
8.052 12.372 7.004
7.243 8.433 10.991
7.200 8.653 10.341
9.264 0.196 2.120
9.527 0.775 1.876
9.807 3.060 0.550
9.695 3.463 0.261
9.159 0.915 2.625
9.454 1.315 2.161
9.319 1.784 1.681
9.415 2.092 1.495
9.645 2.981 1.593
9.465 3.631 1.060
9.795 3.809 0.751
9.859 4.576 0.408
9.183 1.314 2.992
9.307 1.770 2.555
9.207 2.154 2.376
9.290 2.514 1.800
9.651 3.025 1.616
9.439 3.552 1.965
9.475 4.045 1.539
9.395 4.478 1.238
9.695 4.949 0.870
9.635 5.391 0.441
8.976 1.641 3.469
9.038 1.961 3.223
9.036 2.386 2.646
9.363 3.088 2.223
9.393 3.492 1.916
9.369 3.737 2.459
9.207 4.286 1.884
9.299 4.887 1.645
9.594 5.414 1.208
9.682 5.780 0.648
9.597 6.158 0.450
8.938 2.070 3.875
8.955 2.429 3.752
9.185 2.840 3.147
9.190 3.569 2.959
9.094 3.752 2.519
9.370 4.814 2.525
9.262 5.264 1.930
9.511 5.657 1.511
9.337 6.000 1.242
9.567 6.819 0.666
9.728 7.152 0.293
8.724 2.392 4.648
8.794 2.830 4.148
8.822 3.456 3.600
9.017 3.809 3.378
9.264 6.271 2.163
9.263 6.525 1.711
9.601 7.034 1.361
9.520 7.613 1.008
9.652 7.840 0.504
8.689 2.717 4.832
8.781 3.343 4.544
9.086 6.443 2.571
9.162 7.114 2.266
9.327 7.483 1.798
9.450 8.011 1.177
9.578 8.257 0.875
8.446 3.289 5.553
8.766 3.718 4.879
9.053 7.594 2.507
9.325 7.989 2.257
9.245 8.313 1.823
8.346 3.529 5.680
9.876 7.789 2.429
9.644 7.948 3.085
9.662 8.450 2.606
9.649 8.768 2.343
9.091 4.151 6.278
9.325 7.729 3.959
9.532 8.370 3.483
9.760 8.805 3.218
9.604 9.260 2.780
9.810 9.645 2.418
8.687 4.458 6.835
8.923 5.172 6.330
9.158 7.927 5.023
9.180 8.133 4.599
9.216 8.822 3.972
9.584 9.266 3.748
9.731 9.743 3.290
9.579 10.223 2.805
9.680 10.741 2.537
10.248 12.385 0.634
8.854 4.836 7.255
8.762 5.551 6.789
8.770 5.858 6.570
9.123 7.752 5.763
8.996 8.039 5.329
9.303 8.488 4.946
9.389 8.964 4.491
9.255 9.495 4.024
9.395 10.203 3.678
9.549 10.590 3.165
9.621 11.034 2.954
9.868 11.593 2.544
9.976 12.499 1.831
8.665 5.440 7.798
8.594 5.946 7.321
8.626 6.339 7.120
8.669 6.928 6.590
8.852 7.568 6.731
8.918 8.182 6.082
9.016 8.498 5.956
9.176 9.090 5.567
9.219 9.454 4.850
9.222 10.145 4.484
9.199 10.461 4.333
9.407 10.971 3.726
9.357 11.495 3.330
9.443 11.819 3.024
9.739 12.173 2.451
8.458 5.798 8.115
8.662 6.385 7.843
8.592 6.582 7.390
8.651 7.056 7.128
8.668 7.738 6.559
8.815 8.711 6.702
9.003 9.097 6.419
9.023 9.345 5.899
8.869 10.121 5.330
9.188 10.496 4.879
9.150 10.724 4.679
9.155 11.371 4.323
9.302 11.980 3.886
9.617 12.366 3.339
8.235 6.139 8.827
8.503 6.789 8.340
8.498 7.200 8.007
8.443 7.523 7.528
8.874 9.485 6.793
8.726 9.890 6.144
9.043 10.206 5.741
8.964 10.946 5.606
8.977 11.179 5.244
9.011 11.914 4.812
9.329 12.404 4.218
8.168 6.504 9.319
8.129 7.187 8.808
8.528 7.576 8.249
8.590 10.245 6.750
8.841 10.735 6.499
8.997 11.338 6.008
8.827 11.684 5.373
9.069 12.264 5.214
7.936 6.895 9.697
8.113 7.395 9.046
8.804 11.305 6.703
8.840 11.599 6.234
8.726 12.150 6.132
7.884 7.585 9.943
8.724 12.152 6.952
8.497 12.016 7.819
8.401 12.463 7.357
7.592 8.231 10.959
9.953 0.293 2.234
9.934 0.835 1.791
10.295 3.424 0.276
9.893 0.934 2.730
9.833 1.384 2.428
10.049 1.755 1.837
10.218 3.535 1.189
10.133 3.947 0.854
10.523 4.549 0.437
9.721 1.010 3.358
9.728 1.667 2.838
10.043 2.130 2.519
9.998 2.453 2.062
10.052 3.309 2.245
10.012 4.113 1.681
10.253 4.571 1.207
10.220 4.966 0.692
10.223 5.295 0.345
10.562 5.962 0.196
9.639 1.681 3.816
9.712 2.241 3.399
9.844 2.696 2.773
9.938 2.990 2.596
9.859 3.498 2.092
9.972 4.491 2.112
9.949 4.964 1.636
10.098 5.456 1.231
10.239 5.607 0.927
10.273 6.102 0.369
10.252 6.676 -0.084
9.395 1.887 4.095
9.583 2.629 3.808
9.687 2.900 3.385
9.901 3.497 2.924
10.069 5.402 2.019
10.004 5.856 1.800
10.085 6.274 1.357
10.339 6.659 1.046
10.391 7.052 0.580
10.309 7.483 0.203
9.287 2.452 4.740
9.510 2.882 4.092
9.451 3.213 3.769
9.983 6.107 2.306
10.104 6.502 1.896
9.959 6.970 1.330
9.984 7.489 1.100
10.405 8.108 0.725
9.406 2.962 5.157
9.280 3.319 4.524
9.803 7.173 2.110
9.879 7.405 1.975
10.197 7.821 1.450
9.290 3.372 5.462
9.939 7.790 2.319
10.350 8.714 3.251
9.775 8.263 4.594
9.854 8.635 4.338
10.243 9.237 3.723
10.267 9.730 3.413
10.192 10.070 3.018
9.455 5.123 7.367
9.352 5.585 6.966
9.834 8.607 4.988
10.043 9.299 4.646
9.997 9.497 4.165
10.064 10.207 3.974
10.228 10.578 3.484
9.265 5.464 8.073
9.294 5.833 7.506
9.480 8.490 5.947
9.607 9.204 5.394
9.709 9.461 5.216
9.779 9.917 4.640
9.972 10.472 4.469
10.027 11.074 4.018
10.261 11.328 3.433
9.216 5.710 8.298
8.975 6.321 7.897
9.303 6.787 7.455
9.651 9.655 5.856
9.703 9.831 5.466
9.792 10.429 5.015
9.985 10.736 4.696
9.897 11.338 4.380
8.976 6.384 8.743
9.058 6.651 8.510
9.395 9.957 6.547
9.483 10.240 6.067
9.530 10.937 5.603
9.541 11.229 5.157
9.852 11.794 4.865
8.865 6.756 9.222
8.846 6.947 9.015
9.558 11.282 6.035
11.221 4.098 0.070
10.336 0.645 3.105
10.679 1.210 2.620
11.138 4.337 0.433
11.038 4.950 0.251
10.234 1.293 3.281
10.587 1.669 2.833
10.939 4.453 1.277
10.704 4.965 1.097
10.876 5.293 0.711
11.038 5.712 0.149
10.239 1.575 3.833
10.317 1.929 3.579
10.475 2.487 3.117
10.879 5.400 1.428
10.731 5.703 1.021
10.970 6.355 0.544
10.897 6.687 0.354
9.989 2.065 4.458
10.312 2.494 3.955
10.607 5.808 2.049
10.590 6.363 1.643
10.907 6.505 1.237
10.856 7.232 0.544
11.028 7.573 0.323
9.907 2.615 4.703
10.245 2.942 4.526
10.557 6.958 1.538
10.510 8.600 4.351
10.641 9.173 3.945
10.834 9.633 3.552
10.026 4.950 7.653
10.539 8.763 5.069
10.342 9.209 4.843
10.634 9.724 4.574
10.637 10.089 3.880
10.720 10.419 3.569
9.649 5.482 8.019
9.738 5.956 7.830
10.437 9.162 5.710
10.412 9.572 5.313
10.491 9.957 4.850
10.615 10.368 4.390
10.751 10.801 4.074
9.707 5.854 8.602
9.781 6.117 8.170
10.106 9.489 6.083
10.368 9.873 5.859
10.237 10.418 5.498
10.343 11.046 5.066
10.511 11.420 4.566
9.661 6.312 8.986
9.638 6.711 8.608
10.295 10.345 6.121
10.197 10.727 5.627
10.307 11.176 5.257
9.568 6.633 9.583
11.207 0.940 2.996
11.570 4.566 0.696
11.759 5.114 0.378
11.123 1.311 3.575
11.031 1.639 3.178
11.374 4.791 1.194
11.591 5.292 0.796
11.600 5.920 0.278
10.914 1.799 3.925
10.824 2.173 3.572
11.291 5.430 1.779
11.516 5.843 1.287
11.367 6.189 0.841
11.496 6.614 0.522
10.841 2.014 4.406
10.736 2.570 3.903
11.336 6.157 1.704
11.254 6.544 1.185
11.417 7.283 0.851
10.478 2.614 5.089
11.223 9.326 4.009
11.056 8.991 4.989
11.178 9.582 4.533
11.250 9.987 3.992
10.359 5.551 8.093
10.947 9.168 5.741
10.983 9.551 5.451
10.974 10.017 4.955
11.012 10.564 4.673
11.081 11.019 4.239
10.108 5.789 8.769
10.502 6.361 8.282
10.744 9.994 5.896
10.988 10.593 5.520
11.122 10.851 5.234
10.207 6.312 9.038
10.811 10.974 5.966
12.176 4.876 0.408
12.464 5.391 -0.091
11.590 1.100 3.644
11.997 4.770 1.208
11.993 5.340 0.837
12.349 5.808 0.552
12.482 6.485 0.160
11.408 1.665 4.096
11.495 1.939 3.808
12.007 5.923 1.397
12.008 6.426 0.965
12.279 6.763 0.390
11.312 1.991 4.623
12.112 6.779 1.375
0.090 0.676 0.396
0.072 1.463 0.406
0.385 8.399 1.017
0.038 8.109 2.419
0.079 8.431 1.846
0.303 9.047 1.419
0.262 9.390 1.027
0.541 9.992 0.682
0.058 8.368 2.578
-0.059 8.830 2.233
0.262 9.412 2.009
0.338 9.878 1.438
0.452 10.213 1.260
0.021 9.777 2.264
0.092 10.409 1.976
0.219 10.781 1.553
0.170 11.224 1.007
-0.064 10.757 2.569
0.190 11.084 2.125
0.041 11.415 2.598
0.862 0.714 0.458
0.823 0.884 0.107
0.736 0.888 1.110
0.519 1.370 0.754
0.491 1.491 1.548
0.428 1.973 0.994
0.591 2.260 0.829
0.335 1.736 1.847
0.444 2.115 1.730
0.268 2.355 2.449
0.494 2.830 2.145
1.150 7.796 0.198
0.936 7.813 1.029
1.265 7.998 0.620
1.185 8.757 0.380
0.254 3.777 4.279
0.744 7.574 1.948
0.912 8.191 1.714
1.094 8.638 1.072
1.277 9.181 0.625
1.382 9.644 0.458
0.373 4.480 4.942
0.480 4.841 4.336
0.595 7.668 2.917
0.613 7.887 2.313
0.759 8.553 1.949
1.052 9.079 1.660
1.003 9.273 1.052
1.148 10.007 0.882
1.053 10.218 0.538
-0.001 4.712 5.176
0.304 5.166 4.749
0.196 5.774 4.577
0.439 7.454 3.870
0.687 8.125 3.351
0.523 8.310 2.967
0.685 9.011 2.397
0.791 9.401 2.197
0.871 9.829 1.832
0.905 10.384 1.164
0.979 10.947 0.871
1.259 11.392 0.542
-0.131 5.289 5.771
-0.020 5.571 5.193
0.274 6.281 5.095
0.164 6.701 4.652
0.347 7.579 4.446
0.347 8.033 4.121
0.351 8.553 3.642
0.654 8.914 3.475
0.760 9.437 2.935
0.716 9.886 2.452
0.830 10.199 2.018
0.919 10.717 1.673
1.086 11.298 1.288
1.158 11.680 0.994
1.175 12.234 0.312
0.226 6.527 5.324
0.015 7.107 4.836
0.323 7.641 4.480
0.277 8.521 4.441
0.260 8.717 4.231
0.387 9.213 3.716
0.562 9.630 3.321
0.518 10.275 2.880
0.684 10.559 2.580
0.612 11.289 2.304
0.939 11.727 1.699
0.950 12.251 1.357
-0.074 7.375 5.321
0.182 9.270 4.516
0.363 9.748 4.154
0.326 10.240 3.776
0.566 10.752 3.302
0.479 11.000 3.002
0.546 11.512 2.654
0.563 11.998 2.249
0.074 10.077 4.868
0.390 10.682 4.287
0.229 11.092 3.798
0.410 11.602 3.556
0.566 11.890 2.916
0.132 11.095 4.849
0.150 11.560 4.364
0.199 11.849 3.975
0.111 11.897 4.916
1.275 0.264 0.200
1.444 0.436 0.779
1.362 0.952 0.358
1.321 1.021 1.377
1.371 1.428 0.855
1.494 2.063 0.282
1.462 3.220 -0.089
1.067 1.271 1.763
1.320 1.838 1.190
1.218 2.265 0.779
1.328 2.981 0.398
1.585 3.345 -0.081
1.515 4.276 0.184
0.951 1.834 2.269
1.103 2.171 1.630
1.295 2.600 1.255
1.280 3.116 0.748
1.367 5.135 0.156
0.973 2.209 2.515
1.019 2.704 2.172
1.137 3.273 1.898
1.376 5.932 0.134
0.626 2.699 3.135
0.965 3.255 2.576
1.448 6.851 0.104
0.629 3.051 3.563
1.106 7.737 0.144
1.707 7.142 0.946
1.933 7.845 0.329
1.214 3.564 4.253
1.759 7.113 1.721
1.739 7.566 1.212
1.788 8.112 0.995
1.736 8.763 0.562
1.948 9.002 0.189
1.149 4.000 4.372
1.102 4.434 4.174
1.443 7.532 2.012
1.465 8.231 1.616
1.590 8.532 1.406
1.621 9.164 0.994
1.925 9.385 0.499
0.804 4.509 5.099
0.881 4.961 4.417
1.076 7.187 3.238
1.206 7.468 3.114
1.277 8.113 2.555
1.388 8.375 2.118
1.546 9.042 1.871
1.714 9.386 1.515
1.554 9.931 1.071
1.938 10.437 0.668
1.883 10.927 0.114
0.708 4.922 5.588
0.807 5.267 5.106
1.062 5.675 4.524
1.127 6.178 4.320
1.133 7.209 4.363
0.999 7.430 3.860
1.260 7.839 3.487
1.253 8.412 3.062
1.202 9.026 2.702
1.443 9.398 2.071
1.344 9.974 1.810
1.617 10.515 1.252
1.558 10.934 1.118
1.859 11.412 0.712
1.811 11.744 0.291
0.502 5.073 5.932
0.841 5.683 5.617
0.666 6.252 5.139
0.815 6.421 4.646
0.879 7.109 4.330
0.877 7.340 4.780
0.986 7.967 4.337
1.052 8.250 4.012
1.177 8.982 3.551
1.111 9.253 3.034
1.140 9.922 2.672
1.521 10.386 2.116
1.387 10.676 1.788
1.537 11.302 1.533
1.740 11.812 1.107
1.820 12.273 0.781
0.497 5.715 6.188
0.563 5.948 6.004
0.709 6.638 5.685
0.745 6.885 5.240
0.898 7.526 4.780
0.606 7.933 5.115
0.753 8.380 4.811
0.967 8.972 4.267
1.042 9.340 4.002
1.032 9.937 3.660
1.093 10.104 3.008
1.125 10.593 2.784
1.446 11.074 2.296
1.402 11.578 1.890
1.609 12.228 1.485
0.276 6.000 6.631
0.429 6.435 6.357
0.462 6.834 5.997
0.711 7.512 5.696
0.706 8.009 5.121
0.597 8.940 5.139
0.861 9.196 4.831
0.836 9.551 4.401
1.030 10.339 3.984
1.098 10.706 3.623
1.052 11.197 3.203
1.335 11.737 2.929
1.254 12.211 2.334
1.338 12.618 2.002
0.178 6.427 7.399
0.217 6.792 6.941
0.622 7.239 6.297
0.515 7.835 6.076
0.689 10.221 4.723
0.686 10.618 4.386
0.795 11.081 3.874
0.982 11.652 3.633
1.235 12.105 3.051
0.244 6.776 7.711
0.197 7.396 7.316
0.752 10.668 5.411
0.850 10.879 4.948
0.989 11.502 4.348
1.007 12.085 4.087
1.007 12.366 3.832
-0.004 7.292 8.022
0.182 7.820 7.863
0.650 11.583 5.293
0.545 11.963 5.082
0.678 12.216 4.360
0.264 11.402 6.367
0.368 11.894 5.650
0.534 12.259 5.385
2.162 0.325 0.381
2.307 0.653 0.023
2.094 0.759 0.948
2.035 1.097 0.479
1.952 1.673 0.014
1.891 0.928 1.274
1.934 1.626 0.935
2.131 1.805 0.443
2.107 2.276 0.021
1.961 3.366 0.155
1.731 1.260 1.657
1.765 1.931 1.407
1.725 2.406 1.000
2.064 2.909 0.689
1.918 3.467 0.035
1.870 3.566 0.742
1.927 4.170 0.217
1.585 1.868 2.120
1.601 2.237 1.714
1.608 2.693 1.318
1.665 3.321 0.961
1.820 3.805 0.569
1.953 4.588 0.602
1.905 4.908 0.115
1.295 2.426 2.686
1.657 2.793 2.353
1.719 3.209 1.769
1.825 3.551 1.392
1.948 5.863 0.432
1.318 2.738 3.095
1.400 3.005 2.740
1.980 6.305 0.877
1.964 6.980 0.349
1.331 3.247 3.579
1.249 3.493 3.338
1.819 7.360 0.819
1.934 7.879 0.298
1.119 3.467 3.986
2.397 6.939 1.498
2.494 7.333 0.828
2.473 7.834 0.437
2.663 8.097 0.225
1.784 3.435 4.253
1.812 4.014 3.750
2.047 7.201 1.986
2.142 7.746 1.434
2.555 8.216 1.003
2.366 8.705 0.446
2.395 8.958 0.318
1.735 3.849 4.759
1.528 4.540 4.232
2.114 7.215 2.685
2.253 7.554 2.142
2.186 8.256 1.986
2.122 8.510 1.577
2.240 9.178 0.885
2.420 9.603 0.567
2.690 9.989 0.111
1.506 4.205 5.096
1.671 4.881 4.591
1.585 5.407 4.392
1.552 6.655 3.810
1.681 6.997 3.412
2.019 7.725 3.124
1.915 7.947 2.603
2.206 8.540 2.490
1.987 9.059 1.821
2.337 9.348 1.448
2.478 10.051 1.264
2.568 10.581 0.824
2.401 10.821 0.155
1.453 4.955 5.646
1.296 5.215 5.037
1.680 5.726 4.733
1.638 6.291 4.192
1.821 6.562 3.816
1.592 7.159 4.295
1.519 7.627 3.904
1.913 8.167 3.436
1.812 8.630 3.087
2.081 9.071 2.621
2.056 9.364 2.292
2.230 9.742 1.976
2.178 10.328 1.477
2.197 10.727 1.017
2.361 11.415 0.901
2.313 11.907 0.423
1.347 5.190 6.107
1.216 5.575 5.801
1.492 6.255 5.275
1.400 6.565 4.984
1.655 7.026 4.455
1.452 7.497 4.983
1.389 7.867 4.330
1.628 8.276 3.965
1.871 8.757 3.760
1.836 9.279 3.339
1.909 9.881 2.983
1.938 10.297 2.255
2.233 10.770 2.136
2.070 11.202 1.589
2.246 11.808 1.351
2.360 12.348 0.923
1.136 5.661 6.620
1.096 5.928 6.237
1.295 6.614 5.727
1.518 7.160 5.165
1.478 7.500 4.892
1.427 8.039 5.333
1.346 8.216 4.930
1.380 8.827 4.371
1.716 9.339 3.918
1.767 9.622 3.558
1.800 10.364 3.369
2.050 10.805 2.714
1.808 11.115 2.452
2.215 11.799 2.184
2.091 12.121 1.571
1.004 6.042 6.921
1.057 6.618 6.592
1.195 6.977 5.999
1.138 7.427 5.623
1.295 7.917 5.345
1.335 8.274 5.709
1.386 8.967 5.339
1.505 9.320 4.871
1.594 9.643 4.680
1.580 10.110 4.297
1.619 10.643 3.864
1.754 11.299 3.336
1.927 11.529 2.734
1.946 11.964 2.580
1.990 12.650 1.964
0.931 6.362 7.429
0.952 6.997 7.141
0.943 7.514 6.698
1.280 7.827 6.268
1.257 8.284 5.809
1.237 9.683 5.442
1.476 10.090 5.057
1.439 10.793 4.480
1.701 11.122 4.027
1.672 11.497 3.901
1.688 12.044 3.513
1.652 12.435 2.886
0.836 6.855 7.744
0.969 7.299 7.596
0.949 7.913 7.066
1.290 10.611 5.277
1.335 10.882 4.872
1.311 11.452 4.697
1.680 12.086 4.052
1.467 12.415 3.833
0.479 7.448 8.405
0.758 7.809 7.789
1.212 11.068 6.020
1.184 11.311 5.562
1.347 11.813 5.039
1.413 12.426 4.756
0.614 7.826 8.809
0.568 8.324 8.360
1.010 11.504 6.477
1.238 12.020 6.005
1.312 12.431 5.404
0.369 8.062 9.066
0.585 8.491 8.754
2.682 0.075 0.515
2.696 0.718 0.219
2.666 0.671 1.112
2.674 0.925 0.765
2.870 1.517 0.230
2.591 1.063 1.433
2.605 1.661 1.050
2.638 2.097 0.796
2.643 2.332 0.324
2.743 3.376 0.200
2.139 1.501 1.812
2.523 2.072 1.631
2.594 2.410 1.303
2.443 3.003 0.590
2.771 3.171 0.196
2.500 3.791 0.714
2.470 4.339 0.374
2.290 1.772 2.574
2.347 2.276 2.160
2.238 2.896 1.604
2.340 3.264 1.246
2.634 3.626 0.756
2.323 4.235 1.225
2.647 4.491 0.689
2.686 5.070 0.451
2.707 5.649 -0.063
2.210 2.154 3.003
2.064 2.830 2.572
2.270 3.252 2.057
2.304 3.555 1.583
2.328 4.307 1.158
2.561 5.472 0.951
2.543 5.967 0.339
2.809 6.385 -0.013
1.778 2.818 3.177
2.072 3.213 2.906
2.034 3.469 2.332
2.346 6.441 0.762
2.589 6.846 0.487
2.456 7.238 0.252
1.831 2.944 3.738
2.079 3.524 3.496
2.498 6.987 1.359
2.394 7.344 1.058
2.563 7.609 0.438
2.430 8.143 0.254
1.793 3.573 4.391
1.656 4.006 3.968
3.053 7.434 1.055
3.027 7.807 0.839
3.280 8.372 0.168
2.336 3.704 4.349
2.935 7.273 1.851
2.805 7.804 1.561
2.885 8.107 1.074
3.017 8.724 0.780
3.234 9.075 0.263
2.303 4.066 4.661
2.428 4.482 4.289
2.672 7.506 2.545
2.633 8.157 2.117
2.744 8.696 1.545
3.109 9.132 1.220
3.058 9.672 0.715
2.159 4.536 5.270
2.111 5.009 5.042
2.577 7.016 3.637
2.612 7.590 3.414
2.449 7.928 2.707
2.671 8.617 2.348
2.795 9.110 2.031
2.857 9.542 1.506
2.842 9.940 1.184
2.927 10.256 0.908
3.037 11.024 0.409
1.957 4.793 5.640
2.214 5.144 5.301
2.171 5.855 4.800
2.222 6.138 4.506
2.033 7.141 4.439
2.451 7.484 3.990
2.405 7.868 3.844
2.460 8.551 3.155
2.410 9.092 2.769
2.662 9.593 2.371
2.763 9.933 2.086
2.825 10.546 1.663
2.863 10.725 1.216
2.839 11.410 0.959
3.079 11.624 0.509
3.327 12.237 0.195
1.741 5.295 6.262
1.995 5.833 5.732
2.158 6.315 5.266
2.094 6.520 4.978
2.190 7.233 4.505
1.910 7.682 5.082
2.082 8.148 4.695
2.239 8.593 4.243
2.185 8.862 3.627
2.549 9.264 3.257
2.534 9.692 3.116
2.437 10.218 2.465
2.822 10.667 2.063
2.776 11.329 1.575
2.849 11.879 1.301
2.795 12.162 0.986
1.685 5.682 6.809
1.679 6.246 6.208
1.737 6.506 5.983
2.066 7.048 5.360
1.962 7.652 5.071
1.800 7.977 5.576
2.059 8.506 5.138
2.146 8.923 4.511
2.242 9.465 4.383
2.171 9.959 3.743
2.283 10.194 3.526
2.653 10.619 3.058
2.524 11.372 2.522
2.836 11.848 2.157
2.846 12.001 1.732
1.738 5.958 6.952
1.540 6.533 6.702
1.931 6.837 6.239
1.979 7.329 6.033
1.973 8.095 5.594
1.945 8.916 5.524
2.088 9.455 5.177
2.271 9.675 4.525
2.256 10.052 4.212
2.275 10.644 3.971
2.280 11.186 3.421
2.351 11.713 3.017
2.569 12.244 2.811
2.770 12.545 2.185
1.664 6.516 7.627
1.413 7.047 7.162
1.782 7.343 6.635
1.702 7.795 6.218
1.917 10.192 5.076
2.196 10.502 4.738
2.241 11.015 4.208
2.207 11.541 3.850
2.171 12.156 3.412
1.410 6.874 7.908
1.517 7.428 7.769
1.803 10.425 5.765
1.975 10.948 5.201
2.207 11.374 4.768
2.280 11.878 4.420
2.289 12.403 3.994
1.411 7.200 8.597
1.285 7.785 7.911
1.968 11.578 5.748
2.062 11.863 5.404
1.986 12.504 4.989
1.025 7.859 8.852
1.773 11.471 6.496
1.882 12.001 6.245
1.649 12.335 5.848
1.181 8.001 9.248
1.114 8.673 8.918
3.095 0.138 0.865
3.320 0.716 0.233
2.987 0.602 1.321
3.084 1.136 0.659
3.369 1.416 0.435
3.288 2.913 -0.088
3.075 1.118 1.530
2.990 1.430 1.177
3.180 2.139 0.709
3.333 2.399 0.262
3.398 2.893 -0.051
3.312 3.168 0.326
3.389 3.803 0.048
3.074 1.318 2.037
2.966 2.024 1.783
3.106 2.524 1.261
3.287 2.869 1.003
3.407 3.384 0.525
3.214 3.680 0.934
3.173 4.100 0.575
3.295 4.738 0.035
2.768 1.860 2.587
2.723 2.367 2.154
2.955 2.720 1.814
3.075 3.159 1.416
3.059 3.638 0.901
3.236 4.506 0.913
3.265 5.054 0.496
3.407 5.595 0.243
2.530 2.267 2.888
2.700 2.709 2.597
2.848 3.298 2.089
3.000 3.870 1.932
3.085 6.041 0.467
3.172 6.428 0.046
2.579 2.657 3.426
2.491 3.102 3.065
3.084 6.423 1.087
3.154 6.773 0.810
3.378 7.272 0.411
2.611 2.988 3.799
2.505 3.703 3.511
3.166 7.203 1.191
2.941 7.646 0.765
3.136 8.208 0.354
2.375 3.477 4.518
3.680 7.798 0.924
3.595 7.632 1.668
3.736 8.182 1.454
3.830 8.534 0.897
2.640 3.944 5.000
3.283 7.788 2.412
3.273 7.999 1.994
3.419 8.719 1.715
3.632 8.911 1.354
3.750 9.641 0.823
2.869 4.273 5.539
2.848 4.954 5.105
3.199 7.695 3.393
3.060 7.957 2.925
3.200 8.562 2.497
3.542 9.052 2.140
3.495 9.384 1.792
3.429 9.970 1.446
3.775 10.406 0.877
2.516 4.774 5.711
2.726 5.418 5.318
2.691 5.594 5.069
3.067 7.556 4.294
2.877 8.010 3.981
3.124 8.599 3.556
3.130 9.150 2.933
3.118 9.618 2.518
3.316 9.977 2.344
3.567 10.428 1.702
3.492 10.872 1.519
3.633 11.461 0.923
3.772 12.435 0.343
2.606 5.290 6.195
2.585 5.831 5.803
2.721 6.145 5.644
2.898 6.511 5.041
2.693 7.610 5.003
2.642 7.866 4.681
2.856 8.623 4.455
3.005 9.016 3.997
2.954 9.524 3.627
3.286 9.862 3.152
3.048 10.441 2.532
3.333 10.972 2.139
3.530 11.365 1.838
3.389 11.675 1.363
3.646 12.304 1.206
2.326 5.593 6.658
2.297 6.210 6.437
2.549 6.484 5.969
2.459 7.209 5.694
2.806 7.380 5.015
2.829 8.333 5.260
2.881 8.961 4.745
2.937 9.356 4.396
2.785 9.895 3.826
3.038 10.118 3.664
3.011 10.796 2.999
3.223 11.077 2.895
3.347 11.717 2.177
3.421 12.160 2.040
2.308 5.913 7.130
2.453 6.569 6.771
2.482 7.123 6.599
2.525 7.615 6.007
2.721 9.341 5.092
2.576 9.716 4.672
2.665 10.230 4.388
2.794 10.663 3.979
2.879 11.076 3.500
3.062 11.707 3.141
3.185 12.151 2.821
2.056 6.620 7.624
2.076 6.991 7.430
2.403 7.591 7.037
2.571 10.353 5.170
2.593 10.697 4.943
2.790 11.208 4.347
2.707 11.465 4.206
3.033 12.071 3.557
1.982 6.795 8.223
2.206 7.206 7.738
2.425 10.987 5.376
2.530 11.524 4.785
2.853 11.955 4.470
1.903 7.263 8.510
2.465 11.952 5.375
2.487 11.806 6.294
2.566 12.470 5.867
1.692 8.005 9.595
3.949 0.285 0.862
3.924 0.734 0.587
3.930 0.755 1.470
4.013 1.150 0.931
4.032 1.396 0.606
3.717 0.963 1.818
3.658 1.561 1.351
3.665 1.820 0.938
3.901 2.391 0.465
3.847 3.371 0.500
3.817 3.934 0.247
3.593 1.353 2.199
3.446 2.041 1.784
3.790 2.530 1.407
3.702 2.913 1.052
3.876 3.472 0.511
3.927 4.392 0.588
3.986 4.693 0.156
3.502 1.749 2.666
3.327 2.263 2.356
3.507 2.718 1.794
3.613 3.145 1.432
3.647 5.082 0.690
3.866 5.459 0.239
3.432 2.282 3.043
3.388 2.638 2.635
3.351 3.237 2.444
3.821 6.073 0.742
3.921 6.320 0.176
3.202 2.667 3.767
3.385 3.183 3.094
3.632 6.747 0.643
3.830 7.197 0.335
3.220 3.062 4.063
3.587 7.871 1.013
4.061 8.491 2.033
3.837 7.935 3.198
3.916 8.521 2.717
3.832 9.006 2.349
4.043 9.421 2.077
4.154 9.872 1.517
3.269 4.778 5.999
3.167 5.195 5.521
3.605 8.579 3.543
3.841 9.138 3.304
3.948 9.385 2.782
3.803 10.076 2.547
3.900 10.383 1.865
2.964 5.410 6.399
3.219 5.665 6.143
3.472 8.370 4.378
3.573 8.999 4.228
3.615 9.433 3.625
3.689 9.937 3.422
3.838 10.312 2.968
4.084 10.687 2.340
3.914 11.186 1.910
2.926 5.717 6.803
2.949 6.258 6.589
3.152 6.648 6.263
3.433 9.290 4.644
3.445 9.816 4.010
3.560 10.227 3.664
3.817 10.908 3.159
3.780 11.301 3.031
2.842 6.207 7.339
2.863 6.452 7.044
3.318 9.828 4.941
3.280 10.292 4.601
3.552 10.887 4.316
3.542 11.312 3.796
3.696 11.632 3.399
2.574 6.624 7.687
2.696 7.112 7.548
3.336 11.247 4.657
4.381 0.560 1.469
4.358 1.190 1.078
4.190 0.986 1.951
4.475 1.642 1.544
4.197 1.539 2.396
4.130 2.104 2.026
4.423 2.351 1.630
4.038 1.730 2.769
4.027 2.217 2.421
4.663 5.651 0.367
4.471 6.110 0.173
3.970 2.161 3.240
3.814 2.807 2.811
4.499 7.064 0.079
4.565 8.571 2.990
4.436 9.159 2.599
4.551 9.595 2.257
3.968 4.843 6.222
4.164 8.544 3.797
4.402 9.128 3.308
4.572 9.535 2.822
4.474 10.070 2.478
4.626 10.346 2.166
3.818 5.197 6.741
3.940 5.552 6.303
4.238 8.816 4.252
4.358 9.539 3.850
4.222 9.789 3.512
4.587 10.292 3.142
4.388 10.870 2.668
3.411 5.528 6.994
3.557 6.066 6.724
4.011 9.533 4.812
4.118 10.018 4.200
4.355 10.173 4.021
4.476 10.818 3.546
4.240 11.361 3.029
3.349 6.192 7.490
3.585 6.684 6.972
3.862 10.341 4.610
4.278 10.685 4.176
4.256 11.266 3.805
3.174 6.674 8.002
5.024 0.685 1.699
4.818 1.002 1.962
4.932 1.610 1.677
4.616 1.408 2.551
4.844 2.039 2.068
5.139 5.035 0.086
4.647 1.804 2.870
4.705 2.229 2.668
5.072 6.050 0.013
4.526 2.318 3.408
5.296 8.969 2.715
4.820 8.871 3.538
5.252 9.527 2.949
5.024 10.022 2.744
4.298 5.383 6.628
4.933 9.074 4.444
4.733 9.314 4.094
4.994 9.797 3.392
5.040 10.527 3.099
5.158 10.929 2.837
4.030 5.528 7.284
4.098 6.022 6.827
4.852 9.845 4.338
4.980 10.487 3.981
4.870 10.756 3.524
3.944 6.093 7.714
4.896 10.836 4.408
5.486 1.219 2.102
5.270 1.545 2.809
5.338 2.119 2.149
5.232 1.892 3.168
8.274 0.353 0.982
9.066 0.434 1.376
9.677 0.211 1.515
4.349 4.289 6.729
3.444 0.184 11.204
3.347 0.641 10.921
4.151 4.275 7.504
4.177 4.807 7.130
3.147 0.028 12.051
3.173 0.502 11.729
3.462 1.147 11.264
3.550 1.623 10.896
3.903 4.146 8.313
3.972 4.744 8.201
4.198 5.323 7.634
3.177 0.971 12.311
3.038 1.514 11.666
3.869 5.124 8.520
4.129 5.693 8.094
3.806 6.003 8.585
5.629 0.354 2.204
5.136 0.041 3.078
5.229 0.478 2.626
4.920 0.047 3.932
5.301 0.467 3.590
5.154 1.170 3.202
4.925 0.897 3.996
5.038 1.372 3.385
5.008 1.985 3.965
3.968 0.199 10.647
4.800 4.027 7.386
4.878 4.283 6.878
4.078 -0.040 11.392
4.159 0.690 11.188
4.156 0.974 10.644
4.553 3.748 8.188
4.651 4.200 7.818
4.776 4.967 7.497
3.824 0.028 12.456
3.779 0.659 11.876
3.980 1.141 11.428
3.903 1.394 10.909
4.541 4.389 8.558
4.576 4.656 8.263
4.603 5.291 7.938
3.779 0.791 12.215
3.857 1.405 11.873
3.702 2.075 11.432
4.313 4.726 9.167
4.366 5.320 8.551
4.412 5.527 8.356
3.746 1.736 12.524
4.503 5.492 9.126
4.415 6.006 8.586
6.262 0.366 2.252
6.063 0.055 3.293
6.047 0.808 2.729
5.611 0.114 3.973
5.691 0.485 3.692
5.843 0.939 3.284
5.659 0.379 4.592
5.814 1.129 4.172
5.693 1.618 3.537
5.456 1.251 4.455
5.549 1.896 4.267
5.542 3.952 6.411
4.879 0.134 10.720
4.984 0.760 10.167
5.374 3.345 7.771
5.574 3.983 7.517
5.482 4.451 7.187
4.374 0.108 11.741
4.671 0.438 11.323
4.682 0.980 10.840
5.247 3.724 8.380
5.485 4.496 7.775
5.473 4.654 7.338
4.278 0.171 12.538
4.596 0.387 11.859
4.519 0.986 11.481
4.506 1.366 11.318
4.857 1.861 10.791
5.187 3.789 9.150
5.304 4.236 8.676
5.049 4.764 8.271
5.388 5.187 7.940
4.274 0.950 12.476
4.332 1.467 12.167
4.429 1.920 11.784
5.031 4.822 9.218
4.970 5.144 8.782
5.264 5.816 8.501
4.250 1.887 12.475
4.308 2.442 12.213
4.965 5.289 9.512
5.143 5.715 9.372
5.103 6.134 8.949
4.881 6.437 9.390
6.846 0.177 2.389
6.689 0.205 3.338
6.624 0.811 2.807
6.294 -0.036 4.258
6.378 0.570 3.930
6.538 1.211 3.271
6.286 0.644 4.503
6.149 0.889 4.232
6.474 1.417 3.828
5.944 1.064 5.060
6.329 1.309 4.751
6.362 1.789 4.463
6.130 2.153 4.825
6.650 3.028 5.772
6.463 3.092 6.730
6.521 3.656 6.264
5.430 0.170 10.047
5.975 3.084 7.422
6.095 3.607 7.012
6.415 4.099 6.544
5.189 0.126 10.960
5.317 0.715 10.568
5.655 1.055 10.089
5.915 3.005 8.442
6.039 3.535 7.874
6.180 4.020 7.407
6.208 4.249 7.225
5.068 0.327 11.585
5.370 0.515 11.471
5.324 0.928 10.744
5.335 1.615 10.414
5.419 2.088 10.233
5.834 2.826 9.119
5.686 3.380 8.710
5.757 3.897 8.428
5.832 4.493 7.938
5.942 4.809 7.729
5.145 0.706 12.058
5.236 1.046 11.761
5.101 1.432 11.471
5.207 1.854 10.873
5.433 2.559 10.581
5.630 3.054 10.019
5.583 3.226 9.875
5.493 3.920 9.266
5.770 4.272 8.884
5.942 4.895 8.450
6.055 5.172 8.139
5.001 1.433 12.356
5.236 1.849 11.732
5.195 2.473 11.265
5.218 2.950 10.834
5.479 3.754 10.179
5.678 4.297 9.616
5.708 4.843 9.325
5.620 5.138 8.775
5.627 5.703 8.427
5.067 2.369 12.118
4.900 2.751 11.869
5.341 4.770 10.124
5.525 5.248 9.844
5.681 5.687 9.344
5.724 6.225 8.920
5.472 5.677 10.198
5.398 5.969 9.746
5.514 6.354 9.268
5.237 6.323 10.210
5.495 6.836 9.828
5.204 7.251 10.510
5.287 7.146 11.119
5.296 7.737 10.876
7.442 0.361 2.554
7.045 0.258 3.561
7.227 0.579 2.941
6.892 0.154 4.222
6.936 0.521 3.787
7.162 1.105 3.507
6.821 0.079 5.173
6.712 0.576 4.825
6.820 0.992 4.366
7.051 1.650 3.874
6.764 0.350 5.624
6.570 0.831 5.328
6.778 1.413 4.777
6.863 2.039 4.423
6.592 1.494 5.672
6.719 1.748 5.456
6.812 2.267 4.815
6.388 2.373 5.761
6.656 2.605 5.367
6.622 3.138 5.645
7.002 2.771 6.270
7.090 3.308 5.811
6.976 2.563 7.152
6.742 3.216 6.913
6.937 3.765 6.243
6.161 0.138 10.172
6.793 2.954 7.520
6.659 3.702 7.325
6.769 3.987 6.741
5.972 0.101 10.851
5.936 0.600 10.596
6.284 1.170 10.054
6.135 1.689 9.875
6.494 2.644 8.892
6.659 3.137 8.523
6.662 3.501 8.237
6.826 3.815 7.600
6.634 4.312 7.216
5.790 0.217 11.956
5.827 0.727 11.280
5.849 1.181 11.075
5.902 1.435 10.595
6.280 2.067 10.315
6.260 2.409 9.717
6.253 3.062 9.375
6.414 3.481 9.066
6.471 3.860 8.670
6.734 4.421 8.179
6.537 4.855 7.893
5.487 0.443 12.328
5.675 1.189 11.992
5.847 1.386 11.402
6.031 1.879 11.154
5.880 2.294 10.606
6.155 2.802 10.378
6.225 3.393 9.749
6.165 4.029 9.312
6.357 4.313 9.181
6.614 4.802 8.629
6.526 5.227 8.081
5.464 1.320 12.254
5.836 2.104 11.919
5.810 2.507 11.508
5.948 2.901 11.020
5.996 3.259 10.807
5.956 3.869 10.350
6.071 4.420 10.006
6.286 4.857 9.577
6.291 5.199 9.136
6.389 5.648 8.724
5.654 2.364 12.422
5.703 2.750 12.089
5.837 3.254 11.686
6.050 4.130 10.924
5.914 4.793 10.353
6.252 5.019 9.868
6.125 5.593 9.404
6.201 6.093 9.310
5.939 5.448 10.571
5.965 6.225 9.934
6.000 6.423 9.667
5.806 5.891 10.749
5.889 6.394 10.340
5.897 6.934 10.033
5.789 6.954 10.778
5.857 7.436 10.334
5.492 6.917 11.634
5.603 7.336 11.371
5.773 7.954 11.034
8.012 0.144 2.790
7.892 0.284 3.694
7.816 0.584 3.125
7.517 0.233 4.374
7.539 0.793 3.940
7.581 1.226 3.738
7.503 0.060 5.387
7.413 0.432 4.932
7.474 0.977 4.483
7.709 1.604 4.117
7.097 0.009 6.149
7.165 0.421 5.693
7.390 1.108 5.296
7.472 1.357 5.012
7.533 1.812 4.621
7.095 1.357 5.857
7.240 2.033 5.511
7.251 2.375 5.138
7.083 1.962 6.156
6.984 2.331 5.988
7.250 2.912 5.445
7.148 2.765 6.392
7.008 3.093 6.111
7.551 2.278 6.874
7.533 2.898 6.370
7.669 3.073 5.996
7.374 2.765 7.401
7.463 2.988 6.843
7.472 3.618 6.557
6.645 0.216 10.436
6.709 0.782 9.825
7.068 2.512 8.408
7.350 2.994 7.944
7.363 3.413 7.401
7.359 4.095 6.853
6.561 0.141 11.164
6.564 0.675 10.686
6.645 1.064 10.410
7.024 1.678 10.065
6.964 2.195 9.337
7.047 2.476 9.056
7.270 3.089 8.841
7.197 3.585 8.394
7.410 3.872 7.724
7.229 4.484 7.487
6.275 0.071 12.091
6.321 0.505 11.449
6.464 0.966 11.163
6.512 1.703 10.724
6.631 1.984 10.283
6.686 2.497 10.102
6.792 2.886 9.635
6.844 3.539 9.288
6.940 3.778 8.657
7.142 4.572 8.477
7.088 4.750 8.012
6.286 0.605 12.380
6.427 1.187 12.154
6.281 1.555 11.486
6.616 2.052 11.157
6.519 2.476 10.815
6.806 3.110 10.449
6.887 3.451 10.072
6.802 3.966 9.760
7.049 4.501 9.090
6.927 4.882 8.925
7.142 5.327 8.385
6.316 1.552 12.454
6.472 1.781 12.171
6.419 2.394 11.532
6.459 2.768 11.151
6.614 3.265 10.821
6.724 3.806 10.307
6.796 4.156 10.032
6.993 4.618 9.821
6.894 5.276 9.149
6.950 5.809 8.949
6.133 2.413 12.534
6.398 2.904 12.238
6.482 3.448 11.777
6.545 3.821 11.252
6.428 4.181 11.028
6.623 4.659 10.360
6.772 5.266 10.200
6.682 5.656 9.536
7.022 6.021 9.237
6.695 5.020 11.006
6.597 5.691 10.477
6.617 5.921 10.110
6.734 6.613 9.618
6.444 6.179 10.864
6.447 6.449 10.545
6.759 7.133 10.283
6.524 6.419 11.379
6.472 6.928 11.003
6.390 7.392 10.510
6.182 6.842 11.851
6.403 7.280 11.646
6.499 7.621 11.188
8.666 0.150 2.797
8.374 0.100 3.741
8.326 0.614 3.256
8.264 0.266 4.714
8.175 0.602 4.257
8.268 1.265 3.756
7.991 0.126 5.662
8.135 0.672 4.971
8.172 1.131 4.647
8.335 1.475 4.186
7.624 0.191 6.259
7.955 0.437 6.044
7.873 0.945 5.606
7.903 1.390 5.141
8.230 1.977 4.690
7.857 1.087 6.344
7.633 1.487 5.852
8.054 1.750 5.639
8.083 2.414 5.351
7.786 1.916 6.375
7.855 2.277 6.038
7.983 2.793 5.759
7.690 2.315 6.762
7.759 2.640 6.673
7.864 3.070 6.279
8.228 2.571 6.732
8.238 3.254 6.195
8.011 2.776 7.432
8.075 3.063 6.957
8.149 3.456 6.632
7.464 0.430 10.589
7.800 2.937 7.834
7.999 3.573 7.395
8.144 4.173 7.137
7.199 0.319 11.301
7.415 0.784 10.821
7.335 1.249 10.611
7.298 1.780 9.987
7.629 2.607 9.418
7.651 3.100 8.819
7.853 3.451 8.406
8.056 4.167 8.156
8.141 4.508 7.689
7.072 0.033 12.280
7.030 0.714 11.654
7.185 1.017 11.467
7.270 1.695 10.829
7.281 1.998 10.470
7.377 2.673 10.070
7.369 2.848 9.694
7.530 3.481 9.246
7.620 4.105 8.845
7.771 4.304 8.523
7.885 4.801 7.939
6.810 1.208 12.328
7.130 1.471 11.700
6.963 2.141 11.295
7.349 2.465 10.854
7.467 2.996 10.710
7.536 3.454 10.004
7.600 3.830 9.689
7.690 4.405 9.335
7.706 4.928 9.041
7.627 5.159 8.360
6.761 2.071 12.073
6.859 2.395 11.788
6.996 2.847 11.362
7.230 3.503 11.083
7.194 3.867 10.737
7.206 4.327 10.199
7.405 4.608 9.866
7.461 5.401 9.285
7.608 5.892 8.924
6.852 2.887 12.319
7.045 3.461 11.788
7.001 4.173 11.050
7.292 4.707 10.601
7.282 5.227 10.243
7.405 5.521 9.908
7.451 6.178 9.526
7.195 5.484 10.652
7.311 5.959 10.265
7.519 6.514 9.835
7.017 5.935 11.106
7.198 6.433 10.920
7.304 6.808 10.385
6.958 7.089 11.297
7.077 7.547 10.866
6.986 7.029 12.083
7.098 7.240 11.555
7.208 7.698 11.180
9.032 0.314 2.977
8.900 0.378 3.898
9.085 0.571 3.593
8.668 0.176 4.717
8.698 0.555 4.497
8.778 1.044 4.075
8.423 0.159 5.594
8.795 0.642 5.128
8.870 0.915 4.891
8.789 1.425 4.597
8.442 -0.071 6.603
8.587 0.648 6.021
8.669 0.953 5.594
8.771 1.533 5.225
8.652 1.993 4.927
8.325 1.572 6.211
8.618 1.828 5.612
8.676 2.403 5.336
8.348 1.998 6.667
8.482 2.219 6.112
8.426 2.732 5.798
8.269 2.690 6.748
8.365 3.158 6.261
9.073 3.280 6.235
8.717 3.235 7.362
8.787 3.687 6.777
8.081 0.270 10.498
8.572 3.101 8.221
8.544 3.746 7.556
8.603 4.043 7.424
7.765 0.337 11.450
7.866 0.850 11.190
8.049 1.054 10.529
8.441 3.018 9.116
8.299 3.409 8.665
8.360 3.960 8.276
8.499 4.621 7.677
7.527 0.112 12.275
7.757 0.533 11.874
7.620 1.129 11.625
8.001 1.663 11.201
8.060 1.999 10.601
8.014 3.188 9.951
8.304 3.575 9.544
8.262 3.902 9.094
8.252 4.569 8.478
8.578 4.934 8.280
7.608 1.024 12.405
7.663 1.566 11.990
7.816 2.015 11.592
7.692 2.401 10.969
7.816 2.845 10.725
8.090 3.295 10.351
7.960 3.872 9.882
8.175 4.408 9.528
8.359 4.889 9.079
8.335 5.353 8.676
7.573 2.100 12.486
7.523 2.612 11.822
7.754 2.813 11.424
7.867 3.738 10.927
7.962 4.361 10.231
8.194 4.636 10.027
8.218 5.118 9.688
8.231 5.820 9.192
7.602 2.781 12.607
7.894 4.647 10.920
7.916 5.063 10.290
7.910 5.663 10.007
8.260 6.239 9.536
7.694 5.485 10.922
7.746 6.088 10.426
7.844 6.599 10.197
7.812 6.632 10.815
7.825 6.829 10.472
7.596 7.325 11.087
7.697 7.222 11.754
7.681 7.715 11.334
9.776 0.236 3.370
9.506 0.275 4.129
9.579 0.811 3.760
9.485 0.175 5.088
9.601 0.717 4.650
9.514 1.219 4.271
9.179 0.173 5.736
9.366 0.737 5.545
9.242 1.233 5.074
9.406 1.654 4.413
8.995 0.692 6.359
9.067 1.017 5.831
9.068 1.477 5.429
9.427 1.862 4.962
9.003 1.332 6.245
9.009 1.991 6.074
9.247 2.318 5.648
9.110 2.198 6.470
9.110 2.905 6.012
8.907 3.257 6.225
9.452 4.033 7.619
8.543 0.366 11.562
8.423 0.575 11.185
9.138 3.437 8.706
9.042 3.962 8.450
9.275 4.482 8.034
8.127 0.239 12.291
8.232 0.856 11.953
8.332 1.078 11.765
8.805 3.877 9.253
8.891 4.497 8.671
9.073 4.828 8.454
8.155 1.125 12.461
8.325 1.485 12.053
8.405 2.065 11.509
8.551 4.040 9.981
8.879 4.543 9.748
8.955 5.002 9.397
8.966 5.480 8.811
8.052 1.927 12.376
8.767 4.955 10.128
8.909 5.256 9.539
8.704 5.784 9.427
8.735 5.189 10.660
8.626 5.549 9.999
8.793 6.047 9.771
8.475 6.489 10.094
10.547 0.276 3.490
10.179 0.417 4.062
10.366 0.800 3.821
10.051 0.287 5.096
9.945 0.766 4.674
10.243 1.126 4.286
9.845 0.762 5.498
9.968 1.097 5.096
9.918 1.569 4.690
9.594 0.892 5.937
9.719 1.526 5.658
10.022 1.937 5.259
9.888 2.548 5.466
8.927 0.172 11.697
9.657 4.131 8.598
9.745 4.651 7.970
8.785 0.621 12.137
9.028 1.263 11.772
9.564 4.131 9.322
9.556 4.352 8.909
9.647 4.985 8.363
9.037 1.704 12.232
9.506 4.289 9.812
9.502 4.790 9.388
9.552 5.427 9.038
9.418 4.852 10.311
9.339 5.202 9.957
9.367 5.723 9.458
9.127 5.675 10.414
9.313 6.051 9.896
11.122 0.458 3.651
10.772 0.266 4.466
11.057 0.868 4.074
10.599 0.306 5.173
10.681 0.803 4.710
10.802 1.062 4.455
10.394 0.725 5.723
10.401 1.001 5.444
10.522 1.476 4.846
10.488 1.577 5.804
10.622 1.879 5.382
10.355 4.423 8.283
9.634 0.730 12.185
10.095 4.324 9.180
10.223 4.946 8.578
9.328 1.451 12.288
9.943 4.277 9.897
10.080 5.060 9.682
10.332 5.269 9.124
10.151 5.193 9.894
10.015 5.703 9.417
9.992 6.113 10.173
11.647 0.162 3.674
11.315 0.409 4.557
11.367 0.706 4.282
11.284 0.311 5.419
11.289 0.850 5.065
11.542 1.187 4.499
11.091 1.138 5.504
11.189 1.526 4.891
11.103 2.011 5.502
-0.048 0.234 0.930
0.491 0.168 1.192
0.389 0.194 1.854
0.631 0.467 1.390
0.214 0.288 2.269
0.484 0.950 1.908
0.007 0.565 3.268
0.302 0.875 2.691
0.176 1.196 2.466
0.061 1.292 3.368
-0.001 1.698 2.873
0.055 2.136 3.440
0.482 2.871 4.353
0.072 2.867 5.303
0.208 3.489 4.624
0.010 3.534 5.618
0.067 3.962 5.346
0.009 4.183 5.825
1.104 0.232 1.319
0.915 0.185 1.900
1.043 0.375 1.523
0.727 0.080 2.816
1.001 0.327 2.310
1.161 1.007 2.095
0.780 0.518 3.514
0.626 0.721 2.915
0.787 1.427 2.420
0.350 0.292 4.160
0.752 0.952 3.946
0.624 1.276 3.373
0.772 1.791 3.143
0.524 1.306 4.421
0.488 1.773 3.830
0.467 2.146 3.262
0.517 2.072 4.133
0.604 2.464 4.033
0.322 3.105 4.310
0.937 2.531 4.795
0.932 2.922 4.602
0.882 2.357 5.927
0.701 2.906 5.456
1.017 3.500 4.876
0.027 0.001 8.687
0.578 2.835 6.193
0.812 3.503 5.958
0.903 4.043 5.456
-0.062 1.153 8.818
-0.012 1.508 8.378
0.304 2.574 7.562
0.522 2.923 7.212
0.557 3.462 6.630
0.632 3.799 6.233
0.800 4.386 5.716
-0.127 1.834 8.731
0.137 2.222 8.491
0.174 2.843 7.806
0.349 3.150 7.422
0.244 3.758 7.253
0.541 4.370 6.690
0.687 4.708 6.459
0.161 3.378 8.237
0.091 3.806 8.161
0.330 4.035 7.686
0.320 4.693 7.337
0.547 5.200 6.872
0.170 4.006 8.303
0.006 4.734 7.928
0.244 5.071 7.504
0.154 5.401 7.210
0.002 4.891 8.486
0.267 5.473 8.190
0.344 5.966 7.760
-0.034 6.485 8.191
1.742 0.063 1.279
1.680 0.086 2.025
1.750 0.416 1.703
1.423 0.043 3.051
1.528 0.607 2.498
1.471 0.893 2.169
1.407 0.445 3.434
1.376 1.034 3.068
1.487 1.293 2.581
1.021 0.507 4.199
1.148 0.858 4.017
1.370 1.346 3.451
1.194 1.866 3.231
1.180 1.289 4.400
1.061 1.575 4.124
1.166 2.332 3.454
0.968 1.860 5.014
0.895 2.030 4.483
1.044 2.504 3.914
0.867 2.673 5.005
1.025 2.915 4.635
1.277 2.102 5.477
1.535 2.599 4.961
1.593 3.047 4.559
1.160 2.629 5.741
1.504 2.979 5.650
1.451 3.342 5.100
0.802 -0.001 8.936
0.722 0.621 8.561
1.202 2.644 6.881
1.200 3.073 6.537
1.460 3.383 6.042
1.510 4.012 5.662
0.469 0.006 9.730
0.535 0.526 9.260
0.771 0.903 9.003
0.761 1.396 8.505
0.699 1.914 7.881
0.969 2.589 7.738
1.163 2.986 7.154
1.033 3.541 6.741
1.162 4.002 6.234
1.351 4.444 5.863
0.227 0.174 10.680
0.316 0.628 10.141
0.487 1.131 9.857
0.464 1.455 9.431
0.672 2.019 9.001
0.697 2.253 8.431
0.959 2.730 7.999
1.060 3.375 7.665
1.042 3.813 7.174
1.190 4.198 6.950
1.110 4.588 6.615
0.325 0.393 10.922
0.264 1.064 10.554
0.229 1.562 10.039
0.366 1.841 9.872
0.598 2.328 9.414
0.492 2.968 8.988
0.607 3.421 8.408
0.874 3.831 8.268
0.745 4.068 7.609
1.079 4.587 7.413
0.998 5.029 6.873
-0.049 0.716 11.407
0.099 1.182 10.913
0.187 1.827 10.798
0.242 2.240 10.360
0.534 2.777 9.781
0.595 3.387 9.324
0.659 3.545 9.054
0.620 4.295 8.654
0.641 4.639 8.073
0.918 5.124 7.827
1.066 5.572 7.218
-0.124 1.796 11.630
0.049 2.107 11.238
0.105 2.683 10.541
0.156 3.206 10.121
0.223 3.721 9.686
0.515 4.160 9.472
0.622 4.672 9.133
0.462 4.893 8.751
0.759 5.480 8.226
0.622 5.836 7.808
0.105 3.177 11.079
0.545 4.895 9.362
0.633 5.468 9.231
0.514 5.857 8.586
0.818 6.374 8.439
0.458 5.868 9.436
0.328 6.483 9.112
0.442 6.786 8.554
0.258 6.185 9.943
0.291 6.658 9.582
0.374 7.215 9.272
0.110 6.816 10.312
0.270 7.338 9.913
0.218 7.807 9.562
2.513 0.078 1.543
2.417 0.107 2.397
2.297 0.607 1.754
2.170 0.140 3.281
2.039 0.643 2.701
2.283 0.805 2.493
1.772 0.431 3.522
2.096 0.772 3.127
1.977 1.562 2.919
1.854 0.446 4.380
1.933 0.958 4.218
1.853 1.243 3.801
2.051 1.951 3.264
1.581 0.741 5.064
1.821 1.321 4.711
1.608 1.727 4.220
1.950 2.066 3.804
1.576 1.652 4.938
1.569 2.231 4.627
1.900 2.761 4.179
1.338 2.276 5.455
1.560 2.752 5.113
1.786 3.056 4.594
1.978 2.563 5.031
2.074 3.190 4.839
1.845 2.542 6.147
2.140 2.990 5.789
2.109 3.471 5.298
1.285 0.241 8.951
1.910 2.905 6.581
2.004 3.599 6.172
1.900 3.996 5.610
0.974 0.250 9.867
1.178 0.655 9.527
1.408 1.081 8.974
1.492 1.681 8.579
1.494 2.453 7.843
1.447 2.997 7.535
1.547 3.231 7.119
1.896 3.986 6.495
1.757 4.203 6.148
0.884 -0.025 10.606
0.974 0.613 10.322
1.210 0.870 9.753
1.224 1.619 9.599
1.065 2.091 9.085
1.386 2.484 8.667
1.388 2.724 8.345
1.405 3.379 7.796
1.440 3.667 7.406
1.649 4.128 6.875
1.903 4.752 6.464
0.662 -0.064 11.595
0.918 0.421 11.240
0.781 1.009 10.770
0.797 1.560 10.276
1.200 1.893 9.930
1.198 2.253 9.569
1.189 2.685 9.074
1.250 3.369 8.663
1.333 3.711 8.150
1.391 4.159 7.781
1.591 4.837 7.449
1.520 5.306 7.067
0.554 0.276 12.080
0.564 1.015 11.429
0.714 1.293 11.280
0.960 2.000 10.731
0.938 2.281 10.239
1.080 2.802 9.855
1.213 3.314 9.432
1.225 3.842 8.974
1.376 4.164 8.908
1.222 4.721 8.312
1.414 5.107 8.038
1.540 5.565 7.416
0.360 0.673 12.357
0.400 1.352 12.185
0.732 1.648 11.542
0.767 2.389 11.200
0.672 2.715 10.708
0.715 3.116 10.291
0.971 4.297 9.509
1.262 4.569 9.183
1.392 5.188 8.790
1.178 5.382 8.489
1.572 6.050 8.061
0.447 1.828 12.644
0.464 2.188 11.960
0.716 2.725 11.702
1.070 5.636 9.236
1.038 6.051 8.786
1.348 6.504 8.251
0.513 2.617 12.584
0.324 3.047 12.251
1.079 6.018 9.790
1.184 6.441 9.185
1.239 6.740 8.734
1.130 6.624 9.649
0.959 7.215 9.449
0.686 6.684 10.751
0.747 7.309 10.126
0.998 7.663 9.825
2.937 0.013 1.434
2.702 0.116 2.473
2.905 0.608 2.016
2.568 -0.012 3.242
2.650 0.445 2.946
2.840 1.078 2.573
2.572 0.596 3.860
2.496 0.894 3.385
2.581 1.545 2.963
2.233 0.352 4.507
2.413 0.826 4.143
2.437 1.183 3.917
2.747 1.676 3.301
2.422 1.432 4.564
2.243 1.635 4.288
2.552 2.364 3.884
2.342 1.696 5.102
2.253 2.359 4.735
2.313 2.510 4.461
2.219 2.601 5.214
2.164 2.900 4.773
2.955 3.166 4.985
2.717 3.152 5.927
2.619 3.477 5.521
1.967 0.005 9.107
2.549 3.142 6.712
2.629 3.419 6.281
2.553 3.922 5.861
1.670 0.017 10.087
1.711 0.417 9.410
1.917 1.030 9.257
2.288 3.072 7.598
2.169 3.335 7.253
2.408 4.032 6.850
2.383 4.209 6.336
1.440 0.132 10.690
1.523 0.696 10.575
1.567 0.858 10.047
1.765 1.393 9.722
1.866 1.932 9.347
2.158 3.021 8.221
2.077 3.295 8.144
2.021 3.848 7.424
2.376 4.454 7.321
2.427 4.853 6.916
1.283 0.085 11.636
1.284 0.620 11.142
1.330 0.815 10.814
1.637 1.557 10.520
1.729 1.921 9.901
1.711 2.311 9.531
1.875 2.982 9.329
1.935 3.457 8.831
2.022 3.613 8.351
2.017 4.312 8.116
2.189 4.847 7.574
2.106 5.320 7.079
1.266 0.265 12.129
1.405 0.839 11.594
1.489 1.264 11.453
1.525 1.989 10.984
1.379 2.476 10.663
1.538 2.614 10.074
1.781 3.665 9.222
1.809 4.183 8.854
2.092 4.513 8.584
2.099 5.007 8.136
2.172 5.643 7.691
0.966 1.422 12.082
1.287 1.785 11.641
1.267 2.352 11.218
1.352 2.571 10.837
1.684 4.662 9.238
1.953 4.924 8.964
1.937 5.608 8.375
2.133 6.077 8.150
1.211 2.359 12.398
1.104 2.539 11.710
1.754 5.425 9.470
1.661 6.105 8.972
2.031 6.504 8.708
1.580 6.334 9.382
1.640 6.731 9.078
1.822 7.394 9.372
1.496 7.379 10.254
1.581 7.664 9.992
3.621 0.019 1.606
3.482 0.168 2.695
3.711 0.450 2.266
3.242 0.040 3.448
3.381 0.390 3.004
3.402 0.903 2.827
2.880 0.063 4.254
3.217 0.314 3.940
3.334 0.790 3.492
3.254 1.309 3.193
3.076 0.594 4.764
2.956 0.916 4.290
3.079 1.353 4.092
3.303 1.799 3.591
2.916 1.439 5.010
2.981 1.687 4.364
3.023 2.269 4.021
3.034 2.329 4.752
3.038 2.720 4.458
2.952 2.932 5.019
3.183 3.974 6.097
2.233 0.301 10.033
2.537 0.664 9.590
2.768 3.294 7.346
3.107 3.793 6.742
2.986 4.218 6.596
2.235 0.157 11.084
2.358 0.679 10.571
2.399 0.942 10.023
2.856 3.853 7.833
2.736 4.403 7.194
3.114 4.790 7.068
1.749 0.147 11.998
1.902 0.350 11.557
1.902 1.005 10.997
2.314 1.274 10.714
2.314 1.916 10.068
2.742 3.612 8.689
2.784 4.423 8.056
2.900 4.697 7.592
2.784 5.066 7.456
1.683 0.309 12.203
1.980 0.943 11.914
2.002 1.218 11.578
2.007 1.957 10.922
2.593 4.583 8.468
2.707 5.245 8.320
2.771 5.512 7.799
1.879 1.170 12.261
1.702 1.953 11.829
1.951 2.364 11.546
2.497 5.213 8.971
2.479 5.621 8.620
2.528 5.901 8.287
2.599 6.523 8.677
4.344 0.237 2.022
4.153 0.125 2.880
4.071 0.452 2.387
4.033 0.108 3.610
3.995 0.594 3.203
4.064 0.942 2.719
3.656 0.610 4.025
3.754 0.847 3.515
3.862 1.296 3.139
3.571 0.934 4.422
3.861 1.393 4.180
3.694 1.727 3.695
3.647 2.296 4.115
2.770 0.021 10.312
3.793 3.923 6.966
3.856 4.359 6.582
2.706 0.114 11.062
2.801 0.427 10.785
3.056 1.182 10.182
3.345 3.920 7.883
3.471 4.394 7.276
3.505 4.763 7.162
2.426 -0.064 12.154
2.561 0.639 11.429
2.810 1.158 11.205
2.794 1.406 10.600
3.303 4.412 8.180
3.523 4.770 8.056
3.374 5.051 7.485
2.461 0.595 12.603
2.463 0.841 11.916
2.542 1.246 11.680
2.526 1.745 11.132
3.298 4.544 8.730
3.306 5.322 8.437
3.185 5.622 7.937
2.457 1.478 12.316
2.305 1.977 12.125
2.981 5.419 8.718
3.220 6.094 8.262
4.845 0.065 2.017
4.634 0.262 2.876
4.922 0.524 2.508
4.339 0.101 3.852
4.706 0.682 3.405
4.568 1.053 3.044
4.297 0.378 4.363
4.307 0.801 3.808
4.539 1.613 3.325
4.467 1.227 4.266
4.489 1.742 3.816
4.407 4.384 6.872
3.184 0.210 11.113
3.509 0.507 10.968
4.100 4.287 7.764
4.151 4.669 7.037
2.981 -0.091 12.087
3.061 0.603 11.892
3.281 0.991 11.464
3.307 1.319 10.881
4.018 4.341 8.316
3.967 4.759 8.092
4.156 5.197 7.704
2.917 1.090 12.047
3.146 1.395 11.662
3.972 5.170 8.635
4.033 5.715 8.126
3.871 6.143 8.532
5.461 0.298 2.314
5.403 0.097 3.219
5.309 0.796 2.753
5.185 0.082 3.964
5.199 0.445 3.653
5.306 0.931 3.256
5.013 0.842 4.002
5.302 1.425 3.465
4.946 1.760 3.839
10.155 0.462 11.888
10.914 3.943 8.723
11.191 4.530 8.484
10.121 0.622 12.541
10.113 1.333 12.028
10.658 4.039 9.787
10.801 4.600 9.057
10.832 5.113 8.795
10.170 1.569 12.659
10.663 4.418 10.098
10.870 4.854 9.643
10.732 5.211 9.258
10.543 4.780 10.539
10.637 5.429 10.197
10.686 5.791 9.707
10.471 5.725 10.504
10.674 6.229 10.188
12.056 0.353 3.708
12.007 0.420 4.790
12.276 0.643 4.221
11.865 0.423 5.429
11.939 0.803 5.049
12.125 1.282 4.725
11.645 0.518 6.137
11.626 1.296 5.516
11.827 1.536 5.135
11.545 1.569 6.047
11.812 2.108 5.797
11.770 3.977 8.131
10.880 0.458 12.001
11.085 0.686 11.853
11.414 3.669 9.365
11.586 3.980 8.998
11.761 4.548 8.521
10.710 1.060 12.223
11.348 3.962 9.911
11.407 4.589 9.348
11.428 4.860 8.959
10.780 2.042 12.344
11.018 4.023 10.497
11.101 4.297 10.276
11.339 4.860 9.882
11.404 5.452 9.518
10.949 5.027 10.512
11.088 5.431 10.416
11.338 5.959 9.929
10.992 5.124 11.226
11.231 5.618 10.629
11.093 6.070 10.456
11.111 6.546 10.821
12.390 0.202 5.830
12.352 0.784 5.285
12.151 0.538 6.146
12.378 1.164 5.722
12.485 1.539 5.325
12.013 0.939 6.525
12.264 1.651 6.107
12.376 1.961 5.852
12.393 2.322 6.302
12.376 3.129 8.009
12.363 3.623 7.748
11.598 0.219 11.496
12.043 3.057 9.006
12.380 3.502 8.661
12.408 4.101 8.296
11.586 0.186 12.293
11.505 0.770 11.910
11.597 1.168 11.547
11.892 3.189 9.924
12.097 3.690 9.328
12.042 4.233 9.111
12.160 4.583 8.598
11.577 1.320 12.315
11.651 1.654 12.126
11.610 2.066 11.436
11.773 3.020 10.866
11.808 3.495 10.447
12.038 3.921 9.894
12.136 4.370 9.677
12.059 5.111 8.968
11.267 2.282 12.444
11.442 2.456 12.024
11.422 3.140 11.571
11.610 3.413 11.082
11.702 4.044 10.678
11.927 4.382 10.445
11.946 5.086 9.981
12.012 5.276 9.543
11.339 3.029 12.405
11.604 3.881 11.738
11.792 4.277 11.259
11.775 4.886 10.849
11.725 5.430 10.320
11.867 5.964 9.851
11.628 4.696 11.790
11.715 5.330 11.394
11.705 5.698 10.776
11.643 6.103 10.498
11.541 5.745 11.677
11.413 6.282 11.165
11.712 6.777 10.816
11.484 6.741 11.803
11.393 7.222 11.194
11.378 7.657 11.728
11.237 8.062 12.382
12.118 0.457 11.610
12.156 0.367 12.411
12.252 0.671 11.997
12.255 1.272 11.541
12.209 1.599 11.118
12.484 2.764 10.291
11.926 1.367 12.609
12.236 1.736 12.028
12.056 2.064 11.731
12.407 2.493 11.299
12.450 3.141 10.899
12.461 3.742 10.375
12.186 2.204 12.646
12.037 2.720 12.036
12.335 3.173 11.657
12.329 3.564 11.201
12.285 4.093 11.078
12.506 4.526 10.387
12.575 4.941 10.259
12.091 3.434 12.311
12.013 4.000 11.856
12.349 4.584 11.424
12.267 4.956 11.093
12.504 5.410 10.635
12.487 5.767 10.259
12.221 4.253 12.174
12.193 4.984 11.661
12.305 5.257 11.327
12.329 5.942 10.960
12.509 6.143 10.550
12.172 5.810 11.703
12.107 6.349 11.352
12.333 6.517 11.112
11.972 6.151 12.155
11.917 6.668 12.058
12.128 7.113 11.590
12.006 6.882 12.380
12.031 7.656 11.837
11.944 7.997 12.553
12.613 7.838 12.490
11.683 8.725 4.802
12.023 9.385 4.255
12.157 9.678 3.919
11.301 4.990 8.093
11.701 8.731 5.481
11.862 9.260 5.120
11.684 9.593 4.872
11.849 10.265 4.178
12.140 10.511 3.914
11.093 5.436 8.474
10.960 5.792 7.976
11.344 9.250 6.005
11.473 9.667 5.501
11.798 10.138 5.177
11.619 10.484 4.790
11.940 10.980 4.230
10.771 5.876 8.756
10.914 6.385 8.339
11.270 9.441 6.451
11.447 9.946 6.133
11.736 10.379 5.791
11.548 11.006 5.155
11.679 11.302 4.723
10.852 6.152 9.407
10.696 6.577 8.741
11.429 10.530 6.601
11.462 10.948 6.218
11.585 11.239 5.741
10.810 6.692 9.817
12.218 0.712 3.464
12.060 1.200 4.009
12.340 1.619 3.450
12.076 1.527 4.216
12.123 1.980 3.844
12.101 1.976 4.607
11.879 2.584 4.491
12.473 6.201 1.862
11.930 2.396 5.388
12.425 8.309 5.287
12.613 8.658 4.783
12.511 9.362 4.314
11.748 5.010 8.116
11.824 5.540 7.772
12.247 8.856 5.512
12.492 9.146 5.383
12.447 9.723 4.844
12.395 10.238 4.516
11.614 5.580 8.605
11.783 5.825 8.117
11.890 8.668 6.433
12.013 9.082 6.003
12.382 9.624 5.812
12.226 10.027 5.293
12.429 10.702 4.825
12.421 11.033 4.617
12.630 11.602 4.231
11.449 5.783 9.092
11.553 6.311 8.648
11.760 6.953 8.257
11.894 9.565 6.577
12.231 9.858 6.010
12.226 10.391 5.614
12.352 11.010 5.250
12.347 11.546 5.006
11.473 6.399 9.610
11.532 6.692 9.050
