6.471 4.840 11.168
6.556 4.335 10.820
7.010 3.861 10.893
6.811 3.313 10.553
7.366 2.717 10.479
7.540 2.016 10.477
5.177 10.779 12.458
4.965 10.176 12.384
5.150 9.719 12.132
5.422 8.839 12.334
5.742 8.325 11.966
6.011 7.867 12.006
6.102 4.697 11.404
6.119 3.956 11.054
6.276 3.682 11.212
6.691 3.089 11.092
6.721 2.313 10.821
6.821 2.068 10.549
4.814 9.621 12.263
5.018 9.030 12.552
5.175 8.485 12.078
5.443 7.698 12.345
11.310 12.560 7.714
11.587 11.959 7.575
12.030 6.704 6.414
12.092 6.339 6.131
12.340 5.483 6.029
10.724 12.061 7.864
11.137 11.432 7.746
10.952 11.091 7.294
11.550 7.192 6.667
11.931 6.691 6.629
11.984 5.898 6.477
12.261 5.549 6.626
11.983 4.973 6.392
12.502 4.321 6.118
9.911 12.273 8.222
10.139 11.922 8.111
10.272 11.476 8.240
10.359 10.815 7.767
10.638 10.349 7.594
11.055 7.429 7.338
11.031 6.911 7.224
11.446 6.238 7.062
11.259 5.638 6.758
11.530 5.464 6.957
11.734 5.061 6.761
12.036 4.506 6.340
12.087 3.601 6.609
9.755 12.566 8.718
10.134 11.599 8.580
9.859 11.134 8.256
10.095 10.728 7.994
10.145 9.993 8.133
10.580 9.716 7.786
10.517 7.318 7.754
10.889 6.559 7.566
10.668 6.101 7.450
10.855 5.745 7.279
11.016 5.011 7.195
11.302 4.743 6.979
11.415 4.305 6.569
11.314 3.490 6.549
9.163 12.114 8.998
9.626 11.459 8.518
9.384 11.206 8.831
9.693 10.307 8.434
9.964 9.787 8.100
10.164 9.209 8.228
10.507 6.786 7.591
10.364 6.193 7.726
10.477 5.392 7.354
10.758 4.787 7.271
11.078 4.388 7.314
11.250 3.886 6.880
8.911 12.514 9.335
8.646 12.101 9.394
8.815 11.204 9.172
9.138 10.634 8.765
9.064 10.489 8.747
9.582 9.746 8.563
10.223 5.818 8.103
10.015 5.548 7.940
10.354 4.840 7.874
10.136 4.423 7.636
8.235 11.736 9.527
8.594 11.049 9.411
8.617 10.933 9.062
9.086 10.119 8.964
9.429 5.104 8.273
9.631 4.750 8.194
8.130 11.033 9.638
8.262 10.387 9.332
8.103 4.444 9.618
7.782 3.947 9.286
6.365 10.005 10.829
6.295 9.639 10.448
7.425 4.413 9.812
7.603 4.068 9.665
7.589 3.646 9.646
7.650 3.336 9.219
5.988 10.378 11.371
6.017 10.059 10.985
6.214 9.375 10.870
6.043 8.738 10.704
6.483 5.092 10.455
6.687 4.611 10.329
6.922 4.188 9.778
7.403 3.545 10.064
7.216 2.733 9.860
7.345 2.527 9.754
5.101 10.969 11.463
5.149 10.355 11.488
5.449 9.869 11.191
5.371 9.401 11.536
5.920 8.637 11.272
6.101 8.498 11.031
6.192 5.549 10.683
6.392 4.760 10.465
6.218 4.333 10.151
6.366 3.926 10.114
6.894 3.387 10.231
6.695 2.619 10.156
6.804 1.978 10.066
7.315 1.505 9.943
4.437 11.388 12.061
4.951 10.498 12.011
4.878 10.125 11.893
5.229 9.915 11.834
5.215 9.155 11.824
5.202 8.553 11.683
5.630 7.935 11.411
5.511 7.769 11.218
5.554 5.251 11.019
5.621 4.782 11.091
6.024 4.051 10.765
6.050 3.750 10.808
6.035 3.102 10.479
6.413 2.405 10.394
6.827 1.855 10.118
6.640 1.214 10.170
3.880 11.194 12.485
4.416 10.284 12.510
4.464 9.830 12.414
4.739 9.229 12.047
4.867 9.162 11.818
5.007 8.298 11.940
4.800 7.584 11.676
5.183 7.264 11.618
11.631 12.102 6.523
11.377 11.911 6.357
12.195 7.286 5.684
12.581 6.735 5.797
11.086 12.177 6.842
11.186 12.097 7.009
10.919 11.324 6.857
11.463 7.502 5.975
11.808 6.996 5.888
11.967 6.165 5.862
12.228 6.010 5.926
12.040 5.153 5.607
12.257 4.825 5.329
10.493 11.973 7.332
10.334 11.556 7.030
10.493 11.178 7.314
10.752 10.801 7.050
10.879 7.933 6.492
11.325 7.362 6.467
11.632 6.879 6.250
11.360 5.887 6.072
11.745 5.533 5.785
11.779 4.985 5.858
12.220 4.273 5.947
12.110 3.809 5.465
9.961 12.337 7.757
9.875 12.085 7.436
10.171 11.737 7.412
10.444 11.206 7.516
10.287 10.354 7.081
10.727 10.113 7.230
10.186 8.480 7.347
10.751 7.961 7.222
10.428 7.368 6.947
10.712 6.781 6.593
11.230 6.534 6.858
10.942 6.050 6.286
11.204 5.462 6.531
11.185 4.739 6.234
11.484 4.464 6.135
11.655 3.516 5.815
11.934 3.181 5.742
11.828 2.753 5.542
12.088 2.037 5.719
9.562 12.139 8.351
9.663 11.934 7.768
9.812 11.372 7.984
9.571 10.687 7.817
9.991 10.269 7.447
10.148 9.666 7.229
10.207 8.940 7.055
10.588 8.362 7.187
10.170 8.409 7.470
9.940 7.689 7.273
10.112 7.251 7.330
10.134 6.876 6.984
10.720 6.490 6.895
10.516 5.544 6.661
10.933 5.179 6.380
10.836 4.820 6.571
10.937 3.919 6.213
11.383 3.368 5.986
11.381 3.305 6.204
11.440 2.753 6.190
11.832 1.785 6.037
8.977 12.090 8.639
8.928 11.812 8.490
9.009 11.297 7.932
9.446 10.410 8.074
9.365 10.189 8.076
9.636 9.736 7.923
9.968 8.852 7.370
10.153 8.574 7.705
9.856 6.930 7.334
10.141 6.710 7.236
9.867 6.280 7.073
10.400 5.482 7.132
10.454 4.757 6.917
10.673 4.336 6.911
10.743 4.022 6.500
10.919 3.390 6.426
8.379 12.268 8.841
8.540 11.927 8.465
8.802 11.402 8.624
8.649 10.646 8.262
8.789 10.405 8.217
9.134 9.613 7.913
9.369 9.022 8.040
9.722 6.633 7.496
9.838 5.788 7.407
9.736 5.315 7.122
10.151 4.723 7.217
9.920 4.283 6.959
10.479 3.897 7.158
8.020 12.053 9.157
7.931 11.700 9.076
8.243 11.252 8.976
8.199 10.810 8.796
8.507 10.095 8.425
8.658 9.797 8.342
8.996 5.576 7.669
9.488 5.054 7.754
9.607 4.734 7.413
9.364 4.059 7.620
7.716 11.782 9.178
7.768 11.059 9.416
7.850 10.325 8.903
7.835 10.132 8.769
8.910 4.730 7.946
9.065 4.215 7.731
7.483 11.075 9.373
7.227 10.184 9.588
8.424 4.840 8.324
8.694 4.114 7.983
6.887 10.643 9.843
7.155 10.206 9.799
8.105 4.310 8.583
8.208 4.199 8.215
6.528 10.688 10.178
6.477 9.909 10.179
7.523 5.115 9.191
7.504 4.316 8.756
7.935 3.604 8.968
7.771 3.079 8.581
5.982 10.708 10.481
5.967 10.034 10.559
6.010 9.489 10.335
6.465 9.145 9.966
6.813 5.204 9.339
7.149 4.647 9.272
7.117 4.360 8.986
7.373 3.460 8.925
7.251 3.346 9.120
7.800 2.588 8.677
5.206 11.370 10.972
5.225 10.735 10.961
5.485 10.120 10.790
5.494 9.382 10.311
5.930 8.806 10.228
5.883 8.591 10.274
6.231 5.731 9.647
6.401 5.215 9.819
6.370 4.647 9.499
6.661 3.958 9.652
6.589 3.512 9.329
6.752 2.844 9.086
7.328 2.621 9.116
7.087 1.943 9.143
4.760 11.330 11.592
4.882 11.002 11.515
5.069 10.522 10.914
5.051 10.084 10.781
5.236 9.391 11.086
5.361 8.835 10.526
5.665 8.170 10.405
5.922 7.513 10.636
5.365 6.639 10.722
5.841 5.711 10.588
5.948 5.332 10.244
5.872 4.713 9.933
6.233 4.199 9.951
6.107 4.032 9.602
6.222 3.498 9.476
6.648 2.858 9.638
6.574 2.075 9.365
6.700 1.747 9.329
6.981 1.011 9.336
7.251 0.519 8.890
7.041 -0.049 9.048
4.458 11.480 11.796
4.566 10.504 11.426
4.522 10.022 11.225
4.526 9.430 11.548
4.945 9.115 11.288
5.011 8.420 10.811
4.916 7.937 10.670
5.224 7.707 11.012
5.335 7.120 10.473
5.569 6.314 10.627
5.301 6.182 10.982
5.423 5.792 10.844
5.608 5.453 10.596
5.346 4.589 10.221
5.676 4.105 10.337
5.618 3.378 10.103
6.009 3.287 9.822
6.151 2.278 9.764
6.028 1.763 9.954
6.359 1.668 9.701
6.271 0.643 9.558
6.749 0.116 9.480
3.640 11.105 11.941
3.895 10.606 11.770
3.982 9.951 11.725
4.180 9.568 11.576
4.605 8.832 11.667
4.486 8.605 11.289
4.569 7.632 11.303
4.925 7.437 11.236
5.138 6.822 10.905
5.306 6.131 11.054
12.203 12.689 6.044
11.640 12.159 6.290
11.504 12.211 5.757
11.689 11.714 5.882
12.386 7.045 5.020
12.591 6.859 4.720
11.015 12.317 6.253
11.527 11.375 6.058
12.044 7.484 5.304
11.901 6.907 5.434
12.064 6.484 5.248
12.389 6.048 4.838
12.431 5.259 4.765
12.549 5.141 4.833
10.493 12.492 6.734
10.619 12.144 6.649
10.762 11.099 6.257
10.750 10.561 6.022
11.441 7.909 5.650
11.504 7.313 5.527
11.660 6.814 5.589
11.759 6.449 5.517
12.046 5.994 5.003
12.152 5.267 5.190
12.128 4.527 4.802
12.436 4.235 4.758
9.861 12.237 7.120
10.414 11.932 6.529
10.335 11.148 6.424
10.612 10.675 6.727
10.471 10.303 6.477
10.459 8.775 6.350
10.554 8.241 6.474
10.665 7.992 5.878
11.160 7.011 5.977
10.997 6.834 5.585
11.093 6.016 5.510
11.549 5.567 5.557
11.381 5.329 5.572
11.643 4.741 5.355
11.595 4.115 5.298
12.004 3.357 4.842
11.920 2.994 4.768
12.037 2.591 4.620
9.818 11.900 7.155
9.948 11.681 7.269
9.815 10.910 6.654
9.819 10.180 6.708
10.016 9.944 6.580
10.132 9.206 6.280
10.693 9.047 6.435
10.188 8.732 6.677
10.221 7.867 6.280
10.485 7.822 6.451
10.661 7.200 6.264
10.889 6.747 5.962
10.730 6.155 6.013
10.677 5.657 6.068
11.151 4.648 5.594
11.412 4.370 5.579
11.610 3.810 5.541
11.461 3.217 5.126
11.491 2.804 5.136
11.549 2.390 4.932
9.018 12.515 7.727
8.991 11.596 7.547
9.503 11.342 7.446
9.552 10.834 7.429
9.887 10.139 7.229
9.999 9.749 7.103
9.671 9.090 6.981
10.070 8.492 6.692
9.522 8.305 7.095
9.756 7.810 6.712
9.928 7.621 6.767
10.297 6.695 6.796
10.337 6.461 6.331
10.430 5.886 6.542
10.448 5.268 6.147
10.823 4.898 6.247
11.013 4.160 5.839
11.141 3.482 6.011
11.294 3.086 5.705
11.046 2.618 5.414
11.397 2.027 5.527
8.707 12.288 8.042
8.783 11.398 7.544
8.973 11.238 7.468
9.244 10.591 7.543
9.128 10.047 7.157
9.256 9.466 7.506
9.725 9.012 6.941
9.848 8.384 7.032
9.294 8.139 7.520
9.091 7.465 7.371
9.549 7.413 7.219
9.612 6.855 6.711
9.620 5.834 6.541
10.007 5.552 6.692
9.794 4.859 6.416
10.427 4.290 6.178
10.522 4.127 6.436
10.639 3.260 5.915
10.426 2.916 6.039
10.968 2.451 5.637
10.637 1.696 5.394
8.289 12.643 8.408
8.198 11.903 8.137
8.167 11.409 7.978
8.642 10.742 7.709
8.443 10.248 7.590
8.693 9.991 7.648
8.816 9.055 7.463
9.062 8.895 7.192
9.111 8.285 7.441
9.272 7.137 7.152
9.160 6.370 7.327
9.093 5.733 6.832
9.288 5.633 6.847
9.725 4.772 6.782
9.699 4.511 6.488
10.147 3.615 6.407
9.903 3.035 6.183
7.381 12.261 8.910
7.796 11.891 8.518
7.654 11.062 8.425
8.130 10.519 8.525
8.403 10.129 8.196
8.100 9.585 7.795
8.674 8.974 7.610
8.735 6.162 7.349
9.007 5.647 7.516
9.154 5.346 7.154
9.387 4.676 6.964
9.214 4.123 6.681
9.675 3.713 6.631
7.331 11.983 9.075
7.239 11.627 8.690
7.458 10.833 8.785
7.706 10.396 8.634
7.941 9.746 8.621
7.971 9.244 8.383
8.443 5.579 7.433
8.478 4.955 7.609
8.628 4.547 7.471
9.101 3.758 7.323
6.868 11.643 9.360
6.773 10.917 8.808
6.965 10.138 8.733
7.305 9.753 8.887
7.875 5.095 8.201
8.042 5.037 7.778
8.336 4.460 7.560
8.168 3.897 7.555
6.550 11.479 9.391
6.772 10.867 9.246
6.701 10.409 9.128
6.661 9.866 8.967
7.344 5.062 8.114
7.471 4.389 7.986
8.016 4.153 8.128
7.828 3.687 7.809
6.224 10.965 9.677
6.302 10.569 9.682
6.512 9.821 9.473
6.559 9.425 9.554
6.755 5.391 8.630
7.101 5.105 8.693
7.266 4.451 8.278
7.273 3.855 8.225
7.553 3.306 8.011
7.411 2.873 8.153
5.526 11.413 10.103
5.471 10.997 10.206
5.728 10.331 9.975
5.865 9.652 9.748
5.865 9.329 9.632
5.975 8.759 9.286
6.340 5.955 8.940
6.660 5.296 9.228
6.518 4.571 8.898
6.759 4.265 8.787
6.810 3.919 8.575
7.285 3.349 8.232
7.191 2.658 8.502
7.120 1.912 8.232
4.721 11.844 10.577
4.947 11.382 10.567
5.200 10.469 10.393
5.257 10.288 10.359
5.609 9.547 10.185
5.699 8.785 10.126
5.549 8.287 9.707
5.733 7.803 9.559
5.392 6.500 9.769
5.951 6.281 9.805
5.702 5.351 9.358
5.876 4.972 9.116
6.303 4.393 9.146
6.131 4.091 9.235
6.497 3.553 9.092
6.703 3.079 8.517
6.752 2.366 8.439
6.766 1.735 8.566
6.988 1.188 8.259
7.103 0.850 8.249
7.537 0.344 7.839
4.204 11.313 11.139
4.686 11.172 10.733
4.796 10.541 10.908
4.535 9.901 10.706
4.756 9.502 10.231
4.810 8.749 10.264
5.393 8.477 10.268
5.529 7.886 10.004
5.262 7.099 10.046
5.717 6.665 9.469
5.150 6.691 9.778
5.430 5.746 9.678
5.623 5.454 9.619
5.754 4.941 9.625
5.844 4.499 9.702
6.160 3.649 9.092
6.268 3.379 9.113
6.412 2.711 9.215
6.154 2.411 8.930
6.701 1.652 8.581
6.736 1.094 8.681
6.775 0.449 8.571
7.105 0.066 8.172
4.157 11.261 11.322
4.028 10.821 11.123
4.269 10.116 11.160
4.560 9.957 10.579
4.369 9.082 10.510
4.445 8.372 10.525
4.556 7.980 10.314
4.856 7.626 10.461
4.927 7.277 10.309
5.319 6.587 10.088
4.663 6.158 10.161
4.947 5.894 10.006
5.190 5.065 10.018
5.042 4.644 9.651
5.152 4.358 10.006
5.302 3.602 9.598
5.595 3.007 9.548
5.950 2.791 9.536
5.779 1.838 9.264
6.204 1.650 9.274
6.083 0.867 8.873
6.293 0.378 8.813
3.666 11.332 11.510
3.607 10.417 11.207
3.566 9.926 11.395
3.928 9.285 10.943
4.010 8.981 10.863
4.386 8.615 10.896
4.126 7.910 10.811
4.321 7.539 10.764
4.698 7.013 10.331
4.713 6.073 10.582
12.008 12.417 5.310
11.884 12.095 5.353
11.721 12.213 6.034
11.875 11.813 5.691
12.333 7.959 4.482
12.669 7.346 4.203
11.314 12.147 5.126
11.129 11.712 5.354
11.308 11.485 4.908
11.854 7.816 4.805
12.305 7.175 4.364
12.007 6.802 4.071
12.547 6.321 4.243
12.742 5.619 4.105
11.049 12.023 5.859
10.671 11.675 5.710
10.890 10.792 5.324
11.389 8.183 5.098
11.439 7.523 4.833
11.756 7.116 5.010
11.923 6.829 4.517
11.701 5.901 4.536
12.272 5.371 4.236
11.950 4.730 4.001
12.520 4.407 3.945
10.411 12.409 6.288
10.377 11.830 5.823
10.438 11.468 5.587
10.459 10.677 5.636
10.947 10.406 5.543
10.713 8.995 5.825
10.958 8.720 5.602
10.872 7.974 5.313
11.203 7.337 5.203
11.446 6.965 5.211
11.437 6.471 5.023
11.355 5.985 4.576
11.625 5.175 4.413
11.912 4.730 4.250
11.699 4.395 4.329
12.015 3.828 4.034
12.453 2.903 4.278
12.247 2.583 3.933
9.718 12.103 6.495
10.007 11.509 6.367
9.905 10.932 6.315
9.942 10.715 6.262
10.345 10.342 5.959
10.271 9.542 5.731
10.401 8.942 5.765
10.130 8.926 5.736
10.516 8.406 5.993
10.457 7.689 5.519
10.397 7.007 5.276
10.645 6.546 5.206
10.706 6.172 5.088
11.003 5.819 5.185
11.170 5.144 4.813
11.216 4.402 4.796
11.324 3.943 4.907
11.553 3.731 4.687
11.491 2.876 4.535
11.873 2.241 4.039
9.071 12.265 6.884
9.521 11.652 6.478
9.775 11.248 6.299
9.884 10.723 6.273
9.836 9.864 6.184
10.291 9.476 5.977
9.982 8.950 5.984
9.959 8.800 6.435
9.742 8.311 6.193
9.801 7.392 5.823
9.950 6.979 5.882
10.144 6.681 5.802
10.317 6.017 5.402
10.485 5.707 5.279
10.720 4.801 5.209
10.667 4.548 5.263
11.180 3.584 4.818
11.298 3.381 5.022
11.123 3.031 4.478
11.354 2.416 4.630
8.800 12.544 6.952
8.771 11.706 6.798
8.859 11.176 6.875
8.913 10.582 6.756
9.176 10.019 6.787
9.666 9.564 6.401
9.470 9.161 6.405
9.801 8.812 6.321
9.368 8.531 6.626
9.347 7.873 6.571
9.455 7.423 6.088
9.973 7.067 6.100
9.784 6.494 5.910
10.249 5.777 5.881
9.909 5.354 5.731
10.300 4.897 5.504
10.585 4.269 5.195
10.766 3.725 5.262
10.864 2.879 4.922
11.006 2.566 5.232
11.122 1.984 4.834
8.375 12.441 7.296
8.195 11.656 7.540
8.426 11.390 7.190
8.953 10.787 7.290
8.728 10.087 6.780
9.223 9.549 6.662
8.923 9.231 6.435
9.543 8.318 6.552
8.831 8.028 6.669
9.072 7.811 6.594
9.277 7.003 6.363
9.070 6.676 6.659
9.423 6.046 6.346
9.436 5.640 6.131
9.796 5.232 6.136
10.044 4.553 6.080
10.191 3.902 5.530
9.892 3.257 5.815
10.042 2.925 5.466
10.388 2.214 5.171
10.683 1.928 4.966
7.697 12.690 7.775
7.851 11.836 7.520
8.198 11.388 7.871
7.907 10.980 7.457
8.088 10.553 7.564
8.519 9.759 7.480
8.591 9.250 7.157
8.627 8.756 7.070
9.017 8.192 6.793
8.422 8.207 6.900
8.293 7.408 6.968
8.941 7.232 6.678
8.779 6.397 6.933
8.767 5.678 6.428
8.989 5.648 6.306
9.403 4.983 6.099
9.579 4.585 6.203
9.296 3.814 5.884
9.754 3.071 5.674
9.603 2.749 5.709
9.789 2.370 5.615
9.999 1.843 5.503
7.306 12.195 8.338
7.510 11.901 8.080
7.322 11.102 8.063
7.503 10.900 8.025
7.787 10.319 7.625
7.722 9.713 7.411
7.895 9.157 7.512
8.251 8.426 7.036
8.167 8.309 7.225
8.478 6.849 7.408
8.296 6.429 6.924
8.288 5.825 6.965
8.824 5.409 6.548
8.657 4.853 6.509
9.098 4.236 6.533
9.158 3.773 6.233
9.399 2.978 6.269
6.742 12.000 8.297
7.170 11.450 8.448
7.329 11.282 8.211
7.016 10.360 8.103
7.281 10.002 8.232
7.461 9.536 7.802
7.592 8.958 7.688
8.157 5.861 7.541
8.179 5.439 7.045
8.216 5.061 6.956
8.549 4.221 6.975
8.682 4.163 6.619
8.443 3.328 6.655
6.387 11.925 8.708
6.526 11.651 8.534
6.526 10.797 8.734
6.635 10.437 8.184
6.821 9.726 8.207
7.173 9.075 8.149
7.576 5.995 7.724
7.739 5.390 7.505
7.566 4.725 7.192
7.824 4.164 7.423
7.932 3.830 7.191
8.174 2.967 6.961
5.769 12.007 9.146
5.813 10.996 9.189
6.220 10.705 9.051
6.207 10.184 8.613
6.689 9.420 8.770
6.806 8.976 8.674
6.827 5.903 7.994
7.367 5.168 7.552
7.282 4.862 7.692
7.656 3.986 7.334
7.613 3.372 7.209
7.667 2.908 7.371
5.301 11.650 9.498
5.838 10.989 9.434
5.614 10.304 8.899
5.964 10.102 8.763
6.297 9.406 8.909
6.296 9.102 8.973
6.450 5.830 8.583
6.694 5.657 8.240
6.995 4.885 8.080
6.789 4.579 8.155
7.260 3.754 7.767
7.307 3.297 7.668
7.512 2.597 7.766
7.540 2.328 7.621
5.110 12.179 9.887
4.937 11.641 9.890
5.343 10.884 9.474
5.219 10.548 9.636
5.495 9.681 9.352
5.481 9.261 8.930
5.601 8.490 9.202
5.763 8.196 8.987
5.761 6.745 8.822
6.038 6.274 8.860
6.098 5.720 8.585
5.926 5.206 8.632
6.176 4.767 8.233
6.204 4.149 8.089
6.480 3.759 8.008
6.648 2.915 8.264
6.676 2.428 7.745
7.257 2.260 7.521
7.268 1.724 7.480
7.312 1.125 7.512
7.697 0.721 7.061
4.611 11.951 10.364
4.491 11.175 10.020
4.952 10.880 9.854
4.827 9.977 9.905
5.202 9.547 9.807
4.939 8.921 9.645
5.206 8.603 9.401
5.708 8.062 9.257
5.775 7.655 9.319
5.622 6.896 8.758
5.487 6.655 9.030
5.693 6.196 9.096
5.817 5.807 8.718
5.857 5.074 8.923
5.983 4.747 8.783
5.970 4.286 8.767
6.044 3.573 8.275
6.220 2.879 8.558
6.457 2.387 8.414
6.749 1.726 8.190
6.601 1.537 8.132
6.994 1.082 8.023
7.051 0.235 7.394
3.954 11.551 10.653
3.912 11.163 10.432
4.199 10.289 9.989
4.362 10.017 9.806
4.859 9.377 9.675
4.927 8.621 9.774
4.613 8.313 9.569
4.844 7.942 9.720
5.101 7.444 9.208
5.221 6.531 9.302
4.807 6.477 9.493
4.765 5.810 9.286
5.019 5.336 9.509
5.469 4.708 8.973
5.504 4.449 8.969
5.422 3.973 8.685
5.953 3.149 8.886
5.744 2.674 8.420
5.927 2.325 8.315
6.346 1.675 8.435
6.095 1.332 8.164
6.264 0.883 8.082
6.467 -0.018 8.075
3.465 11.562 10.634
3.733 10.623 10.891
3.639 10.315 10.265
3.791 9.859 10.519
4.049 9.135 10.320
4.378 8.470 10.103
4.460 7.910 9.734
4.479 7.592 9.776
4.648 7.279 9.678
4.685 6.681 9.564
4.615 6.278 9.920
4.516 6.017 9.954
4.630 5.043 9.429
4.926 4.923 9.388
4.918 4.393 9.339
5.325 3.476 8.987
5.225 3.319 9.052
5.293 2.808 8.748
5.410 2.232 8.849
5.775 1.275 8.694
6.000 1.146 8.754
5.951 0.657 8.309
2.869 11.334 11.024
3.413 10.366 11.004
3.620 9.958 10.909
3.353 9.782 10.515
3.556 9.129 10.312
3.603 8.222 10.660
3.775 7.746 10.299
3.946 7.506 10.152
4.442 6.740 9.931
4.558 6.257 9.808
12.152 12.387 4.744
12.340 11.675 4.657
12.318 10.856 4.320
11.425 12.362 5.051
11.686 12.075 4.689
12.006 11.446 4.905
12.302 8.160 4.306
12.394 7.562 4.355
11.281 12.149 5.429
11.486 11.915 4.970
11.319 11.350 5.147
12.268 8.019 3.558
12.245 7.442 3.859
12.366 7.099 3.324
12.504 6.265 3.152
10.807 12.216 4.741
10.843 11.740 5.012
11.076 11.516 4.559
11.560 7.717 4.385
11.801 7.385 3.802
11.747 6.691 3.641
12.286 6.195 3.543
12.072 5.656 3.450
12.493 5.141 3.451
10.419 11.996 5.381
10.852 11.860 5.062
10.829 11.136 4.813
10.826 8.374 4.624
11.279 7.788 4.659
11.518 6.887 4.113
11.454 6.620 4.119
11.659 6.268 3.955
11.633 5.311 3.978
11.710 4.983 3.819
11.947 4.528 3.776
9.937 12.535 5.773
10.061 12.152 5.576
10.389 11.397 5.574
10.240 10.741 5.451
10.189 10.525 4.919
10.031 9.165 5.059
10.396 8.726 5.136
10.429 7.952 4.913
10.941 7.617 4.932
10.597 6.801 4.404
11.205 6.293 4.572
11.068 5.752 4.242
11.551 5.595 4.222
11.167 4.736 3.806
11.655 4.146 4.045
11.615 3.799 3.814
11.651 3.353 3.859
11.776 2.600 3.631
9.193 12.084 5.776
9.338 11.862 5.711
9.796 11.397 5.456
10.086 10.868 5.413
10.036 10.225 5.478
10.339 9.820 5.025
10.025 9.170 5.302
10.019 8.904 5.440
10.054 8.345 5.373
10.086 7.581 5.301
10.518 7.203 4.946
10.384 6.572 4.943
10.602 6.311 4.678
10.799 5.458 4.815
10.829 4.982 4.286
11.199 4.605 4.579
11.146 4.140 4.485
11.145 3.722 3.992
11.234 3.177 3.839
11.585 2.714 3.784
8.760 11.866 6.232
9.246 11.538 6.276
9.134 11.293 5.779
9.363 10.725 5.965
9.384 10.077 5.952
9.790 9.534 5.600
9.681 8.980 5.234
9.416 8.748 5.928
9.774 7.962 5.511
9.669 7.853 5.516
9.989 7.256 5.545
9.970 6.752 5.054
9.900 5.901 5.037
10.251 5.532 5.155
10.223 5.012 4.752
10.754 4.503 4.896
10.743 4.126 4.754
11.004 3.131 4.640
10.836 2.814 4.437
11.252 2.148 4.241
8.609 12.464 6.828
8.691 11.903 6.562
8.679 11.298 6.656
8.687 10.908 6.439
9.053 10.368 5.943
9.321 9.953 5.750
9.017 9.484 5.720
9.354 8.436 5.898
9.185 8.736 6.231
9.100 8.165 6.043
9.196 7.409 5.769
9.250 6.902 5.895
9.317 6.273 5.444
9.733 5.553 5.414
9.797 5.489 5.153
9.949 4.843 5.217
9.947 4.188 4.746
10.250 3.922 4.976
10.137 2.958 4.927
10.627 2.449 4.637
10.831 2.111 4.212
7.701 12.191 6.976
7.977 11.777 7.091
8.371 10.954 6.828
8.400 10.444 6.571
8.502 10.155 6.212
8.734 9.367 6.361
8.787 9.096 6.170
9.189 8.647 6.131
8.500 8.386 6.386
8.567 7.776 6.450
8.696 7.034 5.853
9.034 6.528 6.178
9.181 6.266 5.981
9.223 5.683 5.912
9.352 4.832 5.726
9.308 4.364 5.601
9.877 4.213 5.255
9.556 3.432 5.264
10.024 2.780 5.016
9.994 2.174 4.714
10.184 1.653 4.528
7.348 11.884 7.567
7.470 11.748 7.082
7.594 11.115 6.878
7.969 10.674 6.751
7.888 9.778 6.711
8.113 9.425 6.589
8.379 9.064 6.586
8.453 8.449 6.232
7.852 8.307 6.606
7.990 7.756 6.563
8.610 7.291 6.438
8.717 6.677 6.211
8.518 5.995 6.217
8.536 5.238 5.762
8.907 5.064 6.014
9.256 4.134 5.609
9.114 3.636 5.795
9.586 3.144 5.306
9.607 2.511 5.506
9.650 2.257 5.381
9.531 1.659 5.150
6.918 12.365 7.516
7.181 11.994 7.398
7.143 11.198 7.700
7.243 10.966 7.452
7.631 10.049 7.388
7.547 9.926 7.093
7.991 9.263 6.713
8.135 8.900 6.919
8.202 7.979 6.543
7.876 6.859 6.886
7.963 6.356 6.742
8.430 5.640 6.185
8.082 5.125 6.092
8.439 4.899 6.193
8.531 3.999 6.251
8.595 3.667 6.092
8.792 3.224 5.931
6.411 11.973 7.826
6.644 11.723 7.740
6.658 11.166 7.957
6.753 10.638 7.565
7.064 10.163 7.581
7.393 9.507 7.335
7.421 8.969 7.015
7.755 6.222 6.823
7.889 5.317 6.527
8.140 5.010 6.716
8.013 4.300 6.428
8.255 4.072 6.212
8.361 3.574 6.224
6.170 12.250 8.231
6.167 11.525 8.090
6.347 11.031 8.024
6.299 10.348 7.788
6.721 10.048 7.891
6.593 9.150 7.920
7.157 6.080 7.201
7.545 5.389 7.005
7.720 5.026 7.107
7.432 4.249 6.980
7.767 3.932 6.358
8.085 3.320 6.544
5.598 11.659 8.588
5.979 11.304 8.642
5.741 10.655 8.325
5.998 10.262 8.356
6.338 9.771 8.003
6.311 9.002 7.762
6.659 5.489 7.571
6.909 5.096 7.260
7.037 4.643 7.128
7.346 3.874 7.123
7.566 3.324 6.954
7.605 2.791 6.834
5.214 11.588 8.863
5.050 10.843 8.731
5.437 10.740 8.746
5.589 10.200 8.646
5.569 9.571 8.254
5.953 8.904 8.395
6.275 5.915 8.043
6.255 5.281 7.517
6.171 5.253 7.380
6.631 4.556 7.302
6.968 3.769 7.354
6.618 3.253 7.432
7.151 2.994 7.194
7.231 2.132 6.966
4.631 12.016 9.199
4.512 11.435 9.469
4.788 10.683 9.056
4.781 10.204 8.793
4.939 9.772 8.861
5.198 9.074 8.803
5.409 8.624 8.467
5.558 8.173 8.568
5.454 6.673 8.678
5.347 6.544 8.259
5.809 5.762 8.280
5.649 5.391 8.175
5.748 4.832 7.733
6.142 4.520 7.980
6.014 3.628 7.446
6.309 3.232 7.360
6.339 2.735 7.305
6.791 2.174 7.216
6.688 1.776 7.108
7.197 0.978 6.779
7.386 0.460 6.782
4.285 11.717 9.691
4.145 11.421 9.544
4.578 10.904 9.612
4.600 10.289 9.212
4.598 9.384 9.091
4.616 8.847 8.840
5.128 8.378 8.806
5.088 8.006 8.966
5.021 7.391 8.569
5.359 7.167 8.525
5.230 6.818 8.936
5.007 6.152 8.472
5.526 5.573 8.472
5.332 5.269 8.336
5.593 4.733 8.440
5.493 4.218 8.101
5.719 3.320 7.843
6.201 3.202 7.899
6.080 2.246 7.756
6.227 1.973 7.601
6.319 1.422 7.687
6.551 0.831 7.312
6.651 0.421 7.304
3.789 11.518 10.220
3.959 11.108 10.033
4.086 10.293 9.945
4.088 10.168 9.583
4.431 9.389 9.646
4.309 9.020 9.446
4.738 8.521 9.187
4.902 8.061 9.049
4.784 7.092 9.023
5.148 6.705 9.046
4.472 6.630 9.285
4.668 5.869 8.901
4.580 5.288 9.043
4.981 5.041 8.687
5.335 4.227 8.504
5.428 3.862 8.555
5.380 3.145 8.461
5.691 3.058 8.147
5.683 2.330 7.745
5.863 1.494 7.903
6.140 1.432 7.887
5.949 0.587 7.487
6.135 0.024 7.216
3.001 11.607 10.329
3.261 10.571 9.998
3.499 10.250 9.975
3.919 10.023 9.927
3.765 9.412 9.796
3.702 8.786 9.405
3.841 8.061 9.419
4.148 7.501 9.172
4.494 6.985 9.388
4.300 6.462 9.231
4.207 6.555 9.603
4.119 6.068 9.232
4.424 5.425 9.026
4.379 4.905 8.811
4.549 4.277 8.960
4.907 3.528 8.796
4.755 3.267 8.659
5.232 2.596 8.523
5.248 2.126 8.418
5.358 1.288 7.931
5.401 0.910 7.994
5.916 0.523 7.930
2.963 11.191 10.444
2.802 10.381 10.438
3.351 10.025 10.285
3.025 9.372 10.419
3.130 9.284 9.855
3.350 8.405 9.983
3.555 7.956 9.652
3.708 7.461 9.800
3.912 6.717 9.415
3.916 6.411 9.461
12.433 12.359 3.610
12.704 11.916 3.517
12.136 12.333 4.288
11.975 11.519 3.831
12.238 10.872 3.642
12.325 8.258 3.351
11.548 12.675 4.454
11.375 11.947 4.347
11.857 11.314 4.197
12.258 8.121 3.709
12.199 7.381 3.748
12.332 6.906 3.726
12.521 6.488 3.581
10.850 12.390 4.796
10.819 11.940 4.601
11.166 11.345 4.466
11.829 7.602 3.012
11.785 6.977 2.965
12.344 6.268 2.786
12.424 6.206 2.789
10.535 12.570 4.177
10.677 11.921 4.338
11.327 7.107 3.339
11.772 6.762 3.398
11.847 6.377 3.025
11.673 5.800 3.145
10.034 12.344 4.718
10.350 11.543 4.655
10.980 7.875 4.012
11.155 7.408 3.986
10.857 6.673 3.730
11.240 6.238 3.305
11.200 5.511 3.241
11.519 5.185 3.220
9.468 12.379 5.102
9.603 11.720 4.940
9.718 11.240 4.841
9.955 11.037 4.989
10.318 8.302 4.446
10.273 7.414 4.213
10.636 6.990 4.231
10.437 6.665 3.753
10.635 5.975 3.906
10.792 5.192 3.696
10.929 4.827 3.326
11.060 4.499 3.691
8.992 12.397 5.461
9.059 11.868 5.583
9.153 11.402 5.325
9.715 10.584 5.129
9.454 10.420 5.132
9.337 9.032 4.775
9.689 8.589 5.062
9.664 7.942 4.578
9.752 7.430 4.605
10.202 7.016 4.457
10.043 5.973 4.356
10.379 5.505 3.955
10.433 5.202 4.030
10.690 4.880 3.879
10.905 3.970 3.663
10.961 3.444 3.502
10.827 2.977 3.430
10.980 2.614 3.410
8.747 12.399 5.926
8.771 11.437 5.442
8.878 10.982 5.555
9.234 10.429 5.510
8.998 10.089 5.342
9.229 9.601 4.953
9.741 9.132 4.847
9.107 8.883 5.390
9.407 7.960 5.247
9.129 7.701 4.840
9.537 6.917 4.738
9.464 6.776 4.522
9.673 6.298 4.394
10.125 5.251 4.447
10.073 4.746 4.152
10.213 4.471 4.225
10.455 3.744 3.931
10.702 3.349 3.762
10.657 2.831 3.820
10.970 2.307 3.771
8.150 12.381 6.145
8.129 11.918 6.283
8.320 11.307 5.695
8.700 10.750 5.675
8.828 10.319 5.936
8.638 9.682 5.434
8.703 9.085 5.563
9.289 8.630 5.300
8.371 8.640 5.354
8.799 7.809 5.657
9.131 7.580 5.489
9.226 7.166 5.243
9.184 6.139 4.785
9.558 6.013 5.006
9.405 5.386 4.652
9.475 4.642 4.805
9.893 4.356 4.509
9.939 3.673 4.201
10.255 3.321 4.279
10.144 2.384 4.132
10.425 2.274 4.114
7.484 12.216 6.317
7.893 11.720 6.527
8.002 11.006 6.314
7.791 10.419 6.234
8.462 10.070 6.178
8.555 9.744 6.014
8.349 8.873 5.486
8.862 8.370 5.322
8.292 8.191 5.895
8.363 8.013 5.848
8.448 7.477 5.775
8.526 6.597 5.446
8.830 6.011 5.610
8.827 5.830 5.008
8.897 4.851 5.033
9.328 4.639 5.187
9.544 4.057 4.798
9.710 3.310 4.870
9.416 3.188 4.785
9.733 2.594 4.240
9.950 1.753 4.423
7.305 12.284 6.865
7.121 11.492 6.812
7.339 11.114 6.528
7.380 10.495 6.213
7.967 10.199 6.526
7.792 9.371 5.991
8.001 9.127 5.914
7.937 8.402 5.974
7.859 7.214 6.124
8.017 6.275 5.714
8.530 5.844 5.741
8.336 5.300 5.493
8.403 4.713 5.419
8.553 4.360 5.009
8.837 3.849 4.923
9.137 3.293 4.756
6.796 12.621 7.235
6.932 11.648 7.008
6.996 11.593 6.930
7.150 10.895 7.056
6.987 10.083 7.001
7.451 9.674 6.587
7.386 9.291 6.399
7.561 6.300 5.946
8.130 6.016 5.873
7.780 5.489 5.894
8.002 4.780 5.626
8.368 4.234 5.658
8.523 3.718 5.186
5.969 12.391 7.416
6.286 11.552 7.387
6.627 11.356 7.372
6.415 10.732 6.995
6.873 10.262 7.307
7.011 9.577 7.153
7.250 5.829 6.478
7.797 4.866 5.909
7.664 4.773 6.248
7.707 4.048 5.709
5.816 11.273 7.872
6.126 10.698 7.880
6.286 10.219 7.676
6.093 9.861 7.126
6.919 5.362 6.347
7.139 4.847 6.648
7.161 4.597 6.198
7.226 4.016 6.191
5.513 11.447 7.980
5.697 10.572 8.094
5.609 10.468 7.916
5.944 9.958 7.424
6.797 4.959 6.710
6.858 4.825 6.688
7.056 3.983 6.521
7.197 3.673 6.674
4.820 11.152 8.331
5.114 10.336 8.400
5.100 10.007 8.136
5.505 9.375 8.074
5.974 5.418 7.160
5.935 5.023 6.956
6.409 4.726 7.015
6.253 3.940 6.709
6.533 3.428 6.900
6.856 2.665 6.581
4.443 11.255 8.974
4.659 10.801 8.744
4.767 10.551 8.314
5.039 9.681 8.488
5.123 9.247 8.289
5.337 8.766 8.171
5.125 5.976 7.847
5.689 5.387 7.437
5.906 5.030 7.686
5.960 4.401 7.476
6.178 3.890 7.304
6.010 3.149 6.818
6.050 2.571 7.180
6.501 2.002 6.922
3.642 11.877 9.025
4.120 11.048 9.085
4.347 10.699 9.202
4.223 10.186 8.924
4.428 9.706 8.525
4.761 9.348 8.374
4.850 8.369 8.187
4.955 7.866 8.470
4.682 6.605 8.567
4.634 6.162 8.073
5.049 5.883 8.263
4.962 5.050 8.132
5.173 4.503 8.042
5.414 4.116 7.459
5.304 3.809 7.498
5.382 2.921 7.330
5.797 2.568 7.242
5.714 2.090 6.988
6.200 1.339 7.197
6.215 0.730 7.078
6.396 0.442 6.955
3.180 11.511 9.302
3.758 11.015 9.378
3.487 10.608 9.258
3.684 9.879 8.954
4.010 9.382 8.914
3.841 8.761 8.863
4.265 8.393 8.638
4.384 7.786 8.754
4.602 7.464 8.345
4.557 6.835 8.481
4.213 6.642 8.777
4.508 6.083 8.581
4.680 5.600 8.579
4.757 4.919 7.962
4.911 4.184 8.312
5.167 3.639 8.083
5.062 3.285 7.949
5.138 2.852 7.821
5.369 2.197 7.462
5.329 1.656 7.159
5.728 1.275 7.067
5.907 0.610 6.885
5.773 0.063 7.233
2.818 11.343 9.970
2.938 10.953 9.495
3.205 10.581 9.342
3.343 9.727 9.673
3.594 9.037 9.504
3.560 8.509 9.298
3.817 8.367 8.843
3.865 7.808 8.661
4.092 7.048 8.665
4.267 6.779 8.422
3.597 6.148 8.703
4.076 6.064 8.782
4.069 5.107 8.891
4.198 4.889 8.262
4.369 4.162 8.290
4.494 3.481 8.271
4.862 2.917 8.373
5.012 2.622 8.048
5.015 1.945 7.832
4.853 1.520 7.650
5.214 1.188 7.347
5.520 0.266 7.203
2.434 11.460 10.399
2.704 10.799 10.249
2.977 10.041 9.998
2.648 9.351 9.989
3.055 8.913 9.460
2.969 8.298 9.486
3.506 8.170 9.192
3.259 7.367 9.097
3.642 7.163 8.887
3.921 6.556 8.900
12.136 12.653 3.552
12.157 12.037 3.153
12.128 11.320 3.025
11.781 12.198 3.713
11.713 11.610 3.392
12.500 7.572 2.762
12.507 7.007 2.576
10.899 12.266 3.745
12.114 7.800 3.163
11.986 6.987 3.161
12.040 6.534 2.936
12.415 5.970 2.634
10.335 12.392 4.417
10.466 11.774 4.168
11.869 6.945 2.755
11.826 6.289 2.655
10.023 12.270 4.144
11.153 7.053 2.913
11.250 6.419 2.703
9.953 12.376 4.085
10.737 7.117 3.398
10.570 6.815 3.415
11.084 6.317 3.065
10.934 5.728 3.050
9.356 12.684 4.910
9.324 11.828 4.803
9.286 11.519 4.530
10.120 7.536 3.821
10.312 6.939 3.465
10.558 6.713 3.473
10.610 6.184 3.640
10.505 5.189 3.315
10.661 4.935 2.949
8.784 12.132 4.822
8.709 11.886 4.672
9.213 11.205 4.806
9.228 10.966 4.609
9.424 7.758 4.332
9.574 7.486 4.176
9.850 6.980 3.967
10.152 6.197 3.890
10.169 5.738 3.932
10.443 5.421 3.795
10.511 4.638 3.677
10.499 4.124 3.407
8.534 12.037 5.221
8.204 11.591 5.446
8.357 10.917 4.993
8.804 10.538 5.033
9.051 9.913 4.592
8.494 8.690 4.724
8.975 8.424 4.900
9.178 7.497 4.776
9.324 7.190 4.459
9.315 6.629 4.112
9.233 5.931 3.914
9.569 5.269 4.072
9.862 5.012 3.685
9.724 4.709 3.812
9.823 3.687 3.663
9.957 3.534 3.301
10.191 3.068 3.072
10.384 2.316 3.182
7.693 12.604 5.902
7.669 12.149 5.681
7.813 11.640 5.689
8.374 10.868 5.500
8.559 10.444 5.175
8.291 10.074 5.153
8.365 9.475 4.970
8.689 8.924 4.915
8.255 8.624 5.108
8.536 7.833 5.202
8.480 7.480 4.973
8.580 6.695 4.896
9.014 6.383 4.482
9.063 6.025 4.697
9.347 5.541 4.338
9.457 5.024 4.289
9.200 4.318 4.158
9.834 3.836 4.166
9.914 3.266 3.920
9.717 2.728 3.393
10.125 1.969 3.307
7.035 12.360 6.166
7.348 11.525 5.899
7.678 11.156 5.883
7.506 10.871 5.573
7.740 9.932 5.692
7.988 9.557 5.508
7.973 8.880 5.271
8.384 8.484 4.910
8.107 7.246 5.097
8.445 6.766 5.197
8.276 6.049 4.962
8.315 5.835 4.901
8.527 5.272 4.455
8.845 4.829 4.471
8.759 3.816 4.525
9.097 3.456 4.075
6.833 12.139 6.284
6.943 11.402 6.262
7.290 10.990 6.061
7.125 10.454 5.798
7.268 9.762 6.050
7.420 9.358 5.849
7.996 6.447 5.490
7.966 6.177 5.088
8.243 5.404 5.277
8.242 4.880 5.178
8.505 4.561 4.587
8.574 3.909 4.682
6.437 12.550 7.078
6.271 11.706 6.604
6.725 11.221 6.494
6.848 10.892 6.408
7.032 10.565 6.335
6.900 9.597 5.895
7.441 5.639 5.489
7.808 5.422 5.397
7.884 4.579 5.047
8.052 4.206 5.043
5.740 11.460 7.095
5.873 10.921 6.629
6.457 10.495 6.797
6.307 9.990 6.475
7.001 5.233 5.811
7.605 4.545 5.479
5.550 11.139 7.348
5.649 10.588 6.898
6.586 4.895 5.981
7.024 4.466 5.945
5.015 10.690 7.356
5.389 10.145 7.391
6.435 4.458 6.121
6.311 3.920 5.968
4.540 10.533 7.660
4.665 10.214 7.683
5.749 5.013 6.630
5.654 4.453 6.469
6.080 3.804 6.603
6.123 3.214 6.106
4.321 10.871 8.294
4.577 10.404 7.912
4.342 9.688 8.172
4.598 9.122 7.598
5.434 5.520 7.325
5.330 4.632 7.248
5.208 4.450 6.629
5.489 3.785 6.896
5.611 3.025 6.428
5.829 2.608 6.504
3.356 11.183 8.408
3.575 10.776 8.238
4.134 10.196 8.168
3.990 9.818 8.267
4.223 9.282 8.047
4.189 8.730 8.164
4.352 5.983 7.776
4.753 4.959 7.470
4.877 4.689 7.142
5.033 4.336 7.080
4.971 3.507 7.202
5.164 3.209 6.761
5.339 2.664 6.808
5.700 2.198 6.724
3.226 11.608 9.041
2.995 10.996 9.016
3.267 10.363 9.070
3.188 10.138 8.933
3.560 9.525 8.508
3.743 8.697 8.350
3.736 8.589 8.500
4.190 8.009 8.031
3.779 6.702 8.003
3.972 6.308 7.772
4.298 5.447 7.839
4.495 5.170 7.864
4.241 4.615 7.375
4.571 3.663 7.509
4.902 3.182 7.614
5.085 2.763 7.268
4.753 2.073 7.210
5.268 1.670 6.689
5.365 1.046 6.942
5.684 0.726 6.556
5.406 -0.015 6.723
2.466 11.562 9.396
2.949 10.674 9.492
2.937 10.256 9.160
3.207 9.878 8.750
3.298 9.509 8.585
3.490 8.549 8.966
3.378 8.076 8.403
3.343 7.640 8.482
3.707 7.021 8.186
3.768 6.488 8.277
3.464 6.483 8.609
3.731 5.795 8.172
3.924 5.286 8.355
3.711 4.646 8.149
3.756 4.145 7.905
4.252 3.737 8.009
4.299 3.002 7.571
4.462 2.876 7.375
4.616 2.001 7.426
4.584 1.728 7.235
4.701 0.808 7.348
4.739 0.417 7.239
2.134 11.375 9.910
2.025 10.706 9.303
2.526 10.184 9.648
2.434 9.497 9.538
2.528 9.165 9.242
3.085 8.728 9.081
3.234 8.019 9.084
2.955 7.260 8.844
3.204 6.686 8.627
3.252 6.289 8.446
12.159 12.154 2.310
12.204 11.505 2.155
11.628 12.279 2.837
12.057 12.059 3.036
12.256 8.060 2.340
12.435 7.470 2.102
11.383 12.122 3.069
12.167 7.156 2.288
12.472 6.872 2.151
11.733 7.129 2.371
11.741 6.743 2.433
10.084 12.283 4.233
10.618 6.569 2.759
10.748 5.971 2.460
8.915 11.830 3.854
9.851 7.110 3.438
9.816 6.352 3.160
9.912 5.792 3.196
10.148 5.460 2.541
8.422 12.518 4.728
8.702 11.834 4.314
8.552 11.182 4.148
9.142 7.609 3.677
9.517 7.090 3.740
9.421 6.553 3.492
9.917 5.934 3.395
10.084 5.368 3.289
9.998 4.890 3.074
8.028 12.013 4.970
8.269 11.505 4.595
8.434 11.317 4.520
8.552 10.725 4.393
8.954 7.682 3.911
9.094 6.979 4.124
8.909 6.791 3.692
9.266 6.031 3.736
9.077 5.465 3.362
9.581 5.081 3.661
9.630 4.596 3.153
9.883 3.825 3.212
7.530 12.778 5.553
7.324 12.053 4.952
7.908 11.585 5.241
7.871 10.701 5.132
7.712 10.525 4.554
8.300 10.044 4.631
8.317 7.525 4.284
8.335 6.996 4.140
8.507 6.623 4.275
8.764 5.868 3.832
8.676 5.579 3.630
8.892 4.716 3.445
9.362 4.325 3.478
9.480 3.662 3.349
6.858 12.541 5.694
7.211 12.048 5.681
7.122 11.200 5.584
7.126 10.887 5.176
7.622 10.328 4.968
7.410 9.438 5.146
7.999 6.715 4.646
7.916 6.027 4.682
8.501 5.932 4.080
8.370 5.391 3.930
8.502 4.406 3.786
8.830 3.959 4.083
6.431 12.364 6.073
6.487 11.552 5.786
6.955 10.910 5.599
6.889 10.358 5.692
7.157 9.739 5.594
7.578 5.915 4.880
7.554 5.762 4.814
7.713 4.908 4.573
7.976 4.532 4.301
6.228 12.177 6.221
5.992 11.335 6.004
6.339 10.818 5.991
6.258 10.275 5.621
7.145 5.160 4.710
7.370 4.945 4.494
5.819 11.053 6.143
5.883 10.605 6.423
5.736 4.292 5.940
5.469 4.226 6.006
4.222 10.283 7.864
4.412 9.682 7.289
5.001 5.013 6.772
5.362 4.120 6.388
5.312 3.668 6.025
5.564 3.312 5.892
3.534 10.894 7.849
3.542 10.176 7.688
3.529 9.537 8.026
3.780 9.180 7.654
4.367 5.391 7.053
4.796 4.460 6.665
4.608 4.224 6.795
4.721 3.620 6.524
4.989 2.835 6.531
5.126 2.300 6.437
2.701 11.241 8.700
3.137 10.823 8.108
3.181 10.147 8.031
3.227 9.326 8.289
3.402 8.789 7.909
3.795 8.623 8.061
3.701 5.811 7.405
4.086 5.156 7.215
4.243 4.279 6.998
4.499 3.868 7.205
4.496 3.580 6.785
4.383 2.913 6.488
4.847 2.465 6.764
5.084 1.581 6.306
2.000 11.376 8.681
2.174 10.965 8.850
2.657 10.547 8.838
2.929 10.021 8.372
2.839 9.251 8.623
2.799 8.887 8.120
2.910 8.458 7.910
3.453 7.595 7.994
3.267 5.467 7.617
3.553 4.603 7.698
3.568 4.270 7.591
3.968 3.520 7.446
3.778 3.443 7.224
4.350 2.872 7.215
4.000 2.190 6.684
4.265 1.559 6.705
1.912 11.266 9.257
1.733 10.665 9.003
2.042 10.232 8.739
2.389 9.914 8.815
2.434 9.325 8.527
2.455 8.413 8.667
2.885 8.182 8.225
2.695 7.755 8.010
12.136 12.316 1.942
12.335 8.278 1.375
11.149 12.731 2.345
12.391 7.438 1.383
12.168 7.166 1.308
9.599 6.545 2.733
9.670 6.187 2.436
7.934 12.241 4.133
8.444 11.755 3.780
8.953 7.055 2.777
9.064 6.335 2.695
9.502 5.666 2.778
9.352 5.098 2.563
7.543 12.393 4.349
7.802 11.898 4.344
7.899 11.270 4.032
8.588 6.961 3.344
8.506 6.883 3.534
8.682 6.072 3.094
8.718 5.589 3.264
9.339 4.956 2.942
9.312 4.608 2.634
6.900 12.360 4.602
7.219 12.244 4.601
7.439 11.278 4.360
7.320 11.171 4.692
7.423 10.400 4.431
8.311 6.787 3.801
8.375 6.511 3.415
8.318 6.009 3.695
8.725 5.133 3.484
8.882 4.876 3.331
8.902 4.410 2.887
6.687 12.464 5.075
6.866 11.649 4.876
6.912 11.275 4.633
7.068 10.646 4.830
7.054 10.169 4.482
7.781 6.239 3.956
7.921 5.497 3.885
8.038 5.070 3.594
8.265 4.575 3.739
6.012 12.179 5.268
6.092 11.759 5.289
6.329 11.039 5.150
6.413 10.528 5.098
7.429 5.499 3.906
7.495 5.170 4.212
5.652 11.647 5.795
5.792 10.999 5.549
4.892 4.173 5.913
4.886 4.081 6.072
3.145 10.255 7.661
3.459 9.875 7.367
4.360 4.792 6.490
4.432 3.910 6.502
4.663 3.413 6.308
4.521 2.871 5.993
2.589 10.736 7.867
2.642 10.006 7.765
2.817 9.538 7.807
3.334 8.747 7.395
3.412 5.041 6.754
4.013 4.464 6.469
4.059 3.912 6.413
3.898 3.495 6.384
4.132 2.783 6.059
4.566 2.563 6.168
2.297 11.107 8.199
1.956 10.227 7.964
2.589 9.802 8.070
2.428 9.538 7.764
2.521 8.956 7.730
2.670 8.530 7.829
3.150 5.106 7.259
3.518 4.343 7.007
3.261 3.543 6.874
3.586 3.021 6.943
3.746 2.773 6.602
3.908 1.947 6.495
1.735 10.885 8.825
1.833 10.381 8.622
2.069 9.648 8.223
2.036 9.302 8.046
2.012 8.776 8.139
2.324 8.302 8.020
12.290 7.554 0.969
12.493 7.296 0.596
9.247 6.473 2.093
9.676 6.038 1.989
7.811 12.666 3.584
8.005 12.026 3.341
8.507 6.870 2.628
8.902 6.309 2.357
9.053 6.070 2.451
9.062 5.494 1.963
7.323 12.091 3.886
7.227 11.663 4.049
7.454 11.098 3.768
8.119 7.109 2.752
8.572 6.514 2.983
8.190 6.364 2.896
8.447 5.873 2.475
9.000 4.964 2.411
8.842 4.800 2.311
6.951 11.888 4.091
7.002 11.581 4.249
7.055 11.205 3.944
7.161 10.622 3.878
7.821 6.800 3.069
8.048 6.554 3.235
7.802 6.064 3.177
7.976 5.641 3.157
8.176 4.831 2.987
8.443 4.150 2.583
6.180 12.178 4.514
6.410 11.830 4.808
6.515 11.060 4.441
6.805 10.754 4.423
7.117 10.370 4.142
7.371 6.139 3.740
7.441 5.727 3.616
7.560 5.419 3.332
7.679 4.507 3.177
5.827 12.337 4.720
5.966 11.592 4.918
6.111 11.363 4.846
6.126 10.630 4.503
6.994 5.311 3.502
7.067 4.829 3.552
5.298 11.450 5.241
5.871 10.718 4.937
4.372 4.344 5.361
4.677 4.083 5.468
2.807 10.253 6.977
3.209 9.957 6.967
3.999 4.896 5.856
4.247 4.261 5.656
4.381 3.540 5.543
4.096 3.111 5.662
2.190 10.682 7.306
2.227 9.901 7.457
2.477 9.649 7.204
2.805 9.218 7.196
3.320 5.055 6.277
3.683 4.426 6.177
3.381 3.826 5.847
3.951 3.219 5.832
4.008 2.985 5.941
4.101 2.319 5.464
1.995 11.114 8.028
2.134 10.195 7.634
1.945 9.820 7.816
2.366 9.330 7.604
2.162 8.677 7.305
2.610 8.402 7.112
2.675 4.944 6.590
2.748 4.535 6.676
3.207 4.072 6.528
3.482 3.135 6.103
3.606 2.643 6.206
3.376 2.037 6.115
1.449 10.906 8.096
1.416 10.117 7.855
1.354 9.770 8.087
1.636 9.324 7.824
2.058 8.828 7.633
1.874 8.120 7.315
12.445 8.289 0.178
12.393 7.711 -0.210
12.011 7.880 0.094
12.211 7.414 0.114
11.048 0.476 0.801
11.322 -0.056 0.687
10.396 0.850 0.863
10.351 0.577 1.014
9.767 1.314 1.661
10.078 0.843 1.642
9.873 0.011 1.230
9.165 0.920 1.665
9.451 0.617 1.656
9.426 0.114 1.645
8.821 0.658 2.120
10.705 0.503 0.315
10.991 0.042 0.214
9.816 0.776 0.763
10.347 0.220 0.599
9.439 1.226 1.246
9.472 0.625 1.003
9.513 0.458 0.667
9.018 1.087 1.443
9.094 0.410 1.351
8.995 0.180 1.182
8.899 0.560 1.422
9.304 1.844 0.106
9.404 1.078 0.281
9.557 0.428 0.048
8.820 2.141 0.540
9.050 1.205 0.543
9.065 1.062 0.204
9.149 0.060 0.197
8.452 1.489 0.982
8.795 0.968 0.885
8.689 0.407 0.842
9.091 0.037 0.584
8.150 1.209 1.039
8.527 0.422 1.211
7.932 0.467 1.467
8.812 1.959 0.323
8.643 1.413 0.256
8.072 1.630 0.354
8.148 1.103 0.272
8.471 0.440 0.282
8.795 -0.009 0.426
7.750 1.448 0.655
7.902 1.139 0.814
7.882 0.649 0.560
7.425 0.610 0.914
7.494 0.444 0.992
6.861 -0.145 1.348
4.088 0.140 3.424
7.574 1.890 0.290
7.160 1.778 0.260
7.559 0.797 0.420
7.735 0.497 0.255
6.959 1.181 0.590
7.347 1.122 0.470
7.341 0.454 0.551
6.514 0.494 1.034
6.755 0.383 0.516
4.266 0.102 2.800
3.798 0.265 3.112
6.357 1.245 0.202
6.638 1.078 0.169
5.970 1.030 0.783
6.378 0.652 0.455
6.664 0.026 0.117
5.669 0.235 0.770
5.664 0.361 0.819
5.013 -0.077 1.560
4.230 0.239 1.914
3.825 0.427 2.031
3.300 0.124 2.564
5.626 1.471 0.063
5.496 0.444 0.114
5.360 0.304 0.559
4.447 -0.008 0.763
4.199 0.422 1.197
3.877 0.433 1.787
3.290 -0.051 1.659
3.114 0.421 1.133
2.901 -0.091 1.463
2.464 0.218 1.078
12.457 0.129 6.530
12.397 1.553 6.370
12.213 0.932 6.113
12.178 0.117 5.880
11.929 0.758 6.161
12.232 0.040 6.394
12.359 1.843 5.411
12.162 1.205 5.252
12.788 0.705 5.181
11.826 1.601 5.842
11.803 1.131 5.287
12.158 0.534 5.498
11.614 1.186 5.841
11.677 0.800 5.867
11.432 -0.043 5.967
11.337 0.263 6.353
12.205 1.704 4.601
12.480 1.067 4.597
11.882 1.567 5.064
12.174 1.388 4.816
12.276 0.447 4.544
12.597 -0.163 4.470
11.270 1.702 5.387
11.556 1.033 5.236
11.997 0.492 4.997
10.930 1.010 5.741
10.952 0.757 5.558
11.157 0.113 5.351
10.398 0.985 5.947
10.583 0.778 5.500
10.841 0.084 5.299
10.434 0.513 5.827
12.392 2.147 3.708
12.052 1.627 4.334
12.256 1.430 3.858
12.340 0.670 4.007
12.360 0.065 3.868
11.723 1.489 4.639
11.999 1.312 4.185
12.118 0.839 3.976
11.771 0.182 3.896
10.955 1.587 4.925
11.331 0.827 4.796
11.294 0.499 4.491
10.553 1.213 5.154
10.847 0.941 4.750
11.169 0.299 4.942
10.475 0.985 5.451
10.306 0.749 5.479
10.516 0.292 5.319
9.770 1.178 5.445
10.209 0.203 5.745
9.670 0.395 5.609
8.187 0.253 6.910
12.220 2.312 3.383
12.412 1.547 3.080
12.396 1.207 2.858
11.507 2.125 3.581
11.938 1.200 3.344
12.044 0.810 3.231
12.107 0.455 3.523
11.007 1.473 3.997
11.155 1.375 3.613
11.678 0.505 3.943
11.816 -0.085 3.575
10.938 1.695 4.525
10.833 0.907 4.320
11.058 0.259 3.859
10.230 1.284 4.633
10.761 0.656 4.356
10.472 0.287 4.166
9.944 1.374 4.731
9.836 0.559 4.877
10.269 0.321 4.791
9.345 0.692 5.298
9.377 0.172 5.046
9.436 0.440 5.128
8.542 -0.030 5.534
7.804 0.212 6.608
12.585 1.726 2.374
12.804 1.166 2.331
11.717 2.322 2.904
11.980 1.528 2.978
12.028 1.129 2.483
12.152 0.531 2.677
11.423 1.829 3.304
11.393 1.392 3.340
11.535 0.872 2.934
11.553 0.142 2.802
11.081 1.813 3.717
11.244 1.428 3.388
11.302 0.809 3.166
11.368 0.083 3.137
10.347 1.323 3.602
10.459 1.275 3.559
10.834 0.305 3.641
9.987 1.606 4.297
10.034 0.744 3.865
10.336 0.056 3.790
9.533 0.953 4.431
9.915 0.687 4.061
9.843 0.129 3.958
9.493 0.680 4.435
12.206 1.029 2.111
12.261 0.496 1.626
12.393 0.472 1.764
11.704 1.383 2.265
11.790 1.083 2.397
11.717 0.311 2.284
12.139 0.067 1.999
10.907 1.712 2.990
11.404 1.277 2.491
11.417 1.127 2.681
11.260 0.402 2.167
10.668 1.517 3.138
10.914 1.236 2.784
11.096 0.596 2.872
11.227 0.161 2.831
10.130 1.342 3.518
10.367 0.827 3.392
10.466 0.285 3.296
9.537 1.480 3.497
10.113 0.860 3.647
10.110 0.541 3.601
9.419 0.763 3.817
9.806 -0.058 3.878
12.279 0.945 1.203
11.923 0.010 1.019
11.347 1.199 1.512
11.576 0.459 1.819
11.873 0.068 1.443
10.984 1.587 2.329
10.892 1.076 2.082
10.938 0.430 1.679
10.388 1.579 2.742
10.589 1.522 2.255
10.426 0.520 2.103
10.876 0.360 1.938
9.605 1.696 2.953
9.961 1.205 2.860
10.325 0.697 2.788
10.472 -0.043 2.697
9.706 1.092 2.982
9.526 0.359 2.726
9.452 -0.053 3.419
11.372 0.478 1.168
11.478 0.162 1.012
10.901 1.166 1.769
10.895 0.561 1.582
9.938 1.474 1.731
10.420 0.944 1.877
10.601 0.477 1.887
9.843 1.135 2.242
9.702 0.503 2.347
9.893 0.039 2.007
9.174 0.549 2.317
10.701 0.779 0.535
10.982 0.101 0.306
10.419 0.989 1.234
10.407 0.228 1.101
9.775 1.217 1.509
10.147 0.654 1.489
9.999 0.043 1.440
9.365 1.233 1.740
9.646 0.848 1.876
9.567 0.234 1.732
8.871 0.300 2.098
0.135 4.702 0.332
0.134 3.917 0.044
-0.162 2.502 0.344
7.175 1.987 12.668
7.680 1.855 12.306
6.437 3.560 12.176
6.508 3.515 12.398
6.613 2.667 11.876
6.778 2.198 12.156
6.403 2.383 12.637
6.249 3.934 11.821
6.294 3.097 11.877
6.354 2.956 11.547
6.658 2.428 11.294
5.937 3.259 12.348
6.045 2.773 11.888
2.444 12.754 12.176
2.537 12.057 12.336
3.097 11.348 11.904
2.181 12.659 11.988
2.484 11.842 11.500
2.529 11.680 11.433
1.627 12.125 11.878
1.802 11.861 12.008
1.867 11.553 11.703
1.963 11.825 10.985
2.025 11.374 10.862
1.728 12.465 11.653
1.601 11.715 11.230
1.821 11.448 11.518
1.717 11.983 10.669
1.776 11.764 10.678
2.383 3.999 7.010
2.635 3.376 6.730
3.013 3.236 6.450
2.854 2.433 6.668
0.934 9.989 8.394
1.391 9.678 8.164
1.198 8.843 8.223
1.270 8.496 8.074
2.420 3.167 6.764
2.379 2.758 6.965
0.793 9.376 8.395
0.783 8.876 8.464
2.114 4.224 6.578
2.608 3.799 6.055
2.560 2.915 5.919
2.427 2.710 5.896
0.538 9.892 7.808
1.066 9.351 7.719
0.743 8.823 7.646
1.288 8.692 7.322
1.748 3.661 6.482
2.302 2.910 6.442
0.409 9.283 7.921
0.516 8.824 7.962
1.503 4.656 6.056
1.696 4.355 6.087
1.897 3.928 6.030
2.005 3.183 5.630
2.137 2.341 5.522
2.679 2.319 5.153
-0.015 10.645 7.461
0.480 9.851 7.434
0.552 9.489 7.257
0.576 8.862 7.283
0.711 8.248 6.862
0.777 7.745 6.947
1.696 4.039 6.374
1.605 3.564 6.125
1.688 3.072 5.873
1.813 2.407 5.680
0.045 9.223 7.820
0.000 8.875 7.614
0.163 8.219 7.323
1.379 3.397 6.340
1.528 2.851 6.341
0.274 2.499 6.621
1.053 5.337 5.761
1.618 4.811 5.589
1.564 4.366 5.466
1.501 3.898 5.079
1.749 2.952 5.028
2.002 2.674 4.866
2.001 1.839 4.683
2.317 1.481 4.992
0.362 9.766 6.818
0.484 8.853 6.790
0.373 8.370 6.601
0.551 7.956 6.483
0.642 7.431 5.995
1.111 4.350 5.933
1.268 4.140 5.800
1.013 3.543 5.574
1.155 2.972 5.410
1.711 2.351 5.595
1.886 1.989 5.401
0.382 7.730 6.566
0.738 4.069 6.092
0.612 3.192 5.991
1.194 2.738 5.650
1.244 2.040 5.678
0.622 2.871 6.274
0.777 2.807 6.246
0.118 2.139 6.180
0.796 6.543 5.519
0.930 5.705 5.526
1.072 5.310 5.288
1.322 4.720 5.260
1.427 4.238 4.892
1.421 3.925 4.697
1.520 2.956 4.699
1.815 2.876 4.710
1.804 2.048 4.314
2.073 1.359 4.365
1.962 1.148 3.986
2.066 0.449 3.949
0.190 8.574 6.004
0.138 7.794 6.123
0.145 7.358 5.728
0.369 6.948 5.698
0.704 6.412 5.324
0.726 5.000 5.817
0.883 4.531 5.460
0.669 4.248 5.464
1.184 3.513 5.271
1.288 3.225 5.107
1.378 2.588 4.899
1.215 2.115 4.569
1.456 1.390 4.842
-0.024 4.627 5.974
0.260 3.921 5.477
0.434 3.377 5.709
0.505 2.619 5.367
0.867 2.243 4.976
1.161 1.881 5.016
-0.000 3.196 5.803
0.141 2.383 5.437
0.571 2.273 5.730
0.474 6.537 4.977
0.436 6.053 4.840
0.709 5.338 4.930
0.795 5.090 4.478
0.899 4.087 4.613
1.255 3.589 4.178
1.375 2.962 4.427
1.582 2.472 4.262
1.574 2.031 3.998
1.577 1.399 3.998
1.503 1.182 3.729
1.721 0.471 3.377
2.154 -0.148 3.616
-0.177 7.764 5.149
0.318 6.944 5.339
0.588 6.375 5.098
-0.094 5.816 5.038
0.057 5.145 4.915
0.221 4.509 4.719
0.524 4.320 4.594
0.394 3.616 4.938
0.850 3.147 4.333
0.856 2.739 4.466
1.240 2.002 4.408
1.095 1.664 3.951
1.210 0.933 4.141
1.292 0.486 4.017
-0.087 4.158 5.265
0.156 3.616 4.994
0.189 2.772 4.892
0.320 2.518 4.632
0.524 1.609 4.738
0.823 1.000 4.370
-0.165 1.946 4.885
0.074 1.774 4.974
-0.115 6.052 4.264
0.422 5.666 4.100
0.358 4.783 4.194
0.769 4.323 4.249
0.520 3.803 4.091
1.050 3.350 4.043
0.756 2.715 3.593
1.294 2.105 3.512
1.331 1.645 3.535
1.618 0.973 3.153
1.769 0.403 3.049
1.680 0.141 2.730
0.269 4.324 4.577
0.334 3.646 4.466
0.492 2.974 4.104
0.743 2.519 3.700
0.570 1.965 3.690
0.773 1.682 3.759
0.780 0.974 3.628
0.968 0.232 3.403
0.202 2.354 4.282
0.370 1.923 3.933
0.384 1.154 3.872
0.290 4.777 3.918
0.242 4.335 3.824
0.571 4.057 3.548
0.334 3.380 3.117
0.770 2.772 3.283
0.754 2.151 3.037
0.732 1.821 3.166
0.887 1.056 2.646
1.430 0.530 2.826
1.540 0.217 2.745
0.029 2.934 3.865
0.340 2.538 3.253
0.549 1.907 3.397
0.620 1.281 3.131
0.206 4.093 2.900
0.129 3.460 2.997
0.201 2.705 2.781
0.616 2.075 2.574
0.423 1.606 2.396
-0.201 1.999 2.880
-0.091 2.774 2.415
-0.047 2.347 1.983
5.826 3.862 11.610
5.910 3.591 11.244
6.369 2.598 11.039
6.271 2.236 11.095
4.533 7.966 12.819
5.582 3.118 11.679
5.479 2.480 11.569
5.338 4.657 11.311
5.528 3.634 11.251
5.828 3.162 11.058
6.011 2.699 11.010
6.197 2.207 10.742
5.996 1.786 10.541
3.814 9.938 12.761
4.228 9.348 12.555
4.256 8.947 12.382
4.637 8.211 12.337
4.575 7.435 12.133
4.972 3.576 11.438
5.076 3.269 11.079
5.280 2.656 11.226
5.435 2.237 11.016
3.749 8.660 12.672
3.794 7.838 12.265
4.843 2.945 11.738
4.950 2.374 11.189
3.572 2.528 11.793
3.667 2.271 11.315
2.990 2.666 11.786
3.263 1.690 11.863
2.296 2.845 12.265
2.852 1.983 12.031
2.767 1.437 12.273
3.137 1.222 12.039
2.119 2.271 12.520
2.479 1.710 12.444
2.639 1.208 12.333
2.622 0.496 12.111
2.289 0.047 12.524
5.125 4.940 10.842
5.040 4.694 10.898
5.064 3.679 10.488
5.281 3.539 10.666
5.353 3.108 10.202
5.837 2.130 10.232
5.753 1.926 9.858
6.134 1.046 9.839
3.354 11.055 12.228
3.669 10.534 12.374
3.894 9.874 12.185
3.990 9.068 11.846
3.878 8.512 11.536
3.881 8.185 11.544
4.031 7.537 11.450
4.292 7.286 11.255
