3.451 7.659 4.998
3.430 7.358 4.713
3.447 6.811 4.661
3.374 6.493 4.481
3.271 6.017 4.246
3.240 5.614 3.969
3.253 5.210 3.896
3.071 2.025 2.299
2.996 1.580 2.106
3.015 1.271 2.005
2.986 0.768 1.720
2.911 0.459 1.490
2.967 7.717 4.870
3.004 7.288 4.741
2.903 6.895 4.612
2.945 6.470 4.379
2.890 6.104 4.238
2.787 5.780 4.000
2.852 5.274 3.719
2.648 2.054 2.234
2.614 1.594 2.052
2.439 1.254 1.837
2.498 0.875 1.652
2.501 0.523 1.567
2.469 0.054 1.305
2.575 7.473 4.703
2.453 7.073 4.460
2.522 6.531 4.327
2.447 6.124 4.089
2.464 5.787 3.930
2.041 1.718 2.052
2.103 1.308 1.797
2.079 0.959 1.565
2.076 0.522 1.453
1.901 0.032 1.288
2.002 7.001 4.496
2.115 6.587 4.300
2.076 6.252 4.012
1.600 1.443 1.712
1.564 0.908 1.608
1.548 0.623 1.343
11.035 6.052 5.037
11.001 5.666 4.863
10.910 5.221 4.787
10.563 0.366 2.452
10.582 6.511 5.205
10.507 6.097 5.113
10.574 5.748 4.866
10.504 5.356 4.667
10.373 4.935 4.454
10.171 0.802 2.627
10.076 0.370 2.432
10.079 -0.046 2.196
10.184 6.951 5.400
10.058 6.495 5.147
10.027 6.109 4.938
10.015 5.776 4.843
10.111 5.273 4.652
10.037 4.948 4.477
9.990 4.516 4.312
9.728 1.245 2.756
9.605 0.962 2.495
9.701 0.431 2.305
9.579 0.146 2.184
9.650 7.036 5.339
9.672 6.591 5.126
9.644 6.252 4.937
9.571 5.774 4.722
9.514 5.367 4.576
9.492 5.014 4.449
9.490 4.528 4.231
9.349 1.310 2.665
9.214 0.963 2.431
9.248 0.579 2.253
9.101 0.099 2.172
9.223 7.078 5.243
9.325 6.616 5.075
9.171 6.261 4.859
9.116 5.940 4.770
9.148 5.474 4.510
9.155 5.021 4.344
9.165 4.593 4.197
8.861 1.335 2.657
8.726 0.963 2.400
8.792 0.644 2.312
8.778 0.204 1.976
8.874 6.808 5.020
8.791 6.379 4.823
8.782 5.963 4.679
8.728 5.553 4.486
8.725 5.131 4.273
8.390 1.123 2.423
8.324 0.590 2.222
8.336 0.191 1.973
8.255 6.351 4.868
8.301 6.045 4.547
8.256 5.650 4.487
7.839 0.746 2.099
7.814 0.370 1.905
4.820 6.857 4.335
4.828 6.521 4.166
4.771 6.065 4.012
4.355 1.169 1.651
4.303 0.844 1.538
4.345 0.395 1.342
4.469 7.335 4.505
4.337 6.969 4.350
4.277 6.557 4.187
4.359 6.123 3.856
4.238 5.693 3.755
3.877 1.730 1.772
3.953 1.336 1.670
3.853 0.935 1.522
3.914 0.521 1.341
3.840 0.046 1.125
3.907 7.817 4.591
3.877 7.386 4.410
3.868 6.972 4.206
3.851 6.628 4.019
3.831 6.125 3.912
3.764 5.739 3.651
3.711 5.330 3.541
3.574 2.173 1.957
3.508 1.704 1.739
3.507 1.358 1.652
3.392 0.973 1.369
3.334 0.461 1.166
3.399 0.098 0.957
3.518 7.906 4.641
3.497 7.481 4.391
3.458 7.024 4.166
3.368 6.641 4.065
3.373 6.223 3.819
3.416 5.792 3.638
3.326 5.384 3.511
3.117 2.226 1.887
3.023 1.842 1.769
3.085 1.333 1.517
2.972 1.051 1.317
2.958 0.541 1.225
2.864 0.166 1.000
3.039 7.958 4.453
2.995 7.459 4.384
3.096 7.137 4.075
2.971 6.646 3.928
2.918 6.348 3.737
2.910 5.925 3.643
2.904 5.475 3.421
2.649 2.233 1.893
2.569 1.870 1.729
2.520 1.447 1.545
2.609 1.098 1.364
2.460 0.661 1.127
2.492 0.197 0.925
2.669 7.619 4.226
2.538 7.161 4.074
2.592 6.725 3.821
2.473 6.397 3.681
2.438 6.021 3.492
2.236 1.846 1.686
2.203 1.476 1.388
2.184 1.083 1.258
2.054 0.712 0.990
2.039 0.229 0.845
2.207 7.245 4.050
2.144 6.873 3.901
2.076 6.399 3.673
1.676 1.548 1.389
1.751 1.133 1.174
1.592 0.757 1.038
0.128 0.479 12.523
3.288 0.188 12.466
2.832 0.271 12.545
2.488 0.273 12.363
2.002 0.414 12.425
1.649 0.884 12.571
1.525 0.426 12.325
1.468 0.057 12.086
1.200 0.918 12.478
1.187 0.565 12.322
1.081 0.129 12.145
0.715 1.005 12.436
0.680 0.555 12.197
0.682 0.067 12.027
0.301 1.379 12.606
0.218 0.993 12.365
0.168 0.587 12.136
0.135 0.127 11.935
6.096 0.078 12.493
3.848 0.663 12.429
3.443 1.241 12.450
3.474 0.755 12.386
3.397 0.329 12.083
3.089 1.248 12.470
2.949 0.773 12.312
3.007 0.354 12.147
2.932 0.100 11.819
2.633 1.267 12.447
2.515 0.866 12.283
2.555 0.432 11.997
2.511 0.101 11.854
2.172 1.748 12.514
2.174 1.380 12.344
2.045 1.019 12.188
2.129 0.618 11.908
1.980 0.104 11.838
1.697 1.889 12.441
1.661 1.433 12.323
1.653 1.047 12.116
1.567 0.662 11.906
1.584 0.246 11.789
1.224 1.820 12.463
1.290 1.517 12.240
1.186 1.047 12.039
1.277 0.643 11.789
1.163 0.260 11.662
0.832 1.974 12.452
0.899 1.545 12.154
0.779 1.186 11.974
0.837 0.747 11.833
0.695 0.272 11.571
0.486 2.391 12.480
0.374 2.071 12.358
0.320 1.560 12.060
0.380 1.166 12.017
0.358 0.760 11.836
0.288 0.424 11.548
-0.027 2.536 12.427
8.437 0.354 12.585
7.887 0.329 12.525
7.464 0.419 12.416
7.531 0.032 12.164
7.020 0.862 12.544
6.979 0.438 12.377
6.956 0.060 12.134
6.689 0.992 12.551
6.629 0.534 12.271
6.523 0.134 12.146
6.152 0.927 12.372
6.120 0.578 12.313
6.181 0.218 12.011
5.809 1.033 12.456
5.777 0.600 12.215
5.332 1.565 12.483
5.329 1.092 12.366
4.979 1.633 12.408
4.905 1.196 12.243
4.500 1.597 12.394
4.406 1.195 12.204
4.029 2.109 12.513
3.992 1.712 12.325
3.929 1.327 12.159
3.880 0.852 12.038
3.647 2.247 12.524
3.515 1.698 12.359
3.549 1.402 12.118
3.583 0.927 11.912
3.500 0.593 11.660
3.147 2.195 12.455
3.175 1.904 12.178
3.173 1.458 12.067
3.058 1.023 11.864
3.078 0.551 11.636
2.930 0.257 11.503
2.739 2.286 12.440
2.637 1.827 12.263
2.600 1.558 12.073
2.638 1.005 11.806
2.536 0.702 11.580
2.531 0.291 11.513
2.347 2.750 12.475
2.345 2.395 12.377
2.235 2.019 12.166
2.226 1.558 12.011
2.243 1.133 11.702
2.222 0.764 11.632
2.089 0.251 11.361
1.875 2.839 12.532
1.828 2.402 12.272
1.800 2.077 12.051
1.840 1.664 11.891
1.779 1.190 11.724
1.740 0.728 11.497
1.687 0.460 11.263
1.417 2.915 12.394
1.474 2.422 12.153
1.431 2.143 12.083
1.263 1.700 11.907
1.268 1.223 11.731
1.270 0.864 11.390
1.312 0.418 11.321
1.149 0.091 11.145
1.096 3.364 12.542
0.925 2.887 12.369
0.987 2.469 12.154
0.979 2.057 12.019
0.840 1.745 11.741
0.921 1.377 11.538
0.849 0.908 11.427
0.809 0.565 11.236
0.841 0.070 10.966
0.521 3.410 12.454
0.514 3.063 12.244
0.515 2.589 12.152
0.412 2.254 11.866
0.514 1.748 11.810
0.447 1.401 11.534
0.321 1.048 11.331
0.362 0.506 11.168
0.356 0.132 10.939
0.158 3.532 12.374
0.070 3.116 12.282
0.114 2.695 12.086
0.088 2.269 11.851
0.069 1.873 11.614
10.205 0.598 12.511
9.873 0.636 12.533
9.766 0.256 12.304
9.304 0.700 12.359
9.359 0.333 12.173
8.875 1.248 12.538
8.992 0.895 12.339
8.892 0.467 12.225
8.898 0.013 11.984
8.582 1.311 12.540
8.463 0.903 12.234
8.513 0.399 12.058
8.336 0.050 11.853
8.041 1.398 12.425
8.093 0.904 12.209
8.014 0.464 12.083
7.954 0.171 11.821
7.626 1.425 12.363
7.569 1.054 12.208
7.517 0.666 11.967
7.468 0.208 11.796
7.146 1.835 12.520
7.259 1.534 12.404
7.106 1.036 12.177
7.100 0.627 12.031
7.088 0.298 11.706
6.710 1.945 12.459
6.685 1.544 12.308
6.668 1.048 12.044
6.617 0.672 11.892
6.661 0.258 11.750
6.292 2.053 12.483
6.276 1.529 12.301
6.331 1.248 11.999
6.297 0.803 11.878
5.937 2.394 12.610
5.943 2.021 12.429
5.819 1.600 12.249
5.751 1.174 12.060
5.520 2.484 12.520
5.493 2.071 12.263
5.380 1.678 12.091
4.961 2.525 12.472
4.948 2.130 12.234
5.012 1.791 12.039
4.635 2.694 12.353
4.607 2.172 12.129
4.572 1.880 12.078
4.199 3.166 12.475
4.162 2.740 12.372
4.166 2.286 12.221
4.139 1.929 11.897
4.129 1.487 11.804
3.754 3.152 12.397
3.669 2.799 12.300
3.618 2.400 12.048
3.632 1.920 11.921
3.656 1.539 11.649
3.626 1.137 11.490
3.272 3.281 12.450
3.268 2.866 12.213
3.205 2.439 12.039
3.223 1.989 11.777
3.247 1.652 11.685
3.201 1.165 11.530
3.058 0.761 11.355
2.849 3.719 12.565
2.851 3.219 12.302
2.900 2.952 12.218
2.826 2.444 11.914
2.827 2.136 11.720
2.689 1.682 11.655
2.690 1.243 11.354
2.708 0.778 11.255
2.701 0.500 11.052
2.598 0.027 10.765
2.454 3.761 12.544
2.371 3.352 12.340
2.447 2.958 12.177
2.289 2.562 11.986
2.405 2.083 11.763
2.299 1.718 11.541
2.302 1.353 11.304
2.204 0.910 11.101
2.200 0.435 10.925
2.236 0.122 10.807
2.074 3.746 12.365
2.049 3.472 12.279
1.886 3.007 12.059
1.898 2.595 11.865
1.848 2.201 11.673
1.900 1.723 11.430
1.848 1.308 11.334
1.788 1.019 11.174
1.816 0.582 10.852
1.696 0.226 10.744
1.520 3.944 12.378
1.515 3.521 12.206
1.542 3.105 11.954
1.480 2.584 11.769
1.450 2.310 11.691
1.340 1.805 11.498
1.394 1.521 11.291
1.405 0.962 11.029
1.367 0.683 10.847
1.322 0.210 10.725
1.151 4.391 12.505
1.157 3.911 12.279
1.057 3.580 12.145
1.086 3.075 11.930
0.987 2.643 11.707
1.007 2.372 11.603
1.010 1.882 11.445
1.018 1.536 11.168
0.863 1.115 10.964
0.896 0.734 10.832
0.855 0.223 10.550
0.700 4.370 12.479
0.626 4.004 12.212
0.726 3.589 12.028
0.632 3.225 11.857
0.540 2.728 11.680
0.526 2.327 11.457
0.561 1.891 11.267
0.560 1.545 11.067
0.513 1.174 10.925
0.264 4.429 12.341
0.304 4.133 12.236
0.161 3.658 12.080
0.160 3.269 11.793
0.224 2.777 11.728
0.177 2.460 11.415
0.074 2.022 11.340
-0.017 1.688 11.152
10.841 1.532 12.552
10.373 1.633 12.465
10.377 1.242 12.280
9.957 1.622 12.517
9.870 1.300 12.266
9.915 0.880 12.030
9.461 1.806 12.433
9.397 1.367 12.130
9.449 0.887 12.066
9.374 0.517 11.874
9.068 2.283 12.526
9.129 1.827 12.342
9.006 1.411 12.136
8.943 1.013 11.974
8.990 0.566 11.803
8.917 0.242 11.510
8.695 2.204 12.536
8.590 1.834 12.214
8.607 1.534 12.028
8.588 1.010 11.953
8.502 0.731 11.641
8.453 0.229 11.584
8.262 2.379 12.408
8.232 1.994 12.255
8.099 1.608 11.968
8.123 1.075 11.828
8.141 0.683 11.686
7.973 0.367 11.433
7.727 2.782 12.485
7.801 2.326 12.347
7.730 2.007 12.152
7.765 1.555 11.984
7.729 1.177 11.733
7.675 0.774 11.634
7.584 0.318 11.404
7.367 2.885 12.474
7.317 2.519 12.268
7.287 2.052 12.094
7.272 1.697 11.951
7.209 1.195 11.705
7.252 0.771 11.610
7.199 0.410 11.304
6.879 3.001 12.440
6.902 2.499 12.183
6.833 2.104 12.125
6.867 1.683 11.859
6.760 1.286 11.670
6.811 0.830 11.503
6.397 3.062 12.318
6.440 2.585 12.264
6.342 2.175 12.061
6.385 1.698 11.836
6.359 1.420 11.703
6.083 3.529 12.582
6.067 3.108 12.323
6.056 2.592 12.168
6.004 2.255 11.908
5.895 1.878 11.712
5.653 3.182 12.303
5.486 2.632 12.130
5.565 2.254 11.843
5.143 3.151 12.200
5.125 2.732 12.076
5.099 2.404 11.805
4.680 3.159 12.241
4.691 2.752 12.030
4.694 2.384 11.868
4.284 3.764 12.332
4.280 3.303 12.172
4.215 2.952 11.874
4.233 2.547 11.764
4.186 2.043 11.546
3.917 4.099 12.515
3.924 3.728 12.318
3.793 3.410 12.069
3.728 2.881 11.941
3.770 2.511 11.747
3.697 2.122 11.568
3.731 1.801 11.303
3.522 4.204 12.417
3.484 3.836 12.179
3.337 3.381 12.053
3.353 3.073 11.892
3.253 2.577 11.665
3.261 2.139 11.391
3.251 1.726 11.284
3.189 1.308 11.126
2.983 4.703 12.603
2.981 4.284 12.293
2.904 3.825 12.074
3.017 3.407 11.928
2.888 3.111 11.795
2.879 2.611 11.614
2.860 2.304 11.347
2.784 1.841 11.206
2.771 1.373 11.080
2.769 0.964 10.826
2.645 4.680 12.442
2.612 4.298 12.318
2.456 4.009 12.066
2.426 3.552 11.869
2.515 3.100 11.761
2.421 2.764 11.534
2.409 2.306 11.262
2.298 1.832 11.118
2.344 1.573 10.892
2.254 1.092 10.779
2.208 0.665 10.569
2.253 0.218 10.369
2.189 4.887 12.451
2.098 4.477 12.247
2.086 3.994 12.035
2.045 3.590 11.783
2.099 3.200 11.692
1.916 2.849 11.414
1.911 2.344 11.307
1.985 2.003 11.067
1.865 1.573 10.963
1.883 1.202 10.728
1.818 0.746 10.575
1.795 0.415 10.335
1.771 5.310 12.601
1.742 4.888 12.393
1.734 4.485 12.191
1.573 4.092 12.052
1.578 3.633 11.871
1.585 3.288 11.560
1.474 2.789 11.444
1.472 2.461 11.167
1.471 1.986 11.013
1.526 1.596 10.855
1.392 1.289 10.675
1.355 0.798 10.485
1.283 0.423 10.218
1.346 -0.037 10.080
1.359 5.377 12.463
1.256 4.957 12.354
1.245 4.520 12.145
1.271 4.045 11.914
1.207 3.688 11.782
1.176 3.361 11.545
1.156 2.891 11.320
1.109 2.445 11.196
1.075 2.025 10.961
1.022 1.688 10.805
0.937 1.278 10.674
0.843 4.933 12.295
0.821 4.625 12.111
0.767 4.190 11.868
0.691 3.739 11.754
0.737 3.421 11.544
0.688 2.988 11.255
0.576 2.567 11.115
0.668 2.123 10.899
0.604 1.677 10.763
0.327 4.691 11.967
0.374 4.292 11.783
0.291 3.840 11.675
0.200 3.396 11.443
0.164 3.034 11.278
0.268 2.584 11.094
0.127 2.242 10.916
10.479 2.665 12.487
10.472 2.207 12.324
10.465 1.876 12.081
10.107 2.676 12.383
10.067 2.243 12.279
10.088 1.943 12.098
10.042 1.412 11.868
9.647 3.219 12.640
9.654 2.764 12.436
9.630 2.407 12.179
9.585 1.935 11.998
9.470 1.593 11.728
9.540 1.090 11.549
9.284 3.213 12.468
9.246 2.792 12.347
9.103 2.327 12.133
9.199 1.931 11.910
9.023 1.633 11.710
9.036 1.188 11.630
9.025 0.746 11.414
8.777 3.218 12.392
8.822 2.822 12.195
8.768 2.437 12.038
8.721 2.040 11.818
8.628 1.583 11.718
8.665 1.255 11.523
8.626 0.803 11.311
8.632 0.360 11.100
8.273 3.388 12.408
8.376 3.009 12.147
8.327 2.505 11.985
8.281 2.156 11.798
8.277 1.707 11.644
8.121 1.384 11.514
8.183 0.933 11.276
8.122 0.537 11.089
7.878 3.732 12.596
7.929 3.365 12.271
7.897 3.049 12.151
7.868 2.515 12.003
7.762 2.250 11.796
7.755 1.830 11.581
7.736 1.295 11.378
7.753 0.941 11.167
7.730 0.509 11.080
7.466 3.846 12.436
7.519 3.473 12.354
7.443 3.059 12.042
7.466 2.606 11.858
7.434 2.219 11.663
7.345 1.772 11.533
7.329 1.355 11.330
7.284 1.087 11.125
7.008 3.872 12.386
7.020 3.467 12.243
7.012 3.050 12.083
7.031 2.715 11.874
6.887 2.328 11.670
6.869 1.875 11.516
6.886 1.525 11.281
6.597 3.532 12.184
6.507 3.095 12.033
6.545 2.712 11.876
6.497 2.355 11.644
6.488 1.910 11.445
6.143 3.239 11.873
5.997 2.881 11.814
6.038 2.414 11.553
4.415 3.446 11.759
4.304 3.043 11.459
4.299 2.721 11.297
3.873 3.876 11.820
3.876 3.515 11.724
3.803 3.203 11.444
3.778 2.764 11.224
3.832 2.344 11.101
3.502 4.429 11.923
3.505 3.961 11.808
3.490 3.672 11.682
3.497 3.239 11.442
3.348 2.839 11.291
3.363 2.364 11.049
3.318 1.999 10.852
3.115 4.904 12.151
3.037 4.397 11.932
2.970 4.036 11.761
3.070 3.686 11.533
2.919 3.222 11.342
2.877 2.809 11.222
2.840 2.390 11.029
2.918 2.093 10.828
2.795 1.579 10.573
2.670 5.277 12.186
2.736 4.996 12.075
2.609 4.587 11.929
2.561 4.116 11.698
2.650 3.753 11.487
2.533 3.375 11.251
2.578 2.966 11.200
2.514 2.541 10.934
2.394 2.086 10.705
2.335 1.747 10.580
2.320 1.209 10.315
2.299 5.385 12.202
2.254 5.045 11.954
2.237 4.654 11.777
2.199 4.211 11.592
2.143 3.836 11.379
2.057 3.323 11.201
2.009 2.895 11.011
2.060 2.612 10.823
1.974 2.106 10.717
1.904 1.711 10.506
1.923 1.280 10.274
1.753 5.492 12.088
1.807 4.977 11.978
1.760 4.697 11.807
1.787 4.311 11.618
1.706 3.912 11.448
1.636 3.437 11.193
1.704 3.023 10.961
1.568 2.672 10.747
1.566 2.247 10.623
1.532 1.810 10.474
1.532 1.382 10.230
1.422 5.058 11.982
1.240 4.628 11.672
1.267 4.265 11.573
1.298 3.879 11.297
1.231 3.520 11.195
1.250 3.149 10.935
1.078 2.650 10.781
1.168 2.245 10.511
1.029 1.820 10.445
0.864 4.796 11.596
0.787 4.371 11.472
0.812 3.970 11.230
0.802 3.621 11.087
0.734 3.159 10.944
0.732 2.722 10.643
0.657 2.329 10.556
0.444 4.394 11.407
0.385 4.042 11.273
0.268 3.540 11.109
0.374 3.148 10.781
0.285 2.807 10.661
10.145 2.906 12.054
10.111 2.467 11.798
10.040 2.119 11.572
9.668 3.373 12.171
9.781 2.906 11.901
9.732 2.469 11.759
9.631 2.060 11.538
9.548 1.719 11.363
9.398 3.855 12.317
9.338 3.404 12.112
9.235 3.055 11.879
9.204 2.614 11.709
9.146 2.196 11.568
9.164 1.772 11.405
9.075 1.423 11.165
8.936 4.206 12.500
8.940 3.904 12.229
8.868 3.391 12.044
8.859 3.014 11.887
8.737 2.642 11.697
8.836 2.263 11.479
8.767 1.861 11.243
8.731 1.446 11.057
8.662 1.060 10.945
8.481 4.382 12.320
8.398 3.898 12.260
8.437 3.485 11.965
8.435 3.129 11.769
8.330 2.673 11.647
8.311 2.297 11.376
8.301 1.943 11.179
8.314 1.460 11.042
8.240 1.049 10.898
7.982 4.432 12.351
8.052 4.041 12.166
7.922 3.636 11.962
8.008 3.169 11.738
7.904 2.828 11.517
7.820 2.317 11.379
7.876 1.963 11.131
7.878 1.493 10.999
7.727 1.200 10.848
7.640 4.007 12.143
7.553 3.660 11.955
7.581 3.284 11.766
7.426 2.868 11.488
7.513 2.391 11.354
7.420 2.050 11.073
7.353 1.549 11.010
7.053 3.685 11.903
7.090 3.310 11.691
7.064 2.922 11.445
6.951 2.518 11.236
6.935 2.129 11.126
6.607 3.414 11.583
6.574 2.881 11.366
6.491 2.607 11.146
3.965 3.674 11.235
3.970 3.360 11.034
3.886 2.952 10.828
3.530 4.156 11.326
3.526 3.764 11.224
3.422 3.403 11.086
3.459 2.898 10.769
3.447 2.504 10.638
3.137 4.670 11.598
3.088 4.297 11.353
3.115 3.908 11.200
3.109 3.358 10.960
3.073 3.094 10.752
3.025 2.667 10.646
3.033 2.176 10.330
2.820 5.110 11.687
2.731 4.640 11.502
2.654 4.306 11.293
2.648 3.884 11.063
2.636 3.515 10.909
2.517 3.129 10.773
2.600 2.664 10.513
2.506 2.260 10.369
2.517 1.936 10.182
2.260 5.220 11.644
2.294 4.717 11.404
2.198 4.360 11.253
2.157 3.995 11.045
2.236 3.496 10.833
2.072 3.087 10.616
2.081 2.784 10.531
2.054 2.414 10.340
2.062 1.966 10.127
1.892 5.290 11.621
1.777 4.805 11.357
1.742 4.502 11.188
1.691 4.088 11.014
1.680 3.681 10.836
1.754 3.226 10.647
1.738 2.806 10.341
1.570 2.455 10.187
1.550 2.013 10.019
1.446 4.833 11.300
1.285 4.481 11.118
1.368 4.019 10.995
1.239 3.613 10.694
1.285 3.303 10.505
1.287 2.817 10.293
1.244 2.390 10.227
0.923 4.500 11.057
0.851 4.121 10.819
0.906 3.694 10.625
0.867 3.301 10.467
0.804 2.889 10.326
0.445 4.219 10.788
0.466 3.749 10.628
0.429 3.392 10.371
9.788 3.165 11.607
9.709 2.632 11.307
9.686 2.253 11.171
9.444 3.534 11.702
9.388 3.109 11.589
9.241 2.705 11.307
9.254 2.335 11.188
9.268 1.899 10.943
8.916 4.112 11.789
8.992 3.583 11.720
8.861 3.273 11.518
8.906 2.890 11.227
8.884 2.398 11.150
8.766 1.992 10.877
8.834 1.649 10.730
8.468 4.058 11.787
8.528 3.703 11.569
8.395 3.346 11.476
8.393 2.949 11.246
8.370 2.512 10.986
8.397 2.009 10.755
8.396 1.604 10.654
8.142 4.098 11.787
7.999 3.827 11.556
8.088 3.285 11.400
8.061 2.950 11.095
8.003 2.544 10.900
7.990 2.210 10.759
7.833 1.687 10.545
7.535 3.845 11.534
7.528 3.479 11.355
7.481 2.950 11.089
7.508 2.628 10.918
7.415 2.231 10.684
7.073 3.445 11.241
7.115 3.111 11.047
7.020 2.587 10.859
3.673 3.987 10.801
3.642 3.476 10.591
3.512 3.179 10.391
3.159 4.467 10.949
3.129 4.031 10.771
3.129 3.665 10.551
3.140 3.168 10.311
3.048 2.807 10.109
2.812 4.951 11.111
2.798 4.545 10.914
2.685 4.143 10.636
2.664 3.639 10.555
2.600 3.312 10.316
2.635 2.903 10.133
2.603 2.467 9.904
2.271 4.979 11.066
2.361 4.516 10.907
2.235 4.210 10.633
2.323 3.748 10.473
2.202 3.295 10.324
2.136 2.969 10.146
2.186 2.454 9.955
1.843 4.965 10.897
1.936 4.539 10.836
1.775 4.225 10.591
1.855 3.789 10.365
1.837 3.466 10.270
1.726 2.983 10.038
1.692 2.555 9.788
1.440 4.674 10.779
1.409 4.318 10.482
1.445 3.827 10.387
1.303 3.473 10.215
1.326 3.063 9.911
1.021 4.382 10.502
0.958 3.974 10.340
0.881 3.550 10.138
9.857 3.224 11.218
9.830 2.916 10.933
9.768 2.474 10.705
9.429 3.774 11.323
9.494 3.333 11.090
9.451 2.911 10.968
9.278 2.602 10.712
9.327 2.167 10.472
9.005 4.177 11.431
8.978 3.786 11.236
9.041 3.403 10.992
9.016 2.945 10.902
8.909 2.607 10.709
8.926 2.136 10.424
8.880 1.788 10.225
8.608 4.267 11.379
8.570 3.895 11.158
8.464 3.516 10.945
8.476 3.047 10.772
8.432 2.684 10.679
8.457 2.231 10.387
8.483 1.866 10.202
8.206 4.319 11.272
8.109 3.894 11.095
8.047 3.532 10.931
8.050 3.141 10.793
7.968 2.677 10.544
7.931 2.299 10.425
7.981 1.898 10.206
7.650 3.928 11.124
7.701 3.643 10.892
7.583 3.137 10.668
7.606 2.720 10.541
7.611 2.359 10.383
7.244 3.637 10.805
7.148 3.313 10.620
7.156 2.886 10.519
3.715 4.151 10.371
3.634 3.776 10.165
3.672 3.375 10.052
3.303 4.685 10.516
3.167 4.151 10.391
3.167 3.810 10.230
3.175 3.321 10.042
3.128 2.917 9.768
2.901 5.035 10.718
2.784 4.632 10.510
2.842 4.227 10.318
2.791 3.849 10.027
2.807 3.468 9.886
2.715 3.021 9.701
2.728 2.572 9.494
2.495 5.110 10.566
2.403 4.650 10.497
2.425 4.336 10.160
2.375 3.878 10.050
2.364 3.452 9.884
2.255 3.149 9.674
2.178 2.704 9.406
1.943 5.170 10.531
1.924 4.864 10.402
1.844 4.425 10.219
1.803 3.928 9.955
1.828 3.644 9.848
1.843 3.196 9.576
1.780 2.814 9.393
1.471 4.841 10.369
1.475 4.450 10.059
1.480 4.007 10.003
1.400 3.687 9.677
1.422 3.267 9.574
0.985 4.468 10.144
1.045 4.132 9.911
0.916 3.645 9.618
11.944 11.839 7.475
11.937 11.477 7.168
11.865 11.029 6.988
11.541 12.325 7.547
11.519 11.852 7.353
11.396 11.424 7.156
11.474 11.081 7.020
11.343 10.680 6.817
11.092 12.400 7.575
11.081 11.978 7.325
11.000 11.473 7.123
11.058 11.091 6.868
11.021 10.743 6.789
10.855 10.413 6.616
10.706 12.490 7.498
10.650 12.086 7.271
10.566 11.579 7.095
10.606 11.242 6.905
10.491 10.859 6.653
10.419 10.336 6.452
10.225 12.496 7.355
10.186 12.100 7.157
10.217 11.687 6.944
10.091 11.314 6.845
10.116 10.788 6.680
10.129 10.512 6.427
9.752 12.616 7.322
9.752 12.186 7.204
9.647 11.725 6.942
9.618 11.400 6.775
9.686 10.955 6.610
9.647 10.442 6.329
9.296 12.192 7.136
9.216 11.811 6.932
9.212 11.416 6.744
9.239 11.044 6.570
9.244 10.504 6.291
8.803 12.221 7.064
8.836 11.830 6.792
8.810 11.428 6.668
8.729 11.018 6.413
8.430 12.319 6.980
8.437 11.989 6.775
8.319 11.514 6.578
5.810 12.238 6.547
5.658 11.856 6.353
5.256 12.369 6.423
5.232 11.858 6.284
5.181 11.507 6.108
4.820 12.418 6.418
4.799 12.034 6.239
4.794 11.529 6.012
4.675 11.150 5.831
4.387 12.480 6.361
4.336 12.003 6.138
4.417 11.607 5.987
4.240 11.244 5.762
3.949 12.581 6.207
3.970 12.148 6.085
3.965 11.674 5.918
3.879 11.270 5.605
3.458 12.229 6.038
3.445 11.844 5.829
3.498 11.328 5.659
3.015 12.158 5.940
3.100 11.871 5.799
2.950 11.446 5.648
2.611 12.215 5.969
2.526 11.908 5.642
2.181 12.396 5.780
12.387 12.029 7.063
12.486 11.501 6.955
12.405 11.160 6.689
12.029 12.405 7.138
12.038 11.977 7.089
12.028 11.605 6.878
11.933 11.230 6.610
11.899 10.861 6.393
11.658 12.469 7.185
11.623 12.121 6.996
11.534 11.608 6.762
11.544 11.303 6.506
11.521 10.941 6.334
11.445 10.492 6.253
11.185 12.565 7.025
11.061 12.164 6.841
11.173 11.663 6.659
11.079 11.330 6.476
11.112 10.933 6.268
10.991 10.498 6.149
10.745 12.157 6.801
10.654 11.832 6.689
10.640 11.367 6.521
10.571 11.024 6.285
10.628 10.624 6.063
10.286 12.281 6.778
10.143 11.917 6.636
10.168 11.481 6.426
10.178 11.120 6.274
10.183 10.631 6.093
9.764 12.353 6.683
9.810 11.982 6.554
9.719 11.555 6.326
9.676 11.148 6.188
9.737 10.736 5.951
9.439 12.417 6.656
9.412 11.963 6.475
9.299 11.560 6.304
9.349 11.157 6.200
9.221 10.764 5.959
8.913 12.375 6.576
8.921 12.058 6.416
8.943 11.587 6.232
8.888 11.260 6.061
8.804 10.806 5.858
8.484 12.461 6.629
8.497 12.018 6.467
8.432 11.621 6.139
8.408 11.308 6.035
8.116 12.581 6.585
8.074 12.089 6.261
8.000 11.791 6.179
6.292 12.436 6.094
6.183 11.968 6.002
5.815 12.477 6.002
5.823 12.017 5.807
5.804 11.573 5.740
5.431 12.440 6.031
5.388 12.073 5.879
5.224 11.763 5.616
5.193 11.228 5.483
4.885 12.122 5.815
4.912 11.796 5.656
4.890 11.303 5.459
4.374 12.206 5.732
4.362 11.823 5.487
4.405 11.475 5.281
4.068 12.316 5.739
4.011 11.899 5.469
3.938 11.511 5.222
3.506 12.314 5.552
3.496 11.931 5.396
3.453 11.528 5.147
3.109 12.339 5.529
3.170 11.966 5.287
3.083 11.619 5.097
2.611 12.417 5.470
2.664 12.016 5.311
2.690 11.680 5.051
2.168 12.468 5.501
2.278 12.165 5.189
12.551 12.098 6.695
12.574 11.676 6.539
12.462 11.271 6.248
12.460 10.858 6.169
12.135 12.279 6.557
12.108 11.718 6.452
11.968 11.392 6.207
11.941 11.040 6.106
11.913 10.558 5.802
11.648 12.273 6.604
11.595 11.895 6.346
11.564 11.411 6.182
11.631 11.020 5.951
11.559 10.693 5.791
11.242 12.262 6.523
11.243 11.916 6.287
11.083 11.456 6.173
11.129 11.158 5.982
11.026 10.686 5.783
10.813 12.437 6.408
10.754 11.972 6.290
10.732 11.649 6.002
10.620 11.190 5.961
10.706 10.770 5.651
10.291 12.423 6.372
10.318 12.077 6.262
10.276 11.580 5.963
10.184 11.209 5.891
10.152 10.825 5.610
9.929 12.440 6.356
9.811 12.052 6.096
9.882 11.701 5.956
9.814 11.294 5.700
9.820 10.935 5.636
9.417 12.528 6.212
9.485 12.086 6.076
9.433 11.699 5.916
9.297 11.376 5.729
9.314 10.966 5.502
8.911 12.287 6.077
8.904 11.857 5.917
8.921 11.392 5.616
8.907 10.997 5.467
8.526 12.325 6.005
8.565 11.839 5.759
8.415 11.534 5.563
8.420 11.066 5.377
8.023 12.273 5.954
8.109 11.861 5.686
8.031 11.526 5.557
7.623 12.354 5.836
7.601 12.034 5.749
7.128 12.442 5.782
7.199 12.126 5.648
6.753 12.523 5.712
6.751 12.182 5.646
6.313 12.132 5.457
6.294 11.774 5.367
5.819 12.180 5.406
5.776 11.848 5.266
5.786 11.404 5.081
5.336 12.247 5.457
5.364 11.937 5.194
5.340 11.541 4.968
5.045 12.359 5.429
4.949 11.917 5.178
4.874 11.588 4.956
4.579 12.492 5.245
4.455 12.034 5.177
4.538 11.604 4.955
4.043 12.399 5.216
4.129 12.032 5.102
4.064 11.629 4.805
3.678 12.499 5.274
3.567 12.142 5.035
3.534 11.769 4.838
3.210 12.206 4.991
3.153 11.733 4.708
2.728 12.311 4.836
2.740 11.921 4.789
2.312 12.282 4.881
2.321 11.853 4.707
1.850 12.423 4.798
12.579 11.582 5.939
12.507 11.043 5.676
12.411 10.663 5.562
12.150 12.423 6.195
12.187 12.004 5.975
12.141 11.560 5.783
12.103 11.182 5.715
11.984 10.743 5.486
11.774 12.422 6.174
11.724 12.022 6.027
11.687 11.652 5.806
11.604 11.253 5.521
11.678 10.757 5.407
11.269 12.459 6.104
11.326 12.082 5.976
11.165 11.744 5.730
11.117 11.346 5.598
11.146 10.823 5.374
10.852 12.516 5.976
10.824 12.187 5.906
10.856 11.728 5.625
10.729 11.386 5.406
10.751 10.890 5.307
10.399 12.280 5.755
10.373 11.741 5.695
10.329 11.379 5.415
10.214 11.055 5.284
9.936 12.241 5.688
9.871 11.928 5.599
9.848 11.508 5.418
9.758 11.042 5.178
9.490 12.298 5.768
9.383 11.912 5.564
9.365 11.562 5.357
9.347 11.089 5.054
9.024 12.389 5.702
8.943 11.982 5.423
9.051 11.531 5.257
8.918 11.113 5.001
8.639 12.404 5.586
8.496 12.017 5.340
8.465 11.728 5.258
8.531 11.228 5.030
8.095 12.446 5.597
8.143 12.058 5.319
8.172 11.665 5.123
8.109 11.354 4.941
7.624 12.169 5.330
7.659 11.838 5.158
7.179 12.227 5.158
7.256 11.832 5.046
6.857 12.231 5.222
6.835 11.848 5.053
6.378 12.330 5.123
6.399 11.887 4.966
6.372 11.610 4.684
5.895 12.459 5.069
5.947 12.033 4.894
5.803 11.540 4.675
5.454 12.539 5.025
5.474 12.047 4.847
5.424 11.737 4.602
5.004 12.557 5.027
4.977 12.139 4.715
4.998 11.800 4.584
4.571 12.177 4.763
4.522 11.716 4.480
4.141 12.328 4.613
4.019 11.797 4.498
3.688 12.339 4.656
3.613 11.878 4.404
3.298 12.295 4.606
3.205 11.977 4.423
2.783 12.465 4.555
2.752 11.957 4.261
2.416 12.506 4.506
2.318 12.143 4.306
1.965 12.538 4.394
1.814 12.187 4.142
12.541 10.854 5.047
12.299 12.560 5.772
12.177 12.230 5.565
12.252 11.809 5.463
12.091 11.334 5.199
12.153 10.984 5.026
11.788 12.160 5.620
11.814 11.771 5.354
11.648 11.404 5.113
11.736 10.930 5.021
11.388 12.360 5.503
11.225 11.847 5.258
11.300 11.467 5.140
11.297 11.083 4.897
10.931 12.299 5.519
10.782 11.860 5.287
10.745 11.487 5.081
10.810 11.086 4.835
10.414 12.403 5.350
10.363 11.962 5.280
10.361 11.654 4.998
10.291 11.204 4.814
9.994 12.471 5.371
10.009 12.098 5.185
9.953 11.594 4.932
9.853 11.251 4.706
9.615 12.469 5.275
9.466 12.128 5.123
9.474 11.682 4.950
9.480 11.315 4.800
9.145 12.179 5.122
9.122 11.714 4.902
9.022 11.396 4.643
8.726 12.285 5.037
8.654 11.902 4.753
8.548 11.358 4.670
8.178 12.298 4.964
8.219 11.814 4.806
8.184 11.435 4.638
7.821 12.391 4.891
7.656 12.012 4.644
7.710 11.600 4.438
7.327 12.426 4.838
7.368 12.037 4.661
7.261 11.642 4.525
6.826 12.553 4.841
6.798 12.086 4.541
6.776 11.676 4.349
6.405 12.476 4.707
6.359 12.166 4.469
6.445 11.649 4.332
6.020 12.139 4.412
6.007 11.735 4.365
5.517 12.205 4.448
5.531 11.825 4.258
5.150 12.284 4.365
5.131 11.985 4.194
4.683 12.427 4.256
4.624 11.896 4.067
4.200 12.456 4.300
4.207 11.980 4.144
3.818 12.422 4.242
3.693 12.106 3.982
3.299 12.566 4.084
3.349 12.109 4.014
2.845 12.218 3.943
2.413 12.211 3.923
1.902 12.315 3.769
1.472 12.454 3.710
12.322 12.404 5.169
12.319 11.864 4.948
12.204 11.487 4.885
12.206 11.193 4.666
11.801 12.419 5.103
11.756 12.031 4.966
11.838 11.543 4.712
11.735 11.259 4.605
11.329 12.540 5.156
11.403 12.055 4.927
11.362 11.677 4.725
11.377 11.222 4.489
10.958 12.591 5.027
10.973 12.130 4.943
10.938 11.674 4.618
10.913 11.317 4.506
10.484 12.220 4.877
10.431 11.821 4.683
10.423 11.332 4.480
10.102 12.164 4.834
9.951 11.848 4.498
9.920 11.414 4.400
9.544 12.276 4.737
9.650 11.930 4.527
9.508 11.508 4.275
9.120 12.432 4.684
9.091 11.909 4.444
9.169 11.524 4.211
8.711 12.462 4.565
8.658 11.970 4.412
8.582 11.671 4.232
8.237 12.473 4.493
8.327 12.086 4.315
8.244 11.646 4.084
7.811 12.574 4.414
7.766 12.065 4.262
7.824 11.801 4.156
7.429 12.212 4.284
7.375 11.736 4.018
6.875 12.232 4.112
6.958 11.816 4.022
6.427 12.319 4.082
6.508 11.866 3.967
6.106 12.418 4.123
6.052 11.961 3.874
5.578 12.389 4.038
5.573 12.031 3.759
5.159 12.473 4.016
5.147 12.169 3.765
4.795 12.597 3.880
4.676 12.117 3.736
4.294 12.143 3.664
3.824 12.299 3.630
3.347 12.304 3.579
2.900 12.418 3.563
2.457 12.499 3.410
2.080 12.495 3.460
12.370 12.603 4.798
12.262 12.186 4.699
12.348 11.780 4.419
12.242 11.238 4.297
11.859 12.107 4.497
11.845 11.835 4.401
11.817 11.311 4.266
11.504 12.170 4.581
11.355 11.874 4.393
11.370 11.442 4.084
11.000 12.302 4.486
11.048 11.963 4.199
10.944 11.549 4.145
10.525 12.435 4.384
10.514 11.981 4.279
10.474 11.573 3.955
10.171 12.464 4.290
10.093 12.077 4.086
9.994 11.560 3.967
9.633 12.458 4.253
9.637 12.011 4.049
9.671 11.650 3.988
9.178 12.480 4.255
9.146 12.079 4.038
9.128 11.704 3.871
8.813 12.180 3.985
8.674 11.849 3.755
8.326 12.314 3.918
8.242 11.854 3.677
7.931 12.247 3.847
7.904 11.862 3.689
7.480 12.455 3.785
7.385 12.027 3.572
7.028 12.467 3.832
7.035 11.958 3.573
6.490 12.435 3.786
6.578 12.156 3.601
6.061 12.500 3.722
6.139 12.129 3.438
5.568 12.215 3.432
5.211 12.281 3.419
4.829 12.359 3.385
4.327 12.339 3.195
3.945 12.528 3.281
3.471 12.553 3.108
12.384 12.373 4.286
12.392 11.914 4.073
12.306 11.477 3.823
11.950 12.386 4.209
11.938 11.908 3.944
11.881 11.578 3.726
11.482 12.390 4.181
11.430 12.064 3.985
11.530 11.614 3.765
11.099 12.415 4.084
10.997 12.017 3.846
10.954 11.666 3.618
10.626 12.557 3.945
10.583 12.194 3.775
10.614 11.682 3.553
10.119 12.256 3.743
10.194 11.847 3.506
9.661 12.246 3.781
9.622 11.802 3.506
9.304 12.324 3.721
9.277 11.926 3.407
8.911 12.437 3.623
8.780 12.004 3.328
8.391 12.375 3.517
8.415 12.074 3.344
7.962 12.423 3.563
7.593 12.503 3.376
6.623 12.345 3.095
6.110 12.341 3.121
5.701 12.369 3.074
5.344 12.415 2.951
4.795 12.496 2.948
12.518 12.502 3.742
12.427 12.129 3.642
12.335 11.680 3.491
12.114 12.534 3.812
11.944 12.151 3.613
11.987 11.738 3.369
11.579 12.143 3.490
11.532 11.769 3.256
11.171 12.326 3.461
11.011 11.841 3.351
10.677 12.349 3.389
10.651 11.874 3.235
10.224 12.341 3.430
10.283 12.011 3.115
9.851 12.421 3.245
9.806 11.964 3.149
9.405 12.516 3.192
9.316 12.076 2.987
8.928 12.508 3.261
8.889 12.100 2.958
6.307 12.580 2.656
12.540 12.333 3.176
12.015 12.306 3.097
12.046 11.872 2.942
11.570 12.428 3.089
11.649 11.986 2.870
11.187 12.396 3.060
11.235 12.007 2.799
10.743 12.546 2.981
10.688 12.084 2.842
10.391 12.630 2.955
10.269 12.230 2.756
9.774 12.164 2.768
9.413 12.316 2.710
12.160 12.532 2.763
11.712 12.543 2.782
11.649 12.088 2.494
11.258 12.264 2.426
10.873 12.296 2.395
10.328 12.333 2.297
9.886 12.434 2.227
11.299 12.422 2.025
10.866 12.455 2.035
10.428 12.594 1.960
11.601 8.868 0.087
11.129 9.273 0.150
10.712 9.392 0.039
10.236 9.531 0.053
11.479 12.484 0.676
11.597 12.395 0.068
11.152 12.421 0.093
11.547 6.235 4.800
11.401 5.680 4.533
11.393 5.271 4.430
11.075 0.448 2.057
10.937 0.035 1.940
11.119 6.627 4.865
11.089 6.245 4.669
11.077 5.772 4.451
10.998 5.425 4.299
10.980 4.937 4.087
10.615 0.992 2.245
10.629 0.570 2.073
10.626 0.211 1.915
10.705 7.024 5.003
10.665 6.606 4.822
10.662 6.271 4.612
10.646 5.861 4.493
10.613 5.468 4.350
10.571 5.134 4.018
10.459 4.707 3.848
10.236 1.408 2.363
10.200 0.948 2.204
10.166 0.631 1.944
10.135 0.132 1.772
10.235 7.513 5.235
10.183 7.161 5.028
10.263 6.713 4.715
10.150 6.412 4.606
10.106 5.939 4.487
10.054 5.519 4.209
10.023 5.193 4.045
10.062 4.791 3.898
9.977 4.267 3.727
9.885 1.820 2.526
9.790 1.400 2.264
9.811 1.141 2.191
9.705 0.651 1.913
9.685 0.321 1.753
10.515 10.064 6.269
9.904 7.580 5.085
9.846 7.208 4.919
9.719 6.750 4.788
9.736 6.467 4.527
9.650 6.004 4.314
9.621 5.635 4.097
9.680 5.209 4.012
9.544 4.756 3.849
9.635 4.350 3.647
9.352 1.932 2.474
9.410 1.471 2.202
9.388 1.136 2.159
9.330 0.668 1.919
9.171 0.274 1.672
9.985 10.022 6.302
9.394 7.725 5.107
9.427 7.328 4.882
9.331 6.926 4.636
9.293 6.505 4.454
9.216 6.093 4.373
9.222 5.584 4.072
9.142 5.275 3.934
9.181 4.883 3.662
9.187 4.482 3.475
8.903 2.074 2.331
8.864 1.529 2.157
8.910 1.267 1.977
8.840 0.845 1.854
8.865 0.405 1.583
9.574 10.153 6.168
8.877 7.293 4.841
8.872 6.905 4.614
8.809 6.549 4.478
8.761 6.105 4.230
8.706 5.764 4.044
8.695 5.286 3.939
8.710 4.890 3.675
8.468 1.668 2.140
8.439 1.278 2.023
8.371 0.915 1.810
8.341 0.365 1.542
8.335 0.006 1.346
8.428 6.971 4.614
8.349 6.566 4.349
8.359 6.188 4.198
8.368 5.743 4.016
8.365 5.315 3.772
8.054 1.354 1.986
7.917 0.828 1.726
7.962 0.477 1.512
7.878 0.060 1.282
8.018 6.616 4.358
7.984 6.231 4.146
7.855 5.772 3.936
7.561 0.925 1.609
7.447 0.518 1.530
7.383 0.173 1.304
5.335 7.074 4.043
5.255 6.624 3.824
5.179 6.121 3.687
4.800 1.335 1.310
4.763 0.866 1.093
4.873 0.452 1.014
4.895 7.426 4.106
4.948 7.096 3.943
4.885 6.691 3.815
4.799 6.321 3.539
4.758 5.846 3.408
4.524 1.808 1.495
4.455 1.437 1.281
4.468 1.022 1.037
4.422 0.510 0.969
4.381 0.117 0.675
4.488 7.878 4.287
4.528 7.463 4.032
4.390 7.196 3.959
4.360 6.692 3.785
4.380 6.387 3.456
4.359 5.950 3.384
4.252 5.458 3.167
4.055 2.269 1.654
4.081 1.860 1.476
4.043 1.417 1.279
3.914 1.045 1.027
3.976 0.658 0.835
3.899 0.210 0.599
4.115 8.357 4.487
4.022 8.073 4.199
4.003 7.603 4.023
3.983 7.165 3.807
3.959 6.828 3.633
3.965 6.341 3.485
3.817 6.027 3.215
3.897 5.546 3.090
3.850 5.210 2.839
3.671 2.802 1.816
3.684 2.245 1.487
3.578 1.886 1.305
3.546 1.496 1.208
3.519 1.063 1.038
3.453 0.746 0.881
3.398 0.295 0.694
4.349 10.831 5.479
3.660 8.412 4.430
3.537 8.023 4.177
3.550 7.656 3.947
3.615 7.188 3.819
3.443 6.821 3.522
3.429 6.480 3.469
3.454 6.104 3.287
3.349 5.584 3.067
3.317 5.292 2.890
3.210 2.769 1.631
3.232 2.340 1.522
3.209 1.938 1.338
3.046 1.516 1.136
3.040 1.174 0.912
3.047 0.791 0.772
2.955 0.351 0.593
3.885 10.920 5.492
3.187 8.497 4.273
3.144 8.139 4.120
3.144 7.742 3.917
3.166 7.373 3.681
3.108 6.957 3.526
3.065 6.544 3.426
2.970 6.059 3.089
3.050 5.696 2.966
3.017 5.291 2.841
2.741 2.920 1.694
2.692 2.448 1.445
2.697 2.036 1.322
2.712 1.631 1.021
2.591 1.196 0.892
2.617 0.892 0.660
2.553 0.435 0.468
2.575 -0.014 0.376
3.419 11.014 5.377
2.728 8.139 4.020
2.632 7.761 3.842
2.718 7.341 3.628
2.624 6.909 3.468
2.525 6.565 3.322
2.553 6.096 3.100
2.593 5.730 2.954
2.310 2.467 1.414
2.201 2.069 1.150
2.261 1.613 0.965
2.115 1.291 0.912
2.174 0.842 0.610
2.127 0.483 0.445
2.159 0.001 0.277
2.257 7.797 3.835
2.292 7.458 3.567
2.235 7.086 3.370
2.152 6.594 3.255
2.142 6.153 3.044
1.878 2.114 1.096
1.853 1.704 0.935
1.757 1.273 0.811
1.758 0.907 0.581
1.648 0.524 0.409
1.780 7.456 3.550
1.734 7.089 3.455
1.800 6.708 3.122
1.311 1.818 0.989
1.284 1.350 0.685
1.288 0.961 0.515
12.066 6.284 4.356
11.997 5.828 4.288
11.990 5.417 4.063
11.597 0.559 1.740
11.560 0.180 1.598
11.644 6.814 4.546
11.621 6.406 4.387
11.599 5.885 4.245
11.550 5.469 3.975
11.452 5.049 3.811
11.196 1.008 1.825
11.097 0.686 1.756
11.067 0.186 1.562
11.127 7.143 4.657
11.237 6.844 4.576
11.099 6.323 4.302
11.168 5.990 4.181
11.007 5.527 3.960
11.038 5.124 3.794
11.022 4.777 3.515
10.751 1.571 2.041
10.781 1.203 1.829
10.716 0.667 1.579
10.610 0.247 1.523
10.855 7.615 4.785
10.738 7.275 4.639
10.716 6.860 4.505
10.613 6.465 4.242
10.623 6.074 4.047
10.699 5.662 3.829
10.650 5.238 3.612
10.496 4.884 3.431
10.580 4.433 3.347
10.334 1.990 2.110
10.274 1.604 1.960
10.246 1.252 1.740
10.252 0.730 1.528
10.222 0.453 1.479
10.924 10.052 5.901
10.332 8.166 4.983
10.356 7.807 4.696
10.249 7.367 4.575
10.348 6.882 4.452
10.186 6.578 4.134
10.174 6.038 4.066
10.247 5.666 3.892
10.183 5.369 3.617
10.084 4.887 3.386
10.129 4.422 3.254
10.090 4.068 3.001
9.952 2.423 2.367
9.894 2.121 2.053
9.850 1.589 1.876
9.765 1.195 1.777
9.753 0.892 1.562
9.741 0.432 1.424
9.757 -0.040 1.214
10.575 10.131 5.899
10.463 9.692 5.791
9.985 8.270 4.862
9.866 7.874 4.693
9.843 7.403 4.472
9.785 6.975 4.272
9.771 6.532 4.198
9.734 6.213 3.947
9.718 5.774 3.768
9.724 5.315 3.548
9.696 4.909 3.414
9.581 4.628 3.129
9.563 4.179 3.086
9.474 2.462 2.175
9.431 2.134 2.110
9.443 1.719 1.949
9.428 1.367 1.682
9.278 0.906 1.412
9.403 0.501 1.299
9.275 0.146 1.051
10.048 10.252 5.794
10.091 9.893 5.601
9.523 8.293 4.796
9.518 7.785 4.623
9.500 7.402 4.437
9.431 7.117 4.261
9.356 6.598 4.166
9.252 6.247 3.917
9.356 5.813 3.668
9.329 5.410 3.553
9.209 5.076 3.307
9.229 4.613 3.149
9.112 4.245 2.954
8.979 2.610 2.259
9.003 2.170 2.062
8.967 1.744 1.894
8.958 1.350 1.657
8.870 0.946 1.358
8.807 0.501 1.286
8.924 0.107 1.136
9.698 10.324 5.780
9.684 9.954 5.654
8.974 7.978 4.684
9.038 7.535 4.424
8.930 7.075 4.163
8.856 6.638 4.082
8.812 6.256 3.900
8.917 5.970 3.734
8.830 5.475 3.453
8.827 5.065 3.249
8.729 4.620 3.048
8.624 2.244 1.996
8.498 1.887 1.702
8.492 1.426 1.642
8.540 1.092 1.373
8.450 0.556 1.270
8.453 0.184 1.068
9.257 10.389 5.740
8.505 7.557 4.321
8.528 7.241 4.209
8.404 6.788 4.059
8.519 6.406 3.842
8.383 6.007 3.625
8.416 5.566 3.467
8.298 5.105 3.247
8.021 1.927 1.735
8.078 1.547 1.452
8.034 1.076 1.282
7.981 0.689 1.198
7.947 0.212 1.011
8.117 7.208 4.170
8.029 6.891 3.880
7.989 6.441 3.756
7.929 5.993 3.585
7.979 5.668 3.315
7.626 1.490 1.483
7.657 1.168 1.247
7.633 0.775 1.030
7.495 0.383 0.970
7.631 6.891 3.930
7.515 6.418 3.704
7.457 6.077 3.573
7.091 1.189 1.274
7.079 0.791 1.011
7.020 0.372 0.893
5.911 7.057 3.719
5.796 6.784 3.542
5.713 6.389 3.279
5.448 1.413 1.040
5.324 0.992 0.747
5.367 0.588 0.667
5.426 7.514 3.773
5.432 7.188 3.612
5.384 6.719 3.364
5.391 6.392 3.174
5.304 6.015 2.967
4.957 1.935 1.064
5.016 1.553 0.876
4.956 1.131 0.824
4.820 0.765 0.593
4.803 0.332 0.308
5.033 8.063 3.927
5.013 7.690 3.695
4.914 7.279 3.576
4.878 6.835 3.362
4.936 6.369 3.184
4.912 6.000 2.907
4.847 5.676 2.807
4.605 2.386 1.232
4.555 2.009 1.003
4.525 1.520 0.870
4.434 1.099 0.676
4.440 0.752 0.436
4.397 0.346 0.355
4.643 8.535 4.064
4.543 8.064 3.889
4.518 7.690 3.750
4.542 7.310 3.472
4.485 6.916 3.379
4.393 6.452 3.112
4.370 6.049 2.917
4.449 5.713 2.795
4.372 5.315 2.618
4.127 2.923 1.479
4.160 2.406 1.172
4.166 2.000 0.963
4.014 1.664 0.851
3.978 1.278 0.649
3.927 0.888 0.454
3.908 0.471 0.268
3.907 -0.048 0.001
4.755 10.924 5.209
4.244 9.028 4.154
4.232 8.654 3.941
4.188 8.173 3.860
4.025 7.739 3.604
4.069 7.339 3.382
4.105 6.990 3.285
3.954 6.499 3.089
3.996 6.116 2.858
4.010 5.757 2.696
3.924 5.353 2.534
3.924 4.913 2.241
3.684 3.239 1.485
3.772 2.912 1.401
3.651 2.487 1.212
3.697 2.075 0.918
3.610 1.727 0.770
3.572 1.303 0.608
3.516 0.899 0.348
3.462 0.409 0.234
3.422 0.055 0.101
4.292 10.985 5.172
4.395 10.641 4.993
3.728 9.106 4.167
3.773 8.591 3.929
3.652 8.165 3.759
3.730 7.815 3.535
3.636 7.469 3.390
3.540 7.065 3.171
3.589 6.654 3.032
3.593 6.146 2.755
3.457 5.734 2.617
3.520 5.393 2.494
3.381 5.044 2.174
3.292 3.387 1.436
3.315 2.907 1.269
3.229 2.500 1.119
3.266 2.162 0.996
3.176 1.806 0.801
3.068 1.420 0.518
3.148 0.930 0.375
3.092 0.524 0.089
3.872 11.132 5.067
3.944 10.652 4.907
3.391 9.170 4.088
3.329 8.652 3.957
3.279 8.342 3.787
3.156 7.869 3.528
3.165 7.492 3.397
3.147 7.005 3.215
3.175 6.660 2.875
3.044 6.291 2.772
3.111 5.929 2.565
3.041 5.513 2.446
2.977 5.007 2.169
2.911 3.423 1.504
2.828 3.025 1.197
2.805 2.683 1.123
2.836 2.161 0.888
2.767 1.818 0.636
2.753 1.410 0.460
2.658 0.997 0.354
2.590 0.636 0.120
3.550 11.181 5.113
3.405 10.764 4.922
2.853 8.816 3.861
2.860 8.375 3.696
2.768 7.961 3.474
2.765 7.598 3.244
2.653 7.184 3.092
2.654 6.686 2.966
2.647 6.410 2.742
2.572 5.986 2.442
2.579 5.520 2.271
2.396 3.134 1.150
2.410 2.632 1.039
2.365 2.231 0.871
2.239 1.903 0.648
2.232 1.502 0.478
2.226 1.097 0.171
2.165 0.637 0.106
3.072 11.149 4.958
2.384 8.430 3.663
2.320 7.986 3.337
2.363 7.564 3.262
2.340 7.196 3.082
2.282 6.821 2.796
2.250 6.332 2.582
2.168 6.012 2.385
1.900 2.724 0.959
1.832 2.315 0.751
1.928 1.893 0.529
1.813 1.560 0.383
1.820 1.042 0.244
1.963 8.010 3.343
1.820 7.603 3.135
1.883 7.218 3.032
1.785 6.882 2.851
1.710 6.418 2.654
1.399 2.423 0.771
1.334 2.046 0.438
1.383 1.572 0.257
1.367 1.202 0.064
1.489 7.704 3.174
1.410 7.351 2.934
1.292 6.977 2.742
1.040 2.096 0.432
0.931 1.641 0.318
0.934 1.274 0.032
12.536 0.706 1.453
12.481 0.235 1.324
12.552 6.481 4.131
12.484 5.973 3.836
12.543 5.563 3.687
12.036 0.649 1.443
12.079 0.284 1.148
12.104 6.882 4.167
12.166 6.419 3.947
12.090 6.073 3.774
12.085 5.672 3.622
12.003 5.195 3.418
11.643 1.131 1.605
11.643 0.763 1.346
11.623 0.416 1.095
11.738 7.403 4.276
11.688 6.972 4.125
11.696 6.593 3.947
11.628 6.126 3.716
11.635 5.639 3.621
11.541 5.253 3.447
11.579 4.968 3.177
11.270 1.595 1.699
11.231 1.306 1.431
11.233 0.878 1.322
11.144 0.469 1.139
11.088 0.022 0.881
11.370 7.876 4.440
11.291 7.337 4.290
11.184 6.954 4.138
11.135 6.540 3.855
11.246 6.245 3.675
11.181 5.849 3.555
11.142 5.316 3.342
11.151 4.919 3.133
11.105 4.491 2.907
10.775 2.197 1.844
10.759 1.646 1.670
10.803 1.379 1.513
10.729 0.924 1.218
10.663 0.470 1.125
10.684 0.068 0.894
11.487 10.289 5.643
10.947 8.224 4.599
10.781 7.920 4.350
10.837 7.386 4.226
10.818 7.058 4.038
10.755 6.570 3.912
10.756 6.316 3.691
10.765 5.903 3.403
10.623 5.444 3.223
10.604 5.023 3.037
10.554 4.673 2.940
10.637 4.190 2.699
10.508 2.534 1.918
10.457 2.142 1.772
10.327 1.699 1.626
10.400 1.399 1.439
10.319 0.905 1.238
10.256 0.586 1.063
10.178 0.184 0.884
11.112 10.237 5.485
11.076 9.927 5.365
10.464 9.187 4.929
10.427 8.786 4.731
10.483 8.289 4.492
10.404 7.845 4.360
10.311 7.439 4.235
10.305 7.181 3.935
10.264 6.763 3.789
10.283 6.320 3.531
10.274 5.821 3.341
10.271 5.497 3.280
10.187 5.083 3.057
10.098 4.732 2.787
10.094 4.341 2.644
10.156 3.922 2.500
10.038 3.506 2.347
10.081 3.134 2.141
10.052 2.686 1.843
9.970 2.232 1.786
9.991 1.831 1.599
9.828 1.384 1.255
9.942 0.964 1.184
9.804 0.590 0.990
9.860 0.229 0.764
10.640 10.280 5.545
10.537 9.923 5.240
10.482 9.609 5.190
10.546 9.106 4.886
10.141 9.175 4.804
9.972 8.760 4.714
10.073 8.362 4.562
9.996 8.057 4.295
9.895 7.599 4.112
9.895 7.098 4.004
9.897 6.741 3.693
9.854 6.352 3.544
9.782 5.903 3.411
9.776 5.557 3.236
9.776 5.160 2.933
9.691 4.660 2.791
9.719 4.340 2.651
9.680 3.944 2.380
9.586 3.486 2.247
9.663 3.067 2.075
9.616 2.723 1.843
9.499 2.316 1.733
9.532 1.949 1.517
9.404 1.460 1.309
9.484 1.010 1.077
9.411 0.747 0.869
9.417 0.226 0.735
10.139 10.411 5.475
10.099 9.973 5.241
10.155 9.630 5.142
10.121 9.155 4.874
9.572 9.190 4.794
9.653 8.874 4.675
9.613 8.500 4.440
9.567 8.105 4.239
9.541 7.699 4.074
9.508 7.245 3.943
9.513 6.860 3.703
9.462 6.405 3.462
9.394 6.002 3.368
9.372 5.583 3.068
9.333 5.255 2.963
9.200 4.810 2.733
9.186 4.370 2.593
9.274 4.043 2.302
9.160 3.575 2.157
9.217 3.119 2.021
9.108 2.701 1.870
9.096 2.301 1.577
9.064 2.023 1.403
9.041 1.525 1.279
8.958 1.227 0.972
9.012 0.803 0.827
8.847 0.390 0.721
9.648 10.431 5.387
9.715 10.042 5.283
9.628 9.630 5.011
9.553 9.318 4.791
9.124 8.478 4.457
9.080 8.164 4.259
9.090 7.763 4.075
9.079 7.274 3.764
9.060 6.888 3.623
8.907 6.421 3.367
8.949 6.018 3.272
8.913 5.612 3.128
8.799 5.228 2.922
8.903 4.867 2.653
8.810 4.490 2.500
8.742 2.782 1.785
8.693 2.439 1.533
8.554 1.974 1.388
8.646 1.630 1.177
8.509 1.169 0.947
8.498 0.846 0.742
8.448 0.343 0.677
9.275 10.566 5.313
9.310 10.120 5.106
8.653 8.235 4.111
8.654 7.792 3.939
8.563 7.358 3.798
8.546 6.978 3.595
8.568 6.557 3.432
8.452 6.199 3.201
8.426 5.683 3.041
8.455 5.341 2.895
8.428 4.981 2.651
8.214 2.499 1.517
8.196 2.028 1.305
8.064 1.650 1.037
8.085 1.197 0.920
8.122 0.833 0.804
8.038 0.490 0.532
8.019 0.106 0.311
8.923 10.588 5.237
8.111 7.858 3.836
8.193 7.344 3.718
8.039 6.938 3.491
8.119 6.651 3.321
8.080 6.206 3.076
8.050 5.812 2.932
7.991 5.389 2.690
7.657 2.206 1.290
7.624 1.664 1.001
7.600 1.358 0.795
7.674 0.943 0.621
7.530 0.569 0.492
7.638 0.036 0.324
7.710 7.500 3.709
7.644 6.994 3.397
7.616 6.691 3.289
7.649 6.272 3.111
7.589 5.870 2.859
7.238 1.808 0.976
7.228 1.319 0.881
7.168 0.947 0.552
7.235 0.625 0.508
7.116 0.202 0.188
7.155 7.068 3.365
7.148 6.693 3.191
7.228 6.361 3.037
6.852 1.408 0.780
6.675 0.967 0.612
6.733 0.656 0.442
6.831 7.145 3.370
6.725 6.752 3.112
6.692 6.312 3.060
6.345 1.508 0.654
6.335 1.140 0.448
6.263 0.702 0.339
6.427 7.314 3.278
6.339 6.837 3.048
6.221 6.513 2.918
5.860 1.509 0.618
5.827 1.223 0.417
5.798 0.711 0.217
6.001 7.718 3.502
5.929 7.385 3.206
5.847 6.954 3.031
5.801 6.463 2.878
5.807 6.142 2.709
5.490 2.002 0.778
5.395 1.569 0.520
5.427 1.209 0.389
5.380 0.824 0.158
5.296 0.426 0.016
5.605 8.211 3.620
5.489 7.795 3.390
5.468 7.440 3.198
5.387 7.023 2.999
5.461 6.592 2.758
5.310 6.157 2.561
5.307 5.724 2.364
5.026 2.535 0.968
5.038 2.166 0.770
4.970 1.676 0.493
5.008 1.258 0.337
4.893 0.870 0.235
5.055 8.650 3.763
5.110 8.265 3.529
5.066 7.899 3.398
4.947 7.486 3.132
4.918 6.969 3.029
4.991 6.633 2.769
4.893 6.220 2.530
4.875 5.802 2.411
4.817 5.433 2.131
4.633 3.028 0.984
4.652 2.519 0.876
4.581 2.114 0.742
4.567 1.762 0.556
4.587 1.321 0.344
4.560 0.879 0.165
5.251 11.135 4.917
4.765 9.152 3.906
4.691 8.694 3.701
4.630 8.353 3.460
4.540 7.929 3.276
4.508 7.449 3.044
4.528 7.033 2.952
4.521 6.715 2.775
4.527 6.268 2.543
4.382 5.944 2.402
4.350 5.452 2.115
4.377 5.025 1.984
4.289 3.434 1.202
4.303 2.956 0.952
4.244 2.652 0.754
4.138 2.174 0.684
4.101 1.827 0.369
4.050 1.372 0.235
4.085 1.066 -0.022
4.945 11.106 4.767
4.809 10.684 4.590
4.374 10.013 4.142
4.320 9.524 3.935
4.302 9.221 3.859
4.312 8.751 3.559
4.252 8.364 3.420
4.219 8.028 3.236
4.099 7.512 2.983
4.062 7.126 2.817
4.031 6.714 2.628
4.122 6.315 2.539
3.973 5.872 2.287
3.904 5.568 2.145
4.004 5.074 1.904
3.910 4.711 1.773
3.882 4.252 1.462
3.802 3.972 1.407
3.775 3.472 1.125
3.848 3.049 0.905
3.707 2.687 0.824
3.649 2.201 0.599
3.727 1.831 0.425
3.697 1.484 0.213
3.620 1.088 0.021
4.502 11.171 4.814
4.457 10.723 4.613
4.365 10.328 4.396
4.289 10.003 4.096
3.964 10.079 4.181
3.895 9.620 3.975
3.880 9.310 3.760
3.852 8.902 3.625
3.722 8.423 3.316
3.713 7.942 3.175
3.648 7.674 2.935
3.641 7.154 2.778
3.592 6.824 2.629
3.540 6.452 2.371
3.522 6.008 2.169
3.468 5.637 1.979
3.460 5.188 1.884
3.531 4.724 1.598
3.457 4.332 1.420
3.401 3.927 1.330
3.433 3.481 1.075
3.395 3.085 0.830
3.267 2.688 0.772
3.328 2.262 0.522
3.216 1.987 0.386
3.250 1.562 0.132
4.035 11.220 4.728
3.892 10.878 4.470
3.887 10.441 4.299
3.834 10.100 4.127
3.460 10.102 4.026
3.380 9.650 3.822
3.345 9.319 3.648
3.410 8.941 3.467
3.289 8.549 3.254
3.361 8.035 3.124
3.199 7.685 2.957
3.260 7.299 2.758
3.178 6.923 2.490
3.154 6.480 2.333
3.126 5.988 2.206
3.071 5.596 1.939
3.108 5.249 1.739
3.007 4.840 1.527
3.047 4.469 1.355
2.958 4.080 1.245
2.949 3.543 1.054
2.879 3.167 0.830
2.805 2.868 0.701
2.817 2.431 0.522
2.755 1.980 0.301
2.818 1.552 0.039
3.563 11.353 4.641
3.492 10.875 4.516
3.448 10.436 4.277
3.464 10.089 4.017
2.926 9.285 3.585
2.937 8.967 3.434
2.862 8.619 3.231
2.889 8.073 3.078
2.839 7.703 2.864
2.839 7.251 2.661
2.682 6.976 2.490
2.645 6.532 2.240
2.745 6.055 2.070
2.695 5.724 1.895
2.590 5.270 1.765
2.424 3.735 0.908
2.431 3.212 0.793
2.500 2.802 0.629
2.450 2.425 0.394
2.415 2.090 0.275
2.263 1.591 0.021
3.148 11.347 4.504
3.046 10.975 4.352
2.425 8.963 3.437
2.435 8.544 3.254
2.462 8.241 3.023
2.298 7.836 2.894
2.296 7.349 2.631
2.274 6.913 2.489
2.209 6.522 2.218
2.182 6.225 2.115
2.162 5.744 1.905
1.962 3.351 0.807
2.071 2.902 0.474
1.971 2.587 0.309
1.892 2.132 0.094
2.668 11.474 4.598
1.938 8.637 3.092
1.941 8.293 3.001
1.990 7.786 2.781
1.884 7.513 2.607
1.821 7.104 2.428
1.760 6.692 2.124
1.785 6.214 1.973
1.584 3.020 0.523
1.573 2.548 0.309
1.457 2.251 0.164
1.562 8.343 2.915
1.508 7.965 2.723
1.438 7.560 2.591
1.491 7.167 2.287
1.398 6.667 2.169
1.080 2.579 0.251
1.055 2.279 0.019
1.091 7.932 2.605
0.986 7.617 2.465
0.988 7.132 2.348
12.566 0.670 1.491
12.533 0.309 1.289
12.537 0.376 0.933
12.593 0.067 0.649
12.517 5.780 3.215
12.474 5.358 3.160
12.174 1.251 1.255
12.179 0.980 0.949
12.095 0.569 0.886
12.066 0.124 0.557
12.186 7.503 4.045
12.231 7.033 3.852
12.165 6.665 3.586
12.135 6.202 3.443
12.054 5.819 3.233
12.000 5.356 2.978
12.015 5.000 2.881
11.855 1.771 1.391
11.673 1.412 1.070
11.723 1.026 0.911
11.672 0.622 0.711
11.609 0.179 0.587
11.859 7.930 4.070
11.854 7.595 3.859
11.830 7.124 3.711
11.668 6.731 3.518
11.646 6.327 3.411
11.683 5.915 3.139
11.669 5.412 3.023
11.528 5.050 2.823
11.565 4.692 2.678
11.293 2.216 1.542
11.345 1.808 1.232
11.277 1.514 1.089
11.344 1.002 0.980
11.231 0.611 0.790
11.169 0.290 0.477
11.931 10.311 5.285
11.376 8.350 4.326
11.434 8.034 4.023
11.316 7.519 3.910
11.274 7.157 3.709
11.252 6.818 3.478
11.287 6.342 3.355
11.272 5.886 3.089
11.116 5.526 2.929
11.213 5.118 2.737
11.086 4.799 2.609
11.148 4.313 2.346
11.037 2.723 1.589
10.962 2.292 1.341
10.966 1.860 1.239
10.941 1.423 1.093
10.845 1.084 0.811
10.770 0.696 0.678
10.726 0.312 0.503
