8.627 11.487 8.211
8.500 11.562 8.551
8.288 11.543 9.061
8.089 11.711 9.317
7.734 11.811 9.900
7.592 11.792 10.293
7.350 11.880 10.733
7.158 11.887 11.097
6.955 11.948 11.424
6.690 12.022 11.937
6.452 12.023 12.397
10.579 11.149 4.844
10.420 11.149 5.256
10.107 11.351 5.650
9.888 11.311 6.014
9.568 11.449 6.504
9.397 11.381 6.792
9.175 11.477 7.216
8.946 11.036 7.225
8.652 11.107 7.502
8.446 11.113 8.100
8.158 11.326 8.338
7.970 11.199 8.911
7.797 11.301 9.363
7.527 11.363 9.749
7.276 11.346 10.194
7.094 11.526 10.483
6.852 11.577 10.918
6.587 11.494 11.428
6.320 11.696 11.784
6.123 11.611 12.267
10.284 10.893 4.682
9.990 10.784 5.105
9.778 10.820 5.559
9.503 10.985 5.917
9.328 10.998 6.367
9.212 11.058 6.755
8.976 11.133 7.095
8.077 10.905 7.838
7.877 10.818 8.260
7.586 10.965 8.731
7.488 10.987 9.182
7.213 10.979 9.622
7.007 11.041 10.035
6.803 11.190 10.352
6.495 11.085 10.744
6.267 11.190 11.279
6.105 11.240 11.691
9.937 10.481 4.559
9.782 10.530 4.850
9.465 10.586 5.392
9.363 10.656 5.745
9.086 10.644 6.114
7.605 10.550 8.244
7.271 10.493 8.558
7.211 10.629 9.002
6.959 10.589 9.371
6.712 10.609 9.885
6.473 10.672 10.279
6.268 10.867 10.708
5.989 10.804 11.110
9.652 10.002 4.429
9.445 10.052 4.736
9.271 10.201 5.214
8.908 10.267 5.636
7.028 10.172 8.439
6.787 10.323 8.890
6.574 10.302 9.408
6.474 10.235 9.845
6.123 10.409 10.154
5.973 10.393 10.637
9.416 9.805 4.334
9.078 9.698 4.630
8.869 9.783 5.137
6.840 9.918 8.369
6.501 9.962 8.745
6.250 9.888 9.255
6.058 10.024 9.617
5.770 9.976 10.104
5.533 9.986 10.515
9.101 9.285 4.055
8.946 9.334 4.568
8.697 9.438 4.999
6.524 9.440 8.273
6.328 9.525 8.647
5.924 9.490 9.011
5.843 9.576 9.435
5.549 9.720 9.844
5.347 9.761 10.259
8.811 8.957 4.100
8.623 9.098 4.460
8.308 9.126 4.774
6.458 8.976 7.760
6.234 9.087 8.123
5.886 9.086 8.559
5.721 9.210 9.056
5.489 9.163 9.331
5.230 9.272 9.848
5.091 9.248 10.221
4.853 9.453 10.588
8.449 8.633 3.949
8.350 8.677 4.293
8.053 8.805 4.667
7.827 8.815 5.113
12.096 12.350 5.453
11.808 12.394 5.826
11.685 12.393 6.218
11.340 12.386 6.763
11.133 12.499 7.111
10.903 12.631 7.627
10.409 12.316 7.933
10.082 12.249 8.315
9.963 12.313 8.643
9.654 12.272 9.109
9.481 12.474 9.551
9.192 12.388 9.932
9.065 12.424 10.299
8.840 12.548 10.885
11.683 12.011 5.245
11.605 11.940 5.768
11.288 12.050 6.155
11.088 12.104 6.530
10.887 12.069 6.996
10.642 12.198 7.367
10.369 12.175 7.883
10.134 11.946 7.820
9.905 11.916 8.139
9.611 11.978 8.675
9.456 12.070 8.932
9.101 12.031 9.329
8.983 12.117 9.894
8.779 12.235 10.274
8.392 12.140 10.606
8.295 12.331 11.170
7.972 12.211 11.539
7.680 12.265 11.883
7.565 12.425 12.365
11.433 11.676 5.259
11.215 11.632 5.696
10.925 11.667 5.972
10.685 11.734 6.547
10.587 11.790 6.988
10.303 11.734 7.280
10.008 11.874 7.772
9.751 11.569 7.679
9.566 11.460 8.114
9.366 11.683 8.452
9.146 11.654 8.952
8.825 11.739 9.286
8.603 11.759 9.743
8.483 11.776 10.212
8.169 11.827 10.521
7.955 11.812 10.910
7.740 11.831 11.493
7.543 12.059 11.910
7.273 11.923 12.322
11.074 11.194 5.179
10.900 11.245 5.445
10.673 11.403 5.996
10.533 11.382 6.276
10.309 11.465 6.770
10.028 11.452 7.218
9.846 11.561 7.625
9.476 11.092 7.441
9.275 11.148 7.914
9.021 11.327 8.237
8.787 11.257 8.741
8.556 11.236 9.095
8.235 11.340 9.638
8.169 11.480 10.044
7.825 11.465 10.411
7.557 11.537 10.910
7.388 11.609 11.277
7.134 11.518 11.664
6.930 11.734 12.142
6.803 11.664 12.578
10.921 10.837 5.001
10.556 10.842 5.466
10.495 10.945 5.763
10.205 11.040 6.303
10.035 10.960 6.652
9.809 11.055 7.112
9.445 11.076 7.572
9.280 10.725 7.426
8.994 10.852 7.823
8.787 10.953 8.211
8.396 10.984 8.713
8.263 10.936 8.986
8.125 11.092 9.505
7.710 11.077 9.977
7.632 11.056 10.273
7.261 11.179 10.788
7.130 11.156 11.176
6.970 11.304 11.604
6.619 11.305 12.020
6.474 11.339 12.502
10.530 10.577 4.834
10.419 10.555 5.243
10.110 10.589 5.673
9.815 10.588 6.082
9.618 10.685 6.613
9.323 10.802 6.970
9.182 10.825 7.362
8.452 10.467 8.014
8.157 10.526 8.533
7.995 10.601 9.016
7.695 10.602 9.284
7.443 10.749 9.828
7.297 10.683 10.289
7.138 10.878 10.706
6.770 10.911 10.962
6.582 10.869 11.479
6.381 10.974 11.808
10.325 10.178 4.801
9.995 10.163 5.137
9.721 10.209 5.506
9.639 10.197 6.069
9.338 10.346 6.375
7.824 10.173 8.443
7.581 10.255 8.800
7.520 10.351 9.147
7.220 10.416 9.576
6.978 10.438 10.070
6.709 10.388 10.466
6.482 10.534 10.982
6.273 10.422 11.349
10.055 9.727 4.614
9.747 9.820 4.966
9.541 9.790 5.524
9.268 9.856 5.870
7.338 9.948 8.611
7.118 9.826 9.206
6.938 10.051 9.461
6.651 10.046 9.868
6.491 10.050 10.405
6.190 10.173 10.858
9.634 9.444 4.453
9.544 9.430 4.900
9.193 9.547 5.356
7.150 9.448 8.471
6.914 9.479 8.893
6.663 9.513 9.490
6.369 9.709 9.867
6.163 9.691 10.301
5.939 9.791 10.708
9.378 9.078 4.430
9.181 9.005 4.820
8.981 9.194 5.220
6.783 9.231 8.361
6.514 9.110 8.833
6.420 9.166 9.222
6.087 9.217 9.778
5.949 9.257 10.153
5.538 9.358 10.522
9.079 8.599 4.159
8.847 8.814 4.611
8.572 8.867 5.132
6.632 8.718 7.825
6.422 8.866 8.359
6.227 8.863 8.816
5.996 8.905 9.168
5.806 8.937 9.640
5.627 8.959 10.047
5.270 8.981 10.496
5.063 8.991 10.791
8.751 8.322 4.148
8.637 8.351 4.509
8.432 8.508 5.039
8.131 8.418 5.282
12.499 12.398 6.261
12.256 12.365 6.606
11.974 12.507 6.939
10.478 12.328 9.081
10.371 12.452 9.482
10.003 12.513 9.877
9.816 12.510 10.294
9.649 12.481 10.709
12.417 12.022 5.607
12.061 12.096 5.989
11.982 12.103 6.404
11.673 12.097 6.945
11.408 12.098 7.294
10.712 11.909 8.086
10.429 11.990 8.448
10.268 12.026 8.865
10.040 11.992 9.316
9.750 12.128 9.722
9.547 12.191 10.141
9.201 12.180 10.597
8.965 12.199 10.991
8.777 12.205 11.336
8.520 12.390 11.868
8.279 12.341 12.315
12.064 11.730 5.473
11.836 11.634 5.998
11.552 11.743 6.392
11.363 11.761 6.787
11.202 11.896 7.232
10.844 11.835 7.688
10.735 11.852 8.069
10.419 11.527 7.905
10.105 11.572 8.281
9.817 11.568 8.743
9.765 11.658 9.164
9.414 11.665 9.531
9.310 11.741 10.009
8.900 11.796 10.395
8.806 11.857 10.804
8.527 11.872 11.363
8.283 11.895 11.782
8.100 11.993 12.175
11.847 11.368 5.453
11.603 11.306 5.814
11.367 11.436 6.155
11.116 11.442 6.709
10.862 11.498 7.096
10.637 11.545 7.542
10.455 11.635 7.932
10.011 11.166 7.836
9.793 11.230 8.208
9.522 11.241 8.668
9.322 11.351 9.073
9.063 11.327 9.429
8.830 11.505 9.843
8.749 11.563 10.409
8.389 11.608 10.674
8.139 11.629 11.256
7.993 11.554 11.593
7.695 11.648 11.964
7.534 11.667 12.440
11.380 10.946 5.217
11.211 11.040 5.695
10.923 10.908 6.218
10.764 10.983 6.611
10.602 11.044 7.041
10.361 11.225 7.419
10.105 11.191 7.806
9.855 10.878 7.701
9.533 10.955 8.108
9.276 10.857 8.464
9.065 11.004 9.053
8.910 11.027 9.455
8.711 11.141 9.876
8.461 11.109 10.209
8.238 11.184 10.734
7.909 11.154 11.162
7.679 11.239 11.560
7.434 11.356 11.978
7.248 11.354 12.427
11.260 10.590 5.179
10.969 10.690 5.620
10.705 10.652 5.976
10.522 10.770 6.379
10.227 10.693 6.905
10.021 10.805 7.325
9.866 10.816 7.641
8.934 10.631 8.496
8.707 10.696 8.839
8.510 10.669 9.302
8.389 10.597 9.727
8.051 10.674 10.017
7.930 10.719 10.563
7.549 10.771 10.959
7.333 10.899 11.275
7.264 10.956 11.784
6.852 11.006 12.127
10.871 10.263 5.082
10.741 10.216 5.470
10.490 10.198 5.862
10.267 10.370 6.309
9.979 10.328 6.743
8.424 10.276 8.751
8.306 10.315 9.077
8.020 10.373 9.552
7.727 10.288 10.036
7.628 10.505 10.431
7.386 10.542 10.823
7.055 10.419 11.174
6.795 10.588 11.677
10.590 9.882 4.883
10.421 9.925 5.386
10.194 9.833 5.667
9.949 9.940 6.209
7.928 9.936 8.972
7.800 10.038 9.474
7.598 9.945 9.883
7.206 10.006 10.266
7.077 10.020 10.675
6.746 10.213 11.048
10.234 9.549 4.844
10.039 9.457 5.153
9.743 9.534 5.709
7.421 9.525 9.352
7.201 9.644 9.795
6.944 9.774 10.108
6.664 9.695 10.589
10.023 9.014 4.606
9.701 9.234 5.138
7.252 9.242 9.162
6.985 9.330 9.706
6.742 9.386 10.000
6.433 9.391 10.360
9.605 8.710 4.549
9.495 8.834 5.059
6.918 8.810 9.090
6.547 8.877 9.438
6.449 9.050 9.818
6.094 9.004 10.431
9.395 8.361 4.470
9.156 8.404 4.817
6.767 8.483 8.614
6.609 8.437 9.037
6.307 8.601 9.317
6.138 8.608 9.875
5.794 8.597 10.152
5.657 8.783 10.627
9.114 7.978 4.362
8.782 7.961 4.732
8.645 8.122 5.060
10.724 12.465 10.106
10.373 12.589 10.575
12.585 12.179 6.875
10.655 12.036 9.693
10.380 12.205 9.989
10.151 12.099 10.582
9.826 12.302 10.847
9.741 12.229 11.320
9.353 12.422 11.767
9.105 12.380 12.118
12.467 11.734 6.245
12.114 11.737 6.767
11.988 11.806 7.138
10.614 11.779 9.195
10.266 11.707 9.491
9.974 11.724 9.910
9.769 11.772 10.421
9.666 11.835 10.794
9.309 11.890 11.195
9.111 11.947 11.697
8.804 11.990 11.978
8.649 12.104 12.557
12.419 11.322 5.816
12.094 11.317 6.216
11.903 11.361 6.480
11.684 11.416 6.914
11.378 11.565 7.467
10.694 11.160 8.194
10.508 11.227 8.657
10.314 11.235 9.049
10.040 11.311 9.495
9.836 11.431 9.731
9.482 11.496 10.316
9.380 11.568 10.715
9.046 11.618 11.113
8.843 11.615 11.552
8.676 11.708 12.010
8.469 11.771 12.348
12.155 11.052 5.602
11.895 11.006 6.042
11.564 10.985 6.469
11.403 11.021 6.924
11.052 11.153 7.252
11.012 11.253 7.810
10.634 11.319 8.094
10.456 10.806 7.958
10.094 10.875 8.399
9.885 10.956 8.927
9.784 10.915 9.193
9.491 10.975 9.658
9.197 11.192 10.189
9.084 11.124 10.607
8.745 11.265 11.007
8.486 11.307 11.348
8.314 11.230 11.865
8.157 11.322 12.308
11.834 10.604 5.471
11.457 10.672 5.837
11.379 10.615 6.232
11.174 10.752 6.680
10.891 10.843 7.159
10.705 10.880 7.562
10.417 10.928 8.070
9.697 10.651 8.666
9.497 10.741 9.257
9.225 10.740 9.572
8.990 10.769 9.919
8.726 10.797 10.350
8.573 10.910 10.945
8.227 10.949 11.314
8.097 10.939 11.768
7.797 11.001 12.130
7.543 10.930 12.581
11.465 10.190 5.437
11.331 10.222 5.821
11.039 10.255 6.254
10.757 10.428 6.657
10.588 10.513 7.124
9.063 10.226 8.966
8.937 10.306 9.401
8.590 10.475 9.906
8.343 10.505 10.242
8.215 10.503 10.785
7.857 10.473 11.113
7.803 10.533 11.514
7.410 10.689 11.990
11.212 9.844 5.169
11.038 9.888 5.692
10.743 9.955 6.037
10.522 9.970 6.559
8.610 9.960 9.367
8.311 10.095 9.793
8.195 10.043 10.188
7.974 10.088 10.577
7.690 10.243 11.073
7.337 10.251 11.382
10.989 9.483 5.165
10.739 9.555 5.505
10.393 9.608 6.012
8.066 9.715 9.686
7.808 9.651 10.035
7.550 9.709 10.488
7.437 9.766 10.807
10.692 9.071 5.007
10.292 9.125 5.356
7.570 9.247 9.953
7.285 9.341 10.384
10.292 8.836 4.970
7.164 8.986 9.868
6.933 9.108 10.220
9.933 8.405 4.833
6.969 8.550 9.629
6.685 8.688 10.110
9.678 8.141 4.585
6.955 8.161 9.093
6.598 8.190 9.521
6.357 8.235 9.902
6.192 8.340 10.326
9.421 7.759 4.504
9.118 7.828 4.851
10.689 12.302 10.877
10.561 12.263 11.198
10.273 12.392 11.601
9.947 12.305 12.004
10.688 11.825 10.344
10.466 11.976 10.745
10.145 11.868 11.123
9.899 11.878 11.571
9.773 11.979 11.896
9.551 11.978 12.472
12.529 11.559 6.891
10.562 11.492 9.739
10.281 11.553 10.233
10.104 11.588 10.667
9.952 11.653 11.078
9.631 11.568 11.348
9.393 11.607 11.767
9.235 11.697 12.226
12.368 11.083 6.270
12.297 11.077 6.810
12.069 11.120 7.204
10.606 10.958 9.094
10.337 11.059 9.698
10.026 11.072 10.072
9.826 11.174 10.463
9.648 11.223 10.968
9.288 11.239 11.226
9.095 11.369 11.797
8.897 11.251 12.050
8.755 11.352 12.563
12.351 10.664 5.819
12.228 10.765 6.133
11.845 10.712 6.554
11.719 10.800 7.059
11.506 10.889 7.557
10.257 10.667 9.123
9.922 10.725 9.513
9.719 10.814 10.004
9.482 10.697 10.366
9.226 10.749 10.651
9.022 10.888 11.077
8.904 10.922 11.638
8.544 10.882 11.918
8.337 10.931 12.349
12.007 10.286 5.639
11.796 10.342 6.117
11.594 10.438 6.538
11.476 10.408 7.034
11.092 10.475 7.403
9.761 10.352 9.407
9.534 10.443 9.735
9.291 10.515 10.229
9.001 10.465 10.576
8.837 10.512 11.021
8.640 10.605 11.422
8.261 10.572 11.959
8.170 10.649 12.412
11.852 10.013 5.532
11.623 9.912 5.937
11.384 10.043 6.409
11.154 9.995 6.831
9.135 9.982 9.744
8.986 10.150 9.986
8.758 10.029 10.441
8.432 10.230 10.999
8.280 10.296 11.347
7.962 10.343 11.748
11.572 9.574 5.479
11.207 9.566 5.891
10.992 9.657 6.191
8.659 9.686 10.060
8.371 9.807 10.429
8.270 9.760 10.810
7.973 9.877 11.172
11.166 9.200 5.324
10.896 9.302 5.796
8.163 9.421 10.336
7.926 9.409 10.634
10.903 8.802 5.242
6.969 7.844 9.679
6.744 7.988 10.137
9.719 7.367 4.667
10.810 12.059 11.510
10.501 12.108 11.905
10.819 11.649 10.851
10.414 11.518 11.324
10.340 11.564 11.728
9.999 11.741 12.168
10.679 11.168 10.387
10.489 11.267 10.772
10.192 11.150 11.105
9.999 11.307 11.589
9.721 11.308 12.099
9.521 11.291 12.454
12.422 10.839 6.944
10.666 10.761 9.825
10.309 10.726 10.180
10.102 10.763 10.718
9.902 10.966 11.069
9.698 11.014 11.485
9.357 10.898 11.997
9.185 11.004 12.401
12.384 10.436 6.477
12.277 10.424 6.796
11.996 10.515 7.217
10.296 10.444 9.685
10.111 10.343 10.152
9.896 10.521 10.456
9.624 10.500 11.028
9.339 10.511 11.362
9.174 10.513 11.835
8.894 10.635 12.271
12.454 10.050 5.814
12.135 10.058 6.304
11.874 10.001 6.647
11.633 10.091 7.165
9.716 10.127 10.029
9.533 10.042 10.335
9.306 10.102 10.789
9.151 10.247 11.205
8.816 10.216 11.593
8.587 10.349 12.057
12.112 9.654 5.782
11.773 9.589 6.130
11.642 9.776 6.615
9.228 9.844 10.360
8.994 9.804 10.806
8.861 9.764 11.176
8.537 9.903 11.475
11.734 9.267 5.551
11.571 9.214 6.064
8.691 9.481 10.599
8.493 9.481 11.009
11.554 8.897 5.536
10.860 11.343 11.584
10.622 11.359 12.012
10.721 10.813 11.069
10.450 10.903 11.393
10.204 10.884 11.798
9.980 11.000 12.165
10.678 10.393 10.494
10.374 10.558 10.783
10.269 10.500 11.181
10.054 10.681 11.687
9.709 10.664 12.158
9.462 10.794 12.451
12.433 10.057 7.016
10.465 10.097 10.296
10.060 10.248 10.670
9.885 10.240 11.185
9.743 10.308 11.535
9.509 10.352 12.047
9.282 10.356 12.369
12.371 9.681 6.442
12.284 9.752 6.870
9.787 9.791 10.620
9.576 9.844 10.983
9.412 9.980 11.493
9.147 9.856 11.864
12.469 9.209 6.012
12.125 9.262 6.359
9.284 9.571 10.885
9.123 9.494 11.297
12.071 8.956 5.881
11.082 10.907 11.632
10.880 11.092 12.158
10.956 10.514 11.214
10.909 10.590 11.586
10.673 10.573 12.082
10.295 10.705 12.479
10.925 10.215 10.670
10.811 10.278 11.081
10.601 10.317 11.532
10.217 10.366 11.984
10.055 10.425 12.357
10.666 9.789 10.529
10.397 9.777 10.852
10.318 9.833 11.348
10.041 9.890 11.847
9.773 10.022 12.219
12.474 9.352 7.077
10.106 9.421 10.881
9.996 9.429 11.295
9.727 9.591 11.672
9.462 9.684 12.174
12.470 9.082 6.648
9.621 9.199 11.035
9.462 9.263 11.553
12.310 8.661 6.035
3.239 12.185 0.097
3.951 12.279 0.460
3.635 11.860 0.198
3.229 11.595 0.153
3.078 11.139 0.026
4.623 12.196 0.299
4.420 12.358 0.644
4.404 11.831 0.160
4.167 11.932 0.695
4.145 11.546 0.060
3.836 11.691 0.497
3.596 11.155 0.322
3.191 10.822 0.312
3.023 10.586 0.097
2.797 10.176 0.015
5.274 11.995 0.016
4.940 12.002 0.592
4.779 11.966 0.886
4.691 11.662 0.488
4.454 11.644 0.799
4.469 11.275 0.230
4.152 11.364 0.601
4.108 10.893 0.087
3.797 10.901 0.670
3.908 10.492 0.013
3.532 10.536 0.365
3.348 10.246 0.250
3.079 9.826 0.207
2.805 9.560 0.113
5.466 11.573 0.284
5.244 11.638 0.677
5.175 11.788 1.067
5.160 11.249 0.129
4.950 11.250 0.614
4.865 11.259 1.002
4.940 10.871 0.007
4.677 10.977 0.402
4.581 11.045 0.915
4.412 10.519 0.291
4.110 10.548 0.702
4.120 10.133 0.251
3.909 10.287 0.665
3.881 9.911 0.170
3.522 9.889 0.479
3.298 9.487 0.325
2.982 9.149 0.342
2.763 8.799 0.122
2.397 8.367 0.017
2.442 7.787 0.032
2.194 7.357 -0.076
5.890 11.219 0.480
5.642 11.344 1.011
5.450 11.347 1.440
5.502 10.880 0.462
5.322 10.984 0.756
5.095 10.968 1.185
5.288 10.476 0.167
4.992 10.550 0.705
4.857 10.659 1.096
4.889 10.110 0.198
4.746 10.289 0.539
4.407 10.380 0.882
4.613 9.875 -0.082
4.471 9.984 0.518
4.149 9.881 0.913
4.215 9.552 0.365
3.849 9.600 0.661
3.943 9.187 0.261
3.536 9.279 0.565
3.608 8.839 -0.027
3.226 8.869 0.437
3.090 8.543 0.360
2.729 8.170 0.231
2.462 7.842 0.147
2.222 6.663 0.102
5.826 10.960 1.063
5.722 11.130 1.638
5.781 10.522 0.656
5.643 10.676 0.993
5.301 10.755 1.327
5.779 10.180 0.036
5.487 10.306 0.419
5.256 10.361 0.908
5.172 10.246 1.334
5.346 9.949 0.355
5.083 9.875 0.759
4.733 10.004 1.276
4.976 9.483 0.292
4.824 9.664 0.624
4.413 9.713 0.999
4.591 9.164 0.056
4.435 9.267 0.500
4.212 9.341 0.943
4.236 8.912 0.385
3.832 8.956 0.841
3.759 8.458 0.362
3.617 8.490 0.734
3.332 8.184 0.645
2.193 5.948 0.178
1.867 5.676 0.011
5.941 10.701 1.756
5.982 10.279 1.265
5.605 10.489 1.560
5.778 9.869 0.608
5.576 9.937 0.995
5.466 10.058 1.429
5.736 9.441 0.200
5.512 9.483 0.503
5.261 9.640 0.936
5.068 9.634 1.286
5.335 9.244 0.345
5.015 9.264 0.794
4.867 9.297 1.320
4.986 8.751 0.326
4.810 8.889 0.668
4.501 8.974 1.204
4.535 8.482 0.588
4.146 8.584 1.052
3.943 8.199 0.898
2.242 5.329 0.196
1.869 4.952 0.071
5.954 10.046 1.910
5.943 9.665 1.269
5.790 9.649 1.709
5.930 9.293 0.828
5.689 9.229 1.255
5.419 9.398 1.489
5.619 8.809 0.534
5.355 8.984 1.114
5.117 8.987 1.390
5.004 8.560 0.919
4.810 8.538 1.437
4.621 8.290 1.173
2.425 5.046 0.423
2.255 4.611 0.273
1.812 4.371 0.236
1.605 3.941 0.128
6.376 9.679 2.089
6.313 9.335 1.535
5.946 9.494 1.977
6.173 8.956 1.001
5.970 8.993 1.355
5.626 9.055 1.706
5.915 8.500 0.915
5.714 8.722 1.334
5.456 8.728 1.726
5.398 8.355 1.086
5.186 8.394 1.550
4.836 8.004 1.514
2.874 4.738 0.630
2.758 4.291 0.098
2.485 4.364 0.566
2.283 3.903 0.419
1.803 3.569 0.297
1.653 3.358 0.233
1.404 2.911 -0.019
6.589 9.414 2.257
6.627 8.991 1.724
6.387 9.001 2.021
6.406 8.611 1.163
6.334 8.758 1.661
6.106 8.622 1.971
6.223 8.226 1.036
5.967 8.214 1.409
5.683 8.295 1.771
5.726 7.996 1.370
5.522 7.938 1.701
5.219 7.705 1.691
3.302 4.697 0.990
3.355 4.360 0.512
3.170 4.362 0.820
2.996 3.901 0.255
2.782 3.961 0.662
2.741 3.554 0.106
2.581 3.729 0.535
2.467 3.180 0.020
2.228 3.401 0.520
1.859 2.936 0.452
1.708 2.557 0.272
1.285 2.226 0.126
7.236 9.503 2.592
7.072 9.146 1.993
6.841 9.112 2.368
7.118 8.691 1.534
6.904 8.657 1.845
6.602 8.822 2.232
7.083 8.357 0.852
6.844 8.363 1.305
6.553 8.273 1.812
6.305 8.427 2.157
6.754 7.907 0.884
6.580 7.885 1.184
6.215 7.956 1.587
6.080 8.014 2.109
6.182 7.631 1.035
5.899 7.600 1.579
5.726 7.753 1.971
5.701 7.290 1.377
5.362 7.243 1.729
5.195 6.977 1.750
4.024 4.789 1.256
3.914 4.409 0.760
3.706 4.387 1.202
3.787 3.911 0.113
3.606 4.118 0.624
3.404 4.041 1.046
3.582 3.611 0.145
3.272 3.742 0.469
3.145 3.679 1.024
2.978 3.319 0.419
2.860 3.356 0.758
2.836 3.043 0.245
2.586 3.023 0.612
2.542 2.526 0.191
2.132 2.693 0.546
2.175 2.314 0.084
1.854 2.345 0.463
1.598 1.902 0.250
1.253 1.515 0.260
7.710 9.139 2.244
7.592 9.265 2.735
7.648 8.740 1.694
7.425 8.776 2.301
7.309 8.803 2.588
7.592 8.283 1.267
7.379 8.335 1.726
7.258 8.443 2.107
6.995 8.357 2.561
7.621 7.972 0.644
7.378 7.913 1.111
7.186 7.923 1.553
6.843 8.009 1.973
6.539 8.037 2.479
7.226 7.586 0.675
6.965 7.504 1.074
6.759 7.550 1.459
6.654 7.770 1.764
6.342 7.791 2.185
6.791 7.291 0.837
6.430 7.204 1.238
6.279 7.297 1.666
6.006 7.445 2.226
6.299 6.987 1.262
6.026 6.933 1.597
5.839 6.966 1.987
5.635 6.597 1.425
5.518 6.574 1.866
5.121 6.230 1.784
1.245 12.468 0.169
1.687 12.146 0.271
1.460 12.377 0.716
1.084 12.292 1.129
1.320 11.832 0.188
1.123 11.871 0.605
0.935 11.448 0.045
2.407 12.165 0.276
2.293 12.288 0.583
2.053 12.308 0.985
1.806 12.423 1.400
1.452 12.477 1.917
0.275 12.202 3.527
0.150 12.209 3.934
2.111 11.807 0.046
1.862 11.836 0.481
1.589 12.021 0.881
1.527 11.961 1.308
1.210 11.964 1.850
1.615 11.598 0.394
1.297 11.555 0.827
1.074 11.711 1.273
1.345 11.264 0.233
1.114 11.200 0.612
1.072 10.834 0.174
2.994 12.330 0.473
2.902 12.381 0.926
2.658 12.327 1.310
2.331 12.494 1.752
2.034 12.381 2.241
1.281 12.217 2.989
1.168 12.272 3.334
0.983 12.285 3.751
0.623 12.411 4.245
0.430 12.472 4.699
0.246 12.469 4.979
2.799 11.998 0.459
2.606 11.943 0.763
2.197 12.004 1.246
2.132 12.010 1.649
1.769 12.027 2.047
1.510 12.152 2.441
1.368 12.179 2.939
1.046 11.883 2.723
0.775 11.876 3.253
0.634 12.003 3.710
0.460 11.902 4.109
0.152 12.047 4.477
2.364 11.515 0.208
2.272 11.535 0.787
2.077 11.622 1.074
1.775 11.745 1.568
1.509 11.689 1.887
1.277 11.887 2.388
1.121 11.820 2.827
0.313 11.659 3.557
0.107 11.709 3.845
2.180 11.106 0.175
1.931 11.298 0.662
1.644 11.211 0.920
1.456 11.265 1.477
1.173 11.361 1.759
1.785 10.762 0.020
1.596 10.949 0.532
1.434 10.956 0.838
1.092 10.994 1.242
1.270 10.460 0.321
1.099 10.512 0.801
1.124 10.201 0.171
0.755 9.174 0.159
0.514 8.803 0.082
3.555 12.377 0.807
3.446 12.441 1.308
3.201 12.378 1.690
2.871 12.491 2.010
2.775 12.496 2.615
2.000 12.168 3.270
1.732 12.276 3.692
1.577 12.303 4.037
1.317 12.364 4.480
1.036 12.433 4.921
0.739 12.476 5.429
0.639 12.516 5.761
3.399 11.929 0.716
3.070 12.024 1.150
2.904 11.977 1.614
2.553 12.070 2.046
2.465 12.176 2.445
2.250 12.201 2.755
2.046 12.188 3.149
1.582 11.971 3.076
1.421 11.855 3.585
1.170 12.011 4.021
0.990 11.993 4.298
0.665 12.137 4.765
0.428 12.188 5.319
0.184 12.062 5.695
0.067 12.188 6.110
2.977 11.533 0.500
2.726 11.589 0.973
2.644 11.781 1.340
2.381 11.679 1.791
2.102 11.863 2.245
1.900 11.807 2.713
1.655 11.785 3.069
1.348 11.513 2.978
1.170 11.592 3.339
0.923 11.626 3.812
0.669 11.724 4.225
0.425 11.790 4.734
0.142 11.748 5.136
2.675 11.234 0.444
2.537 11.192 0.927
2.367 11.290 1.259
2.042 11.391 1.812
1.854 11.520 2.073
1.559 11.394 2.542
1.370 11.529 3.050
1.122 11.079 2.890
0.886 11.145 3.396
0.647 11.209 3.774
0.345 11.306 4.219
0.151 11.403 4.564
2.364 10.871 0.359
2.295 10.907 0.769
2.009 10.980 1.095
1.762 11.012 1.554
1.518 11.047 2.073
1.228 11.026 2.505
1.051 11.208 2.851
0.376 10.827 3.698
-0.010 11.015 4.106
2.237 10.511 0.139
1.945 10.484 0.638
1.782 10.646 0.993
1.446 10.650 1.437
1.329 10.766 1.885
1.929 10.108 0.175
1.598 10.170 0.510
1.310 10.325 0.948
1.081 10.212 1.368
1.246 9.912 0.465
1.086 9.956 0.817
1.014 9.471 0.302
0.661 9.025 0.100
0.973 8.874 0.317
0.760 8.858 0.774
0.768 8.460 0.252
0.564 8.456 0.719
0.500 8.051 0.049
0.323 8.026 0.497
-0.093 8.136 1.058
4.162 12.359 1.089
4.099 12.421 1.678
3.684 12.421 1.906
3.452 12.512 2.463
3.365 12.574 2.937
2.620 12.370 3.665
2.285 12.373 3.942
2.089 12.458 4.478
1.920 12.369 4.909
1.693 12.442 5.292
1.381 12.584 5.659
3.974 12.027 1.117
3.689 12.118 1.511
3.540 12.087 1.847
3.306 12.068 2.255
3.015 12.106 2.818
2.724 12.325 3.137
2.523 12.373 3.657
2.188 11.912 3.443
1.957 11.967 3.962
1.845 12.020 4.371
1.571 12.106 4.780
1.258 12.152 5.199
1.150 12.125 5.622
0.810 12.266 5.953
0.712 12.161 6.484
0.322 12.297 6.843
0.202 12.393 7.201
3.715 11.738 0.888
3.375 11.795 1.389
3.102 11.648 1.677
2.939 11.802 2.132
2.643 11.801 2.620
2.469 11.887 3.122
2.246 11.870 3.401
1.932 11.622 3.295
1.775 11.709 3.828
1.417 11.691 4.187
1.333 11.773 4.507
0.946 11.839 5.017
0.876 11.745 5.381
0.646 11.798 5.801
0.427 11.891 6.325
0.201 11.971 6.696
3.428 11.260 0.732
3.139 11.353 1.210
2.855 11.429 1.645
2.642 11.388 2.114
2.416 11.525 2.394
2.108 11.471 2.853
1.967 11.631 3.414
1.598 11.127 3.273
1.378 11.165 3.561
1.112 11.311 3.976
0.928 11.362 4.384
0.712 11.317 4.988
0.543 11.350 5.280
0.210 11.451 5.641
0.136 11.547 6.242
3.140 10.889 0.722
2.739 10.989 1.039
2.593 10.941 1.571
2.418 11.120 1.959
2.202 11.032 2.273
1.906 11.085 2.789
1.626 11.166 3.108
1.436 10.792 3.056
1.089 10.821 3.459
0.898 10.974 3.919
0.713 11.076 4.308
0.416 11.092 4.740
0.222 11.060 5.160
2.689 10.491 0.632
2.611 10.698 0.878
2.352 10.675 1.313
2.143 10.682 1.766
1.859 10.788 2.197
1.533 10.738 2.754
1.277 10.774 3.177
1.131 10.523 2.903
0.827 10.613 3.386
0.539 10.650 3.814
0.351 10.540 4.237
0.177 10.721 4.685
2.508 10.179 0.500
2.139 10.306 0.931
1.935 10.324 1.295
1.844 10.242 1.619
1.464 10.454 2.188
1.394 10.377 2.572
1.043 10.539 3.042
0.345 10.267 3.654
0.100 10.306 4.037
2.179 9.904 0.381
2.022 9.866 0.682
1.693 9.844 1.115
1.464 10.069 1.622
1.204 10.060 1.915
1.855 9.402 0.183
1.725 9.504 0.673
1.434 9.568 1.050
1.194 9.666 1.475
1.679 9.022 0.115
1.312 9.093 0.441
1.038 9.300 0.987
0.976 8.811 0.331
0.830 8.765 0.713
1.680 8.505 0.090
1.370 8.488 0.492
1.046 8.466 0.901
1.333 8.089 -0.012
1.071 8.053 0.355
0.761 8.063 0.960
0.813 7.778 0.295
0.570 7.759 0.644
0.225 7.841 1.253
0.444 7.422 0.244
0.152 7.402 0.537
-0.035 7.509 0.978
0.243 7.107 -0.013
2.757 12.404 4.657
2.374 12.557 5.073
2.328 12.546 5.672
4.506 12.066 1.267
4.382 12.194 1.862
4.055 12.207 2.231
3.841 12.248 2.673
3.582 12.167 3.053
2.791 11.989 3.785
2.542 11.944 4.180
2.302 11.999 4.636
2.250 12.112 4.997
2.018 12.236 5.393
1.726 12.195 5.860
1.508 12.218 6.266
1.167 12.263 6.644
1.079 12.441 7.121
0.862 12.486 7.647
0.633 12.496 7.963
0.377 12.504 8.319
0.043 12.456 8.872
4.294 11.654 1.140
3.979 11.659 1.686
3.715 11.728 2.002
3.596 11.819 2.586
3.270 11.848 2.951
3.057 11.868 3.284
2.762 11.958 3.790
2.481 11.642 3.721
2.253 11.616 4.000
2.102 11.726 4.560
1.838 11.773 4.946
1.695 11.758 5.382
1.366 11.872 5.787
1.150 11.940 6.087
0.918 11.950 6.529
0.644 11.921 7.080
0.508 11.940 7.539
0.321 12.009 7.928
-0.070 12.062 8.242
3.885 11.270 1.114
3.768 11.379 1.593
3.467 11.360 2.058
3.249 11.559 2.409
3.072 11.453 2.883
2.849 11.567 3.190
2.559 11.702 3.608
2.281 11.278 3.502
2.044 11.299 3.954
1.861 11.270 4.389
1.612 11.367 4.759
1.369 11.404 5.161
1.044 11.506 5.606
0.957 11.482 6.033
0.624 11.583 6.389
0.492 11.579 6.980
0.239 11.631 7.318
3.589 10.907 0.976
3.504 10.929 1.469
3.123 11.081 1.878
2.941 11.046 2.352
2.743 11.216 2.689
2.449 11.302 3.030
2.187 11.260 3.488
1.900 10.804 3.336
1.762 10.879 3.888
1.545 11.061 4.345
1.283 10.990 4.688
1.068 11.012 5.075
0.749 11.038 5.447
0.605 11.105 5.939
0.272 11.288 6.406
0.061 11.273 6.836
3.275 10.561 0.914
3.040 10.562 1.380
2.940 10.639 1.679
2.599 10.798 2.068
2.535 10.727 2.551
2.195 10.761 2.976
2.001 10.793 3.447
1.606 10.467 3.332
1.524 10.542 3.723
1.149 10.568 4.069
1.069 10.696 4.597
0.758 10.732 4.955
0.616 10.847 5.309
0.288 10.717 5.837
0.068 10.946 6.274
3.151 10.169 0.789
2.766 10.372 1.118
2.646 10.287 1.682
2.285 10.423 2.031
2.178 10.359 2.478
1.959 10.506 2.779
1.625 10.523 3.249
1.344 10.233 3.180
1.182 10.213 3.663
1.019 10.271 3.963
0.709 10.230 4.491
0.488 10.435 4.839
0.222 10.471 5.358
2.692 9.866 0.707
2.495 9.951 0.956
2.270 10.023 1.440
2.115 9.991 1.860
1.787 10.041 2.413
1.713 10.157 2.744
1.331 10.174 3.071
0.541 9.810 3.948
0.382 10.006 4.283
0.241 9.938 4.731
2.442 9.561 0.588
2.234 9.619 1.014
2.063 9.637 1.420
1.848 9.705 1.713
1.458 9.632 2.260
0.192 9.484 4.198
2.160 9.146 0.461
1.970 9.136 0.868
1.633 9.263 1.200
1.529 9.353 1.641
1.794 8.742 0.279
1.586 8.793 0.762
1.343 8.849 1.163
1.527 8.355 0.075
1.431 8.541 0.567
1.082 8.443 0.916
1.885 8.025 0.267
1.758 8.233 0.777
1.561 7.768 0.212
1.405 7.896 0.596
1.377 7.366 0.116
1.151 7.484 0.472
0.904 7.565 0.983
0.867 7.029 0.476
0.518 7.209 0.805
0.385 7.088 1.282
0.409 6.713 0.326
0.243 6.758 0.672
0.054 6.795 1.087
0.250 6.364 0.230
2.865 12.121 5.289
2.592 12.199 5.695
2.245 12.295 6.289
2.018 12.339 6.655
1.892 12.259 7.091
1.546 12.488 7.468
1.468 12.479 7.877
1.194 12.479 8.392
4.943 11.710 1.477
4.608 11.703 1.962
4.305 11.799 2.453
4.180 11.795 2.821
2.711 11.726 4.756
2.516 11.735 5.238
2.159 11.823 5.618
2.046 11.852 6.179
1.718 11.886 6.487
1.611 11.991 6.887
1.219 12.058 7.278
1.120 12.014 7.816
0.863 12.219 8.286
0.596 12.216 8.708
4.485 11.437 1.486
4.249 11.369 1.830
4.146 11.423 2.197
3.792 11.603 2.610
3.564 11.591 3.135
2.944 11.392 3.932
2.605 11.389 4.287
2.502 11.434 4.596
2.262 11.374 5.048
2.002 11.569 5.611
1.738 11.521 5.875
1.419 11.541 6.321
1.229 11.611 6.801
1.075 11.658 7.275
0.773 11.724 7.606
0.472 11.787 8.091
0.366 11.813 8.423
0.048 11.829 8.936
4.241 11.061 1.374
4.046 11.004 1.733
3.831 11.196 2.066
3.477 11.159 2.535
3.329 11.186 3.074
3.091 11.186 3.411
2.891 11.289 3.767
2.621 10.953 3.715
2.398 10.922 4.232
2.205 11.117 4.521
1.825 11.008 4.977
1.710 11.196 5.443
1.345 11.207 5.818
1.208 11.234 6.317
1.019 11.285 6.745
0.728 11.374 7.157
0.492 11.358 7.493
0.178 11.408 7.984
0.109 11.455 8.387
3.886 10.663 1.265
3.775 10.632 1.613
3.566 10.797 2.074
3.254 10.894 2.523
3.037 10.759 2.802
2.815 10.819 3.246
2.550 10.927 3.824
2.377 10.488 3.682
1.965 10.711 3.937
1.891 10.740 4.485
1.534 10.748 4.795
1.365 10.832 5.298
1.176 10.811 5.725
0.887 10.816 6.127
0.611 10.861 6.555
0.345 10.940 6.922
0.275 11.080 7.327
3.728 10.197 1.057
3.378 10.320 1.451
3.226 10.339 1.959
2.912 10.381 2.246
2.836 10.428 2.715
2.462 10.531 3.230
2.293 10.498 3.691
1.969 10.143 3.538
1.775 10.181 3.963
1.447 10.351 4.264
1.335 10.258 4.695
1.001 10.325 5.208
0.829 10.487 5.577
0.547 10.542 6.097
0.342 10.619 6.450
0.062 10.631 6.831
3.322 9.988 0.967
3.081 9.954 1.421
2.950 9.987 1.835
2.769 10.003 2.143
2.472 10.202 2.679
2.162 10.069 2.967
1.973 10.127 3.541
1.264 9.960 4.169
0.920 9.918 4.644
0.683 10.026 5.127
0.531 9.980 5.461
0.231 10.107 5.816
0.084 10.236 6.413
3.085 9.516 0.736
2.880 9.641 1.156
2.638 9.674 1.636
2.357 9.774 2.033
2.106 9.737 2.538
0.743 9.591 4.482
0.429 9.695 5.026
0.261 9.626 5.255
0.092 9.798 5.825
2.804 9.223 0.762
2.589 9.245 1.203
2.290 9.217 1.494
2.043 9.265 1.999
0.200 9.386 4.809
2.529 8.760 0.604
2.170 8.870 0.945
2.124 8.976 1.373
2.096 8.547 0.546
1.882 8.455 0.859
1.897 8.131 0.406
1.750 8.098 0.785
2.118 7.858 0.522
1.847 7.382 0.413
1.620 7.109 0.337
1.395 7.217 0.639
1.417 6.753 0.220
1.160 6.809 0.618
0.834 6.882 1.117
0.986 6.371 0.076
0.728 6.329 0.406
0.656 6.377 0.923
0.263 6.473 1.298
0.578 6.020 0.455
0.255 6.161 0.685
0.041 6.041 1.223
0.212 5.674 0.256
2.773 11.947 5.985
2.556 12.018 6.372
2.381 12.021 6.760
2.062 12.086 7.275
1.891 12.151 7.704
1.721 12.077 8.038
5.208 11.500 1.811
5.014 11.456 2.235
4.752 11.539 2.617
2.708 11.452 5.361
2.582 11.472 5.876
2.275 11.636 6.308
2.119 11.648 6.741
1.832 11.750 7.047
1.651 11.686 7.580
1.415 11.672 8.045
1.115 11.736 8.362
4.858 11.042 1.646
4.653 11.101 2.098
4.450 11.171 2.561
4.100 11.275 2.873
2.676 10.978 4.949
2.560 11.027 5.225
2.301 11.262 5.707
2.077 11.246 6.107
1.753 11.269 6.567
1.636 11.227 6.987
1.409 11.281 7.449
1.060 11.434 7.868
0.777 11.349 8.310
0.573 11.569 8.775
4.542 10.667 1.430
4.339 10.818 2.017
4.141 10.881 2.313
3.823 10.871 2.839
3.547 10.801 3.128
2.857 10.549 4.003
2.596 10.610 4.262
2.371 10.623 4.709
2.177 10.690 5.283
1.902 10.784 5.627
1.774 10.785 6.011
1.488 10.935 6.495
1.237 10.999 6.952
1.121 10.955 7.398
0.844 10.940 7.668
0.584 11.089 8.079
0.312 11.124 8.498
0.098 11.235 9.058
4.317 10.257 1.487
4.100 10.459 1.851
3.734 10.484 2.170
3.598 10.429 2.723
3.347 10.431 3.007
3.197 10.612 3.570
2.971 10.598 3.953
2.501 10.228 3.752
2.432 10.373 4.289
2.206 10.428 4.594
1.940 10.433 5.120
1.702 10.416 5.413
1.429 10.447 5.928
1.215 10.563 6.249
1.006 10.668 6.829
0.779 10.722 7.269
0.416 10.584 7.654
0.176 10.721 8.034
0.051 10.853 8.354
3.897 9.981 1.221
3.683 10.021 1.655
3.558 10.042 2.201
3.327 10.184 2.625
3.057 10.118 2.983
2.789 10.146 3.439
2.613 10.184 3.848
1.780 9.915 4.562
1.509 10.063 5.013
1.376 10.002 5.437
1.076 10.113 5.845
0.989 10.230 6.308
0.737 10.230 6.584
0.480 10.295 6.998
0.269 10.253 7.549
3.641 9.707 1.057
3.446 9.676 1.579
3.163 9.798 2.096
2.896 9.787 2.494
2.743 9.745 2.901
1.276 9.653 4.846
1.147 9.797 5.259
0.814 9.685 5.696
0.609 9.820 6.163
0.335 9.761 6.612
0.214 9.923 6.848
3.457 9.266 1.004
3.206 9.336 1.453
2.860 9.385 1.896
2.670 9.401 2.215
0.729 9.275 5.040
0.489 9.440 5.520
0.398 9.479 5.966
0.179 9.520 6.371
3.145 8.960 0.884
2.955 8.843 1.278
2.654 8.902 1.847
0.314 9.015 5.510
-0.022 9.035 5.856
2.841 8.493 0.742
2.623 8.656 1.195
2.595 8.150 0.642
2.213 7.710 0.471
1.957 6.764 0.490
1.659 6.424 0.301
1.441 6.523 0.839
1.262 6.027 0.265
1.039 5.997 0.755
0.962 6.053 1.046
1.031 5.694 0.102
0.886 5.724 0.635
0.545 5.683 0.958
0.395 5.867 1.378
0.756 5.222 0.109
0.451 5.445 0.390
0.338 5.482 0.824
0.103 5.479 1.308
0.225 5.085 0.250
2.931 11.569 6.704
2.691 11.748 7.090
2.486 11.624 7.443
2.201 11.718 7.864
5.480 11.051 1.885
5.284 11.194 2.442
2.791 11.150 6.042
2.627 11.329 6.430
2.349 11.234 6.887
2.107 11.383 7.282
2.008 11.355 7.678
1.649 11.439 8.163
5.109 10.658 1.915
4.891 10.864 2.184
4.683 10.872 2.610
2.732 10.759 5.548
2.617 10.862 5.897
2.376 10.995 6.399
2.050 10.860 6.705
1.901 10.951 7.210
1.536 11.056 7.561
1.392 11.107 8.037
1.164 11.126 8.497
4.923 10.310 1.683
4.584 10.512 2.107
4.484 10.564 2.576
4.221 10.576 3.019
2.691 10.406 4.994
2.489 10.532 5.418
2.312 10.559 5.896
2.022 10.467 6.252
1.795 10.590 6.628
1.512 10.669 6.987
1.349 10.706 7.420
1.194 10.753 7.879
0.810 10.746 8.396
0.574 10.863 8.738
4.590 10.059 1.664
4.282 10.156 2.027
4.063 10.140 2.376
3.952 10.082 2.908
3.584 10.225 3.293
2.515 10.048 4.941
2.266 10.176 5.182
2.004 10.145 5.701
1.780 10.150 6.074
1.426 10.214 6.513
1.268 10.263 6.882
1.003 10.260 7.398
0.790 10.413 7.874
0.513 10.469 8.214
0.435 10.434 8.737
4.362 9.735 1.520
3.977 9.739 1.835
3.868 9.689 2.307
3.518 9.849 2.797
3.439 9.771 3.163
1.880 9.687 5.116
1.639 9.837 5.621
1.350 9.750 6.040
1.202 9.763 6.462
0.901 9.899 6.807
0.792 9.912 7.279
0.519 10.004 7.654
0.225 10.067 8.098
4.068 9.290 1.374
3.850 9.394 1.775
3.570 9.335 2.228
3.328 9.428 2.547
1.437 9.447 5.471
1.118 9.533 5.928
0.891 9.563 6.375
0.646 9.599 6.718
0.510 9.675 7.111
0.223 9.659 7.499
3.735 9.004 1.148
3.442 9.062 1.561
3.172 9.122 2.057
0.897 9.084 5.821
0.671 9.186 6.191
0.485 9.239 6.621
0.179 9.166 7.114
3.390 8.507 1.054
3.214 8.526 1.518
0.352 8.799 6.046
0.051 8.725 6.560
3.135 8.124 1.062
1.841 6.123 0.612
1.690 5.812 0.406
1.400 5.759 0.895
1.336 5.374 0.255
1.129 5.384 0.725
0.799 5.493 1.196
0.961 4.950 0.255
0.886 5.036 0.698
0.567 5.079 0.999
0.311 5.085 1.552
0.805 4.546 0.134
0.475 4.673 0.545
0.263 4.641 0.912
-0.018 4.790 1.397
0.141 4.273 0.469
2.949 11.279 7.199
2.759 11.426 7.599
5.707 10.788 2.163
3.015 10.924 6.637
2.686 11.023 7.029
2.543 11.061 7.534
2.329 11.146 7.943
5.539 10.510 2.117
5.228 10.574 2.494
2.871 10.610 6.080
2.574 10.598 6.547
2.363 10.706 6.901
2.203 10.601 7.400
2.026 10.681 7.733
1.777 10.674 8.168
5.258 9.984 1.993
4.848 10.183 2.320
4.751 10.237 2.729
2.765 10.067 5.547
2.653 10.225 5.931
2.314 10.126 6.383
2.007 10.259 6.855
1.946 10.405 7.299
1.704 10.396 7.701
1.383 10.367 8.129
1.214 10.460 8.485
4.967 9.734 1.712
4.703 9.749 2.257
4.409 9.728 2.570
4.283 9.924 3.151
2.460 9.805 5.448
2.192 9.864 5.813
2.005 9.933 6.354
1.878 9.965 6.722
1.633 9.879 7.238
1.287 10.091 7.652
1.214 9.965 7.928
0.953 10.025 8.468
4.589 9.390 1.720
4.419 9.473 2.054
4.087 9.373 2.568
3.805 9.429 2.976
2.049 9.467 5.758
1.653 9.413 6.162
1.607 9.535 6.612
1.218 9.530 6.945
0.981 9.594 7.517
0.830 9.713 7.794
4.387 8.928 1.586
4.089 9.000 1.895
3.741 9.014 2.331
1.518 9.179 5.987
1.164 9.255 6.543
0.913 9.151 6.917
0.822 9.220 7.407
4.014 8.609 1.535
3.729 8.674 1.888
0.958 8.902 6.345
0.709 8.861 6.824
3.772 8.265 1.222
1.970 5.492 0.622
1.600 5.075 0.465
1.398 5.053 0.965
1.428 4.579 0.384
1.165 4.675 0.850
0.812 4.787 1.252
0.961 4.308 0.390
0.905 4.357 0.773
0.635 4.460 1.231
0.718 3.856 0.248
0.453 4.005 0.659
0.435 3.519 0.146
3.013 10.754 7.322
2.866 10.802 7.643
5.798 10.152 2.163
3.029 10.361 6.762
2.615 10.283 7.155
2.454 10.364 7.610
2.257 10.394 7.989
5.472 9.751 2.156
5.325 9.711 2.553
2.915 9.879 6.180
2.566 9.900 6.712
2.488 9.899 7.049
2.184 9.997 7.434
1.879 10.022 7.999
1.803 10.115 8.417
5.104 9.327 1.974
4.960 9.451 2.374
4.802 9.560 2.753
2.486 9.443 6.027
2.417 9.574 6.497
2.115 9.683 6.967
1.914 9.609 7.318
1.741 9.768 7.789
1.437 9.813 8.299
4.927 9.100 1.908
4.637 9.143 2.360
4.334 9.220 2.740
2.089 9.209 6.435
1.773 9.320 6.730
1.539 9.262 7.181
1.391 9.276 7.612
4.667 8.667 1.720
4.354 8.804 2.182
1.479 8.869 6.725
1.332 8.941 7.033
4.322 8.363 1.615
2.217 5.084 0.890
2.040 4.667 0.793
1.696 4.749 1.198
1.594 4.353 0.550
1.416 4.372 1.026
1.238 4.529 1.550
1.445 4.029 0.504
1.200 4.132 1.006
0.876 3.994 1.437
1.152 3.579 0.470
0.807 3.776 0.711
0.782 3.214 0.166
3.322 10.330 7.487
3.109 10.429 7.838
5.984 9.897 2.363
3.294 9.895 6.912
2.974 10.029 7.401
2.795 9.962 7.788
2.497 10.038 8.267
0.288 10.501 12.425
5.846 9.491 2.396
5.590 9.511 2.719
3.193 9.447 6.408
3.041 9.578 6.849
2.737 9.587 7.364
2.540 9.657 7.634
2.223 9.697 8.181
1.957 9.721 8.551
0.242 10.201 11.892
5.521 9.034 2.134
5.212 9.183 2.594
5.119 9.105 3.065
2.849 9.274 6.393
2.631 9.153 6.766
2.402 9.363 7.225
2.224 9.277 7.623
2.017 9.440 7.984
1.659 9.373 8.326
5.213 8.663 2.150
4.872 8.823 2.544
4.764 8.797 2.960
2.319 8.842 6.566
2.220 8.915 7.072
1.800 8.915 7.429
1.732 9.066 7.916
4.836 8.438 2.032
4.754 8.393 2.373
1.892 8.524 6.862
1.697 8.508 7.245
4.626 7.992 1.917
2.633 4.808 1.001
2.245 4.383 0.926
1.940 4.442 1.459
1.984 4.132 0.850
1.670 4.074 1.336
1.482 4.112 1.595
1.759 3.766 0.798
1.365 3.792 1.144
1.142 3.778 1.637
1.355 3.331 0.651
1.120 3.461 0.927
1.045 3.031 0.420
3.698 10.023 7.729
3.339 10.130 8.210
6.476 9.507 2.744
3.497 9.541 7.097
3.347 9.770 7.640
3.017 9.642 8.004
2.775 9.820 8.341
6.108 9.131 2.577
5.884 9.232 2.872
3.425 9.205 6.705
3.188 9.364 7.107
3.029 9.391 7.462
2.741 9.403 7.981
2.521 9.371 8.383
2.236 9.440 8.736
0.553 9.897 12.206
0.270 9.960 12.594
5.697 8.728 2.373
5.491 8.722 2.778
5.398 8.837 3.293
3.270 8.784 6.573
2.960 8.933 6.967
2.665 8.866 7.394
2.530 8.993 7.700
2.315 9.115 8.097
2.081 9.066 8.682
0.258 9.404 12.055
5.437 8.424 2.377
5.285 8.521 2.642
5.063 8.525 3.140
2.716 8.484 6.864
2.482 8.547 7.222
2.146 8.689 7.715
1.928 8.620 7.994
5.187 7.945 2.243
5.051 8.089 2.637
2.093 8.298 7.154
1.846 8.191 7.441
4.922 7.609 2.028
0.472 5.351 6.396
0.198 5.431 6.841
3.116 4.738 1.326
0.389 5.060 5.876
-0.001 5.099 6.406
2.920 4.366 1.196
2.723 4.498 1.633
0.198 4.494 5.446
-0.048 4.519 5.739
2.467 4.111 1.070
2.388 4.154 1.637
2.114 4.146 1.936
0.255 4.071 4.798
2.221 3.810 0.964
2.061 3.729 1.534
1.829 3.745 1.881
1.482 3.921 2.329
2.064 3.392 0.976
1.738 3.374 1.368
1.578 3.534 1.802
1.253 3.602 2.188
1.614 2.965 0.840
1.475 3.081 1.216
1.272 3.087 1.553
1.384 2.668 0.613
1.212 2.599 1.115
1.061 2.322 0.587
4.158 10.120 8.079
4.003 10.198 8.383
6.906 9.529 2.973
4.241 9.635 7.509
3.859 9.808 7.846
3.696 9.730 8.307
3.365 9.898 8.704
6.606 9.255 2.861
6.476 9.159 3.334
4.054 9.216 6.857
3.768 9.382 7.338
3.533 9.277 7.808
3.474 9.362 8.222
3.083 9.501 8.620
2.888 9.533 9.085
1.081 9.944 12.502
6.296 8.751 2.689
6.247 8.786 3.075
5.953 8.902 3.573
4.035 8.879 6.325
3.753 8.986 6.877
3.481 8.974 7.181
3.335 9.088 7.715
3.011 9.010 8.012
2.908 9.056 8.470
2.606 9.124 8.860
2.453 9.145 9.384
0.951 9.546 11.878
0.709 9.543 12.259
6.005 8.451 2.664
5.900 8.584 2.995
5.586 8.526 3.382
5.313 8.611 3.883
3.781 8.462 6.311
3.560 8.630 6.754
3.227 8.640 7.101
3.102 8.660 7.553
2.797 8.736 8.045
2.543 8.797 8.420
2.341 8.730 8.766
2.034 8.807 9.253
0.758 9.073 11.823
0.437 9.050 12.282
5.863 8.020 2.575
5.664 8.109 2.926
5.318 8.237 3.271
5.049 8.200 3.838
3.195 8.136 6.532
3.025 8.166 7.099
2.672 8.251 7.447
2.470 8.363 7.869
2.334 8.351 8.205
2.135 8.400 8.718
0.234 8.875 12.116
5.507 7.691 2.295
5.361 7.687 2.812
5.084 7.770 3.191
2.711 7.929 6.799
2.525 7.856 7.217
2.151 7.927 7.738
1.971 8.044 8.089
5.124 7.361 2.231
5.030 7.338 2.574
2.205 7.627 7.150
1.860 7.535 7.585
4.963 7.020 2.138
1.053 5.337 6.699
0.660 5.470 7.211
3.732 4.958 1.682
0.897 5.063 6.207
0.760 5.104 6.731
0.378 5.102 7.008
0.170 5.161 7.502
3.452 4.488 1.663
3.287 4.450 2.084
0.805 4.659 5.744
0.643 4.723 6.062
0.320 4.754 6.460
0.094 4.712 6.937
3.089 4.222 1.496
2.928 4.100 1.951
2.638 4.247 2.376
0.837 4.244 5.226
0.612 4.199 5.517
0.356 4.243 5.945
0.165 4.297 6.501
2.956 3.734 1.417
2.650 3.885 1.814
2.311 3.835 2.232
2.131 3.930 2.585
0.773 3.767 4.627
0.467 3.800 5.056
0.334 3.838 5.480
0.069 3.850 5.951
2.596 3.463 1.322
2.317 3.449 1.609
2.205 3.428 1.977
1.885 3.520 2.574
1.600 3.693 2.989
0.378 3.353 4.458
0.155 3.512 4.900
2.311 3.046 1.014
2.018 3.140 1.513
1.823 3.049 2.030
1.531 3.273 2.304
1.359 3.291 2.850
2.075 2.700 1.026
1.658 2.808 1.333
1.489 2.693 1.863
1.366 2.732 2.299
1.603 2.227 0.827
1.476 2.325 1.255
1.225 2.429 1.725
1.418 1.957 0.742
1.241 1.933 1.074
1.075 1.646 0.536
4.777 9.726 7.872
4.418 9.836 8.227
4.235 9.917 8.705
4.117 9.798 9.056
7.364 9.173 3.201
7.148 9.200 3.612
4.720 9.373 7.363
4.542 9.367 7.655
4.139 9.500 8.072
3.958 9.473 8.632
3.838 9.581 8.870
3.610 9.501 9.303
7.030 8.919 3.095
6.817 8.894 3.454
6.519 9.039 3.961
4.608 8.884 6.770
4.372 9.046 7.135
4.200 9.049 7.527
3.872 9.035 8.064
3.639 9.064 8.513
3.472 9.086 8.798
3.149 9.264 9.279
2.919 9.311 9.672
1.548 9.430 12.274
6.726 8.571 2.891
6.417 8.515 3.415
6.283 8.679 3.869
6.095 8.581 4.106
4.538 8.573 6.107
4.331 8.459 6.654
4.029 8.507 7.020
3.829 8.556 7.446
3.722 8.667 7.896
3.301 8.768 8.291
3.092 8.727 8.745
3.029 8.750 9.187
2.660 8.922 9.639
2.515 8.825 10.067
1.563 9.179 11.685
1.257 9.080 12.177
1.132 9.148 12.461
6.404 8.155 2.759
6.111 8.150 3.148
6.007 8.224 3.742
5.684 8.306 4.020
5.567 8.279 4.520
4.334 8.165 6.158
3.982 8.152 6.462
3.853 8.313 6.827
3.600 8.257 7.407
3.288 8.279 7.664
3.163 8.373 8.115
2.969 8.353 8.559
2.629 8.486 9.036
2.495 8.504 9.432
2.084 8.577 9.772
1.259 8.752 11.564
0.962 8.754 11.936
0.887 8.864 12.456
6.119 7.826 2.651
5.842 7.750 3.163
5.603 7.925 3.464
5.431 7.887 3.974
5.144 8.040 4.419
3.775 7.811 6.454
3.440 7.875 6.874
3.347 7.925 7.153
2.998 8.020 7.576
2.728 8.089 7.970
2.541 8.093 8.560
2.419 8.031 8.927
2.174 8.057 9.307
0.712 8.462 11.791
0.486 8.474 12.293
5.732 7.445 2.503
5.637 7.494 2.964
5.355 7.410 3.459
5.040 7.532 3.859
3.197 7.452 6.695
3.011 7.527 7.089
2.736 7.651 7.435
2.465 7.639 7.849
2.221 7.732 8.297
1.956 7.664 8.710
0.218 8.013 12.097
5.506 7.027 2.474
5.325 6.995 2.795
5.064 7.156 3.302
2.610 7.152 6.950
2.519 7.190 7.403
2.285 7.296 7.900
1.982 7.357 8.273
5.150 6.658 2.264
5.039 6.656 2.844
2.242 6.875 7.231
2.003 7.005 7.702
4.881 6.254 2.136
6.538 0.897 3.031
6.346 0.494 2.453
6.242 0.577 3.038
6.374 0.128 1.979
6.003 0.182 2.394
5.842 0.179 2.749
10.309 5.583 4.625
10.153 5.240 4.070
9.908 5.387 4.461
11.994 4.496 0.283
10.113 4.788 3.599
9.919 4.826 4.049
9.768 4.949 4.407
11.683 4.141 0.083
9.775 4.512 3.424
9.647 4.572 3.814
9.451 4.623 4.299
9.425 4.218 3.825
9.086 4.233 4.253
8.855 3.863 3.949
6.747 0.668 3.258
6.780 0.181 2.786
6.523 0.277 3.119
10.531 5.420 4.904
10.504 4.883 4.311
10.215 4.914 4.713
12.226 4.134 0.337
10.422 4.462 3.762
10.302 4.490 4.247
10.047 4.649 4.669
12.026 3.743 0.218
10.206 4.074 3.683
9.886 4.280 4.085
9.744 4.252 4.501
9.620 3.829 3.941
9.423 3.983 4.289
9.190 3.620 4.277
7.449 0.661 3.592
7.269 0.181 3.050
6.966 0.393 3.554
11.132 5.313 5.202
11.183 4.935 4.695
10.876 5.104 5.145
11.012 4.592 4.160
10.826 4.713 4.566
10.668 4.746 4.853
12.330 3.931 0.958
11.068 4.145 3.613
10.806 4.227 3.904
10.527 4.218 4.480
10.348 4.299 4.806
12.457 3.425 0.038
12.361 3.551 0.477
12.177 3.508 0.850
10.741 3.821 3.354
10.419 3.789 3.812
10.261 3.836 4.355
10.022 3.880 4.680
12.022 3.207 0.283
10.203 3.417 3.762
10.017 3.623 4.201
9.772 3.485 4.509
9.680 3.111 4.104
9.324 3.230 4.435
9.178 2.801 4.389
8.017 0.751 3.990
7.951 0.332 3.419
7.592 0.354 3.828
11.745 5.048 5.023
11.555 5.031 5.290
11.722 4.632 4.445
11.511 4.671 4.753
11.267 4.805 5.182
11.653 4.253 3.945
11.365 4.223 4.201
11.069 4.285 4.629
10.883 4.274 5.178
12.503 3.629 1.696
11.592 3.766 3.302
11.307 3.886 3.783
11.158 3.973 4.205
10.748 3.996 4.668
10.540 3.942 5.035
12.433 3.233 1.148
12.248 3.166 1.603
11.287 3.509 3.178
10.985 3.568 3.592
10.690 3.617 4.021
10.597 3.669 4.449
10.302 3.635 4.959
12.546 2.773 0.143
12.315 2.794 0.484
12.059 2.843 1.018
10.768 3.118 3.522
10.516 3.186 3.977
10.280 3.136 4.273
10.039 3.347 4.683
12.228 2.379 -0.017
12.061 2.529 0.332
10.190 2.724 3.898
9.912 2.887 4.173
9.792 2.988 4.670
9.664 2.580 4.146
9.441 2.483 4.518
9.151 2.140 4.322
8.914 1.119 4.331
8.628 0.832 4.185
8.583 0.321 3.735
8.247 0.337 4.125
7.946 -0.023 3.979
12.175 4.726 4.763
11.940 4.668 5.118
11.826 4.822 5.489
12.106 4.263 4.157
11.975 4.313 4.693
11.692 4.348 5.112
11.487 4.315 5.374
12.215 3.831 3.735
11.992 3.972 4.146
11.666 3.958 4.570
11.499 4.028 4.952
11.139 4.071 5.436
12.504 3.323 2.184
12.217 3.316 2.709
12.009 3.475 3.168
11.880 3.567 3.452
11.674 3.622 4.009
11.324 3.648 4.425
11.084 3.670 4.699
10.937 3.706 5.205
12.542 2.837 1.688
12.234 2.944 2.060
11.995 3.080 2.531
11.816 3.009 3.003
11.616 3.024 3.356
11.368 3.171 3.846
11.144 3.250 4.207
10.773 3.210 4.747
10.699 3.215 5.155
12.424 2.571 1.172
12.177 2.576 1.542
11.286 2.680 3.240
11.013 2.747 3.636
10.858 2.860 4.043
10.614 2.964 4.561
10.225 2.877 4.978
12.345 2.207 0.579
12.085 2.237 1.106
10.686 2.350 3.507
10.469 2.414 4.057
10.173 2.610 4.503
9.995 2.528 4.835
12.237 1.630 0.141
11.970 1.699 0.549
10.173 2.108 3.958
9.976 2.173 4.340
9.728 2.247 4.667
9.636 1.792 4.244
9.500 1.878 4.611
9.110 1.556 4.496
8.830 1.152 4.308
9.458 0.738 4.186
9.110 0.855 4.634
9.163 0.412 4.029
8.846 0.487 4.446
8.872 -0.023 3.858
8.615 0.099 4.365
12.607 4.378 4.999
12.265 4.382 5.275
12.166 4.364 5.816
12.574 3.929 4.414
12.227 4.043 4.754
11.972 4.074 5.319
11.793 3.995 5.621
12.526 3.548 3.778
12.232 3.570 4.180
11.983 3.537 4.687
11.758 3.763 5.112
11.582 3.738 5.564
12.380 3.168 3.281
12.195 3.168 3.662
11.937 3.174 4.093
11.662 3.269 4.510
11.384 3.382 4.995
11.298 3.310 5.465
12.636 2.666 2.254
12.270 2.753 2.747
12.137 2.755 3.256
11.891 2.785 3.520
11.533 2.776 3.936
11.421 2.935 4.367
11.116 2.950 4.966
10.999 2.929 5.256
12.504 2.248 1.756
12.232 2.307 2.211
12.066 2.286 2.585
11.717 2.472 2.988
11.605 2.506 3.580
11.416 2.480 3.821
11.040 2.629 4.372
10.783 2.668 4.685
10.622 2.697 5.221
12.350 1.869 1.234
12.101 1.913 1.710
11.183 2.119 3.425
10.994 2.049 3.876
10.818 2.238 4.158
10.486 2.203 4.591
10.242 2.190 5.045
12.377 1.402 0.800
12.118 1.394 1.165
10.647 1.776 3.752
10.471 1.742 4.131
10.357 1.773 4.590
10.060 1.842 4.929
12.220 1.091 0.159
12.034 1.069 0.536
10.131 1.433 3.939
9.961 1.527 4.338
9.790 1.553 4.774
12.019 0.591 0.127
9.642 1.222 4.276
9.450 1.186 4.719
9.302 0.800 4.155
9.076 0.904 4.621
11.863 0.004 0.493
9.970 0.454 3.885
9.593 0.388 4.359
9.467 0.479 4.857
9.615 -0.028 3.841
9.382 0.091 4.268
9.185 0.086 4.689
12.410 4.063 6.060
12.286 3.807 5.456
12.064 3.767 5.871
12.417 3.304 4.461
12.191 3.258 4.965
12.122 3.449 5.268
11.761 3.423 5.752
12.490 2.788 3.873
12.213 2.829 4.444
11.943 2.902 4.768
11.748 2.994 5.118
11.429 2.954 5.552
12.306 2.478 3.386
12.151 2.570 3.797
11.960 2.600 4.141
11.593 2.605 4.743
11.514 2.638 5.157
11.320 2.765 5.491
12.542 1.978 2.500
12.376 2.000 2.827
11.995 2.123 3.298
11.842 2.187 3.650
11.551 2.233 4.100
11.412 2.192 4.490
11.181 2.213 4.945
10.865 2.329 5.352
12.548 1.508 1.952
12.212 1.584 2.275
12.059 1.692 2.627
11.724 1.717 3.189
11.467 1.855 3.556
11.419 1.825 3.915
11.182 1.825 4.505
10.796 1.871 4.864
10.678 1.869 5.243
12.475 1.223 1.315
12.124 1.155 1.820
11.249 1.405 3.476
10.974 1.365 3.853
10.789 1.493 4.191
10.662 1.475 4.735
10.400 1.628 5.068
12.387 0.743 0.821
12.123 0.765 1.177
10.761 1.059 3.815
10.492 1.186 4.149
10.200 1.262 4.540
10.039 1.241 4.926
12.363 0.311 0.306
11.994 0.399 0.761
10.278 0.732 4.025
9.896 0.815 4.427
9.759 0.798 4.813
11.745 -0.006 0.570
10.009 0.382 3.829
9.641 0.363 4.398
9.452 0.506 4.780
10.181 0.086 4.174
9.931 0.154 4.571
9.857 0.220 4.965
12.410 3.408 5.986
12.408 2.965 5.604
12.109 2.998 6.025
12.548 2.554 4.534
12.356 2.655 5.047
12.027 2.695 5.472
11.760 2.720 5.784
12.397 2.144 3.999
12.161 2.147 4.423
11.925 2.262 4.818
11.794 2.227 5.228
11.575 2.432 5.625
12.310 1.792 3.463
12.124 1.891 3.851
12.006 1.761 4.402
11.678 1.930 4.800
11.562 2.039 5.089
11.235 2.030 5.500
12.595 1.260 2.526
12.325 1.421 2.923
12.132 1.319 3.320
11.833 1.492 3.831
11.566 1.401 4.284
11.324 1.543 4.541
11.144 1.669 5.047
11.010 1.559 5.454
12.450 0.942 1.978
11.550 1.170 3.679
11.279 1.097 3.973
11.199 1.144 4.545
10.925 1.313 4.983
10.601 1.196 5.295
12.354 0.519 1.348
11.027 0.793 4.028
10.762 0.872 4.315
10.511 0.815 4.827
10.369 0.898 5.239
12.456 -0.015 0.968
10.567 0.511 4.177
10.367 0.575 4.723
10.047 0.512 5.002
10.164 0.027 4.176
9.901 0.113 4.604
9.844 0.236 4.968
12.336 2.788 6.121
12.327 2.422 5.654
12.176 2.374 6.086
12.554 1.813 4.624
12.344 2.022 5.099
12.119 1.919 5.458
11.767 2.073 5.987
12.526 1.420 4.103
