5.932 12.539 9.891
5.819 10.115 8.631
5.839 10.789 8.871
5.886 11.901 9.125
5.896 12.589 9.134
5.945 10.380 8.351
4.135 12.554 11.143
4.665 12.244 10.775
4.505 12.496 10.763
4.947 11.742 10.222
4.948 12.298 10.419
4.818 10.023 9.201
4.996 11.812 9.607
5.076 12.444 10.019
5.080 9.940 8.946
5.540 12.604 9.268
3.764 12.443 11.044
4.277 12.278 10.038
4.500 12.390 9.720
0.224 12.262 12.426
2.398 12.337 8.504
2.220 10.477 7.952
2.501 12.605 8.128
2.794 10.807 7.402
1.374 12.124 9.232
1.600 10.246 8.395
1.816 11.702 8.473
1.630 12.385 8.757
1.820 10.666 8.211
1.853 10.802 8.296
2.081 11.606 8.197
1.869 12.168 8.247
1.920 12.288 8.255
1.929 10.488 7.479
2.132 11.227 7.945
1.968 11.681 8.108
2.095 11.699 7.603
2.295 12.017 7.641
2.053 10.662 7.335
2.263 11.367 7.643
2.027 11.834 7.747
2.399 12.420 7.269
2.374 10.794 6.856
2.439 11.359 6.951
2.903 11.050 6.590
0.828 12.521 9.501
0.879 11.975 8.675
0.899 12.323 8.871
0.997 10.594 8.008
0.839 10.701 8.324
1.187 11.388 8.144
1.211 11.737 8.397
1.237 12.214 8.378
1.458 10.606 7.924
1.169 11.136 7.908
1.119 11.598 8.040
1.409 11.645 7.604
1.474 12.038 7.843
1.755 12.473 8.163
1.648 10.565 7.287
1.712 11.239 7.760
1.495 11.573 7.679
1.769 11.692 7.555
1.805 12.141 7.746
1.980 10.689 6.894
1.849 11.222 7.049
1.960 11.754 7.238
2.100 11.751 7.133
2.236 12.209 6.985
2.159 11.167 6.720
2.073 11.395 6.867
2.082 11.926 7.168
2.376 12.481 6.776
2.451 11.081 6.244
2.124 11.680 6.474
0.239 12.351 9.720
0.234 12.214 8.881
0.469 10.404 8.440
0.549 11.400 8.252
0.505 11.893 8.268
0.831 12.386 8.733
0.475 10.442 7.955
0.428 10.820 8.292
0.626 11.381 8.144
1.082 11.653 8.034
1.063 12.033 7.884
0.826 12.620 8.182
0.798 10.561 7.741
0.831 11.163 7.807
1.007 11.559 7.993
1.190 11.566 7.680
1.346 12.216 7.511
1.260 10.676 7.036
1.247 11.082 7.392
1.082 11.898 7.348
1.388 12.005 7.211
1.361 12.304 7.321
1.395 10.958 6.982
1.321 11.429 7.086
1.211 11.848 7.095
1.830 11.891 6.851
1.637 12.332 7.097
1.833 11.305 6.370
1.753 11.737 6.670
1.759 11.958 6.616
2.085 12.151 6.214
2.072 11.274 6.232
1.952 11.526 6.039
1.891 12.139 6.265
0.080 11.610 8.122
0.417 12.139 8.212
0.287 12.612 8.407
0.057 10.540 7.553
0.343 11.126 7.898
0.151 11.721 7.895
0.646 11.770 7.583
0.627 12.005 8.028
0.524 10.683 7.439
0.465 11.269 7.650
0.562 11.469 7.817
0.839 11.788 7.207
0.867 12.386 7.425
0.573 10.820 6.914
0.826 11.272 6.985
0.682 11.761 7.343
1.146 11.816 6.728
0.997 12.235 7.008
1.009 11.084 6.748
0.977 11.467 6.752
1.086 12.069 6.972
1.243 12.050 6.585
1.399 12.437 6.807
1.394 11.113 6.309
1.309 11.567 6.223
1.182 11.955 6.685
1.584 12.429 6.158
1.596 11.291 5.916
1.641 11.875 6.086
1.450 12.416 5.952
0.061 11.869 7.333
0.023 12.292 7.636
-0.016 10.787 7.235
0.249 11.129 7.220
-0.017 11.591 7.228
0.327 11.777 6.971
0.198 12.198 7.233
0.472 10.988 6.813
0.222 11.521 6.750
0.293 12.004 7.209
0.727 12.195 6.564
0.740 12.620 7.005
0.763 11.206 6.224
0.740 11.454 6.374
0.423 12.193 6.821
0.805 12.248 6.186
0.998 11.252 6.106
1.046 11.832 6.297
0.820 12.182 6.271
0.937 11.595 5.438
1.281 11.723 5.530
0.141 12.141 6.320
0.324 11.112 5.983
0.089 11.635 6.141
-0.003 12.289 6.580
0.414 11.316 5.857
0.575 12.024 6.060
0.537 11.503 5.319
10.033 11.888 12.654
10.309 11.998 12.124
10.565 12.244 12.283
9.849 11.804 12.176
9.728 12.490 12.551
10.045 12.293 11.918
9.218 11.710 12.516
9.331 12.412 12.057
12.265 0.405 8.255
12.120 0.909 8.414
12.144 1.344 8.716
12.357 1.841 9.007
12.197 2.407 9.185
12.231 2.770 9.307
12.266 3.025 9.308
12.229 4.776 10.198
12.358 5.599 10.295
12.241 5.769 10.385
12.290 6.399 10.476
12.438 6.897 10.696
12.204 7.246 10.977
12.290 7.823 10.994
12.431 8.037 11.523
12.485 8.679 11.371
11.730 0.151 7.927
12.056 0.428 7.951
11.880 0.927 8.369
12.116 1.379 8.482
11.717 1.744 8.605
12.027 2.467 8.803
12.060 2.792 9.100
11.954 5.537 10.149
11.923 6.087 10.115
12.010 6.414 10.251
12.104 6.871 10.417
11.956 7.327 10.738
12.045 7.639 11.033
12.071 8.023 10.923
11.843 8.718 11.206
11.961 0.204 7.439
12.316 0.520 7.736
11.984 1.225 7.864
12.058 1.391 7.901
12.317 2.098 8.176
12.064 2.329 8.523
12.382 6.077 9.833
12.074 6.489 10.144
12.272 7.157 10.021
12.073 7.551 10.360
12.257 7.845 10.349
12.285 8.522 10.759
12.480 0.494 7.308
12.586 0.883 7.453
12.318 1.346 7.637
12.576 1.755 7.746
12.401 2.277 8.050
12.309 2.826 8.198
12.382 6.289 9.560
12.566 6.778 9.796
12.369 7.093 10.007
12.646 7.585 9.822
12.629 7.874 10.134
12.405 8.662 10.522
12.391 1.323 6.732
12.087 2.039 7.010
12.177 7.257 9.007
12.444 7.660 9.446
12.641 1.309 6.292
12.678 1.503 6.518
12.707 1.917 6.818
12.399 2.398 7.084
11.520 0.205 7.675
11.357 0.461 7.729
11.375 1.128 8.130
11.449 1.656 8.402
11.583 1.839 8.492
11.642 2.468 8.716
11.707 6.030 10.092
11.552 6.586 10.093
11.634 6.772 10.205
11.565 7.536 10.380
11.568 8.013 10.845
11.626 8.240 10.915
11.879 0.447 7.204
11.895 0.641 7.387
11.589 1.060 7.761
11.873 1.646 7.873
11.712 2.062 7.890
11.573 2.672 8.060
11.711 6.018 9.770
11.923 6.744 9.739
11.878 7.242 10.063
11.707 7.366 10.006
11.905 7.880 10.391
11.752 8.462 10.320
12.092 0.930 7.261
11.934 1.510 7.273
12.126 1.932 7.342
12.155 2.347 7.679
11.992 6.880 9.224
11.997 7.432 9.706
11.865 7.831 9.751
12.165 8.075 9.948
12.134 1.683 6.766
12.360 1.852 7.260
12.144 7.522 9.223
12.285 7.939 9.402
12.267 2.067 6.014
12.485 2.439 5.975
12.401 7.939 8.109
12.585 8.200 8.234
10.921 0.727 7.511
11.117 1.362 7.844
11.168 1.776 7.880
11.227 2.025 8.292
11.130 6.702 9.913
11.178 7.028 10.180
11.128 7.659 10.225
11.334 7.955 10.446
11.181 1.512 7.484
11.326 1.601 7.638
11.216 7.135 9.626
11.210 7.521 9.820
12.230 10.963 12.556
12.528 11.294 12.437
12.438 8.955 11.651
12.144 11.178 12.123
12.139 11.997 12.459
12.363 11.958 12.142
12.435 12.414 12.125
12.428 12.168 11.548
12.387 12.346 12.073
11.534 12.064 12.306
11.405 12.259 12.623
11.807 12.151 11.831
11.878 12.371 12.104
11.329 12.482 12.341
11.542 2.287 4.255
11.598 2.911 4.632
11.874 8.268 6.679
11.682 8.647 6.785
12.125 2.201 3.947
11.773 2.436 4.128
11.777 3.015 4.202
12.090 3.360 4.570
11.821 8.141 5.964
11.981 8.487 6.496
11.982 9.108 6.476
11.940 9.444 6.699
12.304 1.803 3.371
12.144 2.301 3.618
12.045 2.700 3.871
12.052 3.178 4.008
12.185 3.865 4.081
12.054 4.272 4.294
12.336 7.720 5.426
12.264 8.081 5.750
12.120 8.507 6.014
12.179 8.994 6.053
12.375 9.438 6.118
12.398 9.837 6.553
12.346 1.894 3.070
12.466 2.590 3.153
12.459 2.737 3.307
12.400 3.476 3.627
12.282 3.643 3.465
12.608 4.465 3.763
12.318 7.801 5.034
12.322 8.502 5.286
12.576 8.968 5.528
12.339 9.341 5.818
12.355 9.832 6.082
12.518 10.202 6.050
11.282 1.970 3.929
11.224 2.650 4.058
11.093 3.185 4.538
11.171 3.528 4.525
11.484 7.918 6.121
11.387 8.254 6.534
11.171 8.767 6.621
11.518 9.185 6.843
11.352 1.843 3.537
11.423 2.350 3.680
11.567 2.747 3.895
11.723 3.090 4.047
11.377 3.477 4.038
11.537 4.118 4.457
11.746 7.686 5.823
11.548 8.058 6.000
11.595 8.680 6.097
11.768 9.156 6.364
11.718 9.479 6.372
11.476 9.990 6.650
11.839 1.901 3.106
11.744 2.563 3.061
11.776 2.963 3.432
11.845 3.314 3.515
11.736 3.585 3.934
11.948 4.303 4.020
11.924 7.759 5.364
11.671 8.201 5.595
11.697 8.888 5.831
11.855 9.061 5.950
11.726 9.447 6.000
11.780 9.958 6.117
12.203 1.950 2.876
12.175 2.465 2.745
11.885 2.991 3.121
12.040 3.468 3.082
12.196 4.024 3.359
11.904 4.169 3.443
12.246 7.968 5.105
12.263 8.502 5.127
11.982 8.848 5.242
12.021 9.177 5.518
12.304 9.872 5.702
12.292 10.245 5.702
12.278 2.224 2.281
12.180 2.516 2.580
12.473 3.158 2.574
12.418 3.719 2.866
12.203 3.906 3.022
12.496 4.635 3.185
12.441 8.218 4.788
12.238 8.674 4.661
12.302 9.065 4.874
12.384 9.337 5.156
12.329 10.110 5.449
12.219 10.394 5.325
10.617 2.579 4.369
10.477 2.932 4.387
10.598 8.226 6.452
10.769 8.818 6.742
11.028 1.846 3.761
10.859 2.101 3.596
10.842 2.863 4.077
10.920 3.033 4.060
10.948 3.646 4.265
10.777 3.952 4.614
10.707 7.625 5.712
10.733 8.141 5.905
10.760 8.560 6.158
10.849 9.078 6.545
10.756 9.480 6.476
11.030 9.831 6.734
11.032 2.084 3.294
11.326 2.395 3.573
11.282 2.690 3.453
11.014 3.300 3.929
10.969 3.566 3.824
11.309 4.253 4.037
11.061 7.894 5.392
11.007 8.413 5.859
11.068 8.796 5.949
11.355 9.177 6.191
11.297 9.611 6.325
11.164 10.106 6.199
11.214 1.495 2.842
11.259 1.896 2.976
11.462 2.547 3.199
11.555 2.874 3.217
11.201 3.346 3.510
11.321 3.907 3.500
11.312 4.410 3.813
11.316 4.875 3.889
11.338 7.346 4.948
11.268 7.761 5.063
11.532 8.355 5.161
11.544 8.926 5.562
11.426 9.087 5.549
11.281 9.665 5.940
11.299 10.082 5.980
11.589 10.756 6.051
11.638 1.588 2.272
11.631 2.165 2.589
11.827 2.464 2.462
11.607 2.919 3.004
11.697 3.715 2.972
11.473 3.892 3.117
11.619 4.517 3.250
11.700 5.093 3.312
11.709 7.486 4.378
11.844 8.006 4.553
11.851 8.458 4.881
11.832 9.030 4.884
11.619 9.229 5.323
11.713 9.890 5.587
11.744 10.404 5.652
11.524 10.837 5.628
11.896 2.372 2.035
11.749 2.673 2.222
12.010 3.388 2.277
11.860 3.879 2.421
11.896 4.203 2.720
12.090 4.645 3.120
11.926 8.405 4.390
11.949 8.472 4.435
12.056 9.289 4.534
11.932 9.720 5.041
11.966 9.900 5.115
11.811 10.300 5.376
12.243 2.490 1.547
12.131 2.833 1.877
12.363 3.594 2.056
12.040 4.045 2.339
12.270 4.213 2.597
12.062 4.798 2.715
12.346 8.188 3.867
12.028 8.705 4.284
12.055 9.450 4.288
12.329 9.697 4.364
12.087 10.020 4.664
12.226 10.478 4.680
12.418 3.438 1.595
12.571 3.920 1.790
12.616 9.615 4.072
12.326 9.824 4.066
8.937 1.583 6.522
9.262 2.245 6.670
9.171 7.682 8.710
9.210 8.068 9.012
9.793 2.587 4.477
9.827 2.996 4.836
10.060 8.412 6.924
9.901 8.967 6.821
10.322 2.105 3.888
10.125 2.694 4.240
10.081 3.177 4.341
10.258 3.654 4.352
10.130 7.913 6.306
10.128 8.680 6.453
10.194 9.079 6.706
10.390 9.377 6.860
10.504 1.802 3.268
10.350 2.234 3.666
10.271 2.629 3.850
10.548 3.313 3.991
10.388 3.849 3.871
10.569 3.987 4.172
10.636 7.921 5.503
10.359 8.127 5.666
10.411 8.576 5.871
10.648 9.108 6.116
10.581 9.679 6.289
10.389 9.947 6.705
10.545 1.385 2.811
10.871 1.847 3.091
10.885 2.546 3.206
10.661 2.746 3.236
10.894 3.545 3.465
10.845 3.624 3.605
10.909 4.165 3.798
10.911 4.654 3.959
10.668 7.239 5.041
10.564 7.834 5.264
10.756 8.361 5.512
10.951 8.650 5.479
10.835 9.083 5.753
10.839 9.867 5.872
10.652 10.225 6.322
10.621 10.646 6.347
11.166 1.379 2.355
10.925 1.818 2.386
11.088 2.304 2.506
11.096 2.754 2.770
11.096 3.195 3.030
11.114 3.582 3.291
10.791 3.829 3.105
10.821 4.515 3.494
11.180 5.073 3.584
10.796 5.260 3.956
11.149 6.982 4.432
11.063 7.737 4.814
10.966 7.872 4.849
10.885 8.667 5.223
10.919 9.005 5.277
10.962 9.393 5.234
10.951 9.931 5.646
10.907 10.328 5.863
11.157 10.598 5.756
11.409 1.338 1.805
11.327 1.683 2.039
11.433 2.181 2.290
11.097 2.782 2.599
11.327 3.027 2.516
11.308 3.526 2.914
11.065 4.147 2.730
11.090 4.418 3.011
11.111 5.109 3.109
11.341 5.351 3.397
11.267 7.225 4.298
11.371 7.714 4.450
11.245 8.164 4.378
11.169 8.453 4.532
11.094 8.912 4.674
11.084 9.716 5.030
11.221 9.957 5.202
11.243 10.544 5.204
11.462 11.078 5.409
11.333 1.820 1.572
11.497 2.390 1.984
11.502 2.909 1.916
11.571 3.322 2.020
11.652 3.804 2.196
11.608 4.206 2.406
11.384 4.768 2.786
11.652 5.315 2.858
11.451 7.990 3.917
11.547 8.402 4.067
11.416 8.732 4.357
11.417 9.147 4.585
11.387 9.515 4.474
11.635 10.132 4.898
11.587 10.651 4.968
11.466 11.026 5.109
11.559 2.552 1.610
11.826 2.937 1.661
11.902 3.302 1.882
11.722 4.022 2.124
11.622 4.261 1.961
11.885 5.017 2.534
11.902 8.574 3.801
11.866 8.814 3.719
11.644 9.203 4.075
11.907 9.977 4.207
11.817 10.362 4.310
11.630 10.860 4.465
11.843 3.124 1.424
11.827 3.499 1.492
12.070 4.135 1.613
11.910 4.749 1.893
12.083 9.238 3.617
12.046 9.557 3.619
12.096 9.832 3.812
11.898 10.470 4.185
12.473 3.692 1.156
12.265 4.211 1.287
12.424 9.575 3.230
12.415 10.076 3.304
8.820 1.440 6.340
8.761 1.937 6.452
8.471 2.315 6.693
8.469 2.810 6.903
8.664 7.231 8.616
8.570 7.807 8.677
8.885 8.154 8.783
8.721 8.470 8.889
8.837 1.739 6.028
8.852 2.180 6.107
8.847 7.888 8.384
8.743 8.279 8.541
8.961 2.088 5.170
8.867 2.763 5.160
8.960 7.961 7.208
9.247 8.489 7.389
9.428 2.025 4.249
9.184 2.284 4.774
9.238 2.713 4.792
9.283 3.537 4.801
9.176 8.010 6.589
9.174 8.401 6.765
9.439 8.713 7.020
9.451 9.163 7.148
9.507 1.657 3.955
9.532 1.937 3.942
9.425 2.649 4.268
9.662 3.206 4.551
9.685 3.579 4.644
9.583 3.895 4.660
9.383 7.444 6.301
9.619 8.096 6.278
9.647 8.501 6.388
9.751 8.896 6.522
9.510 9.341 6.943
9.709 9.696 7.083
9.621 1.702 3.527
9.737 2.389 3.671
9.985 2.666 3.879
9.975 3.012 3.885
10.003 3.755 4.094
9.993 4.093 4.390
9.781 7.592 5.923
9.751 8.154 5.790
10.028 8.470 6.204
9.947 9.083 6.342
9.704 9.571 6.317
9.763 9.756 6.558
10.186 1.053 2.918
9.942 1.650 2.825
10.220 2.057 3.114
10.083 2.441 3.395
9.956 2.776 3.428
10.108 3.441 3.445
9.921 3.642 4.010
9.949 4.178 3.872
10.142 4.487 4.133
10.002 5.260 4.141
10.249 6.950 4.992
10.115 7.437 5.013
9.939 7.756 5.485
10.007 8.281 5.664
10.261 8.805 5.763
10.087 9.095 5.896
10.254 9.649 6.121
9.991 10.061 6.197
10.056 10.711 6.421
10.146 0.560 2.168
10.404 1.252 2.501
10.335 1.600 2.417
10.304 2.123 2.561
10.132 2.384 2.788
10.285 3.127 3.113
10.469 3.500 3.081
10.339 3.796 3.434
10.480 4.359 3.465
10.152 4.695 3.760
10.502 5.299 4.143
10.382 5.802 3.976
10.453 6.781 4.292
10.193 7.102 4.536
10.294 7.453 5.037
10.209 8.061 5.140
10.517 8.249 5.088
10.191 8.851 5.326
10.432 9.462 5.594
10.453 9.585 5.548
10.339 10.212 5.887
10.541 10.678 5.919
10.560 0.389 1.639
10.722 0.786 1.783
10.731 1.243 2.082
10.392 1.823 2.097
10.698 2.163 2.459
10.676 2.716 2.666
10.374 3.041 2.796
10.618 3.633 2.917
10.471 3.916 3.243
10.676 4.505 3.200
10.466 4.962 3.278
10.607 5.457 3.783
10.464 5.765 3.831
10.417 6.147 3.994
10.653 6.652 4.067
10.683 7.236 4.278
10.577 7.561 4.413
10.435 8.117 4.680
10.636 8.535 4.790
10.588 8.928 4.822
10.811 9.566 4.999
10.549 9.735 5.232
10.802 10.495 5.457
10.814 10.635 5.758
10.634 0.044 1.570
10.435 0.497 1.718
10.803 0.765 1.158
11.026 1.066 1.360
10.860 1.702 1.495
10.664 2.062 1.634
10.982 2.373 2.041
10.881 2.744 2.148
10.968 3.283 2.166
10.789 3.830 2.389
10.901 4.359 2.794
10.697 4.636 2.735
10.651 5.141 3.227
10.676 5.747 3.389
10.664 6.090 3.420
10.666 6.336 3.711
10.886 6.827 3.557
10.974 7.253 3.901
10.712 7.862 4.243
10.705 8.428 4.284
10.775 8.870 4.435
10.758 9.124 4.544
10.892 9.493 4.964
10.841 10.174 5.054
10.985 10.425 4.996
11.021 11.090 5.287
11.002 0.230 1.023
10.653 0.622 1.299
11.248 1.223 1.150
10.983 1.813 1.259
11.208 2.002 1.509
10.948 2.713 1.741
11.189 3.104 1.953
11.257 3.432 1.818
11.300 4.018 1.956
11.272 4.436 2.484
11.218 4.629 2.477
11.143 5.261 2.687
11.124 5.874 2.622
11.055 6.275 2.881
11.181 6.942 3.200
11.121 7.365 3.522
11.148 8.100 3.754
11.287 8.239 3.852
11.012 8.674 4.050
11.269 9.419 4.101
11.230 9.777 4.561
10.974 10.260 4.693
11.138 10.556 4.707
11.004 11.241 4.874
10.908 0.451 0.847
11.449 1.717 0.979
11.146 2.150 0.896
11.498 2.637 1.324
11.386 3.172 1.255
11.476 3.454 1.549
11.478 4.074 1.901
11.451 4.416 1.782
11.542 4.894 2.144
11.235 5.529 2.143
11.355 5.866 2.363
11.522 7.796 3.338
11.485 7.925 3.450
11.193 8.484 3.678
11.554 9.117 3.770
11.521 9.610 3.792
11.500 9.717 4.073
11.473 10.217 4.121
11.552 10.996 4.508
11.214 11.392 4.535
11.463 2.779 0.795
11.631 3.212 0.871
11.459 3.841 1.082
11.819 4.162 1.300
11.625 4.578 1.559
11.731 4.975 1.857
11.679 8.803 3.294
11.494 9.256 3.443
11.760 9.479 3.456
11.713 10.003 3.631
11.673 10.676 3.940
11.663 11.003 4.020
12.025 3.137 0.498
11.883 3.576 0.621
12.035 4.054 0.984
12.079 4.186 1.151
11.858 4.857 1.284
11.844 5.223 1.480
11.749 8.707 2.564
12.070 9.261 2.753
12.068 9.576 3.279
11.882 10.003 3.059
11.848 10.627 3.398
11.891 10.964 3.598
12.137 3.596 0.337
12.091 4.026 0.389
11.961 4.558 0.481
12.188 4.884 0.802
12.290 9.456 2.358
12.145 9.846 2.823
12.077 10.258 2.769
12.201 10.721 3.033
12.518 4.267 0.051
12.577 4.776 0.308
12.473 9.914 2.453
12.515 10.631 2.332
8.035 0.943 5.851
8.047 1.567 6.084
8.336 1.828 6.198
8.382 2.438 6.141
8.166 2.770 6.521
8.310 3.228 6.456
8.447 6.775 8.102
8.101 7.331 8.064
8.465 7.561 8.483
8.375 8.035 8.478
8.276 8.595 8.764
8.237 8.935 8.732
8.473 1.166 5.344
8.471 1.664 5.433
8.386 1.974 5.912
8.458 2.610 5.972
8.603 3.034 6.041
8.366 3.249 6.389
8.343 6.809 7.747
8.336 7.218 7.826
8.513 7.838 8.050
8.384 8.275 8.001
8.734 8.834 8.554
8.343 9.303 8.446
8.882 1.879 5.225
8.862 2.301 5.207
8.883 2.571 5.365
8.733 2.841 5.777
8.812 7.696 7.316
8.744 8.175 7.658
8.607 8.369 7.690
8.974 8.738 7.919
8.975 2.158 5.161
9.070 2.642 5.276
9.199 8.296 7.441
9.068 8.395 7.374
8.515 1.733 4.445
8.449 2.520 4.653
8.812 2.761 4.861
8.542 3.309 5.207
8.800 7.773 6.683
8.808 8.243 7.062
8.745 8.532 7.069
8.464 9.281 7.499
8.827 1.789 4.132
8.690 2.190 4.190
8.741 2.520 4.361
9.065 2.909 4.358
9.016 3.325 4.661
8.865 3.852 4.826
8.938 7.408 6.360
9.054 7.978 6.334
8.842 8.357 6.642
9.067 8.677 6.729
8.793 9.389 7.074
8.898 9.561 7.294
9.239 1.963 3.631
9.013 2.408 3.616
9.273 2.669 4.045
9.292 2.959 4.192
9.212 3.598 4.315
9.273 3.847 4.325
9.366 7.650 6.051
9.200 7.947 5.991
9.183 8.475 6.317
9.241 9.130 6.306
9.198 9.568 6.790
9.360 9.932 6.693
9.454 1.660 3.189
9.495 1.975 3.374
9.361 2.563 3.361
9.341 2.963 3.576
9.439 3.203 3.594
9.488 3.906 3.889
9.444 4.216 4.110
9.474 4.729 4.367
9.226 7.266 5.224
9.487 7.654 5.668
9.453 8.364 5.802
9.613 8.746 5.736
9.519 9.133 6.211
9.580 9.770 6.306
9.462 10.024 6.462
9.438 10.681 6.406
9.813 0.884 2.444
9.550 1.070 2.687
9.485 1.649 2.847
9.733 2.179 3.053
9.830 2.619 2.962
9.763 3.090 3.357
9.822 3.239 3.474
9.543 4.023 3.775
9.838 4.340 3.852
9.824 4.694 3.812
9.767 5.257 4.157
9.622 5.648 4.304
9.617 6.485 4.756
9.621 6.984 4.671
9.542 7.328 4.855
9.721 7.827 5.278
9.669 8.386 5.448
9.496 8.856 5.344
9.760 9.461 5.553
9.622 9.626 5.916
9.669 10.207 5.971
9.859 10.745 6.222
9.748 0.468 2.000
10.013 0.991 1.911
9.995 1.396 2.136
9.789 1.870 2.472
10.082 2.169 2.472
9.828 2.618 2.785
9.803 3.307 2.894
10.000 3.412 2.961
10.024 4.119 3.080
9.999 4.663 3.475
9.793 5.038 3.458
9.856 5.533 3.923
10.063 5.912 3.909
9.888 6.316 3.898
9.917 6.607 4.044
9.807 7.092 4.558
10.077 7.769 4.786
9.995 7.921 4.818
9.776 8.366 5.125
9.986 8.843 5.295
10.010 9.231 5.377
9.964 9.887 5.276
10.086 10.176 5.738
9.904 10.843 5.695
9.987 0.584 1.751
10.116 0.696 1.441
10.073 0.982 1.414
10.009 1.443 1.734
9.974 2.030 2.111
10.327 2.154 2.306
10.343 2.924 2.341
10.094 3.131 2.589
10.149 3.777 2.585
10.204 4.272 2.780
10.346 4.554 3.185
10.161 5.222 2.973
10.263 5.514 3.397
10.269 5.987 3.421
10.345 6.336 3.629
10.222 6.898 4.019
10.134 7.146 4.144
10.262 7.637 4.112
10.374 8.220 4.457
10.148 8.846 4.370
10.161 9.037 4.883
10.048 9.614 4.919
10.249 10.077 5.238
10.235 10.328 5.396
10.332 10.895 5.378
10.037 0.217 1.389
10.284 0.657 1.535
10.486 0.765 1.217
10.241 1.105 1.413
10.561 1.801 1.490
10.575 1.930 1.676
10.414 2.648 1.936
10.606 2.970 1.804
10.520 3.230 2.226
10.515 3.718 2.442
10.303 4.456 2.429
10.274 4.757 2.713
10.631 5.110 2.718
10.546 5.664 2.868
10.483 6.114 3.012
10.372 6.477 3.414
10.425 7.016 3.368
10.360 7.457 3.636
10.577 7.994 3.812
10.506 8.412 3.963
10.564 8.830 4.289
10.463 9.207 4.366
10.583 9.570 4.400
10.651 10.191 4.696
10.301 10.565 4.942
10.496 10.913 5.147
10.423 0.132 1.034
10.484 0.824 1.040
10.614 0.747 0.831
10.786 1.334 0.837
10.537 1.669 0.859
10.533 2.212 1.142
10.644 2.495 1.501
10.550 3.008 1.618
10.750 3.386 1.682
10.873 3.842 2.031
10.858 4.523 2.105
10.630 4.990 2.243
10.548 5.483 2.223
10.711 5.913 2.508
10.528 6.303 2.837
10.589 6.697 2.806
10.730 7.236 3.275
10.770 7.576 3.336
10.573 8.191 3.477
10.807 8.551 3.526
10.618 9.143 3.871
10.702 9.418 3.833
10.884 10.007 4.262
10.529 10.253 4.427
10.745 10.766 4.386
10.722 11.064 4.737
10.641 0.251 0.443
10.574 1.046 0.485
11.018 1.505 0.444
11.106 1.787 0.702
10.956 2.454 0.846
11.136 2.633 0.780
10.857 3.415 0.991
11.118 3.576 1.512
10.750 4.136 1.693
10.861 4.595 1.684
10.786 4.858 2.021
10.768 5.543 2.122
10.793 6.032 2.270
10.870 6.256 2.193
11.122 7.486 2.913
10.840 7.608 2.977
11.147 8.249 3.136
10.876 8.645 3.124
10.982 9.116 3.499
10.992 9.723 3.421
11.071 10.080 3.717
10.805 10.493 4.138
11.076 11.005 4.258
11.171 11.520 4.128
10.734 0.434 0.145
11.247 2.628 0.445
11.162 2.793 0.725
11.285 3.309 0.869
11.073 3.682 0.843
11.241 4.413 1.001
11.099 4.857 1.307
11.203 5.001 1.529
11.377 5.655 1.819
11.120 8.235 2.551
11.107 8.617 2.665
11.209 9.125 3.107
11.252 9.598 3.276
11.150 9.990 3.273
11.117 10.572 3.588
11.401 11.041 3.555
11.256 11.305 3.840
11.584 2.955 0.255
11.472 3.719 0.290
11.489 4.009 0.632
11.494 4.379 0.686
11.301 4.783 0.793
11.655 5.267 1.153
11.441 9.004 2.359
11.468 9.539 2.736
11.410 9.796 3.026
11.539 10.355 3.169
11.319 10.580 3.195
11.501 11.019 3.465
11.630 3.534 0.035
11.897 4.088 0.236
11.745 4.489 0.434
11.902 5.097 0.405
11.742 5.287 0.812
11.613 8.904 2.115
11.808 9.740 2.300
11.706 9.928 2.262
11.638 10.416 2.484
11.767 10.871 2.972
11.744 11.391 2.969
11.795 5.377 0.349
12.158 9.828 1.866
12.129 9.966 1.927
12.072 10.677 2.384
12.082 10.935 2.503
12.473 9.198 1.320
12.355 9.865 1.463
12.262 10.477 1.505
12.187 10.834 1.880
12.402 11.257 1.922
12.495 11.669 2.253
12.595 9.696 0.781
12.599 10.023 1.082
12.477 10.502 1.386
12.638 10.722 1.328
12.565 11.506 1.487
12.571 11.602 1.943
7.903 0.631 5.332
7.804 0.894 5.480
7.760 1.548 5.738
7.829 2.017 5.754
7.752 2.463 6.120
8.038 2.674 6.110
8.016 3.132 6.600
7.953 3.754 6.731
7.966 6.612 7.758
7.915 6.927 7.785
7.955 7.417 7.959
7.977 7.945 8.138
7.863 8.355 8.369
7.791 8.876 8.373
7.717 9.285 8.771
7.690 9.595 8.984
8.153 1.232 5.337
8.262 1.590 5.348
8.074 2.100 5.431
8.058 2.496 5.572
8.020 2.951 5.809
8.124 3.555 5.891
8.006 7.133 7.471
8.190 7.555 7.511
7.977 7.811 7.918
7.937 8.581 7.897
8.144 8.782 8.303
8.056 9.281 8.313
8.159 1.476 4.844
8.179 1.767 5.154
8.409 2.304 5.146
8.294 2.750 5.240
8.543 3.088 5.282
8.326 3.552 5.776
8.479 7.350 7.114
8.465 7.597 7.105
8.561 8.232 7.597
8.569 8.467 7.772
8.546 9.157 7.799
8.589 9.420 7.752
8.587 1.952 4.496
8.545 2.521 4.900
8.527 2.718 4.822
8.736 3.342 5.249
8.756 7.952 6.662
8.804 8.400 7.203
8.660 8.774 7.159
8.853 9.172 7.309
8.095 1.396 4.284
8.218 1.900 4.318
8.221 2.561 4.587
8.364 3.069 4.790
8.331 3.185 4.848
8.034 4.015 4.957
8.091 7.303 6.308
8.291 7.710 6.546
8.145 8.209 6.978
8.079 8.703 6.927
8.362 9.221 7.077
8.088 9.750 7.306
8.547 1.716 3.607
8.380 2.136 3.964
8.524 2.545 4.148
8.455 3.202 4.464
8.437 3.389 4.401
8.628 3.888 4.701
8.566 7.691 6.031
8.648 8.188 6.060
8.493 8.466 6.437
8.446 8.944 6.566
8.513 9.345 6.782
8.344 9.853 6.780
8.808 1.574 3.293
8.774 1.746 3.308
8.573 2.373 3.530
8.646 2.798 3.863
8.606 3.382 3.975
8.903 3.874 4.257
8.886 4.064 4.227
8.685 4.628 4.583
8.680 7.137 5.537
8.849 7.563 5.501
8.898 8.343 5.929
8.913 8.669 5.861
8.602 9.068 6.004
8.727 9.414 6.557
8.875 9.880 6.462
8.906 10.354 6.618
9.058 0.978 2.835
9.093 1.718 2.893
9.147 1.871 2.993
8.925 2.272 3.102
9.125 2.755 3.428
8.791 3.561 3.495
9.026 3.909 3.562
9.055 4.459 3.939
9.183 4.632 4.009
9.050 5.132 4.058
8.822 7.086 5.107
9.013 7.552 4.981
8.834 7.956 5.252
8.997 8.412 5.351
9.201 8.934 5.700
8.897 9.024 5.786
9.184 9.520 6.174
9.190 10.090 6.249
9.211 10.468 6.166
9.185 0.334 2.067
9.280 0.887 2.260
9.279 1.131 2.225
9.335 1.795 2.524
9.323 2.057 2.533
9.412 2.419 2.752
9.304 3.193 2.978
9.080 3.558 3.007
9.278 4.162 3.256
9.053 4.378 3.495
9.082 4.740 3.597
9.240 5.275 3.722
9.316 5.806 4.190
9.394 6.354 4.039
9.449 6.512 4.403
9.125 7.080 4.677
9.383 7.596 4.764
9.171 8.148 4.962
9.296 8.511 4.992
9.352 9.028 5.427
9.357 9.528 5.511
9.319 9.756 5.485
9.267 10.381 5.845
9.436 10.556 5.768
9.045 0.413 2.093
9.574 0.497 1.696
9.322 0.901 1.574
9.630 1.566 1.985
9.425 1.660 1.926
9.559 2.249 2.227
9.619 2.638 2.280
9.442 3.113 2.722
9.458 3.829 2.768
9.569 4.049 2.922
9.448 4.700 3.144
9.542 5.060 3.171
9.651 5.391 3.598
9.527 6.041 3.785
9.358 6.494 3.965
9.332 6.646 3.860
9.631 7.146 4.331
9.409 7.600 4.515
9.414 8.038 4.327
9.371 8.795 4.852
9.442 9.183 4.776
9.413 9.702 5.196
9.425 9.976 5.398
9.430 10.609 5.508
9.726 10.919 5.448
9.430 0.022 1.398
9.516 0.522 1.529
9.589 0.462 1.270
9.873 0.984 1.313
9.555 1.532 1.725
9.620 2.091 1.611
9.789 2.616 1.873
9.835 3.074 1.853
9.593 3.493 2.361
9.929 3.866 2.510
9.621 4.399 2.701
9.809 4.773 2.877
9.592 4.965 3.036
9.689 5.760 3.161
9.695 6.022 3.439
9.909 6.353 3.287
9.924 7.067 3.644
9.729 7.446 3.727
9.740 7.672 3.876
9.900 8.352 4.313
9.605 8.887 4.416
9.967 9.227 4.432
9.913 9.542 4.488
9.842 10.051 4.733
9.614 10.726 5.006
9.791 11.101 5.024
9.637 0.118 0.947
9.926 0.726 1.128
9.963 0.652 0.880
10.109 1.400 0.948
9.874 1.571 1.197
9.967 2.105 1.451
10.117 2.434 1.513
9.972 3.000 1.859
10.147 3.545 1.814
9.879 3.816 1.971
9.948 4.327 2.314
9.829 4.738 2.262
9.984 5.506 2.515
10.091 5.765 2.524
10.114 6.015 3.023
10.152 6.554 3.054
9.946 7.074 3.230
10.063 7.408 3.548
9.996 8.018 3.734
10.069 8.434 3.726
10.162 8.742 3.840
9.952 9.517 4.198
9.989 9.943 4.251
10.026 10.431 4.634
9.983 10.913 4.735
9.935 11.016 4.990
9.814 0.358 0.567
10.191 0.681 0.834
10.409 0.763 0.548
10.187 1.239 0.502
10.091 1.742 0.654
10.222 2.270 0.848
10.172 2.567 1.136
10.314 3.193 1.226
10.476 3.509 1.300
10.159 4.272 1.672
10.125 4.647 1.868
10.344 5.069 2.014
10.158 5.436 2.282
10.394 5.786 2.326
10.200 6.445 2.481
10.121 6.792 2.494
10.213 7.393 2.869
10.378 7.527 3.034
10.318 8.025 3.302
10.516 8.519 3.542
10.404 8.881 3.689
10.263 9.474 3.885
10.238 9.754 3.909
10.343 10.549 4.240
10.503 10.906 4.056
10.454 11.479 4.608
10.293 0.130 0.272
10.450 0.438 0.298
10.391 1.070 0.339
10.425 1.260 0.197
10.392 1.632 0.049
10.585 1.933 0.480
10.690 2.313 0.372
10.550 2.906 0.786
10.432 3.143 0.837
10.427 3.746 1.104
10.535 4.217 1.317
10.436 4.857 1.581
10.602 5.117 1.631
10.464 5.547 1.661
10.670 5.981 1.788
10.753 6.648 2.327
10.402 6.837 2.238
10.654 7.330 2.654
10.408 7.746 2.761
10.713 8.205 2.971
10.737 8.598 2.818
10.412 9.104 3.036
10.663 9.458 3.496
10.432 10.023 3.527
10.652 10.485 3.622
10.716 11.086 3.943
10.522 11.641 3.881
10.446 0.915 -0.122
10.891 1.934 0.140
10.772 2.428 0.264
10.658 2.932 0.320
10.875 3.451 0.704
10.681 3.886 0.795
10.903 4.257 0.852
10.660 5.014 0.885
10.935 5.152 1.249
10.639 5.929 1.218
10.907 5.987 1.659
10.911 8.177 2.244
10.647 8.635 2.631
10.768 8.820 2.513
10.948 9.447 2.977
10.650 9.668 2.812
11.017 10.159 3.072
10.763 10.731 3.323
10.688 11.284 3.516
10.708 11.413 3.515
10.904 3.654 0.292
10.901 3.953 0.145
10.978 4.400 0.674
11.070 4.817 0.588
10.882 5.476 1.029
11.027 5.790 1.130
11.234 8.788 2.256
11.150 9.024 2.295
11.258 9.453 2.594
11.099 9.784 2.497
11.290 10.441 2.629
11.276 10.655 3.024
10.994 11.171 3.034
11.237 11.784 3.378
11.297 4.732 -0.030
11.323 5.326 0.383
11.370 5.544 0.529
11.290 9.166 1.708
11.259 9.458 2.067
11.192 9.885 2.411
11.416 10.493 2.287
11.196 10.985 2.579
11.445 11.326 2.913
11.467 5.711 0.125
11.519 9.154 1.526
11.429 9.801 1.453
11.615 10.408 1.901
11.631 10.590 2.010
11.804 10.966 2.037
11.553 11.636 2.508
11.832 9.354 1.103
11.886 9.953 1.312
11.860 10.265 1.356
11.819 10.927 1.800
11.718 11.475 1.941
11.949 11.733 1.798
11.934 9.271 0.617
12.037 9.611 0.753
12.059 10.258 0.926
12.153 10.635 1.088
12.021 11.048 1.250
12.144 11.548 1.403
11.945 11.946 1.798
12.204 12.176 1.708
12.564 9.402 0.002
12.354 9.835 0.297
12.348 10.194 0.510
12.198 10.749 0.690
12.305 11.077 1.032
12.267 11.418 0.905
12.552 11.885 1.348
12.305 12.635 1.484
7.402 0.434 4.786
7.461 0.558 5.098
7.365 0.995 5.193
7.479 1.741 5.557
7.306 1.947 5.475
7.245 2.445 5.949
7.473 2.883 5.926
7.444 3.319 6.332
7.431 3.862 6.554
7.563 4.277 6.538
7.621 5.905 7.043
7.396 6.541 7.313
7.521 7.151 7.716
7.261 7.545 7.832
7.478 7.901 7.749
7.659 8.536 7.999
7.638 8.992 8.248
7.506 9.247 8.503
7.337 9.731 8.709
7.529 0.866 4.738
7.490 1.427 5.121
7.498 1.538 5.163
7.801 2.226 5.177
7.635 2.754 5.268
7.519 3.207 5.783
7.806 3.542 5.977
7.573 3.880 6.004
7.559 6.628 7.002
7.811 7.331 7.313
7.603 7.507 7.335
7.589 8.117 7.640
7.586 8.675 7.835
7.871 9.055 7.791
7.623 9.441 7.921
7.904 9.765 8.181
7.933 1.505 4.481
7.823 1.733 4.538
8.141 2.498 4.983
7.966 2.642 5.072
7.931 3.268 5.194
7.836 3.650 5.426
7.812 7.433 6.898
8.150 7.868 6.989
7.914 8.136 7.239
7.807 8.662 7.181
7.868 9.221 7.507
8.117 9.397 7.633
8.365 1.469 4.351
8.148 1.871 4.311
8.380 2.327 4.653
8.364 2.782 4.612
8.350 3.229 4.990
8.291 3.754 5.162
8.041 7.258 6.363
8.385 7.774 6.407
8.064 8.372 6.614
8.382 8.899 6.800
8.388 9.178 7.055
8.290 9.668 7.235
7.603 1.488 3.805
7.755 1.948 4.190
7.644 2.697 4.269
7.788 3.107 4.551
7.656 3.625 4.472
7.646 3.916 4.664
7.781 7.521 6.039
7.678 8.152 6.448
7.996 8.394 6.358
7.828 8.955 6.909
7.958 9.309 6.745
7.910 9.927 6.959
8.076 1.954 3.683
8.150 2.242 3.629
8.261 2.709 3.836
8.027 3.149 3.921
7.960 3.522 4.395
8.225 4.141 4.304
8.230 7.774 5.728
7.948 8.213 5.985
8.147 8.503 6.325
7.953 9.011 6.439
8.191 9.619 6.635
7.981 9.994 6.532
8.371 1.537 2.973
8.401 2.073 3.023
8.261 2.565 3.150
8.209 3.032 3.684
8.381 3.146 3.667
8.278 3.849 3.878
8.389 4.151 4.217
8.266 4.740 4.258
8.540 7.477 5.310
8.282 8.022 5.594
8.286 8.229 5.710
8.530 8.584 5.966
8.236 8.982 6.154
8.260 9.487 6.260
8.181 9.980 6.488
8.507 10.456 6.436
8.628 1.380 2.533
8.582 1.711 2.553
8.666 2.010 2.860
8.628 2.590 3.132
8.407 2.917 2.998
8.765 3.558 3.295
8.439 3.777 3.539
8.681 4.341 3.754
8.717 4.613 3.754
8.553 5.206 4.113
8.678 7.119 4.555
8.603 7.537 5.068
8.551 8.140 5.013
8.723 8.244 5.026
8.765 8.950 5.513
8.432 9.443 5.617
8.476 9.912 5.946
8.579 10.183 5.726
8.786 10.766 6.167
8.718 0.626 1.778
8.941 0.974 1.833
9.027 1.382 2.202
8.879 1.775 2.195
8.850 2.254 2.432
8.864 2.765 2.563
8.907 3.130 2.712
8.776 3.616 2.723
9.036 4.218 2.896
9.035 4.330 3.449
8.888 5.000 3.360
8.720 5.455 3.530
8.826 6.046 3.625
8.995 6.498 4.122
8.954 6.819 4.150
8.736 7.046 4.387
8.849 7.657 4.657
8.917 8.095 4.662
8.958 8.427 4.707
8.764 9.064 4.886
9.030 9.290 5.166
8.722 10.084 5.555
8.742 10.426 5.629
8.682 10.864 5.792
8.704 0.093 1.651
8.936 0.306 1.876
9.265 0.683 1.500
9.252 1.245 1.398
9.058 1.606 1.524
8.988 1.787 1.651
9.045 2.486 2.062
9.105 2.851 2.218
8.978 3.331 2.274
9.292 3.777 2.626
9.084 4.182 2.795
9.054 4.461 2.845
9.131 5.283 3.090
9.149 5.563 3.347
8.956 6.119 3.431
9.315 6.430 3.666
8.919 6.747 3.701
9.313 7.545 3.980
9.041 7.907 4.187
9.211 8.070 4.192
9.047 8.582 4.519
8.959 9.243 4.592
9.065 9.580 4.987
9.100 9.965 4.950
8.960 10.642 4.966
8.953 10.930 5.529
8.966 -0.041 1.217
9.099 0.517 1.216
9.486 0.562 0.955
9.329 1.090 1.160
9.534 1.779 1.456
9.372 2.174 1.414
9.154 2.372 1.753
9.203 3.049 1.747
9.314 3.260 2.130
9.551 3.859 2.277
9.190 4.284 2.471
9.460 4.810 2.610
9.396 5.146 2.553
9.165 5.768 3.013
9.180 6.118 3.036
9.286 6.461 3.263
9.173 6.920 3.463
9.538 7.667 3.757
9.271 7.817 3.723
9.526 8.421 3.848
9.557 8.907 4.091
9.233 9.230 4.416
9.558 9.931 4.557
9.510 10.376 4.521
9.561 10.555 4.722
9.365 11.315 4.859
9.144 0.318 0.951
9.224 0.552 0.953
9.537 1.089 0.627
9.574 1.349 0.787
9.599 1.895 0.738
9.535 2.267 0.894
9.804 2.522 1.189
9.599 3.289 1.330
9.632 3.653 1.806
9.694 3.863 1.860
9.790 4.514 1.822
9.582 4.765 2.153
9.594 5.204 2.298
9.699 5.842 2.318
9.499 6.131 2.580
9.779 6.941 2.981
9.809 7.000 2.846
9.761 7.688 3.265
9.741 8.164 3.267
9.454 8.726 3.401
9.658 9.126 3.697
9.851 9.613 3.919
9.632 9.857 4.080
9.678 10.326 4.371
9.705 10.775 4.474
9.601 11.121 4.687
9.697 0.516 0.284
9.579 0.830 0.711
9.657 1.224 0.333
9.737 1.678 0.338
10.022 1.790 0.681
9.863 2.201 0.860
10.064 3.044 0.902
9.754 3.358 1.218
9.893 3.647 1.283
9.753 4.094 1.510
10.013 4.723 1.682
9.839 4.898 1.757
9.849 5.474 1.917
9.692 6.145 2.187
9.918 6.321 2.403
9.741 6.985 2.385
9.851 7.144 2.767
9.974 7.627 2.791
9.774 8.342 2.783
9.830 8.791 3.208
9.726 9.164 3.179
10.025 9.555 3.346
9.739 9.880 3.476
9.946 10.668 3.661
10.008 10.804 4.037
10.089 11.214 4.326
10.034 0.445 -0.188
9.666 1.172 0.052
10.207 2.237 -0.039
10.079 2.452 0.520
10.332 3.115 0.555
10.149 3.373 0.651
9.986 3.943 1.030
10.275 4.232 1.153
10.260 4.802 1.110
10.324 5.185 1.188
10.026 5.726 1.533
9.955 6.308 1.628
10.165 6.734 2.008
10.050 7.181 1.980
10.327 7.347 2.162
10.202 7.788 2.558
10.186 8.330 2.575
10.088 8.743 2.624
10.216 9.244 3.068
10.358 9.819 2.977
10.200 10.333 3.185
10.117 10.813 3.659
9.997 11.236 3.797
10.149 11.535 3.661
10.283 3.151 -0.005
10.552 3.542 0.184
10.510 3.967 0.562
10.366 4.494 0.493
10.273 5.075 0.707
10.529 5.377 0.954
10.519 5.941 1.274
10.233 6.380 1.156
10.220 8.271 2.040
10.506 8.575 2.400
10.610 9.148 2.548
10.623 9.271 2.443
10.549 9.688 2.868
10.325 10.145 2.788
10.466 10.795 3.157
10.444 11.376 3.383
10.487 11.896 3.313
10.689 4.329 -0.080
10.579 4.579 0.340
10.817 5.245 0.352
10.619 5.685 0.592
10.568 6.026 0.750
10.643 8.792 1.735
10.601 9.248 2.149
10.555 9.441 2.161
10.710 10.126 2.355
10.862 10.425 2.378
10.495 11.131 2.666
10.620 11.283 2.716
10.809 11.861 3.060
10.973 5.201 0.026
11.047 5.650 0.428
11.058 9.312 1.510
10.901 9.532 1.811
11.132 10.155 2.012
11.131 10.491 2.166
10.753 11.185 2.491
11.141 11.705 2.659
11.322 9.570 1.249
11.191 10.081 1.585
11.388 10.323 1.714
11.012 10.864 1.588
11.239 11.090 1.770
11.219 11.512 2.203
11.264 9.688 0.838
11.284 9.914 1.072
11.613 10.554 1.110
11.347 10.941 1.578
11.300 11.261 1.479
11.523 11.698 1.873
11.862 9.165 0.363
11.610 9.591 0.646
11.769 10.008 0.584
11.617 10.651 0.629
11.644 11.075 0.814
11.536 11.431 1.098
11.919 12.099 1.445
11.825 12.504 1.655
11.793 9.847 -0.074
12.154 10.468 0.229
12.176 10.728 0.320
12.153 11.190 0.426
11.869 11.751 0.604
12.024 12.296 0.811
12.191 11.087 -0.102
12.156 11.295 0.216
12.159 11.808 0.609
12.147 12.175 0.583
12.692 11.985 0.021
12.409 12.542 0.274
7.017 0.169 4.686
6.939 0.780 4.933
7.143 1.182 4.988
6.896 1.750 5.260
7.001 2.314 5.221
6.876 2.539 5.569
7.204 3.159 5.699
7.074 3.345 6.003
7.099 3.818 6.295
7.125 4.409 6.355
7.211 6.300 7.010
7.167 6.749 7.095
7.228 7.120 7.159
7.191 7.586 7.531
6.864 7.944 7.715
6.934 8.548 7.955
7.136 8.804 7.881
7.132 9.429 8.200
7.090 9.601 8.538
7.432 1.062 4.438
7.194 1.447 4.700
7.234 2.001 4.794
7.228 2.194 5.090
7.113 2.600 5.298
7.165 3.304 5.560
7.479 3.749 5.434
7.089 4.211 5.540
7.245 6.646 6.854
7.385 7.354 7.124
7.398 7.736 7.172
7.179 8.204 7.136
7.457 8.796 7.300
7.372 8.904 7.815
7.204 9.501 7.636
7.454 9.868 8.153
7.714 1.577 4.454
7.425 2.018 4.554
7.416 2.503 4.519
7.551 2.709 4.906
7.455 3.204 5.001
7.343 3.892 5.169
7.769 7.368 6.562
7.401 7.754 6.658
7.639 8.353 6.850
7.749 8.759 7.121
7.425 9.088 7.353
7.550 9.611 7.375
7.840 1.508 3.937
7.726 2.129 4.200
7.841 2.614 4.162
7.793 2.941 4.514
7.699 3.491 4.490
7.865 3.992 4.995
7.640 7.505 6.159
7.854 8.076 6.218
7.726 8.512 6.676
7.670 8.768 6.865
7.942 9.144 7.019
7.753 9.599 7.092
7.547 2.384 4.018
7.413 2.870 4.202
7.189 3.148 4.186
7.235 3.720 4.580
7.334 8.081 5.968
7.464 8.645 6.356
7.275 8.931 6.572
7.293 9.596 6.616
7.531 1.858 3.212
7.786 2.267 3.493
7.562 2.927 3.678
7.797 3.090 3.836
7.474 3.769 4.045
7.804 4.309 3.980
7.629 7.664 5.437
7.793 8.246 5.567
7.515 8.716 5.777
7.817 9.000 5.890
7.788 9.736 6.116
7.754 10.143 6.544
7.755 2.262 2.977
7.945 2.470 3.112
7.893 3.023 3.241
7.946 3.471 3.400
7.711 3.962 3.808
7.917 4.220 3.756
8.016 8.081 5.330
7.987 8.387 5.555
8.023 9.015 5.512
8.101 9.358 5.720
8.007 9.806 6.080
7.908 10.312 5.973
8.180 1.639 2.373
8.023 2.020 2.414
8.040 2.616 2.886
8.138 3.306 2.978
8.132 3.502 3.046
8.070 4.040 3.213
8.039 4.588 3.309
8.243 4.806 3.544
8.079 7.574 4.454
8.335 8.230 4.793
8.369 8.592 4.795
8.191 8.905 4.999
8.387 9.513 5.509
8.213 9.874 5.383
8.225 10.218 5.741
8.096 10.739 5.754
8.248 1.056 1.636
8.237 1.558 1.907
8.541 2.068 1.908
8.311 2.488 2.228
8.352 2.990 2.165
8.361 3.321 2.439
8.547 3.543 2.693
8.475 3.981 2.993
8.579 4.733 3.109
8.322 4.927 3.027
8.269 5.434 3.495
8.401 6.109 3.701
8.401 6.663 3.792
8.336 7.186 3.914
8.595 7.740 4.238
8.577 8.227 4.474
8.619 8.505 4.513
8.598 8.919 4.665
8.567 9.706 4.853
8.620 9.916 5.172
8.473 10.603 5.312
8.410 10.951 5.429
8.558 -0.093 1.097
8.805 0.525 0.954
8.768 1.062 1.339
8.619 1.656 1.384
8.701 1.953 1.583
8.885 2.526 1.873
8.692 2.962 2.000
8.661 3.413 2.158
8.815 3.858 2.398
8.756 4.353 2.657
8.787 4.660 2.561
8.686 5.153 2.990
8.571 5.729 2.860
8.581 6.119 3.164
8.652 6.597 3.159
8.689 7.144 3.599
8.648 7.336 3.812
8.791 7.902 3.871
8.519 8.559 3.915
8.533 8.971 4.055
8.772 9.176 4.546
8.785 9.521 4.372
8.546 10.042 4.589
8.608 10.531 4.800
8.920 11.003 5.224
8.730 0.321 0.712
8.642 0.621 0.895
8.812 1.015 0.522
8.929 1.150 0.764
9.002 1.909 0.895
9.008 2.224 1.331
8.823 2.747 1.443
8.900 2.892 1.505
9.114 3.487 1.728
8.817 3.907 2.003
8.767 4.486 1.926
8.772 4.838 2.095
9.003 5.168 2.587
9.150 5.870 2.669
8.865 6.142 2.868
9.115 6.757 3.065
9.032 7.076 3.055
8.931 7.585 3.185
9.155 8.105 3.470
9.097 8.497 3.485
9.025 9.135 3.713
8.859 9.338 3.862
9.121 9.673 4.385
8.991 10.426 4.232
9.016 10.858 4.582
8.926 11.087 4.749
8.878 0.552 0.514
8.886 0.780 0.821
9.004 1.031 0.166
9.286 1.514 0.365
9.312 1.881 0.568
9.173 2.274 0.765
9.259 2.847 0.911
9.238 3.436 1.204
9.250 3.530 1.482
9.228 4.278 1.444
9.406 4.629 1.790
9.289 4.912 1.993
9.399 5.325 2.072
9.145 6.135 2.366
9.269 6.281 2.389
9.128 6.782 2.651
9.096 7.385 2.696
9.042 7.700 2.959
9.133 8.180 3.089
9.249 8.499 3.479
9.202 8.932 3.620
9.089 9.501 3.455
9.165 10.126 3.968
9.297 10.423 3.970
9.252 10.701 4.082
9.326 11.487 4.494
9.163 0.691 0.308
9.120 0.820 0.329
9.539 1.574 -0.060
9.316 1.876 0.300
9.531 2.309 0.662
9.651 2.934 0.830
9.559 3.301 0.992
9.384 3.957 1.083
9.484 4.322 1.194
9.354 4.753 1.165
9.349 5.020 1.364
9.437 5.741 1.611
9.432 6.264 1.703
9.505 6.685 1.870
9.285 6.811 2.168
9.423 7.452 2.226
9.451 7.798 2.523
9.307 8.167 2.705
9.579 8.855 2.712
9.347 9.107 3.086
9.696 9.746 3.079
9.665 9.992 3.479
9.617 10.499 3.575
9.331 10.951 3.861
9.627 11.395 3.987
9.586 2.738 0.130
9.855 3.171 0.345
9.740 3.334 0.540
9.647 4.073 0.566
9.823 4.320 0.749
9.844 4.682 0.980
9.861 5.309 1.151
9.745 5.724 1.216
9.880 6.124 1.385
9.717 6.683 1.761
9.825 7.644 1.822
9.877 7.914 2.199
9.800 8.583 2.291
9.863 9.035 2.548
9.733 9.469 2.749
9.831 9.712 2.830
9.797 10.234 2.997
9.588 10.578 3.195
9.643 11.200 3.464
9.959 11.683 3.491
10.108 3.588 0.019
9.904 4.031 0.088
9.848 4.494 0.281
10.023 5.075 0.487
9.959 5.620 0.759
9.880 5.895 0.855
10.185 8.449 1.782
9.991 9.099 2.016
9.902 9.450 2.517
10.019 9.857 2.400
10.016 10.330 2.742
10.133 11.074 2.843
10.115 11.155 2.994
10.232 11.889 3.120
10.444 4.921 0.205
10.205 5.036 0.387
10.152 5.778 0.429
10.124 9.108 1.576
10.412 9.873 1.906
10.396 10.084 1.940
10.097 10.388 2.216
10.176 10.945 2.294
10.433 11.414 2.491
10.381 9.425 1.325
10.493 9.725 1.736
10.452 10.078 1.654
10.647 10.729 1.873
10.689 11.094 1.990
10.720 11.556 2.224
10.834 9.790 1.180
10.833 10.301 1.255
10.791 10.754 1.354
10.630 11.335 1.707
10.869 9.466 0.698
11.064 10.025 0.790
11.256 10.614 0.960
11.258 11.149 0.973
10.984 11.573 1.482
11.194 11.782 1.312
11.331 9.990 0.355
11.309 10.186 0.238
11.248 10.607 0.512
11.404 11.271 0.816
11.310 11.792 0.773
11.494 12.093 1.258
11.507 10.515 0.209
11.391 10.776 0.177
11.595 11.117 0.304
11.593 11.807 0.760
11.751 12.077 0.653
11.785 11.566 -0.154
11.871 11.936 0.167
11.790 12.164 0.475
6.703 1.026 4.822
6.671 1.522 4.973
6.470 1.602 4.935
6.411 2.245 5.105
6.694 2.527 5.272
6.688 3.153 5.610
6.470 3.466 5.696
6.460 4.084 5.705
6.586 6.728 6.936
6.825 7.325 6.924
6.536 7.686 7.355
6.562 8.112 7.553
6.703 8.369 7.794
6.786 8.974 7.921
6.561 9.586 7.912
6.723 10.057 7.971
6.706 1.381 4.524
7.026 1.898 4.758
6.797 2.575 4.915
6.980 2.851 4.958
6.970 3.420 5.049
6.815 3.636 5.300
6.829 7.259 6.663
6.861 7.843 6.700
7.031 8.217 6.945
6.867 8.651 7.131
6.914 9.061 7.466
6.829 9.631 7.496
7.071 1.656 3.911
7.118 2.063 4.400
7.044 2.353 4.359
7.112 3.104 4.430
7.003 3.588 4.658
7.098 4.080 4.743
7.312 7.473 6.182
7.275 7.788 6.415
7.113 8.437 6.700
7.310 8.870 7.024
7.265 9.184 7.161
7.117 9.611 7.247
7.261 2.022 3.673
7.435 2.628 4.189
7.309 3.053 4.329
7.417 3.552 4.473
7.589 8.053 6.056
7.586 8.709 6.308
7.578 9.044 6.391
7.386 9.527 6.534
7.121 2.887 3.667
7.133 3.375 3.967
6.966 8.793 6.105
6.982 9.145 6.326
7.124 2.367 3.341
7.426 2.752 3.437
7.060 3.213 3.733
7.302 3.994 3.958
7.157 8.226 5.529
7.074 8.752 5.573
7.118 9.335 5.818
7.263 9.682 6.076
7.385 1.981 2.844
7.360 2.750 2.673
7.520 3.087 3.098
7.403 3.652 3.003
7.357 4.059 3.545
7.704 4.257 3.406
7.731 7.849 5.077
7.502 8.287 5.323
7.607 9.059 5.158
7.388 9.221 5.278
7.359 9.756 5.440
7.471 10.070 5.881
7.823 2.438 2.156
7.728 2.898 2.381
7.748 3.273 2.759
7.775 3.725 2.632
7.956 4.191 2.881
7.932 4.728 3.008
7.908 8.017 4.367
7.703 8.787 4.751
7.852 8.882 5.078
7.811 9.715 4.997
7.983 9.995 5.385
7.766 10.217 5.331
7.994 1.449 1.549
8.062 2.175 1.861
7.829 2.350 2.113
8.141 2.955 2.160
7.930 3.451 2.209
7.861 3.618 2.415
8.160 4.411 2.573
8.054 4.885 2.873
7.844 5.224 3.165
8.003 5.489 3.238
7.973 7.212 3.774
7.845 7.799 4.073
7.915 8.216 4.047
7.899 8.949 4.485
8.019 9.398 4.473
8.069 9.805 4.545
8.242 10.284 5.005
8.073 10.548 4.961
8.142 11.059 5.347
8.461 1.211 0.862
8.433 1.797 1.189
8.172 2.346 1.414
8.339 2.428 1.656
8.269 2.848 1.871
8.143 3.599 1.779
8.080 3.983 2.043
8.237 4.470 2.134
8.379 4.873 2.447
8.136 5.446 2.472
8.110 5.808 2.637
8.408 6.019 3.050
8.262 7.070 3.273
8.178 7.732 3.370
8.131 7.998 3.810
8.404 8.421 3.979
8.342 8.702 3.860
8.476 9.334 4.130
8.247 9.617 4.359
8.366 10.313 4.405
8.362 10.693 4.689
8.249 11.302 4.660
8.207 0.151 0.507
8.375 0.817 0.651
8.328 1.337 0.559
8.511 1.729 0.831
8.385 2.490 0.873
8.385 2.721 0.957
8.447 3.213 1.471
8.486 3.752 1.674
8.705 4.110 1.833
8.550 4.384 2.000
8.476 4.959 2.105
8.366 5.518 2.377
8.584 5.718 2.276
8.449 6.375 2.543
8.423 6.635 2.812
8.568 7.158 2.732
8.378 7.592 3.089
8.700 8.313 3.382
8.539 8.478 3.602
8.568 9.177 3.434
8.682 9.604 3.639
8.461 9.793 3.795
8.654 10.257 4.036
8.524 11.028 4.311
8.530 11.451 4.442
8.338 0.121 0.218
8.435 0.455 0.122
8.603 0.953 0.638
8.723 1.042 0.134
8.638 1.681 0.226
8.797 2.095 0.528
8.618 2.526 0.684
8.742 2.992 0.703
8.930 3.314 1.034
8.656 3.990 0.944
8.908 4.090 1.228
8.711 4.648 1.288
8.824 5.340 1.599
8.840 5.722 1.770
8.974 6.212 2.119
8.728 6.598 1.973
8.830 7.139 2.540
9.014 7.263 2.317
8.909 7.961 2.665
8.855 8.377 2.934
9.024 8.720 2.850
8.739 9.136 3.115
9.013 9.725 3.225
8.973 10.127 3.691
8.667 10.464 3.810
8.752 10.829 3.853
8.884 11.313 3.992
8.802 1.238 -0.004
8.910 2.148 0.235
9.195 2.661 0.225
9.226 3.137 0.487
9.058 3.340 0.618
9.037 3.819 0.690
9.211 4.198 0.852
9.235 5.027 1.096
8.913 5.336 1.224
9.118 5.653 1.521
8.960 6.081 1.708
9.254 6.728 1.869
9.111 7.595 2.147
9.072 7.933 2.424
9.227 8.575 2.639
9.162 9.029 2.539
9.256 9.308 2.915
8.926 9.783 2.871
9.288 10.429 3.002
9.151 10.537 3.323
9.178 11.241 3.696
9.244 11.541 3.878
9.471 3.272 0.090
9.332 3.590 0.182
9.301 3.881 0.381
9.156 4.390 0.728
9.354 5.014 0.878
9.233 5.527 0.778
9.530 5.965 0.952
9.198 6.133 1.428
9.541 8.287 2.015
9.531 8.425 2.186
9.482 8.903 2.318
9.391 9.311 2.315
9.442 9.899 2.761
9.250 10.361 2.967
9.187 10.807 3.120
9.285 11.113 3.179
9.178 11.556 3.398
9.614 4.612 0.074
9.684 5.293 0.288
9.737 5.454 0.452
9.414 9.035 1.987
9.620 9.626 2.098
9.562 10.151 2.174
9.426 10.401 2.310
9.680 10.957 2.685
9.625 11.412 2.840
9.808 5.901 -0.060
10.044 9.371 1.553
9.722 9.816 1.535
9.992 10.370 1.838
9.964 10.620 1.935
9.870 11.112 2.318
9.771 11.589 2.316
10.171 9.750 1.112
10.041 10.321 1.423
10.112 10.895 1.486
10.179 11.471 1.830
10.417 10.591 1.098
10.454 10.856 1.476
10.833 10.044 0.443
10.595 10.694 0.749
10.573 11.114 0.814
10.456 11.388 1.266
10.728 10.538 0.082
11.085 10.672 0.277
10.891 11.208 0.607
11.105 11.732 0.764
11.019 12.165 0.885
11.023 11.380 -0.049
10.982 11.909 0.410
11.226 12.211 0.513
11.262 12.638 -0.059
6.109 1.291 4.403
6.195 2.058 4.624
6.303 2.360 5.132
6.295 2.903 5.270
6.247 3.118 5.338
6.238 3.881 5.350
6.176 7.141 6.751
6.439 7.872 7.095
6.343 8.121 7.325
6.120 8.666 7.273
6.361 9.253 7.485
6.385 9.443 7.659
6.401 1.599 4.242
6.633 1.883 4.272
6.606 2.572 4.435
6.573 2.892 4.727
6.569 3.566 5.036
6.465 3.842 5.083
6.440 7.260 6.522
6.522 7.874 6.629
6.573 8.253 6.836
6.450 8.977 6.828
6.475 9.184 7.353
6.409 9.589 7.442
6.737 2.190 4.177
6.588 2.453 4.265
6.710 3.221 4.248
6.809 3.505 4.630
6.816 8.082 6.306
6.827 8.416 6.301
6.573 8.810 6.729
6.688 9.583 6.895
6.781 2.642 3.665
6.941 3.280 4.144
6.872 8.799 5.937
7.198 9.229 6.355
7.164 3.030 2.906
7.246 3.791 2.769
6.967 8.881 4.926
7.086 9.477 5.246
7.446 2.829 2.154
7.177 3.451 2.403
7.238 3.844 2.672
7.496 4.171 2.812
7.216 8.907 4.676
7.399 9.289 4.680
7.192 9.493 4.795
7.317 10.105 4.928
7.715 2.604 1.576
7.486 3.172 1.735
7.662 3.293 2.165
7.804 3.713 2.255
7.654 4.237 2.178
7.423 4.665 2.697
7.635 8.564 3.831
7.646 9.045 3.943
7.514 9.394 4.487
7.607 9.917 4.388
7.685 10.100 4.666
7.469 10.591 4.647
7.828 2.359 0.997
7.813 2.653 1.487
8.016 3.318 1.549
8.041 3.523 1.723
8.049 4.050 1.725
7.716 4.521 2.045
7.682 5.054 2.369
7.832 5.354 2.530
7.959 8.077 3.512
7.915 8.730 3.670
7.737 8.900 3.927
7.928 9.523 3.993
7.874 9.816 3.982
7.811 10.271 4.410
7.870 10.872 4.624
7.830 11.241 4.459
8.241 1.796 0.527
7.934 2.557 0.774
8.192 2.877 0.739
8.333 3.225 1.107
8.153 3.753 1.421
8.070 4.133 1.294
8.262 4.464 1.691
8.091 4.944 1.866
8.020 5.504 2.088
7.984 6.111 2.241
8.139 7.627 2.834
8.099 8.361 2.892
8.177 8.887 3.347
8.362 9.263 3.322
8.074 9.568 3.543
8.257 9.983 3.675
8.071 10.295 3.811
8.196 10.782 4.227
8.050 11.362 4.041
8.479 1.884 0.317
8.587 2.502 0.531
8.220 3.114 0.407
8.400 3.595 0.568
8.502 3.730 0.894
8.378 4.430 1.094
8.601 4.679 1.059
8.540 5.250 1.451
8.468 5.556 1.391
8.268 6.309 1.733
8.478 8.007 2.404
8.484 8.505 2.657
8.531 8.761 2.654
8.339 9.302 3.011
8.390 9.941 3.239
8.334 10.094 3.445
8.444 10.530 3.482
8.468 11.160 3.877
8.389 11.523 4.033
8.801 2.969 -0.021
8.484 3.518 0.181
8.580 3.838 0.414
8.515 4.667 0.654
8.637 4.954 0.650
8.464 5.387 0.887
8.550 5.886 1.165
8.606 8.626 2.347
8.481 8.979 2.312
8.852 9.575 2.572
8.546 9.924 2.963
8.546 10.419 2.869
8.743 10.800 3.116
8.681 11.040 3.217
8.533 11.827 3.285
8.752 4.284 0.147
8.731 4.625 0.212
8.761 4.961 0.285
9.045 5.727 0.755
9.043 9.132 1.905
8.937 9.625 2.259
8.785 10.163 2.401
8.776 10.412 2.397
8.938 10.870 2.793
9.122 11.532 2.901
9.286 5.154 0.269
9.081 9.699 1.776
9.079 10.249 2.123
9.348 10.606 2.230
9.313 11.204 2.409
9.271 10.463 1.575
9.635 10.761 1.755
10.459 10.770 0.113
10.603 11.495 0.393
10.680 11.832 -0.054
5.746 1.966 4.437
5.701 2.348 4.778
5.624 2.898 4.956
5.861 3.208 4.854
5.775 7.954 6.639
5.978 8.417 7.121
5.649 8.776 6.942
5.951 9.085 7.226
5.907 2.463 4.259
6.160 2.842 4.285
6.186 8.614 6.396
6.131 8.962 6.679
6.897 3.559 2.190
6.812 3.884 2.359
6.857 9.059 4.461
6.967 9.675 4.614
7.141 2.788 1.339
7.239 2.908 1.440
7.249 3.560 1.695
7.282 3.873 2.039
7.183 4.518 2.081
7.050 4.995 2.499
7.066 8.369 3.726
7.267 8.970 3.884
7.238 9.368 4.144
7.348 9.869 4.358
7.296 10.460 4.392
7.262 10.847 4.702
7.516 2.733 0.886
7.338 3.434 1.138
7.298 3.582 1.280
7.321 4.032 1.546
7.605 4.396 1.853
7.427 5.159 1.979
7.426 8.575 3.139
7.582 9.064 3.407
7.597 9.724 3.658
7.579 9.839 4.010
7.360 10.577 3.831
7.707 11.041 4.292
7.914 2.549 0.437
7.886 2.907 0.868
7.815 3.485 0.990
7.614 4.010 0.939
7.663 4.399 1.326
7.623 4.826 1.465
7.863 5.236 1.593
7.671 5.540 1.875
7.767 8.174 2.947
7.796 8.928 2.780
7.943 9.201 2.999
7.560 9.587 3.292
7.686 9.970 3.652
7.959 10.576 3.645
7.608 11.150 3.882
7.727 11.317 4.149
8.018 2.554 0.110
8.142 3.115 0.293
8.027 3.367 0.428
8.066 3.880 0.727
8.082 4.492 0.780
7.982 5.017 1.100
8.149 5.164 1.116
8.000 5.913 1.484
8.205 8.610 2.552
7.896 8.935 2.430
7.990 9.222 2.891
8.009 9.954 2.795
8.101 10.382 3.221
7.962 10.925 3.145
7.923 11.076 3.236
8.070 11.673 3.407
8.066 3.585 0.003
8.175 4.160 0.374
8.105 4.774 0.596
8.356 4.927 0.655
8.396 5.575 0.846
8.188 8.999 2.368
8.407 9.668 2.292
8.142 9.783 2.453
8.453 10.386 2.864
8.290 10.732 2.758
8.465 11.446 3.228
