11.562 12.105 2.849
11.037 12.556 2.994
11.740 11.293 2.539
11.138 11.590 2.742
10.645 12.039 2.949
10.140 12.368 3.000
10.819 11.135 2.597
10.221 11.490 2.862
9.725 11.872 3.039
10.422 10.550 2.543
9.943 10.981 2.684
9.421 11.282 2.923
10.513 9.696 2.248
10.004 10.077 2.433
9.516 10.470 2.660
8.902 10.748 2.753
12.275 7.700 1.580
10.682 8.766 2.065
10.098 9.109 2.258
9.672 9.484 2.375
9.050 9.905 2.488
8.514 10.209 2.726
12.327 6.818 1.276
11.860 7.193 1.466
11.340 7.521 1.609
10.755 7.964 1.833
10.277 8.276 1.953
9.722 8.674 2.113
9.225 8.998 2.335
8.640 9.403 2.496
8.137 9.715 2.625
12.092 12.454 3.537
12.217 11.567 3.282
11.664 12.005 3.481
11.207 12.314 3.619
11.733 11.121 3.207
11.288 11.471 3.417
10.702 11.804 3.491
10.229 12.224 3.679
10.905 10.956 3.225
10.413 11.267 3.407
9.808 11.642 3.662
10.483 10.356 3.218
9.913 10.747 3.367
9.410 11.134 3.549
10.623 9.490 2.929
10.100 9.927 3.162
9.588 10.309 3.261
8.993 10.562 3.482
12.332 7.502 2.161
10.745 8.661 2.636
10.189 8.944 2.857
9.652 9.397 3.055
9.235 9.800 3.158
8.662 10.096 3.297
12.424 6.654 1.988
11.954 7.037 2.148
11.363 7.322 2.239
10.836 7.780 2.466
10.369 8.090 2.572
9.868 8.493 2.832
9.254 8.821 2.897
8.728 9.172 3.110
8.298 9.609 3.283
12.099 12.354 4.185
12.270 11.453 3.953
11.825 11.875 4.033
11.201 12.210 4.307
10.699 12.564 4.422
11.923 10.875 3.833
11.328 11.279 3.934
10.807 11.725 4.203
10.366 12.067 4.278
10.907 10.805 3.921
10.407 11.088 4.094
9.939 11.568 4.233
10.514 10.253 3.863
10.079 10.683 3.960
9.511 10.948 4.190
10.711 9.326 3.586
10.121 9.759 3.689
9.649 10.141 3.922
9.110 10.513 4.033
12.343 7.424 2.801
10.764 8.512 3.284
10.275 8.879 3.534
9.765 9.259 3.654
9.270 9.532 3.849
8.803 9.952 3.946
12.574 6.471 2.501
11.990 6.810 2.786
11.475 7.145 2.839
10.980 7.516 3.119
10.417 7.892 3.181
9.967 8.255 3.394
9.331 8.650 3.583
8.875 9.040 3.778
8.342 9.389 3.953
12.252 12.244 4.781
11.710 12.585 5.005
12.330 11.273 4.540
11.813 11.593 4.647
11.278 12.000 4.921
10.793 12.428 5.094
11.388 11.189 4.608
10.896 11.481 4.822
10.460 11.802 4.930
10.581 11.037 4.652
10.053 11.280 4.849
10.164 10.472 4.667
9.601 10.821 4.760
10.307 9.596 4.380
9.767 9.870 4.508
9.247 10.293 4.705
10.359 8.729 4.153
9.859 8.989 4.257
9.351 9.342 4.512
8.788 9.733 4.578
12.036 6.663 3.358
10.568 7.751 3.847
10.028 8.198 3.971
9.506 8.524 4.147
8.905 8.812 4.305
8.400 9.188 4.606
12.309 12.060 5.490
11.777 12.446 5.622
11.864 11.511 5.355
11.458 11.889 5.460
10.864 12.287 5.671
10.993 11.276 5.432
9.895 9.749 5.113
9.890 8.805 4.932
9.444 9.249 5.055
8.850 9.591 5.288
10.119 7.967 4.648
9.626 8.389 4.881
9.087 8.779 4.954
8.486 9.146 5.113
12.411 11.802 6.106
11.889 12.173 6.245
11.507 11.652 6.077
10.953 12.078 6.327
9.524 9.054 5.758
9.045 9.374 5.872
9.609 8.177 5.518
9.091 8.584 5.662
8.579 8.932 5.861
12.464 11.646 6.749
11.981 12.087 6.841
11.421 12.415 7.012
9.715 7.969 6.155
9.204 8.427 6.230
8.654 8.715 6.501
4.553 11.686 7.810
4.021 12.075 7.926
3.468 12.485 8.134
4.915 12.070 8.463
4.409 12.441 8.703
5.065 11.132 8.314
4.590 11.479 8.388
4.072 11.842 8.588
3.608 12.297 8.790
8.216 8.970 7.216
11.122 12.507 8.463
10.658 11.962 8.446
5.607 11.533 8.922
5.026 11.881 9.196
4.478 12.304 9.362
8.702 9.293 8.022
5.718 10.638 8.682
5.170 11.008 8.907
4.632 11.358 9.096
4.202 11.689 9.273
3.605 12.029 9.429
3.109 12.401 9.573
8.341 8.800 7.888
7.806 9.086 8.101
11.226 12.286 9.146
10.777 11.766 9.059
10.230 12.154 9.205
10.358 11.261 8.923
6.090 11.839 9.732
5.551 12.161 9.909
9.266 9.700 8.719
6.226 10.978 9.383
5.732 11.324 9.591
5.087 11.767 9.723
4.604 12.094 9.984
4.078 12.464 10.057
8.825 9.150 8.655
8.275 9.548 8.704
6.363 10.037 9.240
5.859 10.467 9.420
5.283 10.810 9.537
4.735 11.217 9.639
4.251 11.501 9.882
3.747 11.932 10.037
3.204 12.260 10.208
8.398 8.663 8.507
7.883 9.004 8.739
7.356 9.276 8.808
11.254 12.075 9.747
10.794 12.417 9.948
10.847 11.632 9.620
10.331 11.989 9.816
9.825 12.372 10.032
10.544 11.059 9.628
10.140 10.528 9.462
6.503 12.219 10.460
9.656 9.993 9.407
6.189 11.750 10.328
5.691 12.063 10.446
5.174 12.444 10.654
9.236 9.442 9.274
6.769 10.421 9.968
6.314 10.853 10.133
5.747 11.194 10.198
5.277 11.495 10.405
4.719 11.847 10.576
4.261 12.321 10.801
8.861 9.011 9.231
8.415 9.337 9.367
7.802 9.721 9.569
6.927 9.571 9.715
6.460 9.867 9.809
5.943 10.255 9.967
5.314 10.641 10.169
4.883 10.951 10.347
4.388 11.336 10.550
3.862 11.787 10.682
3.243 12.063 10.764
2.707 12.515 10.976
8.536 8.438 9.133
7.971 8.767 9.273
7.499 9.219 9.497
6.984 9.596 9.685
11.793 12.463 10.496
11.391 11.964 10.365
10.846 12.286 10.519
11.011 11.409 10.241
10.403 11.727 10.462
9.899 12.137 10.618
10.525 10.947 10.167
10.112 11.267 10.376
10.158 10.370 10.109
6.644 12.081 11.002
6.071 12.440 11.207
9.833 9.793 10.006
6.803 11.109 10.756
6.313 11.551 10.945
5.693 11.839 11.146
5.220 12.194 11.306
9.454 9.367 9.921
8.854 9.663 10.155
6.916 10.280 10.472
6.333 10.639 10.748
5.887 10.959 10.862
5.394 11.332 11.096
4.754 11.695 11.226
4.248 12.162 11.375
3.698 12.488 11.585
8.968 8.812 9.861
8.505 9.165 10.002
7.975 9.540 10.205
7.020 9.412 10.321
6.565 9.750 10.396
5.969 10.086 10.642
5.498 10.496 10.782
4.950 10.799 10.938
4.419 11.277 11.144
3.936 11.579 11.278
3.367 11.990 11.490
2.792 12.308 11.691
8.543 8.331 9.726
8.037 8.651 10.000
7.555 9.064 10.059
7.052 9.383 10.296
11.795 12.232 11.132
11.398 11.828 10.973
10.901 12.112 11.177
10.340 12.456 11.298
11.056 11.312 10.926
10.581 11.645 11.119
10.637 10.756 10.841
6.234 12.221 11.910
6.295 11.338 11.636
5.811 11.683 11.707
5.284 12.047 11.865
4.705 12.411 12.075
9.502 9.209 10.579
6.521 10.524 11.344
5.891 10.770 11.542
5.457 11.191 11.655
4.909 11.631 11.847
4.333 11.879 11.950
3.848 12.346 12.121
9.092 8.640 10.499
8.569 9.021 10.643
7.123 9.177 10.926
6.651 9.549 11.084
6.045 9.967 11.207
5.539 10.303 11.469
5.043 10.618 11.539
4.561 11.066 11.778
4.016 11.445 11.942
3.508 11.748 12.151
2.860 12.202 12.326
2.407 12.465 12.397
8.696 8.152 10.461
8.132 8.425 10.582
7.641 8.832 10.803
7.061 9.220 10.901
11.952 12.128 11.700
11.456 12.546 11.905
11.469 11.542 11.657
11.050 11.996 11.834
11.181 11.049 11.590
5.896 11.572 12.351
5.399 11.952 12.615
5.990 10.619 12.172
5.551 11.010 12.246
5.000 11.347 12.531
9.233 8.478 11.130
6.127 9.760 11.886
5.662 10.090 11.991
5.149 10.558 12.271
4.628 10.823 12.385
4.101 11.291 12.512
8.761 7.932 11.107
8.228 8.284 11.277
12.354 12.541 12.509
12.023 11.981 12.389
11.541 12.359 12.571
11.663 11.490 12.290
8.903 7.729 11.732
7.921 10.763 2.268
4.946 12.131 2.997
4.469 12.491 3.135
7.492 10.280 2.209
6.990 10.670 2.296
8.486 11.128 2.963
5.385 12.429 3.790
8.000 10.621 2.842
7.516 10.990 3.077
6.028 11.273 3.334
5.596 11.586 3.428
4.990 12.019 3.703
4.569 12.338 3.855
7.683 10.052 2.813
7.056 10.508 2.969
6.565 10.883 3.170
6.070 11.181 3.362
9.366 12.099 3.842
8.907 11.506 3.677
8.560 10.982 3.654
8.021 11.390 3.718
5.984 11.937 4.187
5.503 12.264 4.387
8.125 10.482 3.465
7.640 10.788 3.679
7.057 11.229 3.857
6.136 11.061 3.991
5.656 11.434 4.172
5.123 11.777 4.258
4.591 12.126 4.402
4.043 12.508 4.601
7.756 9.979 3.497
7.238 10.267 3.593
6.618 10.664 3.768
6.114 11.041 3.999
9.839 12.369 4.520
9.466 11.882 4.357
8.983 11.355 4.292
8.619 10.815 4.187
6.183 11.793 4.787
5.573 12.145 4.975
5.128 12.505 5.134
8.182 10.298 4.104
7.627 10.635 4.279
7.129 10.985 4.489
6.249 10.870 4.643
5.784 11.239 4.690
5.154 11.631 4.928
4.676 11.983 5.043
4.121 12.400 5.187
7.762 9.785 4.124
7.252 10.115 4.253
6.764 10.523 4.472
6.256 10.898 4.614
9.915 12.247 5.161
8.755 10.625 4.930
5.632 11.914 5.600
5.138 12.287 5.843
8.352 10.129 4.813
7.834 10.472 4.985
5.812 11.139 5.405
5.254 11.434 5.529
4.820 11.792 5.683
4.295 12.149 5.846
3.763 12.537 6.077
7.843 9.564 4.705
7.341 10.008 4.902
6.876 10.378 5.054
5.215 12.187 6.407
4.685 12.586 6.674
8.416 9.945 5.459
5.327 11.262 6.188
4.803 11.615 6.320
4.356 12.073 6.541
3.773 12.409 6.624
8.007 9.412 5.338
7.482 9.758 5.539
4.868 12.427 7.293
4.989 11.484 6.998
4.465 11.835 7.194
3.854 12.255 7.257
8.074 9.302 6.016
4.453 11.653 7.791
3.919 12.050 7.990
3.398 12.350 8.080
7.390 9.840 0.019
8.533 8.989 0.368
7.994 9.352 0.483
7.461 9.699 0.695
8.173 8.491 0.181
7.581 8.771 0.390
7.147 9.268 0.613
7.236 8.346 0.368
6.735 8.705 0.504
5.394 5.460 0.582
5.444 4.646 0.324
4.955 5.041 0.490
4.415 5.407 0.580
5.609 3.683 0.086
5.039 4.134 0.254
4.578 4.479 0.407
4.090 4.906 0.560
4.636 3.608 0.170
4.183 3.923 0.304
3.662 4.271 0.448
4.322 3.009 -0.050
3.782 3.439 0.220
3.212 3.754 0.333
3.446 2.842 0.130
2.857 3.312 0.237
9.154 8.406 0.743
8.713 8.887 0.979
8.070 9.249 1.066
7.595 9.592 1.287
8.827 8.002 0.746
8.279 8.348 0.832
7.786 8.717 1.054
7.263 9.017 1.263
7.841 7.742 0.719
7.373 8.205 0.990
6.825 8.519 1.066
6.946 7.608 0.853
1.809 12.504 0.073
1.293 11.992 -0.027
0.871 12.308 0.135
4.260 12.267 0.328
3.277 12.082 0.522
2.729 12.427 0.598
2.935 11.520 0.384
2.386 11.995 0.531
1.882 12.364 0.713
1.406 11.853 0.659
0.134 8.667 0.649
0.178 7.692 0.398
3.827 12.533 1.153
6.937 10.277 0.161
3.434 11.953 1.114
2.871 12.362 1.286
6.454 9.752 0.115
2.441 11.845 1.169
1.992 12.092 1.372
0.127 8.440 1.269
0.291 7.607 1.054
3.417 5.317 0.092
3.812 12.347 1.890
7.030 10.163 0.806
3.463 11.839 1.702
2.906 12.121 1.980
2.432 12.467 2.056
6.654 9.548 0.766
2.595 11.686 1.830
2.077 11.921 1.967
0.149 9.265 2.209
0.777 7.967 1.721
0.235 8.256 1.997
3.977 5.697 0.719
0.357 7.359 1.676
3.481 5.154 0.752
0.476 6.486 1.444
3.143 4.669 0.615
2.655 5.092 0.839
2.699 4.185 0.467
4.457 11.774 2.238
3.916 12.133 2.490
3.395 12.556 2.587
7.124 9.882 1.464
6.519 10.357 1.581
3.604 11.626 2.427
2.950 11.964 2.526
2.531 12.329 2.677
6.689 9.398 1.409
3.168 11.102 2.353
2.610 11.504 2.412
2.088 11.769 2.598
1.602 12.174 2.767
6.346 8.832 1.253
1.721 11.268 2.505
10.361 0.314 3.942
5.603 3.697 5.500
5.157 4.072 5.632
9.442 0.140 4.069
5.796 2.711 5.242
5.216 3.082 5.457
4.768 3.462 5.554
5.436 2.296 5.153
4.830 2.625 5.282
4.283 3.030 5.495
5.001 1.706 5.024
4.459 2.053 5.313
3.934 2.453 5.448
9.291 7.460 6.068
8.845 7.825 6.150
8.262 8.208 6.301
8.933 6.984 5.982
8.380 7.308 6.081
7.918 7.641 6.211
8.030 6.816 5.976
7.500 7.208 6.235
10.449 0.177 4.639
9.977 0.567 4.810
6.295 3.150 5.936
5.734 3.516 6.207
5.240 3.887 6.272
9.516 0.052 4.707
8.961 0.380 4.837
6.334 2.192 5.775
5.905 2.607 5.857
5.313 3.008 6.027
4.807 3.320 6.172
6.010 1.678 5.657
5.488 2.114 5.861
4.958 2.488 6.035
4.409 2.788 6.160
5.110 1.615 5.693
4.512 1.891 5.859
4.073 2.335 6.065
4.233 1.454 5.858
3.578 1.737 5.945
9.894 7.019 6.551
9.443 7.341 6.646
8.882 7.650 6.852
8.340 8.040 6.964
12.118 4.618 5.578
9.601 6.387 6.461
8.989 6.820 6.588
8.539 7.152 6.777
7.967 7.468 6.951
12.370 3.650 5.290
8.578 6.281 6.448
8.125 6.607 6.635
7.591 6.960 6.801
11.500 0.161 5.201
10.910 0.547 5.409
10.460 0.854 5.447
6.790 3.550 6.691
6.252 3.844 6.931
5.670 4.198 7.098
10.521 0.012 5.301
10.010 0.342 5.426
9.507 0.768 5.597
6.871 2.591 6.502
6.297 2.906 6.666
5.792 3.334 6.790
5.336 3.751 6.996
9.116 0.208 5.541
6.463 2.079 6.375
6.020 2.420 6.481
5.397 2.742 6.738
4.876 3.146 6.814
8.196 0.018 5.627
6.559 1.231 6.065
6.028 1.560 6.249
5.591 1.973 6.413
5.088 2.234 6.561
4.497 2.697 6.827
5.744 0.963 6.203
5.210 1.438 6.292
4.623 1.821 6.545
4.138 2.152 6.668
4.773 0.907 6.324
4.311 1.273 6.497
3.780 1.582 6.560
3.905 0.757 6.423
12.076 5.372 6.421
10.513 6.434 6.993
10.094 6.767 7.082
9.491 7.107 7.329
9.028 7.499 7.522
8.409 7.835 7.571
12.208 4.373 6.175
9.584 6.327 7.065
9.183 6.611 7.194
8.648 6.987 7.433
8.075 7.387 7.601
12.397 3.499 5.973
11.871 3.906 6.045
9.250 5.715 6.999
8.724 6.145 7.126
8.244 6.518 7.284
7.735 6.851 7.430
12.511 2.700 5.667
12.054 2.972 5.790
8.347 5.565 7.094
7.765 5.904 7.193
7.304 6.266 7.326
12.292 0.998 5.927
11.863 1.379 6.085
7.085 4.673 7.598
6.561 5.135 7.847
11.977 0.552 5.866
11.415 0.900 6.067
10.931 1.251 6.284
7.268 3.787 7.436
6.713 4.266 7.614
6.163 4.518 7.725
11.602 0.059 5.830
11.047 0.428 5.927
10.495 0.713 6.131
9.996 1.079 6.289
7.324 3.006 7.180
6.895 3.350 7.282
6.251 3.727 7.560
5.848 4.059 7.685
10.138 0.213 6.022
9.636 0.583 6.195
9.081 0.923 6.373
7.553 2.058 6.963
6.991 2.471 7.040
6.428 2.827 7.181
5.949 3.217 7.460
5.419 3.556 7.524
9.243 0.029 6.153
8.675 0.441 6.265
8.205 0.861 6.536
7.555 1.168 6.634
7.068 1.503 6.771
6.598 1.917 6.949
5.985 2.242 7.096
5.571 2.679 7.290
5.008 2.973 7.502
7.712 0.243 6.368
7.176 0.633 6.567
6.652 0.984 6.703
6.234 1.343 6.841
5.701 1.741 7.038
5.124 2.065 7.212
4.550 2.531 7.407
6.320 0.482 6.675
5.826 0.919 6.879
5.319 1.172 7.034
4.669 1.538 7.155
4.232 2.018 7.336
5.408 0.367 6.788
4.841 0.697 6.966
4.320 1.001 7.123
3.871 1.432 7.267
4.423 0.136 6.814
3.925 0.546 7.021
3.415 0.969 7.108
3.547 -0.023 6.969
3.018 0.426 7.133
12.190 5.131 7.124
11.693 5.468 7.223
11.206 5.884 7.388
10.599 6.292 7.517
10.083 6.635 7.779
9.616 7.018 7.942
9.031 7.325 8.114
8.580 7.713 8.270
12.370 4.302 6.874
11.841 4.679 6.959
11.232 5.029 7.204
10.800 5.336 7.335
10.292 5.768 7.517
9.686 6.108 7.628
9.266 6.439 7.802
8.721 6.795 8.055
8.151 7.171 8.223
12.417 3.402 6.564
11.915 3.758 6.691
11.476 4.086 6.869
9.865 5.268 7.404
9.390 5.517 7.636
8.766 5.970 7.739
8.238 6.358 7.988
7.725 6.674 8.024
12.113 2.782 6.450
11.607 3.215 6.690
8.960 5.045 7.450
8.369 5.446 7.619
7.865 5.842 7.800
7.406 6.107 8.014
12.250 1.913 6.297
11.739 2.306 6.409
7.977 4.833 7.555
7.441 5.194 7.795
6.990 5.589 7.880
12.334 1.103 5.984
11.804 1.422 6.196
7.064 4.773 7.619
6.539 5.074 7.789
12.468 0.904 6.587
11.841 1.240 6.810
11.351 1.654 6.891
7.675 4.228 8.122
7.216 4.517 8.260
6.703 4.986 8.490
11.980 0.407 6.577
11.530 0.799 6.710
11.013 1.087 6.855
10.486 1.430 7.039
7.801 3.294 7.914
7.282 3.663 8.021
6.729 4.022 8.243
6.296 4.366 8.388
11.103 0.156 6.681
10.545 0.636 6.818
10.131 0.919 6.966
7.399 2.787 7.800
6.923 3.108 8.015
6.462 3.561 8.141
5.863 3.947 8.264
10.201 0.075 6.721
9.661 0.485 6.888
9.134 0.851 7.078
8.689 1.207 7.216
8.137 1.580 7.378
7.551 1.876 7.506
7.037 2.262 7.733
6.484 2.607 7.946
5.969 3.032 8.052
5.467 3.395 8.162
8.787 0.200 6.887
8.281 0.592 7.142
7.668 0.950 7.301
7.211 1.367 7.523
6.629 1.773 7.600
6.153 2.122 7.836
5.563 2.491 7.923
5.034 2.848 8.102
7.824 0.174 7.077
7.357 0.448 7.271
6.787 0.880 7.427
6.265 1.220 7.521
5.722 1.567 7.641
5.215 1.939 7.879
4.758 2.281 8.100
6.428 0.375 7.345
5.884 0.710 7.465
5.324 1.019 7.570
4.888 1.447 7.789
4.350 1.740 7.936
5.528 0.209 7.352
5.017 0.545 7.591
4.454 0.924 7.733
3.866 1.255 7.860
4.488 0.070 7.388
3.964 0.357 7.657
3.534 0.717 7.855
3.125 0.241 7.690
12.284 5.014 7.644
11.727 5.352 7.853
11.313 5.658 7.986
10.667 6.067 8.204
10.250 6.417 8.409
9.655 6.845 8.614
9.205 7.166 8.681
8.678 7.554 8.900
12.461 4.155 7.511
11.884 4.509 7.611
11.410 4.811 7.792
10.896 5.143 7.986
10.291 5.596 8.166
9.876 5.958 8.294
9.322 6.288 8.414
8.837 6.595 8.685
8.285 6.965 8.797
12.565 3.199 7.140
11.971 3.618 7.370
11.520 3.863 7.555
10.925 4.273 7.758
10.492 4.677 7.941
9.919 5.053 8.012
9.359 5.350 8.178
8.852 5.748 8.376
8.430 6.155 8.543
7.862 6.543 8.722
12.146 2.714 7.093
11.621 2.998 7.258
8.999 4.841 8.193
8.485 5.242 8.256
7.999 5.643 8.460
7.448 5.919 8.699
12.362 1.763 6.912
11.722 2.149 6.981
11.211 2.575 7.254
8.584 4.381 7.996
8.046 4.701 8.257
7.616 5.120 8.366
7.063 5.478 8.611
12.448 0.860 6.617
11.853 1.224 6.777
11.372 1.585 6.883
7.754 4.159 8.147
7.148 4.569 8.246
6.733 4.901 8.477
12.549 0.767 7.279
11.955 1.062 7.391
11.434 1.518 7.534
7.852 4.039 8.827
7.341 4.391 8.904
6.760 4.783 9.139
12.079 0.132 7.143
11.619 0.564 7.329
11.033 0.981 7.554
10.514 1.356 7.692
7.964 3.099 8.512
7.436 3.544 8.682
6.899 3.931 8.789
6.301 4.225 9.061
11.263 0.028 7.191
10.607 0.369 7.418
10.177 0.715 7.590
9.618 1.203 7.781
8.060 2.281 8.261
7.494 2.576 8.362
7.057 3.009 8.627
6.471 3.399 8.719
5.901 3.781 8.890
9.731 0.231 7.542
9.268 0.587 7.723
8.690 1.029 7.851
8.245 1.389 7.987
7.646 1.690 8.179
7.080 2.090 8.281
6.573 2.437 8.570
6.089 2.815 8.651
5.505 3.249 8.822
8.861 0.165 7.573
8.304 0.495 7.753
7.798 0.887 7.967
7.221 1.235 8.108
6.810 1.586 8.271
6.159 1.894 8.437
5.723 2.369 8.594
5.158 2.721 8.777
7.359 0.301 7.801
6.819 0.636 7.958
6.320 1.061 8.213
5.793 1.377 8.277
5.284 1.806 8.470
4.723 2.170 8.657
6.452 0.116 7.875
5.947 0.544 8.090
5.423 0.940 8.297
4.867 1.191 8.394
4.391 1.663 8.650
5.090 0.325 8.109
4.576 0.793 8.286
4.018 1.131 8.471
4.103 0.273 8.271
3.543 0.579 8.410
3.199 0.093 8.385
12.453 4.872 8.387
11.864 5.152 8.466
11.342 5.594 8.671
10.849 5.961 8.861
10.312 6.338 9.073
9.798 6.598 9.171
9.291 7.038 9.292
8.774 7.425 9.562
12.476 3.981 8.037
12.042 4.286 8.276
11.499 4.695 8.387
10.888 4.988 8.651
10.405 5.417 8.800
9.849 5.801 8.894
9.405 6.088 9.169
8.906 6.483 9.286
8.300 6.927 9.408
12.176 3.334 8.031
11.598 3.829 8.203
11.047 4.093 8.381
10.495 4.513 8.528
10.050 4.884 8.669
9.541 5.266 8.839
9.025 5.567 9.018
8.442 5.950 9.121
7.882 6.295 9.411
12.284 2.466 7.753
11.664 2.870 7.878
11.178 3.279 8.052
9.600 4.388 8.611
9.143 4.770 8.706
8.602 5.060 8.922
8.063 5.445 9.165
7.581 5.794 9.229
12.390 1.611 7.462
11.896 2.031 7.602
11.279 2.380 7.788
8.774 4.146 8.616
8.179 4.511 8.914
7.627 4.982 9.030
7.200 5.321 9.150
12.553 0.703 7.285
11.957 1.127 7.378
11.488 1.447 7.567
7.760 4.084 8.719
7.266 4.364 8.912
6.804 4.714 9.073
12.133 0.936 8.055
11.566 1.354 8.246
7.835 3.911 9.381
7.398 4.277 9.620
6.905 4.657 9.791
12.182 0.039 7.796
11.642 0.448 7.919
11.160 0.809 8.131
7.529 3.301 9.290
6.994 3.709 9.478
6.440 4.140 9.621
10.809 0.228 8.007
10.187 0.593 8.266
7.623 2.449 9.068
7.053 2.872 9.220
6.554 3.225 9.402
6.020 3.579 9.500
9.789 0.071 8.202
9.363 0.407 8.337
7.809 1.548 8.757
7.251 1.938 8.974
6.721 2.347 9.098
6.156 2.664 9.282
5.675 3.079 9.527
8.424 0.316 8.439
7.929 0.622 8.598
7.308 1.066 8.758
6.895 1.413 8.882
6.345 1.706 8.994
5.732 2.082 9.277
5.204 2.547 9.383
7.429 0.182 8.494
6.944 0.549 8.621
6.465 0.836 8.861
5.886 1.181 9.012
5.326 1.548 9.116
4.822 2.041 9.249
6.023 0.291 8.662
5.464 0.723 8.895
5.055 1.136 9.062
4.519 1.487 9.240
5.143 0.230 8.853
4.633 0.535 9.007
4.051 0.906 9.082
4.225 0.085 8.872
3.669 0.432 9.097
12.486 4.649 9.046
12.011 5.026 9.182
11.488 5.331 9.321
10.882 5.770 9.460
10.351 6.101 9.691
9.867 6.545 9.866
9.350 6.838 10.023
8.842 7.212 10.104
12.095 4.114 8.855
11.527 4.460 9.045
11.030 4.895 9.251
10.563 5.164 9.399
9.983 5.570 9.609
9.480 5.891 9.802
8.999 6.295 9.883
8.401 6.698 10.088
12.276 3.283 8.614
11.743 3.607 8.866
10.176 4.744 9.252
9.535 5.014 9.497
9.102 5.476 9.587
8.493 5.793 9.861
8.081 6.222 9.979
12.349 2.272 8.326
11.862 2.667 8.605
9.218 4.508 9.403
8.623 4.952 9.619
8.152 5.226 9.671
7.669 5.633 9.946
12.433 1.500 8.105
11.926 1.850 8.348
8.247 4.344 9.435
7.757 4.800 9.714
7.197 5.184 9.785
12.016 0.958 8.081
11.569 1.293 8.157
7.933 3.918 9.446
7.399 4.186 9.501
6.797 4.600 9.763
11.775 0.206 8.629
7.121 3.509 10.173
6.573 3.868 10.304
10.862 0.041 8.748
7.198 2.588 9.877
6.692 2.960 10.095
6.121 3.417 10.248
7.330 1.715 9.599
6.745 2.123 9.759
6.288 2.515 10.011
5.795 2.919 10.145
7.468 0.861 9.351
6.884 1.215 9.507
6.410 1.625 9.711
5.857 1.898 9.887
5.371 2.393 10.100
7.026 0.393 9.325
6.478 0.640 9.505
5.977 1.008 9.678
5.418 1.485 9.769
4.927 1.841 9.954
6.171 0.188 9.380
5.583 0.499 9.505
5.086 0.862 9.651
4.546 1.222 9.828
5.233 -0.002 9.425
4.626 0.389 9.650
4.193 0.717 9.805
3.721 0.256 9.677
12.583 4.520 9.599
10.962 5.528 10.161
10.473 5.949 10.291
9.972 6.374 10.488
9.490 6.747 10.618
8.896 7.056 10.752
12.127 3.948 9.551
10.658 5.028 9.975
10.026 5.377 10.166
9.508 5.792 10.358
9.065 6.160 10.501
8.572 6.565 10.775
12.357 3.003 9.278
9.683 4.894 10.072
9.222 5.299 10.350
8.585 5.648 10.490
8.047 6.003 10.688
12.453 2.113 9.002
8.826 4.791 10.263
8.213 5.174 10.356
7.657 5.473 10.500
12.618 1.309 8.744
7.896 4.650 10.291
7.276 4.984 10.482
6.790 2.793 10.667
6.856 1.931 10.391
6.329 2.268 10.593
5.869 2.649 10.767
7.017 1.114 10.216
6.520 1.422 10.390
5.914 1.837 10.489
5.448 2.157 10.683
6.661 0.583 10.027
6.071 0.884 10.218
5.596 1.280 10.367
4.991 1.602 10.604
6.172 -0.019 9.942
5.664 0.346 10.116
5.201 0.797 10.273
4.672 1.144 10.470
4.772 0.209 10.312
4.227 0.626 10.428
10.600 5.767 10.866
10.071 6.200 11.125
9.577 6.513 11.234
8.986 6.815 11.463
10.154 5.227 10.876
9.672 5.660 11.031
9.136 5.930 11.160
8.542 6.294 11.352
9.243 5.136 10.948
8.784 5.457 11.113
8.245 5.874 11.283
8.324 4.877 11.029
6.417 2.196 11.187
5.903 2.576 11.428
6.606 1.307 11.005
6.000 1.671 11.066
5.467 2.035 11.288
6.123 0.737 10.878
5.663 1.162 11.114
5.085 1.446 11.224
5.767 0.193 10.795
5.221 0.637 10.989
4.769 1.003 11.087
10.166 5.956 11.710
9.593 6.287 11.896
9.104 6.652 12.123
9.787 5.489 11.687
9.226 5.781 11.756
8.642 6.163 11.994
8.744 5.312 11.676
8.347 5.597 11.878
6.516 1.998 11.853
6.016 2.337 12.068
6.672 1.106 11.608
6.068 1.443 11.699
5.573 1.794 11.908
6.266 0.519 11.496
5.728 0.952 11.686
5.199 1.297 11.793
5.812 0.010 11.496
5.369 0.371 11.633
4.805 0.772 11.795
10.236 5.774 12.310
9.751 6.228 12.573
9.817 5.260 12.318
9.304 5.682 12.477
8.880 5.126 12.308
8.306 5.531 12.513
7.185 1.509 12.274
6.645 1.821 12.416
7.262 0.539 12.074
6.772 0.942 12.213
6.164 1.298 12.374
6.930 0.046 12.041
6.280 0.440 12.133
5.807 0.744 12.295
5.312 1.176 12.545
5.477 0.291 12.217
4.942 0.620 12.460
4.461 0.079 12.315
5.800 5.817 1.199
5.330 6.287 1.469
5.942 5.013 1.023
5.485 5.341 1.098
4.887 5.704 1.289
6.083 4.044 0.800
5.618 4.419 0.878
5.047 4.800 1.105
4.470 5.137 1.214
6.237 3.146 0.478
5.688 3.513 0.694
5.178 4.002 0.815
4.666 4.370 1.041
4.107 4.705 1.176
5.873 2.713 0.343
5.320 3.060 0.587
4.811 3.460 0.781
4.313 3.845 0.929
3.684 4.192 1.115
5.480 2.100 0.271
4.916 2.543 0.489
4.459 2.913 0.626
3.936 3.283 0.798
3.295 3.566 1.021
4.487 2.058 0.465
4.004 2.376 0.619
3.450 2.728 0.687
2.929 3.137 0.840
3.549 1.838 0.502
3.037 2.175 0.677
2.622 2.586 0.819
2.397 0.276 0.230
1.853 0.652 0.349
1.369 0.952 0.573
1.532 0.074 0.368
0.937 0.473 0.518
12.386 6.021 0.436
11.912 6.416 0.625
11.316 6.843 0.760
9.735 7.861 1.238
9.307 8.309 1.420
8.763 8.597 1.625
8.224 9.017 1.790
7.656 9.411 1.985
12.549 5.184 0.213
11.996 5.591 0.279
11.443 5.863 0.538
10.957 6.249 0.687
9.424 7.446 1.100
8.919 7.822 1.382
8.292 8.069 1.506
7.859 8.511 1.650
7.238 8.852 1.813
12.127 4.651 0.110
11.557 5.030 0.180
11.112 5.455 0.403
8.496 7.228 1.229
7.962 7.586 1.380
7.385 7.963 1.575
6.878 8.307 1.763
11.220 4.567 0.135
7.609 7.120 1.350
7.057 7.459 1.526
6.452 7.802 1.598
6.574 6.924 1.447
6.117 7.238 1.636
11.560 2.615 0.244
10.986 2.938 0.447
10.519 3.286 0.593
6.913 5.836 1.834
6.385 6.285 1.988
5.766 6.606 2.177
11.668 1.643 0.019
11.168 2.088 0.224
10.592 2.406 0.354
10.155 2.826 0.508
6.409 5.285 1.747
5.995 5.673 1.919
5.465 6.054 1.996
10.718 1.579 0.109
10.221 1.954 0.217
9.760 2.316 0.466
9.170 2.601 0.568
6.629 4.473 1.455
6.071 4.799 1.635
5.535 5.130 1.761
5.031 5.512 1.978
10.440 1.011 -0.022
9.789 1.416 0.137
9.292 1.773 0.393
8.823 2.093 0.516
8.287 2.397 0.633
6.716 3.499 1.189
6.248 3.902 1.353
5.675 4.300 1.506
5.194 4.706 1.721
4.673 4.978 1.849
9.513 0.877 0.138
8.874 1.205 0.256
8.374 1.543 0.486
7.913 1.872 0.665
7.415 2.350 0.787
6.898 2.689 0.894
6.339 3.103 1.160
5.763 3.420 1.260
5.227 3.737 1.427
4.747 4.147 1.581
4.197 4.521 1.744
9.078 0.374 -0.041
8.510 0.636 0.208
8.064 1.085 0.385
7.471 1.454 0.469
6.947 1.835 0.671
6.507 2.110 0.916
5.872 2.545 1.024
5.333 2.931 1.183
4.924 3.254 1.414
4.360 3.571 1.506
3.767 4.006 1.768
8.183 0.134 0.041
7.584 0.478 0.292
7.082 0.913 0.472
6.508 1.221 0.572
6.117 1.657 0.806
5.496 1.969 0.981
5.020 2.417 1.170
4.531 2.749 1.266
4.003 3.146 1.477
3.449 3.466 1.633
7.279 0.009 0.159
6.700 0.401 0.421
5.087 1.419 0.879
4.665 1.800 1.029
4.026 2.178 1.194
3.597 2.626 1.317
2.997 2.949 1.591
4.240 1.253 0.964
3.678 1.704 1.108
3.232 2.036 1.304
2.586 2.396 1.513
3.235 1.199 1.023
2.825 1.544 1.227
2.233 1.931 1.383
2.890 0.657 0.886
2.364 0.946 1.061
1.817 1.381 1.246
2.547 0.091 0.861
1.986 0.437 1.066
1.426 0.894 1.242
1.104 0.336 1.067
12.450 5.909 1.088
11.962 6.268 1.213
11.452 6.653 1.427
10.932 6.965 1.567
10.402 7.334 1.744
9.889 7.751 1.873
9.332 8.123 1.983
8.810 8.525 2.230
8.327 8.824 2.339
7.762 9.221 2.546
12.027 5.328 0.936
11.523 5.768 1.166
11.096 6.081 1.277
10.585 6.502 1.515
10.031 6.833 1.663
9.460 7.186 1.795
8.889 7.545 1.997
8.481 7.934 2.167
7.967 8.372 2.262
7.360 8.693 2.427
12.153 4.445 0.652
11.652 4.868 0.886
11.229 5.220 1.053
10.704 5.578 1.164
9.046 6.737 1.723
8.614 7.071 1.812
8.062 7.464 2.041
7.476 7.785 2.208
7.029 8.134 2.393
12.396 3.637 0.505
11.839 4.016 0.596
11.310 4.304 0.784
10.728 4.742 0.981
8.180 6.559 1.758
7.627 6.965 1.976
7.087 7.232 2.194
6.613 7.705 2.254
12.446 2.655 0.185
11.903 3.098 0.325
11.391 3.390 0.563
10.914 3.815 0.752
7.303 6.414 1.868
6.757 6.714 2.080
6.225 7.163 2.173
11.548 2.605 0.258
11.077 2.867 0.417
10.575 3.348 0.560
6.808 5.886 1.783
6.370 6.226 1.969
5.804 6.572 2.145
12.227 2.031 0.681
11.685 2.461 0.960
11.087 2.720 1.039
10.652 3.185 1.192
6.967 5.684 2.405
6.381 6.065 2.562
5.843 6.414 2.712
11.771 1.482 0.638
11.292 1.836 0.820
10.762 2.265 1.039
10.190 2.567 1.118
9.616 3.000 1.279
7.021 4.877 2.186
6.555 5.248 2.315
5.964 5.564 2.522
5.483 5.936 2.707
11.842 0.625 0.458
11.370 0.949 0.549
10.889 1.381 0.791
10.378 1.658 0.942
9.838 2.106 1.145
9.252 2.437 1.312
8.774 2.844 1.390
7.169 3.893 1.913
6.628 4.252 2.046
6.150 4.710 2.299
5.661 5.080 2.471
5.038 5.375 2.549
11.486 0.092 0.335
10.934 0.520 0.427
10.465 0.811 0.620
9.927 1.219 0.815
9.433 1.552 0.928
8.827 1.874 1.141
8.424 2.313 1.347
7.911 2.658 1.440
7.370 3.043 1.669
6.835 3.340 1.768
6.230 3.785 2.039
5.715 4.135 2.136
5.202 4.517 2.300
4.735 4.896 2.453
10.087 0.270 0.552
9.477 0.651 0.776
9.068 1.061 0.897
8.512 1.363 1.022
8.019 1.769 1.291
7.402 2.112 1.347
6.926 2.488 1.568
6.411 2.832 1.817
5.856 3.297 1.986
5.366 3.579 2.105
4.850 4.044 2.259
4.263 4.301 2.402
9.214 0.144 0.628
8.592 0.461 0.812
8.049 0.905 1.027
7.520 1.198 1.130
7.111 1.622 1.329
6.568 1.929 1.524
5.939 2.293 1.649
5.534 2.687 1.779
4.986 3.039 2.063
4.496 3.457 2.211
3.968 3.867 2.335
7.758 0.376 0.903
7.193 0.692 1.033
6.624 1.069 1.299
6.185 1.503 1.473
5.650 1.824 1.576
5.106 2.160 1.688
4.586 2.621 1.981
4.057 2.889 2.025
3.499 3.292 2.252
6.814 0.268 1.008
5.261 1.279 1.505
4.669 1.700 1.730
4.204 2.031 1.857
3.628 2.438 1.961
3.185 2.706 2.189
4.297 1.159 1.612
3.792 1.454 1.725
3.193 1.885 1.877
2.671 2.252 2.105
3.439 0.953 1.727
2.820 1.326 1.885
2.282 1.691 2.058
2.919 0.464 1.629
2.401 0.820 1.688
1.950 1.204 1.971
2.046 0.366 1.648
1.578 0.670 1.861
1.092 0.088 1.799
12.023 6.125 1.885
11.492 6.521 1.967
10.955 6.810 2.116
10.482 7.226 2.280
10.005 7.573 2.521
9.439 8.003 2.646
8.849 8.263 2.825
8.394 8.642 2.957
7.807 9.049 3.209
12.244 5.193 1.536
11.655 5.636 1.737
11.181 5.917 1.977
10.663 6.339 2.101
10.083 6.639 2.262
9.578 7.058 2.466
9.065 7.399 2.598
8.478 7.809 2.740
7.994 8.163 2.948
7.494 8.508 3.158
12.302 4.387 1.338
11.754 4.657 1.559
11.279 5.134 1.683
10.771 5.473 1.796
10.239 5.774 2.049
9.733 6.154 2.156
9.193 6.559 2.392
8.655 6.869 2.575
8.150 7.303 2.652
7.570 7.668 2.899
7.076 7.983 3.007
12.413 3.382 1.124
11.969 3.811 1.287
11.345 4.211 1.415
10.907 4.522 1.558
10.384 4.861 1.776
8.708 6.011 2.190
8.274 6.372 2.489
7.660 6.686 2.598
7.243 7.183 2.803
6.679 7.500 2.946
12.589 2.552 0.863
12.064 2.977 0.970
11.566 3.306 1.129
10.949 3.701 1.378
10.511 4.029 1.444
7.797 5.816 2.315
7.320 6.266 2.533
6.857 6.575 2.612
6.279 7.001 2.789
12.135 1.991 0.792
11.659 2.446 0.895
11.079 2.699 1.038
10.552 3.126 1.309
6.920 5.692 2.490
6.461 6.013 2.556
5.923 6.413 2.774
12.221 1.931 1.406
11.731 2.245 1.588
11.245 2.547 1.761
10.709 2.923 1.812
6.990 5.575 3.009
6.480 5.853 3.249
5.931 6.300 3.344
11.804 1.353 1.236
11.364 1.660 1.491
10.769 2.092 1.610
10.291 2.407 1.749
9.726 2.821 1.951
7.210 4.641 2.768
6.662 5.047 2.983
6.100 5.363 3.154
5.601 5.728 3.258
11.977 0.515 1.038
11.496 0.850 1.146
10.997 1.115 1.317
10.359 1.551 1.577
9.943 1.881 1.735
9.393 2.272 1.903
6.727 4.098 2.697
6.169 4.422 2.864
5.642 4.922 3.078
5.184 5.189 3.273
11.044 0.300 1.151
10.532 0.702 1.244
10.071 0.967 1.474
9.543 1.380 1.666
9.013 1.712 1.745
8.410 2.062 1.979
7.884 2.520 2.164
7.419 2.828 2.357
6.917 3.255 2.520
6.404 3.589 2.572
5.797 3.971 2.796
5.268 4.299 3.030
4.843 4.748 3.187
10.126 0.173 1.180
9.643 0.564 1.411
9.093 0.915 1.534
8.559 1.221 1.778
8.051 1.578 1.866
7.561 1.964 2.028
6.971 2.344 2.276
6.514 2.669 2.412
5.909 3.101 2.521
5.416 3.378 2.687
4.912 3.815 2.884
4.440 4.110 3.025
8.711 0.361 1.439
8.250 0.697 1.680
7.620 1.054 1.824
7.182 1.464 1.922
6.604 1.866 2.177
6.127 2.178 2.319
5.560 2.577 2.486
5.040 2.954 2.584
4.526 3.302 2.875
4.054 3.621 2.911
7.751 0.203 1.502
7.299 0.583 1.760
6.790 0.967 1.851
6.229 1.323 2.047
5.753 1.695 2.284
5.233 2.006 2.377
4.657 2.354 2.559
4.125 2.751 2.753
3.568 3.195 2.870
6.923 -0.027 1.579
5.302 1.187 2.139
4.840 1.483 2.284
4.286 1.813 2.474
3.745 2.244 2.606
3.206 2.615 2.870
4.329 1.003 2.218
3.880 1.371 2.392
3.296 1.707 2.559
2.851 2.092 2.770
3.440 0.849 2.232
2.959 1.164 2.515
2.372 1.612 2.660
3.133 0.298 2.240
2.581 0.676 2.348
1.968 1.087 2.585
2.186 0.195 2.357
1.622 0.542 2.527
12.099 5.887 2.450
11.664 6.254 2.699
11.104 6.742 2.775
10.502 7.111 2.928
10.038 7.386 3.114
9.468 7.726 3.364
9.035 8.158 3.493
8.449 8.585 3.689
8.007 8.926 3.755
12.316 5.021 2.267
11.751 5.478 2.402
11.269 5.746 2.597
10.705 6.145 2.680
10.133 6.467 2.885
9.696 6.963 3.100
9.084 7.231 3.245
8.605 7.579 3.392
8.133 8.038 3.583
7.542 8.365 3.774
12.360 4.158 1.983
11.910 4.543 2.070
11.393 4.886 2.255
10.839 5.331 2.533
10.313 5.694 2.634
9.790 5.969 2.866
9.296 6.339 2.955
8.662 6.796 3.132
8.266 7.169 3.362
7.662 7.434 3.454
7.225 7.884 3.688
12.529 3.264 1.656
11.942 3.679 1.860
11.461 3.988 2.014
10.940 4.333 2.269
8.365 6.277 3.057
7.748 6.626 3.297
7.285 6.989 3.435
6.805 7.342 3.533
12.121 2.714 1.565
11.622 3.179 1.757
11.142 3.434 1.936
10.606 3.856 2.071
7.908 5.631 2.941
7.448 6.116 3.110
6.860 6.373 3.267
6.428 6.854 3.470
12.261 1.881 1.410
11.760 2.292 1.585
11.207 2.635 1.735
10.663 2.920 1.813
7.033 5.545 3.049
6.532 5.924 3.174
5.930 6.298 3.332
11.869 2.057 2.200
11.336 2.481 2.346
6.562 5.710 3.930
6.050 6.092 3.998
11.417 1.579 2.128
10.959 1.919 2.323
10.309 2.233 2.435
6.664 4.812 3.544
6.242 5.186 3.817
5.659 5.573 3.978
11.526 0.649 1.792
11.020 1.046 2.020
10.494 1.391 2.121
10.030 1.786 2.342
9.515 2.084 2.494
6.781 3.921 3.376
6.368 4.268 3.533
5.825 4.693 3.660
5.309 5.031 3.908
11.173 0.123 1.690
10.602 0.425 1.866
10.050 0.918 2.041
9.644 1.247 2.222
9.007 1.621 2.364
8.515 1.989 2.613
7.033 3.115 3.105
6.443 3.424 3.266
5.868 3.782 3.420
5.356 4.134 3.542
4.927 4.529 3.794
9.682 0.276 2.014
9.248 0.693 2.122
8.716 1.065 2.332
8.132 1.378 2.453
7.620 1.783 2.629
7.049 2.220 2.895
6.634 2.480 3.067
6.083 2.910 3.186
5.558 3.270 3.329
4.995 3.590 3.512
4.506 4.014 3.683
8.826 0.218 2.122
8.327 0.600 2.246
7.788 0.857 2.475
7.283 1.322 2.530
6.646 1.694 2.792
6.187 2.017 2.981
5.708 2.435 3.058
5.137 2.786 3.338
4.544 3.142 3.444
4.072 3.503 3.557
7.812 0.077 2.221
7.289 0.349 2.399
5.840 1.497 2.813
5.297 1.893 3.069
4.791 2.179 3.194
4.163 2.635 3.316
3.736 2.941 3.507
4.866 1.363 2.950
4.311 1.681 3.117
3.792 2.122 3.293
3.356 2.372 3.444
3.918 1.237 3.047
3.464 1.503 3.187
2.932 1.846 3.422
2.970 1.030 3.046
2.487 1.448 3.265
2.637 0.467 3.045
2.154 0.830 3.194
1.667 0.316 3.109
12.283 5.720 3.150
11.635 6.111 3.261
11.221 6.500 3.376
10.623 6.941 3.567
10.075 7.253 3.831
9.668 7.642 3.934
9.037 7.964 4.054
8.499 8.365 4.279
8.084 8.741 4.459
12.360 4.879 2.907
11.868 5.284 2.988
11.339 5.588 3.176
10.806 5.975 3.383
10.325 6.392 3.524
9.781 6.698 3.628
9.158 7.062 3.878
8.707 7.418 3.986
8.107 7.797 4.190
7.574 8.194 4.348
12.424 3.966 2.610
12.018 4.319 2.807
11.398 4.756 2.895
10.931 5.075 3.126
9.384 6.252 3.620
8.866 6.602 3.766
8.353 7.004 4.014
7.737 7.302 4.144
7.312 7.613 4.300
12.109 3.448 2.447
11.540 3.895 2.669
10.987 4.172 2.798
8.483 6.047 3.713
7.894 6.409 3.830
7.438 6.735 3.978
6.809 7.168 4.259
12.225 2.650 2.304
11.733 2.970 2.490
11.233 3.273 2.640
7.474 5.897 3.819
6.961 6.201 3.926
6.488 6.650 4.132
11.793 2.125 2.204
11.321 2.448 2.340
6.638 5.715 3.892
5.997 6.158 4.094
11.075 0.910 2.680
10.530 1.151 2.772
10.074 1.618 2.944
6.383 4.127 4.149
5.947 4.490 4.353
5.389 4.879 4.502
10.735 0.292 2.534
10.149 0.633 2.684
9.669 1.001 2.881
9.110 1.439 3.071
6.516 3.259 3.950
5.943 3.679 4.007
5.472 4.022 4.311
4.948 4.318 4.419
9.843 0.219 2.656
9.339 0.596 2.807
8.823 0.883 2.964
6.125 2.742 3.834
5.626 3.042 3.944
5.140 3.440 4.208
4.625 3.776 4.274
8.919 -0.042 2.749
8.381 0.438 2.833
7.792 0.694 3.000
6.263 1.862 3.573
5.801 2.264 3.740
5.177 2.643 3.843
4.628 3.002 4.031
4.237 3.321 4.240
5.290 1.681 3.607
4.772 2.039 3.813
4.266 2.418 4.045
3.735 2.803 4.170
4.497 1.566 3.689
3.892 1.861 3.918
3.350 2.242 4.137
3.523 1.427 3.800
12.312 5.589 3.682
11.815 5.940 3.842
10.170 7.020 4.416
9.744 7.512 4.645
9.119 7.757 4.747
8.592 8.228 4.892
8.183 8.610 5.138
12.440 4.674 3.527
11.948 5.126 3.653
9.234 6.887 4.515
8.816 7.298 4.711
8.273 7.685 4.783
7.751 7.983 5.025
12.542 3.798 3.194
12.045 4.195 3.462
11.485 4.572 3.598
8.935 6.355 4.454
8.342 6.805 4.572
7.876 7.132 4.810
7.301 7.506 4.913
12.185 3.336 3.213
11.611 3.711 3.328
7.971 6.267 4.434
7.393 6.670 4.712
6.915 7.027 4.900
10.770 0.201 3.248
10.303 0.529 3.370
9.804 0.905 3.543
6.112 3.439 4.677
5.599 3.839 4.901
5.083 4.148 5.043
9.860 0.060 3.263
9.323 0.383 3.387
8.802 0.784 3.580
6.220 2.536 4.429
5.633 2.894 4.560
5.189 3.362 4.772
4.622 3.698 4.951
8.391 0.204 3.509
5.783 2.094 4.398
5.250 2.473 4.522
4.782 2.845 4.644
4.271 3.173 4.907
4.958 1.878 4.458
4.323 2.287 4.585
3.871 2.600 4.775
4.061 1.715 4.585
3.518 2.072 4.671
12.353 5.396 4.343
9.776 7.257 5.231
9.190 7.600 5.360
8.773 8.066 5.539
8.237 8.365 5.725
12.563 4.534 4.118
11.985 4.977 4.291
9.449 6.755 5.092
8.824 7.137 5.331
8.294 7.458 5.535
7.875 7.925 5.681
12.066 3.985 3.980
8.440 6.605 5.168
7.924 7.004 5.416
7.464 7.289 5.502
10.355 0.379 4.060
5.709 3.679 5.474
5.099 4.071 5.699
9.466 0.228 4.027
5.802 2.714 5.301
5.317 3.153 5.397
4.700 3.551 5.607
5.344 2.199 5.193
4.921 2.568 5.391
4.359 2.945 5.451
5.043 1.757 5.069
4.542 2.045 5.262
3.908 2.465 5.362
9.320 7.490 6.003
8.850 7.878 6.195
8.246 8.282 6.347
8.960 6.946 5.998
8.450 7.385 6.047
7.942 7.759 6.266
8.061 6.756 5.962
7.490 7.131 6.166
0.981 6.977 7.084
0.365 7.385 7.159
1.041 6.138 6.825
0.505 6.423 6.938
0.036 6.798 7.058
4.193 3.865 5.721
0.720 5.599 6.718
0.202 5.873 6.912
3.828 3.353 5.639
4.643 10.761 7.539
4.081 11.192 7.716
3.572 11.588 7.868
3.048 11.916 8.020
7.821 8.520 6.490
4.209 10.216 7.491
3.706 10.687 7.669
3.175 10.949 7.855
2.600 11.416 7.942
7.412 8.046 6.375
3.375 10.078 7.594
2.849 10.527 7.666
0.977 6.812 7.718
0.549 7.133 7.830
1.169 5.968 7.368
0.671 6.300 7.599
0.130 6.643 7.680
4.289 3.738 6.413
0.757 5.394 7.352
0.285 5.800 7.482
3.852 3.187 6.344
0.320 4.877 7.175
3.510 2.711 6.279
4.761 10.584 8.224
4.203 11.015 8.381
3.721 11.328 8.508
3.135 11.749 8.705
2.671 12.036 8.801
7.839 8.457 7.162
4.259 10.040 8.111
3.750 10.406 8.320
3.319 10.856 8.357
2.796 11.202 8.657
2.177 11.622 8.819
7.400 7.832 7.017
3.343 9.995 8.236
2.827 10.244 8.368
2.298 10.633 8.457
1.560 7.129 8.316
0.978 7.583 8.574
0.525 7.959 8.721
1.646 6.228 8.189
1.087 6.606 8.248
0.620 7.016 8.479
0.129 7.377 8.695
4.827 4.021 7.116
1.810 5.379 7.923
1.210 5.799 8.051
0.699 6.068 8.164
0.230 6.510 8.368
4.367 3.513 7.060
3.838 3.842 7.225
1.336 4.875 7.766
0.865 5.196 7.897
0.273 5.543 8.166
3.975 3.046 6.920
3.531 3.330 7.063
1.018 4.358 7.716
0.452 4.644 7.924
3.543 2.502 6.904
3.094 2.839 7.059
0.132 4.131 7.809
3.152 1.937 6.719
5.363 10.023 8.649
4.738 10.477 8.775
4.300 10.789 8.907
3.769 11.225 9.160
3.180 11.615 9.310
2.754 11.912 9.464
2.175 12.246 9.695
7.902 8.240 7.825
7.434 8.621 7.957
4.947 9.551 8.580
4.393 9.999 8.735
3.899 10.280 8.843
3.294 10.610 9.026
2.778 11.032 9.285
2.250 11.415 9.425
7.572 7.793 7.649
7.006 8.106 7.814
3.976 9.372 8.631
3.452 9.822 8.756
2.908 10.147 9.019
2.417 10.504 9.160
1.980 10.822 9.253
7.157 7.212 7.639
3.093 9.313 8.751
2.552 9.558 8.925
1.995 10.002 8.998
2.331 7.971 9.238
1.854 8.358 9.313
1.975 7.470 9.110
1.489 7.876 9.235
1.003 8.285 9.441
2.175 6.557 8.865
1.613 6.979 8.987
1.113 7.304 9.167
0.596 7.749 9.389
0.068 8.036 9.561
5.238 4.444 7.813
2.296 5.684 8.607
1.679 6.136 8.803
1.274 6.462 8.926
0.731 6.884 9.056
0.127 7.167 9.307
4.834 3.934 7.722
4.287 4.280 7.855
2.972 4.423 8.137
2.413 4.820 8.306
1.869 5.181 8.500
1.288 5.548 8.637
0.788 5.894 8.899
0.335 6.332 9.002
4.516 3.359 7.691
3.910 3.805 7.877
3.440 4.170 7.947
2.913 4.500 8.173
2.572 3.884 8.050
2.000 4.347 8.306
1.446 4.727 8.433
0.972 5.068 8.570
0.386 5.356 8.807
4.069 2.832 7.646
3.626 3.204 7.699
3.042 3.619 7.852
2.468 4.007 8.118
1.581 3.736 8.159
1.081 4.165 8.352
0.579 4.520 8.444
0.018 4.909 8.704
3.646 2.339 7.557
3.193 2.670 7.620
2.581 3.071 7.861
0.698 3.637 8.196
0.173 4.028 8.482
3.305 1.753 7.360
2.836 2.128 7.619
2.851 1.258 7.350
6.441 9.240 8.946
5.955 9.515 9.078
5.355 9.902 9.270
4.869 10.328 9.454
4.376 10.620 9.579
3.837 11.086 9.806
3.293 11.382 10.001
2.766 11.772 10.052
2.289 12.165 10.296
1.808 12.551 10.429
8.016 8.074 8.430
7.535 8.458 8.650
7.024 8.782 8.723
6.465 9.207 8.910
6.099 8.698 8.882
5.597 8.980 9.015
4.958 9.452 9.133
4.520 9.712 9.338
3.967 10.139 9.540
3.409 10.504 9.706
2.883 10.889 9.868
2.362 11.204 9.999
1.850 11.564 10.158
1.324 11.913 10.301
0.838 12.373 10.468
7.580 7.630 8.404
7.145 7.940 8.496
6.632 8.229 8.738
6.017 8.696 8.819
4.593 8.809 9.166
4.103 9.252 9.243
3.522 9.669 9.412
3.006 9.980 9.561
2.573 10.373 9.710
1.940 10.665 9.961
1.442 11.089 10.044
7.216 7.094 8.303
6.674 7.428 8.403
3.729 8.656 9.243
3.129 9.060 9.390
2.619 9.509 9.562
2.122 9.782 9.705
1.550 10.197 9.874
6.899 6.561 8.212
2.763 8.598 9.312
2.263 8.964 9.467
1.676 9.330 9.659
2.342 8.049 9.126
1.855 8.465 9.309
3.029 7.553 9.656
2.495 7.920 9.864
1.888 8.183 9.944
1.449 8.537 10.106
6.123 5.302 8.576
2.601 6.958 9.594
2.074 7.279 9.708
1.522 7.697 9.940
1.031 8.098 10.035
0.554 8.505 10.253
5.687 4.713 8.486
2.696 6.074 9.287
2.162 6.504 9.420
1.629 6.825 9.654
1.220 7.251 9.829
0.606 7.573 10.042
0.159 7.923 10.093
5.387 4.268 8.452
4.783 4.643 8.605
3.333 4.802 8.822
2.931 5.254 9.010
2.354 5.496 9.170
1.778 5.932 9.347
1.258 6.296 9.583
0.744 6.615 9.775
0.202 7.061 9.922
4.994 3.766 8.451
4.374 4.037 8.570
3.871 4.417 8.779
3.350 4.879 8.840
3.015 4.367 8.861
2.446 4.724 9.021
1.925 5.040 9.122
1.426 5.383 9.274
0.887 5.760 9.499
0.438 6.120 9.677
4.527 3.241 8.316
4.000 3.512 8.412
3.494 3.930 8.666
2.993 4.284 8.831
2.600 3.721 8.674
2.082 4.147 8.909
1.578 4.538 9.005
1.092 4.861 9.261
0.525 5.280 9.329
4.106 2.621 8.245
3.644 2.984 8.438
3.058 3.456 8.577
2.603 3.843 8.766
2.186 3.220 8.643
1.687 3.630 8.787
1.111 3.933 9.028
0.599 4.317 9.154
0.069 4.772 9.248
3.794 2.149 8.091
3.186 2.518 8.255
2.699 2.834 8.428
2.257 3.257 8.624
1.324 3.137 8.709
0.763 3.480 8.850
0.254 3.784 9.125
3.314 1.565 8.009
2.919 1.970 8.176
2.292 2.379 8.431
2.967 1.053 7.893
2.554 0.544 7.895
2.240 0.124 7.726
6.596 9.040 9.558
6.082 9.362 9.709
5.477 9.739 9.925
4.943 10.141 10.113
4.405 10.519 10.241
3.953 10.837 10.440
3.415 11.212 10.567
2.872 11.639 10.752
2.370 11.972 10.873
1.812 12.305 11.075
8.056 7.979 9.105
7.635 8.259 9.188
7.111 8.617 9.366
6.565 9.011 9.565
6.154 8.514 9.439
5.564 8.912 9.655
5.058 9.267 9.786
4.538 9.640 9.968
4.003 9.995 10.191
3.516 10.282 10.263
2.975 10.695 10.507
2.510 11.083 10.600
1.944 11.453 10.824
1.406 11.775 10.956
0.893 12.152 11.163
0.344 12.550 11.338
7.784 7.433 8.962
7.197 7.819 9.162
6.733 8.111 9.366
6.112 8.492 9.448
5.721 7.908 9.360
5.226 8.383 9.583
4.652 8.702 9.752
4.162 9.028 9.843
3.649 9.440 10.090
3.131 9.826 10.301
2.581 10.233 10.396
2.057 10.561 10.642
1.593 10.922 10.751
0.991 11.321 10.897
0.468 11.584 11.030
7.374 6.816 8.859
6.772 7.174 8.999
6.339 7.621 9.221
5.772 7.987 9.390
4.266 8.231 9.595
3.733 8.582 9.823
3.281 8.913 10.012
2.751 9.331 10.094
2.201 9.605 10.335
1.648 9.972 10.527
6.967 6.280 8.760
6.476 6.670 8.909
3.464 7.982 9.718
2.857 8.351 9.866
2.310 8.765 10.034
1.886 9.100 10.256
1.347 9.460 10.416
6.477 5.793 8.704
3.019 7.542 9.599
2.493 7.904 9.822
1.952 8.232 9.935
1.369 8.573 10.115
6.161 5.334 8.636
3.156 7.353 10.345
2.603 7.635 10.390
2.092 8.136 10.558
1.493 8.434 10.761
6.209 5.172 9.278
2.761 6.808 10.240
2.116 7.139 10.353
1.610 7.481 10.571
1.070 7.955 10.661
0.576 8.253 10.819
5.869 4.561 9.163
2.839 5.887 9.888
2.333 6.297 10.096
1.832 6.705 10.236
1.273 7.044 10.479
0.682 7.381 10.666
0.241 7.765 10.852
5.431 4.047 9.110
4.908 4.423 9.210
3.452 4.634 9.473
2.898 4.965 9.640
2.379 5.389 9.905
1.854 5.758 10.076
1.330 6.081 10.206
0.914 6.500 10.358
0.315 6.915 10.507
5.065 3.613 9.060
4.533 3.894 9.135
3.969 4.265 9.413
3.421 4.719 9.509
3.063 4.098 9.485
2.610 4.476 9.603
2.020 4.929 9.717
1.558 5.248 9.988
0.984 5.659 10.118
0.504 5.934 10.265
4.711 2.987 8.970
4.110 3.461 9.058
3.605 3.705 9.226
3.064 4.178 9.441
2.752 3.557 9.309
2.205 4.021 9.456
1.598 4.321 9.697
1.121 4.705 9.852
0.567 5.061 9.979
0.088 5.445 10.142
4.286 2.551 8.912
3.717 2.837 9.049
3.252 3.312 9.249
2.662 3.604 9.321
2.283 3.098 9.228
1.795 3.517 9.444
1.304 3.769 9.633
0.727 4.226 9.746
0.222 4.621 9.988
3.817 1.960 8.795
3.332 2.308 8.957
2.873 2.655 9.150
2.342 3.090 9.246
1.353 2.943 9.353
0.866 3.355 9.539
0.292 3.725 9.655
3.433 1.493 8.674
2.881 1.785 8.862
2.365 2.157 9.050
0.506 2.764 9.407
3.055 0.964 8.634
2.479 1.296 8.748
2.619 0.366 8.538
6.593 8.834 10.182
6.123 9.287 10.358
5.600 9.586 10.592
5.037 9.892 10.756
4.580 10.363 10.897
4.000 10.657 11.094
3.533 11.124 11.246
2.904 11.380 11.351
2.389 11.829 11.578
1.969 12.128 11.771
1.416 12.521 11.824
8.211 7.735 9.729
7.665 8.163 9.835
7.149 8.473 9.995
6.614 8.837 10.161
6.217 8.282 10.084
5.675 8.737 10.335
5.194 9.052 10.456
4.681 9.498 10.591
4.144 9.746 10.766
3.619 10.186 10.994
3.135 10.516 11.121
2.633 10.960 11.339
2.080 11.305 11.435
1.516 11.622 11.666
1.054 11.945 11.851
0.476 12.355 11.962
7.785 7.223 9.596
7.298 7.542 9.812
6.824 7.999 9.986
6.229 8.366 10.058
5.818 7.826 10.023
5.283 8.219 10.224
4.764 8.472 10.409
4.215 8.934 10.599
3.712 9.322 10.730
3.221 9.633 10.909
2.716 10.027 11.097
2.219 10.345 11.266
1.654 10.756 11.328
1.108 11.053 11.522
0.566 11.491 11.685
0.150 11.825 11.850
7.391 6.685 9.528
6.824 7.099 9.696
6.317 7.450 9.910
5.866 7.785 10.099
4.457 8.028 10.273
3.898 8.343 10.461
3.401 8.702 10.587
2.824 9.125 10.808
2.355 9.432 10.890
1.819 9.801 11.127
1.290 10.275 11.234
7.061 6.121 9.499
6.434 6.495 9.553
3.443 7.875 10.322
2.990 8.168 10.554
2.486 8.553 10.672
1.851 9.021 10.930
1.400 9.266 11.087
6.561 5.668 9.352
3.106 7.359 10.332
2.593 7.681 10.389
2.085 8.061 10.636
1.461 8.504 10.746
6.184 5.078 9.245
2.624 7.467 11.104
2.175 7.871 11.245
1.602 8.249 11.385
2.829 6.674 10.883
2.203 7.061 10.953
1.671 7.323 11.205
1.278 7.678 11.383
5.965 4.442 9.860
2.895 5.721 10.599
2.451 6.183 10.727
1.896 6.492 10.927
1.343 6.835 11.058
0.851 7.253 11.314
0.312 7.589 11.467
5.492 3.921 9.768
4.955 4.319 9.943
3.085 4.858 10.340
2.559 5.172 10.450
1.957 5.557 10.671
1.494 6.024 10.790
0.991 6.397 10.987
0.418 6.715 11.174
5.109 3.373 9.718
4.544 3.747 9.834
4.042 4.162 9.957
3.202 3.953 10.083
2.692 4.390 10.232
2.091 4.710 10.388
1.557 5.055 10.591
1.065 5.415 10.702
0.490 5.772 10.856
0.088 6.158 11.050
4.713 2.865 9.571
4.261 3.176 9.794
3.651 3.652 9.920
3.206 4.021 10.067
2.711 3.397 10.041
2.262 3.777 10.207
1.792 4.186 10.366
1.265 4.545 10.524
0.658 4.938 10.689
0.214 5.299 10.873
4.400 2.409 9.430
3.829 2.756 9.690
3.334 3.077 9.810
2.710 3.427 9.955
2.418 2.938 9.846
1.859 3.350 10.031
1.310 3.625 10.184
0.770 4.041 10.447
0.321 4.346 10.545
3.975 1.879 9.366
3.405 2.130 9.534
2.873 2.592 9.703
2.334 2.968 9.903
0.876 3.066 10.155
0.413 3.491 10.383
3.605 1.327 9.299
3.053 1.692 9.419
-0.030 3.013 10.183
3.197 0.709 9.256
6.731 8.719 10.897
6.163 9.045 10.942
5.609 9.422 11.229
5.151 9.810 11.355
4.644 10.210 11.494
4.097 10.589 11.683
3.514 10.835 11.908
3.117 11.225 12.021
2.573 11.673 12.183
2.025 11.932 12.380
1.514 12.405 12.509
8.245 7.547 10.367
7.779 8.015 10.506
7.258 8.382 10.654
6.658 8.656 10.848
6.292 8.125 10.740
5.835 8.585 10.950
5.323 8.855 11.112
4.709 9.202 11.240
4.257 9.616 11.430
3.682 9.947 11.535
3.203 10.378 11.805
2.646 10.775 11.886
2.101 11.066 12.140
1.662 11.465 12.303
1.142 11.898 12.375
7.882 7.068 10.242
7.334 7.363 10.360
6.900 7.800 10.529
6.309 8.220 10.800
5.448 7.994 10.802
4.927 8.395 10.945
4.359 8.799 11.138
3.771 9.048 11.380
3.301 9.490 11.545
2.849 9.858 11.715
2.259 10.237 11.863
1.746 10.588 11.981
0.193 11.700 12.518
7.542 6.490 10.126
6.952 6.879 10.389
6.498 7.336 10.528
4.467 7.786 10.929
3.914 8.279 11.126
3.500 8.604 11.231
2.894 8.906 11.373
2.393 9.363 11.602
1.882 9.648 11.758
7.160 5.973 10.062
6.518 6.357 10.194
3.627 7.626 11.032
2.997 8.125 11.194
2.552 8.492 11.295
1.943 8.861 11.479
6.687 5.488 10.014
2.641 7.542 11.046
2.161 7.907 11.212
1.628 8.315 11.442
2.353 6.815 11.652
1.823 7.203 11.834
2.466 6.008 11.341
1.987 6.283 11.485
1.488 6.669 11.718
0.887 7.078 11.859
5.581 3.683 10.413
2.593 5.021 11.140
2.085 5.409 11.364
1.487 5.747 11.446
1.084 6.109 11.569
0.506 6.501 11.825
5.230 3.178 10.270
4.716 3.596 10.440
2.661 4.161 10.940
2.268 4.470 11.015
1.724 4.850 11.212
1.183 5.269 11.364
0.679 5.641 11.605
0.116 6.037 11.772
4.794 2.766 10.226
4.246 3.130 10.304
3.815 3.395 10.499
2.380 3.637 10.822
1.751 4.021 10.907
1.259 4.334 11.064
0.742 4.695 11.241
0.268 5.136 11.524
4.454 2.198 10.102
3.943 2.507 10.219
3.436 2.914 10.469
1.354 3.516 10.887
0.879 3.829 11.043
0.403 4.202 11.235
3.978 1.683 9.990
3.566 1.988 10.245
0.486 3.362 10.981
3.612 1.146 9.912
6.238 8.910 11.613
5.740 9.193 11.862
5.172 9.675 11.967
4.653 10.028 12.207
4.189 10.385 12.376
3.600 10.707 12.470
8.399 7.455 11.018
7.804 7.786 11.106
7.354 8.087 11.243
5.850 8.410 11.552
5.359 8.732 11.739
4.818 9.120 11.936
4.361 9.471 12.122
3.771 9.800 12.233
3.224 10.195 12.436
2.811 10.602 12.577
7.932 6.867 10.890
7.418 7.247 11.092
6.936 7.642 11.194
4.951 8.182 11.588
4.461 8.576 11.746
3.889 8.987 11.944
3.387 9.263 12.074
2.883 9.733 12.367
2.408 10.106 12.514
7.601 6.319 10.739
7.048 6.709 11.015
4.025 8.106 11.774
3.471 8.365 11.884
3.003 8.850 12.061
2.538 9.138 12.243
7.143 5.795 10.662
3.142 7.886 11.829
2.561 8.291 12.000
1.528 6.529 12.408
2.160 5.252 11.961
1.656 5.587 12.048
1.175 6.002 12.213
0.560 6.367 12.457
5.237 3.007 10.864
1.750 4.756 11.788
1.244 5.169 12.012
0.746 5.464 12.164
0.221 5.837 12.304
4.846 2.503 10.793
1.882 3.860 11.654
1.369 4.251 11.702
0.898 4.598 11.891
0.259 5.002 12.116
4.504 2.025 10.730
4.010 2.358 10.860
1.016 3.637 11.741
0.480 4.113 11.851
4.171 1.516 10.619
0.082 3.482 11.736
5.781 9.062 12.402
8.412 7.281 11.596
7.874 7.558 11.781
4.872 8.926 12.522
8.057 6.735 11.460
4.471 8.353 12.408
7.711 6.179 11.446
1.830 4.601 12.476
4.953 2.419 11.480
1.453 3.995 12.388
0.933 4.464 12.524
4.554 1.909 11.379
0.481 3.939 12.458
8.492 7.028 12.266
8.132 6.589 12.099
5.133 2.175 12.068
4.722 1.635 12.085
1.128 9.138 2.822
0.656 9.562 2.923
1.261 8.326 2.466
0.700 8.688 2.732
0.150 9.064 2.896
4.377 6.108 1.513
1.379 7.444 2.196
0.858 7.770 2.404
0.298 8.111 2.593
4.021 5.575 1.391
3.479 5.928 1.554
1.545 6.502 2.039
0.986 6.885 2.138
0.484 7.186 2.373
3.564 5.039 1.349
3.077 5.465 1.433
2.500 5.729 1.618
1.152 6.032 1.906
0.605 6.419 2.116
0.036 6.714 2.309
3.195 4.491 1.267
2.626 4.942 1.396
2.225 5.217 1.603
0.149 5.768 1.936
2.782 4.052 1.155
2.326 4.348 1.350
