8.090 4.879 5.312
8.467 4.569 5.659
8.623 3.805 5.543
8.708 3.414 5.618
8.809 2.757 5.634
8.881 2.278 5.412
6.613 11.203 4.990
6.907 10.712 4.922
6.833 9.797 4.811
6.819 9.346 5.108
7.028 8.773 5.010
7.377 8.363 5.181
7.439 7.897 4.836
7.317 7.256 4.873
8.040 4.924 5.233
8.145 4.206 5.154
8.121 3.969 5.156
8.137 3.088 5.013
8.340 2.788 4.974
8.467 2.229 4.997
6.431 10.493 4.499
6.306 9.908 4.550
6.545 9.154 4.615
6.685 8.807 4.486
6.946 8.273 4.491
7.132 7.624 4.581
7.743 4.487 4.508
7.959 3.937 4.706
7.767 3.194 4.708
7.946 2.685 4.539
8.380 2.067 4.538
6.180 9.690 3.810
6.326 9.237 3.820
6.603 8.572 4.138
6.562 8.287 4.034
7.504 3.823 3.993
7.584 3.157 4.302
7.933 2.636 3.992
7.750 2.001 4.176
5.937 9.265 3.535
6.145 8.498 3.803
7.187 2.924 3.541
7.481 2.458 3.621
5.915 9.065 2.363
5.828 8.361 2.290
6.999 2.909 2.355
7.413 2.484 2.540
5.483 9.180 1.862
5.466 8.527 1.906
6.782 3.026 2.037
6.700 2.564 1.973
4.950 9.472 1.481
5.259 8.840 1.523
5.193 8.518 1.464
5.165 7.973 1.388
6.435 3.393 1.476
6.612 2.773 1.367
6.355 2.385 1.573
6.576 1.727 1.683
4.686 9.843 0.832
4.663 9.583 0.935
4.782 8.784 0.920
4.990 8.171 0.871
4.884 7.932 0.911
5.123 7.080 0.964
6.074 3.886 1.020
6.139 3.358 1.222
6.228 2.600 1.172
6.111 2.142 0.949
6.332 1.548 1.174
4.194 10.283 0.398
4.422 9.984 0.348
4.359 9.390 0.262
4.532 8.629 0.515
4.464 8.115 0.520
4.736 7.685 0.462
4.907 6.983 0.362
4.835 6.799 0.471
5.356 4.332 0.523
5.360 3.855 0.775
5.528 3.361 0.501
5.577 2.784 0.530
5.798 2.034 0.622
5.932 1.751 0.591
4.037 8.852 -0.145
4.456 8.148 0.129
4.386 7.701 -0.101
4.635 7.260 -0.024
4.753 6.564 -0.048
4.670 5.828 -0.061
4.678 5.341 -0.030
4.912 5.030 0.282
5.244 4.194 0.241
5.345 3.542 0.273
5.331 3.122 0.210
5.437 2.735 0.216
5.764 2.043 0.006
5.492 1.399 -0.014
8.852 10.080 6.913
9.062 9.497 6.747
10.365 3.864 7.173
10.504 3.069 7.042
8.563 10.531 6.260
8.714 9.702 6.574
8.748 9.410 6.447
8.778 8.813 6.462
9.998 4.468 6.672
9.999 3.533 6.716
10.312 3.223 6.626
10.435 2.387 6.750
8.080 10.990 6.158
8.381 10.176 5.810
8.355 9.696 6.114
8.371 9.346 5.965
8.518 8.811 6.206
8.543 8.220 6.068
9.363 4.574 6.165
9.619 4.289 6.330
9.546 3.702 6.356
9.822 2.934 6.072
9.816 2.676 6.176
7.807 11.482 5.376
7.839 10.745 5.666
7.900 10.057 5.352
7.952 9.777 5.337
8.148 9.254 5.751
8.088 8.739 5.560
8.258 8.199 5.486
8.335 7.304 5.467
9.033 5.120 5.554
8.959 4.458 5.528
9.389 4.034 5.567
9.497 3.693 5.530
9.394 3.154 5.532
9.556 2.493 5.699
7.068 12.235 5.015
7.328 11.977 5.110
7.388 11.373 5.234
7.509 10.916 5.267
7.711 10.195 4.910
7.825 9.491 5.296
7.854 8.840 5.029
8.101 8.465 5.278
8.286 7.720 5.177
8.424 7.320 5.298
8.470 6.737 5.303
8.604 6.260 5.125
8.373 5.795 5.229
8.610 5.006 5.268
8.614 4.476 5.112
9.113 4.079 5.356
9.099 3.288 5.233
9.340 2.934 5.033
9.412 2.211 5.098
7.248 12.388 4.878
6.962 12.373 4.696
6.817 11.910 4.505
6.956 11.137 4.396
7.198 10.857 4.703
7.336 10.049 4.642
7.470 9.501 4.425
7.366 9.047 4.553
7.837 8.591 4.517
7.959 8.054 4.747
8.026 7.491 4.765
7.838 6.809 4.707
8.093 6.044 4.530
8.371 5.568 4.719
8.413 5.041 4.565
8.498 4.298 4.875
8.560 4.065 4.885
8.517 3.564 4.969
8.881 2.843 4.683
8.872 2.298 4.618
6.731 12.465 4.581
6.607 11.054 4.029
6.645 10.475 3.939
7.027 10.068 4.287
6.922 9.522 4.141
7.101 8.989 4.273
7.144 8.522 4.036
7.567 7.803 4.006
7.559 7.055 4.383
7.827 4.876 4.140
8.174 4.257 4.060
8.394 3.832 4.176
8.218 3.483 4.435
8.333 2.783 4.314
8.568 2.278 4.361
6.424 10.327 3.847
6.672 9.835 3.688
6.889 9.329 3.860
7.000 8.705 3.637
6.984 8.037 3.610
7.263 7.875 3.848
7.827 4.300 3.624
8.056 3.932 3.902
8.003 3.281 3.882
8.043 2.709 3.956
8.279 2.196 4.046
6.240 9.989 3.404
6.277 9.160 3.135
6.611 8.592 3.414
6.571 7.989 3.210
7.766 3.636 3.502
7.618 3.020 3.407
7.734 2.486 3.330
7.970 2.084 3.186
5.940 9.133 2.570
6.249 8.658 2.834
7.555 2.886 2.697
7.696 2.680 3.085
5.914 9.282 2.337
5.848 8.596 2.256
7.185 3.204 2.312
7.208 2.288 2.498
6.118 9.854 1.962
6.114 9.085 2.048
6.188 8.622 2.058
6.449 8.061 1.861
7.613 3.449 2.206
7.343 3.142 2.331
7.498 2.338 2.161
7.615 1.966 2.003
5.926 9.656 1.614
6.003 9.144 1.410
6.063 8.571 1.716
6.256 8.190 1.508
7.031 3.429 1.576
7.055 2.833 1.713
7.367 2.460 1.583
7.399 2.010 1.699
5.183 10.026 0.873
5.248 9.786 0.871
5.405 9.282 0.886
5.775 8.444 1.020
5.650 7.950 1.235
5.734 7.255 1.298
6.698 4.048 1.062
6.717 3.581 1.142
7.004 2.811 1.121
6.977 2.573 1.252
7.012 1.786 1.243
5.103 10.826 0.400
5.165 10.248 0.496
5.086 9.681 0.390
5.468 9.084 0.506
5.519 8.320 0.641
5.696 7.670 0.807
5.612 7.351 0.465
5.771 6.564 0.430
6.031 4.653 0.548
6.194 3.980 0.520
6.502 3.188 0.551
6.688 2.623 0.786
6.503 2.162 0.857
6.924 1.742 0.934
4.509 11.757 -0.119
4.458 11.331 -0.067
4.565 10.786 0.142
4.541 9.825 0.318
4.695 9.426 0.192
5.138 9.010 0.269
5.137 8.346 0.185
5.226 7.728 -0.022
5.445 7.310 0.067
5.578 6.827 0.236
5.534 5.985 0.332
5.638 5.364 0.321
5.923 4.875 0.279
5.699 4.501 0.078
6.027 3.698 0.113
6.104 3.385 0.214
6.055 2.962 0.106
6.317 2.317 0.402
6.419 1.718 0.489
4.108 12.260 -0.119
4.208 11.856 0.033
9.202 10.592 6.685
9.632 10.072 6.489
9.421 9.595 6.641
9.667 8.895 6.695
10.691 4.306 6.594
10.727 3.876 6.815
10.999 3.269 6.750
11.190 2.833 6.803
9.142 10.880 6.316
8.996 10.441 6.325
9.198 9.824 6.108
9.155 9.433 5.945
9.527 8.910 6.178
9.673 8.121 6.109
10.046 4.715 6.129
10.532 4.435 6.411
10.356 3.631 6.301
10.463 3.380 6.473
10.658 2.529 6.355
8.637 11.361 5.473
8.410 11.080 5.787
8.901 10.338 5.651
9.035 9.972 5.799
8.854 9.150 5.774
9.108 8.625 5.674
9.019 8.213 5.861
9.131 7.827 5.636
9.580 5.288 5.807
10.079 4.642 6.001
9.998 4.211 5.797
9.970 3.705 5.713
10.052 3.135 5.930
10.390 2.653 5.794
7.717 12.725 4.997
7.862 12.156 5.292
8.004 11.613 5.332
8.070 10.742 5.039
8.499 10.434 5.414
8.686 9.671 5.256
8.731 9.410 5.040
8.603 8.504 5.143
8.954 8.057 5.253
9.070 7.367 5.436
9.227 6.860 5.161
9.291 6.414 5.113
9.429 5.886 5.113
9.389 5.236 5.478
9.479 4.601 5.329
9.530 4.320 5.498
9.620 3.552 5.356
10.149 3.021 5.532
10.240 2.435 5.369
7.982 12.745 4.977
7.492 12.613 4.716
7.583 11.808 4.642
7.896 11.513 4.914
8.128 10.766 4.927
8.249 10.293 4.725
8.195 9.849 4.945
8.370 9.236 4.905
8.240 8.715 4.708
8.637 8.108 4.897
8.717 7.405 4.902
8.807 6.965 4.762
8.704 6.486 5.032
8.819 5.651 4.736
9.274 5.254 4.812
9.314 4.852 5.046
9.260 3.995 4.903
9.436 3.561 5.033
9.411 2.911 5.037
9.798 2.356 4.925
7.495 12.384 4.556
7.404 12.250 4.125
7.370 11.923 4.459
7.506 11.275 4.467
7.714 10.665 4.416
7.699 10.338 4.129
7.777 9.701 4.403
7.813 9.191 4.324
7.940 8.286 4.385
8.139 8.141 4.329
8.370 7.167 4.318
8.613 6.781 4.563
8.488 6.103 4.570
8.824 5.676 4.472
8.825 5.345 4.201
8.863 4.415 4.214
8.882 4.098 4.442
9.287 3.570 4.417
9.353 3.054 4.222
9.361 2.478 4.547
7.395 12.524 4.330
7.143 12.520 3.725
6.854 11.661 3.790
7.056 11.125 3.877
7.253 10.765 3.954
7.338 10.198 3.839
7.321 9.753 3.743
7.715 9.089 3.943
7.730 8.337 3.756
7.738 7.717 3.681
7.825 7.299 3.686
8.008 6.607 4.088
8.367 5.993 3.823
8.457 5.530 3.827
8.669 4.993 4.041
8.636 4.388 3.806
8.909 4.064 3.883
8.804 3.196 3.862
8.968 2.707 3.923
9.026 2.422 4.191
6.909 12.441 3.558
6.760 10.980 3.277
7.177 10.790 3.426
7.102 9.868 3.520
7.065 9.396 3.505
7.232 8.859 3.582
7.606 8.409 3.353
7.604 7.951 3.319
7.690 7.143 3.388
8.251 4.797 3.412
8.173 4.603 3.659
8.338 3.837 3.595
8.336 3.345 3.516
8.771 2.717 3.530
8.682 2.327 3.647
6.626 10.612 2.981
6.967 9.783 2.726
6.744 9.329 2.751
6.821 8.753 3.107
7.078 8.165 3.094
7.200 7.587 2.966
7.885 4.331 3.066
8.267 3.656 2.875
8.109 3.111 3.217
8.145 2.883 3.072
8.461 2.054 2.991
6.329 9.981 2.318
6.454 9.307 2.659
6.467 8.793 2.518
6.654 8.357 2.596
7.613 3.798 2.358
7.662 3.308 2.482
8.001 2.644 2.621
8.265 1.989 2.412
6.119 9.636 1.783
6.337 9.002 1.872
6.465 8.619 1.947
6.294 8.083 1.994
7.594 3.548 2.197
7.367 3.147 2.315
7.557 2.454 2.050
7.692 2.064 1.939
6.442 10.549 1.468
6.389 9.854 1.422
6.767 9.112 1.826
6.768 8.930 1.781
7.065 8.325 1.887
7.259 7.832 1.615
7.765 4.154 1.743
7.792 3.606 1.784
8.174 2.979 1.585
8.097 2.809 1.573
8.184 1.848 1.922
6.283 10.263 1.031
6.140 9.765 1.349
6.213 9.141 1.386
6.625 8.632 1.228
6.703 8.270 1.023
6.629 7.364 1.303
7.439 4.206 1.260
7.365 3.731 1.326
7.725 2.984 1.136
7.955 2.636 1.539
7.992 2.056 1.528
5.858 11.044 0.802
5.883 10.122 0.770
6.037 9.920 0.651
6.151 9.128 0.633
5.956 8.663 0.931
6.404 8.235 0.692
6.289 7.395 0.877
6.379 6.970 0.691
6.892 4.543 0.944
6.998 4.325 0.912
7.370 3.414 1.055
7.232 3.094 0.948
7.568 2.477 0.925
7.574 2.031 0.833
5.115 11.701 0.179
5.147 11.431 0.318
5.346 10.963 0.196
5.470 10.197 0.232
5.493 9.430 0.075
5.736 9.158 0.063
5.996 8.499 0.440
5.793 8.159 0.449
6.283 7.447 0.384
6.039 7.058 0.504
6.238 6.212 0.448
6.632 5.928 0.169
6.342 5.208 0.305
6.624 4.657 0.299
6.835 3.896 0.244
6.925 3.289 0.596
6.908 2.723 0.519
7.174 2.531 0.245
7.078 1.686 0.450
5.179 12.291 0.385
5.270 11.756 -0.017
9.575 11.026 6.063
9.641 10.852 6.239
9.735 10.309 6.357
9.850 9.692 6.485
9.977 9.071 6.424
10.373 8.485 6.122
10.864 5.217 6.544
11.007 4.568 6.594
11.254 3.935 6.258
11.174 3.198 6.533
11.524 2.822 6.406
9.374 11.723 5.714
9.377 11.002 5.884
9.298 10.728 5.976
9.643 10.049 5.947
9.707 9.465 5.897
10.025 8.986 5.728
9.940 8.201 5.675
10.095 7.645 5.983
10.600 5.427 6.114
10.730 5.016 5.751
10.878 4.652 6.127
11.006 3.822 6.041
10.854 3.158 5.836
10.952 2.907 5.982
8.655 12.157 5.326
8.963 11.516 5.385
8.906 11.261 5.438
9.305 10.330 5.158
9.195 9.731 5.520
9.484 9.240 5.523
9.429 8.859 5.179
9.728 8.216 5.369
9.583 7.791 5.243
9.938 7.032 5.533
9.933 6.411 5.446
10.023 6.071 5.458
10.197 5.496 5.355
10.389 4.770 5.430
10.553 4.509 5.307
10.439 3.604 5.333
10.512 3.305 5.627
10.831 2.666 5.653
8.603 12.030 4.997
8.470 11.702 4.785
8.864 11.082 4.692
8.950 10.487 5.015
9.005 9.752 4.912
9.057 9.395 4.835
9.075 8.947 5.008
9.267 8.394 4.831
9.430 7.728 4.762
9.624 7.229 4.814
9.719 6.685 4.932
9.949 5.925 4.967
9.843 5.202 4.941
9.909 4.997 4.896
10.364 4.260 4.847
10.284 3.742 4.852
10.449 3.314 5.098
10.501 2.734 5.004
8.313 11.854 4.554
8.321 11.382 4.487
8.497 10.914 4.311
8.325 10.477 4.245
8.618 9.585 4.389
8.767 9.362 4.634
9.036 8.784 4.589
8.809 7.934 4.267
9.175 7.375 4.346
9.203 7.148 4.443
9.440 6.448 4.379
9.287 5.893 4.545
9.804 5.317 4.526
9.704 4.678 4.696
9.789 4.317 4.609
10.048 3.649 4.438
9.893 3.087 4.663
10.100 2.549 4.661
7.577 12.502 3.753
8.030 12.014 3.995
8.069 11.320 4.062
8.254 10.739 4.014
8.237 10.341 3.963
8.475 9.541 4.112
8.270 9.196 4.186
8.671 8.539 3.778
8.647 8.058 3.781
8.974 7.364 3.909
8.911 6.799 4.214
8.956 6.152 4.222
9.088 5.957 3.930
9.413 5.423 4.258
9.356 4.583 4.057
9.385 4.212 4.103
9.607 3.595 3.883
9.877 3.093 4.295
9.857 2.240 4.166
7.511 12.310 4.021
7.441 12.624 3.507
7.481 11.990 3.550
7.654 11.401 3.533
7.794 10.893 3.651
8.072 10.279 3.597
7.876 9.581 3.514
8.061 9.173 3.518
8.263 8.445 3.325
8.143 8.005 3.424
8.488 7.413 3.726
8.725 6.749 3.462
8.828 6.321 3.538
8.604 5.709 3.741
8.848 4.940 3.647
8.914 4.597 3.740
9.219 4.159 3.571
9.439 3.394 3.740
9.361 2.782 3.597
9.384 2.205 3.789
7.339 12.343 3.367
6.958 12.296 2.955
7.167 11.822 3.177
7.365 11.212 2.830
7.210 10.492 2.909
7.434 10.188 3.183
7.761 9.600 3.001
7.938 9.043 3.052
7.961 8.436 3.046
8.161 7.688 3.284
8.148 7.322 3.103
8.307 6.624 3.230
8.286 6.166 3.223
8.660 5.612 2.979
8.687 5.291 3.127
8.943 4.410 3.064
8.687 4.059 3.031
9.025 3.607 3.356
8.929 2.633 3.287
9.095 2.232 3.372
7.268 12.292 2.819
6.952 11.348 2.743
7.082 10.398 2.703
7.224 10.155 2.577
7.130 9.291 2.720
7.327 9.125 2.379
7.474 8.484 2.634
7.671 7.601 2.684
7.938 7.173 2.421
8.152 5.073 2.743
8.226 4.336 2.838
8.521 3.836 2.637
8.653 3.191 2.643
8.966 2.826 2.732
8.680 2.239 2.658
6.925 10.362 2.218
6.809 10.070 2.239
6.828 9.534 2.239
7.178 8.711 1.975
7.229 8.465 2.102
7.547 7.641 2.283
8.234 4.413 2.016
8.307 3.629 2.252
8.241 3.378 2.297
8.532 2.886 2.257
8.450 2.139 2.293
6.492 10.231 1.509
6.569 9.814 1.569
6.488 9.223 1.732
6.845 8.898 1.817
6.830 8.368 1.544
7.052 7.765 1.738
7.870 4.478 1.685
8.029 3.890 1.681
8.158 3.211 1.644
8.150 2.795 1.841
8.063 2.262 2.019
6.965 10.491 1.343
7.015 10.151 1.285
7.276 9.232 1.152
7.287 8.740 1.334
7.569 8.305 1.196
7.684 7.591 1.499
8.307 4.281 1.476
8.442 4.020 1.451
8.313 3.464 1.302
8.571 2.499 1.317
8.506 2.105 1.653
6.787 10.464 0.621
6.684 9.989 0.911
6.838 9.304 0.660
7.113 8.936 0.983
7.112 8.022 0.918
7.074 7.698 0.896
8.099 4.160 0.875
7.873 3.649 0.976
8.046 3.051 0.988
8.149 2.432 0.844
8.454 2.032 0.972
6.256 10.941 0.557
6.326 10.189 0.192
6.236 9.725 0.382
6.513 9.460 0.380
6.657 8.755 0.323
6.719 8.300 0.334
6.893 7.574 0.407
6.940 7.122 0.652
7.316 4.837 0.306
7.573 3.999 0.361
7.544 3.762 0.577
7.861 3.116 0.623
7.992 2.407 0.671
7.848 2.040 0.600
7.101 5.081 0.026
7.272 4.855 0.190
7.124 3.955 0.037
7.295 3.428 0.182
7.527 3.232 -0.162
7.734 2.494 -0.144
7.721 1.875 0.137
10.269 11.150 5.912
10.091 10.816 5.836
10.472 10.391 6.094
10.661 9.461 6.046
10.816 9.061 5.774
10.748 8.667 5.854
11.247 4.966 6.092
11.791 4.596 6.074
11.901 4.125 6.136
11.652 3.297 6.005
11.933 3.027 6.267
9.535 11.617 5.587
9.790 11.437 5.347
10.168 10.658 5.522
9.922 9.996 5.659
10.025 9.523 5.616
10.301 9.076 5.568
10.295 8.238 5.461
10.376 7.867 5.372
11.118 5.809 5.362
11.317 5.003 5.449
11.456 4.580 5.544
11.462 4.103 5.485
11.341 3.210 5.521
11.624 2.978 5.849
9.285 12.408 5.155
9.465 11.608 5.187
9.340 11.206 5.172
9.627 10.393 5.094
9.631 10.115 5.106
9.726 9.261 5.205
9.933 8.949 4.879
10.098 8.378 5.245
10.090 7.738 5.242
10.387 7.223 5.171
10.553 6.830 5.062
10.630 6.212 5.176
10.776 5.747 4.912
10.804 4.960 4.930
10.896 4.428 5.155
10.909 3.930 5.361
11.027 3.286 5.156
11.453 2.632 5.195
9.013 12.379 4.694
9.070 11.711 4.417
9.345 11.183 4.336
9.421 10.423 4.747
9.320 10.100 4.450
9.466 9.180 4.666
9.817 8.711 4.474
9.641 8.137 4.596
9.793 7.531 4.474
9.844 6.959 4.460
9.978 6.430 4.464
10.448 6.032 4.758
10.324 5.667 4.500
10.683 4.708 4.462
10.723 4.541 4.665
10.544 3.979 4.722
10.747 3.452 4.905
11.169 2.599 4.650
8.762 12.062 3.906
8.864 11.669 4.009
8.693 10.846 4.266
8.953 10.404 4.249
9.250 9.895 4.155
9.398 9.099 3.991
9.473 8.659 3.945
9.663 8.180 4.173
9.705 7.424 3.957
9.683 7.211 4.244
9.709 6.541 4.031
10.023 6.099 4.381
9.997 5.481 4.370
10.258 4.759 4.254
10.427 4.304 4.163
10.390 3.652 4.195
10.334 3.211 4.016
10.699 2.639 4.169
8.333 12.013 3.533
8.265 11.472 3.783
8.378 11.113 3.691
8.437 10.469 3.550
8.643 9.762 3.620
8.999 9.093 3.801
9.124 8.789 3.862
9.014 8.215 3.773
9.203 7.758 3.873
9.233 6.822 3.627
9.357 6.576 3.553
9.419 5.708 3.765
9.653 5.140 3.834
9.766 4.638 3.607
10.009 4.271 3.908
10.291 3.634 3.925
10.086 2.967 3.586
10.317 2.475 3.573
8.037 12.426 3.123
7.972 12.151 3.322
8.292 11.330 2.950
8.056 10.913 2.950
8.263 10.341 3.071
8.317 9.759 2.998
8.712 9.029 3.282
8.857 8.666 3.085
8.979 8.249 3.133
8.710 7.594 3.374
9.191 6.708 3.056
9.148 6.518 3.432
9.187 5.768 3.291
9.402 5.295 3.087
9.383 4.660 3.373
9.841 3.932 3.441
9.905 3.680 3.107
9.963 2.793 3.177
10.034 2.664 3.385
7.863 12.639 3.194
7.344 12.533 2.447
7.855 11.930 2.847
7.685 11.349 2.845
7.966 10.801 2.635
7.787 10.022 2.560
8.037 9.480 2.710
8.020 9.161 2.896
8.136 8.543 2.909
8.518 7.805 2.773
8.518 7.360 2.862
8.561 6.987 2.667
8.968 6.230 2.838
9.049 5.862 2.839
9.227 5.361 2.718
9.205 4.803 2.891
9.380 3.846 2.627
9.434 3.279 2.711
9.622 2.729 2.945
9.534 2.528 2.830
7.454 12.562 2.578
7.558 11.290 2.217
7.613 10.531 2.383
7.479 10.168 2.206
7.967 9.415 2.428
7.744 8.787 2.330
7.858 8.515 2.145
8.311 7.716 2.359
8.444 7.482 2.490
8.857 4.978 2.287
8.751 4.373 2.284
8.832 3.882 2.271
9.002 3.268 2.520
9.389 2.738 2.558
9.269 2.292 2.363
7.393 10.561 1.816
7.304 10.055 1.967
7.553 9.283 1.829
7.547 9.031 1.734
7.562 8.365 1.595
7.693 7.992 1.834
8.527 4.664 2.029
8.736 3.907 1.817
8.969 3.247 1.776
8.890 2.678 2.122
8.936 2.147 1.890
6.831 10.301 1.371
7.203 10.042 1.413
7.062 9.520 1.467
7.296 8.779 1.119
7.213 8.132 1.451
7.473 7.635 1.322
8.161 4.380 1.563
8.324 3.837 1.402
8.617 3.097 1.658
8.552 2.672 1.268
8.781 2.058 1.456
7.551 10.014 1.168
7.743 9.532 1.160
7.507 8.830 0.908
7.899 8.228 0.918
8.707 3.710 1.227
8.846 3.229 1.298
9.041 2.576 1.109
9.318 2.421 0.996
7.337 10.020 0.408
7.070 9.255 0.375
7.469 9.052 0.596
7.432 8.395 0.512
8.350 3.711 0.635
8.670 3.148 0.557
8.522 2.639 0.444
8.813 2.232 0.686
6.624 10.244 0.045
6.742 9.798 -0.003
6.915 9.429 0.087
6.847 8.820 -0.033
7.249 8.073 0.111
7.149 7.792 -0.101
8.140 4.362 0.009
8.111 3.745 0.273
8.436 3.189 -0.030
8.200 2.530 0.396
8.283 2.285 0.335
10.603 10.622 5.763
11.002 10.156 5.790
10.977 9.712 5.715
11.073 8.961 5.703
12.163 4.783 5.929
12.025 4.089 5.687
12.187 3.781 5.731
12.388 3.198 5.871
10.144 11.153 5.081
10.190 10.673 5.241
10.569 9.998 4.996
10.675 9.490 5.101
10.730 8.869 5.084
11.053 8.730 5.274
11.648 5.111 5.058
11.927 4.702 5.298
11.638 4.071 5.177
11.984 3.366 5.266
12.235 2.934 5.095
9.680 11.724 4.426
10.129 11.320 4.455
10.085 10.858 4.837
10.135 10.092 4.690
10.201 9.513 4.565
10.425 9.214 4.880
10.535 8.229 4.770
10.805 7.986 4.900
11.134 5.496 4.586
11.204 4.967 4.955
11.510 4.668 4.830
11.474 3.831 4.870
11.517 3.456 4.792
11.879 2.804 4.737
9.525 12.181 4.325
9.328 11.504 3.985
9.524 11.357 4.272
9.899 10.674 4.262
9.774 10.230 4.045
9.787 9.552 4.227
10.285 8.982 4.450
10.448 8.281 4.313
10.210 7.737 4.065
10.681 7.205 4.295
10.679 6.604 4.219
10.750 6.291 4.222
10.811 5.389 4.092
10.947 5.091 4.440
10.863 4.278 4.319
11.080 3.762 4.331
11.447 3.534 4.446
11.627 2.805 4.190
9.261 11.995 3.728
9.037 11.817 3.783
9.421 11.227 3.673
9.228 10.561 3.885
9.762 9.891 3.556
9.590 9.394 3.663
9.793 8.795 3.975
9.780 8.211 3.882
9.914 7.619 3.954
9.982 7.383 3.751
10.266 6.479 3.630
10.210 6.232 3.987
10.560 5.612 3.661
10.430 4.832 3.985
10.615 4.303 3.726
10.835 3.887 3.990
11.107 3.077 3.875
10.900 2.569 3.722
8.544 12.216 3.365
9.031 11.635 3.151
9.002 10.880 3.396
8.955 10.390 3.297
9.300 9.949 3.408
9.332 9.212 3.285
9.552 8.874 3.102
9.752 8.225 3.532
9.736 7.465 3.136
9.907 6.940 3.258
9.873 6.357 3.567
10.254 6.142 3.220
10.029 5.628 3.364
10.202 4.921 3.539
10.366 4.380 3.565
10.392 3.815 3.524
10.496 3.107 3.537
10.929 2.499 3.547
8.579 12.159 2.808
8.526 11.269 2.894
8.447 11.075 2.662
8.898 10.310 2.716
9.062 9.993 2.690
8.803 9.058 2.991
9.342 8.679 2.709
9.110 8.001 2.881
9.504 7.417 3.040
9.493 6.948 2.958
9.437 6.545 2.967
9.520 5.947 2.907
9.740 5.307 3.138
9.845 4.780 3.077
10.183 4.235 3.014
9.999 3.487 2.872
10.369 3.172 2.838
10.420 2.537 2.786
8.071 11.388 2.274
8.426 10.714 2.335
8.451 10.107 2.166
8.442 9.758 2.403
8.590 9.104 2.389
8.697 8.396 2.227
9.019 8.212 2.439
9.177 7.323 2.544
9.364 5.278 2.331
9.646 4.576 2.582
9.913 4.248 2.292
9.746 3.714 2.612
10.076 3.209 2.415
10.204 2.674 2.568
8.147 10.902 1.923
7.978 10.084 2.031
8.302 9.789 2.039
8.151 8.958 1.717
8.578 8.311 2.108
8.426 8.023 2.052
9.339 4.497 2.119
9.250 3.932 2.079
9.476 3.292 1.975
9.566 3.053 2.188
9.845 2.274 2.198
7.739 10.240 1.362
7.721 9.551 1.573
7.939 8.813 1.663
7.951 8.425 1.505
9.107 3.986 1.689
9.218 3.285 1.768
9.512 2.691 1.554
9.483 2.353 1.472
7.476 9.851 0.751
7.613 9.620 0.877
7.525 8.754 1.003
7.711 8.172 1.175
8.919 4.074 0.876
8.811 3.393 1.175
8.893 2.921 1.075
9.273 2.357 0.916
8.136 9.744 0.855
8.297 8.932 0.665
9.194 3.304 0.814
9.302 2.905 0.934
7.816 9.709 0.279
7.662 8.819 0.211
9.084 3.490 0.215
8.957 2.783 0.204
11.474 10.389 5.379
11.292 9.998 5.459
10.875 10.965 4.793
10.853 10.473 4.680
11.106 9.922 4.656
11.385 9.174 5.035
12.204 4.753 4.833
12.357 4.158 4.761
12.340 3.633 5.121
12.329 3.129 4.918
10.250 11.256 4.260
10.536 10.758 4.308
10.471 10.285 4.556
10.890 9.502 4.177
10.757 9.030 4.407
10.862 8.562 4.337
11.732 4.986 4.654
11.638 4.468 4.546
11.949 4.003 4.291
12.017 3.639 4.489
12.249 3.052 4.490
9.929 11.778 3.872
10.309 11.109 3.936
10.233 10.523 4.010
10.398 10.256 4.016
10.376 9.508 3.991
10.659 8.890 3.849
10.729 8.378 4.057
10.782 7.776 4.082
11.182 5.865 3.929
11.387 5.198 3.912
11.587 4.762 4.031
11.826 4.022 3.801
11.854 3.450 3.930
11.805 3.078 3.896
9.325 12.094 3.438
9.815 11.559 3.241
9.687 11.279 3.237
9.908 10.562 3.278
10.150 9.906 3.629
10.044 9.366 3.247
10.170 9.006 3.282
10.272 8.393 3.474
10.511 7.663 3.422
10.627 7.405 3.326
10.761 6.717 3.501
10.788 6.005 3.642
10.989 5.367 3.486
11.054 5.229 3.732
10.998 4.445 3.600
11.418 3.773 3.401
11.444 3.534 3.577
11.354 2.877 3.529
9.115 12.045 2.856
9.244 11.847 2.736
9.433 10.978 3.130
9.379 10.583 3.003
9.715 10.136 2.925
9.954 9.457 2.855
9.927 8.685 3.018
10.121 8.512 3.060
9.967 7.881 3.028
10.404 7.080 3.176
10.256 6.657 2.981
10.707 6.084 3.011
10.612 5.620 3.231
10.881 4.919 3.047
10.910 4.309 2.925
10.952 3.850 2.962
11.149 3.264 2.958
11.207 2.669 3.126
8.941 11.723 2.511
9.061 11.129 2.521
9.302 10.355 2.430
9.514 10.072 2.598
9.601 9.150 2.640
9.456 8.902 2.526
9.539 8.099 2.440
9.696 7.502 2.490
10.300 5.294 2.460
10.470 4.790 2.723
10.588 4.369 2.694
10.539 3.763 2.641
10.932 3.016 2.495
10.933 2.637 2.468
8.802 10.855 2.072
8.793 10.396 2.119
9.151 9.769 1.919
9.238 9.303 2.055
9.428 8.853 2.112
9.301 8.207 2.035
10.051 4.939 2.260
10.410 4.160 2.261
10.533 3.578 2.287
10.619 2.900 2.017
10.463 2.375 2.085
8.554 10.214 1.397
8.554 9.619 1.690
8.775 9.206 1.399
8.758 8.548 1.502
9.920 4.363 1.772
9.860 3.784 1.895
10.039 3.027 1.675
10.305 2.304 1.676
8.328 9.873 1.065
8.583 9.173 1.087
9.814 3.339 1.042
9.714 2.845 1.161
8.022 9.522 0.718
8.228 8.981 0.755
9.297 3.324 0.606
9.304 3.050 0.811
11.338 10.558 4.535
11.496 9.802 4.372
11.204 10.703 3.779
11.084 10.256 4.221
11.055 9.817 3.952
11.539 9.168 4.234
12.102 4.641 4.212
12.395 4.213 4.357
12.637 3.501 4.321
10.682 11.449 3.675
10.488 10.575 3.390
10.769 10.082 3.749
11.086 9.569 3.476
11.004 9.230 3.742
10.994 8.692 3.437
11.681 5.241 3.495
12.052 4.418 3.743
12.259 4.000 3.730
12.012 3.301 3.511
12.513 3.147 3.678
10.038 11.756 3.023
10.053 11.452 2.926
10.268 10.562 3.066
10.311 10.340 2.904
10.640 9.601 3.152
10.736 9.152 3.246
10.819 8.574 3.092
11.064 8.032 3.065
11.448 5.520 3.311
11.369 5.007 3.018
11.557 4.747 3.093
11.844 4.053 3.186
11.747 3.265 3.008
12.125 3.035 3.317
9.894 11.845 2.580
9.947 11.207 2.673
10.179 10.534 2.785
10.068 10.209 2.811
10.125 9.523 2.763
10.571 8.988 2.779
10.544 8.470 2.454
10.692 7.641 2.528
11.218 5.466 2.789
11.412 5.213 2.879
11.495 4.446 2.530
11.437 3.808 2.842
11.356 3.539 2.583
11.836 2.931 2.859
9.634 11.134 2.017
9.621 10.404 2.042
9.811 9.823 2.029
10.082 9.281 2.199
9.984 8.982 2.164
10.250 8.106 2.247
10.827 4.902 2.454
10.973 4.180 2.076
11.083 4.020 2.504
11.422 3.160 2.246
11.371 2.840 2.233
9.258 10.422 1.697
9.492 9.829 1.616
9.576 9.289 1.837
9.788 8.984 1.799
10.452 4.171 2.031
10.584 3.704 1.682
10.816 3.041 2.025
10.865 2.586 1.981
8.959 9.667 1.383
9.372 9.052 1.368
10.316 3.667 1.212
10.434 2.954 1.580
11.610 10.259 3.602
11.826 9.725 3.704
10.966 10.835 3.097
11.153 10.437 3.260
11.544 9.818 3.188
11.314 9.373 3.056
12.512 4.584 3.497
12.734 4.074 3.194
10.775 11.325 2.782
10.903 10.598 2.846
11.004 10.264 2.650
11.053 9.610 2.648
11.059 9.288 2.594
11.259 8.623 2.778
12.051 5.385 2.928
12.126 4.668 3.007
12.384 4.025 2.820
12.125 3.363 2.901
12.269 2.978 3.020
10.449 11.176 2.186
10.381 10.670 2.118
10.718 9.985 2.252
10.794 9.465 2.388
10.752 9.131 2.369
11.001 8.688 2.458
11.656 5.071 2.424
11.757 4.717 2.411
11.871 4.078 2.525
12.098 3.232 2.371
12.015 3.002 2.358
9.964 10.673 1.923
10.294 10.177 1.973
10.215 9.511 1.752
10.306 9.057 1.707
11.267 4.642 2.013
11.596 3.725 1.947
11.769 3.264 2.071
11.992 2.860 2.091
9.870 9.920 1.332
10.013 9.583 1.233
11.391 3.933 1.306
11.295 3.210 1.652
11.901 10.274 3.471
11.952 9.988 3.321
11.531 11.086 2.819
11.550 10.517 2.693
11.826 9.995 2.874
12.117 9.155 2.818
11.237 11.447 2.463
11.028 11.032 2.189
11.212 10.292 2.367
11.503 9.845 2.225
11.595 9.148 2.637
11.879 8.749 2.373
12.261 5.329 2.533
12.683 4.544 2.696
10.918 11.155 1.857
10.894 11.010 2.062
10.971 10.173 1.856
11.222 9.704 1.963
11.474 9.289 1.868
11.230 8.674 2.135
11.900 5.388 2.230
12.413 4.461 2.109
12.371 4.309 1.874
12.395 3.626 1.876
10.569 10.871 1.432
10.633 10.309 1.528
10.838 9.649 1.354
11.094 8.907 1.729
11.944 4.633 1.466
12.108 4.039 1.735
12.297 3.446 1.592
12.428 2.970 1.580
10.586 9.997 1.211
10.480 9.471 1.025
11.626 3.886 1.280
11.718 3.523 1.035
12.648 10.764 2.881
12.093 11.205 2.656
12.171 10.411 2.368
12.077 9.875 2.468
12.463 9.191 2.424
11.731 11.722 1.845
11.729 11.093 2.212
11.944 10.518 1.878
11.886 9.864 2.264
11.866 9.246 2.299
12.310 8.695 1.921
11.436 11.371 1.389
11.229 10.818 1.463
11.378 10.272 1.508
11.786 9.884 1.730
11.917 9.382 1.707
11.870 8.672 1.817
12.370 5.094 1.633
10.836 10.892 1.118
11.375 10.249 1.323
11.348 9.475 1.282
11.318 9.052 1.145
12.349 4.760 1.111
12.286 3.898 1.416
10.872 10.268 0.508
10.903 9.548 0.612
12.279 4.176 1.036
12.257 3.498 0.632
12.500 11.608 2.190
12.444 11.247 2.046
11.902 11.995 1.913
11.875 11.652 1.899
12.197 10.883 1.812
12.221 10.461 1.849
12.177 10.020 1.860
12.617 9.293 1.924
11.483 12.026 1.079
11.846 11.570 1.163
11.741 10.884 1.457
11.929 10.542 1.106
12.135 9.973 1.156
12.281 9.198 1.275
12.379 8.675 1.127
12.600 8.081 1.225
11.604 11.643 0.774
11.439 10.837 0.927
11.799 10.482 0.640
11.525 9.952 0.724
11.801 9.345 0.775
12.194 8.698 0.910
11.265 10.639 0.554
11.133 10.302 0.337
11.357 9.581 0.299
11.704 8.942 0.351
12.695 4.676 0.677
12.366 3.977 0.097
12.238 3.343 -0.103
12.152 12.097 1.439
12.660 11.792 1.363
12.218 12.380 0.854
12.050 11.560 1.092
12.138 11.005 1.118
12.506 10.627 1.166
12.401 9.818 1.177
11.804 12.231 0.552
11.893 11.353 0.531
11.869 11.172 0.358
12.279 10.432 0.309
12.068 9.867 0.697
12.286 9.379 0.576
12.424 8.553 0.376
12.405 8.211 0.388
11.531 10.994 0.180
11.755 10.415 0.103
12.062 9.790 0.072
11.771 9.133 -0.073
12.270 8.832 0.074
12.602 12.251 0.497
11.995 12.295 0.224
12.327 11.820 0.069
12.267 10.877 0.248
12.508 10.682 0.132
1.768 9.423 4.978
1.811 9.014 4.807
2.206 8.442 4.912
2.252 7.667 5.143
2.553 7.384 5.020
2.479 6.755 5.064
3.314 3.226 5.103
3.486 2.829 5.191
3.394 2.362 5.281
3.632 1.714 4.928
3.486 1.186 5.112
1.729 9.546 4.309
1.633 8.887 4.730
1.650 8.339 4.725
1.769 7.665 4.696
1.862 7.404 4.436
2.090 6.865 4.404
3.058 3.099 4.705
2.882 2.692 4.681
3.091 2.058 4.731
3.163 1.815 4.582
3.208 1.180 4.500
1.336 9.908 3.880
1.401 9.498 3.832
1.166 8.808 4.101
1.539 8.464 3.893
1.448 7.677 4.294
1.900 6.983 3.926
1.902 6.409 4.292
2.110 6.073 3.942
2.592 3.726 4.283
2.684 3.113 4.162
2.640 2.717 4.005
2.599 2.184 4.386
2.944 1.613 4.423
2.818 0.987 4.412
0.464 12.196 4.131
0.630 11.002 3.353
0.611 10.618 3.760
0.887 9.871 3.364
0.848 9.208 3.754
0.901 8.540 3.700
0.982 7.990 3.738
1.281 7.748 3.529
1.373 7.106 3.453
1.550 6.537 3.756
1.557 6.118 3.463
1.727 5.322 3.850
1.904 4.928 3.727
2.093 4.466 3.755
2.143 3.572 3.733
2.183 3.083 3.503
2.438 2.446 3.819
2.286 2.070 3.743
2.790 1.395 3.789
2.527 0.987 3.925
0.371 11.914 3.428
0.655 11.563 3.708
0.663 11.181 3.396
0.404 10.942 2.997
0.278 10.333 3.054
0.573 9.855 2.961
0.414 9.291 3.047
0.590 8.555 3.262
0.805 8.176 3.313
1.065 7.477 3.045
1.151 6.893 2.998
1.112 6.636 3.009
1.400 5.945 3.121
1.234 5.167 3.202
1.567 4.924 3.153
1.585 4.245 3.395
1.873 3.430 3.219
1.744 3.161 3.038
1.902 2.560 3.351
2.281 1.969 3.425
2.377 1.431 3.178
2.284 1.054 3.114
-0.088 12.098 3.004
-0.013 11.596 3.107
0.136 10.729 2.999
0.235 10.288 2.485
0.339 9.807 2.862
0.098 8.949 2.728
0.326 8.662 2.855
0.348 7.955 2.504
0.813 7.397 2.743
0.906 6.992 2.627
0.918 6.298 2.822
1.112 5.777 2.945
1.177 5.111 2.942
1.325 4.816 2.917
1.271 4.159 2.980
1.263 3.733 2.617
1.663 2.829 2.670
1.554 2.535 2.868
1.660 2.021 2.789
1.808 1.477 2.985
2.195 0.689 2.978
-0.101 8.561 2.259
0.008 7.754 2.146
0.157 7.319 2.020
0.328 7.046 2.360
0.391 6.459 2.123
0.762 5.789 2.280
0.904 4.959 2.447
1.019 4.433 2.394
1.123 3.820 2.370
0.925 3.279 2.377
1.053 2.911 2.418
1.289 2.420 2.369
1.682 2.008 2.438
1.772 1.154 2.172
1.909 0.706 2.368
0.027 6.893 1.614
0.410 6.319 1.819
0.376 5.698 1.646
0.498 5.090 1.723
0.736 4.515 1.859
0.872 4.092 1.860
0.711 3.577 2.027
1.116 2.799 1.826
0.916 2.083 1.977
1.303 1.559 1.804
1.254 1.295 1.823
1.348 0.393 2.113
0.073 5.648 1.388
0.253 4.888 1.176
0.113 4.418 1.545
0.361 3.965 1.409
0.550 3.324 1.487
0.813 2.887 1.580
0.916 2.257 1.280
0.812 1.556 1.535
0.859 1.292 1.577
0.874 0.306 1.588
0.132 3.408 0.940
0.388 2.810 0.732
0.349 2.304 0.759
0.346 1.562 0.968
0.610 1.137 0.999
0.565 0.473 0.889
0.013 1.980 0.403
0.397 1.528 0.424
0.107 0.876 0.415
0.357 0.155 0.322
0.006 0.306 0.065
4.951 10.158 9.650
5.279 9.743 9.547
5.506 9.412 9.582
5.544 8.768 9.737
5.529 7.885 9.490
5.652 7.392 9.722
6.305 4.146 9.787
6.460 3.441 9.638
6.887 2.878 9.557
6.806 2.667 9.731
7.070 2.155 9.857
4.668 10.614 9.028
5.030 10.182 9.217
5.174 9.898 9.161
5.095 8.923 9.066
5.324 8.502 9.061
5.426 8.210 8.994
5.305 7.659 9.157
5.414 6.953 9.161
6.235 4.589 9.163
6.292 4.182 9.051
6.339 3.405 9.485
6.442 2.778 9.073
6.374 2.289 9.242
6.686 1.892 9.135
4.360 11.670 8.564
4.234 11.112 8.811
4.554 10.688 8.766
4.673 10.139 8.781
4.806 9.601 8.496
4.686 9.012 8.794
5.005 8.685 8.831
5.092 7.735 8.750
4.969 7.453 8.844
5.004 6.918 8.792
5.214 6.322 8.638
5.258 5.527 8.774
5.660 5.199 8.692
5.639 4.640 8.625
5.926 4.054 8.756
6.116 3.509 8.805
6.119 3.003 8.913
6.237 2.272 8.855
6.389 1.897 8.832
3.906 12.403 8.442
4.217 12.047 8.541
3.817 11.578 8.088
3.900 11.029 7.972
4.035 10.854 8.066
4.291 10.259 8.299
4.418 9.556 8.385
4.391 8.835 8.445
4.621 8.225 8.457
4.776 7.681 8.398
4.669 7.177 8.360
4.748 6.810 8.295
5.197 6.204 8.105
5.191 5.566 8.120
5.132 5.155 8.338
5.445 4.647 8.523
5.644 3.883 8.147
5.631 3.269 8.186
5.691 2.754 8.448
5.666 2.248 8.579
5.766 1.840 8.201
3.678 12.425 8.007
3.653 11.725 8.230
3.663 11.781 7.507
3.599 11.084 7.798
3.769 10.562 7.518
3.674 9.980 7.863
3.818 9.600 7.714
4.051 9.052 7.937
4.150 8.304 7.656
4.336 7.900 7.750
4.290 7.281 7.716
4.413 6.479 7.996
4.513 5.943 7.663
4.755 5.377 7.817
4.801 5.079 7.948
4.855 4.337 8.060
5.094 3.655 7.946
5.359 3.129 7.836
5.610 2.660 7.841
5.315 2.079 7.792
5.725 1.706 7.801
3.364 12.274 7.785
3.419 11.751 7.910
3.226 11.494 7.150
3.506 10.978 7.283
3.499 10.622 7.445
3.482 9.806 7.076
3.657 9.416 7.271
3.909 8.949 7.139
4.090 8.426 7.468
3.938 7.485 7.359
3.958 7.301 7.228
4.083 6.386 7.220
4.199 6.228 7.442
4.371 5.374 7.333
4.800 4.998 7.605
4.880 4.397 7.314
4.812 3.784 7.586
4.817 3.142 7.341
5.162 2.759 7.228
5.195 2.233 7.638
5.143 1.351 7.543
3.176 12.020 7.095
3.346 11.791 7.030
2.874 11.632 6.609
2.778 11.046 6.859
3.135 10.565 6.691
3.114 9.977 6.628
3.112 9.375 6.616
3.395 8.519 6.667
3.431 7.977 6.877
3.597 7.621 6.822
3.999 6.903 6.663
4.002 6.664 6.817
4.085 6.082 6.918
3.989 5.383 6.936
4.461 4.889 7.072
4.395 4.340 6.869
4.647 3.676 6.782
4.735 3.223 6.795
4.658 2.624 7.051
4.942 1.959 6.843
5.038 1.689 7.041
2.676 12.196 6.802
2.897 11.425 6.627
2.449 11.416 6.234
2.769 10.797 6.209
2.891 10.220 6.165
3.077 9.560 6.567
3.042 9.401 6.489
3.205 8.574 6.345
3.143 8.208 6.507
3.281 7.633 6.500
3.304 6.846 6.317
3.605 6.224 6.617
3.894 5.902 6.632
3.761 5.447 6.444
3.915 4.814 6.603
4.226 4.137 6.526
4.340 3.500 6.352
4.461 3.229 6.584
4.290 2.674 6.731
4.535 1.813 6.366
4.669 1.269 6.702
2.303 12.422 6.339
2.222 11.988 6.478
2.714 11.615 6.352
2.506 10.149 5.815
2.543 9.679 5.960
2.649 9.182 5.735
2.892 8.490 5.979
3.117 7.913 5.816
3.237 7.375 6.155
2.947 6.910 6.102
3.119 6.283 5.784
3.814 4.107 6.154
3.801 3.687 6.147
3.908 2.818 6.216
4.276 2.472 6.110
4.438 1.865 5.999
4.523 1.346 6.262
2.069 12.671 5.749
2.328 9.817 5.641
2.420 8.953 5.645
2.308 8.298 5.534
2.763 8.157 5.672
2.911 7.410 5.409
2.926 6.931 5.584
3.612 3.532 5.608
3.838 3.044 5.580
3.891 2.450 5.570
3.928 1.764 5.746
4.016 1.448 5.772
2.066 9.357 4.800
1.974 8.821 4.838
1.926 8.435 5.012
2.401 7.976 5.059
2.277 7.460 4.858
2.450 6.819 4.989
3.326 3.438 5.022
3.499 2.774 5.019
3.404 2.186 4.912
3.471 1.932 5.129
3.879 0.992 4.967
2.329 8.916 4.755
2.458 8.530 4.796
2.685 7.857 4.595
2.867 7.464 4.578
3.896 3.029 4.822
3.849 2.477 4.708
4.160 2.018 4.886
4.162 1.182 4.829
2.190 8.958 4.097
2.114 8.321 4.143
2.278 7.663 4.035
2.334 7.095 4.318
3.569 2.857 4.291
3.475 2.152 4.374
3.719 1.866 4.533
3.616 1.153 4.558
1.589 9.372 3.832
1.693 8.734 3.851
1.758 8.181 3.639
2.051 7.957 3.781
2.084 7.355 3.648
2.184 6.881 3.928
2.886 3.321 3.657
3.169 2.768 3.713
3.362 2.012 3.928
3.557 1.671 3.774
3.677 1.073 3.781
1.418 10.160 3.081
1.333 9.373 3.075
1.708 8.621 3.283
1.571 8.449 3.377
1.906 7.910 3.113
2.006 7.049 3.416
1.966 6.446 3.307
2.265 5.879 3.327
2.494 3.890 3.238
2.492 3.378 3.484
2.682 2.867 3.250
2.754 2.260 3.304
3.198 1.650 3.592
3.042 0.813 3.233
0.617 12.362 3.291
0.841 10.925 2.570
0.810 10.346 2.760
0.927 9.834 2.710
0.873 9.458 2.965
1.310 8.587 2.881
1.156 8.362 2.871
1.440 7.611 2.662
1.410 6.957 2.759
1.597 6.435 2.708
1.627 5.741 2.861
1.847 5.523 2.821
1.947 4.997 2.788
2.193 4.164 2.907
2.330 3.524 2.910
2.283 3.034 2.903
2.517 2.468 2.799
2.587 1.857 2.886
2.777 1.691 2.845
2.623 0.976 3.092
0.269 11.957 2.716
0.470 11.441 2.776
0.813 11.115 2.813
0.444 10.986 2.326
0.566 10.247 2.212
0.605 9.883 2.344
0.885 9.114 2.466
0.977 8.663 2.156
0.995 7.898 2.513
1.218 7.591 2.316
1.014 7.123 2.463
1.241 6.235 2.336
1.406 6.083 2.228
1.485 5.258 2.526
1.740 4.879 2.426
1.711 4.202 2.519
1.978 3.721 2.396
2.210 3.040 2.486
2.168 2.435 2.370
2.343 2.029 2.617
2.205 1.435 2.647
2.416 0.967 2.349
0.039 12.156 2.270
0.313 11.264 2.085
0.258 10.896 2.213
-0.128 10.975 1.936
0.346 10.353 1.825
0.444 9.861 2.034
0.489 9.016 1.808
0.535 8.434 1.794
0.452 7.955 1.895
0.877 7.350 2.113
0.813 6.932 2.065
0.806 6.245 1.959
1.140 5.603 1.954
1.276 5.422 1.908
1.271 4.601 2.058
1.266 4.081 1.797
1.500 3.769 2.011
1.739 3.135 2.057
1.886 2.565 2.214
2.153 1.809 2.013
2.023 1.172 2.033
2.061 0.944 2.044
0.150 10.742 1.611
0.281 9.056 1.524
0.320 8.596 1.409
0.469 7.883 1.448
0.455 7.193 1.510
0.740 6.729 1.452
0.861 6.312 1.358
0.804 5.684 1.596
0.920 5.204 1.545
0.961 4.571 1.518
1.126 4.050 1.347
1.438 3.575 1.381
1.171 2.900 1.529
1.566 2.361 1.491
1.686 1.746 1.614
1.589 1.413 1.724
1.950 0.831 1.472
0.300 7.214 0.800
0.111 6.611 1.110
0.516 6.307 1.076
0.493 5.835 0.984
1.144 3.559 1.111
1.249 2.734 1.190
1.266 2.474 0.945
1.445 1.781 1.043
1.257 1.045 0.941
1.733 0.772 1.006
-0.123 6.314 0.607
0.790 2.747 0.396
1.046 2.151 0.805
1.055 1.640 0.738
1.242 0.939 0.578
1.225 0.569 0.670
0.503 2.202 0.263
0.547 1.423 0.259
0.647 1.170 0.311
1.084 0.594 0.396
5.608 9.850 9.395
5.952 9.271 9.136
6.171 8.804 9.299
5.891 8.056 9.329
6.850 3.508 9.287
7.355 3.019 9.412
7.149 2.593 9.570
7.541 1.814 9.289
5.385 10.524 8.821
5.388 9.934 8.652
5.348 9.044 8.764
5.859 8.663 8.638
5.954 7.897 8.635
6.012 7.424 9.057
6.791 4.326 9.123
6.796 3.779 9.118
6.705 2.922 8.934
7.042 2.442 9.099
6.969 2.164 9.043
4.843 10.653 8.463
4.966 10.194 8.304
5.267 9.897 8.422
5.229 8.964 8.189
5.430 8.630 8.368
5.340 8.076 8.376
5.736 7.501 8.546
5.480 6.896 8.491
6.264 4.678 8.652
6.398 4.268 8.670
6.255 3.650 8.399
6.642 3.177 8.689
6.738 2.264 8.643
6.921 1.876 8.298
4.465 11.821 7.922
4.436 11.358 7.651
4.424 10.667 7.691
4.650 10.230 7.994
4.711 9.584 7.722
4.904 8.977 7.874
4.994 8.365 7.782
5.316 8.081 7.936
5.319 7.433 7.798
5.202 6.769 7.842
5.332 6.474 7.742
5.551 5.893 8.121
5.752 5.041 8.181
5.881 4.737 8.107
6.117 4.114 7.943
6.068 3.256 7.871
6.302 2.926 7.870
6.334 2.218 8.016
6.270 1.593 8.088
4.353 12.253 8.015
4.280 11.758 7.737
4.137 11.695 7.327
4.068 11.001 7.394
4.336 10.784 7.366
4.366 10.275 7.587
4.450 9.657 7.312
4.433 9.187 7.600
4.511 8.343 7.238
4.847 7.680 7.647
4.898 7.142 7.303
4.952 6.541 7.672
4.974 5.996 7.499
5.397 5.776 7.334
5.367 4.921 7.730
5.319 4.727 7.625
5.535 3.996 7.559
5.600 3.218 7.745
5.674 2.894 7.414
5.956 2.488 7.498
6.312 1.724 7.532
3.742 12.350 7.156
3.837 11.760 7.428
3.663 11.820 6.913
3.730 10.917 6.877
3.714 10.767 7.108
3.962 9.954 7.036
4.213 9.494 7.180
4.087 8.713 6.992
4.181 8.423 7.151
4.589 7.681 7.045
4.768 7.416 6.889
4.600 6.602 7.190
4.952 6.087 7.198
4.741 5.371 7.224
4.905 4.974 6.940
5.172 4.484 7.051
5.295 4.051 7.137
5.466 3.165 7.012
5.544 2.568 7.115
5.542 2.099 7.193
5.664 1.656 6.960
3.488 12.172 7.086
3.684 11.806 6.849
3.493 11.812 6.513
3.248 11.100 6.243
3.507 10.282 6.380
3.567 9.897 6.677
3.776 9.231 6.624
4.032 8.814 6.723
3.916 8.194 6.680
4.143 7.705 6.494
4.272 6.972 6.687
4.452 6.588 6.361
4.634 6.075 6.589
4.770 5.295 6.616
4.711 4.719 6.735
4.980 4.315 6.499
4.965 3.904 6.537
5.270 3.165 6.592
5.175 2.688 6.789
5.472 2.094 6.718
5.638 1.762 6.762
3.330 12.319 6.650
3.293 11.426 6.556
3.005 10.224 6.189
3.555 9.803 6.120
3.579 9.186 6.137
3.422 8.816 5.941
3.703 8.018 5.956
3.672 7.737 6.016
4.141 7.212 5.875
4.119 6.440 6.275
4.580 4.216 6.352
4.540 3.834 6.347
4.922 3.188 6.382
4.837 2.436 6.106
4.998 1.863 6.224
5.274 1.343 6.062
3.109 9.788 5.464
3.117 9.111 5.406
3.186 8.716 5.728
3.373 8.294 5.752
3.677 7.621 5.397
3.441 6.889 5.460
4.108 3.479 5.847
4.379 2.905 5.673
4.545 2.665 5.618
4.475 1.818 5.914
4.952 1.552 5.943
2.660 9.226 5.252
2.765 8.506 5.100
3.091 7.891 5.156
3.165 7.514 5.065
4.092 2.901 5.126
4.229 2.267 5.106
4.534 1.707 5.148
4.592 1.444 5.279
2.514 8.862 4.612
2.400 8.615 4.843
2.679 7.741 4.792
2.763 7.557 4.770
3.764 3.079 4.858
3.868 2.565 4.694
3.847 1.804 4.636
4.237 1.274 4.652
3.068 8.790 4.153
3.201 8.021 4.554
4.234 2.538 4.499
4.650 2.055 4.377
2.523 8.658 3.915
2.785 8.099 3.776
4.100 2.196 3.785
4.217 2.015 3.998
2.174 9.009 3.526
2.310 8.544 3.420
2.522 7.859 3.592
2.698 7.277 3.541
3.638 2.675 3.580
3.900 2.511 3.652
4.034 1.712 3.690
4.048 1.103 3.536
1.686 9.540 2.826
2.147 8.712 3.003
2.007 8.225 2.750
2.205 7.802 3.000
2.173 7.197 3.176
2.293 6.501 2.800
3.166 3.545 2.984
3.266 2.881 3.128
3.592 2.276 3.117
3.486 1.542 2.877
3.629 1.182 3.084
1.373 9.920 2.594
1.409 9.570 2.634
1.486 8.877 2.642
1.917 8.328 2.259
1.899 7.545 2.474
1.778 7.079 2.279
2.259 6.824 2.446
2.198 5.921 2.613
2.701 3.686 2.597
2.976 3.295 2.486
3.100 2.548 2.803
2.985 1.989 2.744
2.987 1.523 2.612
3.504 0.890 2.723
0.839 12.084 2.491
0.803 10.954 2.013
0.944 10.598 2.096
1.230 10.015 1.930
1.060 9.397 1.779
1.227 8.851 2.070
1.257 8.081 2.061
1.429 7.737 2.098
1.621 6.875 1.868
1.971 6.363 2.209
1.964 5.776 1.852
2.102 5.422 2.208
2.241 4.640 2.255
2.220 4.483 2.041
2.359 3.822 2.052
2.497 3.361 1.928
2.714 2.789 2.181
2.883 1.996 2.157
2.863 1.344 1.963
2.968 1.058 2.039
0.698 12.286 1.782
0.773 11.755 1.863
1.029 11.190 1.901
0.660 11.069 1.579
0.806 10.479 1.670
0.745 9.829 1.731
0.984 9.062 1.678
1.186 8.876 1.416
1.196 7.989 1.356
1.097 7.530 1.761
1.346 7.113 1.789
1.272 6.550 1.710
1.596 5.717 1.516
1.876 5.152 1.728
1.842 4.823 1.711
1.711 4.344 1.564
2.083 3.737 1.667
2.048 2.945 1.650
2.429 2.511 1.583
2.297 1.887 1.723
2.589 1.510 1.755
2.595 0.928 1.920
0.403 12.041 1.466
0.331 11.642 1.455
0.342 10.897 1.686
0.537 9.904 1.177
0.534 9.351 1.228
0.710 8.450 1.060
0.721 8.053 0.913
1.047 7.587 0.984
0.920 7.050 1.175
1.254 6.421 1.130
1.193 5.594 1.290
1.809 3.578 1.319
1.879 2.928 1.240
2.152 2.515 1.152
2.101 1.861 1.359
2.230 1.542 1.016
2.181 0.967 1.234
0.279 8.871 0.803
0.229 8.536 0.479
0.535 7.961 0.723
0.463 7.405 0.452
0.857 6.692 0.706
0.601 6.115 0.874
1.441 2.775 0.721
1.852 2.318 0.842
1.720 1.605 0.848
1.717 1.247 0.886
1.824 0.553 0.835
-0.041 8.318 0.221
-0.048 7.689 0.282
0.303 7.292 0.353
0.336 6.818 0.384
1.466 2.115 0.061
1.460 1.760 0.156
1.498 1.013 0.132
1.649 0.729 0.442
6.385 9.464 8.790
6.327 8.633 8.776
7.610 3.314 8.975
7.717 2.666 8.910
5.910 9.768 8.679
5.990 9.197 8.483
5.934 8.860 8.367
6.096 8.180 8.535
7.113 3.556 8.428
7.138 2.995 8.751
7.284 2.404 8.453
7.669 2.186 8.723
5.442 10.297 8.215
5.544 9.756 7.822
5.454 9.196 7.849
5.654 8.599 8.171
5.712 7.951 7.894
6.199 7.642 7.941
6.867 4.410 8.094
6.936 3.681 8.113
6.754 3.219 8.170
7.131 2.341 8.324
7.079 2.112 8.080
5.025 10.964 7.387
5.187 10.272 7.609
5.263 9.681 7.699
5.461 9.089 7.595
5.637 8.614 7.638
5.669 8.246 7.628
5.601 7.501 7.408
5.696 6.775 7.532
6.375 4.601 7.550
6.617 3.966 7.674
6.468 3.615 7.493
6.714 3.027 7.681
6.907 2.365 7.611
6.657 1.909 7.708
4.441 11.659 7.005
4.385 11.254 6.965
4.455 10.529 7.048
4.551 10.040 7.013
4.814 9.747 6.975
5.067 9.101 7.150
5.264 8.519 7.168
5.350 7.916 7.092
5.171 7.184 7.285
5.316 6.759 7.330
5.416 6.482 7.212
5.923 5.593 7.124
5.760 5.016 7.254
6.136 4.787 7.353
6.074 4.005 7.296
6.298 3.445 7.193
6.357 2.891 7.335
6.433 2.519 7.255
6.489 1.911 7.190
4.231 12.513 6.864
4.250 11.777 7.163
3.958 11.675 6.509
4.372 11.347 6.429
4.305 10.477 6.775
4.547 10.222 6.637
4.524 9.643 6.497
4.544 9.133 6.650
4.959 8.516 6.722
4.718 7.917 6.830
5.054 7.099 6.757
5.134 6.556 6.794
5.300 6.351 6.570
5.458 5.555 6.624
5.706 5.268 6.508
5.713 4.663 6.653
5.826 3.996 6.828
5.896 3.498 6.793
5.934 2.774 6.860
5.933 2.399 6.997
6.162 1.719 6.984
3.951 12.543 6.775
4.278 11.574 6.575
4.106 10.745 6.044
4.243 9.937 5.994
4.058 9.660 6.289
4.352 8.880 5.979
4.437 8.560 6.398
4.663 7.883 6.256
4.580 7.061 6.339
4.821 6.649 6.209
5.091 4.490 6.210
5.497 3.911 6.396
5.404 3.172 6.100
5.616 2.677 6.270
5.692 2.138 6.413
6.046 1.653 6.114
3.614 9.809 5.490
3.870 9.243 5.811
3.892 9.015 5.722
4.291 8.244 5.882
4.414 7.683 5.747
4.227 7.267 5.734
5.190 3.640 6.000
5.298 3.240 5.619
5.324 2.605 5.902
5.532 1.986 5.834
5.671 1.487 5.988
3.769 9.231 5.437
3.877 8.540 5.439
3.749 8.161 5.083
3.917 7.767 5.489
4.868 3.084 5.340
5.152 2.412 5.489
5.308 2.155 5.475
5.136 1.466 5.272
3.285 8.708 4.583
3.279 8.051 4.918
4.510 2.444 4.845
4.709 1.904 4.857
3.188 8.607 4.430
3.060 7.943 4.300
4.327 2.515 4.556
4.509 2.014 4.444
3.015 8.415 3.108
2.951 8.179 3.103
4.367 2.385 3.123
4.307 1.869 3.226
2.492 8.974 2.427
2.718 8.486 2.562
2.497 7.995 2.718
2.879 7.298 2.507
3.797 3.018 2.918
3.746 2.317 2.821
4.116 1.903 2.819
4.157 1.341 2.773
1.935 9.625 2.021
2.280 8.858 2.313
2.295 8.224 2.177
2.325 7.930 2.318
2.442 7.082 2.311
2.525 6.841 2.338
3.321 3.287 2.135
3.327 2.763 2.240
3.715 2.076 2.146
3.620 1.624 2.403
3.966 0.922 2.382
1.628 9.815 1.570
1.861 9.202 1.455
1.713 8.802 1.832
1.688 8.074 1.775
1.970 7.605 1.524
2.000 7.392 1.626
2.276 6.544 1.675
2.224 6.127 1.543
2.755 3.867 1.817
3.041 3.110 1.917
3.021 2.731 1.911
3.211 2.057 1.618
3.125 1.684 2.015
3.408 1.042 1.999
1.170 12.355 1.797
1.385 10.009 1.235
1.306 9.327 1.003
1.447 8.824 1.020
1.427 8.384 1.097
1.526 7.749 1.158
2.002 7.043 1.330
2.042 6.462 1.062
1.857 6.074 1.237
2.514 3.851 1.117
2.728 3.317 1.352
2.825 2.633 1.432
3.020 1.875 1.369
3.009 1.384 1.557
3.151 0.896 1.571
0.507 12.014 1.294
1.045 9.270 0.604
1.316 8.588 0.528
1.177 8.005 0.888
1.347 7.532 0.824
1.566 6.836 0.695
1.545 6.461 0.924
2.259 3.223 0.695
2.565 2.349 0.843
2.604 2.142 0.988
2.747 1.451 0.746
2.852 0.713 0.912
0.977 8.800 0.087
0.776 8.107 0.099
1.192 7.403 0.229
0.933 6.955 0.529
2.288 2.275 0.621
2.271 1.859 0.545
2.175 1.428 0.293
2.440 0.946 0.290
6.278 9.447 8.257
6.608 8.861 8.032
7.754 3.238 8.093
7.821 2.763 8.381
5.835 9.876 7.722
6.106 9.534 7.841
6.173 8.942 7.600
6.275 8.125 7.888
7.102 3.542 7.796
7.423 3.309 8.020
7.369 2.393 7.941
7.490 2.209 7.770
5.481 10.226 7.295
5.485 9.768 7.222
5.622 9.451 7.182
5.802 8.860 7.280
6.035 7.921 7.190
6.156 7.592 7.117
6.749 4.062 7.484
7.084 3.806 7.261
7.004 3.014 7.351
7.411 2.381 7.263
7.353 1.796 7.547
5.127 10.939 6.862
5.143 10.121 6.568
5.237 9.504 6.921
5.299 9.076 6.754
5.513 8.459 6.570
5.845 8.225 6.904
5.929 7.277 6.851
6.026 6.800 6.741
6.217 4.608 6.926
6.594 4.220 6.733
6.795 3.728 6.813
6.684 2.912 6.917
6.811 2.520 6.874
7.201 2.002 7.049
4.636 10.949 6.131
4.849 10.000 6.438
5.064 9.604 6.172
5.039 9.084 6.257
5.404 8.504 6.410
5.383 8.170 6.471
5.687 7.464 6.248
5.721 6.683 6.528
5.909 4.475 6.480
6.101 3.884 6.577
6.269 3.326 6.435
6.459 2.756 6.228
6.612 2.519 6.447
6.865 1.932 6.315
4.509 10.023 5.949
4.600 9.372 5.618
4.608 9.022 5.695
5.146 8.528 5.830
4.877 7.969 6.061
5.252 7.435 5.697
5.736 4.033 6.036
6.065 3.450 5.829
6.119 2.879 5.857
6.328 2.192 6.173
6.260 1.557 5.993
4.506 9.696 5.207
4.659 8.728 5.468
4.396 8.418 5.464
4.916 7.942 5.573
5.824 3.383 5.339
5.799 2.669 5.438
5.727 2.131 5.370
6.120 1.877 5.414
4.169 8.926 5.100
4.059 8.335 4.719
5.470 2.564 5.098
5.774 2.152 5.043
2.796 8.721 2.049
2.907 7.855 2.316
4.258 2.334 2.549
4.499 2.040 2.256
2.636 9.077 1.692
2.613 8.305 1.900
2.620 7.904 1.713
2.905 7.234 1.749
3.673 2.658 1.927
3.926 2.317 1.794
4.083 1.587 1.793
4.244 1.320 1.760
2.011 9.634 1.280
2.364 8.916 1.403
2.128 8.269 1.356
2.408 7.654 1.533
2.392 7.149 1.552
2.470 6.508 1.164
3.600 3.490 1.596
3.449 2.781 1.559
3.661 2.113 1.690
3.829 1.830 1.549
3.887 1.006 1.642
1.672 9.406 0.830
1.941 8.768 0.933
2.017 8.449 0.809
2.144 7.693 0.814
2.181 7.065 0.882
2.158 6.629 0.726
3.202 3.461 0.868
3.205 2.636 1.151
3.351 2.171 0.791
3.619 1.431 1.202
3.575 1.078 0.861
1.369 8.881 0.227
1.501 8.440 0.262
1.741 7.785 0.546
1.901 6.938 0.659
2.903 2.835 0.322
3.043 2.021 0.678
3.307 1.427 0.615
3.080 0.867 0.728
2.672 2.086 0.286
2.970 1.444 0.146
6.429 9.436 7.285
6.773 8.723 7.233
7.812 3.210 7.352
7.912 2.801 7.437
6.286 10.078 6.980
6.174 9.449 6.930
6.323 8.665 6.922
6.371 8.000 7.003
7.359 3.948 7.089
7.679 3.270 6.936
7.791 2.624 6.832
7.617 1.878 6.926
5.565 10.457 6.575
5.761 9.822 6.412
5.989 9.083 6.314
5.894 8.791 6.359
6.242 8.181 6.303
6.095 7.451 6.498
7.121 4.049 6.323
7.066 3.484 6.454
7.157 3.051 6.469
7.169 2.500 6.489
7.457 2.002 6.697
5.426 10.369 6.044
5.400 9.879 5.927
5.790 9.302 5.978
5.566 8.434 5.854
5.684 8.117 6.087
5.750 7.401 6.062
6.866 3.977 5.974
6.755 3.523 5.970
6.971 2.808 6.188
6.820 2.637 6.008
7.317 1.932 6.102
5.362 9.764 5.437
5.088 8.894 5.580
5.502 8.627 5.432
5.431 8.157 5.505
6.394 3.421 5.707
6.646 2.996 5.548
6.719 2.364 5.444
6.623 1.875 5.465
4.965 9.211 5.201
5.179 8.494 5.200
6.434 2.967 5.265
6.320 2.197 5.251
3.431 8.444 1.751
3.689 7.960 2.080
4.856 2.632 1.955
4.919 1.781 1.925
2.932 8.967 1.362
2.959 8.742 1.424
3.409 8.122 1.623
3.315 7.580 1.465
4.390 2.938 1.738
4.453 2.457 1.604
4.401 1.975 1.496
4.656 1.234 1.565
2.702 9.777 0.916
2.767 9.198 1.004
2.902 8.578 1.141
3.026 7.925 0.942
3.170 7.334 0.871
2.924 6.924 0.984
3.851 3.462 1.255
3.787 2.699 1.018
4.170 2.410 0.957
4.063 1.788 1.136
4.190 1.256 1.264
2.437 9.418 0.404
2.260 9.076 0.733
2.333 8.518 0.347
2.654 7.961 0.712
2.769 7.342 0.443
2.835 6.584 0.791
3.372 3.315 0.781
3.571 2.909 0.629
3.754 2.400 0.628
3.899 1.813 0.887
4.011 0.911 0.878
2.068 8.795 0.167
2.003 8.367 -0.013
2.148 7.721 0.019
2.431 7.308 0.030
3.413 2.634 0.169
3.632 2.297 -0.005
3.695 1.664 0.199
3.517 1.238 0.337
6.817 9.281 6.970
7.074 8.889 6.846
8.233 3.277 7.149
8.653 2.978 7.364
6.655 10.163 6.760
6.667 9.605 6.595
7.008 8.911 6.754
6.757 8.483 6.670
7.681 3.833 6.721
7.887 3.356 6.497
8.281 2.703 6.655
8.262 2.114 6.623
6.194 10.639 6.094
6.258 9.952 6.216
6.438 9.143 6.210
6.415 8.776 6.037
6.453 8.033 6.115
6.584 7.745 6.312
7.413 4.179 6.378
7.773 3.655 6.281
7.822 3.188 6.205
7.630 2.694 6.279
8.081 2.018 6.276
5.747 10.255 5.539
5.877 9.979 5.651
5.895 9.391 5.802
5.986 8.635 5.861
6.360 8.144 5.570
6.213 7.363 5.768
7.125 4.279 5.880
7.175 3.605 5.860
7.440 3.099 5.566
7.621 2.364 5.585
7.734 2.156 5.895
5.445 9.601 5.220
5.550 9.313 4.992
6.024 8.541 5.342
5.895 8.145 4.977
7.019 3.460 5.206
6.979 3.245 5.253
7.221 2.648 5.103
7.376 2.031 5.187
5.594 9.179 4.797
5.576 8.487 4.787
6.737 2.885 4.909
6.895 2.381 4.781
4.326 0.577 1.052
3.906 0.742 0.751
7.830 1.407 6.452
7.652 1.638 6.013
4.981 0.676 1.055
4.544 0.485 0.506
8.507 1.723 5.775
8.256 1.734 5.256
5.799 0.857 0.816
5.362 0.926 0.308
5.483 0.407 0.670
5.006 0.686 0.121
