3.904 11.725 12.158
3.613 12.381 11.831
4.692 10.326 12.574
4.389 10.801 12.384
4.879 11.010 12.260
4.697 11.574 12.157
4.388 11.965 11.887
4.214 12.535 11.846
5.505 9.883 12.508
5.245 10.522 12.471
4.908 11.052 12.206
5.486 11.274 12.196
5.226 11.733 12.017
4.916 12.318 11.880
5.978 10.235 12.496
5.793 10.688 12.352
5.424 11.135 12.175
5.432 12.537 11.638
6.791 9.835 12.504
6.589 10.475 12.241
7.570 9.657 12.538
7.248 10.064 12.247
8.305 9.262 12.567
8.186 9.769 12.380
7.783 10.242 12.111
9.174 8.964 12.562
8.950 9.426 12.291
8.650 10.058 12.116
8.368 10.499 11.972
9.937 8.751 12.459
9.723 9.227 12.293
9.528 9.711 12.290
9.270 10.173 11.990
8.901 10.828 11.927
10.520 8.937 12.453
10.299 9.448 12.320
10.010 9.883 12.089
9.811 10.505 11.887
9.541 11.049 11.814
9.300 11.557 11.656
11.054 9.085 12.274
10.800 9.696 12.149
10.613 10.239 11.944
10.194 10.756 11.788
10.026 11.250 11.558
9.846 11.700 11.396
9.536 12.329 11.252
11.550 9.313 12.104
11.331 9.962 11.961
11.116 10.429 11.833
10.772 10.845 11.630
10.595 11.471 11.559
10.353 11.998 11.368
10.099 12.519 11.092
12.147 9.534 11.926
11.896 10.038 11.770
11.674 10.657 11.691
11.436 11.121 11.539
11.134 11.728 11.427
10.851 12.131 11.238
12.379 10.355 11.769
12.175 10.881 11.477
11.945 11.283 11.377
11.593 11.882 11.130
11.357 12.457 11.093
0.622 11.673 12.481
0.373 12.157 12.363
0.847 10.968 12.097
0.662 11.442 11.963
0.391 12.124 11.759
0.099 12.620 11.590
1.479 11.234 11.856
1.232 11.824 11.829
0.927 12.337 11.618
2.233 10.925 11.981
1.921 11.432 11.734
1.713 11.989 11.626
1.511 12.432 11.420
3.223 8.861 12.588
3.275 10.042 12.177
2.987 10.632 11.925
2.716 11.128 11.859
2.473 11.702 11.642
2.265 12.248 11.540
3.867 9.003 12.494
3.544 9.526 12.297
3.335 10.164 12.118
3.795 10.288 12.012
3.579 10.852 11.759
3.297 11.463 11.593
3.062 11.939 11.503
2.875 12.490 11.392
4.598 8.860 12.473
4.401 9.234 12.220
4.103 9.742 12.126
3.812 10.260 12.011
4.321 10.617 11.769
4.147 11.076 11.752
3.882 11.605 11.484
3.573 12.139 11.270
5.422 8.456 12.393
5.090 9.092 12.358
4.824 9.602 12.121
4.585 10.041 12.069
4.335 10.489 11.788
4.822 10.746 11.713
4.624 11.280 11.488
4.325 11.839 11.321
4.138 12.262 11.295
6.169 8.194 12.428
5.855 8.749 12.359
5.703 9.164 12.173
5.364 9.801 11.990
5.183 10.302 11.763
4.876 10.836 11.723
5.435 10.953 11.602
5.245 11.611 11.376
4.948 12.106 11.263
4.715 12.553 11.103
6.927 7.826 12.553
6.772 8.356 12.339
6.382 8.985 12.124
6.172 9.468 11.994
6.005 10.034 11.784
5.743 10.501 11.747
5.472 11.033 11.482
5.740 11.811 11.323
5.393 12.293 11.061
7.714 7.552 12.471
7.470 8.154 12.416
7.161 8.578 12.164
7.029 9.183 12.066
6.727 9.654 11.929
6.394 10.202 11.727
6.271 10.690 11.565
8.250 7.781 12.378
8.030 8.387 12.294
7.852 8.934 12.000
7.501 9.313 11.864
7.207 9.983 11.797
8.779 8.067 12.269
8.611 8.534 12.104
8.329 9.075 11.975
8.148 9.676 11.857
7.818 10.178 11.587
9.327 8.190 12.099
9.118 8.775 11.924
8.935 9.386 11.718
8.680 9.754 11.600
8.271 10.420 11.429
9.890 8.473 11.891
9.728 9.021 11.747
9.466 9.541 11.737
9.121 10.084 11.414
8.947 10.625 11.289
10.405 8.749 11.888
10.156 9.265 11.599
9.940 9.705 11.523
9.693 10.199 11.362
9.493 10.799 11.158
9.103 11.324 10.988
8.833 11.820 10.870
10.961 8.905 11.612
10.756 9.523 11.493
10.490 9.905 11.361
10.157 10.431 11.227
9.974 10.950 11.118
9.690 11.564 10.842
9.423 11.971 10.781
11.584 9.173 11.579
11.351 9.724 11.396
10.992 10.137 11.269
10.733 10.783 11.171
10.579 11.221 10.906
10.197 11.824 10.722
10.064 12.264 10.703
12.083 9.399 11.488
11.871 9.974 11.196
11.534 10.361 11.122
11.346 10.885 10.920
11.082 11.393 10.803
10.778 11.924 10.698
10.587 12.443 10.412
12.326 10.132 11.169
12.095 10.700 11.046
11.788 11.111 10.762
11.539 11.628 10.712
11.320 12.122 10.498
0.154 10.100 12.551
0.337 10.706 12.197
0.098 11.252 12.104
0.855 11.035 12.035
0.571 11.517 11.826
0.307 12.022 11.674
0.118 12.482 11.566
0.525 11.358 11.235
0.256 11.860 11.172
0.088 12.375 10.970
1.296 10.987 11.313
1.117 11.538 11.249
0.853 12.119 11.060
3.187 7.317 12.362
2.864 7.904 12.253
1.914 11.236 11.233
1.651 11.750 11.000
1.467 12.361 10.819
3.923 7.137 12.502
3.661 7.687 12.379
3.509 8.210 12.208
3.031 10.356 11.384
2.689 10.994 11.256
2.452 11.495 11.087
2.202 11.922 10.926
1.953 12.431 10.788
4.801 6.849 12.522
4.513 7.248 12.249
4.221 7.815 12.215
3.985 8.343 12.059
3.704 8.848 11.810
3.536 9.346 11.645
3.761 10.131 11.323
3.578 10.718 11.192
3.185 11.111 11.161
2.953 11.614 11.011
2.695 12.178 10.733
5.546 6.557 12.547
5.301 7.094 12.294
5.088 7.597 12.116
4.808 8.036 11.982
4.510 8.633 11.827
4.229 9.190 11.671
3.967 9.682 11.631
3.693 10.109 11.438
4.211 10.338 11.187
4.052 10.896 11.104
3.816 11.410 10.900
3.553 11.854 10.762
3.191 12.474 10.590
6.156 6.650 12.417
5.903 7.300 12.158
5.561 7.792 12.118
5.381 8.312 11.808
5.141 8.835 11.704
4.875 9.366 11.547
4.499 9.791 11.369
4.281 10.325 11.255
4.825 10.510 11.149
4.610 11.021 11.014
4.387 11.546 10.747
4.147 12.071 10.640
6.697 6.988 12.229
6.285 7.535 12.002
6.077 7.981 11.921
5.914 8.532 11.673
5.673 9.086 11.556
5.403 9.584 11.423
5.069 10.122 11.337
4.896 10.607 11.081
5.348 10.762 10.981
5.087 11.332 10.849
4.931 11.873 10.612
4.548 12.374 10.449
7.116 7.160 12.026
6.815 7.678 11.895
6.605 8.188 11.741
6.443 8.773 11.687
6.154 9.336 11.461
5.947 9.810 11.250
5.663 10.235 11.132
5.447 10.856 10.921
5.469 12.117 10.517
7.761 7.470 11.929
7.418 7.980 11.751
7.239 8.389 11.696
6.913 9.001 11.560
6.737 9.531 11.358
6.332 9.989 11.087
8.247 7.585 11.758
8.059 8.209 11.714
7.802 8.657 11.431
7.383 9.270 11.427
7.198 9.764 11.174
8.792 7.919 11.607
8.547 8.299 11.544
8.236 8.893 11.295
7.963 9.387 11.219
9.293 8.038 11.574
9.050 8.515 11.405
8.727 9.090 11.273
8.600 9.549 11.112
9.806 8.259 11.424
9.648 8.815 11.178
9.333 9.287 11.149
9.134 9.774 10.900
8.850 10.389 10.829
10.436 8.504 11.317
10.081 8.988 11.120
9.825 9.583 10.986
9.665 10.103 10.776
9.406 10.667 10.653
9.159 11.047 10.504
9.089 12.452 10.088
10.953 8.770 11.106
10.647 9.192 10.922
10.412 9.748 10.754
10.190 10.357 10.732
9.834 10.895 10.492
9.578 11.338 10.310
9.397 11.932 10.261
9.102 12.351 10.083
11.491 8.887 11.075
11.259 9.553 10.915
11.027 9.928 10.668
10.674 10.504 10.466
10.382 11.086 10.417
10.197 11.530 10.135
9.898 12.123 10.128
11.961 9.177 10.863
11.754 9.694 10.676
11.573 10.271 10.557
11.248 10.706 10.389
11.047 11.337 10.207
10.661 11.812 10.029
10.433 12.347 9.957
12.609 9.390 10.752
12.256 9.881 10.617
12.103 10.496 10.356
11.722 10.905 10.251
11.575 11.475 10.058
11.260 12.079 10.012
11.005 12.507 9.861
0.240 7.985 12.580
0.358 10.639 11.585
0.016 11.080 11.448
1.767 7.449 12.615
0.511 11.383 11.328
0.258 11.893 11.242
0.092 12.318 10.945
0.318 11.623 10.626
-0.048 12.133 10.362
3.022 5.977 12.355
2.896 6.421 12.173
1.067 11.329 10.593
0.817 11.813 10.536
0.627 12.375 10.278
3.671 6.185 12.199
3.286 6.689 12.115
3.076 7.144 11.921
1.793 11.010 10.730
1.626 11.577 10.424
1.412 12.148 10.306
4.430 5.922 12.250
4.191 6.450 12.005
3.959 6.820 11.885
3.720 7.486 11.726
3.436 8.028 11.628
2.666 10.685 10.738
2.453 11.275 10.525
2.139 11.744 10.376
1.901 12.284 10.167
4.918 6.031 12.144
4.723 6.637 11.918
4.368 7.099 11.833
4.116 7.602 11.655
3.916 8.148 11.531
3.658 8.664 11.355
3.378 10.380 10.659
3.117 10.985 10.448
2.994 11.448 10.423
2.717 12.016 10.188
2.475 12.586 10.091
5.471 6.245 11.938
5.258 6.899 11.711
4.971 7.371 11.551
4.794 7.896 11.510
4.456 8.379 11.308
4.277 8.944 11.121
4.012 9.463 10.937
4.290 10.220 10.636
3.948 10.760 10.527
3.763 11.161 10.372
3.414 11.664 10.181
3.151 12.321 10.115
5.996 6.489 11.841
5.745 7.045 11.608
5.588 7.543 11.502
5.317 8.079 11.314
5.066 8.563 11.142
4.747 9.126 11.032
4.507 9.680 10.798
4.258 10.234 10.760
4.856 10.462 10.512
4.523 10.875 10.461
4.182 11.421 10.263
3.996 11.895 10.030
3.680 12.412 9.943
6.538 6.807 11.684
6.256 7.286 11.456
6.072 7.770 11.408
5.816 8.252 11.263
5.462 8.851 11.076
5.276 9.293 10.877
5.059 9.811 10.646
4.686 10.356 10.577
4.888 11.594 10.110
4.619 12.206 9.940
7.053 6.953 11.521
6.789 7.454 11.442
6.521 7.995 11.129
6.360 8.526 11.122
6.101 8.971 10.875
5.824 9.533 10.721
5.086 12.456 9.764
7.713 7.128 11.331
7.332 7.650 11.190
7.073 8.267 11.094
6.916 8.742 10.966
6.533 9.347 10.772
8.253 7.459 11.321
7.900 7.918 11.094
7.607 8.530 10.927
7.424 9.022 10.857
8.438 8.096 10.997
8.241 8.643 10.732
8.994 8.391 10.841
8.705 8.936 10.606
9.742 8.161 10.850
9.503 8.592 10.745
9.250 9.151 10.586
9.052 9.590 10.326
10.348 8.321 10.663
10.052 8.897 10.619
9.758 9.347 10.436
9.542 9.917 10.275
9.258 10.412 10.091
10.913 8.553 10.585
10.676 9.031 10.494
10.281 9.539 10.176
10.019 10.135 10.096
9.878 10.643 9.937
9.520 11.125 9.759
9.636 12.367 9.257
11.454 8.767 10.359
11.164 9.335 10.352
10.944 9.887 10.090
10.567 10.335 10.045
10.380 10.869 9.774
10.093 11.422 9.702
9.801 11.963 9.431
9.530 12.458 9.353
11.896 8.906 10.384
11.616 9.531 10.156
11.364 10.043 10.046
11.168 10.562 9.841
10.876 11.092 9.640
10.582 11.631 9.468
10.489 12.076 9.310
12.557 9.145 10.153
12.181 9.752 10.018
12.050 10.199 9.857
11.713 10.788 9.676
11.458 11.294 9.482
11.191 11.758 9.449
10.935 12.400 9.205
0.893 6.350 12.454
0.767 6.893 12.299
0.431 7.353 12.033
1.776 5.934 12.364
1.533 6.557 12.338
1.280 7.057 12.178
2.477 5.697 12.460
2.300 6.242 12.235
2.053 6.708 12.099
0.315 11.689 10.674
0.077 12.230 10.446
3.153 6.021 12.400
2.824 6.431 12.234
1.338 11.880 9.803
0.971 12.391 9.692
4.090 6.190 11.458
3.896 6.645 11.334
2.262 11.122 9.961
2.021 11.533 9.749
1.797 12.106 9.683
4.943 5.918 11.597
4.678 6.330 11.436
4.426 6.892 11.285
4.088 7.487 11.092
3.801 7.904 10.924
2.957 11.353 9.727
2.667 11.767 9.659
2.302 12.408 9.500
5.337 6.195 11.409
5.193 6.614 11.260
4.941 7.196 11.082
4.732 7.734 10.876
4.348 8.209 10.699
3.592 10.973 9.755
3.346 11.507 9.681
3.219 11.971 9.563
2.885 12.546 9.344
5.930 6.328 11.268
5.717 6.834 11.171
5.429 7.345 10.849
5.133 7.859 10.825
5.011 8.420 10.604
4.643 8.923 10.371
4.243 11.259 9.668
3.932 11.659 9.582
3.772 12.283 9.381
6.517 6.487 11.160
6.243 7.037 11.023
6.024 7.595 10.785
5.784 8.078 10.596
5.545 8.607 10.483
5.183 9.081 10.349
4.412 11.924 9.323
4.268 12.527 9.192
6.947 6.869 10.931
6.836 7.275 10.732
6.467 7.828 10.696
6.307 8.316 10.476
5.932 8.793 10.297
7.392 7.485 10.718
7.104 7.973 10.471
6.873 8.641 10.445
9.932 8.625 10.008
9.678 9.082 9.895
9.503 9.694 9.693
10.878 8.414 10.002
10.552 8.889 9.845
10.331 9.360 9.722
10.070 9.839 9.525
9.726 10.371 9.384
11.274 8.621 9.881
11.136 9.083 9.723
10.833 9.627 9.479
10.635 10.039 9.453
10.344 10.676 9.293
10.101 11.237 9.173
11.799 8.851 9.807
11.544 9.391 9.557
11.391 9.772 9.487
11.111 10.292 9.300
10.808 10.912 9.049
10.621 11.346 9.023
12.473 9.054 9.662
12.220 9.457 9.406
11.934 10.062 9.354
11.720 10.541 9.067
11.438 11.106 8.969
1.637 4.584 12.349
1.435 5.039 12.255
1.132 5.564 12.036
0.968 6.128 11.797
0.669 6.657 11.656
1.943 5.355 12.003
1.618 5.777 11.868
1.954 11.459 9.306
1.827 11.880 9.018
1.449 12.474 8.953
4.483 6.193 10.725
4.385 6.722 10.590
4.117 7.167 10.479
2.860 11.082 9.177
2.499 11.682 9.157
2.374 12.152 8.996
5.383 5.993 10.820
5.159 6.372 10.707
4.887 6.902 10.470
4.543 7.472 10.371
4.406 7.906 10.127
3.404 11.361 9.156
3.051 11.770 8.961
2.765 12.322 8.720
5.981 6.222 10.607
5.614 6.592 10.526
5.444 7.135 10.423
5.095 7.748 10.224
4.915 8.224 10.086
3.912 11.628 9.003
3.713 12.116 8.830
6.441 6.368 10.510
6.211 6.815 10.386
5.861 7.346 10.284
5.595 7.901 10.064
5.499 8.485 9.902
4.237 12.257 8.604
6.979 6.587 10.443
6.768 7.121 10.222
6.407 7.565 10.117
6.249 8.211 10.000
7.031 7.839 9.882
9.636 9.001 9.251
10.775 8.195 9.395
10.548 8.583 9.236
10.270 9.230 9.078
9.905 9.644 8.910
11.235 8.384 9.398
11.073 8.945 9.112
10.725 9.343 9.074
10.598 9.986 8.910
10.263 10.410 8.745
11.855 8.666 9.262
11.516 9.129 9.016
11.297 9.628 8.812
11.024 10.147 8.662
10.795 10.593 8.487
12.369 8.828 9.090
12.170 9.299 8.898
11.838 9.875 8.711
11.674 10.341 8.569
11.326 10.900 8.404
1.297 4.815 11.653
1.026 5.353 11.539
0.746 5.846 11.353
7.128 0.787 11.791
6.803 1.385 11.685
7.847 0.463 11.890
7.543 1.077 11.656
7.306 1.560 11.546
7.061 2.153 11.346
8.629 0.312 11.830
8.309 0.784 11.772
8.139 1.309 11.622
7.806 1.856 11.339
7.627 2.322 11.256
9.209 0.394 11.751
8.944 0.967 11.535
8.610 1.582 11.420
8.500 1.999 11.277
8.226 2.554 11.069
9.536 1.195 11.400
9.172 1.717 11.176
8.882 2.303 11.028
3.584 0.034 12.445
7.280 0.097 11.400
6.978 0.652 11.183
6.750 1.067 11.048
7.750 0.420 11.342
7.474 0.823 11.170
7.302 1.285 10.888
6.955 1.925 10.768
8.497 0.114 11.351
8.308 0.519 11.197
8.006 1.027 11.052
7.811 1.535 10.898
7.606 2.112 10.638
7.296 2.641 10.438
5.967 5.267 9.674
9.119 0.348 11.136
8.868 0.857 10.968
8.605 1.368 10.884
8.355 1.888 10.758
8.077 2.365 10.452
9.450 1.049 10.843
9.106 1.507 10.782
8.812 1.987 10.626
8.616 2.519 10.427
9.708 1.802 10.499
12.363 2.863 9.882
12.435 4.156 9.379
11.882 7.596 8.230
6.440 0.156 10.782
6.186 0.710 10.670
6.930 0.407 10.633
6.711 0.885 10.503
6.371 1.510 10.335
7.767 0.210 10.677
7.433 0.580 10.465
7.297 1.093 10.434
6.894 1.738 10.219
6.711 2.212 10.041
5.359 4.773 9.239
8.206 0.442 10.545
7.926 0.949 10.486
7.830 1.413 10.311
7.466 1.924 10.085
7.214 2.391 9.937
5.887 5.066 9.216
8.988 0.090 10.506
8.762 0.625 10.490
8.613 1.130 10.210
8.360 1.615 10.179
7.959 2.201 9.926
7.872 2.728 9.759
6.435 5.166 9.036
9.514 0.244 10.423
9.395 0.772 10.333
9.068 1.330 10.070
8.753 1.836 10.014
8.496 2.301 9.818
9.882 1.045 10.179
9.681 1.555 9.933
9.374 2.132 9.927
12.291 2.658 9.371
12.079 3.256 9.119
12.364 3.905 8.805
11.366 7.234 7.822
11.812 7.403 7.582
12.357 7.621 7.497
3.197 0.113 11.278
5.010 0.140 10.439
5.501 0.365 10.205
6.369 0.061 10.264
6.133 0.493 10.139
5.769 1.025 9.918
6.902 0.315 10.158
6.642 0.797 9.897
6.429 1.352 9.788
6.067 1.865 9.615
4.872 4.457 8.816
7.449 0.386 10.033
7.231 0.957 9.771
6.911 1.543 9.647
6.640 2.051 9.583
6.421 2.546 9.338
5.699 4.127 8.837
5.441 4.630 8.732
8.249 0.084 9.938
7.886 0.675 9.766
7.694 1.240 9.644
7.363 1.712 9.476
7.243 2.304 9.317
6.863 2.825 9.226
6.692 3.184 9.106
6.377 3.813 8.991
6.103 4.259 8.758
5.983 4.886 8.622
8.719 0.457 9.796
8.542 0.849 9.795
8.241 1.425 9.496
7.911 1.862 9.460
7.811 2.476 9.209
7.455 2.972 9.085
7.199 3.571 8.915
6.934 4.016 8.803
6.778 4.474 8.533
6.504 5.070 8.408
9.469 0.000 9.815
9.264 0.589 9.760
9.039 1.181 9.636
8.815 1.679 9.477
8.479 2.106 9.347
8.309 2.662 9.189
8.036 3.272 8.985
7.302 4.785 8.536
7.068 5.310 8.333
10.033 0.380 9.757
9.865 0.807 9.609
9.645 1.394 9.501
9.299 1.858 9.299
9.025 2.298 9.054
8.867 2.940 8.988
7.446 5.482 8.251
10.434 1.118 9.465
10.135 1.633 9.306
9.872 2.077 9.225
9.661 2.664 9.026
10.609 1.741 9.112
10.356 2.310 9.083
11.192 1.968 9.006
10.980 2.539 8.847
12.060 1.732 9.122
11.749 2.285 8.960
11.483 2.725 8.790
11.225 3.355 8.591
12.574 2.008 8.958
12.335 2.414 8.686
12.007 2.938 8.578
11.740 3.454 8.391
11.551 4.039 8.243
10.254 6.559 7.429
12.544 3.126 8.533
12.333 3.737 8.358
11.953 4.236 8.212
11.746 4.674 7.973
10.952 6.231 7.540
10.759 6.893 7.289
12.263 5.048 7.862
12.069 5.535 7.692
11.838 6.001 7.539
11.479 6.614 7.372
11.371 7.128 7.204
12.322 6.311 7.425
12.109 6.719 7.260
11.854 7.310 7.142
12.395 7.545 7.018
2.935 0.522 10.427
1.531 3.041 9.688
3.654 0.149 10.429
4.924 0.151 10.425
4.754 0.367 9.691
5.503 0.132 9.707
5.186 0.584 9.464
5.965 0.264 9.557
5.826 0.840 9.336
5.495 1.450 9.165
4.286 3.896 8.503
6.865 0.029 9.623
6.632 0.607 9.451
6.351 1.011 9.172
6.118 1.506 9.117
5.795 2.045 9.004
5.036 3.726 8.408
4.716 4.188 8.250
7.359 0.295 9.354
7.173 0.757 9.241
6.820 1.375 9.104
6.506 1.722 8.873
6.393 2.339 8.724
6.024 2.903 8.600
5.858 3.314 8.571
5.485 3.827 8.395
5.231 4.337 8.191
7.913 0.455 9.327
7.562 0.978 9.099
7.329 1.497 8.952
7.051 1.982 8.872
6.794 2.551 8.666
6.587 3.126 8.493
6.338 3.600 8.409
6.152 4.121 8.220
5.853 4.623 8.080
8.771 0.106 9.328
8.461 0.731 9.168
8.261 1.247 8.926
7.839 1.803 8.926
7.705 2.265 8.671
7.330 2.723 8.503
7.232 3.238 8.335
6.980 3.897 8.237
6.692 4.246 8.027
6.417 4.789 7.917
9.152 0.419 9.202
8.901 0.938 8.990
8.774 1.521 8.782
8.508 1.930 8.711
8.238 2.477 8.520
7.918 2.967 8.403
7.757 3.464 8.184
7.389 4.065 8.123
7.241 4.504 7.871
6.852 5.114 7.710
10.044 0.048 9.137
9.832 0.562 9.062
9.541 1.133 8.937
9.182 1.652 8.779
9.076 2.096 8.553
8.820 2.695 8.383
7.503 5.211 7.655
10.499 0.337 9.126
10.288 0.883 8.933
10.021 1.435 8.766
9.820 1.944 8.597
9.602 2.442 8.443
10.764 0.997 8.744
10.542 1.618 8.567
10.401 2.149 8.440
10.005 2.565 8.335
11.328 1.267 8.710
11.182 1.890 8.419
10.939 2.369 8.279
10.614 2.929 8.108
12.223 1.088 8.646
11.831 1.544 8.522
11.744 1.988 8.395
11.472 2.633 8.211
11.116 3.114 7.960
12.441 1.731 8.395
12.210 2.186 8.257
11.922 2.791 8.017
11.715 3.353 7.821
11.468 3.903 7.706
10.160 6.407 6.924
12.539 2.959 7.874
12.238 3.459 7.764
11.917 4.051 7.591
11.724 4.552 7.372
11.401 5.119 7.213
11.293 5.533 7.125
11.007 6.132 7.025
10.622 6.578 6.739
12.529 4.234 7.393
12.340 4.722 7.327
11.963 5.307 7.082
11.789 5.738 6.900
11.535 6.402 6.838
11.178 6.918 6.603
12.543 5.534 6.955
12.261 5.984 6.911
11.959 6.594 6.691
11.774 7.134 6.607
12.495 6.771 6.621
12.236 7.270 6.348
2.798 0.318 9.832
2.600 0.837 9.839
1.843 2.325 9.248
1.514 2.912 9.206
3.425 0.430 9.763
2.014 3.073 8.985
4.132 0.261 9.828
4.613 0.315 9.596
4.575 0.128 9.110
5.217 0.422 8.961
4.986 0.973 8.843
3.698 3.458 8.065
5.995 0.083 8.975
5.675 0.705 8.756
5.391 1.151 8.661
4.102 3.754 7.874
6.424 0.297 8.814
6.160 0.808 8.672
5.990 1.473 8.487
5.703 1.967 8.397
5.441 2.474 8.143
5.286 2.923 8.097
4.933 3.403 7.833
4.646 4.063 7.707
7.212 0.055 8.880
7.057 0.541 8.728
6.719 1.006 8.622
6.511 1.696 8.349
6.264 2.066 8.245
6.100 2.710 8.057
5.782 3.201 7.852
5.461 3.754 7.774
5.240 4.210 7.540
7.833 0.333 8.812
7.493 0.878 8.643
7.347 1.288 8.438
7.004 1.763 8.176
6.882 2.406 8.054
6.534 2.829 7.890
6.281 3.322 7.714
5.964 3.868 7.701
5.778 4.343 7.517
8.353 0.466 8.556
8.079 0.943 8.519
7.875 1.527 8.241
7.664 2.082 8.106
7.329 2.562 7.945
7.142 3.044 7.841
6.854 3.673 7.667
6.627 4.071 7.433
6.387 4.563 7.366
9.182 0.152 8.679
8.825 0.769 8.422
8.652 1.230 8.289
8.424 1.766 8.207
8.195 2.255 8.053
7.900 2.785 7.792
7.618 3.254 7.599
7.364 3.900 7.548
7.133 4.369 7.304
6.785 4.915 7.160
9.714 0.415 8.471
9.394 0.936 8.271
9.272 1.543 8.107
8.993 1.992 7.956
8.675 2.510 7.826
8.369 3.100 7.652
7.731 4.597 7.280
7.323 5.160 7.028
10.544 0.126 8.551
10.217 0.590 8.271
9.971 1.242 8.150
9.727 1.698 7.942
9.511 2.208 7.929
9.220 2.795 7.733
8.004 5.297 6.898
11.046 0.276 8.355
10.793 0.885 8.207
10.476 1.379 8.078
10.241 1.933 7.865
10.039 2.353 7.728
11.629 0.644 8.187
11.254 1.160 8.002
11.020 1.542 7.884
10.755 2.087 7.723
10.588 2.737 7.646
12.175 0.774 8.056
11.800 1.349 7.845
11.524 1.761 7.775
11.320 2.374 7.564
11.112 2.820 7.439
10.910 3.402 7.323
9.500 5.958 6.599
12.461 1.467 7.876
12.175 1.983 7.623
11.937 2.512 7.511
11.583 3.142 7.266
11.380 3.659 7.113
11.168 4.115 6.998
10.336 5.637 6.530
10.179 6.212 6.326
12.353 2.875 7.258
12.088 3.380 7.151
11.880 3.904 7.072
11.638 4.320 6.877
11.381 4.845 6.629
11.118 5.457 6.568
10.950 5.940 6.381
10.560 6.494 6.169
12.406 4.023 6.906
12.224 4.595 6.751
11.876 5.146 6.525
11.626 5.541 6.344
11.401 6.052 6.269
11.089 6.638 6.157
12.494 5.269 6.458
12.161 5.839 6.243
11.957 6.424 6.148
11.694 6.958 5.899
12.476 6.670 6.001
12.226 7.045 5.781
2.699 0.127 9.371
2.486 0.651 9.256
2.321 1.040 9.122
1.970 1.661 8.813
1.685 2.036 8.731
1.480 2.574 8.653
3.242 0.329 9.276
2.085 2.832 8.492
3.876 0.458 9.015
2.539 3.088 8.378
4.691 0.194 9.063
5.183 0.222 8.381
5.607 0.371 8.310
5.424 0.911 8.119
4.034 3.624 7.309
6.359 0.231 8.344
6.162 0.664 8.072
5.857 1.136 7.985
5.704 1.751 7.853
5.373 2.265 7.600
5.202 2.810 7.507
4.891 3.236 7.268
4.586 3.751 7.256
6.985 0.314 8.200
6.766 0.822 8.042
6.439 1.415 7.750
6.283 2.000 7.606
5.979 2.443 7.509
5.754 2.999 7.410
5.523 3.563 7.278
5.229 3.977 7.090
7.798 0.128 8.247
7.437 0.632 8.019
7.259 1.063 7.925
7.029 1.665 7.618
6.714 2.206 7.622
6.422 2.735 7.432
6.158 3.169 7.297
5.914 3.786 6.984
5.726 4.222 6.900
8.314 0.310 8.047
8.091 0.905 7.837
7.799 1.258 7.704
7.576 1.808 7.492
7.353 2.364 7.437
7.092 2.942 7.221
6.736 3.362 7.007
6.521 3.890 6.858
6.202 4.458 6.715
9.025 -0.050 8.012
8.897 0.575 7.908
8.635 1.007 7.739
8.351 1.594 7.553
8.011 2.026 7.355
7.817 2.671 7.222
7.575 3.065 7.146
7.339 3.708 6.886
7.051 4.156 6.794
6.774 4.672 6.694
9.587 0.207 7.867
9.465 0.713 7.815
9.169 1.351 7.539
8.808 1.840 7.478
8.608 2.384 7.227
8.430 2.808 7.180
7.647 4.329 6.698
7.331 4.892 6.588
10.167 0.512 7.782
9.848 0.996 7.695
9.723 1.412 7.406
9.372 1.958 7.345
9.112 2.505 7.236
7.938 5.116 6.363
10.991 0.152 7.771
10.732 0.735 7.728
10.518 1.193 7.427
10.173 1.799 7.252
10.020 2.148 7.152
11.582 0.467 7.599
11.215 0.901 7.482
10.984 1.350 7.313
10.710 1.869 7.245
10.559 2.430 7.087
11.996 0.639 7.543
11.822 1.162 7.322
11.481 1.725 7.189
11.355 2.227 6.996
10.968 2.741 6.942
10.751 3.161 6.721
9.419 5.705 5.944
12.370 1.296 7.244
12.163 1.905 7.115
11.828 2.403 6.968
11.484 2.873 6.778
11.352 3.396 6.555
10.975 3.850 6.509
10.230 5.411 5.994
10.029 5.926 5.782
12.398 2.569 6.818
12.148 3.209 6.621
11.812 3.629 6.389
11.659 4.182 6.242
11.345 4.719 6.166
11.145 5.244 5.961
10.880 5.728 5.806
10.533 6.265 5.654
12.406 3.846 6.268
12.170 4.448 6.099
11.877 4.909 5.958
11.667 5.455 5.899
11.424 5.945 5.690
11.109 6.394 5.620
12.355 5.148 5.794
12.195 5.647 5.808
11.921 6.184 5.622
11.572 6.624 5.404
12.446 6.345 5.483
12.268 6.871 5.281
2.403 0.369 8.550
2.142 0.822 8.485
1.921 1.383 8.239
1.727 1.978 8.086
1.460 2.406 8.066
3.242 0.069 8.729
2.003 2.682 7.846
5.137 -0.047 7.832
5.625 0.182 7.622
6.048 0.495 7.541
5.944 1.011 7.410
5.578 1.479 7.248
4.837 3.107 6.766
4.577 3.638 6.544
6.932 0.163 7.602
6.714 0.732 7.511
6.477 1.151 7.328
6.094 1.675 7.203
5.836 2.217 6.997
5.671 2.690 6.795
5.427 3.320 6.648
5.125 3.720 6.510
7.408 0.333 7.480
7.211 0.891 7.314
6.924 1.438 7.095
6.731 1.879 7.049
6.439 2.463 6.814
6.229 3.018 6.694
5.938 3.468 6.495
5.678 4.045 6.322
8.275 0.039 7.503
8.021 0.625 7.305
7.782 1.172 7.113
7.429 1.579 6.991
7.240 2.201 6.833
7.023 2.650 6.685
6.651 3.160 6.587
6.425 3.806 6.394
6.280 4.180 6.267
8.702 0.372 7.314
8.583 0.786 7.158
8.286 1.333 6.980
8.001 1.837 6.907
7.724 2.399 6.710
7.053 3.985 6.152
6.713 4.520 6.024
9.565 0.057 7.438
9.366 0.479 7.210
9.021 1.120 7.121
8.898 1.517 6.895
8.633 2.038 6.771
7.244 4.630 5.983
10.168 0.188 7.248
9.903 0.745 7.106
9.536 1.211 6.931
9.439 1.731 6.751
10.717 0.415 7.045
10.437 0.923 6.967
10.210 1.565 6.822
11.167 0.711 6.866
11.018 1.251 6.827
10.607 1.715 6.660
11.943 0.428 7.029
11.767 0.916 6.728
11.411 1.385 6.725
11.195 2.006 6.540
10.951 2.540 6.323
12.502 0.711 6.750
12.236 1.197 6.663
12.036 1.592 6.540
11.825 2.209 6.430
11.428 2.740 6.135
11.233 3.149 6.112
9.970 5.860 5.214
12.555 1.941 6.426
12.232 2.445 6.206
11.994 2.999 6.026
11.818 3.493 5.931
11.616 3.893 5.827
10.839 5.542 5.301
10.578 6.038 5.085
12.309 3.718 5.775
12.029 4.182 5.589
11.817 4.694 5.415
11.642 5.304 5.268
11.251 5.704 5.171
10.974 6.332 5.005
12.433 4.924 5.252
12.086 5.493 5.160
11.842 5.909 5.009
11.610 6.483 4.883
12.448 6.118 4.847
12.135 6.733 4.744
2.359 0.100 8.122
1.596 1.672 7.530
1.450 2.325 7.377
6.094 0.189 6.920
5.881 0.778 6.902
4.537 3.462 6.005
6.528 0.447 6.816
6.327 1.026 6.687
5.018 3.617 5.875
7.424 0.238 6.922
7.086 0.679 6.723
6.819 1.167 6.605
6.678 1.711 6.436
5.932 3.371 5.966
5.535 3.909 5.815
7.902 0.470 6.722
7.693 0.930 6.525
7.485 1.415 6.443
7.234 1.921 6.240
6.463 3.604 5.885
6.072 4.105 5.717
8.714 0.063 6.742
8.561 0.693 6.611
8.272 1.154 6.519
7.905 1.687 6.290
6.737 4.306 5.478
9.181 0.292 6.566
9.009 0.954 6.533
8.755 1.346 6.300
9.734 0.541 6.436
9.562 1.103 6.363
11.399 1.263 6.059
11.211 1.702 6.017
12.386 0.363 6.211
12.246 0.996 6.053
11.872 1.413 5.959
11.753 1.949 5.817
11.530 2.499 5.570
12.544 1.634 5.841
12.265 2.216 5.731
11.900 2.659 5.455
11.648 3.206 5.427
10.459 5.880 4.485
12.519 2.862 5.298
12.188 3.423 5.224
12.091 3.988 5.077
11.267 5.593 4.550
11.080 6.120 4.351
12.608 4.137 4.997
11.790 5.709 4.434
11.486 6.205 4.229
12.142 6.551 4.110
1.283 2.106 6.833
6.082 0.075 6.472
6.626 0.266 6.346
7.020 0.569 6.213
6.860 0.965 5.996
5.618 3.600 5.250
7.829 0.147 6.239
7.590 0.734 6.103
7.298 1.263 5.925
6.125 3.879 5.021
8.496 0.484 6.063
8.235 1.019 5.841
9.171 0.169 6.073
9.010 0.717 5.962
11.860 1.295 5.350
11.717 1.865 5.299
12.466 1.503 5.240
12.224 1.996 5.134
11.902 2.555 4.997
12.444 2.767 4.726
12.291 3.308 4.714
10.877 5.828 3.842
11.481 6.129 3.744
6.491 0.145 5.737
6.959 0.257 5.676
7.764 -0.022 5.697
7.590 0.550 5.511
8.370 0.261 5.549
12.372 1.210 4.620
12.137 1.786 4.616
12.337 2.510 4.164
6.960 0.162 5.082
7.577 0.342 4.835
8.348 0.038 4.872
12.320 1.032 4.100
12.005 1.593 3.893
12.326 2.321 3.615
6.690 0.368 4.408
5.400 3.052 3.594
7.466 0.089 4.302
7.222 0.639 4.214
5.957 3.248 3.420
7.928 0.303 4.290
8.751 0.046 4.255
11.770 0.614 3.788
11.381 1.172 3.578
12.537 0.392 3.724
12.188 0.919 3.493
12.015 1.473 3.423
11.661 1.967 3.341
12.455 1.569 3.279
12.232 2.089 3.073
11.972 2.658 3.008
10.842 5.226 2.179
11.264 5.491 2.069
4.260 2.396 3.269
5.973 0.065 3.827
4.801 2.598 3.039
6.580 0.263 3.718
6.271 0.776 3.583
5.569 2.294 3.160
5.248 2.908 3.013
7.140 0.460 3.682
6.848 0.897 3.473
6.109 2.538 3.067
5.845 3.076 2.773
7.897 0.118 3.624
7.671 0.631 3.429
6.341 3.354 2.784
8.471 0.434 3.580
9.272 0.132 3.473
11.104 0.285 3.293
10.948 0.755 3.060
11.636 0.502 3.112
11.465 1.041 2.982
11.110 1.464 2.805
12.498 0.179 3.242
12.274 0.686 3.077
11.878 1.200 2.842
11.714 1.727 2.662
11.488 2.180 2.555
10.094 4.819 1.686
12.563 1.361 2.690
12.253 1.935 2.638
11.916 2.451 2.394
11.673 2.957 2.301
10.865 4.553 1.734
10.642 5.058 1.607
12.466 2.657 2.340
12.279 3.256 2.108
11.456 4.723 1.617
11.293 5.270 1.472
11.698 5.442 1.368
0.963 1.095 4.025
5.185 0.139 3.316
4.465 1.603 2.923
4.203 2.254 2.718
5.801 0.284 3.125
5.400 0.905 3.101
5.235 1.327 2.791
5.050 1.834 2.675
4.664 2.334 2.597
6.455 0.119 3.181
6.345 0.549 3.054
5.993 1.080 2.891
5.776 1.631 2.820
5.525 2.076 2.510
5.310 2.708 2.486
7.072 0.199 3.129
6.757 0.736 2.879
6.611 1.325 2.836
6.385 1.900 2.625
6.018 2.418 2.437
5.867 2.793 2.307
7.660 0.464 2.958
7.336 1.019 2.785
6.593 2.485 2.239
6.415 3.053 2.155
8.383 0.163 2.959
8.097 0.707 2.754
6.795 3.223 2.033
9.023 0.440 2.876
9.740 0.151 2.895
10.352 0.361 2.764
11.104 -0.022 2.765
10.880 0.527 2.538
10.570 1.046 2.397
11.541 0.318 2.660
11.379 0.719 2.459
11.070 1.243 2.187
10.858 1.794 2.169
9.564 4.461 1.406
12.143 0.479 2.423
11.867 1.016 2.281
11.702 1.534 2.177
11.300 2.123 1.980
11.035 2.546 1.769
10.282 4.152 1.412
10.090 4.577 1.223
12.348 1.215 2.158
12.191 1.706 2.056
11.913 2.197 1.917
11.608 2.708 1.651
11.343 3.277 1.596
11.116 3.738 1.412
10.876 4.282 1.229
10.717 4.790 1.079
12.480 2.416 1.691
12.202 3.013 1.626
11.902 3.613 1.449
11.716 4.020 1.190
11.493 4.651 1.077
11.133 5.107 0.843
12.467 3.675 1.188
12.262 4.203 1.056
12.038 4.733 0.869
11.756 5.388 0.860
1.142 0.294 3.690
1.019 0.813 3.543
3.563 1.796 2.197
4.935 0.360 2.534
4.611 0.996 2.515
4.312 1.502 2.241
4.035 1.903 2.163
5.739 0.216 2.566
5.434 0.688 2.452
5.223 1.247 2.261
4.845 1.774 2.225
4.646 2.178 2.013
6.207 0.371 2.462
5.976 0.823 2.269
5.778 1.372 2.130
5.533 1.996 2.058
5.202 2.381 1.949
7.009 0.030 2.523
6.698 0.604 2.350
6.516 1.164 2.163
6.301 1.628 2.009
5.990 2.079 1.874
5.745 2.705 1.764
7.464 0.332 2.360
7.316 0.853 2.158
6.981 1.355 1.995
6.699 1.817 1.863
6.488 2.280 1.788
6.320 2.961 1.669
8.106 0.453 2.322
7.876 1.016 2.078
7.073 2.662 1.562
6.849 3.074 1.451
8.881 0.141 2.173
8.651 0.769 2.167
7.263 3.407 1.301
9.382 0.355 2.071
10.202 0.197 2.105
9.996 0.660 1.985
10.667 0.401 2.018
10.495 0.916 1.866
10.267 1.377 1.722
9.020 3.904 0.892
11.529 0.034 1.944
11.277 0.643 1.848
11.017 1.185 1.648
10.691 1.655 1.507
10.582 2.164 1.401
9.778 3.776 1.006
9.541 4.247 0.796
12.132 0.222 1.891
11.839 0.831 1.724
11.493 1.341 1.600
11.288 1.844 1.389
11.128 2.415 1.273
10.879 2.963 1.057
10.513 3.355 0.868
10.290 3.918 0.822
10.109 4.453 0.574
12.401 0.960 1.666
12.089 1.494 1.436
11.908 1.987 1.362
11.564 2.570 1.050
11.372 3.113 0.982
11.020 3.595 0.751
10.849 4.069 0.679
10.620 4.617 0.440
12.376 2.245 1.097
12.205 2.887 0.982
11.963 3.299 0.865
11.615 3.762 0.760
11.334 4.355 0.539
11.144 4.867 0.409
12.374 3.611 0.624
12.117 3.995 0.557
11.907 4.587 0.365
11.653 5.060 0.203
1.104 0.176 3.076
0.956 0.668 2.993
1.416 0.792 2.792
2.930 1.366 1.832
3.453 1.557 1.651
4.736 0.197 2.090
4.560 0.717 1.862
4.355 1.326 1.706
4.087 1.825 1.653
5.334 0.467 1.982
5.061 0.893 1.690
4.797 1.549 1.574
4.556 2.090 1.375
6.121 0.096 1.873
5.981 0.688 1.727
5.656 1.170 1.684
5.437 1.760 1.538
5.144 2.152 1.318
6.694 0.352 1.719
6.431 0.857 1.689
6.225 1.395 1.555
5.844 1.876 1.383
5.601 2.380 1.250
7.459 0.102 1.770
7.237 0.651 1.620
7.015 1.153 1.452
6.757 1.720 1.310
6.423 2.156 1.133
6.238 2.679 1.033
7.994 0.363 1.591
7.841 0.872 1.445
6.994 2.441 1.003
6.670 2.943 0.867
8.777 -0.073 1.783
8.513 0.518 1.496
7.311 3.180 0.725
9.415 0.311 1.516
9.857 0.535 1.402
10.683 0.195 1.414
10.493 0.672 1.254
10.247 1.138 1.055
8.937 3.786 0.359
11.151 0.446 1.351
10.988 0.925 1.095
10.725 1.373 0.995
10.537 1.898 0.802
9.781 3.454 0.332
9.493 3.989 0.244
11.950 0.045 1.329
11.765 0.638 1.088
11.449 1.181 0.941
11.176 1.711 0.843
10.923 2.227 0.710
10.662 2.708 0.609
10.404 3.151 0.305
10.191 3.776 0.275
9.936 4.207 0.036
12.597 0.265 1.162
12.279 0.751 1.038
12.077 1.352 0.914
11.758 1.914 0.710
11.589 2.393 0.498
11.342 2.940 0.436
11.104 3.372 0.301
10.759 3.982 0.168
12.327 2.040 0.601
12.149 2.579 0.357
11.782 3.131 0.305
11.524 3.603 0.147
12.429 3.387 0.105
0.878 0.458 2.441
1.408 0.588 2.173
1.977 0.912 2.182
3.447 1.443 1.140
4.216 1.075 1.132
4.072 1.563 0.966
5.301 0.337 1.399
5.004 0.722 1.211
4.792 1.366 1.070
4.612 1.843 0.867
5.862 0.493 1.246
5.650 0.980 1.049
5.310 1.428 0.871
5.029 1.985 0.660
6.704 0.157 1.255
6.393 0.697 1.003
6.086 1.147 0.844
5.842 1.652 0.795
5.556 2.335 0.598
7.190 0.317 1.128
6.891 1.004 0.865
6.589 1.376 0.713
6.439 1.922 0.578
6.168 2.461 0.474
8.049 0.095 1.072
6.772 2.703 0.261
9.248 0.066 1.003
9.859 0.188 0.904
10.398 0.448 0.717
11.125 0.253 0.695
10.944 0.781 0.511
10.723 1.195 0.414
11.758 0.496 0.526
11.478 0.893 0.415
11.171 1.452 0.335
10.875 1.978 0.222
12.410 0.174 0.658
12.174 0.577 0.394
11.991 1.129 0.392
11.772 1.675 0.215
11.412 2.123 -0.039
12.534 1.319 0.141
12.342 1.909 0.071
0.730 0.282 1.806
1.310 0.440 1.762
3.991 1.448 0.376
4.800 1.061 0.389
4.401 1.582 0.381
5.750 0.289 0.576
5.554 0.755 0.555
5.287 1.276 0.358
5.041 1.887 0.206
6.389 0.423 0.550
6.058 1.038 0.370
5.838 1.489 0.151
5.538 1.971 0.023
7.066 0.278 0.492
6.401 1.796 0.018
10.256 0.222 0.230
10.892 0.459 0.063
11.629 0.177 0.053
0.732 0.131 1.203
7.116 0.890 11.783
6.822 1.361 11.666
7.798 0.604 11.788
7.518 1.111 11.666
7.356 1.545 11.560
7.018 2.157 11.398
8.655 0.313 11.831
8.335 0.777 11.619
8.172 1.320 11.587
7.854 1.780 11.377
7.699 2.246 11.295
9.135 0.382 11.652
8.889 0.942 11.533
8.735 1.491 11.368
8.346 1.937 11.216
8.147 2.576 11.072
9.529 1.269 11.429
9.223 1.643 11.223
8.892 2.192 11.041
3.646 0.064 12.541
1.763 11.791 8.568
1.409 12.270 8.418
4.584 5.964 10.251
4.184 6.455 10.077
2.518 11.433 8.447
2.178 11.879 8.384
1.933 12.374 8.219
5.248 5.799 10.317
5.099 6.305 10.044
4.820 6.683 9.974
4.452 7.202 9.705
3.326 11.040 8.604
3.076 11.586 8.439
2.843 12.115 8.282
5.773 5.940 10.048
5.663 6.380 9.929
5.354 7.015 9.728
5.061 7.504 9.633
4.742 8.004 9.552
3.759 11.367 8.354
3.611 11.806 8.312
3.371 12.367 8.101
6.453 6.235 9.898
6.204 6.655 9.892
5.901 7.176 9.621
5.528 7.724 9.496
5.382 8.308 9.343
4.145 12.016 8.117
6.669 6.888 9.723
6.402 7.507 9.519
6.107 7.875 9.419
10.510 8.543 8.793
10.229 9.004 8.521
10.002 9.493 8.364
11.291 8.181 8.764
11.027 8.717 8.585
10.713 9.289 8.461
10.383 9.656 8.343
10.232 10.301 8.142
11.836 8.385 8.690
11.497 8.871 8.501
11.198 9.358 8.308
10.999 9.884 8.182
10.671 10.534 8.031
12.373 8.542 8.419
11.967 9.126 8.258
11.785 9.568 8.236
11.561 10.184 8.017
1.210 4.681 11.086
0.956 5.131 10.964
1.908 10.967 8.132
1.625 11.543 7.886
1.421 12.068 7.855
4.497 5.833 9.735
4.149 6.302 9.581
3.937 6.840 9.446
2.629 10.757 8.163
2.470 11.172 7.920
2.125 11.794 7.770
1.876 12.334 7.671
5.166 5.473 9.739
5.068 5.969 9.455
4.785 6.574 9.359
4.502 7.022 9.263
4.181 7.513 9.119
3.272 10.852 8.020
2.938 11.358 7.814
2.743 11.994 7.621
2.463 12.422 7.554
5.829 5.795 9.568
5.507 6.286 9.367
5.222 6.844 9.276
5.072 7.333 9.139
4.748 7.840 8.944
3.798 11.073 7.863
3.442 11.672 7.649
3.247 12.145 7.501
6.324 5.957 9.438
5.997 6.505 9.256
5.768 7.041 9.150
5.507 7.494 8.896
5.311 7.985 8.817
4.063 11.856 7.644
3.798 12.356 7.441
6.838 6.257 9.240
6.677 6.627 9.089
6.371 7.264 8.999
6.175 7.692 8.833
6.809 7.371 8.860
9.619 8.571 8.102
10.623 7.726 8.291
10.381 8.241 8.122
10.185 8.761 8.039
9.773 9.310 7.928
11.109 8.014 8.259
10.973 8.435 8.001
10.694 9.022 7.840
10.370 9.540 7.643
10.218 10.123 7.517
11.663 8.248 8.122
11.492 8.789 7.849
11.189 9.167 7.699
10.861 9.714 7.499
10.731 10.344 7.494
12.211 8.461 7.910
12.006 9.015 7.821
11.799 9.469 7.661
11.514 9.895 7.521
11.187 10.419 7.263
1.204 4.417 10.546
1.005 5.073 10.381
0.723 5.560 10.157
1.085 11.078 7.554
0.865 11.688 7.442
3.869 5.338 9.224
3.562 5.981 9.087
2.136 10.215 7.617
1.794 10.871 7.536
1.570 11.261 7.420
1.305 11.851 7.167
1.154 12.273 7.146
4.576 5.094 9.235
4.351 5.674 9.139
4.219 6.056 8.950
3.791 6.697 8.810
3.574 7.102 8.698
2.550 10.490 7.593
2.336 10.983 7.419
2.155 11.561 7.236
1.923 12.041 7.044
5.226 5.287 9.052
4.879 5.827 9.009
4.732 6.352 8.837
4.404 6.944 8.641
4.155 7.318 8.554
3.375 10.116 7.614
3.140 10.642 7.474
2.925 11.206 7.249
2.716 11.804 7.195
2.417 12.210 6.910
5.645 5.593 9.049
5.472 6.069 8.852
5.127 6.578 8.625
4.973 7.059 8.552
4.759 7.603 8.456
4.445 8.168 8.159
4.007 10.401 7.396
3.640 10.873 7.370
3.382 11.533 7.196
3.172 11.896 7.048
2.982 12.534 6.826
6.258 5.688 8.820
6.076 6.346 8.783
5.816 6.836 8.635
5.420 7.400 8.383
5.307 7.759 8.288
4.933 8.320 8.070
4.223 11.248 7.155
3.953 11.734 7.057
3.794 12.214 6.915
6.847 5.906 8.678
6.625 6.456 8.584
6.281 7.029 8.494
5.945 7.526 8.179
5.769 7.988 8.061
4.484 11.825 6.816
4.340 12.449 6.654
7.069 6.789 8.377
6.906 7.323 8.273
6.576 7.810 8.198
9.692 7.868 7.710
9.526 8.312 7.521
9.222 8.830 7.515
10.509 7.475 7.758
10.331 8.022 7.563
10.069 8.638 7.469
9.773 9.147 7.211
9.472 9.702 7.159
8.762 12.382 6.224
11.097 7.855 7.547
10.919 8.214 7.428
10.602 8.767 7.299
10.302 9.355 7.148
9.993 9.844 7.063
9.811 10.363 6.837
11.664 7.987 7.515
11.435 8.458 7.261
11.177 9.007 7.151
10.898 9.488 7.095
10.663 10.026 6.856
10.327 10.594 6.624
12.106 8.270 7.332
11.881 8.651 7.115
11.618 9.202 7.077
11.373 9.802 6.956
11.220 10.282 6.801
1.421 3.728 10.044
1.220 4.316 9.940
0.885 4.709 9.850
0.675 5.238 9.586
0.358 5.856 9.429
1.655 4.557 9.724
1.513 4.930 9.710
2.729 4.677 8.924
2.464 5.180 8.871
0.658 10.065 7.255
0.390 10.694 7.127
0.184 11.135 6.878
3.167 4.966 8.803
2.950 5.508 8.677
2.786 6.056 8.516
1.543 9.776 7.318
1.306 10.324 7.171
0.940 10.848 7.036
0.695 11.419 6.854
0.410 11.859 6.732
4.065 4.685 8.793
3.726 5.202 8.768
3.591 5.641 8.462
3.294 6.303 8.419
3.042 6.730 8.177
2.285 9.503 7.378
1.963 10.130 7.146
1.789 10.585 7.011
1.583 11.119 6.768
1.346 11.669 6.622
1.068 12.172 6.430
4.587 4.856 8.697
4.363 5.439 8.526
4.057 5.888 8.430
3.734 6.518 8.324
3.621 7.002 8.005
3.236 7.483 7.960
3.122 9.328 7.341
2.858 9.808 7.116
2.538 10.355 7.030
2.305 10.781 6.808
1.982 11.348 6.735
1.833 11.876 6.450
1.560 12.311 6.406
5.108 5.167 8.631
4.896 5.676 8.497
4.643 6.191 8.176
4.404 6.727 8.018
4.145 7.151 7.863
3.924 7.794 7.794
3.630 8.145 7.581
3.909 8.984 7.423
3.571 9.436 7.155
3.286 10.039 6.951
3.069 10.445 6.830
2.783 10.966 6.676
2.628 11.535 6.518
2.419 12.146 6.457
5.712 5.416 8.444
5.407 5.926 8.329
5.103 6.436 8.089
4.852 6.829 7.929
4.678 7.362 7.824
4.395 7.970 7.648
4.176 8.451 7.552
3.823 9.014 7.329
4.424 9.219 7.225
4.203 9.782 7.058
3.907 10.185 6.801
3.700 10.778 6.764
3.326 11.258 6.488
3.083 11.718 6.387
2.912 12.216 6.344
6.120 5.520 8.310
5.895 6.000 8.141
5.732 6.567 7.990
5.413 7.156 7.804
5.096 7.554 7.704
4.865 8.209 7.494
4.706 8.716 7.387
4.331 9.246 7.163
4.452 10.471 6.665
4.112 10.884 6.615
3.878 11.410 6.446
3.660 12.064 6.301
3.432 12.439 6.053
6.745 5.855 8.090
6.507 6.325 7.965
6.162 6.870 7.769
5.938 7.353 7.621
5.662 7.922 7.596
5.423 8.419 7.430
4.798 11.181 6.531
4.479 11.767 6.278
4.293 12.199 6.221
7.235 6.087 8.019
7.083 6.446 7.849
6.724 7.068 7.757
6.454 7.491 7.519
6.272 8.118 7.459
4.991 12.017 6.133
4.800 12.481 5.990
7.885 6.174 7.951
7.550 6.696 7.723
7.294 7.281 7.511
6.965 7.794 7.417
8.072 7.015 7.638
7.754 7.454 7.509
8.707 7.248 7.534
8.349 7.793 7.367
9.501 6.843 7.488
9.205 7.366 7.292
8.829 7.963 7.238
8.717 8.448 6.964
7.396 12.383 5.710
9.919 7.089 7.417
9.626 7.598 7.259
9.391 8.226 6.962
9.151 8.666 6.852
8.911 9.228 6.740
8.144 11.985 5.748
7.984 12.489 5.704
10.423 7.362 7.236
10.310 7.928 7.061
10.061 8.325 6.863
9.700 8.898 6.766
9.557 9.497 6.548
9.181 9.979 6.472
9.264 11.176 5.893
8.976 11.633 5.898
8.807 12.247 5.623
10.987 7.624 7.071
10.712 8.060 6.879
10.537 8.535 6.756
10.344 9.117 6.652
9.970 9.717 6.471
9.694 10.141 6.334
9.521 10.760 6.126
9.251 11.113 5.978
9.719 11.371 5.751
9.536 11.900 5.648
9.322 12.485 5.520
11.509 7.822 7.010
11.338 8.252 6.709
11.114 8.787 6.696
10.776 9.289 6.545
10.584 9.811 6.304
10.366 10.386 6.145
10.012 10.897 6.068
9.783 11.391 5.787
10.036 12.147 5.521
12.146 8.057 6.840
11.842 8.515 6.625
11.641 9.064 6.548
11.367 9.557 6.327
11.092 10.126 6.167
10.902 10.655 5.970
10.626 11.115 5.810
1.358 3.616 9.521
1.133 4.065 9.293
0.862 4.650 9.302
0.542 5.039 8.990
0.314 5.685 8.877
0.136 6.120 8.798
1.903 3.763 9.376
1.608 4.313 9.248
1.385 4.831 9.048
1.177 5.365 8.987
0.840 5.834 8.733
2.220 4.534 9.155
1.998 5.006 8.909
1.701 5.596 8.790
2.695 4.665 8.989
2.381 5.332 8.842
0.154 9.789 6.833
2.969 3.941 8.612
2.675 4.628 8.339
2.430 5.023 8.169
2.071 5.535 8.150
0.819 9.491 6.810
0.710 10.020 6.641
0.386 10.542 6.460
0.058 10.972 6.466
3.365 4.203 8.417
3.233 4.773 8.329
2.859 5.211 8.076
2.638 5.866 7.894
2.478 6.402 7.872
1.491 9.673 6.760
1.101 10.241 6.546
0.911 10.602 6.451
0.675 11.294 6.241
0.444 11.790 6.159
0.077 12.251 5.997
4.029 4.505 8.358
3.782 4.959 8.161
3.471 5.570 8.046
3.197 6.006 7.842
3.034 6.533 7.662
2.486 8.919 6.901
2.169 9.368 6.663
1.932 9.805 6.515
1.666 10.436 6.367
1.528 10.990 6.268
1.264 11.461 6.070
0.889 11.975 5.875
0.645 12.449 5.754
4.596 4.734 8.177
4.247 5.201 7.971
3.937 5.743 7.893
3.733 6.271 7.644
3.517 6.756 7.474
3.267 7.313 7.361
3.058 7.750 7.149
3.203 8.500 6.843
2.997 9.029 6.776
2.775 9.496 6.612
2.499 10.039 6.406
2.271 10.582 6.366
1.960 11.105 6.164
1.806 11.645 6.040
1.500 12.194 5.800
5.124 4.997 7.993
4.733 5.371 7.857
4.615 6.036 7.775
4.371 6.475 7.473
3.984 6.919 7.372
3.821 7.515 7.185
3.503 7.998 7.084
3.225 8.594 6.855
3.863 8.684 6.731
3.617 9.327 6.693
3.366 9.745 6.409
3.118 10.352 6.304
2.865 10.788 6.170
2.470 11.297 5.933
2.316 11.895 5.913
2.032 12.474 5.703
5.638 5.138 7.803
5.417 5.625 7.677
5.017 6.162 7.565
4.799 6.659 7.384
4.499 7.168 7.183
4.244 7.761 7.170
4.101 8.314 6.991
3.881 8.762 6.794
4.285 8.954 6.703
4.067 9.501 6.479
3.787 10.093 6.268
3.580 10.513 6.157
3.276 11.102 6.074
3.029 11.580 5.843
2.793 12.059 5.781
6.155 5.289 7.673
5.936 5.875 7.586
5.674 6.370 7.405
5.318 6.919 7.285
5.143 7.469 7.054
4.930 7.988 6.992
4.678 8.559 6.880
4.383 8.915 6.660
4.836 9.147 6.497
4.689 9.801 6.329
4.459 10.225 6.226
4.117 10.692 6.043
3.833 11.256 5.876
3.702 11.811 5.718
3.362 12.383 5.490
6.737 5.647 7.599
6.375 6.160 7.486
6.167 6.601 7.267
5.884 7.156 7.145
5.574 7.632 6.963
5.393 8.103 6.881
5.067 8.646 6.598
4.866 9.178 6.549
4.921 10.480 5.990
4.696 11.012 5.966
4.446 11.450 5.775
4.185 11.975 5.519
3.861 12.554 5.361
7.186 5.766 7.537
6.979 6.251 7.309
6.656 6.917 7.127
6.526 7.308 6.979
6.130 7.849 6.918
5.896 8.317 6.614
5.229 11.202 5.781
4.948 11.729 5.675
4.741 12.256 5.479
7.808 6.085 7.254
7.418 6.553 7.156
7.178 7.028 7.002
6.968 7.647 6.798
6.808 8.051 6.654
5.479 11.887 5.381
5.173 12.489 5.385
8.311 6.270 7.250
8.111 6.723 6.998
7.782 7.261 6.808
7.459 7.808 6.730
6.060 12.251 5.277
8.786 6.399 6.992
8.505 7.058 6.926
8.296 7.447 6.712
7.984 7.958 6.618
6.880 11.874 5.282
6.533 12.388 5.199
9.404 6.635 7.002
9.156 7.289 6.684
8.772 7.794 6.591
8.559 8.251 6.466
8.293 8.804 6.370
7.541 11.595 5.433
7.326 12.051 5.271
9.877 6.983 6.812
9.728 7.517 6.626
9.319 8.006 6.512
9.077 8.409 6.345
8.797 9.018 6.196
8.674 9.588 5.960
8.744 10.733 5.461
8.333 11.245 5.391
8.104 11.860 5.229
7.884 12.336 5.036
10.396 7.116 6.641
10.260 7.717 6.561
9.896 8.150 6.386
9.753 8.681 6.241
9.476 9.171 6.049
9.160 9.706 5.856
8.930 10.209 5.630
8.631 10.725 5.496
9.179 10.962 5.430
8.905 11.472 5.187
8.771 12.026 5.120
8.448 12.532 5.012
10.976 7.318 6.451
10.693 7.907 6.420
10.384 8.422 6.254
10.183 8.967 6.090
9.926 9.383 5.887
9.665 9.984 5.704
9.509 10.497 5.609
9.207 11.014 5.469
9.659 11.148 5.305
9.466 11.799 5.097
9.310 12.337 4.907
11.517 7.567 6.302
11.329 8.148 6.269
10.942 8.687 6.100
10.821 9.154 5.921
10.421 9.707 5.797
10.213 10.191 5.657
10.041 10.642 5.424
9.751 11.230 5.205
10.336 11.447 5.060
9.938 12.033 5.031
9.803 12.491 4.742
12.055 7.745 6.292
11.760 8.318 6.126
11.552 8.781 5.973
11.252 9.298 5.801
11.003 9.941 5.520
10.794 10.327 5.510
10.454 10.948 5.216
10.356 11.483 5.133
1.344 3.425 8.980
1.018 3.944 8.754
0.718 4.479 8.678
0.611 4.901 8.477
0.350 5.386 8.291
0.074 5.938 8.271
1.819 3.607 8.857
1.510 4.172 8.619
1.254 4.566 8.515
1.096 5.200 8.278
0.811 5.567 8.229
2.334 3.802 8.628
2.165 4.311 8.583
1.837 4.805 8.305
1.636 5.301 8.239
1.438 5.950 8.044
0.155 9.685 6.775
2.867 4.110 8.526
2.739 4.605 8.445
2.371 5.146 8.172
2.076 5.627 8.051
0.294 8.942 6.471
-0.032 9.474 6.290
2.849 3.818 7.988
2.599 4.315 7.866
2.321 4.904 7.752
2.107 5.364 7.577
1.820 5.933 7.310
0.867 9.255 6.370
0.548 9.664 6.213
0.268 10.336 5.937
0.030 10.837 5.874
3.338 4.132 7.863
3.066 4.647 7.733
2.952 5.095 7.581
2.649 5.643 7.469
2.356 6.084 7.227
1.583 8.885 6.311
1.341 9.474 6.138
1.132 9.947 5.980
0.820 10.466 5.812
0.583 11.093 5.678
0.298 11.571 5.562
0.105 11.974 5.400
3.889 4.236 7.692
3.591 4.734 7.604
3.444 5.312 7.399
3.241 5.741 7.202
2.852 6.426 7.027
2.703 6.867 6.905
2.693 8.154 6.500
2.359 8.583 6.262
2.246 9.186 6.223
1.912 9.726 6.078
1.705 10.233 5.891
1.378 10.696 5.626
1.167 11.198 5.487
0.949 11.743 5.328
0.672 12.236 5.297
4.398 4.564 7.635
4.287 5.026 7.350
3.947 5.593 7.324
3.671 5.967 7.090
3.527 6.620 7.046
3.276 7.142 6.752
2.863 7.533 6.676
2.640 8.201 6.507
3.165 8.381 6.409
3.032 8.946 6.120
2.794 9.404 5.968
2.452 9.934 5.965
2.227 10.461 5.676
1.951 10.931 5.491
1.721 11.480 5.400
1.476 11.955 5.289
1.151 12.528 5.022
5.004 4.635 7.412
4.758 5.271 7.353
4.445 5.767 7.214
4.217 6.255 6.958
4.015 6.846 6.768
3.771 7.310 6.654
3.395 7.807 6.495
3.201 8.359 6.424
3.774 8.632 6.283
3.416 9.115 6.056
3.235 9.673 5.834
2.925 10.138 5.659
2.737 10.623 5.578
2.487 11.111 5.457
2.232 11.644 5.287
1.941 12.185 5.130
5.483 5.000 7.258
5.198 5.432 7.075
5.089 5.981 6.959
4.793 6.437 6.801
4.474 6.967 6.641
4.182 7.522 6.594
3.965 7.996 6.445
3.682 8.592 6.148
4.286 8.715 6.049
4.012 9.379 5.918
3.849 9.913 5.686
3.566 10.261 5.690
3.264 10.903 5.534
3.061 11.304 5.348
2.838 11.901 5.072
2.491 12.397 5.051
6.155 5.204 7.110
5.857 5.728 7.079
5.629 6.222 6.947
5.317 6.804 6.720
4.992 7.222 6.537
4.873 7.670 6.429
4.506 8.230 6.277
4.287 8.764 6.063
4.766 8.960 5.980
4.563 9.557 5.862
4.242 10.004 5.642
4.056 10.645 5.463
3.845 11.033 5.356
3.551 11.582 5.210
3.285 12.039 4.922
6.648 5.386 6.990
6.376 5.965 6.948
6.084 6.379 6.726
5.881 6.985 6.587
5.586 7.500 6.434
5.386 7.993 6.276
5.051 8.510 6.067
4.879 8.932 5.858
5.036 9.803 5.664
4.941 10.343 5.413
4.522 10.818 5.421
4.404 11.353 5.170
4.174 11.853 5.053
3.838 12.351 4.812
7.119 5.548 6.985
6.842 6.068 6.709
6.587 6.680 6.517
6.420 7.100 6.428
6.163 7.627 6.198
5.942 8.225 6.047
5.542 8.644 5.911
5.165 11.086 5.272
4.973 11.479 5.088
4.650 11.997 4.869
7.742 5.863 6.723
7.451 6.366 6.564
7.233 6.819 6.393
6.962 7.401 6.292
6.749 7.831 6.121
5.710 11.306 4.989
5.488 11.749 4.873
5.170 12.225 4.729
8.184 6.040 6.706
7.989 6.636 6.438
7.708 7.066 6.240
7.411 7.550 6.226
7.260 8.119 6.071
6.273 11.406 4.960
5.953 12.044 4.743
5.771 12.536 4.579
8.682 6.316 6.521
8.463 6.726 6.413
8.331 7.299 6.160
8.041 7.761 6.100
7.775 8.375 5.920
6.806 11.669 4.770
6.538 12.288 4.706
9.320 6.514 6.297
8.972 7.056 6.280
8.762 7.487 6.052
8.478 8.131 5.830
8.335 8.620 5.788
7.793 10.859 4.903
7.506 11.375 4.731
7.354 11.938 4.641
7.127 12.504 4.557
9.910 6.741 6.174
9.531 7.281 5.995
9.408 7.838 5.923
9.053 8.347 5.751
8.839 8.770 5.654
8.490 9.278 5.519
8.236 9.817 5.239
8.570 10.534 4.938
8.403 11.036 4.801
8.172 11.539 4.601
7.784 12.117 4.570
10.447 6.893 6.128
10.155 7.460 5.915
9.806 7.917 5.822
9.620 8.479 5.605
9.362 9.078 5.410
9.183 9.539 5.280
8.826 10.120 5.168
8.544 10.572 4.994
9.067 10.885 4.861
8.841 11.295 4.621
8.577 11.767 4.472
8.346 12.412 4.440
10.938 7.225 6.018
10.677 7.692 5.795
10.368 8.199 5.600
10.088 8.745 5.512
9.847 9.233 5.233
9.711 9.835 5.113
9.472 10.258 5.002
9.164 10.809 4.819
9.641 10.945 4.684
9.411 11.587 4.545
9.236 12.078 4.361
11.534 7.462 5.821
11.117 7.957 5.676
10.979 8.395 5.467
10.729 8.870 5.411
10.463 9.471 5.110
10.151 9.992 4.953
9.944 10.584 4.797
9.665 11.019 4.742
10.267 11.279 4.502
9.945 11.763 4.386
9.722 12.220 4.305
12.073 7.593 5.649
11.672 8.104 5.470
11.455 8.701 5.302
11.149 9.201 5.219
11.057 9.756 4.977
10.657 10.283 4.852
10.412 10.793 4.812
10.218 11.306 4.494
1.173 3.081 8.491
0.942 3.752 8.274
0.707 4.146 8.075
0.540 4.687 7.913
0.184 5.194 7.794
1.710 3.325 8.329
1.493 3.816 8.052
1.344 4.444 8.015
1.034 4.902 7.751
0.798 5.538 7.711
0.526 5.916 7.416
2.287 3.527 8.221
2.106 4.192 7.949
1.801 4.622 7.841
1.546 5.237 7.656
1.243 5.622 7.427
0.374 8.986 6.465
0.071 9.542 6.231
2.857 3.740 8.000
2.597 4.347 7.875
2.422 4.844 7.764
2.000 5.360 7.533
1.789 5.838 7.354
0.276 8.868 5.831
2.839 3.670 7.466
2.592 4.134 7.296
2.227 4.594 7.203
1.992 5.185 6.973
1.826 5.665 6.727
0.713 9.090 5.722
0.592 9.571 5.566
0.194 10.124 5.434
0.023 10.565 5.197
3.359 3.932 7.258
3.069 4.374 7.139
2.730 4.867 6.918
2.560 5.370 6.863
2.297 5.951 6.696
1.485 8.709 5.790
1.326 9.290 5.538
1.142 9.702 5.522
0.880 10.205 5.303
0.482 10.880 5.103
0.294 11.261 4.951
-0.006 11.770 4.798
3.933 4.023 7.157
3.533 4.603 7.031
3.425 5.027 6.888
3.163 5.686 6.682
2.858 6.191 6.527
2.653 6.603 6.411
2.559 7.960 5.863
2.326 8.522 5.834
2.193 8.966 5.656
1.855 9.438 5.520
1.552 10.053 5.369
1.357 10.515 5.168
1.144 10.948 4.959
0.817 11.575 4.836
0.571 12.120 4.741
4.388 4.314 7.089
4.116 4.830 6.802
3.830 5.306 6.669
3.719 5.781 6.506
3.378 6.439 6.456
3.055 6.922 6.193
2.930 7.352 6.021
2.602 7.847 5.971
3.136 8.198 5.754
2.944 8.658 5.610
2.561 9.195 5.539
2.424 9.620 5.294
2.167 10.289 5.114
1.917 10.670 4.936
1.704 11.310 4.870
1.388 11.832 4.670
1.180 12.279 4.565
4.998 4.589 6.850
4.704 4.980 6.673
4.380 5.477 6.629
4.184 6.097 6.429
3.928 6.632 6.263
3.751 7.029 6.156
3.360 7.667 5.996
3.153 8.149 5.865
3.721 8.407 5.662
3.392 8.950 5.534
3.186 9.442 5.311
2.972 9.975 5.214
2.603 10.431 4.981
2.450 10.974 4.874
2.216 11.485 4.774
1.861 12.015 4.487
1.682 12.588 4.326
5.400 4.705 6.741
5.272 5.340 6.569
4.897 5.756 6.450
4.629 6.287 6.287
4.449 6.871 6.091
4.170 7.362 5.997
3.938 7.851 5.843
3.635 8.359 5.741
