8.146 9.662 7.295
7.424 10.824 6.622
7.121 10.506 7.141
7.022 9.864 7.191
6.622 10.608 6.415
6.794 10.444 7.311
6.382 10.008 7.457
12.160 9.775 5.716
12.198 9.586 6.431
8.365 9.983 6.249
8.598 9.033 6.801
7.657 10.183 5.841
7.871 9.688 6.147
7.731 9.449 6.803
6.933 10.285 6.085
6.842 9.798 6.288
7.209 9.292 7.098
6.667 10.147 6.318
6.188 9.780 6.698
6.454 9.442 7.257
12.386 9.101 5.383
12.366 8.676 5.925
8.823 12.503 11.130
10.046 12.546 9.979
9.501 12.325 9.883
9.653 12.173 10.719
8.813 11.351 11.695
8.897 10.771 12.495
8.929 12.333 10.312
8.695 11.912 10.574
8.718 11.848 11.489
8.962 11.118 11.904
8.464 11.158 11.929
8.637 10.681 12.624
8.074 12.524 10.477
8.519 12.369 10.823
8.056 11.956 11.526
8.297 11.374 11.788
8.049 10.756 12.574
7.894 12.409 10.876
7.807 11.644 11.345
6.837 11.968 10.901
11.531 9.001 12.184
11.159 11.859 8.968
10.885 9.403 12.321
10.661 11.612 9.147
10.069 9.576 12.196
10.143 9.530 12.824
9.913 11.555 9.620
10.242 11.528 10.220
9.795 10.329 11.096
9.520 10.057 11.677
9.649 9.573 12.170
9.247 11.839 9.882
9.316 11.518 10.263
9.693 11.254 10.848
9.342 10.409 11.179
9.092 10.935 11.178
8.803 10.443 12.063
9.049 9.979 12.585
8.936 12.134 10.032
8.738 11.670 10.324
8.835 11.279 10.791
9.097 10.743 11.196
8.442 10.601 11.368
8.348 10.262 11.751
8.322 10.138 12.667
7.926 11.999 9.763
8.162 11.773 10.228
8.265 11.246 11.116
8.005 10.944 11.226
7.440 10.537 11.693
7.781 10.442 12.366
7.692 11.931 10.278
7.364 11.707 10.766
7.381 11.004 10.894
7.634 10.735 11.756
6.892 12.163 10.192
7.124 11.865 10.982
5.917 12.484 10.103
5.236 12.126 10.565
4.704 12.097 10.844
3.957 12.514 10.807
12.495 8.794 12.019
12.121 11.714 9.234
11.681 9.150 12.309
11.155 11.487 9.448
11.449 8.723 11.570
11.622 7.959 12.468
10.866 11.390 8.739
10.578 8.613 11.969
10.851 8.164 12.433
10.450 11.397 9.163
10.007 9.046 11.707
10.185 8.858 12.010
9.927 11.083 8.855
10.046 10.636 9.673
9.327 9.929 10.846
9.353 9.723 11.173
9.610 9.479 11.572
9.457 8.957 12.400
9.416 11.377 9.023
9.397 10.754 10.019
9.534 10.450 10.448
9.202 10.271 10.705
8.500 10.406 10.938
9.022 9.623 11.528
8.738 9.586 12.122
9.042 9.087 12.674
8.286 11.202 9.269
8.421 10.770 9.767
8.701 10.510 10.506
8.944 9.992 10.652
8.228 9.996 11.025
8.352 9.543 11.803
8.309 9.317 12.269
8.262 8.696 12.345
7.724 11.724 9.381
7.916 11.168 9.843
7.780 10.861 10.493
8.258 10.241 10.861
7.538 10.373 11.161
7.500 9.976 11.536
7.840 9.372 11.894
7.499 11.777 9.927
7.566 11.437 9.997
7.427 10.702 10.830
7.560 10.480 10.999
6.608 9.795 11.792
7.100 9.667 12.301
6.752 11.411 9.559
6.550 11.336 10.431
6.529 10.762 10.815
6.155 11.823 9.680
5.188 11.997 10.077
4.979 11.899 10.250
3.837 12.150 10.263
12.426 11.222 8.440
12.240 10.708 8.970
12.099 8.730 11.446
11.947 8.410 12.155
11.610 11.090 8.661
11.581 8.744 11.604
11.623 8.307 12.165
10.941 11.447 8.857
11.330 7.612 11.840
11.586 7.364 12.303
10.446 8.198 11.820
10.553 7.662 12.113
10.540 10.468 8.681
10.043 8.405 11.451
10.006 7.949 12.473
9.845 10.789 8.480
9.035 9.272 11.060
9.156 9.008 11.345
9.429 8.157 11.592
9.293 7.721 12.583
8.850 10.817 8.911
9.254 10.618 9.559
9.231 10.170 10.123
8.523 9.854 10.369
8.938 9.514 11.232
8.990 9.048 11.717
8.952 8.357 12.077
8.594 8.147 12.406
8.430 11.188 8.852
8.606 10.420 9.658
8.439 9.851 9.873
8.809 9.928 10.400
7.938 9.684 10.618
8.019 9.074 11.322
8.182 9.037 11.814
8.202 8.189 12.216
7.880 10.843 9.304
7.740 10.335 9.631
7.664 10.193 10.137
7.782 9.738 10.728
7.116 9.889 11.022
7.145 9.157 11.391
7.326 8.799 11.735
7.307 8.749 12.186
7.357 11.177 9.104
7.482 10.433 9.911
7.448 10.055 10.272
7.289 9.742 11.026
7.065 8.944 12.118
6.720 8.430 12.298
6.405 11.378 9.485
6.508 10.888 9.666
6.353 8.635 12.482
5.719 10.976 9.735
3.866 11.341 10.193
12.394 10.338 8.092
12.207 8.086 11.038
11.976 7.517 11.745
12.152 7.055 12.331
11.374 10.341 8.358
11.632 7.557 11.814
11.640 7.496 12.357
10.567 7.049 11.981
10.203 8.032 11.567
9.886 7.368 12.052
9.988 6.756 12.434
9.714 10.483 8.369
8.962 8.332 11.053
9.321 7.691 11.527
9.122 7.643 11.697
9.342 7.118 12.196
8.748 10.226 8.489
9.017 10.181 9.212
8.486 8.298 10.839
8.885 7.902 11.466
8.632 7.333 11.997
8.358 10.355 8.614
8.430 10.307 9.224
8.092 8.558 10.530
7.685 8.253 11.017
8.237 7.835 11.780
7.786 7.328 12.342
7.854 10.568 8.776
7.570 10.285 9.446
7.842 9.473 9.491
7.374 8.578 11.189
7.515 8.110 11.587
7.538 7.850 12.432
7.120 10.529 8.979
6.919 10.427 9.485
6.592 8.186 12.130
7.024 7.899 12.591
6.346 10.713 9.198
12.590 7.236 10.819
12.106 10.156 7.520
11.973 6.413 12.032
9.100 7.210 11.269
8.931 6.952 11.626
9.156 6.265 12.192
9.377 6.134 12.616
8.808 10.124 7.983
8.386 7.494 11.114
8.853 6.974 11.685
8.823 6.569 11.942
8.052 10.005 8.384
7.696 7.282 11.608
7.711 7.173 11.957
8.034 6.545 12.590
7.631 10.149 8.252
7.167 7.688 11.455
7.000 7.328 12.181
7.179 6.577 12.566
7.001 9.814 8.514
6.581 7.012 12.160
8.995 6.216 10.941
9.156 5.779 11.619
8.261 6.699 10.704
8.508 6.705 11.027
8.573 5.991 11.762
8.306 5.562 12.006
8.040 9.708 7.683
7.838 6.944 10.677
7.564 6.604 11.494
7.728 6.398 12.023
7.675 5.511 12.683
7.121 9.295 7.908
6.992 6.807 11.501
7.071 6.149 12.215
7.104 5.652 12.631
9.069 5.635 10.471
8.865 5.425 10.996
8.433 6.348 10.152
8.444 6.215 10.747
8.559 5.543 11.606
8.200 5.306 11.780
7.910 9.141 7.548
7.344 6.681 10.520
7.864 6.292 11.175
7.897 5.695 11.288
7.849 5.070 12.051
7.483 8.735 7.722
7.063 5.954 11.062
7.170 5.879 11.369
7.169 5.232 12.407
6.924 5.201 2.453
7.437 4.987 3.319
6.175 5.622 1.909
6.193 5.058 2.439
6.632 4.626 3.257
5.531 5.593 2.461
5.997 5.111 2.689
6.129 4.983 3.238
4.957 5.597 2.254
5.417 5.460 3.105
4.988 4.997 3.195
12.338 5.174 1.052
12.518 4.544 1.229
12.118 4.273 1.691
11.293 4.886 0.964
11.350 4.714 1.538
11.796 4.470 2.065
11.131 4.799 1.750
11.302 4.284 2.452
6.616 5.326 1.498
6.712 4.690 2.259
7.266 4.239 2.920
5.998 5.264 1.815
6.227 4.862 2.228
6.130 4.368 2.547
5.352 5.430 1.290
5.722 5.154 2.176
5.599 4.601 2.154
5.980 4.272 2.766
4.817 5.440 1.913
4.973 4.771 2.314
5.311 4.250 3.167
4.594 4.758 2.823
11.970 5.028 0.301
12.124 4.460 0.319
12.237 3.905 1.231
12.448 3.816 1.454
11.574 4.931 0.548
11.722 4.463 0.902
11.581 3.818 1.450
10.826 4.622 0.909
11.086 4.254 1.385
10.719 3.583 1.965
7.421 3.909 1.500
7.801 3.848 2.056
6.755 4.884 0.591
6.720 4.568 1.298
6.684 4.354 1.834
6.609 3.879 2.406
6.267 5.394 0.581
6.023 4.605 1.641
6.328 4.143 2.096
6.376 4.012 2.659
5.300 5.282 0.753
5.393 4.796 1.534
5.404 4.091 2.267
5.696 3.700 2.474
4.591 5.087 1.071
4.818 4.751 1.904
4.888 4.453 2.147
4.744 4.032 2.827
3.942 4.826 1.878
4.464 4.364 2.543
4.132 3.881 2.531
11.720 4.328 0.093
11.693 3.528 0.603
12.267 3.173 0.957
11.291 4.158 0.216
11.489 3.600 0.773
11.466 3.337 1.489
10.812 4.126 0.140
10.887 3.862 1.162
10.918 3.516 1.625
10.244 3.664 1.048
9.942 3.674 1.686
8.486 3.443 0.791
8.618 3.215 1.496
7.675 4.237 0.685
7.933 3.815 0.807
8.120 3.138 1.323
7.080 4.233 -0.093
7.233 4.232 0.759
7.357 3.455 1.077
7.629 3.246 1.788
6.766 4.565 0.113
6.570 4.411 0.999
6.522 3.515 1.477
6.566 3.101 1.768
6.017 4.577 0.476
6.186 4.049 1.025
5.751 3.744 1.218
6.184 3.431 1.869
5.161 5.197 -0.019
5.239 4.736 0.769
5.227 4.510 1.052
5.486 4.022 1.782
5.453 3.159 2.148
4.710 5.054 0.005
4.699 4.654 0.614
4.510 4.304 0.975
4.491 3.981 1.904
4.992 3.628 2.526
3.701 4.636 0.766
4.161 4.680 1.478
4.182 4.187 1.716
4.162 3.359 2.215
3.477 4.722 1.387
3.179 4.043 2.032
3.415 3.398 2.309
2.729 4.402 2.335
2.664 3.911 2.936
2.146 4.101 2.346
2.024 3.821 3.076
1.683 4.557 1.896
1.562 4.271 2.435
1.694 3.676 2.923
12.338 3.082 -0.019
12.343 2.689 0.575
11.836 3.146 0.156
12.064 2.454 0.987
11.277 3.431 0.133
11.127 2.728 0.796
10.280 3.477 0.705
10.572 2.763 0.894
9.913 3.548 -0.066
10.138 3.286 0.514
9.782 2.895 1.144
8.988 3.763 0.301
9.239 3.232 1.037
9.272 3.276 1.357
8.381 3.589 1.076
8.645 2.914 1.613
8.397 3.260 0.194
8.645 3.087 0.410
8.267 2.557 1.211
7.529 3.650 0.066
7.711 2.931 0.896
7.855 2.800 1.191
6.904 3.577 0.337
7.240 3.358 0.684
7.336 2.556 1.439
6.592 3.590 0.482
6.623 3.178 0.782
6.641 2.896 1.157
5.508 4.232 -0.183
5.679 3.526 0.794
6.075 3.059 1.335
6.026 2.742 1.480
5.038 4.217 0.330
4.931 3.535 0.611
5.101 3.446 1.462
5.357 2.684 1.746
4.311 4.286 0.582
4.448 3.786 1.043
4.742 3.233 1.248
4.842 2.925 1.794
3.709 4.126 0.444
3.685 3.642 0.772
3.689 3.336 1.479
4.097 2.907 2.188
2.996 4.184 0.766
3.529 4.199 1.077
3.095 3.474 1.469
3.405 3.051 1.832
2.729 4.094 1.493
2.581 3.633 1.962
2.954 3.398 2.459
1.877 4.170 1.178
2.197 3.986 1.670
2.233 3.136 2.177
1.165 4.437 1.011
1.046 4.255 1.477
1.465 3.890 1.858
1.235 3.139 2.249
12.112 1.877 0.056
11.869 2.136 0.220
11.210 2.523 0.639
10.291 2.662 0.135
10.265 2.238 0.515
9.607 2.933 0.142
10.016 2.604 0.841
9.362 3.041 0.113
9.442 2.370 0.611
8.392 3.254 0.004
8.730 2.837 0.620
8.399 2.800 1.124
8.176 2.321 0.296
8.137 1.871 0.829
7.526 2.522 0.467
7.516 2.124 0.675
6.776 2.792 0.577
7.171 2.237 0.702
6.313 3.235 -0.132
6.478 2.986 0.470
6.345 2.229 1.221
5.955 3.035 -0.051
5.944 2.605 0.469
5.856 2.332 1.065
5.062 3.232 0.265
4.999 2.976 0.872
5.158 2.503 1.526
4.177 3.203 0.663
4.702 2.670 0.937
4.522 2.773 1.453
3.452 4.100 0.067
3.796 3.153 0.635
3.571 2.768 1.199
3.890 2.355 1.481
2.904 3.719 0.095
3.039 3.648 0.546
3.094 3.294 0.948
3.225 2.842 1.430
2.448 3.395 1.111
2.662 3.123 1.371
2.346 2.652 1.806
1.900 3.358 0.843
1.958 3.090 1.557
2.223 3.018 1.982
1.299 4.290 0.844
1.253 3.445 1.284
1.386 3.546 1.510
1.293 2.773 2.294
10.723 1.685 -0.028
10.353 2.063 -0.040
9.621 1.680 0.546
9.245 1.804 0.519
8.443 2.638 0.328
8.231 2.030 0.533
8.160 1.555 0.435
7.335 1.780 0.313
7.029 1.833 0.319
6.095 2.008 0.142
6.583 1.665 0.608
5.452 2.147 0.112
5.462 1.946 0.728
4.837 2.583 0.236
4.773 1.910 0.944
4.501 2.971 -0.121
4.231 2.194 0.591
4.316 1.814 0.905
3.687 2.819 -0.015
3.542 2.314 0.529
3.648 1.818 1.215
3.013 2.798 0.309
3.266 2.736 0.682
2.932 1.989 1.109
2.167 2.970 0.579
2.499 2.430 0.933
2.600 2.165 1.482
1.786 3.147 0.626
1.785 2.709 0.937
1.973 2.168 1.809
1.085 3.752 0.352
1.263 3.095 0.496
1.068 3.044 1.455
1.410 2.513 1.941
8.780 1.244 0.033
8.356 1.857 -0.045
6.971 1.304 -0.053
6.416 1.047 0.227
5.265 1.332 0.384
4.766 1.537 0.503
4.351 2.144 -0.172
4.263 1.319 0.599
3.820 2.109 0.455
3.447 1.638 0.674
2.737 2.172 0.267
2.983 1.779 1.137
0.673 2.456 0.425
0.769 2.520 0.658
1.104 1.760 1.416
4.830 0.792 0.332
4.355 1.190 0.205
3.705 1.012 0.430
7.995 9.752 5.508
8.429 9.468 5.571
8.509 8.892 6.160
7.223 12.021 2.314
7.372 10.270 5.053
7.346 9.796 5.412
7.589 9.383 6.046
7.553 9.054 6.163
6.252 12.330 2.641
6.603 10.322 5.099
7.002 10.008 5.653
7.226 9.602 5.958
6.924 9.081 6.306
5.756 12.574 2.968
6.113 10.218 5.227
6.408 9.588 5.814
6.094 9.511 6.164
6.514 8.912 6.460
5.779 9.786 6.038
5.519 9.629 6.343
5.920 9.009 6.663
12.013 12.278 0.736
12.084 11.584 1.505
11.486 11.979 0.885
12.241 9.309 4.193
12.351 8.850 4.879
12.042 8.366 5.503
8.611 12.638 0.463
9.124 8.490 5.116
8.401 12.762 0.840
8.175 12.140 1.189
8.590 9.031 4.570
8.738 8.754 5.192
8.532 8.429 6.012
7.556 12.436 0.939
7.471 12.021 1.399
7.675 11.492 2.129
8.129 9.447 4.529
7.873 9.054 4.698
8.156 8.944 5.205
8.137 8.057 5.644
6.698 12.414 1.783
7.123 11.931 2.130
7.339 11.474 2.790
7.089 10.173 4.051
7.494 9.792 4.566
7.447 9.483 5.241
7.576 9.058 5.767
7.573 8.648 5.826
6.168 12.383 1.833
6.441 11.992 2.160
6.190 11.574 2.509
6.786 10.367 4.358
6.546 9.911 4.668
6.972 9.358 5.351
6.855 9.073 5.540
6.738 8.356 6.011
5.836 12.602 1.567
5.458 12.036 2.064
5.667 11.669 3.016
5.813 10.342 4.521
5.784 9.987 4.966
6.052 9.410 5.213
6.370 9.067 5.551
6.239 8.774 6.045
5.056 12.561 2.148
5.187 11.932 2.372
5.433 10.077 5.067
5.358 9.347 5.599
5.789 8.987 6.000
5.596 8.659 6.367
4.454 12.678 2.016
4.926 9.534 5.857
5.146 8.880 6.098
4.976 8.925 6.807
2.793 9.436 6.005
3.080 9.462 6.222
3.101 8.826 6.721
12.185 11.798 0.279
12.436 11.496 0.796
12.155 11.070 1.348
12.641 9.292 2.917
12.355 8.908 3.561
12.642 8.603 3.747
11.233 12.139 0.103
11.367 11.942 0.735
11.738 11.388 0.957
12.027 9.059 3.337
11.661 8.612 4.011
11.692 8.365 4.470
11.729 7.834 4.988
10.545 12.395 -0.076
11.071 11.520 0.826
11.114 8.933 4.238
11.472 8.602 4.424
11.347 7.736 5.206
10.208 12.036 0.440
10.609 8.715 4.718
9.526 11.840 -0.221
9.107 11.535 0.785
10.053 8.507 4.302
9.638 8.090 4.839
9.870 7.687 5.161
8.792 12.166 0.041
8.605 11.216 0.727
9.077 8.496 4.462
9.384 8.187 4.965
9.229 7.756 5.198
8.207 12.228 0.585
8.380 11.538 0.557
7.920 11.151 1.183
8.204 8.893 3.616
8.333 8.299 4.123
8.639 8.363 4.975
8.608 7.456 5.179
7.263 11.973 0.656
7.689 11.834 1.136
7.246 11.111 1.378
7.418 10.882 1.940
8.027 9.442 3.540
7.590 9.011 3.823
7.925 8.925 4.629
7.992 8.295 4.849
7.921 7.712 5.688
6.612 12.594 0.353
6.787 12.008 0.735
6.603 11.687 1.080
7.157 11.499 1.570
7.118 10.610 2.090
7.067 10.683 2.789
7.161 10.077 3.381
7.210 9.460 3.525
7.461 8.863 4.038
7.348 8.487 4.372
7.453 8.548 5.347
7.275 7.844 5.736
5.833 12.148 0.829
6.176 11.822 1.472
6.240 11.443 1.988
6.560 10.875 2.156
6.617 10.717 2.818
6.229 9.958 3.499
6.533 9.536 3.526
6.452 9.057 4.299
6.605 8.748 4.957
6.539 8.368 5.101
6.597 8.119 6.048
5.224 12.033 0.722
5.601 12.084 1.510
5.334 11.403 1.869
5.612 10.996 2.172
5.971 10.418 2.982
5.910 10.395 3.587
5.793 9.812 3.699
5.976 9.342 4.403
5.684 8.773 5.109
6.223 8.384 5.152
6.280 8.021 5.840
4.647 12.169 1.227
4.905 12.081 1.515
4.716 11.692 1.922
4.962 10.990 2.723
5.215 9.748 3.880
5.292 9.526 4.300
5.493 9.079 4.815
5.483 8.539 5.258
5.599 8.339 6.065
4.363 12.470 1.263
4.053 11.706 1.907
4.464 11.647 1.966
4.389 9.449 4.870
4.417 9.137 5.307
4.755 8.635 5.908
4.889 8.436 6.057
3.454 12.368 1.194
3.387 11.893 1.947
3.817 9.291 5.531
3.935 8.501 5.540
4.057 8.086 6.034
2.984 12.722 1.234
3.172 12.128 1.720
3.627 8.993 5.243
3.530 8.836 6.107
3.770 8.112 6.231
2.312 12.388 2.159
2.117 11.829 2.368
2.610 9.352 5.346
2.673 9.353 5.684
2.804 8.509 6.069
2.645 8.119 6.389
12.062 11.189 0.076
11.826 10.883 0.278
12.053 10.532 1.091
11.880 9.757 1.309
12.132 9.581 1.971
12.058 8.843 2.532
12.606 8.378 2.930
12.189 8.441 3.391
12.635 7.685 4.179
12.635 7.331 4.299
11.311 11.401 -0.073
11.212 10.715 0.620
11.358 10.634 1.350
11.850 9.137 2.839
11.970 8.941 3.223
11.889 8.151 3.713
11.801 7.627 4.339
11.797 7.149 4.717
10.442 11.512 0.097
10.687 10.992 0.562
11.080 8.460 3.441
11.308 8.080 3.867
10.973 7.865 4.426
11.113 7.624 5.037
10.236 11.121 0.340
10.601 8.353 3.724
10.529 8.048 4.521
10.752 7.285 5.006
9.250 11.737 -0.045
9.201 11.335 0.469
9.952 8.361 4.116
9.999 8.017 4.416
10.188 7.500 5.052
9.335 10.833 0.132
9.921 7.987 3.845
9.807 7.351 4.066
9.680 6.803 4.865
8.373 10.913 0.251
8.876 10.366 0.958
9.192 8.709 3.208
9.246 8.205 3.742
9.121 7.382 4.422
9.429 7.106 4.557
7.859 10.842 0.561
8.172 10.660 0.684
8.140 8.334 3.609
8.123 8.276 3.945
8.543 7.429 4.325
8.676 7.266 4.931
7.055 11.287 0.213
7.268 11.235 0.461
7.284 10.449 1.183
7.212 10.372 1.799
7.780 10.090 2.225
7.719 9.410 2.475
7.583 9.102 3.014
7.781 8.612 3.358
7.536 8.130 4.106
7.891 7.558 4.770
8.142 7.161 4.812
6.816 11.528 0.100
6.694 11.260 0.961
6.955 10.849 1.003
6.630 10.164 1.954
7.133 9.870 1.929
7.189 9.635 2.684
7.237 9.033 3.217
7.036 8.689 3.754
7.369 8.270 4.055
7.150 7.571 4.976
7.393 7.339 5.490
5.723 11.506 0.321
5.985 11.401 0.579
6.281 10.784 1.475
6.102 10.206 1.856
5.981 9.787 2.463
6.182 9.797 2.774
6.159 9.187 3.565
6.538 8.806 3.602
6.240 8.004 4.395
6.487 8.124 5.055
6.412 7.715 5.460
5.491 11.863 0.345
5.320 11.495 0.778
5.240 11.159 1.485
5.613 10.642 2.062
5.496 10.100 2.456
5.607 9.589 2.859
5.984 9.008 3.475
5.651 9.010 4.156
5.629 8.098 4.396
6.143 7.732 5.179
6.121 7.697 5.707
4.812 12.344 0.282
4.648 11.977 0.868
4.744 11.241 1.160
4.862 10.714 1.473
5.045 10.688 2.187
4.946 9.465 3.460
5.170 9.016 4.193
5.205 8.475 4.838
5.333 8.147 5.297
5.107 7.572 5.475
3.812 12.195 0.156
4.145 11.721 0.674
4.072 11.703 1.267
4.330 10.880 1.503
4.745 8.792 4.206
4.352 8.534 4.529
4.565 8.108 5.497
4.458 7.681 6.012
3.183 12.676 0.329
3.196 12.132 0.679
3.728 11.558 1.624
3.695 8.562 5.103
4.166 8.277 5.245
4.113 7.838 5.704
2.449 12.395 0.687
2.760 12.116 0.773
2.993 11.674 1.468
3.233 8.923 4.970
3.177 8.075 5.425
3.111 8.075 6.253
2.119 12.777 0.764
2.029 12.350 0.960
2.358 11.923 1.538
2.075 11.290 1.996
2.521 9.124 4.705
2.774 8.693 5.271
2.807 8.526 5.949
2.772 7.761 6.246
12.168 9.938 0.264
12.120 9.830 0.534
12.282 9.620 0.957
12.301 8.961 1.430
12.010 8.272 2.031
12.408 8.295 2.668
12.179 7.419 3.079
12.336 7.145 3.696
12.315 6.691 4.382
11.004 10.373 -0.006
11.474 9.880 0.840
11.300 9.332 1.156
11.313 8.852 1.854
11.459 8.646 2.472
11.803 8.349 2.501
11.393 7.579 3.022
11.840 7.371 3.738
11.747 6.630 3.989
10.473 10.239 0.241
10.873 8.176 3.173
11.085 7.659 3.225
10.768 7.240 3.796
11.294 6.775 4.427
9.815 11.087 -0.238
9.915 10.156 0.391
10.200 8.301 2.929
10.541 7.831 3.288
10.182 7.353 3.835
10.498 6.895 4.526
8.999 10.946 0.392
9.702 7.830 3.527
9.991 7.313 3.970
9.738 7.017 4.546
9.258 7.434 3.355
9.859 6.976 3.599
9.737 6.604 4.445
8.624 7.305 3.376
9.003 7.041 3.893
9.257 6.731 4.199
8.004 10.598 0.043
7.658 10.160 0.241
8.106 7.927 3.126
8.308 7.563 3.458
8.511 6.911 3.764
8.353 6.514 4.445
7.233 10.390 0.324
7.115 10.266 0.389
7.398 9.693 1.343
7.543 9.211 1.602
7.467 8.904 1.997
7.306 8.579 2.947
7.773 8.080 2.990
7.462 7.853 3.891
7.400 7.284 4.339
7.580 6.707 4.457
6.300 10.501 0.272
6.582 10.552 0.615
6.518 10.067 1.281
6.526 9.458 1.678
7.027 8.812 2.562
6.751 8.747 2.676
6.830 8.175 3.375
7.018 7.679 3.679
7.241 7.535 4.433
7.050 6.832 4.811
5.996 10.901 0.536
6.203 10.182 1.199
6.251 9.665 1.186
6.362 9.586 1.746
6.335 9.038 2.250
6.255 8.574 3.179
6.469 8.473 3.595
6.271 7.758 3.674
6.392 7.506 4.397
6.251 6.970 4.709
5.172 11.089 0.262
5.197 10.552 0.761
5.302 10.653 1.126
5.199 10.246 1.716
5.291 9.645 2.247
5.355 9.231 2.696
5.463 8.770 3.266
5.843 8.290 3.519
5.824 7.948 4.323
5.752 7.349 4.553
5.916 7.161 5.042
4.326 11.337 0.339
4.466 11.013 0.668
4.467 10.505 1.161
4.592 9.965 1.580
4.846 8.992 3.135
4.999 8.246 3.555
5.184 7.725 4.134
5.011 7.512 4.823
5.354 6.918 5.075
3.699 11.155 0.541
4.187 11.206 0.950
4.271 10.743 1.210
4.157 8.583 4.096
4.434 8.001 4.202
4.588 7.568 4.599
4.597 7.259 5.547
3.108 11.509 0.382
3.223 11.048 0.714
3.817 7.784 4.411
4.071 7.821 5.194
3.877 7.317 5.368
2.462 11.834 0.177
2.761 11.310 0.455
2.766 10.872 1.248
3.110 8.008 4.535
3.179 7.946 5.344
2.945 7.162 5.586
1.800 11.941 0.528
2.098 11.712 0.900
1.850 10.944 1.266
2.267 10.742 1.583
2.516 8.870 4.160
2.342 7.978 4.587
2.671 7.656 5.426
2.367 7.130 5.809
12.674 8.996 0.034
12.690 8.941 0.654
11.854 9.065 0.391
12.043 9.029 0.735
11.994 8.270 0.960
12.050 7.895 1.550
11.899 7.445 2.255
12.328 6.871 2.828
12.054 6.699 3.433
12.154 6.389 3.865
11.159 9.461 0.177
10.970 8.915 0.922
11.040 8.287 1.534
11.204 7.910 1.607
11.447 7.663 2.548
11.665 7.381 2.768
11.438 6.545 3.198
11.360 6.631 3.764
10.723 7.599 2.202
11.047 7.579 3.091
11.091 7.128 3.765
11.188 6.347 3.760
10.268 7.333 3.004
9.963 6.672 3.462
10.587 6.664 4.033
9.707 7.657 3.041
9.569 7.050 3.763
9.475 6.497 4.074
9.271 6.285 3.459
9.427 6.227 3.852
8.784 7.251 2.862
8.585 6.842 3.220
8.985 6.021 3.730
7.681 9.730 0.024
8.112 7.377 2.489
7.844 6.883 2.985
8.107 6.906 3.754
8.073 6.243 3.861
7.374 9.941 0.404
7.144 9.247 0.533
7.209 7.891 2.413
7.685 7.766 2.738
7.668 7.414 3.484
7.465 6.804 3.783
7.787 6.286 4.507
6.572 10.036 0.256
6.716 9.584 0.843
6.770 8.836 1.311
6.607 8.521 1.933
6.969 8.273 2.133
6.485 7.919 2.716
6.696 7.241 3.167
6.835 6.622 4.125
7.013 6.288 4.315
5.913 10.171 -0.052
5.862 9.851 0.514
5.902 9.576 0.849
6.077 8.797 1.682
6.177 8.648 1.946
6.298 8.274 2.284
5.983 7.807 2.969
5.942 7.570 3.536
6.213 7.023 3.839
6.570 6.331 4.358
4.863 10.132 0.154
5.211 10.118 0.778
5.493 9.632 1.438
5.498 8.085 2.762
5.642 7.579 3.404
5.459 7.294 3.929
5.867 7.141 4.076
5.605 6.498 4.740
4.473 10.628 0.054
4.373 9.892 0.892
4.903 7.963 3.241
4.701 7.688 3.835
4.904 7.140 4.216
4.761 6.758 4.821
3.548 10.694 0.485
4.308 7.214 3.949
4.384 6.818 4.460
4.251 6.665 4.717
3.040 10.945 -0.087
3.858 7.259 4.477
3.754 6.918 5.357
2.592 11.310 0.016
3.254 7.344 4.745
3.227 6.601 5.057
1.685 10.996 0.248
1.612 10.445 0.983
2.091 7.894 4.494
2.301 7.304 4.764
2.676 6.593 5.292
12.159 8.263 0.289
12.381 7.711 0.661
12.642 7.661 1.167
12.820 6.934 1.476
11.795 8.315 0.076
11.885 7.656 0.883
11.714 7.250 1.445
12.041 6.971 1.936
12.204 6.755 2.368
11.797 6.004 2.809
12.029 5.815 3.210
11.140 7.432 1.637
11.231 7.256 1.845
11.453 6.890 2.721
11.493 6.401 2.914
11.465 5.920 3.480
10.622 7.224 2.033
10.504 6.829 2.356
10.805 6.120 3.347
11.028 6.113 3.329
9.946 6.895 2.504
10.352 6.325 3.036
10.339 6.150 3.694
9.451 6.789 3.520
9.489 6.045 3.599
8.207 6.131 3.224
8.160 5.761 3.451
7.226 6.857 2.195
7.373 6.916 2.786
7.485 6.188 3.230
7.224 5.886 3.654
6.461 7.063 2.674
6.952 6.477 3.030
6.783 6.506 3.500
6.816 5.804 3.994
5.656 9.176 0.098
6.158 7.399 2.646
5.754 6.689 3.363
5.967 6.215 3.410
5.985 5.978 4.365
5.244 9.650 0.435
5.175 7.085 2.691
5.627 6.819 3.014
5.679 6.435 3.704
5.347 6.212 4.414
5.016 7.132 3.232
4.687 6.438 4.021
5.012 6.286 4.325
12.506 6.718 1.008
12.348 5.881 2.040
12.460 5.644 2.505
11.550 6.804 1.351
11.692 6.440 2.164
12.137 5.943 2.134
11.756 5.477 2.821
11.126 6.697 1.298
10.955 6.170 2.008
11.263 5.651 2.647
11.579 5.285 2.830
10.387 6.049 2.531
10.714 5.720 3.230
7.439 6.246 2.380
7.312 5.689 3.053
7.159 5.333 3.338
6.769 6.102 2.596
6.386 5.677 3.084
6.426 5.257 3.634
5.972 6.573 2.483
6.025 6.054 2.764
5.735 5.900 3.120
6.116 5.176 3.859
5.436 6.141 2.640
5.138 5.916 3.280
5.497 5.663 3.758
4.709 6.200 3.239
12.528 6.270 0.595
12.583 5.789 1.495
12.604 4.964 2.049
12.546 4.785 2.309
11.746 5.876 1.343
11.500 5.007 2.047
12.053 5.058 2.266
11.299 5.934 1.466
11.363 5.062 2.095
10.956 4.958 2.527
7.233 5.421 2.794
7.014 4.839 3.045
6.213 5.629 2.132
6.293 5.460 2.763
6.628 4.803 2.951
5.759 5.515 2.057
5.702 5.425 2.781
6.074 4.770 3.320
5.117 5.934 2.681
5.391 5.691 3.007
5.036 5.065 3.519
11.943 4.845 1.057
12.289 4.648 1.460
12.379 4.487 2.081
11.756 5.224 1.240
11.627 4.505 1.428
11.836 4.515 1.842
11.136 4.526 1.509
11.192 4.569 2.425
7.717 1.248 7.082
7.569 0.976 7.667
7.092 1.827 6.902
6.853 1.690 7.406
6.948 1.267 7.795
6.891 0.814 8.184
6.417 4.696 3.892
6.495 1.688 6.559
6.528 1.585 7.375
6.416 1.203 7.567
6.323 0.860 8.255
5.845 4.474 3.637
5.473 1.346 7.649
5.593 1.125 8.240
5.940 0.693 8.417
12.186 3.729 2.231
12.167 1.512 5.738
11.917 1.016 6.130
11.985 0.224 6.493
12.420 0.326 7.194
11.544 3.944 2.660
11.670 1.149 6.189
11.438 0.437 6.767
7.770 0.755 6.444
7.562 0.569 7.206
7.598 0.084 7.819
7.030 1.125 6.414
6.934 1.221 6.999
7.125 0.325 7.034
6.727 0.034 7.574
6.154 3.871 3.341
6.106 1.528 6.218
6.327 1.080 7.115
6.075 0.754 7.545
6.299 0.281 7.961
5.686 4.148 3.556
5.291 1.566 6.794
5.857 1.296 7.294
5.918 0.495 7.536
5.464 0.127 8.127
5.280 3.925 3.797
4.758 0.611 7.485
12.028 3.220 1.906
12.155 1.094 5.132
11.904 0.139 5.852
11.564 3.343 2.104
11.456 0.460 6.028
11.271 0.322 6.537
8.213 0.093 6.138
7.494 0.803 5.907
7.592 0.129 6.384
7.088 3.454 2.920
6.527 1.380 5.469
6.713 0.662 6.174
6.708 0.678 6.171
7.007 -0.073 7.088
6.042 3.498 2.760
6.415 3.054 3.489
5.881 1.535 5.291
6.272 0.823 5.886
5.955 0.443 6.563
5.882 0.146 6.767
5.423 3.225 3.101
5.570 3.160 3.692
5.321 0.905 6.334
5.537 0.830 6.808
5.733 -0.098 7.215
4.755 3.663 3.223
4.913 1.018 6.147
4.717 0.754 6.797
4.886 0.348 7.367
4.378 3.767 3.052
12.612 0.723 3.869
12.478 0.273 4.872
12.109 2.560 1.757
12.259 2.204 2.342
11.891 0.579 4.362
11.991 0.341 4.612
11.285 3.118 1.830
11.347 2.635 2.145
10.929 0.333 4.766
10.907 2.794 1.887
10.790 0.080 5.332
7.975 0.461 5.193
7.439 2.913 2.411
7.329 0.594 4.618
7.428 0.387 5.619
7.023 2.949 2.300
6.663 2.572 2.591
6.445 1.379 4.074
6.571 1.171 4.614
6.246 1.067 4.873
6.729 0.406 5.357
6.322 3.008 2.480
5.951 2.751 2.934
6.387 2.253 3.733
6.332 1.637 3.979
5.863 1.928 4.369
5.625 1.155 4.553
5.923 1.117 5.152
5.800 0.557 5.887
5.793 0.108 6.211
5.417 2.725 2.799
5.461 2.343 2.985
5.622 2.395 3.497
5.911 1.530 4.117
5.039 1.169 4.561
4.979 1.038 5.050
5.132 0.513 5.702
5.545 0.295 6.373
4.707 3.151 2.856
4.957 2.904 3.409
4.916 2.092 4.028
4.580 0.776 5.477
4.468 0.721 5.752
4.601 0.425 6.232
4.273 2.895 2.900
4.143 2.729 3.184
3.670 0.560 6.002
4.245 0.476 6.706
3.641 3.452 3.119
3.121 0.426 6.404
2.737 0.483 6.739
1.777 0.778 6.478
1.898 0.534 6.758
1.923 0.129 7.637
1.732 3.361 3.180
11.849 0.892 2.882
12.448 0.526 3.378
12.227 0.375 3.910
12.117 2.429 1.198
11.862 2.148 1.852
12.130 1.170 2.404
12.077 1.067 2.785
11.645 0.968 3.092
11.383 0.915 3.372
11.546 0.442 4.153
11.080 2.278 1.481
11.144 1.663 2.039
11.529 1.635 2.496
11.589 1.361 2.674
11.142 0.179 4.139
10.863 2.586 1.768
10.461 1.983 1.884
9.911 2.590 1.357
8.378 2.426 1.337
8.156 2.244 1.871
7.783 -0.063 4.104
7.220 2.395 2.058
7.432 1.782 2.066
6.668 0.974 3.509
6.833 0.686 4.087
7.008 0.445 4.339
6.901 2.571 1.748
6.834 2.069 2.655
6.656 1.243 2.971
6.742 1.196 3.243
6.123 1.387 3.468
6.147 0.998 4.137
6.316 0.195 4.516
6.061 2.226 2.276
6.322 2.137 2.549
5.894 1.349 3.153
5.912 1.293 3.637
5.778 1.389 3.642
5.458 0.632 3.923
5.776 0.476 4.921
5.130 2.664 1.919
5.226 1.949 2.935
5.633 1.768 3.001
5.615 1.195 3.649
4.845 1.414 3.729
4.955 0.682 4.169
5.230 0.241 4.964
4.827 0.019 5.418
4.847 2.622 2.517
5.065 2.246 2.804
4.779 1.602 3.572
4.808 1.176 3.947
4.166 0.593 5.233
4.423 0.143 5.377
4.198 2.900 2.229
3.874 2.335 2.938
3.896 0.334 5.443
3.489 2.811 2.527
3.389 0.408 5.693
2.834 2.636 2.919
2.369 0.101 5.770
2.041 2.893 3.143
1.816 0.593 6.012
1.633 2.769 3.248
12.551 1.674 0.899
12.655 1.482 1.449
12.682 1.005 1.835
12.185 0.569 2.243
11.839 0.183 2.650
11.660 1.572 0.743
11.799 1.375 1.486
11.763 0.906 1.881
11.978 0.378 2.125
11.396 0.326 2.745
11.432 0.306 2.903
10.918 1.790 0.897
11.391 1.317 1.240
11.401 1.239 2.154
11.332 0.668 2.673
10.430 0.708 2.373
10.607 0.284 3.079
10.244 2.147 1.381
10.808 1.688 1.613
10.531 1.109 2.063
10.831 0.637 2.352
10.127 2.288 1.088
10.078 1.342 1.487
9.404 1.901 1.613
8.675 1.913 1.424
8.418 1.485 0.871
7.917 1.874 1.135
7.212 1.816 1.455
7.457 1.240 1.743
6.975 0.373 3.038
6.939 0.089 3.491
6.479 1.613 1.508
6.590 1.477 2.119
6.870 0.889 2.292
6.560 0.685 3.036
5.888 0.617 2.884
6.291 0.478 3.842
5.587 2.176 1.681
6.114 1.674 2.208
5.841 0.981 2.747
6.120 0.541 2.969
5.218 0.680 3.422
5.746 0.265 3.787
5.013 2.258 1.997
5.330 1.351 2.410
5.179 0.957 2.803
5.452 0.902 3.460
4.663 0.674 3.623
4.597 0.286 3.902
4.523 2.073 2.207
4.909 1.789 2.361
4.914 1.504 2.856
4.516 0.776 3.360
4.281 0.619 4.034
4.061 -0.064 4.744
3.714 1.886 1.985
3.747 1.575 2.816
4.314 1.518 3.102
3.504 2.130 2.267
2.650 2.036 2.218
1.849 2.262 2.442
1.499 2.455 2.583
12.346 1.448 0.034
12.481 0.561 0.524
12.482 0.267 1.510
11.953 0.295 1.883
11.691 1.503 0.550
11.677 0.681 1.142
11.755 0.669 1.140
11.622 0.218 1.886
11.215 -0.115 2.154
10.756 1.171 0.500
11.081 1.035 0.845
11.177 0.253 1.317
11.456 -0.054 1.897
10.612 0.352 2.114
10.459 1.670 0.914
10.632 1.090 1.465
10.741 0.603 1.475
10.651 0.209 2.375
9.709 1.429 0.699
9.653 0.964 1.510
9.215 1.776 1.092
8.632 1.459 0.867
7.670 1.499 0.549
6.979 1.442 0.939
6.430 1.221 1.042
6.516 0.684 1.388
6.748 0.729 2.225
5.975 0.358 3.021
5.595 1.248 1.526
5.653 0.962 1.495
6.068 0.693 2.260
5.825 -0.090 2.664
5.239 -0.034 2.773
4.899 1.775 1.478
4.991 1.183 2.102
5.237 0.612 2.536
5.208 0.372 2.889
4.509 0.306 2.952
4.257 1.837 1.563
4.618 1.188 2.270
4.581 0.775 2.716
4.489 0.217 3.196
3.960 1.509 1.744
3.849 1.011 1.913
3.075 1.584 1.678
1.449 1.941 2.411
12.195 0.491 0.430
11.440 0.542 0.237
11.765 0.282 0.634
10.596 0.987 0.339
10.860 0.209 0.641
10.757 -0.053 0.915
10.132 1.143 0.259
10.030 0.250 0.732
10.455 -0.140 1.354
9.369 1.270 0.201
9.201 1.196 0.727
6.953 0.859 0.686
6.049 1.040 0.629
6.568 0.364 0.991
5.779 0.942 0.909
5.463 0.637 1.384
4.778 0.849 1.262
4.884 0.420 1.452
4.897 0.330 1.807
4.054 0.928 1.053
4.098 0.615 1.347
3.898 1.243 1.308
10.413 0.088 0.217
9.423 0.772 -0.077
5.988 0.514 0.473
5.507 0.396 0.207
4.811 0.368 0.731
4.241 0.503 0.558
8.854 5.831 10.037
8.506 5.225 10.547
8.930 4.740 10.750
8.775 4.380 11.241
8.408 8.496 6.800
8.240 5.880 10.162
8.167 5.231 10.574
7.926 5.270 11.020
8.122 4.568 11.261
8.539 4.433 12.145
7.508 8.332 6.944
7.477 6.050 9.935
7.646 5.297 10.483
7.336 5.123 11.256
7.668 4.855 11.502
7.889 4.489 12.033
6.792 8.460 7.336
7.032 5.990 10.506
6.604 5.438 10.677
6.719 5.195 11.420
6.871 4.598 11.589
6.900 4.334 12.534
6.343 8.598 7.042
6.058 5.514 10.997
6.529 5.330 11.546
6.277 4.918 11.638
12.407 8.148 5.955
9.785 4.524 10.298
8.951 5.523 9.322
9.265 4.549 9.585
9.583 4.278 10.090
9.532 3.691 10.951
8.688 7.629 6.182
8.461 5.612 9.184
8.696 5.073 9.519
8.651 5.075 10.206
8.529 4.517 10.390
8.868 3.959 10.757
8.798 3.701 11.585
8.479 7.783 6.306
8.127 7.195 6.865
7.825 5.555 9.165
7.859 5.508 9.788
8.282 5.196 10.219
8.276 4.498 10.434
8.109 3.905 10.945
8.147 3.942 11.846
8.348 3.312 12.028
7.336 8.107 6.457
7.652 7.771 7.233
7.432 6.259 8.959
7.184 5.737 9.335
7.149 5.367 9.728
7.600 5.263 9.977
7.461 4.554 10.660
7.378 4.110 11.307
7.391 4.013 11.943
7.436 3.319 11.965
6.746 8.098 6.675
7.007 7.757 7.230
6.888 7.190 7.678
6.812 5.932 9.111
6.456 5.504 9.568
6.784 5.294 10.201
6.659 4.618 10.911
7.112 4.447 11.429
7.050 3.852 11.890
6.679 3.274 12.142
6.504 7.957 6.815
6.097 7.503 7.435
6.043 5.591 10.045
5.985 5.205 10.635
6.125 4.748 10.775
6.442 4.423 11.384
6.049 3.865 11.946
5.508 7.950 6.950
5.267 5.343 10.639
5.209 5.096 11.003
5.744 4.532 11.682
3.776 5.320 11.106
3.523 5.090 11.772
3.582 4.598 12.124
12.170 5.195 8.026
12.402 5.019 8.561
12.539 4.315 9.107
12.514 4.250 9.759
11.871 7.387 5.810
12.038 7.175 6.330
11.998 4.964 8.878
11.990 4.632 9.095
12.201 3.975 9.634
11.980 3.790 10.265
11.510 7.551 5.461
11.317 4.178 9.699
10.299 3.925 8.989
10.607 3.587 9.465
10.820 3.329 9.891
9.592 4.784 8.471
10.053 4.151 9.153
9.864 3.943 9.609
10.160 3.532 10.200
9.099 7.053 5.872
9.050 5.022 8.970
9.360 4.588 9.466
9.350 3.934 9.903
9.217 3.212 10.530
9.286 2.886 10.756
8.483 7.313 5.803
8.583 5.550 8.143
8.628 5.042 8.676
8.189 4.660 8.810
8.686 4.646 9.521
8.519 4.063 10.169
8.666 3.616 10.324
8.522 3.022 11.206
8.561 2.556 11.753
8.105 7.444 6.261
8.175 6.759 6.281
8.271 6.648 7.198
7.742 6.097 7.559
7.766 5.972 8.042
7.900 5.587 8.849
7.529 4.618 9.029
7.683 4.207 9.484
7.983 3.806 10.268
8.201 3.695 10.432
8.057 3.112 10.922
7.889 2.991 11.590
7.957 2.249 12.318
7.457 7.645 6.258
7.517 7.174 6.683
7.546 6.471 7.091
7.785 5.889 7.697
6.887 6.426 7.878
6.815 5.780 7.996
6.995 5.593 8.611
7.422 5.095 9.301
6.935 4.494 9.588
7.099 4.280 10.394
7.301 3.519 10.804
7.375 3.085 11.035
7.254 2.656 11.783
7.508 2.141 12.073
6.887 7.595 6.411
6.931 7.100 6.687
6.851 6.673 7.379
7.182 6.172 7.986
6.387 6.377 7.694
6.556 5.689 8.188
6.238 5.680 9.123
6.413 4.844 9.617
6.803 4.784 9.715
6.495 4.399 10.407
6.534 3.914 10.673
6.875 3.093 11.309
6.560 2.873 11.759
6.799 2.563 12.471
6.288 7.689 6.583
6.438 7.093 6.965
6.500 6.854 7.140
6.055 6.369 7.837
5.660 5.474 8.960
5.969 5.296 9.576
6.032 4.494 9.851
5.869 4.431 10.628
6.332 4.057 10.839
6.136 3.240 11.575
6.192 3.253 11.940
5.225 7.773 6.783
5.687 7.193 6.812
5.415 5.390 9.738
5.061 4.829 10.423
5.584 4.068 10.816
5.362 4.158 11.208
5.616 3.544 11.625
4.720 7.787 6.512
4.680 5.045 10.086
4.832 4.154 11.052
4.684 3.950 11.431
3.732 4.785 10.692
3.919 4.702 11.077
3.852 3.970 11.621
3.115 5.559 10.253
3.104 4.957 10.472
3.345 4.603 11.189
3.705 4.242 11.898
3.643 3.507 11.914
2.712 8.114 7.107
11.989 5.389 6.930
12.468 4.798 7.883
12.493 4.414 7.979
12.076 3.754 8.934
12.319 3.432 9.119
12.491 3.213 9.699
12.414 2.871 10.386
11.969 6.866 5.138
12.142 6.400 5.401
11.947 5.981 6.368
11.589 4.274 8.298
11.712 4.219 8.592
12.033 3.789 9.558
11.935 3.316 9.606
11.981 2.567 10.158
11.487 6.809 5.544
11.057 4.528 8.660
11.266 4.304 8.788
10.919 3.952 9.419
11.014 3.427 10.192
10.785 6.911 5.618
10.557 4.454 8.922
10.770 3.606 9.761
10.803 3.430 9.871
9.954 4.308 7.915
10.339 3.699 8.423
10.365 3.142 9.020
10.564 2.874 9.525
10.144 6.612 5.398
9.319 4.265 8.062
9.816 4.009 8.718
9.470 3.391 9.461
9.620 3.101 9.664
10.103 2.356 10.344
9.466 6.598 5.110
9.095 4.947 8.044
8.716 4.516 8.448
8.894 3.690 9.016
8.846 3.638 9.750
8.878 2.894 10.150
9.473 2.352 10.242
8.590 6.850 5.182
8.833 6.145 5.681
8.005 5.545 6.995
8.318 5.034 7.504
8.490 4.842 7.969
8.529 4.579 8.861
8.354 3.634 9.328
8.694 3.711 9.494
8.745 3.166 10.154
8.724 2.895 10.760
8.840 2.466 11.089
8.769 1.765 11.659
8.908 1.600 12.133
7.773 6.786 5.766
7.796 6.715 6.011
8.149 5.991 6.498
7.831 5.440 7.118
7.522 5.522 6.955
7.563 5.043 7.505
7.492 5.086 8.075
7.518 4.301 8.646
7.954 3.939 8.965
7.576 3.289 9.621
7.887 3.056 9.965
7.669 2.734 10.939
7.848 2.355 11.179
7.966 1.628 11.815
8.085 1.338 12.006
7.160 6.805 5.891
7.636 6.489 6.256
7.598 5.835 6.635
7.302 5.860 7.252
6.927 5.774 7.299
6.837 5.382 7.710
6.736 5.144 8.283
7.076 4.277 9.109
7.190 4.195 9.572
6.917 3.774 9.614
6.953 3.179 10.627
7.414 2.857 10.837
7.533 2.229 11.432
7.608 1.827 11.775
7.462 1.721 12.561
6.766 7.184 6.106
6.857 6.828 6.329
6.953 6.329 6.793
6.726 5.501 7.097
6.219 5.731 7.380
6.311 5.568 8.143
6.460 4.981 8.577
6.318 4.298 8.736
6.416 4.150 9.713
6.747 3.851 9.912
6.422 3.478 10.803
6.443 2.972 10.836
6.794 2.152 11.493
7.001 2.073 11.853
6.917 1.392 12.540
5.784 6.969 5.812
6.302 6.846 6.501
5.957 6.272 6.970
6.006 5.825 7.347
5.743 5.496 8.029
5.705 4.800 8.850
5.779 4.364 8.990
5.866 4.366 9.941
5.850 3.973 10.035
6.048 3.481 10.802
5.924 2.702 11.043
5.874 2.494 11.744
5.142 6.869 6.120
5.278 6.800 6.586
5.298 6.353 7.280
5.203 4.579 9.202
5.087 4.242 9.683
5.288 4.077 10.048
5.095 3.274 11.067
5.295 2.899 11.566
4.796 7.497 6.161
4.507 4.673 9.619
4.329 4.058 10.071
4.802 3.645 10.443
4.446 3.398 10.757
4.084 7.260 6.510
3.606 4.751 9.422
3.955 4.587 9.921
4.201 3.989 10.507
4.202 3.263 11.003
3.537 7.428 6.437
2.963 4.680 9.759
3.063 4.400 10.491
3.455 4.208 10.914
3.605 3.749 10.946
3.405 3.103 11.437
3.050 7.361 6.551
12.482 6.522 4.756
12.737 6.125 5.147
12.517 5.453 5.722
11.915 5.097 6.401
12.229 4.564 6.753
12.060 4.601 7.413
12.116 3.725 7.506
12.492 3.636 8.560
12.140 2.982 8.946
12.484 2.855 9.523
12.404 2.096 9.518
12.380 1.703 10.016
12.457 1.593 10.817
11.945 6.534 4.550
12.068 6.150 5.254
12.160 5.333 5.604
12.241 5.254 6.424
11.424 4.382 7.697
11.609 3.692 7.634
11.760 3.817 8.317
11.757 3.054 8.938
11.930 2.546 9.201
11.955 2.016 9.753
11.949 0.315 12.595
11.026 6.418 4.715
11.214 6.034 5.130
11.118 4.214 7.803
10.936 3.807 8.758
10.997 3.292 9.030
11.006 2.988 9.375
11.094 2.347 10.296
10.400 6.823 4.977
10.463 4.092 8.118
10.051 3.786 8.619
10.259 3.040 9.431
10.678 2.954 9.921
10.003 6.764 5.153
10.341 3.362 7.793
10.337 2.928 8.151
10.290 2.819 8.623
10.417 2.546 9.341
9.913 6.323 5.013
9.236 3.475 7.647
9.335 3.221 8.162
9.331 2.874 9.049
9.614 2.571 9.378
8.986 6.127 5.071
8.770 4.268 7.425
9.036 3.756 8.109
8.678 3.602 8.727
8.715 2.669 9.091
8.754 2.370 9.522
9.275 1.999 10.220
8.621 6.177 4.823
8.602 5.838 5.618
7.859 4.870 6.718
8.306 4.679 7.343
7.863 4.386 7.765
8.419 3.739 8.225
8.305 3.479 8.421
8.521 2.967 9.170
8.079 2.299 9.826
8.436 1.931 10.057
8.395 1.475 10.625
8.790 1.333 11.464
8.590 0.614 11.626
8.624 0.489 12.406
7.949 6.632 4.904
7.967 6.183 5.535
7.948 5.474 6.141
8.213 5.312 6.887
7.540 5.300 6.633
7.434 4.977 7.091
7.235 4.570 8.061
7.575 3.868 8.465
7.434 3.444 9.121
7.669 2.990 9.150
7.809 2.465 9.984
7.878 2.145 10.167
7.694 1.812 10.960
7.988 1.433 11.391
8.135 0.837 12.037
8.266 0.626 12.272
7.312 6.480 5.568
7.315 6.181 5.814
7.191 5.831 6.051
7.543 5.169 6.813
6.703 5.168 7.207
6.617 4.740 7.578
7.013 4.588 7.972
6.757 3.985 8.316
7.018 3.384 9.085
7.113 2.938 9.716
6.780 2.689 10.109
6.855 2.152 10.376
7.103 2.040 11.215
7.500 1.293 11.599
7.460 0.904 12.174
7.606 0.748 12.543
6.222 6.664 5.426
6.605 6.060 6.051
6.529 5.487 6.735
6.786 5.506 6.906
6.287 5.092 7.129
5.874 4.748 7.683
6.274 4.657 8.167
6.021 3.971 8.697
6.008 3.482 9.256
6.629 3.405 9.589
6.351 2.622 10.203
6.286 2.221 10.857
6.433 2.120 11.247
6.443 1.554 11.630
6.560 1.186 12.069
5.753 6.687 5.847
5.838 6.124 5.980
5.705 5.534 6.694
6.201 5.406 7.035
5.691 4.701 8.492
5.320 4.201 8.642
5.465 3.436 9.181
5.578 3.194 9.876
5.499 2.828 10.183
5.577 2.590 10.802
5.751 1.703 11.278
4.954 6.608 5.906
5.060 5.958 6.344
5.039 4.043 8.651
5.084 3.626 9.176
5.276 3.223 10.150
5.086 3.018 10.275
4.903 2.401 10.753
4.350 6.667 5.970
4.427 4.088 9.255
4.616 4.099 9.664
4.394 3.151 10.019
4.304 2.963 10.728
3.781 6.969 6.048
3.938 4.398 9.338
3.503 3.716 9.448
3.858 3.512 10.004
3.557 2.786 10.438
3.218 6.595 6.207
2.922 4.477 9.484
3.151 3.689 9.560
3.032 3.478 10.344
3.113 3.171 10.533
3.081 2.741 11.243
2.896 7.162 6.392
12.722 4.549 5.745
12.721 3.893 6.187
12.336 5.618 4.340
12.243 5.354 4.897
12.497 4.777 5.427
12.609 4.533 5.545
11.548 4.440 5.640
11.863 4.103 6.381
11.759 3.901 6.806
12.074 3.660 7.196
12.332 3.151 8.058
11.909 2.525 8.577
12.449 2.303 8.655
12.414 1.446 9.518
12.182 1.326 10.008
12.269 1.010 10.299
12.410 0.512 10.694
11.379 5.936 4.094
11.606 5.402 4.771
11.913 4.989 5.479
11.853 4.812 6.012
11.561 3.947 6.855
11.358 3.584 7.480
11.504 3.309 7.902
11.310 2.513 8.347
11.436 2.170 9.206
11.810 2.027 9.546
10.933 5.936 4.346
11.009 5.765 5.215
10.513 3.347 7.366
10.839 3.072 8.137
11.065 2.889 8.849
11.147 2.039 9.223
10.262 6.108 4.349
9.858 3.565 7.767
10.267 3.307 8.316
10.490 2.880 8.732
10.300 2.458 9.463
9.835 6.092 4.791
10.189 2.838 7.883
10.015 2.049 8.181
9.390 2.566 7.740
9.412 2.482 8.314
9.706 2.108 9.219
8.395 3.381 7.799
8.677 2.892 8.149
8.598 2.288 8.545
8.878 1.691 8.963
9.090 1.641 9.943
8.227 5.829 4.685
8.157 3.673 7.404
8.066 3.090 7.546
8.027 2.705 8.304
7.943 2.610 8.661
8.422 2.183 9.530
8.546 1.741 9.714
8.564 1.351 10.272
7.748 5.907 4.882
7.601 5.198 5.243
7.012 4.574 6.567
7.163 4.142 6.654
7.368 3.783 7.518
7.601 3.545 8.175
7.214 2.716 8.350
7.556 2.593 9.075
7.338 2.294 9.222
7.593 1.607 9.806
7.653 1.538 10.697
7.937 1.060 10.763
7.611 0.549 11.468
7.250 6.138 5.183
7.115 5.640 5.143
7.066 5.335 5.683
7.199 4.506 6.644
6.382 4.598 6.707
6.554 4.274 6.926
6.494 3.916 7.709
6.612 3.466 8.219
6.758 3.252 8.464
6.895 2.650 9.332
6.855 2.094 9.532
6.963 2.002 10.280
6.941 1.202 10.703
6.898 0.876 10.802
7.186 0.247 11.555
7.354 0.265 12.175
6.546 6.286 5.151
6.196 5.840 5.683
6.550 5.287 6.280
6.397 4.486 6.434
5.817 4.273 7.297
5.972 4.082 7.751
6.250 3.636 7.969
6.427 3.328 8.902
6.200 2.826 9.328
6.359 2.444 9.443
6.494 1.855 10.443
6.111 1.313 10.513
6.402 0.258 12.477
5.639 5.957 4.928
6.061 5.527 5.410
6.088 5.377 6.354
5.225 4.058 7.966
5.538 3.409 8.265
5.489 2.933 8.661
5.322 2.866 9.423
5.604 2.431 9.922
5.592 1.895 10.622
5.088 6.174 5.153
4.905 5.916 6.069
4.578 3.865 8.316
4.978 3.165 9.254
4.669 2.823 9.222
4.833 2.421 9.994
4.612 6.272 5.596
4.331 3.579 9.385
4.059 3.146 9.824
3.788 3.225 9.066
3.664 2.933 9.581
2.888 3.671 8.993
2.942 3.284 9.585
3.029 2.862 9.945
2.851 2.429 10.616
2.712 6.592 5.788
12.562 4.070 5.076
12.358 3.588 6.016
12.488 3.512 6.139
12.708 2.556 6.983
12.051 5.507 3.705
11.967 5.114 4.048
12.293 4.315 4.585
12.150 3.904 5.292
11.576 3.315 6.306
11.972 2.777 7.090
11.753 2.490 7.359
12.235 2.278 7.983
12.183 1.558 8.290
11.970 1.411 9.258
12.107 0.739 9.283
11.618 5.268 3.992
11.846 5.231 4.508
11.173 2.787 6.980
11.268 2.351 7.612
11.125 2.228 8.389
11.585 1.675 8.647
11.553 1.041 9.229
10.660 5.516 3.835
10.550 2.608 7.850
10.436 1.920 8.345
10.492 1.860 8.500
9.963 2.511 8.036
10.351 2.199 8.320
8.737 2.157 7.883
8.437 2.054 8.309
7.802 2.842 7.511
7.878 2.205 8.048
8.117 1.750 8.545
7.974 1.415 9.001
7.997 1.076 9.507
7.734 5.138 4.602
7.333 3.374 7.283
7.405 2.984 7.648
7.408 2.208 8.038
7.585 1.951 8.510
7.420 1.810 9.119
7.313 1.282 9.791
7.046 5.491 4.550
6.895 4.978 5.271
6.651 3.350 7.343
6.829 2.913 7.913
6.718 2.773 8.280
6.804 2.320 8.779
6.536 1.744 9.075
6.572 1.128 9.507
6.241 5.376 4.543
6.142 5.322 5.051
5.913 3.071 7.631
6.027 2.446 8.413
6.267 2.229 9.014
6.019 1.993 9.160
6.016 1.145 9.969
5.411 5.745 4.663
5.170 3.270 8.011
5.423 2.556 8.364
5.648 2.434 9.156
5.232 1.583 9.635
4.982 5.397 5.067
12.259 2.542 5.861
12.208 2.315 6.438
12.523 1.666 7.199
12.515 1.756 7.183
12.589 0.903 8.024
12.216 4.995 3.583
12.078 4.574 4.150
11.889 2.202 6.745
11.543 1.879 7.222
12.042 1.695 7.307
12.195 0.880 8.315
12.261 0.605 8.518
11.195 4.938 3.782
11.270 2.154 6.919
11.493 1.537 7.555
7.521 2.001 7.643
7.963 1.726 8.229
8.025 0.782 8.415
7.035 2.271 6.928
7.420 1.932 7.549
7.377 1.724 7.862
7.101 1.357 8.392
6.831 5.184 4.370
6.605 2.279 7.005
6.316 2.012 7.658
6.488 1.515 8.403
6.842 1.190 8.923
6.524 0.617 9.180
6.034 4.723 4.488
5.761 2.467 7.170
6.107 2.115 7.875
5.655 1.643 8.541
5.849 1.300 9.130
5.327 5.056 4.466
5.478 2.028 8.307
12.671 4.561 2.631
11.975 1.738 6.206
12.443 1.519 6.397
12.557 0.845 7.099
12.246 0.541 7.409
11.879 4.239 3.227
11.692 1.679 6.471
11.945 1.276 7.293
11.805 0.784 7.470
7.754 1.667 7.296
7.810 0.948 7.377
6.781 2.087 6.871
6.829 1.419 7.004
7.027 1.187 7.686
7.219 0.577 8.210
6.317 4.334 3.574
6.214 1.982 6.681
6.171 1.498 7.097
6.173 0.937 7.765
6.214 0.659 8.294
5.873 4.621 3.825
5.487 1.645 7.587
5.788 1.000 7.828
6.014 0.902 8.250
12.467 3.899 2.666
12.232 1.269 5.503
11.914 0.874 6.332
12.438 0.240 6.699
12.210 0.120 7.012
11.605 3.770 2.537
11.470 0.918 6.497
11.613 0.605 6.924
3.197 12.693 9.986
2.619 12.475 10.074
3.146 12.254 8.969
3.267 12.111 9.330
2.621 12.317 8.995
2.824 11.875 9.890
1.780 12.244 9.311
2.177 12.368 9.822
1.367 11.882 10.163
0.836 12.426 10.380
-0.095 12.381 10.237
2.699 12.235 8.381
3.193 11.972 8.565
2.882 11.365 9.050
2.524 12.404 8.073
2.111 11.990 8.569
2.551 11.282 9.558
1.622 12.664 8.601
1.628 12.137 8.943
1.570 11.420 9.724
1.254 12.334 8.502
0.812 12.159 9.100
0.947 11.728 9.645
0.452 12.382 9.061
0.539 11.533 9.788
3.037 11.553 7.526
2.625 11.475 8.063
2.838 10.759 9.035
2.003 12.113 7.677
2.216 12.017 7.714
2.340 11.221 8.418
2.455 11.089 9.004
1.443 12.572 7.543
1.806 11.746 7.914
1.321 11.574 8.762
1.718 11.157 9.303
0.840 12.302 7.462
1.117 11.885 8.375
1.052 11.571 8.826
1.132 11.008 9.249
0.404 12.039 8.198
0.149 11.426 8.731
0.457 11.127 9.406
1.906 11.143 7.229
2.205 10.863 7.844
1.962 10.525 8.614
1.343 11.296 7.677
1.161 10.942 7.926
1.776 10.458 8.570
0.547 11.253 8.026
0.523 11.262 8.167
0.953 10.828 8.715
0.160 11.158 8.557
-0.009 10.601 8.808
1.680 10.700 7.186
1.903 10.529 7.633
1.780 9.777 8.295
1.123 11.181 7.488
1.266 10.234 7.968
1.461 10.062 8.377
0.574 11.044 7.323
0.921 10.289 7.779
0.555 10.047 8.101
-0.091 10.449 7.894
0.247 10.417 8.551
3.213 11.981 12.579
3.587 12.459 11.172
3.804 11.909 11.236
2.914 11.233 12.386
2.848 11.878 11.440
3.095 11.578 12.243
2.858 11.432 12.740
2.283 12.341 11.882
2.373 12.095 12.429
1.652 12.293 11.732
1.863 11.597 12.488
0.962 12.417 12.096
1.258 11.775 12.326
0.242 12.681 12.262
3.847 10.465 12.679
3.253 12.103 10.643
3.344 11.843 10.836
3.496 11.056 11.522
2.843 11.052 12.091
2.872 12.095 10.420
2.902 11.863 11.394
2.934 11.134 11.854
3.232 10.723 12.207
2.134 11.123 12.545
2.209 12.408 11.012
1.922 11.698 11.059
2.530 11.089 11.799
2.365 11.127 12.065
1.824 11.232 12.156
1.373 12.206 10.963
1.353 12.059 11.548
1.836 11.514 11.767
1.631 10.867 12.138
1.065 11.276 12.570
0.761 12.324 10.817
0.628 11.766 11.504
1.159 11.197 12.230
1.027 11.109 12.510
-0.009 12.609 11.269
0.477 11.851 11.846
3.280 11.689 9.957
3.226 10.938 10.567
2.997 10.365 11.861
2.791 9.840 11.975
2.858 11.652 10.503
2.455 10.981 10.603
3.037 10.556 11.152
2.541 10.388 11.921
1.987 10.353 11.650
2.502 9.960 12.595
1.713 11.810 10.565
2.088 11.042 11.021
2.343 10.539 11.381
2.023 10.533 12.101
1.519 10.696 12.004
1.379 9.819 12.387
1.085 12.001 10.325
1.365 11.262 11.285
1.715 11.111 11.673
1.351 10.718 12.248
0.645 11.927 10.795
0.869 11.436 11.318
0.674 10.922 11.493
0.024 11.807 10.489
2.863 11.247 9.788
2.795 8.680 12.187
2.493 11.356 9.575
2.621 10.768 10.493
2.000 9.550 12.237
2.027 8.936 12.591
1.726 11.417 9.813
1.916 10.956 10.571
2.012 10.029 11.028
1.187 11.106 10.271
1.444 10.549 10.499
0.331 11.376 10.427
0.755 10.826 10.937
2.601 8.243 12.353
2.636 10.514 9.137
2.072 7.910 12.790
1.802 10.748 9.589
0.803 10.740 9.495
0.177 11.025 9.565
2.824 6.891 12.548
2.202 7.662 11.932
1.479 10.159 9.366
1.331 7.906 12.188
0.982 10.120 9.023
2.566 6.547 12.113
1.632 6.973 11.776
1.909 6.807 12.392
1.674 9.653 8.490
1.432 7.199 11.987
1.349 6.520 12.142
0.950 9.730 9.136
0.471 6.981 12.483
0.775 6.373 3.523
0.707 6.173 4.083
0.889 5.548 4.274
0.128 6.247 4.246
0.242 5.609 4.387
1.069 5.127 3.515
0.491 5.603 2.824
0.709 5.324 3.526
0.604 5.218 3.824
0.808 5.294 2.502
0.926 4.869 2.867
1.004 4.397 3.382
0.277 5.964 2.371
0.108 5.147 2.516
0.408 4.828 3.110
0.394 4.401 3.516
0.495 5.107 1.745
0.954 4.560 2.234
0.696 4.501 2.838
0.763 4.183 3.167
0.087 5.610 1.329
-0.160 5.103 1.592
0.148 4.800 2.151
0.339 4.357 2.746
0.176 3.943 3.132
0.594 5.320 0.506
0.470 4.828 1.404
0.738 4.194 1.375
0.838 3.754 2.437
0.687 3.168 2.755
-0.187 4.431 1.980
0.151 3.947 2.166
-0.085 3.519 2.739
0.280 4.862 0.159
0.436 4.358 1.019
0.793 3.625 1.176
0.536 3.312 1.821
0.640 2.709 1.966
-0.077 3.256 2.409
0.532 3.615 0.056
0.497 3.497 1.115
0.285 2.811 1.378
0.276 2.155 1.673
0.444 2.844 0.577
0.040 2.487 0.742
0.408 1.824 1.317
0.265 2.545 0.160
0.285 1.910 0.571
0.409 1.323 0.763
2.458 10.332 6.299
2.462 9.743 6.942
2.442 9.508 7.679
1.863 10.614 6.030
1.932 10.492 6.394
2.010 9.933 7.350
1.702 9.478 7.901
1.302 11.004 6.201
1.265 10.396 6.953
1.002 9.758 7.329
1.320 9.381 7.780
0.389 10.673 6.305
0.671 10.570 7.155
0.759 10.225 7.355
0.711 9.638 8.137
1.708 12.264 3.378
2.390 10.085 5.519
2.234 9.751 5.923
2.068 9.492 6.412
2.629 9.190 7.175
1.043 12.488 3.026
1.567 11.735 3.488
1.452 10.821 5.540
1.326 10.243 5.791
1.576 10.126 6.544
1.790 9.616 6.498
1.556 8.768 7.320
0.327 12.606 3.278
0.845 12.000 4.082
0.669 10.534 5.246
0.808 10.189 5.831
1.007 10.023 6.287
1.260 9.336 6.628
1.036 8.948 7.147
-0.000 11.842 4.171
0.052 10.789 5.807
0.195 10.232 5.840
0.339 9.860 6.310
0.411 9.417 6.864
0.503 8.978 7.309
1.729 12.192 2.461
1.511 11.747 2.547
2.067 11.602 3.067
1.919 10.303 4.859
1.789 9.820 5.017
2.299 9.045 5.689
2.241 8.665 6.055
1.967 8.642 6.629
1.193 12.083 2.316
0.815 12.005 2.966
1.244 11.202 3.372
1.336 10.820 3.726
1.489 10.825 4.281
1.268 10.092 4.780
1.569 9.730 5.228
1.697 9.454 6.029
1.711 8.933 6.154
1.357 8.712 6.975
0.531 12.309 2.745
0.493 11.969 2.846
0.235 11.406 3.220
0.595 11.275 4.005
0.790 10.446 4.373
0.881 10.466 5.129
0.591 9.820 5.233
0.539 9.660 5.948
1.132 8.907 6.407
0.700 8.348 7.255
0.077 10.398 5.209
-0.050 9.879 5.462
0.420 9.241 6.416
0.233 8.928 6.913
0.031 8.787 7.068
1.458 11.991 1.144
1.523 11.855 1.563
1.768 11.335 2.179
1.516 10.754 2.922
1.721 9.894 4.376
2.079 9.208 4.972
1.948 8.727 5.071
1.906 8.082 6.016
1.972 7.982 6.392
0.836 12.245 1.609
1.140 11.578 1.789
0.914 11.615 2.532
1.037 11.160 3.209
1.345 10.428 3.224
1.334 10.148 4.173
0.928 9.733 4.195
1.218 9.460 4.780
1.130 8.695 5.215
1.504 8.375 5.828
1.474 7.964 6.627
-0.097 12.119 1.518
0.100 11.904 2.034
0.413 11.734 2.772
0.341 10.952 2.936
0.309 10.690 3.745
0.457 10.285 4.321
0.319 9.766 4.854
0.502 9.611 5.184
0.662 8.739 5.625
0.642 8.413 5.902
1.009 7.816 6.314
0.310 8.997 5.532
-0.007 8.719 6.346
0.421 8.154 6.557
1.075 12.205 0.384
1.561 11.740 0.699
1.670 10.991 1.420
1.314 10.836 1.832
1.756 10.513 2.294
1.657 9.194 3.875
1.865 8.959 4.388
2.024 8.369 4.634
1.621 7.792 5.554
1.811 7.425 5.993
0.460 12.455 0.756
0.826 11.887 1.128
0.632 11.493 1.380
0.600 11.100 2.157
