7.258 7.734 12.270
7.590 7.370 11.979
8.055 6.953 12.064
8.495 6.533 11.946
8.856 6.024 11.751
6.962 7.223 12.519
7.413 6.906 12.458
7.709 6.469 12.200
8.192 6.016 12.085
8.426 5.741 12.080
7.331 6.071 12.531
7.892 5.621 12.357
8.260 5.361 12.348
12.053 12.491 7.961
12.435 12.226 8.045
11.909 12.245 8.320
12.257 11.803 8.182
11.073 12.203 8.834
11.455 11.755 8.672
11.866 11.422 8.527
12.335 10.888 8.500
10.521 12.187 9.098
10.728 11.839 9.028
11.259 11.461 9.023
11.472 10.932 8.825
11.971 10.626 8.599
12.302 10.212 8.624
9.630 12.189 9.521
9.986 11.855 9.499
10.394 11.392 9.213
10.794 11.003 9.183
11.185 10.631 9.168
11.600 10.301 9.030
12.097 9.847 8.888
9.700 11.379 9.603
10.189 11.178 9.703
10.655 10.674 9.434
11.009 10.271 9.469
11.366 9.809 9.382
11.759 9.445 9.275
9.944 10.634 9.789
10.143 10.193 9.851
10.710 9.810 9.735
11.023 9.459 9.627
11.315 9.107 9.487
9.832 9.822 10.092
10.333 9.461 9.931
10.750 8.998 9.960
11.148 8.573 9.709
9.624 9.614 10.271
9.956 9.149 10.181
10.289 8.696 10.051
10.769 8.396 10.151
9.241 9.321 9.790
9.770 9.061 9.780
10.134 8.583 9.657
10.505 8.256 9.608
5.916 12.336 11.070
8.965 9.063 10.069
9.323 8.626 10.158
9.714 8.265 10.020
10.226 7.855 9.796
5.122 12.395 11.298
5.622 11.817 11.375
5.927 11.430 11.296
8.226 9.060 10.597
8.772 8.746 10.534
9.148 8.148 10.287
9.454 7.937 10.136
9.837 7.501 10.164
4.574 12.424 11.741
4.842 11.830 11.674
5.352 11.458 11.653
5.708 11.122 11.497
6.033 10.623 11.283
7.563 9.032 11.011
8.023 8.705 10.943
8.324 8.174 10.809
8.735 7.918 10.703
9.091 7.455 10.495
9.624 7.133 10.371
3.878 12.416 12.190
4.142 11.942 12.046
4.543 11.455 12.040
4.968 11.172 11.869
5.409 10.838 11.710
5.727 10.324 11.707
6.144 9.988 11.561
6.571 9.493 11.445
6.822 9.222 11.251
7.266 8.752 11.294
7.650 8.258 11.073
8.001 7.877 10.952
8.414 7.535 10.964
8.703 7.013 10.781
9.259 6.630 10.802
3.400 12.066 12.454
3.752 11.532 12.307
4.282 11.228 12.348
4.647 10.850 12.147
5.112 10.319 12.091
5.329 10.047 11.950
5.741 9.526 11.887
6.120 9.229 11.787
6.542 8.812 11.728
6.863 8.234 11.607
7.316 7.908 11.432
7.781 7.490 11.384
8.031 7.065 11.115
8.434 6.612 11.087
8.932 6.358 11.044
3.966 10.745 12.593
4.305 10.416 12.539
4.706 10.054 12.452
5.026 9.620 12.321
5.535 9.270 12.133
5.801 8.833 11.919
6.298 8.460 11.912
6.605 8.017 11.783
6.945 7.469 11.816
7.505 7.171 11.570
7.799 6.669 11.552
8.275 6.427 11.500
8.566 5.978 11.342
4.677 9.146 12.465
5.233 8.692 12.388
5.521 8.344 12.247
6.037 7.968 12.280
6.240 7.611 12.042
6.641 7.138 12.097
7.112 6.711 11.794
7.441 6.444 11.716
7.908 5.839 11.599
8.238 5.578 11.515
6.076 7.160 12.299
6.451 6.890 12.283
6.730 6.431 12.283
7.182 6.072 12.107
7.510 5.556 12.057
7.986 5.266 11.755
6.345 5.957 12.446
6.733 5.702 12.300
7.181 5.231 12.289
7.561 4.760 12.086
6.984 4.789 12.631
7.334 4.487 12.440
11.957 12.504 7.673
12.307 11.919 7.409
11.181 12.526 8.012
11.466 12.044 7.914
11.846 11.723 7.757
12.254 11.319 7.694
10.386 12.424 8.426
10.738 12.112 8.206
11.248 11.701 8.126
11.703 11.256 7.995
12.067 10.945 7.841
12.419 10.518 7.868
9.669 12.524 8.840
10.052 12.008 8.710
10.563 11.760 8.434
10.810 11.207 8.436
11.300 10.967 8.267
11.686 10.537 8.311
11.974 10.005 8.061
9.016 12.438 9.203
9.410 12.074 8.935
9.902 11.717 8.871
10.125 11.265 8.737
10.595 11.004 8.633
10.892 10.504 8.679
11.438 10.055 8.447
11.665 9.628 8.363
9.433 11.274 9.162
9.924 10.912 9.070
10.197 10.510 9.051
10.746 10.154 8.830
11.014 9.622 8.830
11.409 9.398 8.741
9.507 10.618 9.514
10.025 10.118 9.293
10.342 9.807 9.113
10.743 9.345 9.196
11.018 8.984 8.926
9.741 9.774 9.673
10.091 9.296 9.477
10.302 8.931 9.350
10.761 8.647 9.247
9.258 9.478 9.846
9.595 8.931 9.870
10.152 8.681 9.692
10.481 8.112 9.495
5.928 12.572 10.326
9.134 9.362 9.353
9.320 8.796 9.377
9.863 8.455 9.204
10.110 7.944 9.056
5.288 12.638 10.691
5.621 12.216 10.437
8.645 8.924 9.639
9.008 8.549 9.628
9.429 8.108 9.483
9.830 7.560 9.426
4.862 12.067 10.847
5.346 11.737 10.770
5.784 11.366 10.657
7.987 9.009 10.112
8.434 8.505 10.056
8.829 8.116 9.762
9.157 7.761 9.856
9.603 7.246 9.575
4.318 12.162 11.378
4.590 11.869 11.148
5.091 11.444 11.162
5.293 10.891 11.107
5.660 10.487 10.813
7.396 8.897 10.389
7.759 8.626 10.467
8.034 8.027 10.199
8.518 7.758 10.176
8.789 7.410 10.093
9.260 7.010 9.889
3.518 12.291 11.625
3.882 11.743 11.673
4.301 11.448 11.504
4.779 10.924 11.374
4.969 10.646 11.182
5.508 10.188 11.204
5.903 9.776 11.161
6.280 9.460 10.944
6.525 8.972 10.966
6.906 8.458 10.657
7.423 8.094 10.626
7.802 7.823 10.643
8.154 7.383 10.522
8.613 7.020 10.358
8.847 6.443 10.190
2.812 12.202 12.176
3.306 11.784 11.988
3.526 11.442 11.809
4.055 11.043 11.690
4.317 10.706 11.628
4.811 10.264 11.502
5.189 9.721 11.432
5.562 9.427 11.444
5.928 8.901 11.243
6.209 8.709 11.253
6.570 8.115 11.092
7.058 7.712 10.973
7.540 7.441 10.783
7.891 7.040 10.805
8.178 6.637 10.615
8.501 6.143 10.625
2.169 12.347 12.603
2.475 11.884 12.392
2.988 11.488 12.348
3.203 11.069 12.074
3.571 10.728 12.121
4.016 10.319 11.950
4.430 9.883 11.897
4.913 9.403 11.839
5.235 8.957 11.567
5.648 8.586 11.443
5.919 8.309 11.350
6.302 7.835 11.332
6.730 7.480 11.246
7.222 6.929 11.151
7.488 6.598 11.022
7.798 6.285 10.928
8.320 5.769 10.790
2.947 10.800 12.485
3.344 10.327 12.411
3.710 9.860 12.365
4.131 9.560 12.241
4.512 9.149 12.089
4.877 8.641 11.919
5.154 8.191 11.904
5.670 7.746 11.780
6.131 7.467 11.633
6.371 7.142 11.549
6.840 6.611 11.510
7.271 6.156 11.253
7.683 5.904 11.118
7.939 5.496 11.071
3.445 9.534 12.540
3.805 9.088 12.515
4.263 8.670 12.388
5.743 7.090 12.016
6.137 6.562 11.815
6.433 6.230 11.806
6.834 5.865 11.679
7.176 5.386 11.520
7.627 5.059 11.427
5.770 6.254 12.001
6.095 5.877 11.960
6.522 5.426 11.900
6.925 5.112 11.815
7.403 4.613 11.641
5.779 5.470 12.362
6.219 5.001 12.203
6.611 4.621 12.002
7.105 4.354 12.047
5.436 5.202 12.580
5.859 4.762 12.510
6.226 4.196 12.286
6.669 3.893 12.335
12.285 12.234 6.669
11.657 12.253 7.088
11.943 11.772 7.006
12.325 11.396 6.792
10.954 12.278 7.506
11.367 11.798 7.374
11.699 11.535 7.227
11.954 11.050 7.153
12.335 10.783 7.008
10.277 12.359 7.773
10.597 12.010 7.707
10.908 11.555 7.649
11.342 11.003 7.572
11.619 10.647 7.466
12.063 10.280 7.340
9.469 12.261 8.242
9.791 12.027 8.061
10.178 11.577 8.128
10.723 11.065 7.899
10.956 10.832 7.926
11.304 10.274 7.651
11.846 9.955 7.674
8.733 12.328 8.706
9.234 11.953 8.599
9.624 11.551 8.556
9.905 11.193 8.427
10.353 10.706 8.317
10.627 10.386 8.193
11.113 9.945 8.097
11.583 9.598 7.908
9.199 11.128 8.781
9.689 10.818 8.647
10.090 10.349 8.439
10.393 10.049 8.520
10.829 9.579 8.392
11.166 9.222 8.215
9.231 10.523 9.004
9.723 10.077 8.742
10.070 9.572 8.640
10.451 9.124 8.532
10.932 8.782 8.437
9.420 9.711 9.191
9.746 9.255 9.034
10.052 8.769 8.947
10.462 8.424 8.896
6.030 12.438 10.287
9.116 9.272 9.288
9.461 8.957 9.347
9.793 8.384 9.078
10.151 8.094 9.025
4.186 12.505 10.569
4.607 12.071 10.500
4.962 11.736 10.344
8.215 8.478 9.434
8.464 8.034 9.439
9.006 7.460 9.282
9.348 7.066 9.076
3.639 12.434 10.902
3.949 12.147 10.944
4.370 11.647 10.819
4.778 11.153 10.516
5.061 10.847 10.494
7.532 8.332 9.878
7.851 8.023 9.677
8.242 7.540 9.677
8.669 7.145 9.496
8.879 6.753 9.371
2.859 12.585 11.235
3.224 12.075 11.239
3.523 11.693 11.037
4.011 11.327 11.062
4.425 10.962 11.013
4.884 10.407 10.719
5.186 10.095 10.590
6.649 8.359 10.328
7.132 7.940 10.207
7.587 7.509 10.018
7.926 7.118 9.925
8.252 6.727 9.844
8.548 6.464 9.774
2.233 12.540 11.699
2.535 12.167 11.525
2.987 11.822 11.502
3.219 11.406 11.486
3.640 10.934 11.246
4.066 10.538 11.191
4.422 10.079 11.069
4.908 9.739 11.012
6.463 8.066 10.575
6.836 7.658 10.500
7.267 7.219 10.449
7.583 6.829 10.142
8.048 6.437 10.123
8.319 6.112 10.107
1.751 12.087 12.111
2.235 11.739 11.801
2.637 11.390 11.738
2.972 11.015 11.651
3.366 10.482 11.503
3.861 10.106 11.443
4.068 9.728 11.386
4.451 9.261 11.208
5.976 7.581 10.819
6.522 7.265 10.740
6.920 6.773 10.552
7.335 6.437 10.455
7.561 5.941 10.417
8.031 5.734 10.281
1.575 11.771 12.254
1.836 11.380 12.098
2.238 10.905 12.154
2.703 10.540 12.079
3.120 10.076 11.784
3.488 9.658 11.782
3.774 9.398 11.729
4.238 9.037 11.654
5.733 7.385 11.102
6.149 6.976 11.103
6.477 6.595 10.892
6.912 6.039 10.845
7.339 5.733 10.805
7.593 5.235 10.592
1.602 10.989 12.416
1.862 10.613 12.346
2.428 10.259 12.283
2.813 9.847 12.210
3.134 9.471 12.166
3.602 9.045 11.983
5.813 6.472 11.338
6.106 6.204 11.296
6.620 5.790 11.128
7.011 5.376 10.939
7.276 4.953 10.789
2.085 9.820 12.476
2.402 9.373 12.398
2.784 8.999 12.388
5.840 5.684 11.560
6.225 5.227 11.416
6.584 4.810 11.198
7.147 4.491 11.254
11.740 12.509 6.316
11.983 11.999 6.293
12.422 11.702 6.135
10.833 12.482 6.771
11.208 12.201 6.546
11.638 11.693 6.563
12.110 11.396 6.440
12.426 10.969 6.376
10.612 12.126 6.907
10.967 11.828 6.891
11.412 11.317 6.771
11.725 10.980 6.683
12.259 10.578 6.507
10.006 12.179 7.350
10.235 11.726 7.191
10.573 11.415 7.188
11.005 10.896 7.066
11.488 10.466 7.035
11.835 10.197 6.919
9.557 11.814 7.683
9.960 11.362 7.521
10.298 11.012 7.424
10.823 10.570 7.394
11.168 10.226 7.334
11.517 9.804 7.234
9.321 11.468 7.936
9.692 11.127 7.768
9.998 10.619 7.777
10.431 10.290 7.705
10.704 9.919 7.570
11.159 9.329 7.416
9.350 10.675 8.222
9.674 10.183 8.009
10.114 9.866 8.039
10.505 9.413 7.812
10.926 9.070 7.822
9.491 9.813 8.233
9.790 9.489 8.123
10.139 9.010 8.018
10.578 8.735 7.970
3.391 12.327 10.374
3.568 12.003 10.344
3.963 11.624 10.346
4.539 11.046 10.103
7.489 7.883 9.309
7.818 7.392 9.259
8.274 6.965 9.169
8.708 6.554 8.991
2.563 12.413 10.850
2.895 11.958 10.657
3.251 11.612 10.603
3.837 11.259 10.593
4.152 10.797 10.507
4.553 10.241 10.421
6.754 7.923 9.583
7.109 7.513 9.476
7.694 7.101 9.408
8.083 6.608 9.290
8.436 6.255 9.276
2.254 11.889 11.218
2.725 11.500 11.022
2.932 11.251 10.924
3.340 10.733 10.774
3.763 10.398 10.621
4.230 10.035 10.687
6.404 7.454 10.079
6.792 7.148 9.951
7.243 6.733 9.844
7.612 6.197 9.581
8.048 5.902 9.474
1.992 11.696 11.339
2.386 11.237 11.312
2.730 10.864 11.250
3.133 10.335 11.056
3.579 10.070 10.918
3.819 9.473 10.806
6.110 7.207 10.164
6.619 6.805 10.261
6.895 6.403 10.100
7.281 5.909 10.057
7.693 5.448 9.762
1.666 11.307 11.639
1.906 10.853 11.699
2.336 10.434 11.506
2.807 9.926 11.402
3.255 9.664 11.310
3.556 9.311 11.181
5.875 6.740 10.658
6.289 6.428 10.345
6.534 5.949 10.368
7.027 5.616 10.149
7.494 5.162 10.031
1.661 10.447 11.980
1.970 10.041 11.833
2.443 9.596 11.778
2.799 9.195 11.494
5.829 5.968 10.718
6.264 5.503 10.719
6.636 5.052 10.633
7.029 4.657 10.452
11.141 11.981 6.194
11.510 11.635 6.090
11.735 11.085 5.982
12.306 10.699 5.842
10.358 11.970 6.439
10.805 11.679 6.485
11.217 11.284 6.368
11.521 10.724 6.194
11.841 10.445 5.997
10.067 11.643 6.799
10.456 11.165 6.739
10.778 10.944 6.648
11.259 10.446 6.558
11.576 10.039 6.282
9.776 11.172 7.033
9.975 10.889 7.086
10.524 10.561 6.778
10.778 10.056 6.696
11.201 9.709 6.673
9.357 10.804 7.398
9.699 10.589 7.342
10.149 10.137 7.142
10.460 9.674 7.011
10.869 9.288 6.858
9.439 10.113 7.606
9.861 9.693 7.393
10.190 9.212 7.395
10.613 8.973 7.289
2.652 11.823 10.170
3.042 11.312 10.095
3.383 10.984 10.035
3.812 10.583 9.917
6.881 7.293 9.190
7.348 6.885 8.906
7.609 6.513 8.885
8.154 6.218 8.806
2.428 11.510 10.469
2.786 11.089 10.541
3.227 10.599 10.268
3.624 10.337 10.207
6.521 6.930 9.304
6.948 6.515 9.273
7.382 6.108 9.216
7.829 5.773 9.065
2.037 11.007 10.735
2.482 10.561 10.771
2.872 10.288 10.632
3.185 9.894 10.475
6.399 6.555 9.782
6.632 6.297 9.498
7.050 5.841 9.426
7.438 5.403 9.301
1.689 10.797 11.119
2.195 10.401 11.110
2.524 9.785 10.959
2.963 9.462 10.710
6.056 6.263 9.916
6.347 5.856 9.799
6.745 5.360 9.657
7.135 4.987 9.672
10.437 11.417 5.905
10.873 11.118 5.791
11.270 10.767 5.834
11.597 10.290 5.596
10.125 11.028 6.192
10.553 10.699 6.201
10.838 10.298 5.987
11.209 9.929 5.988
9.755 10.738 6.452
10.230 10.260 6.468
10.545 9.931 6.266
10.897 9.587 6.203
9.584 10.400 6.876
9.938 9.926 6.720
10.310 9.595 6.589
10.749 9.062 6.556
10.753 6.864 12.637
12.290 3.585 12.505
10.648 7.002 11.828
12.397 4.734 11.428
10.312 6.627 12.096
10.732 6.364 11.865
12.070 4.304 11.855
12.501 3.815 11.619
10.007 6.242 12.362
10.551 5.877 12.274
11.639 3.784 12.045
12.040 3.553 11.895
12.584 2.953 11.867
10.121 5.545 12.439
11.347 3.506 12.440
11.672 3.115 12.374
12.173 2.596 12.111
12.480 2.252 12.083
11.860 2.310 12.472
12.227 1.923 12.466
12.399 1.105 12.549
10.744 7.200 10.919
12.441 4.931 10.785
10.548 7.011 11.375
10.767 6.573 11.172
11.375 5.198 11.224
11.690 4.990 11.136
12.160 4.572 10.961
12.455 4.172 11.030
10.148 6.528 11.624
10.497 6.037 11.404
11.005 5.778 11.326
11.266 5.371 11.244
10.995 4.892 11.488
11.393 4.538 11.412
11.646 4.053 11.247
12.078 3.691 11.277
12.453 3.370 11.139
9.791 6.173 11.748
10.189 5.823 11.743
10.674 5.231 11.715
11.004 5.008 11.616
10.599 4.542 11.895
11.132 4.231 11.653
11.348 3.727 11.576
11.792 3.314 11.424
12.194 3.027 11.367
9.411 5.827 12.171
9.876 5.462 12.090
10.341 4.980 11.972
10.738 4.509 11.840
10.338 4.102 12.045
10.692 3.734 11.977
11.185 3.454 11.909
11.516 3.036 11.704
11.974 2.463 11.657
12.262 2.077 11.510
9.142 5.333 12.395
9.636 4.955 12.217
10.029 4.592 12.239
10.233 4.106 12.096
10.820 2.988 12.203
11.093 2.685 12.135
11.610 2.162 11.969
11.913 1.746 11.885
12.376 1.254 11.671
10.780 2.133 12.287
11.155 1.801 12.303
11.579 1.474 12.067
11.914 0.937 12.149
12.292 0.620 12.022
10.936 1.395 12.494
11.227 1.119 12.351
11.655 0.551 12.234
12.046 0.175 12.172
12.295 9.160 9.583
11.987 8.749 9.749
10.422 7.059 10.536
12.003 4.670 10.327
12.458 4.430 10.206
10.178 6.769 10.788
10.671 6.313 10.625
11.114 5.220 10.853
11.334 4.716 10.723
11.874 4.399 10.656
12.224 3.899 10.540
12.569 3.514 10.454
9.760 6.497 11.103
10.148 5.950 10.888
10.650 5.597 10.946
11.020 5.198 10.865
10.768 4.794 11.131
11.023 4.418 11.023
11.417 3.974 10.833
11.867 3.600 10.792
12.338 3.076 10.674
9.513 6.065 11.333
10.002 5.672 11.380
10.411 5.094 11.118
10.720 4.729 11.146
10.453 4.453 11.377
10.674 4.113 11.184
11.262 3.644 11.144
11.531 3.286 11.099
11.861 2.866 11.030
12.253 2.491 10.847
9.270 5.721 11.667
9.712 5.158 11.507
10.095 4.870 11.357
10.393 4.529 11.383
9.962 4.084 11.699
10.355 3.596 11.614
10.851 3.285 11.397
11.288 2.813 11.330
11.634 2.522 11.286
12.095 2.110 11.081
12.371 1.674 11.089
8.927 5.327 11.935
9.182 4.942 11.870
9.771 4.540 11.782
10.042 4.035 11.603
10.585 2.854 11.811
10.801 2.381 11.536
11.186 2.028 11.514
11.699 1.528 11.401
12.001 1.175 11.330
12.519 0.819 11.190
8.516 4.988 12.164
9.041 4.513 12.230
10.633 2.170 11.955
11.064 1.640 11.853
11.428 1.225 11.721
11.693 0.930 11.551
12.131 0.362 11.546
12.488 0.117 11.272
8.269 4.557 12.522
10.721 1.298 12.172
11.008 0.784 12.011
11.413 0.527 11.958
11.837 0.160 11.765
10.304 0.942 12.285
10.694 0.441 12.170
11.020 0.067 12.200
12.417 9.428 8.697
12.084 9.086 9.135
12.502 8.661 8.995
11.675 8.604 9.377
12.621 4.592 9.463
10.234 7.014 10.094
11.727 4.637 9.869
12.328 4.094 9.608
9.887 6.639 10.265
10.212 6.297 10.214
10.693 5.080 10.319
11.199 4.566 10.210
11.519 4.304 10.140
11.801 3.800 10.059
12.260 3.398 9.793
9.673 6.246 10.682
9.902 5.851 10.541
10.449 5.374 10.461
10.769 5.038 10.217
10.389 4.584 10.474
10.746 4.233 10.508
11.222 3.861 10.355
11.534 3.516 10.353
11.909 2.924 10.086
12.448 2.589 10.083
9.194 5.869 10.807
9.633 5.573 10.842
10.117 5.067 10.651
10.314 4.731 10.674
10.116 4.294 10.947
10.595 3.900 10.839
10.793 3.545 10.687
11.169 2.982 10.603
11.587 2.745 10.343
12.056 2.286 10.243
12.485 1.829 10.326
8.999 5.600 11.280
9.300 5.195 11.159
9.720 4.744 11.036
10.107 4.222 10.807
9.786 3.960 11.250
10.166 3.436 11.000
10.527 3.160 10.991
10.946 2.758 10.747
11.382 2.273 10.806
11.823 1.965 10.628
12.188 1.522 10.501
12.576 1.090 10.485
8.585 5.120 11.449
9.061 4.686 11.409
9.331 4.286 11.367
9.894 3.905 11.234
10.349 2.765 11.302
10.618 2.327 11.229
10.922 1.810 10.908
11.300 1.430 10.981
11.748 1.119 10.704
12.095 0.669 10.677
12.543 0.319 10.586
8.383 4.662 11.749
8.691 4.294 11.606
10.336 1.907 11.498
10.588 1.633 11.369
11.161 1.089 11.227
11.506 0.760 11.185
11.913 0.230 11.025
7.924 4.427 11.960
10.417 1.035 11.491
10.755 0.754 11.512
11.166 0.333 11.464
10.037 0.798 11.814
10.391 0.274 11.783
12.370 9.723 8.089
12.156 9.362 8.198
12.484 8.852 8.279
11.890 8.799 8.693
12.145 8.387 8.546
11.589 8.545 8.796
12.195 4.331 8.874
9.986 6.969 9.446
11.547 4.449 9.288
11.854 4.141 9.116
12.433 3.567 9.127
9.737 6.585 9.765
10.055 6.188 9.645
10.421 4.964 9.787
10.816 4.422 9.764
11.183 4.120 9.527
11.614 3.788 9.477
12.013 3.238 9.435
12.417 2.884 9.264
9.282 6.160 10.031
9.586 5.642 10.025
10.069 5.318 9.912
10.571 4.889 9.889
10.060 4.438 10.010
10.583 4.173 10.023
11.021 3.634 9.920
11.401 3.332 9.795
11.793 2.972 9.761
11.988 2.398 9.638
12.574 2.141 9.373
8.898 5.835 10.403
9.417 5.230 10.372
9.703 5.042 10.158
10.105 4.598 10.205
9.767 4.249 10.333
10.242 3.672 10.195
10.580 3.274 10.233
10.922 2.992 10.018
11.468 2.616 10.063
11.676 2.197 9.902
12.109 1.702 9.842
12.530 1.247 9.570
8.736 5.290 10.668
9.141 5.067 10.520
9.395 4.573 10.468
9.838 4.042 10.432
9.436 3.703 10.736
9.919 3.322 10.590
10.229 2.894 10.432
10.612 2.593 10.428
11.138 2.246 10.176
11.416 1.724 10.044
11.908 1.294 9.972
12.128 0.984 9.996
8.390 5.069 10.993
8.647 4.662 10.892
9.113 4.077 10.717
9.566 3.878 10.735
9.977 2.683 10.745
10.434 2.243 10.742
10.814 1.795 10.446
11.221 1.371 10.338
11.525 0.910 10.315
11.866 0.616 10.184
12.353 0.116 10.127
8.097 4.644 11.262
8.471 4.197 11.265
9.967 1.751 11.013
10.423 1.423 10.830
10.838 1.079 10.751
11.208 0.499 10.598
11.493 0.195 10.498
7.780 4.179 11.463
10.146 1.008 11.126
10.580 0.521 10.939
10.897 0.246 10.787
9.709 0.567 11.454
10.196 0.337 11.286
12.399 9.898 7.242
12.283 9.592 7.563
12.453 9.115 7.501
11.858 9.050 7.760
12.211 8.772 7.749
11.620 8.704 8.042
11.953 8.325 8.037
11.263 8.315 8.318
12.300 3.985 8.299
11.686 3.956 8.676
12.091 3.543 8.511
12.425 3.127 8.617
9.447 6.340 9.442
11.058 3.962 9.101
11.444 3.452 8.956
11.731 3.116 8.883
12.109 2.745 8.685
12.420 2.257 8.685
9.093 6.011 9.733
9.445 5.608 9.628
10.602 3.630 9.323
11.050 3.156 9.369
11.501 2.724 9.298
11.820 2.304 9.046
12.132 1.964 8.939
8.634 5.569 9.861
9.110 5.136 9.818
10.291 3.260 9.657
10.754 2.861 9.483
11.150 2.330 9.433
11.413 1.971 9.481
11.948 1.588 9.221
12.199 1.201 9.113
8.377 5.322 10.306
8.743 4.786 10.142
10.024 2.904 9.897
10.480 2.464 9.767
10.840 2.102 9.715
11.232 1.591 9.716
11.471 1.158 9.629
11.914 0.866 9.500
12.249 0.473 9.349
8.111 4.782 10.596
8.550 4.507 10.471
10.062 2.143 10.151
10.503 1.601 10.018
10.779 1.242 9.935
11.140 0.718 9.817
11.509 0.401 9.636
7.741 4.430 10.792
10.157 1.195 10.233
10.521 0.761 10.290
11.009 0.333 10.117
11.247 0.097 10.110
12.570 10.090 6.512
12.258 9.736 6.721
11.920 9.447 7.011
12.316 8.869 6.910
11.563 9.099 7.272
11.882 8.689 7.250
11.207 8.670 7.707
11.754 3.294 8.123
12.151 2.897 8.021
12.588 2.457 7.932
11.179 3.337 8.424
11.395 2.933 8.430
11.887 2.636 8.206
12.238 2.107 8.145
8.849 5.910 9.090
10.660 2.929 8.767
11.095 2.604 8.638
11.590 2.267 8.710
11.961 1.804 8.580
12.301 1.461 8.382
8.458 5.575 9.410
10.343 2.624 9.020
10.772 2.165 9.083
11.210 1.732 8.928
11.689 1.509 8.717
11.897 1.126 8.608
12.291 0.548 8.489
8.023 5.154 9.751
10.088 2.367 9.317
10.403 1.903 9.365
10.922 1.431 9.226
11.274 1.098 9.027
11.594 0.686 8.976
12.113 0.186 8.781
7.724 4.748 10.028
10.109 1.571 9.623
10.654 1.145 9.411
11.056 0.601 9.337
11.253 0.259 9.356
12.326 10.054 6.085
11.962 9.682 6.244
11.721 9.296 6.646
11.245 8.793 6.818
11.229 2.899 7.947
11.628 2.555 7.835
11.971 2.031 7.652
12.452 1.703 7.722
10.864 2.392 8.132
11.199 1.979 8.127
11.696 1.718 8.093
12.104 1.353 7.911
10.599 2.149 8.517
10.848 1.635 8.461
11.238 1.363 8.397
11.615 0.982 8.295
10.170 1.644 8.805
10.640 1.346 8.652
10.896 0.996 8.547
11.381 0.587 8.392
2.421 11.692 9.784
2.789 11.264 9.631
3.110 10.827 9.629
3.571 10.512 9.422
6.638 7.287 8.574
7.020 6.839 8.516
7.397 6.358 8.338
7.850 5.944 8.250
2.171 11.391 10.054
2.431 10.833 9.879
2.967 10.452 9.819
3.343 10.106 9.741
6.404 6.730 8.874
6.647 6.383 8.884
7.059 5.932 8.658
7.408 5.534 8.633
1.675 10.940 10.360
2.178 10.629 10.246
2.477 10.175 10.176
3.003 9.713 9.996
5.917 6.542 9.247
6.492 6.072 9.102
6.896 5.621 8.962
7.292 5.248 8.850
1.511 10.633 10.541
1.833 10.098 10.569
2.165 9.733 10.360
2.674 9.418 10.321
5.815 6.083 9.549
6.159 5.745 9.339
6.507 5.177 9.373
6.947 4.816 9.147
10.198 11.426 5.464
10.504 10.984 5.385
10.884 10.630 5.308
11.280 10.088 5.107
9.752 10.969 5.782
10.208 10.513 5.640
10.538 10.206 5.452
11.011 9.715 5.369
9.435 10.671 6.120
10.007 10.124 6.014
10.408 9.690 5.745
10.723 9.268 5.702
9.245 10.122 6.341
9.551 9.733 6.291
9.955 9.515 6.193
10.454 9.010 6.020
2.249 11.451 9.301
2.528 11.230 9.194
2.829 10.825 9.100
3.304 10.432 8.966
6.296 6.974 8.081
6.690 6.700 8.063
7.252 6.280 8.011
7.598 5.889 7.781
1.715 11.206 9.636
2.257 10.879 9.374
2.526 10.378 9.301
3.085 9.948 9.360
6.103 6.695 8.507
6.359 6.331 8.315
6.867 5.779 8.158
7.195 5.580 8.186
1.454 10.729 9.881
1.869 10.428 9.695
2.282 10.000 9.587
2.565 9.689 9.513
5.822 6.395 8.705
6.208 5.915 8.679
6.451 5.518 8.524
6.921 5.038 8.423
1.181 10.405 10.070
1.647 10.093 10.080
1.942 9.675 10.014
2.277 9.120 9.859
5.436 5.930 8.968
5.830 5.435 8.840
6.259 5.090 8.758
6.553 4.634 8.786
9.895 11.224 5.036
10.171 10.752 4.860
10.743 10.310 4.870
10.971 10.090 4.636
9.662 10.801 5.156
10.050 10.500 5.194
10.275 9.955 5.116
10.779 9.632 4.985
9.343 10.424 5.460
9.714 10.083 5.471
9.974 9.735 5.381
10.486 9.268 5.240
8.880 10.127 5.825
9.332 9.781 5.683
9.728 9.239 5.524
10.181 8.777 5.526
2.193 11.734 8.441
2.550 11.389 8.512
2.859 10.962 8.274
3.450 10.548 8.260
6.465 7.264 7.287
6.774 6.838 7.257
7.185 6.403 7.237
7.672 6.005 7.033
1.374 11.766 9.030
1.823 11.373 8.859
2.276 11.117 8.707
2.554 10.568 8.617
2.948 10.309 8.466
3.461 9.812 8.501
5.798 7.258 7.655
6.083 6.850 7.671
6.399 6.515 7.582
6.841 6.211 7.553
7.250 5.740 7.289
1.138 11.524 9.184
1.513 11.152 9.062
2.027 10.686 9.045
2.287 10.197 8.998
2.636 9.865 8.870
3.106 9.359 8.604
5.305 6.975 8.083
5.799 6.579 7.926
6.237 6.134 7.777
6.571 5.839 7.707
6.863 5.306 7.671
0.872 10.968 9.430
1.207 10.587 9.289
1.559 10.205 9.197
1.929 9.790 9.172
2.355 9.390 9.147
2.795 8.957 8.933
5.171 6.582 8.275
5.538 6.252 8.285
5.837 5.828 8.157
6.174 5.417 8.025
6.588 5.019 7.824
0.605 10.632 9.774
0.922 10.305 9.716
1.377 9.829 9.602
1.636 9.482 9.521
2.006 9.153 9.427
2.561 8.570 9.328
4.864 6.176 8.583
5.128 5.918 8.617
5.610 5.449 8.493
5.859 5.093 8.270
6.387 4.628 8.305
0.701 9.812 9.875
1.016 9.612 9.798
1.458 9.084 9.665
1.762 8.798 9.611
4.824 5.379 8.801
5.129 5.085 8.803
5.534 4.509 8.571
6.001 4.162 8.413
9.859 11.379 4.144
10.291 11.101 4.109
10.684 10.730 4.087
11.045 10.287 3.910
9.326 11.480 4.680
9.594 11.118 4.446
9.987 10.780 4.321
10.363 10.350 4.267
10.875 9.861 4.169
8.839 11.015 4.942
9.315 10.778 4.768
9.792 10.322 4.673
9.989 9.916 4.640
10.463 9.507 4.516
8.533 10.816 5.146
9.073 10.298 5.002
9.466 9.977 4.875
9.719 9.423 4.803
10.087 9.134 4.652
8.316 10.274 5.519
8.585 9.860 5.415
9.095 9.579 5.182
9.344 9.180 5.176
9.780 8.634 4.925
8.416 9.677 5.649
8.817 9.184 5.517
9.052 8.763 5.525
9.477 8.414 5.402
2.133 12.096 7.683
2.669 11.728 7.608
2.943 11.260 7.518
3.494 10.909 7.398
6.472 7.592 6.626
6.958 7.085 6.568
7.141 6.837 6.337
7.527 6.441 6.308
1.472 12.143 8.048
2.013 11.678 8.069
2.269 11.275 7.903
2.592 10.922 7.915
3.136 10.547 7.803
3.345 9.934 7.543
5.683 7.616 7.074
6.186 7.122 6.967
6.433 6.845 6.756
6.849 6.336 6.573
7.247 6.013 6.527
0.767 12.066 8.595
1.291 11.804 8.412
1.646 11.360 8.327
2.065 10.825 8.150
2.458 10.444 8.022
2.845 10.129 7.915
3.155 9.699 7.867
3.615 9.268 7.867
4.980 7.590 7.396
5.459 7.110 7.326
5.741 6.878 7.198
6.178 6.508 7.046
6.650 5.884 7.067
6.986 5.484 6.903
0.472 11.780 8.803
0.962 11.423 8.796
1.202 10.948 8.646
1.713 10.397 8.432
2.063 10.066 8.503
2.360 9.724 8.376
2.751 9.311 8.096
3.275 8.984 8.121
4.845 7.329 7.695
5.024 6.890 7.483
5.620 6.334 7.387
6.011 5.952 7.252
6.392 5.580 7.177
6.680 5.299 7.154
0.170 11.454 9.204
0.619 10.886 9.080
1.007 10.504 8.901
1.325 10.022 8.788
1.731 9.661 8.603
2.077 9.234 8.535
2.559 8.952 8.475
2.863 8.606 8.387
4.364 6.891 7.980
4.714 6.387 7.809
5.135 6.090 7.843
5.631 5.749 7.614
5.902 5.315 7.597
6.431 4.774 7.471
0.242 10.517 9.318
0.728 10.235 9.237
0.958 9.806 9.015
1.424 9.304 9.040
1.800 8.902 8.955
2.095 8.545 8.856
2.462 8.185 8.767
4.138 6.390 8.276
4.541 6.008 8.062
4.942 5.656 8.021
5.252 5.198 7.898
5.609 4.836 7.825
6.101 4.507 7.737
0.429 9.845 9.450
0.775 9.331 9.354
1.194 9.051 9.363
1.387 8.555 9.166
1.907 8.198 9.090
4.268 5.763 8.508
4.463 5.408 8.372
4.910 4.950 8.198
5.302 4.408 8.210
5.626 4.094 8.021
0.386 8.980 9.721
0.713 8.632 9.567
1.231 8.118 9.414
4.284 4.824 8.516
4.700 4.567 8.466
5.006 4.177 8.414
5.492 3.653 8.295
9.908 11.794 3.356
10.304 11.199 3.354
10.774 10.836 3.121
11.111 10.536 3.047
9.354 11.642 3.781
9.594 11.284 3.657
10.122 10.891 3.622
10.384 10.416 3.498
10.867 10.042 3.377
8.603 11.792 4.265
9.013 11.255 4.158
9.260 10.949 4.023
9.670 10.633 3.800
10.191 10.082 3.808
10.542 9.680 3.774
8.331 11.383 4.398
8.609 11.049 4.378
8.922 10.463 4.262
9.312 10.142 4.273
9.812 9.857 4.150
10.257 9.281 3.869
7.988 10.900 4.728
8.279 10.646 4.718
8.653 10.254 4.489
9.187 9.821 4.531
9.394 9.474 4.424
9.902 9.007 4.340
6.107 12.175 5.400
7.618 10.594 5.142
7.999 10.170 4.977
8.371 9.799 4.901
8.691 9.383 4.796
9.152 8.931 4.595
9.594 8.675 4.611
5.447 12.353 5.840
7.579 9.885 5.239
8.122 9.385 5.254
8.564 9.051 5.146
8.826 8.683 5.010
9.160 8.135 4.905
4.647 12.392 6.377
7.798 9.009 5.455
8.185 8.568 5.338
8.609 8.234 5.173
8.851 7.914 5.026
2.946 12.201 6.545
3.346 11.953 6.586
3.782 11.469 6.462
6.798 8.076 5.537
7.253 7.771 5.526
7.581 7.266 5.407
8.072 6.893 5.255
2.334 12.231 7.035
2.657 11.809 6.945
3.097 11.391 6.691
3.475 10.966 6.752
6.444 7.798 5.901
6.850 7.463 5.767
7.393 6.940 5.684
7.704 6.487 5.498
1.583 12.332 7.431
2.032 11.956 7.345
2.393 11.542 7.202
2.706 11.112 7.097
3.034 10.709 6.884
3.473 10.198 6.771
5.870 7.762 6.159
6.295 7.357 6.160
6.542 6.945 5.970
6.989 6.657 5.952
7.424 6.173 5.727
0.838 12.400 7.758
1.336 11.942 7.655
1.530 11.568 7.614
2.005 11.096 7.478
2.430 10.736 7.361
2.776 10.277 7.213
3.229 9.864 7.143
3.511 9.553 7.105
5.199 7.944 6.548
5.485 7.390 6.480
5.849 7.095 6.481
6.161 6.737 6.214
6.585 6.121 6.175
6.994 5.881 6.142
0.206 12.318 8.245
0.507 11.910 8.096
0.829 11.461 8.001
1.387 11.079 7.870
1.707 10.814 7.759
2.066 10.290 7.721
2.459 9.861 7.589
2.888 9.465 7.510
3.194 9.027 7.352
3.630 8.654 7.302
4.029 8.194 7.169
4.367 7.905 7.119
4.825 7.382 6.835
5.221 7.162 6.880
5.525 6.691 6.598
6.057 6.208 6.519
6.411 5.781 6.528
6.751 5.400 6.457
0.125 11.569 8.341
0.532 11.102 8.267
1.067 10.712 8.192
1.338 10.297 7.986
1.814 9.900 7.943
2.147 9.583 7.897
2.465 9.041 7.643
2.886 8.774 7.560
3.292 8.371 7.509
3.626 7.862 7.354
4.022 7.539 7.236
4.579 7.113 7.238
4.749 6.739 7.181
5.283 6.262 6.925
5.556 5.820 6.880
6.097 5.446 6.714
6.310 5.172 6.571
0.258 10.862 8.604
0.778 10.497 8.343
0.981 9.915 8.370
1.494 9.560 8.268
1.838 9.181 8.100
2.132 8.725 7.978
2.550 8.361 7.951
2.909 7.878 7.823
3.422 7.608 7.766
3.701 7.072 7.528
4.047 6.785 7.577
4.528 6.299 7.313
4.906 5.921 7.157
5.408 5.514 7.195
5.586 5.028 7.033
6.174 4.680 6.930
0.359 9.946 8.700
0.643 9.635 8.617
1.170 9.138 8.419
1.420 8.842 8.511
1.918 8.406 8.243
2.215 8.066 8.181
2.751 7.514 8.061
3.035 7.066 8.049
3.534 6.795 7.851
3.856 6.322 7.820
4.269 6.013 7.556
4.533 5.490 7.590
5.101 5.130 7.452
5.392 4.740 7.351
5.701 4.373 7.340
0.072 9.678 9.070
0.386 9.254 8.971
0.926 8.823 8.904
1.243 8.349 8.641
1.603 7.992 8.501
2.003 7.539 8.385
3.548 6.045 7.967
3.818 5.578 7.928
4.360 5.144 7.898
4.752 4.649 7.804
4.970 4.263 7.530
5.486 3.844 7.415
0.047 8.843 9.120
0.575 8.351 9.131
0.962 7.993 8.869
1.178 7.579 8.783
3.482 5.238 8.130
3.991 4.826 8.173
4.432 4.328 8.021
4.654 3.936 7.915
5.157 3.530 7.864
0.216 8.074 9.402
0.473 7.710 9.155
3.637 4.358 8.514
4.089 3.907 8.360
4.533 3.653 8.224
4.916 3.227 8.160
0.266 7.244 9.627
3.333 3.968 8.652
3.672 3.717 8.542
4.075 3.133 8.576
4.483 2.808 8.333
10.074 11.856 2.719
10.464 11.454 2.499
10.870 11.167 2.395
11.132 10.631 2.388
9.411 11.955 3.063
9.662 11.474 2.862
10.039 11.064 2.895
10.465 10.766 2.773
10.865 10.309 2.649
8.725 11.936 3.424
9.028 11.521 3.338
9.292 11.232 3.272
9.753 10.845 3.240
10.086 10.290 3.072
10.635 10.067 2.813
7.449 12.331 3.997
7.892 12.117 3.850
8.227 11.708 3.688
8.592 11.263 3.608
8.962 10.846 3.428
9.370 10.334 3.390
9.765 9.971 3.357
10.238 9.497 3.120
6.748 12.506 4.378
7.162 12.003 4.220
7.619 11.643 4.032
8.046 11.274 4.005
8.309 10.895 3.887
8.809 10.467 3.832
9.084 10.075 3.659
9.569 9.583 3.673
10.015 9.236 3.528
6.141 12.553 4.817
6.487 12.100 4.620
6.785 11.702 4.569
7.271 11.223 4.420
7.614 10.964 4.298
7.949 10.479 4.200
8.385 10.139 4.168
8.725 9.637 3.979
9.167 9.216 3.806
9.587 8.797 3.706
5.464 12.538 5.156
5.854 12.152 5.048
6.264 11.611 4.977
6.582 11.366 4.717
6.962 10.958 4.756
7.430 10.593 4.567
7.785 10.151 4.584
8.153 9.608 4.435
8.524 9.241 4.252
8.953 8.902 4.126
9.171 8.391 3.989
4.630 12.672 5.517
5.104 12.161 5.436
5.500 11.697 5.273
7.075 10.179 4.866
7.385 9.692 4.827
7.692 9.365 4.623
8.266 8.936 4.515
8.580 8.424 4.504
8.889 8.028 4.460
4.388 12.265 5.799
4.679 11.829 5.674
6.979 9.278 5.181
7.415 8.987 4.969
7.824 8.495 4.808
8.352 8.034 4.793
8.691 7.696 4.638
3.780 12.119 6.164
3.986 11.777 6.145
7.108 8.468 5.259
7.440 8.126 5.087
7.896 7.759 5.098
8.231 7.330 4.917
2.994 12.211 6.641
3.334 11.884 6.597
3.667 11.480 6.329
6.828 8.273 5.458
7.157 7.733 5.457
7.595 7.317 5.431
8.010 7.000 5.225
2.281 12.485 6.269
2.722 12.168 6.127
3.123 11.605 6.082
3.570 11.268 5.800
6.489 8.070 4.994
6.984 7.628 4.942
7.426 7.168 4.906
7.816 6.883 4.794
2.003 12.111 6.470
2.422 11.715 6.360
2.675 11.286 6.241
3.202 10.895 6.258
6.245 7.702 5.393
6.542 7.254 5.317
6.949 6.883 5.073
7.406 6.428 5.091
1.277 12.117 6.844
1.621 11.678 6.757
2.155 11.441 6.597
2.443 10.988 6.688
2.748 10.541 6.446
3.313 10.203 6.279
5.567 7.753 5.659
5.979 7.263 5.632
6.314 6.976 5.628
6.604 6.560 5.315
7.064 6.074 5.301
0.590 12.138 7.316
1.053 11.720 7.301
1.379 11.388 7.134
1.773 10.992 6.965
2.122 10.489 6.854
2.514 10.196 6.847
2.800 9.806 6.650
3.192 9.384 6.589
4.771 7.822 6.023
5.292 7.404 6.060
5.497 6.873 6.025
5.932 6.456 5.772
6.389 6.070 5.673
6.831 5.729 5.672
0.367 11.906 7.600
0.584 11.498 7.436
1.107 11.065 7.369
1.355 10.564 7.249
1.815 10.249 7.063
2.268 9.839 7.083
2.691 9.463 7.062
3.037 9.078 6.925
3.343 8.475 6.690
3.680 8.188 6.700
4.204 7.835 6.559
4.559 7.298 6.413
4.825 6.988 6.396
5.380 6.643 6.218
5.701 6.019 6.072
5.996 5.769 6.003
6.352 5.386 5.918
0.344 11.094 7.719
0.661 10.587 7.568
1.179 10.285 7.567
1.424 9.803 7.374
1.894 9.403 7.336
2.283 9.055 7.320
2.666 8.635 7.178
3.130 8.227 7.094
3.470 7.695 6.920
3.862 7.415 6.917
4.203 7.045 6.803
4.608 6.672 6.494
5.028 6.118 6.524
5.378 5.770 6.363
5.764 5.386 6.212
6.021 4.911 6.165
-0.014 10.681 8.164
0.398 10.155 7.858
0.699 9.837 7.784
1.097 9.479 7.730
1.643 9.065 7.636
1.892 8.544 7.600
2.269 8.250 7.460
2.611 7.892 7.394
3.215 7.380 7.242
3.539 7.111 7.151
3.957 6.505 6.953
4.244 6.162 6.942
4.643 5.848 6.692
5.019 5.285 6.762
5.420 4.861 6.651
5.917 4.518 6.454
0.157 9.976 8.218
0.562 9.533 8.114
0.770 9.006 8.055
1.271 8.772 7.900
1.694 8.314 7.867
2.070 7.756 7.739
2.369 7.363 7.498
2.803 7.059 7.499
3.134 6.598 7.325
3.565 6.209 7.365
4.035 5.917 7.187
4.227 5.405 7.122
4.755 4.969 6.992
5.185 4.629 6.959
5.398 4.166 6.822
0.158 8.994 8.348
0.468 8.761 8.414
0.895 8.222 8.178
1.417 7.920 8.122
1.590 7.446 8.052
3.230 5.932 7.585
3.530 5.382 7.404
4.009 5.028 7.265
4.393 4.592 7.202
4.757 4.319 7.250
5.118 3.779 7.010
0.131 8.236 8.539
0.582 8.002 8.388
0.905 7.581 8.474
3.291 5.114 7.748
3.669 4.697 7.737
4.154 4.170 7.650
4.421 3.730 7.330
4.935 3.423 7.236
0.177 7.440 8.777
3.452 4.273 7.900
3.870 3.868 7.915
4.122 3.387 7.748
4.613 3.000 7.539
3.143 3.815 8.159
3.447 3.388 8.205
3.850 3.067 8.040
4.214 2.669 7.893
9.840 11.829 2.132
10.193 11.492 2.144
10.570 11.080 1.977
10.899 10.506 1.849
8.983 11.856 2.491
9.473 11.470 2.456
9.902 11.091 2.345
10.131 10.682 2.168
10.491 10.290 2.088
8.248 11.783 3.017
8.627 11.542 2.866
9.050 11.107 2.704
9.497 10.712 2.749
9.815 10.269 2.633
10.317 9.780 2.427
7.325 12.396 3.470
7.729 11.988 3.452
8.054 11.550 3.173
8.452 11.069 3.057
8.759 10.588 3.049
9.215 10.283 2.892
9.590 9.812 2.795
10.035 9.403 2.721
6.612 12.282 3.798
6.952 11.842 3.779
7.310 11.434 3.587
7.728 11.025 3.446
7.985 10.794 3.457
8.401 10.403 3.295
8.771 9.910 3.230
9.272 9.577 3.212
9.690 9.019 3.042
5.748 12.385 4.158
6.183 11.886 4.150
6.631 11.528 4.103
7.094 11.204 3.929
7.306 10.792 3.861
7.671 10.350 3.666
8.072 10.030 3.540
8.466 9.597 3.587
8.942 9.017 3.376
9.400 8.660 3.274
5.145 12.319 4.715
5.626 12.084 4.439
5.967 11.652 4.534
6.291 11.077 4.236
6.682 10.705 4.243
6.994 10.370 4.066
7.447 10.041 4.073
7.851 9.533 3.882
8.178 9.188 3.734
8.717 8.801 3.687
9.069 8.249 3.652
4.420 12.464 5.125
4.912 11.918 4.958
5.176 11.620 4.750
6.660 10.088 4.433
7.171 9.661 4.397
7.465 9.059 4.223
7.851 8.816 4.015
8.216 8.452 4.068
8.610 7.853 3.933
3.752 12.391 5.329
4.183 12.100 5.243
4.493 11.563 5.311
6.896 9.091 4.651
7.239 8.779 4.379
7.631 8.408 4.339
8.042 8.016 4.192
8.422 7.632 4.210
3.072 12.398 5.843
3.453 12.031 5.797
3.814 11.587 5.693
6.961 8.309 4.756
7.228 7.947 4.770
7.628 7.599 4.625
8.012 7.278 4.518
2.361 12.472 6.274
2.687 12.144 6.046
3.092 11.704 5.957
3.393 11.209 5.931
6.614 8.047 5.086
6.944 7.658 4.861
7.276 7.162 4.739
7.683 6.856 4.653
2.031 12.352 5.701
2.503 11.950 5.533
2.915 11.628 5.530
3.116 11.219 5.389
6.254 7.961 4.643
6.736 7.480 4.427
7.107 7.001 4.347
7.364 6.629 4.203
1.816 11.933 5.981
2.008 11.556 5.835
2.435 11.128 5.732
2.984 10.862 5.629
5.901 7.576 4.764
6.442 7.179 4.652
6.716 6.777 4.586
7.089 6.381 4.468
1.097 11.951 6.447
1.299 11.710 6.295
1.832 11.215 6.252
2.071 10.809 6.132
2.540 10.445 6.087
2.861 9.943 5.841
5.212 7.512 5.173
5.611 7.232 5.259
5.938 6.681 5.144
6.457 6.382 5.007
6.816 6.004 4.902
0.407 12.102 6.706
0.738 11.751 6.787
1.094 11.347 6.577
1.524 10.869 6.407
1.869 10.481 6.363
2.289 10.137 6.355
2.649 9.700 6.072
2.939 9.271 6.148
4.527 7.626 5.645
4.897 7.248 5.540
5.299 6.723 5.494
5.742 6.430 5.340
6.205 6.007 5.139
6.477 5.500 5.025
0.403 11.232 7.003
0.703 10.804 6.973
1.197 10.489 6.791
1.511 10.039 6.635
1.987 9.746 6.654
2.278 9.295 6.384
2.794 8.857 6.468
3.068 8.522 6.324
3.397 8.118 6.055
3.766 7.684 5.967
4.133 7.241 6.030
4.735 6.790 5.827
5.023 6.448 5.808
5.461 6.008 5.638
5.894 5.543 5.520
6.244 5.246 5.381
0.097 10.991 7.350
0.441 10.521 7.230
0.798 10.044 7.161
1.205 9.671 7.015
1.554 9.300 6.950
2.007 8.799 6.826
2.483 8.523 6.583
2.782 8.043 6.552
3.105 7.661 6.517
3.618 7.319 6.426
3.973 6.931 6.260
4.275 6.476 6.197
4.784 5.959 6.007
5.110 5.511 5.830
5.415 5.301 5.839
5.774 4.708 5.679
0.168 10.054 7.560
0.500 9.650 7.338
0.888 9.270 7.165
1.308 8.951 7.086
1.648 8.493 7.028
2.113 8.124 7.024
2.508 7.611 6.924
2.864 7.253 6.755
3.178 6.954 6.725
3.611 6.365 6.465
3.963 6.002 6.318
4.303 5.646 6.306
4.776 5.321 6.181
5.081 4.934 6.165
5.589 4.462 5.897
0.092 9.318 7.574
0.654 8.858 7.503
0.863 8.600 7.496
1.282 8.146 7.308
1.697 7.756 7.297
2.109 7.248 7.152
2.622 6.975 7.049
2.932 6.480 6.880
3.238 6.172 6.865
3.711 5.619 6.803
4.028 5.274 6.666
4.371 4.863 6.396
4.857 4.450 6.398
5.265 4.079 6.325
0.194 8.539 7.740
0.694 8.217 7.739
1.088 7.700 7.664
1.436 7.382 7.579
3.009 5.757 7.015
3.261 5.236 7.025
3.723 4.977 6.833
4.072 4.470 6.765
4.400 4.163 6.688
4.832 3.721 6.664
0.439 7.764 8.007
0.632 7.474 7.959
2.936 4.884 7.254
3.434 4.487 7.127
3.739 4.033 7.041
4.138 3.653 6.907
4.534 3.326 6.815
0.079 7.319 8.348
3.191 4.154 7.534
3.583 3.734 7.306
3.957 3.236 7.207
4.293 2.810 7.037
2.699 3.787 7.839
3.154 3.325 7.700
3.517 3.023 7.528
3.951 2.586 7.383
9.450 11.649 1.649
9.852 11.228 1.681
10.351 10.855 1.540
10.722 10.526 1.424
8.763 11.656 2.048
9.227 11.289 1.932
9.507 10.906 1.938
9.984 10.581 1.883
10.211 10.043 1.574
8.097 11.733 2.583
8.449 11.244 2.434
8.861 10.828 2.229
9.269 10.555 2.225
9.505 10.100 2.069
9.964 9.595 1.922
6.872 12.099 3.052
7.273 11.861 2.782
7.788 11.335 2.713
8.176 11.014 2.737
8.531 10.430 2.638
8.848 10.241 2.491
9.230 9.763 2.444
9.621 9.408 2.172
6.214 12.266 3.454
6.562 11.753 3.167
6.932 11.430 3.098
7.447 10.986 3.113
7.858 10.628 3.038
8.242 10.134 2.870
8.621 9.772 2.791
8.958 9.396 2.611
9.341 8.951 2.599
5.580 12.258 3.708
5.884 11.928 3.643
6.306 11.508 3.669
6.832 10.970 3.382
7.114 10.570 3.291
7.540 10.123 3.173
7.962 9.881 3.188
8.301 9.457 2.973
8.752 8.929 3.016
8.934 8.558 2.729
4.968 12.325 4.177
5.326 11.930 4.018
5.557 11.419 4.061
6.046 11.058 3.915
6.431 10.536 3.751
6.752 10.195 3.607
7.158 9.827 3.561
7.629 9.306 3.334
7.891 8.955 3.383
8.429 8.583 3.138
8.817 8.105 3.169
4.090 12.364 4.566
4.635 11.926 4.352
5.005 11.392 4.348
6.572 9.739 3.939
6.910 9.393 3.890
7.344 8.936 3.679
7.567 8.731 3.628
8.026 8.310 3.401
8.304 7.710 3.459
3.412 12.417 5.051
3.746 11.837 4.740
4.223 11.576 4.754
6.599 9.035 4.033
7.032 8.640 3.894
7.373 8.212 3.927
7.714 7.736 3.705
8.091 7.507 3.656
2.765 12.357 5.255
3.144 12.005 5.329
3.471 11.436 5.077
6.565 8.335 4.224
7.045 7.837 4.272
7.312 7.535 4.005
7.774 6.997 3.979
2.022 12.337 5.832
2.432 12.000 5.559
2.792 11.537 5.459
3.117 11.111 5.394
6.291 8.002 4.524
6.566 7.458 4.366
6.975 7.175 4.330
7.378 6.771 4.285
1.853 12.355 5.258
2.066 11.816 5.182
2.597 11.515 5.015
2.985 11.057 4.901
6.120 7.805 4.136
6.410 7.295 3.978
6.882 6.926 3.856
7.213 6.510 3.668
1.484 11.773 5.641
1.836 11.571 5.522
2.246 11.093 5.353
2.512 10.728 5.285
5.706 7.503 4.410
6.130 6.985 4.255
6.501 6.673 4.155
6.799 6.098 4.018
0.843 11.830 5.943
1.160 11.502 5.803
1.545 10.997 5.654
1.853 10.619 5.567
2.223 10.195 5.558
2.632 9.803 5.398
4.930 7.533 4.697
5.398 6.969 4.678
5.666 6.524 4.505
6.176 6.305 4.398
6.597 5.852 4.377
-0.053 12.025 6.403
0.392 11.641 6.152
0.822 11.037 6.191
1.272 10.686 5.908
1.569 10.403 5.976
1.876 9.832 5.792
2.252 9.425 5.709
2.721 9.098 5.590
4.376 7.460 5.150
4.660 6.981 5.029
5.026 6.579 4.957
5.483 6.303 4.851
5.872 5.857 4.765
6.106 5.420 4.751
0.171 11.106 6.602
0.400 10.777 6.485
0.812 10.250 6.318
1.254 9.889 6.186
1.734 9.412 6.120
2.075 9.109 5.994
2.318 8.782 5.981
2.818 8.313 5.699
3.115 8.001 5.744
3.675 7.506 5.564
3.957 7.115 5.531
4.448 6.692 5.346
4.806 6.300 5.309
5.067 5.965 5.090
5.421 5.452 5.005
5.945 5.011 4.990
0.187 10.341 6.591
0.600 9.949 6.537
0.874 9.502 6.584
1.303 9.087 6.357
1.766 8.685 6.387
2.061 8.358 6.138
2.460 7.838 5.976
2.915 7.536 6.022
3.295 7.061 5.840
3.750 6.653 5.807
4.066 6.270 5.702
4.431 5.893 5.470
4.732 5.489 5.401
5.084 5.012 5.419
5.634 4.701 5.270
0.243 9.648 6.931
0.722 9.242 6.763
0.934 8.789 6.580
1.311 8.341 6.502
1.811 8.034 6.471
2.266 7.652 6.290
2.573 7.112 6.233
2.985 6.771 6.189
3.436 6.424 5.988
3.740 5.857 5.829
4.025 5.505 5.795
4.399 5.177 5.605
4.790 4.775 5.636
5.339 4.262 5.590
0.218 8.833 7.165
0.707 8.284 6.857
0.993 7.977 6.888
1.393 7.687 6.844
1.801 7.252 6.678
2.169 6.690 6.545
2.522 6.456 6.488
3.093 5.927 6.397
3.455 5.610 6.267
3.837 5.133 6.039
4.105 4.746 6.038
4.601 4.293 5.944
5.014 3.825 5.774
0.339 8.077 7.282
0.745 7.529 7.089
1.168 7.216 7.082
2.631 5.517 6.560
3.087 5.197 6.485
3.472 4.851 6.317
3.756 4.421 6.236
4.298 3.870 6.114
4.655 3.517 5.972
0.041 7.715 7.472
0.510 7.191 7.478
2.670 4.706 6.814
3.086 4.315 6.606
3.558 4.072 6.469
3.852 3.580 6.560
4.300 3.237 6.459
2.801 3.973 7.043
3.166 3.678 6.939
3.708 3.286 6.749
4.042 2.844 6.570
2.490 3.660 7.151
2.991 3.162 7.092
3.257 2.856 6.959
3.564 2.508 6.964
9.292 11.635 1.192
9.629 11.120 1.096
9.992 10.720 0.994
10.328 10.370 0.917
8.411 11.560 1.704
8.959 11.127 1.516
9.334 10.837 1.398
9.684 10.308 1.246
10.064 10.027 1.120
7.890 11.666 2.049
8.279 11.213 1.918
8.600 10.679 1.872
8.954 10.309 1.584
9.250 9.878 1.689
9.822 9.517 1.424
6.307 12.423 2.545
6.633 11.997 2.561
7.170 11.603 2.437
7.455 11.279 2.320
7.757 10.849 2.254
8.316 10.339 2.121
8.557 10.035 1.878
9.126 9.681 1.761
9.370 9.189 1.671
5.553 12.537 2.997
6.061 11.968 2.914
6.308 11.657 2.851
6.679 11.344 2.613
7.127 10.942 2.560
7.615 10.403 2.368
7.970 9.987 2.435
8.354 9.724 2.192
8.773 9.187 2.244
9.172 8.731 2.059
5.003 12.601 3.344
5.222 12.180 3.387
5.621 11.680 3.214
6.004 11.289 3.102
6.485 10.905 2.889
6.830 10.439 2.953
7.331 9.960 2.815
7.684 9.731 2.642
7.930 9.150 2.628
8.442 8.726 2.481
8.702 8.354 2.275
4.155 12.543 3.824
4.646 12.100 3.681
4.948 11.636 3.485
5.252 11.238 3.387
5.665 10.973 3.404
6.174 10.603 3.216
6.589 10.184 3.230
6.884 9.701 2.970
7.319 9.216 2.983
7.727 8.911 2.772
7.985 8.468 2.635
8.407 7.943 2.693
3.893 12.165 4.154
4.216 11.715 3.945
4.593 11.277 3.889
6.246 9.673 3.382
6.683 9.366 3.271
6.980 8.963 3.291
7.280 8.551 3.185
7.718 8.127 3.029
8.031 7.589 3.022
3.167 12.228 4.391
3.613 11.701 4.275
3.921 11.427 4.248
6.314 8.834 3.572
6.750 8.484 3.625
7.034 8.044 3.464
7.444 7.636 3.311
7.885 7.371 3.143
2.396 12.246 4.827
2.864 11.723 4.861
3.186 11.323 4.559
6.410 8.192 3.808
6.672 7.689 3.683
7.144 7.308 3.533
7.530 7.031 3.582
1.787 12.350 5.211
2.235 11.800 5.120
2.618 11.478 5.127
2.934 11.030 4.852
6.031 7.783 4.152
6.297 7.403 3.971
6.698 6.867 3.782
7.144 6.519 3.858
0.752 11.356 5.410
1.256 11.050 5.252
1.730 10.441 5.087
1.919 10.210 4.937
5.099 6.864 4.230
5.423 6.458 3.984
5.950 6.085 3.950
6.359 5.593 3.764
0.125 11.369 5.698
0.597 10.996 5.580
0.954 10.545 5.594
1.210 10.257 5.531
1.666 9.861 5.398
2.019 9.336 5.222
4.294 6.826 4.635
4.790 6.570 4.455
5.171 6.077 4.448
5.606 5.611 4.200
5.899 5.340 4.188
0.183 10.637 5.869
0.529 10.131 5.804
0.939 9.723 5.758
1.334 9.434 5.618
1.817 8.946 5.479
2.105 8.564 5.409
3.669 6.855 4.964
4.185 6.562 4.943
4.567 6.171 4.775
4.928 5.677 4.752
5.189 5.317 4.470
5.614 4.814 4.429
0.265 9.848 6.016
0.692 9.479 5.913
1.132 8.949 5.922
1.471 8.555 5.809
1.755 8.187 5.785
3.307 6.520 5.268
3.805 6.259 5.184
4.220 5.773 5.005
4.548 5.447 5.033
5.012 4.907 4.890
5.203 4.479 4.696
0.411 9.143 6.255
0.834 8.721 6.256
1.089 8.302 6.187
1.468 7.852 5.979
2.969 6.280 5.461
3.387 5.736 5.409
3.763 5.308 5.380
4.288 5.074 5.221
4.593 4.524 5.092
5.065 4.070 4.920
0.023 8.694 6.653
0.521 8.217 6.470
0.834 7.777 6.365
1.175 7.464 6.299
2.712 5.734 5.760
3.082 5.374 5.810
3.455 4.986 5.601
3.941 4.486 5.610
4.283 4.235 5.494
4.593 3.856 5.221
-0.006 7.992 6.735
0.422 7.530 6.723
2.826 4.981 5.996
3.144 4.620 5.821
3.506 4.138 5.767
3.982 3.729 5.738
4.238 3.464 5.700
2.764 4.179 6.111
3.270 3.776 6.160
3.608 3.410 6.101
4.008 3.019 5.980
8.597 11.104 0.976
9.014 10.628 0.835
9.304 10.277 0.800
9.671 9.891 0.633
7.989 11.047 1.332
8.213 10.547 1.234
8.599 10.252 1.204
9.051 9.938 1.125
9.434 9.382 0.903
7.207 11.077 1.750
7.683 10.646 1.697
8.077 10.261 1.507
8.267 9.936 1.578
8.734 9.450 1.454
9.036 8.938 1.280
5.372 12.419 2.497
6.841 10.817 1.995
7.274 10.257 1.976
7.635 9.988 1.973
8.099 9.553 1.691
8.447 9.045 1.633
8.899 8.689 1.671
4.657 12.402 2.982
5.062 12.046 2.816
6.529 10.260 2.325
7.000 9.893 2.293
7.277 9.562 2.065
7.797 9.169 2.122
8.110 8.669 1.881
8.500 8.301 1.884
3.931 12.512 3.219
4.245 12.029 3.292
4.702 11.582 3.054
6.321 9.893 2.727
6.532 9.646 2.461
6.983 9.201 2.541
7.433 8.727 2.461
7.745 8.424 2.323
8.230 7.930 2.177
3.116 12.523 3.625
3.540 11.975 3.635
4.061 11.545 3.437
6.360 9.235 2.883
6.653 8.868 2.712
7.020 8.272 2.680
7.523 8.029 2.445
7.740 7.454 2.359
2.479 12.366 3.986
2.841 12.005 3.970
3.304 11.752 3.975
6.350 8.410 2.963
6.682 7.900 3.039
7.199 7.537 2.772
7.629 7.135 2.764
0.303 10.826 5.245
0.731 10.533 5.088
1.135 9.963 4.997
1.331 9.616 4.936
4.404 6.290 3.942
4.939 5.944 3.784
5.307 5.549 3.699
5.758 5.240 3.615
0.253 10.079 5.329
0.630 9.593 5.182
1.155 9.335 5.165
1.444 8.859 5.108
3.714 6.337 4.307
4.284 6.032 4.269
4.564 5.619 4.221
4.982 5.121 4.055
5.250 4.820 4.020
0.021 9.786 5.654
0.428 9.329 5.599
0.741 8.832 5.405
1.177 8.530 5.300
3.474 5.921 4.688
3.967 5.666 4.534
4.192 5.120 4.378
4.690 4.794 4.384
5.085 4.378 4.236
-0.015 8.925 5.920
0.498 8.429 5.676
0.895 7.995 5.498
3.166 5.570 5.053
3.473 5.233 4.942
3.906 4.839 4.862
4.386 4.387 4.741
4.656 4.014 4.618
0.215 8.136 6.057
0.435 7.753 5.989
2.851 5.178 5.245
3.221 4.915 5.175
3.557 4.392 5.133
3.955 4.015 4.841
4.458 3.637 4.828
2.860 4.593 5.470
3.391 3.981 5.226
3.708 3.612 5.255
4.003 3.164 5.168
7.902 10.402 0.735
8.432 10.014 0.778
8.711 9.707 0.669
9.148 9.282 0.583
7.352 10.481 1.119
7.716 10.189 1.132
8.063 9.792 0.916
8.421 9.234 0.970
8.771 8.943 0.714
6.951 10.166 1.509
7.451 9.804 1.460
7.835 9.396 1.396
8.172 8.915 1.269
8.584 8.435 1.010
4.335 12.249 2.440
6.768 9.706 1.748
6.984 9.321 1.667
7.344 9.018 1.523
7.853 8.517 1.372
8.267 8.182 1.466
3.678 12.321 2.836
4.102 11.776 2.707
6.317 9.422 2.144
6.807 9.111 2.024
7.066 8.564 1.870
7.514 8.223 1.873
7.884 7.829 1.556
3.001 12.188 3.126
3.223 11.958 3.115
6.356 8.635 2.301
6.825 8.288 2.192
7.256 7.874 2.109
7.542 7.492 1.954
-0.015 10.041 4.797
0.380 9.514 4.721
0.764 9.120 4.599
3.948 5.958 3.731
4.350 5.419 3.640
4.581 4.970 3.691
4.975 4.560 3.522
0.184 9.154 4.963
0.459 8.707 4.965
3.547 5.418 4.187
4.018 5.171 4.086
4.355 4.735 3.842
4.793 4.255 3.709
0.118 8.403 5.283
3.368 5.136 4.315
3.571 4.783 4.263
4.126 4.269 4.149
4.458 3.902 4.082
3.037 4.830 4.621
3.359 4.419 4.563
3.660 3.976 4.510
4.094 3.551 4.434
7.419 10.107 0.611
7.803 9.554 0.522
8.122 9.180 0.349
8.680 8.765 0.417
7.024 9.639 0.958
7.548 9.259 0.847
7.799 8.737 0.685
8.151 8.314 0.614
3.733 12.477 2.159
6.786 9.314 1.319
7.210 8.760 1.043
7.635 8.343 0.915
7.975 7.974 0.809
3.075 12.481 2.392
3.378 12.092 2.238
6.498 8.970 1.416
6.742 8.533 1.416
7.159 7.992 1.385
7.689 7.574 1.236
0.168 9.426 4.238
0.525 8.926 4.202
3.550 5.773 3.292
4.045 5.239 3.120
4.298 4.824 3.208
4.750 4.491 2.923
0.157 8.626 4.515
3.212 5.341 3.706
3.600 5.024 3.430
4.181 4.562 3.412
4.473 4.081 3.332
3.083 4.870 3.797
3.297 4.592 3.805
3.775 4.048 3.608
4.153 3.783 3.485
2.626 4.537 4.184
3.050 4.277 3.991
3.477 3.722 3.927
3.743 3.397 3.784
7.098 9.974 0.194
7.608 9.548 -0.010
6.768 9.557 0.341
7.161 9.092 0.433
7.598 8.690 0.337
7.962 8.285 0.213
3.485 12.444 1.686
6.589 9.040 0.715
6.845 8.711 0.572
7.215 8.193 0.457
7.602 7.921 0.391
2.726 12.355 1.962
2.998 12.033 1.860
6.130 8.784 0.981
6.464 8.323 0.833
7.040 7.943 0.787
7.353 7.615 0.778
0.171 8.952 3.734
3.395 5.479 2.787
3.678 5.082 2.768
4.210 4.689 2.592
4.561 4.411 2.512
3.079 5.237 3.192
3.367 4.792 3.035
3.718 4.367 2.902
4.207 3.891 2.853
2.750 4.815 3.503
3.155 4.361 3.254
3.462 3.911 3.134
3.928 3.651 3.194
2.427 4.453 3.714
2.685 3.948 3.488
3.174 3.738 3.396
3.663 3.324 3.430
3.162 12.207 1.001
6.189 8.998 0.298
6.592 8.634 0.080
6.912 8.078 0.071
2.486 12.207 1.463
2.742 11.965 1.284
5.989 8.550 0.639
6.362 8.162 0.441
6.598 7.724 0.236
7.075 7.399 0.204
0.395 9.139 2.825
3.399 5.818 2.108
3.799 5.457 1.916
4.253 4.993 1.898
4.594 4.610 1.750
0.494 8.302 3.051
2.804 5.852 2.548
3.039 5.357 2.323
3.506 4.976 2.345
3.870 4.595 2.144
4.180 4.320 2.001
0.044 7.999 3.361
2.365 5.540 2.793
2.769 5.012 2.625
3.203 4.713 2.614
3.545 4.287 2.447
3.852 3.876 2.286
2.039 5.095 2.986
2.533 4.735 2.980
2.898 4.326 2.759
3.117 3.913 2.696
3.557 3.399 2.658
1.760 4.776 3.362
2.067 4.415 3.122
2.457 3.862 3.175
2.927 3.488 2.970
3.294 3.128 2.995
1.809 3.897 3.597
2.112 3.427 3.351
2.636 3.022 3.307
2.992 2.736 3.146
3.213 12.487 0.236
3.606 11.973 0.281
2.586 12.587 0.691
2.930 12.141 0.615
