7.373 6.239 2.186
7.675 6.600 2.911
7.293 6.646 3.286
7.786 6.337 4.017
7.279 6.340 4.086
7.543 6.383 4.635
7.659 5.407 6.935
8.125 5.603 7.517
7.843 5.474 7.836
8.280 5.636 8.108
7.885 5.470 8.519
7.868 5.333 9.046
8.333 5.187 9.369
8.455 5.025 9.833
7.955 5.364 10.294
8.485 5.155 10.783
8.454 5.025 11.121
7.416 6.037 0.881
7.562 6.407 1.044
7.301 6.073 1.502
7.297 6.343 1.885
7.504 6.236 2.604
7.492 6.089 3.115
7.786 5.870 3.569
7.460 5.697 3.979
7.849 5.820 4.018
7.836 5.951 4.541
7.687 5.818 5.269
7.776 5.153 6.122
7.752 5.306 6.579
7.793 4.943 6.633
8.230 4.904 7.493
8.332 4.746 7.694
7.968 5.016 8.184
8.453 5.127 8.656
8.310 5.145 9.014
8.312 4.898 9.461
8.065 4.624 10.121
8.544 4.558 10.576
8.572 4.442 11.015
8.222 4.607 10.955
8.469 4.666 11.424
8.577 4.752 12.250
7.661 6.024 0.226
7.391 5.904 0.578
7.642 5.812 0.951
7.778 5.969 1.708
7.402 5.975 1.779
7.752 5.556 2.227
7.774 5.841 2.942
7.956 5.369 3.382
7.986 5.279 3.737
7.739 5.689 4.316
7.953 5.398 4.387
7.910 5.165 5.239
8.029 5.194 5.306
7.989 5.143 5.971
8.147 4.971 5.977
8.190 4.890 6.403
8.239 4.488 6.953
8.038 4.653 6.930
8.079 4.532 7.828
8.279 4.264 7.799
8.060 4.629 8.592
8.130 4.513 8.866
8.463 4.386 9.346
8.343 4.066 9.583
8.617 4.212 10.007
8.364 4.259 10.739
8.596 4.386 11.230
8.478 4.329 11.745
8.514 4.033 11.851
7.399 5.350 0.160
7.718 5.217 0.272
7.536 5.467 0.813
7.396 5.157 1.220
7.588 5.133 1.695
7.762 5.242 2.349
7.815 5.222 2.867
7.631 5.220 2.998
7.838 5.011 3.503
7.598 4.993 4.089
7.805 4.763 4.665
8.060 4.971 5.068
7.795 4.700 5.222
7.952 5.021 5.822
8.125 4.308 5.840
8.322 4.132 6.170
8.132 4.065 6.550
8.377 4.112 7.137
8.391 4.093 7.617
8.194 3.878 7.986
8.485 4.004 8.153
8.598 3.872 8.687
8.477 3.823 9.379
8.336 3.708 10.057
8.740 3.771 10.457
8.689 3.722 10.951
8.694 3.469 11.155
8.448 3.870 11.697
8.975 3.474 12.283
7.350 4.884 0.017
7.914 5.032 0.271
7.528 4.757 1.140
7.508 5.160 1.115
7.533 4.995 2.047
8.063 4.727 2.091
7.736 4.818 2.584
8.125 4.747 3.070
7.966 4.419 3.387
7.956 4.439 3.910
7.966 4.638 4.542
7.842 4.755 4.803
8.192 4.275 5.152
7.877 4.176 5.622
8.099 4.212 5.629
8.143 3.871 5.932
8.203 3.533 6.717
8.528 3.687 7.012
8.371 3.905 7.388
8.467 3.923 7.755
8.309 3.634 8.400
8.326 3.290 9.097
8.354 3.448 9.417
8.670 3.688 9.697
8.730 3.437 10.261
8.640 3.316 10.748
8.916 3.325 10.991
8.633 3.273 11.298
8.640 3.097 11.842
7.831 4.847 0.183
7.776 4.388 1.011
7.733 4.216 1.179
7.658 4.360 1.715
8.201 4.121 2.168
8.070 4.416 2.764
7.784 4.143 2.880
7.895 4.082 3.348
7.803 4.303 3.989
8.389 4.188 4.661
8.253 4.130 4.965
8.405 4.114 5.386
8.127 3.906 5.803
8.188 3.259 5.873
8.632 3.514 6.013
8.228 3.115 6.648
8.679 3.343 6.918
8.475 3.416 7.317
8.346 3.213 7.715
8.320 3.435 8.539
8.742 3.157 8.512
8.615 3.273 9.468
8.444 3.161 9.470
8.649 3.223 9.998
8.624 3.136 10.257
8.560 3.148 11.047
9.011 2.937 11.244
9.159 2.629 11.835
7.669 4.089 0.515
8.059 4.284 0.518
8.100 3.876 1.108
8.141 3.974 1.682
8.252 3.986 2.118
8.310 3.633 2.482
8.105 3.887 3.199
8.268 3.469 3.542
7.890 3.591 3.741
8.152 3.590 4.164
8.346 3.834 4.743
8.247 3.650 4.951
8.344 3.418 5.711
8.242 3.105 6.326
8.752 3.037 7.162
8.491 2.574 7.432
8.447 2.903 7.820
8.945 2.485 7.988
8.785 2.733 8.709
8.577 2.677 9.254
8.635 2.509 9.334
8.705 2.790 9.987
8.848 2.683 10.340
8.926 2.516 10.779
8.131 3.490 0.011
8.083 3.561 0.834
8.126 3.341 1.008
7.819 3.660 1.589
8.169 3.658 2.207
7.869 3.425 2.607
7.956 3.401 2.698
8.283 3.196 3.101
8.282 3.451 3.822
8.300 3.435 4.078
8.412 3.051 4.957
8.892 2.537 6.799
8.848 2.517 7.044
8.716 2.284 7.554
8.884 2.342 7.909
8.865 2.185 8.656
9.100 2.261 8.932
9.017 2.387 9.347
9.114 2.033 9.992
9.007 1.770 10.374
7.937 3.162 0.463
8.279 3.163 1.036
7.941 3.202 1.263
8.198 3.097 2.277
8.041 3.097 2.436
8.560 2.660 2.735
8.484 2.628 3.145
8.286 2.891 3.763
8.390 2.755 4.041
8.572 1.883 7.060
8.553 1.651 7.828
8.689 2.050 8.120
8.688 2.081 8.554
8.918 1.849 9.149
8.802 1.483 9.575
9.297 1.506 10.108
8.167 2.576 0.887
8.012 2.667 1.276
8.298 2.513 1.650
8.229 2.787 2.305
8.419 2.401 2.839
8.374 2.709 3.524
8.533 2.165 3.843
9.168 1.625 7.458
9.210 1.535 7.831
9.229 1.220 8.288
9.147 1.382 8.792
8.880 1.432 9.529
8.290 2.447 1.298
8.541 2.318 1.942
8.589 2.387 2.549
8.408 2.239 2.585
8.581 2.143 3.344
6.516 12.147 9.111
6.948 12.296 9.383
6.938 12.101 10.013
6.750 12.319 10.202
6.684 12.328 10.872
6.746 11.918 8.659
7.096 12.244 8.944
6.963 12.142 9.413
6.913 11.988 9.946
7.261 12.017 10.336
6.938 11.688 10.904
6.903 11.660 11.193
6.589 12.229 4.549
6.556 12.218 5.070
7.015 11.650 8.267
6.789 11.336 8.703
6.992 11.787 8.890
7.106 11.666 9.174
6.856 11.409 10.015
6.898 11.303 10.466
7.187 11.054 10.599
6.948 11.199 11.435
7.342 11.014 11.413
6.534 12.167 2.160
6.577 12.628 2.506
6.190 12.483 3.014
6.452 12.440 3.520
6.823 12.018 3.741
6.405 12.253 3.954
6.388 12.341 4.674
6.756 11.930 4.939
6.721 12.175 5.280
6.782 11.160 7.113
6.830 11.372 7.343
6.917 11.248 7.869
7.271 11.321 8.450
6.926 11.095 9.073
7.322 10.898 9.421
7.451 11.270 9.643
7.225 10.813 10.020
7.375 10.674 10.678
7.178 10.952 10.882
7.522 10.821 11.876
7.556 10.984 12.307
7.209 10.844 12.302
6.289 11.844 1.010
6.423 12.091 1.330
6.686 12.183 1.935
6.758 11.883 2.322
6.318 12.044 2.735
6.739 12.038 2.915
6.854 11.672 3.753
6.672 11.607 4.349
6.908 11.933 4.644
6.908 11.887 4.957
6.760 11.502 5.167
6.961 11.514 6.120
6.775 11.614 6.435
7.219 11.126 6.469
6.892 11.104 6.946
7.210 11.120 7.808
6.942 10.741 8.180
6.982 10.950 8.561
7.320 10.463 9.119
7.480 10.846 9.433
7.185 10.607 9.773
7.218 10.323 10.172
7.194 10.277 10.908
7.182 10.670 11.389
7.473 10.279 11.403
7.340 10.454 11.716
7.694 10.211 12.518
6.772 11.889 0.796
6.834 11.332 1.611
6.741 11.754 2.002
6.621 11.530 2.006
6.487 11.649 2.548
6.940 11.191 3.351
6.875 11.411 3.661
6.982 11.566 4.233
6.944 11.358 4.235
6.767 10.914 5.068
6.856 10.941 5.615
7.111 11.277 5.617
6.984 11.141 5.976
7.180 10.703 6.800
7.287 10.632 6.516
7.114 10.382 6.997
7.361 10.489 7.650
7.499 10.340 7.898
7.167 10.069 8.265
7.399 10.241 8.609
7.081 10.454 9.149
7.624 10.114 9.835
7.720 9.899 10.415
7.745 9.849 10.505
7.408 10.222 10.894
7.759 9.736 11.238
7.698 10.177 11.758
7.739 9.644 12.563
6.511 11.318 1.055
6.885 11.320 1.121
6.842 11.279 1.906
6.798 10.982 2.026
7.057 11.199 2.377
6.787 10.731 3.066
6.961 11.031 3.592
6.826 10.776 3.773
6.693 10.571 4.314
6.999 10.765 5.114
7.224 10.431 4.999
7.081 10.778 5.773
6.855 10.432 6.386
7.087 10.761 6.771
7.346 10.289 6.304
7.439 10.305 6.797
7.127 9.834 7.253
7.569 9.906 7.841
7.333 10.124 8.276
7.581 9.911 8.964
7.710 9.789 9.408
7.538 9.659 9.877
7.501 9.457 9.829
7.520 9.534 10.479
7.367 9.547 11.202
7.855 9.387 11.208
7.677 9.230 11.843
7.554 9.414 12.315
6.437 10.821 0.847
6.574 10.875 0.962
6.511 10.511 1.592
6.544 10.600 1.883
7.048 10.827 2.459
6.661 10.322 3.243
6.902 10.598 3.653
6.923 10.140 4.139
7.080 10.358 4.575
7.145 10.243 4.561
7.387 10.046 5.303
7.312 10.324 5.652
7.203 9.946 6.087
7.510 10.132 6.678
7.600 9.650 7.121
7.674 9.842 7.243
7.579 9.432 7.729
7.694 9.374 8.083
7.264 9.410 8.702
7.835 9.141 9.380
7.565 9.313 9.844
7.701 9.194 9.966
7.763 9.201 10.548
7.598 9.315 11.093
7.630 9.013 11.318
7.858 9.272 12.064
7.925 8.763 12.319
6.630 10.500 0.509
7.129 10.466 1.177
6.807 10.525 1.697
6.786 10.163 1.808
6.802 10.194 2.719
7.244 9.973 3.002
6.961 10.002 3.441
7.125 9.935 3.899
6.998 9.743 4.002
7.249 10.045 4.781
7.266 9.641 4.885
7.206 9.990 5.890
7.023 9.601 5.941
7.828 9.245 7.842
7.798 8.965 8.326
7.921 9.206 8.508
7.415 8.924 8.895
7.637 8.673 9.763
7.468 8.778 10.254
7.905 8.520 10.654
7.767 8.465 10.711
7.802 8.709 11.038
6.968 9.717 1.291
7.229 9.697 2.058
7.265 9.433 2.594
6.981 9.415 3.154
7.286 9.735 3.058
6.952 9.591 3.921
7.370 9.236 4.434
7.058 9.171 4.417
7.456 9.489 5.348
7.946 8.610 8.004
7.945 8.630 8.373
7.790 8.277 8.968
7.822 8.368 9.541
8.117 8.574 9.990
7.703 8.304 10.426
7.838 8.337 10.680
7.373 9.158 1.781
6.955 9.485 2.183
7.479 9.485 2.530
7.184 8.906 3.063
7.406 9.399 3.975
7.265 8.919 3.890
7.474 9.204 4.587
7.556 7.921 8.521
7.954 7.939 8.741
7.990 8.014 9.177
8.056 8.066 9.906
7.768 7.602 10.346
7.416 8.985 2.404
7.129 8.705 2.551
7.144 8.999 3.258
7.165 8.560 3.537
7.690 8.343 4.113
8.182 7.791 8.418
8.010 7.376 8.954
7.944 7.786 9.146
8.032 7.591 9.932
7.887 7.332 10.417
7.287 8.552 2.002
7.637 8.148 2.424
7.485 8.455 3.105
7.225 8.207 3.763
7.797 8.222 4.292
8.112 7.187 9.079
7.955 7.161 9.309
7.973 6.932 9.533
7.344 7.961 2.489
7.719 7.607 2.939
7.594 7.837 3.692
8.083 6.689 8.491
8.237 6.763 8.589
8.469 6.413 9.046
8.397 6.791 9.701
8.373 6.680 9.919
7.365 7.587 2.402
7.801 7.605 2.432
7.660 7.560 2.908
7.972 7.414 3.336
7.836 7.072 3.702
8.152 6.298 8.442
8.447 6.475 8.734
8.154 6.075 9.069
8.267 6.060 9.844
8.445 6.239 10.077
7.778 6.856 2.196
7.592 7.306 2.488
7.693 7.181 3.031
7.969 7.082 3.675
7.632 7.100 3.886
8.472 5.764 7.587
8.585 6.197 8.364
8.210 5.948 8.581
8.477 5.655 8.903
8.437 5.729 9.400
8.679 5.652 9.741
8.263 5.782 10.304
7.947 6.595 1.538
7.654 6.781 2.187
7.729 6.457 2.370
7.792 6.547 2.814
8.103 6.394 3.118
8.038 6.464 3.627
8.217 6.466 4.108
8.577 5.652 7.052
8.176 5.822 7.510
8.211 5.473 8.053
8.458 5.538 8.570
8.420 5.205 9.159
8.822 5.451 9.435
8.506 5.362 9.733
8.496 5.035 10.500
8.479 4.941 10.962
7.791 6.536 0.969
8.017 6.432 1.481
7.930 6.468 2.230
8.192 5.925 2.502
8.201 6.132 2.683
7.807 5.825 3.190
8.282 5.947 3.594
8.237 6.178 3.979
8.340 5.894 4.819
8.585 5.087 6.256
8.268 5.466 6.894
8.258 5.084 7.145
8.386 4.928 7.882
8.466 4.782 7.850
8.395 5.200 8.553
8.529 4.775 8.698
8.687 5.153 9.623
8.826 4.715 9.772
8.496 4.729 10.482
8.776 5.022 10.552
9.037 4.684 11.115
8.604 4.707 11.448
7.632 5.914 -0.027
7.765 5.695 0.805
7.760 5.783 1.106
7.779 5.861 1.245
8.144 5.854 1.832
7.924 5.512 2.565
7.837 5.690 2.746
8.131 5.882 3.379
7.885 5.848 3.896
8.032 5.444 3.886
8.150 5.474 4.500
8.569 5.557 5.125
8.076 5.534 5.466
8.528 5.002 5.970
8.264 5.054 6.156
8.698 4.641 6.968
8.709 4.502 7.181
8.467 4.711 7.730
8.952 4.472 7.801
8.960 4.640 8.455
8.698 4.385 9.135
9.067 4.761 9.616
8.633 4.437 9.546
8.707 4.447 10.183
8.850 4.316 10.790
8.675 4.554 11.018
8.698 4.006 11.382
8.850 3.949 12.164
7.889 5.470 0.003
7.924 5.728 0.632
8.163 5.667 1.039
8.076 5.157 1.329
8.196 5.108 1.607
8.201 5.365 2.234
8.129 5.163 2.700
8.205 5.474 3.319
8.392 5.131 3.794
8.565 4.938 4.053
8.267 4.831 4.767
8.144 4.965 5.087
8.703 5.008 5.298
8.567 5.105 5.753
8.506 4.572 5.485
8.561 4.633 5.930
8.903 4.330 6.466
8.511 4.073 7.186
8.887 4.127 7.540
9.050 4.193 8.182
8.899 4.000 8.219
8.735 4.250 8.958
8.663 3.942 9.115
9.177 3.849 9.792
8.823 4.165 10.431
9.150 3.963 10.759
8.761 4.058 11.287
9.266 3.906 11.811
9.226 3.780 12.070
8.102 5.152 0.354
7.967 5.027 0.874
8.136 5.265 1.355
8.419 5.147 1.553
8.000 5.140 2.045
8.462 4.935 2.596
8.424 5.031 3.192
8.166 4.478 3.288
8.369 4.670 4.220
8.720 4.910 4.501
8.402 4.731 4.845
8.768 4.594 5.110
8.514 4.300 5.812
8.655 4.106 5.516
8.524 4.227 6.212
8.631 4.037 6.398
8.773 3.618 6.769
8.958 4.112 7.252
9.017 3.495 7.953
8.956 3.841 8.566
8.816 3.420 8.793
9.198 3.883 9.170
9.211 3.681 9.655
8.819 3.612 9.855
9.237 3.726 10.716
9.129 3.342 11.014
9.418 3.517 11.540
9.185 3.260 12.077
8.172 4.888 0.199
8.302 4.875 1.008
8.286 4.594 1.067
8.465 4.556 1.929
8.243 4.704 1.993
8.116 4.202 2.399
8.533 4.519 3.118
8.739 4.156 3.430
8.392 4.081 3.930
8.289 4.352 4.579
8.874 4.068 4.761
8.788 4.211 5.519
8.533 4.006 5.685
8.733 3.785 6.320
8.946 3.473 6.331
8.669 3.276 6.907
8.910 3.390 7.313
9.036 3.460 7.598
9.066 3.112 8.182
8.870 3.053 8.705
8.819 3.021 9.307
9.107 2.962 9.612
9.325 2.886 9.888
9.146 3.227 10.451
9.428 3.060 11.034
9.534 3.072 11.489
8.032 4.506 0.209
8.524 4.443 0.923
8.482 4.356 1.365
8.447 3.838 1.665
8.254 3.928 1.808
8.611 3.880 2.236
8.546 3.779 3.010
8.758 4.007 3.202
8.772 3.623 3.754
8.723 3.576 4.587
8.564 3.978 4.505
8.873 3.740 5.138
8.718 2.816 7.069
9.058 3.206 7.549
8.985 2.669 7.757
9.167 2.990 8.124
9.235 2.676 8.942
9.412 2.945 9.187
8.961 2.847 9.581
8.991 2.485 9.804
9.508 2.440 10.244
8.472 3.998 0.736
8.723 3.493 0.863
8.223 3.702 1.778
8.479 3.710 2.104
8.482 3.545 2.741
8.683 3.404 3.178
8.650 3.303 3.265
8.926 3.419 3.665
8.613 3.173 4.216
9.233 2.577 7.024
9.165 2.629 7.915
9.013 2.438 8.317
9.401 2.395 8.878
9.480 2.476 9.302
9.119 2.481 9.743
9.546 2.096 9.729
8.457 3.101 1.123
8.432 3.170 1.449
8.760 3.061 2.221
8.878 3.147 2.503
8.479 3.031 2.867
8.813 2.988 3.070
8.728 2.756 3.561
9.531 2.100 7.780
9.189 1.891 8.175
9.529 1.699 8.839
9.231 2.025 9.077
9.431 1.692 9.651
8.991 2.503 1.322
8.893 2.936 1.611
8.520 2.782 2.577
8.694 2.631 2.763
9.146 2.592 3.211
9.548 1.353 7.586
9.662 1.604 7.966
9.342 1.535 8.783
9.380 1.477 8.647
9.757 1.640 9.424
8.727 2.642 1.292
9.058 2.573 1.942
8.937 2.380 2.509
9.104 2.151 3.009
9.193 2.004 3.380
7.369 12.594 9.743
7.082 12.252 10.198
7.525 12.371 10.514
7.165 11.828 8.961
7.175 11.978 9.612
7.348 11.785 9.692
7.435 12.023 10.196
7.455 11.916 10.940
7.640 11.600 8.281
7.380 11.381 9.124
7.723 11.335 9.297
7.321 11.710 9.988
7.471 11.515 10.036
7.531 11.429 10.983
7.516 11.520 11.043
6.752 12.589 2.163
6.966 12.121 2.722
6.871 12.585 3.068
7.173 12.299 3.781
7.106 12.040 4.036
6.859 12.320 4.381
7.038 12.193 4.751
7.704 11.109 8.118
7.232 11.445 8.703
7.486 11.188 9.186
7.678 11.252 9.166
7.741 11.020 9.684
7.488 10.950 10.227
7.502 11.187 10.506
7.686 10.755 11.163
8.012 10.746 11.803
7.151 11.789 2.106
6.838 11.955 2.325
6.749 11.865 2.738
6.873 12.105 2.913
7.101 11.946 3.861
6.890 11.848 3.772
7.310 11.822 4.361
7.037 11.741 5.019
7.486 11.398 5.574
7.287 11.116 7.435
7.723 10.881 8.052
7.640 10.571 8.508
7.560 10.858 8.951
7.749 10.736 9.520
7.521 10.951 9.942
7.541 10.687 10.056
7.732 10.684 10.472
7.974 10.621 10.834
7.984 10.275 11.716
8.124 10.612 12.145
6.774 11.434 1.595
6.802 11.775 1.731
7.069 11.476 2.357
7.287 11.482 2.424
7.296 11.312 3.152
7.196 11.252 3.798
7.473 11.214 3.996
7.285 11.425 4.384
7.572 11.462 4.744
7.118 10.935 5.518
7.109 10.891 5.844
7.397 10.476 7.434
7.516 10.591 7.885
7.459 10.301 8.640
7.851 10.309 9.092
8.079 10.316 9.146
8.107 10.546 9.450
7.938 10.219 10.057
8.071 10.350 10.683
7.714 9.907 10.811
7.914 9.890 11.503
7.762 10.061 11.761
7.289 11.483 1.252
7.203 11.326 1.571
6.932 11.061 2.356
7.118 11.254 2.415
7.054 10.973 2.994
7.457 11.277 3.562
7.422 11.179 3.811
7.249 10.859 4.433
7.264 11.035 4.649
7.368 10.669 5.512
7.406 10.795 5.773
7.856 10.068 7.240
7.805 9.865 8.088
7.997 10.190 8.155
7.690 9.817 8.644
8.160 10.114 9.297
7.721 10.019 9.709
8.079 9.497 10.044
7.830 9.655 10.234
8.172 9.382 10.696
8.103 9.357 11.378
8.324 9.729 11.767
7.004 10.884 0.987
7.474 10.495 1.744
7.207 10.780 2.211
7.213 10.434 2.652
7.092 10.668 3.157
7.428 10.844 3.577
7.635 10.662 4.072
7.377 10.643 4.038
7.636 10.590 4.891
7.704 10.428 5.220
7.500 10.080 5.596
7.944 9.472 7.648
7.772 9.492 8.416
7.695 9.470 8.399
7.712 9.326 9.148
7.845 9.615 9.380
8.021 9.424 10.222
7.966 9.212 10.343
8.345 9.173 11.167
8.488 9.428 11.139
7.138 10.243 1.291
7.615 10.474 1.863
7.316 9.954 2.496
7.278 10.109 2.670
7.470 9.958 3.233
7.791 10.038 4.039
7.487 9.952 3.950
7.584 10.247 4.712
7.884 9.848 5.158
7.993 8.918 8.039
8.187 9.327 8.879
8.113 9.165 8.922
8.331 9.117 9.579
8.085 9.072 10.201
8.121 9.054 10.273
8.386 9.094 10.621
7.269 9.850 2.022
7.679 9.538 2.392
7.729 10.018 2.664
7.451 9.758 3.068
7.609 9.735 3.499
7.422 9.542 4.043
7.554 9.759 4.522
8.307 8.654 8.334
8.315 8.314 8.931
8.372 8.456 9.725
8.360 8.389 10.025
8.608 8.373 10.099
7.772 9.140 2.460
7.480 9.432 2.698
7.915 9.415 3.486
7.555 9.181 3.516
7.815 9.202 4.210
8.297 7.858 8.806
8.457 8.282 9.632
8.108 8.299 9.846
7.709 8.962 2.524
7.650 8.688 2.889
7.935 8.809 3.509
8.965 6.576 8.536
8.766 6.305 8.957
8.967 6.193 9.432
8.265 7.127 2.406
8.152 7.376 2.860
8.502 7.081 3.410
9.021 5.773 8.326
8.665 6.136 8.431
8.762 5.750 8.998
8.976 5.984 9.388
8.733 5.970 10.165
8.478 6.616 2.208
8.390 6.996 2.423
8.461 6.561 2.802
8.279 6.757 3.457
8.646 6.380 3.987
9.101 5.698 7.542
8.910 5.669 8.215
9.008 5.842 8.771
9.017 5.493 9.043
9.118 5.205 9.631
9.189 5.300 10.173
8.958 5.299 10.283
8.339 6.606 1.551
8.363 6.215 2.148
8.321 6.114 2.552
8.661 6.276 2.719
8.563 6.181 3.186
8.726 6.203 3.580
8.361 5.983 3.849
9.144 5.269 6.952
8.926 4.964 7.773
8.801 5.121 8.237
8.806 5.014 8.366
9.284 4.937 9.234
9.367 4.995 9.161
9.347 5.244 9.786
9.076 5.013 10.295
9.373 5.006 10.542
8.069 6.041 0.937
8.519 6.105 1.461
8.148 5.960 1.920
8.210 6.002 2.089
8.715 5.562 2.499
8.794 5.544 3.282
8.664 5.891 3.814
8.788 5.396 4.073
8.652 5.494 4.589
8.941 4.877 6.660
9.014 4.778 7.412
8.985 4.792 7.393
8.804 4.918 8.077
9.341 4.851 8.709
9.366 4.403 8.878
9.294 4.636 9.572
9.139 4.547 10.040
9.128 4.672 10.381
9.177 4.238 10.819
9.202 4.294 10.877
8.446 5.413 0.655
8.382 5.827 0.710
8.678 5.294 1.256
8.740 5.426 2.037
8.694 5.214 2.285
8.456 5.610 2.612
8.598 5.412 3.261
8.652 5.358 3.594
8.668 4.968 3.838
8.820 5.297 4.680
8.528 5.183 4.873
8.791 4.366 6.806
8.875 4.451 6.826
9.293 4.284 7.549
9.481 4.579 7.750
9.446 4.504 8.367
9.338 4.302 8.661
9.293 4.132 9.313
9.419 3.885 9.995
9.540 3.791 10.286
9.404 3.711 10.702
9.274 3.973 10.976
8.243 5.076 0.311
8.616 5.108 0.912
8.585 5.355 1.392
8.660 5.196 1.482
8.655 5.268 1.976
8.554 4.661 2.399
8.513 4.717 3.075
8.738 5.004 3.522
8.983 4.853 3.820
8.858 4.803 4.159
9.201 4.795 4.605
8.995 3.769 6.558
8.941 4.049 6.812
9.354 4.058 7.391
9.541 3.784 8.171
9.541 3.892 8.323
9.099 3.896 8.609
9.491 3.797 8.955
9.256 3.905 9.783
9.607 3.362 9.889
9.527 3.425 10.751
9.797 3.303 11.160
8.482 4.713 0.471
8.578 4.737 0.593
8.986 4.624 1.092
8.663 4.773 1.455
8.499 4.859 2.325
8.756 4.321 2.615
8.813 4.553 2.841
8.919 4.186 3.201
8.759 4.269 3.731
9.087 4.361 4.279
9.187 4.246 4.883
9.560 3.561 7.207
9.290 3.619 7.221
9.625 3.564 8.043
9.289 3.356 8.297
9.674 3.508 8.953
9.338 3.129 9.419
9.518 3.509 9.595
9.756 3.344 10.108
9.831 2.948 10.488
9.043 4.315 0.930
8.962 4.417 1.233
8.625 4.168 1.349
8.856 4.203 2.091
8.798 3.902 2.290
8.922 4.185 2.932
8.733 4.064 3.432
9.221 3.805 4.062
9.212 3.829 4.072
9.485 2.842 7.445
9.507 3.276 7.760
9.471 3.247 8.394
9.745 2.831 8.421
9.432 2.579 9.330
9.848 2.634 9.402
9.421 2.650 10.089
8.941 3.931 1.305
8.780 3.859 1.813
8.908 3.723 2.038
9.101 3.873 2.314
8.898 3.345 2.971
9.298 3.506 3.455
8.875 3.535 3.720
9.701 2.623 7.942
9.751 2.801 7.978
9.621 2.186 8.850
9.912 2.673 9.014
9.625 2.122 9.318
8.919 3.063 1.680
9.040 2.992 1.888
8.967 3.280 2.105
9.402 3.006 2.642
8.995 3.189 3.018
9.961 1.866 7.860
9.654 1.900 8.362
9.859 2.044 9.221
9.169 2.743 2.046
9.291 2.931 2.539
9.324 2.646 2.690
8.083 12.184 9.663
8.044 12.316 9.989
7.935 11.916 10.641
7.829 11.483 9.047
7.763 11.937 9.397
8.226 11.788 9.936
7.957 11.520 10.011
8.318 11.483 10.749
7.399 12.414 2.933
7.378 12.236 3.291
7.427 12.258 3.502
7.516 12.076 3.851
7.471 12.056 4.668
7.763 11.460 8.536
7.840 11.283 8.808
7.804 11.414 9.487
7.871 11.345 9.762
8.140 10.913 9.994
8.023 10.956 10.887
7.938 11.068 10.980
7.258 12.370 2.101
7.196 12.302 2.834
7.399 12.245 3.139
7.243 12.039 3.464
7.309 11.637 4.191
7.526 11.811 4.433
7.744 11.940 5.127
7.912 10.915 8.094
7.878 10.898 8.119
7.836 10.981 8.858
8.142 10.860 9.094
8.342 10.940 9.725
8.141 10.548 10.321
8.022 10.809 10.724
8.204 10.710 11.305
8.208 10.740 11.544
7.659 11.901 1.803
7.426 11.474 2.135
7.253 11.444 2.798
7.285 11.312 3.340
7.399 11.483 3.548
7.913 11.456 3.985
7.851 11.234 4.280
7.441 11.585 4.777
7.999 11.062 5.496
8.343 10.859 8.091
8.037 10.418 8.578
8.471 10.569 8.560
7.996 10.144 9.417
8.128 10.384 9.681
8.266 10.606 9.962
8.363 10.231 10.274
8.612 10.390 11.027
8.300 10.284 11.518
7.642 11.401 1.601
7.345 11.093 2.246
7.567 11.220 2.622
7.812 11.263 2.765
7.673 11.010 3.633
7.551 10.811 3.692
7.599 11.125 4.134
7.643 11.060 4.537
8.038 10.674 5.074
8.409 10.145 7.914
8.017 10.112 8.160
8.436 9.824 8.609
8.602 9.731 9.396
8.493 9.723 9.807
8.296 9.655 10.232
8.392 9.858 10.647
8.246 9.865 10.716
8.532 9.956 11.634
7.590 10.957 1.862
7.546 11.126 1.781
7.739 10.692 2.267
7.957 10.515 2.939
8.062 10.674 3.649
7.722 10.417 3.831
8.166 10.798 4.237
7.698 10.422 4.570
7.788 10.426 5.038
8.468 9.886 8.393
8.560 9.800 8.590
8.304 9.751 8.961
8.528 9.304 9.794
8.595 9.630 10.085
8.568 9.469 10.343
8.642 9.386 10.678
7.807 10.232 1.883
7.993 10.139 2.497
7.898 10.285 2.756
8.057 10.327 3.262
8.164 10.199 3.905
7.886 10.410 4.376
8.225 9.893 4.693
8.359 8.899 8.792
8.305 8.916 9.055
8.578 9.166 9.312
8.899 9.137 9.677
8.532 8.998 10.605
7.930 9.891 2.136
7.891 9.792 3.056
8.034 9.640 3.194
7.946 9.876 3.444
8.342 9.623 4.299
8.680 8.906 9.251
8.926 8.716 9.465
8.844 8.704 9.858
7.909 9.148 2.891
8.077 9.313 3.163
8.389 9.351 3.703
9.215 5.891 8.757
9.411 6.258 9.197
9.430 5.847 9.510
8.845 6.566 2.597
8.518 6.585 2.991
8.736 6.842 3.218
9.242 5.427 8.342
9.301 5.496 8.560
9.427 5.408 9.018
9.384 5.616 9.283
9.519 5.349 9.869
8.488 6.322 2.136
8.983 6.427 2.171
8.852 6.500 3.055
9.083 6.447 3.489
8.921 6.128 3.475
9.360 5.507 7.455
9.389 5.159 7.858
9.745 4.955 8.267
9.619 5.076 8.758
9.772 5.382 9.364
9.736 5.086 9.965
9.384 4.907 10.553
8.985 5.928 1.406
8.604 5.776 1.547
8.951 6.164 2.386
8.863 5.923 2.815
9.196 5.758 3.004
9.289 5.819 3.733
9.092 5.848 3.970
9.538 5.081 6.956
9.594 4.667 7.488
9.406 4.754 8.183
9.548 4.857 8.429
9.879 4.720 9.088
9.827 4.768 9.487
9.878 4.728 9.820
9.469 4.292 10.156
9.966 4.243 10.782
9.155 5.787 1.052
8.996 5.361 1.423
9.071 5.718 2.058
9.119 5.614 2.116
9.230 5.502 2.618
8.917 5.266 3.273
9.424 5.511 3.566
8.895 5.589 3.745
8.942 5.516 4.148
9.415 4.394 7.104
9.616 4.544 7.270
9.419 4.422 8.114
9.765 4.602 8.502
9.782 4.153 8.771
9.710 4.172 9.041
10.012 4.351 9.459
9.960 4.304 10.365
9.947 4.268 10.302
8.983 5.484 1.019
9.068 5.276 1.273
9.094 5.156 1.904
9.161 5.357 2.027
9.059 5.187 2.465
9.406 4.933 3.092
9.212 4.758 3.426
9.327 4.978 3.655
9.066 5.093 4.622
9.819 4.020 6.843
9.909 4.073 7.581
9.902 3.745 7.963
9.943 4.132 8.057
9.600 4.143 8.927
9.947 3.948 9.159
9.868 3.921 9.438
10.116 3.453 10.153
9.718 3.547 10.742
9.014 4.557 0.929
9.328 4.574 1.189
8.899 4.437 1.566
9.041 4.383 1.982
9.457 4.592 2.601
9.275 4.747 2.813
9.416 4.472 3.400
9.260 4.694 3.642
9.308 4.508 4.279
9.596 3.647 7.368
9.713 3.306 7.777
9.885 3.353 8.082
9.950 3.701 8.539
9.869 3.185 9.015
10.228 3.584 9.458
9.852 3.032 9.883
9.523 4.487 1.415
9.403 4.220 1.850
9.589 4.468 2.136
9.323 4.332 2.620
9.626 4.399 2.919
9.689 3.988 3.106
9.341 3.853 3.963
10.159 2.978 7.598
9.911 3.142 7.942
10.308 2.914 8.409
9.926 2.839 9.268
9.926 2.682 9.413
9.169 3.680 1.563
9.250 3.988 2.182
9.464 3.896 2.295
9.363 3.930 2.856
9.451 3.535 3.009
9.809 2.505 8.346
10.359 2.829 8.702
9.878 2.380 9.027
9.813 3.118 2.112
9.354 3.193 2.184
9.610 3.510 2.585
8.496 11.787 9.206
8.236 11.852 9.705
8.209 11.477 10.149
7.770 12.541 3.677
7.987 12.244 4.316
8.643 11.198 9.101
8.663 11.289 9.417
8.593 11.239 9.661
8.403 11.279 10.398
8.427 11.495 10.498
7.969 12.032 2.679
7.923 12.335 3.251
8.128 12.354 3.637
7.845 12.121 3.885
7.877 11.835 4.689
8.673 10.786 8.109
8.799 10.896 8.604
8.533 11.145 8.996
8.492 10.638 9.936
8.592 10.630 10.064
8.400 10.755 10.854
8.875 11.036 11.268
7.842 11.741 1.916
8.258 11.896 2.705
8.051 11.770 2.760
8.125 11.400 3.218
8.042 11.758 3.772
8.281 11.555 4.462
8.159 11.674 4.925
8.307 10.699 8.553
8.579 10.648 8.491
8.503 10.501 9.373
8.866 10.426 9.380
8.502 10.168 10.042
8.863 10.649 10.429
8.687 10.403 10.988
7.763 11.145 2.037
7.803 11.185 2.311
8.093 11.005 3.021
8.310 11.027 3.347
8.046 10.962 3.741
8.311 10.904 4.428
8.012 11.014 5.021
8.791 9.945 8.278
8.728 10.308 8.791
8.772 9.956 9.053
8.868 9.878 9.345
8.731 9.863 10.234
9.139 10.145 10.285
9.013 10.127 10.760
7.881 11.034 2.023
8.014 10.909 2.485
8.238 11.106 2.827
8.331 10.577 3.401
8.208 10.640 3.798
8.218 10.562 4.508
8.432 10.654 4.890
8.657 9.738 8.860
8.963 9.699 9.180
8.838 9.541 9.800
8.852 9.503 10.150
8.831 9.660 10.465
8.420 10.452 2.489
8.422 10.554 2.607
8.631 10.219 3.030
8.627 10.513 3.957
8.403 10.384 4.033
9.167 9.220 8.911
8.909 8.930 9.548
8.898 9.360 9.744
8.576 9.895 2.965
8.478 9.658 3.135
8.702 9.694 3.616
9.716 5.577 8.580
9.803 5.767 9.075
10.141 5.769 9.541
9.043 6.522 2.207
9.174 6.609 3.000
9.560 6.178 3.212
10.134 5.506 8.068
9.617 5.514 8.248
10.187 5.352 8.688
10.199 5.430 9.566
10.261 5.319 9.595
9.371 6.172 2.000
9.589 6.082 2.374
9.637 6.220 2.818
9.276 6.215 3.187
9.462 6.005 3.381
10.069 5.207 7.532
10.043 5.081 7.912
9.918 4.721 8.564
9.867 4.788 9.069
9.970 4.688 9.092
10.222 4.752 9.562
10.380 4.728 10.005
9.372 5.802 1.487
9.391 5.498 1.834
9.299 5.579 2.295
9.498 5.832 2.741
9.335 5.390 3.138
9.424 5.778 3.272
9.426 5.335 3.773
10.026 4.605 7.314
9.903 4.396 7.969
9.959 4.509 8.539
10.302 4.142 8.950
10.103 4.246 9.353
10.230 4.237 9.865
10.090 4.355 10.210
9.600 5.402 1.483
9.797 5.487 1.684
9.430 5.429 2.051
9.472 5.264 2.724
9.732 5.315 3.074
9.839 4.789 3.738
9.454 5.160 3.761
10.245 3.915 7.627
9.995 4.232 7.569
10.448 3.846 8.388
10.012 4.062 8.605
10.391 3.895 9.203
10.468 4.158 9.578
10.340 4.090 9.967
9.857 4.935 0.944
9.437 5.043 1.823
9.552 4.600 1.916
9.612 4.798 2.648
9.877 4.448 3.011
9.795 4.662 3.671
9.724 4.590 4.064
10.271 3.685 7.616
10.381 3.783 8.398
10.107 3.472 8.677
10.126 3.352 8.832
10.700 3.430 9.424
9.944 4.690 1.818
9.584 4.551 2.038
9.518 4.373 2.214
9.653 4.175 2.768
10.096 4.290 3.522
10.561 2.923 7.914
10.638 3.336 8.635
10.586 3.127 9.118
9.797 4.190 2.193
10.008 3.933 2.410
9.801 3.724 2.902
8.568 11.278 8.588
8.697 11.757 9.470
8.708 11.472 9.819
8.945 11.381 9.913
9.264 11.544 10.440
8.487 12.341 2.541
8.498 12.106 2.797
8.239 12.068 3.350
8.687 12.314 3.959
8.728 12.307 4.372
8.843 11.225 8.626
8.762 11.009 9.094
9.129 11.229 9.454
9.010 10.674 10.152
8.827 11.017 10.800
8.574 11.908 2.626
8.354 12.095 2.909
8.667 12.033 3.282
8.487 11.862 4.066
8.781 11.475 4.055
9.064 10.496 8.901
8.949 10.366 9.232
8.957 10.668 9.520
8.933 10.583 9.774
9.392 10.315 10.436
8.279 11.510 2.565
8.342 11.398 2.735
8.297 11.517 3.359
8.647 11.412 3.728
8.839 11.164 4.400
8.942 10.115 8.640
8.916 9.965 8.848
9.101 10.061 9.396
9.550 10.008 9.984
9.312 9.929 10.184
8.442 10.779 2.288
8.864 10.859 2.626
8.658 11.038 3.485
8.628 11.093 3.859
8.872 10.834 4.460
9.071 10.025 8.596
9.059 9.778 9.221
9.198 9.975 9.530
9.442 9.654 9.879
9.603 9.417 10.409
8.693 10.278 2.389
8.848 10.255 2.550
8.856 10.378 3.411
8.857 10.201 3.450
8.945 10.339 4.086
10.203 5.521 8.054
10.386 5.274 8.696
10.568 5.605 9.023
10.594 5.571 9.345
10.466 5.293 9.581
9.941 6.025 1.641
9.919 5.988 1.968
9.702 6.119 2.594
9.737 5.889 3.099
10.057 6.056 3.320
10.654 5.107 7.719
10.374 4.841 8.572
10.329 5.249 8.745
10.405 5.152 8.976
10.552 4.918 9.622
10.105 5.790 1.739
10.165 5.839 2.283
9.918 5.534 2.327
9.897 5.697 2.763
10.287 5.877 3.343
10.426 4.568 7.771
10.485 4.778 8.158
10.546 4.721 8.824
10.604 4.556 9.410
10.777 4.398 9.590
10.210 5.180 1.829
10.127 5.165 2.391
9.756 5.143 2.311
10.265 5.101 2.987
10.266 4.940 3.161
10.398 4.043 8.096
10.571 3.982 8.060
10.945 4.362 8.622
10.615 3.791 9.281
10.665 4.217 9.584
10.115 4.998 1.697
9.845 4.698 2.139
10.004 4.957 2.317
9.947 4.934 2.755
10.493 4.917 3.431
10.721 3.738 8.026
10.823 3.510 7.998
10.738 3.952 8.753
10.942 3.568 8.901
10.969 3.343 9.763
9.978 4.787 1.243
10.138 4.498 2.069
9.995 4.691 2.247
10.065 4.552 2.862
10.147 4.418 3.036
9.147 11.410 9.110
9.378 11.789 9.817
9.352 11.650 10.417
8.645 12.211 3.222
8.903 12.157 3.671
8.793 12.345 3.735
9.611 11.142 8.952
9.472 11.154 9.022
9.357 10.882 9.735
9.451 10.905 10.256
9.538 10.901 10.520
8.961 12.017 2.443
8.753 11.821 3.037
9.004 12.116 3.589
8.818 11.928 3.819
9.068 11.725 4.209
9.393 10.928 8.986
9.556 10.830 9.222
9.557 10.468 9.726
9.644 10.717 10.277
9.653 10.812 10.456
8.898 11.461 2.557
8.837 11.614 3.065
9.289 11.697 3.422
9.206 11.664 4.030
8.836 11.314 4.362
9.524 10.156 8.840
9.873 10.316 9.320
9.427 10.336 9.783
9.924 10.307 10.193
9.565 10.123 10.395
8.849 11.257 2.435
8.873 11.009 3.111
8.980 10.729 3.021
9.132 10.850 3.709
9.232 11.117 4.230
9.826 9.895 8.824
9.705 9.857 9.436
10.108 9.560 10.165
9.190 10.580 2.580
9.477 10.450 3.397
9.495 10.687 3.796
10.672 5.381 8.669
10.634 5.545 8.918
10.829 5.459 9.469
10.356 6.055 2.308
10.176 6.094 2.747
10.416 5.965 3.194
10.692 5.367 7.969
10.721 5.292 8.462
10.938 5.006 9.045
10.719 5.061 9.240
10.787 5.209 9.863
10.106 6.088 1.486
10.368 5.918 2.263
10.456 5.571 2.803
10.202 5.948 3.086
10.227 5.694 3.205
11.106 4.604 7.588
11.057 4.974 8.223
10.941 4.723 8.529
11.348 4.527 8.947
11.354 4.407 9.755
10.118 5.750 1.788
10.650 5.578 2.200
10.172 5.205 2.244
10.434 5.081 3.077
10.422 5.449 3.440
11.081 4.577 7.837
11.358 3.966 8.394
11.134 4.448 8.458
11.285 3.920 9.363
11.062 4.077 9.674
10.453 5.292 1.846
10.615 4.825 1.814
10.475 4.906 2.426
10.890 4.722 2.953
10.800 4.606 3.329
11.104 3.828 8.161
10.966 3.900 8.703
11.178 3.596 8.990
10.394 4.579 2.222
10.418 4.431 2.158
10.986 4.320 3.000
9.486 11.968 8.886
9.575 11.706 9.379
9.718 11.567 9.652
9.967 11.457 9.995
9.624 11.521 10.414
9.370 12.250 2.665
9.122 12.627 2.806
9.272 12.194 3.546
9.173 12.220 4.089
9.106 12.348 4.626
9.930 11.172 8.706
10.021 11.331 9.176
10.160 11.021 9.345
10.066 11.164 9.910
9.833 10.846 10.789
9.426 12.099 2.347
9.260 11.895 3.115
9.437 11.999 3.504
9.323 12.114 4.041
9.662 11.710 4.072
9.890 10.837 8.615
9.915 10.783 8.989
10.301 10.669 9.339
9.966 10.468 10.033
9.996 10.731 10.372
9.280 11.722 2.283
9.224 11.495 3.058
9.272 11.414 3.612
9.705 11.327 3.992
9.761 11.165 4.073
10.236 10.670 8.536
10.241 10.406 9.138
10.016 10.325 9.348
9.861 10.527 9.964
10.290 10.331 10.583
9.482 11.189 2.110
9.295 11.226 3.088
9.731 11.253 3.471
9.462 10.814 3.807
9.539 11.233 3.892
10.331 10.281 8.365
10.395 9.846 9.022
9.985 10.133 9.175
10.224 9.595 10.152
10.493 9.791 10.489
9.646 10.910 2.463
9.659 10.830 2.967
9.825 10.588 3.292
9.699 10.723 3.808
9.752 10.650 4.058
11.403 5.983 8.172
11.002 5.596 8.338
11.056 5.887 9.095
11.466 5.265 9.456
11.344 5.342 9.777
10.434 6.295 1.831
10.813 6.542 2.248
10.663 6.423 2.713
10.916 6.181 2.976
10.638 6.235 3.684
11.228 5.502 7.881
11.350 5.500 8.524
11.242 5.044 8.488
11.165 4.858 9.458
11.605 5.218 9.552
10.728 5.852 1.942
10.763 6.140 1.870
10.831 5.836 2.719
10.666 5.594 2.852
10.738 5.764 3.273
11.334 5.136 8.076
11.411 4.740 8.248
11.352 4.728 8.488
11.495 4.644 8.961
11.416 4.542 9.666
10.537 5.313 1.484
11.134 5.352 2.257
10.770 5.429 2.632
10.655 5.670 2.685
11.136 5.317 3.329
11.188 4.499 7.928
11.380 4.539 8.291
11.676 4.309 8.693
11.733 4.066 8.863
11.506 4.092 9.531
11.063 4.976 1.734
10.718 5.349 2.103
11.118 5.127 2.382
11.269 4.891 2.792
11.297 4.817 3.048
11.309 3.957 7.523
11.756 3.644 7.862
11.521 3.902 8.596
11.943 3.573 9.036
11.776 3.811 9.581
11.055 4.748 1.369
10.903 4.906 2.045
11.029 4.735 2.481
11.128 4.751 2.604
10.991 4.476 3.089
10.092 12.222 9.423
10.416 12.076 9.925
10.034 12.278 10.245
10.122 11.907 8.999
10.014 11.554 9.455
10.383 11.989 9.663
10.035 11.618 10.325
10.384 11.725 10.701
9.500 12.403 3.131
9.974 12.488 3.432
9.932 12.183 3.983
9.878 12.374 4.526
10.215 11.321 8.362
10.510 11.701 8.598
10.556 11.511 9.041
10.325 11.341 9.873
10.548 11.560 10.263
10.594 11.472 10.535
10.294 11.355 11.057
9.827 12.340 2.198
9.710 12.019 2.510
9.735 11.967 3.030
9.902 11.869 3.144
10.073 11.744 3.952
9.573 12.147 3.975
10.189 11.700 4.742
10.133 10.857 8.399
10.524 10.822 8.465
10.477 10.919 8.920
10.332 10.851 9.758
10.214 11.055 10.254
10.600 10.837 10.427
10.542 10.592 11.066
9.992 11.973 1.698
10.015 11.990 2.201
10.048 11.448 3.165
9.693 11.916 3.448
10.148 11.384 3.927
9.827 11.685 4.484
10.014 11.615 4.469
10.254 10.856 8.354
10.637 10.462 8.620
10.697 10.543 8.895
10.520 10.335 9.649
10.820 10.487 9.932
10.592 10.081 10.342
10.683 10.103 11.060
10.009 11.405 2.090
10.054 11.030 2.458
10.044 11.071 3.084
10.194 10.931 3.272
9.808 11.072 3.820
9.950 11.343 3.958
10.215 11.260 4.418
10.603 10.406 8.675
10.438 10.013 9.091
10.492 9.932 9.402
10.834 10.084 9.700
10.619 9.756 10.058
10.230 10.692 2.560
10.005 10.974 2.490
10.004 10.527 3.039
10.114 11.015 3.919
10.251 10.803 4.331
10.857 9.930 9.095
11.026 9.434 9.065
10.873 9.541 9.988
10.353 10.480 2.642
10.235 10.103 3.260
10.062 10.271 3.663
11.596 6.056 8.409
11.649 6.156 8.829
11.359 6.304 9.435
10.850 6.918 2.175
11.023 7.162 2.872
10.856 6.758 2.814
11.480 5.757 7.757
11.448 5.854 8.515
11.472 5.647 8.955
11.624 5.925 8.993
11.723 5.352 9.662
11.049 6.552 1.649
10.892 6.666 1.915
11.325 6.398 2.556
11.399 6.263 2.894
11.071 6.260 3.326
11.928 5.333 7.477
11.663 5.277 8.120
11.788 5.353 8.172
11.624 5.486 8.784
12.021 5.282 9.137
11.829 5.201 9.487
11.839 4.911 10.006
11.219 6.289 0.938
11.346 6.402 1.515
10.908 5.824 1.885
10.947 6.198 2.679
11.552 6.198 2.800
11.359 5.836 3.166
11.237 5.701 3.650
11.621 4.873 7.308
11.607 4.962 7.959
11.564 5.054 7.989
12.057 4.887 8.730
12.057 5.039 8.989
12.041 4.629 9.602
12.088 4.606 10.135
11.089 5.870 1.041
11.003 5.923 1.688
11.054 5.546 2.182
11.565 5.516 2.655
11.477 5.751 3.015
11.157 5.540 3.118
11.177 5.223 3.642
11.601 4.652 7.300
11.969 4.446 7.625
11.954 4.199 8.412
12.197 4.653 8.661
12.019 4.148 8.876
12.068 4.057 9.510
11.901 4.149 9.815
11.507 5.044 1.331
11.237 5.166 1.549
11.506 5.210 1.832
11.300 5.204 2.554
11.232 4.867 2.758
11.796 5.007 3.482
11.414 5.060 3.963
11.722 4.207 7.888
12.162 3.868 7.886
12.096 4.239 8.514
12.226 3.997 8.924
12.461 3.741 9.373
11.593 4.684 1.354
11.763 4.914 1.835
11.354 4.537 2.151
11.317 4.877 2.651
11.543 4.909 3.022
12.102 3.637 7.919
11.993 3.398 8.504
12.101 3.668 9.056
11.891 4.272 1.876
11.781 4.570 2.168
11.591 4.427 2.489
0.156 2.619 10.679
0.163 2.858 10.551
0.306 2.313 9.275
0.018 2.603 9.909
0.019 2.474 10.442
0.030 2.275 10.653
0.319 2.411 11.063
-0.023 2.315 8.019
-0.141 1.827 8.581
0.177 1.957 8.743
0.222 1.969 9.659
0.300 1.758 9.980
0.059 1.836 10.303
0.126 1.693 10.841
0.374 1.703 11.008
0.336 1.933 7.591
-0.012 1.787 7.903
-0.052 1.836 8.196
0.425 1.289 8.769
0.261 1.645 9.266
0.206 1.294 9.785
0.337 1.374 10.006
0.183 1.507 10.844
0.170 1.265 11.059
0.226 1.215 8.032
0.170 1.377 8.468
0.588 0.861 8.800
0.158 1.317 9.468
0.631 0.979 9.821
0.545 1.122 9.993
0.192 0.780 10.807
0.284 1.005 8.118
0.474 0.809 8.572
0.609 0.428 9.217
0.303 0.512 9.740
0.266 0.598 10.253
0.267 0.038 8.781
0.596 0.357 8.988
0.576 0.297 9.840
-0.016 0.660 3.184
-0.061 4.470 9.050
0.029 3.962 9.415
-0.014 4.349 10.044
-0.005 3.892 8.462
0.321 4.065 9.416
0.004 3.543 9.721
-0.009 3.782 9.849
0.052 3.698 10.311
0.067 3.327 8.048
0.268 3.436 8.807
0.427 3.393 9.146
0.471 3.229 9.404
0.252 3.383 9.782
0.141 3.028 10.568
0.388 3.242 11.022
0.444 3.048 7.849
0.014 3.130 8.164
0.581 3.154 8.722
0.475 2.905 8.765
0.275 2.997 9.719
0.549 2.964 10.099
0.611 2.844 10.170
0.207 2.701 10.525
0.384 2.518 11.282
0.297 2.507 7.372
0.577 2.967 7.355
0.428 2.594 8.278
0.467 2.707 8.764
0.349 2.652 9.088
0.582 2.696 9.358
0.695 2.540 9.653
0.525 2.439 10.546
0.559 2.097 11.032
0.867 2.256 11.436
0.906 2.245 11.546
0.009 2.876 4.428
-0.115 3.040 4.889
0.116 3.179 5.642
0.421 2.292 7.015
0.295 2.552 7.718
0.495 2.341 8.066
0.603 1.980 8.637
0.503 2.233 8.783
0.473 2.129 9.110
0.909 2.281 9.637
0.827 1.978 9.988
0.781 1.948 10.499
0.591 2.066 11.316
0.812 1.576 11.289
0.048 2.682 2.880
0.316 3.013 3.423
0.131 2.902 4.200
0.119 2.712 4.257
0.253 2.532 4.720
0.425 2.744 5.265
0.469 1.763 7.237
0.335 1.840 7.797
0.446 1.647 8.135
0.857 1.939 8.439
0.869 1.452 8.884
0.501 1.580 9.359
0.485 1.533 9.931
0.529 1.252 10.122
0.804 1.194 10.580
0.700 1.252 11.017
1.033 1.181 11.706
0.104 2.482 1.622
-0.155 2.290 2.372
-0.108 2.163 2.452
0.396 2.494 2.798
0.269 2.477 3.748
0.047 2.383 3.697
0.125 2.435 4.211
0.562 2.441 4.725
0.533 2.218 5.025
0.433 1.670 7.581
0.851 1.232 8.133
0.900 1.498 8.238
0.756 1.211 8.614
0.747 1.314 9.012
0.713 1.295 9.876
1.154 1.061 9.994
0.762 0.952 10.334
0.724 0.949 10.781
0.176 2.129 1.405
0.240 1.928 1.729
0.408 1.947 2.425
0.399 1.945 2.575
0.076 1.725 3.161
0.446 1.944 3.584
0.134 1.846 3.694
0.410 1.913 4.062
0.368 1.726 4.651
0.781 0.995 7.891
0.942 0.738 8.066
0.983 0.660 8.685
1.034 0.863 9.036
1.211 0.507 9.669
1.037 0.737 10.282
0.729 0.489 10.493
0.403 1.722 1.819
-0.021 1.871 2.288
0.379 1.392 2.396
0.312 1.309 3.073
0.479 1.648 3.672
0.594 1.280 3.775
0.447 1.471 4.530
0.693 0.701 8.027
1.169 0.319 8.421
0.757 0.470 9.238
1.269 0.073 9.825
1.311 0.314 9.909
0.153 1.185 1.793
0.571 0.986 2.707
0.353 1.217 2.758
0.292 1.288 3.278
0.362 1.069 3.639
0.223 0.558 2.188
0.711 0.913 2.766
0.653 0.498 3.502
-0.245 6.838 11.675
-0.164 6.153 10.583
-0.170 6.115 10.777
0.137 6.128 11.149
0.081 6.217 9.083
0.205 6.045 9.320
0.153 6.260 10.101
0.253 5.873 10.167
0.238 5.942 10.906
0.292 5.870 8.860
0.426 5.587 9.151
0.425 5.791 9.822
0.444 5.329 10.124
0.077 5.686 10.905
0.303 5.133 9.439
0.286 5.170 9.966
0.506 5.054 10.356
0.071 4.634 8.738
0.144 4.678 9.059
0.400 4.561 9.922
0.314 4.508 9.925
0.578 4.886 10.426
0.242 4.244 8.637
0.629 4.556 8.998
0.500 4.324 9.540
0.414 4.398 10.262
0.304 4.024 10.607
0.270 4.954 4.534
0.636 4.322 8.003
0.574 3.977 8.551
0.684 3.776 9.281
0.576 3.829 9.546
0.383 3.982 9.789
0.625 3.932 10.289
0.459 3.555 10.741
0.124 4.692 3.013
0.250 4.879 3.417
0.090 4.604 3.991
0.355 4.583 4.405
0.227 4.327 4.969
0.311 3.610 7.499
0.547 3.495 7.930
0.806 3.800 8.888
0.489 3.605 8.817
0.877 3.222 9.643
0.925 3.321 9.720
0.584 3.464 10.474
0.881 3.412 10.732
0.593 2.979 11.445
-0.139 4.205 1.869
0.166 4.201 2.414
-0.052 4.090 2.765
0.254 4.010 3.545
0.449 4.266 3.939
0.241 3.811 3.909
-0.012 3.766 4.570
0.169 4.158 4.939
0.297 3.544 6.637
0.693 3.551 7.399
0.573 3.273 7.817
0.664 3.399 8.089
0.997 3.191 8.539
0.568 3.173 8.889
1.084 2.825 9.282
1.077 2.772 10.123
0.653 3.115 10.297
1.206 2.802 10.972
1.251 2.617 10.977
1.201 2.896 11.663
0.780 3.002 12.217
-0.106 3.803 0.603
-0.090 4.295 0.975
0.162 3.758 1.399
0.289 3.712 1.738
0.441 3.803 2.086
-0.048 3.771 2.586
0.394 3.898 3.132
0.188 3.530 3.682
0.103 3.620 3.872
0.615 3.390 4.360
0.182 3.619 4.898
0.272 3.624 5.355
0.438 3.304 5.782
0.817 3.013 6.441
0.546 2.937 6.891
0.441 3.147 7.339
0.837 3.074 7.592
0.966 2.542 8.275
0.585 2.577 8.667
1.014 2.936 8.924
0.883 2.467 9.384
0.705 2.715 9.743
0.965 2.220 10.188
1.035 2.700 10.457
0.947 2.337 11.328
0.910 2.562 11.747
1.414 2.145 12.173
0.916 2.373 12.765
0.382 3.900 0.445
0.347 3.417 1.193
0.483 3.812 1.669
0.487 3.374 1.990
0.519 3.187 2.345
0.601 3.138 2.722
0.630 3.312 3.141
0.348 3.175 3.709
0.200 2.996 4.089
0.291 3.056 4.575
0.541 2.961 4.773
0.772 3.070 5.659
0.371 3.292 5.697
0.866 2.800 6.436
1.024 2.602 6.402
0.982 2.573 6.809
0.998 2.557 7.073
0.604 2.164 7.319
0.652 2.457 8.144
1.035 2.166 8.180
0.812 2.150 8.839
0.798 1.992 9.219
0.979 1.831 9.903
0.961 2.165 9.930
1.166 1.974 10.707
1.074 2.117 11.104
0.994 1.947 11.607
1.304 1.801 11.755
1.094 1.750 12.266
0.257 3.137 0.516
0.535 3.163 0.630
0.155 3.092 1.230
0.142 3.011 1.625
0.112 2.988 2.123
0.274 2.953 2.774
0.566 3.112 3.390
0.731 2.905 3.437
0.486 3.078 4.019
0.834 2.909 4.366
0.460 2.657 5.101
0.759 2.910 5.230
0.581 2.832 5.948
0.713 2.784 6.226
0.706 1.882 6.304
0.774 2.054 6.753
0.770 1.916 6.808
1.143 2.025 7.743
0.864 1.710 7.880
0.923 1.614 8.401
1.362 1.730 8.608
1.355 1.791 9.363
1.247 1.504 9.783
0.981 1.485 10.122
1.032 1.774 10.717
1.169 1.658 10.764
1.337 1.745 11.355
1.253 1.492 12.147
1.495 1.520 12.348
0.607 2.697 0.408
0.553 2.751 0.779
0.446 2.957 1.375
0.390 2.526 1.980
0.433 2.592 1.902
0.367 2.646 2.657
0.845 2.371 3.144
0.425 2.278 3.741
0.607 2.562 4.047
0.710 2.195 4.543
0.825 2.379 4.972
0.996 2.399 5.254
0.692 2.302 5.671
1.059 2.307 6.041
1.227 1.349 6.475
1.180 1.845 7.230
1.070 1.253 7.643
1.031 1.190 7.812
1.184 1.482 8.190
1.431 1.479 8.886
1.353 1.291 9.157
0.993 1.350 9.630
1.550 1.289 10.123
1.240 1.212 10.539
1.461 1.053 10.975
1.531 0.899 11.485
1.274 0.699 11.784
0.524 2.214 0.049
0.631 2.470 0.941
0.669 2.149 1.312
0.787 1.956 1.764
0.324 2.114 1.931
0.573 2.312 2.340
0.650 2.117 2.939
0.468 2.014 3.315
0.809 1.701 4.113
0.633 1.749 4.121
0.533 1.691 4.869
0.773 1.851 4.922
0.801 1.461 5.561
1.382 0.987 7.575
1.465 0.865 7.928
1.326 1.023 8.375
1.108 0.846 8.733
1.168 0.840 9.152
1.240 1.030 9.793
1.505 0.795 9.972
1.488 0.903 10.438
1.413 0.598 10.832
0.692 1.733 1.380
0.882 1.669 1.477
0.950 1.622 1.869
0.484 1.952 2.446
0.638 1.471 2.672
0.988 1.766 3.605
0.871 1.557 4.034
1.138 1.444 4.104
0.726 1.277 4.965
1.337 0.575 7.495
1.320 0.497 8.386
1.348 0.387 8.497
1.458 0.681 9.256
1.330 0.177 9.436
1.324 0.188 10.015
1.304 0.044 10.427
0.965 1.290 1.793
0.704 1.012 1.925
0.836 1.364 2.252
0.674 1.107 2.848
0.644 1.299 3.370
0.883 0.951 4.023
1.268 1.096 4.308
1.191 -0.040 8.096
1.263 0.188 8.368
1.535 -0.259 8.784
0.680 0.832 1.856
0.855 0.839 2.391
0.792 0.488 2.686
1.203 0.487 3.384
0.810 0.587 3.698
1.091 0.513 2.075
1.019 0.400 2.171
0.923 0.522 2.838
1.217 0.346 3.481
1.235 0.420 3.550
-0.081 8.493 11.419
0.301 8.805 12.147
0.380 8.522 12.574
0.163 8.477 10.236
-0.185 8.144 10.400
0.154 8.360 11.212
-0.076 8.421 11.411
0.281 8.027 11.773
0.079 7.835 12.240
-0.001 8.241 9.102
0.203 7.754 9.679
0.336 7.925 9.880
0.375 7.579 10.315
0.146 7.664 11.132
0.283 7.951 11.516
0.246 7.653 11.790
0.353 7.607 12.298
-0.208 7.537 7.828
0.249 7.638 8.273
-0.138 7.688 8.728
0.282 7.624 9.034
0.432 7.450 9.456
0.217 7.503 10.099
0.095 7.632 10.522
0.329 7.133 10.636
0.590 7.474 11.440
0.341 6.983 12.087
0.629 6.933 12.357
-0.141 7.259 8.017
0.431 6.985 8.240
0.037 7.174 8.645
0.297 7.335 8.986
0.475 7.030 9.683
0.343 7.240 10.256
0.591 6.804 10.229
0.258 6.979 10.750
0.376 6.942 11.572
0.215 6.975 11.765
0.701 6.564 12.294
0.388 7.054 8.174
0.511 6.715 8.460
0.572 6.773 8.982
0.448 6.740 9.382
0.486 6.636 9.714
0.286 6.705 10.610
0.561 6.225 10.997
0.486 6.453 11.334
0.780 6.552 11.886
0.181 7.291 5.334
0.250 6.081 8.309
0.632 6.250 8.735
0.402 5.997 9.348
0.351 5.975 9.833
0.477 6.337 10.093
0.823 5.876 10.558
0.527 5.830 11.227
-0.191 6.674 3.854
-0.216 6.666 4.786
-0.177 6.793 4.793
0.664 5.643 8.617
0.574 5.502 9.473
0.778 5.655 9.711
0.735 5.536 10.053
0.485 5.485 10.749
0.291 6.390 3.392
-0.207 6.713 3.579
-0.030 6.297 3.902
0.198 6.334 4.544
0.897 5.379 9.098
0.760 5.382 9.457
0.845 5.216 9.797
0.959 5.527 10.007
0.991 4.936 10.591
0.226 6.359 2.453
0.030 6.221 3.106
0.337 6.005 3.701
0.500 5.865 4.059
0.454 5.891 4.187
0.492 4.752 8.915
0.840 5.150 9.427
0.842 4.675 9.724
1.055 4.783 10.224
0.811 4.671 10.328
0.374 5.950 2.389
0.447 5.548 2.846
0.304 5.545 3.455
0.160 5.571 3.854
0.141 5.508 4.198
0.996 4.726 8.226
0.921 4.738 8.516
1.157 4.240 9.378
0.905 4.571 9.568
1.046 4.662 10.332
1.083 4.239 10.387
0.849 4.145 11.220
0.507 5.410 2.216
0.570 5.127 2.590
0.564 5.180 2.931
0.093 4.922 3.183
0.491 5.020 3.995
0.237 5.166 4.115
0.739 5.273 4.817
0.937 3.968 7.766
0.747 4.365 8.066
0.984 4.069 8.665
0.908 4.272 9.033
0.879 4.159 9.343
1.320 4.071 10.113
1.363 4.150 10.660
1.186 3.632 11.065
1.456 3.622 11.102
0.131 5.137 1.447
0.194 4.704 1.720
0.111 5.060 2.260
0.393 4.552 2.761
0.500 5.035 3.619
0.397 4.725 3.524
0.271 4.878 4.254
0.318 4.409 4.385
0.827 4.698 5.331
0.818 3.627 7.002
1.139 3.907 7.669
1.145 3.977 7.915
1.168 3.763 8.516
0.948 3.897 8.907
1.368 3.401 9.630
1.043 3.434 9.786
1.290 3.668 10.504
1.106 3.471 10.743
1.510 3.066 11.331
1.394 3.249 11.580
0.365 4.819 0.975
0.196 4.542 1.734
0.630 4.674 1.798
0.532 4.506 2.301
0.728 4.410 3.114
0.852 4.294 3.089
0.471 4.381 3.688
0.867 4.286 4.120
0.826 4.201 4.324
0.686 3.963 5.215
1.011 4.028 5.570
0.710 3.633 6.450
0.767 3.479 6.603
1.311 3.667 7.344
1.244 3.190 7.627
0.847 3.075 8.185
1.027 3.276 8.607
1.286 3.047 9.003
1.101 3.006 9.143
1.397 2.827 9.750
1.300 3.056 10.106
1.521 2.799 10.861
1.502 2.739 11.238
1.200 3.151 11.881
1.385 2.736 12.270
1.555 2.498 12.395
0.256 4.157 0.663
0.355 4.415 0.737
0.706 4.288 1.331
0.288 4.036 1.870
0.840 4.191 2.403
0.902 3.913 2.669
0.876 4.171 3.503
0.665 3.636 3.910
0.671 3.837 4.025
0.522 3.699 4.311
0.997 3.638 4.907
0.771 3.728 5.625
1.211 3.762 5.776
1.156 3.598 6.385
1.001 3.341 6.022
0.933 2.949 6.961
1.406 2.887 6.951
1.106 2.954 7.384
1.043 2.627 7.858
1.418 2.739 8.242
1.384 2.533 8.697
1.136 2.624 9.246
1.464 2.473 9.768
1.558 2.729 10.196
1.707 2.333 10.827
1.540 2.555 10.885
1.288 2.175 11.805
1.347 2.121 12.049
1.850 2.081 12.650
0.646 3.568 0.260
0.385 3.664 1.153
0.812 3.781 1.450
0.925 3.493 2.042
0.515 3.291 2.009
0.521 3.513 2.895
0.816 3.196 3.160
0.762 3.139 3.732
1.074 3.236 4.235
1.120 3.523 4.445
0.978 3.179 4.929
1.158 3.165 5.430
0.794 3.261 6.005
1.116 2.958 6.001
1.127 2.593 6.436
1.269 2.711 6.694
1.044 2.488 7.358
1.249 2.243 7.358
1.381 2.319 8.124
1.372 2.200 8.156
1.336 2.326 8.972
1.341 2.162 9.454
1.694 2.387 9.547
1.604 2.433 10.036
1.727 2.029 10.677
1.740 2.117 10.991
1.397 2.249 11.520
1.922 2.041 11.993
1.562 1.729 12.526
0.936 3.385 0.284
0.921 3.516 0.731
0.543 3.244 1.069
1.007 3.307 1.532
1.101 3.142 2.011
0.777 3.341 2.428
1.170 3.185 3.275
0.916 2.695 3.699
1.208 3.183 3.743
1.191 2.897 4.598
0.992 2.618 4.660
1.025 2.544 5.424
0.995 2.463 5.736
1.198 2.483 5.905
1.436 2.240 6.258
1.124 2.428 6.843
1.080 2.050 7.115
1.415 2.259 7.256
1.381 2.141 7.974
1.187 1.736 8.554
1.259 1.769 8.645
1.454 2.010 9.470
1.433 1.502 9.444
1.760 1.654 10.207
1.939 1.512 10.403
1.765 1.870 10.769
1.460 1.524 11.491
1.689 1.272 11.639
1.805 1.246 12.584
0.955 3.054 0.649
0.816 3.038 0.542
0.579 2.969 1.507
0.771 2.605 1.454
0.709 2.644 2.364
1.203 2.924 2.472
0.742 2.724 3.194
1.162 2.726 3.352
0.874 2.191 3.842
1.214 2.169 4.451
1.402 2.169 4.846
1.045 2.379 5.161
1.299 2.232 5.499
1.535 2.249 6.228
1.425 1.630 6.349
1.354 1.615 6.329
1.192 1.651 6.881
1.225 1.381 7.165
1.765 1.704 7.797
1.770 1.604 8.479
1.452 1.471 8.994
1.698 1.170 9.094
1.486 1.383 9.857
1.702 1.013 10.322
2.009 1.431 10.425
1.950 1.151 10.889
1.749 0.883 11.183
1.894 0.944 11.637
1.976 1.275 12.360
0.843 2.229 0.281
1.047 2.226 0.628
1.058 2.609 0.955
0.955 2.427 1.642
1.307 2.370 2.205
0.831 2.347 2.790
1.292 2.382 2.802
0.863 1.880 3.693
1.425 2.318 3.883
1.228 2.073 4.345
1.293 1.801 4.846
1.357 1.971 5.267
1.056 1.827 5.410
1.653 1.687 6.005
1.459 1.271 6.619
1.874 1.074 7.606
1.770 1.325 7.593
1.611 0.880 8.074
1.833 1.195 8.867
1.608 0.834 9.195
1.813 0.951 9.311
1.774 0.801 10.211
2.028 0.867 10.518
1.868 0.718 10.867
2.029 0.438 11.573
0.778 1.832 0.530
0.754 2.071 1.329
1.009 1.815 1.707
1.072 1.938 2.164
1.440 1.520 2.626
0.946 1.459 2.729
1.272 1.592 3.330
1.183 1.574 3.951
1.221 1.735 4.154
1.646 1.469 4.614
1.443 1.733 5.182
1.658 0.701 7.422
1.839 0.568 7.615
1.793 0.809 8.216
1.826 0.610 8.683
1.831 0.712 9.147
1.970 0.258 9.510
2.075 0.180 9.896
2.006 0.362 10.509
2.038 0.130 10.902
1.243 1.547 1.171
1.012 1.332 1.769
1.176 1.647 1.877
1.246 1.192 2.321
1.232 1.281 2.898
1.284 1.177 3.455
1.183 1.317 3.701
1.187 0.878 4.307
1.316 1.004 4.426
2.075 0.388 7.605
2.045 0.360 8.321
1.732 0.276 8.392
1.734 -0.003 8.709
1.805 0.231 9.183
1.798 0.211 9.849
1.410 1.211 1.622
1.117 1.081 1.608
1.280 0.833 2.563
1.201 1.068 2.804
1.487 0.678 3.267
1.441 0.495 3.919
1.513 0.495 4.326
1.671 0.707 1.608
1.520 0.366 2.433
1.641 0.393 2.442
1.744 0.399 3.251
1.327 0.450 3.458
-0.084 10.750 11.343
-0.122 10.308 11.575
-0.014 10.335 10.411
0.064 10.073 10.669
0.364 9.851 11.224
-0.121 10.255 11.926
0.313 10.144 12.290
-0.055 10.054 9.133
0.340 9.788 9.231
0.141 9.707 9.579
0.300 9.696 10.407
-0.088 9.928 10.890
-0.042 9.677 11.061
0.125 9.471 11.878
0.192 9.390 11.951
0.357 9.674 12.360
-0.114 9.346 7.817
0.184 9.533 8.564
0.159 9.425 8.988
0.392 9.471 9.085
0.050 9.465 9.617
0.072 9.477 9.982
0.096 9.054 10.657
0.255 9.038 11.145
0.193 9.012 11.788
0.471 9.273 12.016
0.639 8.971 12.253
-0.025 8.969 7.248
