3.139 1.856 4.423
5.379 5.287 6.721
5.769 5.739 6.926
5.870 6.134 6.944
6.177 6.393 7.362
2.030 0.705 2.914
2.191 1.139 3.129
2.496 1.416 3.523
2.883 1.772 3.728
3.106 2.129 3.799
3.368 2.557 4.030
5.218 5.156 6.028
5.574 5.686 6.126
5.711 5.927 6.456
6.095 6.416 6.772
6.340 6.682 6.861
6.421 6.896 7.108
1.786 0.738 2.426
2.044 1.011 2.559
2.429 1.463 2.939
2.499 1.752 3.090
2.793 2.158 3.322
2.927 2.331 3.476
3.390 2.702 3.784
3.638 3.168 4.034
4.893 5.280 5.219
5.199 5.537 5.503
5.622 5.778 5.805
5.833 6.230 6.058
6.025 6.603 6.319
6.289 6.904 6.537
6.381 7.387 6.603
6.629 7.514 6.946
1.573 0.626 1.798
1.882 0.819 1.991
2.042 1.319 2.078
2.205 1.558 2.502
2.447 1.950 2.592
2.720 2.239 2.921
3.017 2.590 3.038
3.429 3.094 3.330
3.431 3.293 3.664
3.706 3.688 3.830
4.781 5.035 4.705
4.920 5.436 4.838
5.145 5.814 5.038
5.443 6.155 5.413
5.811 6.421 5.573
6.056 6.752 5.749
6.231 7.105 6.065
6.471 7.480 6.258
6.772 7.823 6.504
1.218 0.145 0.907
1.406 0.587 0.988
1.644 0.883 1.249
1.772 1.071 1.631
2.127 1.521 1.848
2.431 1.921 1.939
2.539 2.127 2.227
2.819 2.660 2.345
2.982 3.013 2.817
3.202 3.188 2.955
3.521 3.689 3.261
3.890 4.032 3.394
4.011 4.224 3.508
4.282 4.638 3.728
4.474 4.974 4.174
4.867 5.227 4.187
5.101 5.787 4.553
5.247 5.946 4.827
5.485 6.512 4.931
5.806 6.681 5.253
5.904 7.059 5.356
6.279 7.538 5.739
6.532 7.828 5.816
6.637 8.121 6.052
1.002 0.206 0.831
1.150 0.456 0.347
1.321 0.714 0.578
1.584 1.058 0.893
1.909 1.309 1.197
2.014 1.664 1.414
2.472 2.086 1.691
2.610 2.399 1.902
2.927 2.704 1.966
3.128 3.101 2.222
3.282 3.423 2.640
3.645 3.941 2.863
3.717 4.158 2.973
4.087 4.460 3.274
4.229 4.932 3.372
4.444 5.196 3.681
4.716 5.628 3.966
5.054 6.009 4.085
5.387 6.325 4.372
5.528 6.650 4.533
5.692 7.059 4.844
6.070 7.251 5.104
6.381 7.721 5.354
6.418 7.976 5.415
6.866 8.383 5.610
0.867 0.139 0.322
1.000 0.364 0.507
4.823 2.054 12.490
4.656 1.847 11.927
4.951 2.353 12.139
5.052 2.532 12.336
5.446 2.878 12.539
4.328 1.883 11.127
4.724 2.114 11.405
5.024 2.539 11.689
5.141 2.804 11.749
5.337 3.077 12.194
5.574 3.462 12.267
5.832 3.954 12.636
3.279 0.254 9.742
4.246 1.627 10.608
4.315 1.937 10.696
4.561 2.342 11.078
4.965 2.844 11.199
5.116 3.039 11.348
5.413 3.542 11.641
5.734 3.761 11.822
5.914 4.089 12.135
6.055 4.585 12.245
2.959 0.294 9.037
3.117 0.636 9.327
3.389 0.954 9.429
3.713 1.300 9.669
4.014 1.642 9.947
4.187 1.860 10.154
4.549 2.361 10.453
4.638 2.746 10.528
5.006 3.010 10.739
5.140 3.245 10.923
5.383 3.588 11.261
5.587 3.981 11.434
5.837 4.454 11.757
6.219 4.710 11.916
2.794 0.191 8.315
3.029 0.494 8.710
3.235 0.718 8.740
3.365 1.070 9.074
3.771 1.511 9.266
3.966 1.917 9.581
4.213 2.287 9.784
4.455 2.676 9.936
4.687 2.838 10.161
5.049 3.309 10.441
5.232 3.534 10.685
5.338 4.016 10.906
5.769 4.215 11.152
5.974 4.587 11.236
6.258 4.945 11.518
2.603 -0.075 7.846
2.722 0.325 7.911
2.882 0.606 8.166
3.264 1.173 8.283
3.571 1.317 8.530
3.711 1.774 8.911
3.938 2.193 9.139
4.287 2.555 9.421
4.460 2.739 9.610
4.832 3.262 9.855
4.933 3.443 9.919
5.316 3.926 10.274
5.448 4.340 10.446
5.764 4.506 10.733
5.903 4.791 10.924
6.210 5.257 11.140
2.618 0.275 7.299
2.664 0.650 7.458
2.977 0.922 7.753
3.362 1.344 7.983
3.589 1.601 8.260
3.808 2.125 8.400
3.917 2.434 8.680
4.270 2.742 8.782
4.574 3.141 9.175
4.650 3.361 9.252
4.994 3.702 9.631
5.125 4.151 9.880
5.584 4.585 9.992
5.820 4.931 10.233
5.945 5.061 10.483
6.139 5.479 10.721
2.194 0.094 6.557
2.498 0.545 6.837
2.749 0.837 7.046
2.974 1.131 7.470
3.174 1.471 7.472
4.189 3.015 8.492
4.486 3.427 8.651
4.837 3.808 8.904
4.961 4.127 9.214
5.233 4.476 9.347
5.500 4.687 9.646
5.668 5.103 9.966
6.065 5.417 10.179
6.336 5.776 10.376
2.060 0.107 5.952
2.318 0.350 6.256
2.431 0.809 6.541
2.769 1.091 6.770
3.092 1.498 7.014
4.558 3.530 8.374
4.627 3.889 8.575
4.927 4.365 8.794
5.349 4.705 9.015
5.416 5.068 9.268
5.725 5.292 9.391
5.909 5.658 9.620
6.294 6.028 9.996
1.715 0.024 5.419
2.076 0.325 5.757
2.230 0.751 5.893
2.604 1.103 5.999
2.798 1.412 6.404
4.663 4.097 8.209
4.957 4.524 8.236
5.347 4.895 8.473
5.407 5.135 8.874
5.749 5.686 9.075
5.897 5.903 9.189
1.714 0.244 5.047
2.089 0.664 5.200
2.241 0.999 5.559
2.661 1.287 5.732
5.127 4.774 7.979
5.325 5.184 8.057
5.518 5.537 8.374
5.681 5.838 8.535
1.832 0.567 4.589
1.974 0.899 4.792
2.356 1.172 5.077
2.600 1.665 5.194
5.046 5.100 7.577
5.392 5.505 7.845
5.528 5.722 8.107
5.870 6.115 8.135
1.907 0.853 4.298
2.036 1.193 4.506
2.253 1.371 4.636
2.477 1.753 4.831
4.986 5.316 7.205
5.225 5.759 7.247
5.580 6.123 7.468
5.697 6.254 7.694
1.615 0.791 3.588
1.900 0.962 3.763
2.132 1.388 4.110
2.421 1.729 4.263
2.619 2.076 4.472
2.728 2.390 4.643
4.766 5.355 6.489
5.093 5.633 6.624
5.184 5.824 6.873
5.522 6.293 7.302
5.723 6.518 7.336
6.014 6.999 7.600
1.324 0.522 2.854
1.677 0.962 3.084
1.874 1.250 3.441
2.153 1.655 3.533
2.299 2.124 3.934
2.608 2.400 4.085
2.894 2.636 4.371
3.075 2.951 4.475
4.482 5.053 5.842
4.797 5.510 6.079
5.074 5.941 6.402
5.358 6.261 6.555
5.511 6.442 6.749
5.783 6.988 6.983
6.098 7.252 7.275
6.186 7.690 7.545
1.078 0.544 2.298
1.319 0.752 2.475
1.532 1.243 2.698
1.785 1.667 2.942
2.218 1.995 3.116
2.494 2.381 3.444
2.724 2.592 3.750
2.838 2.896 3.955
3.100 3.353 4.151
3.269 3.760 4.195
4.336 5.068 5.203
4.517 5.479 5.579
4.869 5.868 5.667
5.151 6.120 5.994
5.410 6.408 6.181
5.499 6.869 6.415
5.832 7.041 6.566
6.120 7.448 6.726
6.347 7.772 7.162
0.733 0.125 1.350
0.901 0.384 1.531
1.203 0.659 1.959
1.390 1.182 2.192
1.684 1.482 2.411
1.911 1.802 2.498
2.197 2.189 2.766
2.341 2.470 3.110
2.736 2.838 3.222
2.968 3.195 3.561
3.018 3.569 3.795
3.286 4.003 4.026
3.575 4.349 4.113
3.783 4.734 4.310
4.226 5.006 4.520
4.305 5.269 4.876
4.551 5.564 4.961
4.813 5.927 5.337
4.994 6.231 5.568
5.458 6.820 5.634
5.613 7.057 5.832
5.950 7.523 6.090
6.093 7.851 6.484
6.263 8.033 6.746
0.750 0.161 1.382
0.713 0.280 0.989
0.823 0.629 1.264
1.272 1.053 1.448
1.536 1.292 1.802
1.712 1.638 1.974
1.841 2.074 2.056
2.073 2.372 2.313
2.404 2.832 2.620
2.571 3.213 2.741
2.982 3.359 2.980
3.084 3.913 3.170
3.507 4.226 3.492
3.608 4.615 3.792
3.833 4.766 3.980
4.147 5.258 4.182
4.427 5.594 4.504
4.574 5.914 4.575
4.962 6.187 4.797
5.053 6.703 5.113
5.416 6.909 5.206
5.536 7.348 5.534
5.817 7.712 5.877
6.015 7.924 6.061
6.252 8.345 6.133
0.723 0.321 1.019
0.764 0.662 0.559
0.833 0.881 0.934
1.145 1.295 1.067
1.516 1.667 1.250
1.750 1.896 1.399
1.901 2.351 1.730
2.081 2.672 1.998
2.312 3.077 2.087
2.752 3.337 2.292
2.844 3.679 2.598
3.235 4.054 2.804
3.359 4.364 3.047
3.542 4.760 3.342
3.839 5.028 3.620
4.132 5.575 3.897
4.349 5.811 4.003
4.594 6.247 4.328
4.994 6.415 4.495
5.094 6.837 4.677
5.448 7.297 4.916
5.720 7.668 5.209
5.790 7.974 5.341
6.213 8.293 5.575
6.408 8.505 5.724
0.366 0.276 0.447
0.607 0.652 0.694
12.256 2.421 2.726
12.414 2.606 2.256
12.220 2.075 10.476
12.189 2.322 10.068
12.504 2.826 10.213
12.152 2.692 9.721
12.469 3.057 10.004
12.365 2.837 9.141
12.385 5.582 5.043
12.391 5.662 4.686
12.438 5.881 4.433
11.841 2.141 11.119
12.299 2.916 11.084
12.609 3.417 11.341
11.874 2.292 10.567
11.993 2.575 10.787
12.331 2.969 10.925
12.414 3.224 10.726
11.942 2.630 10.259
11.983 2.958 10.433
12.217 3.380 10.648
12.324 3.418 10.108
11.750 2.716 9.786
12.089 3.289 10.073
12.450 3.503 10.324
12.313 3.911 9.712
11.747 3.056 9.341
12.046 3.372 9.690
12.226 3.817 9.863
11.977 3.252 9.075
11.998 5.350 5.670
12.527 6.466 5.627
12.081 5.683 5.315
12.178 5.976 5.466
12.540 6.393 5.747
12.502 6.722 5.350
12.035 6.005 4.788
12.306 6.384 5.210
12.488 6.674 5.403
12.399 6.815 4.945
12.067 6.234 4.356
12.156 6.606 4.786
12.515 6.953 4.966
12.284 3.431 12.561
11.481 1.905 11.437
11.856 2.991 11.575
12.056 3.415 11.724
12.286 3.739 12.021
11.411 2.314 11.163
11.565 2.670 11.247
11.964 2.872 11.529
11.829 3.359 11.222
12.241 3.661 11.287
12.346 3.984 11.602
11.422 2.431 10.760
11.718 2.872 10.960
11.975 3.340 11.185
11.845 3.522 10.784
12.255 3.873 10.997
12.504 4.294 11.095
11.488 2.698 10.232
11.598 3.212 10.437
12.025 3.523 10.685
11.943 3.656 10.373
12.153 4.076 10.641
12.457 4.538 10.807
11.318 3.100 9.922
11.747 3.524 10.127
11.857 3.726 10.291
11.913 3.946 9.956
12.109 4.351 10.238
12.408 4.759 10.369
11.517 3.239 9.505
11.702 3.535 9.646
12.014 3.896 9.977
12.052 4.234 9.443
12.280 4.710 9.824
12.485 5.020 9.939
11.514 3.578 9.091
11.579 3.960 9.215
12.047 4.164 9.474
12.404 5.204 9.703
11.503 3.783 8.732
12.544 6.687 7.189
11.661 5.473 6.200
11.942 6.446 6.305
12.303 6.572 6.563
12.437 7.006 6.731
11.513 5.571 5.847
11.838 6.030 5.998
11.998 6.393 6.275
12.001 6.559 5.839
12.213 6.952 6.071
12.609 7.324 6.205
11.460 5.956 5.519
11.860 6.346 5.526
12.120 6.538 5.938
11.990 6.945 5.334
12.226 7.276 5.576
12.554 7.507 5.944
11.462 6.255 5.112
11.865 6.591 5.254
12.027 6.952 5.352
12.133 7.022 5.085
12.340 7.387 5.292
11.650 6.485 4.622
11.858 6.726 4.818
12.004 6.996 5.042
11.930 3.710 12.591
11.037 2.262 11.656
11.513 3.162 11.678
11.834 3.532 11.841
12.044 3.995 12.230
12.199 4.269 12.292
10.911 2.487 11.370
11.184 2.797 11.570
11.537 3.107 11.724
11.559 3.427 11.172
11.700 3.776 11.607
11.891 4.226 11.781
12.217 4.458 11.863
12.487 4.966 12.175
11.070 2.729 10.731
11.340 3.125 11.118
11.552 3.440 11.211
11.477 3.729 10.928
11.799 4.165 11.047
11.965 4.365 11.386
12.301 4.728 11.578
12.549 5.008 11.843
10.923 3.005 10.437
11.142 3.336 10.548
11.541 3.664 11.006
11.419 3.920 10.571
11.809 4.349 10.778
12.096 4.547 10.959
12.182 4.931 11.282
12.547 5.297 11.425
10.968 3.373 9.898
11.328 3.564 10.162
11.500 3.892 10.409
11.390 4.250 10.098
11.642 4.552 10.254
11.919 5.000 10.434
12.276 5.368 10.632
12.478 5.626 11.031
11.072 3.590 9.693
11.157 3.946 9.755
11.442 4.172 10.126
11.474 4.426 9.750
11.884 4.815 9.838
11.939 5.084 10.110
12.255 5.574 10.359
12.484 5.857 10.541
10.919 3.747 9.300
11.254 4.006 9.535
11.638 4.525 9.576
12.085 5.528 9.751
12.253 5.837 9.828
12.398 6.107 10.034
11.005 4.080 8.689
12.336 6.099 9.519
12.508 6.360 9.660
12.648 6.664 9.413
12.523 6.818 9.024
12.426 6.976 7.888
12.103 7.075 7.153
12.401 7.411 7.423
11.137 5.539 6.250
11.746 6.443 6.264
11.784 6.806 6.528
12.079 7.329 6.918
12.400 7.543 7.173
11.126 5.753 5.855
11.464 6.142 6.187
11.622 6.597 6.367
11.727 6.889 5.954
11.962 7.222 6.173
12.211 7.456 6.328
12.355 7.943 6.576
11.091 6.175 5.403
11.347 6.448 5.639
11.551 6.907 6.105
11.743 7.142 5.664
11.822 7.405 5.794
12.035 7.784 5.971
12.415 8.015 6.341
11.275 6.461 5.021
11.418 6.605 5.362
11.566 6.956 5.478
11.580 7.215 5.132
11.994 7.785 5.366
12.116 8.038 5.722
12.504 8.453 5.908
11.234 6.724 4.759
11.535 6.849 4.986
11.680 7.352 5.234
11.415 4.067 12.328
11.748 4.411 12.456
10.657 2.676 11.451
11.075 3.603 11.433
11.216 3.928 11.530
11.589 4.278 11.822
11.864 4.789 12.091
12.032 4.945 12.249
12.389 5.385 12.649
10.589 2.880 10.901
10.826 3.376 11.126
10.979 3.693 11.460
11.006 3.942 10.939
11.241 4.249 11.192
11.483 4.681 11.390
11.867 4.931 11.773
11.942 5.269 12.014
12.412 5.636 12.258
12.431 6.093 12.434
10.613 3.178 10.532
10.915 3.568 10.788
11.025 3.964 10.884
11.059 4.076 10.527
11.277 4.565 10.854
11.694 4.792 11.099
11.816 5.311 11.342
12.188 5.554 11.432
12.290 5.901 11.748
12.647 6.331 12.005
10.683 3.504 10.041
10.965 3.934 10.297
10.989 4.140 10.506
11.222 4.410 10.137
11.346 4.668 10.350
11.468 5.149 10.623
11.908 5.392 10.897
12.163 5.866 11.025
12.436 6.061 11.382
10.696 3.650 9.765
10.847 4.121 9.859
11.026 4.347 10.206
11.627 5.390 10.292
11.761 5.686 10.392
12.191 6.027 10.569
12.283 6.326 10.795
10.558 3.931 9.391
11.791 6.015 10.096
12.163 6.328 10.306
12.335 6.715 10.510
12.004 6.609 9.940
12.279 6.874 10.163
12.340 7.258 9.643
12.308 7.390 9.223
12.524 7.675 8.966
12.255 7.680 8.137
12.403 8.097 8.405
12.029 7.497 7.564
12.274 7.983 7.937
12.301 8.206 8.044
11.654 7.514 6.897
11.941 7.886 7.076
12.071 8.260 7.379
12.531 8.501 7.597
10.709 6.069 6.032
11.127 6.890 6.165
11.471 7.435 6.247
11.689 7.694 6.675
12.017 8.089 6.685
12.133 8.507 7.032
12.566 8.746 7.345
10.808 6.239 5.596
10.983 6.656 5.789
11.107 7.135 6.223
11.143 7.353 5.636
11.459 7.520 5.945
11.706 7.984 6.055
11.970 8.317 6.369
12.187 8.743 6.689
12.360 8.951 6.741
10.730 6.565 5.285
10.972 6.958 5.590
11.253 7.370 5.767
11.135 7.424 5.340
11.514 7.821 5.531
11.622 8.111 5.736
11.867 8.452 5.867
12.114 8.996 6.152
12.529 9.221 6.473
10.829 6.733 4.888
11.092 7.131 5.141
11.219 7.568 5.174
11.158 4.596 12.034
11.402 4.819 12.327
11.542 5.330 12.388
10.254 3.118 11.208
10.739 4.009 11.039
11.012 4.474 11.354
11.059 4.875 11.519
11.418 5.156 11.746
11.566 5.421 12.024
11.787 5.847 12.146
12.216 6.258 12.403
10.153 3.421 10.561
10.347 3.742 10.862
10.664 4.224 11.052
10.640 4.500 10.595
10.911 4.742 11.013
11.103 5.099 11.189
11.449 5.410 11.470
11.654 5.744 11.644
11.809 6.164 11.780
12.119 6.520 12.137
12.425 6.710 12.351
10.135 3.757 10.282
10.324 4.053 10.463
10.767 4.312 10.672
11.281 5.303 10.692
11.305 5.693 10.895
11.778 6.131 11.276
11.938 6.418 11.556
12.129 6.764 11.552
12.291 7.017 12.022
10.127 3.829 9.866
11.538 5.943 10.699
11.794 6.281 10.736
11.819 6.596 10.939
12.180 6.933 11.308
12.301 7.372 11.501
11.792 6.630 10.426
11.845 6.849 10.736
12.147 7.375 10.891
12.364 7.553 11.107
12.009 7.256 10.161
12.134 7.597 10.481
12.459 7.942 10.763
12.107 7.727 10.059
12.493 8.221 10.304
12.327 8.113 9.638
12.435 8.439 9.821
12.109 8.279 9.248
12.397 8.757 9.387
11.992 8.236 8.687
12.170 8.482 8.726
12.538 8.870 8.988
11.743 8.050 8.065
11.937 8.369 8.257
12.232 8.886 8.306
12.520 9.038 8.735
11.524 8.019 7.391
11.754 8.400 7.621
12.002 8.631 7.822
12.202 8.946 8.086
12.516 9.429 8.163
11.226 7.832 6.605
11.542 8.263 6.907
11.791 8.549 7.200
11.980 9.072 7.433
12.318 9.378 7.522
12.569 9.765 7.740
10.238 6.463 5.875
10.820 7.521 5.777
11.181 7.954 6.144
11.370 8.108 6.218
11.592 8.470 6.381
11.849 8.785 6.728
11.960 9.332 6.876
12.355 9.619 7.246
12.512 9.801 7.344
10.370 6.833 5.440
10.535 7.229 5.587
10.731 7.375 5.707
10.760 7.858 5.475
11.050 8.119 5.589
11.211 8.359 5.839
11.541 8.896 6.030
11.937 9.235 6.407
11.948 9.367 6.604
12.225 9.708 6.754
12.565 10.164 7.024
10.252 7.078 4.850
10.655 7.298 5.262
10.926 7.830 5.519
10.900 5.254 12.337
10.823 4.980 11.581
10.930 5.451 11.951
11.186 5.687 12.042
11.364 6.212 12.436
9.772 3.601 10.748
10.646 5.205 11.315
10.933 5.539 11.629
11.349 5.979 11.737
11.384 6.445 11.992
11.716 6.712 12.241
12.091 6.987 12.371
9.716 3.945 10.271
11.104 5.970 11.045
11.350 6.217 11.453
11.431 6.600 11.678
11.810 6.881 11.758
11.904 7.226 11.914
12.248 7.617 12.263
12.387 7.962 12.481
11.351 6.455 10.953
11.442 6.922 11.045
11.650 7.227 11.433
11.984 7.511 11.513
12.288 7.834 11.935
12.427 8.172 12.035
11.410 7.086 10.832
11.641 7.375 10.955
12.119 7.877 11.292
12.338 8.152 11.366
11.706 7.788 10.467
11.921 8.085 10.745
11.827 8.645 8.912
11.979 9.081 9.227
11.657 8.641 8.186
11.961 9.121 8.624
12.044 9.485 8.769
12.252 9.605 9.093
11.371 8.498 7.634
11.697 8.931 7.948
11.780 9.330 8.104
12.185 9.724 8.282
12.374 9.968 8.492
11.069 8.493 7.058
11.448 8.909 7.321
11.509 9.153 7.379
11.975 9.458 7.695
12.189 9.996 7.910
12.459 10.107 8.105
10.815 8.419 6.386
11.090 8.851 6.617
11.450 9.206 6.839
11.637 9.445 7.189
11.913 9.893 7.186
12.094 10.157 7.415
12.370 10.557 7.879
10.021 6.984 5.487
10.790 8.750 5.886
11.201 9.089 6.122
11.296 9.257 6.486
11.640 9.818 6.547
11.937 10.057 6.897
12.231 10.478 7.059
12.342 10.767 7.393
9.993 7.236 5.145
10.573 5.485 11.982
10.722 5.842 12.191
10.959 6.216 12.617
10.609 5.738 11.549
10.741 6.316 11.751
11.142 6.596 12.090
11.316 6.865 12.452
11.611 7.299 12.437
10.893 6.461 11.468
11.039 6.830 11.771
11.416 7.103 12.003
11.673 7.491 12.203
11.721 7.797 12.366
10.994 7.081 11.401
11.243 7.326 11.535
11.591 7.691 11.822
11.830 8.210 12.089
11.397 7.742 11.225
11.683 8.130 11.247
11.490 9.107 8.612
11.786 9.590 8.966
11.090 9.228 7.912
11.370 9.427 8.366
11.775 9.800 8.429
11.813 10.073 8.602
10.931 9.167 7.476
11.133 9.442 7.485
11.402 9.660 7.725
11.754 9.998 8.027
11.923 10.328 8.376
12.127 10.859 8.620
10.660 8.916 6.674
10.882 9.223 6.990
11.201 9.548 7.107
11.471 10.122 7.502
11.703 10.473 7.711
12.021 10.601 7.861
12.288 11.125 8.228
12.409 11.510 8.238
10.830 9.122 6.222
10.900 9.594 6.668
11.237 9.830 6.817
11.349 10.166 7.102
11.770 10.547 7.349
12.032 10.986 7.442
12.294 11.273 7.758
12.432 11.768 7.814
10.280 6.162 12.320
10.416 6.427 12.014
10.666 6.780 12.217
10.891 7.207 12.350
10.540 7.030 11.765
10.868 7.485 12.004
11.060 7.734 12.236
11.280 8.033 12.576
10.866 7.718 11.555
11.043 7.997 11.912
11.117 9.761 8.365
11.188 10.120 8.612
10.668 9.549 7.780
10.988 9.966 8.027
11.379 10.426 8.279
11.542 10.618 8.379
10.481 9.534 7.195
10.813 9.948 7.291
11.073 10.138 7.501
11.316 10.637 7.843
11.418 10.948 7.935
11.684 11.290 8.321
10.544 9.764 6.730
10.890 10.171 6.841
11.057 10.568 7.242
11.219 10.936 7.390
11.547 11.240 7.594
11.793 11.590 7.880
9.994 6.466 12.539
9.936 6.668 12.080
10.175 6.959 12.223
10.234 7.199 11.901
10.586 7.505 12.109
10.659 7.970 12.302
10.460 7.801 11.685
10.841 8.276 11.980
10.617 9.859 8.514
10.745 10.210 8.697
10.357 9.718 7.867
10.592 10.216 8.189
10.932 10.532 8.278
11.114 10.871 8.616
10.107 9.631 7.251
10.262 10.103 7.519
10.742 10.435 7.594
10.969 10.656 7.915
11.129 11.248 8.211
11.345 11.522 8.324
10.092 10.114 6.841
10.357 10.445 7.122
10.724 10.643 7.192
10.872 10.918 7.601
11.110 11.497 7.803
11.398 11.644 7.855
9.654 6.803 12.303
9.811 7.253 12.503
9.727 7.434 11.959
10.039 7.794 12.362
10.306 8.151 12.465
10.112 8.145 11.803
10.356 8.490 12.021
10.233 10.138 8.722
10.336 10.426 8.765
10.008 10.011 8.052
10.076 10.277 8.212
10.557 10.833 8.364
10.723 11.084 8.754
9.642 9.938 7.221
9.921 10.184 7.509
10.194 10.543 7.840
10.410 10.950 8.138
10.730 11.372 8.146
10.864 11.676 8.426
9.659 10.255 6.942
10.062 10.435 7.265
10.211 10.942 7.377
10.369 11.305 7.712
10.592 11.479 7.720
11.001 12.012 8.099
8.786 6.498 12.505
8.976 6.706 12.158
9.088 7.098 12.262
9.070 7.385 11.996
9.385 7.682 12.128
9.565 8.056 12.429
9.438 7.941 11.683
9.566 8.196 11.918
10.002 8.631 12.115
10.146 8.998 12.566
9.689 8.460 11.648
9.970 8.791 11.869
9.672 10.075 9.028
9.960 10.378 9.394
9.514 10.015 8.568
9.742 10.355 8.808
9.963 10.573 9.063
10.198 10.928 9.306
9.209 9.979 7.848
9.446 10.286 8.036
9.786 10.648 8.294
10.000 10.945 8.583
10.377 11.359 8.707
10.426 11.613 8.892
9.074 9.729 7.304
9.411 10.109 7.443
9.628 10.400 7.676
9.812 10.872 8.008
10.114 11.298 8.025
10.329 11.444 8.247
10.649 11.886 8.671
10.891 12.166 8.830
9.179 10.188 6.918
9.313 10.398 7.028
9.601 10.736 7.301
9.893 11.130 7.386
10.026 11.511 7.798
10.323 11.743 7.932
10.555 12.056 8.300
10.813 12.624 8.306
8.224 6.317 12.554
7.255 5.005 11.585
8.238 6.465 11.933
8.485 6.809 12.228
8.773 7.354 12.366
7.195 5.142 11.217
8.569 7.227 11.751
8.648 7.549 12.025
8.930 7.772 12.191
9.259 8.174 12.564
8.839 7.791 11.613
9.088 8.116 12.011
9.333 8.450 12.024
9.620 8.829 12.226
9.079 8.282 11.382
9.245 8.841 11.633
9.435 8.979 12.016
9.640 9.449 12.266
9.305 9.037 11.252
9.459 9.269 11.584
9.427 10.154 9.633
9.455 10.327 9.858
9.105 10.049 9.114
9.219 10.259 9.356
9.660 10.677 9.506
9.736 11.050 9.605
8.778 9.749 8.381
9.056 10.154 8.547
9.408 10.513 8.835
9.672 10.897 9.041
9.742 11.220 9.268
10.103 11.494 9.552
8.741 9.812 7.852
8.840 10.132 7.905
9.005 10.555 8.128
9.351 10.908 8.537
9.496 11.267 8.637
9.758 11.629 8.892
10.172 11.952 9.020
10.324 12.214 9.365
8.408 9.704 7.132
8.717 10.112 7.303
8.962 10.400 7.636
9.048 10.755 7.884
9.417 10.985 7.956
9.504 11.486 8.384
9.932 11.840 8.434
10.167 12.020 8.807
10.277 12.565 9.045
7.379 8.337 6.219
8.390 9.826 6.685
8.657 10.373 7.058
8.996 10.624 7.212
9.158 10.911 7.491
9.298 11.416 7.636
9.590 11.615 7.949
9.772 12.022 8.106
10.202 12.440 8.267
7.312 8.609 5.689
6.761 5.009 12.014
7.369 5.857 12.094
7.481 6.289 12.389
7.875 6.534 12.671
6.811 5.053 11.646
7.183 5.410 11.995
7.209 5.915 12.084
7.364 6.107 11.648
7.465 6.410 11.940
7.899 6.681 12.226
8.149 7.180 12.269
6.828 5.485 11.363
7.057 5.711 11.364
7.358 5.974 11.809
7.951 6.980 11.786
8.139 7.397 11.862
8.263 7.682 12.189
8.603 8.200 12.371
6.943 5.689 10.910
8.010 7.720 11.605
8.425 7.909 11.820
8.678 8.365 11.993
8.902 8.711 12.352
9.035 9.161 12.536
8.454 8.223 11.307
8.547 8.605 11.494
8.726 9.071 11.874
9.182 9.352 11.983
9.255 9.625 12.410
9.637 10.025 12.559
8.741 8.756 11.096
8.749 9.147 11.344
9.183 9.570 11.569
9.392 10.006 11.922
8.899 9.411 10.917
9.083 9.758 11.366
8.783 9.647 10.729
9.111 10.015 10.959
8.968 10.049 10.260
9.068 10.237 10.520
8.566 9.931 9.541
9.028 10.254 9.668
9.133 10.576 10.108
9.312 10.854 10.339
8.431 9.884 8.853
8.600 10.152 9.202
8.982 10.404 9.299
9.238 10.814 9.592
9.345 11.222 9.816
9.698 11.496 9.954
8.115 9.752 8.391
8.512 10.003 8.434
8.793 10.449 8.722
8.976 10.834 8.884
9.228 11.018 9.303
9.417 11.483 9.493
9.727 11.870 9.759
9.952 12.039 9.894
8.066 9.748 7.755
8.255 10.004 7.888
8.408 10.332 7.982
8.795 10.726 8.363
9.037 11.051 8.558
9.248 11.485 8.883
9.407 11.654 9.049
9.700 12.095 9.367
9.821 12.416 9.587
7.020 8.214 6.642
7.530 9.158 6.801
7.753 9.661 6.930
7.991 9.870 7.203
8.207 10.242 7.546
8.485 10.611 7.740
8.812 11.052 8.034
8.897 11.290 8.036
9.130 11.567 8.363
9.402 11.965 8.594
9.671 12.424 8.778
6.894 8.574 6.431
7.247 8.924 6.557
7.396 9.281 6.756
7.428 9.490 6.399
7.671 9.851 6.645
8.027 10.090 6.857
8.254 10.503 7.039
8.576 10.883 7.332
8.851 11.296 7.461
9.018 11.423 7.655
9.295 11.781 7.897
9.405 12.169 8.230
6.903 8.720 6.041
7.274 9.080 6.168
7.494 9.535 6.310
6.490 5.150 12.119
6.576 5.393 12.316
6.885 6.132 12.269
7.184 6.496 12.341
6.365 5.233 11.863
6.775 5.617 11.927
6.861 5.952 12.350
6.976 6.363 11.743
7.123 6.588 12.037
7.505 6.939 12.147
7.543 7.312 12.544
6.543 5.495 11.297
6.630 5.882 11.693
7.030 6.382 11.888
7.056 6.521 11.432
7.192 7.009 11.575
7.310 7.330 11.901
7.562 7.492 12.155
8.033 8.048 12.200
8.085 8.256 12.486
6.511 5.910 10.869
6.782 6.324 11.183
6.835 6.650 11.414
7.313 7.579 11.478
7.583 7.854 11.593
7.858 8.282 12.006
8.223 8.486 12.025
8.340 8.982 12.395
6.437 6.060 10.624
7.766 8.037 11.326
7.963 8.474 11.489
8.156 8.881 11.718
8.551 9.119 11.872
8.797 9.631 12.167
8.925 9.749 12.351
7.905 8.848 11.108
8.123 9.094 11.374
8.357 9.346 11.477
8.566 9.814 11.760
8.835 10.053 11.942
9.167 10.597 12.197
8.258 9.450 10.886
8.362 9.686 11.037
8.762 10.028 11.276
8.832 10.444 11.597
8.122 9.602 10.389
8.568 9.906 10.779
8.781 10.185 11.081
9.070 10.567 11.135
8.242 9.949 9.970
8.416 10.180 10.370
8.796 10.464 10.462
8.965 11.029 10.855
7.968 9.723 9.403
8.178 10.176 9.652
8.425 10.447 9.876
8.814 10.784 10.198
9.099 11.176 10.425
9.255 11.396 10.663
7.706 9.707 8.783
7.947 10.033 9.131
8.335 10.295 9.174
8.492 10.647 9.474
8.875 11.158 9.778
8.959 11.387 9.953
9.330 11.744 10.147
9.485 12.237 10.515
7.438 9.530 8.066
7.837 9.921 8.392
8.041 10.358 8.574
8.236 10.688 8.774
8.436 11.102 8.976
8.749 11.376 9.296
9.135 11.643 9.576
9.308 12.022 9.730
9.527 12.501 10.128
6.435 8.097 7.173
7.168 9.109 7.419
7.191 9.465 7.618
7.651 9.827 7.695
7.781 10.251 7.985
8.136 10.424 8.130
8.364 10.847 8.582
8.469 11.192 8.607
8.801 11.561 8.948
8.946 11.881 9.253
9.269 12.314 9.330
6.509 8.533 6.792
6.885 8.874 7.047
6.963 9.269 7.259
7.073 9.421 6.932
7.331 9.869 7.142
7.637 10.043 7.329
7.828 10.396 7.637
8.054 10.762 7.728
8.209 11.161 8.153
8.631 11.559 8.332
8.724 11.790 8.561
8.930 12.297 8.804
9.190 12.597 9.075
6.634 8.727 6.538
6.836 8.943 6.600
7.036 9.462 7.019
7.177 9.544 6.383
7.423 10.008 6.724
7.486 10.244 6.940
7.714 10.780 7.065
8.023 11.161 7.293
8.253 11.521 7.566
8.526 11.827 7.902
8.790 12.062 8.077
9.050 12.564 8.367
6.534 9.050 6.149
6.838 9.291 6.345
6.992 9.783 6.620
1.848 4.838 12.382
1.633 4.610 11.836
1.917 5.106 12.032
2.025 5.436 12.343
2.218 5.852 12.515
1.363 4.504 11.151
1.638 5.016 11.433
1.858 5.265 11.547
2.162 5.683 11.733
2.285 6.006 11.936
2.531 6.327 12.259
1.493 4.979 10.690
1.511 5.235 10.920
1.896 5.570 11.133
2.235 5.857 11.346
2.266 6.206 11.612
2.716 6.576 11.929
1.647 5.375 10.449
1.986 5.940 10.881
2.169 6.189 10.947
2.369 6.429 11.274
1.932 6.192 10.347
2.149 6.478 10.721
2.037 8.144 7.034
2.174 8.413 7.328
1.675 8.185 6.543
2.121 8.377 6.693
2.266 8.805 6.865
2.608 9.112 7.279
1.565 7.847 5.734
1.868 8.292 6.135
2.016 8.677 6.378
2.274 8.912 6.492
2.573 9.265 6.646
2.694 9.663 7.093
1.649 8.179 5.353
1.786 8.600 5.677
2.059 8.809 5.882
2.290 9.212 6.026
2.547 9.653 6.410
2.736 9.930 6.500
1.372 5.111 12.463
1.142 4.983 11.992
1.529 5.337 12.179
1.745 5.611 12.352
0.860 4.752 11.198
1.309 5.197 11.407
1.460 5.623 11.814
1.574 5.810 12.076
2.053 6.130 12.217
2.135 6.488 12.422
0.904 4.993 10.936
1.208 5.431 11.111
1.413 5.688 11.205
1.630 6.098 11.444
1.931 6.471 11.668
2.275 6.921 12.023
1.302 5.735 10.561
1.400 6.125 10.855
1.605 6.286 11.035
2.061 6.675 11.382
1.445 6.188 10.611
1.659 6.714 10.688
1.531 8.423 7.323
1.828 8.688 7.500
1.343 8.199 6.641
1.500 8.602 6.906
1.928 9.063 7.159
2.005 9.360 7.356
0.996 8.062 5.852
1.416 8.619 6.247
1.546 8.968 6.345
1.767 9.270 6.581
2.089 9.547 6.874
2.270 9.919 6.998
1.087 8.531 5.676
1.345 8.768 5.817
1.649 9.250 5.887
1.787 9.364 6.323
2.029 9.797 6.550
2.295 10.240 6.685
0.660 4.826 12.378
0.622 4.811 11.756
0.834 5.065 12.012
1.020 5.491 12.246
1.172 5.772 12.499
0.182 4.724 11.292
0.482 5.143 11.374
0.889 5.400 11.564
1.084 5.761 11.749
1.341 6.135 12.143
1.601 6.364 12.198
1.882 6.887 12.421
0.199 4.847 10.834
0.672 5.193 11.010
0.756 5.598 11.322
1.035 6.121 11.491
1.244 6.275 11.620
1.452 6.762 11.852
1.716 7.016 12.164
2.046 7.302 12.392
0.557 5.617 10.497
0.872 5.997 10.765
1.062 6.175 11.074
1.237 6.627 11.156
1.444 7.073 11.398
1.707 7.281 11.591
0.737 6.156 10.345
0.947 6.533 10.656
1.393 6.865 10.910
1.490 7.322 11.059
1.083 6.770 10.115
1.249 7.010 10.475
1.113 8.251 7.709
1.466 8.609 8.055
0.930 8.226 7.215
1.161 8.690 7.332
1.464 8.973 7.598
1.759 9.241 7.903
0.645 8.232 6.367
0.845 8.413 6.632
1.234 8.950 6.995
1.450 9.305 7.261
1.730 9.479 7.289
2.027 9.780 7.593
0.456 8.023 5.798
0.618 8.299 6.182
1.057 8.629 6.284
1.077 8.975 6.604
1.551 9.517 6.767
1.804 9.743 6.867
1.899 10.141 7.154
2.062 10.468 7.357
0.426 8.179 5.400
0.700 8.742 5.557
1.037 9.060 6.020
1.227 9.340 6.090
1.545 9.591 6.337
1.713 10.066 6.467
1.884 10.336 6.784
2.115 10.630 6.966
0.065 4.831 12.353
0.222 4.974 12.461
0.226 4.991 11.945
0.386 5.359 12.161
0.663 5.680 12.431
0.025 5.148 11.520
0.286 5.567 11.840
0.710 6.061 11.973
0.766 6.365 12.076
1.120 6.676 12.507
0.114 5.539 11.144
0.416 5.748 11.370
0.735 6.252 11.655
0.969 6.540 11.704
1.189 6.913 11.900
1.267 7.297 12.268
1.576 7.664 12.473
0.193 5.750 10.668
0.323 6.169 10.839
0.570 6.442 11.119
0.879 6.855 11.449
1.055 7.296 11.484
1.296 7.534 11.723
1.556 7.809 12.036
0.065 5.948 10.300
0.351 6.298 10.544
0.704 6.732 10.671
0.879 7.145 10.853
1.108 7.333 11.295
1.496 7.663 11.354
0.437 6.661 9.985
0.580 6.889 10.427
0.943 7.457 10.660
1.202 7.686 10.669
0.576 7.182 9.870
0.832 7.499 10.046
0.797 8.324 8.315
0.857 8.566 8.543
0.470 8.095 7.575
0.629 8.640 7.992
1.067 8.941 8.220
1.256 9.164 8.420
0.278 8.166 7.030
0.480 8.362 7.156
0.872 8.833 7.601
1.104 9.117 7.819
1.200 9.428 8.035
1.555 9.728 8.186
0.070 7.948 6.498
0.180 8.427 6.558
0.486 8.712 6.958
0.673 9.096 6.968
1.037 9.278 7.234
1.345 9.833 7.432
1.432 9.995 7.862
1.751 10.390 8.083
-0.038 8.228 6.068
0.403 8.704 6.264
0.557 8.907 6.469
0.671 9.205 6.609
1.005 9.613 6.979
1.177 9.881 7.158
1.461 10.371 7.277
1.792 10.669 7.579
0.015 8.580 5.555
0.293 8.866 5.901
0.561 9.222 5.936
0.833 9.626 6.246
0.961 9.914 6.403
1.251 10.332 6.608
1.472 10.650 6.980
1.680 10.951 7.220
0.067 5.906 12.513
0.292 6.186 12.190
0.369 6.564 12.376
0.661 6.782 12.633
0.161 6.334 11.795
0.354 6.813 11.979
0.809 7.067 12.126
0.852 7.418 12.478
0.288 6.780 11.266
0.424 7.129 11.549
0.631 7.456 11.618
1.078 7.842 11.913
1.306 8.054 12.283
0.233 6.926 10.956
0.555 7.345 11.097
0.665 7.572 11.295
0.871 7.897 11.644
1.313 8.272 11.877
-0.120 6.761 10.200
0.142 7.254 10.443
0.594 7.538 10.638
0.855 8.016 10.898
1.077 8.374 11.224
0.076 7.055 9.775
0.358 7.563 10.100
0.538 7.849 10.357
0.677 8.258 10.406
0.257 7.749 9.608
0.563 8.096 9.945
0.331 7.922 9.263
0.615 8.407 9.542
0.398 8.138 8.934
0.619 8.559 9.116
0.115 8.128 8.120
0.195 8.542 8.511
0.677 8.840 8.623
0.900 9.204 8.793
-0.025 8.335 7.784
0.387 8.823 8.013
0.632 9.013 8.325
0.739 9.496 8.420
1.007 9.859 8.793
0.211 8.550 7.269
0.369 9.063 7.656
0.669 9.412 7.906
0.935 9.811 7.936
1.057 10.008 8.191
1.196 10.485 8.516
0.033 8.963 7.083
0.344 9.369 7.153
0.713 9.657 7.335
0.840 9.954 7.766
1.046 10.404 7.910
1.445 10.664 8.126
0.129 9.077 6.514
0.239 9.433 6.822
0.499 9.983 7.118
0.758 10.172 7.213
1.213 10.516 7.408
1.367 10.901 7.661
0.104 9.367 6.248
0.334 9.814 6.291
0.530 10.066 6.698
0.769 10.519 6.869
1.085 10.897 7.103
1.289 11.124 7.256
0.127 6.774 12.389
0.032 7.017 12.113
0.313 7.369 12.272
0.443 7.777 12.543
0.128 7.142 11.710
0.216 7.642 11.919
0.432 7.955 12.136
0.898 8.367 12.268
-0.032 7.547 11.092
0.306 7.800 11.333
0.449 8.304 11.620
0.927 8.478 11.938
-0.032 7.743 10.890
0.342 8.225 11.034
0.539 8.523 11.187
0.730 8.815 11.369
0.069 8.012 10.452
0.413 8.445 10.592
0.611 8.714 10.954
0.093 8.313 10.071
0.348 8.542 10.310
0.165 8.546 9.564
0.447 8.827 9.688
0.127 8.811 9.084
0.322 9.048 9.473
0.180 9.158 8.798
0.349 9.474 9.054
0.571 9.671 9.264
0.215 9.293 8.467
0.393 9.594 8.469
0.538 10.124 8.840
0.793 10.422 9.049
0.063 9.498 7.887
0.290 9.937 8.156
0.532 10.311 8.410
0.792 10.617 8.752
0.232 9.945 7.504
0.333 10.142 7.801
0.724 10.528 8.044
0.800 10.970 8.218
0.105 9.981 7.211
0.422 10.482 7.275
0.690 10.722 7.657
0.947 11.215 7.887
0.184 10.409 6.772
0.386 10.647 7.018
0.574 10.978 7.112
1.027 11.326 7.370
0.047 8.071 12.077
0.483 8.593 12.335
0.218 8.499 11.802
0.500 8.814 11.995
0.180 8.723 11.466
0.344 8.954 11.624
0.182 8.891 10.996
0.445 9.291 11.316
0.258 9.132 10.459
0.144 9.359 10.126
0.290 9.760 9.711
0.306 9.989 9.403
0.401 10.194 9.448
0.198 10.215 8.931
0.507 10.479 9.126
0.286 10.427 8.515
0.461 10.707 8.779
0.037 10.455 7.790
0.128 10.756 8.056
0.580 11.161 8.372
0.016 10.663 7.424
0.198 11.012 7.601
0.531 11.272 8.027
-0.063 10.897 6.951
0.364 11.289 7.262
0.478 11.569 7.616
0.135 10.525 9.806
0.078 10.876 9.348
-0.032 11.056 8.890
0.150 11.290 8.511
0.125 11.609 8.075
0.213 11.725 7.674
4.168 1.908 12.385
4.006 1.705 11.665
4.182 2.174 11.972
4.566 2.569 12.277
4.778 2.690 12.352
2.799 0.316 10.202
3.654 1.675 11.092
4.014 1.963 11.359
4.276 2.288 11.534
4.392 2.641 11.755
4.659 3.089 12.053
4.884 3.498 12.161
5.130 3.750 12.558
2.444 0.292 9.484
2.812 0.577 9.863
2.950 0.790 9.952
3.223 1.182 10.246
3.471 1.595 10.333
3.775 2.022 10.542
3.966 2.352 10.987
4.371 2.647 11.047
4.551 2.972 11.415
4.822 3.395 11.667
4.957 3.724 11.856
5.186 3.994 12.020
5.383 4.398 12.142
5.847 4.796 12.550
2.320 0.037 8.970
2.484 0.359 9.208
2.700 0.720 9.271
2.985 1.174 9.447
3.336 1.397 9.846
3.416 1.822 9.986
3.763 2.229 10.258
4.043 2.539 10.473
4.182 2.899 10.827
4.637 3.294 10.835
4.788 3.576 11.244
5.045 3.997 11.503
5.148 4.200 11.666
5.468 4.513 11.832
5.771 4.852 12.060
2.388 0.406 8.365
2.459 0.718 8.791
2.834 0.930 8.856
3.052 1.386 9.164
3.426 1.825 9.350
3.526 2.050 9.656
3.810 2.323 9.740
4.006 2.782 9.949
4.335 3.215 10.329
4.633 3.589 10.539
4.714 3.714 10.751
5.072 4.226 11.000
5.316 4.539 11.311
5.403 4.792 11.312
5.679 5.228 11.788
2.073 0.327 7.793
2.336 0.542 8.097
2.474 0.876 8.321
2.939 1.384 8.618
3.028 1.575 8.761
3.195 2.060 8.895
3.479 2.279 9.104
3.706 2.662 9.559
3.994 3.128 9.694
4.375 3.296 10.014
4.498 3.845 10.101
4.828 4.033 10.343
5.060 4.534 10.518
5.379 4.870 10.795
5.439 5.027 10.943
5.756 5.530 11.378
1.751 0.192 7.199
2.121 0.544 7.463
2.271 0.813 7.656
2.552 1.227 8.010
2.892 1.582 8.038
3.086 1.904 8.419
3.301 2.274 8.465
3.620 2.494 8.764
3.799 2.917 8.982
4.100 3.221 9.146
4.200 3.693 9.368
4.617 4.063 9.828
4.777 4.448 9.866
5.046 4.718 10.050
5.289 4.982 10.344
5.447 5.335 10.610
5.708 5.740 10.735
1.543 -0.033 6.447
1.798 0.353 6.763
2.023 0.848 7.103
2.369 1.218 7.317
2.674 1.368 7.394
2.965 1.702 7.706
3.023 2.085 7.873
3.395 2.441 8.217
3.580 2.916 8.451
3.900 3.251 8.728
4.143 3.638 8.821
4.377 3.843 9.016
4.494 4.323 9.366
4.919 4.606 9.621
4.969 4.830 9.751
5.219 5.346 10.084
5.643 5.617 10.211
5.672 5.874 10.421
1.615 0.332 6.046
1.851 0.629 6.414
2.170 1.066 6.600
2.424 1.476 6.910
2.661 1.761 7.008
2.818 1.947 7.178
3.735 3.573 8.246
4.057 3.865 8.481
4.385 4.147 8.765
4.610 4.631 8.842
4.860 4.754 9.157
5.152 5.235 9.453
5.311 5.560 9.671
5.567 5.921 9.909
5.889 6.214 9.969
1.490 0.152 5.492
1.616 0.625 5.840
1.978 0.893 6.025
2.244 1.221 6.194
2.508 1.546 6.475
2.684 2.088 6.637
4.101 4.007 7.950
4.324 4.323 8.219
4.491 4.705 8.412
4.920 5.112 8.747
5.123 5.539 8.884
5.267 5.853 9.249
5.681 6.107 9.279
5.903 6.600 9.501
1.053 0.118 4.788
1.444 0.409 5.020
1.656 0.828 5.223
1.840 1.180 5.697
2.055 1.473 5.715
2.344 1.997 6.037
4.332 4.608 7.885
4.705 5.073 8.069
4.933 5.373 8.227
5.134 5.600 8.584
5.246 5.954 8.724
5.581 6.357 8.998
1.133 0.441 4.441
1.514 0.761 4.642
1.614 1.092 5.012
2.006 1.460 5.238
2.216 1.763 5.440
2.490 2.260 5.630
4.442 4.906 7.488
4.636 5.302 7.674
4.990 5.516 7.965
5.140 6.049 8.180
5.318 6.298 8.423
5.673 6.680 8.452
1.159 0.763 4.039
1.449 0.914 4.178
1.782 1.301 4.441
1.822 1.591 4.839
2.202 1.953 5.030
2.470 2.451 5.331
4.418 5.137 7.003
4.520 5.482 7.220
4.964 5.944 7.609
5.204 6.333 7.837
5.348 6.584 7.884
5.672 7.040 8.162
0.916 0.523 3.505
1.202 0.955 3.639
1.555 1.250 3.977
1.797 1.717 4.202
1.957 1.963 4.450
2.266 2.372 4.494
2.517 2.770 4.750
2.624 2.959 5.144
4.186 5.186 6.322
4.361 5.353 6.674
4.589 5.789 6.729
4.849 6.117 6.977
5.056 6.370 7.187
5.432 6.874 7.479
5.750 7.111 7.645
5.888 7.664 8.076
0.718 0.375 2.895
1.050 0.815 3.056
1.184 1.085 3.321
1.539 1.494 3.509
1.774 1.743 3.599
2.070 2.204 4.002
2.116 2.597 4.109
2.537 3.032 4.359
2.684 3.218 4.634
2.971 3.623 4.861
3.899 5.021 5.859
4.150 5.443 5.998
4.477 5.791 6.190
4.555 6.158 6.469
4.857 6.519 6.631
5.043 6.671 7.019
5.368 7.067 7.144
5.687 7.427 7.431
5.916 7.840 7.699
0.365 0.042 1.904
0.484 0.285 2.103
0.700 0.720 2.375
0.932 1.103 2.518
1.150 1.346 2.808
1.480 1.721 3.112
1.842 2.039 3.218
1.874 2.498 3.580
2.268 2.880 3.656
2.554 3.229 4.106
2.791 3.398 4.334
2.912 3.750 4.385
3.171 4.231 4.553
3.320 4.493 4.786
3.807 4.880 5.226
3.812 5.265 5.456
4.215 5.496 5.565
4.442 5.887 5.917
4.616 6.304 5.936
4.925 6.750 6.199
5.044 7.100 6.398
5.366 7.460 6.717
5.759 7.787 6.832
5.780 8.031 7.188
0.199 0.111 2.031
0.284 0.253 1.580
0.469 0.534 1.865
0.802 0.922 1.861
1.032 1.293 2.231
1.164 1.789 2.531
1.401 2.081 2.606
1.702 2.365 2.802
1.949 2.836 3.223
2.306 2.964 3.425
2.435 3.530 3.583
2.668 3.867 3.694
3.084 4.191 4.079
3.323 4.395 4.288
3.474 4.914 4.398
3.759 5.076 4.593
3.954 5.420 4.989
4.072 5.820 5.123
4.313 6.272 5.300
4.649 6.678 5.707
4.859 7.008 5.860
5.240 7.175 6.119
5.507 7.580 6.415
5.563 7.898 6.451
5.831 8.275 6.845
0.243 0.344 1.637
0.278 0.536 1.213
0.610 0.933 1.376
0.744 1.314 1.598
0.917 1.536 1.744
1.337 1.937 2.072
1.409 2.288 2.295
1.659 2.579 2.532
1.977 2.897 2.636
2.246 3.244 2.911
2.380 3.781 3.218
2.642 4.042 3.274
3.011 4.379 3.553
3.337 4.723 3.966
3.458 4.963 4.038
3.798 5.355 4.366
3.956 5.720 4.618
4.266 6.228 4.641
4.447 6.538 4.956
4.777 6.909 5.221
4.937 7.067 5.534
5.183 7.483 5.684
5.503 7.771 5.968
5.706 8.212 6.050
5.840 8.525 6.437
-0.005 0.307 0.863
0.366 0.617 1.128
0.339 0.767 0.762
0.558 1.030 0.922
0.804 1.504 1.153
1.085 1.898 1.512
1.150 2.268 1.594
1.526 2.616 1.903
1.854 2.909 2.192
1.903 3.211 2.231
2.154 3.579 2.475
2.493 4.056 2.807
2.673 4.285 3.047
3.099 4.582 3.274
3.157 5.112 3.345
3.526 5.257 3.682
3.626 5.773 3.770
4.058 6.031 4.244
4.307 6.298 4.249
4.379 6.632 4.511
4.665 7.018 4.798
5.051 7.325 5.029
5.268 7.680 5.361
5.402 8.085 5.594
5.768 8.402 5.804
6.028 8.734 5.863
0.108 0.464 0.449
0.360 0.723 0.598
3.871 2.070 12.385
3.526 2.017 11.755
3.824 2.432 12.005
4.124 2.593 12.202
4.324 3.059 12.612
1.999 0.063 10.084
2.253 0.495 10.167
3.441 1.868 11.208
3.695 2.304 11.347
3.799 2.450 11.571
4.036 2.841 11.819
4.305 3.242 12.003
4.600 3.566 12.285
4.745 3.902 12.463
2.008 -0.082 9.411
2.062 0.358 9.703
2.385 0.805 9.817
2.621 1.091 10.155
2.875 1.523 10.401
3.208 1.751 10.651
3.245 2.080 10.755
3.685 2.504 11.069
3.891 2.752 11.205
4.106 3.051 11.496
4.291 3.403 11.663
4.606 3.844 12.010
4.895 4.103 12.258
5.003 4.554 12.389
1.779 0.413 8.966
2.072 0.661 9.263
2.285 1.027 9.516
2.700 1.364 9.819
2.841 1.734 10.001
3.037 1.957 10.199
3.363 2.450 10.291
3.624 2.629 10.592
3.957 3.112 10.826
4.051 3.505 11.126
4.308 3.751 11.285
4.489 4.181 11.610
4.943 4.387 11.838
5.114 4.878 11.994
5.329 5.090 12.262
1.589 0.248 8.468
1.872 0.491 8.711
2.142 0.786 8.776
2.475 1.126 9.088
2.697 1.695 9.261
2.989 2.011 9.455
3.058 2.168 9.637
3.360 2.626 9.884
3.589 2.916 10.231
3.825 3.433 10.394
4.201 3.766 10.594
4.314 4.064 10.781
4.673 4.400 11.158
4.960 4.671 11.243
5.139 5.106 11.682
5.467 5.406 11.719
1.362 0.216 7.803
1.602 0.482 7.937
1.850 0.783 8.085
2.236 1.211 8.519
2.336 1.466 8.761
2.586 1.897 8.966
2.776 2.158 9.030
3.037 2.448 9.389
3.299 2.828 9.490
3.693 3.293 9.781
3.822 3.478 10.014
4.163 3.970 10.243
4.432 4.260 10.381
4.722 4.739 10.600
4.832 5.063 10.849
5.205 5.456 11.213
5.464 5.567 11.458
1.102 -0.009 7.172
1.380 0.474 7.341
1.748 0.656 7.446
1.965 1.114 7.681
2.190 1.480 8.040
2.462 1.796 8.295
2.614 2.124 8.588
2.833 2.566 8.659
3.062 2.737 8.964
3.341 3.156 9.096
3.710 3.490 9.289
4.005 3.950 9.553
4.266 4.112 9.920
4.311 4.430 9.991
4.508 4.882 10.225
4.779 5.228 10.440
5.099 5.582 10.721
5.459 5.943 11.033
1.100 0.221 6.628
1.449 0.527 6.849
1.701 0.951 7.197
2.016 1.401 7.365
2.169 1.623 7.724
2.514 1.900 7.837
2.739 2.284 7.979
2.843 2.701 8.346
3.175 3.128 8.634
3.350 3.374 8.661
3.674 3.831 9.016
3.842 4.213 9.153
4.227 4.554 9.484
4.389 4.734 9.750
4.761 5.149 9.772
4.791 5.459 10.092
5.230 5.788 10.455
5.389 6.261 10.672
0.901 0.220 6.113
1.264 0.633 6.309
1.508 0.891 6.420
1.709 1.316 6.644
1.887 1.547 7.084
2.263 1.820 7.144
2.365 2.206 7.382
3.352 3.753 8.244
3.729 4.016 8.440
3.867 4.401 8.723
4.146 4.608 9.017
4.396 5.154 9.276
4.765 5.294 9.507
4.881 5.857 9.601
5.160 6.053 9.970
5.429 6.422 10.101
0.657 0.012 5.535
1.020 0.414 5.559
1.136 0.855 5.774
1.462 1.086 6.156
1.837 1.489 6.441
2.035 1.790 6.539
2.254 2.183 6.713
3.701 4.384 8.033
3.849 4.626 8.358
4.298 4.917 8.650
4.329 5.431 8.751
4.757 5.769 9.141
4.992 6.012 9.316
5.142 6.429 9.586
5.318 6.670 9.737
0.773 0.309 4.971
1.040 0.749 5.160
1.356 1.058 5.515
1.580 1.419 5.672
1.834 1.669 5.908
1.932 2.047 6.171
3.923 4.814 7.918
4.161 5.280 8.145
4.342 5.703 8.468
4.758 6.046 8.613
4.823 6.215 9.001
5.269 6.672 9.152
0.690 0.646 4.675
1.008 0.898 4.825
1.262 1.424 5.133
1.502 1.540 5.337
1.666 2.029 5.551
1.970 2.308 5.826
3.894 5.028 7.521
4.146 5.426 7.785
4.354 5.848 8.005
4.767 6.272 8.161
5.023 6.641 8.448
5.298 6.876 8.640
0.893 0.893 4.193
1.084 1.104 4.367
1.342 1.633 4.608
1.406 2.013 4.852
1.705 2.352 5.120
1.974 2.494 5.367
3.863 5.425 7.171
4.276 5.810 7.325
4.437 6.024 7.604
4.592 6.424 7.828
4.887 6.868 8.027
5.222 7.246 8.220
0.495 0.862 3.446
0.841 1.157 3.908
1.097 1.578 4.007
1.358 1.942 4.156
1.615 2.087 4.346
1.827 2.400 4.689
2.038 2.866 5.000
2.231 3.264 5.096
3.692 5.255 6.509
4.038 5.582 6.708
4.160 5.993 6.962
4.401 6.253 7.098
4.754 6.790 7.490
4.983 7.149 7.691
5.221 7.398 7.857
5.487 7.820 8.044
0.435 0.645 2.960
0.538 1.040 3.031
0.738 1.444 3.475
1.086 1.662 3.710
1.231 2.094 3.726
1.555 2.399 4.038
1.796 2.762 4.262
1.980 3.202 4.638
2.310 3.575 4.857
2.402 3.705 5.073
3.465 5.323 5.983
3.627 5.598 6.106
3.896 5.963 6.329
4.288 6.236 6.563
4.484 6.616 6.821
4.783 6.914 6.949
5.012 7.247 7.243
5.191 7.774 7.556
5.533 8.083 7.722
0.205 0.674 2.258
0.208 0.915 2.501
0.495 1.325 2.705
0.742 1.671 2.944
1.029 1.980 3.118
1.193 2.265 3.331
1.640 2.802 3.685
1.798 3.119 3.925
1.936 3.383 4.021
2.385 3.807 4.219
2.593 4.186 4.571
2.765 4.545 4.882
3.018 4.830 4.961
3.299 5.136 5.343
3.490 5.513 5.486
3.768 5.799 5.809
4.102 6.114 5.955
4.179 6.427 6.268
4.487 6.944 6.365
4.775 7.216 6.527
5.084 7.666 6.804
5.144 8.015 7.137
5.425 8.354 7.218
0.035 0.823 1.887
0.244 1.093 2.220
0.553 1.461 2.283
0.807 1.813 2.632
0.979 2.181 2.817
1.227 2.548 3.137
1.598 2.923 3.256
1.905 3.337 3.545
1.967 3.645 3.765
2.304 4.028 4.019
2.453 4.386 4.233
2.825 4.674 4.372
3.095 5.010 4.696
3.208 5.363 4.757
3.562 5.813 5.073
3.741 6.194 5.270
4.039 6.421 5.492
4.327 6.661 5.826
4.518 7.171 5.972
4.855 7.548 6.292
4.904 7.784 6.388
5.124 8.282 6.719
5.392 8.409 6.974
0.106 1.125 1.475
0.235 1.556 1.752
0.513 1.915 1.868
0.837 2.198 2.213
1.119 2.488 2.448
1.394 2.952 2.574
1.562 3.327 2.850
1.849 3.452 3.003
1.985 3.992 3.331
2.213 4.175 3.624
2.473 4.590 3.763
2.909 4.923 4.027
3.016 5.192 4.125
3.387 5.532 4.321
3.579 6.037 4.648
3.891 6.447 4.793
4.048 6.716 5.199
4.156 7.033 5.403
4.411 7.288 5.517
4.713 7.775 5.721
4.924 8.003 6.035
5.224 8.464 6.282
5.610 8.697 6.358
0.242 1.245 1.061
0.304 1.684 1.298
0.650 2.097 1.559
0.972 2.441 1.853
1.003 2.685 1.972
1.471 3.222 2.174
1.521 3.447 2.352
1.949 3.712 2.740
2.108 4.094 2.810
2.411 4.509 3.070
2.476 4.862 3.300
2.787 5.241 3.681
3.105 5.587 3.901
3.427 5.927 4.081
3.499 6.195 4.228
3.748 6.596 4.505
4.042 7.022 4.616
4.375 7.380 4.989
4.511 7.556 5.126
4.838 8.020 5.341
5.132 8.346 5.519
5.298 8.803 5.814
5.596 9.123 6.119
3.296 2.444 12.285
3.671 2.839 12.401
1.719 0.257 10.087
3.070 2.420 11.650
3.314 2.799 11.794
3.543 3.130 12.046
3.787 3.453 12.279
4.211 3.882 12.490
1.464 0.149 9.589
1.789 0.683 9.736
2.046 0.839 10.052
2.922 2.237 10.857
3.100 2.737 11.070
3.488 3.116 11.238
3.771 3.297 11.542
3.944 3.679 11.811
4.191 4.104 12.057
4.417 4.528 12.359
4.592 4.737 12.508
1.111 0.271 8.840
1.484 0.404 9.162
1.615 0.930 9.321
2.022 1.197 9.572
2.318 1.490 9.810
2.567 1.951 9.926
2.587 2.243 10.335
2.957 2.636 10.560
3.303 2.858 10.654
3.448 3.323 10.883
3.739 3.726 11.151
3.977 4.060 11.352
4.240 4.268 11.574
4.473 4.811 11.831
4.634 4.927 12.188
4.985 5.385 12.191
1.071 -0.019 8.263
1.301 0.468 8.498
1.526 0.749 8.719
1.771 1.056 8.840
1.856 1.444 9.276
2.213 1.833 9.389
2.497 2.203 9.522
2.669 2.386 9.914
2.957 2.864 10.069
3.218 3.149 10.245
3.419 3.520 10.532
3.674 3.911 10.668
3.898 4.375 10.909
4.178 4.495 11.342
4.555 5.034 11.454
4.661 5.393 11.788
4.805 5.623 11.896
1.063 0.341 7.870
1.358 0.708 8.065
1.508 1.061 8.248
1.797 1.291 8.573
1.986 1.804 8.796
2.309 1.959 8.889
2.463 2.326 9.290
2.733 2.780 9.445
2.877 3.006 9.786
3.321 3.577 10.011
3.361 3.758 10.076
3.695 4.269 10.420
4.079 4.613 10.520
4.212 4.757 10.699
4.493 5.309 11.082
4.592 5.592 11.392
4.912 5.845 11.468
0.749 0.207 7.338
0.957 0.545 7.564
1.294 0.885 7.670
1.552 1.285 7.952
1.823 1.723 8.176
1.975 1.966 8.442
2.150 2.406 8.649
2.581 2.732 8.898
2.821 2.900 8.952
2.863 3.359 9.176
3.131 3.614 9.574
3.554 3.981 9.678
3.726 4.387 9.858
4.024 4.874 10.287
4.261 5.190 10.286
4.391 5.371 10.692
4.767 5.716 10.866
4.996 6.186 11.029
0.587 0.261 6.641
0.722 0.501 6.752
1.142 0.815 6.932
1.407 1.106 7.381
1.444 1.593 7.392
1.843 1.784 7.732
1.938 2.130 8.044
3.046 3.745 8.806
3.283 3.957 9.205
3.371 4.384 9.238
3.721 4.602 9.430
3.947 5.025 9.759
4.263 5.256 9.915
4.582 5.677 10.134
4.637 6.080 10.447
5.056 6.390 10.781
0.284 0.039 5.938
0.444 0.439 6.128
0.694 0.719 6.395
1.122 0.989 6.634
1.249 1.495 6.828
1.596 1.734 7.106
1.847 2.145 7.223
3.179 4.258 8.716
3.605 4.642 8.892
3.627 4.977 9.104
4.116 5.304 9.484
4.253 5.666 9.481
4.489 5.994 9.728
4.668 6.319 10.164
4.984 6.615 10.352
0.214 0.351 5.435
0.567 0.646 5.787
0.702 0.957 5.919
1.173 1.400 6.222
1.241 1.826 6.475
1.643 2.059 6.679
3.597 4.923 8.392
3.887 5.244 8.621
3.892 5.464 9.020
4.148 5.906 9.304
4.593 6.327 9.308
4.823 6.554 9.614
0.557 0.805 5.427
0.779 1.151 5.514
0.984 1.609 5.858
1.401 1.961 6.121
3.785 5.494 8.341
3.944 5.846 8.520
4.174 6.060 8.663
4.608 6.572 8.965
0.555 1.265 4.909
0.731 1.633 5.227
1.051 1.768 5.496
1.326 2.178 5.663
3.871 5.806 7.813
4.016 5.993 8.126
4.161 6.456 8.301
4.624 6.701 8.579
0.537 1.326 4.460
0.751 1.679 4.792
1.225 2.209 5.007
1.350 2.517 5.265
3.757 6.025 7.544
3.923 6.367 7.680
4.333 6.585 8.016
4.595 7.047 8.093
0.351 1.372 3.872
0.661 1.776 4.247
0.879 2.060 4.485
1.089 2.472 4.608
1.371 2.689 4.762
1.542 3.162 5.126
3.451 5.921 6.883
3.712 6.119 7.181
4.132 6.483 7.293
4.387 6.991 7.542
4.482 7.320 7.752
4.852 7.547 8.008
0.227 1.229 3.182
0.272 1.707 3.517
0.580 2.026 3.603
0.917 2.257 4.011
1.194 2.567 4.230
1.476 2.920 4.480
1.520 3.256 4.698
1.840 3.804 4.931
3.427 5.771 6.169
3.534 6.025 6.450
3.910 6.394 6.748
4.125 6.910 6.810
4.263 7.080 7.034
4.540 7.633 7.279
4.744 7.939 7.672
5.013 8.187 7.862
0.203 1.409 2.928
0.438 1.759 3.162
0.529 2.149 3.400
0.930 2.476 3.552
1.194 2.867 3.724
1.322 3.272 3.983
1.513 3.519 4.175
1.810 3.900 4.418
2.235 4.263 4.619
3.033 5.806 5.580
3.392 5.972 5.860
3.667 6.496 6.085
3.830 6.745 6.339
3.982 7.197 6.547
4.231 7.370 6.675
4.485 7.784 6.936
4.930 8.147 7.097
4.995 8.390 7.493
0.210 1.695 2.333
0.308 1.997 2.775
0.563 2.354 2.928
1.017 2.848 3.240
1.128 3.132 3.476
1.272 3.534 3.654
1.625 3.892 3.772
1.916 4.152 3.923
2.069 4.469 4.338
2.291 4.989 4.574
2.606 5.155 4.708
2.755 5.653 4.905
3.054 5.930 5.134
3.361 6.237 5.396
3.638 6.721 5.723
3.781 7.078 5.855
4.060 7.241 6.140
4.318 7.786 6.400
4.534 8.115 6.661
4.750 8.394 6.748
5.138 8.773 6.892
0.178 1.893 2.066
0.552 2.452 2.327
0.718 2.819 2.626
1.039 3.036 2.809
1.087 3.432 2.922
1.336 3.843 3.299
1.725 4.062 3.383
1.923 4.463 3.622
2.083 4.855 3.913
2.325 5.084 4.155
2.715 5.447 4.357
2.898 5.935 4.507
3.203 6.273 4.862
3.486 6.459 4.908
3.509 6.898 5.126
3.861 7.268 5.408
4.066 7.624 5.783
4.454 7.882 5.791
4.558 8.235 6.231
4.725 8.642 6.381
5.147 8.996 6.636
0.198 2.225 1.516
0.323 2.589 1.894
0.566 3.062 2.022
0.985 3.425 2.215
1.139 3.735 2.670
1.398 4.026 2.853
1.668 4.277 3.092
1.812 4.633 3.162
2.206 5.138 3.560
2.487 5.479 3.791
2.527 5.710 3.787
2.985 6.033 4.125
3.148 6.580 4.328
3.314 6.809 4.704
3.506 7.246 4.870
3.963 7.480 5.124
4.212 7.741 5.212
4.479 8.170 5.556
4.699 8.492 5.749
4.806 8.854 5.907
5.227 9.277 6.296
3.165 3.074 12.627
0.920 0.085 10.159
3.021 2.920 11.898
3.207 3.367 12.019
3.396 3.643 12.467
0.809 0.162 9.365
0.934 0.513 9.648
1.351 0.691 9.956
2.814 2.790 11.311
2.898 3.276 11.420
3.305 3.683 11.610
3.601 3.851 12.056
3.837 4.354 12.259
4.084 4.610 12.488
0.616 0.035 8.749
0.750 0.247 8.932
0.940 0.700 9.334
1.185 1.068 9.486
1.655 1.430 9.755
2.537 2.874 10.738
2.788 3.057 10.757
2.929 3.507 10.985
3.206 3.754 11.390
3.534 4.214 11.646
3.718 4.645 11.845
3.952 4.879 11.930
4.253 5.280 12.165
4.529 5.546 12.375
0.474 0.331 8.471
0.916 0.753 8.493
1.069 0.975 8.812
1.403 1.210 9.131
1.470 1.703 9.327
1.696 2.022 9.583
2.045 2.370 9.677
2.292 2.779 9.908
2.563 3.015 10.132
2.761 3.431 10.370
3.139 3.850 10.544
3.207 4.109 10.989
3.406 4.485 11.028
3.678 4.833 11.281
3.993 5.085 11.568
4.227 5.590 11.768
4.421 5.814 11.980
0.340 0.294 7.629
0.716 0.453 8.054
0.816 0.848 8.289
1.153 1.115 8.494
1.364 1.476 8.688
1.551 1.961 8.977
1.737 2.246 9.122
2.025 2.616 9.242
2.326 3.054 9.499
2.650 3.408 9.708
2.835 3.639 10.128
2.992 4.138 10.327
3.205 4.256 10.563
3.545 4.662 10.719
3.828 5.078 10.928
3.971 5.354 11.119
4.325 5.684 11.413
4.472 6.169 11.697
0.136 -0.010 7.044
0.253 0.323 7.347
0.664 0.720 7.500
0.767 1.123 7.915
1.180 1.423 8.149
1.415 1.854 8.260
1.604 2.083 8.409
2.616 3.516 9.402
2.803 3.898 9.706
2.951 4.352 9.790
3.301 4.560 9.957
3.620 4.949 10.191
3.899 5.245 10.425
3.961 5.645 10.659
4.346 6.043 11.010
4.520 6.409 11.195
0.181 0.376 6.753
0.483 0.679 6.875
0.710 1.018 7.261
0.747 1.346 7.271
1.022 1.745 7.509
1.421 2.019 7.908
2.760 4.309 9.327
3.154 4.530 9.511
