11.587 7.561 0.364
10.532 11.543 9.330
10.683 11.501 8.820
11.587 10.386 5.509
11.355 10.227 4.640
11.751 9.822 4.337
11.495 9.897 3.825
10.725 10.695 6.016
10.808 10.194 5.423
11.046 10.152 4.646
11.055 9.967 4.334
10.925 9.694 3.705
11.179 9.519 3.411
11.497 7.970 0.354
10.584 12.139 8.978
10.795 10.820 5.064
10.976 10.595 4.355
11.055 10.521 3.926
10.857 10.336 3.597
10.708 11.159 4.306
10.743 10.991 3.926
10.500 11.970 4.528
10.783 11.453 4.011
10.939 11.239 3.598
11.052 11.261 3.134
11.020 12.365 4.467
11.406 12.171 3.853
11.169 11.932 3.286
11.455 11.890 2.586
10.549 12.496 4.282
10.571 12.326 3.966
10.870 11.812 3.337
10.608 11.590 2.600
10.688 11.541 2.087
11.612 12.358 2.662
10.992 12.327 2.884
11.286 12.369 2.314
11.202 12.175 2.002
10.788 12.351 3.158
10.544 12.131 2.688
10.845 11.757 1.910
10.699 11.753 1.403
11.176 12.705 1.849
11.287 12.125 1.190
10.775 12.329 1.880
10.769 12.158 1.299
10.979 12.009 0.572
10.707 12.428 0.251
11.658 5.474 7.154
11.858 5.298 6.505
12.595 2.679 1.432
12.434 2.799 1.067
6.849 5.147 12.573
6.562 5.104 12.349
5.964 4.824 12.534
5.144 4.592 12.476
4.794 4.603 12.434
4.285 4.410 12.452
3.475 4.352 12.283
2.961 4.250 12.456
2.616 4.362 12.376
1.872 3.920 12.410
1.008 3.865 12.310
0.457 3.962 12.163
6.233 5.350 12.402
5.809 5.379 12.197
5.297 5.398 12.240
4.568 5.276 12.151
4.200 4.838 12.352
3.734 4.913 12.004
2.856 4.839 12.080
2.615 4.499 12.094
-0.011 4.481 12.229
10.975 6.086 12.425
10.314 5.958 12.623
9.730 6.220 12.322
9.176 5.781 12.495
8.695 5.650 12.207
5.521 6.247 12.388
5.576 5.683 11.866
5.234 5.814 12.602
5.159 5.520 11.992
4.425 5.914 12.523
4.663 5.702 11.797
3.956 5.758 12.519
3.886 5.492 12.007
3.511 5.571 12.562
3.405 5.313 11.927
2.798 5.360 12.296
2.913 5.207 11.722
10.698 6.785 12.110
10.105 6.691 12.045
9.493 6.634 12.172
9.030 6.238 12.205
4.959 6.648 12.091
5.050 6.055 11.799
4.362 6.400 12.321
4.482 6.017 11.611
3.746 6.382 12.136
3.829 6.212 11.613
3.137 6.215 12.287
3.439 6.108 11.764
10.781 7.403 12.396
10.702 7.199 11.822
10.252 7.240 12.349
10.179 7.240 11.830
9.440 7.096 12.385
9.441 7.180 12.012
12.110 0.204 10.462
11.433 0.195 10.410
11.838 0.672 10.190
12.173 0.545 9.602
11.964 0.377 9.241
11.495 0.771 10.327
11.608 0.510 9.734
11.620 0.276 9.211
10.883 0.494 10.117
10.988 0.458 9.444
10.830 0.132 8.974
6.707 0.204 9.615
7.041 -0.150 9.252
6.254 0.602 10.156
6.040 0.248 9.656
5.420 0.544 9.995
5.630 0.212 9.607
4.883 0.135 10.133
4.501 0.337 9.998
11.639 1.421 10.611
11.717 1.089 9.925
11.810 0.785 9.315
11.929 0.866 8.836
11.870 0.480 8.336
11.938 0.402 7.971
11.403 1.259 10.515
11.112 1.186 10.070
11.277 0.757 9.561
11.477 0.558 8.840
11.295 0.308 8.440
11.691 -0.030 7.747
10.674 1.361 10.432
10.857 1.010 9.810
10.882 0.888 9.192
10.743 0.685 9.014
10.766 0.087 8.208
10.948 0.194 7.990
10.176 0.820 9.717
10.338 0.614 9.368
10.288 0.342 9.019
10.445 0.340 8.174
7.403 0.792 9.602
7.346 0.691 9.129
7.285 0.564 8.475
7.409 0.043 7.931
6.750 1.142 9.920
6.906 0.761 9.341
6.693 0.735 9.031
7.004 0.159 8.260
6.891 0.060 8.023
6.010 1.362 10.453
5.893 0.871 9.986
6.070 0.822 9.524
6.040 0.537 8.883
6.402 0.299 8.383
5.740 2.051 12.443
5.448 0.969 10.362
5.367 0.935 10.087
5.540 0.530 9.351
5.740 0.387 8.730
5.544 0.165 8.493
5.343 2.022 12.363
4.768 0.823 10.548
4.987 0.615 9.969
5.204 0.474 9.390
4.983 0.076 8.832
4.588 2.136 12.554
4.536 1.055 10.346
4.346 0.535 9.981
4.433 0.290 9.377
4.719 0.318 8.948
4.084 1.863 12.585
3.714 0.616 9.725
3.990 0.281 9.431
4.053 -0.036 8.850
3.463 0.301 9.396
11.520 2.104 10.652
11.561 2.163 10.097
11.920 1.818 9.757
12.012 1.371 9.327
11.704 1.417 8.585
11.934 1.050 8.027
12.002 0.801 7.747
11.966 0.337 6.902
11.224 2.307 10.540
11.255 1.772 10.154
11.026 1.809 9.582
11.235 1.406 9.082
11.268 1.187 8.410
11.554 0.753 8.020
11.553 0.690 7.671
11.355 0.226 7.043
10.426 2.045 10.570
10.446 1.967 10.024
10.540 1.324 9.421
10.556 1.101 9.180
10.807 1.042 8.389
10.885 0.766 8.033
11.084 0.722 7.489
10.954 0.164 6.993
10.084 1.535 9.896
10.121 1.339 9.601
10.022 1.110 9.173
10.011 1.055 8.517
10.291 0.843 8.116
10.485 0.360 7.677
9.609 1.185 9.537
9.596 0.997 9.254
9.484 0.672 8.708
9.659 0.568 7.851
8.425 1.349 8.570
8.356 1.139 8.146
7.860 1.341 9.286
7.665 1.400 8.596
8.011 0.856 8.275
7.754 0.752 7.911
7.266 1.571 9.911
7.070 1.440 9.250
7.090 1.221 8.727
7.390 0.772 8.041
7.525 0.679 7.544
7.537 0.529 7.193
6.587 1.745 10.105
6.757 1.356 9.903
6.597 1.281 9.039
6.795 1.176 8.596
6.860 0.805 8.153
6.870 0.723 7.485
7.031 0.449 7.319
6.907 -0.110 6.670
6.298 2.682 12.282
6.070 1.982 10.741
5.755 1.799 10.101
5.995 1.456 9.804
6.150 1.172 9.108
6.139 1.078 8.713
6.036 0.798 8.155
6.275 0.515 7.823
6.224 0.026 7.249
5.565 2.706 12.308
5.753 2.322 11.845
5.385 2.018 11.158
5.357 1.893 10.640
5.497 1.409 10.152
5.398 1.175 9.848
5.588 1.276 9.129
5.564 0.725 8.492
5.567 0.734 8.051
5.875 0.550 7.604
5.846 0.141 7.030
5.087 2.548 12.412
5.082 2.368 11.578
5.146 2.277 11.311
4.644 1.954 11.284
4.869 1.890 10.564
5.003 1.346 10.025
4.809 1.283 9.522
4.941 0.959 9.210
4.900 0.769 8.622
4.913 0.316 8.075
5.091 0.391 7.768
5.393 -0.123 7.025
4.544 2.430 12.086
4.439 2.411 11.568
4.758 2.076 11.384
4.035 1.806 10.657
4.418 1.350 10.011
4.156 1.231 9.644
4.368 0.905 9.291
4.477 0.733 8.771
4.641 0.431 8.201
4.497 0.314 7.646
3.815 2.577 12.184
4.269 1.981 11.655
3.821 1.307 9.981
3.742 0.983 9.550
3.935 0.742 9.210
4.001 0.691 8.732
4.084 0.174 8.059
4.148 -0.115 7.393
3.411 2.171 12.048
3.030 0.759 9.552
3.453 0.496 8.914
3.281 0.284 8.599
3.333 0.002 8.104
2.877 0.646 9.140
2.588 0.310 8.479
2.955 -0.006 8.159
2.400 0.248 8.521
1.648 0.532 8.900
1.440 0.107 8.389
0.898 0.426 9.359
0.988 0.176 8.858
1.061 0.092 8.602
0.401 0.671 10.201
0.550 0.382 9.381
0.575 0.361 9.170
0.025 1.473 11.950
11.546 3.158 11.357
11.645 2.830 10.790
11.468 2.684 10.381
11.690 2.342 9.716
11.498 2.189 9.488
11.929 2.034 8.863
11.769 1.835 8.546
11.762 1.463 7.991
11.901 1.167 7.442
12.113 0.897 7.014
12.052 0.736 6.196
12.060 0.564 5.793
12.011 0.217 5.432
11.430 3.531 12.403
11.558 3.398 11.928
11.437 3.136 11.593
10.672 3.294 11.273
11.041 2.778 10.850
11.071 2.529 10.529
11.016 2.524 9.881
11.324 1.969 9.224
11.005 1.884 8.844
11.394 1.772 8.502
11.445 1.261 7.701
11.344 1.296 7.257
11.515 0.934 6.640
11.630 0.805 6.127
11.681 0.329 5.893
11.630 0.184 5.245
10.944 3.600 12.397
10.966 3.361 11.907
10.826 3.076 11.421
10.332 2.764 10.794
10.513 2.430 10.511
10.559 2.415 9.949
10.550 2.164 9.177
10.781 1.978 8.717
10.498 1.549 8.514
10.736 1.112 7.874
10.864 1.090 7.374
10.969 0.899 6.637
10.994 0.423 6.122
11.250 0.224 5.097
10.002 3.553 12.496
10.273 3.431 11.735
9.805 2.420 10.279
9.762 2.156 9.973
10.010 2.106 9.502
10.187 1.651 8.654
10.010 1.226 8.314
10.193 1.267 7.828
10.244 1.125 7.476
10.467 0.856 6.886
9.498 3.293 12.550
9.520 1.917 9.833
9.639 1.656 9.435
9.570 1.419 8.618
9.665 1.264 8.269
9.670 0.885 7.682
9.775 0.886 7.455
8.961 1.891 9.192
8.750 1.435 8.735
8.997 1.419 8.344
8.880 1.097 7.597
8.249 1.443 8.916
8.442 0.939 8.134
8.333 2.183 9.115
8.462 1.882 8.672
8.356 1.613 7.926
8.617 1.407 7.570
7.721 1.920 9.148
7.712 1.870 8.553
7.695 1.386 8.047
7.761 1.344 7.350
6.929 2.086 9.486
7.301 2.006 9.115
7.218 1.774 8.392
7.037 1.244 7.874
7.383 1.115 7.381
7.194 0.777 6.965
6.524 3.480 12.617
6.592 2.405 9.878
6.419 2.206 9.452
6.415 1.880 8.828
6.775 1.663 8.419
6.737 1.355 7.942
6.873 1.120 7.353
6.952 0.994 6.719
6.778 0.441 6.500
6.290 3.714 12.704
6.012 3.481 11.996
5.766 2.602 10.903
5.985 2.446 10.431
5.772 2.158 9.871
6.099 2.060 9.250
6.073 1.697 9.060
5.979 1.320 8.331
5.998 1.011 8.070
6.164 1.027 7.584
6.258 0.579 6.946
6.220 0.279 6.345
6.178 0.058 5.747
5.426 3.582 12.582
5.539 3.093 11.877
5.816 3.148 11.429
5.766 2.536 10.973
5.155 2.518 11.157
5.409 2.189 10.378
5.361 2.047 10.121
5.261 1.985 9.500
5.352 1.517 9.038
5.429 1.343 8.589
5.377 1.269 7.737
5.479 0.980 7.329
5.555 0.517 6.777
5.696 0.336 6.542
5.912 0.298 5.680
5.144 3.193 12.398
4.996 2.910 11.949
5.019 2.920 11.468
5.263 2.689 10.832
4.496 2.563 10.831
4.625 2.300 10.367
4.866 1.883 9.973
4.688 1.888 9.218
4.702 1.455 9.093
5.099 1.314 8.298
5.105 1.014 7.729
5.250 0.784 7.310
5.176 0.652 6.816
5.080 0.387 6.408
5.385 -0.077 5.848
4.438 3.143 12.466
4.642 3.184 12.138
4.646 2.689 11.465
4.713 2.579 10.845
4.214 2.392 10.846
4.284 2.105 10.500
4.226 1.812 9.795
4.183 1.708 9.334
4.376 1.333 8.719
4.390 1.221 8.210
4.485 0.969 7.733
4.546 0.512 7.510
4.681 0.305 6.940
4.784 -0.037 6.387
3.807 3.265 12.578
4.116 2.813 12.085
3.933 2.496 11.260
3.854 2.245 10.911
3.469 1.609 9.747
3.500 1.558 9.335
3.621 1.222 8.718
3.970 0.926 8.212
4.017 0.742 7.669
3.900 0.749 7.202
3.972 0.444 6.952
4.010 0.077 6.404
3.322 3.228 12.441
3.406 2.892 12.090
2.944 1.485 9.364
3.175 1.077 8.714
3.218 0.769 8.488
3.469 0.647 7.762
3.532 0.408 7.401
3.262 0.150 6.914
2.905 2.890 12.374
2.422 0.976 8.896
2.678 0.986 8.248
2.761 0.734 7.760
2.958 0.331 7.186
2.245 0.857 8.704
2.190 0.931 8.259
2.241 0.684 7.849
2.049 0.316 7.166
1.583 0.848 8.871
1.555 0.685 8.105
1.435 0.510 7.739
1.489 0.183 7.428
0.698 0.861 9.324
0.826 0.711 8.799
1.025 0.595 8.102
1.030 0.305 7.741
1.259 -0.076 7.232
0.448 2.410 12.354
0.340 1.216 9.844
0.367 0.767 9.185
0.557 0.570 8.878
0.318 0.557 8.190
0.446 0.367 7.868
11.461 3.681 11.338
11.602 3.373 10.760
11.614 3.352 10.195
11.577 3.056 9.775
11.408 2.553 9.231
11.809 2.523 8.565
11.796 2.177 8.241
11.844 2.086 7.672
11.948 1.635 7.265
11.917 1.489 6.701
11.985 1.419 5.975
12.082 1.184 5.402
12.125 0.809 4.982
12.200 0.570 4.396
12.295 0.085 4.047
11.135 4.136 12.355
11.473 3.799 11.500
11.366 3.619 11.196
10.668 3.791 11.072
11.011 3.567 10.672
10.972 3.083 10.054
11.092 2.725 9.624
11.171 2.809 9.069
10.915 2.270 8.443
11.349 2.318 8.009
11.080 1.922 7.446
11.219 1.674 6.898
11.244 1.272 6.634
11.307 1.101 6.223
11.375 0.723 5.726
11.507 0.446 4.874
11.672 0.329 4.676
11.761 -0.040 3.844
10.746 4.042 12.037
10.836 4.042 11.616
10.987 3.557 11.093
10.153 3.439 11.291
10.155 3.437 10.714
10.314 2.870 10.155
10.378 2.942 9.426
10.542 2.513 9.202
10.558 2.403 8.557
10.531 2.091 8.248
10.473 1.771 7.510
10.585 1.624 7.195
10.620 1.281 6.534
10.938 1.137 5.970
10.757 0.981 5.326
11.167 0.476 5.055
11.144 0.422 4.543
10.951 -0.163 3.808
10.133 4.135 12.228
10.214 3.690 11.700
10.215 3.536 11.193
9.727 3.037 10.054
9.880 2.528 9.777
9.766 2.346 9.020
9.878 2.142 8.629
9.993 1.967 7.975
10.100 1.758 7.582
10.348 1.576 7.221
10.278 1.088 6.355
10.514 0.019 4.286
9.431 3.910 12.068
9.150 2.511 9.452
9.284 2.383 9.205
9.480 2.193 8.594
9.378 2.018 8.173
9.410 1.387 7.417
9.569 1.236 6.883
8.820 2.382 8.923
8.943 1.992 8.533
8.763 1.620 7.825
9.033 1.420 7.578
8.126 2.165 8.920
8.394 1.817 8.373
8.548 1.499 7.823
8.427 1.479 7.390
7.960 2.549 8.622
8.394 2.462 8.064
8.405 2.023 7.834
8.434 1.888 7.121
7.499 2.708 8.795
7.746 2.449 8.223
7.566 1.937 7.539
7.949 1.713 7.367
6.861 2.683 9.088
7.124 2.568 8.603
6.975 1.996 8.151
7.102 2.104 7.607
7.050 1.553 7.190
7.279 1.277 6.710
6.546 4.323 12.222
6.159 2.625 9.689
6.377 2.457 9.381
6.547 2.325 8.557
6.717 2.075 8.053
6.725 1.868 7.878
6.799 1.369 7.206
6.619 1.490 6.495
6.890 1.114 6.279
6.873 -0.066 4.018
6.087 4.230 12.409
6.074 3.672 11.674
5.635 3.268 10.792
5.771 3.015 10.314
5.669 2.539 9.514
5.834 2.471 9.331
5.792 2.064 8.818
6.099 2.049 8.359
5.834 1.728 7.570
6.250 1.286 7.299
6.042 1.277 6.503
6.266 0.902 5.997
6.422 0.866 5.650
6.493 0.523 4.984
6.469 0.337 4.633
5.522 3.968 12.239
5.541 3.749 11.539
5.490 3.451 11.278
5.536 3.284 10.759
4.986 2.983 10.740
5.262 2.763 10.057
5.376 2.776 9.577
5.332 2.447 9.314
5.521 2.221 8.488
5.260 2.022 8.150
5.648 1.718 7.744
5.657 1.471 7.174
5.488 1.230 6.584
5.755 0.830 6.061
5.714 0.787 5.678
5.962 0.245 5.105
5.953 0.075 4.719
4.835 3.675 12.095
5.075 3.715 11.635
4.951 3.502 11.402
5.106 3.273 10.847
4.698 3.154 10.680
4.711 2.569 10.309
4.631 2.593 9.588
4.592 2.225 9.080
4.958 1.969 8.471
4.868 1.656 8.049
4.924 1.564 7.584
5.086 1.328 7.301
4.983 1.191 6.487
4.970 0.918 6.147
4.977 0.360 5.562
5.398 0.335 5.047
5.356 0.088 4.690
4.355 3.591 12.093
4.580 3.576 11.651
4.355 3.056 11.082
4.472 2.962 10.783
4.114 2.965 10.671
4.204 2.627 9.963
3.970 2.521 9.533
4.148 2.138 9.238
4.229 1.908 8.813
4.158 1.815 8.214
4.530 1.210 7.578
4.494 1.343 7.030
4.534 0.997 6.543
4.548 0.537 5.917
4.764 0.574 5.474
4.598 0.159 5.047
3.741 3.536 12.143
3.856 3.452 11.741
3.931 3.303 11.186
4.165 2.985 10.648
3.365 2.254 9.489
3.467 2.090 9.148
3.823 1.897 8.762
3.607 1.697 7.951
3.906 1.111 7.635
3.988 1.222 6.962
4.023 0.923 6.672
3.882 0.428 5.860
3.118 3.425 12.234
3.407 3.260 11.517
3.134 2.071 9.013
3.086 1.841 8.600
3.242 1.407 8.175
3.236 1.109 7.382
3.458 1.091 7.217
3.488 0.782 6.392
2.719 3.259 12.292
2.493 1.780 8.655
2.754 1.327 8.234
2.636 1.176 7.388
2.635 0.691 7.109
2.022 1.582 8.730
2.156 1.042 8.118
2.031 0.852 7.564
2.095 0.759 7.029
1.551 1.342 8.455
1.540 1.223 7.927
1.714 0.721 7.403
1.476 0.581 6.957
0.726 1.565 8.916
0.679 1.169 8.388
0.946 0.881 8.180
0.866 0.896 7.439
1.113 0.641 6.825
1.021 0.402 6.576
0.318 3.097 12.255
0.032 1.808 9.620
0.111 1.475 8.868
0.416 1.036 8.348
0.314 0.983 7.895
0.410 0.759 7.407
0.299 0.483 6.919
0.583 0.185 6.416
11.398 4.044 10.730
11.429 4.119 10.285
11.548 3.819 10.023
11.551 3.497 9.556
11.327 3.211 8.930
11.570 2.870 8.292
11.601 2.682 7.678
11.515 2.466 7.457
11.846 2.440 6.934
11.847 1.955 6.158
11.955 1.578 5.921
11.991 1.669 5.242
12.006 1.290 4.833
11.908 1.009 4.398
11.998 0.552 3.854
12.351 0.309 3.261
12.231 0.418 2.867
11.188 4.971 12.471
11.108 4.683 12.130
11.176 4.553 11.244
11.333 4.353 10.808
10.517 4.194 10.851
10.582 3.967 10.379
10.745 3.441 9.831
11.088 3.198 9.206
11.090 3.279 8.862
11.214 2.714 8.147
11.043 2.478 8.026
11.113 2.429 7.433
11.127 2.092 6.742
11.442 1.966 6.453
11.361 1.693 5.806
11.414 1.392 5.325
11.515 1.135 4.929
11.535 0.776 4.151
11.539 0.497 3.608
11.613 0.273 3.354
11.600 0.037 2.877
10.590 4.934 12.405
10.769 4.635 11.826
10.827 4.232 11.456
10.737 4.084 10.983
10.201 4.018 10.717
10.200 3.641 10.462
10.384 3.535 9.718
10.327 3.166 9.484
10.200 3.172 8.751
10.657 2.890 8.173
10.590 2.550 7.877
10.732 2.135 7.330
10.615 1.977 6.636
10.905 1.727 6.299
10.742 1.342 5.954
10.927 1.414 5.402
10.839 1.068 4.931
11.163 0.788 4.120
11.013 0.661 3.598
11.286 0.239 3.096
11.263 0.244 2.739
10.132 4.836 12.292
9.867 4.362 11.926
9.885 4.113 11.273
10.227 4.182 10.983
9.722 3.232 9.996
9.965 2.997 9.420
9.797 2.979 8.668
9.925 2.534 8.397
9.980 2.426 7.750
9.849 2.123 7.301
10.004 2.008 6.884
10.251 1.747 6.226
10.435 0.662 4.347
10.540 0.327 3.524
10.587 0.380 3.162
9.538 4.700 12.463
9.560 4.319 11.822
9.349 3.152 9.157
9.072 2.962 8.954
9.356 2.736 8.312
9.570 2.376 7.809
9.524 2.026 7.108
9.602 1.856 6.832
9.963 0.187 3.643
10.046 -0.006 3.309
9.003 4.569 12.473
8.904 2.655 8.776
8.874 2.649 8.180
8.752 2.120 7.759
8.836 2.032 7.246
8.087 2.626 8.923
8.271 2.246 8.235
8.372 2.005 7.896
8.394 1.948 7.092
8.174 2.781 7.985
8.215 2.630 7.449
8.920 0.067 2.373
7.368 3.104 8.496
7.717 2.939 7.981
7.769 2.360 7.595
7.691 2.358 7.052
8.316 0.462 2.734
8.081 -0.068 2.173
6.784 3.281 8.870
6.794 2.924 8.575
7.196 2.707 7.920
6.952 2.319 7.643
7.091 2.295 7.128
7.012 1.978 6.326
7.567 0.350 3.421
7.783 0.261 2.906
6.353 4.788 12.115
6.256 3.193 9.616
6.458 2.914 9.030
6.564 2.675 8.492
6.548 2.501 8.074
6.427 2.281 7.347
6.434 2.184 6.764
6.479 1.732 6.542
6.537 1.437 6.009
6.756 0.628 3.856
6.963 0.176 3.211
6.911 0.044 2.983
5.819 4.603 11.984
6.016 4.205 11.346
5.699 3.590 9.795
5.569 3.023 9.389
5.666 2.943 8.805
5.822 2.915 8.445
5.892 2.552 7.930
6.013 2.118 7.234
5.842 2.035 7.043
6.160 1.810 6.381
5.991 1.486 5.884
6.066 1.154 5.286
6.512 0.742 4.182
6.426 0.545 4.004
6.263 0.250 3.277
5.309 4.370 12.065
5.268 4.193 11.530
5.536 3.792 10.876
4.815 3.621 10.611
5.067 3.477 9.734
5.275 2.945 9.616
5.181 2.664 9.035
5.211 2.663 8.279
5.477 2.191 7.790
5.416 2.196 7.236
5.563 2.020 6.944
5.577 1.568 6.245
5.544 1.300 5.815
5.623 1.111 5.468
5.893 0.981 4.685
5.690 0.803 4.180
5.866 0.550 3.645
6.078 0.269 3.478
4.644 4.175 11.933
5.039 4.246 11.654
4.991 4.009 10.931
5.029 3.549 10.611
4.608 3.615 10.499
4.566 3.293 9.916
4.704 3.048 9.484
4.795 2.599 8.962
4.788 2.569 8.403
4.642 2.120 7.901
5.004 2.155 7.164
4.694 1.956 6.870
4.754 1.583 6.238
5.147 1.180 5.995
4.913 1.051 5.401
5.103 0.951 4.722
5.098 0.606 4.119
5.167 0.419 3.790
5.444 0.135 3.171
4.386 4.093 11.935
4.372 3.929 11.530
4.521 3.877 10.849
4.526 3.397 10.586
3.902 3.309 9.765
3.888 2.742 9.215
4.079 2.802 9.026
4.325 2.317 8.329
4.027 2.172 7.656
4.256 1.767 7.386
4.495 1.738 6.826
4.490 1.254 6.226
4.626 1.256 5.806
4.589 0.937 5.383
4.841 0.423 4.462
4.549 0.247 3.909
3.674 4.243 12.095
3.676 3.933 11.308
3.759 3.740 11.013
3.338 2.778 9.236
3.372 2.404 9.003
3.465 2.302 8.184
3.775 1.988 7.798
3.803 1.946 7.522
3.647 1.412 6.627
4.020 1.321 6.254
4.011 0.954 5.673
4.123 0.218 3.910
2.998 3.917 11.887
3.155 3.655 11.465
2.906 2.356 8.734
2.982 2.278 8.417
3.019 1.970 7.934
3.073 1.821 7.412
3.230 1.569 6.956
3.254 1.117 6.479
2.473 3.806 11.795
2.255 2.028 8.457
2.508 1.830 7.864
2.702 1.742 7.346
2.819 1.342 6.593
2.102 1.833 7.843
2.183 1.608 7.074
1.419 1.703 8.263
1.304 1.728 7.674
1.561 1.360 7.050
1.535 1.006 6.737
0.685 1.894 8.689
0.580 1.988 8.066
0.657 1.567 7.930
1.070 1.157 7.049
1.138 0.986 6.575
0.916 0.697 6.080
0.506 3.699 11.681
0.201 2.104 9.253
0.055 1.735 8.666
0.101 1.550 8.230
0.361 1.487 7.566
0.429 1.085 7.032
0.365 1.017 6.729
0.642 0.495 6.281
0.579 0.504 5.668
-0.001 0.037 5.277
11.154 4.881 10.468
11.183 4.482 10.289
11.291 4.190 9.831
11.420 4.133 9.014
11.433 3.817 8.814
11.679 3.529 8.303
11.615 3.241 7.669
11.673 3.043 7.263
11.582 2.775 6.682
11.912 2.305 6.269
11.899 2.409 5.453
11.810 2.127 5.053
11.893 1.661 4.506
11.818 1.406 3.892
12.214 1.313 3.655
11.943 1.128 3.169
12.365 0.661 2.409
12.128 0.597 2.003
12.492 0.154 1.535
10.952 5.401 12.098
11.102 5.410 11.862
11.010 5.032 10.986
11.063 4.829 10.591
10.773 4.496 10.454
10.585 4.262 10.046
10.773 4.308 9.513
10.915 3.693 9.308
10.849 3.673 8.615
10.958 3.448 8.089
10.894 3.164 7.747
10.889 2.799 7.255
11.039 2.745 6.391
11.309 2.396 6.019
11.430 2.101 5.682
11.185 1.824 5.067
11.475 1.820 4.432
11.431 1.386 3.830
11.499 1.262 3.427
11.506 1.017 3.105
11.618 0.774 2.480
11.794 0.488 1.937
11.952 -0.022 1.546
10.269 5.273 12.061
10.532 5.304 11.474
10.465 4.763 11.271
10.709 4.765 10.513
10.018 4.386 10.101
10.186 3.900 9.780
10.185 3.911 9.060
10.474 3.398 8.701
10.442 3.156 7.923
10.344 3.180 7.446
10.342 2.875 6.875
10.634 2.650 6.648
10.814 2.172 6.134
10.644 2.197 5.686
10.657 1.607 4.362
11.048 1.419 4.031
11.053 1.020 3.293
11.172 0.917 3.124
11.040 0.623 2.597
10.999 0.282 1.926
11.088 -0.042 1.571
9.921 5.095 11.985
9.771 5.060 11.629
10.135 4.936 11.035
9.445 3.835 9.423
9.525 3.871 8.870
9.879 3.513 8.710
9.824 3.132 8.195
9.842 3.073 7.526
9.838 2.792 7.088
10.049 2.377 6.400
9.876 2.335 6.107
10.458 1.092 3.920
10.403 0.992 3.412
10.478 0.516 2.796
10.504 0.352 2.266
10.432 0.269 2.072
9.319 5.276 12.047
9.220 4.953 11.471
9.250 3.581 9.128
9.143 3.376 8.514
9.231 3.136 7.968
9.224 2.735 7.608
9.454 2.669 7.153
9.475 2.277 6.700
9.897 1.022 3.273
9.924 0.586 3.012
9.773 0.293 2.444
9.917 -0.090 2.031
8.668 4.887 12.175
8.448 3.408 8.378
8.610 3.027 8.132
8.824 2.688 7.352
8.906 2.439 6.879
9.388 0.360 2.802
9.388 0.410 2.592
8.151 2.774 7.882
8.307 2.484 7.301
8.970 0.040 2.273
6.838 3.487 8.318
6.896 3.349 7.727
7.159 2.999 7.082
6.908 2.772 6.806
7.361 0.676 2.602
7.737 0.518 2.173
7.601 0.355 1.704
6.411 3.384 8.561
6.422 3.335 8.273
6.420 3.007 7.698
6.599 2.806 7.090
6.503 2.502 6.559
6.425 2.412 6.164
6.964 0.836 3.241
7.025 0.447 2.541
6.979 0.389 2.212
7.294 0.075 1.591
5.846 5.175 11.650
5.750 3.879 8.992
5.503 3.323 8.485
5.725 3.312 8.334
5.901 2.822 7.506
5.792 2.661 6.983
5.884 2.662 6.660
6.078 2.297 6.176
6.048 1.818 5.587
6.260 0.897 3.761
6.490 0.904 3.126
6.237 0.468 2.520
6.673 0.192 1.848
5.130 5.162 11.561
5.449 4.885 11.280
4.855 3.455 9.252
5.218 3.466 8.574
4.988 3.030 8.227
5.355 2.823 7.484
5.449 2.764 6.936
5.500 2.508 6.477
5.449 1.941 6.187
5.570 2.065 5.722
5.824 0.814 3.610
5.907 0.729 2.859
5.722 0.522 2.383
5.896 0.301 1.923
4.844 4.981 11.692
4.676 4.724 11.350
4.649 3.422 9.056
4.372 3.392 8.537
4.423 2.963 8.043
4.578 2.883 7.460
4.583 2.603 7.253
4.741 2.251 6.529
4.883 2.200 6.066
4.792 1.691 5.648
5.210 0.752 3.609
5.146 0.598 2.962
5.473 0.406 2.572
5.374 0.079 1.841
4.210 4.604 11.507
4.367 4.466 11.075
3.893 3.443 8.971
4.111 3.127 8.777
4.086 3.021 8.215
4.167 2.751 7.447
4.152 2.598 7.009
4.095 2.210 6.772
4.493 2.040 6.265
4.322 1.526 5.421
4.637 0.558 3.560
4.869 0.524 2.828
4.655 0.114 2.584
3.594 4.572 11.597
3.505 4.490 11.093
3.313 3.061 8.762
3.662 2.735 8.032
3.552 2.459 7.774
3.700 2.370 7.269
3.786 2.157 6.485
3.755 1.653 6.029
3.954 0.495 3.087
4.221 -0.004 2.325
3.106 4.408 11.463
2.753 2.608 8.166
3.017 2.614 7.541
3.107 2.260 7.097
2.928 1.834 6.625
0.818 2.109 8.169
0.658 2.139 7.401
0.782 1.680 6.919
0.685 1.516 6.332
0.059 2.475 8.479
-0.063 2.373 7.808
0.142 2.075 7.643
0.058 1.790 6.967
0.257 1.488 6.319
0.190 1.075 6.090
11.269 4.838 9.277
11.259 4.575 8.809
11.261 4.248 8.494
11.610 4.130 7.753
11.565 3.666 7.164
11.581 3.666 6.763
11.599 3.113 6.490
11.662 3.186 5.797
12.057 2.082 3.937
11.852 1.707 3.389
12.041 1.625 2.937
12.194 1.423 2.221
12.197 0.975 1.729
12.265 0.612 1.052
10.814 6.114 11.882
11.067 5.892 11.571
10.812 4.500 9.309
10.659 4.585 8.902
10.982 4.226 8.167
10.801 4.013 7.831
10.943 3.801 7.517
10.853 3.220 6.903
11.225 3.268 6.466
11.280 2.891 5.617
11.361 1.719 3.922
11.418 1.574 3.294
11.431 1.253 2.867
11.692 1.030 2.181
11.470 0.942 1.617
11.555 0.703 1.028
10.260 6.063 12.059
10.285 5.714 11.330
10.168 4.455 9.324
10.017 4.101 8.771
10.357 4.102 8.240
10.183 3.651 7.862
10.256 3.483 7.244
10.430 3.113 6.685
10.494 3.235 6.329
10.369 2.596 5.862
10.994 1.672 3.749
10.874 1.372 3.418
11.045 1.196 2.698
11.133 1.212 2.215
11.069 0.976 1.836
11.110 0.689 1.173
9.822 5.941 11.744
9.809 5.597 11.407
9.643 4.052 8.623
9.583 3.910 8.114
9.818 3.581 7.830
9.764 3.527 7.453
9.711 3.173 6.604
10.031 3.136 6.237
10.374 1.620 3.029
10.554 1.257 2.757
10.248 1.015 2.269
10.398 0.766 1.686
10.493 0.248 1.148
9.401 5.780 12.008
9.204 3.818 8.392
9.019 3.699 7.855
9.033 3.273 7.347
9.105 3.147 6.778
9.847 1.201 2.806
9.681 0.871 2.023
10.033 0.497 1.644
9.868 0.459 1.230
6.359 3.906 7.840
6.156 3.749 7.502
6.451 3.184 7.075
6.490 2.974 6.217
7.000 1.157 2.423
6.965 0.656 1.876
7.032 0.418 1.259
7.255 0.159 0.763
5.469 3.939 8.416
5.455 3.883 7.733
5.842 3.333 7.231
5.743 3.415 6.910
5.700 3.069 6.234
5.764 2.728 5.764
6.272 1.159 2.701
6.293 0.787 2.468
6.487 0.784 1.701
6.574 0.376 1.321
6.454 0.174 0.636
5.334 5.640 11.379
5.086 3.907 8.431
5.158 3.750 7.881
5.301 3.289 7.569
5.412 3.039 7.030
5.181 2.773 6.222
5.472 2.812 5.848
5.832 1.239 2.713
5.689 1.039 2.139
5.913 0.439 1.908
5.762 0.272 1.159
5.799 0.091 0.559
4.713 5.222 11.543
4.378 3.569 8.430
4.430 3.436 7.877
4.648 3.245 7.224
4.607 3.072 6.783
4.679 2.657 6.396
4.633 2.646 5.846
5.238 0.981 2.665
5.187 0.913 2.364
5.425 0.438 1.585
5.460 0.465 1.417
5.543 0.135 0.614
3.973 5.111 11.562
3.882 3.695 8.385
4.023 3.509 7.887
3.973 3.117 7.160
3.988 2.868 6.764
4.221 2.764 6.399
4.302 2.350 5.865
4.529 0.768 2.742
4.689 0.722 2.395
4.802 0.295 1.714
4.742 0.081 1.061
3.601 5.173 11.614
3.507 3.221 7.891
3.603 3.257 7.468
3.416 2.928 6.904
3.430 2.643 6.465
3.956 0.448 2.316
4.023 0.256 1.703
4.218 -0.097 1.293
0.179 2.784 7.627
0.040 2.629 7.136
0.363 2.046 6.844
0.035 1.850 6.219
0.298 0.008 2.717
11.402 4.879 8.452
11.114 4.726 8.038
11.238 4.618 7.592
11.420 4.062 7.109
11.478 4.030 6.482
11.667 3.940 6.171
12.055 2.146 2.826
11.837 1.969 2.318
12.047 1.755 1.882
12.012 1.645 1.633
12.030 1.204 1.154
10.821 6.624 11.784
10.637 5.070 8.411
10.589 4.572 8.010
10.663 4.215 7.702
10.984 4.145 7.112
10.865 3.761 6.737
11.083 3.514 6.062
11.360 2.267 3.029
11.278 1.988 2.418
11.524 1.750 2.090
11.654 1.224 1.645
11.566 1.041 0.777
10.453 6.423 11.851
10.265 4.950 8.487
9.989 4.448 8.040
10.074 4.096 7.459
10.197 4.024 7.119
10.399 3.764 6.467
10.292 3.680 5.949
10.832 1.974 3.013
10.868 1.665 2.642
10.853 1.550 1.848
11.084 1.398 1.519
11.016 1.177 1.063
9.736 6.355 11.777
9.563 4.636 7.923
9.633 4.359 7.513
9.716 3.834 6.884
9.800 3.841 6.461
10.103 1.522 2.266
10.472 1.574 1.870
10.232 1.374 1.246
10.348 0.914 0.785
5.683 4.163 7.793
5.776 3.795 7.159
5.649 3.532 6.620
5.755 3.616 6.130
6.250 1.425 2.220
6.456 1.313 1.594
6.260 1.021 1.093
6.505 0.635 0.694
4.934 3.942 7.753
5.089 3.784 7.209
4.950 3.578 6.801
5.200 3.521 6.001
5.866 1.235 2.080
5.830 1.040 1.335
5.647 1.018 0.842
5.900 0.831 0.399
4.305 3.961 7.485
4.393 3.757 7.095
4.554 3.361 6.461
4.498 3.447 5.936
5.097 1.248 2.085
5.130 1.099 1.604
5.149 0.846 0.824
5.349 0.477 0.498
3.906 3.760 7.560
4.032 3.738 7.229
3.909 3.364 6.474
3.912 3.214 5.907
4.605 1.145 1.996
4.591 1.028 1.554
4.779 0.520 0.903
4.673 0.467 0.459
0.033 0.276 1.828
0.079 -0.021 1.447
11.128 5.136 7.929
11.249 4.804 7.326
11.512 4.754 6.714
11.218 4.648 6.416
11.963 2.485 2.291
12.063 2.151 1.673
12.145 1.826 1.258
12.137 1.962 0.736
10.558 5.183 7.722
10.623 5.021 7.263
10.801 4.546 6.839
10.712 4.344 6.321
11.494 2.301 2.078
11.484 2.328 1.833
11.494 2.023 1.155
11.589 1.847 0.562
10.221 4.921 7.882
9.947 4.842 7.469
10.373 4.698 6.907
10.137 4.431 6.344
10.613 2.247 2.088
10.991 2.054 1.661
11.017 1.786 1.331
10.976 1.630 0.658
12.363 -0.024 1.124
12.252 0.538 0.726
12.231 0.090 0.099
11.925 0.470 0.661
11.775 0.306 0.140
11.159 0.180 0.668
11.076 0.071 0.138
10.463 0.154 0.574
12.154 1.201 0.302
11.495 1.006 0.287
11.201 0.628 0.604
4.805 7.037 12.657
4.998 6.971 11.998
4.143 7.059 12.636
4.519 6.835 12.123
4.369 6.679 11.626
3.638 6.949 12.594
3.897 6.913 11.952
3.971 6.627 11.239
3.103 6.921 12.379
3.113 6.481 11.844
10.581 7.861 12.320
10.706 7.714 11.507
10.155 7.770 12.104
10.188 7.594 11.800
9.275 7.989 12.189
4.843 7.867 12.241
4.881 7.343 11.773
5.013 7.201 11.104
4.286 7.625 12.356
4.078 7.287 11.618
4.460 7.137 11.386
3.702 7.432 12.353
3.534 7.234 11.577
3.577 6.959 11.202
3.248 7.489 12.199
3.280 7.350 11.491
3.338 6.938 11.015
10.273 8.734 12.497
10.568 8.514 11.780
10.482 8.144 11.376
9.922 8.621 12.276
9.717 8.297 12.071
9.894 8.293 11.248
9.338 8.538 12.546
9.277 8.380 11.985
9.286 7.898 11.239
5.273 8.538 12.547
5.182 8.326 12.044
5.330 8.236 11.514
5.298 7.823 10.918
4.802 8.489 12.634
4.562 8.390 12.110
4.639 7.948 11.398
4.906 7.721 10.948
3.887 8.547 12.335
3.934 7.955 12.145
4.099 7.932 11.502
4.335 7.769 11.077
3.391 8.364 12.370
3.386 7.945 11.986
3.608 7.747 11.570
3.508 7.698 10.902
2.992 8.071 12.467
3.130 8.049 12.002
2.934 7.580 11.323
3.298 7.586 10.852
2.430 7.934 12.519
2.513 7.899 11.706
2.469 7.619 11.261
2.463 7.324 10.819
10.352 9.105 12.105
10.478 8.975 11.472
10.382 8.643 11.169
9.940 9.290 11.994
9.930 8.965 11.619
9.781 8.786 11.170
9.085 8.985 12.058
9.334 8.610 11.739
9.228 8.652 11.267
8.613 8.867 12.148
8.540 8.827 11.770
8.813 8.460 11.291
5.590 9.235 12.431
5.725 8.888 11.872
5.956 8.503 11.381
5.733 8.512 10.704
5.190 9.110 12.388
5.085 8.914 11.732
5.272 8.754 11.337
5.133 8.140 10.710
4.667 9.094 12.297
4.506 8.660 11.701
4.639 8.528 11.375
4.613 8.068 10.607
3.970 8.883 12.197
3.926 8.744 11.602
3.941 8.456 11.034
4.286 8.139 10.531
3.384 8.873 12.003
3.430 8.693 11.738
3.547 8.136 11.092
3.594 8.210 10.749
3.035 8.706 12.090
2.819 8.246 11.717
2.852 8.205 11.108
2.888 7.849 10.632
2.420 8.594 12.287
2.256 8.485 11.695
2.583 7.896 10.997
2.619 7.869 10.430
1.791 8.355 12.153
1.726 8.077 11.445
1.923 7.917 10.989
2.091 7.617 10.711
10.237 9.940 12.635
10.321 9.583 12.072
10.175 9.452 11.305
10.537 9.349 10.993
9.725 9.970 12.379
9.678 9.578 12.026
9.734 9.428 11.348
9.847 9.254 10.828
9.053 9.671 12.210
9.156 9.435 12.010
9.274 9.405 11.366
9.388 9.187 10.976
8.539 9.670 12.509
8.681 9.401 11.693
8.627 9.379 11.227
8.619 8.861 10.845
7.718 9.431 12.204
7.957 9.304 11.974
8.145 9.247 11.392
7.935 8.861 10.922
6.723 9.798 11.506
6.992 9.287 11.145
6.099 9.886 11.974
6.156 9.442 11.427
6.307 9.356 11.058
6.139 8.919 10.522
5.714 10.124 12.719
5.481 9.602 11.866
5.463 9.520 11.354
5.607 9.235 11.007
5.723 8.908 10.594
4.801 9.917 12.424
4.928 9.676 12.084
5.001 9.328 11.552
5.276 9.085 10.984
5.365 8.728 10.562
4.239 9.776 12.363
4.267 9.586 11.936
4.429 9.048 11.349
4.516 9.075 10.808
4.637 8.543 10.590
3.941 9.490 12.663
3.732 9.538 11.834
4.080 9.222 11.582
4.048 8.927 11.068
4.040 8.656 10.585
3.452 9.443 12.565
3.391 9.342 12.051
3.326 9.051 11.335
3.352 8.881 10.976
3.718 8.611 10.414
2.818 9.556 12.585
2.924 8.975 12.079
2.816 8.729 11.261
2.914 8.603 10.908
2.913 8.595 10.388
2.323 9.347 12.274
2.133 9.059 11.957
2.304 8.816 11.210
2.172 8.427 10.779
2.437 8.330 10.255
1.584 9.241 12.538
1.553 8.960 11.805
1.581 8.692 11.327
1.877 8.580 10.727
1.689 8.363 10.271
0.910 8.929 11.696
1.155 8.752 11.200
1.265 8.373 10.702
1.147 8.100 10.519
0.558 8.642 11.319
0.758 8.200 10.917
-0.076 8.392 11.232
0.224 8.081 10.749
-0.015 8.002 10.284
9.963 10.468 12.235
9.999 10.254 11.708
10.384 9.860 11.010
10.180 9.863 10.471
9.374 10.423 12.238
9.438 10.146 11.724
9.646 9.909 11.005
9.588 9.578 10.657
8.808 10.130 11.979
8.957 10.235 11.431
8.881 9.802 11.183
9.248 9.580 10.529
8.532 10.290 12.018
8.293 9.985 11.725
8.563 9.746 11.115
8.590 9.597 10.787
7.636 10.128 12.291
7.894 10.000 11.519
7.759 9.744 11.132
7.908 9.464 10.572
7.079 9.992 12.016
7.229 9.603 11.519
7.487 9.700 11.082
7.309 9.230 10.717
6.600 9.788 11.387
6.915 9.381 10.880
6.776 10.259 11.905
6.488 10.228 11.361
6.840 9.891 10.784
6.912 9.457 10.321
5.977 10.150 11.916
6.265 9.910 11.426
6.364 9.726 10.661
6.439 9.499 10.407
5.268 10.274 12.426
5.483 10.030 11.772
5.741 9.862 11.444
5.662 9.787 10.730
5.496 9.478 10.036
4.759 10.280 12.410
4.925 10.074 11.640
4.866 9.931 11.076
4.973 9.515 10.707
4.934 9.347 10.100
4.158 10.258 12.389
4.498 9.991 11.789
4.237 9.837 11.288
4.647 9.356 10.584
4.526 9.226 10.026
3.604 9.969 12.044
4.010 9.774 11.556
3.735 9.487 11.382
3.902 9.244 10.522
3.982 9.322 10.174
3.083 10.130 12.332
3.395 9.975 11.801
3.355 9.516 11.340
3.578 9.337 10.693
3.249 8.860 9.962
2.533 10.039 12.094
2.512 9.660 11.472
2.744 9.414 11.049
2.925 9.199 10.686
2.926 8.864 9.977
2.089 9.857 12.048
2.103 9.529 11.726
2.031 9.238 11.082
2.417 9.032 10.716
2.417 8.769 10.153
1.415 9.603 11.982
1.593 9.571 11.487
1.827 9.309 11.038
1.672 9.156 10.637
1.718 8.696 10.264
0.914 9.293 11.758
1.067 9.183 11.182
1.210 8.861 10.569
1.029 8.429 10.049
0.634 9.273 11.503
0.481 9.204 10.925
0.682 8.780 10.537
0.832 8.578 10.152
0.045 8.733 10.658
0.081 8.337 10.159
10.088 11.263 12.554
10.072 10.878 11.937
10.062 10.674 11.296
9.977 10.317 10.846
10.193 10.141 10.348
9.498 11.017 12.411
9.320 10.903 12.038
9.309 10.819 11.416
9.580 10.600 10.869
9.510 9.969 10.310
8.825 11.197 12.227
8.703 10.804 11.759
8.875 10.373 11.294
9.005 10.201 10.747
8.951 10.245 10.231
8.358 11.153 12.479
8.255 10.595 11.963
8.316 10.428 11.430
8.609 10.096 10.852
8.652 9.949 10.250
7.565 10.841 12.350
7.674 10.506 11.653
7.630 10.259 11.323
8.064 10.154 10.666
7.979 9.934 10.181
7.189 10.618 11.951
7.413 10.300 11.176
7.472 10.106 10.638
7.265 9.947 10.483
6.516 10.332 11.767
6.692 9.950 11.200
6.568 9.886 10.979
6.725 9.847 10.289
6.372 10.847 11.667
6.778 10.699 11.074
6.727 10.553 10.335
6.544 10.350 9.954
6.029 10.632 11.658
6.190 10.496 10.844
5.913 10.369 10.463
6.078 9.950 9.943
5.293 10.962 12.196
5.509 10.746 11.608
5.492 10.555 10.892
5.537 10.064 10.412
5.417 10.080 9.818
4.883 10.911 12.407
4.980 10.829 12.033
4.866 10.516 11.411
4.946 10.359 11.097
4.986 9.958 10.640
5.109 9.957 9.900
4.273 11.140 12.406
4.028 10.642 11.813
4.339 10.494 11.307
4.389 10.376 10.951
4.502 10.084 10.319
4.534 9.623 9.776
3.610 11.035 12.656
3.811 10.667 11.892
3.713 10.396 11.269
3.715 10.098 11.072
4.032 9.708 10.322
3.788 9.664 9.928
3.206 10.805 12.540
3.042 10.668 11.853
3.135 10.461 11.397
3.347 10.059 11.088
3.471 9.864 10.320
3.376 9.561 9.760
2.537 10.593 12.276
2.653 10.252 12.041
2.558 10.364 11.446
2.630 10.026 10.915
2.646 9.493 10.465
2.958 9.431 9.727
1.802 10.735 12.288
1.988 10.280 12.055
1.904 10.215 11.312
1.940 9.851 10.902
2.167 9.624 10.542
2.078 9.520 9.764
1.461 10.061 11.851
1.534 10.159 11.336
1.643 9.613 11.039
1.803 9.568 10.312
1.772 9.123 9.825
0.782 9.857 11.181
0.851 9.772 10.966
1.212 9.450 10.371
0.995 9.224 10.015
0.364 9.862 11.502
0.275 9.451 10.907
0.422 9.180 10.366
0.605 9.016 9.654
9.844 11.903 12.213
9.742 11.456 11.662
9.956 11.141 11.206
9.847 11.120 10.541
10.074 10.704 10.172
9.426 11.577 11.962
9.228 11.517 11.719
9.492 11.263 11.157
9.339 11.115 10.674
9.350 10.813 10.230
8.574 11.684 12.165
8.592 11.434 11.823
8.965 11.252 10.971
8.944 10.672 10.624
9.019 10.751 10.240
8.067 11.273 12.069
8.020 11.142 11.518
8.271 10.996 10.966
8.288 10.848 10.718
8.371 10.380 10.087
7.483 11.263 12.183
7.751 11.062 11.428
7.684 10.951 10.968
7.823 10.769 10.489
7.940 10.205 10.068
7.248 10.898 11.709
7.258 10.705 11.147
7.291 10.587 10.364
7.246 10.362 10.230
6.565 10.898 11.658
6.741 10.508 11.048
6.697 10.598 10.643
6.763 10.142 9.835
6.504 11.127 10.884
6.583 10.823 10.259
5.936 11.380 11.389
6.134 11.064 10.564
6.010 10.662 10.453
6.017 10.470 9.709
5.149 11.605 11.782
5.196 11.342 11.099
5.268 11.061 10.570
5.434 10.637 10.260
5.487 10.439 9.718
4.648 11.681 12.170
4.842 11.250 11.776
4.755 11.164 11.052
4.632 10.932 10.839
5.055 10.751 10.085
5.115 10.218 9.709
4.142 11.379 12.161
4.022 11.183 11.797
4.136 10.915 11.289
4.199 10.680 10.724
4.266 10.465 10.371
4.350 10.361 9.828
3.588 11.328 12.025
3.492 11.194 11.667
3.460 10.905 11.000
3.799 10.475 10.580
3.594 10.236 10.310
3.979 10.066 9.551
3.111 11.136 12.069
3.203 11.100 11.749
3.185 10.652 11.323
3.024 10.546 10.536
3.203 10.381 10.074
3.131 9.966 9.515
2.285 11.345 12.356
2.317 11.126 11.484
2.521 10.729 11.210
2.701 10.500 10.682
2.536 10.221 9.954
2.535 9.879 9.515
1.682 10.965 12.292
2.039 10.984 11.784
1.774 10.631 10.972
2.109 10.182 10.763
2.135 9.917 9.998
2.050 10.012 9.471
1.269 10.796 11.744
1.350 10.490 11.139
1.621 10.052 10.595
1.472 10.180 10.125
1.697 9.762 9.669
0.871 10.307 11.162
1.069 10.013 10.603
1.089 10.029 10.186
0.941 9.553 9.416
0.148 9.946 10.475
0.317 9.851 10.017
9.734 12.686 12.533
9.743 12.255 11.862
9.803 12.132 11.337
10.041 11.690 10.916
9.762 11.558 10.480
9.969 11.447 9.706
9.021 12.244 12.346
9.381 12.126 12.050
9.171 11.867 11.440
9.146 11.513 11.055
9.479 11.585 10.280
9.331 11.069 9.740
8.529 12.433 12.397
8.569 12.252 11.686
8.775 11.874 11.205
8.601 11.767 10.708
8.863 11.309 10.495
8.702 10.896 9.692
8.209 12.245 12.207
8.058 12.088 11.915
7.950 11.544 11.543
8.042 11.581 10.814
8.379 11.292 10.185
8.144 10.985 9.779
7.520 11.994 11.973
7.675 11.759 11.473
7.453 11.472 10.925
7.532 11.080 10.233
7.685 10.994 9.722
6.944 11.596 11.218
7.159 11.393 10.850
7.271 10.932 10.364
7.147 10.597 9.677
6.680 11.323 10.663
6.660 10.809 10.284
5.159 11.729 10.878
5.237 11.497 10.441
5.316 11.351 9.954
5.513 10.760 9.393
4.733 11.798 11.343
4.717 11.610 11.174
4.589 11.515 10.294
4.857 10.955 10.058
4.997 10.849 9.432
4.113 12.095 12.005
4.010 11.560 11.585
4.164 11.674 11.016
4.377 11.054 10.269
4.258 11.127 10.101
4.384 10.581 9.590
3.579 11.960 11.839
3.599 11.846 11.457
3.631 11.206 10.804
3.496 11.093 10.588
3.823 10.861 9.949
3.743 10.759 9.570
2.836 11.986 11.896
3.090 11.696 11.620
3.065 11.466 11.086
3.023 10.922 10.419
3.046 10.861 9.938
3.329 10.413 9.563
2.377 11.713 12.068
2.399 11.353 11.586
2.279 11.234 10.768
2.577 10.896 10.337
2.595 10.689 9.871
2.636 10.247 9.347
1.923 11.193 11.440
1.900 11.091 10.822
1.761 10.743 10.498
2.044 10.643 9.900
2.257 10.418 9.156
1.125 11.157 10.856
1.311 10.629 10.158
1.541 10.515 9.827
1.385 10.194 9.174
9.600 12.623 11.308
9.984 12.446 10.445
9.678 12.162 10.113
10.112 11.710 9.492
9.167 12.576 11.049
9.256 12.021 10.486
9.425 11.733 10.133
9.557 11.805 9.690
8.454 12.235 10.962
8.673 12.025 10.545
8.571 11.685 10.219
8.775 11.510 9.490
7.842 12.466 11.554
7.905 12.286 10.987
8.155 12.057 10.427
8.338 11.749 10.129
8.210 11.441 9.447
7.531 12.015 11.178
7.629 11.730 10.428
7.727 11.596 9.873
7.573 11.559 9.738
4.792 12.232 10.648
4.690 11.886 10.043
4.654 11.551 9.668
4.977 11.390 9.121
4.047 12.131 11.329
3.852 12.123 10.519
4.279 11.875 10.006
4.078 11.662 9.879
4.265 11.379 9.071
3.546 12.279 11.013
3.559 12.052 10.723
3.616 11.824 9.993
3.595 11.383 9.538
3.776 11.139 9.173
3.023 12.229 11.106
2.832 11.859 10.553
3.132 11.724 10.086
3.042 11.276 9.827
2.926 10.852 8.983
2.231 11.913 11.114
2.289 11.870 10.535
2.415 11.614 9.939
2.551 11.132 9.720
2.656 11.104 9.088
1.823 11.648 10.803
2.013 11.358 9.931
1.756 11.103 9.744
1.786 10.900 9.213
9.937 12.365 9.863
9.733 12.300 9.515
9.040 12.400 9.777
9.363 12.240 9.153
8.780 12.507 9.905
8.889 12.027 9.263
8.179 12.591 10.337
8.052 12.404 9.638
8.075 12.073 9.344
4.112 12.305 10.389
4.175 12.426 9.775
3.960 11.931 9.599
4.009 11.864 8.795
3.506 12.236 10.599
3.579 12.254 9.916
3.482 11.939 9.297
3.481 11.637 9.029
2.878 12.436 10.523
2.887 11.851 9.885
3.084 11.768 9.430
2.981 11.356 8.715
2.232 12.196 10.465
2.315 12.004 10.018
2.567 11.516 9.404
2.616 11.388 9.017
3.838 12.711 9.163
3.410 12.555 9.267
3.567 12.320 8.733
2.758 12.368 9.479
2.939 12.223 9.069
3.031 12.167 8.806
2.333 12.281 9.759
2.201 12.130 9.234
3.019 12.648 8.226
2.290 12.277 8.336
4.924 7.362 12.428
4.895 7.113 11.840
4.488 7.215 12.429
4.232 6.684 12.137
4.220 6.590 11.303
3.681 6.916 12.593
3.751 6.722 11.804
3.820 6.319 11.413
3.142 6.791 12.440
3.174 6.585 11.919
10.464 8.093 12.310
10.660 7.655 11.852
10.128 7.922 12.017
10.225 7.741 11.712
9.559 7.682 11.977
5.528 4.384 6.972
5.786 4.287 6.523
6.102 1.573 1.126
6.204 1.669 0.584
4.944 4.538 7.431
5.145 4.435 6.852
4.994 4.319 6.282
4.919 4.007 5.857
5.550 1.985 1.606
5.772 1.653 1.242
5.749 1.307 0.881
5.693 1.013 0.184
4.558 4.452 7.308
4.554 4.148 6.756
4.432 3.949 6.291
4.560 3.665 5.847
4.893 1.952 1.705
5.036 1.573 1.171
5.149 1.229 0.876
5.416 0.925 0.380
3.793 4.261 6.651
3.980 3.906 6.410
4.690 1.572 1.156
4.660 1.323 0.877
0.191 0.486 1.245
0.025 0.281 0.679
10.915 5.600 7.718
11.079 5.326 6.917
11.292 5.438 6.522
11.315 5.072 6.154
11.869 2.952 1.850
11.911 2.790 1.326
11.808 2.514 0.807
11.855 2.310 0.362
10.532 5.786 7.588
10.445 5.465 7.038
10.828 5.227 6.716
10.670 4.904 6.037
11.437 3.061 1.857
11.245 2.581 1.436
11.493 2.536 0.867
11.316 2.296 0.309
10.128 5.222 7.126
10.214 5.189 6.403
10.606 2.725 1.328
10.816 2.344 0.873
5.293 5.339 6.979
5.316 5.003 6.472
5.451 4.777 6.205
5.775 4.384 5.562
6.030 2.661 1.335
6.199 2.209 1.134
6.165 1.802 0.343
6.450 1.797 -0.177
4.958 5.313 6.954
4.886 4.740 6.533
5.086 4.743 6.272
4.982 4.538 5.511
5.529 2.255 1.703
5.539 2.019 0.994
5.783 2.071 0.671
4.360 4.878 7.289
4.499 4.943 6.565
4.263 4.521 6.269
4.497 4.277 5.550
5.093 2.356 1.539
5.104 1.994 1.084
5.072 1.914 0.353
3.573 5.062 7.087
3.943 4.714 6.403
4.045 4.401 6.248
3.800 4.303 5.555
4.391 2.201 1.445
4.296 2.004 1.052
4.700 1.610 0.473
0.075 0.717 0.413
11.005 6.430 7.302
10.902 6.155 6.817
11.025 5.748 6.245
11.039 5.429 5.866
11.905 3.394 1.701
11.837 3.140 1.385
11.823 3.016 0.810
11.901 2.631 0.371
10.564 6.263 7.232
10.331 5.991 6.681
10.607 5.827 6.228
10.707 5.268 5.622
11.224 3.437 1.697
11.163 3.355 1.210
11.390 2.844 0.836
11.276 2.697 0.190
10.076 6.183 7.461
9.942 5.650 6.706
10.155 5.517 6.127
10.062 5.118 5.694
10.461 3.445 1.710
10.490 3.059 1.114
10.688 2.865 0.580
10.978 2.621 0.318
6.047 5.964 6.913
6.012 5.576 6.226
5.861 5.157 5.950
6.123 5.113 5.301
6.670 3.248 1.203
6.525 2.876 0.717
6.801 2.507 0.429
5.378 5.877 7.437
5.209 5.709 6.980
5.325 5.542 6.270
5.361 5.380 5.975
5.336 4.866 5.543
5.684 4.749 4.762
5.812 3.370 1.632
6.149 3.133 1.241
5.887 2.901 0.854
6.202 2.361 0.185
4.703 7.386 10.403
4.726 5.765 7.461
4.844 5.532 6.987
4.704 5.475 6.160
4.765 5.273 6.025
5.009 4.704 5.280
4.997 4.725 4.732
5.328 3.323 1.863
5.463 3.091 1.208
5.673 2.742 0.616
5.598 2.396 0.196
4.304 7.567 10.286
3.998 5.830 7.263
4.276 5.429 6.863
4.332 5.480 6.272
4.231 5.231 5.855
4.261 4.697 5.478
4.365 4.542 4.788
4.838 3.019 1.909
4.939 2.674 1.297
5.056 2.536 0.763
4.840 2.158 0.223
3.740 7.148 10.459
3.612 5.486 7.337
3.655 5.406 6.865
3.833 5.060 6.195
3.764 4.789 5.835
3.918 4.624 5.345
4.019 4.307 4.640
4.285 3.047 1.812
4.506 2.643 1.323
4.257 2.396 0.743
4.279 2.169 0.363
3.029 7.180 10.496
3.091 5.325 6.937
3.138 4.964 6.363
3.273 4.878 5.754
3.073 4.553 5.182
3.714 2.427 1.353
3.901 2.475 0.495
3.768 2.005 0.073
0.418 1.802 1.161
0.606 1.779 0.705
0.366 1.463 -0.011
11.034 6.867 7.666
11.093 6.712 7.019
10.817 6.396 6.389
11.242 6.361 6.116
11.050 6.073 5.471
11.095 5.735 5.215
11.523 4.377 2.146
11.797 3.983 1.663
11.793 3.925 1.123
11.942 3.678 0.403
10.592 8.501 10.683
10.296 6.897 7.694
10.458 6.474 6.869
10.566 6.590 6.570
10.509 6.253 5.901
10.757 5.848 5.584
10.633 5.661 5.199
11.034 4.155 2.033
11.262 3.891 1.528
11.211 3.781 0.997
11.079 3.460 0.253
9.840 8.270 10.518
9.856 6.740 7.396
9.821 6.462 6.929
9.894 6.158 6.404
10.076 5.948 5.951
9.999 5.941 5.439
10.120 5.368 5.145
10.421 4.140 2.116
10.552 3.701 1.270
10.666 3.667 0.837
10.783 3.291 0.220
9.523 8.490 10.636
9.317 6.295 6.994
9.360 6.363 6.492
9.475 5.980 5.964
9.366 5.587 5.651
9.787 3.615 1.321
9.956 3.596 0.958
10.184 3.196 0.440
6.427 6.535 6.530
6.241 6.261 6.087
6.630 6.048 5.674
6.584 5.692 5.276
7.200 3.681 1.087
7.268 3.591 0.549
7.231 3.148 -0.097
5.640 6.578 7.258
5.949 6.178 6.477
6.008 5.931 5.989
5.757 5.705 5.694
6.182 5.570 5.126
5.856 5.304 4.668
6.469 3.667 1.599
6.527 3.649 0.862
6.630 3.369 0.530
6.630 3.105 0.107
5.369 8.195 10.414
5.117 6.784 7.714
5.089 6.555 7.175
5.242 6.385 6.749
5.416 5.987 5.981
5.396 5.917 5.416
5.295 5.359 5.214
5.424 5.110 4.483
5.457 5.018 4.159
5.710 3.913 1.979
5.950 3.879 1.461
5.773 3.374 0.898
5.848 3.156 0.588
4.931 7.967 10.352
4.762 7.779 9.783
4.672 6.801 7.798
4.656 6.191 7.290
4.564 6.052 6.474
4.795 5.921 6.186
4.652 5.645 5.782
4.859 5.262 4.896
4.845 5.107 4.564
5.083 4.846 3.872
5.174 4.083 2.058
5.352 3.641 1.476
5.478 3.269 0.990
5.636 3.069 0.361
4.064 7.914 10.364
4.359 7.556 9.654
4.108 6.462 7.415
4.210 6.438 7.063
4.202 5.989 6.472
4.189 5.885 6.054
4.368 5.701 5.625
4.229 5.241 5.155
4.288 5.141 4.466
4.436 4.883 3.906
4.821 3.616 1.802
4.862 3.629 1.468
4.693 3.266 0.927
4.822 3.234 0.582
3.543 7.692 10.347
3.662 7.443 9.833
3.239 6.257 7.694
3.502 6.214 7.163
3.719 5.736 6.413
3.611 5.660 6.185
3.702 5.235 5.353
3.793 5.001 4.930
3.933 5.095 4.564
3.683 4.729 3.886
4.159 3.776 1.853
4.143 3.462 1.564
4.320 3.049 1.114
4.399 3.022 0.464
3.006 7.604 10.140
3.206 7.611 9.632
2.777 5.976 7.144
2.920 5.755 6.423
3.172 5.459 6.078
3.204 5.241 5.594
3.034 5.009 5.062
3.291 4.759 4.384
3.450 3.526 1.330
3.862 3.171 0.790
3.815 2.806 0.498
2.486 7.677 10.061
2.293 5.871 6.549
2.365 5.546 6.171
2.374 5.039 5.578
2.628 5.089 5.030
3.059 2.924 1.036
3.073 2.880 0.378
0.155 5.190 6.610
0.418 5.069 6.128
0.158 4.861 5.364
0.396 4.750 5.117
0.924 2.525 0.656
0.743 2.505 0.242
0.113 2.527 1.138
0.493 2.467 0.845
0.379 2.271 0.418
10.582 7.963 8.044
10.754 7.623 7.515
10.736 7.096 6.624
11.050 6.985 6.207
10.918 6.630 5.998
11.230 6.538 5.342
11.211 6.458 4.620
11.206 6.216 4.153
11.453 4.857 2.431
11.617 4.959 1.770
11.443 4.493 1.014
11.512 4.401 0.709
11.581 3.855 -0.000
10.233 9.048 10.289
10.301 8.660 9.919
10.054 7.671 7.718
10.149 7.286 7.121
10.325 7.117 6.760
10.466 6.773 6.318
10.459 6.747 5.982
10.497 6.604 5.471
10.397 5.973 4.865
10.598 5.763 4.349
11.052 4.988 2.231
10.940 4.873 1.682
10.992 4.406 1.035
11.247 3.996 0.786
11.186 3.913 0.268
9.758 8.871 10.176
9.731 8.680 10.033
9.403 7.578 7.922
9.487 7.173 7.097
9.673 7.116 6.586
9.625 6.744 6.174
9.976 6.638 5.615
10.110 6.130 5.068
10.159 5.886 4.560
10.095 5.974 4.148
10.155 4.732 2.148
10.500 4.587 1.571
10.577 4.175 0.989
10.539 4.192 0.601
10.556 3.764 0.025
9.138 8.797 10.428
9.174 8.745 9.892
9.167 7.177 7.115
9.101 7.143 6.587
9.146 6.549 6.182
9.190 6.298 5.840
9.233 6.396 5.378
9.529 6.155 4.816
9.908 4.435 1.484
9.891 4.334 0.978
9.734 3.856 0.485
10.163 3.894 0.225
8.527 8.530 10.267
8.772 6.986 6.881
8.568 6.425 6.083
8.791 6.494 5.695
8.860 6.140 5.161
9.447 4.120 1.291
9.216 3.828 0.730
9.434 3.473 0.153
7.530 6.961 6.061
7.500 6.599 5.230
8.099 4.329 0.421
6.686 7.184 6.249
6.715 6.870 5.952
7.107 6.495 5.574
7.116 6.450 4.789
7.724 4.150 0.957
7.679 4.168 0.287
6.286 7.144 6.963
6.330 6.767 6.314
6.446 6.726 5.780
6.350 6.448 5.480
6.575 6.329 5.052
6.338 5.885 4.292
6.979 4.541 1.233
7.051 4.165 0.937
7.238 4.067 0.178
5.934 8.816 9.911
5.546 7.494 7.526
5.684 7.276 6.954
5.907 6.678 6.565
5.745 6.410 5.807
5.829 6.263 5.349
5.906 5.924 4.930
6.168 5.963 4.363
6.017 5.764 3.850
6.217 4.607 1.989
6.251 4.519 1.368
6.300 4.071 0.715
6.577 3.839 0.283
5.412 8.568 9.980
5.497 8.489 9.342
4.920 7.619 7.948
4.829 7.164 7.430
5.206 7.115 6.714
5.158 6.898 6.325
5.374 6.600 5.823
5.131 6.076 5.398
5.205 6.062 4.835
5.564 5.934 4.415
5.551 5.529 3.622
5.630 5.086 3.420
5.544 4.905 2.109
5.623 4.343 1.597
5.956 4.162 1.449
5.959 3.850 0.689
5.820 3.670 0.077
4.699 8.421 9.865
4.842 8.419 9.631
4.920 8.114 8.829
4.267 7.505 8.487
4.569 7.283 7.825
4.582 6.943 7.432
4.475 7.060 6.930
4.597 6.454 6.392
4.532 6.279 5.802
4.645 5.957 5.296
4.762 5.795 4.801
4.753 5.692 4.389
4.909 5.400 3.929
4.823 5.337 3.206
4.983 5.043 2.877
5.172 4.814 2.318
5.230 4.301 1.802
5.285 4.060 1.276
5.339 3.804 0.590
5.542 3.571 0.396
3.951 8.203 10.003
4.301 8.036 9.435
4.349 7.924 8.782
4.380 7.515 8.352
3.683 7.723 8.250
3.867 7.473 8.035
3.987 7.135 7.302
4.081 6.705 6.936
3.932 6.617 6.271
4.202 6.101 5.684
4.186 6.216 5.199
4.024 5.849 4.834
4.444 5.532 4.178
4.386 5.259 3.766
4.283 4.930 3.084
4.282 4.715 2.580
4.412 4.433 2.150
4.500 4.310 1.751
4.497 4.126 1.129
4.552 3.885 0.915
4.698 3.458 0.089
3.754 8.101 10.099
3.664 7.987 9.343
3.571 7.630 9.007
3.962 7.454 8.183
3.336 7.208 7.803
3.403 6.995 7.385
3.213 6.788 6.690
3.272 6.279 6.366
3.368 6.014 5.918
3.448 5.772 5.458
3.541 5.719 4.675
3.687 5.320 4.084
3.963 5.277 3.838
3.947 5.134 3.419
3.920 4.434 2.362
4.033 4.321 1.661
4.123 4.126 1.014
4.251 3.506 0.647
4.232 3.301 0.205
3.048 8.045 9.984
2.923 7.827 9.425
3.114 7.525 9.010
2.631 6.969 7.203
2.916 6.699 6.898
2.885 6.263 6.252
2.917 5.906 5.864
3.155 5.939 5.379
3.128 5.604 4.568
3.246 5.343 4.424
3.089 5.274 3.931
3.462 4.040 1.659
3.378 3.706 0.995
3.410 3.719 0.730
3.824 3.374 0.037
2.562 8.200 9.737
2.628 7.858 9.488
2.199 6.300 6.632
2.268 6.330 6.442
2.293 5.920 5.701
2.440 5.906 5.244
2.448 5.300 4.846
2.506 5.281 4.329
3.047 3.933 1.060
3.113 3.326 0.607
3.198 3.375 0.270
1.988 8.015 9.998
1.626 6.116 6.318
1.984 5.936 5.792
1.930 5.670 5.410
1.817 5.560 4.629
2.634 3.251 0.796
2.346 2.957 -0.004
1.137 5.660 5.748
1.158 5.358 5.083
2.101 3.127 0.027
0.831 5.910 6.227
0.579 5.513 5.570
0.738 5.596 5.364
0.867 5.230 4.567
1.535 3.285 0.573
1.453 2.972 0.191
0.113 6.051 6.783
0.057 5.895 6.342
0.155 5.385 5.827
0.189 5.385 5.177
0.397 5.110 4.784
0.293 4.771 4.063
0.917 3.305 1.074
0.849 3.053 0.643
0.937 2.957 0.051
0.018 3.272 1.552
0.273 3.329 1.098
0.294 2.810 0.577
0.361 2.804 0.005
10.376 8.578 8.538
10.463 8.319 8.282
10.661 8.380 7.503
10.647 8.160 6.984
10.615 7.889 6.542
10.927 7.413 6.055
11.063 7.307 5.472
10.787 7.007 4.906
10.828 6.798 4.520
11.159 6.434 3.857
11.246 6.099 3.560
11.391 6.206 3.108
11.175 5.864 2.683
11.197 5.715 2.045
11.499 5.149 1.355
11.633 5.084 1.120
11.591 4.898 0.462
10.243 9.677 10.073
