12.808 6.464 11.993
12.179 6.274 11.681
12.173 6.521 11.506
12.276 6.255 11.328
11.295 6.359 12.496
11.509 6.642 12.216
12.389 7.176 11.983
12.264 7.712 11.994
11.820 6.403 11.458
12.117 6.999 11.690
12.293 7.287 11.213
12.139 6.470 10.712
12.221 8.221 12.488
11.095 6.494 12.576
11.396 7.150 12.072
11.847 7.436 12.041
12.230 7.993 11.980
12.310 8.029 11.468
10.627 6.460 12.124
11.444 6.922 11.683
11.638 7.052 11.646
11.941 7.739 11.487
12.464 8.184 10.870
10.905 6.601 10.820
11.460 7.364 10.732
11.958 7.623 10.702
11.197 8.175 12.206
11.708 8.492 12.337
12.215 9.033 12.378
12.618 9.510 12.047
10.077 7.062 12.517
10.500 7.017 12.540
10.908 7.461 12.025
10.981 8.225 11.904
11.605 8.357 12.019
11.821 8.454 11.376
12.707 9.390 11.300
9.939 6.340 12.219
10.292 7.243 11.828
10.739 7.134 11.816
10.988 7.831 11.363
11.472 8.063 11.418
12.068 8.525 10.879
12.367 8.727 11.041
10.123 6.503 11.244
10.391 7.442 10.995
11.183 7.276 10.631
11.331 7.680 10.800
11.814 8.455 10.650
7.627 4.691 12.659
10.791 6.959 10.629
11.092 7.206 9.970
11.675 7.566 9.955
6.708 3.261 12.733
6.769 3.219 12.419
7.575 3.704 12.002
11.552 9.479 12.648
12.072 9.957 12.623
10.849 8.563 12.456
11.472 9.081 12.014
11.711 9.357 12.044
11.849 9.558 11.743
12.764 9.925 11.373
9.394 7.295 12.348
10.086 7.854 12.157
10.518 7.842 12.165
10.653 8.636 12.134
11.327 8.593 11.527
11.546 9.210 11.341
12.040 9.665 11.001
12.473 10.125 11.212
9.356 6.830 12.213
9.369 6.952 11.932
9.928 7.263 11.952
10.087 7.691 11.632
10.608 7.909 11.386
11.388 8.486 11.226
11.250 8.702 10.677
11.684 9.569 10.870
12.541 9.512 10.218
8.182 5.717 12.693
9.527 6.862 11.420
9.926 7.371 11.134
10.420 7.792 10.797
10.664 8.236 11.027
11.153 8.452 10.681
11.427 8.523 10.613
11.898 9.235 10.204
7.135 4.434 12.564
7.366 5.099 12.541
7.855 5.419 11.948
9.887 6.793 10.755
9.923 7.565 10.240
10.806 7.834 10.273
10.671 7.982 9.917
11.369 8.759 9.891
6.264 3.231 12.489
6.565 3.901 12.031
7.096 4.055 12.261
7.000 4.586 11.592
9.946 7.076 9.864
10.358 7.322 9.350
11.012 7.959 9.186
5.761 3.172 12.113
6.462 3.559 11.754
6.503 4.286 11.159
11.331 9.764 12.512
11.855 10.491 12.057
12.162 10.507 12.050
9.801 8.505 12.688
10.454 8.808 12.282
10.654 9.409 11.843
11.209 9.640 12.087
11.672 9.864 11.985
12.081 10.344 11.301
12.694 10.635 11.553
9.050 7.298 12.232
9.297 7.804 12.145
10.242 8.531 12.065
10.300 8.623 11.917
10.633 9.333 11.612
11.143 9.278 11.546
11.606 9.811 11.008
11.802 10.046 10.904
12.400 10.985 10.943
8.478 6.669 12.218
8.649 7.003 12.270
8.832 7.316 11.622
9.230 7.619 11.357
9.815 8.138 11.696
10.491 8.786 11.305
10.819 8.810 11.163
10.848 9.430 11.100
11.470 9.988 10.862
12.207 10.363 10.639
12.596 10.514 10.157
7.609 6.253 12.297
8.015 6.711 12.384
8.635 7.032 11.236
9.057 6.939 10.967
9.356 7.353 11.036
9.717 8.028 10.898
9.947 8.581 10.900
10.430 8.838 10.618
11.131 8.914 10.263
11.373 9.551 9.776
11.709 9.900 9.654
6.616 4.658 12.346
7.025 5.126 12.201
7.122 5.914 11.789
7.569 6.276 11.571
9.591 7.275 10.433
9.522 7.649 10.055
10.415 8.311 9.797
10.480 8.695 9.949
11.066 9.222 9.412
11.355 9.159 9.410
5.405 3.252 12.742
5.525 3.761 12.264
6.305 4.407 11.984
6.427 4.833 11.794
6.661 5.060 11.615
9.078 7.284 10.204
9.846 7.631 9.673
9.930 7.966 9.582
10.427 8.165 9.214
10.910 8.637 9.341
4.978 3.528 11.847
5.436 3.994 11.451
5.870 4.238 11.408
6.444 4.405 11.550
6.848 5.147 10.977
11.624 11.188 12.627
11.192 10.493 12.529
11.109 10.587 11.946
12.038 11.110 11.979
11.881 11.472 11.934
9.627 9.106 12.367
9.893 9.382 12.427
10.426 9.877 12.181
11.002 10.083 11.895
11.035 10.740 11.868
11.930 10.811 11.726
12.351 11.314 11.212
12.247 11.409 11.245
8.391 7.523 12.645
8.945 8.240 12.402
9.046 8.416 12.216
9.703 9.076 11.805
9.954 9.012 11.756
10.296 9.310 11.431
10.795 9.701 11.210
11.015 10.621 10.984
11.343 10.948 11.163
12.183 11.120 10.442
12.448 11.500 10.393
7.726 7.234 11.873
8.165 7.716 11.887
8.422 7.746 11.991
9.141 8.442 11.785
9.723 8.860 11.250
9.790 9.086 10.999
10.038 9.449 11.063
10.606 9.964 10.486
11.253 9.847 10.706
11.618 10.391 10.528
11.867 10.871 10.421
12.366 11.209 10.197
7.054 6.506 12.269
7.439 6.911 12.596
7.936 7.074 12.270
8.158 7.026 11.305
8.372 7.371 11.175
8.926 8.028 11.015
9.521 8.654 10.717
10.039 8.646 10.671
10.194 8.986 10.595
10.357 9.545 10.086
11.008 9.861 9.918
11.135 10.558 10.024
12.082 10.546 9.761
12.456 11.362 9.294
6.216 5.446 12.388
6.804 5.462 12.235
6.637 6.032 11.838
7.392 6.453 11.898
8.499 7.382 10.770
8.606 7.553 10.393
9.013 8.479 10.181
9.484 8.444 10.166
10.060 9.234 9.980
10.305 9.096 9.599
11.037 9.819 9.494
4.598 3.924 12.401
5.285 4.480 12.316
5.745 4.937 11.841
6.283 5.230 11.571
6.267 5.667 11.882
6.722 5.949 11.525
8.740 7.475 9.715
9.008 7.725 9.634
9.852 8.555 9.442
10.043 9.049 9.423
10.584 8.878 8.821
4.701 3.469 11.926
5.106 4.344 11.505
5.544 4.372 11.180
6.068 5.139 11.350
6.287 5.010 11.213
10.061 10.394 12.401
10.643 10.534 12.313
10.744 10.919 12.336
11.057 11.343 12.096
11.666 11.984 11.996
12.349 12.008 11.305
8.968 9.327 12.531
9.608 9.666 12.377
9.882 9.975 11.939
10.444 10.768 11.890
11.129 10.750 11.754
11.394 11.258 11.487
11.469 11.950 11.228
12.168 12.131 10.695
7.790 7.781 12.162
8.132 8.561 12.416
8.839 8.657 11.960
9.038 8.983 11.664
9.479 9.609 11.387
10.070 10.006 11.179
10.582 10.207 11.203
10.820 10.818 11.047
11.342 11.030 10.827
11.445 11.368 10.901
11.893 11.646 10.453
7.509 7.643 12.163
7.600 8.087 11.834
8.149 7.962 11.831
8.686 8.721 11.543
8.744 9.088 11.103
9.586 9.134 11.092
10.061 9.700 10.721
10.516 10.447 10.609
10.877 10.302 10.198
11.360 10.780 10.057
11.274 11.620 10.149
12.159 11.923 9.565
6.350 6.710 12.165
6.903 7.284 11.990
7.201 7.364 12.059
8.322 8.086 11.074
8.755 8.183 11.144
8.921 8.986 10.686
9.113 9.349 10.303
9.874 9.649 10.119
10.113 9.957 9.870
10.387 10.587 9.967
10.965 10.614 9.663
5.251 5.570 12.729
5.884 5.447 12.534
6.000 5.791 12.326
6.354 6.478 11.916
8.225 8.188 10.190
8.921 8.494 9.911
9.307 9.083 10.139
9.498 9.415 9.529
10.036 9.598 9.694
10.737 10.108 9.383
4.009 3.871 12.318
4.156 4.065 12.226
4.626 4.531 12.039
5.374 5.005 11.855
5.624 5.467 11.807
5.774 6.084 11.776
8.601 8.544 9.595
9.314 8.682 9.176
9.840 9.265 9.279
10.279 9.348 8.932
4.101 4.414 11.965
4.684 4.613 11.492
4.942 5.182 11.434
5.390 5.197 11.003
9.491 11.028 12.148
10.173 11.138 12.114
10.568 11.325 12.152
8.330 9.415 12.548
9.032 9.599 12.068
9.081 10.205 11.899
9.489 10.556 11.791
9.717 11.192 11.602
10.399 11.634 11.235
10.775 11.866 11.536
7.571 8.604 12.509
7.966 8.987 12.257
8.385 9.229 11.728
8.902 9.883 11.886
8.881 9.822 11.358
9.368 10.495 11.473
10.036 10.654 10.948
10.552 11.047 11.150
10.614 11.299 10.697
11.369 12.088 10.400
11.588 12.607 10.195
7.996 8.590 11.860
8.157 9.086 11.273
8.776 9.193 11.018
8.827 9.872 11.018
9.487 10.474 10.886
9.820 10.481 10.655
10.061 11.101 10.287
10.907 11.443 10.106
5.860 7.182 12.542
8.226 8.566 10.867
8.515 9.461 10.382
9.100 9.683 10.485
9.491 9.684 10.102
9.680 10.080 9.876
10.407 10.494 9.704
4.984 5.991 12.690
5.057 6.295 12.276
5.732 6.320 12.196
8.681 9.040 10.038
9.108 9.323 9.835
9.509 9.556 9.553
9.869 10.265 9.737
3.701 4.455 12.348
4.207 4.976 11.773
4.605 5.633 11.570
5.264 6.099 11.731
8.577 9.218 9.367
9.103 9.448 9.358
4.225 4.863 11.360
4.709 5.357 11.512
8.823 10.988 12.579
9.357 11.176 12.641
9.697 11.562 12.002
7.728 10.104 12.431
8.574 10.460 12.249
8.692 10.799 12.027
9.096 11.227 11.895
9.551 11.169 11.866
10.137 11.788 11.397
7.553 9.375 12.041
7.809 9.460 11.609
8.402 10.117 11.556
8.542 10.653 11.693
8.784 10.718 11.245
9.359 10.882 10.872
9.984 11.492 11.123
8.021 9.185 11.437
8.285 9.935 11.138
8.672 10.179 10.998
8.812 10.693 10.462
9.545 10.942 10.413
9.532 11.304 10.049
5.361 7.127 12.337
8.197 9.834 10.616
8.513 10.007 10.386
8.680 10.494 10.188
9.076 10.916 10.147
3.727 5.738 12.279
4.329 5.844 12.105
4.673 6.779 11.955
8.289 10.069 9.771
4.291 5.698 11.922
8.523 11.066 12.460
8.786 11.390 12.104
7.430 10.384 12.154
7.622 10.510 12.268
8.586 10.737 11.637
8.769 11.498 11.932
9.063 12.056 11.598
7.196 10.281 11.696
7.856 10.654 11.599
8.113 10.572 11.205
8.764 11.327 11.425
9.123 11.680 11.080
7.705 10.272 10.927
8.112 10.847 11.057
8.769 10.936 10.883
9.085 11.458 10.236
8.130 10.285 10.353
8.754 11.099 10.119
3.811 6.044 12.187
3.903 6.796 12.143
12.215 12.289 10.541
12.539 12.330 10.057
12.320 11.929 9.396
12.179 12.059 8.801
12.628 12.229 8.186
11.925 12.781 9.490
7.685 11.574 12.442
8.527 12.246 12.352
7.297 11.251 11.986
8.176 11.564 11.783
8.255 11.559 11.835
8.879 12.328 11.426
7.291 10.741 11.440
7.875 11.010 11.325
8.207 11.475 11.184
8.678 11.975 10.775
7.600 10.341 10.884
7.825 10.863 10.893
8.419 11.303 10.704
3.751 7.270 12.649
7.201 11.363 12.431
7.659 12.001 12.172
8.257 12.320 11.986
6.831 10.926 12.164
7.113 11.643 12.161
7.697 11.554 11.929
8.164 12.195 11.728
6.436 10.676 11.719
7.148 11.135 11.646
7.358 11.739 10.973
7.540 12.213 11.042
8.066 12.627 10.520
7.158 11.291 10.989
7.317 11.660 10.395
7.638 11.579 10.685
8.390 12.457 10.204
3.344 7.678 12.300
7.251 11.075 10.356
7.586 11.621 9.617
2.501 6.848 12.384
3.034 7.622 12.181
6.947 12.203 12.318
7.037 12.257 12.271
6.291 11.731 11.938
6.567 12.024 11.805
6.821 12.360 11.509
5.564 10.718 11.719
6.054 11.410 11.788
6.629 11.930 11.301
6.722 11.995 11.283
7.658 12.497 11.114
4.218 9.090 12.287
6.279 11.265 11.076
6.437 11.244 10.654
6.834 11.824 10.750
7.475 12.144 10.125
3.289 8.265 12.343
3.691 8.879 11.946
6.216 11.056 10.443
6.563 11.837 9.834
6.935 12.250 10.071
7.568 12.272 9.808
1.822 7.246 12.287
2.377 7.669 12.164
2.739 7.833 11.981
3.295 8.386 11.773
6.687 11.351 9.645
2.647 7.595 11.665
5.976 11.836 12.429
6.355 12.719 12.111
5.185 10.937 12.419
5.378 11.207 12.365
5.928 11.576 12.292
6.466 12.434 11.613
5.164 11.116 11.735
5.456 11.201 11.679
5.517 11.385 11.712
5.925 11.872 11.473
6.391 12.165 11.102
3.488 9.699 12.432
3.916 10.312 12.206
5.163 11.359 11.026
5.671 11.487 10.667
5.787 12.109 10.548
6.287 12.020 10.415
2.431 8.083 12.312
2.613 8.816 12.578
3.308 9.164 12.070
3.388 9.391 11.655
5.504 11.358 10.119
5.681 11.762 10.390
6.585 11.896 9.992
6.652 12.703 9.922
1.211 7.019 12.809
1.241 7.665 12.558
1.685 7.521 12.322
2.365 8.309 12.088
2.557 8.558 11.498
3.318 9.223 11.585
5.930 11.504 9.528
6.376 11.776 9.511
6.464 12.085 8.899
1.081 6.945 11.656
1.872 7.823 11.662
1.966 7.859 11.565
2.561 8.513 11.334
5.917 11.738 8.718
6.411 12.082 8.418
1.428 7.093 10.859
1.841 7.833 10.680
5.347 12.463 12.213
3.906 10.821 12.720
4.776 11.409 12.482
5.040 11.815 12.362
5.550 12.571 11.967
4.072 10.880 12.702
4.165 11.099 11.993
4.291 11.528 11.624
5.112 11.609 11.856
5.188 12.327 11.331
5.928 12.665 11.137
3.110 10.245 12.535
3.711 10.255 12.379
4.187 10.799 11.770
4.120 10.608 11.497
4.268 10.865 11.126
4.805 11.329 10.780
5.181 11.803 10.846
5.347 12.565 10.591
2.103 8.770 12.527
2.075 9.049 12.247
2.449 9.700 12.132
3.329 9.785 12.041
3.569 10.038 11.724
4.261 10.695 11.117
4.580 11.349 10.692
5.368 11.659 10.143
5.669 11.963 9.860
6.020 12.339 10.107
0.528 7.516 12.230
0.828 7.702 12.448
1.265 8.204 11.845
1.819 8.466 11.976
2.397 9.201 11.392
2.838 9.652 11.622
3.018 9.635 11.204
5.059 11.744 9.939
5.279 12.008 9.755
5.844 12.085 9.026
0.503 7.094 12.169
1.204 7.592 11.423
1.580 8.128 11.767
1.648 8.495 11.464
2.226 8.699 11.144
2.469 9.131 11.059
5.352 11.532 8.913
5.908 12.191 8.987
6.299 12.236 8.770
0.771 7.391 11.043
1.350 7.990 10.778
1.739 8.232 10.912
1.792 8.521 10.300
3.480 11.260 12.293
4.195 11.995 12.346
4.356 12.084 11.815
3.593 11.513 12.179
3.866 11.605 12.135
4.269 11.957 11.556
4.629 12.313 11.511
4.788 12.252 11.501
2.424 10.296 12.345
2.708 10.431 12.337
3.458 10.703 11.929
3.456 11.374 12.156
3.388 11.403 11.394
4.004 11.606 10.913
4.257 12.035 10.738
4.931 12.000 10.903
0.945 8.658 12.673
1.229 9.394 12.126
1.736 9.778 12.035
2.588 10.218 11.873
2.751 10.179 11.693
3.035 10.776 11.519
3.795 11.308 11.504
4.149 11.182 10.597
4.071 11.547 10.655
4.931 12.214 10.204
5.203 12.364 10.093
0.323 7.957 12.296
0.349 8.501 12.043
0.849 8.403 12.039
1.702 9.231 11.671
1.518 9.272 11.669
2.404 9.479 11.636
2.675 10.094 11.053
3.010 10.554 10.910
4.204 11.325 9.667
4.821 11.918 9.328
5.180 12.460 9.589
0.019 7.406 12.004
0.783 7.903 11.781
0.900 8.377 11.308
1.448 8.799 11.496
1.628 9.372 10.821
2.326 9.739 11.049
2.750 9.944 10.490
4.539 11.605 9.124
4.922 12.032 9.092
5.191 12.426 8.803
0.491 7.846 11.236
0.882 8.326 11.124
1.362 8.347 10.595
1.481 8.926 10.746
1.879 9.235 9.962
2.981 12.125 12.137
3.434 12.554 11.942
2.789 11.448 12.607
3.504 11.808 12.386
3.355 11.544 11.809
3.310 11.897 11.755
4.135 12.585 11.483
2.005 10.300 12.301
2.109 10.901 12.069
2.582 11.205 11.746
3.222 11.772 11.566
3.199 11.641 11.300
3.354 12.120 10.756
4.048 12.209 10.661
0.651 9.346 12.344
1.001 9.517 11.996
1.307 9.767 11.866
1.669 10.512 11.848
2.048 10.988 11.833
2.927 11.293 11.248
2.884 11.523 11.158
3.655 11.755 10.743
3.624 12.148 9.994
4.242 12.591 9.973
0.119 8.499 12.023
0.808 9.063 12.019
1.084 9.630 11.617
1.348 9.633 11.293
1.625 10.407 11.572
2.100 10.741 11.345
2.871 11.018 10.736
4.428 12.215 9.248
0.230 8.297 11.610
0.692 8.769 11.506
0.803 9.195 10.901
1.579 9.589 11.028
1.713 9.768 10.943
4.030 11.894 9.191
4.588 12.770 8.684
0.153 8.674 10.558
0.967 8.792 10.280
1.220 9.242 10.510
1.744 9.695 10.134
2.978 12.088 12.240
2.351 11.993 12.353
3.065 12.215 12.560
2.897 12.129 11.784
3.038 12.293 11.823
0.871 10.420 12.632
1.762 10.881 12.584
1.936 11.611 12.423
2.354 11.799 11.740
2.489 11.918 11.764
3.304 12.068 10.708
-0.060 9.739 12.480
0.924 10.266 12.131
1.230 10.600 11.926
1.418 10.704 11.479
2.051 11.386 11.355
2.129 11.572 11.465
3.432 12.492 10.280
0.377 9.638 11.591
0.555 9.736 11.788
1.041 10.151 11.556
1.484 10.451 10.980
1.663 11.213 10.901
0.124 9.183 11.480
0.368 9.828 11.321
0.632 9.931 10.976
1.428 10.266 10.909
0.319 9.133 10.713
1.082 9.567 10.354
0.561 11.111 12.437
1.263 11.671 12.300
1.709 11.719 12.161
0.004 10.128 12.329
0.544 11.028 11.866
1.085 11.125 11.553
1.544 11.806 11.471
0.262 10.307 11.560
0.378 10.898 11.248
0.770 10.888 11.120
0.162 9.829 11.111
0.395 10.709 11.009
0.254 11.206 12.405
0.642 11.953 12.198
0.094 11.496 11.983
0.847 11.559 11.666
-0.061 11.312 11.455
0.282 12.196 11.840
8.017 11.885 12.342
8.290 11.820 12.143
7.698 10.915 11.981
8.026 11.128 12.094
8.167 11.920 11.689
8.740 12.103 11.740
7.586 10.948 11.784
7.905 11.215 11.219
8.128 11.858 11.306
8.837 12.065 10.657
7.394 10.635 10.907
7.971 10.954 10.468
8.105 11.699 10.422
4.262 7.515 12.405
3.670 0.128 9.798
3.754 0.590 9.938
3.369 0.338 9.562
3.838 0.350 9.155
3.751 0.489 8.782
2.005 0.368 12.127
2.297 0.607 11.429
2.134 0.365 11.121
2.889 0.616 10.416
2.658 0.102 10.217
2.967 0.624 9.742
3.352 1.308 9.999
2.456 0.218 9.565
3.198 0.537 9.215
3.112 0.920 9.070
2.859 0.271 9.113
3.155 0.986 8.769
2.554 -0.097 8.360
3.179 0.634 7.979
1.557 0.505 12.291
1.456 0.485 12.062
1.244 0.020 11.654
1.821 0.586 11.507
2.257 0.540 11.223
1.515 0.372 11.296
1.887 0.751 10.533
2.565 0.866 10.464
2.637 1.180 10.594
3.197 1.783 10.181
1.385 -0.214 10.616
2.103 0.347 10.042
2.135 0.949 10.317
2.814 1.299 10.061
2.990 1.584 9.899
1.786 0.492 9.577
2.145 0.408 9.799
2.852 1.070 9.290
3.097 1.137 8.988
1.543 0.232 9.342
2.179 0.658 8.998
2.192 0.838 8.746
2.688 1.193 8.739
1.859 0.139 8.509
2.219 0.656 7.904
2.945 1.197 8.070
0.178 0.196 12.705
0.582 0.835 12.373
1.380 0.734 12.111
0.423 -0.254 12.049
0.862 0.387 11.966
1.095 1.097 11.625
1.361 1.448 11.252
0.521 0.417 11.170
0.898 0.747 10.721
1.332 0.833 10.464
1.605 1.580 10.732
0.451 0.173 10.412
1.167 0.477 10.244
1.318 0.923 10.044
1.695 1.403 10.085
2.271 1.618 9.601
2.372 2.213 9.309
0.610 0.122 9.702
1.046 0.743 9.700
1.482 0.766 9.643
2.377 1.366 9.167
2.305 1.916 9.128
0.689 0.020 9.495
0.926 0.334 8.800
1.617 0.642 9.144
2.148 1.238 8.618
2.528 1.735 8.626
1.157 -0.071 8.356
1.649 0.644 8.137
2.140 1.245 8.005
2.240 1.573 7.986
1.256 -0.145 7.921
0.125 0.822 11.935
0.234 0.977 11.675
0.503 0.948 11.565
0.459 0.450 11.297
0.569 1.167 11.058
1.250 1.476 10.902
0.158 0.539 10.485
0.686 0.940 10.573
0.784 1.367 9.987
1.202 1.607 9.623
0.012 0.454 9.842
0.761 0.384 10.043
0.997 1.076 9.451
1.290 1.220 9.174
1.445 1.794 8.869
2.368 2.006 9.030
0.486 0.712 9.000
1.074 0.532 9.265
1.374 1.022 8.713
0.058 0.030 8.475
0.707 0.646 8.496
0.422 -0.069 8.269
1.066 -0.285 2.562
0.324 1.481 10.872
0.025 0.971 10.324
0.769 1.520 9.942
0.290 0.909 9.597
0.234 1.511 9.698
0.630 1.070 8.637
12.576 0.609 8.662
11.619 0.346 8.807
12.459 0.694 8.473
12.087 0.302 8.145
12.278 0.408 8.328
12.001 -0.121 7.533
12.796 0.752 7.223
12.038 0.146 7.391
12.413 0.463 6.658
10.813 0.386 11.461
10.998 0.121 10.825
11.052 0.183 9.968
11.373 0.827 10.035
12.503 1.483 8.678
10.861 0.559 9.364
11.454 0.889 9.017
11.960 0.846 8.315
12.404 1.321 8.168
11.278 0.374 8.663
11.548 0.801 8.480
12.114 0.903 8.705
12.002 0.749 8.126
12.253 1.042 7.550
11.410 0.304 8.145
11.734 0.536 8.153
11.596 0.744 7.438
12.234 1.133 7.365
12.212 1.298 6.880
11.538 0.360 7.637
11.770 0.498 7.689
11.685 0.358 6.883
12.041 0.676 6.574
12.155 1.163 6.620
11.517 0.532 6.749
12.412 0.689 5.869
12.674 0.885 4.018
12.312 0.792 3.241
12.087 0.516 2.863
12.024 0.168 2.298
12.304 0.414 1.426
12.427 0.115 0.978
10.474 0.170 11.371
9.980 -0.037 11.560
10.382 0.381 11.602
10.150 0.499 11.146
10.532 1.069 10.502
10.049 0.219 10.111
10.105 0.541 10.068
11.758 1.783 8.902
12.510 2.269 8.668
10.012 0.179 9.510
10.479 0.934 9.144
11.008 1.327 9.048
11.472 1.169 8.600
11.941 1.750 8.357
12.180 2.267 7.772
10.164 0.193 8.900
10.688 0.767 8.967
10.947 1.231 8.391
11.441 1.408 8.340
11.564 0.935 7.701
11.514 1.581 7.480
12.036 1.960 7.548
12.674 2.097 7.141
10.534 0.364 8.171
10.938 0.926 8.030
11.113 1.253 8.108
11.023 0.911 7.442
11.722 1.516 7.098
12.241 1.795 6.857
12.659 2.395 6.636
10.530 -0.115 8.046
10.552 0.741 7.541
11.188 1.021 7.516
11.134 0.708 6.926
11.835 1.300 6.849
11.724 1.658 6.269
12.419 1.812 6.460
10.950 0.282 6.908
10.891 0.743 6.733
12.005 1.458 5.590
12.433 1.692 5.507
12.033 1.717 5.342
12.363 1.846 4.252
12.215 1.487 3.553
11.753 1.214 3.502
12.520 1.462 3.299
11.504 0.380 2.801
12.093 0.582 2.558
12.561 1.267 2.538
11.133 0.010 2.444
11.602 0.813 2.455
12.477 1.117 2.110
11.447 0.303 1.612
11.993 0.981 1.804
12.804 0.815 1.434
11.732 -0.045 1.185
11.956 0.574 1.071
12.187 0.712 0.837
11.898 0.070 0.477
12.426 0.445 0.177
10.015 0.450 11.865
9.943 0.553 11.295
8.661 0.456 11.664
9.159 0.371 11.644
8.931 0.122 11.088
9.374 0.326 11.133
9.359 0.922 11.133
12.410 3.181 8.873
9.349 0.147 10.403
9.558 0.619 10.529
9.773 0.818 10.068
12.039 2.993 8.621
12.400 3.050 8.445
9.323 -0.044 10.157
9.489 0.224 9.634
9.689 0.734 9.842
10.060 1.427 9.193
11.119 1.921 8.229
11.730 2.398 7.971
12.280 2.663 7.593
9.257 0.043 9.019
9.574 0.807 8.987
9.980 1.131 8.553
10.615 1.233 8.713
10.750 1.666 7.663
11.116 2.023 7.626
11.946 2.489 7.297
12.345 2.716 7.448
12.618 3.200 6.842
9.309 0.094 8.855
9.655 0.375 8.490
9.837 0.768 7.997
10.517 1.219 8.162
10.657 1.605 7.625
10.562 1.523 6.985
11.042 1.966 7.224
11.759 1.864 6.665
12.017 2.399 6.710
12.488 3.054 6.229
9.568 0.035 7.771
9.737 0.576 7.414
10.402 0.934 7.270
10.815 1.287 7.073
11.544 1.748 6.169
11.990 2.378 6.077
12.514 2.648 6.088
10.070 0.205 7.190
11.824 1.920 5.425
12.384 2.290 5.526
12.213 2.150 4.722
12.180 1.900 3.953
12.430 2.693 4.006
12.191 2.014 3.861
12.718 2.607 3.361
12.026 1.933 2.964
12.069 2.081 3.040
11.449 1.078 3.008
11.904 1.510 2.489
12.425 1.935 2.477
11.034 0.776 2.564
11.118 1.086 2.409
11.744 1.085 2.249
12.024 1.689 2.019
10.758 0.471 1.912
11.414 0.460 1.537
11.542 1.052 1.346
12.147 1.514 1.188
12.390 1.921 0.801
10.883 0.230 1.241
11.207 0.372 1.051
11.849 0.664 0.802
11.907 1.391 0.476
12.677 1.818 0.651
10.862 0.550 0.579
11.670 0.447 0.121
11.768 1.015 0.021
8.589 0.284 11.564
9.013 0.762 11.810
12.364 3.849 8.795
8.564 -0.030 10.432
8.560 0.815 10.562
9.127 0.837 10.362
11.737 3.722 8.244
12.431 4.066 8.236
8.382 -0.215 9.946
8.789 0.252 9.946
9.306 0.658 9.459
9.408 1.141 9.574
11.126 3.197 7.997
11.998 3.453 7.615
11.925 3.531 7.721
8.507 -0.027 9.309
9.158 0.542 9.030
9.555 0.711 8.946
9.866 1.532 8.578
11.261 3.033 7.527
11.680 2.834 7.043
12.403 3.617 7.117
12.517 3.761 7.031
8.470 -0.013 8.506
9.055 0.639 8.665
9.076 0.954 8.389
9.923 0.965 8.090
11.147 2.545 6.557
11.363 2.781 6.543
12.019 3.508 6.568
12.535 3.713 6.304
8.840 0.140 7.760
9.386 0.794 7.986
9.530 1.001 7.887
11.254 2.674 5.897
12.089 3.262 5.652
12.152 3.470 5.535
8.621 0.084 7.348
9.021 0.294 7.265
11.818 2.700 5.235
12.156 3.251 5.108
11.929 3.068 4.361
12.228 2.707 2.545
11.487 2.042 2.677
12.120 2.555 2.455
11.957 2.691 1.981
10.650 1.298 1.986
11.415 1.826 1.952
11.806 2.176 1.529
12.058 2.768 1.620
10.727 1.008 1.766
10.848 1.298 1.625
11.254 1.304 1.478
11.904 1.797 0.917
12.315 2.222 1.049
12.470 2.924 0.521
10.373 0.508 1.322
10.679 1.090 1.064
10.963 1.418 0.759
11.412 1.978 0.471
12.289 2.036 0.144
12.240 2.486 0.343
10.175 0.245 0.695
10.926 0.743 0.653
10.851 1.000 0.319
11.370 1.440 -0.037
12.144 4.470 7.762
12.420 4.861 7.549
7.840 0.479 10.204
8.378 0.885 9.889
8.480 1.282 9.362
11.104 3.512 7.845
11.708 4.340 7.536
11.909 4.787 7.026
7.931 0.351 9.470
7.882 0.691 9.392
8.345 1.176 9.226
8.920 1.437 8.896
10.995 3.633 7.050
11.518 3.926 6.588
11.864 4.249 6.416
12.743 4.740 6.359
7.620 0.198 8.890
7.712 0.358 8.530
8.677 1.009 8.296
9.110 1.316 8.224
11.061 3.425 6.462
11.579 3.490 6.423
12.078 4.336 6.354
12.383 4.250 5.974
7.811 0.102 7.864
8.243 0.762 8.130
8.839 1.299 7.536
11.740 3.311 5.869
12.082 4.067 5.457
12.087 4.094 5.108
7.846 0.095 7.767
8.150 0.520 7.206
11.661 3.726 4.823
11.350 2.906 2.336
10.860 1.902 1.611
11.148 2.373 1.515
11.788 2.966 1.594
12.000 3.018 1.321
10.650 1.846 1.636
10.888 2.103 1.544
11.313 2.265 0.898
11.491 2.441 0.620
11.991 2.839 0.615
10.422 1.439 1.123
10.756 1.881 0.480
11.352 1.967 0.285
11.498 2.465 0.238
11.811 2.623 0.170
10.225 1.082 0.122
10.423 1.404 0.328
12.023 4.874 7.875
7.795 1.482 9.661
11.535 4.699 7.594
11.718 5.216 6.938
12.324 5.350 7.089
6.700 0.294 9.640
6.995 0.517 9.103
7.931 1.108 9.020
8.184 1.469 8.997
10.814 4.165 6.806
11.553 4.590 6.928
11.952 4.746 6.866
12.279 5.246 6.280
12.409 5.243 6.169
6.878 0.033 9.257
7.060 0.305 9.059
7.447 0.821 8.808
7.774 1.168 8.436
8.477 1.399 8.477
11.163 3.877 6.259
11.684 4.378 6.155
11.718 4.941 6.068
12.603 5.187 5.796
7.147 0.476 7.965
7.443 0.399 7.966
7.754 1.041 7.714
10.970 3.704 5.442
11.451 4.360 5.274
11.707 4.504 5.263
6.931 0.359 7.865
7.311 0.649 7.413
7.537 1.041 7.267
10.287 2.649 1.561
10.884 3.001 1.344
11.552 3.557 1.067
10.301 2.386 1.006
11.054 2.976 1.210
11.103 3.063 0.569
11.562 3.278 0.482
9.824 1.656 0.783
10.217 1.951 0.542
10.551 2.685 0.175
11.167 3.139 0.424
11.406 3.226 0.106
10.326 2.258 0.382
11.504 5.718 7.677
7.120 1.396 9.558
10.905 4.955 7.079
11.289 5.347 6.819
11.695 5.549 6.958
12.298 6.236 6.469
6.545 0.904 9.560
6.994 1.052 9.534
7.050 1.672 8.879
7.815 2.082 9.132
10.673 4.195 6.708
10.640 4.763 6.431
11.145 5.112 6.220
11.621 5.690 6.362
11.923 5.825 6.382
6.631 0.694 9.024
6.860 1.104 8.697
7.394 1.284 8.670
7.408 1.388 8.041
7.702 1.817 8.074
10.869 4.385 6.423
11.179 5.096 5.896
11.410 5.563 5.543
11.928 5.553 5.501
6.368 0.563 8.104
6.839 0.685 7.973
7.054 1.229 7.971
7.738 1.423 7.848
10.533 4.583 5.739
10.833 4.651 5.628
11.189 5.348 5.120
6.629 0.507 7.696
6.811 1.044 7.689
7.480 1.362 6.990
9.850 3.264 1.477
10.271 3.166 1.534
10.885 3.933 1.405
9.764 2.564 1.010
10.438 2.957 1.054
10.824 3.735 0.684
11.074 4.114 0.675
9.713 2.415 0.940
9.920 2.351 0.687
10.023 3.067 0.326
10.776 3.049 0.248
10.011 2.136 -0.062
10.732 5.613 7.938
10.850 6.099 7.416
11.337 6.342 7.419
6.606 1.897 9.940
7.012 1.872 9.492
7.289 2.554 9.487
9.830 4.938 7.416
10.216 5.076 7.401
11.092 5.884 6.948
11.488 6.263 6.627
11.776 6.819 6.863
6.069 0.958 9.214
6.620 1.666 8.901
7.015 1.879 9.130
7.508 2.511 8.846
7.489 2.705 8.734
9.763 4.593 6.541
10.449 5.124 6.641
10.925 5.792 6.292
11.370 5.657 5.950
11.864 6.322 5.939
11.956 6.680 5.896
5.685 0.324 9.316
6.163 1.011 8.673
6.354 1.319 8.825
6.844 1.431 8.218
7.402 1.865 8.061
7.787 2.295 8.106
9.669 4.495 5.999
10.503 4.840 6.001
10.933 5.264 5.681
11.104 5.707 5.813
11.788 6.319 5.557
6.015 0.795 8.550
6.477 1.139 7.838
6.522 1.188 7.685
7.045 1.848 7.641
7.645 2.313 7.567
10.207 4.625 5.414
10.778 5.136 5.097
10.968 5.351 5.339
11.467 6.130 5.143
5.928 0.342 7.987
6.343 0.817 7.320
6.452 1.523 7.292
7.191 1.380 6.900
10.653 5.139 4.704
6.557 0.954 7.024
10.077 4.210 2.180
5.893 0.075 4.209
9.616 3.418 1.347
10.058 3.978 1.552
10.236 4.375 1.439
10.758 4.293 1.084
6.616 0.527 2.995
9.231 2.732 1.291
9.654 3.344 0.851
9.874 3.283 0.650
10.548 3.787 0.841
10.578 4.530 0.220
6.485 -0.154 2.937
6.930 0.642 2.384
9.164 2.726 0.687
9.670 3.145 0.425
9.927 3.103 0.535
10.452 3.931 0.386
6.341 0.367 1.658
9.126 2.236 0.002
6.437 0.076 1.459
10.236 5.967 8.511
10.599 6.383 7.872
10.752 7.225 8.007
6.056 2.212 10.471
6.482 2.871 9.934
7.196 2.785 9.765
10.017 5.366 8.046
10.111 6.143 7.577
10.586 6.588 7.257
10.786 6.499 7.242
11.086 6.846 7.257
5.374 1.871 9.861
5.990 1.982 9.907
6.216 2.262 9.533
6.636 2.576 9.206
7.431 3.189 9.043
8.948 5.050 7.317
9.648 5.256 7.047
9.794 5.979 7.345
10.408 6.102 6.731
10.650 6.308 6.499
11.074 6.707 6.587
11.518 7.138 6.191
4.904 1.322 9.309
5.791 1.385 9.033
6.037 2.099 8.821
6.475 2.572 8.947
6.735 2.619 8.527
7.275 3.127 8.741
7.869 3.408 8.212
9.113 4.786 6.952
9.748 4.977 6.927
10.125 5.495 6.409
10.346 5.697 6.520
10.656 6.404 5.981
11.062 6.563 5.824
11.582 7.192 5.962
11.959 7.659 5.830
4.655 0.426 9.354
5.354 0.731 9.016
5.320 1.486 8.987
6.073 1.616 8.658
6.189 2.092 8.242
6.800 2.283 8.325
6.962 2.784 7.849
7.566 2.973 8.041
9.072 4.556 6.256
9.706 5.215 6.255
9.932 5.568 5.804
10.533 5.631 5.911
10.744 6.091 5.648
11.095 6.307 5.590
11.376 7.125 5.410
4.856 0.545 8.337
5.639 1.165 8.290
5.885 1.604 8.199
6.174 1.777 7.699
6.889 2.442 7.574
6.864 2.539 7.569
7.232 2.769 7.149
9.302 4.831 5.569
9.841 5.401 5.199
10.025 5.415 4.994
10.332 6.021 4.772
11.277 6.261 4.993
11.296 6.544 4.874
4.956 0.679 7.802
5.579 0.896 7.518
5.741 1.487 7.354
5.962 1.822 7.184
6.565 1.987 7.249
7.234 2.290 6.592
9.583 4.784 4.867
10.266 5.091 4.506
10.566 5.654 4.394
10.767 5.900 4.169
5.016 0.419 7.244
5.438 1.043 7.038
6.131 1.618 6.740
6.153 1.876 6.379
10.142 5.256 4.010
6.022 1.089 6.251
9.532 4.847 2.524
5.542 0.893 4.532
9.464 3.690 2.363
9.731 4.435 1.690
9.961 4.721 1.917
10.534 5.440 1.217
4.921 0.341 4.302
5.501 0.198 3.898
5.803 0.885 3.408
9.077 3.116 1.514
9.462 3.903 1.538
9.835 4.433 1.243
10.079 4.533 0.882
10.574 5.046 0.902
10.908 5.464 0.846
5.359 0.014 3.095
6.160 0.973 3.310
6.218 0.935 3.211
8.182 2.530 1.266
8.826 3.184 1.137
9.195 3.759 0.676
9.695 4.084 0.533
10.162 4.635 0.297
10.418 4.612 0.253
10.519 5.026 -0.046
5.532 -0.072 2.616
5.607 0.244 2.533
6.285 0.928 2.552
6.747 1.152 2.216
8.257 2.545 0.636
8.557 3.284 0.613
9.226 3.176 0.660
9.662 3.600 0.275
9.589 4.276 0.036
5.915 0.337 1.836
6.320 0.769 1.515
6.725 1.332 1.361
8.113 2.135 0.436
8.412 2.738 0.280
5.918 0.175 1.306
5.958 0.261 1.138
6.203 1.070 1.227
5.744 0.534 0.816
10.259 7.435 8.959
10.709 7.464 8.716
5.717 3.264 11.172
6.004 3.572 11.308
10.067 6.655 8.802
10.205 7.070 8.765
10.755 7.402 8.013
5.771 2.652 10.528
6.421 3.065 10.536
6.713 3.507 10.101
9.503 6.198 8.498
9.963 6.436 8.135
10.088 6.751 7.896
10.910 7.082 7.518
11.289 7.461 7.494
5.277 2.364 10.545
5.937 2.738 10.423
6.045 3.103 10.202
6.810 3.566 9.965
7.144 3.796 9.517
8.946 5.895 7.825
9.306 5.821 7.712
9.551 6.634 7.567
10.155 6.720 7.147
10.618 7.109 7.322
10.842 7.296 6.983
11.323 8.003 7.068
4.823 1.806 9.790
5.317 2.197 9.862
5.644 2.235 9.337
6.162 2.679 9.466
6.742 3.402 9.326
6.797 3.445 8.753
6.999 4.247 8.913
8.668 4.977 7.669
8.930 5.485 7.394
9.505 5.800 7.149
9.909 6.255 7.238
10.169 6.283 6.766
10.546 6.862 6.803
10.993 7.557 6.435
11.501 7.497 6.079
11.519 8.274 6.147
11.888 8.471 5.573
12.395 8.855 5.346
4.589 0.994 9.510
4.581 1.427 9.220
5.391 2.064 9.340
5.425 2.351 9.223
6.177 2.968 8.696
6.335 3.109 8.920
6.936 3.173 8.406
7.292 3.876 8.436
7.336 4.259 7.909
7.705 4.158 7.367
8.210 4.914 6.856
8.883 5.126 7.104
9.104 5.434 6.805
9.801 5.972 6.539
10.240 6.460 6.355
10.325 7.009 5.910
10.533 6.851 5.813
11.234 7.320 5.430
11.802 7.827 5.264
11.875 8.587 5.372
12.457 8.750 5.085
3.958 1.193 9.217
4.498 1.389 8.660
5.334 1.846 8.407
5.442 1.974 8.428
5.875 2.363 8.105
6.127 2.776 8.348
6.749 3.358 7.654
7.263 3.444 7.589
7.282 4.128 7.269
8.165 4.353 7.157
8.018 4.345 6.619
8.209 4.340 6.619
8.575 4.918 6.390
8.841 5.357 6.146
9.450 6.018 5.757
9.819 6.143 5.856
10.445 6.508 5.763
10.429 6.776 5.273
11.318 7.308 5.014
11.356 7.470 5.034
11.876 8.064 4.424
12.051 8.214 4.335
4.299 0.488 8.286
4.401 1.371 8.452
4.982 1.379 8.175
5.328 1.960 8.121
5.672 2.317 7.809
6.427 2.794 7.707
6.751 3.111 7.347
6.927 3.414 7.280
7.239 3.849 7.035
7.979 4.185 6.696
8.666 4.614 5.541
9.132 4.924 5.547
9.379 5.564 5.109
9.690 5.707 5.172
9.969 6.583 4.714
10.877 6.458 4.722
10.819 7.057 4.461
11.258 7.615 4.127
4.082 0.459 8.118
4.628 0.831 7.789
4.623 1.285 7.293
5.213 1.928 7.481
5.871 1.809 7.344
6.239 2.672 6.846
6.319 2.673 6.883
6.766 3.498 6.851
9.148 5.048 5.020
9.512 5.398 4.927
9.798 5.753 4.526
9.887 6.070 4.149
10.729 6.457 4.480
10.703 6.704 3.813
4.651 0.526 7.433
5.011 1.168 7.014
5.116 1.772 6.847
5.477 2.111 6.556
5.874 2.078 6.215
6.418 2.792 6.463
9.222 4.928 4.050
9.869 5.321 3.769
10.107 5.910 3.593
10.417 6.120 3.411
4.795 0.724 6.729
4.924 1.412 6.158
5.553 1.704 5.774
5.921 2.187 6.032
9.306 4.772 3.644
9.691 5.436 3.309
10.134 5.637 3.037
4.838 1.381 5.561
5.557 1.731 5.674
5.839 1.630 4.993
9.151 4.676 3.297
9.696 4.970 3.159
9.625 5.285 2.907
4.946 1.194 4.880
5.161 1.208 4.998
5.859 1.775 4.535
9.133 4.299 2.415
9.334 5.112 2.295
9.778 5.189 2.114
9.959 5.634 1.977
4.231 0.260 4.655
5.029 0.441 4.685
5.147 0.922 4.072
5.852 1.541 4.005
8.472 3.710 2.182
8.637 4.429 1.915
9.198 4.818 1.955
9.450 5.251 1.415
10.181 5.739 1.121
10.485 5.868 1.232
4.411 -0.008 4.440
4.872 0.568 3.744
5.146 0.744 3.897
5.665 0.998 3.719
6.110 1.404 3.160
7.725 3.690 2.060
8.134 4.096 1.604
8.656 4.169 1.194
8.999 4.805 1.340
9.686 4.920 1.255
10.305 5.252 0.685
10.172 5.690 0.483
10.594 6.106 0.291
4.674 0.463 3.323
4.855 0.890 3.361
5.399 1.020 2.956
6.073 1.672 3.023
6.055 1.968 2.875
7.019 2.556 1.514
7.585 2.920 1.784
8.070 3.448 1.334
8.263 3.413 1.175
8.785 3.869 1.057
9.015 4.364 0.479
9.357 4.964 0.701
10.116 5.426 0.374
10.234 5.717 0.031
4.644 0.382 3.097
5.044 0.439 2.554
5.382 0.852 2.349
5.875 1.192 2.471
6.044 1.778 2.331
6.678 2.304 1.884
7.148 2.158 1.592
7.220 2.526 1.083
7.098 2.597 0.667
7.551 3.165 0.914
8.037 3.277 0.322
8.765 3.621 0.171
9.013 4.125 0.254
4.986 0.150 2.416
5.409 0.738 1.703
5.956 1.272 1.540
6.158 1.297 1.788
6.849 2.132 1.425
6.894 2.069 1.191
7.079 2.546 0.120
7.783 2.552 -0.109
4.802 0.227 1.615
5.541 0.693 1.440
5.798 1.092 0.908
6.219 0.995 1.049
6.491 1.818 0.842
5.227 0.213 0.798
5.697 0.698 0.691
5.775 0.915 0.191
4.983 0.308 0.395
5.663 0.273 -0.127
10.175 7.239 9.263
10.542 7.842 8.588
5.964 3.305 11.278
6.335 3.570 10.881
9.343 7.229 9.398
9.844 7.577 9.006
10.146 8.014 8.555
10.513 8.777 8.616
4.766 3.059 11.110
5.411 3.241 11.007
5.656 3.707 10.937
6.567 4.016 10.722
8.774 6.821 8.913
9.384 7.136 8.818
9.780 7.334 8.337
10.474 7.681 8.482
10.661 8.317 8.250
5.244 3.110 11.078
5.188 3.137 10.695
5.652 3.442 10.330
6.247 4.156 10.023
6.830 4.738 10.281
8.685 6.786 8.166
9.663 7.142 7.856
9.934 7.127 7.604
10.422 7.963 7.519
10.491 7.952 7.515
11.154 8.245 7.077
4.702 2.410 10.683
4.928 2.878 10.229
5.582 2.938 9.975
5.542 3.279 9.613
6.170 4.019 9.891
6.384 4.409 9.223
7.935 5.676 8.251
8.298 6.271 7.723
9.052 6.516 7.476
9.325 6.964 7.423
9.904 7.189 7.018
9.813 7.809 6.994
10.239 8.187 6.926
10.833 8.542 6.630
11.348 8.751 6.361
3.709 1.605 10.250
4.495 1.897 9.747
4.496 2.260 9.625
5.270 2.989 9.764
5.817 3.558 9.400
5.808 3.845 8.854
6.309 4.039 8.864
6.875 4.695 8.905
7.005 4.937 8.746
7.835 5.003 7.804
7.909 5.243 7.823
8.609 5.712 7.308
8.996 6.075 7.100
9.007 6.603 7.241
9.684 6.950 6.867
10.057 7.542 6.295
10.206 7.814 6.282
10.666 7.957 6.065
10.968 8.254 5.823
11.954 8.804 6.013
11.977 9.146 5.491
3.611 1.646 9.323
4.289 1.960 9.065
4.610 2.092 8.935
5.071 2.511 9.149
5.396 3.234 8.589
6.206 3.338 8.799
6.549 4.066 8.446
6.708 4.439 7.916
6.865 4.676 7.691
7.728 4.971 7.547
7.522 4.776 7.178
8.046 5.042 6.753
8.263 5.796 6.835
8.480 6.077 6.620
9.384 6.561 6.115
9.259 7.050 6.008
10.179 7.443 6.211
10.344 7.537 5.803
10.607 7.654 5.524
11.004 8.579 5.664
11.627 8.986 5.433
11.702 9.309 5.071
3.782 1.535 8.736
4.371 1.584 8.529
4.759 2.212 8.801
4.915 2.628 8.439
5.242 2.792 8.441
6.115 3.227 8.036
6.056 3.758 7.852
6.699 4.351 7.434
6.820 4.346 7.665
7.402 5.069 7.417
7.289 4.756 6.832
7.999 5.306 6.289
8.215 5.685 6.100
8.676 5.747 6.184
9.236 6.259 5.928
9.193 6.425 5.585
9.690 7.100 5.653
10.520 7.346 5.262
10.745 7.996 5.194
10.972 8.401 4.910
11.683 8.794 4.344
11.719 9.193 4.551
3.992 0.859 8.701
4.022 1.769 8.451
4.539 1.956 8.300
4.855 2.565 7.961
5.476 2.685 7.425
5.638 2.994 7.535
6.390 3.239 7.395
6.488 3.602 7.094
6.993 4.131 7.108
7.445 4.521 6.686
7.033 4.262 6.320
7.552 4.614 5.841
8.238 5.145 5.514
8.299 5.547 5.606
9.017 5.868 5.512
9.608 6.362 5.187
9.565 7.035 4.808
10.013 7.090 4.687
10.554 7.651 4.277
10.773 7.973 4.363
11.360 8.592 3.903
11.622 8.790 3.575
3.605 1.042 7.789
3.965 1.457 7.517
4.645 1.686 7.183
5.154 2.144 7.404
4.996 2.643 7.288
5.737 3.080 6.724
5.854 3.009 6.877
6.605 3.420 6.468
6.816 3.929 6.461
7.114 4.533 6.043
7.863 5.171 5.176
8.576 5.249 5.178
9.155 6.071 4.840
9.418 6.206 4.382
9.413 6.294 4.436
10.138 6.703 4.286
10.444 7.129 4.120
3.967 1.333 7.363
4.195 1.276 7.090
4.828 1.949 6.442
5.257 2.091 6.518
5.594 2.846 6.603
5.907 3.176 5.885
6.236 3.599 6.172
8.316 5.201 4.100
9.046 5.648 4.295
9.461 6.034 3.834
9.666 6.522 3.504
10.071 6.779 3.270
4.426 1.610 6.173
4.504 1.489 6.195
4.947 1.815 5.686
5.321 2.334 5.626
5.844 2.842 5.781
8.668 5.610 3.535
8.984 5.837 3.648
9.238 6.408 2.977
10.215 6.584 2.984
4.298 0.980 5.971
4.404 1.420 5.733
5.107 2.161 5.574
5.506 2.101 5.160
8.754 5.296 3.017
8.988 5.531 2.730
9.485 5.717 2.533
9.749 6.278 2.679
4.030 0.868 5.479
4.486 1.208 5.198
5.116 1.546 4.984
5.110 2.099 4.818
8.362 4.465 2.423
8.422 5.251 2.697
9.204 5.163 2.277
9.297 5.856 1.915
9.971 6.261 1.954
3.828 0.553 4.953
4.481 0.840 4.356
4.615 1.473 4.281
5.351 2.077 4.132
5.428 2.218 3.651
7.361 3.833 2.526
7.821 4.594 2.135
8.585 4.529 2.061
9.079 4.936 1.507
9.123 5.424 1.752
9.760 5.946 1.322
10.284 6.164 1.410
3.656 0.408 4.502
4.221 0.520 4.280
4.225 1.058 3.921
4.915 1.279 3.857
5.356 1.652 3.324
5.705 1.881 3.278
6.016 2.715 3.030
6.878 2.838 2.382
7.164 3.733 1.790
7.550 3.658 1.543
8.107 4.143 1.488
8.626 4.624 1.255
8.831 4.962 0.945
9.185 5.520 1.030
9.832 5.608 0.926
10.057 6.228 0.337
10.467 6.401 0.506
10.844 6.658 0.444
3.627 0.232 3.856
4.022 0.503 3.316
4.792 0.818 2.909
5.185 1.488 3.197
5.689 2.141 2.909
6.030 2.240 2.454
6.437 2.700 2.404
6.647 2.766 2.005
6.699 2.642 1.793
7.087 3.214 1.654
7.676 3.530 1.062
8.080 3.944 1.283
8.089 4.650 0.921
8.543 4.632 0.313
8.826 5.136 0.193
9.316 5.376 0.340
9.686 6.146 -0.008
3.616 0.290 2.919
4.326 0.731 2.633
4.353 0.705 2.895
5.082 1.580 2.195
5.230 1.503 1.925
5.570 1.850 1.921
6.504 2.316 1.857
6.747 2.958 1.701
6.386 2.759 0.972
6.749 3.072 0.754
7.521 3.632 0.608
8.032 4.052 0.700
7.996 4.167 0.219
8.377 4.565 -0.208
4.204 0.536 2.521
4.416 0.430 2.063
5.071 1.098 1.592
5.546 1.274 1.480
5.986 1.749 1.506
6.289 2.142 1.222
6.316 2.765 0.867
6.282 2.299 0.317
6.833 2.577 0.528
7.088 3.228 -0.125
3.938 -0.083 1.789
4.446 0.378 1.765
5.044 0.719 1.194
5.190 1.448 1.284
5.822 1.915 0.607
6.128 1.784 0.444
6.300 2.227 0.422
4.481 0.289 0.884
4.524 0.554 0.529
4.928 1.170 0.627
5.386 1.336 0.205
5.956 1.674 -0.137
4.079 0.246 0.466
4.521 0.352 0.319
9.402 7.418 8.967
9.723 7.499 9.054
10.096 8.389 8.882
10.512 8.800 8.758
4.996 3.329 11.652
5.393 3.696 10.893
5.891 3.739 10.916
6.067 4.514 10.856
8.976 8.000 8.937
9.539 8.026 8.855
9.674 8.395 8.506
10.627 9.221 8.403
4.330 3.258 11.443
5.147 3.770 10.919
5.606 4.000 10.914
5.671 4.848 10.636
8.477 7.347 8.779
9.132 7.569 8.652
9.169 7.957 8.577
9.877 8.506 7.972
10.107 8.561 7.675
4.723 3.371 10.778
5.216 4.008 10.641
5.185 4.042 10.541
5.847 4.291 10.427
6.202 4.964 10.173
7.844 6.352 8.624
8.682 6.945 8.004
9.049 7.475 8.088
9.396 7.651 7.686
9.904 8.203 7.637
10.253 8.589 7.449
10.619 9.009 7.134
4.265 3.000 10.551
4.302 3.028 10.201
5.100 3.620 9.749
5.537 3.639 9.654
5.506 4.488 9.402
5.955 4.965 9.259
6.497 4.818 9.262
7.827 5.938 8.192
7.883 6.404 7.706
8.447 6.800 7.862
8.740 7.429 7.608
9.064 7.621 7.043
9.767 8.154 6.892
9.843 8.351 6.628
10.783 8.625 6.654
10.679 9.108 6.191
11.593 9.270 6.001
11.676 9.686 6.002
3.770 1.894 10.011
3.733 2.265 9.598
4.511 3.021 9.752
4.837 3.405 9.464
5.391 3.698 9.396
5.515 4.039 9.281
6.140 4.669 9.053
6.127 4.944 8.776
7.068 5.483 8.518
7.321 5.203 7.513
7.457 5.801 7.350
7.905 6.202 7.253
8.141 6.778 7.188
8.887 7.204 6.819
9.434 7.681 6.531
9.845 7.671 6.263
10.157 8.222 6.278
10.159 8.437 5.779
10.715 9.197 5.994
11.158 9.387 5.797
11.510 9.438 5.447
3.601 1.718 9.382
3.810 2.519 9.437
3.995 2.926 9.086
4.412 3.278 8.649
5.341 3.585 8.718
5.282 3.645 8.209
5.704 4.001 8.248
6.461 4.874 8.340
6.857 4.833 7.748
7.283 5.592 7.940
7.309 5.051 6.827
7.304 5.614 6.710
7.982 6.027 6.875
8.513 6.575 6.343
8.703 6.764 6.186
9.065 7.476 5.888
9.393 7.854 5.931
9.677 8.243 5.708
10.453 8.145 5.604
10.658 8.741 5.519
11.232 8.916 4.841
11.413 9.541 5.059
3.101 1.539 9.054
3.796 2.078 8.975
4.455 2.638 8.593
4.507 3.178 8.555
5.102 3.360 8.007
5.286 3.942 7.744
6.061 3.797 7.648
6.308 4.383 7.588
6.850 5.039 7.388
7.015 5.440 7.121
7.156 5.162 6.795
7.364 5.236 6.387
7.611 5.617 6.340
7.950 6.360 5.934
8.579 6.797 5.771
9.262 6.795 5.307
9.381 7.427 5.590
9.986 7.840 5.280
10.353 8.268 4.697
10.661 8.345 4.830
11.171 8.830 4.806
11.637 9.521 4.062
3.332 1.559 8.116
3.735 1.906 8.139
4.197 2.468 8.055
4.734 2.566 8.035
4.898 3.042 7.344
5.111 3.238 7.346
6.038 3.995 6.895
6.229 4.288 7.170
6.365 4.452 6.466
7.181 5.157 6.653
6.602 4.566 6.201
7.080 5.000 5.942
7.631 5.867 5.718
8.308 6.120 5.110
8.437 6.599 4.944
9.168 6.901 5.271
9.228 7.379 4.889
9.936 7.740 4.625
10.105 8.060 4.319
10.369 8.501 4.403
10.986 8.633 3.842
11.343 8.997 3.713
3.222 1.443 7.868
3.778 1.777 7.597
3.896 2.078 7.691
4.193 2.288 6.985
4.765 2.938 6.830
5.061 3.230 6.804
5.668 3.786 6.886
6.114 4.039 6.282
6.628 4.719 6.057
6.670 5.028 6.258
7.726 5.391 5.327
7.801 5.919 5.003
8.350 6.030 4.457
9.060 6.623 4.177
9.030 6.986 4.037
9.901 7.601 4.104
9.958 7.756 4.129
10.548 8.194 3.738
3.007 0.894 7.259
3.671 1.381 7.030
3.901 1.721 7.123
4.292 2.330 6.910
4.873 2.607 6.228
5.310 3.092 6.129
5.791 3.303 5.754
5.795 3.656 5.630
7.813 5.724 4.561
8.557 6.090 4.102
8.580 6.607 3.980
8.968 6.657 3.930
9.427 7.458 3.347
9.996 7.700 3.228
3.585 1.627 6.303
3.849 1.989 6.379
4.483 1.861 6.251
4.533 2.343 6.038
5.093 2.700 5.788
5.448 3.496 5.494
8.012 5.378 3.852
8.042 5.910 3.642
8.564 5.985 3.086
9.122 6.726 2.944
9.615 6.766 2.805
3.923 1.780 5.702
4.244 1.698 5.680
4.508 2.145 5.498
4.952 2.760 4.944
5.500 3.001 4.771
7.536 5.381 3.209
8.110 5.636 2.814
8.317 5.837 2.980
8.797 6.355 2.274
9.621 6.781 2.550
3.528 1.417 5.442
4.248 1.580 4.721
4.676 2.042 4.969
4.716 2.697 4.746
5.380 2.969 4.555
7.980 4.966 2.396
7.865 5.424 2.446
8.524 5.613 2.094
9.156 6.321 1.922
9.309 6.563 1.682
9.565 7.059 1.451
3.051 0.715 4.662
3.624 1.269 4.556
4.121 1.321 4.242
4.668 1.965 4.201
4.902 2.399 4.045
5.455 2.865 3.567
6.915 4.596 2.315
7.751 4.952 2.018
7.773 5.424 1.669
8.650 5.707 1.572
9.060 6.096 1.569
9.235 6.514 1.063
9.424 6.637 0.984
10.351 7.290 0.746
2.688 0.447 4.271
3.214 0.725 4.341
3.396 1.108 4.126
3.633 1.595 3.915
4.323 1.569 3.366
4.538 2.387 3.260
5.029 2.406 3.303
5.750 2.689 2.781
6.315 3.715 1.915
6.489 3.943 2.059
7.304 4.134 1.728
7.558 4.710 1.768
7.955 5.187 1.094
8.244 5.130 0.803
8.905 5.919 0.938
9.081 6.456 0.503
9.519 6.462 0.247
10.240 6.892 0.158
10.251 7.425 0.363
2.803 0.506 3.613
3.249 0.926 3.377
4.034 1.133 3.161
4.152 1.268 2.879
4.659 2.065 2.924
4.981 2.339 2.813
5.514 2.770 2.417
5.812 3.217 2.389
6.201 3.406 1.811
6.165 3.377 1.598
6.458 3.452 1.089
7.296 4.318 1.079
7.549 4.564 0.834
7.644 5.064 0.561
7.958 5.020 0.404
8.652 5.353 0.433
9.003 6.104 0.184
2.804 -0.036 3.022
3.285 0.471 2.951
3.750 0.960 2.706
4.325 1.097 2.359
4.735 2.003 2.577
4.823 2.195 2.314
5.217 2.228 2.208
6.012 2.591 1.519
6.086 3.322 1.448
6.120 3.119 1.178
6.711 3.256 1.014
6.754 3.866 0.476
7.297 3.965 0.198
7.942 4.806 0.349
3.301 0.055 2.356
3.619 0.795 2.444
3.846 0.953 2.094
4.444 1.443 1.861
5.049 2.029 1.285
5.345 2.268 1.453
5.851 2.452 1.314
6.356 2.843 1.099
5.915 3.008 0.227
6.289 3.249 0.417
6.804 3.688 0.223
3.239 0.092 1.835
3.657 0.781 1.322
3.949 0.985 1.692
4.213 1.360 1.332
5.051 1.785 0.717
4.970 2.151 0.940
5.478 2.214 0.909
5.797 3.000 0.608
3.746 0.498 1.290
4.056 0.865 0.951
4.456 1.129 0.952
4.682 1.473 0.470
5.149 1.986 -0.015
5.279 2.436 0.300
3.657 0.439 0.707
3.671 0.483 0.533
4.129 0.852 0.065
8.864 7.644 9.145
9.589 8.341 9.013
9.689 8.512 8.711
10.617 9.000 8.261
4.574 3.769 11.405
5.080 4.192 10.947
5.188 4.380 11.084
5.730 4.797 10.604
8.836 8.317 9.304
8.889 8.737 9.037
9.306 9.113 8.720
4.439 4.416 10.861
5.270 4.650 10.560
5.256 5.366 10.891
8.616 8.296 8.385
9.101 8.553 8.290
9.409 9.061 8.193
9.665 9.262 7.599
4.068 3.743 10.959
4.560 4.080 10.406
4.771 4.452 10.489
5.060 4.781 10.274
8.272 7.280 7.896
8.415 7.545 7.700
8.688 8.276 7.934
9.250 8.368 7.720
9.446 8.713 7.460
10.229 9.147 7.185
3.746 2.996 10.149
3.932 3.514 10.065
4.409 3.888 10.128
5.020 4.017 9.429
5.475 4.503 9.772
5.615 5.291 9.125
7.666 6.536 7.593
8.077 7.181 7.825
8.256 7.419 7.620
9.091 8.064 7.298
8.996 8.236 6.892
9.399 8.750 6.494
9.934 9.090 6.511
10.572 9.726 6.240
3.054 2.275 9.874
3.764 3.135 9.728
4.181 3.499 9.413
4.559 3.562 9.292
4.919 4.069 8.873
5.308 4.484 8.850
5.713 5.113 8.795
6.038 5.370 8.424
6.458 5.559 7.598
7.062 6.188 7.335
7.377 6.883 7.311
7.827 6.924 6.875
8.288 7.332 6.812
8.995 7.977 6.714
9.352 7.937 6.172
9.300 8.633 6.028
9.777 9.226 6.221
10.334 9.291 5.747
10.907 9.984 5.821
11.368 10.062 5.145
3.298 2.649 9.262
3.515 2.893 9.122
4.028 3.290 8.928
4.262 3.679 8.599
4.604 3.909 8.381
5.265 4.472 8.276
5.451 4.832 8.349
6.068 5.207 7.789
6.047 5.373 7.771
6.497 5.781 7.776
6.629 5.830 6.889
7.266 5.878 6.616
7.341 6.544 6.769
8.126 6.685 6.303
8.314 7.382 6.008
8.880 7.794 5.742
9.246 7.976 6.057
9.335 8.435 5.894
9.761 8.945 5.450
10.018 9.042 5.122
10.952 9.468 4.857
11.295 10.001 5.054
3.121 2.202 8.819
3.604 2.814 8.475
3.480 2.888 8.493
4.424 3.090 8.479
4.610 3.899 8.293
4.907 4.238 7.801
5.154 4.305 7.574
5.801 4.749 7.275
6.429 5.141 7.019
6.344 5.443 7.161
6.268 5.527 6.244
7.083 5.584 6.307
7.169 6.344 6.300
7.603 6.370 5.603
8.222 6.918 5.463
8.378 7.345 5.265
9.217 7.987 4.981
9.121 7.900 4.835
9.869 8.606 4.860
10.182 8.946 4.595
10.691 9.563 4.324
10.867 9.741 4.235
2.712 1.806 8.374
3.508 2.514 8.155
3.638 2.957 8.086
3.973 3.406 7.906
4.438 3.511 7.524
4.633 3.717 7.569
5.514 4.392 7.093
5.507 4.506 6.759
5.925 5.071 6.884
6.479 5.384 6.582
7.099 5.739 5.684
7.052 5.973 5.298
7.527 6.327 5.112
8.289 6.703 5.223
8.625 7.026 5.127
9.088 7.516 4.717
9.199 8.016 4.317
9.561 8.645 4.567
10.074 8.457 4.259
10.614 9.099 4.046
11.140 9.355 3.607
2.759 2.041 7.419
3.166 2.153 7.257
3.571 2.442 7.301
3.780 2.893 7.410
4.702 3.026 7.205
4.978 3.652 6.483
5.018 4.004 6.611
5.833 4.426 6.539
6.135 5.071 6.242
7.087 5.708 5.016
7.324 5.986 4.568
8.189 6.714 4.270
8.403 7.153 4.182
9.108 7.314 4.416
8.954 8.070 4.097
9.407 8.259 3.471
2.863 2.228 7.038
3.433 2.460 6.809
4.098 2.501 6.674
4.587 3.225 6.512
4.535 3.668 6.331
4.941 4.098 5.712
5.291 4.147 5.893
7.635 6.285 4.245
8.057 6.528 3.966
8.359 6.776 4.037
8.602 6.972 3.713
9.418 7.441 3.289
3.520 1.858 6.054
3.644 2.810 5.756
4.055 2.905 6.069
4.826 3.137 5.650
4.832 3.609 5.394
7.560 6.007 3.201
8.250 6.435 3.048
8.633 6.777 3.019
9.339 7.598 2.551
3.513 1.825 5.376
3.750 2.101 5.404
4.018 2.435 5.491
4.570 2.933 5.269
7.717 6.127 2.794
8.350 6.652 2.644
8.499 6.508 2.636
8.796 6.992 2.255
3.309 1.951 5.049
3.434 2.288 5.127
4.084 2.321 4.718
4.691 3.028 4.617
7.204 5.592 2.241
7.926 5.606 2.050
8.128 6.348 2.002
8.330 6.373 1.894
9.024 6.959 1.927
3.399 1.333 4.260
3.760 2.157 4.180
4.278 2.339 3.904
4.402 2.578 3.836
4.527 3.122 3.543
6.574 4.935 1.881
7.221 5.016 1.818
7.620 5.921 1.524
8.036 6.088 1.757
8.190 6.335 1.234
8.816 6.927 1.389
9.135 7.207 0.666
2.624 1.231 3.975
2.829 1.580 3.900
3.451 1.586 3.469
3.962 1.877 3.292
4.455 2.687 3.107
4.451 3.092 3.392
5.152 3.459 2.921
6.253 4.391 1.664
6.566 4.466 1.440
7.190 4.964 1.160
7.762 5.699 1.473
7.710 5.619 1.062
8.059 6.335 0.926
8.921 6.657 0.313
8.867 6.818 0.112
9.692 7.555 0.354
9.887 7.966 0.267
1.988 0.506 3.592
2.352 0.801 3.825
2.905 1.393 3.634
3.690 1.403 3.353
3.570 1.941 2.840
4.412 2.238 2.824
4.404 2.551 2.791
5.221 3.092 2.243
5.371 3.263 2.179
5.803 3.458 1.736
6.007 4.346 1.079
6.552 4.153 0.844
6.838 4.676 1.089
7.157 5.188 0.460
7.872 5.522 0.395
8.199 6.147 0.181
8.745 6.321 0.225
1.927 0.048 3.348
2.549 0.579 2.912
3.162 0.849 2.784
3.032 1.213 2.857
3.563 1.672 2.193
4.098 2.104 2.264
4.328 2.673 1.934
4.683 2.929 1.910
5.418 3.466 1.695
5.802 3.849 1.369
5.889 3.721 1.006
6.023 3.941 0.697
6.230 4.378 0.413
6.930 4.855 0.543
7.592 5.097 -0.167
2.607 0.439 2.672
2.559 0.824 2.063
3.527 1.375 1.877
3.823 1.616 1.652
4.310 1.863 1.608
4.346 2.547 1.500
4.623 2.651 1.120
5.485 2.929 0.848
5.639 3.405 1.063
5.438 3.520 0.267
6.255 3.555 0.295
2.624 -0.002 2.087
2.482 0.315 1.712
3.325 1.094 1.547
3.819 1.175 1.126
3.833 1.720 1.375
4.278 2.370 0.764
4.971 2.750 0.980
5.162 2.801 0.610
5.411 3.285 0.348
2.848 0.085 0.915
3.171 0.796 1.231
3.175 1.379 0.947
3.848 1.540 0.375
4.353 2.152 0.600
4.652 2.272 -0.094
2.446 0.177 0.536
2.733 0.614 0.465
3.461 0.988 0.306
4.060 1.221 -0.247
8.569 8.444 9.051
8.808 8.747 9.087
9.408 8.941 8.503
4.446 4.611 10.850
4.727 4.725 10.740
5.650 4.933 10.864
8.468 8.656 8.057
8.959 9.250 8.124
3.825 4.251 10.123
4.730 4.741 10.277
7.925 7.919 7.966
8.349 8.594 7.358
9.130 8.718 7.124
9.266 9.082 7.102
3.616 3.744 10.112
4.005 4.454 9.552
4.181 4.614 9.756
5.032 4.904 9.627
7.440 7.381 7.688
7.935 7.813 7.274
8.241 8.609 6.795
8.932 8.835 6.922
9.457 9.074 6.712
9.354 9.755 6.339
3.087 3.539 9.823
3.694 3.575 9.460
4.168 4.169 9.231
4.471 4.332 8.940
4.450 4.675 8.749
5.364 5.271 8.635
7.050 7.121 6.874
7.315 7.437 6.968
7.959 7.587 6.500
8.306 8.079 6.760
8.645 8.815 6.134
9.207 9.051 6.208
9.839 9.394 5.956
10.249 9.707 5.497
2.686 2.658 9.254
2.849 2.995 9.350
3.278 3.463 9.108
3.720 3.797 8.881
4.468 4.332 8.792
4.734 4.482 8.188
4.838 4.807 8.087
5.695 5.479 8.094
6.684 6.633 6.837
7.271 6.648 6.303
7.276 7.064 6.571
7.574 7.802 5.894
8.217 7.953 6.162
8.563 8.187 5.918
9.259 8.592 5.438
9.376 9.410 5.530
9.688 9.682 5.066
10.079 9.858 4.974
10.602 10.481 4.964
2.394 2.626 8.892
2.984 3.099 8.387
3.598 3.392 8.612
3.817 3.954 8.283
4.182 4.383 7.781
4.626 4.222 8.033
4.996 4.924 7.754
5.153 5.106 7.299
5.807 5.704 7.012
6.327 6.500 6.484
7.115 6.756 6.246
7.268 7.248 5.746
7.894 7.212 5.392
8.223 7.678 5.630
8.800 8.090 5.194
9.018 8.392 4.776
9.488 8.733 4.596
9.684 9.121 4.439
2.698 2.469 8.082
2.607 3.044 7.745
3.081 2.924 7.574
3.666 3.283 7.855
4.146 3.857 7.364
4.752 4.524 7.334
5.173 4.741 6.815
