2.521 0.220 5.873
2.378 0.154 5.994
3.591 1.797 4.127
3.548 1.732 4.345
3.339 1.447 4.476
2.595 0.480 6.051
2.385 0.360 6.150
3.736 2.067 4.346
3.543 1.846 4.555
3.426 1.607 4.592
2.554 0.082 6.196
3.859 1.907 4.310
3.746 1.669 4.466
3.602 1.529 4.730
3.509 1.411 4.871
4.157 1.789 4.396
4.097 1.479 4.620
3.972 1.402 4.812
3.705 1.244 5.010
4.494 1.573 4.468
4.319 1.511 4.598
4.188 1.302 4.836
3.939 1.124 5.032
4.642 1.471 4.482
4.487 1.222 4.592
4.350 1.088 4.842
4.954 1.306 4.604
4.784 1.098 4.713
5.170 1.225 4.658
6.093 -0.006 5.400
0.148 1.876 5.408
0.895 3.044 4.145
0.768 2.890 4.341
0.731 2.685 4.643
0.604 2.521 4.753
0.342 2.359 4.998
0.237 2.207 5.079
0.089 1.997 5.263
0.334 1.829 5.386
1.214 2.860 4.252
0.975 2.647 4.463
0.926 2.497 4.610
0.857 2.375 4.895
0.585 2.115 4.917
0.503 1.987 5.238
0.383 1.776 5.453
0.640 1.695 5.499
0.582 1.453 5.653
1.360 2.745 4.276
1.315 2.512 4.551
1.221 2.349 4.612
1.055 2.261 4.881
0.909 2.074 5.057
0.847 1.821 5.307
0.733 1.697 5.444
0.868 1.561 5.475
0.780 1.471 5.759
0.736 1.294 5.784
1.529 2.426 4.522
1.341 2.263 4.737
1.312 2.135 4.952
1.116 1.938 5.053
0.954 1.671 5.333
0.877 1.596 5.461
1.116 1.477 5.526
0.943 1.198 5.795
0.811 1.150 5.846
0.810 0.878 6.186
1.589 2.047 4.804
1.469 1.972 4.978
1.488 1.820 5.183
1.259 1.580 5.298
1.201 1.359 5.588
1.362 1.257 5.623
1.324 1.188 5.811
1.216 0.895 5.942
1.047 0.873 6.224
1.703 1.776 5.026
1.600 1.557 5.142
1.546 1.444 5.364
1.350 1.263 5.560
1.575 1.150 5.680
1.603 1.059 5.888
1.361 0.782 6.066
1.350 0.628 6.239
1.855 1.534 5.196
1.807 1.290 5.515
1.722 1.250 5.694
1.930 1.085 5.684
1.785 0.904 5.881
1.609 0.638 6.009
1.480 0.572 6.226
2.052 1.232 5.545
1.903 1.038 5.659
2.159 0.862 5.797
2.094 0.672 5.981
1.922 0.645 6.171
2.211 0.987 5.653
2.419 0.845 5.767
2.226 0.545 5.973
2.076 0.434 6.097
3.354 2.175 4.225
3.335 1.930 4.472
2.459 0.790 5.681
2.538 0.494 5.974
2.416 0.343 6.175
3.623 2.046 4.287
3.519 1.821 4.558
3.474 1.611 4.690
3.645 2.118 4.578
3.656 2.038 4.771
3.446 1.913 4.804
3.938 1.980 4.625
3.819 1.925 4.812
3.702 1.637 4.966
3.581 1.494 5.154
4.244 2.002 4.660
4.014 1.808 4.721
4.026 1.562 4.987
3.880 1.373 5.110
3.659 1.235 5.426
4.393 1.872 4.677
4.419 1.594 4.871
4.198 1.401 5.054
4.078 1.285 5.262
4.011 1.104 5.326
4.772 1.582 4.635
4.539 1.422 4.875
4.454 1.293 4.991
4.314 1.213 5.191
5.049 1.609 4.724
4.756 1.434 4.909
4.754 1.233 5.078
5.238 1.480 4.825
5.127 1.145 4.887
6.050 0.165 5.587
5.902 0.125 5.756
0.982 3.246 4.318
0.867 2.916 4.596
0.785 2.842 4.702
0.645 2.603 5.006
0.413 2.513 5.147
0.425 2.252 5.441
0.439 2.038 5.530
1.413 3.229 4.254
1.154 3.060 4.496
1.141 2.793 4.586
1.046 2.734 4.857
0.929 2.577 5.068
0.803 2.305 5.240
0.560 2.144 5.380
0.474 2.022 5.654
0.646 1.960 5.702
0.673 1.757 5.865
1.521 3.113 4.377
1.435 2.975 4.485
1.351 2.677 4.637
1.180 2.572 4.877
1.058 2.426 5.042
1.002 2.160 5.201
0.815 2.140 5.519
0.639 1.861 5.619
1.005 1.773 5.606
0.893 1.561 5.907
0.727 1.468 6.034
1.734 2.841 4.471
1.632 2.606 4.794
1.410 2.369 4.901
1.397 2.217 5.163
1.278 2.091 5.222
1.011 1.940 5.420
0.988 1.789 5.740
1.293 1.568 5.802
1.067 1.455 5.911
1.007 1.361 6.033
1.809 2.444 4.840
1.767 2.353 4.935
1.528 2.097 5.249
1.529 2.013 5.441
1.402 1.713 5.598
1.222 1.685 5.783
1.516 1.440 5.703
1.311 1.321 5.958
1.227 1.120 6.088
1.987 2.216 4.944
1.781 2.083 5.235
1.649 1.847 5.423
1.514 1.641 5.627
1.376 1.486 5.714
1.743 1.367 5.881
1.540 1.165 6.033
1.531 0.986 6.299
1.980 1.667 5.430
1.888 1.565 5.723
1.639 1.406 5.787
2.000 1.167 5.813
1.795 1.125 6.004
1.659 0.826 6.348
2.170 1.341 5.602
1.956 1.275 5.855
2.218 1.156 5.941
2.060 0.902 6.081
2.150 1.176 6.001
2.261 0.762 6.217
3.694 2.149 4.521
3.590 1.959 4.671
3.395 1.765 4.916
3.702 2.310 4.770
3.638 2.147 4.955
3.485 2.018 5.003
3.419 1.904 5.334
3.945 2.230 4.736
3.935 2.060 4.957
3.734 1.911 5.191
3.689 1.755 5.296
3.523 1.479 5.488
4.313 2.121 4.718
4.087 2.012 5.028
4.060 1.703 5.125
3.858 1.591 5.435
3.785 1.392 5.642
3.564 1.247 5.734
4.487 2.044 4.857
4.337 1.836 5.047
4.327 1.721 5.279
4.142 1.508 5.457
4.037 1.341 5.621
3.892 1.080 5.875
4.780 1.813 4.832
4.724 1.676 5.020
4.455 1.474 5.306
4.389 1.369 5.544
4.337 1.091 5.621
4.105 0.998 5.847
5.030 1.674 4.871
4.817 1.462 5.130
4.720 1.396 5.326
4.702 1.187 5.464
4.518 0.998 5.775
5.317 1.661 4.979
5.097 1.415 5.122
6.184 0.624 5.563
6.101 0.354 5.817
5.926 0.215 6.032
5.863 0.004 6.234
1.232 3.466 4.443
0.992 3.427 4.653
0.907 3.191 4.858
0.854 3.045 4.963
0.672 2.851 5.236
0.585 2.630 5.301
1.511 3.601 4.249
1.429 3.476 4.531
1.279 3.280 4.577
1.160 2.971 4.894
1.094 2.922 4.949
0.966 2.717 5.188
0.839 2.633 5.377
0.677 2.392 5.682
0.710 2.006 5.918
1.760 3.439 4.328
1.602 3.232 4.539
1.560 3.166 4.661
1.402 2.905 4.859
1.316 2.737 5.068
1.162 2.583 5.272
1.064 2.445 5.392
0.815 2.263 5.580
0.848 2.074 5.818
1.033 2.014 5.873
0.917 1.815 6.169
1.974 3.372 4.351
1.874 3.086 4.578
1.720 2.923 4.835
1.662 2.873 4.896
1.567 2.616 5.062
1.447 2.504 5.321
1.284 2.222 5.539
1.152 2.119 5.776
0.969 1.883 5.862
1.202 1.780 6.011
1.160 1.679 6.130
2.209 3.052 4.679
2.119 2.859 4.738
1.894 2.593 4.903
1.782 2.553 5.174
1.569 2.284 5.285
1.478 2.081 5.521
1.413 1.987 5.800
1.288 1.734 6.003
1.563 1.691 5.923
1.309 1.426 6.222
1.986 2.389 5.198
1.889 2.145 5.395
1.815 2.064 5.635
1.699 1.796 5.846
1.591 1.748 6.024
1.851 1.553 6.053
1.669 1.301 6.230
1.819 1.768 5.879
1.744 1.616 6.091
2.099 1.454 6.034
1.954 1.169 6.335
2.020 1.460 6.041
3.839 2.377 4.643
3.609 2.282 4.946
3.587 2.041 5.020
3.473 1.811 5.232
3.673 2.241 5.315
3.393 2.042 5.397
4.058 2.363 5.015
3.909 2.324 5.147
3.903 2.083 5.408
3.673 1.918 5.492
3.554 1.682 5.648
3.423 1.648 5.972
4.376 2.376 5.007
4.246 2.167 5.148
3.998 1.878 5.314
3.976 1.711 5.610
3.906 1.537 5.710
3.731 1.524 5.945
3.529 1.211 6.073
4.623 2.163 5.081
4.417 1.951 5.302
4.300 1.758 5.463
4.122 1.587 5.658
4.001 1.516 5.745
4.009 1.252 5.923
3.838 1.224 6.241
4.891 2.030 5.099
4.624 1.913 5.239
4.633 1.701 5.412
4.531 1.568 5.671
4.286 1.355 5.838
4.161 1.100 6.074
4.038 1.093 6.312
5.102 1.962 5.081
5.039 1.815 5.266
4.897 1.477 5.513
4.749 1.470 5.647
4.578 1.139 5.939
4.482 1.018 6.017
6.272 0.537 6.042
1.276 3.850 4.493
1.273 3.788 4.693
1.104 3.589 4.841
0.986 3.449 4.931
0.776 3.144 5.180
0.700 2.969 5.385
1.676 3.784 4.397
1.392 3.497 4.635
1.336 3.417 4.783
1.311 3.176 5.068
1.042 3.083 5.310
0.906 2.960 5.469
0.822 2.759 5.659
1.844 3.658 4.464
1.728 3.529 4.659
1.559 3.354 4.907
1.448 3.082 5.071
1.361 3.001 5.298
1.147 2.773 5.459
1.147 2.539 5.723
0.897 2.407 5.816
2.033 3.575 4.638
2.033 3.279 4.799
1.770 3.191 5.027
1.759 3.006 5.069
1.559 2.739 5.311
1.521 2.593 5.511
1.349 2.506 5.669
1.179 2.239 5.950
1.386 1.912 6.135
2.419 3.280 4.620
2.282 3.146 4.764
2.164 3.005 4.932
1.988 2.893 5.193
1.807 2.742 5.452
1.668 2.447 5.571
1.518 2.380 5.725
1.460 2.217 5.977
1.271 1.943 6.155
1.657 1.848 6.133
1.726 2.016 5.991
1.592 1.941 6.222
3.569 2.201 5.286
3.508 2.127 5.528
0.196 0.173 0.259
0.462 0.011 0.402
0.264 0.258 0.550
0.172 0.149 0.749
0.474 0.218 0.469
0.335 0.015 0.682
0.698 0.111 0.670
0.252 0.500 0.736
0.084 0.374 0.866
0.081 0.211 1.150
0.467 0.434 0.717
0.410 0.272 1.010
0.186 -0.033 1.147
0.730 0.262 0.805
0.611 0.040 1.061
0.976 0.089 0.793
0.329 0.757 0.905
0.148 0.574 1.027
0.055 0.324 1.301
0.618 0.631 1.018
0.425 0.417 1.065
0.377 0.180 1.415
0.776 0.471 0.966
0.751 0.318 1.271
1.106 0.350 1.039
0.388 0.882 1.050
0.349 0.755 1.390
0.208 0.476 1.458
0.710 0.842 1.123
0.448 0.616 1.329
0.944 0.645 1.239
0.369 1.086 1.376
0.383 0.987 1.483
0.274 0.656 1.652
0.700 0.964 1.342
0.565 1.351 1.498
0.388 1.045 1.736
0.638 0.065 2.976
1.084 0.287 2.730
0.860 0.004 2.949
1.511 0.355 2.489
1.241 0.068 2.827
1.785 0.260 2.366
1.713 0.082 2.635
2.141 0.321 2.204
2.139 0.194 2.373
1.848 0.019 2.655
2.402 0.257 2.311
2.300 0.081 2.576
0.161 0.095 3.561
0.196 0.044 3.537
0.576 0.028 3.360
1.184 0.400 2.879
1.065 0.297 3.114
0.824 0.030 3.321
1.765 0.720 2.347
1.678 0.626 2.637
1.556 0.527 2.767
1.439 0.269 3.018
1.169 0.189 3.197
2.045 0.923 2.151
1.956 0.665 2.425
1.896 0.423 2.613
1.736 0.329 2.785
1.576 0.159 3.058
2.321 0.780 2.271
2.254 0.609 2.412
2.162 0.315 2.735
1.989 0.142 2.927
1.843 0.021 3.071
2.625 0.612 2.412
2.474 0.418 2.543
2.426 0.279 2.659
2.217 0.053 2.887
2.658 0.341 2.575
2.536 0.104 2.774
2.935 0.210 3.036
0.116 -0.017 3.998
0.818 0.155 3.668
1.927 1.182 2.332
1.772 1.040 2.655
1.724 0.862 2.708
1.545 0.719 2.902
1.422 0.541 3.106
1.266 0.244 3.315
1.236 0.153 3.596
2.115 1.040 2.390
2.144 0.845 2.552
2.020 0.611 2.870
1.815 0.459 3.088
1.706 0.342 3.124
1.556 0.237 3.434
1.440 0.090 3.612
2.370 0.879 2.505
2.246 0.709 2.668
2.209 0.515 2.836
2.008 0.418 3.104
1.958 0.196 3.236
1.740 0.025 3.481
2.646 0.689 2.557
2.561 0.637 2.737
2.360 0.356 2.960
2.314 0.177 3.146
2.243 0.037 3.219
2.948 0.665 2.517
2.787 0.452 2.813
2.691 0.312 2.921
2.578 0.069 3.086
2.850 0.110 2.960
0.067 4.252 0.019
0.091 2.340 1.780
1.576 3.487 0.367
1.473 3.269 0.652
-0.012 4.717 -0.003
0.260 4.701 0.089
0.089 4.517 0.334
0.076 4.281 0.560
0.554 4.594 0.175
1.581 3.665 0.541
1.586 3.569 0.749
1.399 3.286 1.018
1.220 3.121 1.137
0.169 5.164 0.008
0.179 5.039 0.351
0.490 5.062 0.072
0.371 4.839 0.311
0.258 4.711 0.434
0.698 4.904 0.137
0.621 4.637 0.423
1.141 4.930 0.044
1.606 3.688 0.948
1.491 3.444 1.255
1.272 3.339 1.416
1.169 3.194 1.548
0.154 5.560 -0.002
0.047 5.427 0.210
0.462 5.553 0.149
0.249 5.392 0.234
0.100 5.194 0.451
0.075 4.967 0.606
0.736 5.435 0.100
0.463 5.219 0.350
0.399 5.049 0.467
1.127 5.329 -0.001
0.981 5.269 0.231
0.772 5.031 0.309
1.298 5.237 0.065
1.152 5.130 0.287
1.540 5.113 0.185
2.147 5.088 0.059
1.276 3.841 1.394
1.222 3.588 1.611
0.983 3.435 1.778
2.140 5.010 -0.064
1.641 3.872 1.206
1.548 3.655 1.469
1.313 3.491 1.500
1.228 3.344 1.736
1.062 3.224 1.972
0.017 6.173 0.047
0.275 5.906 0.024
0.255 5.893 0.349
0.103 5.568 0.382
0.637 5.880 0.048
0.403 5.708 0.265
0.321 5.431 0.446
0.250 5.326 0.658
0.778 5.744 0.195
0.707 5.509 0.417
0.556 5.402 0.636
1.183 5.782 -0.038
1.122 5.498 0.300
0.989 5.370 0.344
1.283 5.796 0.047
1.510 5.669 0.087
1.290 5.444 0.178
1.412 5.638 0.126
1.724 5.472 0.164
1.680 5.273 0.386
1.759 5.460 0.169
1.995 5.371 0.107
1.020 4.038 1.614
0.892 3.905 1.899
1.919 5.412 0.108
2.190 5.310 0.163
1.407 4.237 1.408
1.403 4.067 1.585
1.285 3.781 1.783
1.004 3.761 1.978
0.932 3.541 2.163
2.326 5.416 0.070
2.141 5.247 0.304
1.619 4.131 1.456
1.511 3.947 1.616
1.477 3.715 1.839
1.291 3.644 1.975
1.230 3.476 2.251
2.510 5.299 0.059
-0.001 6.119 0.429
0.499 6.171 0.320
0.276 5.997 0.400
0.102 5.894 0.594
-0.042 5.626 0.880
0.826 6.120 0.067
0.734 6.072 0.242
0.481 5.828 0.466
0.391 5.719 0.752
0.718 6.189 0.185
0.956 6.043 0.200
0.888 5.919 0.335
0.781 5.709 0.596
1.004 6.157 0.215
1.322 5.938 0.313
1.157 5.808 0.480
1.470 6.089 0.122
1.320 5.916 0.316
1.574 5.883 0.345
1.485 5.566 0.521
0.318 4.279 1.971
0.330 4.024 2.160
1.682 6.062 0.008
1.571 5.854 0.233
1.868 5.622 0.397
0.783 4.290 1.848
0.607 4.231 2.075
0.590 3.912 2.293
1.977 5.933 0.125
1.831 5.625 0.290
2.035 5.490 0.440
1.132 4.278 1.644
1.006 4.146 1.962
0.880 3.991 2.034
0.784 3.815 2.293
2.086 5.775 0.266
1.947 5.593 0.385
2.358 5.497 0.486
1.469 4.441 1.654
1.454 4.280 1.828
1.278 4.137 1.882
1.105 3.852 2.223
0.939 3.697 2.261
0.951 3.522 2.475
2.456 5.742 0.066
2.417 5.512 0.267
2.357 5.402 0.353
2.588 5.343 0.447
1.704 4.328 1.671
1.653 4.006 1.859
1.441 3.858 2.036
1.353 3.747 2.104
1.205 3.594 2.296
1.121 3.392 2.548
2.831 5.677 0.126
2.682 5.425 0.276
2.597 5.284 0.436
0.419 6.243 0.744
0.172 5.945 0.832
0.775 6.176 0.593
0.550 6.095 0.714
0.280 4.547 2.179
0.067 4.397 2.290
0.542 4.695 2.089
0.513 4.457 2.284
0.409 4.275 2.428
0.110 4.043 2.509
0.041 3.903 2.806
1.800 6.127 0.324
1.016 4.590 1.826
0.805 4.503 2.077
0.750 4.376 2.268
0.505 4.212 2.481
0.491 3.931 2.609
2.022 6.207 0.109
1.928 6.033 0.420
1.411 4.744 1.642
1.175 4.593 1.834
1.093 4.451 2.159
0.922 4.239 2.233
0.757 3.946 2.419
0.606 3.890 2.645
2.449 6.293 -0.030
2.380 6.037 0.141
2.153 5.926 0.426
2.422 5.676 0.668
1.626 4.518 1.790
1.530 4.423 2.019
1.403 4.317 2.121
1.246 3.992 2.369
1.113 3.906 2.462
0.955 3.776 2.752
2.679 6.063 0.110
2.679 5.877 0.183
2.551 5.758 0.516
2.293 5.671 0.575
2.625 5.416 0.744
1.872 4.395 1.843
1.776 4.239 2.030
1.563 4.171 2.263
1.399 3.972 2.318
1.234 3.745 2.578
1.126 3.679 2.768
2.956 6.038 0.039
2.806 5.894 0.375
2.755 5.611 0.416
2.613 5.454 0.661
-0.003 4.833 2.377
0.400 5.036 2.111
0.185 4.773 2.344
0.206 4.539 2.616
-0.042 4.372 2.787
0.753 4.994 2.085
0.637 4.900 2.244
0.446 4.715 2.471
0.435 4.496 2.524
0.224 4.343 2.710
0.191 4.221 2.973
1.128 5.109 1.926
0.944 4.891 2.148
0.931 4.660 2.313
0.764 4.541 2.394
0.637 4.426 2.602
0.545 4.252 2.799
0.346 4.029 3.086
1.476 5.117 1.768
1.361 4.881 2.007
1.268 4.643 2.198
1.205 4.506 2.280
1.037 4.412 2.456
0.965 4.191 2.633
0.683 4.082 2.964
2.427 6.304 0.370
1.724 4.858 1.784
1.571 4.728 2.000
1.543 4.539 2.196
1.447 4.370 2.356
1.299 4.224 2.592
1.143 4.059 2.740
0.955 3.838 2.999
2.576 6.077 0.538
2.501 6.012 0.636
1.958 4.646 1.974
1.727 4.522 2.212
1.561 4.260 2.395
1.576 4.185 2.687
1.429 3.980 2.729
3.052 6.199 0.340
2.833 6.008 0.547
2.801 5.850 0.629
0.153 5.214 2.279
0.023 5.166 2.526
0.631 5.365 2.210
0.499 5.119 2.323
0.312 4.990 2.657
0.255 4.722 2.841
0.085 4.674 3.037
0.927 5.263 2.019
0.912 5.171 2.251
0.783 4.925 2.496
0.541 4.880 2.643
0.457 4.668 2.888
0.284 4.494 3.034
0.103 4.295 3.188
0.139 4.200 3.469
1.261 5.442 1.961
1.262 5.196 2.078
1.077 5.036 2.271
1.003 4.900 2.448
0.826 4.666 2.734
0.753 4.555 2.791
0.502 4.401 2.976
0.434 4.248 3.167
1.525 5.253 1.961
1.386 5.038 2.096
1.393 4.897 2.380
1.173 4.661 2.549
1.063 4.623 2.729
0.870 4.403 2.935
0.757 4.252 3.162
1.875 5.063 1.953
1.631 5.030 2.266
1.614 4.756 2.434
1.402 4.634 2.525
1.364 4.482 2.703
1.143 4.203 2.951
1.103 4.141 3.149
1.962 4.799 2.305
1.814 4.639 2.341
1.721 4.473 2.698
1.623 4.285 2.883
1.460 4.196 3.026
2.877 6.242 0.667
2.826 5.939 0.987
0.303 5.655 2.380
0.307 5.492 2.535
0.137 5.374 2.768
-0.068 5.053 2.932
0.693 5.679 2.292
0.599 5.459 2.450
0.542 5.289 2.622
0.345 5.123 2.716
0.206 4.947 2.982
0.072 4.886 3.177
1.165 5.732 2.027
1.012 5.525 2.244
0.869 5.328 2.482
0.842 5.224 2.607
0.658 5.088 2.780
0.537 4.860 2.987
0.330 4.735 3.213
0.211 4.487 3.466
0.051 4.317 3.672
1.449 5.798 1.920
1.361 5.543 2.171
1.234 5.394 2.282
1.116 5.290 2.478
0.992 5.014 2.759
0.868 4.883 2.875
0.784 4.767 3.102
0.576 4.561 3.213
0.415 4.469 3.534
1.820 5.598 2.019
1.678 5.405 2.172
1.494 5.244 2.324
1.374 5.187 2.574
1.193 5.009 2.719
1.142 4.743 2.906
1.071 4.518 3.141
0.919 4.357 3.330
1.849 5.289 2.175
1.819 5.073 2.331
1.580 4.951 2.558
1.589 4.788 2.793
1.297 4.673 2.918
1.233 4.419 3.162
2.043 4.994 2.390
1.877 4.753 2.560
1.750 4.601 2.859
1.622 4.577 2.987
0.508 5.753 2.612
0.407 5.727 2.803
0.204 5.442 2.910
0.149 5.253 3.183
0.991 6.161 1.987
0.944 6.071 2.255
0.889 5.934 2.425
0.723 5.707 2.691
0.537 5.531 2.794
0.455 5.382 3.005
0.313 5.158 3.193
0.146 4.936 3.364
-0.015 4.882 3.508
1.516 6.285 1.974
1.314 6.064 2.031
1.139 5.904 2.260
1.152 5.747 2.529
0.864 5.482 2.731
0.881 5.344 2.855
0.643 5.225 2.966
0.614 5.119 3.239
0.453 4.861 3.447
0.309 4.644 3.647
1.729 6.030 1.850
1.659 6.006 2.071
1.484 5.769 2.360
1.241 5.542 2.591
1.276 5.356 2.762
1.060 5.221 2.853
0.880 5.113 3.051
0.869 4.996 3.318
0.697 4.715 3.441
1.907 5.902 1.920
1.808 5.880 2.118
1.702 5.693 2.376
1.507 5.400 2.643
1.436 5.295 2.705
1.353 5.174 2.912
1.194 4.887 3.046
1.100 4.746 3.296
2.007 5.750 2.193
1.998 5.528 2.385
1.754 5.245 2.623
1.655 5.073 2.860
1.564 4.961 2.955
1.507 4.771 3.194
2.255 5.370 2.435
1.979 5.174 2.606
1.852 5.074 2.771
1.896 4.769 2.954
0.042 5.438 3.263
1.092 6.129 2.449
0.840 5.970 2.542
0.706 5.852 2.892
0.629 5.617 2.975
0.414 5.471 3.201
0.341 5.323 3.453
0.327 5.202 3.608
0.039 5.036 3.796
1.351 6.253 2.354
1.262 6.161 2.412
1.169 5.926 2.667
1.061 5.754 2.797
0.960 5.485 3.100
0.800 5.382 3.266
0.581 5.226 3.516
1.719 6.197 2.277
1.528 5.865 2.558
1.387 5.820 2.780
1.271 5.679 2.910
1.149 5.443 3.186
1.030 5.304 3.284
0.827 5.027 3.482
1.952 6.193 2.183
1.804 6.033 2.396
1.739 5.732 2.554
1.665 5.642 2.705
1.438 5.503 2.886
1.357 5.334 3.142
1.227 5.155 3.386
2.319 6.030 2.265
2.062 5.830 2.482
2.087 5.621 2.694
1.937 5.539 2.874
1.669 5.423 2.979
1.571 5.244 3.216
2.279 5.588 2.738
2.095 5.344 2.893
0.091 0.421 0.077
0.226 0.888 -0.015
0.049 0.655 0.281
-0.045 1.105 0.283
0.293 1.067 0.202
0.163 0.836 0.502
0.133 1.474 0.244
0.150 1.300 0.515
0.490 1.333 0.219
0.353 1.124 0.404
0.273 0.932 0.671
0.095 1.852 0.395
0.331 1.693 0.462
0.108 1.460 0.664
0.004 1.408 0.900
0.519 1.511 0.562
0.331 1.350 0.675
0.277 1.237 0.807
0.112 2.058 0.627
0.399 1.856 0.738
0.144 1.622 0.825
0.126 1.554 1.100
0.460 1.496 0.928
0.339 1.428 1.108
0.002 2.522 0.551
0.106 2.252 0.754
-0.030 2.062 0.981
0.472 1.985 0.781
0.326 1.871 0.972
0.090 1.676 1.226
0.600 1.793 1.107
0.366 1.639 1.345
0.177 2.746 0.762
0.158 2.410 1.102
0.136 2.108 1.282
0.358 2.097 1.179
0.240 1.921 1.534
0.387 1.669 1.528
0.068 3.604 0.297
0.016 2.603 1.177
0.143 2.309 1.366
-0.021 2.278 1.640
0.351 2.037 1.624
1.452 3.251 0.119
1.471 3.086 0.426
0.050 4.353 0.117
0.039 2.345 1.791
1.633 3.452 0.367
1.472 3.266 0.598
0.130 2.140 2.028
0.035 1.891 2.214
0.172 1.592 2.508
0.055 1.509 2.745
0.090 2.343 2.241
0.137 2.056 2.422
-0.055 1.911 2.593
0.251 1.855 2.767
0.190 1.574 2.929
0.150 2.117 2.906
0.267 1.761 3.093
-0.007 1.642 3.317
0.112 2.299 2.979
0.211 1.941 3.376
0.039 1.926 3.534
0.123 2.433 3.311
0.139 2.266 3.385
0.338 2.173 3.578
0.177 1.962 3.764
0.052 1.827 3.960
0.190 2.558 3.593
0.436 2.471 3.705
0.249 2.174 3.866
0.048 2.114 4.159
0.257 2.618 3.801
0.065 2.589 4.106
0.440 2.655 3.860
0.359 2.430 4.197
0.259 2.256 4.297
-0.010 2.027 4.416
0.303 2.915 3.996
0.160 2.722 4.337
0.457 2.764 4.169
0.348 2.649 4.363
0.172 2.390 4.505
0.021 2.318 4.748
0.254 2.961 4.430
0.023 2.799 4.680
0.604 2.897 4.320
0.429 2.690 4.453
0.328 2.566 4.677
0.121 2.392 4.857
0.046 2.210 5.021
0.555 3.068 4.564
0.469 3.021 4.662
0.328 2.834 4.917
0.195 2.612 5.119
0.723 3.491 4.627
0.649 3.405 4.837
0.555 3.148 4.947
0.339 3.049 5.121
0.940 3.647 4.780
0.758 3.423 4.987
-0.046 0.717 0.601
0.030 0.827 0.928
0.147 1.091 1.036
0.050 0.794 1.211
0.139 1.263 1.220
0.096 1.098 1.531
0.047 1.595 1.513
0.227 1.386 1.412
0.054 1.289 1.683
0.057 1.048 1.844
0.161 1.696 1.658
0.278 1.516 1.632
0.169 1.397 1.874
-0.011 1.223 2.108
0.179 1.951 1.814
-0.010 1.791 1.958
0.407 1.768 1.898
0.213 1.582 2.057
0.105 1.406 2.199
0.056 1.283 2.552
0.283 2.046 1.990
0.032 1.930 2.250
0.244 1.697 2.473
0.092 1.488 2.754
0.933 6.150 2.826
0.776 6.120 3.051
1.390 6.250 2.651
1.108 6.141 2.910
1.081 5.928 3.086
0.904 5.845 3.269
1.629 6.165 2.674
1.479 5.920 2.904
1.245 5.832 3.080
1.107 5.659 3.286
1.964 6.139 2.520
1.815 5.930 2.735
1.734 5.865 2.956
1.573 5.681 3.194
1.446 5.523 3.280
2.268 6.281 2.493
2.219 5.958 2.696
2.110 5.951 2.771
2.010 5.652 3.018
1.796 5.470 3.279
2.510 6.060 2.539
2.355 5.841 2.703
2.338 5.669 2.838
2.264 5.647 3.086
1.528 6.165 3.051
1.433 6.053 3.266
1.849 6.260 3.056
1.703 5.974 3.166
1.547 5.875 3.407
2.298 6.174 2.874
2.051 6.095 2.948
1.970 5.886 3.249
2.689 6.278 2.663
2.495 6.131 2.970
2.374 5.862 3.136
1.387 4.543 4.658
1.887 6.229 3.424
2.144 6.225 3.221
2.064 6.015 3.365
1.125 4.923 4.698
2.373 6.195 3.305
1.455 4.853 4.599
1.464 4.693 4.763
0.900 5.134 4.981
2.109 6.289 3.721
1.411 5.325 4.861
1.141 5.137 5.001
1.654 5.078 4.748
1.436 5.002 4.951
0.640 5.854 4.841
0.627 5.716 5.012
0.972 5.625 4.942
0.711 5.567 5.021
1.165 5.647 4.947
1.059 5.411 5.054
1.477 5.684 4.880
1.367 5.491 4.949
1.340 5.193 5.106
1.814 5.547 4.916
1.575 5.232 5.118
1.506 5.142 5.298
0.162 6.299 4.899
0.472 6.179 5.060
0.334 5.888 5.261
0.902 6.135 4.786
0.739 5.961 5.018
0.526 5.853 5.326
1.024 6.095 4.960
1.039 5.912 5.065
0.870 5.689 5.262
1.291 5.850 4.917
1.198 5.751 5.145
1.041 5.500 5.403
1.583 5.717 5.008
1.503 5.690 5.138
1.322 5.479 5.430
1.840 5.690 5.088
1.684 5.428 5.182
1.576 5.393 5.372
0.489 6.242 5.363
0.773 6.178 5.298
0.697 5.987 5.387
1.233 6.265 5.053
1.033 6.137 5.373
0.970 5.871 5.458
1.449 6.091 5.131
1.261 5.989 5.375
1.180 5.693 5.607
1.652 6.029 5.143
1.548 5.871 5.382
1.344 5.719 5.618
1.846 5.699 5.391
1.587 5.467 5.696
0.705 6.229 5.744
1.052 6.313 5.538
1.005 6.045 5.754
1.304 6.079 5.623
1.196 6.015 5.725
1.699 6.172 5.498
1.604 5.941 5.576
1.429 5.737 5.805
1.919 5.785 5.734
1.714 5.733 5.897
0.998 6.208 5.834
1.266 6.179 5.924
1.576 6.255 5.835
1.454 6.026 6.042
1.760 5.854 6.108
1.654 6.124 6.196
1.107 4.292 4.622
0.980 4.019 4.807
0.884 3.786 5.043
0.860 3.697 5.117
1.150 4.419 4.801
1.095 4.180 5.002
0.918 3.975 5.106
1.038 4.690 4.916
0.931 4.568 5.098
1.305 4.639 5.008
1.193 4.367 5.227
0.967 4.186 5.351
0.892 5.012 5.062
1.075 4.940 5.232
0.969 4.779 5.430
0.865 4.558 5.585
1.295 4.725 5.284
1.193 4.629 5.385
1.166 4.499 5.524
0.720 5.399 5.296
0.854 5.198 5.341
0.834 5.022 5.436
1.160 5.095 5.388
1.025 4.921 5.535
0.935 4.661 5.686
1.360 4.921 5.414
1.333 4.773 5.693
1.096 4.548 5.798
0.447 5.749 5.403
0.656 5.457 5.408
0.636 5.344 5.736
0.948 5.377 5.535
0.822 5.301 5.790
0.673 5.090 5.848
1.195 5.227 5.651
1.017 5.130 5.820
1.041 4.879 5.943
1.489 5.090 5.593
1.316 4.886 5.897
1.286 4.779 6.045
0.270 6.049 5.650
0.474 5.772 5.730
0.443 5.709 5.895
0.697 5.676 5.778
0.711 5.507 5.915
0.571 5.411 6.114
1.047 5.627 5.688
0.904 5.361 5.861
0.701 5.303 6.197
1.271 5.458 5.864
1.167 5.266 6.056
1.104 5.115 6.165
1.467 5.322 5.812
1.453 5.220 6.103
1.290 4.906 6.303
0.271 6.197 5.832
0.286 5.935 6.029
0.556 6.063 5.796
0.390 5.938 6.046
0.299 5.723 6.207
0.767 5.880 5.840
0.699 5.707 6.165
0.650 5.630 6.319
1.086 5.719 6.005
0.886 5.687 6.077
1.291 5.565 6.060
1.238 5.426 6.172
1.533 5.500 6.076
1.423 5.339 6.260
0.209 6.199 6.178
0.705 6.158 6.103
0.541 5.997 6.240
0.901 6.176 6.095
1.188 5.920 6.125
1.438 5.811 6.156
1.574 5.710 6.287
4.244 2.007 0.847
4.203 1.854 1.035
4.806 2.281 0.514
4.716 2.113 0.833
4.529 1.819 0.909
4.428 1.697 1.195
4.273 1.502 1.371
4.233 1.356 1.558
5.283 2.335 0.479
5.129 2.153 0.632
4.901 1.879 0.740
4.825 1.836 1.038
4.667 1.593 1.180
4.635 1.491 1.373
4.397 1.260 1.501
4.271 1.043 1.741
5.665 2.307 0.354
5.481 2.076 0.570
5.251 1.895 0.721
5.239 1.869 0.788
5.116 1.620 1.068
4.984 1.543 1.332
4.788 1.338 1.439
4.676 1.208 1.645
4.532 0.878 1.749
4.351 0.845 2.069
5.786 2.105 0.293
5.679 2.005 0.530
5.511 1.839 0.767
5.529 1.648 0.872
5.368 1.503 1.058
5.227 1.417 1.289
5.141 1.227 1.536
4.899 0.911 1.663
4.890 0.787 1.855
4.710 0.651 2.109
6.232 2.220 0.119
6.133 2.105 0.376
5.925 1.868 0.523
5.817 1.638 0.730
5.720 1.622 0.968
5.614 1.320 1.164
5.521 1.252 1.415
5.247 1.104 1.481
5.154 0.800 1.735
5.088 0.609 1.952
4.909 0.446 2.038
4.861 0.421 2.370
4.630 0.211 2.466
6.129 2.291 0.256
5.216 0.398 2.121
5.002 0.299 2.429
4.965 0.033 2.611
2.172 3.667 0.098
2.054 3.573 0.314
1.909 3.348 0.432
1.775 3.119 0.709
1.629 3.001 0.795
1.428 2.799 1.074
2.377 3.558 0.123
2.179 3.370 0.339
2.069 3.209 0.551
1.888 3.014 0.703
1.782 2.849 0.851
1.737 2.734 1.059
1.633 2.464 1.164
2.552 3.505 0.149
2.520 3.344 0.380
2.299 3.179 0.560
2.251 3.009 0.770
2.005 2.779 0.963
2.014 2.619 1.171
1.806 2.438 1.333
1.692 2.284 1.450
3.010 3.449 -0.041
2.836 3.303 0.231
2.771 3.047 0.329
2.596 2.919 0.502
2.432 2.853 0.700
2.314 2.653 0.925
2.244 2.504 1.195
2.079 2.336 1.291
1.988 2.061 1.489
3.234 3.341 0.052
3.159 3.233 0.308
2.928 3.083 0.449
2.831 2.847 0.695
2.773 2.654 0.857
2.668 2.471 1.027
2.411 2.245 1.250
2.275 2.189 1.409
2.185 1.959 1.606
2.056 1.807 1.847
1.921 1.674 2.005
2.480 1.894 1.543
2.243 1.684 1.842
2.212 1.524 2.097
2.038 1.364 2.155
2.357 1.365 1.974
2.330 1.228 2.251
2.737 1.238 2.191
2.519 1.021 2.306
2.804 1.017 2.288
4.375 2.120 0.986
4.233 1.922 1.111
4.684 2.610 0.727
4.538 2.480 0.848
4.460 2.251 1.094
4.181 2.010 1.261
4.937 2.561 0.579
4.822 2.438 0.858
4.849 2.209 1.022
4.568 2.058 1.188
4.507 1.939 1.274
4.307 1.668 1.630
5.310 2.599 0.427
5.243 2.406 0.655
5.103 2.233 0.787
4.956 2.134 0.967
4.913 1.919 1.140
4.825 1.748 1.368
4.615 1.643 1.598
4.576 1.387 1.757
5.737 2.604 0.347
5.639 2.524 0.496
5.484 2.388 0.663
5.347 2.114 0.900
5.173 1.983 1.003
5.126 1.884 1.351
4.973 1.686 1.443
4.929 1.431 1.732
4.672 1.303 1.847
5.789 2.694 0.278
6.101 2.492 0.277
5.807 2.438 0.609
5.818 2.244 0.724
5.690 2.042 0.873
5.509 1.846 1.099
5.359 1.738 1.245
5.194 1.438 1.446
5.048 1.328 1.730
5.011 1.266 1.834
6.220 2.703 0.176
5.966 2.477 0.416
6.218 2.484 0.435
6.059 2.196 0.660
5.933 2.094 0.712
5.799 1.853 0.914
5.729 1.800 1.249
5.579 1.640 1.385
5.581 1.416 1.523
5.288 1.257 1.745
6.310 2.341 0.472
6.317 1.863 0.861
6.197 1.705 1.084
6.055 1.614 1.197
2.090 3.693 0.469
1.976 3.579 0.586
1.818 3.408 0.757
1.604 3.177 0.942
1.444 2.966 1.139
1.364 2.873 1.347
2.437 3.741 0.248
2.239 3.502 0.516
2.105 3.413 0.739
2.016 3.218 0.798
1.849 3.019 1.063
1.774 2.965 1.261
1.581 2.740 1.456
1.441 2.558 1.723
2.634 3.561 0.404
2.480 3.405 0.579
2.399 3.282 0.664
2.338 3.124 0.972
2.139 2.948 1.048
2.014 2.822 1.282
1.871 2.547 1.420
1.711 2.466 1.778
1.644 2.266 1.927
2.902 3.456 0.455
2.742 3.284 0.614
2.603 3.173 0.831
2.499 3.025 0.895
2.403 2.726 1.103
2.315 2.587 1.422
2.186 2.399 1.480
1.948 2.322 1.826
1.822 2.165 1.962
1.730 1.925 2.194
3.004 3.120 0.647
2.967 3.089 0.775
2.821 2.851 1.105
2.559 2.643 1.159
2.451 2.433 1.423
2.428 2.306 1.585
2.212 2.250 1.794
2.168 1.971 2.024
2.025 1.790 2.159
1.883 1.678 2.420
2.876 2.607 1.217
2.812 2.454 1.383
2.575 2.216 1.650
2.423 2.026 1.805
2.328 1.878 2.116
2.251 1.677 2.272
2.162 1.450 2.414
2.777 1.908 1.797
2.656 1.791 1.993
2.573 1.508 2.217
2.442 1.445 2.526
2.901 1.658 2.061
2.793 1.370 2.233
2.540 1.238 2.520
2.968 1.244 2.322
2.893 1.044 2.592
3.182 1.037 2.604
4.715 2.529 0.759
4.577 2.403 0.900
4.338 2.287 1.176
4.234 2.014 1.296
4.903 2.845 0.824
4.771 2.691 0.938
4.510 2.631 1.074
4.435 2.395 1.288
3.465 1.122 2.904
5.133 2.898 0.551
5.081 2.830 0.783
4.990 2.548 0.924
4.845 2.484 1.216
4.722 2.279 1.425
4.545 2.061 1.532
5.616 2.928 0.558
5.450 2.759 0.724
5.322 2.674 0.809
5.282 2.545 1.081
5.062 2.327 1.248
5.020 2.116 1.502
4.891 1.953 1.553
4.628 1.734 1.839
5.570 2.999 0.444
5.822 2.884 0.476
5.637 2.718 0.666
5.495 2.464 0.975
5.497 2.269 1.060
5.304 2.245 1.285
5.269 2.011 1.422
5.081 1.825 1.703
4.907 1.658 1.896
5.927 3.114 0.277
5.812 2.905 0.509
6.146 2.725 0.522
5.966 2.648 0.735
5.908 2.451 1.002
5.752 2.257 1.064
5.555 2.108 1.339
5.499 1.924 1.561
5.358 1.660 1.739
6.118 2.820 0.353
6.059 2.723 0.478
6.215 2.404 0.887
6.101 2.265 0.986
5.907 2.033 1.187
5.746 1.932 1.451
5.632 1.686 1.642
6.268 1.981 1.245
6.049 1.716 1.377
1.973 3.768 0.774
1.805 3.621 1.114
1.678 3.413 1.312
1.601 3.220 1.386
1.438 2.980 1.624
1.350 2.824 1.809
2.408 3.792 0.690
2.271 3.664 0.938
2.138 3.498 1.134
1.941 3.336 1.349
1.909 3.166 1.473
1.706 3.006 1.680
1.641 2.762 1.918
1.528 2.600 2.128
2.550 3.718 0.674
2.445 3.444 0.897
2.404 3.312 1.211
2.269 3.067 1.305
2.018 2.906 1.606
1.944 2.762 1.708
1.819 2.587 1.974
1.630 2.430 2.167
1.637 2.264 2.295
2.665 3.362 1.046
2.564 3.089 1.100
2.393 3.060 1.375
2.345 2.747 1.606
2.213 2.625 1.783
2.043 2.428 1.956
1.917 2.243 2.067
1.809 2.144 2.333
1.636 1.890 2.535
2.742 3.096 1.274
2.657 2.820 1.475
2.602 2.625 1.623
2.365 2.519 1.720
2.355 2.275 2.000
2.274 2.230 2.156
2.030 2.086 2.353
1.889 1.830 2.560
2.919 2.719 1.393
2.870 2.477 1.618
2.736 2.396 1.860
2.605 2.272 1.997
2.484 2.054 2.167
2.257 1.931 2.342
2.131 1.686 2.597
2.865 2.310 1.952
2.795 2.123 2.124
2.660 1.919 2.265
2.535 1.744 2.459
2.495 1.654 2.613
3.150 1.973 2.211
2.952 1.762 2.339
2.809 1.614 2.492
2.680 1.516 2.777
3.142 1.586 2.377
3.103 1.513 2.492
2.930 1.366 2.756
3.255 1.317 2.657
3.114 1.268 2.803
4.880 2.899 0.749
4.628 2.679 1.008
4.641 2.558 1.123
4.447 2.467 1.407
3.450 1.099 2.823
5.075 3.309 0.846
4.912 3.094 0.890
4.821 2.955 1.139
4.584 2.715 1.427
4.420 2.518 1.564
3.558 1.350 2.867
3.414 1.197 3.068
5.432 3.254 0.546
5.184 3.167 0.801
5.191 3.050 1.018
5.035 2.757 1.260
4.928 2.632 1.322
4.682 2.540 1.602
4.663 2.371 1.736
3.685 1.140 3.196
5.384 3.238 0.639
5.587 3.199 0.676
5.493 2.997 0.782
5.326 2.885 0.990
5.241 2.681 1.236
5.174 2.527 1.385
5.038 2.334 1.683
4.801 2.232 1.897
5.705 3.271 0.726
5.886 3.094 0.714
5.783 2.867 0.885
5.691 2.718 1.131
5.495 2.625 1.297
5.396 2.339 1.408
5.226 2.154 1.752
5.212 1.954 1.949
6.068 3.261 0.530
5.843 3.081 0.766
6.186 2.977 0.832
6.027 2.686 0.904
5.847 2.634 1.207
5.754 2.350 1.287
5.669 2.298 1.473
5.460 2.141 1.784
6.284 3.045 0.554
6.119 2.834 0.856
6.294 2.537 0.991
6.202 2.411 1.265
5.958 2.351 1.378
5.847 2.028 1.642
6.277 2.151 1.409
2.051 3.904 1.033
1.857 3.697 1.166
1.712 3.587 1.500
1.596 3.424 1.638
1.430 3.261 1.751
1.443 3.012 2.088
1.196 2.929 2.121
2.313 3.768 1.096
2.067 3.594 1.240
2.005 3.495 1.568
1.811 3.225 1.669
1.840 3.162 1.868
1.613 3.016 2.098
1.487 2.804 2.179
2.494 3.570 1.102
2.392 3.528 1.362
2.229 3.266 1.505
2.155 3.115 1.754
1.974 2.924 1.970
1.840 2.838 2.157
1.786 2.567 2.301
1.641 2.416 2.563
2.558 3.385 1.478
2.455 3.168 1.647
2.461 2.988 1.832
2.296 2.850 2.047
2.125 2.607 2.244
2.053 2.465 2.396
1.856 2.330 2.600
1.771 2.208 2.750
2.706 3.056 1.600
2.622 2.800 1.878
2.428 2.727 2.019
2.417 2.524 2.164
2.268 2.318 2.360
2.047 2.121 2.568
2.075 1.969 2.773
2.888 2.775 1.898
2.691 2.553 2.042
2.629 2.351 2.289
2.456 2.201 2.421
2.431 2.099 2.618
2.209 1.818 2.825
2.973 2.396 2.112
2.841 2.288 2.290
2.757 2.050 2.553
2.561 1.886 2.768
2.544 1.821 2.858
3.147 2.141 2.335
2.921 1.912 2.624
2.950 1.789 2.772
2.767 1.559 2.888
3.206 1.836 2.567
3.063 1.599 2.732
2.912 1.465 2.957
4.562 3.167 0.891
4.549 3.146 1.078
4.374 2.935 1.362
3.562 1.705 2.608
3.355 1.466 2.885
3.282 1.380 3.073
4.944 3.292 0.855
4.916 3.053 0.887
4.739 2.996 1.139
4.668 2.686 1.383
4.573 2.684 1.571
3.588 1.327 2.876
3.471 1.224 3.054
5.058 3.441 0.943
4.934 3.333 1.145
4.907 3.046 1.280
4.670 2.956 1.480
4.483 2.739 1.730
3.659 1.586 3.127
3.634 1.351 3.222
5.389 3.420 0.805
5.329 3.325 1.063
5.253 3.111 1.195
4.993 2.960 1.404
4.999 2.861 1.584
4.871 2.606 1.824
4.620 2.505 1.897
3.879 1.428 3.155
3.760 1.236 3.336
5.384 3.501 0.805
5.683 3.313 0.819
5.502 3.262 1.062
5.380 3.096 1.289
5.281 2.915 1.479
5.238 2.682 1.701
5.151 2.439 1.916
4.952 2.396 2.015
4.124 1.151 3.344
5.716 3.389 0.956
5.906 3.155 1.016
5.872 3.054 1.163
5.668 2.856 1.242
5.610 2.683 1.444
5.466 2.581 1.645
5.273 2.318 1.971
6.136 3.408 0.784
5.988 3.237 0.922
6.112 3.170 0.988
6.138 3.001 1.158
5.870 2.683 1.296
5.746 2.526 1.502
5.756 2.354 1.757
6.130 3.067 0.991
6.196 2.627 1.389
6.097 2.506 1.642
2.081 4.173 1.234
1.887 3.921 1.516
1.898 3.809 1.647
1.642 3.607 1.791
1.503 3.434 2.025
1.425 3.296 2.250
1.242 3.034 2.362
2.848 5.124 0.209
2.406 3.910 1.372
2.225 3.827 1.435
2.066 3.673 1.757
1.862 3.474 1.923
1.774 3.296 2.092
1.770 3.091 2.255
1.622 2.889 2.448
2.463 3.652 1.638
2.336 3.503 1.765
2.226 3.362 1.869
2.054 3.167 2.111
1.929 2.928 2.282
1.786 2.771 2.490
1.701 2.623 2.753
2.516 3.337 1.785
2.444 3.126 2.014
2.316 2.992 2.164
2.131 2.936 2.371
2.036 2.628 2.620
1.982 2.432 2.828
2.776 3.016 2.089
2.624 2.858 2.254
2.483 2.712 2.466
2.348 2.616 2.659
2.122 2.466 2.782
2.016 2.231 2.906
2.812 2.758 2.190
2.702 2.520 2.495
2.575 2.465 2.736
2.465 2.173 2.915
2.262 2.056 3.046
2.956 2.436 2.537
2.826 2.330 2.669
2.763 2.090 2.877
2.543 1.913 3.157
3.240 2.260 2.477
2.996 2.196 2.674
2.896 1.941 3.020
2.840 1.879 3.138
4.457 3.495 1.149
4.278 3.379 1.208
3.321 1.981 2.743
3.159 1.903 2.992
3.127 1.611 3.199
4.770 3.607 0.987
4.762 3.451 1.199
4.657 3.292 1.258
4.521 3.091 1.471
4.285 2.959 1.741
3.513 1.864 2.900
3.473 1.697 3.105
3.268 1.502 3.298
5.078 3.539 0.974
4.943 3.291 1.116
4.772 3.077 1.345
4.632 2.890 1.630
4.643 2.829 1.749
3.640 1.677 3.004
3.573 1.495 3.252
5.257 3.875 1.002
5.048 3.622 1.254
5.075 3.539 1.443
4.802 3.266 1.505
4.776 3.080 1.693
4.548 2.922 1.940
3.857 1.924 3.156
3.687 1.725 3.208
3.690 1.620 3.506
5.236 3.810 1.063
5.577 3.726 0.963
5.325 3.522 1.209
5.195 3.320 1.342
5.111 3.183 1.580
4.948 2.993 1.722
4.934 2.832 1.998
4.140 1.735 3.077
3.914 1.671 3.390
3.835 1.514 3.552
5.429 3.621 1.111
5.773 3.491 1.037
5.557 3.394 1.317
5.442 3.219 1.390
5.451 3.085 1.641
5.184 2.830 1.778
5.053 2.674 2.009
4.195 1.600 3.356
4.062 1.383 3.601
5.721 3.488 1.137
6.077 3.507 1.227
5.866 3.238 1.394
5.825 3.099 1.433
5.544 3.000 1.657
5.542 2.787 1.958
4.528 1.403 3.512
4.362 1.290 3.694
6.049 3.476 1.068
6.222 3.307 1.139
6.135 3.189 1.429
6.002 3.025 1.617
5.938 2.712 1.754
4.675 1.213 3.420
4.671 1.024 3.745
6.296 3.220 1.242
6.204 2.827 1.666
5.935 1.412 3.119
5.738 1.133 3.214
6.154 1.362 2.824
6.085 1.301 3.020
5.970 0.981 3.329
6.162 0.855 3.324
2.696 5.084 0.482
2.034 4.169 1.742
1.900 3.960 1.786
1.706 3.729 2.063
1.617 3.639 2.225
1.501 3.444 2.464
1.385 3.249 2.610
3.110 5.472 0.085
2.963 5.398 0.261
2.692 5.215 0.452
2.227 4.063 1.635
2.158 3.858 1.879
2.090 3.710 2.082
1.897 3.430 2.345
1.742 3.388 2.503
1.612 3.219 2.592
3.305 5.398 0.241
3.152 5.138 0.297
2.394 3.729 1.909
2.308 3.543 2.182
2.087 3.396 2.263
2.006 3.191 2.565
1.818 2.940 2.732
3.715 5.432 0.118
3.509 5.181 0.150
3.427 5.003 0.493
2.426 3.453 2.154
2.361 3.282 2.316
2.204 3.002 2.547
2.197 2.929 2.819
2.019 2.753 3.038
3.743 5.091 0.353
3.589 4.920 0.438
2.706 3.137 2.353
2.525 2.898 2.552
2.291 2.703 2.848
2.178 2.656 2.963
2.686 2.805 2.662
2.569 2.635 2.827
2.489 2.411 3.015
2.445 2.261 3.213
4.189 4.146 0.951
3.962 4.014 1.262
2.993 2.658 2.654
2.926 2.472 2.939
2.765 2.329 3.075
2.701 2.207 3.287
4.395 4.135 1.071
4.220 3.834 1.313
4.151 3.690 1.342
3.038 2.435 3.003
3.072 2.118 3.218
2.844 2.090 3.301
4.588 3.847 1.144
4.453 3.785 1.348
4.337 3.497 1.524
4.339 3.389 1.601
3.303 2.204 3.085
3.266 2.021 3.176
3.085 1.798 3.419
4.969 4.032 0.897
4.958 3.742 1.167
4.759 3.683 1.386
4.552 3.516 1.573
4.516 3.260 1.761
4.413 3.070 1.969
3.599 2.058 2.985
3.501 1.928 3.296
3.414 1.725 3.423
4.944 4.017 0.887
5.267 3.865 0.909
5.198 3.575 1.166
5.073 3.499 1.392
4.846 3.355 1.517
4.829 3.211 1.700
4.554 3.044 2.016
3.939 1.964 3.015
3.743 1.801 3.344
3.535 1.672 3.435
5.208 3.838 0.997
5.348 4.047 1.127
5.119 3.876 1.376
4.993 3.594 1.528
5.012 3.464 1.773
4.871 3.244 1.949
4.645 3.203 2.089
3.974 2.111 3.231
3.833 2.019 3.520
3.600 1.879 3.718
6.098 5.053 -0.014
5.356 4.033 1.269
5.600 3.928 1.292
5.466 3.679 1.356
5.295 3.542 1.632
5.111 3.386 1.852
5.068 3.127 1.947
4.866 3.084 2.209
4.208 2.012 3.375
4.110 1.806 3.511
3.917 1.664 3.773
5.611 3.963 1.177
5.731 3.610 1.551
5.487 3.352 1.676
5.511 3.178 1.859
5.260 3.125 2.120
4.463 1.951 3.367
4.283 1.755 3.523
4.117 1.542 3.845
5.859 3.443 1.513
5.730 3.283 1.707
5.603 3.059 1.975
4.668 1.705 3.528
4.600 1.596 3.715
4.420 1.401 3.885
6.237 3.228 1.498
6.058 3.179 1.705
5.107 1.772 3.378
4.866 1.660 3.564
4.845 1.436 3.628
4.665 1.351 3.828
5.340 1.577 3.370
5.139 1.495 3.580
5.107 1.229 3.723
4.916 1.175 4.003
5.681 1.747 3.228
5.535 1.493 3.351
5.471 1.348 3.595
5.340 1.202 3.732
6.005 1.748 3.012
5.990 1.479 3.194
5.717 1.421 3.396
5.584 1.221 3.646
5.618 1.054 3.762
6.214 1.332 3.249
5.976 1.235 3.430
5.830 1.046 3.707
6.230 0.988 3.679
2.875 5.407 0.813
2.076 4.315 1.871
1.882 4.069 1.986
1.790 3.915 2.173
1.679 3.836 2.473
1.514 3.596 2.719
1.374 3.455 2.892
3.235 5.892 0.119
3.066 5.668 0.383
2.999 5.471 0.610
2.896 5.366 0.684
3.061 5.205 0.842
2.155 4.073 2.075
2.064 3.885 2.349
1.984 3.747 2.446
1.876 3.490 2.644
3.580 5.947 0.095
3.427 5.729 0.201
3.422 5.566 0.375
3.226 5.410 0.566
3.056 5.182 0.692
3.299 5.153 0.843
2.293 3.688 2.387
2.274 3.591 2.569
2.050 3.307 2.700
3.907 5.726 0.093
3.802 5.581 0.303
3.543 5.334 0.490
3.521 5.192 0.659
3.394 5.034 0.824
3.669 4.952 0.876
3.479 4.770 1.105
2.523 3.463 2.647
2.279 3.237 2.734
3.947 5.420 0.354
3.816 5.287 0.469
3.753 5.029 0.740
3.532 4.981 0.938
3.874 4.783 0.855
3.749 4.559 1.117
4.023 5.083 0.485
3.961 4.987 0.669
3.775 4.799 0.966
4.139 4.697 0.927
3.938 4.463 1.202
3.776 4.371 1.425
4.238 4.839 0.688
4.142 4.712 1.051
4.344 4.558 1.069
4.266 4.395 1.277
4.023 4.163 1.363
3.921 4.068 1.552
2.750 2.446 3.296
2.643 2.363 3.513
4.411 4.724 0.852
4.395 4.500 0.950
4.521 4.323 1.015
4.367 4.287 1.262
4.363 3.991 1.400
4.263 3.935 1.641
4.066 3.721 1.842
2.990 2.292 3.320
2.987 2.215 3.518
4.660 4.399 1.101
4.803 4.359 1.188
4.769 4.132 1.237
4.504 3.947 1.500
4.386 3.742 1.649
4.296 3.637 1.800
4.222 3.348 2.108
3.314 2.297 3.400
3.092 2.043 3.611
4.847 4.297 1.057
5.071 4.075 1.188
5.028 4.048 1.315
4.885 3.731 1.616
4.652 3.559 1.759
4.512 3.532 1.932
4.461 3.287 2.194
3.665 2.256 3.191
3.505 2.150 3.431
3.494 1.860 3.646
5.893 5.114 -0.003
5.074 4.212 1.220
5.392 3.961 1.161
5.157 3.859 1.394
5.017 3.680 1.667
4.941 3.559 1.700
4.883 3.408 1.894
4.632 3.196 2.135
3.999 2.209 3.245
3.747 1.920 3.529
3.646 1.768 3.742
6.070 5.074 0.059
5.306 4.011 1.270
5.237 4.047 1.516
5.180 3.801 1.807
4.941 3.614 1.972
4.821 3.553 2.161
4.682 3.386 2.405
3.875 2.153 3.741
3.713 1.918 3.880
6.210 5.395 0.149
6.174 5.155 0.204
5.583 3.859 1.588
5.340 3.704 1.876
5.272 3.587 1.968
5.044 3.340 2.156
5.065 3.212 2.460
4.253 2.184 3.605
4.171 2.023 3.682
3.901 1.840 4.002
6.341 4.942 0.494
5.599 3.596 1.877
5.553 3.470 2.115
4.430 2.105 3.585
4.332 1.826 3.783
4.254 1.688 4.071
4.810 2.123 3.437
4.659 1.897 3.602
4.608 1.670 3.788
4.504 1.559 3.981
5.037 1.914 3.589
5.051 1.867 3.649
4.806 1.605 3.827
4.649 1.451 3.996
5.473 2.048 3.308
5.284 1.766 3.507
5.185 1.750 3.785
5.148 1.489 3.912
4.924 1.327 4.148
5.915 2.045 3.269
5.670 1.798 3.331
5.636 1.640 3.563
5.414 1.460 3.728
5.382 1.390 3.903
5.175 1.120 4.103
6.256 2.148 3.143
6.091 1.859 3.320
5.926 1.722 3.385
5.806 1.602 3.656
5.668 1.339 3.784
5.600 1.297 3.987
6.156 1.643 3.442
6.030 1.452 3.612
6.039 1.291 3.885
5.800 1.166 4.088
6.194 1.133 3.896
2.953 5.566 0.852
2.190 4.412 2.146
1.940 4.383 2.322
1.909 4.197 2.482
1.712 4.015 2.593
1.661 3.840 2.864
3.439 6.250 0.091
3.209 6.066 0.442
3.067 5.832 0.601
3.045 5.656 0.805
2.859 5.506 1.008
3.095 5.436 0.961
2.185 4.101 2.484
1.986 3.805 2.723
3.711 6.319 -0.039
3.669 5.991 0.215
3.560 5.867 0.469
3.452 5.732 0.548
3.293 5.589 0.784
3.099 5.312 0.981
3.373 5.265 0.980
3.317 5.162 1.223
4.058 6.103 0.126
3.834 5.999 0.284
3.736 5.811 0.487
3.642 5.650 0.571
3.524 5.405 0.799
3.426 5.244 0.952
3.559 5.084 1.155
3.589 4.899 1.352
4.197 5.740 0.250
4.014 5.608 0.505
3.811 5.526 0.679
3.819 5.274 0.864
3.563 5.150 1.007
3.810 5.074 1.066
3.841 4.806 1.401
3.669 4.578 1.525
4.315 5.569 0.522
4.111 5.339 0.659
4.001 5.152 0.893
3.959 5.008 1.061
4.216 4.900 1.087
3.989 4.767 1.395
3.865 4.472 1.539
3.757 4.436 1.710
4.393 5.192 0.823
4.188 4.975 0.948
4.092 4.932 1.094
4.473 4.814 1.285
4.285 4.540 1.357
4.188 4.317 1.640
4.022 4.237 1.763
3.950 4.120 1.907
4.432 4.817 1.015
4.348 4.726 1.266
4.597 4.547 1.254
4.473 4.473 1.435
4.338 4.176 1.731
4.193 4.038 1.841
4.088 3.858 1.985
3.942 3.687 2.178
4.755 4.695 1.061
4.666 4.609 1.339
4.928 4.497 1.369
4.689 4.332 1.483
4.564 4.114 1.742
4.535 3.884 1.824
4.306 3.713 1.991
4.212 3.536 2.247
4.194 3.498 2.502
3.302 2.283 3.831
4.951 4.473 1.389
5.081 4.287 1.374
5.039 4.093 1.614
4.958 3.937 1.818
4.715 3.852 1.882
4.620 3.572 2.187
4.585 3.399 2.338
4.333 3.224 2.438
3.642 2.226 3.615
3.518 2.188 3.796
6.050 5.566 0.008
5.829 5.338 0.271
5.141 4.363 1.426
5.207 4.092 1.637
5.205 3.927 1.847
4.927 3.771 1.895
4.864 3.471 2.161
4.769 3.323 2.405
3.913 2.191 3.622
3.697 2.019 3.941
6.297 5.324 0.072
6.169 5.257 0.235
5.368 4.138 1.880
5.152 4.009 2.005
5.021 3.825 2.106
4.939 3.675 2.344
4.720 3.609 2.494
3.974 2.391 3.956
3.749 2.238 4.094
6.271 5.390 0.514
5.474 3.909 2.019
5.295 3.715 2.257
5.262 3.503 2.344
4.340 2.335 3.691
4.112 2.275 3.939
4.114 1.975 4.127
4.510 2.201 3.886
4.406 2.018 4.050
4.371 1.863 4.121
5.003 2.308 3.660
4.832 2.033 3.795
4.734 1.887 3.981
4.606 1.807 4.170
5.272 2.367 3.610
5.109 2.139 3.663
5.090 2.049 3.856
4.920 1.765 4.101
4.857 1.568 4.242
5.609 2.318 3.408
5.582 2.175 3.549
5.465 2.062 3.838
5.228 1.929 3.919
5.187 1.711 4.083
5.094 1.582 4.278
6.118 2.417 3.170
5.838 2.271 3.496
5.735 2.143 3.601
5.676 1.916 3.789
5.582 1.731 4.055
5.361 1.631 4.122
5.353 1.341 4.405
6.099 2.091 3.454
5.961 1.888 3.754
5.863 1.799 3.831
5.732 1.575 4.094
5.625 1.429 4.182
5.610 1.328 4.359
6.097 1.616 3.980
6.048 1.479 4.012
5.943 1.342 4.216
6.264 1.303 4.161
2.957 5.753 1.116
2.115 4.527 2.459
2.025 4.367 2.632
1.880 4.199 2.876
3.415 6.239 0.513
3.283 5.981 0.816
3.079 5.878 1.016
2.942 5.625 1.219
3.268 5.548 1.221
3.666 6.177 0.421
3.510 6.096 0.637
3.510 5.849 0.844
3.380 5.736 0.985
3.187 5.618 1.205
3.468 5.485 1.261
3.243 5.318 1.471
3.916 6.040 0.392
3.796 5.909 0.604
3.664 5.704 0.856
3.568 5.559 0.994
3.450 5.357 1.157
3.631 5.228 1.249
3.528 5.119 1.426
3.491 4.971 1.665
4.387 6.144 0.268
4.154 5.926 0.549
4.061 5.844 0.739
4.015 5.716 0.842
3.807 5.542 1.163
3.762 5.236 1.199
3.924 5.223 1.336
3.789 5.043 1.586
3.717 4.809 1.790
3.571 4.621 1.916
4.525 5.800 0.500
4.298 5.723 0.801
4.260 5.490 0.940
4.040 5.367 1.132
3.966 5.214 1.323
4.244 5.109 1.387
4.091 4.813 1.551
4.020 4.758 1.802
3.891 4.464 1.939
3.672 4.412 2.075
4.505 5.629 0.742
4.367 5.347 0.981
4.393 5.183 1.214
4.207 4.981 1.462
4.366 4.972 1.462
4.359 4.759 1.531
4.163 4.501 1.841
4.149 4.339 1.979
4.002 4.180 2.273
3.746 4.028 2.350
4.661 5.177 1.039
4.628 5.170 1.215
4.532 4.913 1.507
4.748 4.741 1.491
4.542 4.606 1.634
4.364 4.396 1.922
4.366 4.235 2.060
4.151 4.040 2.271
4.100 3.892 2.446
3.898 3.748 2.667
4.785 4.926 1.306
4.662 4.694 1.411
4.955 4.594 1.523
4.758 4.504 1.734
4.750 4.386 1.944
4.635 4.208 2.137
4.389 3.929 2.260
4.267 3.804 2.420
4.263 3.619 2.747
4.931 4.698 1.547
5.277 4.594 1.601
5.145 4.414 1.801
4.866 4.099 2.039
4.894 4.041 2.165
4.601 3.899 2.326
4.532 3.606 2.541
4.478 3.441 2.790
3.590 2.386 4.026
6.287 5.884 -0.037
6.004 5.659 0.185
5.282 4.593 1.483
5.262 4.154 1.728
5.264 4.063 2.008
5.004 3.939 2.183
4.979 3.710 2.314
4.891 3.478 2.555
3.969 2.373 3.914
3.749 2.106 4.180
6.264 5.356 0.398
5.181 4.257 2.138
5.191 4.122 2.449
4.961 3.874 2.646
4.867 3.749 2.862
3.769 2.339 4.249
6.317 5.592 0.697
4.195 2.358 4.210
4.056 2.272 4.321
4.557 2.365 4.101
4.455 2.321 4.222
4.285 2.095 4.452
5.026 2.451 3.883
4.878 2.278 4.018
4.807 2.057 4.226
4.514 1.984 4.467
5.352 2.581 3.720
5.175 2.426 3.986
5.083 2.179 4.170
4.905 2.011 4.262
4.805 1.783 4.451
5.819 2.713 3.330
5.754 2.477 3.529
5.636 2.376 3.803
5.421 2.132 4.035
5.308 2.060 4.162
5.292 1.796 4.383
5.050 1.767 4.555
6.297 2.720 3.170
6.099 2.532 3.492
6.057 2.389 3.635
5.926 2.279 3.905
5.636 2.072 3.949
5.553 1.828 4.141
5.452 1.722 4.455
5.307 1.490 4.644
6.165 2.302 3.747
6.026 2.088 3.917
6.004 1.856 4.009
5.857 1.837 4.278
5.674 1.661 4.460
5.650 1.506 4.576
6.181 1.861 4.118
6.142 1.670 4.344
5.885 1.521 4.440
3.204 6.302 0.914
3.084 6.141 1.110
3.244 5.783 1.344
3.735 6.335 0.743
3.519 6.189 0.981
3.452 5.931 1.250
3.332 5.822 1.410
3.557 5.575 1.487
3.409 5.387 1.568
3.961 6.154 0.956
3.758 6.032 0.997
3.623 5.735 1.256
3.484 5.603 1.476
3.684 5.468 1.453
3.607 5.376 1.647
3.506 5.179 1.850
4.327 6.218 0.769
4.066 5.969 1.003
3.958 5.810 1.078
3.827 5.719 1.349
3.755 5.536 1.546
3.992 5.452 1.624
3.966 5.151 1.776
3.738 4.975 2.007
3.573 4.781 2.148
3.515 4.656 2.257
4.702 6.134 0.524
4.600 6.103 0.784
4.416 5.798 1.021
4.209 5.647 1.231
4.054 5.593 1.349
4.047 5.433 1.578
4.183 5.265 1.552
4.127 5.107 1.764
4.078 4.948 1.897
3.794 4.736 2.136
3.719 4.584 2.387
3.564 4.426 2.473
4.720 5.856 0.752
4.577 5.755 0.962
4.577 5.494 1.191
4.336 5.476 1.386
4.275 5.234 1.638
4.438 5.100 1.638
4.345 4.924 1.858
4.223 4.707 1.933
4.054 4.629 2.292
3.970 4.417 2.452
3.934 4.275 2.592
3.780 4.038 2.780
4.741 5.497 1.332
4.577 5.231 1.409
4.539 5.017 1.615
4.754 4.950 1.648
4.640 4.835 1.881
4.446 4.575 2.147
4.423 4.426 2.285
4.221 4.228 2.367
4.161 4.120 2.645
4.082 3.991 2.788
3.880 3.825 3.019
4.905 5.182 1.462
4.823 4.987 1.710
4.939 4.911 1.800
4.907 4.601 1.888
4.810 4.414 2.176
4.694 4.320 2.254
4.417 4.238 2.474
4.320 4.014 2.659
4.164 3.807 2.839
4.153 3.730 3.088
5.003 4.788 1.666
5.214 4.535 2.016
4.984 4.407 2.199
4.893 4.240 2.366
4.659 4.092 2.601
4.538 3.870 2.657
4.517 3.747 2.952
5.326 4.308 2.150
5.110 3.975 2.410
5.069 3.919 2.648
4.929 3.793 2.700
3.841 2.415 4.345
6.218 5.540 0.734
5.187 4.195 2.601
5.117 4.087 2.741
4.962 3.854 3.015
4.743 3.701 3.136
6.218 5.602 1.131
4.204 2.477 4.486
4.605 2.373 4.395
4.354 2.201 4.675
4.837 2.551 4.202
4.788 2.292 4.526
4.594 2.159 4.727
5.315 2.580 4.173
5.140 2.323 4.278
5.118 2.204 4.547
4.900 2.081 4.787
5.881 2.898 3.609
5.875 2.815 3.780
5.694 2.630 3.998
5.619 2.384 4.092
5.454 2.173 4.426
5.320 2.068 4.607
5.184 1.904 4.790
6.096 2.811 3.710
5.959 2.636 3.836
5.859 2.408 3.985
5.840 2.254 4.232
5.612 2.179 4.503
5.540 1.951 4.658
5.318 1.770 4.756
6.192 2.259 4.062
6.040 2.193 4.347
5.940 1.896 4.439
5.760 1.715 4.641
6.279 1.945 4.364
6.192 1.818 4.528
3.484 6.074 1.386
3.577 5.768 1.597
3.753 6.104 1.264
3.670 6.075 1.435
3.514 5.904 1.681
3.906 5.679 1.755
3.719 5.444 1.876
4.228 6.242 1.155
4.055 6.034 1.366
3.940 5.828 1.583
3.874 5.714 1.649
4.121 5.537 1.692
3.991 5.399 2.004
3.778 5.130 2.053
3.677 4.971 2.258
3.524 4.849 2.545
4.527 6.322 1.040
4.435 6.118 1.236
4.260 5.840 1.357
4.207 5.729 1.629
4.092 5.534 1.688
4.407 5.367 1.752
4.257 5.320 1.998
4.088 5.055 2.202
4.018 4.858 2.328
3.828 4.654 2.570
3.679 4.523 2.753
3.568 4.357 2.991
3.405 4.307 3.195
4.912 6.142 0.965
4.719 5.975 1.252
4.605 5.770 1.344
4.493 5.557 1.606
4.372 5.494 1.805
4.619 5.301 1.821
4.423 5.041 1.972
4.376 4.941 2.303
4.167 4.768 2.497
4.144 4.640 2.576
3.854 4.520 2.738
3.805 4.245 2.903
3.710 4.098 3.195
3.603 3.905 3.406
4.637 5.532 1.711
4.558 5.365 1.754
4.781 5.169 1.873
4.627 4.906 2.025
4.589 4.739 2.353
4.424 4.722 2.520
4.255 4.450 2.625
4.095 4.244 2.902
4.005 4.188 3.089
3.980 4.002 3.156
3.856 3.848 3.360
4.860 5.137 1.841
5.000 4.785 2.148
4.847 4.682 2.285
4.707 4.524 2.433
4.595 4.379 2.765
4.499 4.195 2.885
4.259 4.065 3.169
4.184 3.748 3.319
3.985 3.709 3.409
5.035 4.539 2.345
4.861 4.464 2.535
4.720 4.123 2.694
4.755 4.094 3.000
4.469 3.796 3.208
4.444 3.668 3.399
5.219 4.253 2.620
5.057 4.013 2.791
4.849 3.952 2.996
4.765 3.650 3.198
6.215 5.589 1.106
4.984 4.057 3.199
4.797 3.969 3.458
6.300 5.779 1.241
6.213 5.295 1.713
4.492 2.392 4.850
4.900 2.481 4.682
4.790 2.379 4.914
5.086 2.290 4.756
4.976 2.286 4.915
5.597 2.633 4.428
5.419 2.333 4.544
5.366 2.184 4.727
5.195 2.083 4.927
6.311 2.905 3.882
6.080 2.713 4.083
5.984 2.603 4.225
5.828 2.397 4.362
5.725 2.300 4.625
5.640 2.188 4.753
6.222 2.509 4.272
6.005 2.282 4.463
1.772 3.930 4.263
2.180 4.014 4.158
1.983 3.860 4.250
3.765 6.174 1.583
2.297 3.859 4.210
2.201 3.726 4.320
4.088 6.140 1.573
3.982 6.080 1.689
4.157 5.654 1.870
4.088 5.582 2.229
2.904 3.984 3.928
2.745 3.903 4.120
2.575 3.624 4.270
2.424 3.450 4.401
4.594 6.222 1.426
4.340 6.100 1.598
4.265 5.842 1.771
4.123 5.728 1.891
4.410 5.647 1.956
4.318 5.501 2.269
4.099 5.318 2.370
3.973 5.176 2.536
3.893 5.004 2.789
3.778 4.756 2.980
3.596 4.548 3.153
3.547 4.427 3.325
3.333 4.259 3.547
3.288 4.046 3.669
3.161 3.992 3.942
2.963 3.702 4.040
2.822 3.593 4.307
4.441 5.828 1.849
4.457 5.578 2.019
4.545 5.376 2.187
4.377 5.079 2.348
4.226 4.920 2.560
4.153 4.787 2.751
3.991 4.561 2.930
3.858 4.400 3.132
3.664 4.304 3.328
3.543 4.050 3.610
3.419 3.982 3.834
3.331 3.761 3.987
4.760 5.246 2.330
4.562 5.057 2.411
4.437 4.778 2.707
4.322 4.722 2.927
4.167 4.410 3.031
4.179 4.401 3.230
3.945 4.120 3.393
3.835 3.917 3.564
3.661 3.768 3.746
3.668 3.719 4.082
4.811 4.788 2.471
