31.335958 66.31045 42.356884
46.75396 92.010445 22.889883
48.328957 90.885445 24.482882
58.042957 87.607445 22.150883
58.89996 89.33144 23.178883
24.261957 16.288452 55.93188
24.213959 13.950455 56.22488
17.11596 14.859451 48.53488
15.859959 14.436447 46.893883
19.219957 72.53345 3.7468796
16.930958 71.67345 3.7228813
24.062958 64.20145 5.716881
25.082958 61.65545 6.075882
5.3199544 90.53345 32.443882
3.8179557 91.233444 31.083881
68.49096 84.177444 24.897882
66.56496 83.21445 23.654882
13.341959 80.717445 15.659883
12.930959 78.299446 15.245881
14.116959 69.98744 6.6548805
15.055959 72.303444 5.726879
39.537956 71.29645 31.079882
37.939957 71.27045 29.552881
35.49696 76.89345 36.96488
33.07896 76.26544 38.856884
25.975958 100.02645 17.950882
24.355957 98.731445 18.892883
17.126959 92.09745 15.351883
16.768959 90.41945 17.379883
31.607958 18.898453 41.17388
31.708958 16.93245 40.700882
39.113956 16.41645 42.717884
37.604958 15.52845 45.082882
47.45596 1.3614502 33.00688
47.99696 103.08345 32.34788
53.383957 94.829445 36.366882
55.13596 95.56245 37.300884
67.00396 20.931448 30.396881
65.74796 21.218447 28.350882
1.0779572 26.673447 24.123882
1.520958 28.645447 25.453882
63.28896 78.36044 23.136883
63.710957 77.30845 24.939882
67.28796 76.81145 30.446882
68.400955 75.90645 31.492882
52.786957 1.5084534 55.831882
51.36596 2.5704498 0.8888817
54.439957 2.391449 12.102886
56.43596 1.1234512 12.0938835
48.42096 90.28445 41.216885
49.001957 90.11745 43.505882
45.023956 77.54244 46.99988
43.069958 77.60045 48.36288
17.163958 24.170446 38.946884
14.768959 25.388447 40.12588
14.321959 16.521446 45.601883
12.289959 15.053447 46.18888
1.6149585 65.747444 12.549883
4.0829587 66.744446 12.679883
6.7309585 64.95644 20.881882
7.649958 67.21545 21.133883
11.214959 101.97044 47.630882
12.014958 101.300446 45.587883
11.007958 90.551445 46.13188
12.187959 88.578445 46.885883
37.60196 101.35445 2.4018822
38.599957 103.20945 1.4338799
40.183956 2.6404495 10.140881
39.75396 2.7944489 12.403881
15.855959 15.835449 13.6668825
14.714959 15.582451 12.028881
3.2759585 13.248451 12.129879
3.7159586 11.773453 10.819881
0.7969589 40.653446 18.646883
69.13196 41.113445 19.382883
68.24196 31.072447 16.227882
68.57196 29.182447 16.860882
5.3849583 61.01745 37.974884
4.752959 60.116447 35.454884
12.379959 61.659447 39.504883
10.645959 62.741447 40.023884
13.577959 97.55845 27.746883
13.000958 95.19545 27.394882
13.948958 94.719444 38.282883
15.383959 95.04245 39.70188
13.315959 87.72845 51.455883
12.473959 89.621445 52.338882
17.980959 87.93745 51.267883
20.420958 88.21545 50.45288
21.438957 56.85745 55.18088
20.225958 56.43945 1.1148796
20.006958 44.383446 0.7508812
21.158958 43.444447 55.358883
67.92196 29.378447 52.372883
65.74196 28.423447 51.989883
66.19996 38.498447 51.692883
64.39396 39.831448 50.68788
57.590958 21.51445 23.842882
58.481956 21.093452 25.423882
55.402958 15.25145 30.004883
54.94996 13.286453 31.676882
27.577957 52.200447 10.62788
27.130959 54.575447 10.008884
35.808956 58.355446 8.078884
37.29596 57.716446 5.91288
60.395958 70.06045 35.932884
62.695957 70.12945 36.675884
65.21096 76.148445 32.168884
63.348957 77.58344 32.38188
0.25095862 101.05745 16.066883
-1.0140413 102.954445 16.708883
6.6319585 4.2184525 21.572882
8.351958 5.649452 23.027882
0.6359558 54.12045 25.620882
70.03396 56.319447 25.207882
69.67196 56.654446 14.263883
67.67596 57.825447 12.427883
44.072956 44.668446 27.988882
42.14296 45.262447 29.446882
46.412956 53.58745 36.48688
45.376957 52.87045 38.266884
1.4069585 99.47145 24.067883
2.1239586 99.40645 25.810883
11.131959 99.76545 29.841883
11.226959 98.35944 31.777882
27.548958 74.93445 32.887882
25.895958 74.341446 31.578882
19.003958 70.424446 38.84088
18.492958 72.43345 37.954884
7.195958 95.09045 51.608883
5.8239584 96.87545 51.09188
1.7459584 92.315445 5.469879
2.7409585 90.99145 6.1988792
33.465958 14.714455 28.625883
32.17096 15.5414505 27.270882
29.226957 17.40245 38.91088
27.250957 18.163452 38.119884
32.40596 27.565447 26.319883
31.494957 28.622446 28.625883
25.613958 19.474447 23.384882
26.974958 18.238447 21.371883
18.319958 36.433445 55.63288
20.160957 34.627445 54.580883
14.991959 26.218447 5.0248795
14.352959 25.834448 2.4968796
6.5189586 79.037445 2.7398796
7.9369583 77.049446 3.2188797
9.268959 86.65145 5.1638794
7.629958 86.080444 4.3128815
1.3529587 16.13845 44.70188
0.82995605 15.174454 42.52088
0.1409607 17.870453 31.461882
0.6759567 15.995453 30.247883
9.282959 93.119446 49.405884
6.7429585 93.01345 49.36888
12.114959 94.342445 40.974884
13.772959 95.692444 41.677883
65.63996 54.709446 32.581882
63.85296 54.71245 33.859882
58.840958 64.897446 33.50788
58.617958 64.26645 35.710884
32.32996 13.62545 25.078882
32.445957 11.344452 24.803883
28.290958 9.513451 17.298883
27.211958 8.338448 14.970882
59.431957 22.592447 22.107882
60.617958 22.820448 20.235882
67.26996 26.866447 17.610882
66.60396 25.788446 15.826882
18.57096 0.70545197 44.65288
18.696959 1.3494492 42.799885
11.338959 0.9404526 39.753883
11.487959 102.95045 38.21488
34.41596 87.924446 9.163883
32.88396 88.45145 7.663883
31.144958 95.453445 55.82788
30.706959 95.358444 53.56988
57.682957 28.857447 3.2278824
58.881958 31.118446 3.636879
55.39496 39.143448 53.32788
53.24896 39.688446 53.032883
19.954958 56.71145 38.578884
18.043959 55.82945 39.538883
22.306957 62.039448 38.790882
23.341957 60.06545 36.969883
33.06196 22.155447 27.138882
34.77396 20.256447 26.588882
41.93596 26.065447 20.708883
43.347958 24.857447 19.065884
12.112959 52.458447 29.962881
12.140959 53.85745 27.539883
9.593959 46.900448 19.128883
7.2659583 46.696445 18.949883
67.43996 39.699448 47.594883
67.954956 40.034447 45.72388
0.9279556 29.923447 40.733883
3.1859596 30.431446 39.726883
7.4099584 28.316446 20.250883
9.636959 28.061447 19.275883
7.168958 30.652447 22.523882
9.275959 30.084448 22.227882
36.924957 90.94445 47.365883
38.62296 89.82645 47.49588
45.329956 84.61745 52.942883
46.17996 82.424446 51.693882
5.5539584 60.069447 9.748882
4.4829583 57.908447 9.93288
9.562959 48.849445 10.338886
11.294959 48.452446 8.804882
5.1429586 32.10045 24.454882
5.3809586 30.124447 25.673882
11.096958 39.567448 28.131882
13.007958 39.051445 29.372883
60.062958 23.774446 46.96088
58.81696 21.785448 45.676884
60.63096 29.821447 38.315884
60.94996 32.041447 37.370884
70.26696 40.132446 14.102882
69.733955 37.881447 14.457883
2.454956 41.511448 20.609882
3.714959 43.498447 21.201883
38.488956 103.189445 30.111881
38.994957 100.98945 30.088882
37.639957 103.010445 41.996883
35.44196 102.94845 41.584885
46.65896 8.532448 20.251883
44.33096 9.368454 19.566883
36.49796 2.1314545 18.890882
35.17896 103.47445 19.176882
37.131958 56.81545 9.574886
38.24696 55.726448 7.9118843
36.995956 48.470448 0.49687958
37.48296 46.835445 1.7128792
1.1499557 13.202454 28.719883
69.177956 14.406448 28.183882
60.46996 9.020454 26.051882
61.08096 6.507454 26.420883
15.109959 66.88844 30.381882
16.35196 69.10445 30.924883
24.052958 65.53145 28.758883
24.266958 66.01745 30.965881
20.444958 87.00245 30.902882
20.635958 84.53145 32.61088
32.41896 86.76345 33.462883
32.355957 89.120445 33.068882
55.36696 75.982445 46.398884
56.33796 77.57345 44.64688
52.631958 67.19344 42.078884
51.028957 69.273445 41.953884
56.51096 92.94445 23.940882
55.76196 94.82045 22.986883
64.28296 101.25745 25.346882
65.87696 102.57045 26.739882
34.416958 68.426445 14.875883
36.217957 67.327446 15.253882
39.138958 70.97144 27.070883
37.70796 72.539444 26.878883
26.346958 62.844448 22.553883
28.908958 63.132446 23.154882
35.020958 65.801445 13.077883
36.45096 64.134445 12.314882
11.743958 35.285446 1.3778801
11.313959 34.853447 56.142883
19.036959 26.747448 54.462883
19.150959 25.033447 53.02788
26.075958 40.496445 24.216883
26.930958 40.634445 22.570883
24.070957 44.20545 12.188883
25.886957 45.076447 12.150883
63.67196 17.670448 56.03588
64.61896 15.911453 56.427883
0.98095703 10.949448 54.872883
1.581955 9.290451 53.08988
56.322956 35.654446 41.897884
53.981956 34.793446 42.36088
55.563957 44.548447 37.37588
54.23396 46.280445 36.726883
0.17695618 100.99845 40.663883
2.4999542 101.97245 39.795883
5.6249547 5.462448 34.86888
4.108956 6.785454 34.03488
37.638958 101.61045 44.206882
35.042957 101.969444 45.142883
28.458958 3.6004486 50.269882
27.351957 3.0634537 52.02888
51.74796 35.254448 46.234882
53.340958 34.387447 47.62588
62.32496 36.239445 46.77288
64.71796 36.793446 45.46588
37.326958 44.474445 36.953884
38.74196 46.810448 37.059883
47.799957 46.03145 37.216885
48.077957 46.403446 34.975883
7.6899586 20.091448 45.741882
7.5919585 19.524446 47.851883
10.480959 25.000446 1.5398788
10.510959 22.919447 0.37887955
9.412958 35.535446 48.35588
7.4039583 36.592445 47.61988
1.2899585 26.028448 48.34988
2.3429585 24.173447 47.51588
22.117958 60.818447 18.493883
24.005959 61.444447 18.530882
25.715958 72.86445 20.834883
24.903957 74.30544 19.379883
37.501957 45.43445 54.06388
38.209957 45.305447 52.17488
49.38796 43.159447 51.491882
50.154957 41.771446 49.497883
34.451958 96.12945 30.293882
31.908958 96.121445 30.572882
27.265959 85.841446 25.945883
29.440958 85.02845 25.955883
46.939957 92.50045 41.26388
46.85096 92.60045 39.49288
40.271957 95.15545 31.655882
38.32596 96.24945 31.882881
15.740959 96.84945 43.50088
17.833958 96.218445 42.919884
13.266959 86.86445 38.311882
11.573958 87.48945 40.01388
69.10396 101.924446 28.095882
0.18296051 102.26845 26.057882
64.28596 1.4114532 20.407883
65.82396 1.5064545 18.514883
56.625957 26.891447 29.722881
55.10996 28.034447 30.760881
58.313957 17.440447 35.085884
57.750957 17.393448 37.436882
51.711956 15.331451 30.220882
52.33096 13.318451 30.391882
46.61596 9.5414505 38.019882
44.959957 9.5414505 39.155884
1.8289566 56.168446 27.387882
69.79796 57.03045 27.961882
5.2829595 52.914448 34.852882
5.2189565 51.833447 36.420883
65.25196 18.770447 17.317883
63.56896 18.066446 18.819883
60.868958 25.802446 10.397882
58.926956 25.262447 8.775883
39.67896 39.456448 9.28088
41.17796 38.583447 9.522884
52.631958 40.711445 7.554882
51.71396 42.264446 6.473881
2.796959 16.466454 6.547882
0.93795776 15.30645 5.2798805
67.08296 9.5794525 14.549882
66.66096 7.808449 13.586881
9.888959 43.012447 29.495882
10.069959 45.558445 29.537882
15.424959 39.027447 21.878883
17.213959 38.493446 20.127882
41.145958 103.438446 15.3578825
40.298958 2.0084534 15.444882
50.98396 4.311447 10.294883
51.917957 4.032448 12.006883
44.959957 87.438446 55.35488
46.447956 85.32245 55.457882
45.04696 75.77844 3.3758812
46.064957 73.25745 2.5798798
32.33796 90.440445 15.068883
32.74196 88.43645 16.815884
28.421957 99.81945 19.234882
29.582958 100.83545 20.253883
61.97096 52.00345 34.377884
61.286957 54.334446 33.648884
54.95096 62.31645 35.554882
56.65796 62.60645 37.052883
31.990957 86.983444 37.821884
32.98896 85.731445 35.806885
39.18696 76.08945 40.158882
41.17196 75.092445 40.32688
44.451958 24.402447 26.622883
42.89996 23.893448 25.158882
35.758957 25.988447 32.543884
34.270958 25.542448 31.297882
50.432957 102.22645 11.390881
48.433956 101.50345 9.776882
50.402958 7.1594543 5.75988
48.333958 8.447449 5.146881
26.621958 77.28145 18.498882
26.208958 79.10445 19.787882
27.044958 87.24945 23.004883
24.700958 86.76445 24.064882
20.859959 30.982447 42.205883
21.994957 32.44045 42.457882
16.298958 41.327446 35.698883
14.929959 40.932446 34.377884
10.951959 61.99545 44.27088
12.471959 62.631447 42.369884
21.231958 65.90745 48.712883
21.632957 63.533447 49.07188
15.385959 16.933447 32.02888
14.810959 18.493446 30.446882
20.404959 26.118446 36.828884
20.788958 28.123447 36.060883
25.504957 13.613449 53.443882
26.689959 15.275452 54.87588
32.78996 18.912453 45.636883
33.39496 19.837448 47.623882
16.382957 1.9024506 27.575882
14.684958 0.8934479 27.225882
6.0469584 1.2914505 30.973883
4.2219586 3.231453 31.755882
29.628958 9.758453 8.3928795
30.681957 9.00145 10.470882
38.265957 3.757454 14.964883
40.01796 4.9024506 14.376882
58.093956 91.99245 0.3398819
59.987957 91.59845 1.4018822
63.958958 80.47945 52.57688
62.29096 81.091446 50.552883
67.22396 101.39245 18.323883
66.69596 102.97145 16.720882
64.09696 102.703445 22.519882
65.87596 101.66945 22.942883
58.620956 43.162445 35.783882
58.124958 44.891445 34.86188
53.87896 44.248447 24.103882
55.59696 43.201447 22.646883
47.02496 85.39445 26.779882
47.29796 87.412445 25.724882
49.36496 91.94745 37.536884
49.202957 89.690445 37.334885
44.668957 82.80544 18.481882
43.466957 80.96345 18.953882
37.926956 75.82645 12.062882
36.945957 75.32245 14.116882
18.19596 80.52644 14.929883
16.12296 80.660446 16.010883
18.130959 83.744446 27.684883
18.958958 85.55945 27.557882
41.73296 91.36145 1.9538803
41.75396 93.50545 2.7328796
37.33796 88.59544 13.057881
35.51896 89.29745 12.68388
38.62896 18.343447 9.038883
38.118958 20.664448 9.150883
41.11696 28.992447 12.647884
43.959957 28.275448 13.237882
62.68696 91.77645 1.1328812
63.530956 93.52745 2.4668808
60.176956 0.40245056 54.427883
59.50496 0.64845276 52.22388
34.60396 25.929447 45.42488
33.645958 26.393448 43.116882
32.20596 32.488445 35.918884
31.854958 33.884445 37.599884
5.7249584 50.843445 19.728882
4.8199587 50.753445 22.215883
3.5689585 43.405445 23.929882
4.9879584 41.723446 24.010883
38.51796 28.711447 43.266884
36.81696 30.613447 42.79888
25.987957 33.901447 42.386883
25.313957 32.360447 40.949883
56.251957 11.719452 33.667885
54.752956 10.671448 32.341885
50.327957 103.22845 29.923882
51.709957 103.051445 27.784882
0.40695953 12.518448 44.002884
2.1109543 12.756454 42.776882
67.17496 5.372452 34.11188
69.58896 4.971451 32.779884
57.022957 78.593445 54.004883
57.85096 76.90645 54.802883
55.659958 67.455444 4.976879
57.342957 67.482445 6.568882
27.764957 50.945446 49.00288
28.045958 48.964447 47.73588
34.590958 42.855446 50.607883
33.48396 41.513447 49.35588
15.758959 48.534447 2.136879
14.056959 49.067448 3.160881
23.287958 55.16245 6.0958824
25.469957 54.46845 5.813881
27.541958 12.474449 55.61388
28.557959 12.323448 53.248882
39.035957 18.380447 53.546883
38.224957 17.992455 51.332882
56.33796 63.05945 23.518883
57.48596 63.66945 21.251883
50.903957 64.51244 16.096884
50.38696 66.286446 14.145883
12.119959 27.788446 3.4468803
12.589959 29.941446 1.7098808
18.44596 29.505447 12.882882
16.934958 29.510447 14.472882
25.506958 92.04245 38.745884
23.123959 92.925446 38.77188
22.293959 94.64445 30.266882
20.652958 95.424446 28.749882
39.08796 75.70644 49.575882
38.01796 76.71045 51.656883
41.90096 76.065445 5.2188797
43.28896 76.93144 6.5938797
64.38496 54.862446 40.54888
65.33896 56.19145 38.832882
58.25496 58.76745 43.115883
57.050957 60.263447 44.99488
66.03896 5.6004486 28.382883
68.29296 5.101448 28.987883
64.70996 0.38245392 37.801884
63.65896 102.92145 39.362885
29.251957 76.011444 20.537882
30.469957 76.899445 22.359882
36.07396 84.758446 26.745882
37.97196 84.99145 25.090883
34.001957 48.862446 12.959882
32.56896 50.144447 11.976879
35.640957 62.200447 10.438885
37.68696 61.66345 10.404881
44.03896 46.600445 6.4418793
44.95696 44.498447 7.32288
40.410957 39.28145 12.148884
39.15896 37.597446 13.215882
58.66396 89.46145 33.251884
58.688957 89.606445 31.135881
68.32496 95.552444 28.319883
70.29296 96.11245 29.760881
58.250957 60.30745 23.913883
59.265957 62.445446 25.242882
69.03096 61.611446 27.387882
67.83996 64.162445 27.694883
30.625957 29.402447 21.668882
31.226957 27.542448 20.921883
32.14796 18.060448 24.008883
33.11396 18.011448 26.556883
20.631958 86.19345 45.933884
19.071959 85.89445 44.55588
27.190958 80.011444 42.575882
26.876957 78.914444 40.545883
35.388958 64.22845 5.9688797
36.555958 62.937447 5.00988
41.301956 62.904446 54.47188
39.97696 61.733448 0.52388
27.476957 81.24944 53.532883
25.492958 80.00445 54.06988
18.800959 76.00545 45.27988
20.341957 75.41544 43.712883
10.288959 80.718445 36.842884
11.873959 78.87444 35.71588
18.783958 73.12444 41.60388
17.096958 72.05745 40.547882
55.322956 30.782448 6.417881
54.625957 32.754448 7.3358803
55.84496 35.827446 16.99088
58.04596 36.479446 17.98088
31.128958 26.669447 18.37788
31.162958 24.429447 17.63488
28.917957 31.380447 8.694881
27.775957 32.709446 8.243885
66.04196 71.14245 52.21588
67.64696 70.57445 51.14088
5.811959 70.855446 47.997883
8.014955 72.26444 47.84288
54.868958 43.484447 52.57788
55.541958 41.58045 52.788883
65.24396 39.775448 46.005882
65.41796 39.821445 43.904884
61.56896 74.78045 25.375883
62.634956 74.91644 23.662882
60.904957 71.88045 13.679883
60.02596 70.94745 11.589883
1.2159576 101.48545 6.049881
0.9539566 101.20945 8.931881
0.95295715 92.79345 15.03288
69.20996 91.94645 14.390882
43.565956 58.12845 11.414883
45.85896 57.172447 11.737881
55.19896 58.06445 5.19788
54.53296 56.852448 2.9898796
31.176958 39.27445 52.463882
33.541958 38.569447 52.732883
34.85196 26.995447 55.287884
36.586956 26.035448 54.15988
25.686958 41.008446 27.725882
26.812958 39.430447 26.717882
36.76896 40.501446 21.531883
35.79096 42.179447 21.893883
40.27496 46.470448 26.171883
40.091957 44.268448 27.437883
27.959957 42.477448 24.668882
29.375957 43.176445 22.695883
48.119957 66.51444 43.209885
50.44896 65.40845 41.76388
48.509956 70.217445 37.100883
50.662956 69.425446 37.150883
56.329956 37.364445 21.073883
57.33196 38.282448 22.758883
56.995956 29.456448 29.517881
54.835957 29.825447 28.695883
51.617958 64.02844 33.738884
51.175957 66.149445 33.91088
40.197956 69.47244 28.874882
39.577957 67.925446 27.633883
26.772959 23.397453 37.192883
24.589958 23.73845 36.575882
21.533958 12.901451 33.293884
20.014957 12.510452 35.303883
59.044956 15.386447 2.0748825
57.83296 16.810448 1.7588806
57.30396 26.302446 2.5998802
59.396957 27.233448 1.7128792
1.8019584 1.8494492 5.193882
3.9139585 0.615448 4.9868813
4.2099586 10.440453 2.143879
4.6569586 9.86245 56.04988
14.1119585 31.949448 12.613883
14.475959 32.30145 14.988883
17.838959 34.694447 23.364882
16.98396 37.102448 22.922882
30.248959 73.43345 3.8198814
28.448957 73.69645 5.6878815
32.47596 80.857445 0.9988823
33.986958 82.76745 1.1988792
51.74896 13.439453 26.125883
49.64296 14.36245 25.037882
45.756958 5.7964478 33.837883
45.132957 3.9744492 32.13288
69.457954 99.342445 26.093882
67.54696 100.11145 25.591883
59.655956 93.302444 30.957882
58.473957 92.07545 32.311882
27.816957 28.607447 53.405884
27.100958 28.728447 56.02188
17.919958 22.324448 4.608879
18.750957 23.820448 6.77388
45.259956 33.518448 49.50288
45.52696 31.112448 50.621883
35.87296 25.736446 51.34788
36.49796 23.339447 51.546883
46.013958 27.204447 39.684883
47.00396 27.870447 41.371883
35.938957 23.650448 44.649883
36.10396 22.753447 42.613884
32.881958 58.08045 24.226883
35.00296 58.172447 24.859882
37.669956 55.685448 35.802883
38.389957 57.908447 37.28488
11.763959 77.30845 17.633883
11.931959 79.75745 17.716883
20.733957 70.82145 19.719883
20.055958 69.77145 21.516882
3.2619586 54.943447 54.79888
4.1309586 55.459446 0.35388184
4.1259584 60.958447 6.757881
4.1349587 62.515446 8.664883
1.1159586 99.76345 18.651882
2.7989585 99.21345 19.562883
6.6559587 0.7594528 10.840882
8.5459585 102.79345 10.281883
8.679958 4.0224533 47.885883
9.549958 2.1644516 48.825882
17.675959 3.68145 1.6098824
18.389957 5.634453 2.0278816
34.14096 45.213448 15.601883
32.29496 46.382446 16.091883
35.208958 49.756447 26.657883
35.938957 48.821445 28.152882
14.833959 32.229446 25.660883
14.870959 32.450447 23.459883
9.876959 40.236446 25.620882
7.9419584 42.005447 25.206882
55.777958 60.125446 47.18788
56.56896 60.69845 48.692883
64.69996 54.74545 52.804882
66.66396 54.983448 54.122883
44.558956 48.77445 48.019882
45.916958 49.908447 49.783882
42.202957 46.071445 3.1998825
40.42296 47.234447 4.6568794
35.47096 33.146446 28.440882
36.14496 34.855446 27.062883
42.877956 26.474447 23.142883
44.579956 27.331448 22.020882
66.81196 80.18645 36.203884
68.34996 81.52644 37.504883
67.484955 89.74845 43.245884
67.19796 91.35045 43.786884
65.48796 71.288445 24.401882
64.54996 69.15244 22.981882
54.590958 72.60045 18.822884
54.15196 74.58344 18.923883
55.152958 57.23945 30.084883
53.81096 57.305447 32.017883
52.91496 65.86845 24.032883
52.645958 63.50345 24.401882
20.823957 66.72144 24.638882
20.333958 64.76645 25.053883
20.685957 56.055447 21.088882
18.789959 55.737446 19.239883
15.686959 8.766449 17.610882
13.338959 8.699448 17.883883
13.423959 17.59645 13.468883
13.996959 20.010452 12.496882
27.619957 94.89245 19.030882
25.471958 93.78345 17.928883
32.535957 84.90345 21.720882
31.076958 83.70944 20.362883
14.358959 12.0034485 8.495884
12.897959 12.665451 6.365879
12.141959 24.185448 3.6408806
14.014958 23.812454 5.44788
7.2339582 94.053444 15.58788
8.531959 92.803444 15.36588
15.332959 85.593445 9.644886
14.377959 85.135445 7.5488815
7.5019584 67.72745 45.51388
8.580958 69.59045 44.89088
10.822959 78.42245 39.150883
10.7369585 77.04244 37.245884
36.411957 64.20145 8.858883
38.863956 65.01745 8.792883
43.86596 68.21545 18.509882
44.05396 66.25245 20.226883
26.601957 66.29545 12.164883
26.948957 65.54044 14.314883
21.517958 74.93245 12.925882
23.082958 74.22845 11.334883
51.092957 97.02045 8.872883
50.95096 97.82545 6.379879
40.919956 97.12845 2.7258797
39.175957 96.75545 3.431881
37.513958 102.43545 27.566883
39.869957 0.22845459 26.875883
46.773956 3.5894547 30.090881
47.88596 1.0044479 29.733883
37.54096 74.11845 39.086884
38.606956 74.063446 36.842884
28.217958 69.676445 33.927883
26.227959 69.02644 34.929882
48.22096 98.78145 47.21488
46.45796 98.10445 47.935883
38.59596 98.12345 56.262882
39.79096 99.27845 1.5958824
17.64696 86.49345 4.0718803
16.27896 87.74845 5.493881
20.610958 94.259445 55.441883
21.529959 94.29845 1.5778809
6.1299586 74.119446 25.150883
4.2889585 73.19444 26.753883
2.8739586 64.244446 32.751884
1.1839585 65.329445 33.844883
20.292957 44.652447 8.912884
21.708958 44.783447 10.911884
12.983959 37.040447 10.04388
13.136959 35.521446 9.064884
35.61696 39.583447 48.31488
34.94396 41.501446 46.56288
41.778957 43.291447 38.917885
43.22796 41.137447 39.765884
43.75496 25.510447 16.377882
46.242958 25.723448 17.730883
43.020958 31.048447 12.944882
40.48496 31.706448 13.148883
12.102959 98.747444 11.776883
12.155959 99.480446 9.714883
12.454959 0.48545074 19.147882
10.324959 102.90845 19.791883
44.577957 19.439453 54.561882
44.76196 17.419449 55.669884
48.014957 21.16745 50.676884
48.444958 21.239449 48.57788
31.761957 47.487446 13.335881
30.058958 46.121445 13.819882
37.041958 40.395447 9.143879
37.17196 38.221447 8.528881
61.681957 79.06245 10.751881
63.617958 79.286446 9.674885
60.562958 89.61645 5.50988
58.03196 90.134445 5.018879
8.198958 64.36144 40.635883
9.104959 65.092445 38.988884
11.431959 67.54244 32.383884
11.831959 68.79745 30.384882
41.590958 95.67945 0.17988205
43.20696 95.619446 1.53788
51.514957 100.30445 52.051884
51.940956 101.25745 50.12488
57.13096 60.033447 13.167883
58.770958 61.311447 14.580883
62.84496 70.372444 12.546883
64.77296 71.61144 13.144883
3.9719584 85.25145 50.829884
4.6699586 83.508446 49.516884
6.3449583 78.97945 0.004878998
8.143959 76.94444 0.20688248
24.846958 70.163445 11.535885
22.977959 71.22845 10.313885
16.448957 61.139446 9.824886
16.871958 59.91245 7.643879
51.34496 58.911446 50.838882
51.152958 60.435448 49.57888
46.60096 56.27345 38.776882
47.391956 58.40645 37.608883
12.778959 83.65745 23.605883
11.398959 82.14145 23.382883
19.256958 71.48845 24.520882
20.984959 71.45644 23.593882
68.35096 89.70745 36.772884
69.942955 91.10345 37.707882
62.44196 97.46545 42.289883
61.02696 95.84544 40.93788
14.152959 46.277447 11.403881
16.314959 46.737446 11.518879
18.166958 45.146446 2.945881
15.796959 45.422447 2.0848808
7.5549583 38.001446 50.37788
5.7779584 36.591446 51.85588
10.655958 32.050446 4.1848793
9.566958 32.655445 6.167881
7.6529584 11.032448 48.58388
8.132958 8.948448 48.36188
15.770959 10.739449 1.9598808
18.415958 10.497452 1.77388
41.702957 56.678448 13.179883
41.77496 54.76645 14.350883
37.291958 44.794445 14.033883
37.363956 43.622448 11.845882
9.333959 98.54345 10.063885
8.978958 96.58545 11.159885
18.585958 90.942444 6.992882
19.167957 92.72445 5.6988792
15.439959 62.973446 17.035883
12.813959 64.22344 17.585882
6.1779585 53.12145 17.665882
5.6699586 55.28745 19.217882
55.29596 54.685448 30.767881
57.24196 53.673447 30.795881
53.23396 49.770447 38.191883
51.882957 52.019447 38.705883
69.62696 25.578453 3.6328812
0.8719559 25.94645 2.0788803
1.7759552 13.957451 2.2748795
2.9919586 12.76445 3.2178802
25.821959 48.054447 10.791882
25.992958 49.926445 9.704884
13.738959 46.987446 6.483879
15.325959 46.961445 4.313881
1.2009583 9.593452 16.310883
70.13396 11.23645 16.202883
3.7089546 19.288452 10.306883
2.732956 17.087448 8.966883
57.33096 98.52745 11.32188
59.363956 99.57045 10.403881
63.81196 89.95045 13.127881
65.28096 88.52145 11.833881
45.01796 56.33545 48.85488
44.376957 56.692448 46.669884
40.01196 59.611446 38.788883
38.730957 59.255447 40.482883
61.904957 85.010445 41.018883
61.903957 83.914444 43.58988
0.7469559 90.88845 45.837883
69.72796 91.86345 44.677883
54.480957 92.22845 14.345882
53.543957 90.897446 12.886883
50.32396 81.81245 19.935883
52.236958 80.56145 19.565884
68.025955 7.5064545 47.449883
68.89296 8.606453 49.13888
7.243958 1.601448 47.34988
5.8399587 103.35045 47.11288
7.2229586 88.95745 19.23388
5.5999584 88.20745 17.19088
4.1369586 81.427444 8.360882
3.8909585 82.968445 6.82288
69.176956 81.16945 24.167883
1.0349579 79.73845 24.516882
1.8349609 72.33344 16.242884
3.7039573 71.22745 15.495883
46.48496 76.25245 6.262882
47.362957 76.84544 8.083881
51.958958 73.05544 15.44888
54.51296 72.134445 16.150879
25.174957 6.6214523 25.201883
25.342958 4.9494476 23.529882
31.050959 9.492455 15.683883
31.401958 10.484451 13.606883
49.175957 59.784447 14.335883
47.81696 58.396446 13.194882
52.474957 49.892445 18.657883
50.821957 48.083447 18.595882
21.820957 95.29445 52.55688
23.233957 93.341446 51.58988
23.907957 92.77645 41.34088
22.699959 90.827446 42.09088
15.626959 11.365448 10.704884
17.566957 12.228455 11.575886
24.297958 16.187454 5.5608788
26.462957 17.644447 6.0628815
51.05496 102.761444 46.90388
53.61596 102.50145 47.255882
59.083958 0.73145294 35.739883
61.105957 1.7044525 37.024883
7.602958 19.573446 29.248882
8.947959 17.750446 29.930882
6.4589586 21.473448 42.61188
7.7919583 23.356447 42.678883
46.79796 24.50145 37.691883
46.729958 24.576454 39.63188
44.45796 14.427452 38.745884
45.430958 11.975449 38.295883
31.803957 0.25845337 19.604883
33.37896 1.290451 17.969883
35.204956 11.856453 21.847883
35.22096 11.116447 23.905882
14.378959 36.924446 55.48588
14.258959 39.520447 0.15687943
13.5859585 44.765446 8.403881
12.357959 46.043446 9.444881
54.354958 2.2164536 14.773883
56.376957 3.2484512 15.012883
50.57496 7.620453 23.132883
49.80296 9.258453 24.396883
29.477959 92.44845 12.590882
29.238958 92.413445 14.965883
32.75496 80.49145 17.124884
30.698957 79.53045 18.049883
10.223959 26.969448 39.601883
11.785959 27.142447 41.237885
14.342958 22.445448 49.350883
14.589959 23.513447 51.03488
9.406959 95.063446 31.664883
10.896958 94.703445 29.889881
12.318959 103.47445 26.545883
13.547958 0.29444885 24.579882
32.56496 45.699448 30.287882
32.619957 44.812447 32.432884
27.347958 39.339447 41.01388
28.175959 37.876446 39.231884
64.26196 71.89445 32.983883
64.90296 71.411446 30.926882
2.5999603 75.217445 26.148882
2.3109589 76.828445 25.473883
8.376959 64.635445 45.697884
7.649958 66.230446 47.64788
6.0939584 66.25545 1.910881
4.4529586 65.84544 2.9878807
45.688957 78.661446 9.334881
45.15796 80.72344 9.23988
35.97796 80.60445 1.1448822
34.528957 78.97745 2.1688805
7.6459584 30.433447 37.765884
8.606958 28.976446 37.11088
4.3949585 26.801447 31.524881
5.1009583 28.496447 31.157883
6.0979586 81.63145 45.158882
7.6439586 80.413445 44.885883
11.509959 75.47344 54.422882
13.566958 74.63744 54.823883
18.258959 1.1644516 2.9498825
18.76196 102.12345 2.9988823
24.084957 6.0104523 50.825882
25.795958 4.922447 49.707882
45.585957 89.67045 1.8578796
47.125957 88.62445 0.4668808
52.41596 93.86145 3.7098808
52.126957 92.55845 5.3298798
49.23296 47.504448 47.483883
50.168957 45.754448 46.581882
44.293957 42.685448 38.015884
45.24096 42.544445 35.22888
36.903957 62.145447 55.95388
37.91596 63.014446 54.310883
45.10896 70.51745 3.778881
46.148956 68.98845 4.973881
69.13096 63.372448 44.71488
69.20896 64.480446 46.990883
1.5959549 59.213448 55.65288
1.4269562 58.57345 53.323883
3.0129585 94.635445 30.564882
2.9799585 95.217445 28.205883
11.880959 92.36545 21.809883
11.916959 90.230446 20.949883
68.096954 4.2284546 47.651882
68.79896 5.6164474 49.449883
3.221955 98.77845 50.206882
4.561959 97.55945 48.28588
21.982958 0.7154541 11.6428795
21.028957 102.56045 12.686886
27.033958 92.410446 11.479885
27.792957 91.48745 9.480885
35.565956 96.25745 2.6178818
36.244957 97.45145 0.45487976
37.26096 2.877449 54.87588
38.44296 4.7324524 54.782883
27.654959 20.410454 10.877883
28.989958 21.75145 12.243883
38.447956 17.827454 11.877883
37.924957 16.368454 10.532883
37.507957 65.731445 26.086882
35.85096 64.884445 26.253883
28.027958 73.232445 22.220882
29.696959 73.59544 20.425882
32.43596 25.301447 49.50888
31.600958 27.214447 48.42588
28.977959 18.683447 43.072884
27.572958 18.468447 41.359882
48.01796 71.316444 34.848885
48.23396 73.802444 34.66088
54.131958 81.22144 31.467882
55.336956 82.89044 30.445883
49.78396 73.899445 20.010883
50.22096 72.56045 17.513884
36.75396 71.48544 14.603883
38.042957 72.883446 12.6408825
4.271958 22.648447 41.429882
4.418961 19.745447 41.67388
70.274956 20.725447 31.321882
69.18896 22.089447 29.708881
37.40096 79.22344 50.35388
36.84596 77.68245 49.04888
32.50396 85.46045 42.838882
30.918959 87.16945 44.446884
20.894958 39.250446 24.726883
21.231958 40.582447 23.302883
18.913958 48.874447 16.995882
16.66096 48.657448 17.864883
53.926956 84.412445 33.51388
56.646957 84.50745 33.72888
50.946957 88.482445 44.852882
52.541958 89.93345 44.487885
9.412958 6.530449 46.747883
9.4209585 4.8014526 45.12688
11.173959 12.714455 36.929882
9.822959 13.707451 38.300884
70.13396 29.994448 38.227882
1.7559586 31.977448 37.86888
69.027954 41.838448 42.13188
0.7759552 43.466446 41.50788
69.567955 8.962448 17.870882
67.83796 8.3554535 16.770884
61.85196 4.2894516 15.327883
59.819958 3.8224487 15.186883
9.787958 66.260445 22.179882
12.081959 66.025444 23.071882
9.660958 72.83444 31.542883
8.935959 74.04445 32.578884
20.226957 43.075447 51.040882
20.718958 45.192448 50.802883
11.448958 48.007446 2.240879
11.243958 49.759445 1.6208801
32.271957 51.050446 50.62588
32.23896 50.950447 52.593884
24.770958 44.167446 50.693882
22.689959 43.155445 51.20888
68.428955 56.48945 39.468884
67.34096 54.526447 40.029884
70.32496 58.137447 49.83588
0.11595917 60.02445 51.27088
20.424957 92.93745 8.027883
18.957958 94.774445 8.657883
10.797958 92.53445 17.379883
11.696959 92.80545 19.168882
35.704956 35.95445 24.381882
38.31896 35.949448 24.249882
42.61696 27.859447 18.990883
42.881958 27.903448 16.490883
15.597959 78.53345 14.432882
17.016958 77.174446 15.328883
15.201959 65.83945 16.339882
15.481958 64.79845 14.296883
15.6709585 53.219448 28.528883
18.013958 53.736446 29.264881
12.627959 62.625446 36.581882
12.438959 63.791447 34.377884
45.73296 28.449448 19.418882
44.967957 30.384447 21.098883
39.808956 37.055447 22.194883
37.61696 37.478447 21.117882
69.33896 64.136444 8.3698845
69.803955 64.842445 6.547882
68.31996 72.468445 56.392883
67.301956 72.07445 54.449883
55.131958 35.101448 27.454882
54.055958 33.47545 29.504883
46.45796 39.377445 36.073883
45.30996 39.574448 33.64588
41.125957 79.662445 30.166882
42.834957 80.80945 30.755882
47.11496 87.358444 35.004883
46.835957 88.690445 33.237885
41.944958 4.835449 35.810883
41.272957 3.7414474 37.46588
52.015957 5.957451 39.87588
52.777958 3.754448 40.588882
60.111958 41.493446 37.002884
61.974957 41.844448 38.494884
63.280956 49.401447 30.028881
61.911957 51.103447 29.287882
45.77696 46.364445 44.11188
44.63796 46.241447 46.061882
35.772957 51.512447 45.338882
36.843956 53.110447 45.086884
-1.0560416 84.01345 33.48688
-1.3820413 83.07145 35.220882
7.8409586 79.08945 40.817883
7.9419584 77.260445 40.685883
40.780956 50.501446 47.91088
39.07396 48.746445 49.179882
46.250957 57.87845 54.815884
44.35096 59.615448 55.13888
26.684958 83.285446 26.954882
25.283958 82.49245 27.891882
20.770958 75.246445 32.61088
18.413958 74.42145 32.87488
55.105957 24.546448 6.9398804
54.47096 26.205448 8.0558815
45.849957 29.363447 2.261879
44.79796 30.483446 4.27388
59.15096 79.008446 49.135883
57.81696 78.13744 50.426884
64.12896 70.299446 50.60388
64.35496 68.24245 51.30688
28.000957 72.05945 8.193882
25.916958 72.07545 7.8768806
23.344957 82.133446 4.3748817
24.594957 83.204445 2.7728806
59.05996 64.68745 50.329884
57.29796 64.21545 50.31988
53.451958 75.50044 49.086884
51.54696 76.550446 48.685883
36.215958 8.400452 34.176884
37.091957 10.088448 32.928883
44.535957 9.226448 23.798882
44.606956 11.189453 22.975882
29.817959 30.300447 54.25888
27.911959 31.174446 54.950882
21.920958 39.547447 54.32088
22.443958 40.80245 55.91088
68.85096 45.15645 45.13388
67.385956 46.605446 46.13288
56.863956 46.568447 50.767883
55.647957 48.94145 49.59088
10.145959 21.382454 54.725883
8.204959 22.22345 55.655884
8.831959 11.698448 55.644882
7.872958 9.679451 55.49388
41.57496 35.80245 48.50188
41.166958 34.591446 50.68288
37.722958 39.605446 2.8948822
38.347958 39.372448 5.12088
43.375957 56.272446 16.302883
41.694958 54.84245 17.403883
32.65196 60.570446 23.150883
30.078959 60.46845 23.094883
3.3949585 41.755447 40.432884
4.2269588 40.683445 42.584885
8.472959 42.578445 49.24588
8.063958 41.124447 50.97888
55.979958 43.306446 5.556881
54.16596 41.69145 4.8838806
63.39496 41.294445 1.5598793
63.252956 42.381447 3.14188
64.99396 77.788445 43.796883
65.63396 77.56245 46.463882
65.95396 89.71245 45.789883
64.24296 90.85445 45.929882
1.1559585 44.946445 39.054882
3.4029586 44.689445 37.864883
7.3979583 55.147446 37.995884
7.0639586 53.923447 36.320885
10.246959 44.91345 32.577885
9.375958 43.465446 34.030884
13.410959 48.040447 38.341885
15.451959 49.358448 37.475883
68.81096 50.936447 9.690884
66.69196 50.450447 8.64188
60.07396 44.291447 11.23988
58.82596 43.381447 9.501881
18.854958 16.656448 36.702885
16.71996 15.843452 35.38288
13.247959 16.372452 42.93788
11.370959 15.678452 43.66088
13.862959 64.233444 4.4328804
12.655959 63.37145 6.60688
20.463959 72.68745 11.477886
20.671957 72.76745 9.437885
16.298958 47.96245 23.974882
18.66796 46.894447 23.665882
12.103959 41.92045 29.964882
10.614959 41.509445 32.148884
31.922958 55.000446 35.31288
30.733957 53.213448 36.279884
26.683958 52.700447 46.950882
25.706959 51.211445 46.593884
43.287956 48.536446 26.739882
45.822956 49.465446 27.065882
51.59596 58.16245 25.154882
50.944958 57.90645 27.262882
62.606956 18.088448 29.978882
61.106956 19.483452 29.465881
51.023956 21.109451 32.505882
50.28296 18.87445 31.065882
23.384958 32.409447 45.123882
23.838959 33.957447 43.741882
15.300959 33.299446 49.53588
16.77896 31.403446 49.41188
49.46996 93.316444 21.441883
47.52596 94.15445 20.524883
49.20096 101.035446 27.597883
49.445957 100.86345 29.753881
0.19395447 41.422447 2.0818825
70.00096 43.167446 3.292881
2.3869553 35.071445 9.29488
3.7549598 34.321445 7.5178795
69.677956 74.36244 38.912884
1.1549606 73.18445 38.196884
5.186959 64.00745 44.266884
4.0069585 62.845448 45.825882
58.99796 91.73545 27.545883
60.16596 89.688446 26.573883
52.14296 83.45045 21.396883
53.94396 82.162445 21.244883
51.94896 28.607447 24.334883
53.992958 28.604446 24.958883
50.65096 17.939447 27.200882
52.14996 15.932447 27.526882
66.00196 29.235447 17.910881
64.94596 27.906446 16.354881
58.426956 27.068447 6.4538803
57.39396 29.049446 6.061882
7.280958 62.37145 45.27288
8.941958 61.528446 45.948883
12.338959 61.414448 1.1198807
10.571959 60.22445 1.7798805
58.96396 18.740448 42.417885
57.891956 20.302446 43.384884
60.980957 23.901447 32.17388
59.097958 24.915447 31.360882
53.99096 96.09645 15.053883
55.988956 96.46445 13.648883
63.944958 87.94845 15.179883
63.35396 85.93345 15.770883
57.66396 16.40345 42.537884
58.723957 17.380447 44.707882
67.38496 11.906448 45.093884
69.36996 12.45845 46.593884
1.1769562 31.416447 27.113882
0.008956909 30.902447 25.478882
63.34596 38.429447 23.419882
62.479958 39.32345 21.565882
22.185957 52.629448 52.29388
24.502958 52.652447 51.00688
21.730957 57.769447 41.095882
22.589958 58.916447 39.334885
41.94196 3.4354477 52.56988
41.492958 4.346451 50.568882
39.12196 2.502449 38.802883
37.765957 4.240448 39.628883
7.4279585 41.614445 28.515882
7.628958 39.276447 28.702883
11.637959 32.594448 37.669884
9.987959 31.499447 37.455883
26.155958 26.000446 38.61088
23.699959 26.185448 38.08988
17.692959 18.816446 43.47288
16.265959 17.257446 41.922882
62.36496 30.977448 34.782883
63.564957 29.636448 36.281883
1.4289551 27.690447 31.992882
1.456955 29.306446 30.295881
31.144958 83.817444 33.668884
30.611958 81.79645 35.684883
28.507957 75.65244 43.522884
26.374958 75.90945 41.894882
18.967958 5.2994537 24.831882
20.322958 5.4734497 27.014883
15.017959 11.939453 31.599882
14.422958 14.07045 33.158882
27.560957 57.47545 3.6188812
27.082958 60.147446 3.3608818
31.846958 57.10045 51.35688
33.18696 57.200447 49.69688
7.7069583 101.37545 49.955883
6.2849584 99.96145 52.033882
12.984959 98.315445 6.747879
12.987959 100.46545 6.9948807
20.880959 89.844444 21.119883
20.685957 89.15745 19.029882
17.576958 86.47845 10.929883
17.155958 87.302444 8.809883
65.14796 66.149445 21.480883
64.71196 63.93945 22.370882
64.52196 66.64145 30.536882
66.52996 66.07145 29.634882
1.2149584 23.988447 5.6048813
0.7989585 26.110447 5.6858788
5.2439585 36.068447 0.31787872
6.9839582 37.400448 1.3568802
30.619957 84.689445 37.843884
28.954958 85.87345 38.524883
23.443958 75.23444 33.34088
22.208958 75.17045 35.19488
21.959957 54.99545 38.380882
22.750957 53.244446 37.494884
23.883959 49.262447 28.043882
25.303957 50.773445 27.405882
35.13396 32.80245 3.3948822
36.633957 31.339447 4.887882
45.48596 31.360447 0.5848808
47.979958 31.244448 0.15888214
49.925957 62.68945 51.364883
51.805958 61.33745 52.00788
56.42196 64.40945 4.6288795
57.521957 62.777447 4.7888794
18.119959 23.081448 16.297882
17.022959 24.378447 17.529882
8.870958 24.980448 22.324883
6.5949583 25.987448 21.524883
58.890957 23.233448 27.518883
59.132957 23.697447 25.558882
55.97796 33.08645 19.278883
55.127956 33.477448 17.470882
24.373959 58.93445 19.291883
22.715958 56.65645 19.535883
29.794958 49.362446 13.046883
27.712957 49.519447 12.116882
59.94996 99.55845 38.97288
59.23396 98.78445 41.112885
51.159958 90.73545 41.885883
51.336956 89.30845 39.852882
46.35296 7.0554504 24.358883
45.48596 7.282448 22.338882
51.13596 103.08345 25.018883
52.169956 101.63945 24.072882
40.322956 99.79345 44.725883
41.195957 98.247444 43.358883
42.19296 0.14344788 32.516884
43.60296 1.4924545 31.850882
15.266959 47.640446 14.205883
16.482958 49.241447 15.090883
14.847959 60.006447 13.017882
15.917959 62.166447 13.412883
43.001957 37.994446 33.282883
42.308956 35.842445 33.637882
45.847958 26.369448 28.166882
46.028957 24.417448 29.628881
15.853959 28.874447 50.170883
15.812959 26.909447 48.96088
16.459959 33.160446 39.303883
15.242959 32.451447 36.859882
3.1789587 13.6024475 26.799883
4.3249583 13.595451 23.934883
8.814959 7.2894516 32.22988
7.4899583 5.4524536 32.094883
49.65696 44.384445 7.666883
51.348957 43.798447 8.674883
56.17296 38.78845 18.676882
58.579956 38.975445 19.845882
43.564957 39.010445 23.695883
45.314957 40.345448 24.885883
52.83896 31.316446 24.625883
53.55396 31.484447 22.061882
44.47896 38.428448 37.352882
43.492958 37.307446 35.810883
40.013958 31.337446 42.294884
41.37396 29.757446 42.824883
2.4319584 55.539448 24.363882
3.3909585 54.798447 22.712883
11.473959 62.241447 24.129883
11.248959 63.136448 21.469883
57.515957 92.33445 29.761883
56.571957 90.25645 29.696882
54.44396 91.08945 23.352882
53.22196 93.52745 23.686882
61.940956 90.622444 11.00388
62.952957 92.94745 9.230885
52.974957 98.855446 8.112881
53.418957 99.925446 9.634884
31.611958 5.2144547 11.996883
29.459957 6.2424545 11.28088
29.157957 102.87645 5.4488792
31.211958 102.43745 5.5348816
0.9759585 39.196445 4.080879
2.1219585 38.912445 2.4868813
10.515959 46.357445 4.1338806
12.546959 46.459446 4.0298805
21.107958 87.62345 22.896883
21.846958 86.56145 21.585882
29.047958 83.59544 22.047882
30.711958 83.42045 23.644882
17.145958 19.092447 18.751883
18.758959 20.514446 20.542883
16.234959 28.736446 24.713882
15.863959 29.812447 27.041882
35.854958 54.541447 25.944883
35.376957 55.345448 24.106882
28.884958 45.469448 24.086882
27.056957 44.237446 22.270882
27.985958 53.471447 37.22288
28.802958 55.292446 36.002884
26.807959 65.76745 32.183884
28.136957 65.11044 30.446882
21.879957 39.877445 28.992882
23.693958 40.880447 29.545881
27.958958 35.444447 37.913883
29.478958 33.108448 39.025883
41.585957 5.5334473 12.243883
41.16596 7.592453 11.529882
32.92996 11.183449 16.439882
33.37796 12.94545 15.279882
51.23296 43.575447 54.718884
50.42296 41.460445 53.774883
49.902958 35.654446 50.783882
50.863956 35.528446 48.815884
22.732958 4.5694504 42.460884
21.965958 4.0434494 39.961884
27.217958 12.132454 35.385883
29.022959 11.037453 35.606884
52.245956 5.8364487 24.460882
51.833958 3.6854477 25.578882
62.222958 0.37744904 31.794882
62.321957 1.0984497 33.89588
47.98396 59.722446 52.947884
46.85196 58.03145 52.21788
36.73396 60.508446 53.79288
35.00996 58.98245 54.11788
7.7139583 39.030445 23.162882
8.069959 38.088448 25.338882
-0.7060414 39.231445 32.72988
1.5179585 39.362446 34.119884
26.693958 75.62845 21.331882
27.085958 77.996445 22.111883
36.53996 74.93645 26.749882
36.37996 74.47344 24.414883
42.673958 17.715454 53.420883
43.64296 15.517448 53.46488
38.689957 6.4064484 52.71688
40.008957 7.0454483 51.169884
67.90396 11.907448 39.350883
66.60296 10.690453 40.49288
60.43696 18.429451 38.123882
62.659958 19.230453 36.290882
17.650959 89.289444 19.842882
17.425959 88.316444 21.918882
10.922958 92.08245 32.36088
9.041959 90.45745 32.255882
14.136959 68.16744 32.686882
15.507958 69.55644 33.568882
19.770958 70.55444 41.84688
20.442959 70.745445 44.175884
29.686958 39.80245 17.904882
29.691957 38.312447 15.865883
27.465958 38.154446 23.938883
29.711958 38.451447 23.550882
24.114958 70.00144 39.03588
26.027958 69.64645 38.099884
28.925959 79.231445 32.592884
30.247957 77.99045 31.040882
55.606956 13.315453 39.133884
57.252956 14.811447 37.894882
65.12596 7.4804535 46.69588
65.71996 5.7634506 45.516884
40.479958 4.349449 5.7888794
40.93596 6.5374527 5.55888
43.917957 103.02045 12.061886
45.779957 101.71545 13.7728815
61.300957 17.242455 34.71588
61.840958 16.51345 36.775883
59.453957 8.184448 28.753883
59.88696 10.263451 28.892881
21.475958 79.96445 11.487881
23.108957 80.85345 13.105882
30.829958 86.73645 8.542881
31.702957 86.27145 6.6128807
15.221959 9.217453 12.650883
14.539959 9.427452 15.023883
3.4659586 10.802452 16.999884
3.9749584 12.587448 19.157883
48.730957 54.62745 38.467884
49.15896 53.67045 36.693882
44.994957 61.32945 32.38188
44.307957 61.270447 34.44488
1.3009567 63.223446 39.50688
2.6149597 61.20345 38.433884
0.7339554 61.688446 28.907883
1.3759537 63.97545 29.144882
42.79696 37.704445 28.465883
40.875957 35.736446 28.532883
49.958958 30.918447 22.939882
49.639957 29.141447 23.509882
51.777958 33.062447 5.860882
52.778957 33.709446 3.9028816
57.703957 25.203447 56.031883
57.639957 23.326447 55.297882
24.923958 47.503445 6.296879
26.367958 46.44145 4.901882
34.916958 44.942448 3.7458801
35.286957 42.125446 2.7848816
8.816958 91.411446 18.501883
6.5689583 91.40645 18.496883
3.1049585 96.90945 25.887882
0.53995866 96.46145 25.044882
48.12196 19.468452 28.636883
47.645958 21.752449 27.830883
46.577957 13.010452 21.446882
46.064957 11.560448 20.332882
12.528959 87.927444 44.066883
10.674958 86.925446 43.100883
2.7339585 86.23845 48.670883
0.78695863 86.98745 49.316883
26.681957 88.844444 49.850883
25.560957 90.692444 50.00288
21.391958 87.40545 5.9308815
19.758959 89.052444 5.3668823
64.76096 75.16544 46.283882
65.56196 74.24844 48.247883
6.521958 77.440445 43.78488
6.3859563 76.00445 45.275883
47.216957 93.69845 45.371883
48.681957 92.938446 43.73588
57.044956 92.591446 50.789883
59.26096 92.982445 51.00288
35.799957 16.099447 29.241882
35.868958 18.821447 29.037882
31.904959 24.422447 31.764881
31.600958 26.321447 30.707882
41.667957 12.052452 46.84288
39.65796 12.812454 46.20888
35.162956 0.8124542 43.982883
32.784958 1.4074478 43.783882
35.424957 62.80245 27.848883
35.78896 64.52844 29.476883
30.202957 65.302444 39.758884
31.681957 63.478447 40.91088
0.8149585 28.841448 49.921883
-0.4130414 27.729446 51.399883
7.8959584 29.199448 3.4548798
8.265959 26.665447 4.3888817
59.404957 1.3674545 2.143879
57.63596 1.5224533 1.2468796
50.856956 103.32245 1.7798805
49.749958 0.079452515 56.28588
32.278957 97.07145 35.130882
32.584957 99.60145 36.445885
39.34496 5.393448 35.487885
37.918957 7.1244507 36.50688
47.418957 31.846447 5.825882
49.014957 33.501446 5.3768806
41.954956 43.362446 4.05188
42.459957 43.266445 6.34988
59.41396 79.49045 53.234882
59.704956 77.287445 52.55788
66.06496 79.68345 51.086884
66.84996 81.21545 51.74388
4.257958 20.27845 7.8738823
2.2959595 21.95945 7.6098824
64.55396 17.115448 12.707882
63.13096 16.09745 10.890881
69.26896 66.649445 45.691883
0.55696106 66.83645 46.14788
1.2139587 69.44745 53.010883
2.6919556 69.71345 54.711884
15.526958 1.7544479 19.630882
15.212959 0.38845062 21.851883
11.357959 95.539444 18.416883
9.899959 94.69945 16.386883
0.53795624 76.81944 38.475883
1.7129593 78.607445 37.232883
3.5839546 81.89645 47.233883
2.2759552 81.47745 49.450882
11.921959 35.636448 3.9378815
12.698958 34.063446 4.5868797
21.603958 29.848448 7.278881
23.541958 31.627447 8.465885
17.459959 8.547447 14.339883
16.765959 11.396454 14.196883
24.621958 17.352448 20.536882
23.328959 18.938454 19.158882
49.183956 77.55745 49.365883
50.591957 78.90444 50.427883
49.758957 86.93145 2.681881
51.557957 87.11145 4.547882
18.502958 48.619446 13.349883
20.102959 49.708447 14.550882
22.281958 57.93345 17.142883
20.149958 58.21745 18.184883
28.104958 81.955444 32.28488
29.915958 81.648445 32.038883
39.953957 77.39445 28.396883
41.19996 79.08444 27.614882
17.171959 1.0864487 8.480885
17.966959 0.9404526 6.3198814
9.645959 6.18145 3.6068802
7.9819584 6.9044495 4.493881
64.32896 44.056446 28.010883
65.40096 43.843445 25.701883
2.5809555 52.26645 22.510883
2.5459595 52.550446 20.096882
15.100959 13.635452 4.556881
13.844959 12.682449 2.9068794
20.323957 18.27845 51.447884
20.618958 20.925453 51.711884
58.015957 2.4454498 54.517883
57.25596 3.3114471 55.699883
57.953957 12.677452 55.893883
56.688957 14.966454 56.13988
9.681958 8.049454 23.345882
11.039959 7.846451 22.150883
6.9619584 17.023453 27.667883
5.3789587 17.983452 26.037882
49.738956 12.812454 3.8528824
48.903957 14.589455 4.110882
56.709957 19.258453 0.036880493
55.14396 17.437454 55.686882
50.779957 22.382454 42.247883
49.86596 21.760452 43.594883
43.641956 13.660454 46.025883
41.251957 14.280449 44.461884
7.3389583 88.58845 8.036884
6.4219584 88.65445 9.870884
5.3789587 100.383446 8.452885
7.0879583 100.688446 10.01688
42.842957 18.380447 33.049885
43.057957 16.576454 31.396881
42.85096 19.919449 25.904882
42.342957 20.392448 27.924883
10.784959 48.160446 31.519882
11.434958 48.065445 33.522884
17.766958 49.994446 24.541882
17.478958 52.37845 24.508883
67.290955 63.52445 23.067883
67.649956 62.790447 20.780882
5.3039556 56.62145 16.308884
3.8079612 56.37145 14.665883
8.900959 75.89044 44.38888
11.672958 76.316444 44.894882
18.701958 71.383446 46.399883
17.939959 73.522446 45.48088
6.1109586 12.408447 55.205883
4.1869583 12.3784485 54.829884
2.5359585 13.517448 45.38288
4.6159587 13.185448 45.00188
22.403957 84.411446 25.800882
24.609959 84.91845 26.281883
24.792957 95.28045 29.608883
24.624958 95.883446 27.495882
19.760958 8.435448 1.4148788
19.417957 7.6744537 3.2898788
24.408958 7.4644547 14.252881
22.384958 8.837448 13.841882
59.308956 52.672447 29.373882
59.06896 54.734447 28.653883
