41.51204 83.090034 25.375937
40.88604 81.28003 26.394936
39.64704 85.229034 35.235935
40.13104 85.673035 37.211937
48.89904 40.94403 33.294937
48.42904 38.12503 33.383934
43.18604 34.716034 41.662937
42.32404 34.289032 39.522934
29.83804 116.23403 62.058937
28.47704 116.73603 63.71594
16.08804 116.26803 61.494938
14.88604 116.13003 59.949936
45.94104 104.72203 5.292938
44.38604 106.42903 4.376938
48.10504 110.13603 57.516937
45.63304 109.65903 57.694935
18.41404 110.64503 19.187943
20.33804 110.79603 18.014938
22.27304 113.92703 7.610939
24.32604 112.96803 7.591942
23.31004 15.422043 56.008938
24.432041 15.661041 53.552937
23.196041 6.2830353 47.673935
21.95904 6.7200317 45.199936
21.89204 65.91503 59.767937
20.87704 68.31803 60.385937
27.255041 73.76403 3.023941
26.15004 75.80103 3.8009415
34.88504 69.97503 1.6149368
36.66504 69.36103 3.3449402
47.81304 71.52403 4.3379364
49.00904 73.23703 3.3399353
31.91604 118.37903 15.724937
31.366041 118.592026 17.422935
34.91404 108.03903 17.133942
35.52204 109.37103 15.34494
18.71304 115.21003 30.994936
18.495039 113.99203 33.06394
18.22504 102.48703 26.583939
19.54504 101.590034 25.631943
9.31304 105.88403 58.210938
12.008039 105.74803 58.921936
8.548039 106.22703 5.2249374
7.052039 104.30903 6.374939
13.938039 44.77803 45.553936
12.989039 46.14503 44.683937
2.0880394 46.66103 50.273937
3.2830396 45.43603 52.000935
28.75104 67.99603 15.185936
28.86304 65.37503 15.410942
24.68304 58.08903 22.870941
22.71604 57.48403 24.103935
43.81804 54.407032 34.774937
42.92604 53.454033 36.280937
37.37904 60.72103 44.392937
37.55404 62.850033 43.476936
16.64504 19.035034 29.915936
18.807041 19.082031 29.906935
14.002039 16.623032 32.123936
14.311039 14.798035 33.728935
21.68604 5.287033 29.417936
23.69904 5.9290314 29.899935
32.79004 122.07303 31.694935
32.36104 121.411026 34.375935
1.6450386 14.319031 62.357937
3.3970368 12.718033 61.817936
1.3580399 10.466034 50.497936
1.035038 8.214035 50.605938
6.5620394 0.52902985 12.923943
8.309039 1.9580307 13.138939
1.2620395 1.051033 4.1849365
0.09903952 3.299034 3.827942
13.552039 73.64703 50.668938
14.194039 76.063034 50.981937
10.943039 82.79403 42.624935
10.19704 83.42803 40.711937
21.33604 58.134033 58.868935
22.203041 56.34103 59.977936
12.02704 50.55403 60.791935
9.750039 49.93803 60.029938
27.67204 54.149033 48.978935
30.15004 54.919033 49.187935
33.56704 62.704033 56.540936
34.854042 63.98603 54.844936
50.21604 3.6110306 5.8099365
49.90904 5.0810394 8.284943
6.4540396 3.7710342 17.527939
5.5650396 2.912033 19.63694
48.61604 120.523026 31.439936
48.46004 120.99603 33.838936
50.06404 5.0360413 27.244936
48.20104 5.9340363 25.398935
26.53704 72.47003 15.958939
24.17004 72.48903 15.343941
16.10504 65.49703 11.568939
15.646039 63.42403 11.048943
1.7040396 18.01204 45.885937
3.8290396 17.64003 45.395935
14.337039 16.677032 44.262936
13.04404 14.245041 45.005936
8.83704 4.9470367 38.112934
10.52504 3.754036 39.516937
20.939041 9.40004 41.804935
21.932041 7.7320404 42.477936
44.215042 112.21103 50.037937
42.29004 110.96503 48.439938
39.28404 101.90203 45.562935
39.26404 100.80503 43.684937
18.42304 118.76803 15.214935
16.59004 119.72603 16.328941
11.545039 116.26303 25.44194
12.114039 117.34003 27.147942
41.47004 19.937042 33.316936
40.79104 18.531036 31.645935
45.02904 21.679031 33.252937
44.23304 23.339035 32.080936
39.30804 57.335033 9.074936
38.33904 58.107033 10.964935
40.50204 65.31403 11.856941
40.81004 65.45903 14.242943
33.536037 60.323032 34.805935
34.299038 58.15203 35.336937
40.05304 52.252033 36.925934
41.06304 52.51403 38.749935
40.89404 12.042038 22.182938
39.007042 11.419037 21.645943
32.424038 9.10704 16.640938
31.61904 8.2270355 15.046936
15.014039 116.82203 29.732935
13.040039 118.48803 29.551935
19.99504 121.65203 37.179935
22.033041 120.689026 36.586937
4.7910395 37.213043 17.02594
5.0820394 35.020035 16.320938
16.51704 32.61104 16.660942
15.953039 34.243042 15.897942
33.93304 7.0000305 11.397942
34.11604 4.818039 12.271942
39.02404 0.77902985 10.0479355
39.20304 3.2940292 10.186935
19.27204 74.840034 24.870941
17.66604 75.798035 25.77694
14.423039 84.42203 25.140938
12.099039 83.25403 24.356941
47.25304 84.11403 28.007942
45.68804 83.77403 25.49794
0.7450409 94.423035 21.874939
2.7900383 93.86603 22.45694
43.94904 6.1070404 32.861935
44.73004 8.202042 34.100937
36.19104 15.826035 30.873936
35.69204 17.865036 30.006935
24.45704 15.021042 42.694935
25.498041 17.240036 42.870937
31.76604 22.389038 45.133934
31.82204 22.654037 42.822937
21.651041 90.34203 14.232941
20.43404 92.25803 15.166939
26.137041 88.827034 25.58194
24.93304 87.91403 26.924942
23.01104 45.59703 10.417938
24.73304 46.34603 11.098938
29.86304 41.128033 18.80494
28.255041 40.93803 20.256943
43.89104 80.47203 2.5879364
42.229042 79.55303 0.9929428
34.67904 79.96103 57.559937
35.243042 78.43603 56.035934
14.714039 66.63503 8.993942
12.936039 66.96703 7.5619354
6.3700395 72.69203 6.556938
5.5670395 74.51003 8.110939
18.33804 21.158035 1.1259384
17.05804 21.06604 63.413937
17.83104 17.895035 7.5559387
17.91804 17.896042 10.311935
23.92804 21.27504 48.779938
22.72904 20.315033 46.891937
28.97804 10.43103 45.925938
28.74004 11.468033 43.828938
43.26604 53.84803 31.738935
44.68004 55.36003 31.996935
49.63304 62.315033 27.710936
50.986042 61.11603 27.067936
7.493039 31.07904 32.140934
9.64604 30.880035 31.290936
13.931039 19.451035 30.219936
14.364039 18.539032 28.610935
19.90904 100.01103 48.650936
18.47404 98.72003 50.151936
10.51104 96.19603 43.483936
10.42604 99.131035 43.347935
2.7530403 99.31603 60.340935
3.5420372 97.26703 60.015938
51.23504 96.95903 50.635937
0.62503815 98.23503 48.719936
47.19404 61.004032 41.568935
46.68404 59.072033 41.071938
38.06804 59.553032 35.369934
37.08904 58.273033 36.785934
0.38803864 120.79103 61.559937
50.45304 119.85803 61.711937
42.79504 116.60903 0.28993988
42.48304 118.43503 63.234936
45.04304 111.47603 2.2809372
45.215042 114.21303 1.3899384
45.30904 119.18103 62.043938
45.51704 121.56203 61.547935
15.1000395 89.59703 9.668938
16.10404 87.78303 9.697937
19.84504 84.25303 0.033935547
21.91104 85.00203 0.6689377
4.3690395 14.734039 5.1459427
6.2970395 15.078033 3.9019394
14.196039 20.287033 11.577942
12.649039 21.58104 12.78894
11.338039 44.17104 3.7709427
13.649039 45.209034 4.374939
8.03204 41.463043 16.24894
9.743039 42.83403 17.324936
36.48204 26.72203 41.626934
37.70204 24.299042 40.910934
41.77504 27.999039 51.343937
44.22504 28.993042 51.193935
31.31004 28.689041 40.844936
33.20804 28.242035 39.922935
39.229042 23.189041 35.963936
39.14504 21.526031 38.172935
23.18604 101.90703 6.114937
24.44504 102.687035 4.183937
27.72804 95.93603 59.683937
27.42704 97.01403 57.509937
17.17304 13.502029 54.138935
15.9750395 14.002029 55.920937
20.27704 19.145035 1.3549423
21.53104 17.208038 1.9469376
5.2520394 68.743034 9.420937
6.2430396 69.26003 11.320938
7.908039 77.715034 10.78994
8.86304 79.25003 9.171936
1.1940396 65.60603 21.590942
-0.4369605 67.007034 21.99894
4.834039 76.05403 22.027939
5.7040396 75.37303 23.84494
9.58404 1.3110352 40.027935
7.7020392 123.47703 38.855934
4.7500396 116.01303 45.525936
4.6310396 114.29703 46.998936
46.36204 14.104034 50.161938
47.93204 15.591034 49.589935
47.49704 25.035034 58.07094
48.91704 23.96103 59.490936
9.180039 96.23903 29.03894
9.15204 94.28603 28.083939
19.33004 99.13503 24.73294
17.73404 99.20503 23.296936
44.68704 72.61903 36.366936
42.82104 73.74503 37.024937
47.13504 81.24903 27.840935
45.40004 81.73203 27.393936
0.72003937 113.36803 2.5419388
0.54504013 112.88603 0.54894257
1.9780388 105.08703 57.206936
2.91204 102.40203 56.881935
34.48804 60.682034 5.3119354
35.02104 58.89003 5.2439423
25.35904 59.099033 11.352936
24.95804 60.39403 9.755936
7.835039 114.94803 26.305939
6.5290394 116.898026 26.658936
8.03004 1.5300293 18.660942
7.7450395 1.7330322 16.092941
14.543039 117.79803 7.810936
14.259039 116.01203 9.378937
5.5620394 109.17603 6.37294
4.8890395 109.92003 4.3929367
6.9440393 44.947033 16.420937
8.71104 45.142033 17.76194
-0.99396044 48.303032 19.861938
-1.9789603 46.04703 20.823936
41.55304 55.107033 25.16394
42.847042 53.60203 25.95694
48.62804 49.245033 21.548943
49.72404 50.73603 20.39994
13.363039 29.688034 40.606937
12.399039 28.111038 39.324936
23.48804 21.999039 37.088936
23.38204 21.53804 39.217937
51.21704 63.20003 13.557938
49.70404 62.13703 14.436935
41.15604 56.836033 16.822937
40.88004 58.78603 17.731941
17.02004 105.327034 14.912941
19.48504 104.40103 14.839935
21.32504 108.00203 5.4679413
23.62704 109.62903 4.461937
28.77904 104.97203 43.919937
30.98704 103.90103 42.615936
36.19104 106.076035 33.779934
36.55604 106.97103 36.462936
50.66904 55.52903 39.488937
49.49704 54.481033 38.865936
49.92504 65.21703 32.582935
0.19203949 65.25203 33.857937
12.78704 104.562035 10.545937
12.882039 106.02903 12.014938
13.811039 99.33703 8.020943
15.074039 100.56503 6.933937
22.20704 18.53003 30.289942
20.762041 17.277039 29.497942
22.446041 7.3520355 25.989937
23.828041 8.183029 24.502937
19.592041 102.645035 21.480942
19.47104 100.36203 21.251938
20.755041 90.69603 26.893936
20.65304 88.90803 24.736938
40.97604 41.24103 35.621937
40.86604 43.68703 36.308937
45.46304 42.636032 31.470936
45.02004 42.121033 29.593935
6.9280386 88.55403 2.3269424
6.6680365 90.55303 3.6179428
49.29504 90.21903 1.3219376
48.12704 89.58503 3.1969376
15.72304 7.861038 44.029934
16.60204 8.618042 45.848938
8.39504 11.079041 53.993935
6.4210396 10.976028 54.597935
32.67504 97.23103 59.024937
30.49904 96.06703 60.161938
30.72104 100.14703 6.435936
28.519041 100.44803 7.9259415
13.01304 39.06804 48.211937
10.92804 38.78604 48.790936
9.51804 40.764038 58.841938
10.932039 41.62503 60.512936
5.8200393 26.901031 62.827938
4.0240393 26.876038 61.544937
4.3460393 14.646042 63.865936
6.0430393 15.281036 1.3089371
42.82904 34.060043 56.728935
40.57404 33.85704 55.612938
35.57504 37.671036 53.538937
33.668037 39.352036 53.93194
20.01704 54.29203 22.800941
19.25004 53.25503 25.534943
8.87004 60.085033 28.077942
8.21604 62.18703 29.43294
4.0480394 81.39103 46.291935
5.3030396 83.08203 47.904938
11.214039 73.965034 52.030937
12.826039 72.395035 53.433937
6.920039 76.271034 27.903938
4.9610395 75.69403 27.855942
0.8950395 65.73503 31.214937
1.7780395 64.04003 31.72294
11.434039 115.87303 29.911936
10.806039 117.995026 31.299936
12.199039 121.48403 39.827934
10.623039 122.00103 38.213936
6.7540393 38.49803 45.530937
7.2410393 39.54103 47.847935
3.5270395 30.871033 52.200935
5.3510394 30.42604 51.507935
39.57304 14.47403 63.572937
38.91404 15.330032 1.6359406
37.15304 9.87204 5.5529404
36.28504 10.19104 8.034943
30.95704 119.77403 0.8039398
31.29504 117.79803 63.828938
34.77104 116.01503 53.864937
34.94604 115.25303 51.507935
32.45504 32.24904 5.6879425
30.55904 32.14003 6.5759354
24.17704 36.591034 15.866936
26.106041 37.74704 17.418938
30.53004 58.32003 16.77494
29.557041 59.981033 18.935936
25.26604 62.753033 12.091942
25.70004 64.55403 11.31794
35.56104 43.08603 2.551941
36.74004 43.634033 4.931938
40.84404 41.72104 14.216942
42.55904 42.201035 16.017937
28.17404 95.74503 11.946938
29.24304 95.05403 13.40094
35.94304 91.60903 9.721939
37.99404 93.03803 9.006943
18.53204 10.38504 22.486938
18.49304 8.246033 22.924942
7.5940394 2.8510284 21.711937
6.2700396 4.898041 21.63594
48.37904 26.498032 63.04194
50.23204 27.208038 63.30594
6.966037 24.31604 58.149937
7.587039 26.455032 57.637936
37.965042 9.683029 19.281937
40.32204 8.359039 19.756943
39.70504 121.28003 26.633942
40.69904 123.07103 28.446938
20.040041 53.59003 54.892937
17.83004 52.41503 55.133938
14.792039 49.128033 61.628937
12.866039 47.57503 61.959938
43.08104 88.56003 0.13694
42.33604 88.34203 62.176937
36.50504 79.97803 53.766937
34.61704 81.19203 54.778934
49.78404 51.11603 53.624935
51.37804 51.64503 55.084938
2.69104 50.22303 63.404938
2.9310372 51.36803 1.7039413
34.85004 61.412033 39.184937
35.94504 59.892033 40.758934
30.33004 52.09103 46.826935
30.83104 50.06403 45.538937
15.45904 88.79103 21.835938
16.09804 86.94703 21.032936
16.672039 90.21903 11.760941
19.30204 89.85303 11.76194
9.229039 38.93103 44.839935
11.073039 38.381042 46.106937
10.420039 32.376038 38.095936
9.62004 31.73404 35.766937
-1.0249605 36.417038 7.3029404
0.6810395 37.41603 8.458939
11.240039 37.356033 4.346939
13.017039 36.368042 5.049942
32.91204 49.84203 43.592937
31.73504 51.47303 41.764935
41.20504 46.16603 40.018936
42.24604 45.79903 37.943935
32.38504 87.52403 0.59593964
31.39704 88.73203 62.980938
32.99804 96.26103 6.5769424
33.40204 98.71903 7.277939
46.80204 119.40603 35.365936
47.04804 118.55403 33.186935
37.42304 117.02603 36.550934
37.19004 118.75403 35.408936
16.06204 42.150032 49.610935
17.488039 43.17403 51.868935
10.420039 48.267033 55.239937
8.163039 47.49303 55.461937
21.47604 97.24403 46.744938
22.73004 98.64203 45.475937
26.50304 101.66303 48.952938
28.94804 101.341034 49.372936
49.09304 28.854034 58.489937
49.847042 29.48703 56.061935
47.70404 38.83203 62.251938
46.18504 38.427032 0.035942078
4.38404 40.62004 48.379936
3.367038 38.87204 49.679935
46.66904 41.39804 54.863937
44.95004 41.212036 53.510937
30.97504 42.585037 53.596935
30.99504 40.645035 54.771935
25.69104 37.42003 59.716938
22.82904 36.65103 60.216938
5.1110396 39.867035 43.991936
4.0680394 39.626038 42.511936
12.77504 46.874035 37.313934
11.984039 48.68104 36.184937
20.86704 39.813034 32.473934
21.61204 38.119034 33.582935
31.79704 33.22203 32.319935
32.56604 32.792038 30.239935
8.911039 51.30503 53.842937
10.21904 51.82003 55.504936
12.269039 57.231033 50.087936
10.574039 55.97103 50.291935
0.46403885 69.70903 3.0839386
49.83504 70.11303 2.9749374
51.06204 61.328033 6.8929367
0.14904022 59.59103 6.6929398
31.550041 86.992035 18.06894
32.26004 88.12703 19.67994
38.97704 85.16103 25.044937
39.98104 86.25903 23.104942
6.1680393 77.03603 30.241936
6.064039 79.506035 30.233936
2.9160395 83.78903 39.917934
0.9750394 84.78803 40.745937
12.483039 0.03703308 38.407936
14.291039 123.04603 38.382935
23.47304 3.8380356 44.773937
25.314041 2.261032 44.759937
35.27504 84.91503 44.810936
33.195038 84.854034 45.787937
33.35204 92.659035 38.826935
32.10704 91.97403 37.200935
23.32004 121.120026 16.493942
24.88604 120.19403 15.612938
22.63204 111.439026 19.994942
21.94504 111.13003 22.126938
28.137041 56.88803 21.188942
26.915041 58.955032 21.610939
23.446041 58.593033 28.667938
21.46504 59.16703 29.938936
23.36204 7.9700317 58.298935
25.16004 6.4270325 59.163937
25.335041 14.061035 56.192936
26.97204 15.759033 55.459938
51.32304 88.46203 1.0179367
50.61904 86.38803 2.1059418
5.0320387 78.243034 61.230938
6.3620367 79.493034 60.113937
12.441039 112.13903 21.292938
13.7840395 111.78003 23.476936
22.34504 115.75103 27.853935
24.092041 113.88603 27.578941
4.7010393 57.12403 61.448936
6.1060395 57.80603 63.429935
5.0570393 65.93403 6.265938
3.7690394 67.49403 6.4729385
22.38604 26.686035 38.006935
22.03504 26.220032 35.711937
18.35404 26.320038 26.061935
18.02404 23.958038 25.292936
50.29404 53.072033 5.73394
47.44104 52.83303 5.0529404
37.68904 53.72303 8.266937
37.54604 55.18803 10.411942
8.345039 64.64103 16.819939
8.62704 66.63703 18.02594
11.698039 76.36003 22.395943
9.345039 76.97103 23.59594
15.63804 102.08803 27.850937
13.915039 102.99003 30.01594
16.29904 113.78203 29.469942
17.72904 115.19103 28.432938
10.800039 58.77803 51.502937
12.02704 58.475033 53.564938
2.1870396 50.89403 54.451935
1.4070395 52.09803 52.833935
36.21004 2.5880356 39.431934
36.42104 5.1740417 39.071938
33.51004 10.680038 45.902935
35.14404 11.922043 46.092937
31.06804 6.485031 12.750938
31.95804 3.9270325 13.38694
27.17904 6.8570404 7.530937
25.96804 6.3560333 5.987938
51.57404 99.16103 6.40094
50.01604 98.92103 5.0789413
49.25204 91.56903 60.829937
50.69704 90.534035 62.913937
13.490039 66.756035 36.445934
13.9680395 67.715034 34.344936
5.7200394 70.854034 40.642937
7.2740393 70.479034 42.036934
17.280039 55.27903 55.191936
17.37404 57.35503 54.749935
10.832039 55.24403 0.6129379
9.401039 54.96603 63.59694
1.8080406 121.86503 23.837936
0.62704086 119.30803 23.51294
48.42404 0.4390335 13.624939
50.10104 123.72403 11.84494
31.89504 102.13603 45.383934
32.81004 100.33703 47.175938
27.89504 92.84303 53.492935
30.11404 93.035034 53.500935
25.36804 59.77003 46.953938
24.58604 58.13703 45.836937
26.51004 58.70903 33.914936
27.55404 56.483032 34.027935
46.62804 47.052032 22.878937
47.80204 44.82503 23.472939
1.6200409 47.03503 30.87694
2.9790375 46.93003 32.456944
51.37904 16.271042 12.175941
51.63004 15.827042 14.300941
47.82904 23.412033 21.436935
45.93404 23.328033 22.738937
49.72104 32.009033 49.217937
50.55404 33.94304 49.147938
40.39304 40.91104 48.662937
41.21104 42.50003 49.196938
44.98404 120.71003 13.962936
45.72804 120.08703 16.202942
37.69104 121.02903 22.72194
35.92404 121.75403 21.952942
38.58004 90.13403 21.558937
37.72404 91.33703 19.654938
46.750042 94.43603 12.770943
45.67504 96.965034 12.542938
29.69004 73.38603 5.5899353
31.56104 75.311035 4.8179398
28.88504 81.42003 13.869942
28.73304 79.05603 13.867943
34.67804 60.86103 26.13594
32.68004 61.383034 24.99694
24.41104 60.432034 30.90394
22.17104 61.59003 30.715937
41.58804 91.98103 24.685936
42.54304 89.923035 24.254936
41.55704 85.17903 33.287937
41.99104 86.202034 34.791943
15.043039 109.27003 16.884941
13.396039 109.48403 14.737938
12.904039 120.287025 11.912941
14.873039 120.81703 13.33094
36.37604 0.6530304 8.46994
37.132042 122.79803 9.046936
44.15804 123.56503 9.057938
45.51204 123.24203 10.743942
1.0260391 2.3310318 53.791935
51.42704 1.25103 55.035934
47.57504 113.77903 50.067936
48.958042 113.133026 48.378937
48.13704 53.794033 50.706936
45.97004 54.469032 50.863937
39.76804 49.85903 43.416935
40.70704 48.296032 42.007935
34.001038 1.525032 58.864937
31.90004 1.6720352 60.657936
37.87904 8.983032 62.033936
38.84304 11.145035 61.929935
7.052039 44.858036 26.602936
8.842039 44.384037 27.76294
4.6490393 33.020035 28.987938
5.518039 32.172043 30.697939
29.89604 22.186035 56.003937
31.96804 21.920029 55.066936
39.10604 29.507034 53.986935
40.61904 29.993042 52.472935
7.1060395 41.169033 60.355938
8.64804 43.07603 60.102936
2.7110395 48.38703 54.474937
1.2910396 48.29103 52.323936
4.2470393 72.103035 59.19594
5.9860396 71.04403 61.337936
16.14604 73.91803 57.743935
16.66404 72.72103 59.496937
5.2770376 77.96803 11.140938
4.5240393 75.84503 10.509941
2.0770378 65.38903 14.209938
0.38003922 64.813034 16.153938
35.38104 19.215042 10.742943
35.04704 17.312042 10.768936
29.18104 7.462036 10.05394
29.77704 7.8530426 7.8259354
48.18704 70.465034 36.173935
47.58504 68.78903 34.173935
45.354042 70.33203 25.059935
47.15804 69.36103 24.958935
42.94804 16.466034 44.817936
42.75904 18.452042 45.277935
37.57804 16.438034 45.199936
35.24904 15.251038 44.902935
8.52304 118.272026 44.149937
10.53704 118.98303 45.202934
18.31204 117.13503 50.403934
20.02104 116.15303 51.209938
33.68704 90.062035 5.966942
33.640038 88.67703 7.5739365
39.34604 78.52903 8.226936
36.60004 77.716034 7.9769363
12.13104 45.24203 1.310936
14.404039 45.42403 1.6969376
22.53604 51.57803 58.569935
21.27004 52.25103 57.475937
28.31104 48.926033 28.338936
29.96404 48.43703 27.884941
40.56604 54.01503 28.628937
39.98304 55.335033 30.705942
35.48704 34.52304 43.162937
34.480038 32.741043 41.639935
26.62804 38.66304 42.382935
27.91704 39.858032 41.363937
19.54504 108.578026 40.726936
17.18104 108.54203 41.415936
19.34304 120.42603 39.704937
17.80804 122.09403 39.402935
6.2150393 68.34603 6.85894
7.092039 70.005035 5.896942
7.519039 64.35603 60.217937
9.8500395 65.08703 60.496937
36.229042 117.45503 9.751938
36.40604 118.54003 7.8129425
29.41104 1.1330338 2.6099396
27.87004 123.53503 2.671936
39.88404 45.39703 62.60494
40.847042 43.885033 0.11193848
48.97004 49.704033 3.4679413
51.26204 48.781033 2.999939
24.53604 104.85603 47.508938
24.32304 104.520035 44.745937
26.46404 98.660034 34.710934
28.00204 97.631035 35.120937
11.823039 49.71003 4.8819427
13.326039 50.782032 3.3269424
21.91704 49.913033 8.959938
23.12604 48.19403 9.409943
44.41204 34.27803 0.90693665
45.32904 36.11104 1.6759415
48.68804 43.02803 5.0819397
48.93304 45.35204 4.532936
11.831039 15.933029 55.394936
10.05604 15.031036 54.731937
0.7960395 14.129044 51.599937
1.7730395 15.029037 50.415936
39.58004 83.80103 21.727936
39.51404 82.479034 23.52594
39.08204 71.29203 25.45594
40.43204 71.813034 27.19394
21.70604 30.746033 56.750935
20.08704 31.354034 58.019936
14.321039 35.214035 50.078938
16.62604 35.591034 49.716938
46.59904 17.736038 58.091938
44.375042 17.231033 57.780937
35.58004 12.624039 53.213936
34.49704 12.717041 51.191936
43.30504 33.048035 6.577942
40.26804 33.04904 6.350937
33.34904 28.323029 0.7379379
31.88504 26.087036 0.93894196
42.61204 12.689041 3.2269363
42.15604 14.389038 1.697937
49.89904 15.843033 56.906937
0.6240387 15.358032 57.881935
41.84904 99.03903 36.341934
40.41904 98.86903 38.393936
35.29804 101.48703 46.393936
34.237038 103.71803 45.992935
22.85104 17.560043 42.676937
23.18404 19.726028 42.084934
12.74904 24.511032 41.298935
10.750039 25.04103 40.291935
9.911039 91.798035 13.395943
11.55804 90.47503 14.051941
5.143039 81.299034 18.515938
6.855039 81.24603 17.023941
31.91004 16.351028 17.583939
29.991041 15.692032 17.380936
26.67104 7.585037 9.87294
24.36804 7.3570404 7.8999405
38.14004 92.55503 21.918938
40.17904 92.93603 21.729942
49.35304 97.10003 21.867943
48.71004 99.07803 22.170937
42.18504 25.514038 23.209938
41.00304 23.73703 24.195938
36.71204 18.395035 15.755936
36.86904 20.41304 15.260941
47.11204 54.594032 30.713938
47.52104 56.70103 30.103937
47.44604 54.06103 21.919937
48.65504 54.85403 19.44194
28.60304 82.01603 16.906937
26.61704 83.42903 15.979942
19.79304 84.83403 21.327942
19.12804 86.72303 20.824936
17.03304 39.70204 35.451935
19.20504 39.570038 36.159935
18.63104 39.94104 46.704937
16.90804 41.60904 46.886936
28.66304 100.54503 30.461935
27.36104 102.25903 29.603935
24.51504 111.19803 36.933937
26.61204 112.84803 37.132935
8.65504 110.78803 15.365936
8.24904 112.81903 14.536942
9.20704 112.564026 22.134941
10.55604 113.91803 22.681938
36.42704 7.512039 9.421936
38.26204 7.558029 8.346939
35.98004 9.347031 17.310936
35.32504 7.6540375 18.700935
24.92704 56.143032 25.55294
26.47304 54.53503 25.138939
36.31504 58.73403 25.103935
38.59504 58.051033 25.710938
2.5300407 35.660034 30.01594
3.346038 38.003036 29.915941
45.31604 42.134033 24.97094
45.99804 43.27304 23.05394
35.80904 22.199036 13.419937
37.82404 23.132034 14.13694
30.82904 31.598038 18.740936
33.431038 32.393036 18.638939
5.2760396 50.07803 30.383936
5.8170395 51.60503 28.702942
8.708039 58.11903 29.996943
6.6920395 58.67403 30.197939
49.34204 83.20603 10.850937
50.65004 84.591034 9.732941
2.44104 91.75303 17.287941
51.67404 92.94303 17.309937
51.32504 122.63103 58.148937
49.98304 120.95803 59.049934
3.7390397 121.40903 52.342937
3.5730393 121.23803 54.131935
43.77704 19.381042 27.847939
41.07504 20.075043 28.605942
33.35804 27.448029 25.764938
31.90004 26.85704 23.65094
17.304039 59.704033 35.237934
16.62304 59.912033 37.180935
11.57204 51.78303 37.985935
12.949039 50.15803 38.480934
44.85304 84.355034 37.150936
43.30904 84.37203 36.106937
43.73504 73.76603 39.723934
41.43804 73.20803 39.672935
20.34704 6.421036 27.127937
20.48704 4.14003 27.12394
12.522039 121.83703 24.591942
10.342039 121.59103 24.170937
37.13804 36.376038 55.137936
38.17704 34.98503 56.896935
36.45704 44.619038 56.777935
35.87404 46.982037 56.213936
2.4820404 18.083038 48.873936
0.6350403 19.62703 48.277935
50.66904 28.702042 50.216938
48.52804 29.800034 50.024937
21.07504 68.644035 35.59894
21.90904 66.78903 33.986942
19.63804 71.91803 24.436935
17.66304 73.284035 23.587936
49.23704 52.655033 16.059937
47.51104 52.523033 17.531937
50.27504 54.61903 10.35994
50.21004 56.43103 8.917938
51.68904 61.404034 42.503937
50.99104 59.669033 43.918938
4.545039 61.05603 50.419937
5.4040365 58.990032 51.237938
42.77504 30.378036 2.0059357
43.83004 28.283035 2.9469376
32.57304 22.447037 3.1799393
32.265038 21.507034 5.4139404
50.03104 98.52803 47.210938
50.58104 100.60603 46.723938
51.75604 109.09803 39.972935
1.6100388 110.84803 39.583935
9.885039 1.2380295 44.536934
10.898039 2.5280304 43.015934
20.65304 4.8280334 46.539936
20.82304 4.7260284 49.045937
38.23104 43.83903 63.950935
36.88504 45.191032 1.0909424
33.84904 44.100033 56.141937
34.56904 41.91703 55.049934
4.663039 111.78403 7.1479416
2.4930382 111.39303 6.390938
50.37304 105.03303 0.16993713
0.4270401 103.66403 0.56394196
0.0100395335 22.34404 40.970936
0.21703956 23.422043 42.738937
5.1060395 20.983032 36.848934
3.3900394 19.425034 38.358936
9.7180395 88.02703 36.747936
10.78904 89.55903 35.403934
15.963039 90.78103 28.994936
18.28704 90.16303 29.602936
40.75304 90.32303 63.224937
38.83104 89.65703 62.685936
32.69304 82.48303 5.070938
31.22304 80.95903 4.114937
2.6750395 31.130035 17.404938
4.1630397 32.132034 16.626938
8.35804 31.277039 7.0579376
9.505039 29.521042 8.324936
28.53004 118.18803 48.794937
28.99304 115.65103 49.068935
30.01804 108.51903 42.043938
28.29604 107.53203 43.103935
19.63204 117.55603 31.824936
18.88404 116.272026 34.047935
8.566039 123.72003 33.057934
8.838039 1.8280334 34.181934
23.50904 95.00303 14.037941
21.69204 94.47003 14.101936
12.83604 92.44403 9.253937
11.290039 90.43303 9.388939
40.07904 100.66703 27.514938
41.28404 101.99503 25.62394
40.23204 105.867035 14.601936
39.41904 106.854034 16.04094
10.962039 64.37103 22.27694
9.56804 65.54003 20.660942
20.63504 69.76303 21.118942
19.43704 71.68203 20.279938
4.9680395 82.452034 43.982937
6.5720396 80.87103 44.399937
15.043039 78.67003 41.535934
16.97804 78.27503 40.374935
33.24304 35.228043 51.460938
31.20204 35.923035 52.829937
32.29704 25.545029 58.852936
31.20104 25.53804 60.821938
32.82204 64.47103 58.842937
31.39504 64.69603 57.471935
31.800041 75.76803 61.68094
30.74504 77.36903 63.65294
24.61004 3.579033 47.393936
25.12104 1.789032 47.476936
12.67604 1.0790329 48.216938
11.73004 122.65303 47.914936
46.87704 67.131035 20.787941
48.31404 66.66803 19.222939
43.06904 76.52403 14.60894
42.12204 75.23503 13.488937
44.86204 2.1070328 42.562935
45.38404 3.3060303 44.297935
50.11904 8.8550415 36.886936
51.03104 10.348038 35.100937
42.04804 104.12103 29.098938
40.71304 106.19703 28.52694
31.49504 102.92203 26.860939
30.20204 101.34503 28.21994
50.22604 50.85403 23.355936
48.63804 52.20003 23.938936
42.63504 51.53403 34.428936
42.43104 49.927032 35.696934
12.215039 60.490032 50.348938
14.03904 59.45203 50.592937
23.16404 61.510033 46.625935
23.866041 60.386032 44.653934
30.13804 42.406033 7.2989426
29.123041 42.03403 9.318939
26.01104 49.391033 13.712936
24.44204 49.07503 11.979942
20.78104 18.221039 5.424942
19.94804 16.521042 5.8689423
14.153039 7.6570435 2.4809418
14.668039 6.764038 4.318939
4.6240377 109.57703 15.860939
4.0010366 109.39903 18.380936
0.9910393 98.48803 21.94194
51.12804 98.479034 23.799942
35.40804 67.78003 44.245937
35.36404 70.26103 43.815937
27.53604 73.09403 52.843937
29.24604 74.10803 54.44594
16.86204 102.924034 14.20594
18.36104 101.590034 15.693939
24.01604 98.756035 11.221939
25.36304 100.86303 9.869942
8.80304 20.942032 24.323936
10.772039 20.60904 26.089935
9.55604 8.740036 30.75094
10.722039 7.9310303 28.975937
35.92504 83.73903 51.780937
35.743042 81.87603 50.058937
27.32004 79.993034 42.698936
26.95704 77.34903 42.294937
50.59504 65.44403 20.09394
0.9080391 64.269035 19.24894
1.0720406 58.05503 25.745941
0.3400383 56.72103 27.52494
35.87904 95.68103 8.447937
34.10004 96.65503 8.957939
35.26704 90.50403 19.13694
33.36404 90.83503 20.278938
14.972039 2.3850327 63.93194
14.34804 0.64803314 63.489937
3.1830394 121.46003 61.835938
2.9660394 123.17203 63.668938
2.4940395 8.388031 32.64294
0.3940396 7.6090393 31.812937
5.9270396 9.047043 27.277939
7.4650393 9.164032 25.67894
14.075039 38.94603 6.4829407
15.717039 37.81804 5.2669373
22.981041 39.190033 61.159935
24.08304 38.04103 62.21494
35.465042 122.83103 36.240936
35.26504 123.60103 38.421936
40.49204 119.70203 47.218937
40.33204 121.30203 49.125935
32.34904 75.92803 52.705936
30.10404 76.04003 52.008938
23.64304 75.78303 50.390938
25.10404 77.66103 50.763935
7.033039 17.674042 32.763935
6.5220394 19.675034 34.786934
6.5720396 30.225037 29.322935
6.262039 31.436035 27.060936
14.562039 113.68103 55.044937
15.50404 113.47203 57.316936
24.23404 114.175026 54.835938
26.689041 113.36203 55.176937
21.005041 13.371033 35.701935
23.21304 13.121033 34.969936
23.467041 23.458038 29.446936
22.45504 21.935043 28.067936
7.6860394 45.878033 40.031937
7.8390393 45.14403 41.903934
3.5100396 49.00603 50.489937
4.8260393 48.13703 52.253937
30.01304 30.47203 22.585938
29.144041 32.08104 20.909943
28.835041 27.198029 13.196938
27.39204 25.50003 13.241936
44.74504 88.97703 60.422935
46.47504 90.41203 60.608936
46.17704 93.90703 4.7269363
46.46204 94.17503 7.2249374
0.29603955 37.007034 13.41494
1.3590395 36.33203 11.139938
12.24904 34.71904 12.102936
14.182039 36.16304 11.472939
28.90904 103.74003 26.877937
30.06504 105.87303 26.610939
30.70804 108.98403 22.753937
31.63504 107.41203 23.243942
50.49604 30.714035 20.036942
51.79804 30.811035 21.794937
45.62904 34.294037 29.927942
47.71204 34.210037 31.003939
50.93804 82.230034 12.6879425
50.85804 83.882034 13.871941
43.72504 83.33103 23.008942
42.43504 84.90303 23.72094
35.62904 119.787025 51.740936
36.83504 121.46503 52.335938
37.09904 9.337036 50.268936
35.94904 9.796036 52.203938
41.59804 100.87503 10.798943
41.68704 101.54303 12.590942
46.28004 100.88403 22.726936
46.04804 99.18403 23.785942
17.245039 96.25303 36.674934
16.05504 98.01203 37.840935
7.564039 102.29703 43.344936
7.132039 104.256035 44.411934
31.26004 94.53203 37.738937
29.08004 94.83903 36.980934
18.35504 94.31103 39.226936
16.26204 93.56103 38.213936
50.96104 76.76003 52.490936
50.92604 77.10303 50.116936
3.9820397 73.049034 41.328938
3.7330391 71.20803 42.223934
46.70104 5.820038 23.310936
45.56504 5.5070343 21.671936
45.62904 119.61103 23.728935
44.65904 117.93203 22.101936
25.06904 44.44403 43.974937
25.01804 42.72403 42.415936
27.78704 46.988033 37.045937
29.68604 47.59603 37.687935
18.44104 12.673035 19.285942
19.97104 10.8780365 19.58094
21.58204 7.0710297 8.686935
20.849041 4.842041 8.161942
41.16004 123.28503 47.300938
39.45204 0.17103577 48.682938
32.32504 119.29103 46.597935
30.09404 120.18703 46.433937
9.68304 62.24103 21.425941
8.28004 62.246033 20.049942
3.8490396 59.467033 29.811937
5.5260396 60.955032 30.247942
37.33004 11.958038 30.844942
38.44904 11.69104 28.536942
31.45004 9.703033 19.228935
29.73804 11.138031 18.627937
14.234039 109.80803 43.888935
16.26204 109.81703 44.765934
12.758039 103.56503 53.230938
11.75604 104.91703 54.223938
46.62804 24.179031 61.324936
45.82204 25.59404 63.030937
41.27104 17.05304 60.644936
38.96404 16.94603 60.326935
10.635039 39.44803 62.206936
9.25904 39.266037 64.10194
-2.3419607 39.445038 3.7609406
-3.2549603 38.660034 5.8599396
48.09204 66.007034 34.778934
47.15904 65.65403 36.616936
37.36504 65.21003 28.396936
35.12604 64.868034 29.129936
13.307039 42.261032 22.500938
15.023039 40.76303 23.133942
12.77504 32.76303 30.831942
12.305039 32.798035 33.15794
26.880041 18.947037 27.694939
25.28504 17.573029 29.20494
23.06204 18.08403 27.700935
23.55104 19.697037 26.216942
18.56504 105.62103 39.879936
20.72604 105.03903 38.997936
20.53404 105.23803 51.915936
20.84304 107.55103 52.531937
1.6000395 27.29004 51.958935
3.7180395 27.12503 52.089935
9.668039 17.820038 54.565937
10.805039 19.34703 53.307938
25.06104 11.272034 56.112938
22.81304 12.241043 56.352936
10.375039 9.436035 55.108936
10.873039 9.425034 53.222935
32.83504 78.43403 41.565937
32.49304 77.40803 43.559937
37.90504 80.68603 51.335938
39.34504 81.76403 50.391937
6.7020392 71.67603 52.511936
9.187039 72.47603 51.793938
7.145039 61.365032 50.943935
6.3990393 60.496033 53.375935
42.46304 42.05104 37.909935
41.26704 43.21904 39.095936
32.49004 39.009033 45.638935
33.06204 37.464035 44.139935
44.02704 109.10303 62.142937
41.64004 108.54003 62.571938
37.38504 107.77703 9.159943
38.46204 105.95003 9.209938
32.18304 107.70903 58.807938
32.001038 110.33403 59.882935
29.09604 104.67103 57.571938
30.92604 105.62903 57.341938
21.63504 56.177032 49.123936
22.28904 56.65403 51.278934
29.82204 65.896034 54.247936
29.50804 67.08403 52.393936
35.20404 48.37303 45.282936
35.24704 48.89603 43.058937
29.10404 42.21703 40.875935
26.94804 42.44203 40.769936
5.558039 110.43703 55.422935
6.1110396 108.20203 54.909935
9.154039 114.60103 46.868935
10.691039 116.231026 47.560936
39.486042 16.660034 9.73394
38.74504 17.180038 12.120941
49.16204 16.76503 10.626938
50.08904 14.7530365 9.905937
33.42704 24.527039 45.429935
34.403038 26.05304 46.888935
40.86604 27.701035 54.498936
42.08904 27.215042 55.826935
32.64904 110.55903 12.409943
30.29304 110.76203 11.550941
23.755041 103.87703 8.424942
22.75204 102.88303 9.903938
9.51404 26.94403 38.269936
11.12904 27.072037 36.764935
11.727039 15.0030365 35.319935
11.547039 14.110031 33.452934
48.17104 95.50903 14.823936
49.25804 93.674034 15.989937
43.36904 84.61903 13.357941
45.46704 83.12003 13.022942
37.31404 4.2550354 33.551937
36.09504 5.56604 32.522934
25.98704 7.494034 28.812935
26.24304 10.087036 29.379936
19.44004 59.13103 56.600937
18.91104 59.63003 54.636936
24.467041 66.65003 49.643936
26.27804 66.56803 49.848938
14.314039 10.680038 15.673943
12.583039 9.450043 15.100937
23.90504 4.6960297 17.59494
24.05204 5.916031 19.798943
4.7260394 14.169037 11.183937
6.6780396 13.624039 11.910942
13.17104 5.0000305 9.169937
15.783039 5.1730347 10.224937
20.99204 96.96203 1.6269379
21.54404 94.72303 2.695938
29.11404 93.96203 57.982937
29.30904 92.61903 56.873936
8.816039 16.463043 0.57193756
9.265039 15.490036 2.5349426
16.38304 15.523041 10.680939
18.81504 15.468033 9.265938
27.453041 4.4030304 57.192936
25.97304 6.6270294 56.476936
27.38104 6.1210327 46.825935
29.26804 4.562042 46.725937
13.174039 45.47003 49.421936
14.474039 46.46303 47.742935
10.28204 54.42303 42.635937
8.22804 55.64403 42.637936
41.17804 103.65003 10.7979355
38.75904 103.32203 9.976936
33.78704 105.57503 17.237938
32.480038 106.73903 15.807938
6.9030395 79.98403 14.252937
5.9890394 81.76203 14.561935
9.70004 84.26003 6.940941
8.4090395 84.97503 5.396942
39.60104 19.779037 0.46594238
39.736042 17.442032 63.352936
45.96604 20.476028 57.251938
43.56504 20.159042 56.210938
51.62304 40.51403 44.922935
1.8050385 39.954033 44.047935
3.5950387 51.52603 40.170937
3.4830391 52.79103 42.245937
28.27504 76.99803 17.768936
28.88404 78.37903 19.279938
25.800041 76.93603 29.790941
23.79404 77.77903 30.29294
51.26004 52.73503 38.932938
49.87804 53.53503 41.317936
44.98404 47.997032 50.510937
44.05804 47.051033 49.251938
47.28304 72.355034 63.401936
46.67404 71.05603 61.67394
38.16904 68.24503 62.52794
38.13104 65.95903 62.600937
39.10804 91.90203 29.82194
40.44304 90.64903 31.879938
46.486042 96.549034 25.403938
47.93204 97.160034 24.089935
47.19904 1.9960327 52.719936
47.41504 1.6270294 54.809937
46.84804 0.031028748 61.059937
48.85904 123.50303 59.544937
45.21304 68.533035 13.290939
46.02504 67.338036 15.2979355
38.51204 69.85603 20.862938
38.86404 71.54303 19.577942
6.6420393 30.374039 36.356937
6.3650393 31.438034 38.890934
4.0110393 40.158035 32.188934
4.9110394 40.48503 29.848936
34.44004 101.79603 10.776939
34.79104 103.52703 9.2749405
38.62904 103.11003 62.038937
39.11904 104.81903 61.147938
28.75404 0.8250351 47.956936
26.908041 1.2470322 49.565937
21.42304 120.10803 41.815937
21.08304 122.43603 42.204937
36.96204 107.27803 55.521935
38.111042 108.578026 53.918938
38.500042 104.61303 47.646935
37.16204 102.813034 48.437935
40.83804 116.13803 22.820938
39.49704 115.64303 21.809937
35.49604 120.53903 11.908936
36.78004 120.40803 9.877937
12.52704 64.51503 14.534943
14.194039 63.223034 13.589935
22.55404 68.130035 20.31794
23.467041 69.561035 20.366936
31.76104 13.899033 53.533936
32.58704 10.886032 54.165936
28.203041 20.266037 58.678936
29.53504 19.891037 57.310936
2.8530395 5.318039 1.4339371
4.5240393 6.2040405 1.90094
6.0670395 12.684036 4.9279404
8.20904 13.120041 6.230942
37.52104 113.70803 49.158936
37.29604 114.36703 51.703938
44.99904 107.118034 56.500935
46.96004 106.882034 55.310936
25.95404 19.129044 25.116936
26.75304 16.897034 25.272942
34.74804 17.062042 26.99894
34.09404 15.283035 28.341942
1.5490379 38.154037 18.58094
51.11604 38.02104 17.59594
44.37404 32.004044 24.896942
43.96704 33.44104 26.45694
2.7600396 32.39003 19.895943
3.9540396 30.976028 21.01094
16.24204 28.48204 21.069939
15.745039 29.978043 19.20694
30.55804 101.22103 24.63694
28.51004 100.091034 26.241936
29.11404 96.81103 30.620935
29.019041 96.79603 32.583942
5.2490396 96.96403 61.959938
7.105039 96.451035 59.758938
15.32204 97.91403 5.160942
15.250039 99.95003 4.1519394
29.04704 1.0280304 63.920937
30.526041 122.56803 62.983936
39.10804 117.42003 3.2689362
38.10604 116.13003 4.704941
2.1870384 4.2030334 22.075935
1.1360397 2.947029 23.130936
4.13404 120.29103 11.332939
1.4370384 120.19803 10.799942
47.73504 11.157043 39.847935
46.46804 13.1280365 39.333935
38.81404 18.721039 36.863937
38.80204 20.220032 35.070934
44.986042 42.033035 51.105938
46.840042 43.48404 50.274937
0.8610382 39.233032 47.109936
2.5150375 37.626038 47.703938
23.408041 120.12903 39.996937
25.46304 119.48003 39.815937
33.49704 112.54303 38.031937
34.96804 111.91803 36.598934
1.9690399 95.02203 18.217941
51.65304 95.367035 19.091942
48.31304 107.19203 16.98494
49.89604 108.89103 16.509941
15.633039 49.27803 38.906937
16.50604 51.41703 39.328938
24.22104 54.17903 45.157936
23.01704 55.996033 45.417934
23.57904 89.07303 28.702936
23.44804 86.94903 28.983936
22.22704 87.79603 39.717937
20.30404 87.72703 40.439938
24.592041 86.18503 2.2649384
23.40604 86.174034 4.1219406
22.93404 85.27703 13.246941
22.02304 85.882034 15.292938
24.49904 115.26203 51.744938
25.248041 117.07203 50.505936
27.32704 3.4350357 54.579937
25.599041 4.4750366 54.771935
8.04404 61.252033 48.285934
8.4420395 60.32003 46.443935
1.1490395 56.502033 52.084938
-1.2849605 56.62403 51.513935
26.93504 22.06903 27.505936
25.89904 23.731033 28.626936
34.11804 25.488037 38.835938
34.55304 24.716034 41.041935
39.12304 51.52003 4.9309387
39.43704 49.94303 4.188942
34.96804 43.66703 6.867943
34.09504 41.31103 6.7329407
27.856041 56.884033 2.1119385
26.89904 55.75003 1.0059357
33.22504 51.42203 55.997936
34.71404 49.57403 55.435936
24.06304 9.398041 31.315935
23.835041 7.6500397 32.068935
15.708039 14.21904 31.298935
16.047039 16.141037 30.325935
41.118042 76.81003 11.232941
41.63504 77.74003 9.506943
48.41304 85.18503 2.933937
47.55604 87.16703 2.1549377
18.90204 42.455032 34.672935
17.51504 44.07103 34.132935
21.71804 54.488033 34.577934
24.34804 54.82703 33.434937
49.10304 69.13603 55.913937
47.74804 69.32103 54.433937
40.229042 76.38003 53.276936
38.80104 78.08403 53.975937
34.97504 57.391033 2.1869354
32.98404 57.08103 0.43393707
26.90304 47.42303 62.04894
26.57704 46.25703 0.25894165
48.49504 117.13803 23.94394
46.27504 116.04303 23.558937
44.52204 107.284035 17.463936
42.57304 107.39703 15.975937
41.56704 120.189026 60.698936
42.70004 121.39103 62.65294
38.45604 8.360031 59.365936
40.45104 9.769043 58.983936
46.32204 123.53103 51.700935
44.30604 123.009026 53.317936
48.78404 112.84303 53.750935
48.44604 111.80203 51.391937
18.85004 68.14103 57.853935
18.95904 66.57303 59.267937
16.70804 70.25303 52.347935
15.745039 71.19603 50.531937
17.53404 69.37903 3.52594
15.838039 68.00203 2.1379395
7.1080394 69.715034 59.298935
7.3590393 68.83203 56.993935
25.51404 123.35703 1.2449417
26.11704 121.18303 1.5009384
18.75504 118.85803 54.284935
19.36804 117.39003 53.315937
20.83704 28.88704 22.17994
18.91804 29.537033 20.807938
23.04404 38.65204 22.856941
23.83704 40.703033 21.41594
45.90604 76.63403 63.605938
44.41404 77.81803 0.9339371
44.95704 72.949036 11.243942
44.08704 70.74003 11.048943
51.583042 34.48703 46.142937
49.96704 33.912033 44.907936
4.2200384 29.311035 38.655937
2.4630394 30.193039 37.700935
9.715039 108.24803 60.114937
8.88904 109.523026 58.082935
2.2630396 118.43503 61.615936
3.2530396 118.89603 63.63994
47.27904 75.32203 50.596935
46.83704 76.868034 49.531937
41.13804 85.72503 51.455936
42.44104 87.15103 52.159935
5.3760395 55.288033 0.6029358
6.3400393 54.926033 62.744938
6.8560395 42.82803 2.2989426
8.64104 42.058033 0.26293945
40.66404 115.83103 40.125935
42.35604 115.89603 41.287937
0.9250374 117.99903 37.043934
1.9400406 116.93803 34.500935
21.77904 115.79903 33.678936
23.08904 116.15203 31.738935
34.99004 118.51203 28.976936
35.52204 120.97503 29.202936
41.56004 46.33303 22.06794
39.63604 45.68603 22.37194
44.56604 45.232033 25.630936
44.12704 43.08103 27.271942
31.81004 0.13703156 57.920937
30.349041 123.55403 59.886936
27.85804 117.50703 51.432938
27.36304 115.13903 51.067936
37.32804 60.746033 5.3759384
39.44404 60.107033 5.4709396
35.94304 63.18003 58.840935
34.56704 63.071033 60.334938
10.51104 89.13003 45.539936
9.18304 90.46203 45.054935
11.8100395 97.45003 52.785934
13.03704 95.81103 51.621937
3.4780395 95.673035 20.278938
4.3690395 96.01603 18.521942
5.8330393 94.73403 24.031937
5.716039 92.79703 25.58294
34.61804 109.48003 37.055935
36.46604 108.61803 38.506935
34.81604 106.75203 49.546936
34.404037 104.312035 49.066936
8.27504 83.76803 61.326935
7.1350393 81.89403 59.593937
6.0030394 76.54603 52.926937
5.183039 75.12203 54.357937
24.81604 51.545033 61.539936
24.76604 53.32703 60.291935
27.42704 44.351032 62.373936
29.23804 44.725033 63.34694
20.89604 18.28003 14.58194
21.02204 16.876038 16.38794
17.29004 25.85704 20.753937
16.42504 26.287033 22.434937
46.41704 112.39103 47.885937
44.78304 113.72603 47.915936
44.44304 122.66803 43.028934
44.493042 121.52403 41.071938
47.90504 0.36003113 57.100937
45.45904 0.58403015 57.264935
37.63904 117.88203 52.656937
37.729042 116.648026 50.460938
7.6150393 57.38903 19.238937
10.36204 57.74903 18.52594
8.000039 66.73603 10.23394
5.3450394 65.616035 9.81694
12.51304 83.09403 51.268936
12.017039 84.70603 52.577938
1.3050395 82.22103 51.643936
1.0840396 80.48303 50.528934
22.92304 13.009033 38.678936
21.58704 11.228043 37.691936
21.564041 0.0110321045 36.683937
22.76004 122.13003 38.436935
25.446041 3.8020325 58.670937
23.06704 3.8800354 58.354935
15.705039 120.70503 61.927937
13.286039 120.76003 61.338936
27.25204 13.637039 41.974937
26.75004 11.871033 41.005936
26.42804 4.672043 44.507935
25.93804 6.759033 44.844936
27.72704 33.39203 50.513935
27.05604 32.70404 48.166935
16.99004 31.001038 44.624935
18.69604 32.684036 45.154934
11.38604 78.67503 24.004936
13.396039 77.715034 24.39994
19.32204 88.34603 27.724937
21.12604 87.66703 27.273941
22.99904 47.420033 20.007942
23.49604 49.058033 20.710938
33.883038 43.913033 19.674942
34.62704 42.919033 17.993942
38.84304 104.48803 36.679935
41.17104 105.035034 36.119934
43.43304 113.02003 41.325935
43.40204 113.08703 43.949936
3.3520386 19.02803 30.299936
4.297038 21.132034 30.823938
49.65604 25.590042 21.170937
0.114040375 26.981033 20.897942
28.88604 51.02903 48.653934
26.689041 51.886032 48.428936
19.11904 43.63903 49.343937
19.70504 41.62603 48.666935
9.92604 30.406036 54.109936
8.078039 32.529037 52.800938
10.59104 34.755035 41.324936
9.415039 34.32704 39.558937
37.74204 35.016037 8.138939
35.78604 34.419037 6.8219376
29.12904 27.850037 7.5789413
29.41104 27.852036 9.834938
47.118042 87.86003 35.909935
48.45204 89.65503 34.648937
40.06804 96.30503 39.641937
40.12704 97.382034 41.273937
5.563037 42.78303 18.06694
4.691039 43.02803 16.084938
49.32204 45.392033 7.393936
48.04804 43.48603 7.754936
20.47504 95.42903 48.847935
21.10104 97.55803 50.655937
22.866041 92.74803 58.407936
23.42904 91.22803 59.982937
18.20204 83.83003 46.475937
20.47704 82.58703 47.448936
24.52004 83.44403 38.566936
24.21504 85.81803 38.933937
13.90004 1.9430313 50.442936
13.986039 3.5760345 49.211937
3.6540396 3.3660355 52.210938
2.1630394 4.3850403 52.252937
23.84804 122.47003 41.270935
25.88104 121.70103 41.113937
33.88404 3.8300323 36.264935
33.41904 6.0000305 36.383934
12.91204 101.784035 5.5339355
12.852039 101.79703 3.6099396
12.507039 108.24603 60.538937
13.60504 109.98503 58.971935
14.069039 6.0970306 63.946938
12.672039 7.861038 0.02394104
5.7930393 13.615036 61.331936
5.8520393 15.318039 60.198936
0.7370395 52.51203 4.7129364
3.0640395 52.704033 4.0089417
10.234039 52.07603 63.588936
11.57204 50.55403 63.226936
22.83304 63.948032 61.63194
22.10904 61.849033 61.342937
12.031039 58.76903 1.959938
11.68304 58.53503 4.8179398
36.53504 21.295029 7.6049423
35.09904 19.852036 7.551941
30.98704 20.374039 1.8179398
33.17704 20.547043 1.3049393
6.992038 59.828033 44.238937
6.27304 57.711033 42.844936
50.49804 52.36903 50.243935
51.56604 50.489033 50.979935
32.93004 63.74803 33.108936
32.82304 63.594032 35.907936
26.48504 61.25003 44.474937
25.89804 62.719032 46.442936
46.50204 21.114029 25.295937
45.590042 23.384033 25.460938
44.18404 32.214035 29.037941
43.76604 32.22003 30.786936
31.38804 49.781033 54.687935
29.70404 48.89503 53.500935
24.29804 41.80503 60.095936
25.88604 39.99303 60.625935
9.116039 51.489033 9.08194
11.06504 50.78303 9.829941
3.6840396 55.38803 2.949936
3.3720396 57.55703 2.1399384
32.79804 69.576035 55.170937
33.57604 71.464035 55.125935
39.17804 70.43403 58.199936
39.16204 70.72303 61.202938
30.40404 67.64003 33.138935
30.88504 69.812035 32.284935
38.95704 69.76303 28.074936
39.41004 67.34703 27.608936
15.30104 40.60103 8.002937
14.698039 39.06903 9.319939
13.689039 38.990036 20.049942
15.276039 38.414032 21.306938
11.214039 80.11103 3.63694
8.73304 80.69103 3.438942
-0.046960387 74.11503 2.4399414
-0.74896055 72.200035 1.4669418
35.53104 100.35803 22.850937
35.958042 98.82203 24.29094
41.24204 102.34303 32.885944
40.958042 104.49403 33.52194
34.265038 71.94403 4.957939
33.87004 70.13903 6.0369415
29.89204 74.980034 16.273941
27.69804 75.08103 15.996941
0.40803954 56.419033 41.528934
0.5250394 58.98403 41.138935
3.7010396 63.41703 33.473934
5.1700397 62.04103 32.682934
7.8860393 6.4110413 34.295937
6.8380394 6.495041 32.021935
10.078039 118.51103 28.756935
8.29404 118.36303 29.923935
35.02804 62.30403 2.9659424
35.37904 62.43003 0.8249359
32.82304 73.298035 2.9669418
32.813038 75.27403 2.4659424
4.0360394 91.84203 29.54294
5.018039 91.035034 27.156937
1.2440395 81.798035 27.907936
1.4200395 80.535034 25.550941
7.223039 29.31903 53.408936
8.998039 28.151031 53.595936
17.24804 22.110031 49.863937
17.31704 19.48404 49.376938
30.19204 56.900032 44.703938
31.14204 58.607033 43.062935
31.210041 68.12003 50.831936
32.12104 68.907036 52.533936
14.616039 84.52403 51.147938
13.863039 86.56603 50.335938
15.541039 81.11603 40.693935
16.80304 80.60703 38.737934
42.82204 116.08303 24.796936
41.06304 114.24303 25.324936
46.59904 103.65503 22.80494
45.56204 104.07503 20.87394
11.555039 48.07803 18.23294
13.385039 46.900032 17.584938
20.61704 46.82603 10.398941
20.47904 44.858032 9.040939
24.42604 65.39703 22.05294
21.85104 66.08303 21.576942
14.52704 66.74403 30.759935
12.780039 68.26203 31.601938
46.84604 101.480034 25.389938
48.30204 103.21403 25.074936
6.137038 101.896034 27.769936
6.469039 99.98103 29.48894
32.45304 44.52203 25.931936
31.91204 46.544033 27.158936
40.40204 48.448032 34.933937
40.507042 50.81003 33.231934
45.51904 1.2520294 7.4849396
47.59404 0.41703033 8.368942
49.19004 115.786026 2.1619415
51.21704 115.44303 1.0649414
32.39904 66.70703 16.765938
31.50604 68.08203 15.452942
41.25104 72.61403 14.635941
42.59204 71.38703 13.390938
12.20404 92.867035 41.841934
9.61004 93.798035 41.984936
5.0620394 94.25803 31.248936
5.1650395 94.50203 29.389936
23.45904 71.24003 52.227936
25.57904 70.39203 51.470936
24.57904 62.06903 60.164936
23.48304 59.921032 59.877937
41.64304 32.759033 8.653938
41.62404 30.519043 8.472939
38.59904 29.16803 21.217941
36.715042 30.09404 21.938942
18.78904 51.45603 36.13094
19.08804 53.45003 35.286938
15.405039 51.14703 24.113937
14.79404 51.73003 22.19194
32.536037 38.046036 8.671936
