1.462 3.455 5.727
0.145 5.596 4.788
0.404 5.684 4.632
0.242 5.454 4.821
0.487 5.494 4.790
0.001 5.078 5.122
0.392 5.184 5.024
0.523 5.243 4.907
0.172 4.814 5.117
0.483 4.848 4.993
0.745 4.958 4.920
0.601 4.544 5.169
0.783 4.688 5.004
0.698 4.411 5.195
0.971 4.372 5.104
0.991 4.135 5.234
1.223 3.905 5.262
5.512 4.820 6.270
5.667 4.830 6.074
3.636 5.344 6.177
4.539 4.691 6.310
4.661 4.680 6.163
4.505 4.614 6.229
4.843 4.449 6.229
5.108 4.528 6.192
5.356 4.666 5.966
5.665 4.689 5.801
5.852 4.855 5.803
4.168 6.203 5.274
4.922 6.218 5.020
5.104 6.208 4.950
2.588 5.203 6.255
2.947 4.943 6.193
3.208 5.094 6.158
3.316 4.798 6.198
5.838 4.719 5.474
6.021 4.706 5.389
3.564 6.225 5.207
3.430 6.248 5.112
3.827 6.113 5.060
4.206 6.202 5.009
4.410 6.231 4.799
4.309 5.820 5.096
4.506 5.993 4.997
4.815 6.023 4.807
4.989 6.166 4.700
1.948 4.892 6.286
2.288 5.025 6.149
2.528 5.071 5.964
2.425 4.787 6.237
2.677 4.779 6.049
2.934 4.965 5.973
2.825 4.543 6.256
2.954 4.633 5.993
2.815 4.249 6.263
3.186 4.400 6.195
6.067 4.554 5.106
6.218 4.670 4.970
3.431 6.070 4.839
3.692 6.260 4.699
3.964 6.269 4.683
3.403 6.091 4.874
3.750 5.863 4.849
4.041 6.010 4.723
4.243 6.094 4.628
4.609 6.127 4.468
4.841 6.314 4.425
3.956 5.699 4.900
4.154 5.796 4.843
4.481 5.898 4.730
4.660 5.853 4.637
4.927 6.048 4.431
1.578 4.926 6.071
1.823 5.070 5.873
4.574 5.563 4.733
4.827 5.666 4.603
1.654 4.799 6.100
1.856 4.834 6.000
2.232 4.836 5.920
2.372 5.010 5.737
1.831 4.432 6.272
1.985 4.602 6.131
2.264 4.662 5.938
2.526 4.652 5.781
2.209 4.274 6.195
2.467 4.301 6.021
2.739 4.436 5.872
2.240 4.085 6.286
2.460 4.107 6.186
2.812 4.238 5.987
2.599 3.763 6.162
6.130 4.579 4.797
3.277 6.230 4.555
3.004 6.141 4.720
3.203 6.298 4.570
3.363 5.996 4.669
3.540 6.107 4.571
3.868 6.160 4.310
4.152 6.209 4.271
3.390 6.056 4.619
3.509 5.713 4.669
3.769 5.790 4.528
3.937 5.947 4.389
4.196 5.941 4.390
4.482 6.030 4.281
4.700 6.148 4.140
3.399 5.698 4.663
3.788 5.581 4.730
4.013 5.583 4.597
4.403 5.637 4.417
4.677 5.721 4.337
4.902 5.910 4.209
1.467 4.933 5.821
1.651 4.937 5.683
2.034 5.072 5.572
3.925 5.329 4.757
4.270 5.386 4.691
4.521 5.402 4.483
4.769 5.563 4.474
1.615 4.621 5.848
1.848 4.720 5.799
2.099 4.811 5.540
1.760 4.302 5.966
1.904 4.436 5.811
2.138 4.498 5.751
2.458 4.592 5.557
1.816 4.142 5.951
2.065 4.200 5.933
2.388 4.187 5.734
1.887 3.770 6.038
2.141 3.861 5.951
2.373 4.028 5.862
2.090 3.592 6.222
2.240 3.659 6.128
3.050 6.142 4.332
3.374 6.249 4.128
3.125 6.064 4.264
3.199 5.827 4.286
3.435 5.927 4.296
3.841 5.961 4.070
3.969 6.166 4.005
4.220 6.172 3.823
1.127 5.221 5.384
3.276 5.805 4.293
3.326 5.643 4.483
3.694 5.691 4.275
3.902 5.687 4.154
4.167 5.872 4.142
4.352 5.966 3.967
4.678 6.053 3.872
1.253 4.996 5.364
1.505 5.036 5.236
3.391 5.646 4.432
3.701 5.453 4.481
3.940 5.476 4.346
4.210 5.615 4.240
4.550 5.590 4.069
4.757 5.764 3.856
1.301 4.766 5.561
1.663 4.773 5.385
1.903 4.845 5.291
3.813 5.226 4.515
4.117 5.264 4.336
4.397 5.323 4.325
4.576 5.397 4.144
1.504 4.473 5.579
1.684 4.498 5.510
2.020 4.610 5.401
4.006 4.952 4.541
4.305 4.975 4.520
4.473 5.005 4.360
4.807 5.068 4.243
1.563 4.257 5.662
1.837 4.313 5.503
2.193 4.399 5.439
4.377 4.791 4.559
1.677 3.887 5.712
1.973 4.051 5.677
2.224 4.176 5.485
1.872 3.650 5.898
2.031 3.813 5.700
1.976 3.481 5.954
3.508 6.104 3.808
0.920 5.451 5.020
3.444 5.887 3.979
3.651 5.947 3.793
3.891 6.023 3.765
1.072 5.152 4.993
1.322 5.274 4.920
3.555 5.618 4.068
3.796 5.710 3.915
4.063 5.646 3.898
4.343 5.786 3.723
1.189 4.811 5.167
1.506 4.951 5.051
1.750 4.971 4.933
3.622 5.266 4.131
3.871 5.386 4.055
4.238 5.505 3.981
4.449 5.552 3.802
4.738 5.669 3.657
6.255 6.066 2.877
1.355 4.595 5.295
1.501 4.630 5.101
1.762 4.752 5.007
3.793 5.108 4.233
4.013 5.149 4.118
4.337 5.214 3.961
4.516 5.236 3.945
4.820 5.271 3.736
1.351 4.323 5.398
1.615 4.393 5.197
1.855 4.461 5.115
3.840 4.783 4.397
4.093 4.857 4.194
4.467 4.969 4.033
4.724 5.027 3.996
1.593 4.073 5.474
1.799 4.195 5.281
2.006 4.293 5.250
3.788 4.439 4.590
4.038 4.542 4.486
4.301 4.627 4.338
4.549 4.631 4.241
4.785 4.781 4.032
1.626 3.903 5.450
1.959 3.883 5.377
3.690 4.384 4.578
3.929 4.249 4.596
4.190 4.194 4.501
4.434 4.358 4.381
4.697 4.396 4.243
3.892 4.233 4.570
4.027 3.896 4.684
4.272 3.951 4.654
3.993 3.906 4.718
4.157 3.731 4.784
3.860 3.646 4.923
4.143 3.667 4.854
0.792 5.536 4.660
0.893 5.302 4.780
1.104 5.341 4.627
1.019 5.038 4.753
1.295 5.055 4.698
1.502 5.185 4.628
3.705 5.522 3.614
3.976 5.581 3.531
6.034 6.236 2.671
1.096 4.725 4.834
1.379 4.893 4.726
1.614 4.892 4.707
3.511 5.122 3.837
3.902 5.269 3.706
4.152 5.364 3.604
4.359 5.332 3.575
6.140 5.964 2.717
1.262 4.524 4.958
1.494 4.610 4.939
1.806 4.685 4.735
3.616 4.915 4.022
3.890 4.968 3.932
4.147 5.033 3.797
4.530 5.102 3.633
4.753 5.168 3.528
1.295 4.230 5.059
1.558 4.233 5.005
1.782 4.369 4.797
3.498 4.642 4.175
3.742 4.629 4.069
4.051 4.717 4.004
4.404 4.815 3.761
4.645 4.861 3.691
4.839 4.982 3.607
1.507 3.976 5.186
1.710 4.115 5.113
3.584 4.533 4.229
3.636 4.373 4.322
3.951 4.375 4.168
4.239 4.393 4.074
4.402 4.506 3.933
4.666 4.645 3.733
5.024 4.769 3.608
3.709 4.264 4.287
3.774 4.078 4.367
4.060 4.061 4.271
4.339 4.211 4.126
4.613 4.342 4.001
4.840 4.295 3.886
3.449 3.922 4.424
3.747 4.116 4.401
3.935 3.766 4.390
4.173 3.795 4.340
4.462 3.872 4.179
4.629 3.986 4.065
3.663 3.708 4.506
3.929 3.756 4.439
4.026 3.548 4.596
4.223 3.644 4.391
4.581 3.735 4.306
3.494 3.354 4.747
3.812 3.419 4.718
4.045 3.546 4.519
0.204 5.035 3.658
0.245 4.662 3.797
0.086 2.517 4.931
0.247 2.626 4.743
0.204 2.366 4.930
0.442 2.434 4.913
0.120 2.756 4.504
0.400 2.779 4.357
0.147 2.451 4.599
0.504 2.635 4.413
0.670 2.634 4.323
0.126 2.192 4.674
0.327 2.209 4.579
0.582 2.306 4.483
0.849 2.412 4.391
1.120 2.450 4.263
0.246 1.892 4.848
0.482 1.925 4.628
0.626 2.061 4.650
0.938 2.107 4.420
1.177 2.225 4.328
0.190 2.933 3.980
-0.010 2.676 4.223
0.234 2.801 4.027
0.146 2.396 4.192
0.402 2.429 4.099
0.660 2.594 4.003
0.299 2.168 4.293
0.536 2.154 4.160
0.733 2.279 4.184
0.957 2.397 3.938
0.100 1.853 4.553
0.427 1.941 4.454
0.603 1.915 4.337
0.906 2.088 4.227
1.192 2.050 4.052
0.099 2.924 3.693
0.232 2.576 3.825
0.459 2.734 3.714
0.008 2.243 3.961
0.317 2.417 3.938
0.574 2.390 3.779
0.142 2.062 4.153
0.378 2.152 3.984
0.666 2.200 3.864
0.897 2.277 3.674
0.050 1.707 4.320
0.227 1.758 4.165
0.567 1.837 4.054
0.848 1.973 3.904
0.992 2.024 3.835
0.173 2.531 3.519
0.323 2.538 3.472
0.245 2.153 3.683
0.470 2.325 3.461
0.025 1.814 3.892
0.351 2.014 3.774
0.597 1.964 3.552
0.783 2.167 3.444
0.226 1.621 3.994
0.426 1.704 3.796
0.770 1.728 3.676
0.980 1.838 3.571
0.051 2.386 3.214
0.136 2.068 3.392
0.257 1.897 3.400
0.311 1.527 3.610
0.596 1.590 3.404
0.058 1.739 1.453
0.100 1.461 1.559
0.066 1.201 1.794
0.341 1.167 1.700
0.194 0.945 1.807
0.321 1.019 1.720
0.131 1.307 1.356
0.125 1.116 1.470
0.065 0.810 1.626
0.355 0.827 1.547
0.127 1.034 1.104
0.301 0.716 1.271
0.079 0.943 0.857
0.108 0.656 0.893
0.017 0.475 0.705
0.168 5.862 4.378
0.065 5.582 4.531
0.346 5.573 4.374
0.195 5.220 4.579
0.461 5.275 4.482
0.184 5.062 4.636
0.499 5.005 4.511
0.116 4.686 4.979
0.434 4.794 4.818
0.661 4.824 4.724
0.430 4.416 4.884
0.694 4.497 4.684
0.790 4.333 4.794
1.004 4.053 4.931
0.113 5.799 4.089
0.205 5.462 4.174
0.014 5.106 4.303
0.366 5.226 4.210
0.095 4.906 4.424
0.377 4.915 4.371
0.351 4.595 4.521
0.612 4.652 4.471
0.356 4.325 4.622
0.701 4.467 4.497
0.703 4.191 4.518
0.154 5.388 3.844
0.271 5.108 4.031
0.022 4.683 4.125
0.414 4.895 4.109
0.258 4.532 4.267
0.396 4.563 4.221
0.609 4.290 4.239
0.084 4.974 3.780
0.238 4.657 3.837
-0.032 2.564 4.866
0.306 2.661 4.780
0.121 2.261 5.034
0.357 2.387 4.863
2.566 6.250 2.295
2.899 6.064 2.360
3.256 6.152 2.112
3.382 6.202 2.101
0.380 5.001 3.620
0.741 5.043 3.404
0.896 5.238 3.393
1.180 5.254 3.225
1.411 5.346 3.167
1.745 5.369 3.048
1.968 5.430 2.865
2.212 5.557 2.770
0.539 4.775 3.688
0.727 4.923 3.505
0.994 4.924 3.481
1.287 5.079 3.378
1.510 5.049 3.210
1.846 5.136 3.052
2.174 5.213 3.009
0.663 4.521 3.712
0.927 4.517 3.636
1.225 4.640 3.553
1.392 4.761 3.456
1.701 4.828 3.353
1.967 4.902 3.105
2.183 4.977 3.081
0.725 4.274 3.847
0.987 4.346 3.682
1.300 4.477 3.626
1.606 4.453 3.512
1.825 4.618 3.328
2.075 4.560 3.256
1.444 4.097 3.642
1.639 4.265 3.559
1.927 4.351 3.419
4.198 4.697 2.512
4.401 4.673 2.388
4.659 4.737 2.292
3.984 4.255 2.868
4.326 4.427 2.685
4.479 4.436 2.559
4.773 4.503 2.445
4.975 4.552 2.363
5.310 4.737 2.237
3.818 4.037 2.946
4.085 4.113 2.915
4.449 4.113 2.787
4.634 4.256 2.607
4.897 4.304 2.455
5.210 4.341 2.341
5.402 4.440 2.272
3.891 3.761 3.096
4.239 3.754 2.998
4.475 3.917 2.844
4.810 3.992 2.718
4.946 4.067 2.657
5.227 4.048 2.511
5.479 4.236 2.385
5.847 4.277 2.179
3.757 3.316 3.249
4.092 3.478 3.133
4.417 3.592 3.089
4.587 3.654 2.901
4.912 3.686 2.857
5.137 3.822 2.651
5.415 3.883 2.633
5.632 3.912 2.381
5.942 4.029 2.275
1.554 2.415 4.518
1.811 2.474 4.342
2.128 2.559 4.294
2.407 2.649 4.109
2.637 2.666 3.992
2.875 2.736 3.864
3.143 2.852 3.763
2.258 6.082 2.166
2.437 6.072 2.085
2.739 6.164 1.947
2.920 6.274 1.756
1.946 5.900 2.291
2.218 5.984 2.263
2.293 5.795 2.303
2.617 5.823 2.211
2.823 5.887 2.029
3.128 5.951 1.927
3.390 6.143 1.749
3.665 6.100 1.621
1.465 5.607 2.710
1.815 5.595 2.480
1.998 5.728 2.470
2.372 5.755 2.236
2.376 5.517 2.442
2.732 5.570 2.277
2.994 5.622 2.117
0.901 4.992 3.108
1.067 5.172 2.902
1.338 5.219 2.910
1.701 5.229 2.761
1.959 5.430 2.636
2.183 5.448 2.468
2.491 5.506 2.363
2.579 5.186 2.473
0.671 4.719 3.354
1.004 4.877 3.251
1.291 4.905 3.117
1.561 4.926 2.982
1.777 5.027 2.817
1.973 5.067 2.738
2.344 5.185 2.601
2.557 5.212 2.503
0.816 4.541 3.361
1.066 4.558 3.269
1.308 4.680 3.146
1.619 4.731 3.003
1.915 4.810 2.884
2.143 4.813 2.720
2.417 4.945 2.685
1.004 4.137 3.459
1.266 4.342 3.347
1.424 4.393 3.281
1.663 4.407 3.132
1.924 4.539 2.951
2.319 4.630 2.944
1.292 3.986 3.444
1.626 4.170 3.309
1.782 4.121 3.239
2.128 4.230 3.068
4.390 4.584 2.226
4.595 4.658 2.126
4.877 4.780 1.912
4.155 4.196 2.440
4.395 4.300 2.231
4.639 4.346 2.115
4.940 4.473 1.979
5.270 4.583 2.000
5.459 4.650 1.790
3.962 3.875 2.560
4.271 3.938 2.446
4.630 4.001 2.446
4.807 4.198 2.313
5.119 4.164 2.203
5.409 4.338 2.063
5.601 4.433 1.878
5.908 4.415 1.823
4.471 3.740 2.584
4.716 3.743 2.471
4.901 3.957 2.312
5.201 3.907 2.289
5.478 4.030 2.139
5.764 4.067 1.945
5.960 4.222 1.897
6.212 4.221 1.685
4.835 3.560 2.517
5.060 3.595 2.489
5.388 3.642 2.287
5.507 3.789 2.201
5.794 3.819 2.045
6.154 3.876 1.993
5.693 3.569 2.322
5.983 3.643 2.225
6.217 3.660 2.022
1.458 2.343 4.212
1.753 2.341 4.147
2.013 2.445 3.908
1.999 6.197 1.874
2.238 6.271 1.791
2.012 6.224 1.815
2.159 5.939 1.889
2.386 6.045 1.858
2.655 6.009 1.643
2.943 6.080 1.523
3.104 6.216 1.379
1.832 5.820 2.118
2.171 5.862 1.910
2.164 5.601 2.090
2.490 5.806 1.869
2.772 5.752 1.783
3.065 5.829 1.735
3.297 6.027 1.611
1.387 5.371 2.437
1.772 5.520 2.243
1.964 5.574 2.130
2.184 5.635 1.982
2.350 5.365 2.124
2.541 5.519 1.949
2.859 5.543 1.806
0.989 4.943 2.790
1.292 5.086 2.527
1.601 5.228 2.463
1.809 5.201 2.366
2.030 5.247 2.237
2.299 5.388 2.136
2.512 5.150 2.266
2.690 5.285 2.105
0.870 4.743 2.982
1.096 4.745 2.739
1.377 4.802 2.610
1.596 4.921 2.514
1.869 4.943 2.475
2.233 5.023 2.315
2.467 5.202 2.185
2.513 4.841 2.294
1.000 4.392 3.030
1.308 4.446 2.854
1.474 4.595 2.787
1.759 4.608 2.627
2.113 4.771 2.583
2.286 4.866 2.410
2.575 4.938 2.280
1.059 4.138 3.169
1.368 4.220 2.973
1.573 4.384 2.922
1.954 4.344 2.701
2.111 4.403 2.556
2.461 4.519 2.470
1.506 3.996 3.047
1.797 3.998 2.946
1.958 4.077 2.861
2.313 4.269 2.693
4.279 4.496 2.013
4.505 4.525 1.821
4.742 4.695 1.647
5.092 4.704 1.611
5.362 4.756 1.466
4.322 4.223 1.988
4.561 4.256 1.852
4.822 4.400 1.721
5.146 4.466 1.680
5.420 4.456 1.498
5.679 4.550 1.448
4.249 3.916 2.264
4.411 3.931 2.100
4.664 4.092 2.022
4.949 4.048 1.916
5.302 4.147 1.760
5.586 4.257 1.654
5.747 4.313 1.478
4.637 3.665 2.276
4.882 3.808 2.119
5.175 3.782 1.938
5.373 3.926 1.834
5.634 3.929 1.670
5.868 4.092 1.581
6.185 4.079 1.443
4.999 3.478 2.171
5.227 3.515 2.123
5.430 3.594 1.969
5.821 3.793 1.813
5.983 3.858 1.655
6.341 3.942 1.498
1.282 2.437 3.934
5.343 3.279 2.216
5.658 3.460 2.060
5.930 3.466 1.888
6.105 3.517 1.756
1.454 2.125 3.997
1.676 2.249 3.812
1.837 6.066 1.591
2.147 6.176 1.515
2.380 6.284 1.411
1.633 6.035 1.705
1.883 6.104 1.637
2.088 5.813 1.733
2.315 5.934 1.619
2.525 5.883 1.488
2.840 6.035 1.275
3.021 6.038 1.125
1.699 5.666 1.733
1.998 5.766 1.611
2.129 5.549 1.772
2.367 5.678 1.598
2.638 5.681 1.593
2.981 5.815 1.403
1.362 5.336 2.168
1.683 5.376 2.080
1.849 5.502 1.812
2.149 5.511 1.755
2.199 5.291 1.795
2.488 5.283 1.710
2.727 5.501 1.621
1.211 4.997 2.270
1.503 5.063 2.242
1.807 5.090 2.138
1.958 5.254 2.035
2.303 5.282 1.918
2.318 4.973 1.886
2.640 5.084 1.837
1.025 4.657 2.571
1.332 4.739 2.371
1.616 4.846 2.267
1.835 4.915 2.184
2.112 4.931 2.069
2.436 5.033 1.973
2.521 4.789 2.040
1.237 4.307 2.670
1.439 4.509 2.477
1.702 4.542 2.459
2.007 4.624 2.256
2.241 4.684 2.148
2.474 4.736 1.973
2.567 4.438 2.121
1.311 4.098 2.674
1.543 4.145 2.541
1.783 4.253 2.528
2.018 4.343 2.286
2.310 4.423 2.229
2.596 4.467 2.121
4.274 4.684 1.486
4.619 4.699 1.300
4.813 4.785 1.258
5.049 4.981 1.052
1.406 3.893 2.857
1.610 3.973 2.647
1.869 4.026 2.496
2.202 4.019 2.472
2.535 4.177 2.377
4.378 4.398 1.492
4.726 4.454 1.422
5.001 4.587 1.250
5.241 4.619 1.274
1.827 3.681 2.838
2.068 3.742 2.609
2.322 3.881 2.504
4.336 4.016 1.736
4.548 4.198 1.655
4.722 4.238 1.595
5.114 4.245 1.469
5.344 4.467 1.311
5.590 4.501 1.243
4.419 3.779 1.792
4.683 3.891 1.671
4.954 4.018 1.602
5.220 4.057 1.568
5.506 4.136 1.331
5.632 4.183 1.262
5.937 4.343 1.112
4.778 3.577 1.864
5.039 3.741 1.667
5.278 3.836 1.523
5.496 3.893 1.539
5.866 3.885 1.294
6.094 4.078 1.261
5.092 3.432 1.747
5.405 3.504 1.642
5.657 3.591 1.543
5.920 3.709 1.360
6.135 3.811 1.388
5.526 3.208 1.688
5.862 3.284 1.632
6.029 3.390 1.560
1.303 2.079 3.695
1.552 2.125 3.524
1.764 6.141 1.184
1.929 6.219 1.047
1.640 6.126 1.273
1.810 5.965 1.267
2.065 6.055 1.223
2.399 6.153 1.022
2.610 6.103 0.941
2.892 6.183 0.891
1.800 5.919 1.304
1.983 5.644 1.490
2.267 5.783 1.302
2.449 5.879 1.105
2.731 5.852 1.097
1.749 5.659 1.608
1.880 5.704 1.389
2.036 5.348 1.541
2.384 5.462 1.382
2.518 5.532 1.333
1.527 5.260 1.817
1.837 5.345 1.613
2.120 5.367 1.435
2.131 5.208 1.615
2.476 5.235 1.403
1.380 4.892 1.948
1.692 5.047 1.857
1.869 5.081 1.641
2.245 5.089 1.614
2.267 4.819 1.728
2.603 4.911 1.485
1.236 4.594 2.230
1.550 4.598 2.103
1.752 4.767 1.943
2.009 4.855 1.731
2.296 4.937 1.673
2.465 4.685 1.767
1.157 4.301 2.445
1.328 4.362 2.278
1.631 4.428 2.158
1.942 4.476 2.063
2.149 4.610 1.958
2.459 4.628 1.698
2.521 4.355 1.909
4.306 4.891 1.073
4.557 4.986 0.813
4.923 4.999 0.732
1.273 3.978 2.465
1.490 4.108 2.410
1.772 4.079 2.245
2.064 4.265 2.163
2.234 4.286 1.926
2.513 4.295 1.907
4.229 4.522 1.167
4.537 4.698 1.053
4.817 4.714 1.046
5.076 4.764 0.788
1.358 3.678 2.526
1.591 3.852 2.481
1.851 3.883 2.234
2.156 3.908 2.208
2.349 4.063 2.114
4.337 4.286 1.261
4.587 4.373 1.206
4.815 4.408 0.989
5.191 4.534 0.956
5.351 4.627 0.800
1.765 3.473 2.506
2.042 3.561 2.407
2.285 3.652 2.306
2.515 3.826 2.094
4.514 4.083 1.414
4.683 4.081 1.261
5.020 4.147 1.129
5.173 4.265 1.044
5.515 4.284 0.968
2.157 3.394 2.508
2.367 3.440 2.347
4.606 3.738 1.517
4.854 3.889 1.435
5.081 3.895 1.179
5.412 4.048 1.180
5.677 4.028 1.006
5.923 4.110 0.812
4.981 3.609 1.413
5.229 3.734 1.367
5.415 3.742 1.268
5.746 3.785 1.107
5.993 3.937 0.896
5.326 3.380 1.414
5.650 3.439 1.365
5.799 3.506 1.184
6.107 3.632 0.977
5.755 3.262 1.396
5.902 3.370 1.271
6.160 3.434 1.085
1.245 1.864 3.363
1.598 6.110 1.021
1.876 6.196 0.901
2.101 6.174 0.724
1.604 6.112 1.052
1.707 5.792 1.045
2.035 5.836 0.982
2.288 6.006 0.833
2.515 6.110 0.778
1.687 5.748 0.998
1.877 5.508 1.130
2.148 5.583 0.983
2.368 5.687 0.864
1.795 5.490 1.164
2.038 5.329 1.243
2.283 5.338 1.140
1.905 5.333 1.286
2.070 5.068 1.320
1.788 4.903 1.486
2.117 4.986 1.319
2.280 4.744 1.469
4.587 5.476 0.296
1.407 4.506 1.739
1.636 4.591 1.602
1.897 4.662 1.503
2.272 4.771 1.453
2.304 4.519 1.475
4.103 5.066 0.737
4.394 5.143 0.519
4.733 5.133 0.414
4.885 5.276 0.235
1.203 4.258 1.965
1.463 4.295 1.819
1.830 4.276 1.690
2.039 4.389 1.692
2.346 4.493 1.581
3.972 4.653 0.885
4.252 4.755 0.686
4.592 4.865 0.584
4.860 4.909 0.500
5.037 5.067 0.428
1.380 3.960 2.009
1.667 3.940 2.016
1.976 4.089 1.896
2.240 4.193 1.774
4.147 4.453 0.972
4.362 4.546 0.830
4.685 4.661 0.654
4.950 4.688 0.564
5.222 4.793 0.423
1.187 3.538 2.279
1.553 3.705 2.192
1.788 3.777 2.030
2.027 3.886 1.940
2.250 3.885 1.815
4.207 4.185 1.050
4.445 4.195 0.998
4.782 4.279 0.758
4.976 4.354 0.673
5.339 4.506 0.599
1.425 3.381 2.328
1.666 3.373 2.278
1.920 3.517 2.190
2.191 3.573 2.070
2.433 3.638 1.829
4.320 3.923 1.069
4.628 3.935 0.964
4.923 4.089 0.966
5.138 4.079 0.710
5.489 4.283 0.646
1.693 3.096 2.368
1.971 3.282 2.222
2.324 3.357 2.105
2.582 3.343 1.925
4.762 3.665 1.139
5.030 3.782 0.909
5.255 3.902 0.817
5.473 3.912 0.757
2.141 2.970 2.373
2.351 3.095 2.135
2.711 3.096 2.043
5.074 3.533 1.100
5.413 3.652 0.970
5.665 3.660 0.879
2.494 2.808 2.328
5.530 3.353 1.014
5.755 3.381 0.922
5.925 3.153 0.951
6.116 3.218 0.956
1.876 6.092 0.627
2.025 6.142 0.544
2.288 6.213 0.432
4.144 5.515 0.050
4.000 5.103 0.290
4.217 5.203 0.212
4.473 5.271 0.012
3.774 4.893 0.508
4.124 4.922 0.411
4.291 5.028 0.337
4.624 5.021 0.135
4.853 5.168 0.071
1.673 4.274 1.427
3.883 4.582 0.556
4.172 4.612 0.425
4.464 4.674 0.342
4.767 4.857 0.247
4.952 4.921 0.088
1.239 3.816 1.797
1.624 3.858 1.633
1.812 3.991 1.536
2.128 4.100 1.502
4.023 4.358 0.642
4.339 4.444 0.565
4.623 4.521 0.403
4.842 4.540 0.384
5.140 4.626 0.230
1.391 3.542 1.907
1.741 3.567 1.859
1.950 3.731 1.735
2.180 3.721 1.580
4.150 4.027 0.809
4.428 4.185 0.699
4.689 4.149 0.510
4.950 4.230 0.463
5.198 4.428 0.239
1.229 3.250 2.165
1.548 3.238 1.978
1.756 3.386 1.823
2.054 3.428 1.781
2.274 3.515 1.613
2.703 3.407 1.676
4.570 3.823 0.743
4.861 3.899 0.604
5.063 4.084 0.566
1.338 2.888 2.135
1.699 3.010 2.037
1.985 3.097 1.969
2.175 3.207 1.850
2.393 3.254 1.666
2.639 3.272 1.567
2.856 3.010 1.701
4.896 3.755 0.718
5.149 3.793 0.590
1.728 2.767 2.222
2.109 2.797 2.110
2.306 2.930 1.921
2.546 2.942 1.795
2.858 3.108 1.702
2.981 2.761 1.757
2.112 2.589 2.150
2.420 2.637 1.980
2.625 2.715 1.848
2.888 2.836 1.766
3.121 2.542 1.827
3.343 2.676 1.715
2.576 2.397 2.166
2.729 2.415 1.919
3.088 2.516 1.798
3.126 2.220 2.005
3.405 2.419 1.902
3.745 2.505 1.699
2.835 2.200 2.148
3.236 2.351 1.879
1.935 6.270 0.196
0.083 5.422 1.042
0.058 5.129 1.299
3.566 4.917 0.136
3.907 5.037 -0.008
3.719 4.779 0.334
4.004 4.743 0.068
4.241 4.861 -0.024
3.597 4.325 0.414
3.893 4.464 0.288
4.096 4.535 0.176
4.361 4.554 0.068
3.932 4.147 0.503
4.192 4.271 0.366
4.435 4.365 0.172
4.829 4.403 0.131
1.401 3.407 1.706
1.563 3.535 1.604
1.859 3.510 1.351
2.188 3.726 1.301
4.022 3.972 0.530
4.326 4.073 0.442
4.620 4.131 0.274
4.943 4.178 0.140
1.158 3.130 1.853
1.452 3.164 1.686
1.752 3.192 1.644
2.006 3.269 1.563
2.192 3.460 1.334
2.621 3.149 1.413
1.266 2.830 2.020
1.637 2.866 1.866
1.870 3.035 1.770
2.161 3.070 1.629
2.420 3.139 1.403
2.625 3.150 1.322
2.739 2.895 1.486
1.392 2.546 2.073
1.760 2.591 1.877
1.951 2.724 1.789
2.255 2.821 1.667
2.430 2.906 1.498
2.707 2.896 1.468
2.853 2.646 1.555
3.083 2.790 1.468
1.843 2.405 1.928
2.098 2.453 1.841
2.333 2.552 1.809
2.585 2.641 1.622
2.905 2.642 1.570
2.983 2.430 1.668
3.279 2.485 1.434
3.450 2.592 1.420
2.196 2.127 1.904
2.407 2.268 1.852
2.700 2.416 1.705
3.044 2.462 1.590
3.091 2.162 1.684
3.323 2.250 1.600
3.661 2.287 1.526
3.888 2.464 1.366
2.630 2.014 1.876
2.805 2.143 1.874
3.101 2.186 1.710
0.004 5.352 0.789
0.160 5.036 0.952
-0.007 4.686 1.044
3.343 4.774 -0.037
3.353 4.462 0.173
3.676 4.613 -0.057
3.495 4.257 0.147
3.836 4.284 0.022
3.691 3.953 0.367
3.892 4.090 0.223
4.143 4.091 0.039
1.297 3.331 1.364
1.558 3.423 1.326
4.223 3.832 0.101
4.474 3.927 0.018
1.087 2.922 1.585
1.416 2.976 1.415
1.676 3.048 1.404
1.889 3.252 1.302
2.096 3.266 1.161
1.020 2.610 1.811
1.178 2.671 1.710
1.415 2.771 1.561
1.776 2.869 1.389
2.002 2.896 1.274
2.262 2.937 1.153
2.640 2.757 1.235
1.155 2.371 1.922
1.318 2.482 1.710
1.652 2.520 1.705
1.912 2.522 1.583
2.094 2.608 1.383
2.379 2.673 1.270
2.601 2.851 1.183
2.723 2.506 1.272
3.010 2.685 1.175
1.490 2.109 1.799
1.701 2.188 1.773
2.018 2.338 1.599
2.299 2.376 1.447
2.477 2.471 1.348
2.747 2.613 1.269
2.912 2.262 1.356
3.154 2.431 1.188
3.451 2.503 1.157
1.864 1.999 1.814
2.171 2.103 1.777
2.439 2.176 1.558
2.680 2.238 1.518
2.850 2.300 1.323
3.001 2.096 1.418
3.279 2.104 1.267
3.507 2.121 1.137
3.761 2.243 1.081
4.021 2.346 1.015
2.216 1.786 1.843
2.429 1.818 1.656
2.708 1.973 1.528
2.934 2.048 1.488
0.229 5.245 0.457
0.137 4.917 0.670
0.389 5.082 0.587
0.237 4.701 0.672
0.001 4.286 0.936
3.185 3.977 0.084
3.531 3.927 0.021
1.015 2.813 1.332
1.246 2.903 1.198
1.558 2.949 1.149
1.770 3.113 0.973
0.950 2.533 1.539
1.088 2.654 1.360
1.422 2.682 1.370
1.650 2.742 1.114
1.986 2.752 1.089
2.244 2.852 0.958
2.594 2.731 0.837
0.947 2.284 1.640
1.221 2.388 1.452
1.560 2.447 1.469
1.825 2.508 1.316
2.012 2.539 1.215
2.311 2.649 1.071
2.640 2.626 0.890
2.691 2.494 0.945
2.909 2.496 0.803
1.133 1.936 1.705
1.349 2.053 1.580
1.713 2.130 1.444
1.961 2.266 1.351
2.239 2.297 1.292
2.389 2.407 1.146
2.756 2.506 1.047
2.800 2.216 1.145
3.142 2.215 0.999
3.281 2.301 0.846
1.566 1.810 1.701
1.814 1.876 1.592
1.948 1.956 1.490
2.287 2.079 1.316
2.575 2.122 1.235
2.807 2.145 1.115
2.989 1.843 1.241
3.142 1.977 1.094
3.412 2.041 0.958
3.680 2.083 0.755
4.047 2.225 0.700
2.159 1.757 1.504
2.379 1.836 1.409
2.630 1.785 1.334
2.947 1.868 1.104
0.008 5.456 0.101
0.120 5.137 0.132
0.379 5.244 -0.008
-0.053 4.852 0.342
0.297 4.877 0.225
0.564 4.919 0.076
0.092 4.591 0.534
0.452 4.642 0.397
0.663 4.695 0.187
0.225 4.316 0.506
0.682 2.625 1.252
0.931 2.659 1.104
1.171 2.730 1.011
0.462 2.277 1.464
0.869 2.440 1.364
1.041 2.515 1.162
1.350 2.547 1.018
1.569 2.638 0.874
1.891 2.759 0.814
0.322 2.025 1.622
0.705 2.049 1.445
0.858 2.099 1.432
1.114 2.158 1.299
1.446 2.207 1.096
1.719 2.295 0.967
2.040 2.354 0.889
0.435 1.657 1.702
0.707 1.769 1.545
0.987 1.886 1.467
1.286 1.972 1.395
1.496 2.037 1.169
1.816 2.062 1.156
2.014 2.222 0.911
2.303 2.243 0.843
2.756 2.097 0.882
3.039 2.058 0.640
0.912 1.535 1.708
1.121 1.610 1.550
1.431 1.673 1.443
1.738 1.754 1.275
1.926 1.813 1.183
2.230 1.842 1.122
2.490 1.992 1.010
2.673 2.066 0.782
2.883 1.809 0.981
3.129 1.935 0.851
3.379 1.982 0.680
3.636 2.042 0.583
3.905 2.075 0.357
4.202 2.250 0.253
2.353 1.579 1.092
2.525 1.777 1.039
2.808 1.754 0.850
0.062 4.411 0.166
0.371 4.494 0.097
0.235 4.104 0.346
0.466 4.189 0.156
0.614 4.328 0.116
0.263 2.386 1.138
0.670 2.452 1.014
0.825 2.657 0.796
0.254 2.055 1.329
0.520 2.239 1.151
0.740 2.214 1.088
1.001 2.354 0.886
1.235 2.353 0.853
1.433 2.493 0.611
0.250 1.867 1.385
0.536 1.983 1.231
0.835 2.067 1.163
1.087 2.033 0.943
1.289 2.221 0.846
1.606 2.251 0.773
0.474 1.541 1.425
0.624 1.722 1.365
0.959 1.691 1.200
1.194 1.751 1.151
1.434 1.849 0.942
1.669 1.918 0.846
0.573 1.366 1.573
0.748 1.364 1.448
1.070 1.538 1.235
1.273 1.558 1.165
1.645 1.656 1.066
1.806 1.759 0.975
4.141 2.109 0.081
0.629 1.059 1.590
0.268 2.257 0.817
0.496 2.418 0.644
0.747 2.440 0.498
0.181 1.971 0.961
0.361 2.011 0.854
0.688 2.065 0.761
0.947 2.143 0.613
1.177 2.233 0.535
0.159 1.707 1.087
0.457 1.860 1.035
0.778 1.898 0.873
0.956 1.944 0.719
1.232 2.059 0.619
0.281 1.444 1.232
0.606 1.568 1.087
0.853 1.619 1.013
1.064 1.683 0.829
1.383 1.794 0.698
0.440 1.267 1.231
0.668 1.302 1.121
1.055 1.288 1.017
1.308 1.453 0.872
0.598 0.915 1.332
0.789 1.013 1.222
0.060 2.516 0.400
0.130 2.260 0.595
0.462 2.231 0.448
0.727 2.334 0.277
0.005 1.801 0.784
0.318 1.877 0.693
0.533 1.949 0.488
0.751 2.101 0.414
0.101 1.652 0.768
0.346 1.711 0.725
0.667 1.793 0.635
0.954 1.748 0.455
0.288 1.380 0.901
0.450 1.344 0.759
0.798 1.415 0.729
1.023 1.538 0.552
0.326 1.094 1.054
0.590 1.112 0.835
0.823 1.295 0.782
0.430 0.865 1.066
0.290 2.382 0.108
0.112 2.013 0.340
0.415 2.129 0.188
0.142 1.821 0.380
0.464 1.898 0.272
0.767 1.968 0.080
0.059 1.507 0.640
0.320 1.477 0.425
0.634 1.679 0.343
0.231 1.185 0.648
0.476 1.334 0.580
0.673 1.286 0.430
0.319 0.939 0.754
0.563 1.006 0.592
0.472 0.675 0.817
-0.007 1.975 -0.028
0.160 1.748 0.094
0.268 1.436 0.245
0.494 1.492 0.018
0.106 1.143 0.355
0.351 1.112 0.365
0.144 0.896 0.565
0.506 5.711 4.215
0.678 5.372 4.349
0.906 5.526 4.230
0.793 5.140 4.412
1.075 5.200 4.376
1.292 5.246 4.218
5.558 6.221 2.424
0.953 4.908 4.580
1.225 5.036 4.435
1.377 5.075 4.301
1.612 5.187 4.135
5.986 6.000 2.272
6.242 6.219 2.208
1.055 4.553 4.705
1.281 4.655 4.482
1.563 4.778 4.323
1.835 4.906 4.290
3.755 5.079 3.528
4.006 5.152 3.440
4.293 5.274 3.303
1.065 4.351 4.696
1.440 4.382 4.539
1.661 4.463 4.452
3.552 4.839 3.741
3.923 4.792 3.587
4.054 4.881 3.477
4.358 5.053 3.382
4.645 5.029 3.226
1.174 4.083 4.879
1.506 4.187 4.695
1.717 4.273 4.624
3.382 4.385 3.892
3.723 4.533 3.851
3.972 4.565 3.651
4.300 4.661 3.585
4.467 4.809 3.379
4.820 4.779 3.278
3.435 4.504 3.990
3.561 4.130 4.056
3.781 4.237 3.953
4.046 4.308 3.708
4.434 4.438 3.592
4.660 4.490 3.601
4.852 4.560 3.370
3.536 4.200 3.998
3.677 3.963 4.181
3.880 4.039 4.035
4.211 4.065 3.870
4.455 4.194 3.820
4.731 4.198 3.700
5.018 4.356 3.452
3.353 3.907 4.163
3.746 3.869 4.112
3.788 3.678 4.247
4.008 3.744 4.122
4.328 3.871 4.014
4.548 3.959 3.850
4.859 3.936 3.683
3.326 3.445 4.459
3.571 3.523 4.302
3.753 3.737 4.252
3.944 3.347 4.296
4.210 3.465 4.121
4.446 3.548 3.984
4.725 3.700 3.867
3.209 3.125 4.686
3.394 3.232 4.469
3.686 3.284 4.478
3.853 3.473 4.258
0.430 5.541 4.045
0.757 5.559 3.849
0.524 5.235 4.048
0.786 5.368 4.055
1.094 5.501 3.930
0.741 5.028 4.164
0.903 5.093 4.072
1.262 5.180 4.010
1.457 5.278 3.836
5.826 6.224 1.960
0.758 4.784 4.243
0.994 4.766 4.148
1.296 4.850 4.119
1.540 5.028 3.858
1.787 5.033 3.734
5.916 5.962 2.070
6.225 5.990 1.962
0.996 4.500 4.404
1.245 4.537 4.232
1.400 4.707 4.066
1.646 4.733 3.951
1.050 4.171 4.541
1.342 4.341 4.277
1.573 4.410 4.256
1.800 4.516 4.133
3.792 4.716 3.320
4.050 4.858 3.214
4.355 4.935 3.158
4.500 4.994 3.041
3.628 4.435 3.518
3.938 4.522 3.404
4.234 4.621 3.348
4.386 4.632 3.157
4.682 4.660 3.034
5.026 4.834 2.922
3.542 4.135 3.696
3.682 4.195 3.700
4.080 4.262 3.536
4.251 4.348 3.392
4.605 4.439 3.248
4.748 4.486 3.150
5.058 4.552 2.968
3.497 4.042 3.688
3.575 3.838 3.850
3.812 3.953 3.751
4.134 4.020 3.636
4.460 4.086 3.535
4.706 4.160 3.352
4.879 4.187 3.227
5.139 4.335 3.084
3.365 3.785 3.951
3.557 3.745 3.795
3.773 3.594 3.907
3.936 3.608 3.747
4.303 3.727 3.713
4.480 3.812 3.626
4.848 3.825 3.424
5.083 3.910 3.261
3.175 3.363 4.130
3.512 3.526 4.022
3.713 3.495 4.010
3.909 3.215 3.984
4.160 3.329 3.837
4.327 3.380 3.813
4.624 3.552 3.600
2.858 2.956 4.552
3.119 3.026 4.401
3.277 3.187 4.223
3.569 3.281 4.167
3.774 3.333 4.055
0.304 5.397 3.843
0.418 5.160 3.824
0.822 5.280 3.762
0.968 5.322 3.568
1.346 5.362 3.449
5.404 6.261 1.742
0.591 4.924 3.898
0.924 4.981 3.863
1.093 5.064 3.731
1.379 5.139 3.641
1.582 5.258 3.458
5.725 6.055 1.804
6.047 6.141 1.554
0.692 4.625 4.001
1.054 4.651 3.855
1.304 4.733 3.787
1.474 4.873 3.715
1.809 4.977 3.500
2.077 5.086 3.371
6.139 5.926 1.635
0.882 4.437 4.128
1.060 4.388 3.966
1.397 4.551 3.811
1.559 4.646 3.734
1.958 4.723 3.708
1.203 4.228 4.065
1.448 4.267 3.975
1.744 4.295 3.831
3.894 4.666 2.902
4.174 4.773 2.916
4.552 4.835 2.788
4.692 4.994 2.634
3.873 4.403 3.111
4.119 4.500 2.987
4.342 4.571 2.930
4.610 4.639 2.785
4.861 4.716 2.724
5.079 4.809 2.586
3.605 3.992 3.323
3.931 4.113 3.300
4.238 4.244 3.196
4.384 4.211 2.979
4.708 4.305 2.939
4.965 4.385 2.843
5.265 4.473 2.679
3.547 3.753 3.609
3.818 3.799 3.470
4.090 3.827 3.335
4.263 3.904 3.217
4.590 3.935 3.113
4.820 4.055 2.986
5.029 4.193 2.871
5.431 4.270 2.770
3.531 3.625 3.536
3.594 3.427 3.608
3.977 3.426 3.559
4.107 3.597 3.392
4.419 3.622 3.347
4.666 3.785 3.136
4.897 3.867 3.075
5.235 3.821 2.927
3.121 3.247 3.879
3.445 3.309 3.872
3.668 3.488 3.695
3.751 3.215 3.826
3.965 3.282 3.584
4.224 3.274 3.502
4.513 3.346 3.436
2.421 2.807 4.328
2.673 2.884 4.249
3.042 2.948 4.122
3.208 2.980 3.975
3.527 3.156 3.907
3.689 3.135 3.822
2.600 6.221 2.310
2.969 6.107 2.351
3.190 6.077 2.135
3.382 6.213 2.033
0.441 5.107 3.612
0.725 5.142 3.448
0.907 5.161 3.355
1.146 5.204 3.308
1.477 5.325 3.175
1.666 5.485 2.941
2.047 5.532 2.892
2.246 5.570 2.739
0.580 4.833 3.664
0.713 4.859 3.547
1.034 4.864 3.481
1.260 4.941 3.379
1.570 5.068 3.271
1.873 5.102 3.062
2.025 5.272 2.923
0.648 4.513 3.803
0.843 4.539 3.586
1.110 4.616 3.543
1.469 4.783 3.451
1.667 4.783 3.331
2.006 4.937 3.227
2.275 4.937 3.112
0.818 4.327 3.801
1.078 4.292 3.793
1.236 4.352 3.661
1.589 4.535 3.499
1.815 4.570 3.346
2.005 4.636 3.180
1.416 4.069 3.772
1.662 4.215 3.638
1.965 4.250 3.412
4.199 4.662 2.656
4.431 4.714 2.456
4.604 4.762 2.335
4.070 4.361 2.792
4.309 4.337 2.681
4.508 4.434 2.602
4.743 4.485 2.391
5.081 4.626 2.287
5.348 4.716 2.263
3.875 3.988 3.032
4.073 4.094 2.953
4.390 4.149 2.751
4.646 4.258 2.612
4.914 4.325 2.524
5.094 4.426 2.348
5.372 4.420 2.251
3.964 3.785 3.132
4.188 3.824 2.924
4.427 3.881 2.800
4.755 3.985 2.772
5.031 3.987 2.673
5.318 4.132 2.470
5.590 4.183 2.408
5.810 4.264 2.286
3.810 3.378 3.366
4.120 3.403 3.166
4.346 3.584 3.087
4.639 3.594 2.950
4.879 3.662 2.809
5.200 3.822 2.759
5.344 3.760 2.581
5.633 3.942 2.379
5.989 4.014 2.323
1.544 2.394 4.500
1.842 2.514 4.416
2.154 2.594 4.230
2.307 2.583 4.061
2.577 2.774 4.062
2.833 2.855 3.815
3.105 2.951 3.750
6.190 6.088 1.180
6.327 5.832 1.331
6.268 6.199 1.425
6.222 6.103 1.247
6.214 5.818 1.379
5.912 4.495 6.295
6.119 4.699 6.130
6.223 4.423 6.172
5.180 4.310 6.192
5.513 4.409 6.100
5.802 4.499 5.890
6.087 4.588 5.908
6.241 4.605 5.657
5.637 4.085 6.227
5.876 4.150 6.066
6.176 4.226 5.858
5.730 3.902 6.259
5.973 3.932 6.181
6.220 3.982 6.047
6.029 3.619 6.245
5.394 4.269 5.807
5.655 4.340 5.688
5.968 4.466 5.552
6.269 4.502 5.466
5.490 4.035 5.900
5.822 4.111 5.757
6.020 4.087 5.623
5.657 3.708 5.947
5.863 3.817 5.929
6.114 3.816 5.750
5.983 3.586 5.916
5.787 4.261 5.311
6.102 4.335 5.260
5.752 3.940 5.535
5.907 4.045 5.395
6.247 4.086 5.237
5.885 3.682 5.575
6.065 3.729 5.522
6.229 3.550 5.604
4.455 2.619 6.247
4.728 2.428 6.271
5.138 2.192 6.126
5.173 2.240 6.232
5.530 1.939 6.198
5.656 1.807 6.179
5.836 1.864 6.134
5.997 1.589 6.228
5.976 4.159 5.015
5.933 3.904 5.177
6.171 4.025 5.084
6.057 3.612 5.222
6.272 3.653 5.059
6.157 3.341 5.333
4.391 2.563 6.191
3.797 2.302 6.287
4.018 2.371 6.057
4.314 2.429 6.027
4.543 2.541 5.942
4.156 2.085 6.261
4.426 2.160 6.115
4.730 2.267 6.027
5.067 2.006 5.886
4.469 1.850 6.248
4.747 1.958 6.129
5.102 2.076 5.962
5.213 1.849 5.997
4.642 1.613 6.315
4.907 1.764 6.152
5.121 1.870 6.015
5.360 1.518 6.062
5.557 1.620 5.940
5.076 1.424 6.291
5.290 1.550 6.179
5.428 1.283 6.198
5.631 1.438 6.033
5.946 1.432 5.907
5.402 1.281 6.237
5.800 1.154 6.126
6.087 1.184 6.036
5.947 0.833 6.217
6.127 0.879 6.107
6.161 4.193 4.614
6.029 3.794 4.806
5.924 3.516 5.009
6.178 3.532 4.882
3.625 2.489 6.120
3.960 2.586 5.963
4.200 2.716 5.952
3.718 2.307 6.239
4.020 2.364 6.159
4.336 2.499 5.980
4.564 2.471 5.873
3.477 2.132 6.135
3.709 2.171 5.987
3.966 2.224 5.906
4.290 2.348 5.711
4.487 2.449 5.615
4.832 2.166 5.558
3.523 1.805 6.261
3.799 1.857 6.067
4.009 2.046 5.892
4.308 2.031 5.762
4.627 2.134 5.680
4.909 2.269 5.565
4.989 1.936 5.621
3.896 1.571 6.210
4.273 1.753 6.095
4.489 1.772 5.914
4.669 1.815 5.814
5.032 2.005 5.663
5.177 1.628 5.823
4.015 1.386 6.234
4.366 1.476 6.203
4.530 1.539 6.047
4.771 1.608 5.827
5.167 1.724 5.706
5.143 1.452 5.927
4.501 1.142 6.241
4.726 1.290 6.168
4.896 1.307 6.023
5.176 1.479 5.895
5.382 1.196 5.883
5.635 1.317 5.761
4.847 0.987 6.125
5.018 1.070 6.118
5.352 1.146 5.955
5.422 0.856 6.059
5.740 0.956 5.925
5.953 0.983 5.751
5.183 0.893 6.162
5.505 0.961 6.081
5.560 0.711 6.173
5.819 0.774 6.047
6.066 0.787 5.942
5.516 0.595 6.125
5.629 0.318 6.143
5.985 0.535 6.011
6.236 0.509 5.894
5.699 0.337 6.185
6.134 0.237 6.110
6.289 3.793 4.426
6.139 3.429 4.598
3.796 2.777 5.619
3.972 2.904 5.511
4.332 2.918 5.379
6.230 3.185 4.711
3.606 2.448 5.944
3.787 2.475 5.834
4.129 2.605 5.630
4.350 2.727 5.549
3.429 2.098 6.127
3.740 2.234 5.982
4.020 2.192 5.888
4.225 2.395 5.720
4.487 2.372 5.632
6.210 2.870 4.461
3.398 2.024 5.920
3.589 2.046 5.772
3.815 2.051 5.663
4.190 2.248 5.548
4.381 2.238 5.400
3.693 1.784 5.761
3.990 1.856 5.659
4.195 1.941 5.502
4.497 2.009 5.469
3.841 1.476 5.827
4.164 1.562 5.805
4.302 1.695 5.642
4.715 1.745 5.523
4.215 1.365 5.879
4.534 1.455 5.821
4.768 1.414 5.591
5.956 0.605 5.672
5.805 0.364 5.791
6.202 0.365 5.764
6.025 0.132 5.943
6.246 0.141 5.810
4.233 3.350 4.902
3.629 3.257 5.085
3.870 3.275 5.060
4.240 3.374 4.824
4.390 3.118 5.017
3.604 2.899 5.312
3.832 3.015 5.294
3.990 3.011 5.116
4.278 3.138 4.937
4.363 2.825 5.036
6.282 3.434 4.198
3.422 2.553 5.526
3.698 2.611 5.406
3.955 2.674 5.331
4.107 2.758 5.253
4.394 2.850 5.058
6.116 3.104 4.413
3.235 2.190 5.783
3.546 2.236 5.700
3.763 2.389 5.522
4.077 2.469 5.432
4.361 2.591 5.302
6.304 2.785 4.442
3.354 2.029 5.912
3.681 2.101 5.755
3.875 2.081 5.563
4.208 2.162 5.454
4.429 2.251 5.405
6.121 2.676 4.331
3.333 1.884 5.610
3.533 1.869 5.471
3.754 1.936 5.364
4.122 2.095 5.229
4.327 2.092 5.154
6.221 2.428 4.346
3.593 1.652 5.543
3.862 1.691 5.450
4.162 1.754 5.282
4.430 1.876 5.169
6.113 0.014 5.465
4.107 3.314 4.573
4.406 3.403 4.440
3.390 3.036 4.940
3.656 3.111 4.894
3.837 3.247 4.761
4.099 3.335 4.621
4.259 2.976 4.719
3.257 2.734 5.147
3.508 2.798 5.133
3.771 2.924 4.974
4.013 2.859 4.772
4.284 3.040 4.686
4.425 2.695 4.786
3.087 2.307 5.366
3.332 2.463 5.327
3.597 2.528 5.227
3.903 2.560 5.087
4.161 2.641 4.963
4.344 2.672 4.807
4.543 2.495 4.847
3.147 2.132 5.561
3.353 2.120 5.412
3.656 2.249 5.248
3.907 2.306 5.095
4.219 2.475 4.977
4.461 2.481 4.838
6.228 2.616 4.310
3.219 1.892 5.550
3.549 1.993 5.392
3.817 1.972 5.274
4.059 2.118 5.194
4.359 2.154 5.116
0.186 0.308 5.958
0.423 0.390 5.872
0.624 0.336 5.697
0.502 0.001 5.906
0.786 0.207 5.748
1.037 0.253 5.736
1.395 0.088 5.605
1.436 2.042 4.621
1.481 1.777 4.733
0.079 0.072 5.762
0.363 0.253 5.573
0.674 -0.020 5.590
0.834 1.756 4.682
1.060 1.913 4.508
1.408 1.938 4.369
1.265 1.649 4.650
1.415 1.670 4.568
1.629 1.469 4.664
0.332 0.069 5.310
0.428 1.536 4.531
0.665 1.723 4.383
1.047 1.696 4.313
1.225 1.805 4.228
0.890 1.359 4.532
1.100 1.486 4.308
1.344 1.592 4.287
1.207 1.196 4.394
1.474 1.382 4.326
1.674 1.090 4.398
1.575 0.627 4.190
0.413 1.414 4.333
0.618 1.600 4.078
0.974 1.564 4.016
1.108 1.787 3.845
0.775 1.242 4.209
0.964 1.388 4.084
1.224 1.463 3.937
1.094 1.063 4.169
1.418 1.144 4.152
1.281 0.871 4.354
1.566 0.947 4.147
1.695 0.636 4.185
1.331 0.485 4.056
1.546 0.519 3.963
1.651 0.341 4.058
0.530 1.378 3.880
0.815 1.495 3.693
1.125 1.632 3.617
0.702 1.214 3.914
0.898 1.317 3.802
1.172 1.272 3.706
1.136 1.024 3.984
1.300 1.108 3.808
1.125 0.661 4.079
1.407 0.867 3.966
1.368 0.464 4.185
1.527 0.487 4.013
1.148 0.384 3.920
1.485 0.396 3.704
1.394 0.066 4.023
1.561 0.157 3.829
0.785 1.443 3.543
0.933 1.528 3.320
0.804 1.072 3.564
1.174 1.220 3.468
0.996 0.886 3.622
1.273 0.952 3.543
1.124 0.610 3.814
1.352 0.650 3.649
1.267 0.271 3.882
1.479 0.451 3.708
1.096 0.188 3.621
1.328 0.299 3.499
1.443 -0.002 3.580
1.203 0.834 3.327
1.072 0.551 3.562
1.240 0.530 3.396
1.175 0.236 3.553
1.353 0.333 3.455
1.340 0.120 3.256
1.121 0.392 3.080
1.277 0.246 3.192
1.162 0.001 3.002
1.231 0.056 2.948
0.127 0.583 1.757
0.398 0.591 1.580
-0.011 0.128 1.918
0.340 0.206 1.804
0.132 0.373 1.407
0.382 0.411 1.259
0.168 0.069 1.597
0.250 0.389 1.064
0.160 0.055 1.225
1.298 1.147 6.173
1.417 0.993 6.270
1.714 1.012 6.092
1.872 0.788 6.156
2.176 0.619 6.174
2.600 0.414 6.092
2.686 0.054 6.237
0.947 1.304 6.173
1.400 1.184 6.209
0.440 0.817 6.345
0.749 0.948 6.161
0.972 0.909 6.047
0.844 0.618 6.226
1.046 0.657 6.200
1.378 0.844 5.951
1.192 0.477 6.219
1.432 0.486 6.160
1.810 0.616 5.909
1.614 0.272 6.126
1.832 0.426 5.998
2.139 0.456 5.899
1.668 0.049 6.343
2.059 0.162 6.181
2.318 0.226 6.083
2.544 0.278 5.929
0.505 0.763 6.325
0.751 0.958 6.095
1.004 0.971 6.071
0.394 0.753 6.030
0.306 0.340 6.222
0.485 0.497 6.162
0.767 0.451 5.936
1.064 0.547 5.802
0.655 0.144 6.270
0.848 0.246 6.001
1.169 0.372 5.908
1.446 0.343 5.840
1.333 0.115 6.034
1.483 0.111 5.957
1.759 0.249 5.824
2.106 -0.029 5.758
0.456 0.727 6.041
0.178 0.273 5.899
0.409 0.314 5.820
0.632 0.378 5.780
0.555 0.118 5.967
0.838 0.148 5.875
1.119 0.138 5.682
1.457 0.071 5.693
1.348 2.035 4.693
1.493 1.860 4.752
5.198 1.712 3.686
5.409 1.744 3.552
5.687 1.833 3.419
5.928 1.956 3.234
6.277 2.002 3.194
5.269 1.382 3.715
5.513 1.537 3.583
5.851 1.655 3.578
6.106 1.684 3.335
5.114 1.061 4.017
5.324 1.120 3.816
5.640 1.196 3.703
5.905 1.275 3.655
6.139 1.463 3.453
5.013 0.725 4.247
5.195 0.883 4.064
5.496 0.917 3.965
5.733 0.924 3.831
6.091 1.040 3.635
5.347 0.649 4.098
5.572 0.686 4.003
5.879 0.772 3.860
6.095 0.763 3.773
4.459 0.046 4.729
4.649 0.030 4.577
1.652 2.131 4.542
1.965 2.265 4.431
2.136 2.279 4.358
2.522 2.338 4.249
2.663 2.507 4.132
3.006 2.503 3.957
3.264 2.580 3.849
3.510 2.636 3.723
1.832 1.919 4.676
2.054 2.037 4.523
2.258 2.105 4.347
2.518 2.201 4.268
2.801 2.216 4.221
3.125 2.298 4.073
3.351 2.338 3.903
1.957 1.666 4.701
2.230 1.665 4.666
2.473 1.719 4.432
2.648 1.865 4.428
3.021 1.883 4.248
3.284 2.072 4.135
2.268 1.493 4.778
2.534 1.481 4.520
2.896 1.570 4.538
3.011 1.732 4.303
3.305 1.686 4.264
5.156 1.839 3.247
2.618 1.183 4.346
4.804 1.541 3.576
5.020 1.535 3.451
5.330 1.641 3.336
5.613 1.756 3.145
5.922 1.795 3.077
4.725 1.201 3.695
4.932 1.238 3.661
5.235 1.304 3.491
5.380 1.355 3.435
5.764 1.448 3.234
5.930 1.607 3.122
6.202 1.616 3.014
4.582 0.772 4.017
4.768 0.957 3.831
5.054 0.913 3.732
5.309 1.085 3.554
5.599 1.187 3.463
5.880 1.207 3.375
6.088 1.215 3.234
4.468 0.860 3.999
4.590 0.536 3.969
4.934 0.652 3.968
5.161 0.640 3.756
5.369 0.843 3.739
5.697 0.794 3.606
6.001 0.998 3.365
6.178 0.972 3.366
4.334 0.415 4.121
4.621 0.580 3.970
4.804 0.285 4.201
4.985 0.384 3.990
5.246 0.385 3.885
5.558 0.460 3.828
5.791 0.611 3.628
6.138 0.659 3.589
3.959 0.105 4.480
4.173 0.081 4.342
4.497 0.244 4.210
4.812 0.256 4.144
4.836 0.098 4.242
5.193 0.135 4.076
5.357 0.221 3.914
4.932 -0.028 4.225
1.575 1.983 4.359
1.892 2.166 4.167
2.073 2.117 4.063
2.345 2.226 3.983
2.730 2.378 3.798
1.728 1.807 4.440
1.919 1.799 4.339
2.240 1.983 4.179
2.548 2.036 4.027
2.840 2.136 3.926
3.077 2.085 3.746
1.846 1.525 4.421
2.106 1.538 4.395
2.311 1.743 4.244
2.600 1.733 4.169
2.914 1.782 3.929
1.958 1.313 4.541
2.272 1.278 4.487
2.538 1.452 4.317
2.744 1.483 4.195
2.949 1.548 4.119
5.259 1.860 3.193
2.527 1.103 4.427
4.927 1.697 3.126
5.075 1.841 2.928
5.341 1.804 2.835
1.951 0.807 4.395
2.178 0.918 4.319
2.456 1.086 4.159
4.429 1.232 3.424
4.793 1.411 3.308
5.010 1.489 3.186
5.295 1.573 2.958
5.457 1.650 2.897
5.810 1.742 2.821
4.555 1.000 3.498
4.842 1.044 3.337
5.077 1.232 3.224
5.357 1.331 3.102
5.572 1.298 3.073
5.858 1.463 2.845
4.394 0.651 3.720
4.636 0.798 3.504
4.977 0.854 3.507
5.298 1.000 3.390
5.427 0.984 3.205
5.691 1.011 3.030
5.940 1.214 2.930
4.422 0.641 3.734
4.570 0.492 3.819
4.792 0.578 3.716
5.147 0.564 3.519
5.285 0.616 3.479
5.594 0.750 3.343
5.889 0.803 3.120
4.320 0.402 3.882
4.480 0.492 3.854
4.674 0.201 3.944
4.991 0.220 3.696
5.253 0.255 3.674
5.447 0.338 3.527
5.679 0.534 3.378
4.069 -0.035 4.109
4.399 0.166 4.002
4.714 0.199 3.887
5.350 0.087 3.764
5.931 3.195 1.971
6.188 3.297 1.838
1.461 1.950 4.073
1.777 1.981 3.986
2.086 2.017 3.809
2.337 2.195 3.627
1.692 1.706 4.201
1.962 1.679 4.023
2.147 1.737 3.946
2.412 1.830 3.838
1.760 1.417 4.293
2.073 1.397 4.155
2.215 1.521 4.053
2.583 1.586 3.922
1.837 1.078 4.235
2.195 1.222 4.193
2.404 1.340 4.045
2.649 1.426 3.874
4.928 1.714 3.132
5.152 1.714 2.962
5.350 1.855 2.800
2.030 0.931 4.412
2.202 0.964 4.200
2.461 1.036 4.197
4.227 1.371 3.075
4.549 1.527 2.930
4.732 1.573 2.815
5.086 1.594 2.740
5.348 1.706 2.616
1.953 0.798 4.109
2.197 0.829 4.082
2.440 0.895 3.960
4.425 1.229 3.156
4.704 1.277 3.059
4.847 1.261 2.938
5.130 1.453 2.759
5.370 1.405 2.622
2.006 0.483 4.211
4.180 0.811 3.372
4.475 0.925 3.192
4.735 1.030 3.104
5.017 1.021 2.912
5.277 1.158 2.894
5.548 1.191 2.668
4.202 0.781 3.294
4.347 0.507 3.362
4.662 0.707 3.257
4.869 0.762 3.146
5.168 0.752 3.003
5.450 0.827 2.929
5.631 0.888 2.887
4.100 0.540 3.627
4.425 0.647 3.493
4.543 0.322 3.518
4.793 0.381 3.376
5.044 0.406 3.322
5.327 0.598 3.198
5.556 0.631 3.038
4.162 0.210 3.709
4.424 0.314 3.527
4.649 0.080 3.558
4.805 0.128 3.521
5.105 0.216 3.437
5.427 0.316 3.194
4.529 0.011 3.641
5.835 3.041 1.756
6.186 3.147 1.649
1.487 1.859 3.751
1.673 1.927 3.673
1.943 1.913 3.523
1.557 1.586 3.903
1.866 1.547 3.763
2.124 1.632 3.652
2.389 1.799 3.471
1.743 1.327 4.031
1.862 1.368 3.871
2.231 1.435 3.724
2.425 1.427 3.645
4.635 1.882 2.731
1.771 1.011 4.087
2.043 1.008 3.986
2.294 1.189 3.857
2.559 1.178 3.666
4.290 1.379 3.032
4.478 1.522 3.003
4.813 1.626 2.811
5.066 1.652 2.743
5.326 1.725 2.542
1.942 0.749 4.107
2.226 0.863 3.948
2.398 0.973 3.888
4.169 1.278 2.732
4.390 1.334 2.700
4.650 1.497 2.574
4.998 1.498 2.446
5.268 1.613 2.321
1.777 0.561 3.837
2.036 0.752 3.832
2.275 0.836 3.595
4.037 0.943 3.043
4.261 1.027 2.906
4.552 1.126 2.819
4.769 1.270 2.567
5.082 1.298 2.442
5.323 1.373 2.333
1.885 0.389 3.906
2.259 0.494 3.786
3.996 0.967 3.038
4.169 0.699 3.090
4.384 0.822 2.987
4.691 0.852 2.797
4.919 0.929 2.764
5.221 1.001 2.648
5.424 1.019 2.525
2.012 0.171 3.995
4.128 0.710 3.122
4.307 0.377 3.184
4.491 0.514 2.982
4.734 0.607 2.874
5.058 0.702 2.829
5.256 0.772 2.714
4.294 0.417 3.235
4.347 0.193 3.291
4.619 0.232 3.197
4.889 0.282 3.064
5.122 0.472 2.937
4.155 0.170 3.389
4.358 0.218 3.257
4.753 -0.070 3.208
4.968 0.108 3.173
6.141 3.003 1.420
1.361 1.615 3.556
1.591 1.699 3.469
6.217 2.712 1.377
1.458 1.351 3.541
1.742 1.520 3.470
1.974 1.556 3.422
1.536 1.117 3.730
1.859 1.157 3.610
2.058 1.359 3.462
4.110 1.564 2.777
4.293 1.668 2.616
4.548 1.730 2.458
4.861 1.830 2.284
1.672 0.956 3.724
2.018 0.935 3.651
2.183 1.050 3.484
4.245 1.357 2.848
4.387 1.371 2.628
4.724 1.439 2.522
4.914 1.504 2.444
5.276 1.592 2.269
1.820 0.613 3.851
2.070 0.710 3.743
2.389 0.840 3.692
4.131 1.121 2.530
4.395 1.251 2.343
4.559 1.326 2.232
4.888 1.474 2.188
5.201 1.471 2.067
1.776 0.458 3.675
1.950 0.535 3.564
2.283 0.586 3.408
4.170 0.859 2.573
4.442 1.053 2.444
4.733 1.065 2.384
5.015 1.144 2.227
5.325 1.196 2.150
1.831 0.264 3.687
2.174 0.343 3.555
2.443 0.395 3.487
4.048 0.559 2.804
4.337 0.643 2.753
4.563 0.718 2.551
4.814 0.760 2.509
5.185 0.955 2.308
2.279 0.044 3.713
4.059 0.515 2.800
4.167 0.299 2.903
4.474 0.359 2.769
4.697 0.423 2.660
4.989 0.623 2.497
4.233 0.384 2.957
4.245 0.069 2.976
4.556 0.158 2.957
4.794 0.244 2.737
4.299 0.107 3.075
6.266 2.964 0.905
1.305 1.612 3.322
3.757 1.971 2.238
4.061 2.109 2.195
4.263 2.113 1.957
1.409 1.223 3.398
1.616 1.424 3.251
3.887 1.696 2.293
4.081 1.752 2.254
4.447 1.789 2.059
4.715 1.974 1.917
1.463 1.075 3.510
1.827 1.033 3.383
2.087 1.175 3.135
4.023 1.377 2.490
4.266 1.595 2.389
4.462 1.578 2.187
4.713 1.615 2.150
1.601 0.705 3.516
1.898 0.782 3.431
2.165 0.884 3.242
4.074 1.251 2.529
4.371 1.312 2.436
4.572 1.391 2.286
4.927 1.484 2.142
5.105 1.457 2.104
1.773 0.553 3.571
2.053 0.646 3.523
2.238 0.724 3.413
4.060 1.122 2.217
4.309 1.099 2.211
4.570 1.164 1.998
4.784 1.270 1.921
5.126 1.309 1.728
1.709 0.411 3.410
1.976 0.382 3.234
2.131 0.463 3.109
4.172 0.838 2.341
4.343 0.806 2.203
4.732 0.945 2.047
4.881 1.044 2.063
1.718 0.151 3.491
2.033 0.255 3.398
2.340 0.338 3.211
4.273 0.470 2.390
4.449 0.601 2.256
4.705 0.754 2.133
2.336 0.009 3.329
3.239 2.036 2.041
3.587 2.103 1.927
3.827 2.210 1.739
4.102 2.218 1.705
3.298 2.065 1.985
3.440 1.775 2.090
3.662 1.844 1.948
3.945 1.969 1.879
4.155 1.996 1.786
4.488 2.031 1.605
3.453 1.832 2.147
3.479 1.576 2.205
3.786 1.516 2.156
4.046 1.583 1.984
4.299 1.807 1.811
4.559 1.775 1.720
1.392 0.932 3.121
1.664 0.910 3.005
3.474 1.441 2.206
3.696 1.188 2.304
3.961 1.315 2.122
4.103 1.403 2.077
4.394 1.407 2.005
4.669 1.587 1.868
4.932 1.561 1.657
1.586 0.685 3.346
1.786 0.700 3.077
2.029 0.768 3.097
3.599 1.176 2.234
4.040 1.112 2.312
4.300 1.096 2.129
4.569 1.250 2.071
4.815 1.321 1.954
5.072 1.290 1.800
1.642 0.382 3.391
1.954 0.499 3.286
2.187 0.485 3.128
3.906 0.872 1.977
4.149 1.046 1.831
4.441 1.085 1.768
4.674 1.156 1.640
5.008 1.288 1.471
1.537 0.209 3.046
1.842 0.321 3.006
2.146 0.419 2.931
4.324 0.725 1.950
4.521 0.848 1.898
4.885 0.918 1.670
1.986 0.015 2.998
2.223 0.064 2.974
3.223 1.929 1.774
3.468 1.910 1.649
3.705 2.061 1.586
4.034 2.155 1.381
4.325 2.223 1.348
2.961 1.761 1.909
3.238 1.847 1.852
3.325 1.648 1.842
3.660 1.775 1.764
3.863 1.778 1.677
4.051 1.822 1.530
4.419 1.908 1.440
4.564 1.956 1.322
3.328 1.703 1.918
3.396 1.438 1.933
3.759 1.405 1.805
4.040 1.540 1.694
4.161 1.647 1.579
4.526 1.691 1.522
4.704 1.833 1.413
3.445 1.307 2.022
3.808 1.145 1.855
4.010 1.278 1.838
4.389 1.320 1.755
4.614 1.354 1.568
4.944 1.480 1.437
1.388 0.533 3.083
1.779 0.635 2.899
3.943 0.961 1.990
4.237 1.021 1.878
4.450 1.023 1.793
4.754 1.149 1.624
4.917 1.202 1.494
1.615 0.279 3.081
1.825 0.390 2.932
2.059 0.405 2.931
4.052 0.825 1.639
4.326 0.958 1.523
4.665 1.085 1.381
4.911 1.138 1.218
1.499 0.058 2.772
1.775 0.199 2.777
1.973 0.295 2.643
2.166 0.058 2.614
2.417 0.127 2.576
6.345 0.094 1.280
3.141 1.786 1.583
3.388 1.918 1.425
3.723 1.898 1.309
3.901 1.952 1.204
4.103 2.141 1.041
4.392 2.201 0.908
2.603 1.700 1.705
2.903 1.739 1.705
3.197 1.735 1.531
3.235 1.459 1.681
3.562 1.540 1.443
3.772 1.651 1.332
4.008 1.811 1.229
4.301 1.852 1.133
4.543 1.940 1.006
2.990 1.390 1.699
3.222 1.529 1.546
3.359 1.241 1.729
3.613 1.407 1.574
3.864 1.353 1.427
4.189 1.428 1.399
4.447 1.608 1.194
4.648 1.650 1.071
4.966 1.776 0.947
3.366 1.246 1.691
3.694 1.080 1.643
3.996 1.152 1.485
4.240 1.290 1.414
4.533 1.267 1.334
4.780 1.444 1.216
4.123 0.900 1.698
4.303 0.906 1.577
4.613 1.068 1.412
4.969 1.183 1.339
1.487 0.059 2.802
1.737 0.217 2.781
2.003 0.345 2.630
4.302 0.807 1.254
4.566 0.844 1.099
1.652 0.055 2.511
1.932 0.140 2.295
3.005 1.730 1.207
3.287 1.702 1.090
3.543 1.850 1.077
3.786 1.896 0.847
4.111 1.902 0.778
4.369 2.013 0.633
4.566 2.096 0.532
2.837 1.542 1.376
3.047 1.611 1.336
3.216 1.420 1.358
3.440 1.480 1.268
3.659 1.582 1.110
4.015 1.552 1.050
4.221 1.669 0.925
4.515 1.751 0.747
4.665 1.837 0.570
3.129 1.463 1.320
3.481 1.214 1.300
3.732 1.324 1.143
4.060 1.403 1.057
4.258 1.423 0.993
4.580 1.493 0.863
4.795 1.591 0.649
3.857 1.013 1.234
4.141 1.108 1.112
4.414 1.247 1.056
4.647 1.278 0.874
5.010 1.279 0.853
4.241 0.766 1.319
4.578 0.984 1.061
1.687 0.062 2.414
1.980 0.138 2.314
2.921 1.595 0.998
3.189 1.666 0.836
3.545 1.664 0.711
3.748 1.693 0.696
3.988 1.903 0.559
4.305 1.924 0.385
4.552 2.057 0.266
4.750 2.037 0.169
5.127 2.209 0.058
2.947 1.475 0.937
3.410 1.402 1.004
3.638 1.426 0.795
3.822 1.435 0.667
4.104 1.517 0.537
4.458 1.649 0.554
4.639 1.662 0.305
4.843 1.836 0.201
5.163 1.883 0.085
3.776 1.161 0.868
3.971 1.253 0.859
4.176 1.240 0.693
4.457 1.421 0.503
4.779 1.400 0.462
4.996 1.538 0.309
4.120 0.902 0.955
4.360 1.097 0.779
4.651 1.144 0.619
4.879 1.206 0.492
5.071 1.224 0.452
3.674 1.576 0.384
3.926 1.770 0.295
4.128 1.858 0.144
4.526 1.883 -0.003
3.785 1.382 0.537
4.044 1.384 0.388
4.273 1.557 0.203
4.573 1.550 0.033
3.944 1.100 0.593
4.087 1.181 0.469
4.436 1.235 0.264
4.680 1.343 0.261
4.884 1.486 0.111
4.342 0.887 0.495
4.551 1.019 0.455
4.817 1.090 0.248
5.058 1.166 0.233
5.277 1.259 0.079
4.843 0.721 0.159
2.394 0.008 1.180
3.974 1.362 0.051
4.041 1.139 0.216
4.351 1.207 0.087
4.427 0.837 0.109
4.788 0.883 0.074
4.907 0.648 0.049
2.395 0.020 1.169
2.155 0.007 0.589
2.386 0.134 0.464
