27.032154 103.80494 57.48527
25.654154 105.491936 56.897274
21.263155 102.44193 45.906273
19.382154 103.577934 45.132275
41.627155 131.77893 0.9502716
41.826153 131.86794 61.078274
45.627155 1.8799438 53.833275
46.055157 0.9619446 52.266273
27.346155 113.521935 12.899271
24.794155 113.19894 12.513271
28.214155 111.52994 10.825272
30.418156 112.032936 10.163271
45.929153 124.311935 -0.3447287
43.267155 123.26293 -0.51972866
38.538155 120.61193 8.371271
37.811153 118.41493 8.6032715
32.792152 44.993942 20.321272
32.976154 43.549942 22.28527
30.880156 41.000946 31.543272
32.525154 41.781937 30.63327
15.807155 16.263947 -1.4387286
17.654154 15.232941 -2.0647285
18.396154 12.453934 9.538271
17.845154 10.749939 10.809271
36.212154 32.77794 28.506271
33.549152 33.949936 28.194271
31.100155 35.824936 40.191273
29.881155 37.35594 40.004272
21.887154 17.628937 23.07427
20.236155 16.188934 24.402271
20.472155 15.090942 32.11127
19.484154 16.157944 33.858273
2.9081573 73.07094 51.04127
4.381157 74.74794 51.516273
15.612156 76.96893 53.169273
16.891155 75.13994 53.55527
45.384155 37.12294 18.519272
47.112156 35.641937 19.37227
49.323154 35.802933 29.39727
47.746155 33.886948 30.25827
37.369152 38.93094 57.445274
38.296154 38.825943 54.987274
42.349155 46.793945 49.774273
44.727154 46.712936 49.863274
42.355152 104.132935 8.507272
42.889153 102.80494 10.261271
39.317154 95.95894 10.732271
38.600155 94.242935 11.479271
13.752154 80.41293 4.4512734
13.981154 79.92994 2.5132697
18.042154 75.48994 58.397274
18.693155 75.30594 55.970272
47.957153 77.92693 52.37427
48.026154 79.97094 52.247272
3.718155 84.68094 54.392273
5.643158 85.03793 53.681274
8.917156 109.09293 4.0812707
8.330158 106.786934 2.6922705
6.0621567 105.35693 3.6002715
6.669155 103.54394 4.8952737
5.879158 124.882935 10.847271
7.469158 126.12894 11.638271
10.768158 132.23393 19.281271
12.405155 132.61394 21.279272
3.2761574 128.49693 40.753273
1.7271576 126.92693 39.741272
45.374153 131.57494 32.10327
46.745155 131.59494 30.04527
5.888157 0.020935059 54.731274
4.193157 133.29395 56.24927
6.001156 9.417938 0.21727371
7.7171555 10.855942 0.2302742
3.7151566 80.34494 50.833275
5.619156 80.57394 51.969273
3.3561554 70.30394 54.779274
3.1781578 68.94794 56.037273
26.555155 34.050934 41.01327
28.579155 33.940933 42.025272
30.888155 24.446945 45.363274
32.446156 25.586945 44.310272
31.232155 45.34494 0.06727219
33.288155 45.626938 61.897274
27.085154 42.697937 55.084274
26.258154 43.530945 53.62427
49.658154 103.04294 40.496273
1.0091553 103.686935 38.50627
9.781155 108.97494 37.210274
7.919155 110.60994 37.551273
11.041155 83.52493 27.06727
11.833155 84.38493 25.318272
18.557156 91.53094 22.832272
17.070154 91.24593 24.423271
2.9841576 125.75093 36.746273
2.5451546 125.05293 34.690273
43.370155 120.408936 31.56727
40.870155 121.71893 31.286272
47.874153 92.10893 11.616271
47.395153 91.25394 9.074271
44.167152 94.36394 -0.9927287
42.297153 94.784935 -1.3407285
41.657154 73.716934 18.24427
42.965153 72.16293 17.13227
34.851154 63.774937 11.821271
36.493153 62.744938 10.417271
35.858154 16.545944 10.386271
36.153152 18.809937 10.618271
29.661154 17.559937 20.012272
28.817154 18.995941 21.85527
14.326155 72.17994 6.539272
15.954155 70.88694 5.9022713
14.958155 77.62494 1.2912714
14.252154 78.130936 -0.51872873
34.719154 127.311935 35.307274
35.670155 126.71993 32.87627
24.479155 127.11494 29.95527
26.024155 126.299934 28.96927
16.185154 26.567947 1.2402714
15.519155 27.17694 3.1922715
16.678154 36.308945 0.7192714
16.287155 38.628937 0.8662714
42.915154 128.08493 31.669271
40.854153 127.40293 33.267273
45.102154 124.18993 43.551273
47.009155 123.14993 43.53327
17.684155 91.94293 27.210272
19.069155 90.21094 26.652271
20.898155 91.05694 24.05327
21.711155 90.81793 22.072271
5.678158 118.34593 6.7992716
7.7591553 119.022934 7.7842717
7.0141563 118.44393 18.811272
6.666157 121.019936 19.781271
23.986155 126.70793 23.88227
23.990154 124.33093 24.503271
23.366154 119.59393 29.180271
23.562155 117.41593 29.547272
29.311155 71.74894 0.8752713
27.598154 72.21893 2.8702714
22.698154 77.964935 10.339272
22.758154 77.83094 12.722271
9.723156 103.75394 25.255272
8.362156 105.95393 25.98327
46.796154 106.381935 20.92427
45.147156 104.72694 21.711271
46.539154 133.25894 49.771275
47.091156 131.08493 50.095272
45.314156 122.35194 45.831272
46.705154 121.14194 45.362274
10.727155 10.465942 59.359272
12.694155 8.907944 60.54827
21.810154 14.871933 57.24927
23.268154 15.815933 55.78327
13.208157 89.62894 61.912273
11.984158 90.91894 1.5532722
4.4791565 95.76694 56.878273
6.0261574 96.492935 55.301273
29.896154 103.006935 41.819275
31.898155 103.62394 41.456272
33.721153 103.34994 53.39427
33.819153 105.19594 52.781273
15.643154 33.960938 50.940273
17.889154 33.705933 50.883274
23.801155 41.319946 48.404274
24.957155 42.893936 49.98527
18.027155 54.18094 28.94127
17.085155 52.316936 27.52227
10.858154 50.71594 26.33827
10.832154 48.508938 25.565271
44.661156 47.364944 19.61927
42.780155 47.84195 20.35127
41.240154 51.934933 28.845272
40.283154 52.385937 26.359272
35.363155 31.500946 41.86727
34.062153 31.01294 40.018272
37.625153 39.672943 35.483273
38.975155 40.561935 34.757275
3.143158 43.813934 19.41327
4.8701553 42.586945 20.45927
2.9631577 35.215942 30.07427
3.5991554 35.679947 31.92027
10.1231575 84.52794 60.678272
11.374157 85.58394 59.356274
11.785156 82.619934 51.030273
10.156155 84.19293 49.68627
31.665155 57.183937 26.569271
32.723152 58.718937 27.888271
34.918156 60.371937 31.381271
36.308155 59.606937 33.01927
31.453156 39.216934 41.414272
29.039154 39.753937 40.889275
22.459154 33.649933 45.52027
21.249155 33.595947 43.862274
8.254158 61.80594 58.342274
8.050156 63.54994 56.920273
14.896156 58.808937 51.890274
16.914158 58.08994 51.926273
45.399155 132.45993 26.017271
47.424156 131.29893 25.884272
7.8171577 129.34294 21.74427
9.367157 128.07494 22.74727
20.493155 60.21494 0.30127132
20.427155 60.90994 2.4122715
28.597155 61.566936 6.3732715
29.526154 63.151936 7.8542714
29.021154 60.943935 49.842274
28.708155 62.398937 48.003273
31.352156 70.437935 58.593273
31.343155 72.07294 57.675274
9.4531555 6.5379333 42.592274
10.3281555 6.072937 44.866272
2.865158 128.76193 44.93627
4.063156 127.368935 43.271275
39.015156 85.96194 23.870272
41.467155 86.925934 24.48027
48.971153 84.88794 13.814271
47.931156 82.89094 13.142271
25.040154 16.31894 21.426271
27.211155 16.57994 21.117271
29.385155 23.490936 15.428271
30.275154 24.811935 14.073271
43.758156 31.210938 36.810272
45.447155 33.106934 36.093273
44.169155 43.532944 36.286274
45.959156 44.261948 35.67927
49.273155 93.549934 30.370272
0.14015579 91.633934 31.409271
9.394157 92.26294 36.904274
10.662155 92.46893 34.747272
4.3121567 16.517944 33.52027
6.586155 15.875946 33.620274
5.1581573 20.828934 43.939274
6.466156 20.127945 45.713272
28.700155 70.562935 22.047272
28.132154 69.325935 20.222271
33.052155 73.29494 9.910272
33.579155 72.62894 8.262271
25.855154 47.460938 4.2422714
25.217154 47.10594 2.3602715
18.667154 37.323944 2.4562714
18.439156 35.386948 2.9372714
29.658154 85.435936 34.29127
28.233154 84.97594 32.509274
24.984154 95.408936 36.598274
26.726154 96.71194 36.31127
37.910152 52.962936 27.34127
36.980152 50.99394 28.307272
26.371155 53.390938 23.142271
27.462154 53.404938 21.092272
36.026154 114.60194 7.7532716
36.000153 113.729935 9.485271
46.232155 116.41894 7.5912714
48.529156 115.52493 6.8562717
31.467155 106.741936 22.27127
32.289154 107.87293 23.561272
30.935154 101.383934 33.767273
32.654156 99.90494 34.501274
21.378155 5.350937 20.45527
23.130154 4.6609344 21.46627
25.741154 3.6899414 33.078274
23.347155 3.8359375 34.385273
28.874155 101.14194 40.323273
31.094154 100.79294 39.279274
34.480152 96.632935 47.095272
35.016155 98.575935 48.340275
7.3261566 52.381935 45.405273
9.199158 52.261936 46.28327
15.023155 51.03594 54.376274
15.714157 53.506935 53.620274
4.7431564 48.99394 7.7682714
6.9291573 49.92494 8.123271
14.406155 54.647938 0.020271434
13.551155 56.589935 0.057271373
16.831154 97.48494 7.7392716
16.270155 99.32394 8.896272
24.373154 93.15093 13.546271
22.659155 92.39993 14.558271
38.090153 58.35494 28.03927
38.088154 60.24994 26.16027
34.580154 69.81593 25.31727
33.177155 69.227936 23.58427
22.299154 54.25094 30.53827
20.849155 54.901936 29.741272
23.533154 65.72594 33.656273
21.320154 67.04294 33.099274
49.336155 88.02393 8.801271
49.082153 90.17693 7.3072715
8.072155 84.966934 1.1992714
10.520157 85.44794 1.1162714
42.385155 14.072937 41.049274
42.424152 15.834946 42.348274
39.933155 22.45494 33.87427
38.252155 21.55394 35.320274
24.179155 81.021935 2.1702714
22.418154 81.82294 0.77627134
14.759154 83.605934 9.834271
13.630155 84.82194 8.358272
17.505154 15.135941 42.343273
19.190155 14.725937 44.815273
22.214155 17.630936 35.771275
20.651155 15.848938 36.192272
13.352155 47.836945 25.28927
14.413155 45.697937 24.697271
17.518154 43.977936 36.241272
18.756155 42.259933 35.622272
3.1091576 99.81894 1.4682714
1.4061546 99.83193 1.0602714
48.027153 109.60194 1.6072714
48.293156 111.63493 1.6032714
27.689154 87.86394 38.327274
26.316154 88.69594 39.883274
24.450155 99.32993 39.609272
25.130154 100.87894 41.125275
6.155155 29.439941 32.871273
7.7971573 30.952942 32.247272
12.003155 27.754944 22.09827
14.117157 28.92894 21.537271
38.814156 29.30394 43.324272
37.538155 31.059937 43.650272
35.541153 42.271942 45.255272
37.263153 42.529938 43.390274
17.623158 65.55494 3.5872715
17.758156 65.58494 5.8832717
7.1021576 59.920937 6.6922717
5.2341576 61.328938 6.8862715
43.382153 95.82294 23.50027
45.244152 94.92994 23.09127
2.5301552 94.172935 19.86227
4.136158 94.354935 19.436272
41.089153 70.117935 32.32627
41.322155 67.910934 33.35527
49.310154 59.414936 33.70027
49.282154 60.59094 31.83427
38.345154 30.089935 30.919271
39.058155 32.30594 30.00827
44.701153 33.531937 19.819271
46.898155 33.11194 19.656271
29.038155 100.25993 21.35127
28.454155 100.86194 19.583271
28.960154 95.702934 8.899271
26.311155 94.63593 9.622272
5.371155 22.670944 46.903275
5.3521576 24.472946 47.722275
4.6271553 27.648941 54.058273
6.0091553 29.27594 55.176273
30.152155 35.782944 5.9942713
29.490154 33.373947 7.2722716
26.131155 42.308945 12.029271
25.086155 43.892944 9.748271
39.395153 125.188934 12.849271
41.061153 125.383934 11.420271
42.094154 128.93594 0.23027135
43.609154 127.76794 -1.0857286
1.3641548 69.74794 42.199272
2.8951569 69.35094 40.873272
6.1251564 78.62294 34.884274
6.622158 80.82993 35.51327
49.448154 126.99094 45.008274
0.7691574 127.02993 42.587273
48.229156 116.45793 37.488274
0.29115677 116.744934 35.74227
24.851154 105.42094 20.31627
27.376154 105.98393 21.148272
26.247154 114.65093 26.33827
26.598154 116.367935 27.54227
25.076155 91.80594 19.700272
26.437155 90.06593 19.110271
25.727154 80.23794 24.80227
25.240154 80.94394 26.732271
25.367155 78.65194 46.896275
27.491154 79.34293 46.911274
32.987152 81.33694 36.51927
34.683155 79.18993 35.879272
9.761158 8.369934 45.840275
8.589157 8.886948 44.078274
1.5241547 17.098938 48.223274
1.0011559 17.88794 50.170273
14.1841545 43.283936 -2.2017286
15.284155 41.935944 -0.32372856
11.482155 46.692947 6.7062716
11.727155 47.98494 8.868272
49.530155 3.922943 19.642271
49.530155 3.0129395 21.544271
3.3381577 126.674934 23.82727
2.1731567 127.895935 24.957272
5.9271545 33.91594 8.493272
6.7671547 36.450943 7.3272715
5.5351562 26.966934 6.5972714
3.6981583 27.843933 5.1332717
28.855154 10.309937 8.665272
28.857155 9.975937 6.6752715
35.200153 5.6649475 8.306272
37.442154 6.0179443 8.593271
11.919154 4.943939 43.191273
12.041155 5.7059326 41.062275
16.154154 15.364944 46.045273
15.925155 17.20694 47.86027
10.499157 105.13994 55.636272
8.208157 105.32394 54.775272
0.78915787 105.51193 51.467274
49.510155 107.23794 50.585274
12.329155 130.48193 32.060272
12.9601555 128.33994 31.571272
9.050156 122.31893 21.87627
7.678158 121.13993 23.48027
34.124153 68.395935 35.794273
35.788155 66.424934 35.15927
30.134155 56.346935 35.12427
32.104153 54.309937 34.736275
31.080154 102.28993 36.597275
29.482155 102.994934 38.132275
27.768154 99.757935 27.92027
28.744154 100.87694 26.31327
27.246155 19.451935 43.835274
24.975155 19.621933 43.912273
22.441154 12.779938 52.966274
21.511154 12.850937 51.13727
34.055153 17.811935 3.4932714
35.461155 18.170944 4.6352715
46.457153 16.462936 6.237272
47.609154 18.533936 7.8072715
48.685154 101.20794 37.61027
0.8771553 101.174934 36.664272
3.7001572 106.91894 29.193272
2.6451569 107.647934 30.58727
44.987152 76.49593 7.4572716
43.544155 75.41894 5.9682713
46.345154 68.672935 14.876271
47.468155 71.353935 14.489271
26.606153 56.899937 6.176272
25.132154 56.787937 4.81827
23.673155 65.47594 59.607273
21.344154 64.256935 58.448273
47.909157 78.30894 11.069271
49.591156 78.49994 12.708271
44.372154 71.800934 19.451271
42.623154 72.52694 20.767271
17.623154 3.8919373 8.702271
17.398155 3.7439423 6.3962717
14.050155 127.98593 10.035271
14.221154 126.08093 9.403272
0.49915695 26.908936 -1.8967285
2.4881554 26.517944 -1.2547286
11.157158 23.037933 5.5202713
9.886158 20.990936 6.348272
11.381157 130.60794 6.974272
10.178158 131.66194 8.755271
16.189156 0.90093994 18.543272
18.369156 133.05894 18.655272
35.720154 19.271942 55.643272
35.051155 19.680939 53.528275
33.980152 11.098938 45.275272
34.134155 9.045944 45.33927
39.100155 84.57993 34.79127
38.272156 85.24593 33.184273
37.903152 92.160934 39.49927
39.750153 92.83794 39.273273
1.4561577 67.743935 35.615273
2.2481575 66.22394 36.72827
47.410156 56.12594 37.821274
45.342155 57.16694 39.088272
0.23315811 67.228935 41.824272
48.646156 66.838936 44.303272
43.844154 59.952938 44.924274
43.731155 58.325935 46.13127
45.528152 24.300934 52.15127
47.853153 25.435944 53.288273
48.671154 35.011948 49.056274
1.2411575 33.56494 50.621273
24.980154 127.51794 57.523273
22.972155 128.74693 57.552273
20.682156 0.7089386 54.044273
18.733154 132.83694 54.188274
1.5151558 84.05393 27.54227
1.9301567 86.20794 28.717272
41.701153 82.50394 32.358273
40.280155 83.58093 32.379272
17.802155 22.020935 60.363274
16.448158 22.124939 0.15727234
8.320156 27.212936 53.975273
7.344158 24.776947 54.83927
0.62215805 104.44594 11.817271
49.191154 102.62193 10.187271
4.702156 98.69794 4.3292713
6.6921577 99.324936 4.8302717
46.167156 118.53094 9.567271
48.042156 118.033936 8.631271
1.9331551 128.47794 6.7582717
1.2571564 129.78494 5.6162715
27.796154 132.52594 62.049274
29.421154 0.77293396 61.761272
30.022156 3.3939362 50.498272
28.336155 1.6999359 50.807274
47.390156 22.690933 54.056274
46.283154 24.30194 56.259274
46.705154 14.714935 0.2662735
47.458157 12.468933 0.77527237
28.647154 76.979935 3.9122717
28.330154 77.00394 1.4172745
23.570154 68.11294 61.252274
21.911154 67.03194 60.441273
2.1561546 57.00094 -0.34372854
3.9601555 56.943935 0.8792714
49.584156 66.396935 0.72827137
48.483154 65.79294 2.8022714
28.094154 123.173935 22.814272
25.853155 123.727936 22.763271
32.659153 128.45193 18.249271
33.075153 126.74893 16.543272
26.733154 9.37294 14.969271
26.893154 11.355942 13.745271
22.208155 9.324936 8.238272
23.437155 8.618942 6.5552716
12.167154 25.918945 13.364271
12.608154 27.754944 12.148272
23.122154 28.489944 15.374271
23.788155 26.196945 16.972271
32.290154 29.651947 0.088272095
34.455154 30.382935 0.7002716
43.079155 26.104935 1.0302734
43.723152 24.125946 0.27727127
28.116154 90.25094 12.107271
26.556154 90.44293 10.392271
21.732155 79.94594 8.605271
20.062155 79.43993 9.969272
1.9371567 0.2319336 15.6292715
3.2961578 1.9439392 14.509271
6.996155 8.294937 11.373271
6.042156 9.903946 12.848271
12.841156 126.51393 33.503273
11.590157 125.258934 34.691273
3.7691574 131.25494 37.168274
4.9011574 130.27594 39.21427
20.724155 28.766937 56.382275
20.901155 28.508942 53.88127
16.491154 19.527939 45.883274
18.215155 18.651947 44.72827
14.413155 109.40594 5.8452706
13.081155 109.825935 3.6702712
22.240154 105.87193 58.573273
22.561155 106.673935 56.204273
14.082154 59.658936 39.779274
14.867155 59.324936 37.219273
25.154154 54.39594 35.986275
25.197155 52.884937 37.344273
18.376154 106.26294 20.769272
18.868155 105.13593 22.42827
10.769155 97.29494 16.004272
11.695154 96.27393 17.88227
37.791153 56.850937 21.800272
35.629154 57.789936 20.096272
28.321154 56.156937 23.93127
26.012154 55.935936 22.93827
2.593155 41.994934 31.17827
3.2171555 42.405945 28.874271
9.707157 38.423935 22.314272
7.4081573 38.47194 21.35527
38.954155 130.87593 40.931274
38.092155 132.35693 38.500275
30.351154 7.52594 36.598274
32.439156 7.0619354 35.482273
48.783154 65.89094 47.698273
47.563156 64.410934 49.177273
41.150154 65.16694 58.45027
39.741154 66.411934 59.382275
11.555155 47.44394 47.209274
12.083155 45.756943 46.983273
15.611155 42.126938 39.327274
15.223155 43.63994 37.927273
17.908157 88.51694 36.105274
16.492157 88.866936 37.032272
7.9111557 87.66293 31.394272
7.2521553 88.925934 29.335272
38.990154 76.18993 5.6772714
41.174152 76.855934 6.2292714
40.829155 79.27894 17.149271
40.533154 77.994934 18.76427
33.749153 64.30794 55.40127
33.330154 62.484936 56.309273
32.596153 69.53793 4.3782754
33.714153 70.26794 2.236273
30.060154 18.974945 62.067272
28.914154 21.041946 0.71227264
18.714155 19.858948 55.949272
16.326155 19.555939 56.265274
38.307156 126.83594 29.819271
36.165154 127.532936 28.92127
45.582153 0.26194763 22.925272
46.253155 131.86093 23.582272
11.074155 106.97394 40.878273
11.237155 104.214935 41.109272
15.070154 97.338936 48.04727
16.309155 97.11494 50.063274
20.476154 44.84794 60.26327
20.657154 47.304935 60.595272
16.391155 57.156937 59.095272
14.366155 57.106937 59.389275
41.270153 59.505936 46.759274
39.851154 58.63294 48.600273
34.880154 53.659935 51.698273
33.428154 52.282936 50.90127
47.826157 53.800938 60.764275
0.1251564 54.592937 61.819275
48.942154 45.964935 57.36027
49.000156 45.200935 59.156273
42.055153 28.405945 -0.019728648
42.241154 28.614944 2.4892714
30.863155 33.237946 2.5142715
30.918156 32.71794 0.2132714
31.981155 116.102936 21.863272
33.227154 116.90293 23.66027
36.674152 115.53993 33.93127
38.188152 115.70793 32.52127
17.960155 31.910934 5.3502717
16.901155 32.55394 7.2072716
17.537155 44.825943 9.5632715
18.699154 44.890945 11.682271
29.248154 85.70393 36.701275
28.576155 83.66393 36.156273
28.219154 72.76394 39.126274
27.764154 72.30494 40.91627
25.229155 82.368935 55.469273
26.884155 81.65494 56.966274
37.388153 74.98394 56.178272
36.535152 73.10793 56.386272
29.429155 115.04293 5.9322686
28.089155 112.80393 5.5462747
31.478155 107.68294 57.104275
32.565155 108.82294 55.314274
14.530155 30.874939 10.443271
13.3541565 31.541946 8.402271
5.900158 21.94394 8.140271
5.5971565 23.209946 6.5882716
9.125156 115.44093 60.460274
9.240158 113.46893 59.761272
12.195156 112.13894 55.736275
12.647156 114.28194 54.476273
43.265156 118.73994 9.634272
43.316154 117.85993 11.920271
40.350155 115.02893 18.825272
40.467155 117.23994 19.760271
48.786156 113.79394 45.168274
0.7251549 114.56793 43.27727
46.535156 110.12093 32.11027
47.870155 109.909935 30.422272
26.923155 42.063934 30.91727
25.987154 43.345947 32.73527
22.268154 32.852936 35.866272
23.435154 31.108948 35.44327
40.986153 9.698944 40.873272
42.625153 10.601944 39.802273
38.156155 8.7109375 29.981272
38.773155 9.4639435 28.371271
33.321156 116.47494 5.6692715
35.222153 114.799934 5.1802716
37.795155 113.26193 0.6272714
36.963154 112.91493 -1.3347287
27.795155 55.551937 36.726273
29.761154 55.365936 37.821274
27.927155 64.43494 45.19327
25.994154 65.09394 44.465275
2.6091576 58.613937 59.774273
3.888157 59.220936 58.069275
0.03515625 65.436935 50.49227
0.52915573 65.772934 52.545273
31.510155 32.404938 16.56627
32.207153 34.70494 16.714272
27.559155 28.241943 22.533272
25.802155 29.549942 21.378271
37.185154 53.588936 58.327274
37.788155 53.912937 56.03427
46.777153 55.10494 50.41627
46.764156 54.448936 48.802273
38.164154 114.727936 36.813274
40.237152 113.33694 37.12427
35.843155 118.27693 46.649273
37.178154 117.46993 48.661274
11.440155 123.48393 10.789271
12.737156 125.34793 11.434271
17.891155 127.34893 16.28527
17.352158 125.31993 16.27127
18.321156 30.376938 55.87427
17.179155 28.925934 54.90927
15.935155 38.845947 59.72827
13.313154 38.572937 60.053272
18.339155 108.48494 19.11927
20.527155 107.671936 18.121271
16.903154 110.477936 7.816272
15.457154 112.04294 8.069271
49.047153 21.674942 46.51927
1.0281563 22.973938 47.977272
4.9481583 16.197937 52.206272
5.7311554 16.388947 54.574272
40.645153 116.311935 33.88227
39.553154 118.67993 34.747272
47.892155 117.175934 43.52627
49.605156 117.785934 43.620274
9.830158 18.17694 6.7992716
8.446156 19.411942 8.062271
14.840157 20.865936 16.33727
15.480156 22.327942 18.114271
8.853157 84.92793 57.960274
8.466156 87.06693 57.212273
11.856155 96.14194 52.187275
11.607155 97.73794 54.368275
24.773155 22.578934 26.367271
23.023155 22.746933 27.752272
24.870155 26.937943 19.262272
26.985155 27.236938 18.592272
35.992153 97.006935 36.84627
36.629154 97.79094 34.898273
39.460155 98.464935 23.970272
38.003155 97.908936 22.168272
46.303154 39.073944 7.5892715
44.889153 39.850937 8.510271
38.744152 36.034943 15.6952715
36.513153 36.51294 15.177271
27.955154 12.66394 24.27827
25.913155 13.287933 23.017271
31.090155 15.107941 13.864271
33.171154 14.966934 13.683271
36.286156 52.407936 34.994274
37.622154 52.553936 36.602272
41.538155 51.00794 45.779274
42.507153 52.002937 47.514275
29.263155 52.83894 52.569275
29.091154 51.148937 52.078274
34.008156 44.78595 44.570274
36.558155 45.86194 44.537273
43.623154 58.20194 21.870272
44.778152 60.074936 21.558271
35.003155 64.97194 22.96327
35.412155 67.31593 22.524271
12.363155 76.33794 32.636272
11.355156 77.86594 31.510271
0.15815735 73.00294 29.472271
1.1591568 71.22494 28.232271
22.237154 118.41894 6.2592716
21.875154 119.119934 8.722271
14.223155 113.63593 5.9112716
12.589154 115.12994 4.2502713
35.219154 42.991943 41.31827
34.503155 45.48694 41.53427
36.585155 40.62494 32.967274
35.365154 39.15094 31.665272
6.2551575 12.439941 51.357273
6.397156 10.909943 51.793274
45.423153 4.669937 54.877274
44.557156 4.4909363 56.433273
28.734154 133.30194 21.468271
27.554155 2.02594 21.086271
31.799154 131.11794 11.890271
30.823154 129.38194 12.707272
16.977154 39.600937 27.975271
19.489155 39.001938 29.54927
17.010155 50.188946 30.03827
18.234154 51.773937 29.95927
41.892155 73.24094 29.11527
42.467155 72.16293 31.078272
40.574154 82.25993 37.333275
41.575153 83.86094 36.128273
45.541153 34.20494 17.421272
47.312157 33.017944 17.054272
49.270153 39.550934 7.5842714
1.4431572 39.347946 5.6922717
33.030155 102.14094 57.092274
31.100155 104.133934 58.063274
34.586155 113.28094 61.932274
34.250153 114.80693 1.3892746
31.585155 17.855942 5.1172714
30.052155 17.96994 6.3082714
20.487154 22.634933 -0.3197286
19.242155 23.907944 0.92727137
14.808155 54.857937 38.782272
14.117157 52.79394 38.827274
8.970158 44.802948 39.03427
7.716156 44.33394 37.358273
4.475155 132.85994 48.44327
4.6791573 1.296936 49.09627
46.046154 6.049942 51.55427
46.430157 4.1099396 52.47827
27.846155 82.72294 28.77527
26.524155 80.92094 29.134272
30.187155 70.060936 32.761272
31.902155 68.46893 31.61827
47.394154 89.480934 5.2622714
48.593155 90.88894 3.4282715
48.762154 99.15594 -0.11372851
0.9091568 98.58193 -1.4657285
48.418156 59.109936 21.943272
47.219154 60.91694 22.562271
3.5881577 66.938934 16.147272
2.775158 67.98994 18.034271
0.3351555 85.21094 40.474274
1.9161568 83.80794 40.68627
4.952156 84.66994 32.557274
6.570156 85.076935 30.86127
18.083155 90.80293 56.635273
19.437155 89.53194 55.52727
21.936155 81.20694 56.211273
24.349154 79.62594 56.007275
14.261154 45.989937 10.431272
15.911155 47.45894 11.172271
19.733154 49.853935 16.704271
20.114155 51.564938 18.051271
15.086155 69.62594 14.406271
15.507154 71.15594 16.03527
26.295155 73.10094 22.284271
27.394154 74.63694 20.930271
36.687153 42.571945 0.5372714
36.565155 40.371933 0.8012713
34.280155 34.65294 8.867271
33.366154 36.782944 8.981272
44.483154 102.00494 21.13927
45.442154 102.96793 19.620272
39.612152 102.44694 9.434272
38.921154 101.40394 7.8542714
32.436153 18.843933 60.438274
34.415154 19.083939 61.347275
44.157154 21.826935 60.755272
46.164154 21.92894 61.913273
23.470154 52.47994 21.675272
25.411154 51.824936 20.262272
17.341154 59.905937 15.672271
18.833155 61.62594 14.265271
33.475155 107.12794 37.071274
32.810154 105.618935 39.011272
35.650154 109.143936 49.81827
34.928154 110.04094 47.231274
0.6631546 45.924942 32.02827
1.5451546 44.85794 29.98027
4.277157 48.366943 20.711271
2.1521568 47.52394 21.62227
18.665155 65.90094 58.96427
19.115154 67.964935 60.20727
11.659155 73.36394 2.106272
13.148154 73.449936 4.311274
35.396152 52.253933 31.87527
34.258156 52.72494 33.13727
24.477154 47.39595 29.117271
23.467154 45.52295 28.044271
20.217155 51.830936 41.74227
20.300154 54.087936 40.468273
16.636154 63.37594 47.14527
16.699154 62.47994 48.998272
48.144154 39.970947 19.161272
47.884155 38.826935 17.078272
3.9691582 42.850937 7.783272
2.190155 43.95694 8.046271
31.372154 71.60094 24.37527
33.448154 72.05694 26.33727
36.106155 82.11294 28.356272
33.955154 82.73694 28.739271
7.9951553 66.51794 43.201275
8.299156 67.02894 45.002274
11.925156 59.231937 52.223274
9.442158 57.70194 52.511272
47.145153 77.02594 3.4252715
47.822155 75.19794 5.0642715
4.561157 70.772934 8.970271
6.8961563 70.87494 8.551271
10.307156 94.95493 15.073271
10.907158 93.65594 13.211271
14.415157 83.327934 17.616272
13.502155 82.617935 20.040272
15.386154 130.49893 29.127272
17.128155 130.96594 30.19127
22.190155 132.34393 36.036274
23.963154 132.73994 37.37427
43.124153 101.10994 47.015274
43.173153 98.838936 47.583275
39.988155 91.52794 55.129272
39.520153 91.256935 57.113274
31.099155 0.5639343 3.4092715
32.399155 1.1599426 5.2882714
35.145153 8.795944 11.791271
35.915154 10.885941 10.300271
48.430157 69.60793 48.571274
49.093155 71.36494 47.245274
43.273155 67.26794 39.208275
41.282154 67.256935 40.148273
12.549154 27.34694 17.595272
12.725155 29.558945 16.186272
22.967154 32.782944 16.532272
24.757154 31.902939 14.705271
16.838158 88.174934 31.95627
16.607155 87.88593 29.550272
8.282158 91.49793 22.346272
6.188156 92.63794 23.00727
29.725155 100.24793 -1.0117285
28.112154 102.01494 -1.5797286
26.042154 108.714935 7.1232715
26.846155 110.84694 6.756272
29.451155 54.987938 43.202274
31.441154 54.300938 42.84627
38.209152 56.341938 46.885273
40.446156 55.498936 47.315273
21.139154 22.131943 11.007271
21.424154 19.906937 10.747272
27.129154 16.69194 2.3912714
25.780155 17.59694 0.86027133
12.975155 69.87794 7.519274
13.443157 67.66293 6.5932717
12.643158 62.726936 57.384274
14.164158 60.954937 57.169273
42.602154 62.558937 61.29727
43.649155 60.705936 60.741272
42.881153 57.69594 48.878273
44.018154 56.433937 49.356274
16.583155 107.49994 17.057272
18.358154 105.591934 17.520271
16.861155 101.22194 7.1352715
15.100155 100.64194 5.9662714
33.683155 55.024937 57.486275
31.995155 53.82094 55.858273
29.087154 48.657936 4.0672708
27.916155 47.150936 2.4972708
3.1511574 128.46794 36.425274
5.6411552 128.23094 36.092274
8.511158 119.94193 27.720272
6.5241547 118.48894 27.50427
22.110155 13.773941 62.004272
20.563154 12.537933 59.689274
27.462154 2.2719421 60.378273
26.356153 0.39894104 59.780273
10.338158 113.16594 1.9572678
10.932156 113.68093 62.044273
14.673157 103.617935 56.38127
15.516155 103.60693 54.465275
25.558155 76.411934 15.667271
26.765154 75.533936 14.450272
31.190155 76.71294 3.3542714
30.913155 79.26694 3.5392714
25.642155 54.172935 2.9382713
26.307154 53.648937 4.9742713
17.511154 47.462936 9.236271
19.242155 48.31294 9.886271
22.568155 15.904938 59.85327
24.014154 14.217941 58.647274
28.151154 23.220947 51.482273
29.614155 23.074936 53.369274
7.895157 117.08293 5.3372717
8.675156 115.39893 4.1582713
1.2721558 106.94193 2.3872714
2.558155 105.118935 2.7142713
48.922153 70.228935 16.544271
47.523155 69.69394 18.294271
3.6411552 61.473938 20.269272
5.371155 59.941936 21.925272
6.9631577 24.501938 58.313274
7.397156 23.214935 60.794273
4.7341576 20.020935 5.6512704
4.1321564 18.605942 7.4532723
19.884155 19.381943 37.77627
18.878155 17.799942 36.057274
9.674154 21.475937 33.83327
10.637155 23.373947 33.65927
48.613155 44.378937 42.398273
49.691154 42.179947 41.944275
48.704155 35.136948 32.386272
1.0251579 36.05394 31.540272
49.134155 27.489944 55.538273
48.384155 29.215942 57.003273
40.072155 32.87294 52.504272
39.126156 34.211945 50.604275
12.097155 106.56894 38.314274
13.958155 105.83794 37.613274
22.010155 103.62694 43.741272
24.346155 103.17094 43.994274
44.772156 73.992935 46.432274
43.013153 74.216934 47.486275
34.016155 70.854935 41.844273
32.796154 69.368935 42.86027
35.686153 92.91594 59.08927
36.459152 91.24894 61.036274
42.682156 85.17693 53.130272
41.024155 84.47594 51.71427
44.648155 84.49894 13.407271
44.440155 84.449936 15.281271
36.860153 78.73794 21.072271
34.938152 79.838936 20.989271
9.4341545 107.19293 51.195274
9.822155 104.867935 51.351273
18.111155 113.98293 53.904274
16.781155 115.61494 54.746273
41.477154 7.5099335 -0.031728733
39.941154 8.614944 -1.0237286
34.898155 14.644943 8.538271
36.469154 13.604935 9.5372715
0.40615463 117.507935 6.4532714
2.221157 117.33093 4.7482715
4.0051575 105.56894 5.4332714
1.6041565 105.56994 5.1672716
20.576155 51.92294 45.414272
19.151155 51.730938 47.20727
23.598154 46.656937 54.406273
22.302155 44.71495 53.854275
36.487152 124.97494 27.73727
34.240154 123.44694 27.798271
26.976154 120.771935 34.15927
25.617155 121.548935 31.689272
8.167156 44.63095 23.183271
6.9511566 44.78795 21.38927
12.310158 53.773937 14.898272
14.542156 54.363934 14.533271
29.967155 12.853943 41.345272
31.569155 12.101944 43.338272
39.263153 5.471939 39.96427
39.934155 6.5059357 38.445274
21.128155 37.072937 21.003271
20.608154 39.243942 20.767271
12.557155 46.81894 22.97627
13.907155 49.228943 22.517271
14.946155 64.53794 29.811272
13.228154 65.32194 28.36527
16.734154 65.436935 22.547272
18.232155 65.50494 20.748272
24.588154 87.07094 38.521275
23.882154 85.21893 38.810272
18.610155 82.63593 37.912273
16.323154 81.62994 37.947273
23.755154 27.394943 34.743275
25.539154 25.895935 34.883274
35.735153 30.70694 36.162273
37.478153 30.73294 33.90227
49.454155 94.54094 46.953274
48.523155 94.90394 48.786274
40.130154 89.51394 53.515274
39.300156 90.53194 51.79027
3.3101578 4.4369354 24.182272
3.615158 5.6609344 25.48027
2.6421547 2.9079437 17.067272
0.9071579 4.0789337 16.408272
6.3611565 119.58193 25.16727
3.8991547 119.827934 25.076271
0.322155 115.18993 14.179271
49.625156 117.588936 15.441271
44.905155 80.409935 51.953274
43.949154 82.64094 52.90827
0.3051567 89.28893 45.45727
0.18815613 89.01294 43.42227
37.352154 74.143936 25.642271
38.846153 72.701935 26.975271
37.739155 80.76694 35.150272
39.779156 81.076935 33.593273
1.4891548 65.34794 40.079273
2.7621574 63.959938 41.878273
1.959156 54.262936 38.320274
3.6331558 52.571938 38.643272
46.647156 54.690937 2.5082724
47.831154 55.992935 3.104273
8.327156 50.128937 61.007275
9.804157 51.964935 61.495274
12.960155 25.755936 24.09827
13.747154 25.140945 22.148272
17.515154 16.880936 16.123272
18.618155 17.617935 13.665271
19.357155 87.369934 23.569271
21.401155 88.09493 24.12627
20.643154 88.827934 34.383274
19.498156 87.060936 33.748272
40.996155 8.791946 52.04027
42.874153 8.352936 51.087273
34.731155 2.223938 54.302273
36.373154 3.5119476 56.029274
23.891155 49.705936 30.41027
23.401154 51.728935 31.26527
34.547153 57.309937 31.141272
34.606155 54.866936 31.460272
43.604153 107.36594 0.066272736
44.353153 105.145935 0.15627289
33.539154 101.58193 0.33327484
32.574154 99.560936 61.455273
43.809155 57.31994 43.508274
43.909153 58.786938 41.616272
39.284153 65.89194 33.829273
37.236153 64.52594 33.773273
10.810155 62.907936 17.457272
11.598155 60.948936 17.412271
20.236155 53.609936 20.050272
18.728155 53.00794 21.701271
25.192154 29.037933 16.975271
27.240154 30.480942 16.657272
23.181154 29.910934 22.21327
21.314156 29.615936 20.128271
48.802155 87.51494 12.094271
49.319157 89.561935 10.994271
10.010155 94.964935 9.003271
9.102158 95.798935 11.528271
34.926155 29.958939 44.641273
36.150154 30.59494 45.939274
38.060154 34.774933 53.458275
37.126156 35.164948 55.370274
36.231155 116.91894 23.51427
35.963154 119.21194 24.06327
26.511154 118.50093 29.023272
26.396154 117.050934 30.057272
39.556152 30.403946 36.768272
38.260155 32.799942 36.616272
45.505154 39.45894 43.299274
47.608154 39.955933 43.456272
48.137154 16.955933 9.953271
47.973156 15.069946 8.314271
42.769154 9.222946 16.002272
43.727154 7.5359344 17.530272
1.8121567 1.5809326 37.37427
2.6651573 0.20593262 36.133274
3.7201576 126.54193 26.679272
5.648155 125.798935 25.321272
1.2331581 7.3079376 32.857273
0.3901558 4.968933 33.65127
45.218155 14.843933 38.100273
45.036156 15.864944 36.38127
22.653154 89.03094 56.133274
22.627155 90.213936 54.201275
27.058155 97.04394 46.05427
25.870155 96.20493 44.143272
12.313156 21.73494 17.365273
13.102158 22.166946 19.763271
13.044155 13.445938 27.94227
11.253155 12.77594 27.603271
20.071156 102.061935 7.190272
18.849155 101.90494 5.3642755
24.485155 107.48293 59.593273
26.769154 107.31593 58.967274
45.695152 52.03294 7.6992717
47.330154 53.956936 7.8052716
48.647156 46.241943 0.18127133
48.966156 43.679947 -0.021728503
17.319155 63.02894 1.7132721
18.736155 63.592937 61.868275
21.140154 60.919937 52.187275
20.782154 63.078938 51.559273
14.712158 94.59794 55.48527
12.638157 94.64094 56.70727
11.586155 98.034935 7.115275
14.341156 98.296936 7.0952706
41.261154 23.278946 6.6722717
42.613155 23.820938 8.434272
0.9201546 17.343933 11.514271
1.8271561 16.779938 9.639272
46.043156 8.824936 51.863274
45.292152 11.014938 50.83927
4.103157 11.308945 58.36727
4.770157 12.453934 60.017273
12.291155 127.34994 7.1632714
11.628155 124.964935 5.9762716
21.200155 121.10094 0.7212714
23.293154 119.730934 0.9692714
21.247154 112.00094 34.264275
20.725155 112.67693 36.316273
26.655155 120.67993 41.628273
26.770155 118.71194 42.636272
6.0881577 69.15194 54.02727
7.3611565 67.27794 53.758274
1.1501579 68.811935 44.580273
0.02015686 68.463936 46.38727
2.013157 23.047943 37.182274
0.16915512 24.330933 38.592274
48.648155 32.45694 32.71627
47.915154 32.279938 34.93027
20.279154 44.62494 46.356274
22.257154 44.240936 45.99927
27.604155 39.55594 38.463272
29.565155 40.929947 37.833275
22.859154 32.521942 47.93027
24.019154 31.271942 49.188274
30.538155 36.101944 42.847275
31.350155 34.004944 42.67327
2.6691551 108.27593 51.208275
3.9021568 105.89094 51.39427
8.845158 103.03993 41.077274
8.589157 105.15394 41.081272
22.198154 99.05393 44.535275
24.004154 98.23894 45.824272
31.392155 102.94193 54.573273
31.421154 105.15394 55.550274
39.381153 22.679947 46.626274
40.374153 20.337936 47.467274
31.647156 16.652939 43.751274
31.717155 14.680939 43.838272
27.281155 62.935936 3.6572714
28.475155 65.37894 4.5632715
17.756155 69.16894 5.1102715
17.201155 67.99794 7.1082716
35.370155 92.69193 9.642271
35.288155 95.102936 8.493272
41.098152 102.95593 6.1142716
39.946156 104.91493 5.4462714
23.733154 0.86894226 34.92327
23.011154 132.08194 33.412273
28.337154 127.018936 27.90027
26.544155 126.38693 26.14627
11.656155 49.744946 0.5882714
10.808155 48.571945 -0.6837287
13.163155 44.625946 6.750272
15.398155 45.435944 7.0902715
33.229153 34.67694 11.788271
32.687153 34.473938 13.742271
43.305153 29.916946 10.302271
44.048153 28.337936 10.060271
47.114155 77.76794 28.16427
45.001156 76.702934 28.569271
1.643158 77.32094 33.04827
3.110157 77.105934 35.481274
6.4491577 50.732937 39.216274
8.589157 51.219936 37.96427
14.7031555 54.93194 29.506271
16.682156 56.491936 30.200272
36.819153 71.88894 24.260271
38.922153 71.244934 24.547272
40.158154 62.455936 17.894272
39.630154 60.420937 19.19927
32.684155 23.395935 18.842272
32.604153 22.181946 20.82427
28.615154 27.184937 28.951271
28.287155 24.807938 30.002272
1.7311554 119.76493 10.643271
0.8821564 121.700935 11.634271
6.5501556 123.25193 21.585272
5.5071564 122.84293 23.45527
27.616154 25.42894 15.194271
27.312155 24.404938 17.214272
19.816154 15.188934 17.063272
20.371155 14.879944 19.568272
7.0361557 53.159935 30.873272
5.9011574 54.702938 29.412271
5.337158 57.315937 17.793272
2.9121552 57.510937 18.34427
8.839154 105.491936 48.129272
8.628155 106.74593 46.211273
16.607155 113.84693 44.306274
19.111155 114.37093 44.66627
42.637154 25.195938 12.904271
44.849155 25.989944 13.942271
43.824154 14.742935 20.429272
41.981155 15.076935 20.682272
35.321156 118.214935 9.774271
36.888153 116.39194 9.637271
35.638153 125.54494 16.821272
37.309155 125.66493 17.768272
13.274155 99.824936 42.077274
10.920155 100.44394 42.385273
13.294155 102.381935 52.500275
13.443157 101.77593 54.642273
49.062157 43.168945 4.8772717
47.786156 41.88394 6.592272
41.738155 42.77794 8.765271
40.075153 40.948944 9.550271
10.868156 109.99793 15.241271
10.667156 108.41994 16.381271
10.756157 106.94093 7.118272
11.183155 107.46094 4.6712713
38.824154 123.895935 7.5652714
37.000153 123.11594 8.749271
25.665154 126.48994 8.530272
25.691154 125.77593 6.1402717
27.074154 99.01093 6.1222715
25.273155 98.061935 4.4322715
17.125154 99.99793 4.2512717
17.324154 97.85994 4.7872715
0.11115646 118.757935 59.27627
48.013153 118.547935 60.316273
8.388157 120.87393 4.8912683
9.326157 118.98293 4.356272
38.189156 61.87594 16.159271
37.513153 61.20894 14.015271
45.308155 55.30594 7.3872714
45.904156 55.71594 5.4492717
19.030155 78.96094 13.399271
21.484154 79.85894 13.773272
24.638155 89.09694 16.965271
22.637154 89.701935 15.881271
10.461155 42.200943 39.326275
9.947155 40.541946 37.50627
18.901155 34.751938 37.995274
21.276155 34.464935 37.949272
48.078156 86.894936 41.274273
47.812157 87.090935 38.998272
44.895153 93.229935 32.352272
47.411156 94.54594 32.01927
29.452154 14.992935 22.21627
31.543156 15.238937 23.227272
41.391155 12.60994 15.6032715
42.488155 13.559937 17.56627
11.921158 78.37794 3.9852715
13.475155 76.62093 3.1512713
11.749157 73.16494 8.269271
10.042156 72.00094 9.586271
10.186157 122.38593 16.713272
9.818157 121.80493 18.624271
14.661156 132.40393 25.158272
15.777157 131.81793 26.769272
43.177155 106.23293 21.06327
44.945152 107.44894 19.49327
46.924156 104.81493 11.000271
48.364155 106.36094 11.089272
9.218155 52.919937 40.425274
10.680155 54.68094 41.16527
20.026155 49.185936 45.635273
21.082155 47.336937 46.886272
6.188156 65.49094 31.940271
4.0851555 66.38794 31.616272
42.512154 62.487938 29.239271
41.251156 62.04994 27.30327
49.523155 44.37094 34.501274
2.0521545 44.709946 34.189274
8.167156 33.738937 35.347275
6.952156 31.699936 35.169273
49.559155 5.716934 31.262272
1.1501579 6.3649445 29.610271
11.174156 0.3439331 26.940271
11.523155 132.32195 24.975271
11.956158 128.09193 1.8932724
11.489155 127.591934 61.841274
9.925156 116.78893 58.176273
8.445156 116.41693 56.19327
28.202154 91.22093 4.0142713
26.720154 88.69193 4.1832714
25.135155 79.47494 11.324271
23.959154 80.54494 12.847271
37.119152 108.70794 3.81127
37.429153 106.19394 3.6452696
43.007153 105.213936 56.539272
42.317154 103.31693 57.918274
0.67115784 13.1649475 0.3592714
3.4551582 12.848938 1.1692713
3.2731552 15.175934 11.918271
3.827156 14.058945 13.580271
44.037155 88.79494 61.40227
44.091152 90.797935 60.778275
34.391155 90.08394 3.5632727
32.435154 89.46194 3.9322684
31.931154 74.91594 55.306274
29.911156 73.98494 56.699272
20.903154 76.09494 50.426273
19.225155 74.93194 52.157272
8.295155 95.991936 51.106274
8.163155 97.75494 49.573273
46.434155 101.522934 50.375275
45.227154 99.99593 51.259274
15.218155 123.172935 37.767273
12.385155 123.964935 38.171272
10.802155 120.82194 49.465275
12.3161545 119.20393 49.79027
31.724155 9.957947 28.25727
33.350155 10.336945 26.727272
33.838154 9.132935 15.065271
34.671154 7.3569336 13.935271
36.250153 41.55594 24.63627
34.737152 43.063934 24.51427
36.343155 48.92395 34.382275
38.658154 48.377945 33.781273
19.538155 128.31793 19.114271
18.412155 127.01593 19.92427
22.245155 125.464935 30.759272
22.524155 122.98693 30.079271
43.089153 107.79594 42.774273
43.055153 108.03893 40.444275
35.346153 99.97194 35.920273
34.816154 101.66694 34.955273
44.260155 43.616943 7.1242714
43.513153 41.30394 6.3762717
42.704155 36.427933 -2.1807287
41.599155 38.476944 -2.5207288
1.511158 132.10394 52.419273
3.0761566 130.77493 51.660275
10.157158 127.90393 48.323273
10.200157 130.11594 46.778275
23.969154 39.100937 28.56627
22.047155 40.172943 28.38227
16.691154 49.710934 26.61927
15.604155 49.54895 24.67127
6.211155 63.42394 18.557272
7.3041573 64.76694 17.02827
17.565155 68.12394 22.207272
18.111156 69.78793 20.54227
38.117153 25.220947 37.460274
36.826153 27.062943 35.972275
36.614155 23.76094 31.50727
36.551155 26.183945 31.287271
39.234154 108.25294 5.6812716
41.257153 107.28094 4.6772714
1.2771568 109.14194 12.201271
1.9021568 111.616936 13.050271
22.385155 49.146942 25.537271
22.723154 49.878933 23.15327
22.235155 40.675934 23.852272
23.920155 39.378937 23.36927
35.863155 4.8549347 -1.3537285
34.566154 3.645935 0.6202713
43.467155 132.39194 3.1642714
44.955154 0.8579407 3.6612713
37.397156 39.419937 23.82427
38.423153 41.099945 22.70927
37.638153 40.42694 29.557272
35.915154 41.780945 30.62927
19.282158 65.01494 15.477271
18.804157 65.63794 17.168272
6.6111565 67.22294 15.851271
5.553158 65.675934 14.639271
40.133156 0.0839386 41.57527
40.790154 0.7919464 39.612274
47.053154 2.7329407 31.274271
47.272156 1.0079346 29.48327
36.129154 105.824936 56.939274
35.660152 104.64993 55.04027
44.443153 103.83193 54.83927
46.104156 104.09493 52.96427
13.404156 104.993935 19.673271
11.801155 102.84493 18.68127
11.767155 97.20994 9.812271
13.352158 95.55994 9.275271
8.425156 95.31894 18.20627
7.1351547 97.51694 17.447271
46.603153 99.48594 24.547272
45.991154 97.80193 23.356272
12.344158 81.422935 12.691271
10.374157 80.91394 14.130271
7.8731575 70.25494 11.191271
5.6371574 69.55794 11.209271
35.674152 9.744934 28.850271
33.944153 10.02594 29.846272
31.092155 14.909943 39.529274
31.314156 16.543945 40.86727
12.616155 39.963943 57.81127
14.394155 40.836945 58.503273
23.684155 42.33194 53.951275
23.118155 42.629944 55.931274
40.987152 16.208939 45.338272
42.270153 15.001938 45.058273
44.826153 21.37294 50.849274
45.121155 21.712936 53.232273
2.5531578 117.61594 61.737274
2.9911575 118.21294 58.93027
7.136158 120.32194 50.189274
8.747158 122.033936 50.370274
46.685154 58.273937 19.71327
46.132156 57.501938 21.63327
0.51215744 56.29194 27.235271
1.8691559 57.668938 27.523272
4.773155 40.57994 51.320274
3.7031555 41.537933 53.00627
1.9081573 32.138947 54.27727
49.469154 30.503937 54.807274
10.517155 116.55894 6.1752715
10.922157 118.99893 7.0412717
13.297157 111.26193 15.892271
15.658157 110.46893 17.127272
44.845154 117.81493 30.52827
42.440155 116.95693 31.944271
41.991154 110.48193 40.106274
41.500153 110.480934 42.18027
2.6911545 51.505947 36.133274
3.657158 51.056942 34.31827
7.5171547 44.560944 26.939272
9.266155 45.547943 26.623272
6.428158 82.550934 49.556274
7.4251556 84.743935 49.739273
2.4171562 92.90694 46.41627
0.77715683 93.12594 45.08227
48.274155 29.266937 17.336271
0.44615555 30.448944 17.459272
10.197155 29.027939 11.917271
11.320156 29.649933 13.627271
38.539154 8.495941 8.079271
39.646152 10.218933 7.0352716
38.979153 19.711945 10.0042715
39.025154 20.085938 12.171271
45.618153 90.67094 12.729271
46.330154 89.69794 11.201271
43.455154 84.97394 1.3522714
41.337154 84.57294 1.6142714
5.1421547 30.916946 7.585272
3.8251572 29.281937 7.5872717
48.819157 26.062943 18.78827
49.250156 24.768936 19.807272
25.441154 11.724945 30.66727
25.262154 12.924942 28.970272
26.788155 25.022934 32.447273
25.574154 24.975937 30.821272
8.852158 89.186935 21.06727
6.9011574 88.24793 21.98627
0.18715668 82.16493 20.14327
48.710155 80.34894 19.482271
31.204155 85.04294 25.760271
29.689154 86.40194 25.07327
26.553154 95.22394 32.685272
24.737154 94.270935 34.195274
43.254154 49.641937 48.074272
42.921154 47.478943 46.981274
4.8261566 49.30594 41.306274
6.0971565 47.279938 39.750275
37.550156 111.35094 2.8432715
39.739155 110.60693 2.8792708
48.184155 111.83394 61.066273
49.322155 109.685936 60.97127
26.249155 120.61093 24.76127
26.324154 118.94093 23.134272
23.549154 111.57394 30.093271
22.668154 109.54394 29.74027
12.217155 110.00194 17.922272
14.007156 110.716934 19.002272
7.133156 107.659935 27.774271
5.098156 108.85693 27.54927
41.475155 36.349945 16.27127
40.765156 37.89894 17.769272
34.820152 34.675934 25.635271
34.982155 36.132935 27.457272
1.7211571 105.85893 9.512271
2.365158 106.77994 11.281271
8.845158 111.730934 4.8682714
10.861156 111.14194 4.6592717
4.506157 27.630936 38.731274
3.4421577 29.160934 36.76227
8.039158 24.601944 31.495272
9.902157 23.080933 30.878271
48.575153 26.85994 42.184273
46.378155 27.182938 42.745274
39.239155 27.716934 37.732273
37.409153 28.963943 37.875275
31.720156 121.688934 43.53327
32.524155 123.907936 44.267273
28.751154 130.75394 53.045273
29.776155 132.13194 51.668274
12.567158 59.072937 58.694275
11.957157 58.670937 61.365273
4.0811577 55.968937 5.8102746
5.4531555 54.491936 6.8662744
4.619156 83.70593 57.49927
4.2671547 81.79294 55.677273
8.859158 75.63493 1.0672722
10.590157 76.949936 1.7932739
37.632153 5.7629395 21.745272
36.732155 6.820938 19.75427
25.362154 6.6349335 21.47327
25.863155 4.5329437 22.335272
31.832155 87.910934 -0.23672865
30.533155 88.423935 1.8272713
23.646154 81.16794 6.7392716
23.688154 79.33094 5.6202717
29.950155 3.449936 34.09627
31.784155 1.6709442 33.169273
33.541153 127.59393 23.725271
33.583153 125.37693 23.61827
7.6171546 19.53894 32.11827
8.198154 17.77594 33.641273
19.572155 21.168945 35.098274
19.393154 21.843933 37.024273
21.784155 128.17993 46.661274
23.524155 126.29394 48.04727
21.745155 117.64194 54.427273
20.185154 116.062935 53.761272
8.753155 25.378937 34.14527
9.142155 27.202942 35.081272
9.881157 22.034943 44.833275
7.9101562 22.409943 45.178272
6.5261574 7.8339386 50.100273
6.652157 9.902939 49.029274
2.8571548 3.1469421 40.275272
3.6961555 1.6069336 39.12427
24.530155 59.891937 23.989271
25.902155 61.928936 24.947271
27.649155 68.161934 32.732273
29.167154 67.521935 34.13727
15.159157 0.72094727 57.856274
16.421158 2.901947 56.97827
8.223156 7.0069427 1.555275
10.386158 8.506943 2.3072722
36.300156 96.118935 10.910271
37.438152 98.325935 10.987271
41.476154 95.71294 12.998271
40.354153 93.80994 14.450272
26.544155 12.388947 26.738272
27.019154 10.383942 28.145271
20.417154 2.2809448 30.72327
19.059155 0.15794373 30.02527
12.832157 25.17694 5.1002755
13.887157 24.839935 2.6902716
16.439156 29.585938 61.542274
17.665157 31.92694 62.090275
21.119154 105.577934 20.682272
22.481153 105.98393 19.020271
27.034155 97.411934 17.321272
26.464155 98.89294 19.22927
16.220158 70.994934 9.864271
15.493156 69.26694 8.888271
10.487156 59.699936 13.534271
8.195156 59.29294 13.494271
11.355156 75.24094 62.090275
9.168156 74.27494 60.972275
9.241158 81.313934 51.384274
7.126156 82.96094 52.479275
23.679155 95.10693 19.911272
22.995155 96.10094 18.05627
16.108154 93.258934 13.919271
16.277155 93.56793 11.857271
40.062153 22.022934 29.18427
41.769154 23.362946 28.85427
46.769154 17.326935 37.741272
47.014156 16.712936 39.696274
28.655155 88.31493 48.244274
27.584154 87.20693 46.552273
16.424154 90.88693 46.67327
15.179154 90.44794 48.720272
16.643154 73.160934 12.552271
17.635155 73.22294 10.153271
21.242155 63.730938 11.309271
19.800154 63.991936 13.126271
32.705154 130.09593 45.621273
35.051155 129.03894 46.111275
38.795155 119.87593 50.063274
38.075153 120.24793 47.482273
35.763153 3.494934 10.564271
34.978153 2.3409424 12.272271
33.881153 130.44394 15.075272
34.437153 128.73193 13.923271
21.775154 124.74593 59.67327
20.775154 126.088936 58.604275
11.611155 130.47794 62.063274
10.648154 129.95593 60.363274
24.817154 7.6099396 2.4962714
26.965155 7.2839355 3.0242712
24.069155 9.891937 54.862274
21.622154 10.828934 54.52627
29.965155 76.61394 52.65127
31.854155 77.58294 53.02027
32.905155 86.272934 46.080273
32.595154 88.645935 46.15127
