4.448 5.178 3.370
4.650 4.986 3.567
4.486 5.030 3.806
4.392 6.060 2.853
4.489 5.973 3.364
4.357 5.656 3.517
4.646 5.582 3.461
4.459 5.144 3.693
4.537 5.205 4.087
4.289 6.221 3.114
4.407 6.176 3.548
4.251 5.775 3.430
4.487 5.543 3.623
4.492 5.589 3.877
4.439 6.164 3.525
4.272 6.010 3.625
4.385 5.727 4.115
4.203 6.211 3.925
6.267 4.806 5.712
6.342 4.637 5.912
6.076 5.752 5.119
6.157 5.530 5.130
6.328 5.326 5.446
6.278 5.083 5.810
6.166 4.855 5.839
6.272 4.964 6.140
6.311 4.896 6.218
6.224 5.555 5.456
6.142 5.327 5.531
6.178 5.341 5.994
6.244 4.970 6.180
5.943 5.135 6.280
6.002 5.723 5.793
6.148 5.505 5.983
6.220 5.143 6.289
6.084 5.523 6.124
6.174 4.905 4.596
6.313 4.717 4.761
6.322 4.532 4.850
6.162 4.492 5.028
5.985 5.017 4.636
6.076 4.849 4.951
5.987 4.668 4.971
6.102 4.446 5.159
6.012 4.693 5.500
6.052 5.315 4.980
5.926 5.127 5.218
6.000 4.909 5.359
5.983 4.927 5.515
6.177 4.726 5.531
6.095 4.764 5.920
6.046 4.564 6.029
5.957 5.695 5.170
5.857 5.178 5.075
6.083 5.207 5.311
6.041 4.832 5.793
6.154 4.667 5.883
6.014 4.797 6.103
6.010 4.667 6.208
5.998 5.564 5.458
5.783 5.272 5.694
5.961 5.168 5.810
5.800 5.107 5.880
5.928 4.968 6.353
5.660 5.646 5.858
5.924 5.494 6.083
5.883 5.061 6.295
5.586 5.384 6.040
6.080 2.418 6.241
6.069 4.881 4.387
6.034 4.888 4.337
5.923 4.610 4.702
6.102 4.402 4.830
5.762 5.155 4.520
6.030 4.930 4.856
5.717 4.854 5.148
5.751 4.482 5.230
5.810 5.350 4.835
5.847 5.017 5.157
5.836 4.957 5.087
5.896 4.680 5.449
5.890 4.542 5.831
5.644 4.514 5.856
5.541 5.560 5.078
5.775 5.324 5.285
5.578 5.083 5.386
5.568 4.903 5.487
5.741 4.532 5.668
5.543 4.871 5.958
5.596 4.677 6.143
5.675 5.734 5.235
5.689 5.519 5.367
5.783 5.403 5.481
5.547 5.019 5.841
5.656 5.001 6.028
5.669 5.010 5.982
5.705 5.232 5.999
5.634 4.939 6.236
6.318 2.281 4.838
6.227 2.231 5.172
6.350 2.069 5.171
6.186 2.188 5.338
6.153 1.845 5.537
6.137 1.513 5.723
6.329 1.618 6.062
6.363 1.259 6.387
5.964 2.627 5.300
6.245 2.250 5.536
6.046 2.344 5.502
6.258 2.020 5.662
6.154 1.975 6.193
6.336 1.491 6.211
5.953 2.608 5.768
6.226 2.261 5.931
6.217 2.164 5.985
5.994 1.997 6.190
5.733 4.711 4.302
5.772 4.781 4.669
5.535 5.183 4.460
5.547 4.851 4.817
5.612 5.136 4.716
5.388 5.120 5.005
5.593 4.790 5.047
5.442 5.290 4.941
5.303 5.055 5.203
5.568 5.001 5.262
5.576 4.947 5.537
6.122 2.810 2.429
6.315 2.714 2.671
6.423 2.423 2.793
6.115 2.967 2.568
6.277 2.845 2.976
6.046 2.714 2.980
6.125 3.151 2.928
5.990 3.174 2.910
6.038 2.817 3.440
5.996 2.560 3.478
5.999 2.855 4.319
5.883 2.429 4.580
5.906 2.484 4.688
6.025 2.214 4.803
5.998 1.851 4.956
5.966 1.893 5.158
6.104 1.433 5.280
5.829 2.865 4.468
6.022 2.514 4.873
5.858 2.308 4.860
5.910 2.114 5.343
6.134 1.977 5.465
6.047 1.920 5.542
5.992 1.496 5.921
5.789 2.757 5.126
5.828 2.360 5.078
5.702 2.320 5.336
5.997 1.968 5.537
5.914 2.092 5.792
5.987 1.718 6.007
5.657 2.794 5.210
5.737 2.642 5.309
5.770 2.530 5.400
5.690 2.434 5.851
5.820 2.238 5.869
5.445 5.022 4.467
5.234 5.115 4.692
5.272 5.377 4.862
6.086 2.641 2.103
6.056 2.384 2.366
6.199 2.743 2.447
5.937 2.409 2.485
5.998 2.204 2.619
5.931 2.839 2.494
5.928 2.496 2.507
5.950 2.406 2.712
5.880 2.175 3.009
6.033 2.402 3.599
5.953 3.086 2.500
5.755 2.813 2.872
5.773 2.668 2.965
6.107 2.484 3.394
5.807 2.382 3.366
5.996 2.619 3.461
5.728 2.348 3.656
5.970 3.161 2.816
5.930 2.859 3.171
5.898 2.978 3.269
5.964 2.754 3.253
5.836 2.335 3.574
5.675 2.642 3.727
5.894 2.453 4.015
5.844 2.104 4.193
6.004 2.025 4.423
5.715 1.918 4.754
5.714 3.072 3.313
5.688 2.731 3.611
5.801 2.503 3.823
5.581 2.853 3.924
5.855 2.713 4.328
5.696 2.307 4.345
5.712 2.229 4.590
5.729 2.213 4.832
5.649 1.889 4.984
5.893 1.824 5.149
5.574 2.978 3.623
5.543 2.739 4.086
5.804 2.991 4.291
5.665 2.581 4.620
5.631 2.553 4.906
5.601 2.135 4.823
5.852 1.961 5.246
5.755 1.737 5.316
5.855 1.542 5.411
5.722 2.964 4.636
5.601 2.778 4.811
5.705 2.752 4.890
5.760 2.289 4.973
5.584 2.187 5.367
5.707 2.134 5.626
5.729 1.781 5.695
5.440 3.090 4.935
5.541 2.912 4.954
5.565 2.507 5.259
5.655 2.482 5.646
5.636 2.210 5.840
5.442 2.688 5.516
5.473 2.493 5.663
6.192 0.120 4.070
6.151 2.273 1.986
6.139 2.159 2.085
5.852 2.470 2.052
5.915 2.166 2.241
6.046 2.101 2.546
5.669 2.459 2.379
5.986 2.243 2.445
5.817 2.149 2.500
5.752 1.944 2.855
5.627 1.930 3.324
5.806 2.679 2.536
5.734 2.603 2.762
5.924 2.477 2.793
5.698 2.246 2.988
5.856 2.035 3.121
5.646 2.125 3.532
5.681 2.125 3.628
5.612 3.132 2.523
5.677 2.847 2.771
5.755 2.535 3.161
5.826 2.298 3.132
5.691 2.232 3.230
5.491 2.344 3.422
5.579 2.245 3.620
5.761 2.175 3.877
5.655 3.293 2.775
5.509 2.985 3.059
5.467 2.653 3.145
5.487 2.635 3.517
5.493 2.478 3.503
5.666 2.519 3.629
5.639 2.227 4.035
5.683 2.073 4.182
5.536 2.087 4.300
5.439 3.237 3.029
5.400 3.072 3.249
5.512 2.920 3.646
5.488 2.407 3.818
5.570 2.684 3.906
5.425 2.721 4.152
5.603 2.448 4.235
5.455 2.068 4.646
5.621 2.006 4.846
5.588 1.757 4.869
5.506 2.781 3.841
5.454 2.666 4.039
5.440 2.860 4.235
5.459 2.891 4.399
5.357 2.729 4.343
5.556 2.431 4.795
5.271 2.083 5.005
5.349 1.864 4.977
5.584 1.797 5.421
5.375 3.113 4.024
5.225 3.111 4.644
5.363 2.702 4.814
5.447 2.425 4.961
5.375 2.382 5.056
5.465 2.211 5.399
5.192 2.126 5.438
5.328 3.202 4.746
5.190 2.988 4.818
5.239 2.849 5.145
5.145 2.514 5.263
5.417 2.236 5.467
5.168 2.170 5.541
5.130 3.181 5.140
5.198 3.080 5.243
5.131 2.586 5.422
5.151 2.693 5.516
6.103 -0.018 3.483
6.150 0.218 3.966
6.047 2.259 1.795
6.106 2.161 2.141
5.970 -0.092 3.859
5.591 2.317 1.862
5.715 1.974 2.184
5.913 1.783 2.379
5.652 2.396 2.115
5.615 2.322 2.106
5.677 2.129 2.533
5.803 1.748 2.549
5.526 2.511 2.289
5.596 2.433 2.491
5.519 2.145 2.451
5.597 2.109 2.841
5.554 1.792 3.130
5.379 2.632 2.242
5.534 2.598 2.698
5.631 2.491 2.639
5.606 2.215 3.081
5.610 1.827 3.227
5.496 1.991 3.339
5.451 1.970 3.378
5.256 2.880 2.512
5.538 2.774 2.583
5.432 2.406 3.073
5.293 2.303 3.065
5.485 2.013 3.300
5.381 2.387 3.498
5.365 2.218 3.861
5.468 1.978 4.041
5.450 2.791 2.970
5.215 2.599 3.134
5.397 2.617 3.325
5.516 2.189 3.353
5.291 2.666 3.563
5.361 2.318 3.808
5.155 2.205 3.976
5.294 2.099 4.265
5.207 2.814 3.319
5.386 2.867 3.478
5.238 2.450 3.688
5.312 2.732 4.002
5.297 2.586 4.049
5.351 2.228 4.198
5.211 2.155 4.549
5.174 1.857 4.752
5.033 3.023 3.752
5.045 2.597 3.959
5.194 2.985 4.145
5.234 2.744 4.379
5.016 2.399 4.390
4.999 2.375 4.542
5.102 2.006 4.964
5.330 2.046 5.171
5.023 3.038 3.990
4.972 3.016 4.414
5.173 2.792 4.452
5.036 2.679 4.490
5.148 2.576 4.768
5.239 2.173 4.892
5.022 2.036 5.263
5.035 3.181 4.305
4.885 3.122 4.524
4.992 2.908 4.918
4.940 2.534 5.045
4.922 2.635 5.194
4.946 2.168 5.455
5.028 2.920 5.091
5.038 2.838 5.129
5.044 2.584 5.467
5.025 2.425 5.653
4.715 3.210 5.354
4.932 2.873 5.746
5.950 0.129 3.688
5.876 -0.023 3.969
5.873 2.108 1.731
5.661 2.100 2.058
5.886 1.752 2.280
3.263 4.104 -0.092
3.284 4.273 0.350
2.983 3.728 1.857
3.141 3.529 1.926
2.986 3.559 2.062
3.091 3.147 2.251
3.154 3.243 2.645
3.057 4.120 1.972
2.897 3.727 2.043
2.955 3.566 2.373
3.077 3.595 2.500
3.114 3.349 2.543
2.730 4.033 2.427
2.826 3.910 2.623
2.766 3.615 2.641
2.972 3.590 2.725
2.687 4.171 2.496
2.861 3.708 2.708
2.751 3.496 3.194
2.210 6.270 1.662
2.242 6.399 2.258
2.228 5.429 4.215
2.106 5.243 4.470
2.089 5.232 4.655
1.892 6.094 3.787
2.163 5.827 4.106
2.054 5.805 4.187
1.941 5.494 4.422
2.195 5.158 4.843
3.826 1.797 0.193
3.739 1.650 0.407
4.021 1.263 0.484
3.964 1.158 0.524
3.871 1.998 0.167
3.831 1.933 0.400
3.854 1.546 0.530
3.783 1.554 0.810
3.684 1.939 0.803
3.569 1.905 0.702
3.583 1.674 1.140
2.888 3.336 2.310
2.652 2.963 2.546
2.593 3.508 2.334
2.640 3.455 2.411
2.564 3.126 2.789
2.617 3.734 2.556
2.782 3.476 2.646
2.766 3.466 2.993
2.418 4.072 2.459
2.685 3.730 2.659
2.665 3.538 2.893
2.403 3.705 3.034
2.155 5.990 1.342
2.051 6.244 1.472
2.282 5.942 1.454
2.197 5.759 1.682
2.060 6.348 1.827
2.121 6.152 1.995
2.148 5.684 2.305
2.045 6.236 2.195
1.856 6.057 2.415
1.786 6.153 2.624
2.045 6.115 2.665
1.844 6.154 2.835
1.823 6.014 2.976
1.735 5.675 3.151
1.736 6.252 3.132
1.869 5.846 3.547
1.806 5.870 3.703
1.846 5.700 3.949
2.006 5.584 4.058
1.814 5.303 4.260
1.720 6.263 3.663
1.752 5.835 3.824
1.618 5.898 4.037
1.736 5.503 4.335
1.692 5.290 4.572
1.860 5.364 4.740
3.534 1.606 0.169
3.715 1.463 0.126
3.479 1.452 0.535
3.565 1.013 0.686
3.428 1.952 0.175
3.389 1.812 0.077
3.634 1.654 0.323
3.540 1.471 0.732
3.700 1.363 0.771
3.285 2.127 0.281
3.304 1.849 0.664
3.362 1.680 0.847
2.526 2.987 2.404
2.392 3.299 2.427
2.594 3.122 2.658
2.225 3.389 2.628
2.407 3.167 2.703
2.131 3.664 2.834
2.303 3.601 2.957
2.319 3.599 3.043
1.967 5.966 1.269
2.121 5.695 1.315
2.062 6.038 1.303
1.970 5.955 1.483
1.927 5.926 1.728
1.986 5.693 1.981
1.700 6.076 1.677
1.822 5.916 2.012
1.756 5.628 2.216
1.776 5.730 2.166
1.675 6.282 2.159
1.918 5.877 2.446
1.679 5.697 2.408
1.827 6.022 2.460
1.820 5.873 2.786
1.641 5.722 3.021
1.634 6.026 2.833
1.724 5.881 3.181
1.547 5.738 3.329
1.619 5.583 3.309
1.529 6.214 3.339
1.657 6.049 3.321
1.409 5.686 3.621
1.504 5.510 3.911
1.538 5.352 4.102
1.410 6.191 3.563
1.328 5.922 3.782
1.552 5.704 4.168
1.339 5.640 4.316
1.351 5.512 4.336
3.281 1.555 0.157
3.284 1.176 0.219
3.332 1.109 0.666
3.322 1.941 0.077
3.275 1.530 0.516
3.403 1.455 0.436
3.323 1.463 0.832
3.307 2.140 0.074
3.021 1.927 0.235
3.110 1.757 0.688
3.246 1.709 0.743
2.949 2.262 0.327
2.872 2.056 0.540
2.710 1.971 0.723
2.136 3.171 2.699
2.192 3.533 2.398
2.161 3.175 2.566
2.059 3.356 3.000
2.021 3.797 3.140
1.784 5.921 1.089
1.868 5.593 1.363
1.849 5.463 1.490
1.795 5.441 1.819
1.692 6.376 1.166
1.576 6.085 1.386
1.759 5.955 1.603
1.643 5.692 1.840
1.573 5.440 2.040
1.688 6.336 1.538
1.693 5.981 1.592
1.723 5.923 1.823
1.455 5.860 2.186
1.560 5.430 2.409
1.419 6.236 1.896
1.522 6.092 2.086
1.368 5.919 2.397
1.625 5.806 2.574
1.512 5.549 2.706
1.299 6.374 2.348
1.324 6.181 2.384
1.351 5.902 2.732
1.411 5.809 2.909
1.503 5.441 2.978
1.289 6.346 2.558
1.271 6.072 2.790
1.395 5.954 3.086
1.437 5.521 3.347
1.561 5.619 3.288
1.149 6.099 3.123
1.241 6.120 3.064
1.207 5.843 3.465
1.144 5.595 3.582
1.287 5.590 3.753
1.338 6.297 3.272
1.367 6.014 3.617
1.271 5.758 3.731
1.159 5.541 3.943
1.365 5.379 4.077
2.989 1.441 -0.012
3.092 1.077 0.495
2.991 1.718 0.293
2.998 1.501 0.185
3.071 1.487 0.646
2.837 2.078 0.108
2.755 1.948 0.259
2.908 1.753 0.332
3.002 1.731 0.592
2.644 2.191 0.194
2.704 2.137 0.325
2.843 1.839 0.580
2.685 2.569 -0.111
2.445 2.409 0.203
2.605 1.977 0.472
2.632 1.819 0.785
2.421 2.568 0.485
2.347 2.310 0.679
1.997 3.329 2.826
1.653 3.233 2.859
1.663 5.752 0.892
1.464 5.306 1.015
1.697 5.280 1.380
1.693 3.596 2.948
1.519 5.708 1.060
1.466 5.751 1.171
1.332 5.544 1.420
1.664 5.219 1.623
1.414 6.327 0.910
1.460 6.114 1.389
1.281 5.737 1.497
1.373 5.569 1.525
1.288 5.289 1.941
1.396 5.379 1.979
1.432 6.317 1.293
1.274 6.090 1.545
1.306 5.815 1.684
1.477 5.472 2.139
1.437 5.573 2.116
1.388 6.234 1.856
1.167 6.048 2.109
1.181 5.662 2.372
1.262 5.743 2.469
1.362 5.501 2.660
1.020 6.114 2.213
1.134 6.111 2.542
1.106 5.902 2.707
1.242 5.674 2.673
1.115 6.295 2.698
1.138 6.003 2.757
1.223 5.693 3.099
1.008 5.590 3.285
1.181 6.101 2.865
0.968 5.996 3.037
1.073 5.691 3.396
0.982 5.448 3.433
0.823 6.248 3.411
0.944 5.941 3.400
0.944 5.691 3.653
0.890 5.463 3.894
2.934 1.240 0.092
2.616 1.818 0.230
2.825 1.580 0.211
2.858 1.186 0.553
2.504 2.187 0.137
2.751 1.781 0.135
2.741 1.599 0.296
2.576 2.633 -0.083
2.678 2.230 0.275
2.460 2.217 0.514
2.600 1.751 0.642
2.359 2.351 0.339
2.395 1.978 0.532
2.319 1.971 0.570
2.063 2.428 0.022
2.217 2.419 0.373
2.298 2.241 0.605
2.129 1.881 0.842
1.980 2.448 0.708
1.980 2.530 0.785
1.243 5.143 0.997
1.361 5.090 1.059
1.408 4.859 1.178
1.518 3.445 2.902
1.319 5.408 0.877
1.240 5.489 0.860
1.476 5.133 1.377
1.466 4.872 1.346
1.551 3.617 2.922
1.291 5.788 1.173
1.047 5.639 1.353
1.349 5.487 1.284
1.066 5.036 1.764
1.240 5.931 1.252
1.179 5.751 1.360
1.267 5.603 1.464
1.270 5.336 1.825
1.061 5.098 2.064
0.880 6.276 1.463
0.958 5.847 1.692
1.193 5.846 1.801
0.998 5.636 1.804
1.047 5.387 1.998
1.031 6.144 1.731
0.896 6.057 1.942
0.971 5.679 2.235
0.882 5.642 2.438
0.830 6.068 2.180
0.964 6.024 2.485
1.055 5.676 2.499
0.686 5.827 2.693
0.903 5.619 2.913
0.871 5.927 3.091
0.936 5.857 3.311
0.621 6.139 3.184
0.579 5.982 3.546
0.729 5.672 3.617
2.358 1.766 0.011
2.598 1.429 0.217
2.341 2.101 0.029
2.344 1.840 0.305
2.283 1.641 0.509
2.427 2.318 0.168
2.400 2.014 0.512
2.435 1.716 0.484
1.943 2.112 0.075
2.031 1.882 0.477
2.025 1.884 0.471
1.761 2.474 0.255
1.827 2.163 0.198
1.824 2.143 0.574
1.800 1.990 0.618
1.957 2.632 0.415
1.974 2.585 0.409
1.987 2.216 0.875
1.747 2.088 1.009
1.804 2.726 0.413
1.771 2.719 0.710
1.863 2.612 0.887
1.639 3.196 0.545
1.142 4.432 0.576
1.443 4.332 0.671
1.048 4.850 0.547
1.314 4.808 0.925
1.167 4.567 1.026
1.078 5.337 0.568
1.222 5.077 0.648
1.113 5.042 0.854
1.123 4.613 1.235
0.951 5.609 0.838
1.073 5.261 0.958
0.962 5.242 1.044
1.057 4.918 1.490
1.236 3.449 2.991
1.033 5.764 0.799
1.006 5.439 1.067
0.928 5.296 1.325
1.105 4.979 1.621
0.959 3.639 2.968
0.888 5.727 1.107
0.780 5.763 1.513
0.792 5.493 1.561
1.018 5.370 1.851
0.863 6.035 1.520
0.967 5.812 1.763
0.899 5.463 1.848
1.969 1.863 0.228
2.274 1.650 0.480
2.072 2.093 0.141
1.957 1.807 0.447
2.126 1.728 0.434
1.860 1.940 0.096
1.845 2.003 0.149
1.949 1.737 0.574
1.603 2.332 -0.078
1.764 2.434 0.119
1.775 2.220 0.514
1.765 1.856 0.544
1.737 2.956 0.154
1.750 2.557 0.206
1.453 2.347 0.424
1.626 2.223 0.737
1.754 1.911 0.930
1.473 2.936 0.420
1.403 2.947 0.439
1.390 2.469 0.594
1.364 2.514 0.768
1.506 2.159 0.923
1.528 3.374 0.343
1.337 3.305 0.454
1.570 3.026 0.698
1.343 2.707 0.870
1.280 2.483 1.043
1.246 3.649 0.342
1.261 3.425 0.459
1.255 3.045 0.978
1.392 2.842 1.121
1.234 4.110 0.397
1.333 3.856 0.689
1.172 3.683 0.785
1.222 3.272 0.930
1.126 4.452 0.535
1.280 4.191 0.713
1.226 3.831 0.876
1.112 3.810 0.852
1.082 4.582 0.414
1.040 4.377 0.514
1.102 4.184 0.808
0.901 4.240 1.001
0.908 4.953 0.453
0.912 5.048 0.509
0.953 4.639 0.646
0.824 4.652 0.955
0.965 4.323 1.144
0.716 5.199 0.422
0.949 5.191 0.636
0.939 4.994 0.873
0.719 4.554 1.050
1.030 4.478 1.444
0.751 5.457 0.591
0.780 5.407 0.797
0.751 4.939 1.064
0.704 4.893 1.349
0.821 5.754 0.979
0.604 5.602 1.123
0.648 5.194 1.420
0.624 5.058 1.539
0.906 3.581 3.231
0.542 5.657 1.241
0.561 5.564 1.521
0.889 3.818 3.148
0.747 3.993 3.452
1.778 1.790 -0.021
1.914 1.926 -0.033
1.643 1.916 0.323
1.758 1.705 0.388
1.625 1.902 0.119
1.645 1.766 0.243
1.572 1.500 0.429
1.562 2.430 0.004
1.400 2.247 0.118
1.467 1.890 0.478
1.496 1.738 0.571
1.524 1.686 0.938
1.220 2.613 -0.047
1.255 2.557 0.307
1.219 2.514 0.243
1.272 2.313 0.465
1.337 2.029 0.864
1.379 1.906 1.087
1.142 2.772 0.215
1.192 2.808 0.552
1.176 2.444 0.660
1.394 2.531 0.664
1.401 2.120 1.071
1.158 2.083 1.200
1.123 3.240 0.159
1.314 3.067 0.301
1.205 2.853 0.750
1.180 2.622 0.928
1.112 2.541 1.145
1.282 2.270 1.218
0.875 3.739 0.034
1.110 3.651 0.282
1.101 3.314 0.661
1.096 3.157 0.809
1.197 2.925 0.969
1.250 2.817 1.266
1.016 4.145 0.016
0.920 3.792 0.322
0.924 3.544 0.632
0.841 3.584 0.797
1.020 3.326 1.012
0.839 3.133 1.274
0.877 4.320 -0.009
1.023 4.211 0.472
0.739 4.014 0.411
0.932 3.975 0.727
1.021 3.672 1.000
1.054 3.513 1.170
0.629 4.717 0.249
0.908 4.551 0.342
0.886 4.503 0.631
0.686 4.101 0.779
0.699 4.050 1.076
0.874 3.973 1.246
0.803 5.261 0.100
0.714 5.101 0.199
0.795 4.918 0.451
0.735 4.456 0.772
0.606 4.505 0.848
0.800 4.251 1.197
0.591 5.528 0.438
0.716 5.300 0.470
0.490 5.093 0.841
0.603 4.643 1.006
0.517 4.486 1.061
0.635 4.578 1.174
0.391 5.454 0.609
0.680 5.099 0.783
0.592 5.114 0.928
0.477 4.708 1.134
0.468 5.496 1.003
0.462 5.076 1.198
0.487 3.519 3.076
0.363 3.495 3.292
0.553 3.870 3.384
0.222 3.961 3.678
1.407 2.168 0.113
1.620 1.907 0.406
1.604 1.617 0.276
1.403 1.606 0.158
1.121 1.674 0.257
1.204 2.091 0.136
1.143 1.775 0.282
1.238 1.801 0.480
1.057 1.624 0.660
1.195 2.389 0.131
1.044 2.264 0.292
1.229 2.052 0.627
1.154 1.814 0.742
1.149 1.748 0.819
1.052 3.024 -0.000
0.894 2.556 0.473
1.125 2.559 0.560
1.166 2.159 0.780
1.118 2.091 1.003
0.931 1.922 0.965
0.961 3.093 -0.014
0.752 3.063 0.499
0.920 2.938 0.511
0.962 2.559 0.571
0.853 2.518 0.840
0.801 2.284 1.168
0.945 2.216 1.358
0.799 3.758 0.091
0.946 3.397 0.242
0.819 3.229 0.525
0.953 2.905 0.614
0.725 2.805 0.758
0.993 2.736 0.950
0.948 2.335 1.311
0.813 3.855 0.276
0.605 3.941 0.469
0.816 3.574 0.507
0.868 3.402 0.650
0.685 3.128 0.866
0.659 3.183 1.210
0.441 4.377 0.197
0.434 4.350 0.330
0.697 4.072 0.469
0.581 3.850 0.653
0.551 3.661 0.852
0.610 3.270 1.234
0.630 4.896 0.042
0.410 4.635 0.157
0.584 4.307 0.603
0.424 4.017 0.642
0.597 3.987 0.806
0.488 3.801 1.181
0.471 5.087 0.119
0.533 5.035 0.100
0.372 4.696 0.583
0.497 4.687 0.562
0.373 4.339 0.841
0.447 4.325 1.215
0.477 5.347 0.213
0.388 5.062 0.279
0.243 5.096 0.557
0.258 4.627 0.759
0.314 4.532 1.135
0.384 5.411 0.750
0.349 5.080 0.909
0.398 4.875 1.057
0.353 3.276 3.015
0.141 3.926 3.013
0.112 3.585 3.035
0.105 3.895 3.141
0.016 3.604 3.395
-0.061 4.020 3.449
0.081 3.844 3.363
1.117 1.612 0.187
1.282 1.527 0.393
1.018 2.184 0.197
0.862 1.898 0.424
0.988 1.677 0.358
1.036 1.541 0.840
0.817 2.416 0.242
0.959 2.146 0.307
0.706 2.045 0.512
0.930 1.712 0.767
0.775 1.838 0.815
0.915 1.607 1.152
0.671 2.738 -0.020
0.840 2.626 0.450
0.836 2.374 0.528
0.904 2.271 0.773
0.836 2.178 0.971
0.612 1.812 1.158
0.889 1.795 1.157
0.585 3.074 0.254
0.563 2.886 0.344
0.584 2.777 0.592
0.534 2.570 0.899
0.582 2.368 1.119
0.756 2.140 1.118
0.772 1.786 1.541
0.425 3.453 0.175
0.666 3.448 0.147
0.515 3.021 0.414
0.691 2.944 0.785
0.569 2.922 0.935
0.419 2.636 1.063
0.569 2.417 1.131
0.583 3.774 0.152
0.448 3.577 0.178
0.617 3.561 0.379
0.506 3.308 0.772
0.358 3.142 0.851
0.531 2.817 1.192
0.353 4.473 0.014
0.240 4.080 0.231
0.400 3.852 0.508
0.502 3.589 0.751
0.447 3.626 0.719
0.242 4.791 0.100
0.215 4.506 0.176
0.259 4.391 0.438
0.131 4.051 0.779
0.320 3.926 0.673
0.258 5.166 0.103
0.076 4.945 0.228
0.053 4.761 0.270
0.171 4.348 0.626
0.038 4.265 0.951
0.102 5.510 -0.146
0.123 5.270 0.284
-0.036 5.002 0.247
0.207 4.974 0.605
-0.020 4.626 0.896
0.140 3.343 2.901
0.683 1.611 0.453
0.546 1.455 0.679
0.590 1.321 0.913
0.458 2.237 0.399
0.412 2.136 0.537
0.615 1.929 0.587
0.473 1.635 1.015
0.599 1.486 1.099
0.387 2.433 0.313
0.512 2.225 0.775
0.572 2.031 0.812
0.408 1.634 0.935
0.547 1.759 1.176
0.303 2.613 0.316
0.434 2.428 0.496
0.540 2.211 0.974
0.318 2.219 1.123
0.403 2.016 1.216
0.361 1.955 1.476
0.447 2.948 0.714
0.420 2.707 0.920
0.216 2.712 0.987
0.376 2.270 1.358
0.452 2.198 1.447
0.024 4.170 0.076
-0.003 4.017 0.223
-0.136 3.934 0.717
0.272 1.375 0.789
0.524 1.190 0.850
0.428 1.688 0.612
0.191 1.693 0.642
0.502 1.276 0.900
0.390 2.219 0.710
0.189 1.931 0.635
0.144 1.854 0.952
0.154 1.438 1.124
0.181 2.288 0.702
0.188 2.233 1.128
0.083 1.994 1.021
0.029 1.591 1.501
-0.079 2.091 1.522
0.190 1.865 1.558
0.235 1.164 0.449
0.214 1.156 0.811
0.238 1.484 0.632
0.142 1.291 0.841
-0.110 1.541 0.984
5.609 2.251 1.736
5.335 4.017 0.137
5.334 2.291 1.812
5.405 2.628 1.990
4.682 4.977 2.679
4.596 4.796 2.829
4.626 5.212 2.754
4.644 4.942 2.827
4.391 4.847 3.051
4.479 4.779 3.175
4.426 5.536 2.661
4.571 5.095 3.079
4.572 4.939 3.059
4.416 4.834 3.450
4.298 5.790 2.836
4.239 5.759 3.100
4.345 5.433 3.004
4.317 5.318 3.416
4.418 5.065 3.491
4.153 5.893 2.833
4.061 5.704 3.072
4.317 5.745 3.234
4.121 5.300 3.522
4.400 5.260 3.795
4.170 6.180 3.297
4.091 6.071 3.197
4.225 5.874 3.377
4.237 5.459 3.621
3.986 6.332 3.434
3.963 5.951 3.693
5.407 3.368 -0.003
5.585 2.116 1.556
5.206 2.059 1.493
5.157 3.791 0.016
5.272 2.262 1.739
4.895 4.416 0.134
4.936 3.969 0.250
4.692 4.479 0.350
4.247 4.773 2.118
4.527 4.490 2.252
4.454 4.597 2.462
4.440 5.006 2.412
4.266 4.853 2.466
4.338 4.686 2.829
4.299 4.562 2.931
4.220 5.037 2.512
4.336 4.888 2.577
4.095 4.871 2.995
4.329 4.637 3.100
4.113 5.391 2.775
4.299 5.129 3.059
4.192 5.017 3.235
4.148 4.944 3.197
3.925 5.553 2.875
4.058 5.308 2.995
4.119 5.166 3.373
4.205 5.109 3.557
4.136 5.604 2.936
3.900 5.628 3.419
4.146 5.230 3.520
3.884 5.787 3.166
4.012 5.748 3.641
5.213 2.048 1.584
4.833 2.173 1.630
4.913 3.703 0.228
4.875 3.701 0.397
4.513 4.351 0.083
4.822 4.006 0.144
4.511 3.925 0.363
4.632 4.544 -0.040
4.454 4.274 0.420
4.744 4.379 0.570
4.758 4.080 0.687
4.602 4.646 0.292
4.403 4.294 0.542
4.664 4.324 0.910
4.417 4.637 0.672
4.320 4.480 1.137
4.395 4.650 1.292
4.235 4.274 1.342
4.257 4.617 1.734
4.250 4.306 1.849
4.404 4.215 1.808
4.035 4.848 1.728
4.304 4.476 2.076
4.262 4.471 2.292
4.169 4.150 2.477
4.232 5.026 1.769
4.160 4.631 2.061
4.042 4.426 2.311
4.006 4.393 2.377
4.230 4.204 2.778
4.131 5.000 2.020
3.887 4.923 2.212
4.066 4.846 2.546
3.966 4.639 2.595
3.943 4.536 2.845
3.914 5.218 2.397
3.854 5.099 2.756
3.875 4.790 2.849
3.889 4.432 3.251
3.881 5.404 2.809
3.899 5.216 2.854
3.962 4.895 3.017
3.873 4.777 3.407
3.804 5.370 2.958
3.822 5.155 2.908
3.799 5.148 3.254
4.874 2.005 1.147
4.939 2.032 1.578
4.829 2.169 1.393
4.331 3.749 -0.122
4.330 4.058 0.176
4.527 3.835 0.217
4.383 3.690 0.376
4.193 4.551 0.108
4.216 4.234 0.078
4.335 4.198 0.425
4.204 3.807 0.616
4.224 4.832 0.303
4.321 4.496 0.305
4.302 4.405 0.450
4.097 4.041 0.805
4.203 4.071 1.140
4.178 4.784 0.518
4.205 4.441 0.763
4.253 4.349 1.050
4.104 4.142 1.283
4.363 3.803 1.331
4.104 4.832 0.816
4.237 4.419 1.245
4.152 4.228 1.428
4.053 4.266 1.485
4.133 4.078 1.849
4.080 4.649 1.455
4.147 4.577 1.392
3.861 4.152 1.662
4.162 4.179 1.801
4.158 3.826 2.096
3.880 4.872 1.621
4.101 4.685 1.810
4.076 4.547 1.895
4.087 4.259 1.985
3.889 4.099 2.224
3.849 3.917 2.358
3.954 4.950 1.843
3.868 4.809 2.257
3.755 4.387 2.370
3.792 4.472 2.332
4.044 4.198 2.598
3.614 4.921 2.230
3.708 4.845 2.132
3.762 4.608 2.527
3.739 4.428 2.816
3.913 4.399 2.847
3.732 4.153 2.889
3.668 4.951 2.373
3.622 4.882 2.654
3.783 4.589 2.733
3.639 4.451 3.028
3.641 5.193 2.937
3.809 4.786 2.917
3.487 4.735 3.203
4.835 1.683 0.975
4.870 1.618 1.206
4.781 1.953 1.405
4.731 2.183 1.269
4.232 3.758 0.226
4.170 3.865 0.250
3.909 4.274 0.002
4.033 4.061 0.405
4.237 3.992 0.582
3.862 4.544 0.168
4.012 4.416 0.384
4.112 4.367 0.649
4.157 4.047 0.802
3.983 3.983 0.936
3.909 4.650 0.321
3.773 4.749 0.513
3.829 4.317 0.646
4.025 4.144 0.822
3.833 4.087 1.231
3.853 3.959 1.172
3.791 4.896 0.685
3.835 4.682 0.856
3.715 4.509 1.068
3.887 4.171 1.328
3.937 4.058 1.587
3.995 3.976 1.601
3.714 3.832 2.015
3.614 4.813 1.207
3.813 4.466 1.322
3.811 4.326 1.492
3.890 4.343 1.788
3.756 4.104 1.743
3.847 3.995 2.138
3.940 3.657 2.207
3.609 4.736 1.472
3.516 4.708 1.780
3.577 4.591 1.807
3.847 4.339 2.005
3.588 3.896 2.233
3.670 4.007 2.569
3.665 3.518 2.756
3.725 4.791 1.872
3.481 4.747 1.995
3.693 4.316 2.161
3.502 4.397 2.555
3.808 4.034 2.619
3.600 3.837 2.958
3.505 4.968 2.365
3.634 4.698 2.389
3.574 4.383 2.644
3.715 4.074 2.852
3.735 3.899 3.065
3.296 4.887 2.361
3.607 4.819 2.454
3.623 4.638 2.649
3.346 4.533 3.091
2.884 5.521 4.844
4.758 1.470 0.992
4.639 1.796 0.901
4.529 1.668 1.028
4.660 1.776 1.136
3.831 3.657 0.212
3.681 4.046 0.196
3.684 4.080 0.377
3.882 3.977 0.477
3.700 4.521 0.015
3.713 4.336 0.355
3.593 4.294 0.540
3.599 4.140 0.626
3.679 3.712 0.779
3.549 4.876 0.225
3.592 4.732 0.279
3.633 4.687 0.402
3.581 4.289 0.531
3.822 4.057 0.745
3.809 4.019 0.923
3.669 3.712 1.248
3.453 4.725 0.732
3.653 4.544 0.753
3.459 4.370 1.010
3.518 4.189 1.072
3.746 4.106 1.499
3.773 3.679 1.765
3.479 3.526 1.819
3.547 4.634 1.087
3.500 4.490 1.518
3.405 4.007 1.750
3.690 4.082 1.666
3.520 3.748 1.887
3.532 3.725 2.324
3.454 3.264 2.438
3.267 4.412 1.687
3.326 4.380 1.852
3.552 4.082 1.904
3.364 4.109 2.127
3.355 3.701 2.262
3.400 3.518 2.468
3.654 3.400 2.841
3.445 4.777 1.800
3.509 4.507 1.871
3.470 4.397 2.322
3.329 4.324 2.447
3.355 4.001 2.455
3.447 3.726 2.723
3.542 3.481 2.815
3.103 4.571 2.095
3.205 4.641 2.335
3.244 4.469 2.646
3.126 4.141 2.613
3.464 4.071 3.033
3.124 4.473 2.764
3.367 4.201 3.049
2.690 5.572 4.753
2.538 5.313 4.918
4.344 1.708 0.600
4.354 1.292 0.627
4.367 1.897 0.854
4.491 1.519 0.815
4.336 1.844 0.966
4.133 1.650 1.251
3.592 4.085 0.154
3.631 3.884 0.220
3.578 4.461 0.092
3.488 4.480 0.072
3.601 4.224 0.325
3.473 3.933 0.692
3.350 4.767 0.058
3.317 4.680 0.283
3.515 4.338 0.534
3.371 4.251 0.583
3.341 4.243 0.868
3.287 3.822 1.050
3.436 4.427 0.929
3.430 4.140 1.057
3.252 4.114 1.155
3.351 4.024 1.296
3.251 3.761 1.714
3.506 3.447 1.751
3.320 4.291 1.390
3.313 4.021 1.632
3.286 3.976 1.689
3.220 3.782 2.025
3.237 3.449 2.254
3.298 3.470 2.493
3.469 3.007 2.452
3.103 4.280 1.596
3.190 4.185 1.860
3.348 4.012 1.980
3.263 3.763 2.206
3.159 3.532 2.475
3.172 3.290 2.677
3.050 4.473 1.908
3.246 4.194 2.109
3.113 3.985 2.365
3.251 4.031 2.466
3.224 3.608 2.669
3.253 3.384 2.956
3.077 4.472 2.154
2.964 4.449 2.395
2.870 3.961 2.624
3.091 4.048 2.877
2.898 3.805 2.938
3.074 4.124 2.850
2.326 5.168 4.541
2.269 5.797 4.425
2.388 5.738 4.576
2.285 5.517 4.796
4.074 1.650 0.261
3.984 1.502 0.484
4.194 1.444 0.725
4.033 2.026 0.536
4.212 1.783 0.882
4.198 1.363 0.781
4.053 1.718 1.040
3.890 1.719 1.131
3.174 3.967 0.146
3.114 4.082 0.254
2.900 4.012 1.805
3.184 3.588 2.029
3.058 3.602 2.240
2.870 3.419 2.412
3.052 3.121 2.449
3.081 3.961 1.825
2.869 3.961 2.005
2.871 3.623 2.425
2.870 3.402 2.405
2.884 3.343 2.759
2.770 4.098 2.333
2.739 3.894 2.516
2.742 3.802 2.660
2.843 3.343 2.850
2.636 4.191 2.681
2.799 3.927 2.801
2.692 3.485 3.062
2.336 6.391 1.985
2.119 6.245 2.213
2.244 5.462 4.234
1.965 5.208 4.203
2.074 5.053 4.692
1.964 6.079 4.053
1.856 5.974 4.125
1.914 5.660 4.171
1.895 5.337 4.558
2.193 5.308 4.610
3.715 1.928 -0.010
3.932 1.586 0.400
3.806 1.436 0.513
3.768 1.341 0.683
3.685 2.121 0.417
3.775 1.827 0.407
3.632 1.585 0.820
3.874 1.471 0.723
3.636 1.886 0.728
3.644 1.808 0.879
3.591 1.667 0.891
3.768 0.054 3.455
3.716 0.618 3.288
3.754 0.211 3.514
3.553 0.171 3.881
3.325 0.755 3.493
3.413 0.775 3.556
3.578 0.450 3.768
3.550 0.409 3.837
3.479 -0.065 4.099
3.281 1.051 3.366
3.553 0.971 3.868
3.321 0.495 3.991
3.510 0.524 4.158
3.521 0.338 4.261
3.392 0.213 4.480
3.234 0.959 3.956
3.378 0.703 4.226
3.273 0.798 4.304
3.450 0.421 4.528
3.002 2.807 2.754
3.045 2.703 3.049
3.086 3.162 2.877
3.121 3.016 2.998
3.012 3.136 3.108
2.934 3.008 3.260
2.846 3.497 3.239
2.641 2.520 5.352
2.564 2.477 5.460
2.785 2.160 5.659
2.795 1.895 5.803
2.566 2.785 5.403
2.544 2.802 5.430
2.716 2.515 5.702
2.498 2.291 5.847
2.508 2.219 6.301
2.615 2.992 5.654
2.520 2.970 5.579
2.552 2.808 5.899
2.616 2.621 6.087
2.570 3.384 5.888
2.547 3.154 5.898
2.486 2.982 6.258
2.063 4.826 4.720
2.231 5.196 5.067
2.062 5.040 5.203
3.945 0.972 0.978
3.848 0.822 1.145
3.658 1.398 0.900
3.386 0.204 3.237
3.367 0.132 3.443
3.453 0.918 2.867
3.435 0.629 3.039
3.197 0.494 3.148
3.501 0.122 3.599
3.255 0.082 3.694
3.191 0.815 2.933
3.379 0.725 3.367
3.237 0.621 3.529
3.104 0.268 3.859
3.100 0.242 4.055
3.139 0.160 4.125
3.110 1.182 3.157
2.996 1.114 3.124
3.292 1.107 3.421
3.313 0.832 3.731
3.050 0.686 3.893
3.037 0.230 4.093
3.234 0.148 4.393
2.925 1.747 2.939
2.906 1.473 3.302
3.105 1.409 3.339
3.049 1.011 3.584
3.170 0.819 3.927
3.048 0.835 4.207
2.932 1.744 3.185
2.841 2.010 3.096
2.901 1.662 3.528
2.972 1.539 3.689
2.864 2.564 2.756
2.951 2.161 3.033
3.031 1.985 2.901
2.903 1.922 3.144
2.916 2.119 3.413
2.797 2.684 2.580
2.913 2.526 2.811
2.663 2.482 3.138
2.928 2.433 3.265
2.714 2.104 3.553
2.821 2.974 2.712
2.882 2.705 3.080
2.844 2.612 3.239
2.779 2.320 3.401
2.800 3.368 3.134
2.755 2.914 3.223
2.690 2.985 3.322
2.446 3.515 3.074
2.623 3.168 3.315
2.558 1.586 5.770
2.360 2.123 5.491
2.584 2.144 5.576
2.380 1.963 6.030
2.295 1.556 5.996
2.172 2.462 5.662
2.189 2.283 5.705
2.431 2.342 6.057
2.427 2.219 5.958
2.349 2.832 5.765
2.363 2.747 5.891
2.255 2.538 6.158
2.143 2.661 5.987
2.075 2.455 6.121
3.512 1.152 0.837
3.080 0.583 2.816
3.118 0.304 2.980
3.267 0.067 2.953
3.001 0.997 2.829
3.110 0.629 2.905
3.149 0.454 2.904
3.041 0.320 3.248
3.052 0.112 3.460
2.878 0.936 2.828
3.091 1.026 3.008
2.846 0.741 3.133
3.081 0.507 3.409
2.934 0.185 3.759
3.051 0.178 3.852
2.971 1.410 2.914
2.997 1.156 3.041
2.802 1.084 3.299
2.725 0.893 3.598
2.728 0.634 3.599
2.824 0.557 3.858
3.039 0.203 3.860
2.747 1.438 2.903
2.917 1.596 2.874
2.923 1.562 3.332
2.664 1.175 3.402
2.738 1.033 3.580
2.837 0.891 3.714
2.894 2.015 2.550
2.720 1.935 2.800
2.740 1.670 2.904
2.578 1.712 3.166
2.652 1.571 3.348
2.718 1.299 3.462
2.710 1.347 3.808
2.646 2.556 2.561
2.560 2.324 2.686
2.488 2.309 2.802
2.580 2.071 3.148
2.788 1.893 3.060
2.720 2.130 3.524
2.762 1.689 3.746
2.417 2.797 2.575
2.705 2.592 2.661
2.431 2.394 3.010
2.671 2.163 3.236
2.681 2.066 3.305
2.355 2.125 3.485
2.556 3.112 2.719
2.338 2.757 2.935
2.394 2.430 3.275
2.611 2.301 3.245
2.649 2.115 3.429
2.449 3.163 3.056
2.554 2.839 3.104
2.291 2.865 3.278
2.340 2.708 3.661
2.308 3.240 3.096
2.248 3.270 3.367
2.481 2.798 3.688
2.230 3.664 3.480
2.255 3.348 3.656
2.114 1.556 5.827
2.318 1.426 5.769
2.198 1.980 5.772
2.091 1.873 5.719
2.182 1.441 6.040
2.218 1.357 6.414
2.007 2.427 5.615
2.161 2.102 5.883
2.173 2.045 6.194
2.169 1.652 6.262
2.024 2.678 5.779
2.101 2.192 5.936
1.979 2.179 6.077
2.013 2.705 6.187
2.952 0.062 2.484
2.900 0.423 2.558
2.951 0.347 2.949
2.814 0.068 2.997
2.692 0.727 2.469
2.716 0.496 2.766
2.623 0.501 2.983
2.711 0.395 3.245
2.898 -0.072 3.346
2.547 1.041 2.700
2.782 0.856 2.869
2.531 0.763 2.877
2.774 0.578 3.267
2.776 0.426 3.308
2.666 0.334 3.628
2.759 1.281 2.681
2.717 1.321 2.899
2.599 1.342 3.042
2.497 0.863 3.279
2.500 0.925 3.362
2.468 0.673 3.696
2.662 0.382 3.823
2.420 1.489 2.560
2.746 1.427 2.843
2.630 1.623 2.960
2.601 1.476 3.064
2.544 1.086 3.315
2.599 1.103 3.672
2.586 0.796 3.764
2.548 1.961 2.580
2.445 1.687 2.944
2.560 1.525 3.099
2.531 1.600 3.022
2.479 1.716 3.296
2.571 1.506 3.638
2.369 2.177 2.438
2.491 2.287 2.679
2.269 1.930 3.124
2.386 1.750 3.158
2.315 2.024 3.441
2.347 1.677 3.529
2.238 2.740 2.549
2.338 2.570 2.734
2.220 2.299 2.883
2.211 2.170 3.100
2.339 1.994 3.495
2.120 2.015 3.583
2.091 2.776 2.703
2.262 2.732 3.063
2.372 2.510 3.096
2.172 2.195 3.412
2.336 2.063 3.618
2.261 2.205 3.828
2.101 3.073 2.917
2.185 2.947 3.291
2.266 2.699 3.328
2.092 2.623 3.582
2.338 2.204 3.549
2.094 3.126 2.943
2.185 3.032 3.317
2.006 2.762 3.405
2.242 2.836 3.818
1.969 3.426 3.135
2.051 3.208 3.386
2.142 3.003 3.685
2.108 1.522 5.590
2.076 1.197 5.815
2.145 1.051 5.924
1.895 0.918 6.152
1.885 2.049 5.576
1.873 1.859 5.720
1.834 1.705 6.020
2.110 1.248 6.105
1.805 2.066 5.927
1.946 1.882 5.838
1.859 1.810 6.191
1.803 2.439 5.876
1.788 2.224 6.083
3.051 0.197 2.753
2.606 0.084 2.243
2.826 0.117 2.599
2.539 0.589 2.338
2.605 0.545 2.654
2.496 0.370 2.649
2.617 0.003 3.133
2.666 0.721 2.546
2.661 0.481 2.739
2.617 0.447 2.966
2.608 0.360 3.240
2.698 -0.127 3.531
2.324 0.975 2.615
2.562 0.857 2.850
2.571 0.605 3.114
2.550 0.470 3.094
2.481 0.430 3.197
2.321 0.272 3.555
2.481 1.030 2.409
2.286 1.331 2.644
2.218 1.113 2.813
2.283 0.832 3.130
2.467 0.712 3.348
2.360 0.643 3.487
2.360 1.472 2.833
2.399 1.367 2.885
2.370 1.387 3.043
2.248 1.172 3.207
2.346 0.813 3.617
2.330 1.656 2.572
2.152 1.390 3.099
2.002 1.719 3.107
2.142 1.334 3.221
2.091 1.151 3.527
2.050 2.025 2.798
2.231 1.992 2.954
2.008 1.783 3.054
2.060 1.975 3.279
1.921 1.781 3.649
1.959 2.307 2.667
2.215 2.419 2.925
2.153 2.089 2.972
2.053 1.937 3.167
2.097 2.179 3.538
1.846 2.883 2.628
2.115 2.521 2.972
1.942 2.513 2.968
1.925 2.333 3.129
1.831 1.926 3.538
1.983 2.088 3.601
1.919 2.927 2.957
1.800 2.935 3.207
1.722 2.637 3.379
2.053 2.483 3.401
1.832 2.102 3.712
1.845 3.061 3.145
1.879 2.877 3.259
1.869 2.783 3.399
1.814 2.521 3.709
1.746 1.140 5.319
2.011 1.263 5.658
1.800 0.991 5.787
1.698 3.483 3.197
1.627 3.304 3.271
1.552 2.974 3.770
1.845 2.866 3.906
1.816 1.426 5.569
1.697 1.312 5.793
1.753 0.974 5.981
1.809 0.990 6.068
1.583 3.663 3.338
1.596 3.252 3.706
1.564 3.023 3.891
1.514 1.873 5.549
1.810 1.777 5.880
1.530 1.344 5.841
1.791 1.143 6.001
1.586 1.972 5.965
1.649 1.674 6.055
1.394 1.932 5.974
2.560 0.054 2.413
2.561 -0.114 2.704
2.478 0.161 2.238
2.296 0.083 2.475
2.392 0.629 2.286
2.489 0.155 2.504
2.500 0.089 2.624
2.404 0.690 2.640
2.283 0.457 2.587
2.255 0.168 3.031
2.372 0.122 3.135
2.278 1.044 2.824
2.174 0.762 2.957
2.030 0.416 3.259
2.274 0.443 3.375
2.022 1.398 2.621
1.997 1.079 2.769
2.140 0.829 2.958
2.074 0.762 3.429
2.146 1.228 2.740
2.009 1.523 2.978
2.114 1.401 2.941
1.935 1.313 2.797
1.812 1.786 3.038
1.877 1.646 2.855
2.068 1.715 3.215
1.899 1.969 3.214
1.958 2.297 2.723
1.668 2.074 2.952
1.730 1.937 3.354
1.643 2.457 2.732
1.702 2.477 2.948
1.836 2.331 3.328
1.742 3.071 2.943
1.677 2.825 2.885
1.467 2.495 3.289
1.606 2.293 3.387
1.574 0.704 5.362
1.523 0.590 5.471
1.607 0.450 5.715
1.539 3.223 3.011
1.640 2.932 3.068
1.411 2.751 3.264
1.538 2.506 3.433
1.539 1.100 5.275
1.628 1.164 5.432
1.477 0.866 5.862
1.632 0.613 6.042
1.465 3.421 3.287
1.366 3.000 3.332
1.374 2.792 3.643
1.414 2.614 3.756
1.516 1.565 5.585
1.418 1.208 5.826
1.374 0.903 6.045
1.625 0.749 6.044
1.388 3.434 3.310
1.228 3.307 3.722
1.419 3.227 3.650
1.323 2.916 3.869
1.429 1.710 5.664
1.356 1.545 5.778
1.451 1.260 6.266
1.403 3.843 3.400
1.250 3.654 3.873
1.343 3.206 3.967
1.470 1.669 5.957
1.393 1.628 5.989
2.309 0.413 2.277
2.480 0.073 2.352
2.308 0.351 2.204
2.043 0.040 2.190
1.950 0.345 2.313
1.960 0.346 2.490
2.148 0.207 2.588
2.019 0.746 2.636
1.892 0.586 2.510
1.874 0.133 2.896
2.042 0.168 3.134
2.018 0.693 2.959
1.700 0.204 5.102
1.676 -0.067 5.221
1.529 0.543 5.105
1.387 0.508 5.447
1.467 0.195 5.643
1.460 2.815 2.945
1.413 2.627 3.213
1.541 1.002 5.278
1.263 0.639 5.441
1.395 0.665 5.466
1.501 0.344 5.566
1.395 2.925 3.071
1.225 2.873 3.066
1.283 2.547 3.219
1.238 2.472 3.640
1.233 1.005 5.190
1.220 0.803 5.429
1.489 0.771 5.748
1.180 0.475 5.786
1.216 3.180 3.289
1.285 3.114 3.490
1.274 2.893 3.678
1.108 2.661 3.821
1.278 1.479 5.496
1.090 1.256 5.548
1.158 0.898 5.837
1.214 0.705 6.202
0.997 3.396 3.166
1.236 3.295 3.382
1.032 2.977 3.547
1.173 2.981 4.005
1.070 1.462 5.834
1.238 1.504 5.721
1.000 1.050 6.217
1.177 1.029 6.256
0.870 3.670 3.353
0.854 3.448 3.663
0.979 3.396 3.939
0.995 2.894 4.178
1.140 1.680 5.982
1.033 1.347 6.380
0.784 3.866 3.738
0.988 3.462 3.841
1.103 3.449 4.172
0.877 3.312 4.243
1.018 3.642 4.202
0.805 3.656 4.251
0.896 3.470 4.508
0.554 3.659 5.646
2.215 0.043 1.996
2.238 0.260 2.131
2.311 -0.068 2.231
1.823 0.243 1.923
1.786 0.120 2.516
1.253 0.291 4.932
1.158 0.116 5.215
1.269 0.685 4.797
1.140 0.608 5.240
1.256 0.195 5.306
1.327 0.097 5.480
1.237 0.880 4.999
1.203 0.626 5.305
1.267 0.467 5.309
1.260 0.183 5.815
1.200 0.183 5.860
0.928 2.853 2.955
0.913 0.955 5.303
1.011 0.961 5.581
1.067 0.628 5.777
1.035 0.522 5.918
0.996 3.214 3.058
0.757 2.921 3.230
0.984 2.678 3.613
0.855 1.185 5.571
0.852 1.248 5.705
0.892 0.876 5.953
1.001 0.643 6.196
0.902 3.357 3.131
0.864 3.045 3.379
0.953 3.086 3.732
0.766 2.767 3.719
1.028 1.382 5.688
0.951 0.943 5.959
0.902 3.481 3.521
0.854 3.177 3.642
0.886 3.155 3.947
0.651 3.069 4.143
0.643 2.797 4.486
0.604 3.880 3.591
0.664 3.601 3.818
0.746 3.491 3.866
0.588 3.271 4.339
0.607 2.919 4.339
0.696 3.258 4.584
0.498 3.953 3.817
0.710 3.781 4.186
0.504 3.421 4.325
0.483 3.329 4.584
0.600 3.096 4.681
0.428 3.327 4.852
0.624 3.957 4.305
0.447 3.601 4.379
0.570 3.428 4.604
0.595 3.252 4.732
0.584 3.589 5.102
0.342 3.165 5.135
0.516 4.003 4.714
0.471 3.621 4.948
0.362 3.357 5.067
0.352 3.661 5.270
0.248 3.507 5.254
0.542 3.260 5.604
0.300 3.894 5.088
0.293 3.543 5.292
0.447 3.951 5.218
0.259 3.814 5.394
0.345 3.473 5.762
0.354 3.367 6.052
0.198 3.962 5.216
1.991 -0.109 1.893
1.911 0.117 2.128
1.292 -0.062 4.631
1.016 0.481 4.762
0.906 0.429 4.933
1.079 -0.003 5.161
0.962 0.840 4.779
1.107 0.502 4.930
0.875 0.504 5.198
0.820 0.383 5.318
1.135 -0.058 5.350
0.987 0.982 4.926
0.891 0.883 4.911
0.931 0.673 5.382
1.041 0.619 5.555
0.926 0.332 5.690
0.775 0.088 5.918
0.893 0.863 5.150
0.654 0.690 5.385
0.924 0.606 5.656
0.725 0.392 5.820
0.614 3.115 3.116
0.820 2.859 3.338
0.863 1.176 5.561
0.725 0.861 5.904
0.475 3.193 3.242
0.548 2.929 3.401
0.575 2.923 3.595
0.330 3.330 3.534
0.569 3.114 3.678
0.516 3.088 3.817
0.503 2.798 3.938
0.489 2.740 4.417
0.413 3.745 3.638
0.372 3.617 3.911
0.425 3.437 4.154
0.300 3.161 4.122
0.483 2.838 4.438
0.420 3.239 4.481
0.247 3.675 3.925
0.393 3.756 4.035
0.481 3.290 4.300
0.268 3.137 4.498
0.446 3.254 4.417
0.184 3.381 4.879
0.460 3.149 4.971
0.080 3.879 3.809
0.290 3.842 4.264
0.109 3.626 4.501
0.313 3.388 4.387
0.275 3.122 4.655
0.136 3.372 4.901
0.364 3.147 5.129
0.146 3.053 5.202
0.172 4.086 4.410
0.051 3.699 4.424
0.044 3.505 4.561
0.242 3.532 4.840
0.253 3.710 4.968
0.067 3.450 5.395
0.145 3.204 5.521
0.224 3.124 5.585
0.195 4.134 4.830
0.164 3.935 4.766
0.052 3.786 5.113
-0.022 3.834 5.151
0.130 3.636 5.418
0.002 3.361 5.852
-0.054 3.178 5.860
0.111 3.227 6.165
-0.057 4.117 4.947
0.140 3.806 5.155
0.791 0.323 4.578
0.963 -0.045 4.485
0.594 0.662 4.528
0.633 0.350 4.665
0.721 0.183 4.901
0.697 -0.079 4.953
0.684 0.734 4.583
0.545 0.492 4.739
0.549 0.225 5.006
0.833 0.324 5.336
0.863 0.013 5.278
0.737 1.018 4.674
0.568 0.760 4.944
0.475 0.720 5.178
0.688 0.480 5.288
0.630 0.197 5.463
0.653 1.122 5.264
0.694 0.899 5.471
0.527 0.431 5.669
0.383 3.285 3.110
0.268 2.899 3.400
0.351 2.826 3.419
0.244 3.541 3.280
0.276 3.056 3.481
0.376 2.942 3.664
0.295 2.787 4.083
0.111 3.623 3.405
0.189 3.396 3.681
0.218 3.114 3.815
0.222 3.137 4.115
0.016 3.122 4.370
-0.085 3.778 3.821
0.102 3.566 3.986
0.107 3.441 4.053
0.256 3.133 4.400
0.166 2.955 4.394
0.080 3.058 4.593
0.182 3.155 4.891
-0.101 3.463 4.160
0.029 3.312 4.445
-0.035 3.336 4.560
0.578 0.457 4.167
0.450 0.190 4.447
0.617 0.733 4.151
0.659 0.355 4.292
0.536 0.347 4.472
0.646 0.285 4.835
0.360 1.049 4.374
0.469 0.764 4.536
0.303 0.545 4.593
0.593 0.402 4.779
0.544 0.121 4.999
0.357 1.018 4.489
0.507 1.032 4.645
0.396 0.731 4.796
0.205 0.357 4.998
0.251 0.303 5.171
0.117 0.871 4.981
0.267 0.637 5.297
0.172 3.081 3.078
0.770 1.144 1.239
0.638 1.299 1.317
0.341 1.504 1.593
0.428 0.765 3.604
0.155 0.479 3.829
0.487 0.277 4.174
0.322 0.106 4.312
0.138 0.837 3.903
0.261 0.510 4.064
0.215 0.561 4.437
0.246 0.281 4.589
0.398 0.020 4.678
0.159 0.969 4.160
0.151 0.868 4.233
0.319 0.782 4.531
0.257 0.536 4.575
0.158 0.180 4.840
0.115 -0.014 5.177
0.101 0.849 4.438
0.114 0.691 4.607
0.126 0.698 4.941
0.075 0.462 5.204
0.343 0.823 1.084
0.408 1.154 1.034
0.421 1.015 1.407
0.337 1.483 1.316
0.422 0.990 1.475
0.307 1.112 1.911
0.074 1.404 1.659
0.278 1.182 1.638
0.351 1.042 1.863
0.011 1.771 1.748
-0.007 1.544 1.941
0.240 1.397 2.157
0.196 1.125 2.497
-0.145 1.301 3.075
0.113 0.867 3.265
-0.106 0.851 3.551
0.068 0.514 3.658
-0.001 0.407 3.754
0.220 0.166 4.211
-0.051 -0.102 4.378
-0.044 -0.062 4.665
0.071 1.009 0.896
0.247 0.581 1.295
0.096 1.090 1.174
0.143 0.762 1.457
-0.025 0.773 1.482
-0.002 1.372 1.353
-0.134 1.225 1.651
0.187 0.754 1.822
-0.032 0.548 1.798
0.047 0.503 0.786
0.150 0.322 1.065
-0.113 0.527 0.767
-0.145 0.534 0.996
5.444 0.042 3.801
5.394 2.077 1.879
5.531 2.064 1.902
5.615 1.797 2.272
5.406 1.371 2.455
5.412 0.126 4.457
5.313 2.142 2.051
5.453 2.077 2.111
5.451 1.863 2.492
5.475 1.697 2.589
5.272 2.461 2.163
5.368 2.363 2.479
5.252 2.175 2.370
5.252 1.765 2.609
5.363 1.880 3.053
5.205 2.620 2.339
5.197 2.342 2.568
5.140 2.216 2.592
5.093 1.942 2.919
5.424 2.007 3.011
5.292 1.944 3.302
5.188 2.618 2.795
5.195 2.352 2.812
5.132 2.337 3.229
5.100 2.200 3.320
5.139 2.412 3.338
5.252 1.974 3.603
4.940 2.472 3.202
4.982 2.399 3.431
5.170 2.249 3.579
4.927 2.600 3.514
5.002 2.272 3.845
5.198 1.969 4.046
4.907 2.466 3.625
4.954 2.425 3.731
4.884 2.661 3.979
4.840 2.475 4.089
4.808 2.216 4.059
5.046 2.022 4.332
5.048 2.516 3.929
4.907 2.941 4.068
4.703 2.556 4.184
4.703 2.331 4.265
4.918 2.377 4.604
4.890 1.956 4.837
4.718 2.741 4.039
4.685 2.911 4.306
4.861 2.805 4.445
4.752 2.697 4.706
4.824 2.441 4.815
4.895 2.125 5.153
4.753 2.193 5.136
4.854 3.097 4.130
4.547 3.065 4.673
4.605 2.919 4.748
4.660 2.545 5.015
4.632 2.339 5.143
4.703 2.292 5.499
4.511 3.330 4.596
4.493 3.098 4.930
4.532 2.969 5.063
4.498 2.481 5.428
4.765 2.250 5.686
4.682 3.039 5.209
4.409 3.088 5.465
4.572 2.851 5.493
4.615 3.022 5.625
5.455 1.841 1.618
5.494 1.706 1.800
5.490 1.467 2.004
5.573 0.076 3.809
5.412 1.967 1.669
5.449 2.020 2.135
5.519 1.581 2.191
5.424 1.408 2.215
5.066 2.151 1.888
5.081 1.673 1.932
5.300 1.801 2.274
5.247 1.394 2.259
5.138 0.009 4.027
5.085 2.321 1.960
5.107 1.866 2.254
5.131 1.869 2.146
5.201 1.669 2.557
5.197 0.146 4.407
5.197 2.293 1.963
5.153 2.103 2.328
5.191 2.087 2.541
5.025 1.955 2.558
5.062 0.139 4.762
5.069 2.459 2.633
5.095 2.173 2.744
4.966 2.006 2.985
5.068 2.336 2.787
4.620 2.636 4.092
4.765 2.243 4.425
4.641 2.081 4.545
4.415 2.725 4.317
4.647 2.454 4.419
4.477 2.461 4.645
4.709 2.096 4.934
4.379 2.870 4.544
4.469 2.583 4.564
4.501 2.637 5.006
4.496 2.420 4.975
4.230 3.075 4.736
4.423 2.965 5.080
4.483 2.785 5.189
4.346 2.662 5.173
4.473 2.346 5.671
4.113 3.434 4.807
4.211 3.085 5.158
4.207 3.025 5.158
4.474 2.765 5.580
4.162 2.709 5.625
4.253 3.502 5.167
4.361 3.331 5.189
4.164 3.048 5.409
4.305 3.039 5.656
4.074 3.626 5.363
4.201 3.153 5.688
5.393 1.104 1.545
5.390 1.682 1.442
5.436 1.455 1.611
5.268 1.350 1.819
5.306 1.140 1.850
5.345 1.771 1.403
5.370 1.527 1.622
5.389 1.438 2.010
5.390 1.164 2.132
5.059 2.129 1.780
5.123 1.854 1.867
5.120 1.790 2.074
5.207 1.550 2.169
4.986 1.998 1.607
4.898 1.739 2.015
5.092 1.444 2.112
4.879 1.262 2.212
4.938 0.205 3.919
4.894 2.171 1.857
4.765 2.061 1.881
5.026 1.700 2.333
4.946 0.103 4.285
4.845 0.004 4.450
4.954 2.151 2.157
4.720 1.961 2.330
4.999 0.084 4.744
4.830 0.202 4.787
4.620 0.327 4.949
4.675 0.114 5.320
4.581 0.335 5.413
4.650 -0.098 5.486
4.664 0.119 5.616
4.643 -0.126 5.948
4.678 0.182 6.092
4.487 0.301 6.300
4.033 2.586 4.588
4.145 2.543 4.733
4.367 2.364 5.019
4.068 2.998 4.777
3.973 2.705 4.726
4.057 2.763 5.048
4.151 2.493 5.249
3.998 3.252 4.826
3.851 3.129 5.022
4.192 2.687 5.307
4.021 2.488 5.454
4.158 2.512 5.521
3.982 3.464 5.029
3.768 3.206 5.390
3.835 3.057 5.400
3.816 2.866 5.695
4.059 2.559 5.919
3.881 3.597 5.273
3.782 3.536 5.286
3.701 3.187 5.737
3.862 2.954 5.683
3.687 3.943 5.562
3.798 3.485 5.756
3.830 3.469 5.701
3.628 4.065 5.384
3.541 4.043 5.619
3.760 3.665 5.632
3.599 4.206 5.399
3.525 4.175 5.494
3.753 4.131 5.694
3.444 4.325 5.675
3.434 4.628 5.762
3.456 4.584 5.659
3.462 4.379 5.609
3.502 4.770 6.085
3.240 5.376 5.255
3.317 5.154 5.517
3.432 4.957 5.654
3.464 4.707 5.981
5.273 1.316 1.204
5.306 1.156 1.275
5.373 0.905 1.547
5.253 0.933 1.686
5.083 1.415 1.192
5.117 1.403 1.457
5.164 1.215 1.725
5.061 0.924 2.045
5.062 1.879 1.335
5.173 1.710 1.639
5.193 1.303 1.784
5.175 1.264 2.084
5.060 1.877 1.551
5.120 1.745 1.882
4.939 1.583 2.020
5.112 1.328 2.368
4.681 1.820 1.671
4.777 1.851 1.981
4.875 1.528 1.995
4.523 2.039 2.006
4.539 0.395 3.847
4.667 0.209 4.232
4.477 0.332 4.476
4.523 0.325 4.619
4.463 0.385 4.704
4.360 0.272 4.884
4.397 0.304 5.253
4.595 0.018 5.188
4.470 0.452 5.394
4.313 0.095 5.603
4.144 0.245 5.696
4.457 0.179 6.036
4.326 0.653 6.098
4.187 0.489 6.244
3.683 2.922 4.976
3.842 2.667 5.097
3.996 2.458 5.347
3.762 3.024 4.893
3.745 2.970 4.967
3.608 2.628 5.170
3.711 2.679 5.560
3.671 2.308 5.687
3.498 3.363 4.917
3.647 3.258 5.108
3.614 2.878 5.446
3.822 2.607 5.638
3.596 2.615 5.791
3.728 3.664 5.046
3.641 3.441 5.191
3.765 3.187 5.245
3.704 3.141 5.398
3.650 3.078 5.777
3.500 2.667 5.947
3.559 3.819 5.106
3.525 3.902 5.092
3.604 3.572 5.182
3.597 3.519 5.666
3.433 3.181 5.575
3.401 3.022 6.062
3.604 3.753 5.145
3.389 4.069 5.224
3.246 3.732 5.522
3.350 3.787 5.681
3.360 3.504 5.907
3.428 4.377 5.304
3.263 3.958 5.334
3.267 4.249 5.581
3.425 4.189 5.670
3.405 4.045 5.770
3.429 4.508 5.141
3.170 4.381 5.473
3.395 4.102 5.460
3.219 4.542 5.672
3.304 4.409 5.799
3.045 4.942 4.961
3.361 4.751 5.349
3.061 4.531 5.650
3.287 4.491 5.695
3.200 4.782 5.876
3.161 5.475 5.092
3.078 5.120 5.339
3.005 5.120 5.327
3.232 4.934 5.851
3.161 4.497 5.742
5.037 0.629 1.790
4.988 1.353 0.912
4.834 1.185 1.339
5.051 0.933 1.414
4.908 0.704 1.664
4.890 0.567 1.709
5.017 1.460 1.383
4.929 1.493 1.541
4.983 1.176 1.560
4.774 1.045 1.899
4.892 1.701 1.471
4.805 1.410 1.666
4.646 1.167 1.754
4.960 1.030 2.066
4.637 1.933 1.610
4.705 1.663 1.935
4.800 1.412 1.983
4.409 1.791 1.408
4.548 1.732 1.706
4.597 0.042 3.589
4.475 0.207 3.855
4.345 0.143 4.139
4.325 0.309 4.090
4.274 0.302 4.355
4.301 0.087 4.526
4.320 0.480 4.601
4.377 0.228 4.546
4.307 0.188 4.810
4.234 0.480 4.731
4.174 0.325 5.125
4.348 0.074 5.261
4.012 0.401 5.337
4.240 0.321 5.260
4.128 0.179 5.565
3.953 0.411 5.547
4.055 0.348 5.748
3.981 -0.038 5.833
4.095 0.448 6.024
3.870 0.292 6.200
3.641 2.848 4.801
3.624 2.862 5.235
3.443 2.447 5.186
3.589 2.411 5.682
3.384 3.175 5.047
3.379 3.239 5.160
3.359 2.865 5.396
3.378 2.729 5.539
3.312 2.368 5.774
3.272 3.681 4.856
3.156 3.335 5.225
3.414 3.197 5.179
3.315 3.163 5.354
3.315 2.770 5.738
3.215 2.542 5.899
3.217 2.401 6.087
3.199 3.717 5.056
3.114 3.869 5.108
3.255 3.665 5.203
3.401 3.393 5.649
3.157 3.209 5.624
3.438 3.142 5.824
3.131 2.750 5.921
3.169 4.002 5.039
3.178 3.867 5.269
3.248 3.842 5.501
3.122 3.615 5.851
3.172 3.377 5.831
3.103 3.301 6.132
2.966 4.267 5.200
3.025 4.133 5.188
3.099 4.280 5.425
3.138 4.141 5.649
3.182 3.968 5.944
2.989 3.649 6.229
3.088 4.678 5.195
3.153 4.469 5.263
3.201 4.315 5.618
3.116 4.510 5.783
2.887 4.144 6.007
3.084 4.063 6.081
2.925 5.161 4.951
2.822 5.092 5.071
2.935 4.609 5.342
3.018 4.638 5.389
3.141 4.516 5.710
2.847 4.622 5.693
3.017 4.240 5.996
2.941 5.388 5.052
3.006 5.119 5.273
3.000 4.996 5.304
2.785 4.872 5.764
2.787 4.611 5.736
4.663 0.354 1.775
4.718 1.232 1.177
4.541 1.208 1.247
4.845 0.786 1.404
4.594 0.754 1.492
4.779 0.653 1.793
4.741 1.308 1.230
4.773 1.224 1.308
4.464 1.170 1.750
4.577 0.759 1.948
4.476 1.555 1.439
4.530 1.516 1.453
4.619 1.264 1.853
4.416 1.685 1.677
4.332 1.557 1.818
4.215 0.001 3.598
4.075 0.480 3.739
4.067 0.271 3.726
4.249 0.171 4.202
4.005 0.654 3.872
3.978 0.396 3.992
4.089 0.263 4.390
3.967 -0.090 4.364
4.055 0.539 4.095
4.115 0.542 4.548
4.057 0.254 4.643
3.892 0.145 4.980
3.998 0.647 4.527
4.024 0.434 4.695
3.907 0.349 4.945
3.850 -0.052 5.268
3.659 0.438 5.031
3.711 0.118 5.494
4.000 0.191 5.601
3.883 0.134 5.863
3.733 -0.120 5.860
3.608 0.313 6.005
3.386 2.539 5.042
3.273 2.390 5.372
3.204 2.167 5.445
3.278 3.057 5.065
3.156 2.667 5.396
3.184 2.534 5.536
3.093 2.279 5.530
3.152 2.150 5.780
3.233 3.545 5.066
2.916 3.138 5.353
3.039 2.938 5.492
3.192 2.936 5.515
3.078 2.745 5.716
3.289 2.490 6.023
2.954 3.690 5.119
3.061 3.586 5.399
2.904 3.373 5.321
3.047 3.037 5.616
2.886 2.902 5.887
2.945 2.856 5.952
2.981 2.666 6.212
2.898 3.724 4.990
2.807 4.015 5.110
3.054 3.647 5.380
2.988 3.467 5.683
3.018 3.401 5.830
2.784 3.308 6.003
3.110 2.921 6.067
2.890 4.016 5.202
2.954 3.914 5.343
2.734 4.180 5.295
2.790 3.803 5.463
2.819 3.805 5.759
2.907 3.667 6.014
2.893 3.462 6.111
2.804 4.584 4.924
2.907 4.448 4.935
2.924 4.479 5.289
2.701 4.239 5.361
2.878 4.158 5.739
2.879 4.239 5.720
2.617 4.109 5.977
2.783 4.919 4.918
2.608 4.890 4.864
2.759 4.605 5.179
2.591 4.673 5.482
2.740 4.429 5.668
2.676 4.396 5.690
2.446 5.157 4.829
2.591 5.241 5.137
2.697 4.856 5.474
2.699 4.675 5.490
2.652 4.520 5.686
4.535 1.143 0.857
4.460 0.900 1.310
4.537 0.822 1.268
4.592 0.795 1.574
4.440 1.518 0.994
4.434 1.211 1.487
4.248 0.863 1.590
4.497 0.766 1.579
4.336 1.537 1.199
4.271 1.520 1.706
4.297 1.067 1.749
3.991 0.342 3.518
4.011 0.240 3.674
3.696 0.652 3.499
3.663 0.417 3.884
3.718 0.235 4.043
3.899 0.089 4.193
3.646 0.623 3.940
3.731 0.533 4.266
3.778 0.367 4.244
3.868 0.024 4.431
3.613 0.778 4.206
3.481 0.427 4.442
3.497 0.465 4.663
3.779 0.160 5.059
3.712 0.146 5.422
3.285 3.004 3.066
3.024 3.265 3.120
2.905 2.133 5.584
2.760 2.769 5.205
2.831 2.652 5.539
2.825 2.234 5.631
3.064 2.224 5.749
2.796 2.074 6.152
2.945 2.981 5.379
2.920 2.966 5.512
2.963 2.628 5.635
2.778 2.429 5.657
2.790 2.442 5.972
2.984 2.164 6.036
2.744 3.623 5.140
2.846 3.434 5.262
