2.3522568 95.00512 1.9942551
1.751255 96.45312 3.548256
54.748253 102.25312 0.33025742
53.907253 103.58512 57.557255
15.276257 66.70412 43.620255
15.563259 67.64312 45.225254
22.537254 60.72112 48.226254
21.404255 60.12112 50.023254
24.350254 5.6301193 35.936253
26.333254 6.0981216 35.562256
29.059254 12.257118 42.785255
30.555254 11.640121 44.776257
46.465256 3.0241165 23.849255
46.314255 0.84311676 24.336254
48.496254 110.32412 34.738255
46.722256 110.48312 33.886253
34.746254 20.75312 33.212254
34.210255 20.63012 30.560255
39.421253 23.942116 24.570255
39.982254 25.320122 23.025255
4.567257 61.348118 6.1372566
4.746258 62.94312 4.421257
9.378254 73.00212 3.1172562
11.999256 72.90412 3.6602554
31.020254 97.35612 55.089256
30.986254 97.32412 52.981255
36.050255 103.82412 46.344254
34.992256 105.521126 45.098255
46.025253 61.14712 23.980255
44.175255 60.31912 23.176254
45.002254 55.98512 20.840254
45.107254 57.95712 20.949255
5.428257 74.843124 54.319256
5.725254 73.29312 52.821255
57.194256 75.94712 47.109257
55.229256 75.594124 48.026257
26.492254 106.232124 37.525253
26.442255 104.28413 36.168255
18.927254 108.00112 30.048256
17.548254 107.62312 28.350256
44.347256 99.40512 16.707254
46.207256 100.89012 17.034254
55.442253 98.81712 14.2452545
57.154255 100.02612 13.478255
9.532253 27.664116 45.596256
11.086254 26.610115 43.860256
0.614254 28.389122 39.991253
60.446255 29.68612 38.753254
2.2272568 83.26812 54.062256
2.5862541 81.84712 52.723255
8.675259 78.71612 45.198254
7.2292595 77.29212 43.766254
59.082253 103.104126 27.664255
59.189255 101.01212 26.807255
55.954254 104.98712 17.791254
57.597256 105.75112 16.282255
14.637257 93.78012 35.396255
13.671253 95.60912 34.262253
8.47826 103.649124 32.386253
8.178257 105.67012 31.007256
8.317257 69.57012 16.986256
7.7052574 68.25712 18.741255
4.8442574 59.05012 13.318254
5.4102592 61.49312 13.042254
1.7432556 79.510124 15.939255
0.3392563 79.54712 14.175255
4.612255 69.56412 14.148255
5.4762535 71.19412 15.329255
52.068256 81.90812 58.507256
49.919254 82.49212 0.043254852
42.419254 75.78112 54.285255
42.049255 74.39012 52.827255
27.692255 14.910118 41.788254
27.989254 14.080116 39.656254
19.558254 6.617119 38.748253
19.309254 6.1571198 40.801254
22.557255 54.43712 54.695255
21.305254 55.62812 53.367256
24.492254 65.34312 1.6202545
23.882254 67.107124 1.1542549
30.100254 48.96912 3.0822563
32.477253 48.97412 2.9722557
37.624256 40.41912 57.448254
38.398254 40.08612 0.6182556
48.576256 87.98912 49.704254
48.262257 86.45712 47.926254
52.613255 75.996124 46.079254
54.210255 77.66712 46.107254
4.1042595 29.09912 49.919254
3.6352577 31.47712 49.284256
60.533253 39.66212 50.677254
59.319256 39.56212 49.020256
3.690258 42.65412 28.276255
3.1322556 40.49812 29.417255
8.75526 33.85712 23.890255
8.535259 31.81012 23.217255
49.812256 24.485115 19.876255
52.009254 23.707115 18.715254
53.449253 15.026115 12.4102545
51.750256 17.209114 12.680255
60.401253 70.54612 48.543255
59.854256 71.96212 46.673256
55.215256 76.45012 43.570255
55.661255 74.51812 44.255257
5.6022606 59.14712 24.758255
4.8802605 57.03312 24.375256
57.877254 51.50612 18.758255
56.634254 52.63212 19.994255
55.374252 71.18312 46.930256
53.992252 70.024124 45.609257
49.635254 62.92812 40.170254
47.550255 62.49212 38.937256
39.672256 38.35212 56.885254
39.852257 40.19512 55.711254
37.847256 49.38412 52.238255
40.416256 49.68812 52.023254
53.428253 24.89112 54.566254
53.760254 24.722115 56.909256
0.29825592 17.471107 0.051258087
59.884254 16.108116 1.272255
43.617256 102.37212 45.773254
45.359257 102.951126 45.762257
42.948254 109.53413 54.694256
40.515255 110.72112 54.533257
27.942255 110.15913 1.159256
26.876255 111.480125 2.7212563
20.314255 108.87412 6.584255
18.728254 107.75212 6.8932533
15.976254 92.55012 53.383255
16.233253 90.27012 53.558254
28.312254 92.33212 53.001255
28.436255 91.78512 50.993256
26.467255 76.78312 10.371255
24.644257 76.843124 10.922255
15.268253 80.33412 8.984255
13.919254 80.73612 10.681254
52.574253 90.17612 37.649254
50.570255 90.01712 38.474255
47.770256 88.97512 46.289257
49.806255 88.60812 47.480255
49.545254 32.69712 48.702255
50.741257 33.21712 50.601254
47.655254 40.07512 57.637257
47.717255 41.79412 56.318256
50.946255 110.98312 48.674255
49.772255 108.79412 49.906254
40.661255 1.5421219 51.793255
39.832256 3.8971176 50.752254
17.568256 82.28212 50.347256
16.246258 83.54112 49.106255
10.779255 80.024124 50.601254
10.041256 78.496124 52.017254
53.220257 13.2391205 1.0332565
52.840256 13.897118 57.787254
56.964252 16.039116 53.322254
56.470253 13.567116 53.033257
52.300255 54.24912 45.275253
52.698254 52.21812 44.542255
53.356255 60.43312 36.523254
55.522255 61.91912 36.450253
28.089254 87.343124 37.005253
29.941254 86.68312 37.886253
30.724255 85.34112 48.492256
28.621254 85.17212 49.624256
44.163254 16.867119 15.099258
42.881256 16.554115 13.095257
43.190254 15.36512 5.371258
43.827255 13.775108 4.0472565
15.28426 8.748116 40.988255
13.161259 8.890121 41.302254
12.59026 18.573112 35.619255
12.89526 16.853111 34.524254
51.644257 110.62812 53.107254
50.357254 108.61412 52.562256
44.258255 4.457115 52.785255
43.114254 5.1991196 54.600254
42.746254 72.20812 57.371254
43.005257 70.77212 55.412254
42.968254 60.16112 51.027256
44.743256 61.41112 51.066254
56.238255 20.791115 31.396255
58.265255 21.741112 31.055256
6.749256 22.558113 23.732254
6.2192574 19.953117 23.017254
51.980255 33.25312 6.167255
53.417255 33.264122 7.6172547
58.733253 25.35711 14.288255
57.487255 27.752113 15.275255
43.950256 26.28312 44.162254
46.126255 27.645119 44.827255
39.184254 22.735115 46.154255
39.303253 21.74511 44.405254
47.980255 61.22112 21.612255
46.100254 61.59212 21.229254
44.597256 63.38212 9.221254
42.162254 63.06912 8.425255
8.935253 7.585121 26.635256
11.388256 8.207115 26.080256
19.907253 13.803108 28.094255
20.22926 16.017113 26.926254
14.90926 66.65112 1.7302551
15.551258 69.00012 0.8772583
5.551258 68.32612 53.223255
6.190258 70.37012 52.458256
52.089256 71.96212 34.408253
51.392254 71.97912 32.364254
58.409252 75.33612 25.733255
56.414253 75.15412 24.220255
51.110256 34.227116 15.929255
50.320255 34.045116 18.388254
40.607254 29.746117 24.994255
39.833256 28.228111 23.318254
21.729254 14.48011 22.520254
23.817255 13.927116 23.439255
25.893253 18.752113 13.908255
26.446255 19.416115 11.679255
19.89426 83.75212 36.451256
21.39426 84.27512 37.957253
23.658257 81.48912 42.436256
23.422256 80.89112 39.882256
31.982254 34.55412 39.975254
32.117256 36.96212 41.159256
33.749256 41.59812 45.654255
32.630253 40.21112 44.967255
24.215254 68.35912 19.038254
23.444254 66.71112 17.704254
28.588255 70.093124 12.571255
29.033255 71.51712 11.685255
5.871258 48.20812 17.906254
6.7382545 46.80112 19.391254
13.593258 39.59912 19.823256
13.616261 39.84712 22.081255
46.663254 2.6331177 21.278255
46.607254 0.5201187 21.712255
55.328255 107.75112 17.368256
56.866253 109.55712 16.781256
43.889256 11.521118 27.030254
41.934254 11.3381195 27.062256
43.370255 2.6721191 23.061255
42.094254 0.6281204 22.186255
47.845257 99.815125 10.791255
49.643253 98.29412 11.275255
57.321255 96.82712 14.302255
58.948254 96.39212 15.978255
28.686255 50.86412 29.025255
27.497253 48.39212 28.800255
21.478254 52.43412 35.154255
22.273254 51.35712 36.797253
10.04726 99.50112 46.883255
10.011257 97.80512 45.376255
59.925255 99.94612 43.629253
58.296253 99.52512 44.749256
51.251255 60.53512 22.412254
53.172256 60.27012 21.319254
60.241253 66.56812 27.228254
59.544254 69.16812 26.445255
46.652256 95.43712 33.325253
48.186256 95.16012 36.008255
41.829254 102.48612 34.972256
43.307255 103.33112 34.006256
4.4412575 83.98512 36.816254
3.9532585 81.86012 34.976254
8.517254 87.32112 34.887253
8.872257 90.04412 35.119255
13.748257 55.19812 2.0772552
15.56126 54.14112 0.8982582
12.711254 44.54512 5.246258
10.84026 45.09612 6.475254
23.753254 24.72712 16.787254
23.827255 24.390114 19.141254
13.721256 21.506111 24.443254
12.781254 20.02111 23.170254
41.453255 22.142113 40.312256
38.931255 21.74012 41.092255
36.190254 17.749107 47.644257
36.296253 19.570122 47.087254
29.615255 47.37512 5.3742547
32.166256 47.90012 5.3622546
33.624256 46.72712 14.839255
34.495255 45.56912 16.504255
16.450254 93.10812 38.085255
17.161255 93.89512 36.382256
25.286255 100.17812 39.416256
26.131254 102.06812 39.629253
9.179256 7.6331177 42.500256
8.677258 6.1441193 40.885254
8.258259 112.15312 41.414253
8.74226 109.826126 41.301254
19.958256 84.76812 31.432255
19.65826 85.39712 34.186253
20.824253 90.50712 26.913256
21.197254 91.99212 25.259254
5.942257 108.66812 41.990253
6.225254 110.47412 42.173256
2.7522545 7.3881226 40.749252
2.7152557 8.470116 42.660255
36.060253 22.63311 46.465256
36.729256 23.069115 48.540257
32.725254 21.13012 57.014256
32.551254 22.167122 59.029255
1.8862534 68.31312 31.192255
3.8142586 67.64812 32.111256
10.016254 74.51412 35.610252
9.796253 76.78712 36.003254
20.379253 100.82112 7.324255
22.151257 102.02612 9.129254
16.32526 110.05812 10.116255
15.513256 112.35112 10.376255
28.604254 28.866112 3.9132576
30.629255 29.974113 4.379257
39.995255 26.958122 10.483257
41.436256 24.955116 9.791256
22.674255 28.74511 17.560255
22.021255 28.830116 15.078255
12.154255 24.487114 19.813255
10.141254 24.991112 18.537254
40.064255 71.205124 32.755253
40.844254 72.36512 34.823254
39.473255 79.55112 40.276253
36.767254 80.01812 40.357254
58.343254 36.19412 38.417255
57.203255 37.27912 39.883255
55.046253 39.45712 46.960255
57.316254 39.18012 46.379253
30.634254 90.63212 52.218254
29.227255 88.67012 51.328255
28.346254 79.94412 53.985256
27.879253 79.04312 55.644257
11.392254 44.14112 11.238255
11.637257 41.97712 11.478256
11.986256 37.87512 1.1702576
13.349255 37.14012 2.8642578
30.068254 64.77112 4.185257
28.228254 62.97412 3.8282547
30.772255 51.54812 3.612255
32.632256 51.92812 2.6422577
14.846256 2.391121 0.91625595
16.690258 3.325119 58.908257
26.210258 5.7931213 55.372253
26.791252 4.6791153 53.392254
6.6302605 54.00012 37.284256
7.9552574 52.63112 37.055256
11.17226 41.01412 40.850254
9.608257 40.29812 39.698254
0.133255 68.73912 46.196255
59.428253 70.00012 44.930256
3.3472557 65.82612 34.099255
4.4452553 67.76912 35.460255
43.334255 47.04512 10.8772545
44.943256 45.09412 11.050255
55.722256 44.39512 10.195254
57.920254 44.17312 9.175255
36.879253 113.30812 30.897255
35.453255 0.49211884 31.634254
38.019257 114.10312 22.701254
36.934254 112.39212 22.469255
53.482254 20.137108 32.156254
54.563255 18.73011 32.107254
47.941254 15.635109 38.360252
49.074253 14.345116 39.760254
6.466259 90.78712 36.379253
6.7952538 92.57512 36.058254
60.662254 100.93012 38.535255
1.1082535 102.37612 36.674255
30.352255 63.47612 8.492255
31.248255 60.76312 9.185255
22.186255 58.19012 13.137255
22.558254 56.15712 14.145255
55.293255 44.60512 38.478252
53.393253 44.87412 37.277256
47.309254 39.12912 41.287254
47.360256 41.25812 41.901257
33.249256 14.071114 50.084255
35.051254 15.420113 48.616257
45.660255 17.80111 46.609257
43.941254 19.097115 45.677254
47.332256 4.4371185 33.797253
46.445255 2.7791214 33.028255
41.115253 9.71212 30.366255
42.963257 10.875122 29.585255
26.460255 88.74412 12.789257
28.415255 89.37512 13.130257
28.312254 97.25712 3.3252563
25.933254 97.65112 3.5892563
32.817253 30.48211 45.121254
32.651253 28.446114 46.501255
32.139256 36.007114 49.847256
31.989254 37.320118 47.557255
51.570255 100.410126 49.479256
53.835255 100.83412 50.396255
1.5602531 108.521126 50.141254
3.0512543 107.67012 51.370255
19.725254 106.898125 4.499256
18.276257 106.08612 3.2412567
9.878254 103.176125 10.958256
10.595257 101.799126 12.985256
24.586254 34.04512 52.403255
23.586254 34.22612 54.291256
18.247253 37.74312 58.403255
17.076254 38.84912 57.069256
58.206253 22.499107 37.044254
58.909252 23.379112 39.417255
58.221252 11.450119 45.300255
55.759254 12.002121 44.793255
11.303257 42.63612 46.084255
10.331257 44.05512 47.041256
13.804256 54.917118 42.197254
15.274258 55.709118 40.583256
56.791252 1.674118 31.683254
58.087254 0.84311676 30.197256
5.664257 6.5381165 30.819256
5.834255 7.620117 28.879255
54.049255 108.677124 9.361256
53.966255 110.11112 8.061253
0.99225616 112.11712 1.2762566
0.93725586 111.05312 58.228256
21.613255 75.89212 19.799255
23.636255 74.72312 19.760254
23.952255 72.93512 8.185255
26.417253 74.01612 8.378255
46.357254 13.447121 1.572258
44.926254 11.485115 2.3482552
50.854256 2.389122 57.729256
48.425255 1.5221176 57.541256
20.53526 72.72112 33.207253
18.980259 71.07112 33.236256
17.85326 71.30912 42.199257
18.233257 71.594124 44.918255
9.427258 8.2741165 19.017254
9.980259 5.882118 19.427256
9.761257 0.575119 21.920254
11.484257 1.6941223 22.535255
56.650253 42.87612 21.125256
58.547253 44.44512 20.455256
5.725254 39.20012 21.275255
8.024258 40.05512 21.327255
53.614254 109.90312 48.617256
51.788254 109.024124 47.135254
60.050255 0.90512085 44.877254
1.3202553 0.3001175 44.368256
30.939255 0.7791214 36.501255
29.048254 0.59311676 34.439255
19.260254 2.4861221 32.721252
17.953255 3.9421158 31.289255
12.702259 81.22312 21.682255
13.557255 80.62412 23.371254
21.082256 89.40912 20.291254
22.743256 88.76412 22.214254
31.227255 33.139122 42.093254
32.108253 31.54911 40.588253
25.871254 28.520119 42.010254
23.988255 26.85012 41.219254
13.556255 57.44812 43.563255
13.642254 58.94712 45.533257
14.765255 51.20712 54.448254
14.0022545 51.78012 56.777256
23.169254 46.51012 2.1182556
25.080254 45.95712 0.8792572
24.556253 36.67812 51.090256
22.516254 36.22212 50.833256
55.081253 44.04212 23.141254
57.332253 44.58412 23.685255
2.1042557 54.13212 24.610254
4.0822563 54.77212 25.834255
22.448254 3.2221222 36.265255
21.441254 2.6551208 38.643253
28.005255 106.92112 41.241253
29.808254 105.85312 40.454254
42.918255 101.562126 17.390255
44.502254 102.06012 19.155254
37.497253 110.71312 18.719255
37.920254 112.52912 20.230255
30.300255 106.85012 7.3132515
30.118254 105.23812 5.7992516
24.344254 102.60912 7.9272575
25.458254 100.78912 7.227253
34.739254 1.6041183 40.615253
34.216255 0.040115356 41.806255
38.998257 108.910126 33.418255
40.291256 110.50012 33.330254
28.811255 75.02812 10.067255
30.180254 73.76512 11.050255
31.785254 65.71612 10.254254
29.695255 64.92112 10.997254
3.890255 72.29312 43.970257
5.8042564 72.732124 42.652256
2.5852547 85.78012 38.724255
4.4692574 86.61912 39.553253
13.70026 51.93712 5.392254
14.249256 54.39312 4.7602577
6.1532555 60.34612 1.4882545
5.5872536 62.43712 1.6342583
41.992256 7.3021164 4.598255
43.282253 6.377121 6.218258
39.975254 6.700119 12.377258
38.056255 6.127121 12.527256
34.986256 43.38712 17.927256
32.630253 42.84312 16.582254
23.969254 43.53212 21.576254
21.484255 43.56712 22.407255
38.143253 85.92812 19.092255
36.503254 86.83612 18.548254
40.161255 96.71112 17.675255
42.201256 97.00612 16.800255
20.692257 89.81412 39.400253
20.211254 87.59012 38.858253
11.093258 84.82812 32.934254
9.197254 84.49412 34.722256
41.395256 47.21212 45.088257
39.969254 47.49212 47.387257
48.400253 46.29212 50.571255
50.592255 47.72912 50.235256
0.12025452 51.13412 8.838253
0.08925629 52.29812 7.3652534
50.709255 59.16312 7.442257
50.878254 61.38712 5.7992516
16.311255 12.734116 6.2402534
18.031254 13.645119 4.4392548
27.168255 10.26812 8.562252
27.994255 9.132118 10.523258
30.205254 57.02512 23.882256
27.799253 57.37312 24.161255
31.349255 47.02012 22.714254
33.136253 47.57412 24.752254
49.537254 67.93512 20.154255
50.014256 69.69312 18.345255
41.598255 74.86212 18.976255
41.073254 76.80712 19.672255
58.403255 4.664116 32.147255
57.284252 4.3831177 33.890255
7.1812553 5.596115 35.704254
9.260258 5.3591156 37.138256
31.908255 85.23512 36.776253
33.656254 84.010124 36.482254
36.198254 74.59512 40.385254
33.954254 73.79512 40.780254
3.7312584 69.82512 43.008255
4.435253 69.79612 40.894253
60.385254 76.12512 33.551254
58.294254 75.37212 32.291256
38.456253 105.95612 6.840252
40.635254 106.62312 6.644253
49.427254 108.57112 8.121258
51.627254 108.593124 8.064251
19.020254 38.167118 37.526253
19.894255 37.39612 39.443253
26.480255 38.688118 37.921253
28.724255 38.28212 37.066254
30.929255 8.57312 32.600254
30.161255 9.118118 34.773254
38.500256 2.7721176 37.322254
40.327255 3.1831207 36.757256
22.236254 55.03512 20.262255
20.795254 53.39312 19.987255
27.771254 45.99712 27.133255
29.174253 46.12412 25.580256
22.250256 103.40312 49.930256
20.70126 101.83212 49.099255
16.76926 96.63412 57.107254
15.586254 97.33612 0.13425827
4.716259 65.03012 45.435257
3.0242538 64.16612 45.260254
0.8202553 55.64112 36.406254
2.482254 55.78412 34.784256
2.6342545 42.53812 32.222256
1.4012566 42.77712 30.564255
7.8352547 41.65812 25.688255
8.6272545 42.18412 23.296255
7.682255 48.83112 57.448254
7.1412544 46.58712 58.684254
16.167255 41.89012 55.957256
16.841259 41.27112 54.081257
1.7092552 97.34112 22.306255
0.2352562 96.677124 21.006254
55.361256 88.62412 21.117254
55.985252 86.48612 19.792255
12.470257 111.00412 11.632256
12.206257 113.257126 11.081257
9.392254 4.749115 1.9202576
8.400257 5.196121 3.9522552
59.155254 98.203125 12.603255
59.951256 98.576126 14.852255
8.001255 103.509125 19.779255
8.35326 101.10812 18.932255
0.95425415 40.05012 53.127254
3.3142586 40.16212 53.251255
60.020252 49.51112 57.326256
58.806255 49.12812 58.815254
37.826256 71.12312 27.313255
36.490253 70.38312 28.671255
29.669254 61.97412 25.170254
29.663254 60.39412 25.986256
38.497253 71.81712 30.274256
40.795254 72.08312 29.587255
38.376255 81.96012 24.434256
37.295254 83.40412 23.653255
35.464256 7.2911224 25.673254
36.008255 7.863121 27.410255
42.264256 111.59812 31.706255
43.024254 111.80812 33.550255
17.736256 93.83512 21.469255
19.74326 94.510124 20.832254
23.179256 103.537125 24.909254
25.507256 103.60312 25.979256
11.911259 67.871124 16.375256
14.246258 68.29912 17.164255
7.1442604 73.89312 13.342255
7.787258 71.94712 14.150255
22.929255 111.80912 17.783255
22.731255 110.94612 19.732254
33.716255 109.16612 18.921255
35.683254 108.78212 20.137255
47.880257 1.5911179 40.415253
47.110256 3.0581207 42.190254
53.268253 112.830124 50.817257
55.524254 111.93512 49.269257
1.1812553 65.24612 41.498253
0.26725388 63.869118 40.000256
1.9462547 61.53712 30.205256
0.1462555 59.76712 30.113255
22.785254 85.68412 13.259258
23.416254 87.038124 11.555256
20.676254 81.19512 1.5432549
22.863255 80.52012 0.49925613
6.9812584 92.13312 24.911255
8.515255 93.42012 24.390255
17.29926 96.20112 18.548254
19.414257 95.35312 18.097254
21.435255 6.9701157 41.971256
21.582254 4.678116 40.381256
32.189255 2.0121155 41.033253
32.141254 2.3061218 38.745255
49.290257 56.11712 8.143254
50.691254 54.51712 9.713255
47.707256 51.19812 15.229255
46.772255 50.22412 17.244255
19.834255 106.187126 55.134254
18.628254 105.11412 56.981255
21.989254 98.01212 5.086254
20.036259 98.27612 4.3272552
44.850254 48.83112 15.271255
44.835255 50.80912 14.929255
35.037254 54.22412 8.909255
34.180256 55.19412 10.902255
0.49725342 6.565117 13.287254
59.050255 8.287117 13.932255
60.225254 15.235115 19.085255
58.197254 16.29412 19.166254
32.981255 35.72512 30.145256
31.434254 37.46312 31.153255
36.543255 46.55512 25.115255
35.366253 47.77912 27.007256
35.591255 99.60812 18.058254
35.560253 98.73312 15.679255
40.371254 105.38712 9.132255
38.120255 106.11412 9.525255
14.865253 88.29112 58.119255
16.730259 87.455124 56.649254
25.206253 90.70012 4.0872574
27.436256 90.13812 4.1892548
21.112255 24.775108 56.885254
20.03326 23.11512 55.742256
12.189259 32.317116 59.026257
10.662258 31.51812 57.811256
26.689255 22.019112 11.895256
26.226254 21.234108 9.524258
20.604254 22.334114 0.71025467
20.205254 20.121117 58.960255
28.531254 93.05512 42.322254
28.811255 90.96112 41.068253
26.842255 80.55012 46.031254
27.087254 80.44912 47.800255
0.64525604 49.36812 14.455255
1.416256 50.40512 12.835255
6.737255 53.223118 21.644255
9.03426 53.29012 20.899254
27.921255 22.401115 27.151255
29.613255 22.457115 25.623255
27.336254 9.812119 24.524254
26.225254 10.215118 22.212255
50.279255 52.33812 23.317255
48.331253 53.65712 23.535255
42.924255 60.81412 31.050255
44.258255 62.85312 32.501255
45.617256 40.34312 48.903255
45.934254 40.52812 51.332256
54.580254 41.23912 55.665257
52.820255 41.11312 57.130257
7.921253 26.654121 21.728254
7.579258 24.626122 20.055254
59.024254 17.862114 21.448256
57.691254 19.196114 21.421255
35.249256 47.03412 39.495255
36.520256 45.09412 38.921253
33.751255 43.36212 47.853256
33.389256 45.38412 49.573254
33.549255 107.910126 49.062256
33.994255 106.58612 51.305256
22.892254 104.955124 53.535255
23.353254 105.65212 50.816254
39.009254 48.896122 38.754253
39.709255 51.51812 39.503254
41.706253 61.29712 33.939255
39.221256 60.67712 33.843254
44.520256 44.29012 14.304255
44.176254 45.94012 15.297255
46.251255 51.237118 22.463255
48.559254 50.76012 21.995255
1.3262558 32.194115 36.921253
0.2012558 32.72912 38.700253
0.86925507 30.338112 46.424255
0.29525375 30.276115 48.490253
6.872257 59.56512 22.430254
9.305256 60.02312 22.105255
12.993259 54.14712 27.609255
15.097256 53.02512 28.069256
47.292255 67.23812 55.151257
45.562256 67.55512 54.038254
41.390255 72.66912 50.538254
41.612255 71.968124 47.855255
4.237255 110.07012 51.245255
6.287258 110.53112 52.591255
16.111256 111.49912 46.297256
16.17226 112.21112 43.958256
45.058254 37.96312 44.665257
45.638256 39.65812 43.390255
46.140255 47.88812 46.313255
44.967255 47.26712 44.186256
47.966255 81.31112 20.358255
49.089256 79.22612 19.556255
50.911255 71.71112 25.953255
52.530254 73.14712 25.604254
42.261253 80.90912 24.228254
44.374256 80.16912 24.626255
38.892254 69.55512 24.899254
38.634254 67.343124 24.510254
30.910254 71.77712 43.551254
32.495255 72.03312 45.710255
31.270254 82.62712 49.748257
32.282253 81.70912 51.444256
52.279255 112.51312 7.6092567
53.933254 113.98412 8.846256
53.218254 10.8641205 3.2672577
54.838253 12.793121 4.4342575
29.554255 0.19911957 10.1602545
29.323254 112.593124 8.432255
38.813255 108.980125 9.365254
41.410255 109.37212 10.146255
13.610256 41.40112 40.415253
13.71526 42.67912 42.329254
16.941257 53.68512 42.266254
19.009258 54.02212 43.340256
23.187254 55.31512 36.395256
22.005255 54.34212 38.352253
24.446255 62.62012 46.948254
25.191254 60.50812 47.378254
14.080257 111.899124 13.407255
12.653255 112.036125 15.651255
13.337254 113.98612 22.279255
15.03326 0.6201172 21.451254
51.293255 91.52512 4.7412567
49.662254 89.94312 3.883255
56.726254 85.30412 55.390255
57.106255 84.08912 53.066254
26.524254 7.8021164 0.83825684
25.783255 5.6331177 0.49325562
22.904255 110.204124 58.089256
20.089254 110.079124 58.720257
38.097256 60.98412 13.363255
39.229256 62.95112 13.661255
42.265255 68.95012 5.194256
40.496254 68.53412 3.381256
59.298252 92.84912 45.707256
57.314255 93.57512 45.709255
58.033253 85.17412 41.708256
60.401253 85.79212 40.918255
11.81126 72.89612 52.009254
9.5782585 72.18312 51.537254
15.666256 77.48812 42.639256
17.369259 76.53612 43.763256
57.630253 78.05312 25.688255
56.633255 78.00512 27.799255
56.542255 77.37612 33.299255
58.489254 78.57312 33.189255
60.715256 10.625122 46.108253
58.878254 9.8871155 47.497253
51.735256 9.666122 51.696255
51.726254 10.950119 49.462254
49.883255 74.61812 42.948254
51.707256 73.51912 44.581257
46.906254 69.51512 52.607254
47.778255 71.81512 52.528255
21.339254 20.907112 53.198254
22.825254 19.568108 53.154255
31.295254 16.260109 50.131256
31.563255 16.303108 48.091255
38.358253 1.3501205 20.127254
39.530254 1.7091217 21.611254
30.997255 4.2551193 23.888254
29.020254 3.7651215 23.201254
46.811256 50.42812 34.946255
48.563255 50.76612 36.758255
59.048252 54.58912 34.509254
0.37425613 54.69312 32.842255
23.803253 50.83012 40.154255
22.385254 49.58812 39.147255
22.609257 43.41712 40.214252
24.473255 42.61012 40.349255
23.322254 107.411125 57.447254
25.479254 108.73312 56.639256
31.485254 107.354126 46.453255
30.096254 105.55812 45.546257
4.216259 92.92412 10.956255
4.0402565 91.33812 12.435255
8.810253 80.36912 10.861255
10.2902565 82.03112 11.411255
41.288254 62.917118 45.657253
41.955254 63.542118 47.659256
31.596254 63.63412 55.683254
29.958254 62.674118 56.022255
53.753254 97.50512 34.426254
51.593254 97.191124 34.656254
56.771255 96.17212 45.770256
56.680256 96.50912 47.911255
25.658255 107.00612 0.37025452
27.668255 106.90212 57.358253
24.320255 94.85012 0.013256073
22.480255 95.20112 0.33225632
1.9622536 91.68612 14.531255
1.357254 91.18512 12.480255
56.160255 80.40712 9.941255
57.336254 78.52212 11.450254
43.739254 88.65112 53.442257
45.339256 86.57812 51.748257
45.287254 76.80112 48.556255
43.158257 76.51612 49.350254
9.0402565 9.609116 33.857254
10.727261 8.919121 32.551254
10.027256 19.235115 32.156254
11.585255 19.403114 33.390255
47.773254 31.72212 33.664253
47.114254 33.35812 32.499252
36.620255 35.89612 30.650255
35.619255 37.89212 30.594255
30.279255 48.56012 29.011255
29.903254 46.63212 29.095255
34.709255 37.95112 33.506256
32.370255 37.18712 33.836254
22.632254 87.13712 19.037254
24.513254 86.88912 19.665255
33.107254 81.36412 21.586254
35.115253 82.86912 21.783255
35.281254 39.39512 3.4562569
37.852257 40.06212 4.7142563
38.204254 52.13012 1.7012558
40.544254 52.37412 2.402256
58.375256 43.41312 28.232256
57.016254 45.389122 29.070255
56.393253 54.75812 23.898254
56.143253 56.60112 25.851255
21.491255 35.50412 53.158257
19.967255 33.53812 53.586254
26.137255 33.41012 5.305256
26.577253 31.56012 4.1932564
35.731255 60.75712 53.383255
34.388256 59.52212 55.087254
28.956255 49.42312 50.483253
30.672255 49.18712 49.396255
5.114254 8.79512 40.833256
6.8372536 10.609116 41.026253
5.1152534 9.793121 30.769255
2.7962532 10.318115 29.861256
17.177258 110.12712 58.297256
17.338253 112.34712 0.24125671
9.152256 3.8991165 57.952255
7.5192604 1.8241196 57.064255
45.404255 86.51112 36.037254
47.008255 87.87412 36.495255
41.140255 90.61512 44.476254
41.155254 90.42812 47.138256
15.01926 67.87012 27.066256
14.931255 65.58612 26.080256
5.640255 65.89512 30.731255
3.4792595 65.62512 30.550255
41.089256 101.04412 45.346256
39.878254 102.29212 43.490253
36.978256 98.800125 34.709255
36.419254 98.772125 32.941254
37.977257 12.916122 53.873257
38.663254 10.611122 52.818256
48.959255 11.423119 49.613255
49.053253 14.03112 49.678257
4.7102547 0.3951187 11.847255
5.822254 2.153122 11.289255
6.2482567 12.451118 13.820255
7.0182533 12.62812 15.774255
6.8992577 90.89812 57.309254
7.376255 89.68012 0.2222557
15.577259 87.03712 2.3542557
15.09026 85.57612 0.41825485
55.844254 70.69512 57.082256
53.990253 69.64012 58.697254
50.048256 73.50612 9.797256
50.508255 75.10012 11.334255
0.5252533 73.33512 8.966251
58.897255 72.86412 9.312252
57.789253 66.30612 58.570255
55.856255 65.34012 57.548256
23.715256 29.42411 10.595255
21.499256 29.933113 10.729255
13.0782585 24.729118 15.018255
12.817257 26.950111 16.019255
45.712254 36.33612 47.189255
47.054256 36.25912 45.381256
43.192253 34.83212 44.519257
42.686256 36.87812 46.124256
36.553253 11.398117 28.209255
37.475254 9.349121 29.466255
34.247253 1.2651215 34.065254
35.381256 114.10912 35.117252
55.231255 12.159119 49.020256
55.924255 13.984108 50.216255
56.639256 23.637108 44.445255
58.114254 24.872108 45.155254
28.651255 13.136116 46.355255
27.980255 14.379112 44.901257
16.949255 9.275116 43.175255
16.081255 7.474121 44.907253
19.008259 63.40712 3.8452568
17.358257 65.21012 2.7902565
22.274254 70.22012 54.618256
24.676254 69.82612 54.650253
41.416256 74.62312 48.599255
39.749256 75.25012 50.425255
28.606255 73.67112 51.181255
27.878254 72.00012 51.506256
5.3042564 9.158119 43.665257
4.1832542 9.146118 45.488255
13.655254 12.286118 48.041256
14.890255 14.601112 48.320255
25.552254 0.47711945 51.435257
24.827255 1.1611176 53.619255
28.476254 6.346115 56.391254
29.118254 8.43412 56.175255
4.1692543 30.18911 26.806255
2.7312546 29.68911 25.200254
55.530254 28.002113 30.202255
53.719254 28.987114 30.900255
26.612255 113.71012 48.825256
25.269255 1.6941223 47.985256
18.631254 4.565117 42.966255
20.099255 5.8481216 43.781254
49.336254 112.59912 37.293255
48.517254 113.12712 39.869255
50.419254 106.11012 46.456257
50.091255 106.29112 48.677254
57.307255 40.80912 22.632256
57.882256 39.24612 20.981255
57.041252 34.03612 17.951254
57.006252 33.64112 19.799255
12.97826 51.445118 26.182255
11.280254 52.18312 27.432255
19.605259 44.49812 27.891254
20.440258 45.44812 25.856255
4.2552605 16.539116 51.010254
4.5472603 16.18612 53.347256
7.9812584 5.30912 55.054256
7.9792595 6.1211166 57.228256
1.1762543 60.89412 27.487255
59.608253 61.473118 27.333256
5.3732567 68.996124 22.692255
3.6022606 69.72312 21.101255
26.506254 22.264122 29.468256
25.177254 23.869118 28.547255
27.813253 21.876122 35.376255
25.404255 21.96212 34.556255
50.923256 30.450111 47.506256
51.627254 29.226112 49.706257
56.129253 23.287117 41.424255
56.298252 24.494118 39.397255
24.379253 104.132126 38.008255
23.389256 103.494125 40.052254
14.968258 110.65913 41.655254
13.039257 109.90012 42.328255
59.196255 26.861122 51.696255
0.41225433 28.53312 52.266254
54.783253 38.044117 58.986256
56.910255 37.447117 1.159256
11.332256 78.72212 18.090254
9.217258 77.19612 17.462255
14.596256 73.09212 27.567255
16.041256 74.93212 27.563255
36.478256 21.608116 43.774254
34.565254 21.041115 44.705254
25.024254 19.678108 43.365253
25.521254 17.409111 42.862255
25.281254 56.86812 50.833256
26.931253 57.41312 49.070255
32.068256 55.44712 40.514256
33.680256 55.52412 41.379253
57.564255 15.907112 6.5352516
57.849255 16.34211 8.722256
7.904255 13.634117 6.289257
9.251255 11.164116 6.0072517
13.869259 8.978119 44.480255
12.17226 8.756119 45.806255
10.136257 18.800117 37.867252
8.638256 20.166115 38.661255
38.496254 4.374115 58.206257
40.540257 3.9891205 58.828255
32.612255 0.13812256 9.067257
31.498255 113.62812 6.7482567
9.856258 104.07112 29.108255
7.963253 104.15312 28.038256
4.8232536 112.14012 21.301254
5.581257 113.54312 19.843254
50.339256 85.84512 38.031254
52.107254 87.31312 38.664253
55.531254 93.19012 47.528255
56.331253 90.92512 49.141254
26.849255 98.84512 41.307255
24.876255 97.67612 40.549255
22.924253 86.50512 37.848255
23.008255 85.66112 39.974255
10.674259 76.86812 5.8492546
12.735256 77.48612 5.8042564
22.241257 78.03212 1.7012558
24.681255 78.56112 2.2202568
16.204258 56.65012 1.5482559
14.917255 58.23112 1.8662567
11.271259 65.20712 11.349255
12.123257 64.84312 12.985256
30.464254 108.19412 1.4972572
31.995255 106.969124 3.1562576
39.053253 105.25112 56.087254
39.895256 103.42812 57.704254
36.515255 2.3451157 45.129253
38.266254 3.5411224 44.566254
38.232254 0.7761154 35.742252
37.673256 0.25811768 33.596252
25.848255 62.02212 5.092251
24.421255 59.53212 5.9502525
31.416254 55.26312 9.570255
32.573254 54.87812 7.093258
10.471256 113.982124 38.599255
8.27026 114.16812 39.198254
0.96725464 109.68012 33.761253
59.187256 110.396126 34.778255
47.557255 9.514122 26.125256
47.646255 7.5451202 25.782255
53.422256 0.41111755 22.678255
53.268253 1.9281158 23.971254
7.966259 71.57112 38.330254
7.626255 73.25512 36.278255
3.6022606 73.43612 26.427256
2.8152542 73.02312 24.721254
55.865253 92.60612 18.179255
54.789253 93.63812 19.270254
44.891254 97.979126 20.794254
44.158257 97.79512 23.168255
46.472256 31.670113 36.177254
44.502254 31.634117 35.232254
34.041256 31.164116 38.114254
32.601254 32.767113 36.677254
44.674255 41.89512 41.892254
42.159256 42.86412 42.258255
34.489254 34.76812 37.454254
34.428253 33.60612 39.261253
6.093258 68.46112 43.525253
7.017254 66.54612 44.396255
15.123257 69.37512 52.550255
15.599255 67.85012 54.167255
23.353256 39.07212 22.804255
23.174255 40.68412 21.261255
13.376255 41.04412 15.905255
12.542255 42.07512 14.482255
35.859253 28.970116 12.742256
37.103256 29.429115 11.143257
40.469254 28.041115 7.491253
40.442253 29.606117 9.038258
30.247255 80.79612 55.657253
32.052254 81.65412 57.314255
35.780254 92.30812 57.500256
33.728256 94.41212 57.865253
43.878254 97.95712 43.415257
41.673256 98.313126 44.629253
42.724255 95.67812 34.673256
41.402256 93.97312 33.885254
9.375256 37.05212 21.602255
8.47826 35.38612 21.008255
4.2852592 33.26512 11.875255
5.1432533 31.57212 10.407255
36.445255 31.655113 14.761255
34.668255 33.42411 14.065255
24.315254 34.253117 10.954255
23.790255 31.943108 10.031255
48.706253 20.92411 16.876255
46.719254 19.249107 15.480255
53.558254 14.381111 23.147255
53.740253 15.535118 25.102255
16.707256 104.65512 58.925255
16.735256 106.68412 0.13625717
7.871258 106.84812 8.196255
8.405254 108.06112 9.952255
46.383255 34.21912 37.121254
44.640255 34.87312 35.449253
38.366257 43.03312 37.836254
36.333256 41.09412 37.408253
19.293255 102.88912 53.336254
17.287258 102.121124 52.790257
6.400257 101.53012 55.529255
7.680256 99.396126 55.454254
47.125256 11.468117 27.854256
46.436256 13.349121 27.389256
49.721256 22.558113 30.664255
51.377254 22.18412 32.504253
33.906254 7.188118 54.903255
33.827255 6.9071198 57.279255
33.824253 109.274124 0.77225494
33.628254 109.27812 3.1072578
20.958256 39.49412 7.982258
19.045254 38.63712 8.181255
14.166256 32.05212 5.4942513
12.613255 30.09212 5.829258
0.07325363 85.00512 38.123253
1.8682556 84.15912 36.353252
6.709255 76.65112 35.305256
7.3612556 76.03412 36.886253
3.7862587 110.04112 56.428257
2.850254 107.705124 56.288254
53.510254 109.15712 51.477257
52.368256 107.47312 51.011253
34.158253 79.90712 18.904255
33.585255 79.71412 16.515255
32.114254 84.86512 10.947255
30.538254 84.20712 9.889255
10.910259 13.3991165 47.193256
12.425259 15.657112 47.452255
18.373257 10.49012 48.568256
19.028255 11.165115 50.094254
2.298256 40.27212 56.714256
3.716259 39.02412 55.536255
12.211254 45.49012 2.4482574
10.205257 46.57412 0.9362564
54.959255 4.0261154 14.100255
54.526253 4.0721207 11.740254
43.816254 111.84712 14.405255
42.788254 110.15612 12.917254
29.058254 38.46512 34.414253
29.119255 38.22412 32.590256
24.642254 41.20112 23.823256
26.013254 42.34612 22.496254
7.0382576 113.22312 12.581255
6.499256 111.882126 13.9102545
10.469257 102.89212 17.537254
10.511257 104.41712 19.286255
60.618256 88.29612 43.474255
1.5422554 89.74812 43.658257
8.178257 92.871124 47.411255
10.157253 93.74012 47.940254
44.029255 63.40712 45.403255
44.511253 65.664116 46.926254
35.870255 73.79312 43.649254
37.134254 76.04712 43.042255
36.896255 26.251122 21.408255
37.062256 24.813118 23.220255
27.380255 31.701118 24.809256
27.837254 32.94912 23.589254
60.336254 39.34312 4.836258
0.3812561 38.11712 7.069256
8.848255 29.08812 1.6882553
10.925259 29.84512 2.046257
29.891254 35.829113 34.043255
28.747253 35.246113 36.143253
19.630255 28.04911 37.226254
21.275255 26.571114 37.928253
25.565254 104.80412 9.650255
27.003254 106.72012 10.105255
29.772255 106.14112 9.943254
29.110254 104.537125 9.341255
34.042255 51.62612 23.929255
34.698254 49.80712 23.496254
39.319256 49.37212 21.102255
41.121254 50.46812 19.086254
17.864254 90.89712 17.251255
16.433254 91.274124 19.231255
11.438259 81.23612 16.551254
10.610256 81.92012 14.408255
17.032253 44.79812 56.010254
18.973255 43.08012 55.098255
22.120255 47.14812 46.709255
24.630257 47.51212 47.233253
6.926258 38.298115 38.886253
6.827259 36.839115 37.395256
6.8322563 28.403114 46.613255
5.8522606 27.989113 48.171257
15.987255 109.94412 5.5652547
16.125256 107.83512 6.4342546
13.76926 101.87912 14.328255
15.521259 100.38712 15.572255
39.196255 13.644119 20.977255
37.997253 14.0961075 19.537254
32.451256 23.11512 15.568254
31.157255 23.455116 13.9692545
9.366261 55.55012 38.785255
7.7172585 56.55512 36.975254
5.9052544 67.218124 41.181255
7.5972557 68.61112 41.034256
33.586254 1.1261215 45.339256
34.915253 0.057121277 46.621254
29.638254 111.35212 57.870255
28.282255 109.63112 56.829254
7.560253 13.566116 48.855255
5.664257 13.988121 47.174255
1.0522537 18.890114 37.714252
0.6762543 16.57412 38.273254
19.384258 59.51312 13.820255
19.566257 60.72612 11.772255
14.831257 52.04812 8.678255
16.211254 50.65912 10.295255
3.8752556 12.591118 22.432255
5.197254 10.470116 22.380255
1.4832535 113.55612 18.790255
3.63126 112.89112 18.085255
7.8492546 101.049126 51.568256
8.70126 99.17012 52.990253
58.742252 92.80712 48.539257
57.295254 94.31512 49.050255
30.461254 19.364113 1.1992569
32.997253 20.116112 1.6932564
37.142254 17.256111 11.454258
36.791256 15.697121 9.844257
3.3592567 93.26912 58.889256
4.281254 95.13712 58.530254
11.278255 99.79512 54.295254
11.570255 99.29112 52.374256
56.586254 100.18012 46.727257
56.834255 99.33312 48.644257
7.9692574 101.18412 47.560257
7.904255 101.190125 45.521255
8.789257 18.82711 34.634254
10.28326 16.994118 35.252254
8.370258 8.640121 40.170254
8.116261 7.466118 38.480255
29.369255 100.690125 25.818254
29.033255 98.94712 24.481255
18.996254 97.75012 17.067255
17.291254 98.83712 17.407255
56.796253 25.27111 51.385254
58.670254 24.22512 52.193256
59.456253 15.322121 57.338257
60.489254 13.581116 57.938255
5.6752586 91.13212 1.6632576
5.9772606 93.17612 0.3622551
15.815258 93.49912 6.301258
17.766254 93.39712 5.5872536
7.2122536 49.79112 16.113255
9.399258 50.30912 16.900255
9.499256 61.070118 19.564255
11.623257 60.84212 19.482254
16.001255 66.76512 51.375256
17.984255 66.59712 50.139256
28.400253 66.09212 57.075256
28.129253 68.482124 57.764256
10.379253 57.83512 41.184254
11.1042595 58.84912 43.044254
60.672253 60.33912 47.987255
59.942253 61.37612 46.138256
41.170254 41.72012 0.6802559
40.078255 43.14312 2.1392555
40.427254 43.41112 5.4552574
39.331253 44.02512 7.1812553
58.656254 112.42012 48.609257
59.345253 111.50612 46.849255
51.518253 103.25612 46.121254
52.824253 102.46412 44.579254
7.4982567 1.4271164 9.380253
8.294254 1.8701172 7.3912544
13.875256 113.507126 0.32525635
14.168255 114.190125 2.930256
50.520256 59.42612 24.684256
49.104256 61.05212 24.147255
43.061256 63.66912 26.550255
41.329254 65.25612 25.862255
17.613255 40.26112 25.472254
18.68726 41.87812 25.823256
16.35326 36.79012 35.263256
14.414257 37.591118 35.963253
7.3912544 8.994118 21.941256
6.6602592 8.404121 23.546255
10.88026 3.2591171 24.916254
12.279255 3.71212 26.508255
27.619255 86.84912 10.708255
29.701254 86.23912 11.476254
25.760254 77.91412 19.512255
25.184254 77.71612 21.176254
47.816254 4.3001175 13.141254
46.084255 5.6971207 14.550255
40.858253 11.417122 17.033255
39.870255 12.801117 18.289255
44.342255 93.48512 12.032255
44.365253 94.20912 14.312255
54.122253 90.53612 17.567255
55.736256 89.85312 16.963255
20.717258 68.23312 32.545254
19.627254 68.44812 34.372253
8.872257 69.50112 35.443253
8.6652565 68.73612 37.869255
39.056255 68.46612 28.565254
38.294254 66.75212 27.468256
32.138256 71.06212 32.479256
32.263256 71.44812 30.117254
27.499254 76.37812 25.412254
27.913254 74.83712 24.313255
39.193256 73.469124 21.836254
40.201256 75.20312 21.715254
46.363255 0.5181198 16.893255
46.898254 2.266121 16.501255
59.525253 113.649124 16.498255
59.942253 112.50212 18.300255
20.009254 49.29112 18.663254
20.423254 49.39312 16.012255
27.095255 43.26712 12.935255
24.997253 42.14112 13.889255
46.198254 47.01312 28.700254
47.159256 44.83512 29.818254
52.820255 36.38012 31.058254
50.600254 35.61212 31.210255
42.346256 15.032112 32.418255
42.291256 15.35511 34.736256
49.159256 6.5481186 29.729256
50.045254 8.806122 27.715256
45.503254 75.86012 34.270256
47.150253 74.74912 35.021255
50.018253 72.81012 35.908253
49.707256 70.42912 35.772255
15.469257 92.31212 40.472256
15.495258 90.20212 39.610252
12.622257 79.67212 42.366257
11.171253 80.20912 44.048256
44.594254 101.177124 43.637257
42.618256 101.46112 41.985256
38.437256 105.64512 33.889256
37.443256 105.21212 32.314255
35.902256 77.39312 17.029255
35.637253 77.53512 19.070255
25.332254 72.10012 21.487255
23.801254 71.913124 19.541254
23.047256 22.718117 29.704256
24.180256 20.553108 29.652256
14.745258 22.728111 34.796253
15.536259 22.02311 36.545254
11.556255 78.46512 28.288256
12.778255 79.44212 26.011255
23.949253 75.75212 22.154255
25.383255 75.93412 23.270254
27.366255 35.26312 50.088257
29.820255 34.603115 50.256256
32.841255 27.899117 0.55425644
31.689255 29.874107 1.8352547
52.421253 103.48512 20.005255
53.901253 105.15412 20.150255
58.765255 113.466125 26.051254
57.958256 113.69412 28.035255
28.856255 86.09012 32.995255
27.944254 85.482124 30.629255
34.894253 87.92512 26.052256
32.965256 89.41512 25.651255
10.470257 20.030113 42.077255
10.93726 20.867119 39.931255
14.041256 26.070122 32.996254
12.550259 25.779121 30.988255
43.114254 77.67912 42.424255
41.952255 78.68512 40.786255
34.736256 72.91112 33.533253
32.837254 71.95112 34.871254
49.521255 97.981125 51.476254
47.739254 96.75212 51.259254
46.904255 101.87812 58.458256
47.057255 99.24812 58.615253
26.311255 57.79512 34.690254
27.823254 58.65812 36.161255
25.598255 51.02512 46.967255
27.232254 49.99212 45.859257
28.206255 3.6471176 12.914255
28.754253 3.0741196 14.691255
40.572254 112.26112 14.851254
42.062256 113.69412 15.166255
26.710255 103.44612 23.188255
25.130255 104.982124 23.462255
18.804255 103.70912 14.455255
18.992254 101.562126 13.957255
53.913254 25.428108 51.880257
52.692253 23.279121 52.337254
48.400253 18.284111 47.401257
48.018253 16.458122 48.641254
32.299255 96.53312 34.503254
30.020254 96.79412 34.250256
26.846254 86.47912 34.817253
24.877254 85.17512 33.663254
37.087254 92.82712 21.463255
37.652256 90.62312 20.406254
41.635254 84.73312 22.759254
43.646255 84.77112 21.408255
33.485256 65.87512 45.050255
34.762253 63.67512 44.623257
34.849255 52.73612 47.391254
32.854256 51.63312 45.941254
13.961254 38.72012 30.876255
12.95026 39.89712 33.055256
13.844257 45.58512 27.104256
14.68626 44.77012 25.292255
26.882254 26.476112 43.400253
25.210255 28.015114 45.123257
22.229254 32.05712 52.593254
22.697254 31.71711 54.637257
25.887255 26.71711 54.338257
24.371254 27.834114 54.930256
24.052254 29.581108 7.888256
25.643253 28.928108 8.879253
0.37325668 25.31211 21.877254
59.483253 27.04911 22.178255
6.4082603 36.564114 21.905254
4.906254 35.95812 23.461254
15.92326 84.34212 56.139256
16.776257 83.88812 58.304256
12.78326 79.48612 7.777256
11.191257 78.51712 9.049252
45.525253 18.978111 40.715256
46.668255 20.997108 40.106255
52.506256 15.665108 46.671257
53.639256 14.400108 48.227257
11.874256 113.13612 27.975256
12.18726 111.68112 29.930256
5.633259 104.649124 30.102255
5.642254 103.245125 32.043255
32.043255 22.856117 28.216255
29.860254 23.075111 29.064255
28.575254 36.04011 27.559256
28.179255 34.58312 26.022255
25.008255 27.351112 17.091255
24.190254 26.94712 15.115255
33.531254 26.570122 12.247254
32.040253 25.981117 14.397255
24.208256 41.90612 11.089256
23.693256 41.05412 8.854252
14.78426 47.56012 12.162258
12.690258 47.22512 11.088257
41.011253 18.706108 51.524254
43.318256 19.961113 51.695255
44.798256 7.1091156 54.019257
45.329254 6.8361206 51.881256
18.093258 91.88812 41.934254
16.179256 92.42912 43.476254
13.477261 83.22412 49.279255
11.613255 82.00112 48.406254
22.387257 7.4731216 58.239254
23.807255 7.8761215 1.0912552
19.904255 14.347115 58.758255
18.06326 16.224113 58.229256
12.843258 77.82112 20.870255
10.955257 79.22312 20.954254
6.989254 71.50112 18.124254
5.872257 70.01512 19.832254
45.253254 7.414116 43.506256
46.638256 5.745117 42.656254
47.980255 8.18412 52.672256
47.459255 7.8641205 54.746254
9.76926 24.292122 13.654255
10.695255 23.869118 15.607255
6.251255 15.303108 18.543255
5.551258 13.223122 18.307255
27.586254 33.53611 43.666256
28.206255 31.50312 44.513256
25.725254 24.746117 51.632256
24.093254 26.547112 52.032253
23.999256 101.093124 44.338257
22.602257 101.32412 46.098255
18.532253 109.01212 52.152256
17.49226 109.02812 53.952255
6.08926 40.34112 23.803255
4.0422554 41.37612 24.390255
3.2842598 30.999119 31.516254
2.0302544 31.39412 33.597256
53.577255 52.938118 47.925255
54.550255 54.43212 49.145256
53.981255 50.95812 0.2712555
54.673252 48.65512 0.010257721
36.009254 20.29412 35.849255
34.071255 21.816109 36.722256
40.864254 26.813118 43.717255
41.351254 24.832115 44.889256
53.112255 97.32212 58.037254
54.240253 96.97412 0.572258
56.591255 96.35812 53.540257
55.318253 96.56812 51.487255
24.493254 68.038124 49.783257
26.066254 69.98112 51.095257
32.868256 69.010124 47.541256
34.495255 68.69412 45.482254
50.455254 25.418114 8.805256
47.990253 26.47712 9.232258
49.117256 29.66111 57.406254
48.762257 27.43612 56.582256
52.177254 66.57712 22.553255
52.207256 68.30512 21.084255
56.944256 74.691124 21.424255
57.516254 76.816124 22.095255
46.129253 90.68212 36.615253
43.897255 91.468124 36.501255
36.209255 87.91612 42.305256
34.717255 87.06212 41.148254
14.500256 24.92112 48.793255
14.58926 24.742119 50.903255
18.088253 21.619118 57.454254
18.605259 20.303108 56.018253
50.428253 0.47711945 1.4322548
47.772255 113.844124 1.2392578
51.077255 103.13012 58.053257
51.658257 101.58312 0.7332573
36.418255 78.46312 8.471256
34.680256 79.84612 7.626255
30.445255 85.038124 3.5492554
30.823254 87.27012 4.468258
12.406254 19.44912 16.395254
13.712254 20.242119 18.698256
19.40926 21.086113 11.295255
17.544254 20.339119 11.631255
8.741261 101.120125 23.688255
8.88126 99.78912 21.576254
14.421253 92.47912 28.480255
13.372257 93.31712 30.026255
12.903255 67.50412 11.549254
15.248257 68.95712 12.423255
7.662258 76.82712 7.2162547
6.6182594 77.96712 8.672255
29.826254 13.019119 35.706253
28.623255 11.394119 36.022255
18.348255 13.737114 34.043255
17.095255 15.43412 34.753254
31.390255 40.70312 48.559254
32.204254 42.36012 50.102257
34.581253 38.67212 45.901257
34.242256 38.34512 43.160255
42.229256 63.56412 21.012255
41.586254 65.03812 22.575254
49.766254 66.20212 22.332254
49.172256 65.13912 20.299255
30.298254 28.904121 45.149254
29.831255 26.67411 44.745255
26.383255 17.75811 45.359257
28.392254 17.581108 43.991257
48.656254 85.75312 3.0452576
49.822254 84.74112 4.805256
58.191254 91.19712 6.3352547
59.455254 92.371124 5.0772514
46.312256 16.770119 24.797255
48.437256 17.034111 23.669254
53.381256 26.024117 29.915255
53.578255 25.248116 31.959255
50.880257 49.34312 46.514256
51.708256 51.39212 46.862255
44.017254 61.03112 46.517254
44.421253 62.18712 48.290257
23.276257 105.33812 27.489256
21.098255 104.648125 27.110254
15.760258 95.29012 30.627254
17.259258 94.25412 31.494255
11.871258 7.3051224 18.061255
12.720257 7.789116 15.573255
24.790253 9.477119 19.267254
24.958252 11.695122 19.335255
1.7742538 13.533119 0.8622551
60.536255 13.453117 1.876255
2.1392555 5.051117 9.516254
3.7612572 6.5841217 10.327255
16.03426 69.39312 24.935255
16.833256 67.14212 24.578255
22.371254 61.62112 31.418255
24.648254 60.15312 30.705256
30.074255 39.95112 20.079254
29.133255 37.63312 18.792255
24.039255 39.15712 11.773254
23.574255 37.34912 9.799254
46.495255 41.87312 14.440255
46.473255 42.54612 12.564255
58.154255 40.91912 8.771255
58.956253 40.33912 6.951255
22.509254 76.50812 14.131255
21.550259 76.50712 12.008255
10.7292595 78.68012 12.698255
11.43726 79.08312 14.744255
60.702255 40.33812 9.111256
1.6892548 40.37912 8.367252
56.611256 39.99212 2.5192566
55.897255 40.67312 0.6692581
44.533257 97.25412 0.47125626
44.097256 99.343124 58.536255
33.420254 96.01912 55.291256
31.705254 94.87312 54.195255
40.837254 21.887108 52.026257
41.757256 22.057121 54.375256
38.849255 34.463116 56.182255
37.513256 33.79112 58.155254
23.109257 49.77612 47.315254
21.011257 49.17712 48.506256
16.844257 43.18212 43.907253
15.142254 41.75412 44.573254
0.21625519 70.28512 53.681255
59.220253 70.00912 51.932255
54.940254 78.68012 0.65825653
55.547253 78.23912 2.6952553
8.295254 7.0151215 7.749256
6.105259 7.1421204 8.803257
2.3612556 6.3991165 57.027256
2.8752556 7.7841187 55.778255
13.625256 62.10912 22.052256
12.032253 63.27212 20.407255
2.6952553 67.26112 28.477255
1.8032532 68.205124 26.692255
8.642254 27.859108 12.923255
8.743259 30.04412 12.645255
19.517254 32.16912 18.102255
18.554256 31.654121 20.362255
49.931255 44.16612 56.500256
51.938255 43.30612 55.862255
53.804253 49.01012 47.115253
53.458256 47.66812 44.883255
33.815254 18.82212 46.671257
33.650253 17.472115 49.044254
29.603254 27.76612 56.745255
27.899254 28.77111 55.261253
50.838257 69.14012 27.064255
50.392254 70.42512 28.713255
43.302254 66.20412 32.786255
41.828255 63.93912 33.048256
52.262257 82.77512 49.692257
53.660255 83.219124 51.442257
