5.473 1.616 3.764
5.567 1.758 3.558
4.038 2.124 3.533
4.442 2.322 3.668
4.758 1.823 3.471
4.879 2.017 3.790
4.838 1.634 3.829
5.324 1.515 3.956
5.410 1.325 4.092
5.715 1.413 3.944
4.183 1.802 3.774
4.523 1.708 3.712
4.660 1.546 3.660
4.780 1.726 4.133
5.353 1.643 4.013
5.535 1.507 4.004
5.330 1.293 4.222
5.849 1.301 4.248
6.115 1.036 4.300
4.543 1.785 3.857
4.398 1.826 3.921
4.942 1.414 4.039
4.894 1.416 4.371
5.105 1.346 4.402
5.269 0.991 4.502
5.769 1.065 4.370
6.066 0.692 4.576
5.385 4.453 0.065
4.422 4.472 0.034
4.788 4.655 0.122
4.945 4.429 0.282
3.715 4.658 -0.091
3.910 4.397 0.295
4.346 4.637 0.008
3.461 4.712 0.157
3.712 4.379 0.033
4.193 4.365 0.315
2.932 4.850 0.210
3.494 4.593 -0.112
3.730 4.832 -0.011
3.232 4.516 0.544
3.638 4.693 0.610
2.949 5.022 -0.015
2.995 4.723 0.316
3.381 4.534 0.507
3.107 4.292 0.465
3.047 4.935 0.633
3.220 4.796 0.422
3.166 4.293 0.748
2.785 4.819 0.725
3.159 4.324 0.606
2.376 4.699 0.638
2.913 4.410 0.756
4.444 3.231 1.454
4.412 2.956 1.617
4.771 2.794 1.814
5.133 2.713 1.765
2.351 4.191 0.945
3.985 3.334 1.624
4.239 3.005 1.733
4.309 2.845 1.894
4.566 3.061 1.898
4.825 2.768 2.302
5.325 2.617 2.241
3.760 3.097 1.870
4.327 3.190 2.144
4.345 2.686 2.216
4.367 2.861 2.429
4.656 2.742 2.062
4.811 2.690 2.586
3.867 3.178 2.016
3.811 2.824 2.274
4.019 2.637 2.154
4.630 2.762 2.478
4.556 2.483 2.380
4.890 2.461 2.695
5.280 2.443 2.452
3.729 3.127 2.320
3.620 2.563 2.673
4.179 2.520 2.488
4.147 2.506 2.559
4.353 2.477 2.502
4.772 2.122 2.921
4.734 2.345 2.805
5.291 1.968 2.949
3.626 2.691 2.740
4.114 2.509 2.833
4.221 2.439 2.656
4.418 2.380 2.686
4.794 2.325 2.759
4.893 2.042 2.801
4.984 1.863 2.982
5.469 1.755 3.236
3.791 2.340 2.844
4.021 2.186 2.914
4.307 2.253 2.966
4.775 1.846 3.265
4.888 1.843 3.485
5.088 1.770 3.262
5.187 1.434 3.464
4.314 2.077 3.296
4.469 1.832 3.401
4.633 1.737 3.437
4.542 1.682 3.322
4.769 1.370 3.543
5.094 1.580 3.483
5.410 1.464 3.664
5.800 1.280 3.877
4.214 1.653 3.736
4.608 1.476 3.827
4.458 1.706 3.499
5.032 1.457 3.844
5.184 1.317 3.895
5.313 1.418 3.892
5.670 1.272 3.854
5.548 0.747 3.932
4.091 1.411 3.564
4.405 1.665 3.638
4.614 1.465 3.716
4.710 1.146 3.980
4.982 0.985 4.121
5.485 1.159 3.988
5.806 0.603 4.035
4.318 4.386 -0.026
3.480 4.546 -0.107
3.730 4.246 -0.098
3.986 4.379 0.283
3.599 4.620 -0.100
3.273 4.598 0.438
3.434 4.407 0.200
2.996 4.498 0.280
3.023 4.658 0.343
3.533 4.422 0.052
2.986 4.123 0.597
2.721 4.414 0.175
2.993 4.555 0.525
3.072 4.073 0.353
3.114 4.110 0.518
2.454 4.328 0.670
3.086 4.410 0.607
3.070 4.329 0.825
4.697 3.211 1.549
4.668 3.099 1.602
5.350 2.822 1.643
2.731 4.107 0.777
2.677 4.279 0.924
4.533 3.113 1.375
4.645 2.892 1.734
4.728 2.862 1.482
4.806 2.741 1.838
2.424 4.268 0.645
4.225 3.070 1.843
4.376 2.587 1.745
4.733 2.499 1.835
4.636 2.620 1.751
4.834 2.368 2.246
2.195 3.907 0.979
3.803 3.162 1.670
3.920 2.897 1.873
4.475 2.531 2.118
4.660 2.461 2.281
4.564 2.457 2.279
5.168 2.430 2.270
5.049 2.325 2.333
3.936 2.536 2.325
4.176 2.753 2.177
4.503 2.595 2.144
4.408 2.126 2.548
4.891 2.390 2.611
4.912 1.922 2.649
3.825 2.781 2.405
3.916 2.376 2.277
4.275 2.284 2.524
4.322 2.023 2.636
4.868 2.003 2.749
5.018 2.168 2.787
5.046 1.806 2.943
4.077 2.125 2.769
4.124 2.116 2.657
4.376 2.163 2.841
4.736 1.848 2.740
4.731 1.627 2.997
4.870 1.895 2.884
5.061 1.784 3.182
3.799 2.080 2.762
4.408 2.107 2.917
4.525 1.745 2.905
4.443 1.919 2.869
4.831 1.621 3.192
4.831 1.665 3.260
5.461 1.571 3.056
4.140 1.935 3.289
4.147 1.536 3.072
4.360 1.782 3.273
4.917 1.565 3.247
5.137 1.574 3.411
5.316 1.368 3.670
5.522 1.176 3.747
3.918 1.661 3.314
4.143 1.508 3.585
4.775 1.232 3.404
4.802 1.461 3.797
4.995 0.983 3.670
5.064 0.869 3.640
5.379 0.930 4.045
4.134 1.599 3.761
4.606 1.020 3.726
4.832 0.932 3.966
4.634 0.850 3.695
4.958 1.107 4.168
5.094 0.961 4.047
3.498 4.018 0.289
3.141 4.347 -0.085
3.258 3.944 0.171
2.813 4.401 0.075
2.834 4.173 0.059
3.265 3.833 0.057
4.681 2.726 0.975
5.158 2.973 1.222
5.121 2.800 1.031
2.655 4.285 0.048
2.928 4.080 0.475
4.495 3.130 1.098
4.558 2.798 1.139
4.652 2.591 1.410
5.169 2.655 1.377
5.277 2.351 1.684
2.528 4.244 0.553
2.436 4.088 0.638
4.073 2.755 1.431
4.651 2.954 1.664
4.584 2.725 1.730
5.032 2.404 1.375
4.932 2.564 1.725
2.348 4.043 0.504
2.644 4.025 0.564
4.306 2.637 1.694
4.140 2.815 1.540
4.593 2.244 1.572
5.028 2.330 1.869
5.110 2.281 1.835
2.077 3.860 0.857
2.529 3.951 1.171
4.132 2.572 1.802
4.153 2.555 1.690
4.231 2.498 1.897
4.741 2.364 2.175
4.858 2.193 2.012
2.099 3.801 1.000
3.707 2.657 1.813
4.313 2.535 2.112
4.319 2.330 2.092
4.592 2.214 2.277
4.552 1.930 2.427
5.177 2.028 2.133
3.888 2.308 2.281
4.107 1.974 2.254
4.164 1.825 2.170
4.402 1.685 2.624
4.671 1.832 2.559
4.099 1.806 2.438
4.376 1.679 2.565
4.461 1.716 2.825
4.812 1.589 2.617
4.870 1.597 2.945
4.500 1.795 2.830
4.795 1.748 2.988
4.921 1.258 3.063
4.004 1.420 2.793
4.531 1.228 3.173
4.690 1.330 3.038
5.061 1.130 3.123
5.081 1.119 3.307
4.134 1.053 3.446
4.551 1.305 3.497
4.715 1.264 3.294
4.729 0.862 3.673
5.204 0.695 3.771
4.278 1.034 3.247
4.507 0.890 3.369
4.420 0.788 3.440
4.885 0.713 3.627
5.154 0.912 3.571
5.163 0.405 3.939
5.507 2.697 0.568
4.881 2.881 0.901
5.259 2.820 0.755
5.415 2.809 0.740
5.372 2.689 0.756
2.748 3.905 -0.113
4.905 2.646 0.653
5.004 2.853 1.105
5.348 2.637 0.997
5.470 2.145 1.143
2.559 4.066 -0.101
2.664 4.113 0.077
4.299 2.635 0.879
4.775 2.454 0.958
4.763 2.433 1.194
5.094 2.441 1.330
5.051 2.105 1.379
2.520 3.946 0.493
2.738 3.975 0.336
4.027 2.504 1.176
4.520 2.578 1.466
4.499 2.365 1.370
4.679 2.105 1.350
5.182 1.944 1.414
2.423 3.543 0.325
2.681 3.604 0.414
3.923 2.515 1.275
4.124 2.397 1.583
4.731 2.124 1.661
4.749 2.375 1.411
4.796 1.951 1.698
2.167 3.687 0.877
2.491 3.483 0.815
4.240 2.453 1.449
4.587 2.270 1.794
4.616 2.133 1.855
4.912 1.890 1.997
2.169 3.367 0.687
2.452 3.583 1.102
4.184 2.379 2.009
4.154 2.115 2.062
4.704 1.878 2.076
4.646 1.904 1.967
2.011 3.414 1.050
2.167 3.287 1.127
4.337 1.875 2.014
1.682 3.243 1.204
1.938 2.511 2.277
4.584 0.803 3.175
1.885 2.189 2.408
1.818 2.121 2.611
1.957 2.273 2.827
2.478 2.184 2.538
4.308 1.078 3.278
4.546 0.804 3.353
4.685 0.500 3.468
4.774 0.405 3.784
6.084 2.538 0.288
5.690 2.448 0.223
6.131 2.607 0.091
6.122 2.295 0.513
5.497 2.776 0.320
5.544 2.501 0.350
5.765 2.660 0.483
6.120 2.423 0.626
6.209 2.261 0.329
4.760 2.839 0.467
4.898 2.654 0.425
5.488 2.671 0.677
5.662 2.541 0.604
5.579 2.150 0.799
4.363 2.677 0.331
4.917 2.651 0.754
5.166 2.609 0.622
5.294 2.224 0.655
5.291 2.512 0.885
5.772 2.330 0.835
4.377 2.699 0.446
4.877 2.459 0.615
5.061 2.645 0.614
5.091 2.247 0.847
5.412 2.274 0.741
4.307 2.412 0.688
4.516 2.274 0.890
4.862 2.520 0.853
5.120 2.196 1.294
5.318 2.167 0.923
2.163 3.487 0.164
2.623 3.404 0.257
4.222 2.403 0.935
4.336 2.091 0.959
4.487 1.998 1.237
4.708 2.279 1.295
5.186 2.096 1.343
2.091 3.438 0.288
2.275 3.616 0.219
3.923 2.499 1.125
4.080 2.197 1.385
4.534 2.246 1.543
4.875 1.815 1.689
4.934 1.895 1.309
2.184 3.337 0.323
2.499 3.560 0.524
4.015 2.115 1.548
4.227 1.782 1.620
4.700 1.974 1.493
2.020 3.421 0.862
2.387 3.254 0.850
2.191 3.127 1.055
1.593 3.417 0.725
2.233 2.929 0.847
2.005 2.908 1.283
2.256 2.623 1.286
1.434 3.081 0.943
2.079 3.095 1.285
2.082 3.085 1.108
2.095 2.656 1.237
2.236 2.590 1.351
1.339 3.011 1.522
1.665 2.929 1.579
1.850 2.682 1.521
1.662 2.781 1.857
1.836 2.319 1.608
1.766 2.510 1.484
1.712 2.788 1.687
1.780 2.430 1.959
1.947 2.313 2.095
2.297 2.378 1.776
2.333 1.954 2.148
1.474 2.692 1.731
1.547 2.536 1.641
1.337 2.463 2.117
1.757 2.151 1.928
1.766 1.973 2.238
2.077 2.085 2.221
2.654 1.836 2.394
1.701 2.421 2.003
1.657 2.205 2.367
1.573 2.387 2.384
2.033 2.259 2.397
2.189 1.893 2.429
2.167 1.675 2.710
2.298 1.444 2.770
1.637 2.299 2.109
5.960 2.626 -0.145
6.231 2.096 0.254
6.431 2.078 0.235
5.350 2.647 0.133
5.423 2.228 0.036
5.478 2.474 0.196
5.631 2.129 0.142
5.864 2.199 0.311
4.651 2.633 -0.048
4.838 2.540 0.092
4.909 2.411 0.045
5.414 2.398 0.388
5.740 2.154 0.633
5.882 2.164 0.253
5.748 1.949 0.673
4.635 2.520 0.158
4.881 2.652 0.242
4.821 2.338 0.655
5.335 2.068 0.438
5.393 2.008 0.644
5.523 2.078 0.638
4.173 2.368 0.252
4.313 2.290 0.710
4.376 2.433 0.707
4.712 2.273 0.810
4.918 2.159 0.786
5.188 2.189 0.955
5.263 1.698 1.048
4.253 2.245 0.518
4.252 2.105 0.669
4.633 2.230 1.041
5.027 2.187 0.956
5.104 1.883 1.200
4.103 2.385 0.648
4.093 2.188 0.999
4.759 2.034 1.205
4.682 1.736 0.901
2.260 3.508 0.050
4.091 2.224 1.254
4.300 2.112 1.079
4.503 1.590 1.275
1.937 3.262 0.196
2.415 3.242 0.451
2.420 2.824 0.526
6.091 0.495 1.873
1.950 3.247 0.526
2.244 2.812 0.528
2.129 2.804 0.818
2.329 2.854 0.943
1.703 3.184 0.829
2.057 2.684 0.657
2.383 2.787 0.873
2.259 2.771 1.267
2.277 2.600 1.059
6.208 0.329 2.375
1.495 2.954 0.930
1.960 2.913 0.885
2.255 2.723 1.173
1.740 2.400 1.402
2.368 2.268 1.617
2.164 2.360 1.566
6.099 0.228 3.002
1.509 2.778 0.954
1.774 2.885 1.264
1.909 2.744 1.295
1.629 2.280 1.597
2.153 2.434 1.460
2.110 2.332 1.793
2.549 2.180 1.908
1.109 2.784 1.392
1.708 2.501 1.432
1.760 2.338 1.287
1.597 2.250 1.903
1.737 2.032 1.892
2.099 2.067 1.715
2.252 1.895 1.742
2.591 1.862 1.992
1.223 2.426 1.643
1.660 2.468 1.528
1.733 2.469 1.928
1.491 2.141 1.904
1.626 2.163 2.100
1.958 2.126 1.942
2.224 1.794 1.932
2.483 1.630 2.274
2.410 1.431 2.072
1.098 2.376 1.851
1.283 2.068 1.711
1.392 2.085 2.051
1.754 2.119 2.135
2.002 2.043 2.097
2.106 1.676 2.434
2.230 1.496 2.146
2.235 1.351 2.394
1.190 1.972 2.059
6.205 1.949 0.185
5.463 2.352 0.248
5.686 1.818 0.018
6.131 1.853 -0.013
6.431 1.596 0.350
4.589 2.429 -0.101
4.789 2.132 0.217
5.146 2.098 0.151
5.424 1.874 0.439
5.437 1.887 0.565
5.997 1.736 0.573
4.002 2.450 0.038
4.641 2.309 0.367
4.484 2.302 0.291
4.756 2.318 0.074
5.127 1.995 0.567
5.392 1.702 0.474
5.374 1.623 0.416
4.018 2.265 0.438
4.106 2.106 0.254
4.700 2.350 0.245
4.922 1.819 0.465
4.949 2.129 0.685
5.364 1.732 0.614
4.168 2.133 0.395
4.389 2.268 0.656
4.487 2.101 0.751
4.523 1.971 0.816
4.935 1.633 0.783
5.188 1.556 0.727
4.264 1.897 0.877
4.029 2.099 0.781
4.515 1.749 0.757
4.501 1.528 0.963
2.136 2.987 0.152
1.866 3.283 0.323
1.984 2.902 0.115
6.047 0.675 1.887
1.809 3.069 0.479
2.131 2.918 0.591
2.228 2.491 0.585
5.852 0.390 2.004
6.182 0.368 2.190
1.601 2.725 0.645
1.728 2.600 0.495
2.349 2.379 0.574
2.014 2.321 1.083
2.031 2.231 0.991
5.684 0.187 2.283
6.150 -0.031 2.246
1.410 2.811 0.670
2.000 2.628 0.960
1.799 2.516 1.170
2.014 2.466 1.025
1.950 2.048 1.184
2.248 2.328 1.233
1.494 2.371 1.003
1.482 2.655 1.050
1.621 2.551 1.124
1.956 2.120 1.490
1.949 2.147 1.619
2.135 1.939 1.501
2.572 1.787 1.397
1.218 2.246 1.094
1.603 2.335 1.432
1.526 2.038 1.325
1.466 1.876 1.699
1.934 1.941 1.464
2.074 1.706 1.797
2.095 1.948 1.693
2.493 1.398 1.859
2.471 1.295 1.776
1.109 2.531 1.395
1.138 2.244 1.605
1.587 2.212 1.667
1.615 1.995 1.598
1.633 1.774 1.790
2.015 1.851 1.884
2.035 1.715 1.780
2.550 1.536 2.238
2.718 1.511 1.901
2.843 1.276 2.170
1.098 2.245 1.527
1.212 1.780 1.491
1.263 1.986 2.114
1.425 1.544 1.825
1.634 1.857 2.118
1.730 1.567 2.224
2.384 1.326 2.317
2.363 1.234 2.481
2.671 0.999 2.196
1.249 1.651 2.095
5.978 1.906 0.132
6.388 1.525 0.282
5.020 2.069 -0.054
5.570 1.683 0.054
5.701 1.592 0.199
5.739 1.377 0.157
4.566 1.885 0.277
4.748 1.782 0.258
4.837 2.008 0.137
5.200 1.654 0.053
5.594 1.509 0.454
3.751 2.364 0.126
4.236 2.326 0.037
4.216 1.941 0.265
4.468 2.074 0.186
4.666 1.674 0.208
5.005 1.697 0.449
5.305 1.591 0.453
3.842 1.988 0.468
4.282 1.857 0.441
4.367 1.946 0.531
4.661 1.634 0.554
4.879 1.698 0.362
4.305 1.740 0.605
6.080 0.568 1.768
1.712 2.626 -0.094
6.107 0.604 1.527
5.911 0.231 1.594
1.825 2.746 0.401
1.742 2.567 0.391
2.167 2.201 0.364
5.529 0.464 1.855
5.757 0.326 1.821
6.289 -0.215 2.239
1.850 2.438 0.375
1.728 2.274 0.738
1.999 2.195 0.393
1.701 2.034 1.004
2.000 2.138 0.992
5.578 -0.101 1.955
5.963 0.126 2.353
1.506 2.395 0.610
1.939 2.479 0.885
1.859 2.101 0.979
1.571 2.358 0.783
1.863 1.933 1.175
2.399 2.117 1.315
1.406 2.302 1.043
1.488 2.268 0.756
1.601 2.286 0.784
1.830 1.852 1.280
1.731 2.120 1.287
1.914 1.946 1.327
2.079 1.630 1.344
2.422 1.712 1.609
1.385 2.491 1.014
1.619 2.290 1.069
1.828 1.919 0.996
1.510 1.741 1.147
1.755 1.607 1.386
1.827 1.673 1.325
2.380 1.369 1.653
2.423 1.445 1.480
2.777 1.278 1.848
0.919 2.103 1.445
1.432 1.990 1.493
1.493 1.803 1.261
1.309 1.773 1.475
1.690 1.896 1.531
1.748 1.340 1.543
2.247 1.275 1.735
2.311 1.079 1.994
2.426 1.342 1.808
2.554 0.853 1.781
2.711 1.038 1.951
1.182 2.117 1.415
1.183 1.780 1.360
1.242 1.797 1.524
1.613 1.734 2.008
1.703 1.274 1.822
1.970 1.374 1.857
1.977 1.392 2.203
2.160 1.054 2.330
2.770 0.972 2.218
2.926 0.947 2.061
1.483 1.759 1.605
5.059 1.638 0.110
5.375 1.561 0.036
4.124 1.971 -0.056
4.512 1.631 0.267
4.593 1.584 0.245
4.693 1.353 0.160
3.429 2.092 -0.043
3.686 1.866 0.077
3.905 1.549 0.291
4.153 1.485 0.370
4.691 1.318 0.434
5.803 0.173 1.559
6.026 0.063 1.302
5.776 0.474 1.594
5.994 0.398 1.710
5.919 0.167 1.831
1.915 2.692 0.229
5.697 0.043 1.483
5.700 -0.123 1.499
1.568 2.385 0.334
1.750 2.284 0.184
5.159 0.250 1.686
1.281 2.256 0.255
1.603 2.268 0.716
1.632 2.055 1.032
2.111 1.857 0.797
1.172 2.027 0.727
1.437 2.017 0.973
1.557 1.895 0.623
1.383 1.901 1.015
1.632 1.553 1.235
1.860 1.787 1.056
2.360 1.433 1.202
1.331 1.971 0.768
1.311 1.840 0.926
1.666 1.834 1.054
1.682 1.948 1.008
1.718 1.518 1.360
1.878 1.503 1.236
2.033 1.134 1.219
2.243 1.142 1.275
2.507 0.876 1.701
2.810 1.082 1.843
3.224 1.046 1.788
1.250 1.909 1.216
1.617 1.560 1.176
1.513 1.413 1.415
1.974 1.118 1.481
1.887 1.375 1.392
2.128 1.164 1.626
2.202 0.963 1.617
2.783 1.046 1.893
2.922 0.906 1.884
2.962 0.783 1.818
1.187 1.531 1.735
1.855 1.108 1.983
2.016 1.008 1.975
2.138 1.099 1.881
2.111 0.644 1.760
2.345 0.864 1.901
2.620 0.642 2.292
2.755 0.674 2.243
4.797 1.324 -0.182
4.031 1.781 0.156
5.825 0.062 1.039
5.269 0.186 1.163
5.787 0.295 1.520
5.181 0.258 1.255
4.862 0.115 1.599
1.311 2.126 0.328
2.093 1.258 1.209
2.460 1.207 1.319
2.380 0.698 1.321
2.546 0.774 1.723
2.704 0.576 1.433
3.193 0.379 1.742
3.455 0.273 1.942
1.848 1.300 1.529
2.015 0.954 1.394
2.094 0.697 1.686
2.376 0.592 1.837
2.565 0.457 1.914
2.598 0.633 1.829
3.072 0.316 1.621
3.428 0.274 2.029
3.528 -0.076 2.216
2.032 1.115 1.490
2.211 0.553 1.715
2.258 0.700 1.964
2.680 0.771 1.658
2.656 0.388 2.104
2.923 0.218 2.162
3.000 0.107 2.048
5.498 0.034 0.855
5.726 0.160 0.898
5.089 -0.017 1.212
5.276 -0.031 1.124
4.692 -0.071 1.007
4.814 0.038 1.288
4.617 0.091 1.248
3.943 0.172 1.567
4.008 0.035 1.260
3.645 0.428 1.295
3.429 0.119 1.620
3.797 -0.143 1.413
2.528 0.728 1.243
2.781 0.461 1.292
2.800 0.268 1.592
3.051 0.255 1.467
3.277 0.188 1.538
3.477 -0.086 1.493
1.915 0.722 1.339
2.501 0.507 1.339
2.349 0.535 1.427
2.947 0.433 1.634
3.037 0.174 1.920
3.168 0.119 1.532
2.115 0.442 1.568
2.244 0.680 1.458
2.173 0.354 1.793
2.419 0.318 1.751
2.691 -0.149 1.914
5.190 0.018 0.505
4.577 0.295 0.705
4.363 -0.030 0.844
4.002 0.136 1.053
3.544 0.048 0.959
3.360 0.399 1.167
3.228 0.348 1.173
2.586 0.446 1.096
3.116 0.043 1.193
2.395 0.381 1.329
2.316 0.266 1.608
2.861 -0.066 1.284
2.785 0.197 1.675
2.279 0.212 1.500
2.256 -0.036 1.586
2.542 0.243 1.527
2.727 -0.104 1.304
2.248 -0.163 0.983
0.375 0.350 -0.031
0.265 0.579 0.217
0.689 0.025 0.578
0.792 0.147 0.251
0.489 -0.056 0.253
0.988 0.020 -0.086
0.532 0.334 -0.067
0.534 -0.157 0.193
6.186 5.666 0.473
6.103 5.575 0.598
5.681 5.647 0.857
6.220 5.449 0.842
5.662 5.778 1.015
6.009 5.323 0.845
6.029 5.565 1.005
5.764 5.580 1.061
5.914 5.240 0.965
6.134 5.431 1.206
6.025 5.060 1.129
5.899 5.177 1.330
5.705 5.149 1.597
6.227 4.834 1.675
6.182 5.111 1.605
6.322 4.679 1.814
6.265 4.744 1.883
6.206 4.330 1.896
5.926 4.540 2.126
6.327 4.240 2.547
6.317 3.815 2.821
3.763 4.858 2.351
3.708 4.913 2.110
3.902 4.935 2.355
4.533 4.619 2.621
6.420 3.541 3.227
3.304 5.076 2.225
3.286 5.075 2.419
3.542 4.691 2.578
3.841 4.596 2.387
4.336 4.542 2.733
4.530 4.667 2.652
3.390 5.057 2.445
3.266 5.031 2.836
3.524 4.851 2.893
3.958 4.591 2.780
4.182 4.545 2.830
4.065 4.337 2.922
3.025 4.993 2.647
3.140 4.890 2.835
3.304 4.658 2.930
3.669 4.417 2.922
3.484 4.422 2.921
3.717 4.107 3.069
4.028 4.168 2.903
2.755 4.925 2.813
2.884 4.826 2.723
2.935 4.496 3.069
3.065 4.703 3.154
3.393 4.508 3.027
3.632 4.229 3.375
3.728 4.023 3.436
3.839 3.877 3.444
2.621 4.928 2.619
2.872 4.609 2.781
2.396 4.804 3.052
2.920 4.796 3.257
3.039 4.330 3.167
3.292 4.458 3.067
3.452 4.011 3.588
3.578 4.207 3.261
1.931 4.864 3.133
2.432 4.634 3.041
2.508 4.523 3.058
2.479 4.586 3.465
2.435 4.471 3.165
2.735 4.224 3.238
3.148 4.096 3.486
2.091 5.034 3.094
2.226 4.701 3.407
2.273 4.404 3.083
2.066 4.697 3.298
2.655 4.223 3.755
2.622 4.191 3.828
1.790 4.583 3.496
2.262 4.818 3.591
2.494 4.630 3.636
1.942 4.144 3.807
2.542 4.493 3.650
5.936 2.175 4.865
6.052 1.940 5.164
1.896 4.496 3.463
2.167 4.598 3.598
1.910 4.511 3.525
1.905 4.497 3.994
5.828 2.237 5.350
6.367 1.930 5.432
1.455 4.574 3.610
1.841 4.535 3.832
2.041 4.473 3.920
5.904 5.821 0.167
5.951 5.476 0.490
5.648 5.880 0.369
5.998 5.365 0.689
6.160 5.538 0.527
6.191 5.315 0.576
5.345 5.707 0.609
5.760 5.424 0.898
6.099 5.194 0.538
6.257 5.365 0.896
5.473 5.598 0.997
5.628 5.383 0.713
5.726 5.379 0.976
5.820 5.149 1.201
6.065 4.995 1.118
5.809 5.169 0.935
5.823 5.066 1.148
5.828 4.701 1.058
6.277 4.858 1.516
5.749 5.046 1.294
5.814 4.844 1.279
6.281 4.680 1.345
5.768 4.357 1.561
6.218 4.115 1.780
6.196 4.305 1.788
6.077 3.894 2.060
6.330 3.952 2.360
3.847 4.786 2.277
3.654 4.691 2.425
3.671 4.755 2.324
3.915 4.470 2.385
3.983 4.379 2.404
4.307 4.075 2.432
3.135 4.912 2.472
3.329 4.581 2.593
3.687 4.466 2.636
3.587 4.565 2.465
3.952 4.043 2.946
4.159 4.101 2.850
4.642 3.881 2.969
2.573 4.798 2.632
3.082 4.654 2.389
3.278 4.343 2.608
3.328 4.553 2.773
3.606 4.265 2.617
3.827 4.374 3.051
4.156 4.233 3.126
4.409 3.733 3.107
2.939 4.899 2.325
2.558 4.654 2.577
2.937 4.552 2.713
3.217 4.508 2.655
3.096 4.221 2.728
3.373 4.045 3.102
3.900 4.025 3.064
4.075 3.696 3.206
4.349 3.665 3.334
2.393 4.724 2.441
2.413 4.438 2.483
2.668 4.594 2.902
2.928 4.268 3.217
2.869 4.250 2.883
3.103 4.262 3.223
3.383 3.960 3.039
3.815 3.863 3.355
1.975 4.763 2.925
2.257 4.619 2.876
2.401 4.551 2.934
2.258 4.261 3.044
2.478 4.417 3.287
2.870 4.231 3.383
3.177 3.823 3.348
2.996 4.000 3.183
1.855 4.481 2.739
2.276 4.307 2.856
2.378 4.248 2.913
2.188 4.450 3.223
2.311 4.045 3.366
2.799 3.936 3.450
1.875 4.647 3.168
1.974 4.354 3.031
2.224 4.109 3.380
2.105 4.235 3.261
2.397 3.866 3.487
5.946 1.955 4.680
6.007 2.037 4.923
6.169 1.712 5.158
1.870 4.325 3.480
1.834 4.395 3.412
2.019 3.999 3.303
1.865 3.888 3.863
5.649 1.900 5.199
5.911 1.959 5.141
6.131 1.779 5.240
1.311 4.160 3.395
1.691 4.154 3.802
1.953 4.108 3.831
5.541 5.592 -0.128
5.982 5.572 0.026
6.137 5.193 0.170
5.487 5.586 0.366
5.483 5.353 0.156
5.850 5.507 0.303
6.054 5.380 0.290
6.353 5.275 0.391
5.053 5.427 0.273
5.448 5.404 0.305
5.510 5.263 0.270
5.694 5.134 0.759
5.911 5.095 0.448
6.157 4.906 0.720
5.123 5.309 0.593
5.222 5.137 0.442
5.314 5.232 0.547
5.900 5.073 0.879
5.839 4.748 0.840
5.966 4.859 0.966
5.025 5.264 0.994
5.385 4.979 0.817
5.383 4.842 1.129
5.804 4.854 1.134
6.176 4.784 1.253
6.212 4.295 1.337
5.925 4.670 1.266
5.856 4.367 1.517
6.242 4.077 1.572
3.455 4.375 2.119
4.046 4.158 2.260
4.179 3.967 2.280
4.191 3.971 2.297
4.582 3.766 2.378
3.063 4.211 2.206
3.475 4.249 2.399
3.699 3.945 2.562
3.852 4.037 2.779
4.278 3.726 2.839
4.450 3.821 2.837
4.704 3.727 2.744
2.881 4.333 2.552
2.917 4.348 2.549
3.484 4.243 2.585
3.388 3.883 2.821
3.970 3.873 2.644
4.040 4.016 2.632
4.145 3.716 2.817
4.432 3.799 2.746
2.562 4.093 2.552
3.187 4.138 2.723
3.202 4.089 2.968
3.231 3.983 3.019
3.877 3.786 3.025
3.689 3.897 3.038
3.942 3.573 3.221
4.113 3.232 3.255
2.343 4.378 2.710
2.778 4.209 2.693
2.919 4.022 2.698
3.307 3.748 2.813
3.452 3.969 3.220
3.423 3.885 2.971
3.672 3.548 3.300
3.928 3.249 3.179
2.329 4.246 2.881
2.570 4.398 2.893
2.316 4.190 3.040
2.612 4.183 3.201
2.634 3.874 3.173
2.913 3.824 3.236
1.976 4.549 2.962
2.173 4.396 2.888
2.373 4.055 3.001
2.228 4.202 2.942
2.181 4.113 3.417
6.093 1.838 4.558
5.872 2.029 4.318
1.721 4.136 3.117
1.752 4.003 3.248
2.267 3.988 3.250
5.549 2.184 4.314
5.695 2.073 4.652
5.778 1.695 4.605
6.121 1.439 4.949
1.688 4.387 3.375
1.727 3.958 3.168
5.570 1.932 4.864
5.424 1.529 4.676
5.621 1.798 4.809
6.045 1.686 4.982
6.453 1.577 5.178
1.624 3.940 3.468
1.617 3.766 3.387
5.819 5.346 -0.067
5.274 5.158 0.125
5.421 5.100 0.187
5.560 4.893 0.054
5.897 5.121 0.034
6.296 4.870 0.090
5.003 5.384 0.319
5.265 5.485 0.387
5.435 5.022 0.358
5.372 4.777 0.233
5.803 5.014 0.415
6.208 4.903 0.694
6.242 4.653 0.361
4.746 5.305 0.149
4.646 5.170 0.152
5.124 4.949 0.590
5.252 5.159 0.465
5.409 4.902 0.563
5.681 4.546 0.561
5.834 4.858 0.532
5.874 4.538 0.536
4.595 5.101 0.640
4.817 4.856 0.451
5.192 4.793 0.543
5.399 4.925 0.566
5.745 4.845 0.712
5.507 4.422 0.903
5.720 4.300 1.001
3.145 5.658 0.498
3.919 3.804 2.427
4.252 3.655 2.102
4.419 3.552 2.224
3.250 3.937 2.192
3.492 4.113 2.388
3.909 3.804 2.430
4.297 3.831 2.598
4.299 3.758 2.330
4.309 3.481 2.462
4.722 3.463 2.590
3.237 4.099 2.346
3.444 3.733 2.341
3.548 3.937 2.626
3.835 3.619 2.496
4.284 3.554 2.829
4.221 3.460 2.652
4.626 3.230 2.674
3.068 3.824 2.530
3.310 3.890 2.685
3.536 3.639 2.543
3.754 3.679 2.781
3.688 3.530 3.066
3.803 3.211 2.926
4.271 3.089 2.988
4.702 3.280 3.228
4.686 3.238 3.345
3.163 3.651 2.791
3.205 3.537 3.002
3.525 3.665 3.076
3.590 3.597 2.947
3.788 3.040 3.014
4.309 3.038 3.267
4.227 3.012 3.372
5.131 2.139 4.307
5.553 1.805 4.200
5.989 1.599 4.222
6.083 1.637 4.192
6.038 1.613 4.608
4.907 2.040 4.368
5.174 2.089 4.164
5.322 2.022 4.473
5.871 1.468 4.393
5.906 1.686 4.762
5.864 1.442 4.442
1.729 3.922 2.804
5.187 1.650 4.533
5.452 1.791 4.590
5.566 1.618 4.463
5.962 1.314 4.938
6.163 1.356 4.861
6.240 1.156 5.023
1.078 6.342 5.983
0.465 6.305 6.113
0.685 6.354 5.442
0.408 6.066 5.678
0.614 5.953 5.970
1.066 6.031 5.982
1.219 5.714 5.984
0.397 6.109 5.943
0.408 6.258 6.074
0.855 6.120 6.171
1.044 6.064 5.958
1.074 5.956 6.413
0.008 6.014 5.962
0.106 5.958 6.051
0.436 5.846 6.350
0.396 6.210 5.525
0.843 5.900 5.345
0.646 6.003 5.370
1.161 5.705 5.720
1.372 5.766 5.779
0.057 6.378 5.265
0.146 6.275 5.459
0.517 5.985 5.787
0.909 5.835 5.660
0.842 5.820 6.000
1.343 5.612 5.879
0.089 6.180 5.882
0.161 5.736 5.820
0.588 5.608 5.955
0.860 5.527 6.181
0.914 5.442 5.830
0.027 6.075 6.171
0.390 5.582 5.925
0.369 5.732 6.260
0.511 5.700 6.018
0.888 5.453 6.045
-0.109 5.840 6.039
0.453 5.488 6.340
1.257 5.737 5.355
0.457 6.083 5.215
0.620 5.921 5.345
1.095 5.498 5.368
1.308 5.597 5.720
0.446 5.989 5.447
0.303 5.601 5.232
0.680 5.865 5.728
0.926 5.557 5.552
1.100 5.436 5.570
0.277 5.826 5.724
0.471 5.707 5.425
0.644 5.633 5.637
0.881 5.232 5.840
0.768 5.365 5.700
0.212 5.758 6.067
0.444 5.291 5.879
0.579 5.219 6.235
0.623 5.355 5.875
0.092 5.225 6.073
0.615 5.189 6.283
0.775 4.981 6.208
1.032 5.900 5.381
0.876 5.565 4.896
1.149 5.511 5.132
1.421 5.553 5.355
0.727 5.574 4.915
0.548 5.809 5.108
0.726 5.672 5.229
1.232 5.367 5.337
0.503 5.731 5.512
0.459 5.460 5.442
1.049 5.447 5.531
1.073 5.361 5.754
0.344 5.496 5.634
0.352 5.458 5.586
0.771 5.272 5.564
1.105 5.215 5.716
0.166 5.504 5.674
0.234 5.497 5.962
0.588 5.133 5.831
0.635 4.933 6.145
0.110 5.294 6.041
0.297 5.154 5.863
0.661 4.881 5.906
0.950 5.610 4.826
1.157 5.510 5.122
1.255 5.711 5.321
0.775 5.491 4.853
1.044 5.636 4.728
1.439 5.287 5.050
0.527 5.407 4.961
0.658 5.315 5.035
1.301 5.148 5.402
0.283 5.189 5.018
0.463 5.130 5.457
0.737 5.078 5.058
1.171 5.020 5.569
0.313 5.263 5.549
0.727 5.179 5.694
0.887 4.960 5.546
0.195 5.272 5.725
0.260 4.746 5.835
0.482 5.004 5.793
0.524 4.930 5.952
0.620 4.890 5.796
0.338 4.559 5.940
0.953 5.585 4.628
1.381 5.530 4.620
0.631 5.623 4.639
1.118 5.451 4.899
1.459 5.083 4.834
0.757 5.313 4.628
1.094 5.080 4.940
1.238 5.278 5.039
0.827 5.247 4.894
0.622 5.206 4.775
0.959 5.034 5.250
0.561 4.977 4.890
0.627 5.000 4.935
1.143 4.672 5.132
0.170 5.159 5.443
0.651 5.022 5.255
0.804 4.626 5.461
0.309 4.617 5.586
0.525 4.407 5.630
0.306 4.440 5.825
1.156 5.580 4.356
1.253 5.501 4.570
0.827 5.619 4.464
1.335 5.336 4.513
1.494 4.979 4.400
0.948 5.498 4.824
0.924 5.105 4.627
1.034 5.085 4.894
0.498 5.144 4.524
0.791 4.981 4.555
1.232 4.730 4.564
0.484 5.119 4.573
0.786 4.972 4.886
0.927 4.998 4.725
0.492 4.862 4.987
1.012 4.728 5.065
0.395 4.563 5.385
0.808 4.361 5.364
0.984 5.273 4.095
1.226 5.357 4.288
0.600 5.270 4.493
1.276 5.301 4.367
1.120 4.855 4.246
0.792 5.235 4.537
1.110 4.787 4.561
0.910 4.904 4.541
0.410 5.094 4.472
1.046 4.686 4.612
1.178 4.494 4.282
0.640 4.832 4.725
0.485 4.931 4.767
0.970 4.635 4.586
0.368 4.671 4.956
0.609 4.522 4.925
0.805 5.110 3.786
1.058 5.074 3.953
1.481 4.932 4.125
0.755 5.084 4.183
1.119 5.008 4.315
1.044 4.875 4.541
0.481 4.975 4.430
1.055 4.686 4.654
1.078 4.539 4.637
0.449 4.781 4.186
0.564 4.579 4.163
1.095 4.558 4.330
0.551 4.318 4.276
1.008 4.357 4.585
0.641 5.288 3.646
1.001 4.743 3.793
1.115 4.619 4.022
1.287 4.805 3.818
0.830 4.913 4.168
1.016 4.942 4.152
1.210 4.474 4.113
0.468 4.934 3.975
0.984 4.543 4.037
1.158 4.635 4.112
3.113 6.125 6.281
3.330 6.118 6.083
3.254 6.164 6.065
2.706 6.106 5.813
2.745 6.265 5.783
3.002 6.019 5.899
3.432 5.916 6.036
3.409 5.589 6.217
4.020 5.414 6.465
2.937 5.857 6.021
2.857 5.868 5.993
2.952 5.975 5.674
3.024 5.594 5.695
3.420 5.796 6.074
3.431 5.332 6.030
3.616 5.437 6.237
4.043 5.167 6.193
3.987 4.977 6.463
3.047 5.607 6.013
3.024 5.354 6.001
3.231 5.492 6.202
3.401 5.045 6.433
3.206 5.692 5.777
3.151 5.443 5.974
3.312 5.498 5.773
3.857 5.048 6.116
3.934 4.982 6.144
4.258 5.131 6.101
4.548 4.699 6.286
3.204 5.124 6.151
3.753 5.027 6.171
3.769 4.895 6.046
1.542 5.644 6.048
1.424 5.309 6.120
1.530 5.163 6.305
3.389 5.084 5.608
3.400 5.188 5.733
3.626 4.789 5.600
4.060 4.673 6.025
4.130 4.569 6.112
4.158 4.735 5.869
4.533 4.542 5.836
3.116 5.210 5.778
3.689 4.635 5.875
3.879 4.511 5.984
3.735 4.617 5.945
3.991 4.708 6.013
3.836 4.265 6.022
1.449 5.455 5.510
1.188 5.405 5.937
1.598 5.240 5.857
1.529 4.920 6.256
1.046 5.431 5.871
1.481 5.125 5.969
1.787 4.945 6.064
0.983 5.011 5.993
1.076 4.837 6.292
3.327 4.926 5.750
3.494 4.926 5.695
3.779 4.732 5.538
3.996 4.353 5.907
4.427 4.446 5.976
4.446 4.299 6.143
4.529 4.085 6.094
3.631 4.547 5.615
3.545 4.530 6.109
3.730 4.328 5.844
4.219 4.126 6.217
4.400 4.258 6.225
3.710 4.130 5.942
3.544 4.168 6.107
3.810 4.000 5.945
3.974 3.771 6.159
4.240 3.883 5.981
1.419 5.310 5.028
1.264 5.008 5.456
1.574 5.002 5.501
1.022 5.012 5.614
1.371 4.858 5.897
1.419 4.611 6.171
1.288 5.163 5.977
1.269 4.852 6.088
1.557 4.596 6.047
1.623 4.758 6.375
1.729 4.673 6.100
0.872 4.934 5.929
1.209 4.993 6.035
1.504 4.764 6.059
0.985 4.823 6.386
1.291 4.752 6.089
3.476 4.782 5.333
3.539 4.497 5.338
3.932 4.395 5.705
4.050 4.290 5.649
4.300 4.083 5.878
4.406 4.083 5.679
3.582 4.319 5.647
3.437 4.252 5.898
3.932 4.210 5.655
4.043 4.152 5.886
4.273 3.795 5.803
4.556 3.825 5.967
3.352 4.170 6.072
3.934 4.304 6.138
3.956 3.774 5.832
4.174 3.676 6.252
1.751 5.590 5.316
3.321 4.266 5.655
3.686 4.032 5.594
3.884 3.586 5.864
3.872 3.649 6.124
1.640 5.203 4.926
3.358 3.898 6.208
3.813 3.825 6.305
4.074 3.564 6.057
1.560 4.864 5.286
1.555 4.836 5.270
1.670 4.867 5.713
1.337 5.127 5.669
1.261 5.024 5.682
1.830 4.702 5.832
1.722 4.455 5.907
1.042 4.671 5.600
1.061 4.469 5.582
1.374 4.639 5.557
1.319 4.293 5.851
1.350 4.286 6.187
0.904 4.688 5.983
1.238 4.700 6.115
1.437 4.240 5.865
1.056 4.301 6.007
1.508 4.218 6.262
0.706 4.446 6.097
0.943 4.298 5.901
1.078 4.200 6.087
0.440 4.337 6.210
3.477 4.367 5.079
3.720 4.060 5.131
3.722 4.105 5.339
4.094 3.948 5.431
4.261 3.776 5.525
4.666 3.947 5.665
4.775 3.516 5.564
3.427 3.924 5.574
3.686 4.134 5.718
4.138 3.837 5.926
4.349 3.924 5.823
4.605 3.763 6.035
1.788 5.039 4.811
3.635 3.970 5.766
3.725 4.141 5.679
3.623 3.693 5.887
4.171 3.811 5.807
1.672 5.112 4.985
3.312 3.847 5.575
3.694 3.700 5.435
3.580 3.713 5.849
3.885 3.463 5.780
4.109 3.549 5.954
1.516 4.840 4.877
1.806 4.782 5.130
3.068 3.878 5.620
3.233 3.406 5.622
3.857 3.426 5.952
3.801 3.268 6.052
4.323 3.083 6.144
1.152 4.725 4.878
1.641 4.488 5.210
3.539 3.511 6.093
3.647 3.181 6.235
3.564 3.309 6.280
1.157 4.492 5.478
1.418 4.638 5.578
1.330 4.148 5.759
0.987 4.414 5.474
1.144 4.252 5.416
1.498 4.326 5.407
1.363 4.370 6.015
0.875 4.494 5.513
1.000 4.530 5.987
1.390 4.184 5.757
1.098 4.190 6.008
1.575 4.139 6.075
0.689 4.144 6.060
0.731 4.022 6.012
1.256 4.289 6.096
1.235 4.126 6.092
1.037 4.177 6.143
1.117 3.866 6.018
3.392 3.870 5.012
4.061 4.145 5.508
3.924 3.842 5.549
4.190 3.625 5.362
4.644 3.794 5.459
1.874 5.150 4.435
3.325 3.713 5.178
3.652 3.616 5.357
3.875 3.869 5.735
4.170 3.770 5.474
4.416 3.286 5.896
1.457 4.865 4.717
1.996 5.063 4.808
3.220 3.822 5.531
3.459 3.877 5.677
3.815 3.800 5.929
3.841 3.513 5.726
4.186 3.325 5.794
1.406 5.016 4.685
1.591 4.951 4.889
3.491 3.467 5.381
3.339 3.421 5.344
3.627 3.198 5.679
3.805 3.284 5.620
4.395 3.170 5.527
1.550 4.987 4.835
1.396 4.466 4.817
3.401 3.732 5.776
3.352 3.252 5.884
3.383 3.464 5.767
4.057 3.010 5.914
4.034 3.092 6.055
1.306 4.845 5.017
1.226 4.520 4.939
3.185 3.248 6.063
3.651 3.331 6.046
3.621 3.005 6.204
4.084 2.927 6.113
1.098 4.464 5.083
1.353 4.547 5.062
2.928 3.371 6.166
3.362 2.954 6.326
3.681 2.700 6.193
1.031 4.188 5.254
1.079 4.213 5.585
0.935 4.361 5.555
4.012 3.925 5.164
3.872 3.550 5.112
4.421 3.615 5.339
4.500 3.607 5.372
1.634 4.769 4.131
1.943 4.870 4.405
3.380 3.780 5.031
3.733 3.433 5.140
3.968 3.503 5.536
3.907 3.151 5.515
4.531 3.473 5.383
5.864 2.224 6.238
6.358 2.203 6.283
1.290 4.694 4.409
1.501 4.679 4.611
3.295 3.421 5.277
3.437 3.485 5.507
3.802 3.467 5.406
3.960 3.159 5.679
4.393 2.988 5.886
1.475 4.703 4.628
1.398 4.429 4.762
3.374 3.427 5.502
3.406 3.428 5.269
3.501 3.351 5.490
4.103 3.229 5.471
3.982 2.868 5.534
5.842 2.109 5.953
6.129 1.781 6.391
1.357 4.517 4.705
1.678 4.378 4.538
2.960 3.472 5.455
3.455 3.009 5.357
3.373 3.081 5.456
3.716 2.858 5.732
4.047 2.781 5.743
0.971 4.389 4.785
1.481 4.557 4.848
2.765 3.167 5.832
3.026 3.032 5.905
3.412 3.158 5.877
3.674 2.852 5.801
3.951 2.672 6.028
1.070 4.402 5.086
2.743 3.069 5.884
3.280 2.934 6.159
3.166 3.069 5.923
3.498 2.923 6.217
3.704 2.470 6.364
3.912 2.390 6.455
2.978 2.871 6.183
2.935 2.830 6.143
3.561 2.623 6.433
3.758 3.557 5.129
3.951 3.305 4.858
4.265 3.468 4.999
5.952 2.083 5.984
1.615 4.860 4.334
1.929 4.841 4.192
3.618 3.779 4.992
3.371 3.304 4.966
3.942 3.289 5.228
3.988 3.308 5.307
4.477 2.979 5.316
5.975 2.003 6.129
6.440 1.983 6.123
1.414 4.873 4.518
1.535 4.591 4.511
3.314 3.672 5.464
3.320 3.322 5.156
3.636 3.103 5.519
4.056 3.227 5.534
4.000 2.967 5.507
5.614 1.891 6.028
5.880 1.947 6.235
1.355 4.384 4.397
1.310 4.448 4.863
2.965 3.406 5.276
3.182 3.171 5.419
3.624 3.126 5.054
3.962 2.809 5.203
5.595 1.971 6.087
5.824 1.403 6.138
6.199 1.408 6.282
1.316 4.278 4.542
2.847 3.242 5.271
3.311 3.180 5.594
3.358 2.843 5.502
3.513 2.894 5.749
4.142 2.592 5.812
0.945 4.404 4.454
2.929 2.908 5.523
2.723 3.182 5.702
3.267 3.062 5.757
3.530 2.859 5.421
3.708 2.609 5.942
3.582 2.348 5.700
3.804 2.210 5.849
2.546 3.013 5.858
3.121 2.565 5.727
3.451 2.737 6.015
3.565 2.538 6.067
3.744 2.535 6.096
3.876 2.470 6.212
2.498 2.980 5.673
3.018 2.700 5.930
2.888 2.376 6.126
3.352 2.375 6.034
3.635 2.114 6.209
3.697 2.290 6.306
2.939 2.345 6.112
2.879 2.579 6.271
1.729 4.447 4.145
6.015 2.249 5.386
5.854 1.883 5.446
6.431 2.012 5.668
1.534 4.831 3.935
1.489 4.548 4.010
2.023 4.383 4.396
3.754 3.035 5.069
3.828 3.030 5.295
3.860 3.052 5.371
6.136 2.023 5.737
6.278 1.546 5.716
1.448 4.580 4.370
1.478 4.555 4.197
3.377 3.294 5.321
3.253 2.920 5.259
3.425 2.875 5.174
3.602 2.818 5.566
5.630 1.843 6.191
5.846 1.553 6.326
6.309 1.530 6.206
1.401 4.183 4.363
0.009 4.434 2.895
0.373 4.195 3.260
0.484 3.949 3.156
0.673 4.224 3.088
1.090 4.005 3.149
0.108 4.216 3.303
0.035 4.368 3.463
0.718 4.249 3.394
-0.048 4.101 2.635
0.386 4.081 2.790
0.683 4.045 2.898
0.932 4.013 3.142
0.018 4.156 3.028
0.301 3.727 3.080
-0.034 4.034 2.921
0.288 3.679 2.927
0.462 3.852 3.084
0.332 3.877 3.054
-0.123 4.068 2.703
0.236 3.794 2.410
-0.021 3.570 2.700
0.215 3.567 2.221
-0.007 0.663 0.577
-0.157 0.292 0.204
0.720 4.661 4.155
0.919 4.476 3.939
0.842 4.285 4.059
0.587 4.975 3.355
0.823 4.869 3.693
1.185 4.541 3.861
1.459 4.598 3.929
0.309 4.820 3.961
0.861 4.609 3.783
1.097 4.632 3.719
0.889 4.643 4.211
0.678 4.416 3.955
0.595 4.190 4.016
0.780 4.341 4.112
0.673 4.425 4.156
0.071 4.584 3.227
0.311 4.593 3.452
0.530 4.716 3.489
0.958 4.284 3.780
1.182 4.507 3.444
0.455 4.589 3.496
0.514 4.644 3.793
0.705 4.435 3.979
1.264 4.077 3.836
0.639 4.209 3.739
-0.168 4.825 2.897
0.473 4.404 3.020
0.403 4.651 3.370
0.450 4.225 3.246
0.990 4.043 3.290
0.941 4.213 3.670
0.206 4.669 3.459
0.353 4.400 3.433
0.689 4.401 3.626
0.927 4.199 3.463
1.067 3.887 3.809
0.123 4.325 2.918
0.420 4.092 3.160
0.649 4.308 3.140
0.809 3.888 3.241
0.815 3.858 3.149
0.179 4.153 3.073
0.072 4.101 3.248
0.662 3.836 3.221
2.352 2.709 4.567
2.670 2.377 4.379
3.032 2.540 4.540
1.599 2.528 4.498
2.095 2.565 4.660
2.413 2.359 4.865
2.301 2.437 4.551
2.904 2.388 4.968
2.687 2.198 5.143
2.900 1.799 5.209
1.505 2.705 4.731
1.961 2.673 4.660
2.248 2.354 4.968
2.375 2.288 4.898
2.703 2.196 5.084
2.564 1.734 5.149
3.045 1.731 5.395
1.326 2.440 4.841
1.465 2.628 4.931
1.612 2.441 4.986
1.951 2.298 5.136
1.982 1.889 5.248
2.484 1.784 5.227
2.810 1.931 5.229
3.025 1.731 5.536
3.084 1.408 5.594
1.395 2.417 4.999
1.761 2.220 5.190
1.799 2.307 5.266
1.891 1.830 5.134
2.299 1.825 5.334
2.536 1.814 5.326
2.790 1.602 5.430
4.802 1.901 4.837
5.231 1.678 4.849
5.261 1.541 4.793
5.633 1.371 5.015
5.659 0.944 4.851
6.272 1.180 5.144
6.474 0.927 5.261
5.306 1.202 5.175
5.560 1.220 5.142
5.709 1.108 5.110
1.872 2.762 4.343
2.216 2.284 4.365
2.211 2.257 4.120
2.508 2.134 4.536
2.966 2.067 4.454
1.468 2.748 4.162
1.599 2.555 4.528
1.828 2.598 4.571
2.152 2.099 4.392
2.312 2.064 4.524
2.539 2.229 4.729
2.722 2.109 4.568
0.997 2.765 4.518
1.203 2.347 4.395
1.516 2.419 4.640
1.689 2.106 4.828
1.838 2.307 4.648
2.203 1.905 4.982
2.282 1.675 4.695
2.829 1.771 4.828
1.182 2.586 4.571
1.097 2.408 4.881
1.686 2.272 4.645
1.554 2.308 4.713
1.826 1.915 4.727
1.991 1.737 5.038
2.411 2.017 5.112
2.711 1.527 5.032
0.491 2.520 4.569
0.948 2.589 4.686
1.220 2.164 4.886
1.357 2.117 4.785
1.681 1.915 5.076
1.951 1.779 5.136
2.243 1.837 5.192
2.242 1.580 5.073
0.503 2.815 4.430
0.769 2.637 4.619
0.708 2.207 4.810
0.893 2.272 5.125
0.905 2.272 5.152
1.363 1.903 5.077
0.243 2.531 4.957
0.220 2.364 4.984
0.405 2.486 4.722
0.645 2.506 4.952
0.621 2.112 5.055
0.159 2.691 5.165
0.236 2.361 5.067
0.628 2.258 5.352
0.251 2.335 5.099
4.600 1.585 4.583
4.775 1.320 4.310
5.153 1.509 4.534
5.481 1.107 4.498
5.411 1.138 4.885
5.951 0.852 4.781
6.030 0.940 5.032
4.798 1.163 4.787
5.041 1.315 4.729
5.362 0.885 4.768
5.418 0.981 5.098
5.408 0.778 5.017
2.118 2.556 3.846
4.934 0.747 4.929
1.394 2.748 3.912
1.820 2.377 4.257
1.859 2.406 4.235
2.254 2.203 4.211
2.252 1.970 4.106
1.096 2.374 4.040
1.379 2.308 4.179
1.606 2.514 4.390
1.865 2.347 4.513
2.331 2.270 4.223
2.323 1.716 4.258
2.772 1.917 4.762
0.740 2.660 4.111
1.246 2.412 4.114
1.271 2.422 4.538
1.504 1.962 4.299
1.664 2.151 4.300
1.849 1.979 4.515
2.425 1.982 4.476
2.493 1.537 4.872
0.810 2.379 4.194
0.973 2.448 4.363
0.930 2.172 4.301
1.115 2.257 4.370
1.425 2.243 4.745
1.760 2.032 4.699
1.918 1.792 4.547
2.035 1.846 4.767
2.113 1.773 4.771
0.628 2.370 4.350
1.004 2.478 4.473
0.513 2.333 4.522
0.794 2.379 4.528
0.894 2.119 4.683
1.192 1.831 4.663
1.678 1.691 4.811
1.711 1.785 4.881
0.048 2.739 4.456
0.466 2.505 4.334
0.431 2.245 4.348
0.554 2.088 4.815
0.807 2.038 4.638
0.797 1.739 5.058
1.124 1.617 5.141
1.419 1.663 5.088
0.160 2.691 4.385
0.504 2.267 4.454
0.407 2.009 4.799
0.222 2.237 4.881
0.624 1.856 4.968
1.019 1.907 5.020
-0.068 2.173 5.038
0.421 2.034 5.176
0.261 2.188 5.241
0.621 2.021 5.015
-0.022 2.310 5.210
0.396 2.090 4.976
0.309 1.712 5.125
0.039 1.974 5.521
4.539 1.350 4.299
4.849 1.355 4.085
4.891 1.186 4.565
4.841 1.047 4.407
5.101 1.137 4.293
5.720 0.787 4.416
5.954 0.607 4.829
4.462 1.359 4.256
4.905 0.966 4.405
4.695 0.824 4.653
4.993 1.011 4.949
5.227 0.821 4.633
2.319 2.603 4.109
4.810 1.146 4.877
1.618 2.329 3.567
1.817 2.584 3.773
2.060 2.247 3.667
2.126 2.283 3.906
4.400 0.879 4.636
4.665 0.984 4.757
4.670 0.605 4.454
5.052 0.720 4.701
1.141 2.432 3.680
1.415 2.499 3.864
1.918 2.158 3.735
1.946 2.133 4.186
2.317 2.159 4.065
2.648 1.660 3.865
1.288 2.176 4.145
1.490 2.338 3.961
1.436 2.270 3.988
1.822 2.225 4.337
2.116 1.707 4.012
2.317 1.631 4.077
0.670 2.602 3.939
0.852 2.070 4.254
1.225 1.898 4.116
1.640 1.997 4.218
1.880 1.710 4.260
1.785 1.544 4.409
2.263 1.471 4.694
0.854 2.466 3.988
0.895 2.267 4.138
1.133 2.011 4.515
1.020 1.895 4.434
1.408 1.661 4.393
1.474 1.797 4.532
1.727 1.802 4.393
2.010 1.717 4.709
0.745 2.274 3.936
0.690 2.462 4.227
0.480 2.219 4.616
0.725 2.068 4.471
0.853 1.892 4.725
1.351 1.999 4.600
1.400 1.538 4.535
1.721 1.711 4.868
0.224 2.625 4.278
0.165 2.415 4.309
0.404 2.088 4.596
0.317 1.990 4.389
0.867 1.702 4.793
1.105 1.559 4.701
1.165 1.659 4.698
-0.086 2.352 4.640
0.300 2.335 4.765
0.244 2.102 4.708
0.526 2.020 4.962
0.590 1.673 4.710
0.932 1.468 4.866
0.036 2.141 4.606
0.159 2.143 4.707
0.248 1.702 4.912
0.167 1.471 5.169
-0.026 1.929 5.116
0.120 1.552 5.104
0.237 1.546 5.313
4.344 1.481 4.096
4.359 1.306 4.136
5.011 1.125 4.356
5.064 1.174 4.252
5.180 0.714 4.181
5.256 0.794 4.399
4.105 1.391 4.218
4.483 0.950 4.255
4.417 1.196 4.400
5.099 1.036 4.394
5.115 0.598 4.612
5.491 0.499 4.463
1.619 2.562 3.779
1.723 2.216 3.855
2.002 2.184 3.690
2.487 1.911 3.838
4.105 0.784 4.314
4.577 1.023 4.832
4.795 0.512 4.778
5.041 0.715 4.694
1.561 2.152 3.577
1.737 2.202 3.383
1.966 2.217 3.787
2.399 1.819 3.585
4.449 0.910 4.339
4.327 0.545 4.548
4.645 0.332 4.520
5.120 0.622 4.364
1.342 2.520 3.589
1.415 2.060 3.711
1.523 1.887 3.574
1.907 2.027 3.608
2.338 1.849 3.666
3.928 0.821 4.462
4.520 0.402 4.635
4.564 0.454 4.788
0.829 2.100 3.779
1.311 2.402 3.725
1.168 2.108 3.933
1.399 1.891 3.982
1.828 1.748 4.183
2.013 1.742 3.856
2.338 1.414 4.326
1.109 2.521 3.589
0.684 2.178 3.683
1.122 1.931 3.970
1.430 1.831 3.810
1.624 1.614 4.108
1.906 1.711 4.278
1.873 1.581 4.479
0.825 2.272 3.693
0.782 2.078 4.011
0.773 2.131 4.325
1.005 1.821 4.041
1.319 1.923 4.457
1.328 1.649 4.310
1.781 1.251 4.394
0.364 2.092 4.014
0.618 1.919 4.144
0.457 2.032 4.292
0.634 1.693 4.152
0.910 1.882 4.302
1.329 1.776 4.381
1.434 1.460 4.393
-0.085 2.267 4.173
0.132 2.054 4.135
0.710 1.994 4.267
0.498 1.667 4.225
0.746 1.908 4.378
0.880 1.719 4.508
0.832 1.567 4.691
0.022 1.783 4.259
0.474 2.051 4.279
0.328 1.520 4.582
0.251 1.390 4.935
0.887 1.450 4.592
0.094 1.797 4.510
0.290 1.930 4.640
0.316 1.382 4.697
0.204 1.634 4.964
0.143 1.393 4.816
1.383 0.397 6.082
1.552 0.191 5.966
1.054 0.373 6.246
1.241 0.156 6.044
3.974 1.180 3.598
4.138 1.207 3.997
4.330 0.851 3.907
4.767 0.770 3.857
5.100 0.601 4.083
4.970 0.759 4.117
5.473 0.555 4.446
1.996 2.537 3.134
2.207 2.440 3.541
2.409 2.037 3.409
3.922 0.954 4.318
4.473 0.749 4.386
4.707 0.986 4.201
4.855 0.480 4.271
4.834 0.546 4.403
1.797 2.498 3.286
1.935 2.351 3.382
2.251 1.813 3.762
2.231 2.016 3.742
4.366 0.617 4.372
4.609 0.850 4.249
4.774 0.333 4.656
4.874 0.422 4.444
1.377 2.275 3.168
1.437 2.268 3.249
1.984 2.163 3.440
1.866 1.739 3.211
2.149 1.561 3.715
3.977 0.707 4.307
4.232 0.689 4.070
4.258 0.313 4.169
4.475 0.166 4.459
4.917 0.032 4.255
1.373 1.949 3.200
1.568 1.765 3.697
1.874 1.666 3.540
2.102 1.564 3.705
1.921 1.456 3.527
3.708 0.722 4.433
3.904 0.595 4.208
4.122 0.415 4.574
4.635 0.319 4.464
4.851 0.294 4.448
1.187 1.992 3.523
1.314 1.813 3.434
1.312 1.499 3.872
1.686 1.790 3.986
1.954 1.621 4.085
3.987 0.352 4.811
4.063 0.078 4.639
4.172 -0.007 4.922
0.903 2.096 3.512
0.999 2.031 3.651
0.950 1.880 4.068
1.568 1.761 4.062
1.466 1.370 3.820
2.048 1.225 4.087
0.628 1.946 3.940
0.479 1.663 3.924
0.870 1.598 3.858
1.148 1.745 3.908
1.414 1.588 3.981
1.271 1.300 4.200
0.593 2.080 3.837
0.397 1.766 4.185
0.668 1.714 4.267
0.881 1.548 4.243
1.089 1.357 4.168
0.036 1.893 4.180
0.593 1.671 4.014
0.191 1.598 4.379
0.641 1.722 4.251
0.199 1.578 4.157
0.572 1.587 4.121
0.338 1.373 4.346
0.345 1.507 4.377
0.251 1.614 4.573
-0.101 1.483 4.598
0.092 1.620 4.608
1.526 0.368 5.803
1.941 -0.060 5.830
1.143 0.377 5.705
1.393 -0.148 6.035
1.119 -0.007 6.198
1.891 2.202 2.981
2.291 2.167 3.092
2.428 2.222 2.989
4.271 0.846 3.967
4.650 0.830 3.777
4.654 0.902 3.833
5.085 0.620 3.778
4.899 0.390 4.080
1.575 2.146 2.836
1.906 2.271 2.980
1.961 2.150 3.357
2.010 2.147 3.006
2.441 1.800 3.117
3.984 1.010 3.805
4.535 0.760 3.818
4.732 0.596 4.301
4.701 0.349 3.968
4.999 0.506 4.377
1.385 2.187 3.319
1.656 2.002 3.163
1.641 2.138 3.515
1.887 1.966 3.542
2.285 1.880 3.588
3.888 0.846 3.967
4.333 0.607 4.228
4.371 0.535 4.089
4.636 0.456 4.324
4.807 0.024 4.595
1.410 2.100 2.919
1.298 2.064 3.262
1.708 1.844 2.989
2.192 1.715 3.340
2.382 1.345 3.435
3.995 0.442 3.763
4.172 0.328 3.856
4.340 0.120 3.916
4.499 0.069 4.250
4.883 -0.125 4.436
1.222 1.652 3.401
1.504 1.604 3.356
1.630 1.494 3.305
1.861 1.724 3.383
1.893 1.371 3.364
3.634 0.290 4.058
4.185 0.481 4.315
4.418 -0.001 4.448
4.632 -0.205 4.314
1.059 2.002 3.323
1.114 1.512 3.524
1.279 1.649 3.615
1.579 1.284 3.853
3.418 0.054 4.120
4.059 0.103 4.656
3.938 0.030 4.410
0.939 1.809 3.629
1.262 1.446 3.725
1.504 1.637 3.958
1.708 1.310 3.940
3.503 0.351 4.731
3.589 -0.167 4.800
0.974 1.337 4.030
1.721 0.082 5.211
1.721 2.352 2.584
1.723 2.161 2.683
2.178 1.972 2.969
2.404 2.049 3.038
4.288 0.826 3.564
4.285 0.596 3.718
4.534 0.711 3.634
4.718 0.253 3.886
1.402 2.202 2.933
1.753 1.905 2.746
1.787 1.946 3.027
2.208 1.732 2.880
2.135 1.524 3.179
4.114 0.622 3.790
4.305 0.297 4.080
4.603 0.275 3.893
4.903 0.352 3.812
5.006 0.013 4.266
1.098 1.904 2.897
1.345 1.652 3.178
1.763 1.631 3.284
1.882 1.436 3.478
2.264 1.673 3.237
4.117 0.698 4.166
3.923 0.414 4.143
4.168 0.343 4.032
4.692 0.291 3.987
4.920 0.077 4.287
1.353 1.832 2.781
1.251 1.907 2.994
1.443 1.407 2.919
2.009 1.390 3.131
1.953 1.153 2.971
3.967 0.448 3.809
4.047 -0.015 3.751
4.450 -0.097 3.942
1.302 1.651 2.857
1.312 1.460 3.362
1.702 1.537 3.464
1.571 1.425 3.222
1.896 1.414 3.568
3.715 -0.022 3.981
3.894 -0.152 4.281
1.010 1.256 3.310
1.216 1.483 3.623
1.499 1.002 3.621
3.388 0.073 4.279
3.292 0.220 4.122
1.839 0.146 4.782
1.525 0.186 5.196
1.425 2.114 2.398
1.718 1.761 2.793
2.056 1.961 2.525
2.210 1.516 2.602
2.320 1.582 2.819
4.296 0.201 3.561
4.377 0.487 3.798
4.546 0.287 3.845
1.187 1.802 2.560
1.775 1.676 2.911
1.727 1.501 2.992
1.821 1.309 2.760
2.418 1.420 3.104
4.014 0.410 3.468
4.389 0.479 3.912
4.214 0.029 3.957
4.722 0.015 3.674
1.023 1.565 3.023
1.329 1.541 2.808
1.734 1.560 3.088
1.715 1.241 3.008
1.915 1.295 2.980
3.706 0.259 3.878
3.879 0.082 3.707
4.119 -0.152 4.142
1.474 1.416 2.937
1.684 1.395 3.059
1.698 1.408 2.960
2.054 1.272 2.917
1.120 1.392 2.758
1.444 1.119 3.046
1.840 1.011 3.358
1.363 1.758 2.315
1.333 1.621 2.436
1.483 1.538 2.641
1.886 1.766 2.647
2.048 1.500 2.589
2.407 1.476 2.698
2.474 1.337 2.919
1.085 2.053 2.279
1.237 1.726 2.310
1.367 1.710 2.499
1.996 1.567 2.451
1.746 1.473 2.759
2.340 1.039 3.003
4.061 -0.051 3.527
1.206 1.410 2.683
1.793 1.313 2.773
1.709 1.081 3.048
2.180 1.142 3.183
1.412 1.132 2.522
1.383 1.286 2.847
2.006 1.064 2.648
1.888 0.940 2.765
1.552 1.868 2.194
1.827 1.667 2.036
1.973 1.426 2.243
2.004 1.106 2.559
2.352 1.213 2.339
2.474 1.220 2.618
1.493 1.547 2.460
1.361 1.449 2.254
1.515 1.122 2.710
1.941 1.320 2.537
2.232 1.097 2.588
2.343 0.969 2.699
1.253 1.493 2.738
1.597 0.974 2.508
1.810 0.811 2.931
1.763 0.921 2.987
1.628 0.787 2.708
1.427 1.529 1.861
1.631 1.195 2.283
1.727 1.085 2.019
2.195 1.258 2.436
2.036 1.141 2.421
2.439 0.616 2.272
2.776 0.453 2.269
1.335 1.400 2.169
1.577 0.984 2.385
2.055 0.730 2.227
2.130 0.804 2.519
2.502 0.909 2.678
1.848 0.986 2.471
1.290 1.134 1.868
1.697 1.096 1.796
2.125 0.662 1.890
2.325 0.812 2.187
2.302 0.444 2.033
2.595 0.269 2.464
2.758 0.417 2.399
1.430 0.914 2.262
1.960 0.803 2.121
1.888 0.720 2.533
2.013 0.458 2.327
2.478 0.323 2.590
1.567 0.572 1.739
1.753 0.764 1.902
2.067 0.778 2.208
2.441 0.505 2.017
2.295 0.414 2.276
2.636 0.228 2.338
2.902 0.032 2.363
1.767 0.352 2.160
1.966 0.412 2.207
2.167 0.027 2.290
-0.160 0.551 2.329
0.091 0.218 2.705
0.322 0.115 3.034
-0.200 0.331 2.681
2.006 0.323 1.718
2.236 0.122 1.665
2.203 0.411 1.991
2.426 0.296 2.180
1.702 0.137 1.971
2.104 0.300 2.288
-0.094 0.867 1.886
-0.052 0.295 1.885
0.125 0.239 2.108
-0.123 0.254 2.064
0.340 0.123 2.462
-0.087 -0.037 2.465
-0.069 -0.117 2.430
1.747 0.317 1.637
2.131 0.105 1.695
-0.082 0.479 1.281
-0.008 0.228 1.622
-0.104 0.006 1.876
0.141 0.615 1.594
0.279 0.465 1.238
-0.032 -0.003 1.387
-0.037 0.187 1.503
0.314 0.348 0.907
0.266 0.548 1.096
0.028 0.388 1.150
0.395 0.160 1.154
0.157 0.594 0.803
0.268 0.374 0.951
0.580 0.388 0.906
0.012 -0.048 0.928
0.239 -0.049 1.238
-0.000 0.299 0.352
0.350 0.118 0.690
0.261 -0.117 0.915
0.124 -0.202 0.335
2.974 2.911 5.165
3.582 2.755 4.829
3.440 3.026 5.044
3.564 2.771 5.293
5.680 1.720 5.802
5.718 1.337 6.018
6.158 1.373 6.042
1.361 3.933 4.065
2.790 2.931 4.982
3.200 3.090 5.192
3.431 2.690 5.134
3.246 2.860 5.507
3.731 2.726 5.512
3.804 2.430 5.552
2.629 2.845 5.097
2.650 2.770 5.298
3.117 2.767 5.433
3.190 2.401 5.331
3.392 2.201 5.634
3.834 2.299 5.490
2.518 3.009 5.687
2.657 2.786 5.628
2.733 2.728 5.768
3.355 2.461 5.505
3.427 2.201 5.756
3.740 2.408 5.862
3.844 2.123 5.986
2.241 2.495 5.643
2.657 2.793 5.740
2.645 2.600 5.924
2.984 2.162 5.860
3.214 2.154 5.831
3.322 2.151 6.057
3.704 1.715 6.226
4.091 1.724 6.356
2.551 2.370 5.715
2.587 2.467 5.859
2.739 2.248 5.926
2.894 1.853 5.956
3.217 2.030 6.216
2.575 1.918 6.143
5.566 1.722 5.356
6.124 1.547 5.355
6.103 1.635 5.327
1.565 4.491 3.919
1.479 4.117 3.871
5.879 1.913 5.715
5.651 1.650 5.700
5.870 1.616 5.631
1.231 4.089 4.090
1.658 4.025 4.059
3.020 2.965 5.034
3.259 2.911 4.894
3.340 2.926 5.190
3.986 2.749 5.202
5.943 1.638 6.063
6.086 1.196 5.850
6.400 1.380 6.238
1.360 4.193 4.254
3.142 2.714 4.691
6.009 1.140 5.692
2.839 2.668 5.127
2.963 2.830 5.043
3.011 2.674 5.033
3.306 2.284 4.897
3.596 2.590 5.053
2.218 2.669 5.247
2.628 2.714 5.027
2.859 2.583 5.410
3.172 2.340 5.129
3.216 2.142 5.428
3.318 2.148 5.473
3.683 1.964 5.388
2.273 2.569 5.040
2.518 2.394 5.492
2.431 2.481 5.384
2.889 2.486 5.518
3.312 2.257 5.302
3.302 2.266 5.712
3.739 2.018 5.776
3.588 1.785 5.610
2.225 2.503 5.458
2.136 2.382 5.351
2.473 2.359 5.326
2.646 2.474 5.547
2.963 2.343 5.683
3.335 2.221 5.865
3.404 1.811 5.742
3.771 1.830 5.880
3.611 1.680 5.913
2.536 2.301 5.723
2.409 2.098 5.887
3.020 2.170 5.754
3.081 1.812 6.005
3.183 1.980 6.010
3.507 1.490 6.156
3.676 1.746 6.224
2.504 1.984 6.092
2.595 1.867 6.310
2.765 1.951 5.966
3.056 1.462 6.109
5.603 1.887 5.387
5.605 1.919 5.441
5.963 1.607 5.359
6.032 1.685 5.583
1.566 4.122 3.549
1.770 4.066 3.587
5.680 1.704 5.427
5.742 1.522 5.447
6.112 1.379 5.363
6.088 1.162 5.606
1.080 4.205 3.766
3.497 2.847 4.990
5.840 1.060 5.849
2.487 2.950 4.888
2.663 2.811 4.965
2.790 2.469 4.586
3.277 2.458 5.048
3.518 2.075 5.111
2.157 2.811 4.757
2.195 2.576 4.899
2.455 2.368 4.788
2.906 2.326 4.900
2.844 2.231 5.250
2.943 2.196 4.933
3.285 2.252 5.118
2.167 2.502 5.126
2.262 2.502 4.937
2.328 2.500 5.196
2.612 2.067 5.215
3.007 2.136 5.466
3.010 2.228 5.548
3.252 1.715 5.405
3.491 1.642 5.320
1.814 2.680 5.408
1.993 2.306 5.241
2.173 2.203 5.145
2.300 2.161 5.461
2.849 2.128 5.291
2.766 1.936 5.700
2.943 1.649 5.805
3.425 1.814 5.899
1.771 2.461 5.351
2.157 2.149 5.698
2.105 2.266 5.633
2.627 2.000 5.838
2.920 1.970 5.880
2.802 1.900 5.779
3.342 1.469 5.657
3.635 1.310 5.905
3.753 1.298 6.110
2.743 1.698 6.073
2.679 1.622 6.245
3.223 1.507 5.979
3.171 1.308 6.113
3.664 1.354 6.049
2.794 1.337 6.363
5.389 1.551 4.725
5.619 1.633 4.862
5.837 1.499 4.906
5.709 1.564 5.261
