1.304 3.330 4.788
1.495 3.548 4.593
1.753 2.989 5.197
1.558 3.146 5.159
1.577 3.286 4.963
1.769 3.399 4.685
1.790 3.607 4.669
1.905 3.354 5.166
1.968 3.253 5.200
1.949 3.683 4.788
1.881 3.765 4.721
0.849 3.177 4.215
0.863 3.313 4.266
1.118 3.094 4.706
1.216 3.385 4.420
1.058 3.495 4.214
1.396 2.866 4.924
1.195 3.019 4.772
1.274 3.158 4.548
1.382 3.563 4.397
1.519 2.850 5.040
1.517 3.299 4.777
1.386 3.328 4.546
1.616 3.534 4.292
1.876 3.098 4.911
1.753 3.225 4.885
1.900 3.248 4.611
1.702 3.566 4.349
1.833 2.914 5.177
1.887 3.331 4.906
2.047 3.330 4.704
1.924 3.555 4.420
2.353 3.598 4.710
3.674 2.959 6.312
1.044 3.311 4.145
1.273 3.129 4.365
1.287 3.305 4.225
1.510 3.035 4.547
1.409 3.304 4.287
1.443 3.378 4.283
1.611 2.759 4.663
1.667 2.872 4.544
1.615 3.252 4.363
1.752 3.386 4.247
1.912 2.710 4.922
1.971 3.198 4.505
1.918 3.165 4.326
1.788 3.328 4.305
2.160 2.900 4.879
2.217 3.005 4.623
2.133 3.218 4.450
2.200 3.452 4.537
2.163 3.325 4.897
2.381 3.337 4.581
2.453 3.511 4.349
2.922 1.687 6.320
3.412 2.413 6.196
3.674 2.681 5.983
1.216 3.081 4.078
1.639 2.989 4.041
1.597 3.091 3.921
1.576 2.875 4.404
1.754 3.069 4.220
1.616 3.217 4.046
1.786 2.832 4.368
1.793 3.168 4.309
2.121 3.223 4.322
1.980 1.059 6.321
2.104 1.086 5.997
2.086 3.129 4.501
2.214 3.182 4.485
2.180 3.318 4.157
2.293 1.094 6.066
2.344 2.922 4.526
2.489 3.046 4.528
2.374 3.505 4.316
2.640 1.230 6.364
2.506 1.384 6.119
2.767 3.243 4.645
2.561 3.331 4.400
2.808 1.496 6.053
2.775 1.573 6.235
3.226 1.795 6.178
3.271 1.823 6.194
3.596 2.066 6.172
3.951 2.268 6.246
1.465 3.167 3.880
1.922 2.987 4.205
1.834 3.075 3.767
1.930 0.418 6.230
1.741 0.717 5.890
1.770 0.948 5.847
1.938 2.884 4.292
2.191 3.026 4.106
2.070 3.267 3.974
1.970 0.713 6.346
2.225 0.810 6.156
2.196 0.967 5.907
2.257 2.910 4.473
2.239 2.903 4.130
2.395 3.165 4.207
2.207 0.878 6.126
2.210 0.999 5.897
2.212 1.323 5.718
2.627 2.769 4.612
2.523 3.067 4.214
2.477 3.080 4.203
2.571 0.972 6.372
2.533 0.947 5.964
2.446 1.327 5.887
2.636 2.926 4.508
2.670 3.193 4.253
2.601 3.338 4.231
2.938 1.129 6.069
2.653 1.261 6.135
3.031 3.064 4.437
2.808 3.208 4.281
3.066 1.183 6.340
3.000 1.501 6.253
3.272 1.393 6.050
-0.098 0.869 4.456
0.215 0.992 4.416
-0.069 1.267 4.136
0.141 1.489 4.131
0.005 1.758 3.720
0.256 0.844 4.456
0.410 0.982 4.378
0.236 1.316 4.352
0.299 1.398 4.127
0.438 1.026 4.585
0.641 1.293 4.656
0.511 1.383 4.486
1.528 0.561 5.717
1.467 0.522 5.556
1.658 0.861 5.350
1.908 0.493 5.819
1.815 0.677 5.601
1.851 0.641 5.511
1.903 0.861 5.561
1.822 0.336 6.249
1.993 0.249 6.122
2.141 0.599 5.680
2.165 0.658 5.819
1.855 1.080 5.615
2.217 2.747 3.978
2.134 3.048 3.861
2.130 0.344 6.189
2.222 0.508 6.053
2.091 0.507 6.049
2.343 0.768 5.732
2.239 1.028 5.734
2.348 2.781 4.274
2.350 2.938 4.210
2.454 2.946 3.907
2.380 0.464 6.248
2.375 0.833 6.088
2.414 0.890 5.811
2.437 1.040 5.736
2.713 2.713 4.195
2.470 2.938 4.262
2.756 3.120 4.122
2.530 0.709 6.384
2.777 0.825 6.153
2.694 0.937 5.828
2.742 2.714 4.496
2.927 3.048 4.113
2.802 3.193 3.983
2.844 0.632 6.239
2.941 0.868 6.132
3.001 2.886 4.388
2.903 2.971 4.335
3.017 3.227 4.019
3.273 3.086 4.262
3.351 3.141 4.265
3.448 3.372 4.438
0.261 0.658 4.227
0.233 0.882 4.335
0.018 0.998 3.950
0.170 1.374 3.838
0.269 1.390 3.644
0.479 0.662 4.568
0.528 0.992 4.313
0.288 1.077 4.079
0.364 1.455 4.015
0.419 1.604 3.773
0.480 0.739 4.626
0.647 0.774 4.483
0.607 0.868 4.464
0.508 1.208 4.327
0.700 1.468 3.904
0.655 0.561 4.667
0.853 0.987 4.634
0.677 1.116 4.302
0.809 1.103 4.260
1.151 0.573 4.903
0.856 0.703 4.900
0.928 0.766 4.790
1.011 1.039 4.403
1.231 0.400 5.134
1.103 0.493 4.942
1.228 0.932 4.867
1.100 0.967 4.701
1.336 0.142 5.544
1.289 0.528 5.337
1.411 0.708 4.972
1.369 0.974 4.825
1.475 0.211 5.521
1.548 0.245 5.441
1.810 0.532 5.420
1.570 0.610 5.291
1.719 0.911 5.165
1.752 0.133 6.003
1.930 0.159 5.594
1.775 0.539 5.460
2.030 0.501 5.508
1.886 0.594 5.322
2.222 0.207 6.152
2.152 0.224 5.928
2.236 0.460 5.779
2.063 0.604 5.421
2.001 0.805 5.525
2.335 0.057 5.922
2.423 0.173 5.964
2.374 0.614 5.642
2.290 0.549 5.588
2.335 0.804 5.462
2.334 2.727 4.041
2.452 2.982 3.690
2.557 0.017 6.197
2.412 0.495 6.013
2.661 0.416 5.709
2.436 0.575 5.701
2.823 2.423 4.283
2.760 2.797 3.812
2.749 2.909 3.790
2.573 0.413 6.226
2.828 0.661 5.938
2.829 0.760 5.726
2.855 2.629 4.300
2.940 2.880 4.007
2.792 3.017 3.853
3.097 2.601 4.223
3.002 2.857 4.260
3.092 2.972 4.073
3.330 2.731 4.377
3.502 2.823 4.224
3.481 2.943 3.900
3.431 2.837 4.355
3.464 3.279 4.199
3.888 3.111 4.293
-0.001 0.580 4.043
-0.011 0.854 3.658
-0.001 0.961 3.519
0.082 1.102 3.570
0.064 1.484 3.419
0.340 0.722 4.042
0.263 0.656 4.163
0.335 0.946 3.958
0.313 1.248 3.739
0.436 1.324 3.386
0.144 1.451 3.491
0.500 0.306 4.439
0.335 0.515 4.288
0.364 0.746 4.062
0.408 0.959 4.065
0.552 1.149 3.855
0.594 1.427 3.768
0.687 1.638 3.453
0.533 0.579 4.450
0.675 0.660 4.389
0.738 1.016 4.306
0.691 1.148 4.144
0.569 1.239 3.723
0.811 1.330 3.549
1.029 0.240 4.772
0.790 0.454 4.460
0.882 0.584 4.474
0.991 0.785 4.178
0.985 1.127 4.171
0.845 1.205 3.868
1.090 0.373 5.090
1.263 0.431 4.944
1.215 0.568 4.548
1.206 0.907 4.440
1.270 1.075 4.469
1.163 1.243 4.097
1.206 0.049 5.089
1.268 0.192 5.131
1.203 0.506 4.800
1.187 0.504 4.825
1.507 0.920 4.577
1.262 1.162 4.396
1.506 0.226 5.185
1.520 0.375 5.183
1.701 0.400 5.069
1.661 0.565 4.735
1.594 0.876 4.616
1.617 0.010 5.388
1.870 0.353 5.445
1.907 0.223 5.310
1.662 0.424 4.910
1.919 0.805 4.849
2.008 -0.086 5.546
2.119 0.373 5.312
1.867 0.351 5.386
1.843 0.722 4.972
2.015 0.764 5.037
2.202 0.182 5.757
2.074 0.357 5.349
2.103 0.359 5.252
2.277 0.659 5.322
2.355 0.117 5.815
2.456 0.385 5.615
2.325 0.649 5.440
2.534 0.138 6.071
2.640 0.082 5.956
2.778 0.331 5.686
2.540 0.492 5.440
2.649 2.282 4.057
2.694 2.552 3.776
2.704 2.730 3.598
3.015 2.373 4.248
3.095 2.540 3.918
3.155 2.788 3.757
3.015 2.941 3.898
3.085 2.430 4.339
3.350 2.683 4.155
3.145 2.555 3.892
3.094 3.056 3.696
3.454 2.521 4.442
3.272 2.631 4.233
3.421 2.904 4.176
3.512 3.102 3.743
3.576 2.650 4.278
3.563 2.813 3.983
3.729 2.997 3.838
3.856 2.919 4.114
3.987 3.202 4.142
4.225 3.208 4.006
0.174 0.477 3.622
0.068 0.827 3.523
0.232 0.879 3.363
0.328 1.119 3.363
0.201 1.336 3.153
0.413 0.327 4.153
0.456 0.460 3.984
0.493 0.848 3.545
0.371 1.000 3.610
0.318 1.040 3.382
0.427 1.377 3.239
0.395 0.302 3.964
0.709 0.804 3.994
0.711 0.782 3.912
0.450 1.081 3.727
0.540 1.299 3.466
0.681 1.402 3.322
0.891 0.454 4.271
0.893 0.662 4.143
0.904 0.540 3.958
0.858 0.895 3.949
0.839 1.169 3.627
0.757 1.214 3.656
0.846 1.322 3.341
1.113 0.251 4.641
1.136 0.233 4.532
1.071 0.445 4.097
0.961 0.881 4.146
0.890 0.803 3.765
1.011 1.178 3.782
1.141 1.352 3.489
1.312 0.136 4.690
1.075 0.092 4.647
1.289 0.569 4.632
1.173 0.583 4.166
1.224 0.717 4.139
1.246 0.886 4.128
1.238 1.215 3.984
1.302 0.056 4.821
1.400 0.376 4.784
1.478 0.515 4.656
1.300 0.514 4.358
1.589 0.757 4.401
1.524 0.061 4.948
1.740 0.407 4.652
1.731 0.598 4.694
1.759 0.845 4.483
1.698 0.167 5.292
1.825 0.184 5.011
1.939 0.363 4.913
2.020 0.569 4.862
2.151 0.029 5.209
2.218 0.355 5.055
2.235 0.325 4.940
2.292 0.125 5.447
2.364 0.310 5.070
2.237 0.499 5.191
2.564 -0.042 5.727
2.576 0.252 5.483
2.653 0.437 5.408
2.548 0.042 5.825
2.759 2.324 3.771
3.068 2.198 4.000
3.038 2.196 3.758
3.254 2.446 3.621
3.130 2.765 3.485
3.245 2.115 3.961
3.361 2.439 4.012
3.272 2.511 3.919
3.375 2.898 3.682
3.424 2.131 4.356
3.365 2.605 4.084
3.442 2.739 3.993
3.676 2.724 3.677
3.734 2.389 4.152
3.600 2.580 4.013
3.904 2.572 4.054
3.849 2.947 3.844
3.916 2.469 4.310
4.145 2.741 4.015
4.141 3.057 3.774
4.200 2.787 4.003
4.241 2.822 3.967
0.216 0.439 3.424
0.184 0.648 3.144
0.284 1.102 3.217
0.317 1.126 3.084
0.367 0.595 3.820
0.597 0.692 3.373
0.542 0.925 3.430
0.361 0.952 3.076
0.415 1.119 3.024
0.470 1.321 3.015
0.698 0.217 4.073
0.652 0.435 3.622
0.535 0.553 3.543
0.536 0.868 3.483
0.811 1.094 3.243
0.811 1.131 3.294
0.604 1.337 2.826
0.948 0.144 3.999
0.937 0.410 3.985
1.049 0.499 3.935
0.796 0.641 3.574
1.037 1.061 3.629
1.023 1.238 3.525
0.802 1.219 3.306
0.858 1.394 2.917
1.149 0.183 4.290
1.054 0.249 4.243
1.222 0.412 3.939
1.139 0.504 3.947
1.132 0.750 3.851
1.239 1.120 3.733
1.301 1.211 3.439
0.998 1.355 3.307
1.291 0.161 4.461
1.172 0.456 4.214
1.400 0.522 4.189
1.478 0.803 4.047
1.285 0.814 3.691
1.292 1.036 3.590
1.568 0.133 4.598
1.562 0.475 4.380
1.659 0.596 4.299
1.699 0.757 4.023
1.638 0.063 4.747
1.678 0.367 4.522
1.719 0.248 4.532
1.599 0.625 4.464
1.880 -0.063 4.931
2.116 0.150 4.670
1.868 0.592 4.511
2.217 0.081 5.003
2.293 0.285 4.677
2.226 0.054 4.986
2.725 0.004 5.312
3.094 2.065 3.883
3.118 2.261 3.574
3.182 2.306 3.632
3.045 2.565 3.508
3.326 1.802 4.233
3.539 2.181 3.880
3.274 2.149 3.778
3.288 2.552 3.595
3.312 2.486 3.368
3.669 1.952 4.268
3.714 2.101 3.959
3.503 2.220 3.805
3.500 2.471 3.608
3.782 2.610 3.482
3.653 2.114 4.114
3.667 2.098 4.189
3.951 2.370 3.981
3.785 2.440 3.812
3.805 2.706 3.684
4.056 2.119 4.073
4.153 2.491 4.002
4.146 2.444 3.868
4.002 2.895 3.833
4.218 2.476 3.898
4.393 2.786 3.690
0.219 0.842 2.907
0.504 1.027 2.746
0.543 0.561 3.244
0.683 0.593 3.139
0.561 0.986 2.950
0.469 0.892 2.991
0.574 1.337 2.650
0.481 1.411 2.482
0.815 0.471 3.682
0.772 0.456 3.485
0.686 0.599 3.307
0.898 0.941 3.136
0.958 1.173 2.960
0.775 1.427 2.965
0.698 1.344 2.626
0.982 0.265 3.508
1.023 0.466 3.395
0.950 0.622 3.358
0.973 1.082 3.197
1.138 1.151 3.194
1.139 1.258 2.998
1.215 1.453 2.715
1.170 0.285 3.935
1.133 0.363 3.758
1.132 0.620 3.526
1.235 0.885 3.395
1.295 0.868 3.372
1.227 1.292 3.283
1.104 1.284 3.036
1.268 0.225 4.173
1.458 0.407 4.081
1.498 0.441 3.921
1.558 0.736 3.627
1.526 1.010 3.599
1.548 0.127 4.497
1.462 0.311 4.167
1.806 0.113 4.373
3.337 1.957 3.805
3.115 2.047 3.642
3.445 1.580 3.990
3.453 1.863 3.864
3.346 1.824 3.828
3.516 2.106 3.605
3.403 2.197 3.519
3.635 2.625 3.306
3.783 1.578 4.325
3.729 1.918 4.161
3.622 1.814 3.979
3.831 2.264 3.674
3.710 2.346 3.456
3.737 2.449 3.435
3.953 1.519 4.333
3.775 1.827 4.006
3.782 2.167 3.820
3.937 2.107 3.646
4.063 2.261 3.699
4.093 2.494 3.481
4.147 1.874 4.306
4.010 2.141 4.133
4.048 2.229 3.904
4.310 2.500 3.759
4.195 2.724 3.479
4.278 2.476 3.643
4.450 2.728 3.566
0.423 0.873 2.654
0.611 1.085 2.528
0.754 0.514 3.101
0.797 0.740 2.846
0.837 0.825 2.790
0.731 1.227 2.695
0.639 1.215 2.522
0.602 1.608 2.216
0.838 0.464 3.012
1.042 0.912 3.068
0.774 1.106 2.865
0.905 0.992 2.737
1.006 1.303 2.642
0.911 1.443 2.489
1.248 0.604 3.346
1.229 0.537 3.064
1.264 0.715 3.062
1.077 1.096 2.821
1.178 1.351 2.594
1.129 1.369 2.477
1.145 1.501 2.392
1.068 1.586 2.419
1.368 0.665 3.350
1.375 0.995 3.039
1.427 1.135 2.891
1.524 1.090 2.846
1.316 1.566 2.593
1.450 1.569 2.544
3.505 1.408 3.672
3.301 1.752 3.517
3.571 1.256 4.058
3.630 1.365 3.802
3.515 1.690 3.847
3.431 1.761 3.690
3.722 1.878 3.352
3.692 2.198 3.220
3.610 1.321 4.150
3.711 1.385 4.107
3.948 1.790 3.891
3.835 1.872 3.804
3.843 2.148 3.479
3.725 2.228 3.428
3.882 1.223 4.445
4.078 1.448 4.168
3.914 1.443 4.012
3.891 1.607 3.878
3.973 1.942 3.719
3.922 2.031 3.572
4.137 2.321 3.578
3.988 2.492 3.331
4.096 1.230 4.265
4.137 1.511 4.124
4.166 1.675 3.886
4.403 1.959 4.004
4.194 2.002 3.694
4.112 2.252 3.590
0.632 0.883 2.295
0.430 0.916 2.198
0.763 0.719 2.766
0.839 0.636 2.406
0.682 0.991 2.471
0.834 1.160 2.310
0.680 1.437 1.946
0.972 1.644 2.063
1.069 0.631 2.643
1.056 0.953 2.536
1.059 1.041 2.414
1.042 1.133 2.468
0.997 1.326 2.221
0.925 1.683 2.007
1.173 0.762 3.027
1.261 0.722 2.753
1.092 0.926 2.509
1.227 1.221 2.452
1.255 1.432 2.182
1.291 1.459 2.048
1.330 0.780 2.867
1.422 1.120 2.520
1.347 1.392 2.371
1.400 1.460 2.287
1.629 1.486 2.305
1.708 1.362 2.408
1.681 1.775 2.181
3.467 1.120 3.795
3.495 1.347 3.439
3.476 0.792 4.014
3.649 0.944 3.960
3.644 1.278 3.758
3.511 1.385 3.657
3.522 1.534 3.351
3.651 1.832 3.243
3.814 0.753 4.255
3.973 1.059 4.066
3.935 1.262 3.886
3.802 1.456 3.731
3.926 1.585 3.770
3.792 1.782 3.458
4.062 1.984 3.274
4.198 0.774 4.520
4.041 0.826 4.089
3.970 1.166 4.091
4.053 1.198 3.957
4.244 1.671 3.823
4.265 1.742 3.670
4.269 1.987 3.587
4.145 0.741 4.614
4.329 0.835 4.359
4.449 0.993 4.243
4.251 1.121 4.187
4.173 1.419 3.974
4.379 1.456 3.952
4.472 1.678 3.585
4.322 0.556 4.706
4.455 0.661 4.680
4.586 1.049 4.711
4.631 1.183 4.367
4.514 1.408 4.156
4.810 0.143 5.445
4.756 0.072 5.111
4.713 0.302 5.042
4.700 0.561 5.086
0.542 0.706 2.249
0.611 0.771 1.937
0.672 1.022 1.841
0.553 1.445 1.685
0.722 0.553 2.353
0.827 0.678 2.229
1.027 0.929 2.199
0.914 1.195 1.762
0.884 1.404 1.792
1.193 0.709 2.338
1.040 0.965 2.202
1.128 1.111 2.109
1.200 1.215 1.948
1.288 1.280 1.977
1.472 0.751 2.648
1.303 1.033 2.355
1.398 0.979 2.341
1.303 1.394 2.012
1.332 1.346 1.905
1.593 0.804 2.477
1.562 1.097 2.422
1.444 1.282 2.159
1.741 1.354 1.937
1.708 1.327 2.368
1.889 1.694 1.934
3.625 0.752 3.821
3.402 0.868 3.578
3.542 0.929 3.673
3.692 1.320 3.386
3.758 0.499 4.110
3.743 0.820 3.878
3.649 0.755 3.862
3.732 1.113 3.553
3.623 1.138 3.373
3.843 1.477 3.356
3.914 0.560 4.206
4.085 0.462 4.059
3.889 0.724 3.997
3.875 0.857 3.757
3.912 1.310 3.630
4.021 1.321 3.458
4.128 1.634 3.274
4.280 0.175 4.372
4.240 0.369 4.385
4.017 0.563 4.314
4.276 0.990 3.923
4.233 1.087 3.944
4.062 1.198 3.649
4.206 1.541 3.438
4.183 1.516 3.389
4.432 0.125 4.734
4.337 0.335 4.460
4.440 0.427 4.368
4.293 0.695 4.207
4.383 1.006 4.267
4.341 0.940 4.056
4.360 1.170 3.979
4.309 1.468 3.663
4.436 0.079 5.153
4.576 0.278 4.917
4.678 0.465 4.638
4.737 0.726 4.597
4.472 0.843 4.433
4.695 0.994 4.219
4.745 1.166 4.091
4.618 0.148 5.148
4.658 0.328 4.766
4.841 0.491 4.776
4.638 0.751 4.606
4.929 0.934 4.583
0.414 0.962 1.735
0.906 0.646 1.866
0.854 0.789 1.678
0.871 0.804 1.598
0.768 1.239 1.620
1.003 0.809 1.915
1.141 0.938 1.831
0.964 1.145 1.868
1.147 1.193 1.569
1.367 0.807 2.084
1.178 1.001 1.854
1.332 0.935 1.859
1.215 1.326 1.638
1.321 0.682 2.284
1.549 0.968 2.187
1.599 1.136 2.028
1.443 1.448 1.624
1.562 1.059 2.199
1.804 1.067 2.018
1.560 1.357 1.918
1.931 1.252 2.191
2.010 1.415 2.047
3.384 0.552 3.336
3.420 0.264 3.672
3.620 0.629 3.728
3.660 0.862 3.513
3.635 1.024 3.213
3.739 1.195 3.261
3.881 0.380 4.150
3.903 0.253 4.005
3.693 0.439 3.695
3.924 0.732 3.556
3.832 1.029 3.311
3.984 1.153 3.182
3.937 0.374 4.029
4.164 0.447 3.933
4.085 0.702 3.730
4.208 0.921 3.595
4.015 0.923 3.448
3.946 1.328 3.253
4.240 0.193 4.220
4.297 0.168 4.356
4.207 0.585 4.062
4.116 0.548 4.025
4.135 1.023 3.577
4.350 1.149 3.651
4.452 1.384 3.474
4.404 0.037 4.545
4.338 0.266 4.602
4.494 0.279 4.413
4.318 0.429 3.974
4.578 0.628 3.966
4.438 1.008 3.714
4.639 1.229 3.639
4.698 0.048 4.549
4.600 0.248 4.394
4.527 0.314 4.282
4.671 0.736 4.321
4.633 0.898 4.058
4.608 0.934 3.759
4.955 -0.028 4.714
4.818 0.298 4.700
4.977 0.520 4.311
4.827 0.507 4.153
0.718 0.910 1.574
0.763 0.510 1.660
0.604 0.623 1.369
0.644 0.829 1.420
0.702 0.330 1.719
0.955 0.490 1.666
0.761 0.746 1.541
1.001 1.136 1.355
1.110 0.407 2.026
1.198 0.558 1.771
1.245 0.919 1.515
0.970 0.958 1.542
1.339 0.409 1.859
1.418 0.666 1.893
1.214 0.958 1.610
1.457 1.002 1.534
1.510 0.816 1.966
1.454 0.960 1.825
1.448 1.049 1.431
1.809 1.079 1.675
1.919 1.121 1.536
1.869 1.223 1.746
3.296 0.158 3.657
3.314 0.366 3.385
3.433 0.616 3.393
3.422 0.751 3.219
3.730 0.115 3.707
3.766 0.493 3.597
3.815 0.425 3.331
3.764 0.739 3.106
3.879 1.042 2.927
3.843 0.232 3.956
4.034 0.135 3.720
3.984 0.391 3.668
3.847 0.495 3.348
3.785 0.850 3.318
3.828 1.126 3.243
4.076 0.262 3.828
4.271 0.463 3.646
4.134 0.536 3.735
4.076 0.624 3.475
4.175 0.930 3.337
4.172 1.067 3.316
4.320 0.215 4.092
4.294 0.213 3.814
4.406 0.510 3.722
4.436 0.715 3.674
4.248 0.828 3.491
4.386 -0.037 4.210
4.524 0.280 4.249
4.678 0.542 4.059
4.652 0.603 3.905
4.581 0.830 3.583
4.627 0.076 4.394
4.807 0.331 4.265
4.622 0.303 4.092
4.760 0.537 3.864
4.902 0.034 4.283
5.010 0.226 4.433
4.912 0.559 4.041
0.508 0.700 1.537
0.624 0.841 1.354
0.724 0.827 1.291
0.677 0.468 1.380
0.648 0.688 1.176
0.867 0.900 1.020
1.067 0.560 1.383
1.084 0.674 1.206
0.921 0.841 1.317
1.187 0.640 1.460
1.081 0.813 1.529
1.325 0.849 1.348
1.265 0.481 1.670
1.261 0.712 1.378
1.584 1.075 1.317
1.585 0.898 1.471
1.812 1.086 1.283
1.757 1.160 1.496
3.208 0.006 3.103
3.314 0.246 3.122
3.401 -0.129 3.368
3.627 0.129 3.190
3.710 0.288 3.179
3.537 0.437 3.025
3.806 -0.089 3.507
3.647 0.374 3.239
3.834 0.498 3.297
3.960 0.738 3.144
3.864 -0.047 3.403
4.027 0.191 3.352
4.130 0.320 3.255
3.879 0.749 3.177
4.179 0.298 3.624
4.082 0.220 3.493
4.387 0.644 3.423
4.282 0.645 3.192
4.271 0.150 3.737
4.388 0.226 3.574
4.556 0.455 3.711
4.433 0.641 3.367
4.700 -0.026 4.115
4.813 0.136 3.954
4.705 0.522 3.553
4.788 0.271 4.153
4.975 0.406 3.824
4.937 0.021 4.014
0.621 0.432 1.084
0.682 0.616 0.936
0.703 0.293 1.363
0.737 0.760 1.360
0.697 0.864 1.200
0.828 0.207 1.290
0.712 0.564 1.151
0.750 0.805 1.004
1.106 0.454 1.275
1.105 0.598 1.174
0.929 0.630 0.923
1.350 0.502 1.536
1.320 0.655 1.102
1.277 0.809 1.053
1.379 0.606 1.268
1.607 0.736 1.336
1.881 0.932 1.149
3.106 0.206 2.833
3.541 0.314 2.736
3.518 0.393 2.738
3.527 0.097 3.184
3.659 0.315 2.864
3.532 0.367 2.734
3.758 0.205 3.236
3.941 0.442 3.029
3.912 0.323 2.881
4.235 0.128 3.328
4.012 0.490 3.091
4.036 0.361 2.962
4.405 0.116 3.338
4.436 0.233 3.395
4.468 0.300 3.279
4.688 0.111 3.563
4.579 0.285 3.482
0.393 0.465 0.841
0.425 0.612 0.861
0.590 0.354 1.055
0.543 0.342 0.860
0.551 0.644 0.987
0.959 0.206 1.093
0.979 0.452 1.148
0.974 0.708 0.794
1.044 0.083 1.076
0.977 0.219 1.011
1.060 0.371 0.845
1.263 0.295 1.121
1.041 0.228 0.897
1.305 0.658 0.960
1.291 0.448 1.013
1.349 0.470 0.813
3.191 0.044 2.445
3.624 0.082 2.652
3.704 0.241 2.522
3.825 -0.064 2.661
3.719 0.105 2.622
3.936 -0.033 2.933
4.097 0.475 2.544
4.295 0.310 2.749
0.068 0.462 0.526
0.345 0.118 0.793
0.394 0.386 0.543
0.328 0.050 0.935
0.385 0.244 0.712
0.361 0.373 0.608
0.731 0.205 1.088
0.800 0.263 0.946
0.796 0.299 0.837
1.054 0.189 1.005
1.003 0.383 0.991
0.813 0.578 0.624
1.098 0.034 0.858
1.176 0.198 0.546
1.184 0.156 0.955
1.316 0.506 0.726
3.281 0.142 2.179
3.500 -0.098 2.248
3.952 0.026 2.277
0.182 0.252 0.123
0.294 0.043 0.470
0.377 0.308 0.482
0.521 0.132 0.621
0.681 0.391 0.294
0.825 -0.016 0.702
0.721 0.439 0.678
0.892 0.269 0.840
1.110 0.455 0.755
0.543 3.478 6.148
0.872 3.964 6.059
0.932 3.867 6.296
0.329 3.046 6.248
0.311 3.040 6.119
0.522 3.190 6.060
0.424 3.485 5.950
0.536 3.391 6.327
0.731 3.348 6.251
0.546 3.651 5.981
0.783 3.543 6.352
0.808 3.720 6.095
1.105 3.665 6.120
1.005 3.667 6.041
1.225 3.702 6.073
3.291 4.891 6.378
0.080 2.470 6.262
0.413 2.681 6.375
0.359 2.870 6.018
0.369 3.098 6.092
0.546 2.793 6.115
0.539 3.183 5.967
0.587 3.087 5.869
0.463 3.268 5.668
0.815 2.780 6.277
0.687 3.048 5.969
0.855 3.272 5.908
0.758 3.346 5.821
0.715 3.764 5.589
0.950 3.102 6.319
1.161 3.430 6.063
1.115 3.630 5.964
1.162 3.733 5.679
1.385 3.262 6.208
1.301 3.437 6.093
1.277 3.694 6.106
1.198 3.858 5.898
1.539 3.517 6.218
1.560 3.677 5.954
3.239 4.528 6.086
3.311 4.715 5.943
0.506 2.276 6.220
0.310 2.510 6.173
0.524 2.548 5.847
0.476 2.753 5.861
0.572 2.373 6.093
0.520 2.801 6.085
0.629 2.861 5.948
0.560 3.162 5.819
0.563 3.145 5.481
0.743 3.551 5.254
0.738 2.740 6.305
0.868 2.614 6.177
0.797 3.011 6.043
0.982 3.072 5.795
0.820 3.286 5.506
1.035 3.446 5.594
1.000 3.649 5.228
1.164 2.950 6.026
1.097 3.080 6.032
1.162 3.072 5.760
1.254 3.273 5.849
1.262 3.614 5.626
1.294 3.717 5.524
1.395 2.737 6.300
1.276 2.968 6.090
1.373 3.371 6.079
1.259 3.398 5.657
1.473 3.724 5.565
1.427 3.757 5.600
1.554 3.364 6.165
1.616 3.323 5.863
3.444 4.377 5.958
3.448 4.798 5.764
0.620 2.631 5.655
0.908 2.856 5.606
0.928 3.235 5.501
0.790 3.438 5.218
0.948 3.649 5.158
0.911 3.683 5.041
1.030 2.471 5.862
1.114 2.746 5.782
1.049 2.842 5.532
1.049 3.186 5.416
1.025 3.303 5.297
0.949 3.559 5.176
0.960 3.867 5.059
1.110 3.897 4.855
1.339 2.694 5.920
1.302 3.203 5.562
1.314 3.076 5.517
1.321 3.521 5.515
1.361 3.551 5.182
1.269 3.686 5.168
1.558 2.835 5.766
1.318 3.130 5.689
1.366 3.142 5.553
1.494 3.303 5.509
1.583 3.794 5.426
1.420 3.878 5.191
1.698 3.217 5.694
1.591 3.468 5.623
0.106 4.680 3.498
0.140 4.863 3.445
-0.065 5.237 3.281
0.146 5.452 3.088
0.026 5.615 3.025
0.209 5.650 2.595
0.198 5.737 2.629
0.265 6.158 2.426
0.255 4.835 3.263
0.371 5.035 3.317
0.388 5.347 3.112
0.336 5.512 2.833
0.197 5.591 2.718
0.397 5.877 2.645
2.386 5.990 3.896
2.214 5.904 3.737
2.328 5.391 4.246
2.510 5.829 4.139
2.624 6.049 3.764
2.508 6.217 3.612
2.595 6.308 3.565
2.571 5.463 4.356
2.607 5.616 4.037
2.768 5.977 3.913
2.691 6.091 3.819
2.855 5.380 4.489
2.779 5.615 4.235
2.939 5.812 4.217
3.047 5.910 4.158
2.917 6.213 3.837
3.297 5.830 4.463
3.201 5.959 4.186
3.030 6.016 4.203
3.247 6.251 4.167
0.145 4.381 3.450
0.251 4.771 3.410
0.042 4.691 3.065
0.043 5.100 2.987
0.026 5.195 2.926
0.137 5.296 2.676
0.236 5.453 2.563
0.394 4.270 3.840
0.291 4.572 3.644
0.269 4.556 3.337
0.458 4.713 3.315
0.341 5.019 3.252
0.456 5.337 2.971
0.298 5.288 2.716
0.537 4.263 4.069
0.416 4.270 3.697
0.448 4.636 3.549
0.482 4.780 3.486
0.709 4.893 3.352
0.504 4.059 3.856
0.759 4.162 4.021
0.643 3.884 4.240
0.689 3.939 4.337
0.791 4.094 4.052
1.045 3.900 4.505
0.798 4.121 4.427
1.304 4.050 4.482
1.413 4.051 4.749
2.453 5.768 3.554
2.463 6.009 3.509
2.720 5.577 3.763
2.633 5.686 3.647
2.724 5.782 3.724
2.778 5.974 3.505
2.664 5.669 3.856
2.975 5.664 3.855
2.936 6.059 3.634
2.806 6.234 3.550
2.906 5.826 4.072
2.973 5.840 4.075
3.145 6.077 3.825
2.920 6.336 3.767
3.137 5.927 4.103
3.198 6.138 3.917
3.143 6.175 3.755
-0.104 4.751 2.753
-0.109 5.037 2.631
0.092 4.996 2.457
0.208 3.919 3.473
0.268 4.211 3.566
0.155 4.331 3.329
0.264 4.321 3.187
0.157 4.634 2.867
0.228 4.762 2.815
0.170 5.116 2.645
0.316 5.191 2.679
0.132 3.825 3.793
0.489 4.051 3.693
0.270 4.307 3.489
0.268 4.313 3.494
0.440 4.476 3.346
0.321 4.817 3.077
0.546 4.776 2.831
0.456 4.979 2.839
0.515 3.633 4.007
0.520 3.979 3.628
0.690 4.011 3.902
0.575 4.355 3.585
0.607 4.340 3.341
0.584 4.510 3.315
0.518 4.816 3.255
0.560 3.608 4.108
0.577 3.967 3.976
0.449 3.995 3.678
0.930 4.118 3.868
0.938 4.356 3.825
0.852 4.524 3.700
0.900 3.688 4.032
0.871 3.868 4.162
0.697 4.206 3.768
1.010 4.153 3.812
1.041 4.397 3.659
0.992 3.657 4.210
1.170 3.973 4.146
1.031 4.044 4.064
1.155 4.041 4.099
1.240 3.709 4.493
1.183 3.965 4.318
1.416 4.242 4.088
1.448 4.000 4.482
1.403 4.107 4.141
1.661 3.842 4.376
2.451 5.714 3.349
2.494 6.037 3.086
2.527 6.261 3.010
2.517 6.330 2.822
2.609 5.518 3.680
2.569 5.648 3.327
2.602 6.112 3.308
2.842 6.005 3.201
2.954 5.805 3.668
2.920 5.736 3.349
2.982 6.051 3.500
2.858 6.087 3.289
3.201 5.595 3.610
3.014 5.859 3.572
3.044 6.080 3.289
3.050 6.322 3.327
3.480 6.088 3.721
3.278 6.035 3.633
0.118 3.782 3.359
-0.065 4.230 2.942
0.226 4.288 2.764
0.036 4.550 2.711
0.098 4.677 2.760
0.041 4.929 2.340
0.261 3.733 3.540
0.409 4.044 3.361
0.322 3.995 3.212
0.411 4.455 2.890
0.391 4.411 2.836
0.404 4.828 2.780
0.454 4.965 2.572
0.130 3.713 3.408
0.542 3.842 3.422
0.583 4.159 3.422
0.458 4.176 3.238
0.424 4.392 2.926
0.614 4.694 2.840
0.664 4.594 2.830
0.556 3.475 3.731
0.455 3.677 3.594
0.569 3.926 3.464
0.796 3.947 3.487
0.698 4.208 3.203
0.780 4.473 3.302
0.633 4.689 2.991
0.571 3.572 3.798
0.672 3.827 3.918
0.759 3.906 3.533
0.884 3.882 3.569
0.796 4.220 3.513
1.095 4.446 3.354
0.830 3.606 4.045
1.011 3.775 4.016
0.949 3.853 3.712
1.000 3.990 3.770
1.034 4.256 3.745
1.159 3.567 4.068
1.183 3.883 4.030
1.172 4.048 3.830
1.347 3.977 3.946
1.461 3.589 4.242
1.356 3.886 4.090
1.505 3.866 3.898
1.656 3.826 4.160
1.461 3.754 4.090
1.630 3.817 4.296
1.844 3.820 4.326
2.045 3.685 4.526
2.440 5.955 2.936
2.626 5.440 3.228
2.563 5.842 2.922
2.672 5.830 2.720
2.767 5.990 2.630
2.836 5.658 3.230
2.778 5.756 3.252
2.850 5.910 2.842
2.834 6.166 2.846
3.130 5.554 3.354
2.896 5.725 3.124
3.137 5.977 2.902
3.063 6.201 2.833
3.308 5.679 3.428
3.209 5.795 3.183
3.363 6.016 3.139
3.326 6.113 3.407
3.611 6.162 3.192
3.698 6.068 3.250
0.289 3.502 3.188
0.090 3.736 3.029
0.008 3.806 3.040
0.195 4.115 2.825
0.076 4.379 2.636
0.060 4.343 2.345
0.181 4.530 2.368
0.163 3.727 3.243
0.288 3.557 3.408
0.396 3.897 3.148
0.451 4.046 2.986
0.514 4.214 2.763
0.345 4.514 2.586
0.517 4.522 2.614
0.217 3.775 3.176
0.650 3.621 3.218
0.645 3.845 3.305
0.470 3.990 3.053
0.705 4.363 2.851
0.697 4.379 2.669
0.655 3.515 3.451
0.640 3.832 3.468
0.740 3.828 3.299
0.696 3.991 3.459
0.911 4.151 3.131
0.873 4.189 2.947
0.901 3.462 3.718
0.831 3.683 3.593
0.831 3.708 3.390
1.056 3.931 3.689
1.163 4.122 3.477
0.920 3.980 3.374
1.078 3.246 3.888
1.103 3.688 3.552
0.911 3.867 3.513
1.332 3.958 3.657
1.319 4.055 3.625
1.244 3.491 3.874
1.092 3.578 3.844
1.223 3.748 3.586
1.400 4.041 3.837
1.501 3.396 4.033
1.549 3.684 3.774
1.602 3.993 3.544
1.793 4.054 3.747
1.753 3.688 4.142
1.633 3.717 3.862
1.536 3.843 3.656
1.833 3.706 4.085
1.935 3.686 4.134
2.117 3.814 4.331
2.295 5.456 2.740
2.519 5.800 2.558
2.477 5.931 2.328
2.376 6.061 2.163
2.279 3.555 4.244
2.764 5.409 2.987
2.731 5.602 2.932
2.642 5.714 2.557
2.821 6.015 2.463
2.830 6.044 2.502
3.049 5.475 3.021
2.812 5.622 3.026
3.026 5.705 2.717
2.853 6.092 2.593
2.806 6.250 2.604
3.190 5.436 3.313
3.273 5.835 2.941
3.028 5.898 2.794
3.193 6.144 2.621
3.260 6.291 2.719
3.281 5.853 3.249
3.322 5.957 2.956
3.497 6.119 2.825
3.451 5.955 2.956
3.489 6.321 2.943
3.663 6.402 3.104
-0.006 3.460 2.687
-0.121 3.620 2.727
0.164 3.788 2.456
-0.071 4.014 2.281
0.047 4.323 2.104
0.385 3.535 2.999
0.377 3.692 2.668
0.170 4.122 2.495
0.373 4.077 2.381
0.419 4.264 2.297
0.547 3.547 3.258
0.501 3.513 2.873
0.407 3.956 2.960
0.442 4.106 2.705
0.575 4.264 2.564
0.588 3.624 2.968
0.784 3.576 3.258
0.558 3.845 3.060
0.575 3.734 3.017
0.688 3.972 2.887
0.706 3.670 3.308
0.755 3.485 3.441
0.848 3.834 3.201
1.082 3.950 2.920
0.752 3.291 3.572
0.818 3.669 3.203
1.131 3.751 3.424
1.223 3.959 3.132
0.961 3.365 3.552
1.122 3.312 3.677
1.104 3.620 3.238
1.327 3.772 3.525
1.434 3.466 3.713
1.372 3.387 3.578
1.259 3.559 3.507
1.532 3.573 3.527
1.676 3.469 3.683
1.645 3.692 3.708
1.643 3.622 3.419
1.717 3.566 3.879
1.828 3.644 3.800
1.945 3.503 4.090
2.045 3.679 3.780
2.447 5.639 2.435
2.496 5.899 2.155
2.437 5.839 2.130
2.202 3.615 4.011
2.276 3.546 3.947
2.697 5.360 2.615
2.413 5.599 2.596
2.687 5.799 2.185
2.491 6.115 2.151
2.260 3.721 4.230
2.708 5.560 2.652
2.915 5.789 2.588
2.830 5.727 2.342
2.860 5.888 2.175
2.825 6.374 2.067
2.558 3.781 4.353
2.953 5.392 2.898
2.921 5.618 2.509
3.151 5.744 2.621
2.887 5.943 2.214
3.006 6.428 2.047
3.336 5.669 2.757
3.191 5.745 2.760
3.209 5.871 2.383
3.368 6.094 2.239
3.419 5.846 2.648
3.431 5.912 2.756
3.489 6.064 2.566
3.736 6.199 2.813
3.693 6.350 2.656
-0.053 5.805 0.413
-0.045 6.052 0.220
0.180 3.442 2.609
0.107 3.440 2.355
0.183 3.883 2.196
0.100 3.942 2.103
0.292 4.222 1.911
0.155 6.043 0.434
0.310 6.273 0.204
0.468 3.529 2.651
0.327 3.753 2.698
0.252 3.864 2.554
0.428 4.172 2.168
0.615 3.352 2.863
0.686 3.691 2.735
0.499 3.764 2.378
1.592 3.221 3.767
1.750 3.496 3.544
1.904 3.409 3.787
2.010 3.542 3.548
2.301 5.243 1.983
2.261 5.619 2.034
2.292 5.878 1.953
2.025 3.484 3.763
2.086 3.541 3.799
2.532 5.376 2.392
2.411 5.549 2.055
2.327 5.559 2.213
2.408 5.705 1.887
2.171 3.448 4.000
2.342 3.455 3.883
2.769 5.256 2.557
2.807 5.472 2.195
2.615 5.548 1.974
2.554 5.685 2.052
2.847 5.986 1.924
2.448 3.330 3.979
2.466 3.534 3.848
2.970 5.179 2.415
2.821 5.514 2.250
2.864 5.853 2.307
2.749 5.730 2.172
2.763 6.147 1.944
2.736 3.386 4.230
3.239 5.476 2.498
3.074 5.633 2.497
3.216 5.722 2.266
3.088 5.907 2.153
3.253 6.037 1.910
2.835 3.412 4.051
3.481 5.492 2.653
3.179 5.881 2.516
3.451 5.845 2.295
3.334 6.218 1.925
3.499 5.858 2.461
3.723 5.947 2.203
3.608 6.186 2.081
-0.006 3.246 2.270
0.015 3.717 2.005
0.139 3.880 1.999
0.140 4.107 1.801
0.169 5.565 0.387
0.297 5.806 0.140
0.166 6.113 0.082
0.364 3.409 2.443
0.305 3.499 2.330
0.224 3.949 2.052
0.494 5.509 0.504
0.383 5.901 0.144
0.428 5.869 0.280
0.479 5.782 0.407
0.749 5.851 0.333
0.612 6.059 0.357
0.675 6.281 0.204
0.972 5.915 0.491
0.807 5.879 0.460
0.781 6.003 0.291
1.983 5.194 1.589
1.972 5.603 1.382
1.936 5.761 1.436
2.245 5.009 1.785
2.141 5.322 1.608
2.153 5.544 1.640
2.185 5.846 1.412
2.403 5.136 2.256
2.326 5.285 1.980
2.356 5.319 1.935
2.433 5.590 1.691
2.370 5.695 1.417
2.163 3.280 3.638
2.653 5.013 2.250
2.574 5.192 2.122
2.526 5.404 1.831
2.656 5.536 1.862
2.608 5.672 1.691
2.351 3.257 3.790
2.766 5.033 2.174
2.773 5.207 1.971
2.859 5.393 2.106
2.899 5.562 1.809
2.837 5.716 1.632
2.568 3.205 3.996
2.751 3.420 3.603
2.916 5.334 2.521
3.042 5.428 2.110
2.950 5.567 2.182
2.843 5.821 1.931
2.878 3.471 3.951
2.686 3.506 3.764
3.218 5.283 2.196
3.282 5.747 2.176
3.215 5.941 1.880
3.218 3.382 3.958
2.961 3.591 3.969
3.257 3.302 4.021
3.365 3.522 3.994
3.498 3.442 4.042
3.436 3.603 4.149
0.188 3.353 2.030
0.165 3.331 2.068
0.284 3.502 1.842
0.156 5.595 0.330
0.249 5.701 0.081
0.624 5.371 0.437
0.543 5.859 -0.012
0.673 5.517 0.381
0.684 5.715 0.127
0.606 5.799 -0.076
0.951 5.378 0.693
0.884 5.681 0.502
1.072 5.882 0.445
0.986 6.050 0.300
1.134 5.510 0.649
1.201 5.580 0.383
1.110 5.745 0.481
1.032 5.980 0.365
1.294 5.455 0.788
1.381 5.536 0.873
1.387 5.804 0.704
1.237 5.951 0.386
1.532 5.361 1.235
1.665 5.274 1.011
1.514 5.535 0.766
1.585 5.659 0.862
1.749 5.184 1.508
1.888 5.136 1.082
1.775 5.438 1.096
1.888 5.688 0.773
1.871 4.880 1.475
1.955 5.039 1.330
2.003 5.466 1.445
1.976 5.389 1.029
1.930 5.613 0.949
2.314 4.763 1.855
2.146 4.991 1.700
2.132 5.328 1.408
2.206 5.436 1.270
2.122 5.618 1.120
2.525 4.884 1.862
2.532 5.099 1.669
2.354 5.402 1.704
2.412 5.378 1.525
2.292 5.478 1.393
2.758 4.983 2.154
2.673 4.958 1.997
2.790 5.204 1.760
2.591 5.481 1.658
2.648 5.522 1.556
2.451 3.154 3.613
2.727 4.900 2.014
2.713 5.313 1.893
2.967 5.252 1.952
2.955 5.603 1.665
2.700 3.189 3.561
2.919 5.316 2.118
2.944 5.557 1.965
3.075 5.510 1.685
2.971 3.145 3.774
2.849 3.495 3.525
2.998 3.188 3.803
3.043 3.277 3.575
3.309 3.191 3.817
3.473 3.327 3.681
3.781 3.692 3.595
3.663 3.310 3.920
3.755 3.449 3.832
3.769 3.577 3.743
4.000 3.625 3.655
3.744 3.248 4.034
3.971 3.520 3.822
3.954 3.735 3.751
4.050 3.832 3.706
3.964 4.067 3.718
4.156 3.529 4.221
3.956 3.484 3.996
4.216 3.773 3.809
4.321 3.816 4.010
4.308 4.031 3.793
4.220 4.181 3.606
4.151 3.700 4.077
4.373 3.857 3.912
0.057 3.326 1.564
-0.077 3.654 1.312
0.659 5.463 0.183
0.766 5.178 0.453
0.788 5.352 0.246
0.660 5.452 0.071
1.007 5.191 0.321
1.162 5.532 0.437
1.159 5.690 0.253
1.270 5.160 0.651
1.279 5.399 0.425
1.223 5.400 0.427
1.337 5.563 0.298
1.374 5.920 0.190
1.435 4.884 1.057
1.598 5.066 0.894
1.329 5.274 0.487
1.529 5.496 0.361
1.401 5.657 0.285
1.582 5.999 0.131
1.591 4.832 0.997
1.572 5.175 1.029
1.807 5.140 0.828
1.598 5.567 0.802
1.769 5.606 0.687
1.666 5.855 0.319
1.912 4.798 1.408
1.918 5.032 1.153
1.778 5.235 1.204
2.001 5.170 1.087
1.729 5.555 0.744
1.746 5.817 0.655
2.044 4.705 1.491
2.149 4.870 1.477
2.137 4.942 1.314
1.996 5.304 1.172
2.201 5.200 1.090
2.203 5.454 0.717
2.258 4.474 1.987
2.371 4.781 1.655
2.431 4.914 1.532
2.131 4.906 1.397
2.319 5.335 1.127
2.200 5.287 1.016
2.327 5.747 0.903
2.540 4.470 1.812
2.537 4.879 1.871
2.655 4.864 1.572
2.614 5.144 1.462
2.642 5.320 1.175
2.539 5.503 1.180
2.666 4.737 2.102
2.601 4.814 1.821
2.651 5.128 1.601
2.891 5.001 1.588
2.828 5.477 1.401
2.916 4.915 2.000
2.814 5.081 1.654
3.112 5.063 1.517
3.098 5.519 1.554
2.692 3.022 3.486
2.910 3.133 3.595
3.405 3.182 3.523
3.108 3.169 3.586
3.396 3.494 3.382
3.339 3.063 3.840
3.485 3.170 3.639
3.343 3.417 3.366
3.779 3.718 3.467
3.600 3.189 3.846
3.556 3.321 3.736
3.857 3.700 3.664
3.900 3.772 3.448
4.009 3.661 3.296
3.753 3.121 4.031
3.932 3.323 3.750
4.037 3.703 3.651
4.060 3.789 3.513
4.064 3.722 3.608
4.159 3.892 3.229
4.138 3.431 4.000
4.269 3.517 3.669
4.225 3.551 3.556
4.547 3.685 3.903
4.465 3.899 3.726
4.337 4.022 3.310
4.331 4.124 3.431
4.470 3.308 4.152
4.265 3.569 4.036
4.221 3.856 3.662
-0.009 3.447 1.672
0.064 3.658 1.295
0.232 3.365 1.444
0.793 5.290 0.043
1.094 5.278 0.404
1.058 5.166 0.054
1.189 5.139 0.546
1.389 5.205 0.322
1.476 5.426 0.276
1.353 5.609 0.022
1.599 4.918 0.805
1.623 5.015 0.485
1.514 5.295 0.362
1.437 5.341 0.357
1.693 5.763 0.225
1.846 4.495 1.289
1.858 4.615 0.954
1.739 5.076 0.864
1.800 4.982 0.587
1.832 5.280 0.516
1.760 5.383 0.425
1.844 5.592 0.201
1.778 4.316 1.331
2.069 4.493 1.078
2.100 4.915 1.216
1.867 5.071 0.820
2.065 5.028 0.857
2.006 5.272 0.444
2.146 5.599 0.512
2.253 4.344 1.624
2.302 4.419 1.489
2.209 4.585 1.293
2.171 4.689 1.094
2.284 4.869 0.921
2.090 5.174 0.923
2.299 5.260 0.660
2.514 4.414 1.843
2.249 4.370 1.477
2.444 4.726 1.434
2.245 4.922 1.379
2.507 5.099 1.218
2.524 5.429 0.778
2.543 4.331 1.821
2.704 4.535 1.545
2.641 4.905 1.569
2.699 4.915 1.344
2.606 4.977 1.189
2.747 5.435 1.000
2.780 4.613 1.897
2.705 4.526 1.633
2.764 4.678 1.561
2.978 5.104 1.467
2.880 5.296 1.147
3.104 4.958 1.651
3.261 2.895 3.358
3.323 3.095 3.539
3.496 3.185 3.265
3.602 3.125 3.412
3.444 3.288 3.408
3.917 3.429 3.459
3.801 2.941 3.813
3.955 3.214 3.400
3.682 3.513 3.387
3.986 3.436 3.389
4.032 3.600 3.294
4.026 3.225 3.721
4.035 3.274 3.513
4.084 3.579 3.414
4.191 3.637 3.471
4.215 3.868 3.409
4.219 3.950 3.074
4.351 3.033 3.655
4.217 3.416 3.679
4.165 3.451 3.391
4.458 3.609 3.542
4.334 3.708 3.271
4.515 3.810 3.253
4.645 4.097 3.137
4.573 4.304 2.955
4.380 3.342 3.811
4.374 3.352 3.721
4.590 3.464 3.684
-0.041 3.377 1.364
1.207 5.143 0.231
1.455 4.818 0.464
1.490 5.026 0.241
1.510 5.161 0.163
1.469 4.650 0.650
1.604 5.027 0.291
1.606 5.107 0.158
1.605 5.357 0.009
1.863 4.543 0.872
1.942 4.624 0.870
1.750 4.689 0.758
1.707 5.100 0.553
1.791 5.221 0.251
1.918 5.297 0.126
1.849 5.449 0.195
2.034 4.185 1.462
2.059 4.368 1.236
1.923 4.428 0.987
1.979 4.795 0.798
2.095 4.745 0.787
2.220 5.094 0.731
2.230 5.324 0.502
2.001 5.509 0.323
2.317 4.005 1.589
2.383 4.234 1.307
2.113 4.388 1.294
2.277 4.588 1.053
2.319 4.758 0.836
2.163 4.976 0.968
2.142 5.023 0.651
2.406 5.389 0.381
2.446 4.127 1.569
2.534 4.128 1.667
2.410 4.470 1.289
2.485 4.654 1.191
2.444 4.691 1.017
2.417 4.868 0.768
2.372 4.970 0.682
2.695 4.222 1.731
2.833 4.342 1.527
2.684 4.561 1.366
2.734 4.692 1.392
2.657 4.896 1.074
2.845 5.138 1.070
2.961 4.308 1.853
2.936 4.645 1.462
2.850 4.516 1.440
3.016 4.760 1.161
3.318 2.837 3.205
3.719 2.866 3.256
3.703 3.045 3.269
3.749 3.406 3.340
3.726 3.027 3.619
3.839 3.216 3.170
3.800 3.215 3.216
4.067 3.459 3.101
4.207 3.640 3.211
4.171 2.904 3.588
3.982 3.297 3.552
4.116 3.171 3.412
4.404 3.257 3.375
4.428 3.529 3.270
4.271 3.618 2.879
4.203 3.081 3.569
4.225 3.050 3.544
4.389 3.326 3.349
4.685 3.266 3.492
4.528 3.588 3.258
4.732 3.643 2.976
4.492 3.869 2.827
4.745 4.310 2.676
4.384 3.087 3.757
4.451 3.378 3.672
4.589 3.497 3.410
1.781 5.106 -0.019
1.890 4.224 0.865
1.820 4.479 0.744
2.073 4.660 0.618
1.988 4.667 0.375
1.806 5.059 0.241
2.029 3.753 1.322
2.069 3.923 1.337
2.073 4.034 0.970
2.232 4.354 1.051
1.978 4.419 0.614
2.078 4.614 0.454
2.181 4.889 0.564
2.290 3.550 1.646
2.347 3.946 1.581
2.285 4.039 1.323
2.181 4.329 1.044
2.247 4.332 0.879
2.369 4.463 0.835
2.342 4.854 0.556
2.627 3.581 1.773
2.430 3.791 1.386
2.454 3.900 1.505
2.702 4.176 1.106
2.480 4.457 0.999
2.549 4.509 0.785
2.729 4.869 0.839
2.684 3.586 1.891
2.633 3.841 1.569
2.929 4.069 1.564
2.901 4.150 1.307
2.931 4.486 1.035
2.902 4.525 0.953
3.058 4.042 1.513
3.017 4.311 1.412
3.862 2.625 3.236
4.016 2.837 3.444
4.174 2.884 3.349
4.110 2.851 3.351
4.478 3.372 3.049
4.566 2.973 3.541
4.486 3.171 3.203
4.371 3.266 3.235
4.614 3.437 3.364
4.645 3.551 3.139
4.824 3.608 2.782
4.640 3.757 2.809
4.612 4.167 2.731
4.535 3.167 3.143
0.223 3.082 0.870
0.132 3.268 0.620
2.174 3.381 1.441
2.143 3.494 1.472
2.290 3.552 1.113
2.101 3.818 1.050
2.197 3.838 0.860
2.152 4.157 0.578
2.486 3.101 1.870
2.534 3.443 1.518
2.400 3.456 1.403
2.449 3.587 1.324
2.568 3.925 1.024
2.499 4.201 1.047
2.319 4.100 0.875
2.490 4.476 0.709
2.463 3.273 1.635
2.527 3.408 1.478
2.476 3.740 1.458
2.673 3.938 1.264
2.581 3.974 1.179
2.505 4.427 0.888
2.895 3.391 1.744
2.761 3.612 1.727
2.926 3.785 1.366
2.700 4.106 1.413
2.874 4.171 1.241
2.880 4.483 0.992
2.917 3.835 1.670
3.191 4.104 1.288
3.841 6.131 0.158
4.128 6.073 -0.026
4.154 6.048 0.451
4.214 6.196 0.166
4.613 6.071 0.274
0.337 3.210 0.548
0.290 3.385 0.243
1.042 1.706 1.878
1.288 1.918 1.868
1.516 1.911 2.008
1.660 1.955 1.769
1.789 2.281 1.848
1.701 1.927 2.120
1.822 2.233 2.015
1.851 2.199 1.707
2.054 2.466 1.788
2.110 2.491 1.671
2.146 2.691 1.444
2.112 2.728 1.524
2.168 3.112 1.176
1.922 2.185 1.907
2.261 2.542 1.868
2.094 2.617 1.583
2.092 3.076 1.545
2.209 3.005 1.260
2.172 3.432 1.273
2.292 3.372 0.896
2.374 3.700 0.837
2.310 2.651 1.681
2.372 3.069 1.456
2.396 3.315 1.390
2.542 3.429 1.207
2.568 3.534 1.154
2.652 3.567 0.812
2.528 4.028 0.741
2.742 2.789 1.905
2.721 2.935 1.629
2.706 3.347 1.457
2.690 3.461 1.473
2.714 3.672 1.139
2.678 3.694 1.079
2.685 3.951 0.761
2.943 3.145 1.792
2.935 3.291 1.418
2.802 3.278 1.491
3.055 3.533 1.267
2.817 3.717 1.123
2.899 3.923 0.792
3.028 3.568 1.371
3.010 3.744 1.497
4.033 5.782 0.150
4.003 5.674 0.271
4.291 5.885 0.001
4.451 5.485 0.432
4.521 5.795 0.107
4.471 5.998 -0.094
4.565 5.381 0.642
4.671 5.562 0.503
4.645 5.979 0.405
4.734 6.150 0.071
4.654 5.463 0.753
4.980 5.546 0.831
4.891 5.713 0.409
4.989 5.896 0.410
4.816 6.193 0.196
4.911 4.802 1.601
5.034 4.793 1.305
4.927 4.888 1.112
5.154 5.300 1.091
5.125 5.247 0.940
0.046 2.785 0.520
-0.079 2.797 0.118
-0.057 3.128 0.001
0.291 3.265 0.189
0.918 1.425 1.536
1.188 1.441 1.852
1.151 1.637 1.455
1.569 1.955 1.527
1.442 1.763 1.614
1.256 1.677 1.759
1.380 2.070 1.553
1.626 2.006 1.467
1.680 2.096 1.455
1.488 1.529 1.832
1.532 1.862 1.716
1.673 1.922 1.469
1.897 2.158 1.693
1.716 2.263 1.514
1.882 2.353 1.432
1.775 1.813 1.971
1.887 1.819 1.714
1.769 2.074 1.654
2.074 2.194 1.865
1.998 2.369 1.400
1.994 2.557 1.478
2.224 2.589 1.104
2.189 3.054 1.030
2.172 1.734 2.135
2.099 2.098 1.751
2.047 2.054 1.706
2.327 2.362 1.652
2.259 2.312 1.686
2.277 2.678 1.604
2.322 2.923 1.389
2.220 2.866 1.033
2.419 3.065 1.168
2.355 3.376 0.900
2.421 2.122 1.780
2.361 2.064 1.879
2.460 2.384 1.757
2.675 2.549 1.760
2.537 2.704 1.513
2.412 2.973 1.450
2.678 2.940 1.137
2.669 3.045 1.179
2.572 3.540 0.992
2.600 3.642 0.742
2.408 2.164 1.893
2.774 2.641 1.947
2.692 2.821 1.524
2.830 2.991 1.538
2.666 3.084 1.190
2.662 3.272 1.182
2.873 3.344 1.033
2.785 3.625 1.006
2.985 2.846 1.789
2.834 2.979 1.688
3.148 3.095 1.540
2.932 3.302 1.094
3.039 3.323 1.020
3.067 3.753 0.942
3.142 3.037 1.628
3.132 3.060 1.324
3.287 3.256 1.289
3.252 3.487 1.296
3.955 5.457 0.184
4.101 5.351 0.259
4.292 5.281 0.246
4.583 4.964 0.475
4.445 5.423 0.500
4.481 5.589 0.306
4.648 5.573 0.132
4.642 4.899 0.599
4.662 5.036 0.713
4.662 5.455 0.302
4.559 5.595 0.224
4.726 5.838 0.024
4.730 4.737 1.008
4.815 5.118 0.915
4.809 5.335 0.624
4.826 5.505 0.583
5.011 5.694 0.337
4.926 5.601 0.163
5.108 5.853 0.042
5.212 4.531 1.196
5.119 4.837 1.312
4.936 4.869 1.029
5.231 5.149 0.800
5.182 5.096 0.810
5.289 5.400 0.710
5.211 5.544 0.358
0.086 2.683 0.153
0.734 1.435 1.304
0.875 1.362 1.364
0.890 1.641 1.248
1.161 1.369 1.458
1.227 1.530 1.350
1.606 1.764 1.181
1.503 1.511 1.530
1.482 1.701 1.470
1.444 1.995 1.239
1.799 1.870 1.333
1.891 2.148 1.317
1.646 1.522 1.676
1.610 1.649 1.549
1.628 1.967 1.430
1.994 2.051 1.586
2.085 2.196 1.275
2.044 2.375 1.274
1.962 1.536 1.703
1.840 1.618 1.681
1.960 1.823 1.473
2.272 2.151 1.486
2.100 2.328 1.462
2.186 2.426 1.261
2.057 2.510 0.915
2.357 2.843 0.810
2.106 1.704 1.969
2.316 1.816 1.833
2.329 1.949 1.565
2.303 2.228 1.597
2.338 2.162 1.400
2.545 2.536 1.152
2.579 2.666 1.108
2.341 2.687 1.091
2.567 2.871 0.681
2.458 1.928 1.861
2.491 2.018 1.531
2.735 2.265 1.653
2.689 2.456 1.529
2.748 2.583 1.528
2.547 2.614 1.156
2.671 2.974 0.987
2.739 3.142 0.989
2.769 3.191 0.608
2.670 2.115 1.596
2.810 2.241 1.687
2.847 2.460 1.596
2.906 2.630 1.405
2.762 2.930 1.088
3.044 3.124 1.090
3.035 3.305 0.872
3.078 2.563 1.828
3.117 2.562 1.562
3.025 2.782 1.281
3.070 2.826 1.286
3.091 2.996 1.076
3.000 3.204 0.981
3.289 2.743 1.624
3.449 2.922 1.373
3.195 2.966 1.297
3.262 3.330 1.056
3.199 3.374 1.078
3.475 2.962 1.252
4.111 5.147 0.035
4.345 5.090 -0.008
4.501 4.975 0.409
4.676 5.223 0.148
4.454 5.170 0.160
4.690 4.964 0.463
4.627 4.963 0.275
4.683 5.209 0.286
4.795 5.491 -0.031
4.967 4.547 0.890
4.845 4.974 0.580
4.852 5.158 0.647
5.124 5.365 0.465
5.181 5.529 0.168
5.113 5.551 -0.028
5.067 4.382 1.103
5.238 4.473 0.914
5.296 4.749 1.005
5.125 4.828 0.671
5.076 5.244 0.608
5.099 5.437 0.343
5.125 5.442 0.287
0.669 1.146 1.196
0.813 1.140 1.084
1.114 1.331 1.180
1.059 1.581 1.250
1.307 1.533 1.070
1.430 1.206 1.344
1.261 1.336 1.083
1.276 1.651 1.175
1.657 1.638 1.254
1.589 1.335 1.412
1.726 1.685 1.177
1.633 1.671 1.249
1.848 1.696 1.171
1.862 1.982 0.891
1.785 1.453 1.659
1.644 1.442 1.242
1.885 1.841 1.234
2.150 1.703 1.300
2.174 2.048 1.230
2.139 2.146 0.905
1.939 1.301 1.515
2.170 1.694 1.364
2.014 1.735 1.398
2.115 1.709 1.534
2.338 1.933 1.088
2.416 2.172 0.907
2.203 2.481 0.901
2.288 1.587 1.673
2.169 1.771 1.394
2.115 1.711 1.225
2.455 1.808 1.472
2.471 2.201 1.203
2.423 2.416 1.155
2.611 2.382 0.958
2.664 2.616 0.840
2.559 1.708 1.475
2.473 1.850 1.450
2.704 2.073 1.585
2.645 2.293 1.271
2.862 2.221 1.295
2.838 2.641 1.218
2.768 2.591 0.993
2.615 2.929 0.737
2.869 1.939 1.544
2.942 2.179 1.631
2.779 2.184 1.589
3.071 2.240 1.322
3.009 2.661 1.120
2.851 2.885 0.862
2.991 2.985 1.000
3.092 3.278 0.778
2.773 1.894 1.652
3.131 2.123 1.570
3.302 2.562 1.519
3.138 2.618 1.355
3.208 2.776 1.200
3.280 2.944 1.020
3.139 3.313 0.783
3.476 2.494 1.460
3.371 2.710 1.251
3.364 2.815 1.094
3.465 2.956 0.900
3.550 3.262 0.904
3.778 2.498 1.541
3.673 2.776 1.279
3.721 2.961 1.177
3.686 3.247 0.946
4.555 4.637 0.199
4.605 4.940 0.039
4.555 5.059 0.067
4.926 4.701 0.338
4.857 4.950 0.214
4.804 5.075 0.159
5.092 4.522 0.500
5.241 4.753 0.340
5.011 4.750 0.258
5.024 4.988 0.328
5.131 5.374 0.108
5.248 4.422 0.873
5.240 4.546 0.696
5.283 4.700 0.644
5.267 5.040 0.374
5.378 5.139 0.304
5.354 5.368 0.190
0.842 1.229 1.189
0.784 0.988 0.874
0.932 1.059 0.908
0.944 1.079 0.952
1.089 1.234 1.237
1.255 1.261 0.809
1.344 1.001 1.071
1.612 1.357 1.154
1.530 1.682 1.004
1.535 1.301 1.290
1.778 1.279 1.017
1.803 1.514 1.035
1.943 1.731 1.147
1.752 1.382 1.379
1.964 1.558 1.215
1.958 1.705 1.161
2.083 1.610 0.977
2.095 1.827 0.809
2.182 1.339 1.370
2.173 1.379 1.315
2.163 1.660 1.233
2.289 1.802 1.247
2.213 1.763 1.203
2.454 2.103 0.778
2.313 1.630 1.476
2.239 1.774 1.207
2.586 1.799 1.199
2.548 2.010 1.107
2.476 2.252 1.111
2.760 2.169 0.899
2.709 1.869 1.216
2.788 1.808 1.272
2.892 1.975 1.220
2.857 2.116 0.917
2.906 2.234 0.871
2.865 2.449 0.612
2.755 1.721 1.302
3.012 2.121 1.220
3.046 2.289 1.058
3.020 2.313 1.093
2.978 2.762 0.782
3.193 2.966 0.747
3.158 2.155 1.462
3.138 2.292 1.325
3.219 2.479 1.113
3.421 2.538 0.823
3.319 2.999 0.797
3.349 2.209 1.394
3.548 2.310 1.223
3.495 2.477 1.210
3.600 2.591 0.824
3.385 2.911 0.859
3.845 2.430 1.324
3.599 2.434 1.064
3.728 2.750 1.231
3.793 2.924 0.884
4.030 2.576 1.605
3.833 2.643 1.387
3.825 2.783 1.206
4.946 4.557 0.187
5.253 4.608 0.359
5.243 4.688 0.138
5.091 4.831 -0.131
5.314 4.331 0.642
5.449 4.764 0.346
5.480 4.901 0.140
5.296 4.827 0.024
0.657 0.893 0.791
0.788 1.031 0.883
0.988 0.921 0.817
0.860 0.938 0.588
1.226 0.869 0.699
1.174 1.010 0.626
1.458 1.084 0.831
1.299 1.008 0.745
1.394 0.919 1.137
1.678 1.324 0.977
1.890 0.932 0.974
1.773 1.213 0.862
3.000 1.772 0.925
2.958 1.917 0.754
3.066 2.388 0.698
3.216 2.060 1.047
3.275 1.999 0.972
3.094 2.408 0.709
3.276 2.572 0.766
3.389 1.851 1.348
3.373 2.015 1.116
3.542 2.384 0.767
3.282 2.522 0.608
3.281 2.558 0.487
3.608 2.183 1.290
3.666 2.263 1.187
3.444 2.465 0.941
3.687 2.412 0.889
3.673 2.642 0.568
3.693 1.999 1.264
3.790 2.249 1.323
3.877 2.314 1.192
3.755 2.535 0.894
3.772 2.655 0.771
3.890 2.196 1.248
3.955 2.430 1.284
4.200 2.699 0.953
4.139 2.745 0.988
4.362 2.248 1.390
4.303 2.445 1.222
4.430 2.668 1.014
0.472 0.858 0.514
0.509 0.768 0.750
0.818 0.692 0.748
0.915 0.961 0.622
1.121 0.720 0.646
0.890 0.757 0.618
1.029 0.630 0.783
1.335 0.671 0.714
3.360 2.086 0.788
3.314 2.270 0.576
3.531 2.462 0.661
3.712 1.958 1.054
3.691 2.295 0.662
3.782 2.276 0.693
3.789 2.689 0.528
3.946 2.040 1.216
3.835 2.239 0.945
3.833 2.190 0.871
3.950 2.601 0.856
3.971 2.719 0.731
4.232 1.843 1.154
4.176 2.103 1.107
4.257 2.450 0.844
3.989 2.447 0.742
4.185 2.739 0.784
4.249 1.920 1.331
4.358 2.113 1.369
4.362 2.256 1.200
4.409 2.455 1.032
4.418 2.773 0.818
4.677 2.162 1.572
4.626 2.201 1.262
4.454 2.591 1.200
4.744 2.692 1.100
4.739 2.213 1.672
4.648 2.485 1.398
4.944 2.579 1.295
0.021 0.407 0.141
-0.002 0.581 0.227
0.271 0.486 0.518
0.203 0.669 0.184
0.519 0.622 0.292
0.574 0.899 0.369
0.866 0.745 0.575
0.619 0.966 0.481
0.900 0.768 0.539
0.839 0.802 0.405
1.191 0.593 0.421
1.206 0.683 0.415
3.928 1.816 0.772
3.787 2.127 0.480
3.947 2.232 0.568
3.859 1.921 0.791
3.857 2.068 0.640
4.000 2.458 0.534
4.101 2.622 0.431
4.202 1.673 1.226
4.088 1.927 0.863
4.212 2.334 0.884
4.394 2.417 0.760
4.237 2.506 0.545
4.490 1.980 1.167
4.419 2.122 1.032
4.621 2.264 0.966
4.525 2.343 0.604
4.428 2.691 0.514
4.574 1.791 1.372
4.722 2.130 1.155
4.576 2.275 1.021
4.765 2.461 0.819
4.734 2.600 0.811
4.840 1.922 1.551
4.714 2.148 1.248
4.804 2.051 1.080
5.010 2.243 0.917
4.908 2.392 0.744
4.876 1.686 1.662
5.000 1.717 1.583
5.232 1.914 1.533
5.066 2.128 1.326
5.133 2.271 1.215
5.196 1.848 1.707
5.410 1.862 1.720
5.293 2.170 1.470
5.239 2.266 1.260
5.231 1.805 1.801
5.462 2.064 1.639
5.391 1.869 1.903
5.436 2.173 1.442
5.454 1.479 2.040
5.427 1.920 2.026
5.382 1.843 1.781
0.158 0.190 0.271
0.371 0.294 0.108
0.413 0.570 0.114
0.577 0.391 0.271
0.496 0.570 0.190
0.827 0.354 0.303
0.962 0.779 0.123
0.933 0.559 0.409
1.775 5.663 5.149
1.726 5.674 4.737
1.580 6.084 4.601
1.519 6.103 4.718
1.911 5.783 5.007
1.999 5.963 5.084
1.991 5.990 4.719
2.007 6.278 4.791
1.965 5.705 5.342
1.996 5.867 5.095
2.069 5.823 5.182
2.063 6.152 4.800
2.151 5.579 5.471
2.146 5.468 5.300
2.187 5.795 5.376
2.383 5.917 5.150
2.425 6.283 4.860
2.247 5.287 5.502
2.569 5.322 5.654
2.419 5.787 5.509
2.540 5.687 5.475
2.492 5.993 5.132
2.532 6.137 4.942
2.415 5.618 5.550
2.627 5.590 5.893
2.625 5.855 5.752
2.638 5.863 5.359
2.702 6.120 5.167
2.743 6.336 5.121
2.834 5.195 5.755
2.682 5.523 5.863
2.973 5.515 5.758
2.971 5.885 5.725
2.817 6.086 5.538
3.063 6.068 5.532
2.834 5.290 6.275
2.850 5.520 5.935
2.883 5.603 5.844
2.991 5.517 5.899
3.296 5.763 5.667
3.328 5.835 5.515
3.114 5.128 6.327
3.046 5.470 6.180
3.097 5.646 6.073
-0.001 6.182 3.201
1.672 5.932 4.414
1.814 5.683 5.067
1.928 5.588 4.746
1.940 5.973 4.708
1.812 6.171 4.606
2.040 6.366 4.277
2.177 5.413 5.159
2.050 5.632 4.962
2.042 5.771 4.746
2.256 6.065 4.607
2.101 6.076 4.462
2.366 5.369 5.307
2.277 5.548 5.175
2.383 5.845 5.114
2.372 6.079 4.746
2.299 6.249 4.575
2.622 5.368 5.584
2.665 5.513 5.330
2.698 5.719 5.149
2.496 5.961 5.209
2.653 5.981 4.961
2.759 6.406 4.747
2.623 5.396 5.614
2.673 5.390 5.602
2.952 5.632 5.387
2.685 5.895 5.140
2.685 5.767 5.095
2.954 6.006 4.942
2.624 5.235 5.880
2.922 5.219 5.640
2.871 5.474 5.626
3.119 5.770 5.571
2.939 5.959 5.484
2.901 5.839 5.347
3.099 6.036 5.046
2.888 5.168 6.121
3.028 5.113 5.846
2.874 5.591 5.724
3.163 5.606 5.651
3.179 5.536 5.677
3.295 5.938 5.601
3.128 4.964 5.962
3.228 5.417 5.850
3.245 5.498 5.816
0.090 5.953 3.453
0.214 6.012 3.287
0.098 6.055 3.053
0.375 6.337 3.142
1.947 5.672 4.792
2.218 5.758 4.343
1.913 5.915 4.368
2.221 6.159 4.246
2.295 5.390 5.032
2.416 5.507 4.624
2.219 5.798 4.659
2.419 5.840 4.271
2.167 6.053 4.415
2.489 5.155 5.158
2.554 5.531 5.053
2.448 5.596 4.942
2.543 5.972 4.545
2.615 6.048 4.594
2.677 6.275 4.317
2.721 5.314 5.441
2.705 5.203 5.196
2.768 5.685 4.994
2.649 5.606 5.018
2.582 5.762 4.618
2.813 6.188 4.723
2.806 5.270 5.350
2.869 5.094 5.524
2.925 5.410 5.386
2.780 5.658 4.966
2.919 5.651 5.023
2.971 6.026 4.697
2.889 6.021 4.583
3.023 5.085 5.568
