14.030884 101.84996 7.338272
13.863884 100.302956 5.4472733
7.1618805 97.60296 0.6072731
5.2638855 95.90596 56.170273
32.260883 61.859955 11.041275
34.112885 62.763954 10.195274
39.976883 54.339954 13.005274
42.282883 55.129955 12.400274
49.636883 87.24896 20.172274
47.871883 87.65396 18.948275
39.280884 88.316956 13.966274
40.572884 90.09096 14.888274
60.74988 75.84996 19.724274
60.327885 75.78696 17.675274
57.126884 71.86796 11.486275
56.228886 73.19696 10.820274
33.151886 35.294956 34.326275
32.339886 33.118958 34.262276
29.783884 40.325954 39.600273
27.302885 39.869957 39.382275
41.824883 40.247955 44.05427
41.824883 42.017956 44.90227
49.191883 48.059956 47.196274
47.309883 49.485954 47.771275
32.522884 39.830956 13.262275
32.303883 37.820957 11.242274
35.363884 33.928955 21.220274
33.802883 32.92296 22.655273
10.780884 76.50696 25.360275
9.42588 77.57396 27.781275
1.9998779 86.857956 29.663275
1.8588791 87.73496 27.904274
33.141884 12.115956 10.760274
31.162884 11.642956 9.362274
21.891884 9.851956 15.491275
22.261885 11.405956 16.336275
8.320885 19.800957 47.53427
6.455879 18.876957 46.844273
64.04688 19.752956 36.826275
62.59788 21.191956 38.107273
35.976883 98.32396 34.906273
36.106884 97.77996 32.862274
38.271885 86.49196 29.954275
38.501884 87.53096 27.584274
52.375885 39.747955 30.126274
52.199883 41.413956 28.945274
47.480885 51.617954 25.886274
45.681885 52.014957 27.635275
28.31788 62.921955 31.360275
27.655878 60.401955 30.857275
19.184883 52.901955 29.784275
18.387878 53.708954 31.295275
36.886883 77.02096 54.470272
35.776886 79.093956 53.74927
35.397884 88.22796 1.5612717
35.471886 90.14096 0.9402733
40.598885 19.104956 9.592275
40.418884 18.000956 11.551274
38.409885 24.038956 15.966274
37.648884 25.980955 15.533275
17.891884 3.8649597 38.067272
15.869881 2.8999634 39.177273
23.614883 105.14296 39.641273
22.929878 105.76696 42.101273
34.635883 47.741955 4.456272
32.534885 45.891956 6.7612724
25.522884 50.217957 11.270271
27.083885 51.655956 11.902273
55.889885 7.5229564 49.857273
54.566883 8.905956 48.104275
53.082882 13.127956 38.828274
53.873882 12.955956 36.657272
26.061882 98.09196 23.690275
27.910883 99.80396 24.076275
23.056885 107.27196 17.963274
22.170883 108.54296 16.360275
41.239883 64.069954 55.670273
41.168884 64.470955 53.56827
38.676884 76.20296 51.107273
38.670883 75.10696 48.507275
26.30488 107.97196 15.982275
26.200884 107.85596 18.428274
21.56388 0.8929596 28.480274
19.506882 1.2129593 28.740274
42.710884 50.856956 30.648275
44.010883 48.804955 30.222275
52.058884 56.351955 32.879272
54.581882 55.964954 33.761272
32.212883 65.56496 8.812275
30.421885 67.803955 9.430274
24.556885 60.075954 12.925275
22.384884 59.401955 13.865274
50.668884 30.698956 0.51527023
52.615883 31.684956 56.383274
48.395885 35.777958 45.150272
49.271885 37.483955 45.654274
36.158886 76.21396 19.840275
35.679886 77.27196 21.597275
29.572886 82.74296 14.413275
30.298885 84.56796 12.675275
14.24588 69.08196 41.827274
13.837883 70.746956 39.621273
1.596878 68.93296 40.178272
1.7088852 69.72396 37.917274
52.735886 101.28696 48.621273
51.626884 101.94696 46.799274
46.360886 96.95696 39.503273
45.087883 97.96296 37.506275
25.521885 62.902954 19.821274
27.504885 61.684956 20.077274
34.875885 58.296955 23.516273
34.806885 55.843956 24.872274
53.508884 62.842957 34.104275
52.597885 63.052956 36.037273
57.941883 71.301956 39.412273
57.678883 73.22496 38.487274
43.495884 16.762957 53.684273
44.781883 17.166956 52.230274
48.128883 25.537956 53.787273
49.906883 24.636955 52.44327
17.873878 0.78495646 31.113276
17.098885 1.7599566 29.396275
20.336884 9.583957 31.050274
21.780884 11.244956 29.661274
32.403885 109.61796 53.896275
34.049885 109.88696 52.65127
41.184883 5.6199617 54.246273
42.557884 4.0439606 55.378273
21.77288 96.34096 54.133274
22.449883 97.61596 52.602272
19.06388 109.39596 52.827274
20.553879 110.18996 55.06927
9.8738785 17.094955 18.617275
7.7398834 15.453957 18.753275
1.5708847 21.770956 25.047274
1.462883 22.917955 27.275274
18.112885 41.373955 5.0212708
17.506882 39.795956 3.4002724
15.938881 35.655956 53.515274
16.683884 35.504955 51.51227
51.321884 97.92196 33.717274
50.701885 95.35396 32.651276
57.821884 94.552956 42.316273
59.357883 93.54396 43.775272
56.640884 82.82296 42.818275
54.383884 84.38796 42.825275
48.202885 79.29796 47.111275
48.526882 78.31496 49.072273
27.249884 9.675957 43.585274
28.691885 12.105956 43.137276
25.887884 5.9219565 37.583275
25.160885 4.9119563 35.785275
35.018883 109.55896 4.6552734
32.398884 110.26696 4.701271
30.376884 107.24896 15.500273
31.651884 104.88996 15.562273
17.324883 8.000957 10.169273
18.893883 9.889956 9.2282715
29.404879 5.577956 11.597275
30.59688 6.8509564 12.227274
39.432884 75.788956 34.288273
40.492886 74.40396 35.966274
47.796883 81.40896 40.536274
48.015884 80.63296 42.573273
14.311882 56.135956 28.537275
14.338882 57.488956 26.389275
19.201881 59.807957 19.004274
20.62088 60.413956 16.632275
33.100883 86.20296 0.13127136
33.666885 85.913956 1.826271
32.836884 90.941956 11.122276
32.435886 90.90496 13.265272
14.74688 43.143955 10.894272
15.8628845 40.976955 12.543272
6.7468796 35.522957 4.9692726
6.903885 37.629955 4.281273
56.147884 93.55596 43.966274
54.475883 93.32596 45.26327
46.657883 89.54896 45.649273
44.850883 87.829956 44.813274
60.678883 87.87896 9.795273
59.09088 90.08596 10.043274
50.112885 95.01196 10.917274
51.302883 96.83296 9.924271
26.322886 2.0679626 31.029274
24.179878 0.33096313 31.566275
24.541885 107.56296 41.615273
26.22288 105.73196 40.756275
15.55088 73.50396 43.151276
17.530884 73.12796 43.945274
15.261879 68.78196 55.461273
16.645882 67.71796 55.71427
3.3798828 101.86496 23.469275
4.1238785 100.53096 24.454275
0.49188232 102.29296 32.766273
0.5988846 102.33496 35.359272
18.555885 24.611956 2.2662735
16.490883 24.567955 1.0732727
7.8318787 26.472956 5.21727
6.6718826 27.698956 3.642273
40.701885 103.44696 25.108274
40.654884 104.30496 27.405273
49.231884 97.34596 31.563274
47.356884 96.36596 32.490273
44.791885 74.15296 5.2822723
43.540882 72.61896 5.0532722
47.703884 73.48896 53.095272
49.492886 74.77996 53.76927
43.564884 41.428955 52.065273
43.923885 40.672955 53.773273
42.386883 53.844955 56.435272
41.784885 53.437954 2.1672707
7.1028824 3.492958 3.2252731
6.6028824 1.6569595 2.6712723
3.5398788 103.29696 5.57827
5.9688797 103.62596 5.507271
62.829884 21.896955 28.143274
62.81288 24.293955 27.700274
56.742886 29.780956 33.933273
56.396885 32.241955 34.563274
49.111885 44.197956 33.729275
49.988884 46.212955 34.684273
50.368885 52.198956 43.776276
50.660885 51.615955 46.240273
25.506882 1.681961 46.99927
25.401878 0.40795898 44.54127
22.530884 3.6949615 35.363274
21.581879 1.8239594 33.869274
50.353886 73.468956 21.049274
52.088882 72.454956 20.447275
57.380882 63.923954 20.310274
58.99988 63.645954 19.006275
40.385883 51.617954 14.381274
41.917885 52.436954 13.559275
50.499886 43.248955 13.358274
49.043884 41.171955 13.302275
40.583885 99.30596 18.041275
41.094883 100.83596 16.258274
34.439884 93.96396 10.908275
32.492886 93.83696 12.136274
0.009880066 48.107956 21.460274
64.333885 48.845955 23.635275
52.805885 49.129955 23.309275
51.972885 49.445957 21.020275
28.85988 37.432957 16.644274
27.532885 34.996956 16.078274
20.84388 35.809956 21.697275
19.477882 37.323956 23.645275
21.104881 89.61496 34.627274
20.047882 90.61896 36.027275
23.71888 101.57496 38.882275
22.81388 102.54796 40.599274
17.747879 1.7539566 50.092274
17.590881 3.8689566 50.896275
23.060883 11.406957 43.616272
22.60588 11.280956 41.307274
2.950882 25.462955 31.409275
1.974884 24.573956 29.420275
61.386883 34.680958 26.144274
63.60488 34.005955 25.775274
41.166885 3.9209595 47.15827
42.404884 2.2449646 47.105274
42.867886 105.69596 54.45127
43.281883 104.87996 52.157272
59.935883 69.82696 10.523277
61.54888 71.23196 9.808273
4.585884 66.496956 4.590271
6.38488 67.429955 3.6502724
0.2568817 108.44696 42.209274
62.952885 106.96296 42.728275
54.742886 99.85896 46.546272
55.933884 98.56896 48.234272
59.378883 24.559956 53.265274
60.200882 22.949955 51.674274
54.894882 20.238956 44.502274
57.119884 19.136955 44.197273
14.322884 63.434956 41.128273
15.734879 64.360954 42.547276
25.48388 65.48196 37.031273
24.10688 64.88196 35.297276
12.098885 80.98196 22.527275
12.645882 80.86196 20.158274
16.818878 92.11496 18.512274
14.948883 93.38896 17.584274
62.607883 101.03796 4.010273
63.281883 100.03696 5.7942734
56.135883 96.32296 10.48027
54.805885 97.98896 9.613274
26.993885 36.644955 34.298275
28.937885 35.999958 35.836273
28.240885 26.468956 34.808273
28.486885 24.630955 36.449272
37.185883 21.801956 18.794275
38.787884 23.686956 18.823275
49.200882 15.305957 22.266273
50.967884 16.858955 22.902275
44.469883 10.423956 18.708275
45.303883 10.689957 21.008274
34.917885 16.377956 24.049274
33.695885 14.227957 24.391273
19.275879 36.596954 27.860275
19.751884 39.100956 27.591274
21.435883 47.950954 23.851274
21.53888 48.037956 25.892275
2.77388 8.955956 29.438274
1.1058807 7.7979565 31.008274
56.870884 5.7379565 28.868275
55.242886 4.2029567 30.042274
48.124886 78.04396 5.340271
49.422882 79.70596 6.463272
49.823883 80.19896 2.588272
47.660885 80.88696 2.1772728
43.993885 92.32596 40.558273
43.541885 89.80996 41.797276
40.391884 88.09696 29.989275
42.225883 88.50996 29.343275
13.034882 22.250956 14.630274
14.365883 22.233955 13.0822735
15.253883 13.746957 5.3462715
15.084885 11.544956 6.257271
6.12088 58.241955 39.426273
4.341881 58.033955 41.176273
6.957878 50.511955 46.779274
4.716881 49.973957 47.79827
16.45488 93.02896 9.345276
14.879883 94.21496 10.352272
18.142883 97.99196 5.8772697
19.46788 97.86996 7.694275
27.758883 16.457956 28.799274
25.741882 15.879956 29.106276
25.235878 24.684956 26.064274
23.639885 26.570955 25.535275
36.245884 96.59896 8.598274
33.826885 97.25796 8.298271
31.919884 107.70896 5.774273
31.140884 107.05496 3.7142715
8.069885 25.336956 8.876274
6.341881 26.362955 10.252274
59.540882 27.138956 11.174271
60.01488 28.811956 8.882271
51.578884 4.7629595 37.352272
50.963882 6.249959 38.877274
42.014885 0.5409622 43.799274
40.019886 1.1299591 44.135273
35.969883 65.36296 10.096274
36.555885 67.35496 11.480274
42.671883 66.344955 21.400274
42.236885 68.35396 21.958275
0.06288147 41.486954 41.497272
63.634884 43.697956 40.176273
0.22388458 49.680954 41.051273
63.06288 48.815956 40.129272
19.173882 105.96696 48.74927
20.637878 104.93396 47.95127
29.677881 107.77696 54.435272
29.369883 109.85196 53.04727
29.460884 26.957956 5.02927
28.706884 27.451956 3.0822716
34.354885 22.438955 55.224274
33.546883 22.544956 53.642273
38.043884 35.42296 54.90827
39.828884 34.192955 54.26327
51.526882 37.848957 55.77027
50.642883 38.646957 53.911274
15.922882 37.877956 9.137276
18.169884 38.555954 7.9902725
23.26088 41.923954 3.1402702
24.029884 43.732956 2.510273
45.633884 37.049957 28.985275
45.304882 38.266956 30.862274
40.794884 49.532955 28.886274
38.810883 49.052956 27.419275
30.870884 31.213955 21.067274
32.442886 30.599955 22.785275
33.637886 18.845957 24.375275
34.504883 18.668957 22.313274
9.187881 56.595955 38.724274
9.677879 57.831955 40.732273
10.636879 55.630955 52.257275
13.113884 55.582954 52.571274
27.986885 78.41596 28.310274
26.386885 78.83996 29.675274
32.877884 71.46396 35.019276
32.898884 73.21096 36.129272
3.64888 33.282955 17.852274
2.403885 34.368958 19.039274
9.804878 35.919956 26.688274
9.192879 38.470955 27.094275
17.174881 16.541956 2.0342712
16.63388 16.041956 4.1782722
21.111885 24.103956 8.539276
23.044884 25.168955 8.122276
57.380882 19.345957 16.389275
59.66088 19.631956 14.938274
3.9898834 23.744955 12.577274
5.0138855 22.245956 11.315274
10.375885 6.2779565 6.8412704
10.820885 5.9419565 4.7592735
3.261879 16.678955 3.4352722
3.3858795 16.567957 5.423271
46.383884 86.76196 51.141273
44.979885 88.29196 50.358273
44.113884 93.90096 56.585274
46.115883 92.75696 1.2832718
45.544884 71.02096 4.1712723
47.825882 70.51396 4.98127
52.992886 67.89296 51.44327
55.277885 69.12796 50.949272
49.159885 107.75996 16.993275
47.535885 107.49096 19.354275
39.742886 2.1529617 17.410275
40.076885 2.8149643 20.011274
1.1128845 53.695957 40.648273
0.14788055 55.971954 41.077274
1.1288834 49.688957 30.794275
1.6658783 51.724957 29.364275
41.863884 35.056957 27.863274
42.319885 33.162956 29.199274
44.606884 35.838955 40.244274
46.580883 35.128956 41.097275
54.191883 11.744956 9.063274
53.145885 11.424956 11.017275
60.663883 4.8709564 17.734274
62.539883 3.8249564 17.026274
47.111885 92.02796 17.845274
48.604885 90.66196 18.749275
54.142883 87.371956 9.119274
54.751884 90.02596 8.303274
47.341885 86.61696 22.984274
47.415882 87.99096 21.693274
43.327885 92.41896 18.082275
45.026882 93.33596 16.727274
22.942879 14.366957 27.590275
23.213882 14.804956 29.614275
13.136879 15.863956 24.839273
11.517883 15.912956 26.224274
3.0088806 49.923954 43.807274
2.424881 51.469955 45.81927
61.78488 43.474957 52.993275
61.66788 41.834957 51.587273
45.390884 75.74496 22.621275
44.131886 76.496956 20.909275
41.113884 84.62396 25.474274
40.734882 86.44396 25.644274
33.658886 5.2449565 14.021275
33.121883 3.5139565 15.451275
31.474884 10.675957 20.932274
32.689884 12.103956 21.950274
55.633884 -0.4210434 11.862274
55.151882 1.5859566 11.027274
49.783882 12.077956 15.073275
52.379883 11.454956 14.524275
7.6778793 32.072956 56.078274
7.9478836 30.565956 0.8382721
14.057884 20.516956 51.639275
15.346878 19.859957 53.14427
54.134884 105.71396 5.6832733
52.385883 104.83696 4.517273
60.577885 105.91596 6.0632706
58.690884 106.83096 5.9662704
55.356884 65.069954 4.743271
54.244884 66.60696 3.262272
46.663883 70.52596 7.9362717
44.156883 71.13796 8.568275
41.032883 1.0669632 29.893274
41.061886 111.55496 28.584274
49.834885 105.22296 34.006275
50.358883 103.61896 32.953274
60.737885 7.1879625 4.74527
61.568882 5.327962 6.434273
3.0578842 111.81496 55.614273
1.1198807 0.13496399 54.649273
28.293884 72.57396 22.109274
29.706884 70.73596 22.185274
35.875885 75.46496 23.507275
35.961884 77.57496 24.998274
53.465885 83.96596 22.341274
52.718884 83.27796 24.641273
44.523884 77.51996 25.094275
43.828884 75.36596 25.201275
5.7608795 108.44896 52.61027
4.0268784 109.99196 52.781273
2.4408798 5.568959 44.557274
0.57188416 6.285962 45.727272
11.887878 58.637955 38.935272
11.876884 56.571957 38.257275
8.541885 62.759956 32.299274
9.986885 64.61496 32.273273
52.826885 10.647956 54.19427
51.855885 8.914956 53.239273
57.510883 10.611957 5.086273
57.408882 8.898956 7.0472717
17.076881 95.49596 43.160275
18.250885 97.579956 42.700275
29.729883 92.21196 45.253273
29.725885 92.37496 42.725273
35.719883 2.7249603 19.088274
34.786884 4.992955 18.377275
37.161884 2.3539581 27.754274
37.497883 2.2059631 30.377275
34.316883 42.172955 6.887272
35.433884 44.079956 8.2052765
39.961884 33.806957 13.779272
42.144882 34.469955 14.801275
12.633881 103.774956 42.328274
12.437881 104.61996 40.567272
12.047882 2.1659622 47.219273
14.265884 3.0779648 47.253273
8.317879 65.54796 14.357274
10.303879 66.652954 13.499274
16.609879 73.98896 13.350274
16.83088 74.69496 15.901275
59.009884 7.2839565 10.316275
61.098885 7.8619566 10.274275
62.68888 13.977957 20.632275
0.3908844 12.7249565 20.232275
28.205885 41.335957 41.841274
27.295885 40.203957 43.027275
30.814884 41.215954 53.584274
30.990885 42.640957 55.470272
13.282883 106.21996 1.5222702
15.143883 105.47396 1.5042725
9.462883 98.21696 55.218273
8.950882 96.82196 53.912273
26.826883 43.302956 40.683273
25.598877 42.118954 38.947273
18.031883 40.078957 31.259275
17.873878 42.374954 30.680275
9.5748825 15.149957 28.187275
9.222885 14.1989565 26.126274
10.846878 2.4939563 27.704275
11.974884 0.7329564 28.549274
50.350883 37.946957 29.631275
51.004883 38.980957 27.737274
49.882885 48.542957 23.626274
49.002884 50.356956 22.881275
6.9518814 105.20196 11.039274
7.0988846 106.53996 9.576275
2.5808792 4.247963 13.621274
2.5818787 4.943959 16.161274
10.845879 40.533955 48.188274
10.025879 39.099957 46.380272
2.1168823 34.074955 48.810272
1.5088806 33.611958 50.77727
29.959885 52.275955 12.590275
28.407885 52.868954 13.730274
26.570885 47.724957 21.670275
25.360884 47.902954 23.332273
5.63488 64.82096 36.735275
7.0298843 65.64496 35.253273
7.914879 77.62996 36.829273
8.17588 77.14296 38.772274
42.997883 86.95196 49.264275
43.242886 85.66196 47.331272
34.492886 77.78996 46.17327
33.775883 76.63396 44.38827
36.312885 101.56996 35.190273
36.241886 100.46196 36.905273
48.442883 102.97696 40.140274
49.555885 104.89196 39.544273
56.673885 69.39596 1.0222702
57.201885 69.63296 3.260273
46.169884 74.84796 2.7772713
45.880882 72.58296 1.6762733
1.764885 33.289955 29.286274
3.1998825 32.68696 28.609274
0.086883545 23.495956 19.824274
0.88988495 22.620956 21.684275
13.066879 38.445957 0.9332733
14.571884 37.890957 55.525272
21.24488 46.791954 2.4802704
22.783882 47.574955 1.0112724
52.642883 6.801961 27.614275
52.446884 5.499959 29.723274
51.206882 107.99296 33.530273
50.929882 109.37396 35.979275
59.150883 13.832956 12.794274
56.907883 14.266956 13.196275
50.826885 14.201957 20.191275
52.104885 16.263956 20.164274
57.334885 22.939955 50.323273
55.193882 23.848955 52.150272
44.993885 20.044956 48.551273
44.808884 17.677956 48.634274
25.425884 40.291954 28.251274
27.011885 41.320957 28.055275
33.997883 37.235954 22.522274
35.979885 36.771957 21.683275
30.875885 73.91296 44.840275
33.186886 74.07396 45.239273
35.717884 65.53696 39.183273
35.544884 65.25396 36.686275
42.111885 73.871956 30.023275
42.724884 71.33996 30.087275
33.188885 67.93996 34.936275
32.085884 67.387955 33.170273
16.210884 95.29596 15.485274
17.446884 94.11596 16.587275
27.405878 91.82196 20.510275
26.991884 91.00196 22.779274
55.660885 1.0789566 18.267275
54.327885 2.7049565 17.737274
61.879883 7.380956 23.034275
62.85488 6.0269566 20.840275
38.413883 10.656957 3.0532722
36.522884 9.218956 2.68927
27.318884 5.5539565 54.722275
25.750885 3.7049565 54.849274
21.667885 70.78396 5.206272
21.409882 72.75696 6.2052727
18.045883 82.83296 9.420273
19.895882 83.48596 8.12027
27.849878 106.21696 22.157274
26.821878 108.08696 21.826275
22.376884 110.10696 31.979275
20.724884 111.71996 30.871275
29.536884 26.566956 27.966274
31.365885 26.796955 26.516273
36.050884 32.305958 23.904274
37.612885 33.20096 22.199274
33.788883 35.581955 53.045273
34.293884 33.733955 54.483273
35.357883 27.592955 42.607273
37.468884 26.670956 43.217274
52.134884 8.985956 5.4412727
52.894882 8.817956 2.6522713
43.317883 1.0889566 1.2192726
41.579884 2.8769565 1.6322708
59.329884 5.1039553 11.696274
59.359882 3.2269592 11.048271
62.355885 107.86996 7.9132767
63.26388 106.67496 6.4872704
62.955883 16.880957 37.014275
61.459885 18.536957 37.447273
56.561882 10.695956 46.656273
56.445885 10.8569565 48.356274
47.903885 83.57096 42.435272
48.361885 85.32196 43.808273
56.135883 87.11696 34.245274
55.901882 89.04196 33.360275
61.702885 73.51596 52.593273
61.363884 74.60996 50.913273
7.115883 79.10596 51.93627
6.74588 80.71196 50.543274
48.979885 49.263954 50.063274
50.934883 48.954956 50.26227
45.926884 54.441956 1.0872726
44.634884 52.904957 2.6102715
18.36988 3.6359565 19.245275
15.636879 2.9639564 19.591274
7.811882 10.752956 17.258274
7.863884 12.966956 16.921274
28.707884 49.370956 26.359274
29.538885 51.453957 27.836275
32.689884 42.564957 34.454273
33.355885 41.730957 36.541275
2.1428833 6.66496 9.24427
3.64888 5.216962 10.152275
61.086884 109.83596 5.3042717
59.796883 109.30996 7.1052704
63.90288 97.00496 3.4812698
1.2188797 96.48996 3.614273
64.278885 87.329956 6.9832726
61.873882 86.691956 7.6772766
54.805885 69.885956 41.378273
54.852882 69.34296 43.512276
60.025883 69.78296 51.22127
61.88288 69.80396 52.370274
43.260883 62.184956 10.86927
41.903885 61.191956 12.287275
39.399883 55.281956 1.6382713
40.911884 55.986954 56.551273
28.528885 0.01096344 3.1312714
28.536884 111.31496 1.05727
39.396885 2.1499634 0.0012702942
41.669884 1.1939621 55.771275
46.079884 90.55696 2.7232704
45.695885 92.55896 4.7682724
49.218884 94.30596 14.281275
47.525883 94.62696 14.887274
26.170885 39.629955 34.442272
24.197884 41.189957 35.602272
20.761879 50.641956 32.432274
18.23288 50.795956 32.951275
4.00988 68.94796 51.000275
4.9848785 67.22496 50.480274
5.2868805 63.810955 1.6272697
5.7558823 64.329956 3.3092728
41.280884 59.930954 51.747272
42.434883 60.162956 54.021275
36.795883 67.85296 2.7232704
39.172886 68.77696 2.6012726
33.725883 72.01996 11.433274
34.720882 70.66796 13.517275
43.799885 75.24096 18.471275
45.376884 76.75796 17.862274
36.818886 4.3579607 16.924273
36.619884 4.910962 14.438272
42.356884 111.92996 7.199272
44.078884 110.97596 6.776272
5.2048798 45.356956 31.661274
4.243881 43.741955 31.852274
6.644882 37.692955 22.248274
8.4498825 37.864956 20.201275
52.262882 37.272957 25.371275
54.725883 36.965954 25.864275
50.264885 28.559956 31.529274
49.484882 27.840956 33.469273
40.928883 99.95696 7.4762745
41.143883 100.82696 9.455275
46.896885 97.33996 15.505275
48.060883 96.25296 17.031275
58.377884 33.880955 13.867274
60.31988 33.128956 14.973274
58.42388 35.098957 24.989275
57.544884 36.993954 25.474274
49.813885 37.473957 38.569275
48.454884 37.600956 40.316273
58.647884 38.452957 44.76227
57.643883 36.306957 44.043274
46.206882 78.95896 45.52727
45.219883 80.68696 46.934273
45.602882 71.54396 51.919273
44.755882 69.54396 52.857273
24.877884 82.12296 20.260275
23.890884 83.78196 22.003275
17.754883 87.14496 27.882275
17.169884 87.80796 25.680275
39.985886 56.352955 34.696274
38.511883 55.335957 36.111275
35.309883 48.575954 40.843273
35.348885 47.984955 43.064274
58.966885 78.80396 16.413275
61.302883 78.24396 16.505274
59.870884 75.17196 7.1052704
58.936882 73.63196 8.500275
2.688881 75.08996 5.1972733
3.8688812 73.91996 7.220276
8.429878 80.86696 13.790274
8.81588 82.065956 11.48127
36.701885 85.468956 10.942274
37.790886 84.06896 12.450274
39.007885 83.85396 23.876274
36.706882 83.51896 23.156275
42.030884 5.5439563 0.9032707
42.337883 7.5169563 55.83227
48.632885 15.270956 0.12227249
48.601883 16.817957 1.7552719
64.457886 97.80796 52.953274
63.741882 97.61096 55.002274
5.966881 107.26396 0.92827225
5.780884 108.02996 55.348274
55.878883 64.06296 9.054275
54.053883 65.149956 7.6432743
54.180885 61.366955 18.082275
56.259884 60.806957 19.167274
6.89888 92.00196 28.369274
4.9188843 92.35596 27.444275
4.063881 90.01296 26.324274
5.073883 88.02296 24.303274
24.70488 96.58196 6.2332726
26.76388 96.47596 5.753273
21.325882 88.90196 8.714272
19.64888 88.18496 7.609276
61.29188 89.48796 34.550274
60.811882 87.06396 33.699272
1.5608826 86.77096 34.653275
0.6198807 87.05496 32.916275
60.418884 6.1849566 24.896275
61.71488 4.8219576 23.327274
2.4278793 109.52096 28.372274
3.78788 109.83596 29.953276
22.74488 90.46296 38.250275
22.833885 89.34496 40.048275
11.035881 87.051956 44.005272
9.379883 88.34796 42.491272
14.931885 100.39596 19.980274
15.659882 98.57696 19.208275
13.255882 97.31196 26.246275
12.622879 97.33396 29.127275
24.46688 33.518955 8.317276
22.489883 34.607956 8.794273
22.70288 28.442955 56.146275
20.951881 28.497955 54.876274
62.38288 84.35296 51.49927
64.374886 85.10096 51.066273
7.3648834 93.96696 49.54027
9.027885 92.32696 48.95727
31.216885 65.318954 36.653275
33.045883 66.482956 37.532272
28.961885 76.71796 40.259274
27.095884 76.44296 42.102272
28.459885 4.9939566 8.704277
29.732885 6.6549563 9.02227
31.806885 14.979957 5.781273
32.856884 16.914955 5.3152733
26.287884 66.52996 52.376274
25.871885 67.23196 49.93027
31.604885 74.15396 47.66627
31.788885 76.33396 47.982273
30.015884 62.452957 6.3012733
32.343884 63.309956 5.406273
25.204884 73.885956 6.3512726
27.387884 75.36296 6.7302704
17.033882 17.826956 53.035275
15.193878 17.928955 51.239273
14.64888 16.504955 39.589275
16.71688 15.108956 38.801273
60.09688 52.354954 7.8462744
60.432884 53.713955 9.403275
4.599884 50.085957 13.868275
6.568878 50.345955 13.276275
52.627884 87.81096 29.118275
50.597885 86.80696 30.749275
46.329884 90.81296 41.282272
47.421883 89.03596 42.745274
6.3148804 46.510956 49.168274
4.222885 48.097954 49.495274
1.462883 54.121956 1.9062729
0.086883545 54.032955 3.1932716
58.498882 95.78996 14.797275
56.647884 96.40396 14.278275
50.343884 107.25096 14.237274
51.47188 108.73396 12.348274
2.389885 21.808956 32.603275
1.0578842 23.450956 31.908276
6.0668793 30.770956 32.792274
7.4798813 30.299955 31.006275
42.311882 20.058956 37.876274
42.646885 22.155956 38.520275
37.655884 28.834955 40.537273
35.853886 28.083956 40.163273
63.052883 21.597956 56.095272
61.850883 22.534956 54.577274
4.62088 16.470957 48.493275
3.2348785 15.089956 48.085274
8.3888855 78.97496 33.914272
9.894882 78.63896 35.288273
6.722885 84.93596 32.379272
4.2948837 84.33496 32.387276
56.671883 111.871956 9.333275
57.905884 110.29896 9.964274
55.110886 111.31296 16.437275
55.601883 110.23596 18.281275
47.333885 37.759956 43.409275
46.406883 39.039955 41.851273
47.578884 39.609955 52.564274
45.176884 38.341957 52.143272
35.663883 20.720955 0.061271667
37.511883 21.001955 1.7952728
38.167885 31.337955 53.723274
39.617886 31.426956 55.236275
6.8888855 29.230955 28.817274
8.271881 29.294956 26.403275
5.6048813 24.277956 17.573275
3.2488785 23.124956 16.821274
58.136883 25.219955 40.574272
56.889885 26.670956 41.993275
0.97688293 31.702955 43.691273
2.2968826 32.484955 41.854275
13.87188 14.396956 22.622274
14.098885 13.144957 24.348274
19.515884 7.0079565 19.212275
20.903885 8.560956 18.191275
43.679882 84.86096 53.545273
44.726883 84.316956 55.352272
45.467884 81.52196 6.9262733
46.34688 80.079956 6.166271
57.036884 20.524956 13.958273
57.562885 19.155956 11.9572735
55.354885 12.977957 6.7992706
54.503883 11.207956 5.604271
8.781883 110.73796 27.729275
7.533882 0.17295837 26.360275
64.25989 6.197957 26.729275
63.996883 7.6589556 24.894274
15.264885 86.23496 27.113274
14.157883 86.16196 29.514275
3.7658844 87.41096 33.186275
4.5298843 89.85096 34.023273
49.401882 25.763956 20.407274
50.852882 26.480955 22.174274
55.873882 23.217955 26.003275
58.025883 22.049955 26.877274
38.278885 4.848958 34.263275
40.741886 4.104965 33.917274
41.492886 110.60096 42.205273
42.751884 108.21296 42.267273
29.44288 34.053955 51.447273
27.744883 35.211956 52.795273
24.325882 39.836956 1.333271
26.10688 41.480957 1.4662704
8.964882 64.31496 36.880276
10.3888855 63.749954 35.255276
16.278885 74.05396 36.095272
15.637878 74.343956 38.218273
12.791885 37.596954 50.588272
13.082878 36.132957 52.066273
6.3738785 32.151955 47.74227
4.615883 33.197956 47.911274
24.738884 81.76596 33.622272
23.377884 80.77996 32.074272
23.033882 87.09696 22.240274
21.055885 85.94296 22.109274
4.2658844 35.786957 11.154274
3.0348816 34.052956 10.821274
58.890884 32.855957 3.9032707
59.47188 34.161957 1.5562706
33.396885 38.015957 35.089275
34.827885 40.130955 34.493275
34.965885 49.325954 36.829273
35.578884 50.322956 34.614273
32.919884 92.15796 26.276274
31.742884 91.70896 28.250275
33.066883 95.41296 35.213272
33.696884 96.28596 37.337273
9.970879 49.073956 14.480272
9.212883 47.576954 12.520273
18.059883 50.285957 4.1222725
19.172882 48.754955 4.7682724
46.817883 24.877956 2.9432716
48.823883 22.881956 3.227272
58.447884 20.972956 54.025272
59.759884 18.933956 54.412273
9.346878 69.71696 53.621273
10.683884 71.79896 53.697273
8.559883 78.68996 48.956272
9.584885 80.97196 50.100273
30.22188 67.51896 35.240273
27.495882 67.24296 35.755276
23.198883 75.89896 33.271275
21.574883 77.86996 33.845272
44.420883 36.621956 24.829275
42.452885 36.194958 24.467274
41.355885 28.314955 16.962275
40.948883 29.634956 15.639275
27.557884 7.426956 24.694275
27.416885 9.337956 26.694275
39.615883 7.9569564 30.262276
38.261883 6.110956 31.837275
21.711884 66.414955 0.080272675
21.17588 68.18996 55.481274
14.709885 66.44796 46.629272
13.042885 66.89796 45.095272
27.739885 87.66996 18.591274
27.976885 89.04796 20.407274
34.528885 83.39896 24.925274
34.303883 81.85996 26.519274
49.844883 28.654955 26.717274
50.226883 30.061956 29.069275
48.617886 38.091957 35.505276
47.333885 37.658955 37.594273
39.126884 24.845955 42.262276
40.309883 23.770956 40.744274
31.303885 24.748955 34.105274
31.256884 27.020956 34.209274
20.659882 79.26596 36.273273
22.247879 79.00396 38.141273
15.88488 84.53496 48.259274
14.318878 85.86496 48.849274
62.769882 53.581955 44.497272
60.887882 53.952957 43.688274
57.292885 55.408955 34.483273
57.435883 53.242954 35.073273
61.11788 62.735954 11.626274
59.66788 62.937954 13.528273
49.613884 55.910957 9.84127
47.446884 55.847954 9.195274
8.042885 63.350956 22.367275
8.165878 62.243954 24.435274
2.1188812 70.468956 31.420275
0.29188538 69.48196 32.226273
32.874886 108.18596 55.956272
31.821884 106.33396 55.143272
29.131886 98.44896 4.6862717
28.773884 97.79996 7.135273
10.719879 89.40396 47.91627
11.692879 89.26796 46.074272
16.422882 97.496956 46.97827
15.165878 98.16796 48.920273
46.837883 106.635956 54.743275
45.093884 106.260956 56.584274
49.830883 100.54996 7.289276
49.920883 98.77596 8.386276
21.21888 25.742956 23.697275
20.976883 26.588955 25.599274
11.520882 18.831957 26.056274
9.66288 18.391956 27.690275
42.315884 4.0009565 36.899273
42.633884 6.3149567 37.813274
31.934885 5.5719566 40.798275
32.572884 8.266956 41.196274
26.549883 27.564955 5.6552744
26.408884 28.495956 8.177275
22.741882 25.973955 18.158274
20.99588 24.459955 17.878275
43.755882 106.91996 13.486275
43.186882 108.69796 12.153275
42.442883 3.4669647 17.422274
42.366882 4.1379623 19.715275
20.865883 51.106956 39.401276
20.780884 53.135956 40.478275
21.66288 63.051956 35.169273
21.30088 64.97996 36.093273
62.41788 85.21096 54.260273
62.773884 84.76196 56.19327
56.875885 88.59496 8.207275
57.016884 87.15796 9.626274
7.002884 56.218956 54.509274
9.17688 56.874954 54.02027
4.6808853 65.35496 45.410275
4.4448853 65.539955 47.750275
10.742882 1.8299637 53.329273
10.57988 1.521965 51.273273
10.652885 100.53796 51.195274
10.652885 101.46596 49.14427
35.955883 47.511955 47.82527
34.325886 48.426956 49.059273
34.233883 59.655956 51.275272
36.605885 60.163956 50.336273
55.098885 50.031956 0.5922699
53.171883 50.609955 0.68827057
51.688885 44.618954 10.999275
52.205883 42.460957 10.46627
44.218884 12.363956 11.194275
44.219883 10.992956 9.269272
40.830883 2.5219564 6.9092712
43.087883 2.5319564 6.10627
5.3298798 5.7369585 43.064274
7.917885 4.9659624 42.912273
11.00988 106.26496 45.14527
9.022881 105.56096 45.897274
56.938885 25.585955 11.687271
55.216885 24.500956 10.268272
60.905884 20.380955 0.40327072
62.897884 19.262957 0.9122734
10.961884 111.70096 23.605274
10.136879 1.1589584 25.284275
64.42088 4.9749575 19.213274
0.42588043 6.7509584 17.564274
6.821884 33.953957 43.549274
7.360878 36.253956 44.09627
60.302883 36.541954 41.971275
60.380882 38.093956 40.063274
56.470882 90.47096 28.380276
56.741882 91.99996 29.933275
47.760883 88.926956 26.605274
45.449883 88.20596 27.049274
36.016884 3.5779564 38.194275
34.540886 5.5519567 37.410275
33.286884 17.200956 34.241272
35.565884 18.329956 34.726273
64.49789 70.37296 50.477272
63.487885 72.149956 50.907272
2.7028809 71.63096 40.445274
5.1438828 71.60996 40.273273
2.450882 44.584957 3.2512703
3.0438843 42.545956 1.6722717
7.3108826 33.580956 1.7252731
8.160881 34.671955 2.7242699
9.658882 36.425957 22.769274
10.74688 37.685955 21.684275
14.276878 46.496956 23.568274
15.249878 48.379955 23.124275
46.900883 84.95196 2.1792717
45.842884 85.81996 0.6712723
36.767883 87.31796 7.135273
35.098885 88.27396 5.5662727
56.363884 13.269957 9.843277
57.889885 13.643956 8.23027
0.67787933 15.872956 3.9662704
0.7948837 14.136956 5.581272
61.953884 16.781956 20.838274
61.789883 18.420956 22.178274
54.484882 26.926956 17.938274
52.614883 25.374956 19.046274
64.22888 7.8399563 28.719275
0.6728821 9.023956 27.016273
63.60388 19.031956 34.205273
60.936882 19.803955 34.761272
33.637886 28.182955 9.719276
33.388885 30.068956 9.395271
32.860886 35.182957 56.620274
33.600883 37.431957 0.2002716
53.796883 41.472954 23.734274
53.540882 39.324955 23.469275
43.630882 40.839954 25.670275
43.318882 39.054955 25.243275
46.628883 78.97296 11.4292755
47.963882 77.66296 12.695272
47.118885 73.18596 9.49427
46.228886 73.09696 7.628273
57.729885 59.042957 20.991274
59.622883 59.432957 20.352274
2.436882 50.677956 17.941275
3.9458847 50.336956 19.931274
14.434883 28.672956 21.761274
16.02388 29.389956 22.919275
14.151878 34.694958 33.298275
16.00888 36.032955 33.708275
29.31988 70.89596 44.99227
28.114885 71.73196 46.898273
19.52288 71.12996 51.90827
18.679878 71.85196 53.795273
40.650883 11.385956 19.444275
38.434883 10.182957 19.294275
40.335884 14.425957 30.460276
42.896885 14.759956 31.421274
0.84487915 44.611954 52.459274
2.464882 44.541954 53.733273
62.926884 36.117958 53.815273
62.557884 36.294956 55.720272
15.960884 97.60896 22.489275
15.776878 100.02896 23.418274
11.041885 101.67596 14.0092745
9.14888 102.49496 13.977275
44.483883 54.076954 7.2352753
43.707882 51.835957 7.6332703
36.737885 46.169956 4.3742714
35.957886 44.268955 5.6102715
26.057877 20.036957 43.325275
27.868883 21.391956 42.249275
21.283882 28.042955 36.916275
19.610878 29.399956 36.395275
7.1498795 62.884956 17.702274
7.1568832 62.511955 15.225274
3.9238815 72.79696 16.658274
4.333885 73.78996 19.010275
30.231882 27.192955 46.662273
28.40188 25.504955 45.72127
20.571884 27.742956 39.547276
19.040878 28.867956 40.967274
17.834885 16.810957 22.451275
19.391884 15.082956 21.530273
17.192879 11.466956 10.485274
15.330879 9.774957 10.170275
28.817884 0.6259613 18.844275
31.144884 2.1889648 19.991274
36.036884 111.14796 28.388275
36.392883 108.90396 29.561275
18.184883 1.1049652 18.003275
17.38388 2.8009644 16.333275
7.769882 5.777959 11.640274
7.054878 7.568959 10.244274
28.94388 88.50996 41.978275
27.579882 87.13196 43.151276
18.840881 85.13496 50.542274
18.96888 83.12596 50.799274
57.598885 26.908955 36.717274
55.261883 27.883955 35.328274
55.624886 25.956955 25.443274
53.694885 26.209955 23.311274
54.767883 27.514956 12.034273
52.136883 26.459955 12.044275
49.172882 18.975956 3.4082718
47.138885 19.267956 3.9492722
43.226883 18.952955 45.345272
42.349884 17.020956 44.744274
35.216885 14.990956 51.649273
34.091885 12.743957 52.494274
25.55088 110.96096 3.0552711
24.535881 0.67596436 1.5262718
26.426882 109.35096 47.293274
25.476883 109.87796 45.472275
6.4458847 5.9109564 7.09927
5.372879 7.2469563 8.368271
7.0708847 16.474957 13.724272
6.4338837 14.473956 15.527273
50.750885 12.772957 34.003273
50.935883 12.361957 36.116272
53.894882 18.964956 42.176273
55.655884 17.320955 42.465275
40.921883 38.840954 8.012276
38.517883 38.652954 7.862274
38.394886 29.173956 15.0562725
37.216885 27.954956 13.962275
41.608883 58.767956 13.834274
43.360886 57.749954 13.047275
43.915882 59.631954 22.901274
41.981884 59.312954 24.285275
30.676884 87.843956 33.731274
29.130884 86.54196 33.741272
24.683884 77.82696 40.077274
25.138884 78.17896 41.988274
36.854885 58.951954 36.856274
36.709885 57.070957 37.283276
36.169884 52.348957 45.268272
35.597885 50.695957 43.514275
29.448885 5.3149614 39.462273
28.501884 5.31796 37.824272
27.370884 4.143959 26.631275
26.385885 5.6949587 27.044275
48.045883 25.382956 16.977274
50.497883 24.253956 16.997274
53.238884 13.769957 12.893274
51.391884 13.801956 11.096274
1.1718826 0.8269565 40.151276
0.5708847 2.2719564 41.138275
1.2488785 10.8499565 41.109272
64.25688 12.494956 40.887276
33.105885 46.044956 51.633274
34.370884 48.126957 51.773273
37.528885 55.084957 55.796272
38.169884 56.645954 53.986275
22.045883 88.67896 18.328274
23.492882 89.62996 20.247274
19.255882 96.93396 26.587275
17.653885 97.93196 27.062275
33.026886 85.98696 52.92327
31.129885 85.06196 52.072273
31.380884 77.03496 45.40927
29.730885 76.04596 43.743275
63.532883 9.4749565 3.878273
63.869884 8.202956 1.8032722
59.185883 1.9499564 53.008274
58.144882 0.43295646 53.979275
13.289879 57.353954 41.153275
13.903885 56.628956 42.639275
17.182884 58.983955 53.93727
17.714882 57.024956 54.968273
63.78588 89.49496 33.386272
62.828884 88.16496 32.272274
59.156883 82.07696 22.890274
60.323883 83.23096 21.151274
21.09288 104.38696 13.972273
20.104881 103.29996 11.940275
8.921883 102.18696 11.265274
7.8168793 103.25096 9.111275
6.0928802 30.506956 2.887272
6.00988 32.564957 3.8942719
60.07688 31.353956 0.56427
58.066883 31.643955 1.3232727
43.692883 65.67096 10.673271
44.860886 64.43296 12.376272
54.801884 69.08696 9.222275
56.049885 71.13696 9.003273
4.464882 47.533955 10.56427
7.127884 47.462955 10.73127
16.74688 44.659954 8.892273
18.254883 45.287956 7.4382706
50.184883 40.857956 54.94327
50.075882 39.675957 0.44027328
38.302883 40.618954 4.4242706
38.300884 41.464954 6.70327
51.001884 65.50196 50.768272
51.385883 63.867954 52.466274
57.014885 68.41696 55.01927
59.081882 69.18996 53.691273
44.468884 68.524956 23.507275
46.572884 68.50196 22.195274
47.875885 60.738956 14.439275
48.759884 59.022957 14.117274
13.796883 4.9359565 42.442272
16.43988 4.0879564 41.928272
23.074883 6.2709565 41.304276
23.574883 8.0669565 40.547276
17.817879 36.024956 6.698274
16.110878 35.563957 7.9662743
17.03888 25.551956 14.779275
18.06488 26.264956 17.101274
51.098885 99.70696 10.666275
52.742886 100.94696 8.928276
52.872883 109.22396 8.918274
54.314884 110.56896 8.565277
43.287884 53.481956 42.135273
45.389885 53.340954 41.870274
45.341885 46.368954 31.314276
43.028885 46.012955 30.870275
28.780884 89.16896 51.924274
29.538885 87.27796 52.29827
30.883884 81.61796 1.6812706
31.409885 81.72496 3.6582718
43.551884 89.05396 46.517273
41.971886 89.62696 48.306274
32.804886 93.83596 50.856274
32.258884 95.62496 50.079273
63.818882 69.29296 36.185272
62.057884 68.123955 36.075275
2.2638855 66.36796 44.341274
1.113884 65.61896 46.411274
31.182884 39.203957 34.479275
31.502884 40.782955 32.445274
24.599884 46.752956 25.810274
25.646885 48.701954 26.046274
49.201885 105.92396 46.01927
48.820885 105.89596 43.955273
44.708885 5.0339556 45.590275
46.502884 6.6199617 45.33227
16.13388 103.00496 21.755274
17.32988 101.37996 21.075274
11.694885 107.45096 15.361275
11.629883 106.14096 13.663275
49.943882 94.95296 6.274273
49.735886 96.03596 7.7922745
44.058884 92.69696 14.109274
42.820885 93.98396 14.569273
19.793884 28.967955 8.187271
18.63388 27.560955 6.729271
9.285881 30.751955 3.3082733
9.970879 32.890957 1.93927
28.646885 59.765957 6.795273
30.107885 57.950954 6.31427
36.480885 52.428955 4.0062714
36.440884 50.639957 2.0012703
2.1408844 36.774956 12.967275
0.91287994 37.406956 15.274275
62.608883 40.394955 22.052275
61.730885 41.632954 23.769274
5.60688 100.56896 49.042274
3.627884 100.90096 49.043274
58.517883 96.54396 44.12427
57.927883 97.232956 42.234272
48.068882 39.277954 9.553276
48.606884 39.704956 7.1262703
52.399883 42.258957 55.559273
53.357883 40.066956 55.51327
58.746883 16.491957 14.9762745
59.22288 16.390957 12.122274
4.841881 18.220957 7.014271
3.8628845 19.169956 4.843273
57.019882 51.709957 2.4482727
55.032883 52.440956 1.642273
47.042885 55.545956 6.5012703
47.365883 53.650955 7.067272
2.1318817 108.79096 19.338274
0.3208847 107.07396 19.825275
57.643883 1.245964 12.874274
57.078884 3.3489609 12.708275
1.4698792 72.80496 30.159275
63.892883 72.76996 30.888275
5.9418793 80.33196 34.220272
6.458885 82.43996 34.694275
40.742886 20.623955 26.771275
39.001884 20.585955 25.511274
39.254883 29.290955 18.806274
37.099884 30.398956 17.378275
35.168884 53.749954 34.924274
34.315884 55.279957 36.442272
23.262884 53.489956 40.157272
23.310884 50.649956 40.007275
39.130886 93.26696 18.590275
39.858883 91.93396 16.974274
42.738884 89.83796 27.209274
44.014885 91.16196 27.418274
25.98088 77.60396 7.6432724
26.69488 79.53096 6.52227
17.099884 81.426956 5.7092705
15.042885 81.99396 5.79327
3.4988785 67.76896 46.889275
2.9958801 68.788956 48.611275
8.485878 71.61796 55.43627
6.7348785 70.77196 56.42227
40.992886 88.72896 43.231274
40.117886 88.39296 41.168274
41.519886 80.98896 34.103275
43.855885 80.29496 33.307274
20.004883 52.017956 48.702274
20.546883 52.740955 46.903275
19.521881 60.460957 54.879272
18.478882 62.082954 54.840275
11.93988 76.70396 35.013275
11.418884 76.079956 32.655273
9.750885 65.10396 29.291275
10.644882 65.55996 27.280273
62.97988 45.016956 37.856274
64.237885 43.599957 37.252274
3.4178848 35.093956 30.032274
3.700882 35.882957 27.825274
23.460884 97.66196 3.9752731
22.985884 97.66996 1.5302734
31.223885 93.73496 53.989273
32.231884 95.58496 53.773273
28.029879 63.095955 44.549274
27.676882 61.862957 46.759274
23.20388 52.892956 50.14427
22.74488 50.923954 48.441273
58.111885 46.265957 1.5392723
57.796883 44.160957 0.7452698
52.382885 36.830956 5.442272
51.145885 37.016956 3.531273
2.2308807 7.8919563 2.104271
3.3388824 6.433956 56.649273
4.6918793 12.687957 47.141273
2.5538788 12.5669565 46.399273
38.246883 88.982956 44.508274
38.132885 90.55796 45.591274
30.184885 93.51296 47.671272
29.638885 94.22996 49.95127
58.886883 60.281956 0.48927307
57.585884 58.718956 2.1732712
50.540882 65.09096 54.709274
49.086884 65.888954 52.893272
49.274883 1.2749565 9.823273
50.360886 1.8739564 7.996277
58.027885 6.1179566 7.5022736
59.720882 4.3789563 8.284271
60.90988 64.610954 9.733276
62.303883 63.495956 9.190277
3.8338852 67.46196 2.220272
4.9048843 68.47296 0.87527084
57.291885 57.729954 28.046274
58.823883 57.870956 27.161274
56.297882 57.178955 16.831274
58.822884 57.668957 16.208275
42.102882 79.13796 24.628275
42.698883 79.43196 26.884274
50.605885 84.40896 29.316275
52.473885 84.23096 30.142275
52.603886 96.03496 30.259275
50.313885 96.24796 29.262276
41.361885 98.58796 26.338274
41.000885 98.63396 24.115274
53.937885 25.090956 14.185274
53.196884 24.385956 16.525274
58.544884 20.004955 24.892275
57.413883 17.743956 26.009274
42.149883 30.450956 52.611275
40.474884 29.901955 53.266273
40.165886 18.838957 54.04127
38.392883 17.417955 54.106274
62.52888 33.194958 12.839273
63.12588 30.941956 12.420275
7.6198807 30.453955 5.420273
8.798882 28.694956 6.880272
54.212883 59.650955 34.923275
54.746883 61.350956 36.432274
59.817883 66.56496 37.781273
59.300884 68.93196 38.605274
52.514885 109.80496 19.314274
51.913883 0.2619629 18.861275
44.090885 5.9909563 15.901275
42.841885 6.346959 17.815275
60.712883 36.168957 14.3842745
57.977882 36.385956 14.680274
50.800884 43.382954 15.993275
49.245884 41.640957 16.383274
14.686882 44.248955 34.138275
12.918884 45.404957 34.069275
14.451881 54.729954 36.008274
16.71988 53.137955 36.960274
13.87088 2.5449564 50.967274
13.046883 3.4799564 52.605274
15.947884 8.030956 4.7522697
14.435883 8.388956 6.1032715
41.141884 30.386955 25.451275
41.518883 28.946955 27.560274
40.404884 19.301956 32.734272
38.522884 18.870956 31.460276
10.910881 49.095955 23.707273
12.252884 48.099957 22.708275
15.645882 45.772957 12.834274
16.505882 44.784954 14.458275
21.220879 57.924957 15.7262745
19.33088 57.978954 16.627275
14.548882 51.568954 22.654274
13.399879 50.541954 24.535275
48.613884 29.549955 53.37427
46.143883 30.500956 53.44327
41.604885 37.883957 46.724274
43.369884 40.264957 46.981274
1.1558838 63.810955 18.014275
0.59288025 63.225956 20.400274
5.8838806 71.70796 26.157274
6.6878815 70.02796 27.304274
42.174885 95.74896 55.10327
43.247883 97.10496 0.21227264
42.905884 102.93596 54.281273
41.715885 101.03996 53.362274
19.31388 83.18696 20.306274
17.363884 83.24596 19.839275
12.156883 80.48996 9.019275
11.046883 81.79996 7.3282743
25.473885 57.814957 13.616275
24.681885 58.377956 15.888274
20.683884 52.681957 25.281275
21.090881 50.556957 24.805275
61.634884 80.92296 56.768272
61.74288 79.74896 54.330273
5.2238846 74.41696 0.96427155
4.2308807 74.72096 3.0592728
55.403885 26.977955 39.895275
56.110886 25.090956 38.474274
45.822884 22.410955 39.726273
44.408882 23.801956 39.920273
26.005882 6.3589563 8.5802765
24.974884 7.8649564 7.118271
22.01088 18.133957 11.138275
19.33088 19.155956 11.430275
29.577885 78.14796 6.586274
31.263884 76.84796 7.4432745
34.426884 74.49096 18.373274
36.641884 73.92496 18.037275
32.962883 75.73896 41.042274
32.227886 77.32496 40.068275
39.030884 80.42096 35.532272
38.960884 78.538956 34.863274
0.985878 19.447956 2.6312714
0.7448807 21.259956 1.07827
63.705883 28.974955 54.640274
62.863884 26.870956 54.82627
62.165882 75.94896 26.055275
60.255882 76.22196 26.181274
63.884884 70.65596 24.702274
64.07989 70.22796 27.225275
45.316883 84.02996 51.031273
43.390884 84.25096 51.140274
35.858883 76.50196 48.775272
34.121883 75.98696 49.122272
43.532883 72.28296 20.834274
41.523884 71.18296 21.520275
36.102882 64.79796 27.596273
35.835884 62.690956 27.175274
54.031883 102.79696 22.181274
51.754883 103.16896 22.607275
54.021885 108.29296 32.657272
53.878883 106.427956 33.696274
61.620884 10.652956 5.906273
60.009884 11.649957 4.1382713
52.842884 17.061956 0.065273285
51.024883 17.226955 0.253273
12.570885 37.489956 46.841274
12.399879 38.948956 45.14427
16.070885 34.72896 36.111275
14.5138855 33.701958 37.336273
33.354885 101.46796 38.338272
33.336884 99.024956 38.576275
25.256884 93.00096 41.858273
26.910885 91.49096 40.802273
8.494881 54.153957 55.00627
10.299881 53.046955 53.911274
11.546883 40.987957 54.132275
12.587883 40.920956 51.69427
55.028885 59.354954 23.481274
54.738884 57.488956 21.956274
47.049885 60.297955 29.341274
48.625885 62.718956 30.297276
34.649883 82.36096 39.118275
36.308884 80.91896 40.182274
33.538883 91.02296 40.718273
34.562885 92.64096 42.225273
1.3698807 10.800957 3.562271
0.14588165 11.535956 5.3152733
5.2828827 7.6949563 14.890272
4.0408783 7.3769565 16.457273
64.376884 20.001957 30.377275
1.2438812 19.357956 32.576275
7.502884 20.282955 38.819275
9.264885 20.810955 37.517273
57.928883 51.823956 41.531273
56.075882 52.246956 42.374275
54.416885 63.068954 41.986275
55.314884 64.56196 40.403275
52.913883 58.217957 36.889275
51.892883 60.336956 36.561275
41.697884 64.58796 40.892273
43.251884 65.98896 41.770275
56.105885 88.74096 45.361275
55.423885 86.87696 43.347275
55.043884 79.65496 35.298275
54.607883 77.68196 35.732273
63.829884 60.517956 20.498274
1.1558838 60.834957 21.094275
62.774883 58.377956 26.148273
61.144882 57.247955 27.796274
47.725883 74.51996 16.421274
49.387882 75.71996 14.581274
54.448883 82.05096 19.680275
55.197884 81.88996 21.450274
47.272884 13.482957 5.579273
46.552883 15.466956 7.309273
45.487885 24.308956 11.446274
47.485886 25.864956 11.196274
61.766884 45.857956 21.793274
64.42689 45.351955 21.705275
62.988884 35.659958 23.549274
60.84688 36.762955 24.740274
50.319885 15.203957 54.616272
50.263885 13.657956 52.69327
39.737885 12.292956 51.231274
37.714886 13.719956 50.982273
64.01089 104.78796 27.104275
0.58888245 105.64096 28.882275
58.023884 106.44396 25.712275
57.458885 104.21996 25.736275
62.99288 95.93896 37.951275
61.365883 94.25296 37.483273
50.904884 99.59496 36.110275
49.349884 98.35696 35.976273
8.409882 98.67996 14.042274
6.063881 98.73796 12.870275
63.557884 92.01396 17.654274
63.359882 90.232956 18.547274
20.85888 68.82396 19.957273
18.636879 69.15396 21.351274
17.035881 64.277954 12.298274
17.320885 65.26696 9.999274
21.64888 71.21296 10.440277
23.085884 70.82496 8.63327
19.96688 61.360954 9.121277
18.583885 63.009956 9.610275
20.09188 69.49996 0.5352707
17.963882 68.34296 0.9692726
12.7868805 65.69696 9.625275
10.767883 64.73996 9.552277
43.425884 17.478956 26.571274
44.164883 15.721956 27.308275
43.349884 3.9659564 28.786274
42.039883 4.2409563 30.557276
4.799881 75.43796 15.997274
4.049881 76.427956 17.985275
10.309883 81.48096 17.777275
8.527885 82.57096 16.635275
38.326885 18.198956 34.547276
38.152885 16.198956 32.861275
49.189884 10.728956 37.388275
48.978886 8.546956 36.185272
27.337885 105.038956 32.475273
26.72088 102.99996 33.779274
22.668884 97.05496 26.979275
22.08088 95.29996 25.977274
28.611885 108.19796 2.0352707
27.955885 108.50296 56.418274
31.338884 103.22896 52.911274
31.957884 101.44396 52.90127
0.5088806 99.29996 7.775276
0.5788803 97.84696 6.017273
56.439884 92.13896 6.6342735
54.755882 92.86996 8.243271
4.450882 2.8669586 33.754272
4.4448853 1.4039612 35.396275
1.0938797 104.68896 34.004272
1.0418854 104.76896 31.650274
13.008881 50.210957 20.223274
