8.071335 77.5526 49.552216
67.46333 80.2876 46.66422
67.98134 79.3636 48.946217
11.375336 2.4196014 45.645218
12.057335 4.0686035 46.874218
10.39534 97.3406 58.162216
10.0423355 95.7536 59.016216
38.469337 21.225601 10.264217
37.679337 21.395607 12.5522175
45.818336 25.166603 19.673218
44.697334 25.134605 21.154217
43.243336 27.0296 43.28222
44.270336 28.581602 43.56822
52.321335 21.943604 48.312218
52.906334 21.303604 46.503216
19.647339 42.8876 42.725216
18.758339 43.8936 44.204216
9.620338 40.307602 47.167217
9.652336 40.7286 49.402218
19.307335 69.7566 28.728218
18.70034 71.6896 29.936216
15.901337 64.3206 35.83222
16.571335 62.288597 34.793217
45.678337 58.6686 46.246216
47.816334 59.4806 47.410217
55.538334 56.0636 50.152218
57.005337 55.5516 48.285217
24.278336 42.8946 46.22722
21.72934 44.2386 45.819218
24.304337 54.6686 48.94222
22.856339 56.564598 49.31822
10.844337 92.817604 44.006218
10.328339 90.5426 43.202217
10.928337 91.0626 32.295216
12.1933365 92.565605 31.040216
28.766335 69.1896 53.524216
27.351334 68.3536 52.50422
29.713333 57.6366 53.91522
30.814339 58.6106 52.36522
44.674335 22.718605 41.01122
46.205334 23.425606 42.38622
47.150337 21.3796 52.634216
47.959335 23.3666 53.42822
16.711334 69.2406 27.863216
15.239334 71.1886 28.688217
8.07634 64.816605 20.459217
9.113335 63.2236 20.830217
0.060333252 51.8836 28.300217
0.44033813 53.6256 30.063217
63.471336 45.6956 32.133217
63.433334 44.2096 33.864216
46.581337 55.4096 34.705215
46.433334 53.3516 34.959217
48.474335 45.8706 31.479218
47.378334 44.1636 31.171217
47.991337 40.2296 26.689217
46.770336 40.0946 24.573217
53.158337 38.9156 23.042217
55.022335 38.3566 21.045218
12.78434 55.5416 56.418217
10.615334 54.7216 55.412216
8.445335 43.0976 57.689217
8.396339 44.0576 59.552216
26.692337 20.905602 42.62222
28.042336 20.012604 41.260216
33.323334 13.700607 35.648216
31.851334 12.995605 36.11622
17.809334 55.8206 46.556217
18.72734 55.0426 44.868217
15.78334 64.2816 39.978218
16.190338 65.5046 41.34622
4.123337 55.5086 22.758217
2.2073364 56.9216 22.555218
67.75834 52.6986 16.026217
0.21033478 51.7096 14.338217
62.087334 78.5356 60.180218
62.580334 80.1796 59.249218
4.5373383 85.4356 58.056217
3.9233398 84.5166 56.07422
64.473335 23.787605 52.440216
63.240334 24.998604 51.327217
67.10133 17.788605 44.548218
0.5343399 17.279602 42.680218
3.4523392 94.8676 15.671217
2.378334 96.1046 13.856217
1.4023361 90.1186 4.381217
3.3633347 90.4816 2.960217
51.129333 57.0386 21.099216
48.988335 56.6216 21.877216
42.556335 52.2826 26.314217
40.936337 53.0886 27.071217
57.342335 53.8266 24.116217
56.690334 54.7216 25.763218
58.567333 57.1886 37.048218
59.650333 59.0086 36.42222
63.159336 30.5676 48.62322
63.511333 32.5646 48.64322
62.370335 33.1606 60.528217
63.462334 31.8786 61.726215
41.870335 96.2926 48.357216
44.483334 96.3636 47.496216
40.881336 8.861603 49.112217
39.317337 7.503601 48.82422
2.567337 68.344604 23.499218
4.8303375 68.1886 22.984217
3.7253342 76.1746 32.314217
3.9353333 78.3686 31.172216
23.310333 30.4906 3.3412168
22.610336 30.489601 1.3842201
33.715332 28.8416 58.493217
35.086334 30.0026 60.309216
21.494339 7.557602 2.2612188
19.913338 8.918602 2.3332174
8.572334 7.4196014 2.1972196
8.296333 9.504601 1.4622192
40.926334 28.6686 61.71322
37.999336 29.3506 61.363216
37.978336 21.739601 1.7602196
38.906334 20.164604 1.7392197
55.629333 24.6686 37.848217
55.811337 24.1696 39.92922
56.800335 26.1686 46.67122
55.488335 25.041601 48.849216
15.425339 67.0326 36.041218
16.471336 66.5796 38.350216
24.976334 75.5626 39.266216
27.128334 74.0866 39.56722
31.811335 54.0936 38.558216
33.937336 55.9376 38.035217
44.024334 52.2666 35.659218
45.500336 51.5686 36.70622
47.229336 97.383606 33.750217
46.143337 95.7126 34.828217
54.904335 3.708603 35.583218
52.468334 4.1696014 35.60922
38.267334 64.4626 27.132217
38.736336 62.913597 25.631218
34.008335 51.6246 26.822218
35.457336 50.9786 27.791218
1.291336 26.261604 33.284218
1.5423355 26.117607 31.492218
6.72834 17.244606 26.274218
5.0943375 16.634605 27.605217
1.7013397 31.3776 2.4652174
67.515335 31.017601 2.4972188
60.379333 29.7696 58.87922
60.783337 31.0676 60.890217
18.669334 10.959602 59.073215
20.308334 12.1326065 57.507217
25.245338 8.859604 5.8932147
23.810333 10.808601 6.9222217
56.409336 37.3226 18.296217
56.781334 34.8366 18.499218
55.911335 26.4716 22.295218
56.577335 25.7126 20.292217
30.040335 18.377602 24.980217
31.630335 19.710602 25.385218
40.192337 20.620605 25.818216
41.491337 22.443604 27.119217
52.868336 69.9716 17.040216
52.037334 71.7406 16.081217
40.860336 70.3216 16.154217
39.921337 71.1946 17.858217
48.398335 90.718605 46.076218
49.874336 92.4866 46.111217
60.993336 91.884605 48.961216
60.755337 94.081604 49.57422
37.314335 67.5986 34.023216
37.524334 68.1846 31.709217
39.827335 71.497604 28.115217
38.943336 73.4596 27.332218
55.748333 24.612602 52.883217
57.670334 24.223602 51.654217
53.043335 25.075607 58.618217
52.158337 26.643599 57.870216
46.484337 11.009605 1.4462166
48.034336 11.081604 61.739216
50.471336 17.704605 3.3102186
51.659336 18.1566 1.3102188
14.241341 88.7176 30.980217
13.569336 90.0276 29.557217
22.64534 95.7256 22.952217
21.832336 97.5176 23.626217
51.579334 47.3086 60.77622
51.530334 49.1986 59.482216
46.328335 51.0416 50.698215
47.361336 50.8026 49.103218
6.5023346 78.6266 27.129217
6.682335 80.5976 28.185217
2.7193375 90.1436 28.636217
4.3113403 90.1876 29.813217
31.452335 92.6846 21.762217
32.948334 90.6536 20.610218
36.454334 92.345604 11.206217
37.976337 93.0296 12.3282175
58.005337 42.2606 10.949217
59.827335 40.9996 10.793218
0.68533325 37.4706 5.6552167
0.58834076 37.6886 2.785217
8.213341 39.0396 36.182217
7.9903336 37.057602 37.513218
0.6933365 38.2006 46.521217
1.3713379 39.6116 48.350216
39.172337 73.9716 37.801216
40.158337 71.9746 38.087215
41.112335 67.4856 47.58122
41.032337 67.1386 49.521217
29.835335 57.2236 18.816217
29.810333 57.4806 21.150217
21.378334 53.7886 26.489218
21.89534 50.7066 27.346218
31.818335 11.151604 34.027218
32.932335 10.379601 32.112217
36.167336 15.728607 21.137217
34.736336 14.726601 19.105217
64.001335 27.1146 11.3612175
63.956333 26.623602 13.4862175
55.381336 19.0456 13.9272175
56.320335 16.951607 12.967217
53.960335 58.7576 8.803217
54.284336 57.4106 10.756217
49.948334 49.4786 12.590218
48.081337 49.3946 14.370217
22.59034 57.0846 20.318216
24.393333 57.4986 21.660217
21.945335 58.2536 30.430218
21.580338 56.1816 31.036217
16.110336 77.859604 60.02622
17.692337 77.0306 61.371216
20.302338 68.0896 2.8192174
18.862335 65.9356 2.7692182
49.740334 52.6246 16.617216
50.688335 54.3876 16.569218
60.333336 56.9006 16.448217
60.745335 59.4186 15.605217
10.796333 49.3236 35.010216
11.208336 51.2606 35.988216
20.056335 52.0906 28.952217
19.374336 52.1086 26.902218
0.33533478 22.751602 20.182217
66.77334 21.5606 19.157217
62.185333 18.222603 20.041218
63.818336 16.761604 19.520218
21.525337 12.360603 10.742217
22.815338 13.715607 11.186217
20.295334 15.9696045 -0.21978308
20.28334 17.983604 -0.25078297
30.260338 21.069603 -1.099783
29.641335 20.8806 1.1222169
35.403336 22.1576 11.293218
35.559334 24.132607 10.891217
57.822334 9.539604 32.918217
58.998333 11.8826065 32.751217
63.876335 15.946602 26.650217
65.36934 15.870605 24.154217
53.899334 80.8786 12.890217
55.391335 82.3206 12.338217
63.361336 82.9026 21.754217
61.498333 83.7636 23.159218
12.331337 68.9306 38.807217
11.932335 68.7406 36.969215
7.0613403 76.7016 32.610218
7.045334 78.719604 31.030218
67.92834 52.3626 23.391216
1.6903381 54.0706 24.074217
61.308334 55.8616 32.660217
62.337334 56.5426 34.335217
32.600334 48.453598 18.977217
33.747334 47.0266 19.936216
37.735336 40.9366 19.291218
36.523335 39.6786 18.504217
21.175339 60.0406 43.848217
21.97834 62.5916 44.048218
19.89634 60.586597 31.673218
18.16034 61.939598 31.919218
45.645336 23.161606 30.086218
43.417336 24.104607 30.002216
33.261337 25.841606 28.297216
33.225334 27.045599 26.301218
24.917336 67.1466 58.881218
26.559334 65.4086 59.329216
26.859337 58.3706 0.3972168
28.511337 59.0286 1.5902176
30.205338 15.210602 7.824217
30.455338 17.468605 6.7672167
33.310333 25.239601 9.769217
34.170334 26.684599 8.459217
5.378334 58.0696 7.0112166
5.7173386 56.3346 6.121217
63.301334 57.4626 -0.30978298
63.874336 58.9146 -1.542783
60.596336 74.4216 0.42021942
61.495335 76.8016 0.49421692
53.908337 84.7246 3.5692174
53.028336 85.6286 1.5722198
29.774338 94.998604 58.037216
30.711334 95.716606 59.64422
34.510338 89.108604 5.9402194
34.590332 89.8486 8.166218
0.36533356 59.8136 49.106216
1.7843399 61.2306 47.51122
2.0783386 50.7576 43.466217
3.3743362 49.5946 41.392216
21.564339 54.1906 45.049217
20.84134 54.3076 43.023216
23.431335 57.5726 33.867218
25.559334 57.3876 33.907215
43.952335 51.2516 10.515217
42.742336 50.9516 8.078217
51.668335 45.7236 6.111217
52.582336 44.7346 7.605217
14.932335 17.697601 25.256218
13.747337 17.974602 27.102217
9.892334 28.372602 20.197218
12.017334 28.4896 19.022217
47.869335 91.5896 5.6552167
47.289337 91.8326 7.850217
52.774334 81.9466 10.353217
53.707336 83.1546 8.853217
55.940334 80.1036 27.900217
54.516335 81.0576 26.555218
54.089336 86.719604 18.113216
53.592335 88.2166 20.202217
54.513336 36.0916 7.297217
53.723335 34.7596 9.086217
56.642334 24.1296 9.941217
55.100334 23.4346 11.745217
17.664337 93.8766 41.827217
19.29934 94.2266 39.543217
12.38134 5.847603 44.285217
10.498337 4.031601 43.683216
18.975334 41.0636 40.620216
17.351334 39.5886 40.577217
20.918335 37.4936 28.736217
18.833336 36.8476 28.625217
46.205334 71.2186 33.402218
48.147335 71.3016 33.889217
47.458336 68.5456 45.354218
47.161335 70.831604 46.01122
31.389336 2.7516022 44.687218
31.240334 1.720604 47.097218
28.469337 94.8946 41.110218
27.865334 96.453606 42.25422
41.198334 42.4166 21.412218
41.563335 41.5936 23.429216
31.872335 46.9216 29.232218
32.114334 49.2326 28.517218
25.069336 31.785604 10.2032175
26.64434 30.908598 8.919217
23.625336 20.591606 10.055217
23.778336 18.384605 11.2362175
59.258335 56.2946 1.700217
61.063335 56.0316 3.512217
57.169334 58.3406 10.393217
57.201336 56.2696 11.813217
9.160339 86.3496 0.320217
8.565338 84.1006 0.11321687
10.262337 76.192604 6.7562165
11.088341 74.3996 7.0902166
54.099335 42.9686 47.433216
54.623333 41.640602 45.600216
65.95434 41.036602 43.20022
66.92233 43.2676 41.883217
15.564339 90.9066 2.8412168
17.29834 89.9266 3.72422
18.49234 80.3626 0.78621674
16.161339 79.0156 0.598217
67.34634 45.3266 15.022217
65.48334 44.9426 13.874217
58.424335 41.0266 22.139217
56.547337 40.5996 21.228218
26.60434 70.5996 51.049217
25.779335 68.6706 50.38722
15.082336 67.5746 47.78322
15.43634 65.2646 48.272217
47.310337 88.8416 43.70622
47.537334 87.6876 42.140217
49.428333 94.5976 44.371216
51.785336 94.6396 43.62222
42.249336 79.997604 26.948217
42.157337 79.0786 24.998217
51.464336 74.0236 20.638218
51.686337 74.830605 18.565218
42.947334 20.592606 48.881218
43.509335 18.723602 49.40122
38.601337 10.535606 45.738216
38.240337 8.571602 43.591217
30.603333 6.6856003 44.779217
29.407333 4.744606 44.196217
22.95034 4.135605 39.79022
21.512337 2.5246048 39.735218
34.330334 19.475601 31.640217
34.259335 20.398605 33.704216
44.476334 25.211601 35.336216
45.873337 25.558601 33.894215
24.998337 31.1816 24.694218
23.467339 32.7256 24.334217
16.57734 37.6486 25.182217
16.583336 40.3256 24.783216
65.60934 40.8936 3.187217
64.265335 42.6506 2.9162169
53.694336 41.994602 8.502217
53.691334 39.7476 7.6022167
23.016335 32.8156 28.601217
24.732338 34.3796 28.981216
28.33934 33.2086 40.009216
29.418335 34.2876 38.35922
39.613335 68.1896 19.792217
37.715336 70.0546 19.047216
35.405334 63.5356 25.541218
34.065334 62.7766 24.384216
22.790337 51.0186 43.65822
21.751335 51.1466 45.618217
30.210335 54.7656 53.648216
32.486336 54.8386 52.634216
66.097336 69.4796 41.24822
0.13633728 69.1726 40.645218
2.8533401 60.906597 35.177216
0.91233826 60.725597 36.431217
45.607334 80.4196 3.106217
45.284336 79.9736 0.35121703
47.133335 70.6136 6.566217
49.090336 70.4676 6.759217
58.984333 24.883606 49.24122
61.048336 25.8116 48.169216
61.202335 21.901604 39.411217
60.657333 23.945602 38.383217
50.343334 19.636604 15.372217
49.627335 20.748604 17.210217
52.384335 13.791603 25.033216
52.674335 15.242607 27.010218
7.156334 31.9126 43.404217
7.0333405 30.0746 41.982216
16.319336 33.9576 42.398216
17.429337 36.1396 42.877216
20.606339 84.7576 11.143217
18.940338 83.941605 9.425217
13.788338 90.6376 5.1692166
12.500336 92.414604 4.762217
10.338341 48.6766 25.391216
12.196335 48.8406 24.687218
4.3443375 49.828598 21.214218
3.6733398 50.3966 23.478218
57.599335 53.6296 11.365217
59.214336 52.4826 10.720217
57.347336 51.4736 22.500217
56.137337 49.2676 21.101217
48.303337 25.8686 20.875217
49.886333 26.0116 22.737217
43.470337 35.4006 20.696217
42.021336 36.6496 21.899218
41.797337 80.6296 6.1882167
42.458336 83.317604 5.9582167
52.079334 79.8976 8.692217
53.624336 78.9576 10.275217
43.290337 78.7976 9.102217
43.414337 76.9156 10.7952175
37.211334 77.6886 5.203217
38.284336 79.1286 3.918217
42.197334 7.819603 23.391216
42.051334 6.918602 21.158216
49.972336 3.9736023 27.744217
52.269337 4.0236053 28.980217
58.838333 71.1656 61.667217
56.858334 72.7606 60.751217
52.985336 72.1196 50.108215
55.582336 73.7606 50.70722
60.956333 26.2366 36.677216
58.922337 27.3606 37.65022
51.911335 35.876602 40.79622
50.834335 37.2066 39.170216
21.13234 74.0216 6.2272167
21.236336 73.9546 4.3072166
10.796333 66.6776 2.390217
10.45034 68.0606 4.350217
9.323334 31.4736 3.616217
10.772339 31.7736 4.915217
12.430336 42.1726 8.728217
14.593338 41.869602 8.175217
8.5423355 31.8426 60.697216
10.357338 33.1306 60.340218
10.995338 43.8766 59.11622
13.213341 44.6096 59.249218
27.600334 67.066605 10.734218
26.448334 65.2946 9.347217
18.251335 64.8816 20.177217
16.815338 66.5266 18.746218
64.572334 83.7696 38.125217
66.25633 84.2666 39.689217
60.913334 87.1846 38.42122
62.865334 87.858604 38.58822
48.355335 86.2396 30.114218
48.540337 88.1256 31.684217
43.237335 82.0066 38.994217
43.276337 80.0276 40.19222
34.514336 75.8436 15.833218
32.401337 77.220604 15.922217
33.077335 80.2456 27.849216
35.746334 80.7096 27.982218
16.290337 44.5666 56.27522
14.56134 42.6676 56.556217
14.71434 31.5846 53.124218
16.473335 30.4246 53.983215
44.488335 44.7976 24.566217
45.993336 42.8686 24.001217
50.341335 41.668602 19.627216
52.194336 40.2976 20.170218
2.9393387 5.5056 34.779217
2.6433334 7.8186035 34.81822
0.6893387 18.878601 37.802216
67.24934 18.327606 39.613216
14.088341 21.711601 47.203217
12.977341 21.050606 44.919216
21.665337 19.905602 43.446217
21.362335 18.4346 44.50522
17.096336 79.7966 51.985218
17.376335 81.5136 52.712215
16.095337 81.3646 44.29722
17.306335 82.2326 42.786217
40.089336 49.6516 8.791217
40.465336 50.939598 7.2142167
32.694336 43.8056 0.888217
34.618336 43.5386 -0.6337831
57.879333 29.1126 60.795216
56.344334 30.7636 60.399216
61.652336 27.1546 51.513218
63.313335 27.6956 52.28322
38.481335 69.8916 34.383217
39.285336 71.8026 34.932217
29.128336 71.275604 31.485218
27.986336 71.3576 33.391216
6.6743393 33.9436 51.04022
5.5143356 33.4136 49.719215
67.668335 37.6056 49.31722
0.18634033 35.8386 47.903217
38.751335 79.1196 30.977217
36.853336 78.7446 31.836218
28.096336 76.4596 37.42122
27.136335 74.6476 36.569218
66.90034 73.6816 39.82522
66.21333 73.525604 42.117218
3.758339 85.5106 40.286217
3.2523346 86.2736 42.121216
24.655334 43.3026 58.542217
22.481339 43.9916 57.066216
24.189339 54.4626 54.066216
23.234337 56.5396 54.473217
18.433334 79.2086 47.723217
16.947334 77.9686 47.765217
8.796333 83.7546 42.05422
10.96434 84.4196 41.493217
32.920334 20.9226 27.436216
32.504337 18.666603 27.943216
44.448334 18.665604 33.077217
44.341335 16.858604 34.251217
56.788334 9.988602 50.42822
55.207336 8.793602 49.82422
60.091335 96.480606 48.558216
62.367336 96.4026 48.16522
18.03534 23.062607 34.774216
19.304337 21.526604 34.319218
18.79834 17.970604 24.804216
17.431335 17.961601 26.339218
40.656334 22.2916 50.56122
43.213337 22.7726 50.787216
43.394337 31.5786 47.79022
41.867336 29.6996 48.13722
18.890335 12.678604 47.309216
19.869339 11.400604 48.543217
18.03534 16.161606 58.968216
17.525337 18.238602 60.58222
62.546333 12.730606 5.785217
63.785336 12.264603 7.3782167
66.64734 1.0606003 4.257217
64.902336 0.29060364 5.776217
50.884335 84.1256 28.670218
52.217335 85.066605 30.356216
60.708336 85.9966 35.114216
62.618336 86.1046 35.69222
19.694336 40.4096 18.887217
18.86734 39.2816 20.561216
23.03434 35.536602 26.840218
21.00734 34.8876 27.760218
42.560337 83.1766 29.401217
44.262337 84.3796 28.056217
38.054337 82.0656 18.399218
35.912334 83.3256 18.124216
2.9343338 23.4776 19.107218
1.9843369 24.4106 17.423216
67.72833 35.0396 18.587217
1.6243362 35.4716 19.362217
36.171337 80.9496 56.217216
38.405334 82.2146 56.508217
29.356335 88.2696 56.514217
29.484335 88.7396 54.19922
43.035336 67.2466 8.412217
41.643337 65.3656 7.4982166
42.568336 66.0876 -1.9887831
40.297337 65.3816 -0.980783
48.544334 4.718605 51.135216
48.715336 6.1186066 52.579216
54.063335 8.444603 52.850216
51.678333 8.037605 53.161217
9.195335 17.284607 29.224216
8.820335 16.447601 31.726217
65.37434 17.342606 32.649216
65.06133 16.322601 35.038216
10.708336 97.732605 60.930218
11.234337 1.0246048 0.94121933
21.681335 2.8286057 1.5782166
21.746338 0.65660095 2.5332181
8.185333 71.3606 6.2442203
10.472336 71.7246 6.2972217
11.344337 77.8156 58.176216
12.799339 78.1036 60.343216
3.9373398 65.123604 50.344215
5.817337 64.2776 49.53222
8.531334 63.5686 38.681217
8.358337 61.2196 37.38622
6.9313354 64.2706 0.19221878
8.866341 64.3646 1.0622177
10.474335 56.3296 58.073215
12.190338 54.7076 58.876217
61.668335 20.056602 56.639217
59.335335 20.344604 56.228218
55.160336 20.067604 44.888218
53.852333 18.454605 45.752216
23.961334 86.4496 29.457218
21.628334 86.664604 29.010218
11.801338 87.5186 24.667217
11.751335 85.2966 24.827217
51.070335 35.1506 9.723217
52.432335 34.6936 11.520217
43.848335 30.9446 17.489216
44.133335 31.3396 15.546217
18.667336 78.1746 35.396217
19.573334 79.4746 36.565216
30.185333 82.150604 36.417217
30.333336 79.6466 36.760216
53.773335 1.9296036 21.403217
54.433334 97.4016 21.940218
64.795334 0.41760254 18.634216
65.03634 1.3256073 17.116217
12.001335 83.7846 8.890217
11.125336 85.7156 9.772217
11.094337 84.567604 22.194218
12.17234 83.2406 22.807217
46.062336 65.8536 46.24022
44.521336 67.8066 46.148216
38.390335 70.0776 37.174217
36.523335 68.8386 36.545216
14.0073395 12.626602 43.503216
15.305336 13.9916 45.572216
9.397339 21.536606 50.184216
7.7363358 21.459602 50.766216
34.066338 75.6976 8.316217
34.767334 73.719604 6.671217
24.874336 74.5736 6.8662167
23.287338 75.775604 6.304217
46.979336 26.148605 -0.1307831
47.350334 25.688606 2.002217
55.850334 20.440605 5.574217
58.338333 20.2416 6.278217
20.92434 24.451607 -3.285783
20.067337 26.290604 -2.022783
20.525337 25.382607 8.008217
21.303337 23.356606 9.124217
38.050335 3.4766006 33.959217
35.454334 4.100601 33.602215
33.201336 9.013603 45.870216
34.453335 11.1866 46.341217
59.713333 67.7116 18.740217
60.429337 65.3636 19.953217
64.04034 62.0266 11.122217
66.084335 62.863598 10.866218
8.15834 87.8286 59.509216
9.049339 88.9926 61.132217
20.178337 91.2426 57.312218
21.195335 89.8296 58.530216
68.071335 91.716606 28.251217
1.4233398 91.8216 26.724216
67.67434 96.6706 17.290216
67.76234 1.5536041 17.742216
16.21634 47.1516 59.166218
16.898338 49.4976 59.11622
12.605339 52.8986 51.892216
12.438339 52.2136 50.030216
35.961334 36.8366 18.503218
35.080338 37.6446 16.765217
27.883339 41.9156 14.624217
26.652336 42.265602 16.841217
20.073334 33.6786 61.091217
22.36634 32.6736 60.931217
28.898338 36.8686 52.563217
29.340332 39.0006 54.058216
7.775337 34.2346 36.265217
9.03334 35.6606 35.259216
12.68734 43.5836 39.055218
10.109337 44.9246 38.549217
40.941334 35.2716 6.9202166
39.115337 36.8326 6.5962167
28.822336 36.4166 6.547217
27.721336 37.4796 7.9202166
57.226334 8.938606 36.56022
58.443336 10.637604 35.73422
57.888336 20.5746 37.51822
60.169334 19.734604 37.731216
25.71434 58.627598 55.54622
23.487335 58.7586 55.99122
20.372337 55.5916 3.6762197
18.78534 54.3126 3.917217
61.223335 55.8626 26.429216
62.609333 55.8316 24.443216
3.1723404 62.8746 26.717216
2.6603394 64.692604 26.087217
46.458336 82.970604 29.105217
45.863335 82.108604 27.354218
55.341335 78.5896 25.367218
56.141335 76.4876 26.453217
14.6293335 6.2506027 23.629217
16.079338 8.014603 22.816217
16.440338 12.973602 13.061217
17.273338 14.712601 12.056217
59.905334 30.620604 28.931217
60.787334 29.202604 30.297216
64.21934 19.752602 31.682217
63.003334 18.057602 30.690218
35.915337 77.9806 51.508217
38.039337 76.7106 52.091217
45.682335 79.6536 45.475216
46.345337 81.3016 44.050217
32.447334 79.3996 6.9382167
34.515335 79.5906 5.972217
33.981335 85.3156 15.167217
36.001335 86.7936 15.249217
48.293335 92.88261 57.041218
46.601334 93.383606 58.591217
41.959335 82.7016 60.703217
41.332336 82.6886 58.024216
65.14734 62.475597 42.890217
64.84033 64.7546 41.308216
63.212334 71.2816 32.945217
64.93633 72.0566 33.112217
3.5773392 93.3906 26.436216
3.5183334 93.3746 24.158216
67.42133 3.6436005 19.575216
66.056335 3.0636063 21.138218
1.8023376 23.220604 53.453217
0.6913376 24.356606 52.432217
3.77034 13.2806015 46.20722
1.831337 12.621605 47.174217
12.012337 97.0296 30.434217
11.916336 94.8346 29.776217
19.890335 0.21160126 21.275217
18.911339 1.756607 22.129217
49.116333 26.824598 26.181217
50.598335 25.776604 28.070217
46.393337 18.0326 30.578217
44.952335 16.3806 30.236217
43.016335 9.897606 14.132217
44.285336 11.735603 13.609218
53.111336 11.468605 6.091217
53.134335 9.911606 4.1282167
23.654335 24.484604 50.469215
25.192337 23.427605 52.01822
25.206337 18.887604 44.10222
25.212334 20.2546 45.780216
13.59034 92.857605 13.383217
13.476334 95.07761 13.678217
23.22934 97.3936 16.420218
25.185333 96.719604 15.118217
35.282337 3.3966064 53.853218
33.569336 1.520607 54.106216
42.744335 96.967606 59.771217
40.249336 96.8356 60.74722
29.047333 46.9856 4.6222186
27.221336 47.7846 3.3862188
30.762337 52.1496 54.62922
33.394333 52.3116 54.25522
39.258335 11.700607 36.335217
39.167336 12.159607 38.33922
48.042336 16.350601 40.881218
50.028336 16.146606 42.041218
4.3983383 8.563606 46.189217
3.5963364 10.634605 46.22722
8.285339 10.139603 48.409218
6.1633377 10.3186035 47.548218
42.009335 11.629601 25.509216
40.932335 10.633606 23.686216
41.552334 19.836601 23.304216
42.392334 21.373604 22.146217
14.58934 61.1236 15.254217
14.453339 60.031597 17.519217
26.525337 59.6246 16.788218
27.93834 57.6506 15.921217
40.599335 64.0846 29.022217
42.736336 63.3186 28.132217
48.893333 58.696598 36.732216
48.456337 57.2986 38.827217
54.848335 8.4216 8.749217
55.936337 6.454605 8.314217
58.972336 95.094604 1.862217
59.208336 95.7846 -0.18378307
50.201336 18.909607 38.14422
48.722336 16.654602 38.385216
53.864334 8.355606 37.826218
54.619335 6.4316025 37.446217
63.028336 42.8816 51.18622
62.638336 45.2306 51.154217
55.657333 50.6686 43.266216
56.218334 52.4926 44.31722
25.31234 42.2826 43.65722
26.306335 40.9656 41.961216
25.147339 43.4646 31.398218
26.64534 44.0196 32.735218
68.00734 21.551605 9.418217
67.93433 19.4206 10.926217
0.9773407 20.7956 16.503218
1.293335 19.801605 18.399218
27.869335 61.9906 12.901217
29.869335 63.1436 12.407217
40.226337 63.967598 12.161218
41.325336 64.109604 9.886217
22.914337 74.2706 33.367218
24.45234 73.2506 34.72122
28.095337 68.1046 34.903217
26.542336 68.3906 33.195217
30.609337 30.0096 6.212215
29.528336 29.6996 4.2632174
24.766335 24.798601 58.399216
24.955338 26.7696 57.333218
44.601334 40.772602 22.315218
43.837334 42.6386 21.504217
43.917336 39.7826 10.266217
45.763336 38.3996 9.906217
67.82734 43.1246 19.479218
67.77033 44.0896 21.509216
64.85434 41.5996 29.259216
64.696335 42.4596 31.632217
45.204334 12.189606 3.9722168
46.605335 13.691605 2.507217
39.612335 22.425606 4.099217
38.515335 24.098602 3.150217
37.621334 2.256607 28.956217
37.364334 0.8736038 31.091217
49.110336 95.8116 29.423218
49.614334 97.6656 28.920218
30.452332 9.6436 46.119217
31.674332 11.452606 45.417217
34.66033 20.195602 52.67922
35.418335 19.856606 54.739216
54.971336 9.585602 11.0122175
56.952335 8.851601 11.588217
54.297337 11.607605 23.979218
55.275333 10.014603 24.713217
65.96934 11.786606 21.296217
64.08733 12.778603 20.585217
62.720333 14.080605 10.400217
61.486336 13.710602 8.7102165
62.056335 42.1676 30.995216
61.068336 43.4786 32.576218
53.761333 43.578598 43.587215
51.965336 42.161602 43.13622
51.705334 93.8256 2.9522169
51.748333 91.176605 2.24522
51.813335 88.1696 58.955215
53.494335 89.580605 58.96322
30.573334 19.919601 29.973217
29.344337 18.937607 28.377216
18.371338 15.364601 26.104218
17.35334 15.976601 28.317217
35.261337 16.0886 57.654217
33.476334 15.986603 58.294216
34.794334 7.2596054 52.24022
33.118336 6.0806046 50.855217
24.231339 90.912605 16.875217
25.46634 89.9366 17.548216
31.775337 82.8286 11.548217
32.892334 81.1626 9.937217
2.555336 22.735603 36.306217
4.1673355 21.627602 35.912216
7.46434 16.621605 44.962215
9.005341 18.669601 46.11522
33.090336 13.081604 15.985217
30.725336 12.646606 16.496216
38.298336 7.569603 20.243217
38.670334 7.458603 22.290216
45.038334 4.3266068 43.916218
45.272335 5.0986023 45.83822
55.233334 11.161606 44.17822
54.293335 12.2416 46.08122
9.40934 2.3406067 60.257217
8.648338 1.6736069 58.396217
1.4733353 4.3946 50.593216
67.57533 5.411606 50.274216
67.642334 42.7576 45.70722
0.8393402 43.4726 43.778217
6.510338 48.6956 38.76922
6.5803375 50.6256 39.742218
52.345333 70.0526 20.299217
50.779335 71.8366 18.669218
43.717335 73.303604 26.612217
42.585335 71.9466 27.917217
5.579338 44.6106 11.168218
7.0183334 42.8726 12.169217
3.0973358 34.661602 8.428217
4.081337 33.0766 7.3342166
54.002335 48.4376 19.469217
53.980335 47.8716 17.037216
52.126335 41.2856 11.031218
50.651337 39.6166 9.816217
30.669334 29.1786 30.072218
32.79933 28.0096 31.100218
31.279335 33.7836 40.32422
30.839333 32.1696 41.523216
23.86734 42.4126 17.731216
22.789337 44.6906 17.934217
32.825333 48.571598 14.022217
32.445335 48.6566 16.157217
62.788334 83.8956 -1.9197829
61.855335 84.6326 -0.18578292
56.732334 81.2606 9.701217
56.440334 79.1536 9.110217
40.541336 68.6186 1.610218
39.554337 67.7446 61.72722
36.223335 75.3136 53.862217
34.866337 77.1896 54.29022
51.016335 46.5916 30.722218
50.920334 48.5806 31.565218
62.109333 46.5246 27.977217
62.267334 44.4066 29.666218
28.20034 29.753601 41.537216
26.162338 29.1336 40.21322
27.058334 32.1116 29.361217
28.941338 31.1026 28.255217
30.409332 57.1096 12.401217
28.649338 58.2456 13.335217
17.362335 56.7046 10.060217
17.383339 54.7096 8.754217
64.24734 17.598602 43.278217
65.458336 15.709602 42.617218
63.641335 4.369606 40.37322
62.601334 4.763603 38.146217
1.2273407 3.0656052 15.712217
0.89133453 0.91160583 14.283217
2.6893387 9.207603 5.5232167
4.4083405 9.302605 3.9622169
53.639336 41.6796 51.15122
52.583336 42.6316 52.656216
59.468334 50.3386 50.56122
60.318336 51.5846 49.20722
15.459335 82.7256 55.441216
17.08834 83.3066 54.46422
25.182335 90.2796 55.189217
27.072334 89.9436 57.245216
28.39634 82.8146 7.8922167
29.727333 84.0786 5.821217
30.455338 84.164604 16.972218
32.204338 85.5826 17.342216
59.867336 78.664604 6.6882167
58.863335 78.1526 8.834217
53.779335 73.066605 17.791216
54.638336 74.6556 18.964218
23.09134 78.5976 42.590218
23.138336 79.7876 44.49822
34.77133 80.0976 45.49122
35.282333 77.8786 46.90022
26.788338 65.9436 31.019217
27.64534 63.6226 31.006218
25.68834 70.7816 31.605217
23.375336 71.6746 32.08922
65.93633 65.3616 10.654217
63.755337 65.5226 11.377217
59.004333 58.1996 3.994217
56.657333 58.4826 3.473217
56.528336 51.4596 56.661217
55.820335 50.5296 54.70722
47.240334 50.8106 61.211216
45.847336 49.7646 59.523216
46.931335 25.642601 29.845217
45.525337 26.8526 31.650217
37.945335 33.4756 31.555218
38.701336 35.4726 31.703217
48.041336 48.6166 0.901217
46.259335 47.7076 1.084217
38.874336 43.7076 7.9372168
39.379337 42.4596 9.917217
11.468338 2.668602 26.678217
12.14534 4.4656067 25.044218
12.886337 14.0306015 26.816217
14.809334 15.478607 27.177217
15.70134 44.7706 23.442217
15.888336 45.6726 25.406218
10.838341 41.9926 33.508217
10.100334 41.9766 30.791218
35.486336 14.6326065 33.994217
34.313335 13.589607 32.389217
46.804337 10.933601 30.793217
47.539337 12.7686 29.376217
59.247334 87.0926 47.238216
60.956333 86.8996 46.559216
65.74233 87.6256 38.01122
66.89533 85.8476 37.58822
28.164337 50.0206 34.32422
26.65934 49.6956 32.671215
15.627335 46.6976 38.605217
15.740334 47.4906 40.46422
8.545334 39.5406 33.488216
8.523338 39.5836 31.376217
8.155334 47.0736 24.877216
5.8023376 48.5706 24.230217
34.714336 31.5686 47.008217
35.706337 33.2196 47.878216
31.016335 43.0976 51.25422
29.786335 41.9346 50.24122
2.432335 34.8946 5.659221
3.1513367 33.307602 3.8782194
5.6133347 41.3026 57.64322
6.90934 41.5906 55.694218
55.323334 69.9196 4.5442157
54.020336 68.2626 4.668216
50.624336 58.509598 0.33921814
52.063335 58.2086 60.557217
9.960335 60.0666 24.634216
12.287338 60.0686 23.662218
21.07734 59.0506 27.608217
20.496338 60.2556 25.338217
35.210335 79.6876 13.923217
36.123337 79.4266 16.614216
46.157337 83.8226 15.588217
44.244335 84.7316 14.482217
62.191334 94.647606 22.382217
60.265335 93.29961 23.123217
55.934334 89.3906 15.608217
55.083336 89.6076 13.601217
42.397335 6.079605 25.575216
41.042336 5.1865997 24.303217
51.234333 2.2386017 25.833218
52.076336 3.7576065 25.237217
12.281334 86.8506 45.455215
12.755341 89.4876 44.260216
17.044334 81.0096 36.385216
19.107338 82.7236 36.552216
8.549339 25.372604 19.647217
9.098335 24.5456 21.877216
3.74234 27.6126 31.306217
4.4223404 28.923605 32.706215
2.2973404 7.347603 27.965218
4.725334 8.182602 28.179216
12.021339 13.010605 29.213217
11.148338 13.011604 30.967216
42.154335 61.184597 23.356216
41.444336 63.0746 24.181217
29.961336 64.8926 18.640217
29.850336 64.8186 20.806217
15.886337 94.5196 4.4452167
14.907333 93.5606 1.6532173
24.935333 91.9916 57.777218
22.66034 91.6836 56.441216
6.5463333 42.2396 46.848217
5.7623367 41.1676 48.308216
67.170334 40.7736 47.70722
65.152336 41.1666 46.800217
48.442337 96.6846 -0.84978294
49.998333 0.43160248 0.42321694
41.140335 6.5876007 9.259217
42.371334 8.6816025 9.537217
42.859337 37.6166 11.404217
43.861336 35.4226 11.498218
53.002335 39.8936 17.759216
52.961334 42.0466 17.150217
38.52133 90.6796 43.441216
36.429337 89.0896 43.313217
26.587334 95.607605 47.454216
26.95034 95.7496 44.87922
11.306335 89.4106 5.191219
11.752335 87.1376 5.3672214
12.691338 80.372604 58.71422
10.40934 80.4036 58.930218
65.91334 7.4616013 54.535217
65.23134 9.647606 54.78922
2.4433365 19.661606 52.33122
5.2713394 19.5606 51.830215
29.291336 54.9096 10.472218
29.444336 54.7376 12.520217
28.29834 49.8646 18.120216
29.712334 49.1766 20.053217
15.958336 78.4676 36.094215
15.849335 78.2866 33.760216
8.544334 83.1156 28.511217
9.926338 83.7046 26.050217
67.765335 19.839607 21.629217
67.61034 21.8656 23.034218
58.358334 22.6566 18.474216
57.191334 21.095604 20.322218
22.582336 18.6986 59.50522
21.109337 16.850601 59.16422
20.07734 8.619606 54.814217
17.82634 8.2686 55.145218
38.305336 84.039604 14.416217
37.561337 84.9676 16.420218
35.864334 91.00761 22.799217
35.223335 93.0896 21.436216
50.163334 23.839607 20.385218
52.041336 23.051605 21.337217
56.731335 13.092606 24.702217
56.014336 12.692604 27.563217
41.137337 67.2496 31.375217
40.261337 68.5526 32.723217
41.870335 74.8956 27.123217
41.705334 77.2996 26.810217
29.527336 47.9546 28.167217
28.815338 49.9626 26.662218
19.92234 49.1296 19.980217
21.098335 46.9526 19.301218
56.623333 24.516602 34.375217
56.607334 22.475601 33.209217
47.286335 17.593605 34.061214
46.840336 17.771606 36.534218
31.819336 24.681602 25.383217
31.614334 25.682602 23.809217
33.079338 20.853607 12.395217
33.03533 23.571602 12.583218
20.316338 20.456604 58.827217
18.14534 21.534607 58.085217
19.690338 19.951607 47.702217
21.67334 20.875603 46.662216
45.353336 84.0916 31.486217
44.837334 86.6556 32.184216
36.682335 95.0346 33.485218
36.861336 95.661606 31.416218
38.477337 4.720604 11.414217
38.402336 6.6466064 9.857217
28.424335 2.871605 8.365217
26.420336 3.270607 7.671217
2.1703339 42.7066 21.099216
3.6513367 42.814598 22.715218
6.8943405 32.2746 18.311216
4.4053345 31.6726 18.467216
16.169334 75.373604 5.3732166
15.920334 78.0326 6.0562167
17.282333 81.4376 14.413218
18.371338 83.2566 15.1112175
8.730339 81.5496 60.946217
6.397339 82.567604 60.735218
6.2493362 73.3696 5.4102206
5.6583405 71.7846 5.00822
54.096336 71.595604 2.533217
51.412334 71.1856 2.777217
49.498333 67.7046 7.1352167
46.947334 68.5686 8.052217
9.734337 85.6726 44.084217
8.069336 87.1986 44.773216
1.8513336 80.4576 52.899216
2.9233398 82.0456 54.008217
67.94134 35.7546 36.138218
66.530334 37.4896 35.42922
65.752335 34.7236 47.94222
65.03333 36.9986 48.24822
10.897339 2.3356018 7.278217
13.115334 1.2466049 7.4702168
22.35334 3.1636047 11.349217
23.684334 3.4506073 9.173217
34.323334 46.8816 17.301216
32.111336 45.8616 16.651217
37.247337 40.8036 9.906217
37.929337 38.7766 8.392217
37.585335 51.2866 31.711218
38.173336 52.4006 30.267218
32.513336 62.454597 29.398218
33.327335 63.3136 27.252216
48.357334 33.6956 13.075217
46.150337 31.9936 13.750217
53.271336 24.6846 19.594217
53.220333 25.7216 21.584217
41.676334 12.369606 28.200216
42.592335 13.923607 28.296217
37.949337 7.968605 27.534218
39.884335 7.9136047 26.288218
16.272339 31.2096 27.288218
16.892334 29.3936 28.860218
8.954338 22.458601 33.381218
6.9553375 22.7626 33.364216
64.25934 65.2606 55.38622
62.189335 64.6416 56.809216
0.16433716 66.969604 5.159221
67.56734 67.2936 7.1022143
58.813335 50.4526 54.83122
57.605335 51.8616 53.253216
64.09133 62.0466 56.140217
63.837334 61.1326 58.486217
60.467335 43.196598 53.37222
62.094334 41.4426 53.57522
67.07934 40.9506 0.33421707
0.54333496 40.3606 2.2652166
51.342335 4.475601 43.520218
53.623333 4.7246017 43.856216
59.598335 1.1466064 34.307217
58.031334 0.17860413 32.505215
1.8203354 68.9296 18.277218
3.40934 69.3046 17.057217
3.7503357 68.859604 5.131217
5.827339 69.1266 4.552217
21.975334 33.3796 41.06822
22.995338 35.3386 42.53222
20.911339 39.897602 52.537216
21.390335 42.1346 53.363216
45.988335 73.8766 53.465218
44.748337 75.8016 54.663216
46.860336 84.2216 48.189217
47.667336 86.0636 47.19322
2.5943375 65.7306 28.550217
3.1483383 66.6066 30.235218
68.02434 71.2926 38.43522
65.890335 70.8666 37.80422
44.464336 59.835598 22.956217
44.253334 60.760597 21.458218
53.269337 65.5876 19.118217
55.418335 66.3646 18.104218
15.445335 8.983604 28.471218
17.25534 8.847603 27.060217
22.46434 16.139603 21.928217
21.70034 18.052605 22.619217
62.515335 89.622604 10.312217
61.719334 91.0746 8.434217
55.558334 85.3546 13.190217
57.142334 87.1856 14.013217
59.426334 79.5846 55.552216
60.498333 78.5316 57.668217
52.297337 73.4586 0.3632202
50.431335 72.3566 61.639217
55.073334 38.9136 48.923218
53.773335 37.5046 47.347218
58.408337 29.9866 47.472218
59.237335 28.1196 47.89322
39.743336 0.8206024 14.159217
41.978336 1.4876022 14.862217
51.880337 1.7546005 15.948217
52.377335 0.3446045 14.316217
29.048332 51.9126 16.030216
28.643333 53.4546 17.912216
31.350334 51.1916 26.380217
32.62034 49.3406 25.699217
14.815338 26.247604 20.532217
14.153336 25.548607 18.498217
8.90834 16.3106 25.404217
10.961334 16.089607 26.201218
45.544334 90.6656 15.270217
46.842335 92.3626 15.659217
51.824333 96.468605 22.563217
53.038334 96.4916 24.483217
65.015335 82.1386 7.355217
66.88434 80.8006 7.2342167
67.95133 69.859604 6.336217
65.68834 68.720604 5.5822167
1.4993362 71.8836 43.361217
67.57934 71.2106 43.009216
59.951336 67.5296 48.273216
60.722336 67.5606 50.413216
34.572334 72.1456 37.348217
35.116337 72.8536 39.420216
34.151337 66.3916 45.286217
35.045334 64.4166 45.884216
19.287338 21.187607 61.17822
18.514336 23.576607 60.233215
20.864334 30.4046 61.131218
19.164337 30.0026 59.604218
31.183336 43.9156 60.270218
32.994335 42.8816 59.39322
39.479336 46.8596 51.536217
39.350334 49.0756 51.052216
37.206337 80.0756 54.05422
36.587334 80.845604 51.66522
45.420334 86.3346 45.312218
45.310337 88.8706 45.430218
37.873337 62.6296 43.688217
38.044334 60.6336 42.411217
38.224335 64.8386 34.334217
39.813335 66.0226 33.572216
17.42434 64.1726 0.68121696
15.205338 63.683598 1.694217
17.209335 69.1136 6.6962166
19.36834 69.8686 7.258217
24.157333 77.9636 53.090218
25.776337 77.609604 54.39322
31.526337 86.1606 51.645218
33.66033 87.2706 51.576218
7.013336 77.1796 53.467216
7.7613373 75.0556 52.88722
14.15934 65.5036 56.704216
13.386337 63.024597 56.764217
62.619335 57.2306 37.425217
64.17133 56.5476 36.432217
58.098335 50.1006 39.235218
56.916336 51.2156 40.73422
66.638336 41.2256 21.245216
67.19933 40.1346 23.117218
55.892334 39.5606 24.804216
54.883335 40.9986 23.332218
34.832336 28.9696 4.156219
33.676334 30.9356 4.429218
33.820335 36.3016 56.452217
34.658337 38.1736 56.44922
9.255341 62.0286 59.771217
10.815338 61.461597 58.402218
2.11734 58.6866 51.134216
2.8373337 56.7166 50.31822
12.741341 26.7926 15.651217
11.458336 25.124603 14.682218
0.37833405 27.430601 13.105217
66.63334 26.740599 12.958218
54.998333 77.7036 30.499218
57.417336 77.6576 30.381218
56.293335 66.1036 33.033215
54.900333 64.4236 31.664217
39.979336 24.108604 8.698217
41.426334 24.578606 10.116217
43.238335 11.404602 7.9452167
44.550335 11.062607 10.023217
1.5713348 46.6626 13.629217
2.8263397 48.1866 15.001217
2.2173386 45.2856 20.446217
1.4663391 46.6196 21.747217
28.22734 93.7556 56.228218
26.537338 93.2146 55.04722
23.13234 4.944603 51.82522
23.15934 4.1276016 54.392216
26.829338 17.147606 -1.8207829
27.45134 18.901604 -0.41978312
25.962334 15.597603 9.071217
26.34034 14.294601 11.091217
46.852337 92.4456 54.61522
47.531334 90.5766 55.485218
44.711334 81.5166 60.030216
42.779335 80.5546 59.06822
66.988335 8.590607 0.38421702
65.21834 9.9316025 -0.4457829
64.252335 15.858604 9.267217
66.26833 16.673607 9.830217
20.648338 95.8376 36.584217
18.898338 95.039604 35.702217
17.72834 7.9956055 29.938217
18.565338 9.543602 31.413218
59.915337 47.5616 34.215218
59.976334 45.5726 36.100216
2.3163376 47.9286 39.583218
3.182335 45.439598 39.715218
66.628334 45.7296 1.1882172
65.667336 43.2146 0.89822006
62.577335 46.835598 53.52522
61.327335 48.2426 51.745216
52.533337 4.7076035 15.9272175
53.655334 3.5486069 16.996216
63.828335 4.859604 21.287218
64.517334 5.0126038 23.340218
53.585335 72.7806 20.701218
55.825336 74.0366 21.495216
62.248333 70.7786 30.344217
63.409336 69.5496 29.408216
50.411335 69.9856 9.736217
47.518337 70.1666 10.156217
43.503334 62.4736 19.107218
43.755337 63.4586 20.552217
35.249336 68.6296 51.972218
33.167336 68.4276 49.90022
37.367336 75.3376 41.786217
38.375336 77.2286 42.101215
35.488335 11.5306015 8.922217
34.276337 12.194603 7.041217
31.700335 19.0746 -0.5157831
32.862335 17.606606 -1.437783
51.471336 95.7016 0.6722183
53.422337 96.706604 0.17721939
57.805336 87.7266 57.684216
58.908337 87.1776 59.958218
0.98833466 41.9176 12.600217
67.41134 39.7876 13.452217
65.57433 32.4146 4.608217
67.19134 33.7646 3.078217
20.027336 36.9346 0.64021695
19.373337 38.2326 2.618217
26.543335 46.6566 6.375217
28.689339 45.1086 6.8342166
52.942333 91.8936 32.371216
50.979336 90.4956 33.513218
57.534336 79.691605 34.246216
59.136333 78.109604 32.899216
12.708336 43.0796 54.645218
11.8823395 43.8876 52.78922
4.638336 52.1816 49.13622
5.1183395 51.9836 46.728218
3.5943375 51.4726 14.651217
2.3153381 52.7186 15.612217
11.505341 55.2406 16.058216
12.88134 56.4016 14.300218
38.470337 77.8566 37.190216
39.051334 78.206604 39.306217
36.188335 87.6596 35.111217
36.595337 87.4796 32.83922
27.685333 52.2306 37.899216
27.461334 52.5736 35.274216
30.088333 60.1646 26.236217
32.234337 60.850597 26.173218
13.934334 63.1516 18.136217
14.991341 65.1456 17.408216
12.521339 74.3566 22.530218
11.57634 75.9476 23.021217
60.766335 65.2986 27.874218
61.804337 67.4586 27.569218
59.313335 58.4596 25.606216
57.747334 58.2556 26.837217
32.708336 14.7966 61.233215
34.944336 15.189606 60.30422
32.488335 6.6506042 54.092216
31.928335 4.5356064 53.976215
62.603336 66.705605 13.253218
65.56434 66.359604 13.619217
0.29533386 67.3026 25.065218
67.780334 65.6106 26.285217
10.050339 21.957603 2.118217
8.633339 21.607605 0.54521704
2.2743378 16.5326 6.9462166
4.204338 16.581604 8.446217
52.597336 77.8016 14.856217
52.074333 80.1756 14.840218
39.935337 75.1866 15.948217
40.233337 72.831604 15.020217
29.514336 63.725597 28.738216
30.867332 64.7606 30.204218
28.635338 71.1636 22.392218
27.961334 73.1626 21.685217
64.13233 82.8266 10.346217
63.796333 83.3976 12.579217
58.769337 94.4896 13.891217
61.005337 95.0476 13.196218
62.419334 47.3436 2.457218
60.770336 48.2426 2.7322195
57.270336 45.8406 55.779217
57.609333 47.1946 53.911217
6.230339 7.071602 49.645218
4.303337 5.7216034 49.56822
7.126335 93.0126 47.88722
8.535339 92.647606 45.788216
9.888336 95.4636 26.979218
7.8683395 94.6706 27.466217
10.096336 1.5976028 21.997217
8.968338 0.16660309 21.726217
49.604336 73.6956 28.440218
50.647335 72.4876 28.805218
51.611336 65.7176 34.46322
53.426334 63.9116 34.219215
7.7003403 90.883606 53.631218
7.0493393 90.5176 51.430218
65.37234 94.6576 50.362217
63.506336 95.6176 50.988216
22.946335 8.4496 61.674217
24.553337 6.5906067 61.22722
36.684334 7.3946 1.1882172
38.865334 8.534607 0.6772194
27.90834 69.6486 20.398218
28.428337 71.5336 19.608217
27.42234 64.2906 14.867217
28.500336 63.280598 17.184217
43.976334 47.0846 16.130217
44.794334 48.4806 14.517218
48.354336 41.3616 5.647217
49.483334 40.6766 7.6762166
45.368336 30.8396 40.098217
45.707336 32.9656 38.898216
51.805336 36.4356 46.08822
51.247334 37.682602 44.265217
18.33934 27.1266 52.022217
20.389336 26.151604 51.513218
23.45134 24.900604 40.349216
24.176338 22.653603 40.58122
50.569336 2.5916061 18.839218
49.297337 4.4136047 19.313217
51.934334 11.958603 27.248217
53.837334 11.5566025 26.564217
59.274334 24.7616 40.480217
59.310333 27.3166 40.26922
1.8153381 25.430601 37.974216
2.2613373 26.784601 35.823215
50.900333 43.0946 56.086216
53.139336 44.1356 55.291218
51.284336 42.6696 4.8172183
51.863335 41.1996 6.0742145
19.705338 94.7406 43.243217
21.416336 93.4456 42.057217
21.447334 81.6776 45.21322
18.99134 81.6276 45.084217
52.484333 64.8386 30.669218
50.638336 64.1206 32.354218
45.911335 63.4146 22.352217
44.082336 64.5516 23.277218
65.53534 89.6216 36.11622
65.24634 90.9626 37.618217
4.154335 2.770607 38.81022
4.2823334 1.7686005 36.878216
16.346336 77.5096 2.5012167
16.692337 75.7176 1.742218
15.166336 65.7706 58.99122
16.988335 65.9376 60.378216
33.101334 84.2766 49.31122
34.673336 85.0306 50.500217
42.615334 93.3946 48.858215
42.310337 94.9096 50.967216
55.187336 57.446598 13.205217
54.351334 58.9796 14.642218
45.194336 56.8686 19.247217
46.656334 55.7976 20.366217
59.459335 75.178604 35.691216
59.809334 73.1416 36.020218
57.356335 69.2936 46.014217
59.156334 70.2446 47.46422
42.917336 52.9526 33.268215
45.211334 52.6096 32.611217
53.777336 61.3056 29.974216
55.699333 59.1946 28.885218
35.298336 94.065605 8.841217
35.401337 94.68861 6.3982167
42.055336 97.0716 8.278217
43.154335 96.54961 6.3462167
62.428333 66.2356 53.45722
60.723335 64.9126 54.125217
62.253334 53.7606 47.51222
60.060333 53.9486 46.79022
35.179337 49.4596 49.383217
34.61933 47.1246 49.753216
26.585335 48.6976 41.67222
26.09034 47.4026 43.732216
45.660336 36.9926 46.182217
45.542336 37.2016 44.132217
47.871334 41.4766 37.798218
48.195335 40.7116 35.89422
64.95334 29.4816 12.158217
65.64333 29.2486 10.143217
7.5703354 31.0456 15.595217
5.8403397 30.1156 16.981216
52.357334 7.149605 13.168218
50.676334 5.418602 13.633217
49.503334 5.081604 3.908217
51.435333 6.4226 3.8702168
28.962336 65.5896 13.189218
30.142336 65.9496 11.610217
37.301334 70.0296 4.5902166
35.547337 70.7606 3.6532168
11.82634 53.4046 17.881216
14.046333 53.0296 16.857216
15.61734 63.266598 20.702217
13.188339 63.2796 21.535217
47.672337 37.8896 36.26222
49.852333 38.6076 35.819218
56.969334 31.7406 31.006218
56.386333 33.2346 29.424217
38.079334 74.0366 52.020218
39.917336 73.7396 52.83122
37.993336 66.4866 59.711216
37.327335 65.761604 0.06921768
37.986336 45.6936 49.37222
39.147335 44.0166 49.99822
36.377335 33.2276 51.521217
34.183334 33.9036 52.937218
35.556335 9.493607 4.421217
37.264336 7.7506027 4.018217
47.754333 8.467606 2.299217
49.241333 7.9356003 3.447217
5.5073395 69.2836 45.480217
4.5923386 66.5506 45.46422
0.01033783 63.4296 53.058216
66.61533 62.051598 53.83222
40.385334 5.906601 42.770218
38.311337 5.6016006 41.766216
40.889336 95.134605 44.160217
40.901337 93.9636 46.56122
0.07133484 87.9946 2.415217
0.4703369 85.8796 3.012217
4.9853363 76.3536 5.489217
5.5823364 76.8196 7.632217
28.34134 13.2416 36.34622
26.126335 13.939606 35.168217
23.872337 7.126602 25.634216
22.883339 5.1976013 26.727217
32.414337 96.6696 3.795217
30.765335 96.2506 2.114217
26.531334 0.6776047 8.876217
24.612335 1.6066055 10.852218
37.955334 72.5446 3.337219
36.256336 73.5656 2.915218
28.991335 72.6256 55.434216
28.426336 71.9216 57.385216
64.68433 95.413605 53.732216
63.851334 92.9376 53.847218
59.023335 86.8016 52.29022
60.671333 87.8196 51.960217
6.1653366 95.803604 20.602217
7.835335 95.300606 21.788218
8.335335 87.873604 12.589217
7.190338 89.1826 13.364217
2.53434 65.8576 4.5652194
1.9953384 67.580605 3.0722196
1.8803406 63.9166 54.916218
2.1253357 61.9006 53.98422
59.194336 13.986603 50.559216
60.746334 13.563606 48.661217
63.586334 6.5096054 53.452217
62.520336 4.3666 53.625217
43.074337 33.3736 60.631218
41.368336 32.0876 61.677216
47.506336 27.0536 58.948215
49.718334 27.1576 59.49122
10.083336 4.739601 59.351215
9.79834 6.9816055 59.36622
17.68734 13.342606 59.69222
17.733337 15.288605 61.528217
34.707336 13.049606 40.26122
37.338337 13.133606 40.599216
35.772335 21.554604 48.639217
36.668335 21.263603 50.613216
68.06233 29.5046 26.985218
2.067337 28.739601 26.397217
3.0053406 40.5206 26.260218
1.4533386 40.4816 24.249218
56.220333 86.2696 3.9392164
57.359333 85.4366 1.3612175
61.385334 95.730606 2.7222173
61.625336 97.4016 1.4132195
36.705334 36.4146 57.541218
36.893337 38.6646 57.876217
44.104336 47.3366 59.63022
46.236336 46.5576 60.188217
21.848335 20.6296 37.13622
21.710335 22.929604 38.469215
24.125336 30.5286 27.561216
26.204338 30.610601 26.994217
4.06234 70.497604 19.751217
6.418335 71.1216 19.272217
3.3493347 75.4236 7.9242167
3.1603394 73.456604 5.963217
14.583336 47.6406 27.168217
15.832336 48.0136 29.096218
15.146339 59.4856 27.926218
17.030334 60.6086 27.534218
52.060333 0.11060333 2.842217
53.365334 95.717606 2.693217
57.965336 4.3426056 10.230217
55.410336 4.831604 10.308217
54.280334 50.7666 22.557217
53.759335 51.4686 20.857218
47.127335 50.1926 16.900217
44.338337 50.0826 16.689217
24.88134 4.1856003 30.038218
23.629333 3.1756058 28.826218
20.17334 91.3406 32.990215
20.254333 92.0756 35.202217
14.828339 61.884598 43.244217
15.396339 63.426598 45.147217
15.564339 65.2256 54.14322
15.67334 63.496597 55.576218
62.897335 80.358604 22.404217
62.827335 81.6206 24.220217
1.7273407 79.2926 33.451218
1.5643387 76.7866 33.946217
16.461334 27.4056 22.676218
17.398338 26.5596 21.291218
28.866333 31.2236 19.978218
29.988335 29.1016 20.419218
57.953335 87.2786 36.002216
57.716335 87.5826 38.65022
49.534336 95.6276 33.391216
49.216335 94.053604 31.315218
63.631336 25.688606 7.732217
62.910336 23.397606 7.0852165
53.089336 23.486603 -0.6927831
52.477333 21.863602 1.248217
19.518333 78.9036 44.300217
20.43834 77.4606 43.09522
20.07634 67.0746 43.67122
21.816338 66.9226 42.351215
58.483334 54.4816 38.983215
59.938335 56.3776 39.305218
64.739334 61.2376 40.390217
66.378334 60.4656 39.326218
60.942333 80.0136 8.876217
59.903336 81.2886 10.641217
60.750336 78.7676 20.420218
61.860336 76.6396 21.193216
45.165337 56.8906 41.566216
44.480335 56.6006 43.906216
54.153336 53.703598 45.95722
54.275333 54.7216 44.106216
29.980331 1.1106033 7.1762166
28.718338 97.06361 8.123217
28.856339 87.6796 3.450217
27.467339 86.3656 4.890217
