3.202 0.062 2.011
3.346 0.340 1.642
3.407 -0.061 2.119
3.576 0.252 2.233
3.491 0.181 2.239
3.834 -0.084 2.649
0.047 6.007 3.560
-0.016 5.892 3.820
0.082 5.772 3.619
0.181 5.858 3.828
0.016 5.679 3.898
0.536 6.314 3.886
0.444 6.203 4.097
0.332 5.895 4.113
0.032 6.046 4.492
0.723 5.955 3.521
0.441 5.951 3.466
0.382 5.791 3.933
0.424 5.567 4.336
0.231 5.671 4.303
0.918 6.350 3.733
0.573 5.996 4.219
0.468 6.019 4.611
1.207 6.128 3.285
1.063 5.947 3.626
0.889 6.031 3.803
0.850 5.868 4.231
0.564 5.828 4.351
1.074 6.024 4.186
1.209 6.350 3.513
1.414 6.272 3.576
1.097 5.879 3.929
1.055 5.920 4.237
0.846 5.608 4.562
1.686 6.125 3.677
1.348 5.906 4.099
1.123 5.832 4.225
1.858 6.321 4.033
1.673 6.222 4.148
1.053 5.846 6.402
0.052 6.370 3.685
-0.070 5.933 3.677
0.103 5.867 3.610
0.103 5.826 3.669
0.184 5.726 3.952
1.457 5.855 0.876
1.295 5.891 1.103
1.413 5.783 1.643
1.730 5.833 0.609
1.567 5.718 0.768
1.692 5.621 1.315
1.529 5.523 1.362
1.241 5.258 1.873
2.115 5.502 0.158
1.766 5.610 0.429
1.805 5.251 0.783
1.509 5.265 0.901
1.511 5.177 1.290
1.376 4.997 1.518
1.973 5.294 0.532
1.688 4.895 0.694
1.784 4.890 1.059
1.530 4.659 1.230
2.577 2.927 0.088
2.265 2.924 0.183
2.277 2.781 0.630
2.314 2.532 0.408
2.333 2.503 0.544
2.230 2.226 0.635
2.461 2.322 0.273
2.482 2.097 0.416
2.382 1.824 0.594
1.859 5.937 0.791
1.994 6.127 1.129
1.665 5.809 1.230
2.048 6.078 0.558
2.091 5.689 0.607
2.034 5.787 0.987
1.927 5.578 1.390
1.764 5.601 1.553
2.578 5.702 -0.017
2.455 5.626 0.427
2.022 5.425 0.659
2.047 5.507 0.889
1.836 5.252 1.366
1.920 5.312 1.493
2.596 5.282 -0.084
2.405 5.482 0.311
2.274 5.329 0.399
2.250 5.231 0.807
2.454 3.234 0.747
2.362 2.944 0.796
2.753 2.855 0.053
2.800 2.922 0.629
2.506 2.683 0.794
2.543 2.703 1.169
2.743 2.670 0.263
2.535 2.682 0.342
2.430 2.405 0.807
2.369 2.255 0.803
2.504 2.090 1.321
2.944 2.443 -0.025
2.980 2.358 0.474
2.802 1.909 0.631
2.655 1.793 0.688
2.588 1.755 1.036
2.251 1.599 1.270
2.660 1.512 0.699
2.351 1.570 1.156
2.347 1.549 1.410
2.461 1.025 1.207
2.454 6.390 0.579
2.117 6.209 1.104
1.982 5.926 1.264
2.778 6.010 0.413
2.374 6.091 0.600
2.531 5.944 0.896
2.286 5.766 1.100
2.224 5.623 1.370
2.714 5.711 0.222
2.745 5.833 0.384
2.478 5.397 0.722
2.210 5.534 0.986
2.777 5.664 0.329
2.576 5.419 0.355
2.346 5.278 0.862
2.694 5.315 0.255
2.894 5.119 0.217
2.941 3.176 0.814
2.661 3.203 0.910
2.473 2.788 1.467
2.808 2.737 0.713
2.602 2.559 1.025
2.584 2.704 1.227
2.371 2.611 1.399
3.016 2.631 0.531
3.028 2.587 0.669
2.686 2.159 0.947
2.756 2.321 1.292
2.338 2.082 1.759
3.124 2.320 0.287
3.091 1.971 0.877
2.992 2.090 1.136
2.838 1.902 1.415
2.734 1.677 1.745
2.855 1.853 0.971
2.735 1.646 1.200
2.605 1.518 1.616
2.823 1.138 1.276
2.809 1.191 1.307
2.707 0.852 1.396
2.439 6.137 1.304
2.568 6.109 1.521
2.969 6.321 0.369
3.063 5.956 0.421
2.775 6.029 0.704
2.777 5.708 0.943
2.607 5.720 1.184
2.999 6.432 0.178
2.999 6.042 0.286
2.936 5.849 0.495
2.942 5.776 0.563
2.572 5.718 0.981
2.706 5.341 1.384
2.981 5.878 0.072
3.139 5.797 -0.010
3.116 5.670 0.313
2.947 5.231 0.696
2.802 5.437 1.013
3.074 5.753 0.028
3.248 5.104 0.129
3.182 5.083 0.280
2.818 3.246 1.629
3.019 3.260 1.098
2.924 2.823 1.577
2.867 2.828 1.855
3.301 2.740 0.661
3.101 2.825 0.993
2.982 2.721 1.424
2.894 2.628 1.657
2.633 2.522 2.000
3.247 2.473 1.147
3.187 2.363 1.404
2.832 2.200 1.414
2.721 1.938 1.690
3.418 2.142 1.067
3.138 1.870 1.072
3.081 1.958 1.595
2.715 1.703 1.647
3.316 1.921 1.124
3.188 1.461 1.523
3.000 1.574 1.595
2.878 1.117 1.604
3.099 0.914 1.282
2.804 6.320 1.309
2.889 6.276 1.430
3.104 6.176 0.730
3.111 6.229 0.838
2.760 5.988 1.197
3.222 5.970 0.329
3.310 5.807 0.666
3.259 5.844 0.775
3.039 5.563 1.250
3.513 5.887 0.239
3.496 5.673 0.014
3.196 5.610 0.503
3.420 5.586 0.182
3.664 5.490 0.225
3.555 5.419 0.272
3.582 4.974 0.056
3.694 5.120 0.067
3.115 3.585 1.845
3.156 3.512 1.394
3.138 3.222 1.613
2.911 3.097 1.786
3.198 3.271 1.225
3.219 2.935 1.639
3.075 2.998 1.905
3.336 2.767 1.292
3.153 2.712 1.462
3.178 2.495 1.639
3.090 2.636 1.904
3.580 2.607 1.199
3.258 2.432 1.348
3.056 2.315 1.781
2.894 2.118 1.894
3.525 1.993 1.386
3.262 1.850 1.518
3.186 2.024 1.905
3.182 1.364 1.938
3.099 6.332 1.353
3.355 5.912 1.088
3.170 4.001 2.184
3.167 3.839 2.131
3.373 3.667 1.715
3.438 3.532 1.831
3.256 3.477 2.035
3.064 3.300 2.634
3.652 3.451 1.429
3.229 3.208 1.834
3.139 3.358 2.019
3.481 3.337 1.611
3.605 2.941 1.824
3.443 2.904 1.929
3.765 2.697 1.378
3.658 2.615 1.631
3.371 2.792 1.822
3.093 4.749 3.078
3.208 4.534 2.530
3.131 4.199 2.949
3.328 4.339 2.084
3.135 4.026 2.682
3.139 4.041 2.975
3.655 4.262 1.761
3.514 4.165 2.031
3.174 3.770 2.385
3.040 3.647 2.847
3.492 3.862 1.625
3.490 3.783 2.048
3.421 3.690 2.205
3.170 3.379 2.732
3.715 3.622 1.891
3.473 3.236 1.843
3.490 3.119 2.259
3.821 3.101 1.763
3.818 2.906 2.032
3.672 3.038 2.259
4.746 2.151 0.043
4.629 1.777 0.139
4.814 1.625 -0.037
4.681 1.271 0.342
3.151 4.989 3.161
3.258 4.752 2.704
3.093 4.861 3.165
3.695 4.498 2.642
3.422 4.608 2.900
3.406 4.317 3.067
3.877 4.470 2.250
3.784 4.261 2.565
3.562 4.190 2.704
3.235 4.003 2.978
3.839 4.292 1.783
3.842 4.332 1.884
3.895 4.113 2.365
3.748 3.814 2.586
3.602 3.859 3.008
4.243 3.822 1.677
3.937 3.744 1.815
3.764 3.561 2.068
3.840 3.646 2.355
3.465 3.368 2.724
4.155 3.448 1.727
4.113 3.264 2.101
3.776 3.259 2.251
5.119 3.044 0.083
5.218 2.633 -0.126
5.181 2.346 0.173
5.144 2.322 0.111
4.906 2.178 0.589
5.095 1.999 0.180
4.943 1.780 0.323
4.792 1.504 0.726
5.439 1.482 -0.141
5.108 1.576 0.285
4.899 1.243 0.720
3.394 4.740 3.218
3.887 4.875 2.591
3.667 4.407 2.976
3.684 4.355 3.038
4.279 4.686 2.112
4.146 4.354 2.280
3.871 4.344 2.507
3.855 4.351 2.770
3.642 4.141 3.028
4.531 4.521 1.752
4.399 4.442 1.809
4.329 4.365 2.060
3.973 4.171 2.385
3.882 4.003 2.857
3.951 3.795 3.214
4.439 3.859 1.856
4.325 3.903 2.094
3.970 3.800 2.433
4.009 3.478 2.705
4.531 3.681 1.567
4.498 3.541 2.081
4.098 3.587 2.382
5.618 2.733 -0.001
5.215 2.602 0.353
5.536 2.256 -0.007
5.366 2.120 0.512
5.300 2.039 0.756
5.044 2.072 0.990
5.379 2.010 0.170
5.244 2.001 0.468
5.386 1.552 0.668
5.162 1.714 1.051
5.642 1.671 -0.013
5.635 1.573 0.445
5.460 1.234 0.754
5.031 1.280 1.013
4.003 4.452 2.999
4.685 4.714 1.705
4.383 4.502 2.087
4.415 4.655 2.381
4.365 4.296 2.674
4.227 4.230 3.106
4.737 4.658 1.665
4.594 4.440 1.814
4.519 4.309 1.911
4.493 4.155 2.190
4.449 4.269 2.472
4.231 3.964 2.815
4.909 4.019 1.552
4.722 4.139 1.988
4.488 4.043 2.307
4.286 3.822 2.379
5.667 2.369 0.368
5.596 2.347 0.500
5.618 2.200 0.913
5.524 2.022 0.915
5.160 2.104 1.430
5.656 1.912 0.501
5.559 1.824 0.521
5.488 1.915 0.963
5.453 1.471 1.062
5.138 1.414 1.703
6.041 1.693 0.279
5.632 1.458 0.467
5.727 1.504 0.971
5.509 1.399 1.206
5.276 1.170 1.317
5.566 6.200 0.536
5.293 5.937 0.651
5.028 5.531 1.258
5.124 5.546 1.725
5.169 5.036 1.228
4.990 5.260 1.290
4.910 5.104 1.590
4.733 4.794 1.989
4.664 4.796 2.459
4.652 4.453 2.764
5.413 4.623 1.486
5.075 4.641 1.547
5.161 4.673 1.931
4.896 4.487 2.257
4.839 4.161 2.359
5.051 4.518 1.464
5.157 4.288 1.910
5.144 3.960 1.958
4.881 3.936 2.264
5.650 1.985 1.553
5.536 1.944 1.852
5.520 1.687 2.158
5.374 1.645 2.391
5.833 1.986 0.679
5.664 1.857 1.054
5.524 1.540 1.219
5.433 1.585 1.633
5.550 1.307 2.013
5.328 1.415 2.282
6.044 1.492 0.592
5.941 1.654 1.172
5.915 1.472 1.365
5.837 1.162 1.446
5.683 1.096 1.778
5.479 6.175 1.190
5.526 6.217 1.290
5.504 5.942 1.165
5.320 6.036 1.400
5.915 6.303 0.597
5.821 6.044 1.073
5.377 5.870 1.083
5.502 5.705 1.110
5.364 5.680 1.268
5.509 5.353 1.827
5.192 5.331 2.011
6.008 5.941 0.471
5.636 5.896 1.016
5.723 5.518 1.256
5.737 5.325 1.070
5.662 5.162 1.294
5.567 5.164 1.699
5.514 4.834 1.786
5.220 5.060 2.147
4.937 4.672 2.460
5.861 5.469 1.116
5.740 5.034 1.145
5.656 4.883 1.592
5.409 4.768 1.921
5.171 4.575 1.942
4.988 4.602 2.240
5.685 4.407 1.297
5.527 4.388 1.826
5.482 4.159 1.872
5.204 4.211 2.402
5.481 4.113 1.497
5.413 4.067 1.938
5.077 2.097 3.100
5.271 1.840 2.739
5.320 1.968 2.794
5.910 2.052 1.889
5.718 1.650 2.068
5.603 1.794 2.439
5.306 1.605 2.771
6.060 1.764 1.410
5.676 1.482 1.886
5.668 1.377 2.196
5.722 1.454 2.373
5.486 1.331 2.633
6.330 1.559 1.092
5.953 1.404 1.300
5.886 1.462 1.552
5.658 1.076 2.144
5.591 0.938 2.353
0.195 1.183 0.190
0.058 0.680 0.218
0.187 1.616 0.239
0.464 1.315 -0.177
0.455 1.167 0.102
0.566 0.806 0.174
0.692 0.393 0.263
0.429 0.333 0.083
0.757 0.249 0.010
-0.083 5.896 0.851
0.132 5.446 1.112
0.206 5.053 0.917
-0.034 5.033 1.007
0.272 4.898 0.882
-0.086 4.679 1.322
0.153 4.468 1.348
0.008 4.243 1.389
0.187 4.088 1.309
0.117 5.897 1.125
0.157 5.804 1.228
0.141 5.737 1.285
0.245 5.716 1.682
0.713 5.637 0.648
0.271 5.636 1.011
0.176 5.470 1.262
0.319 5.346 1.665
0.755 5.272 0.774
0.520 5.152 1.150
0.545 5.126 1.126
0.221 5.136 1.732
0.240 4.902 1.991
0.776 5.079 1.067
0.632 4.919 1.361
0.256 4.779 1.601
0.207 4.654 1.839
0.388 4.489 1.256
0.440 4.383 1.194
0.309 4.411 1.554
0.461 4.243 1.454
0.409 3.823 1.622
0.488 3.851 1.294
0.306 5.753 1.014
0.167 5.827 1.364
0.042 5.542 1.782
0.652 6.021 1.189
0.666 5.653 0.978
0.695 5.657 1.379
0.750 5.588 1.507
0.627 5.416 1.630
0.859 5.496 1.040
0.824 5.442 1.251
0.598 5.147 1.353
0.708 5.055 1.704
0.493 5.037 1.972
0.995 5.254 0.672
0.798 4.828 0.881
0.857 5.048 1.415
0.502 4.650 1.592
0.438 4.683 1.850
0.964 4.853 1.143
0.973 4.620 1.419
0.553 4.414 1.419
0.562 4.182 1.857
0.747 4.316 1.610
0.776 3.964 1.638
0.770 3.688 1.755
1.885 2.579 -0.119
0.602 5.852 1.166
0.955 5.788 0.933
0.857 5.503 1.410
0.751 5.526 1.621
1.404 5.733 0.806
1.297 5.532 1.028
0.960 5.297 1.314
0.936 5.137 1.726
0.998 5.274 1.944
1.458 5.432 0.806
1.247 5.220 1.104
1.221 5.056 1.167
1.133 4.814 1.556
0.796 4.813 1.790
0.944 4.697 1.940
1.221 5.020 0.980
1.244 4.633 1.091
1.280 4.576 1.565
0.863 4.493 1.585
0.844 4.488 1.840
1.214 4.148 1.682
0.878 3.957 2.010
2.063 3.106 -0.115
1.992 2.877 0.108
2.027 2.488 0.002
1.937 2.475 0.561
2.072 2.271 0.137
1.609 5.943 0.822
1.299 5.854 1.129
1.222 5.687 1.445
1.826 5.873 0.437
1.709 5.647 0.730
1.459 5.430 1.101
1.299 5.427 1.413
1.100 5.280 1.790
1.856 5.403 0.352
1.755 5.529 0.469
1.664 5.270 0.694
1.567 5.108 1.038
1.379 5.062 1.382
1.523 4.819 1.727
2.048 5.028 0.360
1.893 4.921 0.675
1.677 4.822 0.900
1.444 4.654 1.200
2.502 2.918 -0.043
2.368 2.617 0.476
2.052 2.593 0.730
2.361 2.513 0.102
2.233 2.254 0.432
2.276 2.362 0.879
2.577 2.106 0.183
2.342 1.942 0.501
2.380 2.084 0.725
0.809 3.310 2.864
0.715 3.323 2.863
0.545 3.072 3.405
0.458 3.026 3.432
0.459 2.914 3.993
0.299 2.963 4.163
1.083 3.306 2.677
0.828 3.016 2.852
0.951 2.818 3.065
0.827 2.905 3.397
0.690 2.621 3.746
1.028 2.782 2.798
0.749 2.645 3.294
0.943 2.381 3.562
0.571 2.315 3.608
0.012 0.583 5.004
0.205 0.636 5.403
0.406 0.339 4.861
0.058 0.102 5.271
0.373 0.175 4.796
0.385 0.264 4.860
1.543 0.411 2.105
1.723 0.564 2.360
1.294 0.293 2.937
1.133 0.053 3.150
1.925 0.584 1.676
1.761 0.225 2.181
1.585 0.177 2.392
1.497 0.061 2.517
2.085 0.160 1.905
0.359 5.538 3.636
0.236 5.448 3.837
0.113 3.165 5.222
0.110 3.193 5.428
0.324 3.330 4.958
0.113 2.817 5.079
0.309 2.905 5.067
0.788 3.326 4.145
0.543 3.148 4.323
0.509 3.085 4.668
0.137 2.797 5.017
0.408 2.567 4.733
0.993 3.147 3.383
0.910 2.977 3.579
0.811 2.910 4.077
0.463 3.009 4.282
0.411 2.807 4.464
0.491 2.706 4.780
1.114 3.023 3.153
1.128 2.895 3.543
0.938 2.640 3.757
0.917 2.717 4.066
0.837 2.492 4.339
0.639 2.620 4.342
1.052 2.605 3.312
1.183 2.598 3.527
0.778 2.460 3.892
0.945 2.095 4.268
1.227 2.329 3.465
0.022 0.965 5.738
0.387 0.633 5.667
0.079 0.612 5.669
0.160 0.259 6.199
0.523 0.291 5.614
0.152 0.162 5.593
0.318 0.091 6.050
0.649 0.161 5.306
2.093 1.394 1.757
1.970 1.080 2.073
2.197 1.160 1.397
2.213 0.774 1.641
2.106 0.851 2.179
1.860 0.631 2.518
1.827 0.471 2.660
2.375 0.751 1.602
2.437 0.398 1.801
2.131 0.291 1.916
1.879 0.276 2.150
1.918 0.271 2.662
1.915 -0.064 2.900
2.416 0.234 1.708
2.118 0.010 2.046
2.188 -0.137 2.188
0.724 5.729 3.429
0.504 5.323 3.735
0.480 5.269 4.108
0.729 5.320 3.747
0.141 3.781 5.726
0.017 3.555 5.816
0.456 3.595 5.169
0.393 3.539 5.587
0.256 3.321 5.974
0.128 3.358 5.993
0.328 3.736 5.476
0.676 3.319 5.149
0.227 3.105 5.342
0.136 2.940 5.876
-0.064 2.796 5.861
0.674 3.339 4.770
0.314 3.123 5.296
0.683 3.146 5.152
0.627 3.044 5.557
0.400 2.916 5.667
0.827 3.364 4.187
0.794 3.166 4.540
0.595 3.271 4.896
0.621 2.928 5.149
0.714 2.730 5.046
0.455 2.720 5.162
1.034 3.078 3.791
1.207 3.141 4.009
1.106 3.101 4.516
0.633 2.923 4.730
0.664 2.612 4.881
0.705 2.248 4.768
1.584 3.093 3.577
1.317 2.858 3.804
1.329 2.697 4.232
0.910 2.760 4.399
0.847 2.387 4.587
0.641 2.443 4.852
1.537 2.576 3.520
1.388 2.601 3.744
1.067 2.585 4.057
0.996 2.261 4.142
1.116 2.323 4.546
1.623 2.133 3.685
1.163 1.960 3.980
1.276 1.969 4.240
0.498 0.827 6.006
0.389 0.501 5.931
0.357 0.575 6.221
0.640 0.408 5.771
0.327 0.134 6.077
2.493 1.772 2.023
2.654 1.282 1.815
2.479 1.382 1.907
2.819 0.896 1.497
2.343 0.873 1.894
2.298 0.849 2.366
2.271 0.753 2.360
2.660 0.904 1.656
2.718 0.730 1.718
2.627 0.661 2.073
2.181 0.416 2.407
2.139 0.183 2.593
2.731 0.590 1.424
2.615 0.259 1.608
2.702 0.264 2.118
2.258 0.162 2.224
0.878 5.699 3.334
1.016 5.597 3.691
0.930 5.565 4.115
0.575 5.276 4.170
0.921 5.297 3.795
0.153 4.144 6.299
1.530 5.360 3.624
1.321 5.452 3.763
1.325 5.351 4.063
0.281 4.050 6.075
0.139 4.003 6.073
0.578 4.119 5.407
0.623 3.752 5.662
0.381 3.558 6.106
0.485 3.808 5.705
0.612 3.756 5.545
0.626 3.339 5.715
0.501 3.406 5.887
0.416 3.444 6.459
0.656 3.746 5.543
0.853 3.424 5.466
0.596 3.311 5.807
0.424 3.179 5.951
0.345 2.931 6.349
1.056 3.360 4.989
0.824 3.486 5.394
1.038 3.060 5.109
0.768 2.980 5.643
1.019 3.177 4.739
1.126 3.092 4.901
0.752 3.007 5.180
1.119 2.776 5.182
0.864 2.539 5.547
1.408 3.172 4.462
1.145 3.094 4.607
1.035 2.779 4.910
1.136 2.558 5.320
0.910 2.561 5.160
1.529 2.953 3.818
1.378 2.857 4.292
1.128 2.661 4.639
1.200 2.572 4.720
1.075 2.600 4.943
1.575 2.754 3.905
1.646 2.433 4.018
1.503 2.231 4.577
1.331 2.216 4.667
1.593 2.179 3.941
1.658 1.989 3.955
1.347 2.182 4.237
1.440 1.777 4.639
1.738 1.713 4.104
1.442 1.841 4.421
0.623 0.512 6.217
2.870 1.808 1.857
2.915 1.206 1.827
2.543 1.368 2.062
2.972 1.005 1.753
2.934 1.039 2.042
2.743 0.676 2.375
3.077 0.837 1.791
2.847 0.575 1.996
2.723 0.532 2.280
2.468 0.439 2.592
3.091 0.513 1.485
2.891 0.334 1.925
2.989 0.247 2.207
2.565 -0.080 2.573
1.297 5.826 3.735
1.249 5.799 3.716
1.218 5.520 4.096
1.090 5.494 4.333
0.085 4.253 6.317
1.535 5.370 3.636
1.139 5.542 3.854
1.296 5.459 3.982
0.616 4.515 6.308
1.763 5.551 3.577
1.444 5.521 4.060
1.489 5.213 4.165
0.688 4.307 6.151
1.946 5.425 3.655
1.869 5.145 3.746
1.455 5.048 4.087
0.604 3.817 5.979
0.590 3.673 6.068
0.960 3.803 5.482
1.010 3.523 5.931
0.629 3.570 5.988
1.042 3.860 5.471
1.035 3.371 5.367
0.865 3.143 5.670
0.998 3.252 5.439
1.213 3.026 5.350
1.419 3.258 5.230
1.246 3.010 5.290
1.354 2.897 5.494
1.471 3.014 4.844
1.427 3.046 4.909
1.226 2.904 5.459
1.606 2.708 4.572
1.513 2.831 4.682
1.349 2.674 4.820
1.934 2.521 4.082
1.650 2.623 4.178
1.542 2.238 4.659
1.612 2.108 4.876
1.943 2.488 3.946
2.004 2.062 4.267
1.889 2.063 4.316
1.630 1.856 4.832
1.955 1.753 4.149
1.796 1.859 4.316
1.859 1.774 4.779
1.998 1.570 4.308
3.228 1.539 2.148
3.099 0.943 2.153
3.062 0.976 2.252
3.341 0.939 1.889
3.249 0.553 2.045
2.997 0.508 2.329
3.402 0.346 1.899
3.401 0.539 2.168
3.070 0.362 2.482
3.019 -0.020 2.772
1.940 6.072 3.414
1.648 5.865 3.858
1.413 5.778 4.138
1.216 5.660 4.178
0.460 4.420 6.265
1.872 5.584 3.634
1.781 5.418 3.842
1.589 5.166 4.167
2.045 5.759 3.686
1.774 5.351 4.171
1.902 5.325 4.485
1.053 4.261 6.339
2.117 5.554 3.390
2.047 5.273 3.612
2.025 5.320 3.867
1.814 4.995 4.239
2.208 4.960 3.295
2.076 4.894 3.637
2.134 4.982 3.960
1.872 4.611 4.124
2.314 4.759 3.353
2.194 2.379 4.291
1.879 2.467 4.614
2.004 2.306 4.842
2.238 2.271 3.956
2.077 2.159 4.203
2.112 1.960 4.676
1.814 2.085 4.931
2.275 1.980 3.983
2.400 1.904 4.348
2.334 1.838 4.502
2.211 1.879 4.828
2.397 1.712 3.994
2.118 1.520 4.370
2.201 1.279 4.733
2.437 1.299 4.262
2.237 1.229 4.363
2.307 0.962 4.706
3.559 0.309 2.316
3.428 0.320 2.436
2.084 5.875 4.005
1.807 5.866 4.091
1.753 5.500 4.597
1.963 5.608 3.828
1.863 5.592 3.912
1.942 5.408 4.275
2.245 5.640 3.976
2.195 5.594 4.254
1.950 5.512 4.443
2.366 5.397 3.646
2.291 5.450 3.799
2.424 5.077 4.178
2.202 5.138 4.233
2.771 5.289 3.345
2.599 5.192 3.715
2.447 4.837 3.927
2.404 4.624 4.263
2.810 4.727 3.324
2.449 4.846 3.640
2.600 4.735 3.803
2.270 4.430 4.246
2.770 4.393 3.311
2.655 4.363 3.395
2.463 4.455 3.851
2.937 4.065 3.376
2.596 4.122 3.477
3.039 4.103 3.009
2.339 2.449 4.491
2.389 2.096 4.893
2.567 2.257 4.112
2.595 2.156 4.319
2.611 1.870 4.729
2.304 1.898 4.924
2.817 1.745 3.880
2.768 1.808 4.488
2.612 1.700 4.671
2.437 1.315 4.866
2.236 0.843 5.009
2.758 1.559 3.825
2.669 1.415 4.355
2.657 1.154 4.592
2.680 1.226 4.927
2.367 1.093 4.940
2.436 0.556 4.950
2.957 1.039 4.130
2.566 1.032 4.393
2.536 0.955 4.554
2.402 0.795 5.116
2.475 0.360 4.867
2.427 0.450 5.247
2.667 0.599 4.476
2.615 0.482 4.498
2.516 0.406 4.903
2.793 0.169 4.801
2.838 0.076 4.480
2.635 0.190 4.787
2.007 5.858 4.362
2.371 5.602 4.006
2.010 5.621 4.045
2.132 5.511 4.443
2.509 5.393 4.257
2.465 5.508 4.618
2.798 5.422 4.127
2.457 5.329 4.163
2.299 5.030 4.566
2.184 5.151 4.761
2.766 5.173 3.790
2.726 5.227 3.962
2.823 5.014 4.286
2.669 4.749 4.331
2.334 4.887 4.715
3.100 5.052 3.380
2.789 4.890 3.751
2.605 4.594 4.110
2.651 4.557 4.471
2.445 4.386 4.620
3.133 4.745 3.361
3.142 4.406 3.777
2.833 4.463 4.145
2.687 4.249 4.381
3.125 4.244 3.518
3.200 4.033 3.800
3.095 3.957 3.321
2.885 2.270 4.434
2.990 1.920 4.568
2.760 1.773 4.730
3.153 1.855 4.235
3.108 1.654 4.362
2.967 1.541 4.828
2.760 1.443 5.151
2.573 1.077 5.231
3.166 1.591 3.982
2.981 1.554 4.327
2.935 1.205 4.769
2.703 1.059 5.124
2.717 1.144 5.063
2.703 0.845 5.299
2.777 0.486 5.297
3.133 1.320 3.948
3.145 1.273 4.117
3.185 1.034 4.438
2.779 1.014 4.802
2.878 0.708 5.109
2.691 0.298 5.212
2.601 0.202 5.474
2.443 0.221 5.756
3.290 0.590 4.655
2.827 0.429 4.590
2.929 0.552 5.093
2.822 0.157 4.892
2.984 -0.050 5.301
3.099 0.250 4.664
2.922 -0.025 5.109
2.373 5.627 4.220
2.528 5.443 4.597
2.961 5.399 4.589
2.843 5.240 4.767
2.729 5.199 5.019
3.100 5.069 3.929
3.090 5.094 4.200
2.901 4.808 4.684
2.648 4.672 4.999
2.655 4.657 5.254
3.239 5.091 3.640
3.213 4.714 4.076
2.935 4.754 4.254
2.868 4.442 4.546
2.640 4.467 4.640
3.276 4.509 3.617
3.190 4.518 3.733
3.248 4.287 4.048
2.854 4.097 4.352
3.323 4.364 3.315
3.294 4.269 3.757
3.554 4.135 3.392
3.172 2.212 4.410
3.117 1.923 4.580
3.581 1.995 4.084
3.323 1.939 4.356
3.359 1.766 4.623
3.089 1.833 4.970
3.522 1.619 4.056
3.503 1.657 4.386
3.165 1.318 4.717
3.339 1.224 4.902
3.166 1.215 4.935
2.919 0.931 5.356
3.874 1.413 3.726
3.556 1.194 3.979
3.387 1.124 4.373
3.242 1.185 4.706
3.331 1.010 5.039
2.913 0.648 5.196
3.286 0.462 5.015
3.077 0.435 5.564
2.965 0.234 5.861
3.670 0.838 4.347
3.500 0.870 4.553
3.388 0.757 4.925
3.301 0.520 5.200
3.419 0.308 5.113
3.274 0.093 5.408
3.206 0.409 4.970
3.422 0.246 5.197
2.931 5.397 4.759
2.978 4.987 5.172
2.615 5.130 5.349
3.346 4.962 4.348
3.129 5.097 4.760
3.072 4.666 5.177
3.019 4.597 5.454
2.712 4.687 5.514
3.568 4.825 3.968
3.172 4.751 4.354
3.343 4.707 4.595
3.234 4.335 4.823
2.946 4.536 5.107
2.846 4.361 5.377
3.731 4.556 3.927
3.272 4.614 4.176
3.277 4.193 4.420
3.137 4.302 4.805
4.082 2.209 3.963
3.944 1.960 4.249
3.573 1.954 4.545
3.480 1.822 4.633
3.844 1.847 3.845
3.898 1.679 4.235
3.757 1.603 4.486
3.787 1.387 4.540
3.359 1.415 5.104
4.126 1.468 3.799
3.835 1.567 3.890
3.779 1.241 4.443
3.628 1.048 4.701
3.711 1.106 4.982
3.305 0.787 5.194
3.621 0.848 4.895
3.694 0.590 5.004
3.491 0.104 5.551
3.264 5.206 5.194
2.928 5.150 5.678
3.041 4.812 5.666
3.412 4.876 4.920
3.301 5.003 5.083
3.055 4.842 5.397
3.139 4.530 5.598
2.915 4.415 6.091
3.366 4.499 4.916
3.434 4.705 5.103
3.171 4.450 5.431
3.172 4.301 5.580
2.876 4.023 5.766
3.460 4.411 4.877
3.242 4.220 5.216
3.289 4.148 5.663
2.930 3.954 5.692
2.903 3.735 6.192
4.375 2.376 3.953
4.376 2.367 3.962
4.039 1.981 4.196
4.029 1.976 4.577
4.524 2.340 3.583
4.444 1.869 3.677
4.482 1.928 3.991
4.139 1.908 4.373
4.157 1.617 4.482
3.939 1.672 4.911
4.577 1.798 3.177
4.520 1.909 3.725
4.365 1.438 3.939
4.141 1.308 4.046
4.113 1.403 4.563
4.761 1.603 3.160
3.604 5.367 5.610
3.418 5.084 5.623
3.300 5.085 5.943
3.086 4.879 6.353
3.751 5.020 5.257
3.477 4.695 5.555
3.142 4.454 6.027
3.114 4.642 6.170
3.661 4.707 5.396
3.369 4.387 5.664
3.319 4.307 5.961
3.412 4.349 6.152
3.705 4.235 5.599
3.449 3.913 5.630
3.319 3.939 6.013
3.309 3.654 6.160
3.302 3.594 5.726
3.329 3.344 6.057
4.536 2.684 4.224
4.442 2.561 4.411
4.427 2.261 4.629
4.884 2.572 3.519
4.464 2.351 4.106
4.690 2.277 4.092
4.536 2.043 4.672
4.891 2.453 3.143
4.972 2.112 3.501
4.854 2.251 3.950
4.716 1.807 4.125
4.321 1.842 4.502
4.515 1.725 4.857
5.246 2.002 3.270
4.830 2.013 3.608
4.787 1.595 3.702
4.610 1.529 4.060
4.427 1.353 4.507
5.333 1.596 3.121
5.213 1.433 3.527
4.965 1.596 3.863
5.185 1.236 2.919
-0.060 0.830 0.262
0.081 0.180 0.094
0.206 1.485 0.638
0.257 1.347 0.837
0.278 0.973 0.616
0.080 0.721 0.825
0.220 0.816 0.381
-0.098 2.244 1.326
0.322 1.799 0.817
0.161 2.002 1.124
0.183 1.491 1.243
0.075 1.491 1.630
-0.006 3.669 1.634
0.332 3.315 1.359
0.216 3.209 1.782
0.349 3.073 1.502
0.045 2.875 1.750
0.228 2.422 1.564
-0.037 2.388 1.899
0.406 2.233 1.366
0.237 2.066 1.691
-0.091 1.765 2.117
0.390 1.580 1.840
0.135 4.399 2.139
0.352 4.173 1.963
0.316 3.742 1.801
0.053 3.734 2.157
0.021 3.455 2.446
0.322 3.446 1.819
0.064 3.418 2.148
0.268 3.431 2.363
0.499 3.265 1.527
0.490 3.009 1.832
0.286 2.965 2.330
0.244 2.956 2.546
0.581 2.856 1.421
0.436 2.821 1.737
0.386 2.691 2.116
0.177 2.491 2.269
0.109 2.385 2.813
0.365 2.388 1.719
0.396 2.433 1.891
0.430 2.113 2.269
0.486 2.220 2.101
0.040 0.237 3.356
0.282 -0.075 2.560
0.485 4.340 2.187
0.323 4.207 2.053
0.286 4.274 2.487
0.405 3.778 2.160
0.342 3.782 2.125
0.440 3.797 2.365
0.724 3.712 2.060
0.382 3.480 2.102
0.382 3.546 2.411
0.300 3.331 2.776
0.038 2.994 3.124
0.704 3.197 1.870
0.783 3.014 2.251
0.568 2.919 2.281
0.415 3.033 2.786
0.284 2.793 3.010
0.657 2.857 1.897
0.646 2.931 2.413
0.341 2.602 2.442
0.300 2.593 2.964
0.768 2.275 2.268
0.579 2.482 2.329
0.454 2.272 2.876
-0.043 0.742 3.856
-0.039 0.777 3.917
0.122 0.215 3.618
0.127 0.431 4.232
0.140 0.654 3.626
0.182 0.562 3.831
0.117 0.049 3.573
0.480 0.274 3.068
0.537 0.291 3.587
0.376 -0.091 3.720
0.709 0.258 2.834
0.504 -0.064 3.194
0.733 4.127 2.190
0.837 4.002 1.989
0.588 3.782 2.320
0.726 3.598 2.688
1.072 3.747 2.202
0.986 3.481 2.154
0.797 3.544 2.676
0.409 3.372 2.977
0.365 3.144 3.077
0.255 3.187 3.297
1.072 3.129 2.205
0.704 3.162 2.468
0.802 2.960 2.945
0.406 2.839 3.160
0.253 2.740 3.395
1.032 2.830 2.542
0.571 2.578 2.736
0.727 2.410 3.138
0.363 2.526 3.161
0.918 2.516 2.698
0.790 2.151 3.052
0.366 0.616 4.197
-0.050 0.542 4.402
0.576 0.550 4.036
0.184 0.278 4.389
0.263 0.003 4.507
-0.043 0.041 4.811
0.555 0.307 4.078
0.425 0.039 3.694
0.538 0.381 3.680
0.517 0.301 3.933
1.305 0.196 2.472
0.887 0.201 2.813
0.813 -0.007 3.214
1.503 0.420 2.044
1.504 -0.014 2.150
0.838 3.543 2.669
0.750 3.374 3.158
0.858 3.294 3.257
0.497 3.169 3.569
0.526 3.093 3.850
0.387 2.938 4.068
1.141 3.076 2.670
0.854 2.851 2.844
0.997 2.740 3.048
0.581 2.692 3.347
0.587 2.569 3.753
0.907 2.768 2.842
0.845 2.712 3.266
0.702 2.357 3.573
0.645 2.457 3.581
0.196 0.621 5.125
-0.139 0.576 5.509
0.095 0.453 5.174
-0.002 0.416 5.318
0.330 0.081 4.661
0.340 -0.061 4.771
1.545 0.589 2.191
1.492 0.627 2.462
1.252 0.484 2.799
1.459 0.079 2.986
1.759 0.555 1.790
1.682 0.378 2.297
1.700 0.236 2.261
1.477 0.196 2.737
1.910 0.154 1.875
0.359 5.640 3.729
0.201 5.400 4.044
5.850 5.915 1.429
5.698 5.722 1.799
6.226 6.155 0.797
6.048 6.000 1.213
5.891 5.913 1.307
5.743 5.681 1.367
5.740 5.417 1.755
5.767 5.575 1.745
5.997 5.871 0.770
5.994 6.000 1.008
6.032 5.835 1.290
5.850 5.421 1.377
5.889 5.385 1.620
5.624 5.265 1.607
5.798 5.182 2.185
5.614 5.097 2.150
6.112 5.528 1.000
6.101 5.316 1.387
6.264 5.116 1.056
5.975 4.927 1.494
5.725 4.789 1.815
5.845 4.835 1.858
5.745 4.640 2.331
6.216 5.111 1.008
5.906 4.783 1.379
6.022 4.738 1.698
5.899 4.470 1.812
5.820 4.432 2.271
6.088 4.076 1.600
5.976 4.056 1.743
5.653 3.847 2.141
5.643 2.297 3.078
5.676 1.825 2.828
5.517 2.027 2.890
6.073 1.995 2.129
6.079 1.994 2.386
5.840 1.709 2.793
5.701 1.450 2.780
6.401 1.662 1.771
6.275 1.619 2.123
5.843 1.587 2.298
5.981 1.415 2.603
5.706 1.248 2.639
6.211 1.159 1.982
6.265 1.301 2.289
6.099 0.993 2.578
5.922 1.039 2.690
5.021 6.165 3.675
6.007 6.218 1.697
5.822 5.898 1.709
6.196 6.110 1.304
6.152 6.005 1.474
6.264 5.749 1.534
5.913 5.654 1.725
6.019 5.494 1.838
6.177 5.617 1.502
6.220 5.464 1.476
5.883 5.063 1.787
5.878 5.135 2.223
6.155 5.080 1.596
6.307 4.968 1.851
5.943 4.902 2.107
5.880 4.622 2.347
6.312 4.477 1.872
6.037 4.570 1.932
5.837 4.405 2.164
6.082 4.322 1.918
6.132 3.968 2.023
6.239 3.947 1.722
5.935 2.188 3.104
6.038 2.027 2.766
5.998 1.830 3.275
6.103 1.786 2.412
6.039 1.653 2.747
6.036 1.577 3.153
6.267 1.483 2.721
6.090 1.395 2.867
6.457 1.210 2.492
6.041 1.004 3.045
5.372 6.292 4.044
4.992 6.024 4.288
5.253 5.756 3.770
5.289 5.726 4.113
5.550 6.385 4.231
5.305 6.239 4.289
5.284 6.140 4.618
5.688 6.044 3.672
5.466 5.766 3.988
5.618 5.951 4.395
5.546 5.691 4.528
5.725 5.736 3.741
5.481 5.488 4.112
5.420 5.438 4.598
5.821 5.301 4.026
5.393 5.101 4.188
5.509 4.592 4.363
5.927 6.187 4.124
5.720 6.029 4.428
6.254 6.103 3.669
6.127 6.061 4.031
5.918 5.980 3.995
5.731 5.760 4.308
5.684 5.818 4.566
6.289 5.662 3.578
6.132 5.744 4.006
5.741 5.617 4.158
5.681 5.333 4.455
6.153 5.278 3.839
5.869 5.300 4.384
5.982 5.130 4.461
6.170 4.978 3.976
5.773 4.855 4.289
6.157 4.486 4.452
6.133 6.184 4.592
6.114 5.822 4.294
6.114 5.860 4.619
5.988 5.816 4.721
6.248 5.470 4.386
6.005 5.422 4.798
6.230 5.420 4.206
6.103 5.298 4.644
6.333 4.951 4.497
6.224 3.968 6.096
3.287 5.172 6.178
3.510 4.961 5.762
3.406 4.998 6.025
3.724 4.809 5.917
3.745 4.623 6.184
3.935 4.677 5.653
3.603 4.250 5.830
3.451 4.084 6.298
3.785 4.211 5.987
3.796 3.911 6.195
3.750 3.788 5.953
3.581 3.148 6.190
4.889 2.784 3.854
4.937 2.566 4.295
4.615 2.509 4.475
5.243 2.601 3.663
5.056 2.407 3.738
4.929 2.452 4.100
4.905 2.469 4.519
4.846 2.041 4.608
5.221 2.539 3.542
5.050 2.286 3.702
5.136 2.289 4.106
4.961 2.049 4.128
4.760 1.862 4.656
5.242 1.885 3.392
5.358 1.893 3.517
5.278 1.883 3.807
5.041 1.744 4.080
5.481 1.793 3.330
5.250 1.506 3.546
5.287 1.358 3.735
5.469 1.350 3.000
5.290 1.219 3.548
5.820 1.258 3.200
3.327 5.153 6.074
3.844 5.295 6.076
3.954 5.029 6.097
4.015 5.016 5.980
4.049 4.687 6.054
3.844 4.447 5.989
5.309 3.066 4.078
5.010 3.089 4.301
4.854 2.804 4.730
5.223 2.786 4.144
5.012 2.601 4.352
5.149 2.610 4.713
5.318 2.563 3.604
5.223 2.695 3.883
5.140 2.441 4.178
4.928 2.390 4.555
5.526 2.476 3.677
5.556 2.245 3.731
5.265 1.982 4.070
5.064 2.174 4.496
5.504 2.110 3.376
5.491 2.032 3.921
5.530 1.869 3.909
5.638 1.669 3.342
5.629 1.629 3.603
5.735 1.318 3.332
3.929 5.523 6.032
4.142 5.647 6.177
4.379 5.052 5.988
5.199 3.600 4.470
5.369 3.470 4.559
5.057 3.302 4.894
5.492 3.372 4.446
5.343 2.967 4.432
5.078 2.969 4.741
5.506 2.776 4.232
5.280 2.761 4.567
5.119 2.829 4.868
5.636 2.668 3.672
5.578 2.579 4.064
5.516 2.654 4.458
5.383 2.278 4.789
5.647 2.350 3.948
5.788 2.313 4.483
5.564 0.025 5.392
4.215 5.490 6.107
5.541 4.687 4.667
5.532 4.451 4.555
5.520 4.039 4.888
5.202 4.022 4.834
5.793 3.988 4.311
5.512 3.994 4.589
5.339 3.739 4.768
5.219 3.551 5.120
5.828 3.593 4.359
5.650 3.738 4.616
5.529 3.508 4.808
5.562 3.484 5.166
5.821 3.434 4.458
5.548 3.045 4.723
5.363 2.984 5.064
5.951 2.971 4.535
5.614 2.940 4.504
5.616 2.654 5.096
5.845 2.649 4.597
5.292 0.912 6.316
5.093 0.886 6.145
5.412 0.601 6.168
5.448 0.619 5.731
5.415 0.325 6.125
5.495 0.291 6.061
5.743 0.515 5.304
5.517 0.400 5.514
5.546 0.191 5.840
5.451 0.218 5.987
5.733 0.189 5.103
5.706 -0.047 5.293
5.446 5.420 5.016
5.550 4.834 4.696
5.968 4.523 4.748
5.512 4.685 5.046
5.719 4.244 5.247
5.954 4.441 4.755
5.728 4.393 4.721
5.592 4.091 4.998
5.557 3.835 5.354
5.835 4.174 4.636
5.922 3.873 4.658
5.772 3.797 5.247
5.688 3.746 5.318
6.235 3.725 4.410
5.996 3.562 4.565
6.001 3.573 4.993
5.598 3.546 5.216
5.483 3.261 5.598
5.873 3.259 4.445
5.817 3.341 4.883
5.760 3.223 5.173
6.011 2.973 4.859
5.570 1.231 6.386
5.545 1.109 6.029
6.126 0.797 5.577
5.890 0.936 5.790
5.826 0.525 6.078
5.656 0.078 6.301
6.165 0.732 4.951
6.029 0.604 5.369
5.815 0.432 5.810
5.940 0.411 6.060
5.837 0.341 6.255
6.104 0.480 5.081
6.034 0.107 5.141
6.050 0.178 5.398
5.803 0.093 5.904
5.764 5.468 5.107
5.950 4.920 4.839
5.900 5.030 5.148
6.154 4.863 4.669
6.075 4.654 4.948
5.899 4.512 5.575
6.292 4.442 4.600
6.086 4.387 4.966
5.848 4.277 5.268
5.973 3.852 5.540
5.611 3.840 5.819
6.184 3.985 4.503
6.250 4.041 4.978
6.088 3.757 5.049
5.922 3.645 5.598
5.623 3.754 5.689
6.188 3.518 4.999
6.228 3.488 5.270
6.038 3.276 5.422
6.025 3.281 5.671
6.254 3.310 4.971
6.255 3.281 5.403
5.863 2.900 5.591
6.122 1.015 5.994
6.055 0.952 6.206
6.094 0.912 5.542
5.954 0.877 5.941
6.169 0.771 6.200
6.212 0.443 5.730
6.239 0.206 5.929
6.354 0.129 5.887
6.205 4.452 5.304
6.322 4.390 5.514
6.411 4.052 5.346
5.950 4.035 5.928
5.958 3.975 5.928
6.060 3.618 5.808
6.158 3.585 6.098
5.998 3.680 6.271
6.293 3.345 5.696
6.146 3.453 5.951
6.179 3.252 6.000
6.316 3.103 5.790
6.446 4.050 6.078
4.588 0.635 -0.054
4.691 0.841 0.336
4.641 0.765 0.237
4.973 0.608 0.131
4.927 1.278 -0.041
4.767 1.107 0.201
4.930 0.684 0.064
5.344 0.800 -0.040
5.198 1.338 0.098
4.976 1.014 0.371
5.477 0.806 0.191
5.562 1.214 0.180
5.579 1.046 0.196
5.494 1.123 0.529
5.277 0.858 0.738
5.988 1.123 0.471
5.773 0.999 0.763
5.419 1.030 1.032
5.960 1.306 0.899
6.033 1.021 1.299
5.623 1.040 1.310
6.028 1.271 1.354
5.874 1.128 1.572
5.856 0.843 1.947
6.111 0.987 1.885
6.228 0.684 2.406
6.245 0.691 2.729
6.188 0.199 4.848
