10.540627 23.880836 9.194176
67.95363 46.360836 63.681175
68.59363 47.500835 65.09418
65.542625 40.094837 74.516174
63.138626 39.04384 73.72617
52.506626 14.09684 37.057175
50.380627 15.3578415 37.006176
43.42663 8.379837 46.355175
45.239628 9.149841 47.820175
1.5406265 18.824837 19.268173
1.6746292 20.861837 18.447174
12.001633 22.687838 12.275174
12.222626 20.872837 11.254174
40.685627 60.672836 7.355174
40.362625 62.484837 7.729174
31.144627 57.37084 16.396173
33.373627 57.937836 17.286175
58.730625 37.45384 52.549175
57.285625 38.84884 53.066174
52.555626 31.266836 61.787174
53.912624 29.692837 61.949173
12.858627 3.5608368 61.949173
10.945633 3.6448364 61.028175
2.155632 0.4718399 69.833176
2.8476257 1.1618423 71.85417
2.1826324 7.645836 38.409176
1.9876328 5.2628403 38.051174
64.930626 6.422844 46.196175
65.737625 4.9348373 47.509174
27.156626 35.683838 62.949173
26.093626 34.794838 61.504173
37.132626 34.88484 55.320175
35.770626 36.150837 53.895172
51.073627 67.24684 32.653175
52.137627 69.48484 32.861176
57.618626 1.3128433 22.510174
59.037624 0.20783997 23.415174
1.8436279 13.094841 74.50817
71.36063 14.080841 74.56818
69.696625 7.391838 9.746178
68.42263 8.05584 11.246178
53.261627 33.246838 47.397175
51.650627 33.303837 46.192173
45.103626 38.697838 56.943172
43.490627 38.968838 56.112175
51.327625 32.405838 25.236174
52.603626 31.254837 26.579174
59.587627 31.686836 16.851173
60.889626 33.81984 16.196175
48.637627 56.775837 31.297174
46.482628 56.994835 29.951174
42.931625 52.094837 40.744175
41.202625 53.78684 41.399174
31.384626 14.399837 61.324173
32.228626 15.252837 58.656174
41.366627 17.452837 51.387173
42.609627 15.885837 52.343174
42.664627 20.022837 18.187174
43.48863 18.176836 17.355173
34.241627 11.938837 23.275173
34.247627 11.602837 25.044174
4.8116302 38.305836 47.943172
2.6266327 39.36984 47.477173
63.372627 36.435837 52.332172
64.80063 36.72284 54.489174
12.63163 43.755836 38.602173
11.804626 46.351837 39.018173
3.5726318 44.173836 47.97917
3.315628 41.86384 46.642174
32.227627 44.99584 71.78918
29.903625 44.297836 72.89417
29.973625 43.871838 9.819176
31.166626 42.136837 10.891174
9.878632 31.737837 10.311173
9.737633 32.996838 12.629174
1.1856308 32.246838 21.323174
71.06463 31.859837 19.436174
28.011625 34.734837 65.638176
28.188625 36.636837 66.88518
17.645626 38.005836 72.862175
15.666626 37.886837 72.04018
29.744627 2.9208374 56.121174
28.474627 2.4748383 53.577175
35.599625 5.558838 45.101173
36.620625 7.655838 45.205173
65.542625 53.374836 58.716175
66.37163 54.359837 57.427174
2.888626 60.97484 54.835175
5.1466293 60.645836 55.995174
12.3546295 47.667835 15.408174
9.946632 48.193836 16.144175
4.2696304 42.489838 25.337173
3.7996292 40.204838 26.013174
3.4296265 53.482838 66.500175
2.9856262 51.897835 65.737175
10.337631 54.73184 58.190174
9.920631 53.640835 55.791172
33.232628 65.07984 59.225174
31.351625 63.591835 58.862175
22.333626 63.153835 66.06217
21.532625 65.08384 66.17518
12.78363 33.866837 52.334175
14.716629 35.05784 51.373173
23.280628 37.66084 44.175175
22.26463 39.420837 42.735172
31.886625 38.86184 28.863174
31.727627 37.58584 30.687174
22.731627 36.789837 38.775173
22.859625 37.586838 40.836174
71.35863 65.01784 69.85918
1.5316315 63.790836 71.114174
66.72863 61.148838 5.9811783
66.85663 59.139835 6.32518
26.310625 23.420837 40.335175
25.674625 22.098837 38.507175
30.742626 26.345837 29.081173
30.726625 27.945837 27.842173
54.044624 7.412842 39.090176
54.457626 7.5658417 41.435173
46.603626 8.060837 50.784172
46.416626 9.3548355 52.641174
32.828625 61.937836 56.974174
32.884624 63.855835 56.029175
43.768627 62.576836 49.409172
42.709625 63.137836 47.455173
16.29763 39.776836 39.663174
15.010628 41.075836 39.272175
9.735626 43.82684 49.278175
7.96463 45.397835 49.418175
58.283627 4.4348373 3.890174
58.254627 2.17984 4.193174
48.925625 4.7278366 13.700173
48.879627 2.7878418 14.325173
68.97063 35.489838 0.9221802
68.128624 37.262836 74.56117
0.73462677 36.85484 63.692173
0.5586319 39.094837 62.207172
13.198631 63.413837 39.654175
10.962631 64.340836 39.141174
15.559631 66.76784 28.509174
17.67363 67.10084 27.812174
60.328625 0.04084015 5.273178
61.218624 67.92084 4.9931793
66.652626 69.76784 67.610176
66.31763 1.8878403 67.028175
31.619627 23.287838 28.119173
30.487627 21.199837 27.955173
28.195625 17.767838 40.183174
26.544626 17.157837 40.055176
57.917625 68.62384 62.342175
58.663624 0.5288391 63.117172
53.633625 67.28984 72.53617
52.877625 65.85184 71.737175
16.663628 52.69684 58.805172
15.4566345 54.612835 59.83317
8.347626 48.537838 66.88518
8.988632 46.100838 67.38117
26.456625 33.00784 21.941174
27.688625 31.204836 22.399174
31.031626 32.27884 11.676174
31.053627 32.70384 9.586174
70.17963 35.09984 61.754173
68.389626 34.149837 62.151173
60.609627 38.82784 69.42818
59.810627 37.228836 70.39217
44.279625 32.37784 34.937176
44.543625 29.860836 34.700176
41.923626 27.541838 34.537174
40.62063 25.994837 35.180176
14.64463 24.462837 68.23418
14.582634 22.825838 67.61517
22.467625 23.392838 57.379173
24.719624 23.219837 56.498173
59.353626 22.494837 28.614174
58.083626 23.665836 27.081173
66.083626 24.787838 16.618174
67.572624 23.228838 16.929174
59.985626 6.0138397 25.030174
60.245625 4.1028366 26.439173
55.086624 3.7898407 36.574173
54.461624 1.9928436 36.817173
57.961624 20.331837 24.395174
58.440624 18.565838 22.930174
67.08163 19.356836 19.843174
67.138626 18.519836 17.745174
61.855625 34.149837 54.029175
63.450626 32.98784 55.039173
57.282627 32.650837 65.92317
59.100624 31.283836 66.98118
7.5386276 45.045837 52.019173
7.75663 45.165836 54.150173
0.82063293 44.926838 63.87517
0.9836273 42.698837 64.541176
47.871628 61.005836 48.691174
49.17663 62.079838 50.344173
55.434628 64.827835 39.784176
56.680626 66.76084 39.524174
16.821632 40.68884 19.151175
14.546631 41.226837 19.351173
8.983627 36.172836 29.605173
9.661629 36.527836 31.632174
4.768631 13.0058365 42.484173
3.86763 15.177836 42.914173
66.975624 12.751837 52.307175
68.139626 11.547836 53.414173
46.007626 40.588837 3.5691757
47.737625 38.816837 3.8931808
54.507626 45.706837 70.571175
55.065624 45.97484 68.16518
8.134628 54.831837 72.847176
7.40963 55.422836 70.780174
16.363632 59.907837 65.16118
15.227631 61.039837 63.210175
23.382626 28.377836 39.094173
22.241627 26.486837 37.421173
32.176624 28.127836 30.502174
33.966625 29.153837 30.779173
25.301626 55.187836 10.113174
27.630627 55.541836 10.666176
35.643627 54.732838 2.2921753
35.017628 54.593838 0.18217468
33.302628 41.41884 68.614174
31.784626 41.948837 67.224174
40.501625 45.436836 58.44417
40.486626 44.698837 56.505173
26.647625 6.79084 40.290173
28.812626 8.15284 42.060173
26.804626 4.4348373 52.754173
26.816626 6.139839 54.410175
33.670628 34.32084 67.347176
34.094627 35.784836 65.78618
39.225628 36.990837 56.435173
40.629627 38.684837 57.193172
65.125626 20.234837 13.821174
65.42163 21.903837 13.010174
3.289627 21.403837 5.8001738
3.4766312 19.871838 3.8071742
42.300625 64.39384 44.585175
40.440628 63.883835 42.753174
46.622627 64.19284 31.544174
46.114628 66.25584 30.479174
18.677628 51.409836 27.153173
19.960632 53.058838 28.312174
12.600632 48.09284 36.538174
13.612633 48.504837 39.006176
0.75862885 27.988836 59.665173
2.3026276 29.346836 61.144173
12.137627 29.911837 55.034172
14.372635 31.002836 55.977173
62.751625 15.344841 52.412174
64.05263 13.727837 52.394173
55.302624 12.242836 59.12517
52.960625 11.560837 58.325172
21.393627 50.297836 6.8401737
21.40063 48.18984 8.074174
13.705627 43.448837 16.032173
12.911629 41.700836 14.213174
20.169626 14.721837 14.674173
20.768625 12.590837 13.407174
27.389626 17.817837 4.2751737
26.258625 17.042837 2.3671741
23.218626 62.398838 9.467178
21.341625 61.978836 8.678177
28.980627 62.115837 0.0951767
29.820625 61.687836 73.58717
70.79863 48.256836 28.381174
69.01063 46.652836 27.180174
63.376625 48.584835 38.484173
61.448627 48.881836 38.213173
35.530624 45.997837 17.907173
36.739628 44.898838 19.245174
28.692625 44.49384 27.067173
29.775625 43.256836 28.383173
39.110626 27.805838 33.307175
39.417625 29.707836 34.513176
28.690626 26.553837 39.913174
28.191626 28.764837 41.051174
35.015625 37.315838 68.08218
33.933624 38.34784 66.75717
44.324627 36.655838 59.484173
46.017628 38.185837 59.391174
19.924625 53.813835 4.001175
20.821627 51.105835 3.7011795
25.897625 49.79384 68.10818
25.474627 51.269836 66.60918
63.854626 51.368835 22.362173
66.239624 51.066837 23.188173
1.8396301 57.406837 15.020174
2.803627 58.931835 16.014174
27.924625 54.751835 71.10518
29.011625 56.019836 72.291176
24.143625 49.77984 6.9461746
25.169626 47.949837 5.975174
18.328627 52.837837 44.046173
20.198626 54.18284 45.113174
27.823626 54.23184 33.552174
27.672626 55.970837 33.028175
46.943626 21.745836 39.699173
47.336628 22.654837 42.183174
40.233627 22.680838 50.20817
39.573627 20.421837 49.733173
68.695625 65.95984 10.342174
66.67163 65.97784 9.972174
62.529625 60.73884 21.204174
61.692627 58.833836 20.420174
37.971626 9.682838 63.86817
38.768627 7.61084 64.95117
47.442627 9.404839 55.564175
47.494625 11.284836 54.619175
45.355625 12.015837 31.375174
47.477627 12.811836 31.826174
53.914627 19.442837 25.228174
53.035625 20.693836 23.763174
32.928627 19.636837 62.99317
31.169626 21.002836 62.349174
23.372625 20.340837 73.16017
23.764626 18.547836 74.322174
12.847626 58.191837 23.223173
13.624634 56.522835 24.739174
3.7856293 54.850838 30.406174
4.9186325 55.559837 32.453175
37.534626 41.690838 55.857174
35.507626 42.38384 54.679173
30.616627 39.866837 65.65617
28.705626 38.234837 64.84118
24.27663 3.3128433 51.865173
22.800625 1.7418365 53.191174
14.598633 4.5278397 60.09017
14.40963 5.8318405 61.967175
28.696627 49.950836 68.86617
28.136625 48.593838 66.88618
39.056625 49.963837 60.110172
38.97463 47.88484 58.772175
58.206627 47.360836 31.459173
56.754627 48.761837 30.378174
63.216625 44.73184 21.735174
64.68563 42.926838 22.742174
43.434628 43.336838 20.721174
45.375626 42.393837 21.293175
54.036625 48.761837 14.006174
54.298626 49.519836 12.016174
24.361626 64.42884 29.507174
25.037626 66.67184 28.677174
33.887627 66.39084 21.926174
36.314625 65.92884 22.098173
65.72763 25.916838 72.27117
66.93663 25.922836 74.90617
61.247627 23.841837 9.299179
63.044624 23.643837 10.722176
67.92062 42.27184 2.924179
69.97663 42.055836 2.47818
3.6046295 39.52984 66.404175
5.0146255 40.503838 67.027176
58.426624 41.837837 48.572174
59.697624 43.697838 48.732174
68.18663 42.586838 40.842175
67.36963 42.21784 38.824173
1.1166306 56.296837 49.128174
1.079628 58.324837 48.089172
6.013626 58.743835 37.495174
6.202629 60.894836 36.616173
34.748627 32.391838 31.292173
35.373627 31.026836 33.327175
24.977627 31.282837 38.537174
25.310625 31.937838 41.013172
12.563629 25.308838 10.296181
13.288628 23.275837 9.601173
19.278633 26.562838 74.28717
19.78563 28.309837 74.70317
55.713627 31.112837 7.7221756
56.616627 28.739838 8.203178
67.14363 30.571836 0.12517548
67.08763 32.074837 73.70618
52.65563 4.9608383 36.429176
52.165627 6.973839 35.101173
60.157627 9.976837 27.328173
60.655624 11.4798355 25.820173
49.836628 46.148838 62.782173
51.142628 47.758835 61.22217
53.848625 41.975838 52.143173
55.976627 41.95384 50.933174
42.485626 44.47284 38.856174
41.339626 45.507835 36.849174
52.862625 45.865837 30.160173
53.812626 47.187836 31.860174
49.146626 19.093838 59.417175
48.072628 20.590837 58.608173
39.591625 17.623837 65.985176
38.822628 18.794836 68.069176
40.582626 50.32184 38.398174
40.756626 48.429836 37.461174
50.417625 51.464836 31.312174
51.378628 53.463837 32.783173
34.019627 0.1478424 57.612175
33.737625 2.5878372 57.221172
41.459625 3.8608398 48.554173
40.543625 3.967842 46.450172
41.183628 67.26284 43.126175
38.978626 65.73484 44.241173
29.053627 64.34284 36.712173
30.456627 62.690838 35.898174
36.623627 65.68284 4.077179
39.035625 66.66984 4.8091736
40.918625 2.6778412 68.236176
42.799625 2.2388382 67.806175
31.033627 8.962837 23.266174
29.169626 7.6968384 22.957174
21.272625 6.490837 32.455173
22.163626 7.0658417 34.283173
41.066628 56.444836 43.678173
40.939625 58.117836 45.018173
33.446625 53.152836 53.019173
31.810627 53.826836 53.83317
32.197628 11.510841 60.070175
31.481627 11.070839 62.139175
23.135626 11.599838 70.09318
20.918625 11.725838 68.445175
59.014626 45.909836 34.260174
58.609627 43.71584 34.582176
48.587627 44.72384 43.244175
48.600628 46.546837 44.135174
39.977627 35.670837 14.585174
41.975628 35.184837 15.857174
47.032627 35.79984 4.263174
48.75963 34.734837 5.368174
4.9976273 26.003838 62.697174
5.133629 24.794838 60.749172
13.453629 28.097837 53.56917
14.930634 29.116837 54.341175
49.564625 33.019836 63.052174
49.85663 33.267838 65.32417
39.276627 35.26584 70.846176
39.208626 33.38984 72.097176
27.507626 46.230835 67.779175
28.160625 44.85484 69.70218
22.708626 45.50284 4.8681793
22.537626 47.202835 5.872177
68.65763 2.6028366 65.65917
70.030624 1.1178436 67.13618
4.9206314 3.9428406 59.137173
7.0976257 4.523842 60.402172
22.34763 14.619837 53.942173
20.411629 15.875836 53.749172
12.233627 16.295837 62.827175
12.091629 14.291837 64.503174
38.872627 1.5018387 66.30418
38.139626 3.2498398 67.764175
31.617626 65.94984 0.70217896
31.084625 67.744835 2.33918
70.14763 62.322838 10.649178
70.51863 60.84984 8.195175
5.542633 66.14984 0.21117401
6.587631 68.772835 74.291176
62.827625 47.624836 21.809174
62.355625 46.795837 19.660173
71.34063 55.138836 13.430174
69.63463 55.843838 11.846174
43.007626 45.094837 59.207172
44.973625 44.968838 59.811172
49.603626 51.414837 50.627174
49.642628 49.922836 48.98617
30.655626 45.840836 70.11918
30.811626 48.343838 69.49818
41.721626 45.695835 61.952175
43.082626 47.887836 62.459175
21.221626 45.00784 24.786173
21.616627 43.21584 23.341173
28.214626 46.23884 12.131174
29.734627 48.250835 12.937174
3.8336258 11.972839 2.8441772
2.9096298 13.634842 3.711174
8.113632 10.6078415 4.223175
10.084633 11.117836 4.6131744
49.869625 11.327835 55.910175
50.407627 12.990837 54.669174
60.325626 14.382835 47.687172
62.448627 12.997841 48.062172
21.369625 38.70384 19.460175
19.549625 40.413837 19.514174
26.713625 40.83384 9.914174
26.790627 43.19484 9.246174
23.840626 21.439837 20.465174
23.328625 23.848837 21.824175
12.3806305 18.439837 28.154173
12.095627 20.039837 29.602173
59.357624 61.508835 1.2121735
57.692627 60.892838 0.058174133
65.84363 64.73484 66.44018
67.15963 66.02684 67.91218
61.678627 6.8788376 7.205174
62.046627 9.028839 8.008174
53.059628 5.108841 16.375174
53.899624 3.141838 17.445173
1.6616287 16.484837 17.522175
3.7576294 17.480837 18.122173
6.8216324 21.382837 5.6561737
8.126633 19.609837 4.724174
6.83963 52.829838 34.196175
7.5316315 55.05784 33.463173
16.155632 56.755836 25.455173
15.983635 55.257835 24.264174
51.146626 7.924835 57.151173
49.934628 6.560837 58.623173
43.28763 7.389839 66.95518
43.973625 7.875839 69.003174
55.316628 63.99584 37.228176
56.211624 62.371838 36.408173
64.09463 62.255836 27.659174
63.114624 60.516838 26.016174
57.899624 40.141838 15.964173
56.474625 39.357838 14.255174
50.809628 35.00284 25.250174
48.748627 35.27284 24.842173
51.575626 56.568836 52.161175
49.865627 56.96084 51.989174
40.758625 55.570835 59.70117
41.732628 55.148838 61.996174
6.2476273 37.839836 50.272175
5.2076263 35.92484 51.082172
66.48563 38.971836 55.345173
66.239624 38.572838 57.984173
56.252625 11.037842 5.632174
58.139626 10.511841 7.553174
50.734627 9.289841 18.326174
48.404625 8.97184 18.084173
60.717625 22.177837 47.918175
61.437626 23.764837 47.08317
68.03263 27.310837 39.562176
70.25663 28.343838 40.478172
64.92263 11.611839 10.255174
63.578625 11.99984 12.120173
56.664627 5.92984 19.774174
54.775627 4.7428436 19.218174
35.419624 42.999836 33.628174
34.135628 41.428837 32.854176
28.812626 35.485836 42.062172
30.097626 33.94584 42.438175
53.930626 33.221836 9.932174
54.788624 33.005836 11.674174
46.915627 28.107838 19.132174
44.979626 27.009836 18.839174
68.763626 5.5698395 69.04617
67.21463 6.7838364 70.16418
61.250626 4.356842 5.8751755
62.913624 3.547844 6.5481796
67.767624 10.856842 13.569174
65.530624 10.913841 13.954174
58.867626 6.0598373 22.238174
57.732624 7.549835 21.514174
13.6046295 23.898838 49.535175
14.84063 22.448837 47.528175
20.414635 28.995836 39.304176
20.067635 28.232838 37.227173
23.946627 21.700838 0.58918
22.496626 21.888838 2.2271805
19.472626 21.362837 14.225174
18.852625 19.494837 14.720177
54.305626 41.086838 67.02618
55.203625 42.774837 65.778175
64.77363 45.190838 63.778175
66.28563 44.99484 62.198174
47.508625 27.203836 3.5001755
48.569626 28.785837 3.0761795
53.393627 31.111837 67.264175
55.414627 31.456837 67.13318
19.208626 31.863836 73.12218
21.025625 30.653837 73.82817
29.602627 29.384836 66.74418
28.921627 30.412836 64.612175
34.959625 20.052837 29.884174
36.259624 21.459837 31.497173
28.591625 21.774837 40.835175
29.533627 21.492838 42.775173
61.636627 46.249836 57.568172
61.792625 46.705837 55.105175
68.614624 49.484837 46.702175
70.28563 50.255836 46.366173
52.929626 35.37084 7.1531754
52.361626 33.978836 5.884178
61.369625 33.957836 72.62917
62.571625 31.516836 72.321175
36.895626 25.131838 69.77418
35.472626 26.672836 71.01118
25.294626 24.609837 1.9091797
24.565626 26.493837 2.3971786
30.227627 16.927837 42.702175
28.713625 15.736836 41.853172
19.451626 12.008837 49.075172
20.743626 12.426837 50.794174
37.528625 17.443836 45.349174
37.708626 19.580837 44.572174
42.059628 18.765837 32.580173
43.758625 18.454838 33.972176
27.053625 53.344837 30.734173
27.341625 54.746838 28.782173
37.091625 55.910835 21.929174
38.788628 54.362835 21.907173
35.943626 26.423838 50.316174
34.226627 27.508837 50.606174
32.853626 23.323837 62.744175
31.092627 24.450838 62.997173
33.314625 0.22583771 20.128174
35.350628 1.0348434 21.233173
40.172626 3.9668427 9.625174
41.428627 2.4968414 9.259174
45.681625 32.13484 61.97917
48.021626 31.976837 60.738174
54.493626 39.24484 53.123173
54.738625 37.63984 51.748173
31.896626 55.249836 72.683174
32.001625 55.816837 70.26717
40.310627 50.553837 62.623173
40.614628 52.637836 61.814175
37.269627 22.288837 69.03818
36.388626 22.525837 71.07517
26.290627 17.079836 74.23017
26.036627 14.209837 74.485176
22.913626 24.004837 54.013172
20.893625 23.100838 53.469173
26.399626 24.284838 43.032173
28.266626 24.693836 42.102173
26.425627 9.795837 74.015175
26.539625 8.268837 0.51517487
17.700626 4.797844 8.759178
19.520626 4.5138397 10.613174
58.829624 49.788837 37.571175
57.632626 51.878838 38.341175
49.80163 48.340836 45.863174
50.37063 46.546837 47.037174
6.9896317 49.729836 53.077175
4.6616287 49.523838 53.36817
70.752625 46.66184 62.98617
71.31863 47.732838 64.92618
69.78263 21.984837 18.692175
67.96263 22.833838 19.591173
62.316628 19.421837 28.371174
61.489624 17.347837 29.017174
20.113632 37.17484 2.2241745
20.238632 38.399837 4.5101776
13.89563 33.239838 12.124176
12.641632 32.732838 10.591179
41.519627 10.090836 48.344173
40.578625 8.34584 47.73617
32.467625 7.8928375 58.394173
31.009626 6.3558426 57.372173
37.246628 0.6868439 41.177174
37.212627 68.88484 40.020176
45.003628 68.35084 34.638176
46.325626 0.78484344 34.446175
68.09563 7.1388397 50.233173
69.723625 6.30484 48.786175
2.3516312 12.797836 39.898174
4.1966324 12.006836 39.019173
39.37063 21.542837 16.215174
39.908627 23.379837 17.660173
33.800625 16.456837 26.772173
33.179626 18.049837 28.558174
45.517628 16.340837 16.594173
47.643627 15.369837 16.341173
54.090626 15.986836 6.1501737
53.385624 16.032837 4.145174
49.233627 44.538837 45.786175
49.866627 43.55784 47.199173
39.80163 42.70884 53.841175
37.825626 42.78684 53.234173
67.49663 0.24484253 11.504174
66.33963 68.40484 12.056174
56.104626 67.73184 18.894175
54.651627 68.75384 17.612173
19.793633 29.720837 55.355175
20.498634 29.502836 57.621174
9.115631 30.962837 64.06818
9.819626 29.229837 64.848175
64.79063 30.399837 17.023174
64.70163 28.357838 16.472174
53.641624 24.818836 24.194174
54.097626 22.848837 24.758173
18.303635 22.114838 52.829174
16.36763 21.342836 53.227173
10.64463 19.268837 63.064175
8.524628 18.796837 64.34017
41.917625 0.24584198 66.30318
40.576626 69.76184 64.586174
49.767628 1.3648376 54.591175
49.276627 69.12084 53.746174
69.49463 9.590836 34.715176
71.042625 10.408836 35.845173
62.472626 8.885841 44.185173
60.645626 10.061836 44.560173
16.330626 33.66084 53.352173
18.177626 33.739838 53.092175
27.017626 34.435837 44.095173
25.777626 34.53684 42.495174
6.261627 25.048838 28.023174
6.7036285 24.415836 29.884174
69.22763 24.011837 37.769173
68.89963 26.599836 37.149174
44.239628 0.004837036 47.162174
42.610626 69.21284 45.442173
51.265625 2.8258438 37.534176
49.387627 3.3518372 36.131176
11.012627 51.273838 56.289173
9.571632 50.323837 55.35417
3.1616287 48.601837 65.60217
3.4966278 48.645836 67.93818
28.762627 10.004837 21.072174
30.697626 11.16684 21.602175
37.468628 12.95784 12.025174
39.046627 11.576836 12.815174
19.883629 41.03684 22.568174
19.10263 42.844837 22.883175
14.349632 38.143837 32.788174
12.852631 38.150837 34.766174
40.400627 5.098839 30.249174
40.032627 2.9768372 31.833174
34.768627 6.229843 41.480175
35.605625 7.990837 42.264175
4.042633 62.85684 14.622173
4.8566284 64.78384 13.4551735
10.827629 65.62684 3.4651742
10.499626 67.86184 3.151174
64.09063 64.67584 64.21517
65.09363 62.68984 63.641174
1.4136276 65.53684 53.065174
1.4036255 63.83584 51.884174
47.014626 62.709835 28.777174
48.40563 64.91384 29.303173
50.007626 66.59684 16.824175
52.348625 67.327835 17.107174
19.737633 27.110838 18.599174
18.540634 25.529837 19.465174
10.3426285 22.573837 28.097174
9.364632 22.404837 26.310173
24.505627 55.848835 12.535173
25.530626 57.272835 13.675174
19.566626 55.059837 24.417173
19.833626 53.74584 25.660173
64.94163 1.1538391 44.712173
65.905624 69.36584 44.280174
0.20762634 2.0598373 34.499176
70.96263 2.6428375 32.948174
15.102631 58.389835 62.403175
16.38063 57.477837 64.13117
11.883629 50.622837 71.725174
11.016632 48.996838 71.18818
47.469627 14.6688385 73.321175
47.230625 13.17984 71.696175
53.245625 11.199837 61.109173
54.727627 12.518837 61.623173
30.106627 55.074837 32.073174
32.087627 54.30084 32.739174
42.119625 52.501835 25.344173
41.313625 51.505836 23.283175
55.893627 52.920837 36.445175
54.164627 54.140835 35.399174
58.131626 57.360836 24.887173
59.408627 58.655838 22.985174
38.038628 68.22684 6.826174
36.731625 66.94484 6.566174
30.917625 62.692837 16.035173
28.851625 63.297836 15.559174
55.017624 17.12584 24.450174
56.782627 16.751839 25.627174
49.168625 8.794838 33.883175
48.600628 11.259842 34.448174
67.251625 33.247837 37.694176
65.97063 34.82884 36.928173
3.6966324 41.006836 31.840174
5.6656265 41.401836 32.452175
55.561626 31.974836 49.060173
55.923626 33.693836 47.841175
64.279625 33.547836 39.415173
63.789627 33.622837 36.527176
69.138626 19.998837 16.715174
71.25963 19.091837 17.103174
5.2836304 25.591837 7.084174
7.301628 24.720837 8.024174
19.334625 21.755836 70.85618
19.872625 19.638838 71.08018
26.461626 24.169838 61.210175
28.535625 24.184837 61.857174
53.515625 43.566837 28.893173
52.332626 43.412838 27.009174
59.847626 48.030838 20.620174
58.978626 48.628838 18.693174
1.4296265 69.84784 31.775173
2.2016296 2.4768372 31.626173
8.925629 6.211838 22.982174
8.711632 8.398842 22.152174
60.290627 17.397837 49.602173
60.322624 16.498837 51.634174
56.796627 15.624837 61.314175
56.093624 16.983837 62.763172
17.752632 17.687838 71.18517
16.983635 19.544836 72.09318
10.874626 18.033836 7.3631744
11.910629 18.617836 9.615181
10.491631 45.416836 53.004173
11.157631 45.395836 50.906174
16.749634 45.477837 41.765175
18.65763 47.267838 42.60417
38.533627 22.924837 14.100174
39.40563 25.183838 13.904174
35.689625 33.822838 14.004174
33.638626 33.61884 13.043174
37.174625 11.078835 29.972174
35.641624 12.535835 30.871174
28.838627 13.335838 40.203175
30.440626 12.620842 41.705173
39.105625 60.798836 23.338175
37.610626 63.05784 22.754173
47.75263 64.89884 14.351173
48.881626 67.20784 14.433174
61.567627 66.19484 62.987175
61.601627 64.298836 63.433174
54.073627 61.104836 72.49317
52.904625 62.908836 72.81217
36.913628 0.344841 23.779175
36.365627 68.80084 22.026175
46.239628 2.344841 15.019174
44.901627 3.6278381 13.748174
62.826626 21.556837 13.203174
62.127625 23.508837 13.152174
52.142628 20.973837 20.098173
53.092625 22.366837 21.148174
22.407625 60.702835 48.545174
22.890625 59.853836 46.898174
27.271626 68.18984 37.955173
28.246626 69.200836 39.641174
14.176628 69.03384 25.744173
15.074631 69.452835 28.357174
6.197632 62.394836 34.314175
4.9346313 63.688835 35.411175
26.246626 30.736837 3.2341766
27.470627 28.965837 1.9391785
35.534626 28.619837 69.12917
36.821625 30.680836 69.628174
6.115631 13.579837 40.046173
7.6986313 13.626837 41.291172
13.477631 13.487837 30.121174
12.683632 16.093838 29.868174
66.294624 55.479836 64.25417
64.42062 56.158836 63.25717
57.714626 52.659836 73.60317
57.864624 54.73884 73.88217
53.319626 67.85884 0.5701752
54.770626 68.924835 1.8331757
47.080627 0.35484314 9.648178
45.234627 68.93484 10.99118
51.966625 58.13484 69.556175
52.758625 59.970837 70.47917
57.983627 65.39984 61.273174
57.351627 63.199837 60.721172
24.254625 40.652836 5.441174
22.512627 39.567837 5.2871737
19.327625 38.46084 17.148174
18.398626 36.656837 18.565174
71.013626 59.365837 66.47817
0.94963074 60.449837 67.516174
65.891624 54.260838 2.0591736
64.84663 56.447838 2.254181
16.587631 2.129837 9.254174
17.384628 2.2698364 11.182174
9.388626 4.8178406 18.780174
10.5666275 5.9548416 20.120174
53.794624 8.981842 21.480173
52.619625 10.347839 20.483173
61.510624 14.625839 10.461174
61.166626 12.47184 9.779174
24.013626 15.208839 19.366175
24.429626 12.812836 18.990173
19.227625 10.871841 30.701174
20.527626 9.143837 30.607174
68.22663 57.069836 43.407173
68.88363 54.691837 43.137173
0.67163086 57.19684 32.648174
1.5546265 58.983837 32.381176
11.001633 25.621838 45.359173
11.6916275 23.140837 44.796173
16.472633 25.188837 33.445175
18.281631 24.500837 33.022175
71.28363 58.883835 30.367174
69.694626 58.045837 29.282173
66.419624 56.451836 40.59717
65.26063 57.944836 42.246174
41.306625 67.59384 66.65717
39.793625 65.869835 66.56217
38.392628 63.40484 3.8451767
36.875626 62.721836 5.0731735
66.36963 8.367836 13.154174
68.26863 8.1048355 14.438173
64.49463 0.58883667 22.979174
63.050625 1.042839 25.078173
12.868629 41.06284 37.122173
12.306633 41.35484 39.525173
8.7556305 38.12784 49.824173
8.70063 36.267838 50.016174
25.547626 28.701838 23.431173
24.663624 26.558838 22.967175
16.420631 24.614838 30.773174
14.459633 23.018837 30.929174
4.0526276 4.9518433 53.786175
2.2586288 6.504837 52.734173
11.14463 6.4608383 44.706173
13.218628 6.719841 44.279175
12.064629 33.45184 31.096174
13.052628 31.108837 30.184174
18.566628 38.110836 21.055174
20.936626 36.957836 21.489174
71.25463 56.802837 26.834173
71.42663 59.110836 27.580173
6.402626 64.42984 20.098173
7.5596313 65.895836 21.044174
24.517628 3.9378433 73.89217
22.44563 3.9988403 72.67717
14.892632 4.891838 6.1981735
13.349632 5.328842 4.3801804
34.146626 68.492836 23.748175
32.732628 69.008835 22.303173
25.778625 68.37184 31.255173
25.014626 67.841835 33.447174
46.567627 54.919838 66.44817
45.955627 54.367836 68.404175
36.172626 55.894836 73.26017
34.054626 57.237835 71.92618
13.219627 51.177837 18.930174
13.3196335 48.873837 18.967175
5.567627 45.714836 28.637173
6.109627 45.340836 30.764174
7.155632 47.373837 33.660175
5.2016296 48.299835 33.264175
70.711624 42.198837 42.344173
0.54463196 40.33384 43.141174
11.990631 4.2868423 24.413174
10.175629 3.0518417 24.115173
5.4046326 69.44184 34.805176
3.6996307 0.11884308 33.682175
51.799625 54.063835 11.300174
53.609627 52.575836 12.023174
61.964626 54.857838 3.783174
64.31463 54.871838 4.566174
17.361633 18.757837 49.803173
17.45163 20.976837 50.502174
22.549625 22.425837 37.909176
20.95663 23.262836 36.961174
47.740627 14.464836 1.0901794
47.667625 12.758835 3.0831757
36.858627 14.300835 6.910179
36.696625 12.79084 8.661179
70.37263 62.616837 49.053173
70.989624 60.711838 47.63217
8.585632 64.78784 40.674175
8.386627 66.58084 39.746174
49.72463 52.804836 47.158173
49.17663 54.435837 45.595173
56.332626 55.725838 37.788174
57.683624 54.554836 38.191174
50.77363 51.665836 10.8561735
48.692627 51.796837 11.048174
41.643627 48.37784 19.309174
41.34263 46.355835 19.499174
44.340626 65.40284 47.345173
43.492626 66.65784 45.837173
52.944626 69.65584 36.219173
51.570625 1.2148438 35.512173
38.790627 57.276836 23.892174
37.017628 59.07884 23.199175
30.742626 61.526836 33.481174
31.388626 60.364838 35.317173
12.248627 34.630836 33.499176
10.989632 36.50284 33.897175
3.8856277 31.399837 42.422173
2.5836258 31.987837 44.437172
29.614626 6.738838 18.255175
29.715626 5.5718384 16.597174
39.375626 8.898842 12.964173
40.366627 7.455841 11.718174
62.227627 12.164837 45.323174
60.550625 13.686836 45.091175
67.195625 11.672836 34.019173
68.779625 13.569837 33.789173
26.481627 19.760838 40.680172
24.916626 21.199837 40.893173
22.039625 17.556837 52.256172
22.128626 14.981836 51.33317
52.555626 30.486837 43.133175
53.876625 32.533836 44.332172
61.246624 32.149837 34.295174
59.566628 32.837837 32.445175
2.5196304 54.533836 68.736176
0.76763153 52.885838 68.08917
67.044624 48.507835 3.1341782
67.20663 49.128838 5.2481766
15.323626 34.32784 14.804173
16.488626 32.232838 14.989174
25.912626 34.107838 6.686174
25.818626 32.526836 5.7161736
15.22863 53.378838 2.4211807
14.7066345 52.142838 0.4551773
21.505627 54.973835 66.81518
21.81963 52.949837 66.38318
28.941626 7.393837 2.666174
29.223625 9.378838 3.342174
24.104626 4.6588364 14.240173
22.773626 6.0108414 15.128174
4.5966263 35.26484 4.99218
3.9156265 37.450836 4.2741776
7.357628 38.477837 69.71317
9.518631 38.33384 69.530174
47.573627 21.264837 35.880173
46.382626 20.687838 34.220173
49.123627 24.974836 23.082174
51.244625 23.992838 22.590174
30.165627 62.162838 52.561172
29.113626 62.736835 50.636173
31.014626 60.308838 40.181175
29.918627 61.367836 38.621174
38.959625 22.271837 33.770176
38.85663 24.457838 33.994175
34.524628 26.988836 45.113174
32.301624 28.061836 44.555172
3.3786316 30.348837 46.189175
2.8116302 28.381838 44.657173
70.47163 21.628838 55.198174
71.281624 22.855837 56.519173
2.3626328 38.880836 44.567173
2.3226318 38.204838 42.751175
9.503632 42.97484 36.494175
8.669632 45.36384 36.457176
15.251633 26.526836 70.30018
13.42363 27.968838 70.39217
6.9156265 24.077837 5.25618
4.2506256 24.010838 5.1061783
0.7576294 63.177837 32.620174
1.8136292 64.19784 34.148174
66.419624 61.298836 43.714172
67.472626 62.191837 45.539173
66.39563 24.019836 33.889175
65.81563 21.763838 35.329174
58.535625 22.070837 44.031174
59.551624 22.624838 45.309174
2.652626 46.573837 26.081173
4.5016327 48.372837 26.192173
9.216629 53.074837 16.907173
11.224632 54.673836 17.418175
24.311626 65.21784 70.42317
25.841625 66.86384 71.64818
33.892628 67.10284 60.686172
32.762627 68.23884 59.390175
25.162626 7.087837 37.809174
23.090626 7.4568405 38.628174
20.479626 2.731842 50.001175
21.435625 1.0418396 50.49317
43.621628 6.1998367 34.251175
44.362625 3.870842 33.829174
41.968628 6.5938416 45.158173
39.445625 7.3018417 45.212173
23.433626 27.881838 20.261173
25.788626 28.514837 20.492174
30.528625 29.761837 10.804173
32.010628 28.427837 9.851174
4.490631 26.253838 24.605173
5.6026306 28.026836 25.158173
17.067635 27.609837 18.204174
16.261635 28.596838 16.406174
46.677628 22.613836 2.8581772
44.332626 22.262836 2.5261765
37.41263 15.921837 9.155174
37.751625 15.688837 11.502174
37.786625 15.337837 43.885174
39.889626 15.250836 44.964172
47.12763 13.262836 35.427174
45.470627 13.339837 33.850174
9.183632 47.751835 13.552177
11.148628 47.105835 12.841179
14.402634 50.87084 3.2711792
13.398628 49.949837 1.4421768
26.355625 61.353836 70.83118
26.061626 63.430836 71.65617
20.924625 64.79384 7.68618
18.979626 64.09584 7.7581787
38.081627 50.398838 36.986176
36.481625 51.471836 38.665173
33.395626 44.836838 47.432175
31.384626 44.478836 48.425175
31.514626 23.458838 7.0991745
31.610626 21.865837 5.7551804
42.855625 26.109837 1.1091766
43.654625 25.533836 3.0061798
17.312626 29.249836 70.64818
17.792625 27.087837 70.721176
27.810625 26.338837 63.329174
29.695625 27.640837 64.223175
29.613626 20.804836 3.1021805
28.575626 18.972837 2.1551743
30.811626 25.649837 5.7201767
31.273626 27.708838 6.1321793
68.82763 41.51584 20.879173
68.60363 39.71784 19.584173
4.593628 46.943836 12.285173
6.587631 46.94684 12.568173
60.019627 45.103836 17.010174
58.099625 43.795837 16.838175
53.074627 39.086838 27.213173
51.414627 40.802837 26.826174
63.289627 19.875837 68.360176
63.356625 17.597837 67.97917
70.68663 20.638838 57.970173
70.65963 18.980837 56.263172
16.388634 47.262836 23.277174
16.46363 45.094837 23.867174
7.619629 43.247837 31.707174
8.054626 44.698837 33.369175
18.294626 61.180836 24.636173
18.612625 58.610836 25.285173
26.564627 58.733837 15.758174
27.103626 59.771835 14.118174
4.71463 53.06484 70.09218
4.5106277 51.162838 68.63017
12.523628 59.282837 61.149174
12.343628 58.92584 58.839172
25.528625 28.167837 40.702175
25.341625 29.411837 42.223175
19.193626 25.437838 52.396175
19.182627 27.327837 53.748173
36.661625 12.438835 44.547173
37.758625 13.26284 46.088173
32.122627 12.897835 57.060173
31.973625 10.386841 57.246174
19.684631 50.101837 61.252174
17.86763 50.993835 60.703175
13.347633 47.894836 72.516174
14.980629 47.855835 74.01717
61.816628 61.159836 60.362175
62.091625 59.093838 60.205173
68.15163 61.410835 47.931175
68.778625 59.354836 47.47217
42.762627 23.737837 53.698174
45.035625 24.978838 54.216175
55.343624 27.247837 48.437172
54.808624 29.454836 48.141174
58.498627 23.348837 71.279175
58.426624 25.184837 71.38217
53.804626 27.895838 7.289177
54.077625 25.606836 7.5071793
54.457626 12.1308365 23.453175
53.255627 10.164841 24.026175
46.062626 7.1848373 33.507175
46.23863 9.483841 34.383175
6.912628 22.788837 42.624172
5.208626 23.182837 41.668175
11.626633 28.956837 33.427174
11.758629 30.878838 32.726173
52.782627 61.582836 54.339172
52.618626 59.482838 55.20117
42.403625 59.572838 63.653175
41.784626 61.566837 63.675175
55.276627 37.955837 9.8871765
55.022625 39.89684 8.967178
59.978626 41.49384 73.54517
59.646626 41.13284 71.402176
30.370626 52.358837 14.7311735
28.397625 52.907837 15.623174
18.306625 49.655838 21.730173
19.159626 47.888836 22.321175
65.31063 55.167835 22.243174
63.215626 53.934837 22.615173
57.169624 51.459835 32.323174
58.531624 50.34984 34.322174
28.650625 31.828836 43.582172
27.400625 30.482836 43.339172
21.779625 28.222837 54.010174
21.691626 26.173838 54.926174
49.574627 25.541838 4.2901764
48.942627 24.142838 2.0601807
54.000626 25.198837 65.39918
55.673626 24.339838 66.31818
70.709625 13.48584 55.97217
68.37163 14.129837 55.130173
57.283627 13.134842 60.796173
57.093624 13.31884 62.69417
23.878626 19.734837 56.021175
25.982626 20.964836 56.036175
31.833626 23.670837 45.281174
33.579628 24.606836 46.178173
40.97463 6.6968384 8.874176
41.589626 5.049843 7.40818
46.986626 7.667839 72.153175
46.331627 9.80584 71.128174
56.931625 13.821836 40.609173
56.400627 15.999837 41.353172
64.71863 18.436836 33.916176
65.71563 16.975838 34.965176
36.502625 59.438835 58.976173
35.973625 58.111835 57.387173
30.325626 58.423836 53.737175
29.005627 59.574837 51.86117
57.454624 28.429836 28.243174
59.015625 29.593836 28.413174
67.79963 32.73084 21.216173
69.960625 31.400837 21.808174
33.656628 59.17584 58.191174
31.944626 59.088837 57.232174
25.626625 59.312836 66.32417
23.564627 59.309837 65.471176
63.675625 63.28684 7.078174
63.993626 61.367836 6.229174
61.261627 53.457836 15.269174
63.143627 52.456837 16.739174
31.976625 50.29384 31.955173
31.356627 49.400837 30.106174
39.230625 49.449837 20.734175
41.244625 49.202835 21.907173
46.402626 31.726837 22.941174
45.151627 31.211836 21.632174
38.235626 26.479837 30.896173
39.28063 24.742838 31.400173
38.74563 44.873837 1.6741791
40.088627 45.838837 3.5021744
33.681625 42.601837 12.01918
33.091625 41.345837 14.04718
55.130627 55.34984 73.848175
55.973625 54.322838 0.59617615
49.525627 50.614838 8.577179
48.011627 48.730835 9.590179
60.889626 24.858837 72.54817
61.081627 26.968838 72.06117
56.640625 24.973837 7.6531754
56.688625 22.913837 7.858177
38.578625 15.432837 64.196175
36.355625 15.264837 63.446175
46.367626 14.549837 54.937172
45.223625 15.807837 53.445175
69.20663 27.712837 2.025177
68.85463 29.757837 2.6851807
59.982624 26.557837 9.515175
61.319626 25.880836 11.178177
66.378624 26.460836 31.185173
66.14563 26.902838 33.307175
3.4086304 28.745836 27.281174
5.3586273 28.561836 27.657173
7.6116257 64.437836 1.0951767
7.834633 66.05084 2.7711792
2.7256317 58.815838 12.489174
0.7276306 57.790836 12.5121765
19.723625 6.9088364 52.779175
20.750626 5.6788406 51.260174
29.091625 10.339836 44.331173
30.626627 12.18084 44.358173
21.531626 40.420837 39.300175
21.274626 42.142838 39.066174
28.177626 41.11984 28.525173
26.339626 41.643837 27.475174
48.413628 60.770836 12.550174
47.85663 60.360836 10.719173
52.982624 58.083836 15.991174
55.222626 58.625835 15.650174
45.346626 43.836838 42.953175
43.793625 45.00084 41.824173
33.750626 41.67584 47.612175
32.470627 40.040836 47.730175
46.885628 20.677837 56.25717
47.295628 21.988836 54.571175
57.387627 23.285837 46.946175
58.254627 22.682837 49.09017
8.948631 15.431837 43.072174
9.180626 15.235837 44.956173
1.3236313 13.595837 52.207172
1.00663 12.520837 54.34717
18.038628 50.042835 44.581173
19.482628 49.142838 45.855175
15.31263 49.541836 57.943172
16.891632 47.956837 58.363174
15.820626 48.257835 19.026175
15.879626 49.780838 17.778173
25.815626 50.102837 11.126174
25.614626 50.156837 9.140174
0.38762665 48.539837 25.806173
0.45963287 46.644836 24.622173
3.9626312 54.874836 15.819174
4.317627 53.023838 14.720174
64.156624 6.181839 8.026176
65.42163 4.594841 7.124176
70.08163 6.747841 71.26218
71.531624 8.242836 71.485176
4.351631 69.20884 18.681173
2.4956284 68.88684 19.825174
0.9226303 62.993835 29.454174
71.45163 61.68284 30.406174
64.711624 3.4918365 65.572174
65.06763 1.6738434 64.51018
1.2206268 2.1058426 55.862175
1.5366287 3.7518387 54.255173
2.0476303 10.49984 71.70117
3.0356293 8.746841 71.681175
9.307632 16.062836 65.499176
7.398628 16.335838 64.47617
4.930626 65.67684 16.101173
4.8306274 67.30784 14.835174
11.734627 1.280838 5.566174
12.741631 3.181839 6.127174
52.688625 44.975838 50.44417
51.24563 44.74484 49.144173
47.922626 40.40384 58.739174
47.753628 40.50984 60.809174
49.561626 21.608837 41.647175
49.053627 20.004837 39.672176
42.081627 12.652837 48.496174
40.850628 14.395837 48.462173
15.143631 35.30084 69.95017
17.221634 35.39784 69.85417
22.84563 33.92484 58.00717
21.233631 34.409836 56.814175
54.365627 4.877838 73.874176
55.986626 3.467842 72.88217
65.972626 8.089836 67.682175
67.10263 9.154839 68.99718
40.748627 14.148842 30.499174
41.558628 13.042839 32.234173
35.528625 10.770836 42.467175
33.920628 11.73484 43.039173
12.413628 28.696836 68.03217
14.136635 30.556837 67.94018
23.926624 29.620836 60.588173
25.67963 28.634836 60.494175
57.938625 59.984837 39.423176
58.977627 61.656837 40.541172
50.79463 56.942837 49.431175
48.950626 56.672836 48.033173
22.229626 58.235836 8.820174
22.672626 57.104836 10.599174
14.383629 57.211838 21.296173
15.833633 57.727837 22.740173
44.149628 9.149841 50.310173
42.720627 7.2658386 50.06917
37.410625 4.292839 60.102173
37.90563 6.0088425 61.945175
53.690624 47.617836 27.893173
51.170628 47.91884 27.579174
56.618626 50.410835 16.771173
58.655624 51.223835 17.142174
70.37363 10.948837 13.304173
0.69062805 10.686836 13.749174
10.361626 15.051842 9.107174
9.04863 16.08184 7.431174
50.754627 24.036837 41.56917
51.388626 25.445837 40.555172
58.800625 27.046837 30.294174
57.988625 25.850838 28.969173
25.781626 6.754837 73.113174
26.664625 4.8528366 72.36617
36.843628 5.5538406 65.24518
36.053627 7.516838 63.858173
60.463627 59.657837 56.345173
58.459625 61.850838 56.621174
66.28263 64.17984 47.427174
64.99663 65.33284 45.863174
43.744625 53.936836 6.096176
44.654625 56.58584 5.9111786
52.307625 60.687836 74.653175
53.815624 59.440838 0.26818085
66.85263 45.308838 4.179174
65.656624 47.07884 5.324174
62.025627 49.830837 16.825174
60.672626 50.580837 15.290174
47.476627 47.741837 24.337173
46.466625 47.173836 22.075174
55.181625 46.152836 14.838174
57.193626 46.979836 13.9481735
60.146626 33.399837 29.628174
58.745625 32.13284 27.714174
64.51063 34.483837 17.625174
65.791626 36.033836 18.055174
49.632626 7.5138397 71.26018
52.081627 7.6728363 71.78117
60.217625 10.6308365 65.237175
61.058624 9.676842 63.522175
33.008625 53.442837 16.695173
34.815624 54.193836 18.007174
41.753628 58.369835 8.204174
41.930626 56.239838 7.315174
23.645626 53.948837 26.921173
25.722626 52.741837 27.526173
28.468626 55.111835 17.215174
30.349627 55.893837 18.358173
2.2866287 7.3298416 55.48617
0.03163147 7.2888412 55.744175
62.718624 7.591835 62.296173
63.091625 7.6388397 64.669174
3.041626 59.740837 52.598175
2.9936295 61.639835 50.836174
13.427628 63.893837 44.167175
13.583633 62.54384 42.134174
45.897625 32.747837 3.5061798
44.804626 32.137836 1.362175
51.534626 35.010838 66.43717
53.188625 33.756836 65.836174
71.38163 25.255836 58.268173
69.67563 25.207838 56.876175
62.572624 21.763838 66.72817
60.364624 21.884836 66.140175
27.992626 32.21784 7.653174
28.164625 29.775837 8.039174
21.278625 29.491837 18.040174
19.336626 29.668837 18.802174
25.015625 17.364838 35.839176
23.662626 17.004837 34.511173
27.642626 21.666838 23.880175
27.244625 23.867838 23.726173
63.230625 26.257837 14.710174
64.32763 28.759836 13.697174
0.8656311 31.073837 5.5181737
1.4976273 32.72284 4.428174
10.595627 45.74584 70.94018
11.345627 46.326836 68.683174
18.79863 47.493835 61.599174
19.959633 47.693836 63.362175
32.263626 5.365837 42.477173
33.261627 4.0178375 43.97217
30.476625 66.86684 51.562172
29.472626 67.96284 53.661175
22.165627 48.190838 27.876173
21.839626 50.239838 26.200174
30.464626 46.257835 16.899174
32.712627 46.315838 16.551174
38.529625 36.30084 52.873173
40.630627 36.232838 54.126175
48.429626 38.45884 45.624172
50.182625 37.253838 46.730175
60.104626 64.38984 40.546173
58.665627 65.15684 38.937176
66.48563 67.65484 30.064173
66.736626 65.66584 28.749174
10.317627 50.929836 52.739174
9.975632 48.714836 53.092175
13.391632 52.357838 42.299175
15.110634 51.895836 40.539173
50.978626 12.589836 4.192174
51.563625 14.215836 5.4121737
46.393627 7.1458435 12.686173
44.111626 7.44384 11.918174
25.688625 17.816837 57.536175
25.348625 19.539837 58.448174
16.999626 18.566837 67.85918
15.919626 17.365837 66.10217
12.374626 27.281837 35.281174
13.035629 26.225838 33.690174
8.934631 20.946836 42.716175
7.5826263 19.905836 41.764175
0.97062683 35.16884 22.997173
70.736626 34.169838 21.800175
62.066628 34.713837 30.758173
62.518627 34.82684 32.684174
8.304626 26.818836 9.461174
8.17263 24.999838 10.690174
3.1466293 25.987837 22.104174
2.1076279 28.071836 21.861174
5.1686325 34.205837 28.206173
4.0076294 33.31984 26.692173
67.68763 31.602837 35.178173
65.67763 30.648836 34.494175
28.323626 16.762836 57.991173
28.065626 17.154837 55.792175
38.316628 18.261837 50.167175
39.868626 17.118837 48.862175
41.413628 40.94584 73.585175
43.885628 39.256836 73.63017
48.14163 42.663837 65.75517
49.510628 43.853836 64.34518
14.388634 30.050837 34.517174
14.916634 29.028837 36.101173
4.6116257 28.122837 42.616173
5.38163 26.303837 43.450172
42.257626 58.190838 5.287178
41.05163 56.797836 3.9791794
47.228626 62.836838 70.55018
46.386627 64.520836 69.03618
35.782627 27.539837 47.714172
36.109627 29.482836 46.998173
42.62763 32.66084 37.724174
41.874626 31.739836 36.130173
62.423626 50.041836 40.47217
62.600624 50.501835 43.033173
52.116627 51.311836 48.36117
52.246628 52.596836 50.428173
36.824627 64.38484 60.296173
38.972626 64.06884 60.042175
46.661625 57.965836 53.015175
48.783627 59.271835 52.677174
71.21463 38.482838 24.699173
69.89563 39.714836 23.189175
60.633625 38.413837 32.693176
59.987625 36.30784 31.382174
33.785625 37.406837 50.047173
32.690624 39.322838 50.906174
22.649626 36.663837 57.33317
21.930626 38.31484 58.755173
6.9036255 8.631836 59.872173
7.2076263 10.339836 60.832172
69.79562 10.352837 67.37318
70.28563 9.52784 69.07517
51.546627 44.802837 9.888174
49.403625 43.523838 10.224174
41.277626 43.888836 18.165174
39.27363 44.68984 18.121174
43.03063 49.997837 5.850174
42.679626 51.378838 7.213174
35.495625 49.56484 15.350174
33.681625 48.691837 14.530173
44.825626 53.728836 24.193174
43.34963 55.047836 23.227175
52.697628 53.41884 14.440174
53.820625 51.758835 15.222174
22.102627 42.301838 5.977174
19.807632 42.447838 4.855174
15.969627 38.06384 15.461174
14.128632 39.25184 15.743174
26.832626 39.525837 44.423172
26.063625 37.485836 44.008175
24.070625 33.621838 55.46517
22.879625 31.564837 55.337173
38.434628 66.091835 61.698174
39.810627 65.33884 63.075172
46.687626 64.312836 54.446175
48.130627 64.55784 52.931175
49.146626 1.0488434 51.793175
50.029625 3.2488403 52.640175
58.323627 6.5898438 43.301174
56.475624 7.9268417 43.646175
20.041634 20.588837 54.13217
21.396626 20.989838 55.734173
12.910629 21.538837 64.17217
10.291626 21.850838 63.538174
53.569626 20.963837 3.614174
55.489624 20.469837 5.40818
63.853626 21.077837 71.16018
63.442627 19.064837 71.181175
26.658627 25.986837 4.322174
27.601625 26.585836 6.0971737
23.413626 19.727837 16.275173
24.339626 19.849836 18.421173
63.921627 10.856842 50.85417
65.07963 10.931839 52.690174
60.311626 6.700844 61.056175
58.638626 6.2938385 61.74317
52.918625 53.125835 68.527176
53.066628 54.965836 67.13518
59.824627 57.555836 58.542175
61.888626 56.480835 58.813175
58.072624 3.4588394 21.174173
57.152626 2.83284 18.703175
64.586624 3.4648438 9.686174
66.78863 4.037842 9.433174
2.7326279 46.240837 28.640173
3.2606277 45.400837 30.317173
65.29963 41.435837 36.884174
64.499626 42.97384 38.396175
42.674625 21.910837 72.96417
43.190628 19.440838 73.94117
32.520626 18.978836 4.039177
30.820625 17.911837 2.4721756
54.894627 18.997837 60.712173
53.638626 20.810837 60.211174
60.908627 20.008837 50.889175
62.363625 19.720837 52.902172
70.88063 37.797836 41.909172
69.99363 35.706837 43.017174
60.827625 33.43284 49.216175
59.018627 34.662838 50.834175
12.501633 24.528837 66.555176
11.162628 22.896837 66.655174
4.8666306 20.421837 1.2701797
6.317627 20.950836 2.7471771
23.951626 47.72484 8.613174
23.701626 48.501835 10.535173
19.010626 45.155838 20.796173
17.352625 43.78684 20.943174
29.810627 45.749836 50.935173
28.641626 47.124836 51.741173
23.501625 41.746838 61.328175
21.866627 40.483837 61.284172
65.03763 6.5538406 49.390175
66.05363 5.5138397 51.141174
54.596626 5.108841 57.059174
54.640625 5.875839 58.615173
44.730625 59.08584 65.50617
45.136627 61.32884 65.66118
54.818626 64.73884 57.475174
56.222626 62.906837 57.308174
41.048626 18.545837 71.099174
41.23863 20.048838 69.05218
53.749626 21.242838 64.015175
54.078625 19.038837 63.383175
23.974628 35.791836 26.631174
22.491627 35.336838 25.222174
17.365631 29.232836 34.786175
18.058632 30.761837 36.013176
2.2126312 68.700836 53.649174
1.6356277 1.0618439 52.644173
11.933632 3.6108398 44.802174
11.149628 4.035843 42.509174
54.821625 36.57084 27.747173
55.424625 34.66884 27.772173
62.333626 38.919838 18.604174
63.307625 37.044838 17.590174
50.237625 41.489838 45.078175
50.039627 39.798836 43.859173
59.568626 40.22984 34.387173
58.293625 40.067837 32.336174
27.281626 12.218837 20.000174
26.645626 14.297836 19.198174
32.982628 15.992837 9.447174
35.305626 16.992836 10.614174
47.556625 31.684837 5.402174
46.573627 30.039837 4.3791738
40.932625 23.498837 12.408174
40.283627 21.578836 11.478174
65.503624 46.755836 40.827175
63.845627 47.644836 40.999172
56.615627 45.283836 47.886173
55.035625 46.32884 49.528175
14.916634 35.651836 33.905174
16.677628 36.58484 33.925175
23.561626 39.51484 24.727173
24.72163 39.43184 27.084173
25.288624 65.15884 12.006174
23.171627 64.55084 12.338174
17.209633 62.359837 22.553173
16.150635 60.619835 23.004173
39.595627 4.780838 65.75918
42.094627 4.9188385 66.63017
