19.754986 49.860085 68.22685
16.298985 43.552086 3.6048508
13.911985 43.514084 3.185852
10.215985 50.372086 38.616848
10.722985 49.229084 36.831852
18.672985 54.465084 30.21685
19.752985 52.430084 29.12985
37.839985 17.021088 34.34585
37.278984 19.006086 35.79285
31.398987 20.953087 45.04985
32.573986 19.409086 45.644848
59.651985 61.937084 7.01985
57.666985 61.345085 8.28885
56.180984 59.415085 19.23185
53.837986 59.187084 19.80785
28.830986 6.1630936 61.57285
30.476986 4.7620926 61.17785
37.969986 7.9830933 53.69285
38.419987 7.487091 51.470848
37.484985 7.9120874 26.68285
38.669987 9.570087 28.34985
42.858986 15.514088 21.21885
41.543983 16.984087 20.30185
24.054985 15.557087 58.491848
22.172985 16.311087 59.32585
14.879986 15.175087 69.70385
16.799986 16.071087 70.61585
3.8729858 52.227085 19.395851
5.348984 51.130085 20.79285
66.802986 51.576084 27.17485
67.80898 49.674088 26.73585
26.527987 39.993088 50.68685
26.563986 37.642086 51.59985
20.058985 33.243088 60.741848
18.841986 34.695087 60.14985
14.479987 0.42908478 50.04785
14.481986 1.5710907 52.02885
6.2819824 68.86309 59.73985
4.7119827 0.40209198 60.00285
18.804985 46.617085 63.373848
20.493986 44.610085 63.46385
29.784986 47.629086 57.08085
31.181986 49.154087 58.24285
45.789986 41.109085 26.92885
46.286987 39.482086 25.77885
53.007988 42.684086 16.56985
54.889988 42.609085 17.32185
37.321983 39.459087 18.40385
35.605984 39.01309 16.99885
43.486984 46.784084 10.83985
43.574986 47.867085 8.57285
14.795985 59.612087 28.60085
14.544986 59.870087 26.62685
23.209986 59.842087 18.75285
24.932985 61.697086 17.81985
56.115986 19.646088 67.49285
54.768986 20.461086 68.83985
58.140987 19.859087 5.911846
58.016987 17.875088 7.748852
60.541985 36.932087 73.08985
61.255985 35.58209 71.833855
69.21899 34.40209 63.81185
69.05798 31.993088 64.56285
45.395985 41.962086 46.06285
44.925987 41.116085 44.36385
55.729984 40.547085 38.109848
57.352985 39.213085 38.09985
59.775986 55.122086 42.90885
61.208984 56.106087 44.37485
67.959984 55.786087 33.49185
69.528984 56.985085 34.66685
25.260986 29.480087 27.38285
24.591986 27.338087 28.37085
16.879986 29.429087 36.830853
16.239985 28.149088 38.12285
3.6829834 19.323088 5.828846
2.1249847 18.059088 4.706856
9.124985 20.866087 70.76685
10.015984 22.318087 69.997856
47.290985 25.106087 6.2588463
49.066986 23.995087 5.9228477
56.196987 26.458088 69.803856
56.794987 28.526087 70.05785
44.027985 2.4720917 31.60185
42.192986 2.6420898 30.06885
47.822987 7.150093 22.29385
47.248985 8.810089 21.11585
46.026985 48.782085 51.40485
45.266987 47.312084 50.02685
47.778988 38.247086 47.23285
49.045986 36.871086 48.61785
31.736986 41.760086 34.539852
30.982986 41.395084 32.546852
39.919987 42.698086 26.10685
42.044987 43.588085 26.76685
39.367985 15.831087 56.90085
38.431984 14.686088 55.21285
28.532986 14.499087 62.49585
30.316986 14.183087 64.20285
29.768986 43.830086 33.32085
31.236986 45.588085 33.02985
40.633984 46.247086 27.45785
42.255985 47.280087 27.55185
24.661985 64.16109 52.69085
25.864986 65.97809 53.47685
31.249987 67.18309 44.19985
32.959984 66.44909 45.71085
29.858986 62.296085 39.27085
28.958986 61.097084 37.98185
22.855986 56.777084 33.45485
20.772985 56.946087 34.41085
25.981985 63.772087 0.52685547
27.703985 65.74209 1.0598526
35.318985 68.860085 67.278854
33.696983 68.39409 65.59385
23.892986 6.604088 19.982851
22.591986 8.506088 19.94985
12.702986 3.6430893 26.77985
12.544986 3.1070938 28.87785
33.601986 55.816086 42.91585
31.592985 56.378086 42.21385
26.156986 46.584087 49.91085
26.521986 47.501087 51.72585
25.520987 8.824089 59.09385
23.387985 10.431089 58.75885
14.740986 8.082092 66.75285
12.440986 8.159088 66.055855
48.508987 42.484085 30.82285
46.400986 41.255085 32.261852
39.041985 41.555084 40.88385
37.137985 43.150085 40.64985
31.719986 32.348087 13.74385
33.381985 30.750088 13.36885
36.630985 34.963085 1.57485
37.453983 36.537086 2.7958498
66.28799 20.253088 57.019848
67.75398 19.477087 55.28885
2.1339798 24.307087 49.30485
4.262985 25.692087 49.44385
40.355984 30.576088 60.06585
41.246986 29.685087 62.46485
31.509987 29.631088 69.86785
30.602985 27.943089 69.667854
18.789986 43.437084 65.18785
19.211985 42.045086 66.66185
13.509986 40.052086 0.9768524
12.477985 41.908085 1.7088547
59.186985 67.88209 63.33285
59.811985 67.03609 64.74585
69.45098 68.942085 57.54285
71.40498 69.764084 58.34185
14.186988 11.209087 52.20985
12.580985 13.470087 52.44385
4.6079865 8.074087 60.33485
4.4449844 9.249087 62.56085
31.804987 69.61609 63.41785
29.566986 69.50809 62.67685
24.186985 60.344086 71.31285
22.823986 61.894085 72.47785
61.905987 57.747086 6.328846
61.035988 56.428085 4.650856
69.00498 62.968086 72.501854
69.38299 64.984085 72.70185
54.129986 45.181087 16.17685
54.572987 47.174088 16.02385
62.798985 50.857086 8.5168495
64.53899 52.753086 8.76885
32.766987 39.601086 55.19985
34.861984 38.775085 54.35185
42.080986 47.170086 48.89185
43.645985 45.798084 47.88385
25.641985 41.355087 66.56785
24.891985 40.702087 64.28885
32.709984 44.879086 57.89285
34.368984 44.748085 56.14285
11.948986 41.626087 19.61385
14.002986 40.02709 20.23485
16.525986 43.754086 9.91685
17.916985 45.717087 11.21585
69.139984 6.6230927 71.85285
67.01998 5.6670914 72.46685
0.33698273 6.402092 2.6038513
71.44798 6.0000916 0.5348511
41.019985 6.7360916 51.61185
42.841984 6.4190903 52.51885
49.552986 7.116089 43.92785
50.504986 5.7380905 41.98185
12.637985 34.979088 18.89685
10.576985 34.729088 17.49385
17.106985 36.466087 8.42985
17.188986 37.768085 6.40785
14.500983 19.399088 19.08785
14.221984 17.530087 17.74485
4.785988 16.648087 25.73485
5.1809845 14.861088 25.73585
50.691986 56.556087 73.92285
49.356987 56.720085 72.60686
54.919987 57.450085 62.13985
55.709988 59.374084 61.06585
53.573986 4.1840897 5.95285
52.533985 1.9360886 6.32685
44.768986 67.816086 14.13785
42.477985 68.70409 15.14985
63.443985 9.112087 12.98385
63.471985 10.712088 14.61285
66.82398 14.227087 3.0728498
68.694984 15.715087 2.7478497
71.70198 47.483086 30.50985
71.22998 49.058086 29.420849
7.8039856 50.919086 21.003849
7.4089813 49.676086 19.621851
40.040985 6.107094 53.95985
40.131985 3.6950912 53.734848
35.941986 1.763092 64.542854
35.742985 69.85409 63.77285
47.376987 59.775085 35.01685
48.869987 58.678085 33.77185
52.759987 60.489086 23.67285
54.580986 61.518085 24.20385
50.069984 33.359085 11.42785
49.341988 34.98509 10.64385
45.527985 32.605087 22.63985
46.741985 30.710087 23.00585
42.443985 54.073086 49.29885
41.678986 55.179085 51.15985
32.682983 51.414085 57.96485
30.990986 52.859085 58.13985
71.52499 35.96409 47.609848
70.10699 35.216087 45.75885
60.527985 34.733086 53.84685
60.538986 34.473087 55.87885
47.880985 6.1840897 3.6938498
48.131985 6.0520935 5.63785
42.319984 6.999092 14.82985
39.803986 7.0490875 14.31285
48.755985 20.902086 45.59985
51.057987 20.756086 46.04085
58.339985 21.741087 35.76785
60.442986 22.186087 37.373848
55.045986 4.3910904 8.02785
53.877987 6.2710876 8.27185
45.387985 1.72509 17.69885
43.798985 2.9810867 17.11885
26.427986 35.245087 29.62785
26.217985 32.897087 30.63685
18.879986 31.643087 39.90985
18.822985 29.160088 39.40985
44.140987 28.406088 5.8308496
44.992985 27.514088 7.3758497
37.436985 22.047087 15.43285
37.031986 23.264088 17.08985
51.853985 68.46709 67.679855
52.895985 69.027084 69.38185
51.871986 2.1940918 3.7788544
52.335987 69.60509 4.1968536
57.962986 9.630087 12.91685
57.271988 6.954094 12.40385
50.004986 1.7360916 20.54485
50.113987 0.97509 22.78785
5.493988 18.280087 43.88985
4.4689865 20.301086 44.394848
12.8579855 25.130087 37.05385
13.431983 25.988087 34.71085
18.114985 18.920088 -0.43415013
15.930985 17.828087 -0.07015028
9.253985 16.187088 10.46385
10.521986 14.750088 11.35185
43.943985 38.570087 61.10685
45.712986 37.876087 62.63885
55.853985 43.050087 56.36885
57.107986 41.779087 58.10685
36.295986 28.082088 70.208855
37.574986 26.692087 70.777855
42.754986 27.096088 61.76785
45.017986 27.030088 61.18885
11.233986 24.011087 68.20285
11.551986 26.708088 69.07986
18.577986 27.872087 59.84385
20.439985 28.701088 59.36385
25.905985 16.820087 26.274849
25.435986 16.932087 28.80985
19.319984 17.047087 36.33585
19.993986 16.464087 38.39185
52.355988 40.726086 54.102848
52.437984 42.168087 52.53585
61.744987 46.126087 44.98185
63.769985 45.367085 45.47385
42.396984 25.716087 1.2818527
44.387985 25.119087 2.8588562
52.151985 27.653088 68.195854
53.596985 29.433088 67.98085
22.638985 20.092087 63.73585
21.816986 22.023087 64.04885
15.204986 25.208088 73.512856
14.935986 26.751087 0.15585327
19.843987 12.152087 36.14285
17.848986 10.949087 35.191853
9.649985 9.835087 44.18685
11.0089855 8.983088 45.97385
26.402987 14.198088 43.34785
26.019985 15.8650875 41.64985
31.768986 11.495088 31.56785
33.482986 12.810087 29.98385
17.825985 49.061085 26.82885
17.781986 51.124084 25.795849
27.383986 47.769085 17.58285
28.051987 50.185085 16.91985
29.369986 23.600086 48.52385
27.855986 24.363087 47.47185
21.285986 21.739088 57.31685
19.883986 20.451088 57.51085
23.160986 0.1980896 16.520851
24.849985 68.47609 16.21685
30.338985 1.7560883 6.8178496
29.254986 0.13909149 5.57485
37.098984 28.358088 54.45685
38.755985 28.823088 55.46485
46.726986 33.838085 47.71085
46.232986 31.815088 46.84085
24.648985 48.896084 69.97985
24.822985 46.789085 69.77285
29.317986 50.720085 59.23185
28.383986 50.066086 57.05185
28.198986 17.009087 64.332855
26.670986 18.249086 64.94785
20.072985 11.730087 71.095856
20.767986 10.308087 72.19885
13.196985 18.345087 50.81685
13.027986 20.505087 50.45085
16.485985 20.451088 37.81185
18.020985 19.012087 37.57685
12.461986 6.0020905 67.77185
13.9829855 5.029091 68.98885
9.428986 1.0590897 4.817856
10.902986 0.48509216 6.444851
51.393986 45.959087 33.601852
49.167988 46.956085 33.23985
44.117985 44.096085 44.19885
41.827984 44.155087 44.32985
67.942986 46.321087 46.616848
67.78599 45.535088 48.57985
62.992985 42.896084 59.40385
63.933987 44.475086 60.78585
62.149986 19.373087 17.829851
61.825985 17.154087 17.84085
53.011986 15.007088 26.75085
54.945988 13.564088 27.00085
13.554984 32.882088 1.5668564
11.269981 33.938087 1.5858536
1.6569824 29.660088 6.940853
1.0249863 26.929087 6.0428505
31.943987 6.2020874 45.91985
31.556986 4.022087 45.69085
22.685986 68.63009 52.10685
23.875986 67.65809 53.512848
27.373985 67.62009 37.58085
28.768986 65.539085 37.71285
35.675983 68.53709 30.26885
34.912987 0.501091 30.25185
60.399986 1.1130905 45.77985
59.180984 1.2380905 43.95485
63.775986 9.122091 36.79785
65.82298 9.204092 36.205853
34.326984 16.703087 12.98985
32.114986 17.033087 13.26385
24.284986 14.695087 22.44885
24.981985 15.198088 24.437849
36.168983 9.709087 12.02085
37.316986 11.167088 12.81585
45.125984 13.901088 2.3778498
44.410988 12.685087 0.9248501
37.567986 39.370087 41.19985
35.989986 40.254086 42.64585
28.641987 39.260086 49.72285
29.490986 37.348087 51.06485
58.040985 65.60209 7.74885
57.236984 63.916084 8.8988495
47.282986 64.067085 16.91285
45.624985 65.04209 16.21785
7.6099854 25.124088 51.27785
8.914986 25.727087 53.68685
70.04898 25.003088 59.46585
70.10498 22.505087 59.41885
54.969986 28.700089 15.15285
55.251987 27.683088 17.30385
46.426987 23.186087 21.77185
47.381985 21.329086 23.23885
4.502983 21.311087 48.05585
6.075989 19.620087 48.76585
1.1529846 13.185087 57.70285
1.7859802 11.349088 58.73185
30.844986 67.18309 59.80785
33.149986 66.10309 59.41585
42.165985 66.857086 51.76085
42.127987 66.42009 49.89685
61.394985 6.838089 32.02185
62.496986 7.291092 34.17485
50.202988 7.8110886 40.46285
49.780987 9.90209 40.69885
6.1999855 29.315088 47.96485
7.9899855 29.368088 49.29985
16.201986 31.552088 41.33885
15.690986 30.366087 39.73785
67.539986 21.147087 24.19385
68.60398 19.218086 25.10285
57.877987 21.344088 31.82785
59.363987 22.360086 33.12585
34.481987 65.50309 44.005848
34.590984 67.443085 42.52685
41.866985 2.352089 33.70785
40.061985 2.2220917 31.84385
3.0609818 46.247086 51.70585
2.5679855 47.132084 53.43385
67.46899 41.956085 61.88385
67.250984 43.621086 63.44985
21.074986 9.362089 17.52885
21.555986 7.662094 16.59685
27.170986 8.33709 7.24985
27.119986 6.685089 6.2838497
8.687988 36.63809 18.31185
8.276985 35.086086 18.86785
4.514984 32.408085 29.98985
2.3699799 33.657085 30.07085
31.882986 68.96409 27.41085
32.436985 69.88409 29.253849
27.432985 2.9930878 39.41385
26.556986 1.0790863 40.75985
66.21699 60.640087 11.17685
66.86598 58.622086 11.01585
71.971985 61.846085 1.4018499
71.32298 63.380085 -0.09815016
55.362988 57.589085 58.12085
57.159985 57.631084 59.88385
64.24599 60.566086 49.03885
66.32498 60.005085 50.25385
34.585983 59.548084 23.67485
36.415985 60.423084 24.09285
41.323986 65.485085 14.20485
41.694984 63.613087 13.58385
11.871985 24.138086 18.19085
9.530983 23.699087 16.87885
0.26798248 17.703087 21.75585
70.93298 18.520086 23.708849
16.070986 50.379086 7.85385
14.542986 52.468086 8.23685
13.776985 50.235085 20.68485
14.698985 48.623085 20.40885
54.000984 65.916084 39.38185
55.796986 64.304085 39.36985
63.083984 0.71808624 33.30685
64.96899 69.083084 32.60685
7.436989 52.792088 57.36585
8.691986 52.630085 59.27385
0.91298676 48.120087 66.540855
70.60498 48.945087 65.98985
37.903984 11.605087 70.25485
39.973984 10.663087 70.63185
43.694984 7.6950874 59.69585
45.910988 7.889087 59.31685
23.518986 51.269085 30.65085
24.392986 49.892086 29.36785
28.714987 55.205086 21.09685
29.291986 53.965084 19.06485
45.845985 51.829086 28.87585
45.135986 53.362087 28.02885
54.034985 53.317085 20.06685
55.614986 54.719086 19.51085
28.445986 61.906086 3.5918498
27.031986 61.507084 1.9608499
19.234985 60.032085 12.63185
19.391985 62.291084 12.79485
45.347984 14.218087 21.17385
44.064987 12.973087 20.85485
42.490986 5.409087 30.06485
40.224987 5.7830873 31.18385
57.114986 33.653088 35.00185
59.203987 32.856087 34.21585
67.82598 37.39509 25.13885
69.14298 38.147087 26.67585
47.179985 29.845087 45.07585
47.484985 32.102085 43.77285
54.285988 33.801086 34.289852
55.177986 32.037086 32.94785
61.161987 18.015087 14.95085
60.542988 16.519087 13.75785
67.93598 18.134087 4.1468496
67.389984 19.592087 2.1268497
9.6669855 14.027087 68.51985
9.725986 15.836087 67.028854
17.120985 19.609087 58.21785
18.778986 17.985086 58.14385
44.651985 43.585087 27.09585
44.414986 44.337086 25.10385
50.841988 46.707085 16.52185
52.074986 46.109085 14.400849
64.86999 68.25109 29.99885
63.426987 69.54309 28.753849
69.50999 67.51509 17.30385
71.27998 69.07009 17.51285
51.340984 12.386087 45.86485
52.660988 13.042088 47.79785
46.944984 13.498087 58.67385
45.892986 11.465087 58.08585
6.186989 14.407087 67.98885
7.5299835 14.787087 70.109856
0.4199829 16.118088 3.1448517
1.5659866 15.331087 4.4938507
1.8299866 41.807087 48.16885
3.4239807 43.060085 49.27185
9.518982 43.196087 38.15285
10.025986 44.850086 39.40885
31.917986 21.373087 9.86685
29.699986 21.356087 9.70885
25.697985 29.102087 13.34985
27.038986 29.076088 11.37185
24.183985 8.41909 23.70785
26.138985 9.042089 25.19285
19.898985 9.168089 35.19585
21.336987 10.032087 36.35785
28.148987 60.684086 18.42785
29.228987 58.912086 18.086851
38.588985 62.743084 13.83385
39.211987 61.524086 12.14285
54.974987 61.718086 58.96585
53.610985 60.650085 59.748848
46.262985 61.141087 69.25385
46.616985 63.055084 70.58685
25.825985 65.57009 18.98785
25.683985 64.71409 17.14185
36.209984 69.34309 12.54985
36.074986 0.39408875 10.94385
55.057987 23.956087 12.73985
55.931988 22.172087 13.815849
44.910988 15.449087 18.82085
44.110985 17.630087 20.31185
12.550985 60.196087 44.16585
14.283985 59.929085 42.70985
19.530985 66.860085 36.240852
21.181986 67.80009 36.77685
6.375984 63.938087 22.92485
6.7659836 62.018085 23.90085
71.90498 61.486084 33.75885
70.624985 59.317085 33.44085
15.403985 30.327087 73.16286
17.620985 30.021088 74.10585
24.340986 25.504087 63.93385
24.099985 25.469088 61.762848
69.94698 3.3830872 38.15385
70.428986 1.8320923 36.21085
1.8509827 7.176094 26.45485
4.2979813 7.69709 26.83885
58.043987 49.850086 59.39885
55.912987 49.838085 59.40685
48.814987 47.931087 67.52285
49.702988 46.833084 69.91286
44.756985 63.755085 72.36685
45.405987 65.65909 73.42285
36.192986 66.46809 5.9338493
36.193985 65.44509 7.9558525
41.475986 54.816086 68.998856
42.678986 54.664085 66.86985
47.367985 61.203087 58.27885
49.987988 61.369087 58.13685
15.070983 36.385086 2.0638497
13.256988 35.558086 2.8148499
8.482986 33.058086 12.25785
8.262985 31.075089 12.33285
62.866985 56.015087 63.75785
63.454987 55.009087 65.80285
56.431988 49.538086 73.567856
57.353985 49.770084 1.1118546
8.433983 63.993084 5.60885
10.238983 64.944084 6.6328497
1.2359848 64.860085 15.79285
2.5269852 63.915085 17.16785
46.923985 6.453087 19.66285
45.412987 6.709091 18.07185
51.888985 8.291092 8.12585
50.259987 7.4830933 6.61785
14.741981 9.161085 15.33785
14.551986 8.1010895 17.225851
8.061989 8.263092 26.58785
8.984985 8.696091 28.98385
57.261986 52.090084 41.59185
56.892986 53.386086 39.63185
64.68899 55.058086 31.65985
65.764984 53.597084 29.78485
1.4959869 17.302088 42.64785
3.1259842 19.022087 42.25185
7.7289886 22.926086 32.34385
9.537987 22.500088 32.80585
62.291985 55.967087 30.57385
61.406986 53.755085 29.54685
53.498985 52.326084 38.03585
52.165985 54.394085 38.63485
31.324986 63.702087 60.68385
31.472986 61.969086 62.25185
28.948986 61.168087 73.35185
27.222986 60.345085 73.74485
59.755985 4.407089 12.01685
57.547985 4.3020935 11.91485
52.727985 68.76809 22.56885
50.848988 67.95909 21.89085
3.8639832 35.701088 31.66085
1.7959824 35.975086 31.576849
0.114982605 34.191086 44.53985
70.57698 32.688087 44.25785
17.859985 24.281088 20.61085
16.780985 23.220087 22.083849
9.273986 21.099087 29.51485
7.0079856 20.049088 29.07085
68.08998 0.76708984 52.70485
66.678986 1.8580856 51.31185
2.7579803 1.1330872 40.66785
0.9369812 1.524086 39.01585
4.3219833 28.167088 27.78085
5.7489853 29.670088 27.99485
9.479988 31.103088 16.28385
11.225983 32.421085 15.79885
62.936985 53.814087 26.70085
63.085987 55.964085 26.57785
71.99398 58.917088 18.07385
1.8529816 58.165085 19.013851
14.40898 1.5980911 68.85685
12.163985 2.873085 69.96986
5.288986 1.2520905 4.2318497
3.4079819 0.85808563 4.4968567
23.367985 65.97309 17.58185
23.006985 67.54709 18.98685
14.688986 65.54909 27.96485
15.638986 67.375084 29.35685
35.758984 51.582085 62.93485
36.207985 49.152084 62.85485
26.692986 50.610085 67.847855
26.802986 51.072086 69.63285
3.507988 45.969086 16.00685
3.943985 44.090084 15.87385
68.27499 41.586086 23.781849
68.20198 40.900085 26.06785
71.498985 40.973087 29.201849
70.48299 42.230087 30.55885
62.277985 37.948086 37.998848
60.308987 36.491085 36.75885
2.2709808 66.59809 19.69985
3.028984 65.56509 21.46385
69.153984 66.21809 31.80885
66.999985 64.777084 32.01585
46.237988 48.808086 10.01585
47.792988 49.867085 11.14485
52.765987 51.167088 -0.48215
52.060986 48.933086 -0.8671502
6.837982 17.651087 46.33885
8.212982 18.944088 47.00085
11.439987 21.079086 35.77185
13.180984 22.427088 36.546852
39.526985 8.659088 73.03485
37.805984 10.356085 72.77185
27.182985 5.8210907 3.5688553
27.733986 3.8540878 5.234852
60.462986 59.736084 46.50185
61.297985 59.000084 44.51585
0.8969803 60.984085 38.720848
0.36997986 60.364086 36.49685
39.209984 48.779087 44.95185
38.341984 48.341087 42.17185
47.115986 51.504086 36.89985
49.101986 51.845085 35.08585
42.835983 52.802086 8.40785
40.425983 51.709087 7.6728497
36.764984 44.728085 18.08985
34.378986 44.861084 17.81285
36.801987 60.315086 47.86385
36.715984 59.490086 45.63685
38.325985 63.215084 34.66085
36.479984 64.887085 35.18285
26.479986 57.487087 18.01185
26.295986 55.774086 20.16585
21.647985 54.431087 30.13985
20.796986 55.755085 31.54485
2.653984 30.116087 28.57585
0.9569855 31.400087 29.295849
64.12898 27.013088 37.23385
64.57198 29.290087 38.07885
19.357985 66.73909 13.83585
19.167986 66.72809 11.16685
28.222986 3.5710907 7.88485
29.200987 5.959091 7.9288497
51.341988 9.328087 44.41785
51.541985 10.879087 42.67285
57.073986 13.275087 33.07185
58.132988 11.699087 31.840849
15.952986 15.544087 36.84985
14.793985 17.766087 37.09985
12.483986 12.877088 48.31585
11.957986 14.335088 50.18385
42.523987 25.050087 40.48685
44.670986 26.558088 40.637848
51.927986 26.897087 31.09585
52.345985 28.850088 30.59485
65.59998 48.884087 62.94485
64.611984 47.020084 62.60885
60.618984 45.607086 73.83785
60.459988 46.849087 1.2968521
4.974983 28.397087 11.82185
6.2329865 26.188087 11.57385
16.094986 29.511087 3.6128497
15.101981 28.759089 1.9128498
6.316986 50.890087 73.222855
6.816986 48.934086 72.01885
13.017982 51.256084 63.27485
12.858985 49.820087 61.61985
20.101986 4.3440933 0.97784984
17.972986 3.1290894 0.73084986
18.467985 1.1200867 12.44985
17.196985 2.5780869 13.71585
67.03899 29.882088 4.1078568
65.610985 30.511087 2.3548508
0.89398193 32.537086 67.44885
2.9429855 31.870089 67.583855
34.933987 17.075087 31.16185
37.080986 16.144087 31.35685
44.554985 21.466087 22.49285
44.120987 22.188087 20.61785
18.346985 57.731087 49.70385
18.134985 58.560085 47.99485
26.378986 58.718086 39.38285
26.219986 59.501087 37.19185
30.312986 16.368088 30.33785
29.130985 18.660088 30.21685
24.375986 23.846087 40.08185
22.228985 23.478086 40.47185
66.511986 28.045088 40.27885
64.276985 28.820087 40.64185
61.183987 20.200087 49.97485
59.458984 19.167088 51.16785
64.262985 36.453087 40.38185
65.80199 35.514088 39.81085
1.3579865 39.508087 32.449852
0.8459854 41.422085 31.52085
4.9919815 21.025087 65.25685
3.18898 22.276087 64.568855
64.80099 19.665087 72.776855
63.152985 19.482088 71.124855
64.97598 59.814087 30.34685
63.724987 61.326084 31.71185
58.578987 57.629086 41.66885
56.489986 57.587086 40.30385
56.461987 20.215088 34.261852
55.607986 18.657087 33.22985
48.551987 15.405087 42.45885
48.362988 16.297087 44.22185
64.331985 44.861084 22.35785
66.08798 44.712086 24.177849
71.82899 48.353085 13.301849
1.6699829 49.521084 14.00285
15.462985 64.32209 66.69685
17.571985 65.47709 66.11585
22.219986 66.38009 55.16885
23.564985 64.59009 55.05085
15.961986 2.7730865 32.83485
15.213985 3.8990936 34.115852
10.6079855 1.9780884 44.95685
8.651985 1.5680847 43.42185
32.034985 3.5070877 29.10585
33.671986 4.60009 30.69885
32.217983 67.970085 41.07685
30.327986 68.413086 41.59385
13.450986 21.321087 16.43685
14.222985 23.237087 17.41585
22.074986 26.478088 7.52585
24.340986 24.968088 7.86085
69.33598 24.026087 21.67285
71.24298 24.233088 23.090849
7.271988 21.139088 12.46685
7.4899826 23.334087 12.05585
38.275986 15.363088 74.17485
36.066986 14.683087 72.91085
28.962986 10.093087 6.8608513
29.729986 10.750087 8.442852
29.576986 4.0660934 40.43685
29.486986 5.755089 42.06385
35.560986 9.419088 31.340849
34.438984 8.653091 29.74085
71.57999 42.377087 10.424847
71.60799 41.788086 8.51585
5.776985 46.207085 74.039856
5.4489822 46.788086 71.861855
18.797985 59.586086 67.35385
17.119986 61.460087 67.125854
10.874986 60.830086 3.1308517
9.688986 62.234085 3.9668503
28.853987 46.272087 34.94785
27.257986 47.376087 34.80585
21.861986 39.576088 42.81385
19.987986 40.514088 43.83385
21.098986 20.309088 1.6828537
22.873985 18.159086 2.4648514
32.311985 21.779087 71.13385
32.246986 21.477087 68.57285
6.8429856 21.822086 67.34485
8.884986 20.719088 67.92085
15.202986 22.921087 57.10885
16.214985 24.524088 57.484848
19.492985 15.141088 71.85585
19.012985 17.413088 71.610855
18.671986 21.467087 0.77485657
16.898985 21.464087 74.22885
60.104984 37.161087 17.51085
61.945988 36.488087 17.68285
67.01798 43.491085 9.12785
68.637985 42.737087 10.17685
52.173985 39.630085 13.35785
50.783985 38.40909 12.57685
44.361984 40.192085 23.68585
43.140984 41.684086 23.06685
55.236984 13.404087 64.68585
54.478985 15.047088 65.13685
60.631985 17.051086 54.66185
59.462986 16.581087 52.68685
8.379982 41.482086 19.43885
6.474983 40.90209 17.31085
0.39998627 38.58909 27.85585
0.81998444 38.716087 29.66485
11.100986 52.543087 21.17485
13.606985 52.987087 21.36885
19.667986 54.080086 12.38285
19.399986 52.610085 11.21885
68.53799 49.288086 63.82985
67.75799 50.877087 62.60485
5.348984 52.079086 55.60785
5.7329865 54.139084 55.21285
15.663985 25.000088 38.78885
16.134985 26.316088 40.35585
9.927985 22.230087 49.17485
7.8599854 21.306087 49.72885
26.021986 6.4640884 43.38285
27.492987 8.553093 43.58485
24.407986 7.520088 56.87685
22.374985 9.101088 56.67985
11.211983 45.906086 60.49785
8.916985 45.388084 58.80485
4.8509827 43.755085 68.89885
3.2109833 44.382084 68.041855
52.477985 56.529087 54.38285
53.730988 55.478085 55.55385
58.493984 59.669086 44.01085
57.291985 60.228085 42.73985
35.765984 19.781088 50.72485
35.082985 20.654087 48.24585
44.391987 26.563087 44.78085
45.091988 24.782087 42.99385
51.729984 21.841087 65.499855
49.477985 21.092087 65.04385
44.223988 20.189087 1.7588501
43.813988 20.861088 3.7648544
43.638985 8.843094 18.97485
43.103985 6.6050873 19.71085
38.026985 1.9210892 29.78985
35.905987 3.2090912 29.99785
64.219986 19.960087 36.25985
65.51998 18.427088 37.220848
0.56798553 25.240088 29.72185
1.7889862 23.450087 29.16585
41.390984 58.058086 50.42885
41.479984 57.827087 52.41385
32.992985 55.006084 58.227848
31.034986 56.109085 59.03585
47.178986 33.609085 6.6598473
46.447987 35.648087 6.333851
51.323986 34.282085 68.97785
51.624985 36.236088 68.07185
18.310986 48.571087 11.00385
17.878984 50.456085 11.96485
10.763986 43.853085 18.80685
11.128985 44.727085 20.66485
57.091988 52.681087 23.35085
55.109985 52.192085 22.49985
50.067986 45.231087 31.44285
48.514988 45.854084 30.98385
18.492985 27.114088 41.48585
17.977985 24.553087 41.62685
10.784986 24.698088 49.81185
11.739985 23.111088 51.42185
38.619984 21.328087 72.21886
39.595985 19.991087 73.41985
45.731987 21.404087 63.23785
47.556988 22.145086 62.90685
57.801987 8.501087 49.65585
58.723988 7.641087 51.17985
49.890987 8.270087 59.02885
48.085987 9.278088 58.81685
14.968986 14.274087 53.01385
14.862986 16.381088 51.86985
21.437986 19.111088 42.04885
21.919985 21.092087 41.90685
28.440987 68.27209 1.4138565
28.518986 69.900085 3.0848541
35.346985 5.51709 69.37885
37.702984 6.576088 69.90785
46.151985 12.917088 39.89785
47.801987 13.411087 40.87085
54.049988 16.298088 30.43885
55.653988 15.068088 29.29285
22.677986 52.116085 50.06985
22.394985 53.688087 49.08485
17.431986 55.172085 45.73385
17.362986 55.939087 47.98685
49.406986 24.881086 25.41085
50.396988 27.095087 25.16985
58.738987 30.110088 17.39685
60.655987 30.309088 18.08185
25.263985 58.460087 58.06285
25.269985 56.241085 57.52185
16.527985 52.430084 61.87785
15.1339855 51.094086 61.28385
55.464985 55.623085 4.39285
55.422985 53.568085 3.5058498
52.033985 49.613087 12.60085
52.880985 50.947086 14.51485
22.716986 47.755085 29.37485
23.926985 46.106087 28.30785
29.807985 43.678085 18.84885
29.087986 44.355087 16.83185
38.621986 27.017088 19.86885
38.187984 25.158087 18.87985
27.714987 20.303087 26.55085
29.130985 18.576088 27.55585
31.032986 42.097084 0.5158497
31.153986 44.187084 1.9328498
25.935986 37.622086 9.95785
25.690985 35.907085 10.59185
46.583984 49.171085 68.37885
47.269985 47.958084 70.61385
44.323986 46.492085 6.1378517
43.480988 45.213085 4.900856
53.979984 23.160088 68.88285
52.569984 21.469088 70.04985
48.812984 20.399088 5.718853
48.354984 18.028088 5.4648476
30.273987 11.562087 62.66385
28.005985 12.126087 61.58985
35.321983 10.948087 50.68785
34.664986 9.072087 49.84685
59.396988 22.450087 72.42385
60.312984 23.786087 73.831856
52.784985 19.871088 7.852848
53.432987 20.727087 9.983852
56.378986 23.219088 30.79685
56.890987 25.568089 30.79185
66.540985 23.523087 22.96885
67.93298 24.134087 23.83985
70.75298 58.514084 72.179855
69.458984 59.619087 73.096855
65.66099 54.896084 9.941853
64.194984 56.500084 10.442852
12.5159855 4.360092 48.58285
11.801986 4.2590866 46.73685
20.345985 10.106085 39.26785
21.565985 7.86409 38.84185
12.443986 37.030087 37.78985
12.837986 38.623085 36.17485
20.311985 35.774086 25.67485
19.119986 36.260086 24.12485
39.669987 58.048084 10.96085
41.125984 56.587086 10.14885
45.028988 51.382084 9.07485
45.760986 51.663086 11.30185
34.633984 42.396084 39.32385
35.261986 40.392086 39.81685
23.875986 38.255085 44.16285
22.835985 36.372086 43.873848
37.318985 15.639088 53.10885
38.993984 17.651087 53.73585
46.271988 19.989088 44.58485
45.800987 19.849087 42.68285
71.60198 12.772087 42.07185
71.07298 10.680087 41.85885
62.241985 8.522087 50.75885
60.897987 8.967087 52.46285
10.429985 47.134087 40.91285
11.155983 45.322086 41.81385
6.076988 43.223087 53.15185
6.4359818 44.963085 53.60685
6.898987 43.629086 16.07785
6.1499863 44.922085 14.506849
16.012985 45.798084 7.70285
15.709983 45.073086 5.95185
59.008987 45.099087 20.343851
59.090984 44.105087 18.86585
66.99499 49.779087 11.21985
67.374985 47.810085 10.64785
54.364986 3.0280914 3.475853
54.730988 0.6690903 4.0618515
58.065987 2.3270874 66.278854
55.820988 2.3220901 65.54385
0.47998047 65.17609 18.32785
70.00999 64.80609 17.21785
62.042988 61.462086 25.46885
62.273987 61.794086 27.54385
57.636986 0.053085327 63.10485
57.336987 69.08509 61.71985
65.42098 0.04109192 53.21085
65.539986 67.81109 51.94285
66.511986 69.93109 67.84085
64.82899 1.2120895 67.570854
0.3059845 8.369087 60.75285
1.9589844 7.624092 59.66585
68.94099 62.074085 14.47085
69.15798 64.02909 13.67785
4.002983 66.47409 5.32585
4.5069885 68.30009 5.1468496
42.596985 41.463085 45.50385
40.575985 41.579086 45.06185
38.767986 34.310085 55.81285
37.402985 36.063087 56.91785
41.638985 15.927088 36.96585
42.193985 14.387088 38.81985
32.244984 12.596087 43.19885
29.879986 11.787087 44.11085
3.653984 29.259089 66.04885
3.9249878 31.048088 64.556854
12.893981 30.737087 56.01085
11.328987 31.645088 55.11885
41.347984 68.69509 69.222855
42.596985 0.36608887 70.67085
52.773987 1.5690918 64.88285
54.060986 3.3670883 63.727848
31.313986 10.542088 28.36485
31.938986 8.5890875 28.83485
23.794985 9.0230875 39.88485
25.204985 8.301087 41.46785
3.1709824 23.164087 62.06685
5.0159836 24.557087 62.58585
13.765983 26.604088 55.58985
14.552985 25.027088 55.41985
49.849987 54.133087 36.76385
49.763985 52.683086 38.54185
41.050983 51.288086 46.13985
39.285984 51.794086 44.75285
12.548987 56.875084 6.75985
13.041984 54.814087 7.14085
6.959984 53.412086 17.01585
8.170982 52.317085 18.80085
34.502987 5.453087 46.40385
34.900986 6.7100906 48.02085
27.693987 1.3160858 54.22985
27.833986 69.943085 56.35885
42.248985 46.092087 25.07885
42.313984 44.450085 23.69185
47.899986 49.905087 13.76585
50.130985 48.248085 14.02085
61.800987 2.265091 12.00085
62.949986 4.2680893 12.25985
71.14498 9.183088 8.0498495
71.889984 11.005087 6.3108497
40.461987 21.136087 36.066853
42.170986 21.664087 34.59685
50.458984 22.139088 26.73485
50.652985 20.308086 26.03285
15.266986 5.4780884 66.12385
16.536985 5.162094 68.56785
26.675985 2.635086 60.19485
28.065987 3.5170898 61.11285
48.670986 59.827087 51.16385
50.503986 60.638084 53.08885
54.625984 67.97309 44.01085
57.101986 67.386086 43.91685
36.247986 50.326084 3.1298523
36.159985 52.521084 3.3438568
46.084988 57.217087 72.06185
46.158985 58.822086 70.831856
57.551987 44.595085 -0.2701501
58.093987 45.455086 1.9738499
54.361984 40.434086 11.95085
53.413986 41.963085 13.53185
39.398987 42.958084 21.06185
38.661983 43.722084 19.79685
48.734985 41.317085 12.34585
49.566986 43.372086 12.11885
48.771988 30.640087 25.93685
48.860985 29.320087 24.05385
59.232986 32.850086 17.475851
60.032986 34.628086 17.61985
38.404984 4.546089 67.30085
39.767986 3.824089 68.51985
49.541985 5.638092 59.91985
50.455986 6.715088 61.23285
26.834986 49.852085 14.35485
26.441986 51.936085 13.71585
32.201984 55.934086 5.29885
33.225986 54.629086 3.91285
16.347986 47.975086 23.920849
15.650986 50.231087 24.54485
21.729986 52.379086 13.339849
23.332985 51.340084 13.42885
62.686985 3.6720886 51.82785
61.743984 5.1910934 52.13485
52.389988 4.1770935 60.65185
54.083984 2.9880905 61.15885
65.486984 58.408085 47.46885
67.222984 57.692085 48.85685
4.1879883 57.099087 41.73385
4.500984 58.046085 39.48785
38.721985 28.344088 0.019851685
38.274986 28.950089 71.985855
43.386986 31.180088 62.40585
44.587986 30.080088 61.50485
60.227985 22.213087 52.10685
58.586987 20.978086 53.16785
49.985985 20.626087 62.43185
50.877987 18.269087 62.30085
19.990986 28.405088 3.92885
18.279985 27.428087 4.3368497
11.721986 21.916088 12.37185
9.729985 22.914087 14.08185
14.284986 14.087088 31.170849
12.464986 15.451087 31.052849
17.966986 19.973087 20.121851
18.693985 17.404087 19.50785
57.714985 25.970087 13.308849
57.092987 25.086088 11.45885
62.826984 26.834087 1.4878498
62.037987 28.859087 0.7518498
3.629982 41.266087 68.36885
5.5839844 40.240086 68.721855
11.063988 42.494087 58.18185
11.628982 43.542088 59.99285
22.280985 1.4280853 38.98285
24.302986 0.095085144 39.94585
22.742985 65.983086 51.05585
20.919985 64.707085 52.18985
13.220985 43.116085 21.583849
13.774985 45.274086 21.33085
22.479986 42.819084 11.99685
21.401985 43.684086 9.97085
29.490986 34.579086 51.15285
29.602985 33.058086 49.95185
38.319984 34.045086 41.68785
38.628986 32.49909 40.26085
52.352985 62.631084 39.66985
50.742985 61.856087 38.12885
55.550987 62.408085 26.52085
56.490986 64.50709 25.05185
1.3219833 45.394085 49.373848
0.7679825 45.172085 46.52585
8.487984 48.509087 39.49985
8.607986 49.865086 41.05285
46.281986 7.9690933 4.77285
44.522987 8.975088 4.4818497
36.223984 4.3990936 10.14985
34.281986 4.8320923 8.57785
17.988985 13.771088 54.78085
15.973986 15.203088 55.29685
9.759986 13.049088 65.35185
8.309985 11.700088 65.29685
2.540985 23.013086 32.28385
3.219986 21.630087 30.51685
69.96298 14.419087 40.69785
67.68899 15.522087 40.06785
62.553986 29.042088 21.53585
61.747986 30.608088 20.38485
53.638985 31.743088 30.46685
54.328987 33.806087 31.16585
68.18999 21.945087 5.70285
69.49398 19.939087 5.75585
67.166985 17.557087 16.94085
65.09998 15.987087 17.72685
67.62698 29.721088 23.427849
65.21098 30.363087 22.96785
57.787987 30.664087 32.94085
57.062984 28.746088 33.07685
20.741985 10.995088 55.12285
19.965986 9.948087 53.04185
28.633986 13.987087 44.85085
28.740986 15.899087 44.30785
34.772984 38.02709 73.81485
37.137985 36.56809 73.653854
39.709984 42.514084 63.48585
41.637985 41.472084 64.33685
2.9499817 25.701088 30.767849
4.2749863 25.347088 32.48685
71.512985 23.102087 40.54685
69.375984 22.316088 39.79885
33.676987 53.455086 1.1608505
33.672985 55.768085 1.6228561
35.327984 60.706085 64.07885
33.805984 62.008087 63.57985
26.426985 25.472088 44.91085
27.674986 23.540087 43.63485
32.072987 26.205088 33.13085
30.616985 26.700089 31.38385
52.711987 48.519085 37.12885
51.535988 48.043087 39.10485
45.579987 50.006084 46.602848
43.265984 50.012085 47.29785
27.375986 55.334087 56.012848
28.109985 57.716087 56.35385
37.142986 54.023087 48.12685
38.435986 56.185085 47.50285
61.456985 38.278088 20.11585
58.912987 38.36009 20.41585
48.701984 36.312088 27.392849
50.361984 35.288086 29.66885
23.325985 34.004086 47.019848
21.971985 35.368088 46.64885
13.925985 34.672085 54.98785
13.945986 32.997086 56.60385
69.31399 6.935089 56.12285
68.081985 8.566093 56.24585
61.241985 4.4290924 64.957855
62.632988 4.326088 66.73885
41.853985 42.601086 5.6068497
39.979984 43.637085 6.1988497
33.617985 42.589085 15.780849
32.006985 43.978085 16.28585
35.139984 46.989086 4.92785
34.013985 48.618084 5.03085
25.607986 47.853085 11.30685
22.691986 47.464085 11.21185
36.486984 45.722084 20.78385
38.783985 46.053085 21.38385
44.649986 49.057087 12.38085
43.242985 50.558086 11.05485
11.859984 37.650085 2.0258498
10.006989 36.673088 0.6868497
4.332985 32.77709 10.61785
5.9759827 32.58209 11.35385
18.010984 34.40209 41.85185
18.291985 32.433086 42.82985
11.929986 30.383087 52.47385
11.600986 28.044088 52.29585
31.170986 60.881084 59.90385
29.696985 62.228085 58.92985
37.366985 62.908085 49.16385
39.392986 62.247086 50.55585
37.345985 2.0910873 47.748848
38.201984 0.28408813 46.58785
48.410988 68.48909 40.05185
48.852985 0.7680893 39.47585
9.931984 19.125088 49.484848
10.763985 18.735086 51.79285
5.0279846 14.8320875 60.79385
2.2239838 15.014088 61.30385
43.909985 17.393087 1.2208557
45.716988 16.551088 2.8408508
55.006985 15.526088 68.39485
55.818985 13.956087 67.96785
20.380985 21.422087 4.2438498
21.886986 19.875088 4.47985
14.6999855 14.618088 15.13885
15.680985 12.786087 15.23985
56.720985 5.7780914 45.53685
55.239986 7.4290924 45.76085
49.413986 4.907089 57.36285
48.525986 6.749092 57.498848
43.959988 52.396084 67.38785
44.209988 51.206085 65.362854
51.967987 51.795086 55.998848
54.099987 52.769085 56.13485
49.043987 69.109085 20.12885
49.656986 67.736084 18.40085
54.599987 0.40708923 7.67985
56.622986 0.9310913 8.77785
64.62199 42.787086 25.50885
65.792984 41.648087 27.02985
58.110985 41.011086 36.08985
55.937984 41.507084 35.42085
34.357986 15.770087 70.097855
34.347984 16.949087 72.61785
23.845985 16.114088 3.8218536
23.809986 17.666088 5.87685
42.436985 16.718088 55.64785
40.742985 15.652087 54.52985
49.205986 18.284086 45.89185
51.042988 17.603086 46.65785
57.961987 36.73509 38.49285
56.666985 36.995087 39.85185
49.662987 31.160088 45.49985
48.660988 32.554085 46.137848
70.719986 15.341087 60.86285
69.42198 15.1220875 63.03085
69.208984 14.450088 0.22185516
66.859985 14.930087 73.78685
12.014983 41.037086 4.74185
13.389983 42.918087 5.7838497
9.844986 39.800087 17.35485
7.8399887 38.65909 16.41785
22.099985 43.095085 47.30785
19.865986 42.736084 47.05285
13.108986 39.572086 57.32685
11.317986 37.987087 57.19085
55.404987 0.7930908 44.68485
53.247986 0.6170883 44.96585
47.961987 68.25509 55.48185
47.737988 0.35908508 56.86385
38.333984 55.192085 63.78585
40.397984 55.991085 64.59585
46.466988 61.232086 55.62285
48.639988 60.037086 54.91385
33.338985 17.414087 67.51885
32.841984 16.244087 65.64585
44.179985 17.474087 60.637848
44.696987 16.230087 58.42985
14.133986 31.591087 22.40585
12.891982 29.964088 20.58185
8.302986 23.688087 29.27085
7.804985 25.615088 30.86385
69.31399 66.18509 50.28585
66.86698 65.805084 49.72585
0.43398285 68.72709 39.19185
70.90998 69.74209 39.05585
44.285988 26.572088 21.111849
46.019985 25.907087 22.25285
51.705986 32.660088 13.464849
52.850986 31.079088 12.03785
40.891987 35.349087 41.26885
40.151985 34.886086 39.39785
47.620987 35.49909 29.99685
48.718987 37.637085 30.010849
18.887985 8.313087 16.21285
17.283985 9.250087 15.32685
23.211987 13.581087 6.30685
25.146986 12.534087 6.1078496
37.339985 25.773088 73.819855
37.607986 23.958088 72.87186
30.211987 19.744087 7.670849
28.174986 20.125088 6.468853
53.786987 43.777084 35.64885
54.543987 45.387085 37.17585
45.948986 44.594086 46.48085
45.935986 43.646084 48.25685
7.195984 28.377089 30.19285
9.057983 28.498087 30.187849
13.523986 35.458088 21.69685
14.271987 37.607086 21.51485
16.088985 58.575085 9.58185
14.003985 58.250084 8.90385
9.772985 55.373085 20.90685
8.295985 54.073086 20.67585
29.324986 1.5590897 59.63485
31.345985 69.87709 60.37085
38.828983 0.52108765 50.29885
39.033985 2.7840881 49.991848
17.405985 54.796085 27.77785
15.684985 55.360085 26.66585
24.004986 55.044086 18.482851
26.175985 53.756084 17.76985
22.330986 34.675087 24.399849
23.567986 36.97109 24.53585
28.340986 38.897087 14.12185
29.072987 41.122086 14.28185
27.111986 44.452087 70.789856
26.322985 44.303085 68.970856
35.239986 45.256084 60.39385
36.336987 44.603085 62.07385
40.990986 40.66609 24.43485
39.229984 41.094086 23.41985
34.108986 31.595087 28.98885
32.434986 33.163086 29.23985
57.486984 23.692087 67.60785
58.332985 25.291088 66.000854
67.111984 19.834087 59.47185
68.28198 17.630087 59.20085
2.2399826 11.822087 42.21085
2.9759827 14.066088 41.42285
9.406982 17.935087 31.99885
8.754982 20.139088 31.80985
28.942986 27.774088 48.85785
27.991985 29.517088 49.31685
21.011986 25.875088 57.12585
21.454985 24.032087 58.96585
2.3119812 15.226088 26.37085
0.69298553 14.315087 25.33985
68.78799 6.455087 35.712852
67.68598 5.4580874 34.28185
23.245985 23.124086 19.46985
24.301985 21.953087 20.60385
33.924984 26.804087 15.67985
33.456985 25.756088 13.92785
63.369987 7.965088 54.262848
61.835987 9.34709 54.89185
55.537987 5.3300934 62.95785
56.096985 5.1460876 65.58185
17.688986 8.915087 51.28985
17.573986 11.270087 51.93185
19.906986 16.135088 41.10885
22.009985 16.250088 41.58285
44.893986 68.11909 35.01085
44.842987 66.02909 36.872852
38.793983 64.49509 47.20785
37.399986 65.985085 47.69785
63.308987 3.140091 69.09185
60.868984 3.1350937 69.345856
59.136986 0.4310913 6.3398476
56.782986 0.64408875 6.095852
45.078987 10.883087 18.29585
45.837986 12.713087 18.16885
50.648987 14.500088 7.12885
49.933987 12.105087 6.87485
44.187984 68.43309 52.69085
44.671986 67.17409 50.69385
51.474987 1.0790863 42.873848
53.255985 1.1440887 41.97385
61.046986 39.114086 2.7618499
61.982986 38.113087 4.6518497
51.843987 35.431087 11.38985
53.681988 34.681087 12.28285
39.514984 54.183086 7.255848
41.481987 55.114086 7.0248528
48.564987 52.936085 72.665855
50.840984 54.088085 73.27486
32.168983 13.887088 46.20185
32.773987 16.576088 46.05985
41.958984 20.454086 38.02785
43.793987 21.029087 39.66285
43.868984 31.886087 59.80585
43.910988 34.168087 59.60885
55.557987 34.189087 54.25185
55.870987 36.097088 55.17185
63.764988 35.091087 1.2108536
62.988987 36.077087 74.166855
70.45198 41.855087 66.04385
69.60098 42.110085 63.82785
62.282986 64.86209 7.606846
60.356987 65.89009 6.623852
64.42398 66.21209 69.21585
64.52499 68.01609 68.50785
41.830986 12.040088 19.04585
40.975986 9.863088 18.607851
32.850986 10.257087 26.06385
34.715984 9.485087 27.17985
41.999985 23.810087 59.68685
42.858986 21.968086 59.55785
34.507984 19.941088 69.81085
34.994984 21.100086 71.526855
1.1389847 2.11409 19.67685
71.068985 1.2690887 20.92085
67.361984 0.38809204 33.37585
68.417984 1.5310898 34.53185
7.382988 14.861088 8.832851
5.6809845 13.999087 8.0168495
12.483985 18.266087 72.96986
11.740981 18.449087 71.040855
9.274985 67.00909 24.29285
10.922986 65.86709 24.15085
18.191986 63.809086 15.14985
17.955986 64.64609 12.81585
39.363987 27.680088 57.82885
40.361984 25.642088 59.19985
32.574986 24.099087 68.36985
30.630985 23.487087 67.501854
44.065987 4.0820923 53.78085
44.776985 1.9470901 53.727848
48.604984 2.4910889 41.62685
46.668987 2.8890915 40.73885
17.331985 43.161087 24.27285
18.618986 44.813087 25.58285
23.073986 48.467087 13.688849
25.087986 47.685085 14.190849
35.617985 67.60609 27.32785
33.912987 67.068085 26.13785
38.761986 66.138084 13.879849
38.961987 68.25209 13.28885
57.692986 26.163088 16.10985
56.362988 24.583088 15.33885
52.256985 22.082087 24.21685
53.539986 22.385088 26.82885
38.589985 13.359087 18.85985
36.821983 14.112087 17.02685
28.573986 16.455088 25.92185
28.602985 15.531087 28.21685
46.719986 35.038086 63.72385
48.852985 35.79109 64.76885
57.289986 33.417088 57.10185
56.514988 31.879087 55.04185
42.728985 40.036087 42.90285
44.346985 39.947086 41.88385
50.828987 39.685085 33.28585
53.182987 40.26309 33.18185
66.374985 37.273087 5.06485
65.76598 35.766087 6.4548497
58.353985 34.802086 15.23185
56.572987 34.369087 14.61185
68.81599 54.581085 13.52785
69.86398 52.306087 14.025849
60.027985 47.917088 22.57485
60.773987 49.587086 23.64385
59.801987 48.172085 41.33885
61.966988 47.675087 41.31585
69.40598 48.479084 33.20285
69.889984 49.936085 31.479849
6.356987 41.732086 70.82685
6.2939835 43.811085 71.404854
13.9189825 43.235085 61.58185
13.901984 45.234085 60.984848
57.809986 43.544086 53.32785
59.326984 44.576084 54.45885
64.847984 51.192085 46.76085
66.290985 49.897087 47.19985
10.945984 55.001087 42.43785
8.711983 55.322086 42.91485
2.4139862 53.936085 52.45985
2.245987 56.307087 53.65185
61.899986 10.492087 34.91985
63.996986 9.694087 33.719852
70.27399 15.355087 26.09585
70.431984 15.246087 24.24085
51.200985 65.28109 40.484848
49.313988 63.874084 39.68985
41.583984 64.17409 48.64285
40.439983 62.419086 47.92685
47.868984 3.8070908 20.46485
46.262985 1.8290863 20.35285
37.702984 69.375084 27.79785
38.385986 68.29609 29.88885
41.685986 34.19309 58.25285
41.450985 34.883087 55.86485
51.366985 38.350086 52.11985
50.825985 40.272087 51.12685
8.452988 67.71109 45.86285
9.412987 68.11609 47.859848
1.2499847 69.414085 56.48085
0.46998596 67.637085 56.98985
23.626986 60.794086 15.26285
23.163986 59.417088 13.48885
32.075985 64.44809 7.34885
33.924984 63.019085 7.60785
33.553986 41.899086 19.28885
35.344986 41.756084 20.68385
30.081985 34.300087 28.25585
28.942986 34.20009 30.05085
27.672987 9.586087 9.41085
26.100986 11.651087 9.23285
18.181986 14.253087 17.09885
18.460985 14.564088 19.34185
11.742988 62.130085 46.85685
10.511986 64.457085 46.89585
5.1409836 58.729084 55.366848
5.1389847 60.529087 55.98185
34.749985 37.349087 2.1938498
33.101986 38.830086 1.7708498
30.367987 37.439087 13.1748495
28.196985 35.859085 13.596849
60.745987 29.307087 72.457855
58.897987 30.789087 73.373856
51.077988 27.761087 7.222851
50.274986 25.711088 7.6988487
62.120987 13.864087 68.375854
64.50598 13.098087 68.57985
62.893986 22.074087 69.372856
60.721985 21.350086 69.83086
18.955986 3.916092 72.54885
20.104986 5.8210907 73.028854
27.870987 7.5000916 64.151855
27.050985 9.45709 63.42585
56.688988 56.722084 23.98785
57.735985 56.628086 25.77185
47.719986 56.649086 32.50185
46.710987 55.238087 31.87485
52.527985 36.283085 50.02985
54.355988 37.790085 50.44085
61.643986 37.482086 40.87685
61.750984 35.86709 39.55085
56.233986 55.216087 42.11385
57.209988 54.251087 43.77385
49.848988 48.442085 50.55385
48.162987 47.240086 49.83685
51.957985 6.61409 25.46785
52.622986 4.7220917 27.07385
42.884987 5.4950867 32.45185
41.488987 6.8020935 33.36785
15.599985 66.150085 68.930855
15.134986 67.81509 69.85285
7.1399856 65.75409 3.737854
7.1509857 66.99009 5.7148476
52.721985 66.582085 5.48685
50.095985 67.372086 4.81485
40.924984 64.93709 11.38085
38.909985 65.817085 11.10385
55.431988 14.031087 8.261852
55.994987 15.224088 6.420849
60.998985 15.748087 70.498856
61.298985 17.505087 70.40685
62.474987 22.428087 -1.2521499
63.379986 22.773087 0.9668499
58.027985 20.332087 12.28085
56.216988 19.306087 11.04385
13.784986 59.664085 60.69785
13.9499855 57.681087 60.84685
22.084986 53.844086 51.91085
21.417986 55.962086 50.43485
29.476986 51.400085 72.53786
30.421986 49.277084 72.514854
39.993984 51.001087 66.14285
39.804985 53.276085 65.334854
17.558985 64.28609 46.68385
16.475985 64.81509 48.57385
11.396986 63.202087 59.29185
13.047985 62.234085 60.40385
62.697987 59.191086 9.25685
61.695988 57.515087 10.52585
56.511986 56.465084 21.19985
57.000984 54.852085 22.15785
41.996986 32.10309 23.84485
40.435986 32.883087 22.87285
36.493984 35.136086 34.27485
35.134987 33.392086 33.26785
5.3579865 11.408088 25.33485
6.6079865 12.791087 26.72685
11.5059805 11.695087 13.77985
12.287986 14.334087 13.8328495
21.267986 3.9440918 54.92185
21.171986 6.011093 54.48185
22.999985 9.530088 42.74285
22.478985 11.632086 42.70885
1.4679794 58.449085 15.80085
3.4829865 59.186085 15.4248495
5.2399826 63.763084 5.07785
3.8629837 64.09009 4.0408497
4.462982 8.21109 7.89985
3.1989822 9.242086 9.07085
3.219986 6.078087 20.36685
1.9119797 6.963089 21.44785
49.492985 65.93809 37.93385
48.351986 64.23709 37.32585
55.483986 67.18309 26.63685
53.748985 68.15509 24.94585
49.516987 26.549088 10.35785
48.131985 28.403088 9.91485
38.080986 27.369087 16.930851
38.300983 29.675087 17.680851
42.079987 64.027084 51.29685
41.877987 62.092087 51.47185
33.471985 62.133087 59.866848
33.709984 60.248085 61.45285
20.837986 51.736084 9.31185
22.388985 52.309086 10.59485
31.662987 52.457085 3.3098497
31.558987 50.915085 1.9608499
42.231987 61.810085 34.37585
43.357986 60.377087 34.98085
36.412987 56.399086 45.54585
36.119984 54.124084 45.47685
36.026985 22.122087 54.66285
37.168983 20.103086 54.56185
32.388985 19.986088 65.55185
30.728987 18.470087 64.90585
37.878986 32.550087 36.99385
36.925983 32.123085 35.115852
47.518986 32.350086 27.87985
46.926987 32.740086 25.14385
61.053986 32.86009 36.20285
62.641987 34.697086 36.539852
70.41199 37.181087 29.38785
71.248985 35.997086 27.479849
2.6399841 67.234085 0.9328537
3.1759796 65.13009 1.287857
13.17298 65.65809 67.03585
13.763984 67.84809 67.57785
69.85699 23.050087 4.0718536
