1.313 5.004 3.815
1.241 5.128 4.059
1.342 5.181 3.796
1.316 5.641 3.715
1.036 3.764 4.164
0.766 3.572 4.107
0.852 4.029 4.124
1.081 4.145 3.969
0.833 4.548 3.893
0.946 4.497 3.764
1.273 4.671 3.966
1.142 5.059 3.696
1.171 5.380 3.672
1.264 5.361 3.420
0.697 3.524 4.315
0.749 3.594 3.952
0.937 3.952 4.121
0.587 4.076 3.809
0.722 4.092 3.660
0.944 4.459 3.608
1.069 4.523 3.495
1.124 4.647 3.820
0.824 4.982 3.503
1.163 5.376 3.464
1.024 5.322 3.573
0.581 3.241 4.169
0.818 3.507 3.846
0.522 3.640 3.675
0.436 3.719 3.916
0.590 3.848 3.556
0.568 4.105 3.650
0.631 4.500 3.621
0.917 4.627 3.655
0.729 4.838 3.641
0.943 4.914 3.573
0.924 5.366 3.229
0.859 5.562 3.289
0.385 3.195 4.154
0.530 3.331 3.996
0.363 3.421 3.669
0.559 3.666 3.510
0.524 3.794 3.576
0.633 3.765 3.758
0.379 4.209 3.593
0.723 4.454 3.230
0.576 4.577 3.272
0.569 4.735 3.124
0.483 4.895 3.405
0.705 5.167 3.304
0.131 2.636 3.957
0.385 2.887 3.732
0.280 2.937 3.620
0.426 3.181 3.562
0.428 3.499 3.591
0.233 3.332 3.720
0.320 3.719 3.283
0.174 3.889 3.206
0.520 4.265 3.390
0.237 4.295 3.100
0.583 4.606 3.294
0.646 4.824 3.103
0.082 2.256 4.043
0.164 2.514 3.716
-0.093 2.949 3.806
0.129 3.127 3.777
0.048 3.189 3.598
0.132 3.391 3.674
-0.028 3.591 3.395
0.099 3.781 3.449
0.017 3.785 3.401
0.200 4.171 3.206
0.167 4.251 3.126
0.003 3.232 3.546
0.208 3.429 3.577
2.670 5.255 5.224
2.958 5.786 5.155
2.982 5.694 5.191
3.024 6.225 4.915
3.047 6.246 5.012
2.162 2.154 6.072
2.779 5.725 5.078
2.676 5.851 4.972
2.930 6.322 4.825
1.825 1.696 6.345
2.068 1.989 6.033
2.004 2.151 5.907
2.209 2.082 6.190
2.021 2.606 6.107
2.485 6.141 4.519
1.549 1.508 6.188
1.766 1.951 5.960
1.653 1.953 5.840
1.967 2.302 5.761
2.026 2.388 5.877
1.770 2.505 5.881
1.553 1.457 5.733
1.584 1.988 5.714
1.588 2.032 5.635
1.625 2.315 5.643
1.715 2.299 5.717
1.970 2.566 5.715
1.247 1.686 5.836
1.359 1.877 5.662
1.444 2.067 5.626
1.648 2.309 5.470
1.666 2.419 5.300
1.442 2.518 5.350
1.204 1.462 5.460
1.460 1.847 5.624
1.454 1.779 5.612
1.348 2.178 5.565
1.561 2.354 5.420
1.589 2.770 5.073
0.916 1.353 5.426
1.096 1.757 5.326
1.031 1.790 5.335
1.211 2.010 5.373
1.156 2.377 5.385
1.372 4.355 4.330
1.363 4.490 4.396
1.361 4.712 4.325
1.761 4.981 4.167
1.606 5.093 4.243
0.737 1.363 5.484
0.927 1.753 5.154
1.211 1.955 5.216
0.899 2.093 5.175
1.181 3.924 4.686
1.303 4.144 4.595
1.372 4.347 4.382
1.423 4.845 4.503
1.313 4.795 4.214
1.472 5.082 4.434
0.689 1.495 5.576
0.859 1.606 5.441
0.890 2.148 5.280
1.051 2.195 5.291
0.976 4.005 4.670
1.162 4.287 4.526
1.050 4.489 4.554
1.142 4.478 4.538
1.164 4.784 4.267
1.231 5.011 4.190
1.215 5.053 4.323
1.354 5.559 4.065
0.458 1.372 5.449
0.603 1.585 5.084
0.966 3.584 4.358
0.854 3.810 4.423
0.835 4.145 4.387
1.107 4.124 4.329
1.033 4.324 4.386
0.996 4.692 4.335
0.950 4.855 4.054
1.232 5.099 3.892
1.330 5.520 3.984
0.814 3.801 4.638
0.762 3.711 4.258
0.698 3.910 4.242
0.963 4.016 4.069
0.883 4.087 4.042
0.918 4.550 4.229
0.983 4.795 4.164
1.044 4.931 4.073
0.853 5.114 3.993
0.883 5.234 3.615
0.532 3.738 4.400
0.638 3.418 4.261
0.751 4.030 4.017
0.602 3.876 3.949
0.713 4.100 3.797
0.842 4.421 3.889
0.843 4.483 3.775
0.854 4.834 3.738
0.699 5.264 3.573
1.015 5.420 3.531
0.447 3.414 4.040
0.537 3.791 4.063
0.577 3.557 4.191
0.473 3.904 3.837
0.393 4.043 3.660
0.547 4.252 3.926
0.471 4.641 3.910
0.622 4.487 3.808
0.666 4.901 3.803
0.842 5.139 3.620
0.716 5.485 3.597
0.212 3.017 4.141
0.256 3.512 4.223
0.261 3.473 3.802
0.205 3.439 3.845
0.180 3.855 3.728
0.508 3.831 3.525
0.342 4.185 3.813
0.548 4.596 3.612
0.479 4.554 3.580
0.665 4.937 3.572
0.479 5.081 3.451
-0.002 2.885 3.987
-0.038 2.960 3.885
0.243 3.088 4.039
0.057 3.225 3.780
0.222 3.401 3.931
0.218 3.723 3.570
-0.083 3.577 3.804
0.306 3.899 3.536
0.312 4.009 3.469
0.168 4.393 3.417
0.323 4.413 3.285
0.017 3.489 3.718
-0.107 3.400 3.826
0.092 4.004 3.584
0.187 4.255 3.372
0.190 4.307 3.391
2.634 5.912 5.469
2.661 6.030 5.409
2.687 6.184 5.002
2.515 6.020 4.935
2.701 6.254 5.070
1.670 2.097 6.138
1.699 2.277 6.262
1.460 1.606 6.298
1.777 1.915 6.106
1.478 1.991 6.246
1.550 2.219 5.833
1.705 2.320 5.949
1.576 1.590 6.009
1.481 1.968 6.116
1.385 2.049 5.864
1.580 2.176 5.900
1.763 2.572 5.860
1.253 1.763 5.914
1.382 1.728 5.837
1.211 2.048 5.970
1.480 2.391 5.722
1.311 2.586 5.786
1.008 1.502 5.778
1.240 1.791 5.694
1.219 2.052 5.794
1.276 2.184 5.748
1.210 2.628 5.595
1.395 4.615 4.645
1.712 4.801 4.422
0.992 1.667 5.654
0.900 1.887 5.621
1.158 1.942 5.306
0.897 2.277 5.303
1.294 2.622 5.203
1.320 4.093 4.674
1.353 4.475 4.694
1.323 4.673 4.534
1.595 4.562 4.383
1.476 4.946 4.533
1.488 5.218 4.346
0.897 1.430 5.501
0.944 1.788 5.317
0.788 2.096 5.401
0.778 2.408 5.171
0.946 3.955 4.810
1.182 4.195 4.642
1.018 4.386 4.688
1.131 4.585 4.476
1.054 4.938 4.457
1.244 4.938 4.529
1.461 5.254 4.329
0.536 1.622 5.459
0.547 1.992 5.480
0.843 2.272 5.330
0.713 2.425 5.586
0.894 3.948 4.771
0.875 4.299 4.750
1.021 4.420 4.701
1.028 4.673 4.673
1.036 4.752 4.591
1.306 5.002 4.400
1.098 5.181 4.181
0.440 1.776 5.230
0.393 1.701 5.163
0.547 2.087 5.318
0.609 3.695 4.529
0.713 3.813 4.588
0.771 4.263 4.670
0.889 4.291 4.381
0.872 4.422 4.397
0.874 4.979 4.144
0.825 4.857 4.238
1.007 5.168 4.082
0.983 5.296 4.273
0.594 3.745 4.806
0.536 3.743 4.467
0.441 4.067 4.365
0.683 3.983 4.362
0.882 4.216 4.163
0.741 4.513 4.290
0.786 4.614 3.985
0.847 5.169 3.947
0.980 5.378 4.140
0.996 5.321 3.790
0.384 3.297 4.488
0.702 3.867 4.482
0.385 3.892 4.385
0.596 3.977 4.309
0.521 4.154 4.236
0.429 4.473 4.064
0.541 4.572 4.156
0.681 4.613 3.930
0.575 4.780 3.828
0.612 5.311 3.871
0.431 3.583 4.222
0.591 3.668 4.341
0.404 3.627 4.285
0.140 3.737 4.045
0.454 3.949 4.027
0.477 4.323 4.008
0.400 4.351 3.838
0.295 4.738 3.789
0.492 4.906 3.591
0.513 5.085 3.781
0.279 3.101 4.288
0.140 3.385 4.027
0.064 3.775 4.106
0.004 3.584 4.096
0.186 3.858 3.718
-0.003 3.906 3.908
0.215 4.320 3.805
0.131 4.341 3.573
0.330 4.565 3.582
0.152 5.097 3.559
-0.075 3.201 4.161
-0.113 3.343 4.007
0.005 3.656 4.010
0.154 3.879 3.838
-0.148 4.095 3.716
0.098 4.670 3.521
0.264 4.870 3.486
2.314 5.614 5.480
2.634 5.972 5.293
2.623 6.177 5.369
2.368 6.136 5.318
1.443 2.214 6.242
1.487 2.553 6.294
1.336 1.758 6.135
1.458 2.054 6.179
1.225 2.072 6.024
1.527 2.394 6.059
0.936 1.615 6.011
1.109 1.777 6.172
1.192 1.943 5.919
1.073 2.201 5.888
1.295 2.421 5.752
1.040 1.491 6.030
0.793 1.805 5.636
1.161 2.176 5.701
0.941 2.160 5.585
1.178 2.337 5.811
1.339 4.106 4.900
1.235 4.359 5.025
1.214 4.607 4.854
1.525 4.765 4.634
1.237 5.037 4.496
0.712 1.571 5.801
1.003 2.048 5.587
0.675 2.176 5.710
0.924 2.355 5.715
1.253 3.968 4.687
0.988 4.045 4.939
1.057 4.249 4.574
1.384 4.569 4.865
1.380 4.956 4.779
1.236 5.106 4.736
1.337 5.238 4.461
0.503 1.665 5.509
0.580 1.706 5.471
0.782 2.139 5.540
0.663 2.097 5.243
1.021 4.047 5.190
0.921 4.259 5.023
1.159 4.596 5.061
1.246 4.860 4.692
1.261 5.072 4.616
0.950 5.185 4.870
1.360 5.339 4.578
0.468 1.614 5.777
0.579 1.842 5.511
0.579 1.975 5.401
0.405 2.351 5.457
0.702 3.835 5.060
0.747 4.218 5.053
1.010 4.160 4.830
0.935 4.630 4.622
1.059 4.486 4.611
0.845 4.937 4.533
0.993 5.149 4.562
0.988 5.476 4.538
0.220 1.898 5.514
0.403 1.940 5.369
0.358 2.053 5.245
0.794 3.901 4.762
0.422 3.750 4.933
0.493 4.174 4.722
0.553 4.167 4.556
0.691 4.576 4.668
0.860 4.522 4.683
0.869 4.945 4.404
0.958 4.866 4.543
1.031 5.173 4.460
0.132 1.856 5.278
0.265 1.910 5.232
0.507 3.624 4.773
0.309 3.676 4.761
0.355 3.874 4.355
0.535 4.016 4.268
0.430 4.268 4.327
0.482 4.447 4.404
0.627 4.694 4.414
0.814 5.161 4.314
0.527 5.208 4.249
0.195 3.751 4.857
0.297 3.880 4.428
0.312 3.697 4.310
0.486 3.923 4.523
0.352 4.142 4.160
0.547 4.221 4.279
0.226 4.452 4.006
0.533 4.800 4.248
0.562 5.117 4.095
0.475 5.162 3.964
0.018 3.606 4.315
0.057 3.796 4.388
0.031 3.542 4.483
0.283 3.908 4.157
0.330 4.371 4.045
0.386 4.530 3.936
0.084 4.444 4.016
0.326 4.948 3.799
0.278 5.039 3.701
0.105 3.373 4.284
0.193 3.331 4.453
0.111 3.941 4.341
0.003 4.030 4.001
0.158 4.289 4.054
0.233 4.472 3.937
0.165 4.802 3.609
2.586 6.171 5.368
2.306 6.199 5.643
2.463 6.395 5.311
1.346 2.389 6.125
1.278 2.401 5.978
1.147 1.934 6.308
0.858 1.876 5.979
0.871 2.310 6.059
1.114 2.345 5.850
1.167 4.118 5.262
1.372 4.386 5.015
1.566 4.778 5.072
1.341 4.721 5.116
0.875 1.912 5.913
0.831 1.790 5.912
0.958 2.094 5.961
0.849 2.395 5.860
1.250 4.152 5.042
1.290 4.077 4.908
1.313 4.428 4.834
1.251 4.892 5.037
1.360 4.783 4.839
1.191 5.191 4.931
0.602 1.559 6.021
0.794 2.113 5.839
0.792 2.189 5.864
0.577 2.515 5.699
0.992 4.215 5.146
1.094 4.191 4.970
1.204 4.426 4.713
0.894 4.519 4.748
1.223 4.966 4.667
0.946 5.060 4.734
1.174 5.431 4.802
0.582 1.890 5.640
0.585 1.781 5.481
0.404 2.281 5.748
0.419 2.250 5.491
0.927 3.847 5.392
0.862 3.946 5.025
0.699 4.243 5.281
0.841 4.742 4.939
0.691 4.779 4.958
0.736 4.882 4.711
0.973 5.011 4.773
1.075 5.511 4.846
0.379 1.744 5.988
0.558 2.153 5.957
0.286 2.322 5.542
0.560 2.416 5.596
0.768 3.769 5.054
0.579 3.944 5.046
0.800 3.931 4.798
0.461 4.476 4.911
0.575 4.469 4.988
0.575 4.736 4.993
0.662 5.129 4.904
0.956 5.113 4.763
0.881 5.508 4.582
0.069 1.641 5.648
0.232 2.027 5.767
0.125 2.055 5.742
0.206 2.482 5.436
0.667 3.882 5.249
0.338 3.761 4.727
0.466 4.028 4.953
0.491 4.398 4.633
0.545 4.586 4.822
0.490 4.891 4.602
0.793 4.997 4.393
0.548 4.976 4.569
0.716 5.161 4.471
0.098 1.651 5.464
-0.104 1.800 5.630
0.069 2.147 5.460
0.260 3.897 5.022
0.454 3.686 4.702
0.361 4.253 4.641
0.363 4.221 4.794
0.385 4.326 4.404
0.538 4.694 4.545
0.386 5.105 4.277
0.572 5.164 4.250
0.347 4.036 4.692
0.017 3.873 4.726
0.234 3.865 4.457
0.217 4.209 4.360
0.192 4.366 4.287
0.068 4.743 4.205
0.139 4.788 4.179
0.157 4.983 4.257
0.092 3.671 4.757
-0.108 3.719 4.722
-0.142 4.049 4.290
0.010 4.431 4.108
0.011 4.703 3.997
0.304 4.680 4.291
1.620 4.388 5.757
1.427 4.631 5.783
1.242 4.331 5.684
1.391 4.497 5.544
1.214 4.456 5.415
1.175 4.893 5.282
1.486 4.816 5.406
0.770 1.883 6.469
0.807 2.274 6.407
1.214 4.194 5.573
0.950 4.372 5.227
1.018 4.563 5.289
1.389 4.668 5.141
1.377 4.924 5.280
1.229 5.097 5.129
0.687 1.916 6.156
0.509 1.862 6.150
0.646 2.290 5.929
0.826 2.571 6.017
0.772 4.083 5.287
1.115 4.018 5.466
1.076 4.187 5.235
0.814 4.374 5.033
1.101 4.939 5.041
1.242 5.105 4.952
1.163 5.349 4.810
1.125 5.223 4.747
0.392 1.904 6.162
0.699 1.965 6.002
0.598 2.336 5.943
0.530 2.613 5.896
0.693 3.963 5.577
0.728 4.067 5.094
0.952 4.019 5.251
0.653 4.178 4.937
0.982 4.406 5.116
0.984 4.827 5.143
1.108 5.029 4.931
0.773 5.044 4.698
1.190 5.507 4.794
0.380 1.660 5.816
0.463 2.103 5.622
0.245 2.388 5.687
0.585 2.354 5.815
0.758 3.885 5.426
0.607 4.007 5.477
0.745 4.155 5.103
0.632 4.581 5.429
0.893 4.440 5.181
0.679 4.897 5.010
0.739 5.050 4.845
0.709 5.264 4.802
1.037 5.356 4.734
0.056 1.970 5.904
0.268 2.047 6.044
0.261 2.405 6.082
0.378 2.588 5.846
0.585 4.017 5.213
0.350 3.789 5.032
0.276 4.034 5.300
0.430 4.396 5.223
0.439 4.728 5.137
0.768 4.815 4.874
0.642 5.084 4.833
0.687 5.352 4.644
0.884 5.312 4.595
-0.052 1.794 5.985
0.193 2.254 5.957
0.164 2.436 5.631
0.009 2.324 5.606
0.484 3.986 5.284
0.427 4.070 4.954
0.402 4.106 5.036
0.353 4.262 5.047
0.355 4.462 4.899
0.571 4.593 4.741
0.593 5.200 4.697
0.313 5.169 4.520
0.089 4.019 4.964
-0.012 4.091 4.833
-0.002 4.023 5.030
0.073 4.277 4.933
0.380 4.752 4.803
0.219 4.583 4.519
0.262 4.795 4.775
0.315 5.203 4.550
0.008 4.030 4.810
-0.009 4.504 4.568
0.014 4.355 4.581
0.174 4.879 4.671
-0.004 5.010 4.227
1.621 4.138 6.278
1.511 4.706 6.260
1.183 4.149 6.197
1.261 4.146 6.175
1.273 4.428 6.068
1.603 4.729 6.109
1.449 4.900 5.872
1.522 3.954 5.951
1.233 4.154 5.832
1.433 4.200 5.764
1.335 4.447 5.684
1.500 4.854 5.827
1.282 5.088 5.889
1.464 5.045 5.585
1.416 3.897 6.106
1.234 3.978 5.942
1.235 4.130 5.890
1.175 4.264 5.548
0.974 4.872 5.806
1.172 4.788 5.609
1.067 4.966 5.405
1.239 5.292 5.257
1.062 4.141 6.030
1.045 3.842 5.541
0.929 4.027 5.791
0.810 4.314 5.633
0.970 4.777 5.660
0.995 4.665 5.502
0.968 5.002 5.297
1.161 5.414 5.316
0.498 2.169 6.348
0.615 2.451 6.080
0.900 4.127 5.642
0.545 3.903 5.408
0.962 4.359 5.471
0.908 4.296 5.507
0.700 4.708 5.355
0.819 5.010 5.064
1.023 5.052 5.349
1.079 5.404 5.225
1.039 5.289 4.924
0.219 1.732 5.980
0.531 1.924 6.188
0.532 2.275 5.888
0.365 2.455 5.991
0.715 3.915 5.338
0.431 3.923 5.307
0.661 4.015 5.281
0.564 4.572 5.368
0.743 4.524 5.170
0.565 4.867 5.193
0.877 4.926 5.119
0.696 5.423 4.944
0.971 5.329 5.056
0.082 2.065 6.214
0.277 2.284 6.068
0.369 2.323 5.747
0.142 2.497 5.976
0.459 4.060 5.329
0.313 4.100 5.356
0.371 4.204 5.596
0.396 4.488 5.357
0.486 4.702 5.347
0.701 4.788 5.370
0.754 5.158 5.076
0.481 5.140 5.129
0.682 5.385 4.897
-0.043 1.857 6.153
-0.010 2.156 6.287
0.191 2.287 6.096
0.236 2.686 5.954
0.522 3.886 5.639
0.102 4.148 5.258
0.263 4.324 5.493
0.149 4.424 5.022
0.399 4.780 5.076
0.233 4.958 5.244
0.632 5.204 4.906
0.329 5.379 4.764
0.441 5.584 4.999
0.436 3.996 5.217
0.270 4.041 5.004
0.172 4.562 4.942
0.178 4.491 5.060
0.093 4.720 4.825
0.153 4.977 4.834
0.427 5.392 4.732
-0.154 4.320 4.800
0.227 4.571 4.903
-0.093 4.815 4.616
0.074 5.117 4.816
1.541 4.741 6.289
1.684 5.209 6.281
1.428 4.446 6.167
1.282 4.547 6.120
1.347 4.889 6.256
1.243 5.113 6.012
1.473 5.265 5.896
1.229 4.066 6.247
0.955 4.136 6.113
1.125 4.681 5.903
1.211 4.565 5.872
1.138 4.929 5.948
1.192 5.215 5.959
1.368 5.563 5.658
0.828 4.101 6.244
1.135 4.221 5.956
0.911 4.072 6.161
0.957 4.451 5.721
0.900 4.410 5.767
0.995 4.554 5.916
0.987 5.158 5.801
1.170 5.049 5.542
1.204 5.190 5.777
0.939 4.072 6.022
0.890 4.136 5.998
0.585 4.265 5.643
0.943 4.330 5.549
0.880 4.897 5.676
0.772 4.739 5.599
0.806 4.948 5.688
0.921 5.299 5.489
0.863 5.373 5.553
0.925 4.296 5.751
0.574 4.011 5.485
0.822 4.222 5.789
0.475 4.483 5.561
0.741 4.516 5.482
0.620 4.948 5.424
0.817 5.064 5.241
1.016 5.503 5.310
0.692 5.566 5.040
0.350 2.022 6.073
0.166 2.423 6.040
0.229 2.571 5.973
0.725 4.003 5.799
0.535 4.093 5.355
0.375 4.095 5.634
0.531 4.350 5.189
0.707 4.536 5.121
0.443 5.062 5.106
0.510 4.978 5.312
0.711 5.164 5.132
0.563 5.474 5.221
-0.003 2.125 6.171
0.098 2.166 5.902
0.128 2.487 5.963
-0.055 2.525 5.883
0.308 4.079 5.330
0.390 4.447 5.400
0.446 4.505 5.629
0.534 4.653 5.435
0.284 5.147 5.510
0.534 5.205 5.172
0.711 5.483 5.210
0.512 5.551 5.341
0.294 4.147 5.463
0.236 4.380 5.559
0.366 4.616 5.451
0.327 4.943 5.343
0.283 4.966 5.215
0.412 5.194 5.132
0.003 4.336 5.111
-0.052 4.656 5.113
0.100 5.129 5.211
0.178 5.223 4.957
1.373 5.098 6.230
1.373 4.684 6.428
1.249 5.072 6.143
1.386 5.406 5.932
1.276 5.585 6.053
0.778 4.303 6.102
1.159 4.704 6.161
0.926 5.039 6.197
0.943 4.946 6.103
1.055 5.416 5.929
1.024 5.332 5.806
1.021 5.684 5.693
0.569 4.348 6.137
0.799 4.193 5.948
0.642 4.492 6.195
0.751 4.687 5.813
1.038 5.069 6.020
0.988 5.337 5.633
0.941 5.647 5.663
1.102 5.686 5.573
0.816 3.827 6.238
0.665 4.024 6.012
0.787 3.963 6.107
0.795 4.205 5.825
0.736 4.766 5.690
0.783 4.864 5.799
0.884 4.967 5.666
0.762 5.194 5.641
0.843 5.566 5.704
0.826 5.617 5.476
0.592 4.123 6.166
0.427 4.167 5.930
0.379 4.514 5.925
0.386 4.642 5.747
0.583 4.901 5.697
0.411 4.838 5.443
0.510 5.117 5.642
0.608 5.550 5.447
0.760 5.731 5.410
0.530 4.319 5.849
0.492 4.273 5.771
0.242 4.387 5.735
0.525 4.733 5.464
0.580 4.897 5.266
0.349 5.377 5.223
0.674 5.333 5.459
0.381 5.813 5.267
0.246 4.279 5.543
0.071 4.521 5.612
0.262 4.699 5.590
0.172 4.963 5.701
0.381 5.218 5.377
0.510 5.319 5.457
0.488 5.860 5.179
-0.097 4.556 5.588
0.049 4.795 5.387
0.204 5.195 5.192
0.325 5.302 5.273
0.007 5.607 5.235
1.293 5.495 6.095
1.067 5.630 6.092
1.087 5.802 6.107
1.072 4.844 6.283
0.915 5.084 6.061
1.032 5.348 6.299
0.938 5.585 6.137
0.926 5.958 5.875
0.481 4.304 6.075
0.606 4.400 6.107
0.713 4.574 6.056
0.660 4.730 6.114
0.749 5.244 6.106
0.951 5.462 5.878
0.716 5.439 5.995
0.885 5.718 5.669
0.792 6.079 5.848
0.741 4.380 6.240
0.281 4.281 6.132
0.615 4.383 6.141
0.464 4.697 6.102
0.667 4.915 5.944
0.532 5.126 5.697
0.595 5.195 5.641
0.759 5.662 5.675
0.552 5.892 5.836
0.557 5.966 5.500
0.519 4.070 6.140
0.210 4.332 6.011
0.538 4.496 5.751
0.420 5.004 5.775
0.474 5.266 5.622
0.672 5.313 5.751
0.500 5.674 5.535
0.615 5.694 5.714
0.319 4.539 5.542
0.232 4.739 5.879
0.240 5.020 5.441
0.141 5.051 5.583
0.398 5.234 5.299
0.167 5.313 5.564
0.465 5.592 5.313
-0.069 4.585 5.983
-0.071 5.106 5.824
0.089 5.113 5.716
0.351 5.200 5.828
0.137 5.750 5.718
0.062 5.795 5.422
-0.025 5.213 5.428
1.141 6.137 6.342
0.662 5.563 6.229
0.872 5.683 6.390
1.042 6.003 5.927
0.789 5.929 6.044
0.619 4.844 6.109
0.775 5.112 6.161
0.748 5.285 6.269
0.869 5.695 5.897
0.745 5.979 5.899
0.877 5.825 5.987
0.331 4.158 6.212
0.308 4.347 6.054
0.536 4.535 5.937
0.260 4.960 6.058
0.327 5.207 6.147
0.416 5.196 5.800
0.417 5.712 6.048
0.445 5.644 5.857
0.480 5.998 5.937
0.360 4.155 6.111
-0.040 4.414 6.008
0.224 4.726 6.011
0.189 4.899 5.889
0.349 4.957 5.918
0.161 5.423 5.712
0.404 5.469 5.719
0.578 5.635 5.775
0.583 6.130 5.476
0.116 4.564 5.999
0.240 5.042 5.677
0.067 5.244 5.813
0.295 5.395 5.628
0.275 5.417 5.676
0.121 5.895 5.495
0.159 5.586 5.956
0.185 5.825 5.774
0.284 5.629 5.808
0.908 6.043 6.096
0.970 6.163 6.312
0.293 5.562 6.223
0.524 5.715 6.029
0.753 5.874 6.033
0.495 6.230 6.166
0.123 4.951 6.342
0.248 5.258 6.038
0.442 5.408 5.961
0.395 5.731 5.878
0.513 5.890 6.138
0.366 6.120 5.988
0.120 4.745 6.237
-0.090 5.141 6.204
-0.010 5.085 5.973
0.068 5.426 5.924
0.352 5.527 5.783
0.343 5.969 5.712
0.371 6.201 5.879
-0.016 5.319 5.884
0.009 5.488 5.747
0.282 5.736 5.543
0.271 6.082 6.366
0.553 6.286 6.306
0.072 5.430 6.164
0.134 5.627 5.972
0.232 5.943 6.242
0.097 6.126 6.159
0.077 5.366 5.893
-0.005 5.647 5.984
0.128 6.109 6.037
0.037 6.136 5.855
0.144 5.932 6.241
0.068 6.227 6.359
3.920 4.219 2.093
3.946 4.364 2.126
3.734 4.483 1.876
3.847 4.631 1.996
4.140 5.003 1.898
3.209 0.970 2.912
3.167 1.359 2.885
3.168 1.494 2.836
3.403 1.678 2.858
3.472 2.107 2.921
3.204 0.785 3.029
2.859 1.261 2.813
3.009 1.131 2.859
2.998 1.608 2.848
3.360 1.652 2.740
3.077 1.812 2.826
3.340 2.120 2.642
2.624 0.618 2.764
2.967 0.759 2.936
2.796 1.206 2.601
3.004 1.290 2.791
2.821 1.362 2.609
2.913 1.851 2.524
3.130 1.887 2.277
3.122 2.158 2.418
3.296 2.523 2.309
2.987 2.591 2.119
2.615 0.714 2.731
2.879 0.637 2.723
2.552 1.237 2.751
2.618 1.302 2.643
2.624 1.348 2.528
2.882 1.598 2.320
3.031 2.077 2.247
3.013 2.209 2.062
2.871 2.446 2.053
2.879 2.541 2.041
2.818 2.382 2.049
3.021 2.901 1.964
2.402 0.759 2.604
2.416 0.978 2.477
2.637 1.097 2.395
2.625 1.335 2.158
2.847 1.609 2.367
2.550 1.856 2.370
2.657 1.771 2.305
2.599 1.877 2.035
3.014 2.154 2.053
2.875 2.352 2.018
2.592 2.312 1.641
2.855 2.574 1.545
2.729 2.929 1.531
2.290 0.440 2.448
2.386 0.967 2.317
2.211 1.026 2.414
2.621 1.260 2.188
2.628 1.633 2.104
2.648 1.763 2.045
2.665 1.897 1.869
2.457 1.923 1.832
2.586 2.079 2.072
2.605 2.497 1.976
2.608 2.296 1.593
2.456 2.864 1.766
2.823 3.032 1.315
2.729 3.288 1.415
2.663 3.355 1.430
2.230 0.928 2.059
2.263 1.102 2.223
2.143 1.157 2.038
2.317 1.251 2.093
2.202 1.709 1.840
2.590 1.711 1.637
2.354 1.946 1.643
2.645 2.167 1.758
2.371 2.544 1.653
2.479 2.610 1.313
2.560 2.862 1.540
2.516 2.736 1.323
2.361 3.102 1.367
2.591 3.282 1.286
2.539 3.598 1.208
2.517 3.863 1.094
2.280 1.124 1.956
2.330 1.517 1.776
2.259 1.755 1.617
2.462 1.963 1.877
2.116 2.082 1.481
2.262 2.365 1.652
2.562 2.276 1.644
2.148 2.484 1.368
2.199 2.811 1.144
2.204 2.739 1.200
2.309 2.889 1.196
2.586 3.134 1.040
2.344 3.650 1.201
2.599 3.594 0.925
2.629 3.909 1.060
2.502 4.137 0.961
1.857 1.759 1.543
2.292 1.984 1.445
1.976 1.886 1.601
2.144 2.034 1.238
2.248 2.371 1.204
1.948 2.403 1.126
2.162 2.538 0.941
2.039 2.915 0.957
1.998 3.048 0.956
2.109 3.056 0.723
2.326 3.472 1.053
2.300 3.709 0.746
2.338 3.852 0.858
2.337 4.051 0.796
2.342 4.294 0.642
2.048 1.837 1.368
1.827 2.367 1.362
2.106 2.488 1.131
1.773 2.515 1.209
1.860 2.804 1.026
1.854 2.877 0.824
1.826 3.195 0.911
2.123 3.077 0.554
2.014 3.499 0.577
2.296 3.864 0.545
2.088 4.069 0.760
2.059 3.946 0.303
2.193 4.395 0.545
1.857 2.178 1.017
2.058 2.555 1.108
1.843 2.508 0.982
1.590 2.472 0.821
1.884 2.954 0.832
1.847 3.110 0.632
2.067 3.213 0.694
1.756 3.534 0.472
2.012 3.752 0.484
1.978 3.999 0.298
2.250 4.141 0.226
1.959 4.257 0.479
1.849 2.447 0.745
1.479 2.669 0.810
1.687 2.911 0.742
1.830 3.065 0.664
1.869 3.312 0.495
1.895 3.479 0.243
1.680 3.741 0.364
1.893 3.904 0.298
1.818 3.894 0.287
1.864 4.234 -0.015
1.400 2.633 0.469
1.380 3.122 0.514
1.777 3.197 0.089
1.610 3.318 0.176
1.819 3.489 0.075
1.648 3.865 0.094
1.952 3.983 -0.024
1.336 2.843 0.035
1.281 3.242 0.067
1.513 3.285 0.020
0.805 0.212 0.853
0.722 0.535 1.157
0.911 0.662 0.738
1.094 0.871 0.962
0.622 0.353 0.914
0.791 0.344 0.674
0.823 0.792 0.882
0.786 0.886 0.597
0.970 1.119 0.738
0.540 0.115 0.539
0.483 0.568 0.460
0.791 0.613 0.555
0.655 0.847 0.529
0.810 0.916 0.337
0.734 1.297 0.463
0.438 -0.005 0.419
0.451 0.270 0.660
0.588 0.620 0.363
0.641 0.644 0.362
0.590 1.098 0.287
0.689 1.154 0.231
0.238 0.008 0.219
0.384 0.204 0.411
0.283 0.411 0.371
0.183 0.872 0.105
0.343 0.849 0.003
0.442 1.086 -0.095
0.001 0.160 0.116
-0.062 0.357 0.184
0.126 0.459 0.264
0.120 0.555 0.161
4.955 4.403 3.277
5.139 4.407 3.135
4.938 4.672 3.069
5.078 5.124 2.902
4.970 5.364 2.840
5.165 5.482 3.048
5.018 5.476 2.971
5.254 5.668 2.580
5.454 5.919 2.772
4.216 0.543 4.423
4.403 0.806 4.409
4.371 1.089 4.332
4.624 3.885 3.217
4.528 4.119 2.975
4.793 4.218 2.949
5.005 4.490 2.885
4.659 4.995 2.813
5.038 5.087 2.987
4.943 5.105 2.764
4.795 5.627 2.812
5.005 5.828 2.789
4.857 5.848 2.569
5.064 6.249 2.535
4.941 6.417 2.348
4.207 0.643 4.120
4.441 3.836 2.892
4.398 4.104 2.814
4.367 4.071 2.960
4.796 4.265 3.009
4.728 4.376 2.804
4.757 4.855 2.577
4.847 4.795 2.671
4.656 5.331 2.748
4.902 5.572 2.734
4.758 5.756 2.606
5.033 5.675 2.306
4.773 6.213 2.263
4.450 3.634 2.888
4.373 3.921 2.658
4.358 4.106 2.938
4.268 4.249 2.558
4.671 4.449 2.784
4.376 4.864 2.530
4.385 5.128 2.559
4.576 5.090 2.403
4.481 5.570 2.554
4.696 5.542 2.189
4.922 5.638 2.281
4.188 3.866 2.626
4.232 3.831 2.727
4.453 4.096 2.817
4.275 4.378 2.380
4.266 4.497 2.521
4.393 4.809 2.340
4.377 5.045 2.161
4.610 5.025 2.219
4.604 5.215 2.356
4.444 5.378 2.103
4.143 3.466 2.567
4.073 3.854 2.602
3.899 4.254 2.475
4.282 4.178 2.311
4.365 4.376 2.265
4.401 4.678 2.334
4.215 5.025 2.226
4.451 5.251 2.272
4.388 5.452 1.934
3.862 3.778 2.378
3.884 4.110 2.282
4.087 4.465 2.379
3.860 4.512 2.213
4.097 4.732 2.229
4.230 5.046 2.169
4.253 5.063 1.815
3.776 4.222 1.973
3.961 4.311 1.920
3.923 4.371 2.045
3.906 4.580 1.788
3.812 5.078 1.951
3.391 1.260 3.156
3.221 1.299 2.863
3.332 1.533 2.720
3.500 1.723 2.890
3.278 1.765 2.662
3.721 3.920 2.297
3.865 4.281 2.074
3.551 4.461 2.223
3.674 4.828 2.143
3.983 5.072 2.113
3.870 5.230 2.121
2.959 1.159 3.319
3.228 1.389 3.249
3.000 1.485 2.900
3.152 1.871 3.019
3.175 1.858 3.100
3.153 2.427 2.786
3.416 4.369 2.057
3.706 4.708 2.035
2.796 0.892 2.896
2.793 1.221 2.981
2.980 1.195 3.119
3.087 1.673 2.753
2.980 1.965 2.885
2.991 1.948 2.806
2.918 2.089 2.865
3.158 2.271 2.785
3.063 2.624 2.242
2.521 0.943 2.956
2.637 1.305 2.893
2.729 1.532 2.762
2.642 1.389 2.713
2.722 1.746 2.536
2.731 1.956 2.424
3.125 2.231 2.738
3.042 2.272 2.604
3.104 2.410 2.514
2.682 2.602 2.376
2.532 0.736 2.729
2.690 1.108 2.519
2.539 1.273 2.595
2.829 1.373 2.440
2.819 1.640 2.456
2.550 1.864 2.409
2.804 2.097 2.491
2.701 2.529 2.381
3.043 2.709 2.232
2.652 2.439 2.177
2.561 2.755 1.952
2.564 0.774 2.752
2.522 1.197 2.699
2.529 1.198 2.663
2.302 1.559 2.493
2.679 1.870 2.187
2.708 2.041 2.412
2.418 1.973 2.153
2.618 2.384 2.020
2.681 2.575 2.175
2.699 2.550 1.910
2.508 2.803 1.789
2.817 2.978 1.753
2.297 0.881 2.570
2.199 0.974 2.598
2.499 1.433 2.162
2.545 1.662 2.268
2.457 1.807 2.152
2.444 1.974 2.077
2.266 2.285 2.018
2.688 2.231 2.053
2.642 2.511 2.080
2.516 2.488 1.695
2.567 2.944 1.707
2.594 3.003 1.622
2.669 3.107 1.581
2.479 3.281 1.698
1.993 1.118 2.285
2.290 1.115 2.358
2.189 1.458 2.153
2.048 1.567 2.035
2.438 1.720 1.873
2.186 1.925 1.725
2.349 2.530 1.956
2.258 2.341 1.748
2.092 2.456 1.688
2.169 2.636 1.384
2.229 2.935 1.318
2.152 3.079 1.330
2.442 3.301 1.188
2.254 3.568 1.210
1.831 1.289 1.825
2.016 1.623 1.989
2.010 1.864 1.949
2.199 1.977 1.697
2.057 2.198 1.748
2.066 2.420 1.621
2.080 2.655 1.527
2.019 2.913 1.598
2.251 2.977 1.431
2.320 3.326 1.117
2.259 3.542 1.095
2.097 3.577 0.984
2.495 3.736 1.178
2.551 3.875 0.927
1.884 1.666 1.899
2.099 1.672 1.644
2.181 2.150 1.719
2.099 2.092 1.369
2.123 2.700 1.516
1.999 2.500 1.363
1.758 2.546 1.131
1.998 3.029 1.206
2.177 2.946 1.223
2.135 3.460 0.862
2.031 3.423 0.802
2.274 3.552 0.941
2.150 4.087 0.825
2.058 4.169 0.825
1.919 2.089 1.275
1.697 2.314 1.416
1.959 2.352 1.498
1.927 2.664 1.168
1.830 2.794 1.275
1.870 3.074 1.213
1.901 2.971 1.049
1.721 3.311 0.867
2.093 3.673 0.942
2.135 3.679 0.571
2.039 3.910 0.644
1.925 4.180 0.736
1.599 2.269 1.216
1.754 2.353 1.290
1.480 2.527 0.910
1.689 2.732 1.101
1.545 2.696 0.849
1.601 3.095 0.934
1.555 3.370 0.636
1.739 3.438 0.854
1.912 3.890 0.702
2.040 3.967 0.435
2.119 3.962 0.595
1.762 2.459 0.933
1.551 2.557 0.911
1.589 2.818 0.839
1.428 2.814 0.726
1.635 2.971 0.585
1.669 3.145 0.704
1.696 3.401 0.406
1.696 3.609 0.562
1.610 3.796 0.206
1.914 4.150 0.324
1.636 2.427 0.797
1.261 2.483 0.610
1.473 2.967 0.748
1.316 2.966 0.495
1.578 3.177 0.368
1.425 3.613 0.348
1.471 3.506 0.257
1.530 3.950 0.359
1.735 4.304 0.368
0.676 0.207 1.384
0.803 0.450 1.160
1.149 2.901 0.406
1.076 2.859 0.173
1.413 3.448 0.311
1.226 3.298 0.222
1.329 3.650 0.024
1.271 4.026 0.163
0.677 0.111 0.989
0.908 0.536 1.081
0.618 0.595 1.014
0.775 0.867 1.034
0.948 3.360 0.278
1.289 3.402 0.072
0.404 0.205 0.848
0.487 0.671 0.762
0.830 0.844 0.800
0.665 0.729 1.007
0.522 0.963 0.675
0.238 0.135 1.013
0.256 0.330 0.730
0.483 0.522 0.870
0.469 0.913 0.510
0.460 1.195 0.460
0.268 0.289 0.795
0.207 0.559 0.493
0.219 0.536 0.632
0.193 0.728 0.410
0.369 0.961 0.466
-0.050 0.188 0.394
0.152 0.609 0.327
-0.049 0.517 0.213
0.182 0.726 0.188
0.288 1.074 0.340
0.230 0.958 0.252
-0.067 1.142 0.140
4.884 4.813 3.417
4.814 4.757 3.385
4.920 5.084 3.161
4.810 5.122 3.219
5.093 5.370 3.147
4.924 5.798 2.750
4.957 5.735 2.887
5.124 6.077 2.617
4.203 0.630 4.368
4.109 0.749 4.428
4.773 4.214 3.218
4.562 4.577 3.239
4.503 4.734 3.212
4.790 5.030 3.045
4.652 5.083 2.861
4.759 5.109 3.077
4.974 5.621 2.818
4.954 5.656 2.718
4.739 5.733 2.814
5.032 6.098 2.494
3.785 0.512 4.487
4.341 4.153 3.034
4.326 4.296 2.923
4.404 4.629 3.078
4.347 4.814 3.029
4.389 4.876 3.023
4.753 5.095 2.741
4.529 5.167 2.892
4.705 5.323 2.807
4.505 5.675 2.430
4.654 5.990 2.606
4.758 5.952 2.291
4.213 4.078 3.039
4.452 4.345 3.022
4.498 4.275 2.996
4.155 4.554 2.893
4.515 4.663 2.565
4.461 5.126 2.517
4.418 5.090 2.393
4.682 5.578 2.437
4.722 5.603 2.268
4.613 6.046 2.307
4.251 4.013 2.944
4.177 4.323 2.684
4.098 4.236 2.541
4.355 4.552 2.768
4.021 4.646 2.498
4.232 5.123 2.624
4.333 5.101 2.530
4.181 5.310 2.265
4.567 5.642 2.478
3.984 4.006 2.617
4.040 3.967 2.505
4.161 4.223 2.613
4.010 4.456 2.376
3.981 4.820 2.528
4.300 5.010 2.391
4.208 5.353 2.187
4.299 5.484 2.334
4.392 5.682 2.128
3.845 4.002 2.306
3.900 3.990 2.538
3.637 4.439 2.222
3.668 4.691 2.121
3.765 4.653 2.388
4.059 5.158 2.301
4.108 5.258 2.181
4.170 5.419 2.085
3.150 1.794 3.198
3.150 1.802 3.086
3.485 4.051 2.312
3.667 4.508 2.405
3.615 4.445 2.330
3.578 4.892 2.125
3.801 5.128 1.908
4.000 5.024 1.813
3.163 1.268 3.351
2.896 1.287 2.963
3.314 1.411 2.897
3.142 1.898 3.117
3.171 2.059 2.956
3.154 2.279 2.946
3.472 4.115 2.354
3.502 4.518 2.541
3.602 4.639 2.160
3.648 4.638 2.177
3.807 5.096 2.037
3.488 5.154 2.089
3.662 5.334 2.014
3.004 1.389 3.262
3.064 1.262 3.301
2.893 1.671 3.102
2.958 2.031 3.260
3.238 2.054 3.129
3.300 2.253 3.086
3.304 2.598 2.843
3.155 4.266 2.054
3.320 4.735 2.183
3.386 4.662 1.967
3.486 4.945 1.887
3.432 5.066 2.107
2.761 1.140 3.006
2.897 1.626 3.317
2.758 1.829 2.866
2.859 1.949 2.939
2.915 2.241 3.125
2.901 2.142 2.699
2.911 2.375 2.603
2.934 2.809 2.770
2.483 1.123 3.271
2.476 1.392 2.989
2.534 1.511 2.936
2.590 1.454 3.018
2.618 1.736 2.872
2.555 1.878 2.600
2.866 2.063 2.821
2.705 2.649 2.592
2.883 2.694 2.759
2.846 2.510 2.244
2.872 2.961 2.268
2.239 0.965 3.131
2.470 1.157 2.976
2.479 1.345 2.931
2.433 1.773 2.748
2.578 1.734 2.753
2.478 1.974 2.559
2.589 2.448 2.723
2.728 2.517 2.425
2.548 2.722 2.313
2.532 2.536 2.218
2.581 2.702 2.268
2.200 1.069 2.871
2.262 1.181 2.751
2.403 1.464 2.395
2.479 1.692 2.484
2.373 1.927 2.633
2.287 2.325 2.321
2.673 2.626 2.490
2.351 2.561 2.139
2.446 2.671 2.085
2.539 2.657 1.927
2.278 2.869 1.951
1.913 0.977 2.706
2.180 1.177 2.304
2.365 1.630 2.471
2.393 1.616 2.337
2.242 1.939 2.351
2.116 2.321 2.369
2.359 2.357 2.208
2.444 2.690 1.957
2.146 2.712 2.036
2.430 2.903 2.041
2.476 2.834 1.862
2.492 3.236 1.573
2.099 1.346 2.137
1.965 1.688 2.289
1.914 1.770 2.320
2.271 1.820 2.216
1.964 2.329 1.997
2.021 2.401 1.837
2.288 2.741 2.077
2.193 2.772 1.701
2.022 2.650 1.780
2.227 2.923 1.804
2.092 3.341 1.461
2.030 3.487 1.468
2.111 3.783 1.482
1.790 1.730 1.938
1.931 1.695 2.093
1.942 2.098 1.896
1.850 2.334 2.028
1.899 2.523 1.981
1.907 2.457 1.607
1.897 2.700 1.782
2.009 2.599 1.686
1.801 2.948 1.343
2.077 3.398 1.471
1.975 3.523 1.549
1.958 3.451 1.152
2.256 3.751 1.109
1.603 1.928 1.808
1.888 2.143 1.805
1.892 2.188 1.742
1.777 2.395 1.579
1.693 2.699 1.554
1.861 2.583 1.556
1.939 3.122 1.536
2.023 3.348 1.385
2.015 3.308 1.192
1.869 3.788 1.183
1.870 3.911 1.090
2.022 4.238 0.866
1.754 2.269 1.609
1.885 2.273 1.600
1.749 2.532 1.504
1.625 2.715 1.144
1.678 2.773 1.431
1.479 2.903 1.331
1.535 3.151 1.088
1.833 3.385 1.244
1.843 3.763 0.917
1.952 3.841 0.907
1.864 4.201 0.942
1.640 2.389 1.312
1.583 2.711 1.334
1.269 2.385 1.177
1.397 2.930 1.261
1.712 2.980 1.142
1.386 3.064 1.028
1.799 3.393 0.866
1.742 3.379 0.784
1.773 3.698 0.757
1.734 4.082 0.627
1.581 4.097 0.780
1.446 2.319 1.038
1.562 2.550 1.196
1.348 2.566 1.136
1.364 2.624 0.728
1.375 3.070 0.905
1.389 3.298 0.835
1.641 3.396 0.774
1.308 3.517 0.625
1.707 3.942 0.565
1.747 4.046 0.729
1.405 4.068 0.274
1.350 2.398 0.973
1.299 2.720 0.819
1.397 3.018 0.520
1.245 3.253 0.759
1.410 3.285 0.488
1.469 3.651 0.710
1.161 3.919 0.450
1.496 3.775 0.489
0.777 0.434 1.621
0.855 0.689 1.478
0.912 0.978 1.346
0.970 2.675 0.534
0.971 2.830 0.424
0.959 3.306 0.460
1.006 3.518 0.545
1.001 3.405 0.150
1.344 3.600 0.112
1.048 3.988 0.370
0.455 0.190 1.431
0.535 0.670 1.207
0.785 0.872 1.348
0.801 1.078 1.186
0.829 3.028 0.495
0.879 2.922 0.309
0.885 3.101 0.163
0.805 3.686 0.290
1.023 3.790 0.029
0.422 0.486 1.274
0.286 0.352 1.271
0.659 0.829 1.185
0.416 1.035 0.920
0.185 0.263 1.101
0.211 0.515 0.853
0.339 0.567 1.070
0.304 1.076 0.945
0.337 1.288 0.943
0.232 0.426 0.934
0.320 0.385 0.808
0.251 0.574 0.705
0.251 1.002 0.599
0.129 1.309 0.606
-0.180 0.856 0.412
-0.070 0.730 0.294
4.797 4.818 3.244
4.723 5.134 3.530
4.597 4.999 3.181
4.930 5.327 3.381
4.825 5.602 2.989
5.023 5.968 2.987
4.886 6.101 3.184
4.863 6.144 2.874
3.923 0.885 4.542
3.980 0.892 4.634
4.335 4.329 3.367
4.426 4.902 3.376
4.525 4.817 3.079
4.560 5.269 3.050
4.794 5.318 3.073
4.543 5.468 2.952
4.588 5.653 2.885
4.585 5.901 2.659
4.882 6.096 2.611
4.459 4.183 3.073
4.117 4.501 3.130
4.251 4.746 2.952
4.439 4.903 2.876
4.488 5.068 3.160
4.288 5.439 3.080
4.608 5.496 2.844
4.366 5.673 2.864
4.720 5.783 2.900
4.443 6.000 2.646
4.076 4.152 2.988
4.096 4.378 2.797
4.220 4.510 3.113
4.066 5.090 2.976
4.105 5.061 2.735
4.411 5.128 2.742
4.364 5.536 2.855
4.533 5.736 2.518
4.538 6.107 2.675
3.756 4.130 2.874
4.041 4.055 2.785
3.870 4.487 2.658
3.838 4.826 2.878
4.056 4.987 2.854
4.021 5.104 2.696
4.044 5.372 2.578
4.316 5.684 2.389
4.318 5.759 2.294
4.066 6.014 2.423
3.638 3.878 2.628
3.606 4.149 2.584
3.815 4.455 2.569
3.925 4.689 2.476
3.882 4.955 2.726
3.749 5.013 2.490
3.983 5.397 2.319
4.225 5.560 2.350
4.180 5.710 2.246
3.680 4.219 2.415
3.534 4.436 2.602
3.704 4.507 2.556
3.806 4.968 2.490
3.849 5.054 2.460
3.693 5.412 2.314
3.908 5.421 2.215
3.244 1.324 3.542
2.961 1.647 3.335
3.368 1.883 3.487
3.029 2.204 3.162
3.202 2.219 3.279
3.658 4.384 2.546
3.567 4.213 2.201
3.716 4.503 2.322
3.581 4.689 2.082
3.454 5.062 2.206
3.690 5.166 1.958
3.866 5.439 2.212
2.726 1.074 3.539
2.878 1.480 3.263
3.127 1.762 3.340
3.019 2.038 3.098
3.003 1.925 3.268
3.085 2.188 2.904
2.994 2.606 3.031
3.127 4.139 2.571
3.402 4.327 2.657
3.468 4.766 2.644
3.497 4.737 2.276
3.518 5.229 2.462
3.596 5.269 2.439
3.444 5.627 2.074
2.696 1.176 3.506
2.872 1.708 3.575
2.950 1.762 3.195
2.681 1.803 3.275
2.921 2.119 3.330
3.057 2.425 3.076
2.824 2.609 2.951
3.072 2.692 3.017
3.005 4.361 2.466
3.345 4.643 2.325
3.099 4.846 2.320
3.188 5.138 2.018
3.251 5.190 2.032
3.482 5.714 1.902
2.777 1.289 3.159
2.634 1.416 3.415
2.737 1.777 3.024
2.570 2.018 3.115
2.925 1.942 3.060
2.770 2.168 2.854
2.954 2.763 2.802
2.912 2.966 2.930
2.888 2.775 2.737
3.249 4.688 1.992
3.269 4.755 2.002
3.224 5.109 1.954
3.240 5.327 1.774
2.565 1.225 3.271
2.559 1.472 3.002
2.573 1.876 3.105
2.428 1.746 3.177
2.680 2.191 2.942
2.481 2.252 2.797
2.657 2.486 2.805
2.604 2.957 2.828
2.437 2.945 2.434
2.734 2.941 2.293
2.234 1.221 2.851
2.107 1.541 3.136
2.524 1.768 2.676
2.521 1.896 2.813
2.597 2.250 2.888
2.381 2.358 2.510
2.623 2.434 2.574
2.654 2.636 2.375
2.385 2.789 2.339
2.285 3.010 2.137
1.985 1.114 2.952
2.107 1.408 2.713
2.047 1.694 2.876
2.110 1.822 2.775
2.410 1.905 2.574
2.169 2.349 2.424
2.373 2.694 2.390
2.297 2.684 2.410
2.067 2.870 2.288
2.439 2.761 2.252
2.487 2.974 1.984
2.076 1.407 2.456
1.925 1.853 2.496
2.016 1.926 2.458
2.307 2.041 2.367
2.177 2.336 2.376
2.133 2.346 2.427
2.101 2.823 2.176
2.245 2.516 1.943
1.934 2.930 2.179
1.978 3.260 1.887
2.192 3.203 1.786
1.916 1.614 2.547
1.925 1.674 2.330
1.879 1.975 2.356
1.978 2.111 2.146
1.916 2.470 2.155
2.252 2.535 1.913
2.001 2.862 1.907
1.903 2.949 1.983
1.800 2.916 1.625
1.847 3.323 1.536
2.230 3.533 1.731
1.689 1.665 1.983
1.719 1.916 2.226
1.846 2.391 1.856
1.719 2.478 2.070
1.860 2.864 1.764
1.610 2.853 1.624
1.849 3.057 1.722
1.736 2.947 1.767
1.705 3.408 1.704
1.895 3.618 1.527
2.113 3.589 1.372
1.642 1.916 2.001
1.520 2.172 1.865
1.622 2.338 1.972
1.814 2.552 1.972
1.504 2.544 1.581
1.555 2.792 1.733
1.654 2.926 1.346
1.637 3.442 1.573
1.862 3.548 1.323
1.731 3.629 1.381
1.996 3.868 1.107
1.561 2.341 1.801
1.693 2.259 1.548
1.577 2.704 1.410
1.257 2.574 1.450
1.519 2.969 1.291
1.724 3.222 1.152
1.653 3.153 1.373
1.729 3.612 1.003
1.442 3.802 1.096
1.649 3.740 1.240
1.888 4.192 1.083
1.602 2.408 1.701
1.320 2.631 1.363
1.131 2.689 1.394
1.473 2.909 1.411
1.205 3.065 1.125
1.475 3.072 1.092
1.607 3.567 1.077
1.684 3.806 0.988
1.356 3.951 0.973
1.513 4.200 0.672
1.280 2.451 1.282
1.200 2.426 1.289
0.984 2.379 1.187
1.219 2.992 0.883
1.143 3.086 0.922
1.241 3.294 0.865
1.484 3.490 0.816
1.447 3.574 0.922
1.518 3.905 0.832
1.325 4.163 0.849
1.739 6.113 0.101
1.858 6.263 0.054
0.567 0.582 1.777
0.932 0.568 1.902
0.958 2.526 0.938
1.160 2.455 0.841
0.978 2.613 0.790
1.004 3.038 1.033
1.017 3.278 0.970
1.291 3.435 0.910
1.209 3.582 0.852
1.175 3.801 0.627
1.412 4.061 0.466
1.641 5.570 0.152
0.614 0.331 1.829
0.425 0.630 1.683
0.478 0.859 1.374
1.137 2.726 1.164
0.856 2.863 0.586
0.775 2.930 0.796
0.871 3.286 0.611
0.803 3.197 0.649
0.817 3.403 0.509
1.090 3.847 0.460
0.906 3.909 0.406
0.588 0.349 1.569
0.355 0.584 1.608
0.521 0.685 1.409
0.555 1.261 1.154
0.502 2.927 0.429
0.734 2.820 0.702
0.640 3.117 0.631
0.879 3.308 0.325
0.946 3.497 0.483
1.095 3.752 0.217
0.318 0.389 1.329
0.453 0.722 1.080
0.350 0.806 1.384
0.410 1.134 1.154
0.514 2.831 0.346
0.562 2.996 0.164
0.817 3.558 0.108
0.603 3.498 -0.016
0.180 0.315 1.192
0.007 0.630 1.061
0.081 0.977 0.903
0.047 0.946 0.918
0.121 0.662 0.791
0.163 1.080 0.894
4.560 4.867 3.350
4.562 5.159 3.600
4.679 5.621 3.549
4.501 5.731 3.118
4.661 5.912 3.128
4.714 6.199 3.244
3.620 0.932 4.632
4.398 4.927 3.213
4.366 4.974 3.374
4.438 5.201 3.355
4.493 5.308 3.242
4.582 5.632 2.944
4.690 5.698 3.218
4.570 6.054 2.892
4.711 6.392 2.934
3.973 4.391 3.195
4.183 4.958 3.123
4.282 5.049 3.204
4.105 5.020 3.047
4.305 5.467 3.132
4.188 5.587 3.010
4.482 5.742 3.017
4.360 6.103 2.919
4.544 6.292 2.591
4.141 4.352 3.158
4.173 4.375 3.313
4.168 4.667 2.953
4.135 4.811 3.063
4.037 5.134 3.031
3.983 5.367 3.066
4.146 5.630 2.904
4.054 5.622 2.734
4.316 6.145 2.777
3.609 4.426 2.955
3.989 4.641 3.190
3.964 4.655 2.911
3.992 5.036 2.857
3.958 5.220 2.843
4.072 5.244 2.820
4.235 5.710 2.461
4.038 5.711 2.607
4.039 5.898 2.614
3.612 4.471 2.924
3.480 4.670 2.785
3.807 4.853 2.575
3.769 4.952 2.566
3.590 5.077 2.451
3.632 5.212 2.691
3.980 5.540 2.515
3.845 5.609 2.284
3.231 1.881 3.645
3.146 2.070 3.560
3.279 2.080 3.728
3.210 2.303 3.432
3.319 4.294 2.565
3.382 4.585 2.831
3.457 4.870 2.708
3.517 5.075 2.609
3.432 5.247 2.530
3.712 5.249 2.269
3.805 5.513 2.198
3.792 5.693 2.253
3.032 1.414 3.613
3.141 1.580 3.558
2.860 2.030 3.471
3.247 2.093 3.523
2.947 2.203 3.421
3.106 2.689 3.240
3.316 4.293 2.703
3.336 4.514 2.514
3.359 4.731 2.395
3.342 4.729 2.276
3.372 5.271 2.446
3.419 5.187 2.446
3.422 5.406 2.204
2.573 1.332 3.360
2.976 1.611 3.221
2.627 1.603 3.220
2.665 2.026 3.452
3.111 2.339 3.025
2.884 2.507 3.002
2.936 2.651 3.132
3.067 2.828 3.326
3.281 4.478 2.591
3.180 4.486 2.769
3.107 4.833 2.549
3.163 4.826 2.639
3.252 5.136 2.263
3.243 5.497 2.550
3.479 5.464 2.423
3.609 5.759 2.307
2.649 1.232 3.570
2.789 1.468 3.647
2.816 1.707 3.364
2.633 1.992 3.426
2.959 2.261 3.382
2.766 2.471 3.193
3.039 2.666 3.225
2.984 2.836 3.325
2.793 2.977 2.973
2.803 4.319 2.378
3.214 4.359 2.310
3.251 4.820 2.318
3.307 4.923 2.171
3.138 5.375 2.120
3.371 5.554 2.095
3.326 5.612 2.307
3.123 5.720 2.030
2.599 1.354 3.455
2.434 1.670 3.591
2.396 1.946 3.425
2.467 1.947 3.404
2.398 2.412 3.059
2.720 2.445 3.081
2.606 2.533 2.965
2.680 2.849 3.105
2.698 2.853 2.892
2.915 4.423 2.367
2.964 4.563 2.313
2.908 5.088 2.055
3.183 5.129 2.022
2.989 5.310 2.103
2.944 5.374 1.978
2.182 1.417 3.269
2.355 1.596 3.356
2.548 1.813 3.292
2.370 2.035 3.243
2.259 2.118 3.096
2.362 2.444 2.822
2.473 2.802 3.080
2.654 2.966 3.029
2.413 2.714 2.543
2.937 4.913 2.263
2.695 5.078 1.933
3.046 5.181 2.166
3.037 5.402 1.825
2.999 5.433 1.970
2.230 1.623 2.910
2.008 1.767 3.168
2.349 1.998 3.161
2.190 2.197 3.085
2.389 2.513 2.768
2.429 2.575 2.895
2.521 2.778 2.606
2.129 2.750 2.507
2.330 2.838 2.418
2.595 5.014 1.997
2.651 5.231 1.616
2.145 1.346 3.096
2.237 1.830 3.038
2.275 1.786 2.829
2.301 2.255 2.856
2.131 2.381 2.507
2.393 2.514 2.700
2.076 2.757 2.381
2.033 2.743 2.221
2.237 2.912 2.368
2.009 1.803 2.690
1.850 2.109 2.720
2.077 2.274 2.533
2.104 2.466 2.409
2.006 2.384 2.290
2.124 2.784 2.222
1.846 2.656 2.419
1.823 2.983 2.056
1.937 3.259 2.133
1.828 2.097 2.412
1.889 2.102 2.284
1.784 2.450 2.434
1.933 2.442 2.161
1.748 2.660 2.369
1.879 2.739 1.920
1.629 3.038 1.809
1.895 3.092 1.977
1.747 3.495 1.871
1.537 2.176 2.471
1.510 2.250 2.209
1.712 2.541 2.170
1.857 2.882 2.110
1.497 2.561 1.857
1.577 3.085 2.050
1.771 3.284 1.697
1.812 3.265 1.808
1.686 3.613 1.489
1.648 2.397 1.951
1.521 2.349 1.794
1.645 2.773 1.895
1.422 2.835 1.905
1.408 3.038 1.739
1.549 3.072 1.737
1.702 3.155 1.682
1.749 3.406 1.502
1.805 3.846 1.271
1.509 2.322 1.936
1.305 2.770 1.801
1.363 2.547 1.543
1.322 3.029 1.499
1.490 3.014 1.410
1.538 3.371 1.447
1.346 3.491 1.453
1.299 3.649 1.385
1.363 4.112 1.187
1.911 6.193 0.549
2.060 6.206 0.552
1.423 2.344 1.625
1.189 2.725 1.465
1.178 2.781 1.325
1.253 3.052 1.534
1.272 3.093 1.349
1.211 3.457 1.085
1.187 3.357 1.340
1.138 3.777 0.939
1.436 4.053 0.989
1.659 5.963 0.436
1.663 6.199 0.369
1.778 6.363 0.215
0.604 0.360 2.208
0.870 0.766 2.039
1.005 2.763 1.587
0.868 2.803 1.346
1.009 3.029 1.193
0.987 2.940 0.961
1.246 3.475 1.044
1.140 3.460 1.141
1.337 3.638 0.850
1.313 3.771 0.977
1.128 4.066 1.001
1.503 5.726 0.354
1.546 6.222 0.120
1.491 6.144 0.150
0.712 0.567 1.925
0.658 0.830 1.876
0.678 0.810 1.714
0.777 2.740 1.089
0.857 2.696 0.961
0.865 2.713 0.945
1.068 3.163 0.898
0.872 3.400 0.736
0.894 3.393 0.900
1.049 3.528 0.789
0.905 4.094 0.729
0.902 3.945 0.706
1.338 5.420 0.212
1.600 5.876 0.277
1.564 5.973 0.219
1.514 6.219 0.066
0.358 0.356 1.864
0.641 0.920 1.606
0.513 0.886 1.581
0.376 1.170 1.756
0.791 2.550 1.109
0.480 2.732 1.090
0.561 2.652 0.791
0.688 3.237 0.663
0.966 3.336 0.767
0.774 3.573 0.636
0.853 3.715 0.669
0.824 3.758 0.785
1.056 3.983 0.601
1.073 5.667 -0.028
1.148 5.990 0.184
0.272 0.361 1.783
0.464 0.748 1.582
0.148 0.871 1.388
0.214 1.229 1.297
0.602 2.826 1.063
0.584 2.758 0.783
0.599 2.765 0.702
0.688 3.162 0.687
0.821 3.216 0.603
0.717 3.244 0.718
0.891 3.490 0.358
0.869 3.906 0.613
0.878 3.986 0.508
0.231 0.578 1.367
0.167 0.523 1.284
0.186 0.945 1.152
0.293 1.067 1.328
0.654 2.671 0.752
0.300 2.659 0.552
0.602 3.159 0.600
0.444 3.363 0.598
0.603 3.564 0.503
0.734 3.647 0.513
0.578 3.971 0.457
0.105 0.934 1.240
0.221 1.066 1.178
0.207 2.648 0.546
0.104 2.800 0.545
0.169 3.111 0.481
0.161 3.454 0.187
0.547 3.808 0.230
0.185 3.081 0.078
0.176 3.321 0.296
4.564 5.165 3.475
4.511 5.523 3.299
4.694 5.753 3.558
4.392 5.931 3.242
4.419 6.053 3.304
4.200 4.890 3.566
4.458 5.401 3.279
4.507 5.342 3.310
4.556 5.695 3.443
4.198 5.880 3.104
4.348 6.070 2.957
3.858 5.062 3.265
4.084 5.071 3.516
4.123 5.319 3.252
4.234 5.397 3.097
4.187 5.630 3.176
4.236 5.850 3.177
4.093 6.315 3.135
3.836 4.515 3.178
4.078 4.819 3.222
3.925 5.100 3.329
3.956 5.235 2.912
4.058 5.510 3.144
3.978 5.663 2.898
4.264 6.041 3.053
4.170 6.301 2.655
3.454 2.504 3.835
3.568 2.348 3.985
3.595 4.587 3.031
3.584 4.958 3.207
3.748 5.100 2.881
3.611 5.429 3.014
3.973 5.444 2.996
3.818 5.667 2.926
3.788 5.823 2.736
3.126 1.665 3.779
3.230 2.181 3.881
3.351 2.157 3.946
3.254 2.454 3.976
3.293 2.582 3.568
3.669 4.274 3.089
3.558 4.599 2.892
3.595 4.786 3.070
3.758 5.057 2.669
3.787 5.129 2.722
3.721 5.267 2.517
3.656 5.491 2.726
3.611 5.947 2.752
2.884 1.622 3.763
3.109 1.945 3.700
3.014 2.002 3.617
3.078 2.398 3.655
2.946 2.300 3.597
3.327 2.634 3.673
3.232 2.903 3.193
3.397 4.295 3.046
3.241 4.498 2.732
3.595 4.618 2.692
3.242 4.961 2.720
3.631 5.081 2.716
3.376 5.258 2.460
3.441 5.463 2.581
3.410 5.974 2.276
2.924 1.316 3.962
2.820 1.425 3.543
3.007 1.751 3.800
2.967 2.084 3.537
2.828 2.166 3.336
3.103 2.619 3.496
2.935 2.646 3.450
2.835 2.935 3.153
2.813 2.832 3.263
2.959 4.435 2.699
3.147 4.514 2.495
3.170 4.727 2.790
3.181 4.917 2.390
3.393 5.237 2.447
3.548 5.451 2.433
3.225 5.471 2.417
3.409 5.832 2.168
2.395 1.358 3.629
2.627 1.425 3.429
2.742 1.856 3.691
2.767 2.011 3.426
2.783 2.073 3.445
2.789 2.255 3.328
2.811 2.641 3.330
3.044 2.971 3.328
2.661 2.969 3.245
3.062 4.614 2.793
3.171 4.575 2.928
3.183 4.962 2.616
3.134 5.095 2.608
3.133 5.426 2.731
3.131 5.455 2.426
3.218 5.819 2.482
3.425 5.796 2.518
2.620 1.516 3.569
2.465 1.854 3.740
2.608 1.948 3.755
2.596 2.274 3.414
2.492 2.308 3.508
2.763 2.329 3.378
2.645 2.768 3.310
2.598 3.120 3.510
2.465 2.915 3.365
2.715 4.258 2.771
2.687 4.737 2.662
2.978 4.707 2.476
3.161 4.943 2.371
2.883 5.360 2.446
3.224 5.454 2.561
3.108 5.840 2.368
3.295 6.053 2.324
2.166 1.336 3.643
2.368 1.829 3.651
2.254 2.013 3.564
2.516 1.914 3.426
2.557 2.327 3.525
2.621 2.634 3.132
2.714 2.677 3.360
2.670 2.920 3.158
2.361 2.777 3.050
2.617 4.402 2.441
2.947 4.757 2.432
2.852 5.078 2.331
2.796 5.363 2.099
2.783 5.571 2.416
2.937 5.465 2.208
3.143 5.731 2.192
2.290 1.830 3.425
2.017 1.770 3.160
2.362 2.129 3.274
2.488 2.109 3.052
2.496 2.683 3.174
2.498 2.602 3.061
2.220 2.978 2.893
2.323 3.044 2.908
2.424 4.591 2.485
2.499 4.687 2.074
2.588 4.941 2.009
2.748 5.096 2.190
2.910 5.430 2.158
2.600 5.737 1.918
2.987 5.886 1.792
2.079 1.476 3.066
2.126 2.015 3.378
2.001 1.967 3.018
2.307 2.442 3.218
2.367 2.395 3.155
2.341 2.588 2.968
2.196 2.984 3.000
2.140 2.822 2.561
2.292 4.709 1.921
2.296 5.172 2.035
2.416 5.200 1.852
2.635 5.484 2.035
2.694 5.731 1.811
2.507 5.926 1.883
2.038 1.654 2.958
1.949 2.212 3.066
2.130 2.112 2.806
1.870 2.359 2.860
1.891 2.824 2.942
2.177 2.737 2.876
1.744 2.739 2.358
2.386 4.923 1.718
2.383 5.360 1.736
2.531 5.324 1.804
2.549 5.413 1.510
2.694 5.965 1.765
1.711 2.169 2.846
1.685 2.087 2.559
1.696 2.505 2.547
1.690 2.795 2.539
1.811 2.949 2.618
1.598 2.844 2.523
1.681 3.111 2.162
2.346 5.556 1.783
2.165 5.718 1.639
2.537 5.700 1.370
2.214 6.004 1.335
1.775 2.250 2.357
1.649 2.725 2.548
1.734 2.880 2.292
1.658 2.996 2.367
1.490 3.151 2.068
2.240 5.484 1.282
2.103 5.717 1.441
2.408 5.857 1.442
1.773 2.753 2.486
1.746 3.009 2.048
1.274 2.738 2.205
1.626 2.847 1.968
1.376 3.085 1.823
1.945 5.748 1.398
2.135 5.586 1.219
2.147 5.898 1.121
2.160 6.347 0.845
1.317 2.489 2.176
1.401 2.912 2.137
1.303 2.826 2.060
1.185 3.151 1.991
1.441 3.280 1.717
1.365 3.592 1.867
1.412 3.741 1.724
1.739 5.792 0.969
1.801 5.996 1.104
2.089 6.285 0.949
0.806 0.679 2.464
1.111 2.823 1.944
0.969 2.754 1.693
0.984 2.794 1.768
1.275 3.108 1.514
1.338 3.485 1.471
1.419 3.719 1.674
1.435 3.773 1.432
1.538 5.828 0.649
1.586 6.102 0.662
1.870 6.340 0.788
0.747 0.571 2.282
0.639 1.031 2.357
1.176 2.927 1.662
1.093 2.848 1.529
1.154 2.882 1.630
1.065 3.133 1.477
1.239 3.381 1.345
0.994 3.494 1.254
1.065 3.760 1.324
1.161 4.144 1.132
1.424 5.524 0.808
1.703 6.004 0.797
1.727 6.195 0.492
0.569 0.562 2.276
0.572 0.859 2.191
0.508 0.866 2.308
0.975 2.846 1.507
0.856 2.721 1.478
1.011 3.012 1.301
0.742 3.144 1.140
1.097 3.559 1.366
0.819 3.747 1.376
0.937 3.623 0.967
1.172 3.951 1.099
1.441 5.706 0.594
1.500 5.904 0.481
1.520 5.968 0.528
0.480 0.662 1.910
0.457 0.901 2.216
0.668 1.116 1.988
0.736 2.710 1.502
0.861 2.624 1.433
0.845 2.968 1.019
0.570 3.227 1.280
0.823 3.469 1.259
0.709 3.488 1.022
0.724 3.571 0.891
0.844 4.066 0.740
0.758 4.262 0.810
1.258 5.477 0.490
1.384 6.054 0.161
1.317 5.913 0.254
0.216 0.775 2.010
0.230 0.634 2.013
0.144 0.920 1.915
0.546 1.331 1.739
0.631 2.713 1.404
0.664 2.647 1.285
0.549 2.780 1.105
0.518 3.066 1.074
0.600 3.152 0.891
0.704 3.635 0.778
0.751 3.702 0.645
0.597 3.869 0.825
0.930 4.371 0.645
1.183 5.723 0.255
1.074 5.767 0.254
1.120 6.213 0.186
0.054 0.700 1.709
-0.021 0.777 1.872
0.148 1.183 1.678
0.228 1.413 1.365
0.466 2.511 0.919
0.528 2.786 1.112
0.325 3.044 0.919
0.518 3.196 0.934
0.557 3.428 0.869
0.303 3.359 0.735
0.391 3.543 0.643
0.681 4.047 0.764
0.743 4.017 0.462
0.769 5.669 -0.021
0.192 0.928 1.456
-0.084 1.244 1.573
0.469 2.852 0.761
0.086 2.603 0.705
0.154 2.887 0.841
0.348 3.144 0.719
0.457 3.184 0.592
0.170 3.537 0.700
0.327 3.821 0.383
0.245 3.881 0.259
0.354 2.813 0.880
-0.143 2.739 0.496
0.084 2.692 0.697
0.063 3.045 0.341
-0.047 3.378 0.403
0.362 3.634 0.395
0.031 3.772 0.119
0.416 3.964 0.075
0.011 2.840 0.768
0.098 3.452 0.164
0.180 3.881 0.089
3.866 2.976 4.482
3.855 3.418 4.395
4.299 5.636 3.420
4.297 5.982 3.648
4.373 6.235 3.399
3.984 2.915 4.640
3.985 3.050 4.284
3.851 3.195 4.417
3.642 3.256 4.177
4.051 5.398 3.337
4.235 5.976 3.516
4.373 6.029 3.357
4.398 6.019 3.108
3.771 2.692 4.362
3.515 2.720 4.529
3.690 2.934 4.101
3.719 3.214 4.276
3.775 5.294 3.426
3.767 5.400 3.226
3.936 5.749 3.189
3.884 5.911 3.218
4.148 5.920 3.334
3.413 2.113 4.265
3.585 2.396 4.208
3.375 2.506 4.071
3.336 2.904 3.995
3.686 2.852 4.179
3.370 2.894 3.806
3.802 5.036 3.512
3.897 5.026 3.226
4.009 5.414 3.134
3.959 5.408 3.141
3.971 5.836 3.192
3.782 6.166 3.097
3.136 2.130 4.481
3.388 2.264 4.158
3.077 2.487 4.135
3.183 2.465 4.159
3.187 2.979 4.006
3.489 3.053 3.808
3.351 3.195 3.848
3.653 4.493 3.143
3.566 4.692 3.356
3.420 5.039 2.952
3.534 5.167 3.236
3.664 5.694 3.197
3.732 5.728 2.776
3.943 6.100 2.873
2.949 1.658 4.358
2.902 1.924 4.157
3.054 2.167 4.255
2.995 2.296 3.859
3.048 2.682 3.922
3.187 2.896 3.959
3.289 3.182 3.686
3.070 2.969 3.641
3.432 4.532 3.240
3.385 4.728 3.069
3.427 4.914 3.055
3.510 5.312 2.728
3.466 5.584 2.987
3.695 5.616 2.857
3.468 5.896 2.803
2.746 1.874 4.207
2.958 2.032 3.977
2.769 2.103 3.748
2.943 2.474 3.869
3.025 2.514 3.606
2.806 2.575 3.773
2.916 3.167 3.679
3.078 2.922 3.684
3.265 4.507 3.037
3.084 4.480 3.051
3.386 4.752 2.777
3.281 5.263 2.635
