3.211 6.081 1.479
3.209 6.270 1.301
3.676 5.364 2.235
3.490 5.464 2.273
3.361 5.555 2.120
3.345 5.666 2.072
3.243 5.877 1.811
3.146 6.034 1.719
3.128 6.144 1.525
2.973 6.283 1.429
3.549 5.435 2.267
3.208 5.597 2.234
3.104 5.690 2.153
3.106 5.887 1.976
3.037 6.073 1.846
2.836 6.221 1.760
2.991 5.638 2.483
3.028 5.679 2.312
2.953 5.950 2.134
2.831 6.075 2.031
2.678 6.173 1.793
2.728 5.710 2.375
2.696 5.969 2.297
2.609 6.126 2.057
2.508 6.237 2.001
6.213 4.694 0.821
6.146 4.909 0.623
6.122 4.558 1.086
5.961 4.791 0.890
5.901 4.953 0.731
6.162 4.745 1.160
6.120 4.895 0.970
6.009 5.032 0.857
5.800 5.255 0.933
5.986 4.779 1.338
5.940 4.957 1.220
5.832 5.039 1.062
5.747 5.198 0.823
5.575 5.286 1.036
5.792 4.866 1.424
5.746 4.966 1.271
5.674 5.170 1.118
5.637 5.318 0.951
5.455 5.245 1.188
5.636 4.870 1.569
5.643 5.006 1.441
5.455 5.110 1.326
5.372 5.241 1.192
5.242 5.374 1.319
5.206 5.450 1.148
5.477 4.820 1.753
5.456 5.016 1.545
5.375 5.172 1.431
5.207 5.287 1.198
4.987 5.329 1.380
4.955 5.519 1.305
5.300 4.912 1.813
5.275 5.087 1.690
5.106 5.167 1.589
4.997 5.394 1.437
4.870 5.424 1.502
4.765 5.467 1.391
4.690 5.685 1.187
5.115 4.965 2.019
5.011 5.048 1.836
4.899 5.191 1.646
4.866 5.315 1.548
4.706 5.417 1.641
4.575 5.504 1.471
4.457 5.686 1.358
4.919 5.150 1.887
4.766 5.213 1.837
4.755 5.357 1.611
4.511 5.496 1.809
4.376 5.621 1.568
4.298 5.787 1.527
4.301 5.938 1.269
4.239 6.081 1.200
4.657 5.186 2.073
4.581 5.337 1.892
4.464 5.476 1.839
4.345 5.518 1.967
4.235 5.585 1.755
4.183 5.768 1.673
4.134 5.831 1.423
4.012 6.039 1.248
3.914 6.240 1.181
4.368 5.299 2.016
4.352 5.443 1.956
4.120 5.493 2.051
4.029 5.611 1.946
3.948 5.840 1.790
3.921 5.887 1.635
3.855 6.121 1.489
3.674 6.173 1.233
4.188 5.352 2.191
4.148 5.506 2.020
4.005 5.492 2.103
3.839 5.707 2.013
3.815 5.803 1.821
3.680 6.011 1.691
3.637 6.156 1.582
3.529 6.226 1.381
3.903 5.455 2.227
3.756 5.566 2.229
3.705 5.670 2.108
3.572 5.852 1.980
3.542 6.024 1.809
3.432 6.154 1.755
3.323 6.207 1.528
3.776 5.604 2.256
3.547 5.607 2.375
3.574 5.706 2.273
3.390 5.875 2.093
3.404 5.981 1.985
3.314 6.096 1.824
3.634 5.599 2.435
3.363 5.710 2.372
3.292 5.888 2.207
3.129 5.994 2.172
3.154 6.181 1.911
3.192 5.808 2.599
3.108 5.877 2.455
3.037 6.110 2.235
2.905 6.213 2.148
2.992 5.814 2.712
2.931 6.004 2.500
2.837 6.084 2.306
2.786 6.179 2.276
6.272 5.024 0.796
6.214 4.766 1.158
6.090 4.863 1.071
6.044 5.045 0.836
6.097 5.354 0.808
6.246 5.089 1.099
6.186 5.253 1.056
6.034 5.438 0.846
5.871 5.400 1.029
6.072 4.922 1.484
6.060 5.077 1.235
5.969 5.311 1.157
5.935 5.344 0.964
5.659 5.435 1.060
5.906 4.962 1.592
5.910 5.120 1.389
5.809 5.354 1.256
5.671 5.430 1.100
5.581 5.438 1.189
5.751 4.983 1.700
5.717 5.196 1.540
5.537 5.371 1.319
5.499 5.480 1.196
5.306 5.548 1.344
5.652 5.030 1.861
5.471 5.244 1.597
5.460 5.406 1.477
5.355 5.508 1.309
5.112 5.573 1.501
5.423 5.089 1.948
5.330 5.237 1.820
5.269 5.331 1.600
5.148 5.524 1.431
5.033 5.577 1.643
5.162 5.225 1.954
5.076 5.452 1.716
4.966 5.541 1.611
4.840 5.583 1.816
4.820 5.623 1.815
4.575 5.591 1.840
4.553 5.682 1.766
4.388 5.842 1.543
4.675 5.566 1.920
4.470 5.563 2.004
4.328 5.729 1.929
4.231 5.858 1.779
4.117 6.016 1.608
4.441 5.690 2.072
4.213 5.692 2.082
4.208 5.821 2.055
4.122 5.918 1.898
4.036 6.082 1.733
3.889 6.187 1.620
4.265 5.589 2.155
4.074 5.662 2.308
3.959 5.834 2.118
3.934 6.028 2.012
3.850 6.110 1.789
3.680 6.313 1.646
4.102 5.691 2.276
3.890 5.731 2.369
3.741 5.815 2.265
3.777 6.022 2.107
3.580 6.179 1.900
3.875 5.641 2.420
3.761 5.698 2.519
3.635 5.906 2.394
3.553 5.986 2.259
3.400 6.123 2.085
3.666 5.688 2.534
3.583 5.805 2.620
3.404 5.877 2.496
3.401 6.016 2.343
3.302 6.133 2.217
3.530 5.707 2.711
3.365 5.761 2.796
3.257 5.927 2.671
3.203 6.032 2.430
3.136 6.257 2.294
3.377 5.849 2.811
3.177 5.779 2.885
3.036 6.016 2.760
3.061 6.111 2.619
2.861 6.229 2.436
3.116 5.808 2.930
6.264 5.367 0.722
6.262 5.332 0.703
6.033 5.391 0.778
6.193 5.109 1.134
6.130 5.218 1.008
6.032 5.344 0.804
6.279 5.423 1.145
6.174 5.108 1.461
6.103 5.341 1.382
6.074 5.450 1.286
6.002 5.184 1.641
6.005 5.297 1.518
5.881 5.477 1.316
5.863 5.179 1.807
5.722 5.282 1.604
5.732 5.438 1.499
4.152 5.975 2.258
4.058 6.199 2.036
3.921 6.001 2.300
3.782 6.224 2.179
3.704 6.045 2.558
3.649 6.140 2.401
3.559 6.087 2.600
3.517 6.278 2.505
3.401 5.918 2.894
3.417 6.153 2.759
3.226 6.237 2.645
3.453 6.005 2.952
3.259 6.032 2.965
3.206 6.144 2.930
3.050 6.238 2.781
3.242 5.913 3.095
6.256 5.429 1.136
6.252 5.381 1.460
6.145 5.550 1.354
6.194 5.339 1.730
6.044 5.422 1.589
3.832 6.200 2.654
3.614 6.186 2.754
3.604 6.092 2.961
3.404 6.241 2.802
3.514 6.126 3.072
3.367 6.094 3.184
3.407 6.148 3.177
1.935 -0.033 3.246
1.800 -0.035 3.363
1.691 0.141 3.279
1.597 0.009 3.503
1.559 0.136 3.431
1.477 0.076 3.678
1.321 0.244 3.482
1.260 0.397 3.384
1.208 0.488 3.180
1.044 0.604 3.075
1.059 0.816 2.943
0.978 0.968 2.803
0.875 1.111 2.599
0.752 1.210 2.503
0.676 1.468 2.299
0.613 1.546 2.177
0.571 1.657 1.995
0.367 1.885 1.907
0.972 0.607 3.311
0.897 0.740 3.203
0.859 0.790 3.031
0.768 1.016 2.963
0.692 1.133 2.758
0.618 1.223 2.573
0.461 1.434 2.457
0.457 1.628 2.277
0.377 1.735 2.162
0.308 1.835 2.039
0.840 0.542 3.483
0.746 0.711 3.375
0.668 0.897 3.146
0.507 1.065 2.977
0.434 1.216 2.914
0.426 1.347 2.670
0.267 1.473 2.626
0.175 1.622 2.465
0.181 1.707 2.250
0.130 1.838 2.107
0.511 0.766 3.467
0.495 0.894 3.289
0.431 1.101 3.168
0.343 1.170 2.943
0.216 1.398 2.886
0.159 1.538 2.754
0.098 1.596 2.605
0.249 0.878 3.391
0.170 1.106 3.235
0.185 1.240 3.105
0.006 1.299 3.057
0.097 1.007 3.526
0.070 1.110 3.378
0.292 -0.027 5.261
0.179 0.095 5.330
0.068 0.156 5.167
2.298 0.078 3.216
2.208 0.238 3.058
2.210 0.079 3.554
2.052 0.153 3.427
2.010 0.318 3.244
1.927 0.115 3.680
1.946 0.136 3.503
1.833 0.324 3.399
1.714 0.522 3.254
1.616 0.638 3.066
1.750 0.141 3.831
1.771 0.254 3.635
1.621 0.384 3.533
1.597 0.505 3.314
1.507 0.674 3.181
1.385 0.763 2.984
1.308 0.975 2.897
1.571 0.045 3.962
1.521 0.277 3.781
1.427 0.452 3.584
1.437 0.603 3.413
1.291 0.757 3.274
1.202 0.844 3.165
1.115 1.032 2.993
1.098 1.148 2.842
0.905 1.226 2.767
0.862 1.409 2.532
1.466 0.080 4.094
1.364 0.312 3.903
1.292 0.432 3.697
1.181 0.614 3.581
1.082 0.746 3.446
1.080 0.916 3.271
0.931 0.972 3.207
0.830 1.183 3.063
0.745 1.294 2.865
0.722 1.475 2.777
0.605 1.604 2.616
0.490 1.804 2.480
0.398 1.926 2.306
0.420 2.010 2.143
1.127 0.413 3.829
0.981 0.593 3.659
0.898 0.735 3.618
0.869 0.924 3.373
0.724 0.990 3.304
0.730 1.118 3.092
0.593 1.339 3.054
0.449 1.486 2.795
0.377 1.629 2.666
0.378 1.837 2.513
0.229 1.920 2.339
0.123 2.074 2.219
0.696 0.743 3.641
0.658 0.977 3.529
0.575 1.024 3.364
0.473 1.184 3.325
0.443 1.371 3.127
0.377 1.571 2.905
0.207 1.700 2.837
0.222 1.844 2.649
0.048 1.890 2.512
0.564 0.778 3.821
0.414 0.957 3.702
0.351 1.082 3.601
0.348 1.184 3.449
0.294 1.380 3.189
0.191 1.579 3.087
0.076 1.617 2.936
0.368 1.001 3.877
0.153 1.140 3.730
0.172 1.241 3.501
-0.007 1.390 3.317
-0.032 1.169 3.759
0.545 0.106 5.522
0.410 0.006 5.678
0.249 0.179 5.487
0.227 0.149 5.750
0.032 0.248 5.572
2.553 0.020 3.694
2.398 0.107 3.522
2.369 0.355 3.319
2.280 0.436 3.253
2.258 0.647 3.006
2.365 0.075 3.826
2.320 0.254 3.652
2.192 0.384 3.445
2.051 0.527 3.277
2.035 0.570 3.117
1.886 0.826 2.975
2.214 0.066 3.842
2.156 0.278 3.703
1.965 0.337 3.626
1.871 0.576 3.453
1.875 0.649 3.379
1.728 0.829 3.191
1.646 0.967 3.076
1.987 0.028 4.095
1.934 0.243 3.865
1.820 0.395 3.726
1.808 0.602 3.608
1.692 0.647 3.487
1.615 0.839 3.312
1.543 1.043 3.104
1.340 1.101 3.053
1.796 0.079 4.142
1.729 0.319 4.021
1.674 0.463 3.886
1.625 0.555 3.655
1.521 0.672 3.566
1.367 0.827 3.424
1.368 1.045 3.329
1.275 1.099 3.129
1.196 1.278 2.997
1.071 1.404 2.795
0.999 1.645 2.643
1.595 0.340 4.165
1.421 0.427 4.058
1.429 0.613 3.854
1.313 0.751 3.728
1.243 0.902 3.593
1.117 1.009 3.397
1.025 1.182 3.311
0.921 1.378 3.116
0.920 1.465 3.034
0.819 1.610 2.825
0.699 1.786 2.666
0.658 1.913 2.571
1.261 0.511 4.159
1.251 0.613 4.028
1.143 0.732 3.779
1.036 0.927 3.659
0.914 1.094 3.561
0.845 1.141 3.357
0.750 1.340 3.183
0.704 1.453 3.124
0.557 1.701 2.968
0.497 1.777 2.865
0.511 1.997 2.587
0.326 2.120 2.550
1.002 0.666 4.093
0.955 0.828 3.933
0.799 0.958 3.789
0.813 1.030 3.703
0.656 1.205 3.478
0.567 1.375 3.319
0.515 1.467 3.262
0.456 1.680 3.116
0.304 1.853 2.955
0.257 1.980 2.788
0.219 2.074 2.601
0.717 0.802 4.072
0.698 0.999 4.013
0.604 1.124 3.861
0.468 1.237 3.589
0.372 1.472 3.561
0.337 1.584 3.415
0.285 1.750 3.175
0.230 1.877 3.041
0.035 2.002 2.880
0.509 1.030 4.061
0.355 1.204 3.990
0.264 1.262 3.716
0.217 1.491 3.683
0.173 1.581 3.426
0.052 1.771 3.359
0.227 1.225 4.081
0.151 1.321 3.852
-0.007 1.516 3.710
0.849 0.093 5.634
0.082 1.418 4.338
0.104 1.553 4.188
0.761 0.006 5.818
0.672 0.152 5.651
0.496 0.120 5.886
0.501 0.272 5.713
0.378 0.130 6.044
0.252 0.265 5.882
0.113 0.113 6.209
0.156 0.254 6.023
2.734 0.035 3.895
2.600 0.145 3.809
2.554 0.351 3.559
2.516 0.478 3.459
2.324 0.603 3.296
2.300 0.789 3.225
2.600 -0.002 3.984
2.480 0.250 3.853
2.368 0.314 3.769
2.336 0.528 3.648
2.266 0.639 3.468
2.131 0.819 3.286
1.988 0.893 3.102
2.310 0.100 4.213
2.307 0.265 3.962
2.163 0.405 3.868
2.117 0.516 3.725
2.076 0.700 3.582
1.895 0.886 3.470
1.897 0.963 3.218
1.711 1.094 3.188
2.246 0.072 4.283
2.110 0.308 4.085
1.991 0.368 3.960
1.988 0.565 3.886
1.888 0.737 3.764
1.824 0.864 3.587
1.715 0.983 3.386
1.600 1.131 3.252
1.502 1.357 3.094
2.057 0.191 4.451
1.905 0.307 4.264
1.769 0.426 4.145
1.718 0.566 3.934
1.607 0.782 3.860
1.517 0.885 3.703
1.546 1.016 3.597
1.350 1.198 3.357
1.332 1.387 3.233
1.197 1.468 3.144
1.166 1.656 2.995
1.649 0.509 4.256
1.580 0.592 4.075
1.544 0.740 3.940
1.365 0.915 3.868
1.377 0.990 3.704
1.276 1.167 3.461
1.081 1.410 3.328
1.103 1.492 3.287
0.930 1.602 3.031
0.909 1.854 2.977
1.431 0.613 4.228
1.234 0.825 4.065
1.153 0.911 3.965
1.067 1.048 3.738
1.024 1.206 3.662
0.956 1.345 3.442
0.840 1.462 3.362
0.814 1.668 3.184
0.689 1.801 3.110
0.667 1.927 2.929
0.524 2.130 2.741
1.121 0.830 4.246
1.013 0.985 4.127
0.945 1.058 3.983
0.917 1.312 3.773
0.795 1.369 3.649
0.685 1.506 3.528
0.617 1.721 3.348
0.471 1.814 3.171
0.476 1.926 3.023
0.366 2.135 2.930
0.914 0.981 4.181
0.838 1.168 4.023
0.715 1.330 3.857
0.576 1.434 3.736
0.520 1.519 3.585
0.417 1.674 3.472
0.336 1.933 3.264
0.324 1.973 3.188
0.190 2.134 3.087
0.567 1.208 4.209
0.533 1.254 3.986
0.366 1.416 3.919
0.313 1.631 3.719
0.209 1.726 3.590
0.233 1.892 3.510
0.025 2.004 3.273
0.026 2.162 3.183
0.350 1.144 4.254
0.273 1.369 4.104
0.201 1.436 4.040
0.120 1.608 3.818
0.074 1.725 3.663
0.905 0.020 5.665
0.124 1.386 4.345
0.063 1.452 4.090
1.056 0.064 5.873
0.976 0.243 5.724
0.180 1.538 4.375
0.210 1.653 4.217
0.075 1.811 4.149
0.922 0.073 6.066
0.827 0.184 5.837
0.114 1.558 4.537
0.680 0.059 6.191
0.689 0.271 5.969
0.487 0.115 6.302
0.404 0.263 6.077
0.252 0.250 6.282
2.919 0.078 4.104
2.826 0.153 3.955
2.802 0.317 3.833
2.654 0.471 3.710
2.567 0.677 3.558
2.442 0.813 3.427
2.391 0.883 3.314
2.788 0.088 4.241
2.617 0.220 4.196
2.498 0.319 3.960
2.522 0.471 3.849
2.399 0.706 3.685
2.331 0.772 3.529
2.158 1.005 3.408
2.150 1.078 3.297
2.541 0.158 4.389
2.482 0.281 4.304
2.379 0.371 4.178
2.281 0.612 4.032
2.214 0.697 3.777
2.141 0.854 3.684
2.061 0.974 3.563
1.977 1.113 3.316
1.848 1.262 3.175
2.371 0.134 4.583
2.259 0.268 4.440
2.175 0.367 4.234
2.138 0.568 4.079
2.090 0.770 3.910
1.937 0.877 3.871
1.843 1.049 3.687
1.760 1.172 3.573
1.642 1.378 3.353
1.609 1.403 3.238
2.023 0.428 4.322
1.994 0.665 4.203
1.799 0.739 4.048
1.824 0.912 3.992
1.690 1.055 3.781
1.544 1.225 3.619
1.541 1.281 3.550
1.414 1.539 3.327
1.303 1.645 3.166
1.693 0.600 4.336
1.604 0.836 4.176
1.644 0.923 4.015
1.523 1.005 3.964
1.419 1.227 3.792
1.327 1.412 3.600
1.188 1.490 3.503
1.228 1.656 3.278
1.057 1.748 3.146
0.970 1.903 3.006
1.509 0.809 4.289
1.420 0.893 4.148
1.326 1.156 3.983
1.301 1.222 3.955
1.144 1.436 3.787
1.123 1.502 3.578
0.985 1.704 3.477
0.892 1.884 3.374
0.754 2.001 3.102
0.727 2.085 2.979
1.163 0.984 4.319
1.152 1.079 4.113
1.015 1.273 4.011
0.908 1.391 3.839
0.838 1.590 3.782
0.795 1.718 3.537
0.747 1.891 3.452
0.683 1.966 3.363
0.533 2.132 3.124
0.911 1.149 4.312
0.934 1.245 4.211
0.832 1.488 4.066
0.658 1.574 3.886
0.673 1.740 3.773
0.482 1.947 3.596
0.393 2.052 3.370
0.358 2.203 3.277
0.760 1.228 4.500
0.677 1.360 4.226
0.669 1.421 4.089
0.514 1.646 3.970
0.445 1.708 3.833
0.292 1.953 3.676
0.273 2.080 3.566
0.145 2.175 3.367
1.315 0.044 5.813
0.477 1.301 4.423
0.473 1.495 4.312
0.320 1.678 4.070
0.292 1.733 4.042
0.133 1.902 3.877
0.069 2.055 3.618
-0.030 2.218 3.602
1.118 0.036 5.882
0.934 0.218 5.754
0.231 1.561 4.454
0.157 1.676 4.208
0.012 1.815 4.147
1.233 0.137 6.180
1.213 0.174 6.028
1.038 0.416 5.860
0.453 1.608 4.670
0.413 1.707 4.576
0.228 1.910 4.380
0.229 2.048 4.258
0.045 2.150 4.023
-0.029 2.316 3.908
1.128 0.099 6.321
1.042 0.228 6.172
0.960 0.454 6.033
0.268 1.630 4.782
0.192 1.756 4.630
0.098 1.875 4.519
-0.061 2.010 4.353
0.829 0.246 6.281
0.774 0.399 6.046
0.620 0.461 6.281
3.115 0.025 4.370
2.961 0.208 4.231
2.862 0.410 4.062
2.815 0.466 4.025
2.799 0.719 3.779
2.641 0.783 3.672
2.599 0.919 3.548
2.508 1.094 3.410
2.833 0.280 4.460
2.789 0.395 4.255
2.705 0.581 4.071
2.550 0.694 3.982
2.475 0.848 3.854
2.424 0.937 3.607
2.313 1.163 3.551
2.293 1.327 3.318
2.636 0.239 4.472
2.573 0.431 4.381
2.512 0.525 4.184
2.427 0.712 4.071
2.300 0.825 3.898
2.258 0.965 3.726
2.198 1.182 3.687
2.087 1.335 3.439
1.968 1.414 3.387
2.327 0.512 4.514
2.289 0.654 4.420
2.204 0.692 4.234
2.196 0.916 4.129
2.045 1.061 3.937
1.956 1.148 3.803
1.913 1.389 3.591
1.763 1.528 3.426
1.695 1.602 3.395
2.097 0.615 4.482
1.997 0.732 4.393
1.978 0.873 4.193
1.914 1.058 4.087
1.728 1.215 3.918
1.746 1.327 3.708
1.678 1.555 3.552
1.489 1.681 3.398
1.446 1.751 3.247
1.867 0.754 4.504
1.709 0.966 4.361
1.745 1.054 4.127
1.557 1.210 3.963
1.584 1.454 3.892
1.420 1.528 3.719
1.291 1.613 3.629
1.299 1.854 3.441
1.215 1.938 3.304
1.531 0.988 4.469
1.563 1.055 4.303
1.409 1.243 4.145
1.310 1.380 4.055
1.246 1.502 3.839
1.200 1.775 3.774
1.117 1.921 3.549
0.961 1.950 3.464
0.940 2.118 3.297
1.344 1.108 4.499
1.272 1.306 4.345
1.110 1.394 4.161
1.007 1.644 4.017
1.053 1.726 3.899
0.954 1.915 3.665
0.756 2.079 3.501
0.754 2.223 3.346
1.077 1.370 4.445
0.961 1.407 4.255
0.918 1.570 4.064
0.846 1.793 3.978
0.751 1.876 3.839
0.625 2.051 3.712
0.598 2.178 3.468
0.428 2.388 3.325
1.654 0.021 5.942
0.855 1.382 4.489
0.855 1.459 4.450
0.702 1.627 4.197
0.683 1.741 4.161
0.479 1.903 3.941
0.398 2.077 3.853
0.405 2.182 3.626
0.335 2.383 3.496
1.504 0.099 6.011
1.326 0.145 5.819
0.763 1.368 4.623
0.626 1.496 4.565
0.588 1.643 4.415
0.502 1.779 4.198
0.431 2.023 4.103
0.214 2.175 3.900
0.137 2.241 3.755
0.098 2.371 3.582
1.273 0.038 6.087
1.126 0.164 5.924
1.062 0.371 5.806
0.431 1.583 4.627
0.393 1.633 4.548
0.202 1.797 4.359
0.152 2.050 4.281
0.119 2.111 4.130
0.030 2.338 3.944
1.355 0.293 6.301
1.353 0.422 6.137
1.198 0.491 5.953
0.471 1.650 4.705
0.417 1.804 4.586
0.337 2.004 4.476
0.273 2.100 4.322
0.229 2.296 4.241
0.091 2.485 3.970
0.070 2.550 3.857
1.045 0.368 6.170
0.979 0.584 6.143
0.307 1.710 4.933
0.228 1.931 4.703
0.135 2.009 4.536
0.167 2.134 4.430
-0.040 2.340 4.361
0.848 0.651 6.178
0.162 1.743 4.990
0.148 1.983 4.822
0.025 2.083 4.688
3.099 0.357 4.394
3.089 0.604 4.282
2.970 0.653 4.032
2.799 0.813 3.893
2.723 0.945 3.848
2.729 1.095 3.674
2.648 1.286 3.536
1.805 2.600 2.119
1.721 2.695 2.035
2.882 0.351 4.454
2.806 0.595 4.298
2.714 0.731 4.229
2.725 0.817 3.997
2.660 0.989 3.867
2.488 1.195 3.831
2.462 1.291 3.649
2.327 1.381 3.442
2.607 0.621 4.538
2.578 0.733 4.272
2.559 0.817 4.186
2.373 1.092 4.014
2.369 1.126 3.842
2.212 1.265 3.696
2.148 1.520 3.551
2.414 0.726 4.433
2.256 0.886 4.357
2.281 1.100 4.131
2.110 1.147 3.973
2.052 1.320 3.926
2.026 1.435 3.769
1.966 1.627 3.611
2.009 1.078 4.305
2.016 1.171 4.216
1.928 1.383 4.026
1.777 1.514 3.871
1.737 1.632 3.656
1.810 1.125 4.466
1.739 1.241 4.345
1.687 1.415 4.119
1.622 1.588 4.035
1.569 1.723 3.881
1.391 1.851 3.757
1.395 1.965 3.583
1.660 1.292 4.481
1.459 1.418 4.296
1.453 1.550 4.089
1.291 1.699 3.963
1.222 1.913 3.763
1.169 2.046 3.708
1.125 2.206 3.538
1.491 1.255 4.543
1.330 1.428 4.393
1.268 1.593 4.197
1.197 1.791 4.077
1.086 1.849 3.940
1.062 2.082 3.761
0.921 2.202 3.615
0.828 2.411 3.524
2.065 -0.017 5.951
1.874 0.154 5.862
1.132 1.453 4.495
1.094 1.574 4.369
1.052 1.759 4.279
0.967 1.870 4.114
0.801 2.069 3.959
0.753 2.195 3.796
0.600 2.374 3.644
1.799 0.019 6.091
1.684 0.167 5.996
1.599 0.394 5.903
0.998 1.481 4.633
0.928 1.712 4.562
0.837 1.869 4.335
0.667 1.953 4.214
0.704 2.037 4.050
0.513 2.239 3.930
0.474 2.395 3.722
0.344 2.566 3.589
1.662 0.117 6.270
1.532 0.248 6.170
1.492 0.376 5.977
0.822 1.537 4.782
0.708 1.675 4.698
0.614 1.895 4.513
0.553 1.938 4.283
0.467 2.162 4.256
0.319 2.216 4.031
0.255 2.491 3.919
0.274 2.611 3.729
1.338 0.274 6.295
1.326 0.370 6.137
1.172 0.532 5.953
0.528 1.741 4.777
0.469 1.837 4.601
0.429 2.029 4.428
0.349 2.140 4.282
0.138 2.243 4.199
0.084 2.506 4.089
0.096 2.557 3.866
1.390 0.611 6.247
1.265 0.696 6.024
0.662 1.744 5.020
0.657 1.855 4.903
0.557 1.987 4.709
0.417 2.137 4.561
0.356 2.342 4.465
0.259 2.447 4.325
0.158 2.659 4.120
0.073 2.774 3.998
0.599 1.829 5.161
0.481 1.934 4.987
0.426 2.059 4.824
0.352 2.163 4.738
0.191 2.400 4.506
0.158 2.564 4.449
0.088 2.616 4.319
0.422 1.854 5.294
0.304 1.897 5.122
0.172 2.121 4.938
0.044 2.175 4.832
0.044 2.366 4.735
0.160 1.846 5.366
0.071 1.992 5.210
0.058 2.151 5.079
3.107 0.698 4.353
3.082 0.897 4.169
2.954 0.946 4.098
2.878 1.095 3.890
2.816 1.241 3.732
2.683 1.411 3.633
2.017 2.787 2.304
1.877 2.905 2.081
2.994 0.785 4.442
2.837 0.895 4.336
2.727 1.045 4.227
2.684 1.206 3.976
2.635 1.316 3.881
2.542 1.429 3.748
1.794 2.839 2.395
1.635 2.971 2.290
2.602 1.046 4.338
2.537 1.144 4.093
2.392 1.336 4.023
2.326 1.492 3.915
2.396 1.223 4.218
2.317 1.426 4.200
2.201 1.498 4.019
1.928 1.500 4.051
1.753 1.552 4.267
1.749 1.769 4.140
1.620 1.860 3.986
1.648 1.571 4.438
1.507 1.811 4.224
1.436 1.896 4.141
1.440 1.999 3.937
2.335 -0.042 6.156
2.308 0.141 5.960
2.230 0.292 5.802
1.450 1.669 4.567
1.326 1.794 4.306
1.225 1.861 4.155
1.220 2.099 4.058
1.075 2.206 3.931
0.994 2.340 3.790
2.222 0.043 6.218
2.116 0.240 6.049
2.032 0.330 5.982
1.285 1.657 4.701
1.121 1.765 4.453
1.107 1.996 4.363
1.018 2.036 4.238
0.933 2.207 3.996
0.834 2.331 3.922
1.941 0.248 6.257
1.852 0.346 6.033
1.710 0.541 5.937
1.021 1.702 4.702
1.007 1.790 4.639
0.921 1.942 4.447
0.824 2.188 4.363
0.714 2.209 4.125
0.614 2.387 3.983
0.591 2.525 3.946
1.661 0.343 6.197
1.587 0.588 6.107
0.900 1.773 4.861
0.795 1.906 4.703
0.695 2.068 4.551
0.591 2.162 4.447
0.611 2.354 4.262
0.538 2.460 4.166
0.428 2.617 3.977
1.446 0.500 6.217
1.257 0.675 6.073
0.713 1.797 5.055
0.657 1.865 4.818
0.596 2.058 4.790
0.419 2.192 4.519
0.358 2.389 4.487
0.294 2.433 4.333
0.255 2.603 4.139
0.175 2.744 3.988
1.417 0.899 6.143
0.764 2.111 5.007
0.619 2.140 4.843
0.627 2.380 4.629
0.544 2.540 4.570
0.356 2.658 4.424
0.270 2.786 4.278
0.197 2.874 4.097
0.653 1.934 5.252
0.581 2.035 5.181
0.477 2.185 5.020
0.389 2.345 4.788
0.335 2.510 4.713
0.262 2.674 4.503
0.102 2.755 4.433
0.015 2.920 4.290
0.434 1.947 5.329
0.440 2.086 5.297
0.270 2.302 5.135
0.215 2.432 4.971
0.077 2.573 4.774
0.026 2.639 4.596
0.301 1.929 5.536
0.262 2.197 5.321
0.096 2.218 5.243
0.055 2.408 5.082
0.168 1.871 5.847
0.081 2.058 5.635
-0.011 2.111 5.443
-0.059 1.842 5.876
3.218 0.909 4.401
3.168 1.062 4.256
3.022 1.193 4.097
2.992 1.293 3.965
2.878 1.487 3.910
2.162 2.813 2.519
2.090 2.936 2.422
1.944 3.113 2.200
1.988 2.842 2.700
1.942 2.976 2.467
1.789 3.143 2.422
1.736 3.013 2.705
1.642 3.148 2.517
1.440 3.183 2.622
2.862 0.136 5.927
2.775 0.211 5.768
2.692 0.004 6.289
2.701 0.199 6.066
2.516 0.302 6.005
2.419 0.422 5.824
2.503 0.182 6.245
2.356 0.340 6.074
2.287 0.484 5.875
2.225 0.671 5.729
2.225 0.351 6.281
2.117 0.450 6.015
2.065 0.581 5.989
1.352 2.033 4.540
1.198 2.071 4.457
1.123 2.299 4.361
0.992 2.368 4.198
0.926 2.543 4.002
1.930 0.465 6.172
1.899 0.610 6.022
1.723 0.839 5.931
1.084 1.942 4.786
0.986 2.168 4.541
0.954 2.358 4.385
0.887 2.476 4.248
0.836 2.581 4.141
0.718 2.694 3.962
1.663 0.644 6.132
1.566 0.850 5.983
0.863 2.023 4.836
0.782 2.216 4.715
0.707 2.326 4.612
0.695 2.519 4.348
0.563 2.561 4.247
0.537 2.777 4.154
1.347 0.881 6.150
0.770 1.989 4.961
0.597 2.141 4.791
0.511 2.316 4.692
0.518 2.508 4.541
0.355 2.636 4.434
0.267 2.776 4.196
0.251 2.908 4.119
1.528 1.007 6.323
0.861 2.200 5.054
0.706 2.347 4.904
0.641 2.485 4.806
0.626 2.722 4.659
0.549 2.776 4.543
0.370 3.009 4.378
0.363 3.117 4.203
0.795 2.164 5.387
0.685 2.245 5.168
0.645 2.347 5.049
0.436 2.542 4.959
0.469 2.632 4.800
0.339 2.793 4.611
0.217 2.966 4.555
0.194 3.191 4.352
0.522 2.081 5.451
0.523 2.323 5.299
0.363 2.390 5.196
0.294 2.535 5.061
0.299 2.706 4.855
0.127 2.904 4.790
0.130 2.967 4.675
0.381 2.203 5.669
0.346 2.322 5.429
0.167 2.409 5.309
0.193 2.597 5.189
0.032 2.681 5.071
0.308 1.999 5.852
0.177 2.119 5.728
0.073 2.297 5.673
0.020 2.472 5.454
0.201 1.881 6.155
0.046 2.004 6.023
0.081 2.265 5.828
2.349 2.841 2.745
2.317 2.884 2.600
2.147 3.157 2.475
2.138 3.213 2.327
2.104 2.959 2.760
1.982 3.068 2.636
1.924 3.208 2.444
3.570 0.050 5.829
1.866 3.052 2.949
1.764 3.114 2.716
1.756 3.256 2.644
3.357 0.064 5.992
3.316 0.277 5.826
1.586 3.176 2.890
1.594 3.344 2.771
3.174 0.135 6.156
3.176 0.219 5.899
2.998 0.370 5.784
1.368 3.294 2.910
2.967 0.111 6.266
2.909 0.270 6.103
2.863 0.438 5.910
2.744 0.647 5.733
2.747 0.322 6.148
2.736 0.527 6.113
2.551 0.634 5.958
2.458 0.802 5.745
2.523 0.495 6.174
2.356 0.704 5.988
2.271 0.814 5.952
2.228 0.623 6.135
2.208 0.879 6.071
2.041 0.982 5.844
1.959 0.861 6.198
1.929 0.962 6.003
1.072 2.293 4.690
1.037 2.451 4.517
0.975 2.599 4.438
0.861 2.786 4.252
1.721 1.010 6.084
1.057 2.155 4.996
0.918 2.297 4.832
0.808 2.502 4.635
0.803 2.652 4.571
0.695 2.720 4.364
0.590 2.875 4.243
1.478 0.999 6.333
0.836 2.174 5.089
0.791 2.350 4.932
0.706 2.528 4.794
0.529 2.706 4.668
0.528 2.763 4.487
0.472 2.943 4.421
0.280 3.088 4.237
0.811 2.565 5.051
0.847 2.672 4.861
0.707 2.893 4.749
0.583 2.977 4.662
0.532 3.139 4.424
0.445 3.271 4.255
0.802 2.409 5.340
0.721 2.604 5.190
0.611 2.679 5.036
0.470 2.825 4.873
0.386 2.945 4.774
0.321 3.128 4.617
0.285 3.341 4.453
0.709 2.289 5.656
0.554 2.405 5.427
0.515 2.629 5.305
0.358 2.799 5.194
0.348 2.948 4.989
0.218 3.086 4.844
0.226 3.117 4.780
0.138 3.310 4.643
0.543 2.322 5.687
0.425 2.422 5.542
0.358 2.580 5.495
0.283 2.736 5.317
0.127 2.950 5.183
0.118 3.102 5.069
0.401 2.253 6.065
0.365 2.406 5.925
0.276 2.529 5.707
0.115 2.655 5.582
0.113 2.844 5.368
0.159 2.250 6.215
0.183 2.363 5.948
0.030 2.573 5.822
-0.030 2.253 6.329
2.439 2.982 2.930
2.376 3.087 2.692
2.222 3.207 2.548
2.120 3.432 2.426
3.892 0.100 5.936
2.204 3.009 3.031
2.148 3.193 2.925
2.112 3.352 2.761
1.947 3.478 2.567
3.791 0.034 6.071
3.644 0.225 5.930
2.138 3.029 3.177
2.041 3.141 3.069
1.909 3.317 2.873
1.795 3.412 2.729
3.627 0.131 6.270
3.527 0.210 6.085
3.430 0.396 5.918
1.807 3.229 3.109
1.786 3.286 2.937
1.627 3.441 2.888
3.263 0.253 6.252
3.168 0.380 6.024
3.118 0.541 5.963
1.412 3.518 3.002
3.049 0.476 6.185
2.900 0.561 5.993
2.863 0.751 5.860
2.767 0.921 5.815
2.816 0.620 6.207
2.740 0.833 6.050
2.621 0.939 5.946
2.457 1.011 5.680
2.482 0.764 6.166
2.393 0.941 6.057
2.409 1.127 5.868
2.215 1.033 6.103
2.117 1.076 6.021
2.000 1.036 6.241
1.917 1.122 6.190
1.811 1.205 6.303
1.010 2.545 4.957
0.894 2.593 4.789
0.876 2.829 4.660
0.808 2.959 4.515
0.745 3.159 4.310
0.844 2.581 5.016
0.791 2.620 4.956
0.727 2.872 4.720
0.617 2.962 4.650
0.571 3.063 4.405
0.484 3.264 4.309
0.906 2.704 5.154
0.930 2.797 5.077
0.842 2.991 4.840
0.771 3.105 4.779
0.611 3.336 4.554
0.595 3.406 4.387
0.915 2.540 5.453
0.830 2.670 5.357
0.694 2.829 5.080
0.579 3.077 4.954
0.562 3.178 4.816
0.506 3.253 4.735
0.410 3.452 4.608
0.280 3.612 4.386
0.728 2.650 5.508
0.625 2.796 5.359
0.468 2.946 5.334
0.381 3.112 5.104
0.374 3.237 5.024
0.204 3.373 4.881
0.156 3.537 4.701
0.073 3.662 4.558
0.541 2.555 5.907
0.506 2.673 5.761
0.395 2.792 5.597
0.407 2.992 5.466
0.211 3.062 5.252
0.136 3.232 5.063
0.026 3.335 4.951
0.064 3.560 4.809
0.427 2.395 6.191
0.349 2.465 5.910
0.320 2.727 5.840
0.304 2.843 5.664
0.169 2.894 5.569
0.104 3.083 5.424
0.374 2.376 6.302
0.257 2.511 6.174
0.122 2.749 5.994
0.124 2.844 5.852
-0.016 2.613 6.250
4.303 0.001 6.137
2.570 2.947 3.193
2.588 3.186 2.964
2.479 3.294 2.798
2.392 3.418 2.692
2.262 3.589 2.496
4.242 0.105 6.055
4.099 0.129 6.242
4.023 0.198 6.076
2.500 3.025 3.246
2.410 3.152 3.138
2.271 3.262 2.983
2.229 3.521 2.790
2.044 3.578 2.665
4.172 0.089 6.188
3.837 0.314 6.269
3.763 0.409 6.048
2.304 3.106 3.448
2.203 3.254 3.326
2.160 3.302 3.119
2.017 3.426 3.027
1.919 3.591 2.877
3.539 0.422 6.224
3.536 0.576 6.072
1.925 3.410 3.196
1.769 3.495 3.030
1.787 3.608 3.014
3.287 0.619 6.166
3.295 0.742 6.031
3.169 0.855 5.844
1.710 3.477 3.259
1.609 3.684 3.037
3.015 0.739 6.099
3.016 0.988 5.980
2.830 1.111 5.814
2.757 1.007 6.139
2.712 1.130 5.994
2.581 1.237 5.821
2.572 1.364 5.744
2.585 0.925 6.316
2.560 1.095 6.081
2.458 1.246 6.015
2.377 1.469 5.877
2.386 1.166 6.189
2.245 1.284 6.122
2.143 1.380 6.019
2.124 1.309 6.262
1.932 1.415 6.151
1.812 1.431 6.162
0.995 2.676 5.190
0.895 2.836 5.046
0.818 3.050 4.873
0.663 3.136 4.710
0.630 3.331 4.611
0.483 3.389 4.442
0.857 3.179 4.942
0.792 3.371 4.838
0.739 3.434 4.641
0.659 3.580 4.468
0.841 2.837 5.411
0.796 3.034 5.218
0.721 3.146 5.123
0.592 3.399 4.975
0.572 3.542 4.864
0.411 3.593 4.607
0.373 3.742 4.516
0.844 2.840 5.661
0.735 2.922 5.484
0.623 3.030 5.332
0.526 3.236 5.252
0.507 3.349 5.102
0.377 3.476 5.001
0.246 3.598 4.800
0.173 3.814 4.684
0.123 3.905 4.447
0.632 2.653 5.976
0.646 2.740 5.761
0.508 2.923 5.646
0.382 3.034 5.483
0.304 3.244 5.368
0.258 3.335 5.249
0.210 3.505 5.053
0.041 3.649 4.925
0.027 3.898 4.731
0.649 2.494 6.198
0.524 2.661 6.112
0.399 2.842 5.894
0.317 3.032 5.805
0.253 3.166 5.589
0.202 3.218 5.494
0.073 3.363 5.414
-0.036 3.621 5.247
0.337 2.710 6.166
0.254 2.827 6.115
0.168 3.015 5.942
0.050 3.179 5.755
0.121 2.828 6.194
4.387 0.180 6.179
2.854 2.979 3.448
2.681 3.177 3.255
2.672 3.338 3.151
2.498 3.438 2.945
2.503 3.577 2.756
2.335 3.733 2.637
4.397 0.165 6.258
4.167 0.352 6.222
2.593 3.063 3.578
2.600 3.208 3.426
2.516 3.332 3.277
2.445 3.447 3.114
2.317 3.646 2.972
2.161 3.752 2.787
3.877 0.600 6.179
2.443 3.074 3.695
2.367 3.154 3.579
2.285 3.310 3.408
2.173 3.544 3.279
2.109 3.601 3.050
2.053 3.781 2.944
3.582 0.713 6.192
2.189 3.254 3.658
2.047 3.439 3.529
1.963 3.496 3.398
1.933 3.685 3.268
1.904 3.764 3.080
3.461 0.745 6.238
3.404 0.940 6.119
3.268 1.097 5.996
3.146 1.216 5.778
1.863 3.610 3.463
1.801 3.756 3.341
1.600 3.866 3.191
3.110 0.897 6.292
3.010 1.089 6.121
2.946 1.245 6.000
2.873 1.373 5.854
2.760 1.479 5.666
2.842 1.140 6.188
2.868 1.246 6.136
2.702 1.442 5.909
2.626 1.612 5.771
2.519 1.683 5.638
2.565 1.268 6.202
2.547 1.445 6.116
2.496 1.624 5.998
2.366 1.755 5.752
2.308 1.460 6.145
2.217 1.640 6.096
2.239 1.737 5.935
2.158 1.607 6.143
1.974 1.767 6.101
0.844 3.225 4.990
0.861 3.298 4.876
0.728 3.449 4.714
0.672 3.582 4.601
0.882 3.461 4.905
0.838 3.653 4.734
0.780 3.835 4.668
0.872 3.217 5.386
0.800 3.373 5.177
0.673 3.551 5.068
0.680 3.703 4.940
0.564 3.834 4.801
0.473 4.003 4.681
0.379 4.110 4.440
0.773 3.080 5.646
0.698 3.223 5.487
0.588 3.376 5.282
0.625 3.506 5.207
0.501 3.692 5.093
0.349 3.866 4.947
0.324 4.035 4.711
0.272 4.175 4.555
0.117 4.302 4.489
0.703 2.961 5.970
0.596 3.091 5.788
0.492 3.219 5.688
0.467 3.455 5.529
0.328 3.531 5.266
0.242 3.698 5.216
0.201 3.873 4.989
0.060 4.026 4.820
0.106 4.154 4.676
0.465 2.953 6.031
0.514 3.083 5.885
0.317 3.255 5.756
0.288 3.382 5.673
0.183 3.575 5.427
0.075 3.710 5.374
-0.019 3.834 5.140
0.343 2.971 6.156
0.218 3.144 5.991
0.126 3.288 5.914
0.038 3.476 5.789
-0.016 3.630 5.628
0.116 3.192 6.161
0.028 3.349 5.956
2.970 3.009 3.657
2.967 3.198 3.449
2.862 3.278 3.374
2.787 3.406 3.206
2.660 3.586 3.061
2.602 3.716 2.918
2.525 3.861 2.819
2.811 3.044 3.828
2.773 3.215 3.687
2.596 3.395 3.450
2.498 3.521 3.293
2.473 3.646 3.190
2.419 3.818 3.028
2.353 3.879 2.957
2.656 3.044 3.983
2.490 3.295 3.771
2.448 3.410 3.628
2.440 3.461 3.430
2.283 3.664 3.287
2.195 3.828 3.211
2.083 3.961 3.023
3.674 0.871 6.251
2.457 3.160 4.054
2.425 3.215 3.877
2.224 3.349 3.713
2.241 3.579 3.642
2.146 3.695 3.495
2.083 3.819 3.285
1.938 4.051 3.226
3.413 1.014 6.182
3.343 1.246 6.146
3.229 1.412 5.964
1.963 3.745 3.615
1.839 3.930 3.430
1.833 3.993 3.253
3.221 1.217 6.266
3.151 1.456 6.026
3.074 1.608 5.996
2.900 1.639 5.729
2.897 1.879 5.591
2.824 1.978 5.450
2.869 1.371 6.178
2.837 1.597 6.023
2.696 1.660 5.890
2.718 1.857 5.719
2.532 2.074 5.649
2.672 1.639 6.199
2.548 1.762 6.030
2.543 1.897 5.959
2.407 2.096 5.803
2.324 1.710 6.155
2.301 1.864 5.994
2.158 2.031 5.927
2.128 1.976 6.159
2.035 2.081 6.020
0.859 3.415 4.997
0.891 3.605 4.827
0.796 3.834 4.673
0.867 3.986 4.734
0.785 3.666 5.186
0.812 3.825 5.056
0.740 3.952 4.853
0.571 4.167 4.716
0.446 4.259 4.626
0.780 3.355 5.649
0.721 3.502 5.456
0.665 3.735 5.267
0.608 3.873 5.148
0.440 3.987 5.014
0.437 4.189 4.840
0.384 4.345 4.732
0.197 4.472 4.510
0.613 3.426 5.692
0.571 3.540 5.624
0.532 3.692 5.478
0.343 3.853 5.262
0.258 4.038 5.165
0.241 4.163 4.984
0.114 4.366 4.792
0.009 4.445 4.723
0.586 3.300 6.074
0.475 3.480 5.874
0.355 3.656 5.720
0.330 3.759 5.618
0.180 3.928 5.445
0.189 4.092 5.318
-0.016 4.199 5.129
0.359 3.341 6.123
0.281 3.497 6.010
0.206 3.668 5.880
0.181 3.771 5.737
-0.018 3.976 5.526
0.234 3.320 6.280
0.081 3.542 6.137
0.063 3.706 6.024
3.162 3.096 3.933
3.167 3.142 3.708
2.993 3.305 3.643
2.970 3.447 3.451
2.854 3.588 3.276
2.754 3.794 3.174
2.651 3.971 3.017
2.599 4.053 2.856
3.048 2.881 4.150
2.975 3.115 4.096
2.858 3.283 3.830
2.806 3.408 3.814
2.752 3.563 3.563
2.706 3.614 3.401
2.569 3.828 3.330
2.489 3.981 3.166
2.396 4.119 3.074
2.955 2.784 4.536
2.908 2.931 4.356
2.795 3.108 4.134
2.783 3.230 3.968
2.710 3.413 3.831
2.513 3.573 3.739
2.547 3.634 3.522
2.355 3.851 3.470
2.261 3.936 3.299
2.248 4.171 3.178
2.805 2.871 4.556
2.738 3.021 4.459
2.667 3.093 4.355
2.502 3.287 4.137
2.516 3.459 3.997
2.375 3.639 3.877
2.241 3.786 3.754
2.167 3.836 3.591
2.168 4.070 3.409
2.067 4.225 3.248
3.462 1.398 6.262
3.400 1.611 6.089
3.278 1.653 5.878
3.177 1.806 5.811
3.115 1.917 5.600
3.113 2.136 5.449
2.996 2.220 5.292
2.944 2.383 5.229
2.808 2.597 4.979
2.697 2.716 4.921
2.656 2.811 4.747
2.584 3.011 4.555
2.430 3.150 4.488
2.379 3.241 4.297
2.349 3.438 4.123
2.184 3.608 3.952
2.063 3.710 3.867
2.103 3.937 3.645
2.007 4.088 3.548
1.923 4.176 3.345
3.264 1.517 6.154
3.140 1.759 6.075
3.005 1.898 5.849
2.972 1.983 5.706
2.904 2.174 5.572
2.770 2.242 5.418
2.688 2.423 5.309
2.622 2.644 5.204
2.974 1.799 6.139
2.846 1.845 6.007
2.824 2.015 5.894
2.711 2.166 5.741
2.665 2.332 5.630
2.558 2.453 5.371
2.452 2.571 5.260
2.607 1.918 6.137
2.589 2.082 5.950
2.460 2.261 5.834
2.375 2.413 5.686
2.275 2.558 5.600
2.533 1.907 6.341
2.453 2.031 6.172
2.263 2.268 5.935
2.250 2.319 5.808
2.276 2.119 6.265
2.127 2.253 6.107
2.000 2.435 5.994
0.798 3.923 4.809
0.990 4.047 4.808
0.921 4.260 4.771
0.813 4.367 4.575
0.975 3.893 5.272
0.817 3.943 5.151
0.822 4.136 4.946
0.759 4.295 4.818
0.617 4.432 4.655
0.469 4.631 4.529
0.832 3.781 5.508
0.776 3.879 5.402
0.690 4.063 5.313
0.652 4.110 5.138
0.477 4.252 5.006
0.408 4.385 4.772
0.368 4.585 4.695
0.647 3.735 5.680
0.517 3.886 5.597
0.464 4.023 5.414
0.412 4.141 5.238
0.335 4.315 5.042
0.231 4.497 5.022
0.116 4.630 4.803
0.497 3.713 5.763
0.421 3.944 5.693
0.361 4.114 5.578
0.179 4.262 5.361
0.110 4.346 5.249
0.087 4.461 5.093
0.342 3.842 5.991
0.193 3.889 5.760
0.151 4.127 5.592
0.003 4.227 5.476
0.100 3.758 6.023
0.105 4.038 5.886
3.487 2.938 4.330
3.363 3.024 4.198
3.264 3.176 4.028
3.211 3.323 3.922
3.075 3.564 3.704
3.075 3.689 3.560
2.994 3.833 3.431
2.801 4.020 3.350
2.779 4.133 3.088
2.674 4.265 3.005
3.322 2.919 4.473
3.133 3.035 4.356
3.114 3.283 4.123
2.976 3.447 4.038
2.941 3.562 3.846
2.806 3.671 3.673
2.834 3.851 3.514
2.729 4.021 3.474
2.596 4.175 3.252
2.548 4.331 3.166
3.298 2.689 4.895
3.147 2.796 4.767
3.076 2.981 4.616
3.031 3.069 4.368
2.992 3.226 4.291
2.839 3.386 4.149
2.805 3.526 4.033
2.715 3.671 3.863
2.587 3.903 3.710
2.510 3.953 3.512
2.399 4.161 3.410
2.276 4.358 3.287
3.266 2.391 5.314
3.152 2.623 5.186
3.140 2.688 5.018
3.012 2.850 4.917
2.875 2.952 4.714
2.891 3.187 4.575
2.710 3.300 4.383
2.693 3.427 4.259
2.603 3.595 4.121
2.523 3.780 3.941
2.369 3.870 3.856
2.345 4.047 3.623
2.233 4.149 3.491
2.113 4.395 3.448
3.350 2.029 5.859
3.216 2.132 5.773
3.118 2.336 5.632
3.081 2.439 5.435
2.930 2.557 5.319
2.901 2.704 5.158
2.875 2.908 4.918
2.667 3.041 4.810
2.695 3.130 4.733
2.539 3.330 4.526
2.484 3.491 4.342
2.430 3.686 4.286
2.335 3.798 4.098
3.230 1.818 6.190
3.178 2.072 6.012
3.009 2.213 5.852
2.964 2.357 5.686
2.948 2.485 5.507
2.809 2.653 5.450
2.704 2.805 5.239
2.665 2.944 5.149
2.588 3.068 4.930
2.516 3.207 4.752
2.393 3.298 4.699
3.056 1.866 6.329
2.977 2.119 6.063
2.880 2.148 5.972
2.718 2.334 5.858
2.753 2.554 5.674
2.686 2.617 5.542
2.594 2.797 5.441
2.425 2.977 5.291
2.375 3.116 5.066
2.717 2.071 6.251
2.751 2.185 6.071
2.636 2.402 5.989
2.489 2.520 5.807
2.488 2.690 5.625
2.342 2.812 5.569
2.462 2.306 6.231
2.422 2.470 6.049
2.277 2.529 5.976
2.218 2.738 5.746
2.137 2.863 5.635
2.280 2.466 6.212
2.201 2.596 6.089
2.100 2.779 5.914
1.967 2.607 6.190
0.915 4.039 4.905
0.827 4.241 4.663
0.789 4.436 4.600
1.000 4.294 4.924
1.026 4.434 4.819
0.841 4.584 4.702
0.869 4.774 4.556
0.947 4.095 5.257
0.929 4.237 5.135
0.864 4.429 4.926
0.666 4.559 4.811
0.638 4.727 4.718
0.844 4.064 5.586
0.813 4.234 5.445
0.713 4.384 5.284
0.551 4.434 5.088
0.471 4.558 4.877
0.430 4.798 4.790
0.712 4.014 5.634
0.652 4.227 5.440
0.538 4.334 5.321
0.443 4.507 5.247
0.299 4.660 5.039
0.327 4.764 4.944
0.441 4.126 5.850
0.433 4.185 5.598
0.403 4.404 5.500
0.250 4.545 5.383
0.107 4.701 5.171
0.068 4.812 5.108
0.306 4.148 5.970
0.241 4.258 5.769
0.107 4.413 5.575
0.018 4.586 5.533
-0.007 4.294 5.904
3.574 2.983 4.612
3.510 3.151 4.437
3.501 3.185 4.302
3.432 3.349 4.143
3.362 3.497 4.000
3.251 3.645 3.878
3.200 3.809 3.703
3.118 3.959 3.593
2.928 4.170 3.400
2.822 4.226 3.215
3.501 2.816 4.907
3.398 2.988 4.755
3.382 3.059 4.561
3.262 3.282 4.443
3.199 3.419 4.300
3.190 3.568 4.124
2.975 3.749 3.941
2.968 3.806 3.778
2.819 3.938 3.635
2.770 4.128 3.488
2.745 4.331 3.398
3.467 2.731 5.141
3.419 2.845 5.010
3.245 3.038 4.786
3.175 3.176 4.667
3.043 3.242 4.488
2.989 3.488 4.370
2.967 3.594 4.240
2.867 3.796 4.090
2.835 3.862 4.005
2.641 4.013 3.773
2.654 4.221 3.611
2.591 4.264 3.484
3.324 2.519 5.416
3.263 2.781 5.320
3.184 2.871 5.152
3.032 3.080 4.970
3.061 3.219 4.875
2.870 3.357 4.730
2.825 3.503 4.464
2.736 3.593 4.420
2.725 3.714 4.289
2.650 3.867 4.123
2.536 4.079 3.979
2.426 4.151 3.727
3.437 2.171 5.936
3.297 2.338 5.886
3.242 2.461 5.742
3.226 2.549 5.511
3.024 2.806 5.371
2.947 2.895 5.250
2.923 3.012 5.041
2.844 3.198 4.904
2.726 3.346 4.795
2.617 3.486 4.601
2.556 3.678 4.529
2.553 3.784 4.398
2.442 3.951 4.248
3.316 2.116 6.316
3.300 2.144 6.105
3.122 2.410 6.009
3.041 2.474 5.870
2.924 2.578 5.626
2.970 2.776 5.474
2.759 2.940 5.314
2.718 3.027 5.261
2.690 3.173 5.018
2.540 3.434 4.993
2.516 3.467 4.745
3.039 2.200 6.290
2.910 2.357 6.038
2.821 2.499 5.907
2.840 2.649 5.776
2.664 2.831 5.695
2.619 3.019 5.545
2.612 3.149 5.369
2.471 3.298 5.253
2.430 3.421 5.075
2.829 2.372 6.267
2.765 2.480 6.061
2.687 2.740 5.874
2.547 2.896 5.757
2.390 2.934 5.646
2.425 3.149 5.467
2.226 3.285 5.356
2.520 2.542 6.159
2.494 2.787 6.034
2.342 2.813 5.929
2.305 3.057 5.802
2.146 3.156 5.559
2.250 2.789 6.231
2.223 2.943 6.025
2.094 3.094 5.946
1.976 2.891 6.210
1.056 4.315 4.965
1.005 4.394 4.838
0.927 4.530 4.739
0.866 4.746 4.577
0.068 1.115 1.428
-0.013 0.928 1.929
0.206 1.148 1.709
0.059 1.337 1.579
0.177 1.040 1.926
-0.003 1.272 1.871
0.051 0.744 2.358
-0.031 0.949 2.308
0.416 1.204 1.968
0.257 1.419 1.847
0.234 1.505 1.709
0.449 0.980 2.429
0.335 1.148 2.191
0.179 1.199 2.088
0.162 1.369 1.912
0.005 1.477 1.812
0.284 0.895 2.685
0.148 1.011 2.461
0.079 1.096 2.318
-0.005 1.319 2.244
0.117 0.913 2.852
0.017 1.025 2.626
0.446 1.416 2.126
0.459 1.502 1.872
0.393 1.695 1.738
0.699 0.789 2.758
0.550 0.914 2.658
0.493 1.057 2.457
0.347 1.291 2.331
0.262 1.360 2.253
0.211 1.536 2.039
0.103 1.740 1.919
0.477 0.890 2.974
0.367 0.930 2.813
0.257 1.177 2.658
0.257 1.232 2.511
0.075 1.489 2.371
0.115 1.524 2.179
0.310 0.883 3.002
0.241 1.026 2.857
0.099 1.129 2.793
0.048 1.264 2.576
0.059 0.965 3.215
0.063 1.015 3.008
2.004 0.048 3.234
1.771 0.070 3.414
1.722 0.143 3.245
1.557 0.092 3.552
1.557 0.205 3.371
1.442 0.049 3.650
1.355 0.286 3.534
1.279 0.382 3.361
1.245 0.557 3.146
1.134 0.638 3.113
1.061 0.794 2.875
0.934 0.952 2.737
0.805 1.109 2.563
0.704 1.300 2.480
0.702 1.405 2.287
0.578 1.504 2.222
0.551 1.692 2.083
0.423 1.901 1.931
1.066 0.539 3.323
0.941 0.699 3.143
0.861 0.829 2.998
0.755 1.000 2.931
0.630 1.107 2.692
0.608 1.314 2.593
0.560 1.404 2.504
0.386 1.524 2.327
0.404 1.748 2.193
0.242 1.830 1.970
0.821 0.550 3.459
0.692 0.781 3.318
0.715 0.908 3.182
0.554 1.016 3.001
0.507 1.128 2.851
0.383 1.312 2.753
0.333 1.451 2.649
0.190 1.654 2.470
0.144 1.733 2.262
0.044 1.867 2.154
0.568 0.710 3.441
0.511 0.874 3.366
0.446 1.091 3.102
0.333 1.149 3.068
0.292 1.311 2.851
0.117 1.434 2.664
0.074 1.663 2.614
0.305 0.921 3.372
0.273 1.015 3.253
0.070 1.206 3.177
0.009 1.407 2.935
0.124 0.988 3.621
0.090 1.081 3.382
2.311 6.221 6.288
4.591 4.840 6.274
4.005 5.226 6.205
3.978 5.370 6.160
3.861 5.551 6.015
3.788 5.616 5.802
3.755 5.853 5.710
3.675 5.961 5.541
3.622 6.099 5.382
3.542 6.207 5.152
3.861 5.320 6.259
3.773 5.519 6.046
3.660 5.674 5.897
3.545 5.808 5.755
3.405 6.018 5.643
3.450 6.090 5.526
3.318 6.209 5.345
3.523 5.614 6.270
3.401 5.706 6.078
3.373 5.803 5.965
3.301 5.961 5.787
3.241 6.174 5.670
3.262 5.728 6.194
3.240 5.900 6.014
3.075 5.959 5.911
3.082 6.135 5.730
2.959 5.898 6.120
2.914 6.057 6.080
2.807 6.181 5.927
2.802 6.104 6.116
2.639 6.270 6.016
2.425 6.194 6.111
2.242 6.330 6.280
5.083 4.798 6.337
5.098 5.000 6.198
4.916 4.973 6.327
4.644 5.125 6.197
4.542 5.342 6.097
4.301 5.285 6.232
4.331 5.449 6.113
4.220 5.693 5.882
4.133 5.472 6.158
4.017 5.627 6.069
3.908 5.834 5.868
3.854 5.937 5.807
3.775 6.120 5.560
3.802 5.763 6.133
3.794 5.808 5.992
3.614 6.031 5.875
3.628 6.181 5.727
3.577 5.833 6.172
3.462 5.973 6.072
3.378 6.224 5.897
3.228 5.999 6.171
3.216 6.200 6.018
3.016 6.222 6.139
2.885 6.304 6.312
5.127 5.103 6.225
5.033 5.312 6.158
4.832 5.281 6.234
4.852 5.432 6.134
4.576 5.531 6.223
4.498 5.625 6.001
4.383 5.679 6.186
4.249 5.802 5.982
4.036 5.858 6.234
4.076 5.973 5.981
3.933 6.103 5.940
3.852 6.335 5.666
3.810 5.974 6.119
3.752 6.199 5.998
3.637 6.057 6.226
3.512 6.139 6.141
3.410 6.168 6.204
5.144 5.514 6.193
4.917 5.580 6.120
4.692 5.788 6.108
4.407 6.009 6.151
4.167 6.033 6.320
4.132 6.121 6.121
3.955 6.122 6.269
4.774 5.936 6.233
4.528 6.119 6.294
1.142 4.415 5.122
1.077 4.554 4.953
1.016 4.684 4.765
0.897 4.891 4.621
1.074 4.366 5.296
0.942 4.488 5.216
0.935 4.579 5.021
0.755 4.721 4.912
0.672 4.915 4.805
0.886 4.404 5.420
0.819 4.489 5.307
0.756 4.693 5.166
0.628 4.817 4.999
0.504 4.915 4.841
0.640 4.422 5.556
0.564 4.530 5.522
0.565 4.644 5.271
0.427 4.809 5.238
0.348 4.988 4.971
0.482 4.427 5.683
0.413 4.497 5.545
0.372 4.758 5.403
0.325 4.867 5.278
0.122 4.958 5.164
0.291 4.491 5.903
0.273 4.608 5.747
0.168 4.766 5.617
0.142 4.833 5.369
0.001 5.004 5.282
3.795 3.168 4.659
3.685 3.299 4.580
3.602 3.456 4.378
3.474 3.588 4.272
3.389 3.638 4.129
3.391 3.798 3.929
3.241 3.987 3.864
3.138 4.202 3.610
3.015 4.300 3.488
3.657 2.936 4.978
3.609 3.088 4.763
3.438 3.320 4.681
3.332 3.493 4.581
3.259 3.619 4.438
3.163 3.710 4.166
3.104 3.852 4.118
3.036 4.008 3.869
2.928 4.222 3.780
2.944 4.295 3.696
3.564 2.882 5.236
3.410 3.062 5.121
3.345 3.162 4.905
3.283 3.275 4.834
3.274 3.455 4.635
3.100 3.566 4.544
3.086 3.729 4.344
3.003 3.967 4.167
2.928 3.981 4.077
2.791 4.262 3.889
2.650 4.296 3.785
3.473 2.750 5.478
3.416 2.918 5.341
3.280 3.062 5.234
3.206 3.259 5.015
3.099 3.294 4.909
3.091 3.430 4.834
3.005 3.642 4.566
2.916 3.806 4.431
2.746 3.925 4.300
2.639 4.073 4.210
3.406 2.489 5.884
3.308 2.679 5.744
3.250 2.817 5.622
3.217 2.859 5.468
3.134 3.036 5.411
3.042 3.256 5.195
2.932 3.405 5.008
2.875 3.569 4.855
2.717 3.701 4.771
2.742 3.839 4.563
2.563 3.959 4.468
3.327 2.352 6.179
3.240 2.481 6.038
3.134 2.716 5.975
3.122 2.859 5.801
2.975 2.995 5.616
2.979 3.167 5.507
2.896 3.298 5.371
2.768 3.399 5.225
2.685 3.489 5.036
2.522 3.679 4.949
3.067 2.574 6.191
3.017 2.649 6.054
2.963 2.790 5.958
2.860 3.011 5.802
2.735 3.130 5.634
2.691 3.273 5.471
2.526 3.378 5.372
2.543 3.599 5.205
2.762 2.761 6.134
2.667 2.823 5.974
2.683 3.000 5.932
2.589 3.148 5.778
2.498 3.253 5.610
2.391 3.422 5.424
2.515 2.934 6.102
2.466 3.006 6.024
2.355 3.242 5.897
2.332 3.378 5.708
2.291 3.014 6.128
2.235 3.254 6.045
2.141 3.118 6.255
2.019 3.277 6.117
1.128 4.506 5.081
1.137 4.530 4.993
0.974 4.666 4.762
0.847 4.933 4.642
1.236 4.612 5.185
1.173 4.802 5.059
1.039 4.855 4.926
1.073 5.030 4.789
1.136 4.663 5.349
0.992 4.760 5.168
0.889 4.994 4.956
0.775 5.074 4.880
0.945 4.664 5.412
0.784 4.759 5.354
0.677 4.962 5.153
0.697 5.108 4.981
0.731 4.711 5.582
0.636 4.776 5.392
0.541 4.956 5.246
0.511 5.149 5.070
0.554 4.663 5.694
0.463 4.885 5.607
0.328 4.944 5.385
0.238 5.217 5.285
0.350 4.739 5.795
0.325 4.900 5.737
0.169 5.012 5.494
0.104 5.172 5.417
0.055 4.855 5.770
0.014 5.026 5.647
3.829 3.300 4.778
3.761 3.467 4.641
3.718 3.524 4.510
3.601 3.780 4.370
3.445 3.853 4.176
3.483 4.040 4.060
3.363 4.220 3.856
3.290 4.358 3.820
3.682 3.187 5.096
3.648 3.282 4.952
3.569 3.414 4.753
3.475 3.644 4.680
3.449 3.706 4.427
3.274 3.936 4.330
3.226 4.047 4.247
3.100 4.134 4.096
3.048 4.320 3.907
3.611 3.002 5.354
3.573 3.147 5.172
3.459 3.298 5.020
3.465 3.482 4.922
3.278 3.683 4.782
3.188 3.816 4.577
3.093 3.989 4.511
3.077 4.094 4.365
3.005 4.202 4.190
2.924 4.425 4.074
3.506 2.875 5.576
3.519 3.009 5.500
3.392 3.218 5.267
3.336 3.321 5.210
3.187 3.459 4.977
3.101 3.691 4.887
3.106 3.827 4.751
3.000 3.911 4.596
2.850 4.070 4.423
2.768 4.294 4.342
3.475 2.755 5.869
3.409 2.975 5.740
3.290 3.158 5.597
3.162 3.210 5.425
3.173 3.364 5.354
2.986 3.575 5.195
2.927 3.703 5.020
2.859 3.776 4.811
2.853 4.026 4.754
3.328 2.709 6.227
3.283 2.850 5.988
3.218 3.018 5.829
3.091 3.057 5.784
3.062 3.324 5.629
2.922 3.393 5.457
2.904 3.523 5.275
2.763 3.694 5.138
2.712 3.840 5.033
3.055 2.804 6.093
3.025 3.022 6.006
2.880 3.088 5.887
2.860 3.306 5.669
2.729 3.498 5.579
2.617 3.522 5.394
2.568 3.736 5.227
2.826 3.014 6.145
2.702 3.232 5.971
2.603 3.321 5.810
2.585 3.452 5.642
2.471 3.594 5.553
2.665 3.043 6.213
2.525 3.142 6.139
2.436 3.283 5.941
2.421 3.525 5.880
2.316 3.243 6.261
2.239 3.377 6.174
2.274 3.507 5.998
2.068 3.421 6.192
1.313 4.765 4.869
1.223 4.878 4.786
1.263 5.075 4.622
1.331 4.619 5.247
1.179 4.763 5.073
1.158 4.938 4.915
1.031 5.036 4.782
1.408 4.769 5.300
1.314 4.937 5.105
1.158 5.110 5.001
1.136 5.182 4.895
1.179 4.786 5.487
1.139 4.907 5.280
1.046 5.044 5.074
0.926 5.208 4.918
0.984 4.876 5.560
0.864 4.919 5.361
0.871 5.076 5.248
0.730 5.213 5.163
0.832 4.789 5.677
0.677 4.948 5.523
0.612 5.178 5.426
0.577 5.295 5.214
0.566 4.965 5.674
0.440 5.176 5.475
0.333 5.259 5.422
0.428 5.088 5.820
0.247 5.142 5.642
0.199 5.385 5.558
0.178 5.203 5.837
-0.031 5.382 5.641
3.941 3.390 4.939
3.849 3.527 4.815
3.752 3.677 4.623
3.672 3.926 4.450
3.569 4.061 4.266
3.584 4.120 4.210
3.467 4.314 4.025
3.426 4.527 3.808
3.918 3.336 5.224
3.818 3.414 5.000
3.738 3.568 4.893
3.658 3.737 4.739
3.494 3.945 4.583
3.420 4.054 4.450
3.353 4.259 4.289
3.238 4.291 4.135
3.701 3.215 5.492
3.652 3.348 5.241
3.586 3.528 5.121
3.533 3.594 4.965
3.410 3.844 4.834
3.268 3.947 4.763
3.204 4.054 4.596
3.233 4.242 4.409
3.118 4.403 4.246
3.717 3.079 5.677
3.581 3.262 5.608
3.484 3.406 5.441
3.433 3.586 5.283
3.326 3.623 5.205
3.220 3.872 4.972
3.101 4.034 4.849
3.049 4.096 4.668
2.975 4.209 4.581
3.618 3.027 6.059
3.454 3.102 5.806
3.455 3.295 5.724
3.265 3.404 5.592
3.168 3.530 5.404
3.146 3.753 5.337
2.997 3.826 5.110
2.946 4.048 4.979
2.845 4.156 4.896
3.436 2.958 6.132
3.264 3.099 6.033
3.195 3.326 5.779
3.080 3.454 5.726
3.101 3.649 5.521
2.967 3.793 5.369
2.907 3.819 5.290
2.835 3.979 5.041
3.246 3.064 6.233
3.094 3.229 6.135
3.059 3.348 6.020
2.911 3.503 5.818
2.885 3.637 5.717
2.814 3.767 5.465
2.752 3.854 5.375
2.956 3.248 6.216
2.870 3.286 6.103
2.809 3.447 5.905
2.623 3.659 5.808
2.603 3.727 5.598
2.608 3.334 6.256
2.603 3.499 6.077
2.502 3.637 5.959
2.382 3.567 6.186
2.375 3.742 6.093
1.575 5.007 4.725
1.464 5.219 4.652
2.106 3.698 6.213
1.471 4.941 5.064
1.395 5.007 4.878
1.251 5.223 4.695
1.346 4.753 5.303
1.288 4.861 5.097
1.149 5.135 4.981
1.153 5.167 4.843
1.530 4.960 5.389
1.337 5.033 5.227
1.324 5.247 5.046
1.170 5.378 5.023
1.341 4.992 5.538
1.256 5.180 5.444
1.065 5.264 5.290
1.024 5.402 5.072
1.054 5.057 5.725
1.067 5.109 5.514
0.986 5.303 5.369
0.891 5.407 5.163
0.884 5.200 5.708
0.721 5.368 5.451
0.729 5.480 5.369
0.693 5.255 5.834
0.550 5.410 5.627
0.443 5.461 5.413
0.406 5.319 5.729
0.289 5.480 5.548
0.073 5.576 5.759
4.045 3.584 4.985
4.020 3.774 4.897
3.859 3.913 4.730
3.841 4.065 4.605
3.657 4.184 4.404
3.591 4.415 4.206
3.537 4.562 4.100
3.889 3.502 5.283
3.884 3.633 5.091
3.833 3.781 5.026
3.747 3.895 4.858
3.639 4.030 4.629
3.550 4.289 4.484
3.391 4.342 4.412
3.409 4.464 4.214
3.767 3.478 5.368
3.649 3.672 5.330
3.551 3.748 5.083
3.514 4.019 5.036
3.492 4.092 4.849
3.395 4.204 4.697
3.328 4.447 4.517
3.670 3.399 5.689
3.607 3.593 5.498
3.498 3.657 5.415
3.439 3.859 5.312
3.294 3.981 5.116
3.200 4.101 4.986
3.209 4.268 4.753
3.476 3.385 5.762
3.376 3.580 5.733
3.296 3.724 5.505
3.244 3.878 5.331
3.117 3.988 5.174
3.453 3.169 6.298
3.357 3.289 6.149
3.247 3.423 5.940
3.180 3.650 5.768
3.125 3.742 5.676
3.006 3.953 5.468
3.043 4.100 5.383
3.175 3.394 6.217
3.128 3.497 6.129
3.057 3.582 5.899
2.912 3.830 5.776
2.818 3.963 5.583
2.930 3.550 6.244
2.837 3.662 6.072
2.805 3.764 5.885
2.723 3.923 5.745
2.694 3.646 6.222
2.631 3.802 6.051
1.863 5.176 4.760
1.766 5.351 4.508
2.358 3.902 6.243
1.699 5.056 4.947
1.678 5.173 4.816
1.589 5.344 4.713
1.585 5.106 5.158
1.482 5.141 4.942
1.345 5.342 4.850
1.485 4.982 5.342
1.371 5.148 5.218
1.287 5.293 5.084
1.170 5.342 5.028
1.642 5.139 5.457
1.485 5.229 5.337
1.474 5.367 5.176
1.272 5.602 5.034
1.353 5.276 5.549
1.265 5.398 5.285
1.089 5.559 5.163
1.159 5.366 5.670
1.006 5.449 5.523
0.979 5.627 5.313
0.887 5.517 5.572
0.731 5.672 5.475
0.628 5.484 5.761
0.590 5.711 5.564
4.168 3.843 5.175
4.014 3.861 4.977
4.051 4.129 4.817
3.926 4.164 4.653
3.758 4.391 4.477
3.671 4.521 4.315
4.021 3.791 5.230
3.946 3.977 5.042
3.816 4.124 4.959
3.658 4.254 4.747
3.699 4.435 4.690
3.518 4.516 4.454
3.765 3.869 5.331
3.752 3.984 5.202
3.656 4.135 5.139
3.556 4.282 4.935
3.568 3.896 5.502
3.552 3.978 5.375
3.458 4.128 5.172
3.439 3.944 5.674
3.356 3.578 6.115
3.291 3.797 5.976
3.259 3.895 5.730
3.204 3.672 6.210
3.199 3.756 6.026
3.077 4.009 5.851
3.016 3.816 6.127
2.869 3.984 6.052
2.136 5.296 4.685
2.012 5.457 4.555
2.718 4.039 6.180
1.997 5.321 4.850
1.922 5.433 4.618
1.921 5.224 5.121
1.788 5.379 4.900
1.726 5.529 4.743
1.645 5.269 5.188
1.629 5.329 5.051
1.487 5.541 4.910
1.561 5.139 5.497
1.491 5.259 5.424
1.473 5.396 5.206
1.321 5.570 5.073
1.708 5.342 5.571
1.532 5.383 5.512
1.543 5.611 5.375
1.444 5.711 5.236
1.350 5.479 5.616
1.301 5.547 5.434
1.282 5.812 5.268
1.248 5.495 5.782
1.192 5.600 5.637
1.103 5.822 5.466
1.011 5.638 5.782
0.906 5.773 5.603
4.111 4.063 5.087
4.113 4.280 4.900
3.949 4.329 4.841
3.973 4.489 4.631
3.842 4.725 4.537
2.565 5.510 4.336
2.381 5.490 4.628
2.296 5.516 4.485
2.285 5.343 4.911
2.284 5.477 4.752
2.102 5.601 4.641
2.086 5.365 5.108
