5.610 3.275 5.436
5.382 3.381 5.338
5.233 3.096 4.911
5.096 3.026 5.036
4.925 3.102 4.675
4.581 2.557 4.711
4.443 2.727 4.472
5.747 3.777 5.218
5.502 3.602 4.966
5.430 3.251 4.826
5.044 3.069 4.933
4.784 2.888 4.700
4.861 3.095 4.507
4.590 2.528 4.602
5.164 3.844 4.461
5.280 3.271 4.754
5.167 3.195 4.398
4.748 3.012 4.504
4.825 2.775 4.197
4.386 2.552 4.198
4.922 3.478 4.095
4.708 3.465 4.063
4.726 3.145 4.319
4.578 2.905 4.060
4.739 3.608 4.139
4.550 3.422 3.720
4.638 2.990 3.599
4.788 3.294 3.934
4.605 3.490 3.515
4.408 3.267 3.702
4.574 3.407 3.265
4.344 3.222 3.316
6.029 4.876 4.278
5.958 4.584 4.053
5.759 4.449 3.960
4.446 3.181 3.279
6.526 5.330 3.716
6.008 4.726 3.504
6.132 4.580 3.803
5.925 4.846 3.715
4.782 3.334 3.174
5.864 4.846 3.756
5.974 5.031 3.273
5.728 4.940 3.126
6.136 5.322 3.545
6.010 4.943 3.123
5.898 4.612 3.051
5.762 4.813 2.886
5.927 5.073 3.123
5.891 5.045 3.150
5.580 4.979 2.873
5.376 4.907 2.555
5.339 2.830 6.142
4.912 2.605 6.074
5.209 2.689 5.869
4.720 2.321 5.871
5.781 3.161 6.369
5.501 3.087 6.056
5.527 2.931 6.169
5.255 2.788 5.883
5.111 2.798 6.007
5.009 2.445 5.765
4.697 2.268 5.895
6.046 3.009 5.973
5.803 3.070 5.840
5.485 2.978 5.867
5.506 2.429 5.815
4.988 2.217 5.760
4.811 2.038 5.717
5.830 3.263 5.710
5.926 2.762 6.029
5.402 3.009 5.568
5.158 2.518 5.426
5.282 2.685 5.407
4.911 2.215 5.408
4.894 1.965 5.136
5.801 3.285 5.671
5.749 3.372 5.785
5.839 3.038 5.416
5.380 2.794 5.341
5.496 2.662 5.572
5.143 2.449 5.575
5.246 2.492 5.420
5.012 2.415 5.286
5.897 3.520 5.547
6.014 3.241 5.448
5.842 3.480 5.305
5.774 2.943 5.403
5.499 2.972 5.357
5.114 2.773 5.248
4.776 2.433 4.804
5.028 2.479 5.186
4.581 2.358 4.623
5.981 3.748 5.092
5.545 3.442 4.969
5.632 3.044 5.257
5.625 3.296 4.913
5.122 2.633 4.817
4.948 2.503 4.989
4.804 2.821 4.909
4.603 2.402 4.523
5.908 3.733 4.880
5.744 3.496 4.967
5.713 3.364 4.813
5.630 3.014 4.729
5.126 2.986 4.752
4.805 2.872 4.679
4.784 2.441 4.448
4.565 2.584 4.499
5.590 3.385 4.421
5.472 3.077 4.708
5.128 3.344 4.375
5.179 2.975 4.274
5.007 2.919 4.426
4.911 2.494 4.393
5.522 3.251 4.427
5.034 3.029 4.275
4.976 3.142 4.100
4.784 3.028 3.843
4.579 2.657 3.989
5.062 3.564 4.136
4.943 3.092 3.983
4.756 2.909 3.595
4.945 2.785 3.654
5.168 3.553 3.530
4.757 2.927 3.501
4.570 3.170 3.552
5.126 3.365 3.278
4.805 2.928 3.355
4.587 3.041 3.330
6.328 4.712 3.712
5.952 4.382 3.347
6.316 4.604 3.158
6.007 4.630 3.102
6.280 4.708 3.095
6.062 4.774 3.152
5.792 4.711 2.837
6.366 5.187 3.080
5.795 5.058 3.063
5.552 4.515 2.777
5.765 2.492 6.331
5.376 2.333 6.186
4.983 2.488 6.119
5.910 3.188 5.947
5.706 2.644 5.962
5.273 2.948 5.786
5.282 2.733 6.046
5.220 2.631 5.651
4.945 2.309 5.720
5.901 2.686 6.305
6.112 2.570 5.997
5.568 2.693 5.725
5.332 2.652 5.580
5.482 2.110 5.805
5.975 2.947 6.006
6.012 3.111 5.897
5.992 2.624 5.787
5.866 2.592 5.640
5.477 2.315 5.501
5.527 2.312 5.497
5.080 2.317 5.355
6.324 3.121 5.860
6.241 3.280 5.732
5.869 2.984 5.486
5.466 2.861 5.671
5.557 2.484 5.562
5.126 2.498 5.061
5.354 2.247 5.412
5.182 2.282 4.956
6.245 3.466 5.273
5.980 3.018 5.151
5.713 3.292 5.489
5.679 2.724 5.017
5.496 2.931 5.079
5.335 2.704 4.999
5.034 2.369 4.703
5.270 2.407 5.007
4.903 1.917 4.564
6.405 3.714 5.187
6.170 3.382 5.187
5.946 3.316 5.034
5.617 3.006 4.799
5.555 2.899 4.940
5.174 2.900 4.964
5.141 2.730 4.620
5.285 2.171 4.448
5.105 2.163 4.712
6.015 3.738 5.281
6.266 3.614 4.972
5.901 3.154 4.800
5.764 3.205 4.555
5.692 3.040 4.732
5.153 2.713 4.811
5.430 2.692 4.713
4.918 2.689 4.385
4.751 2.416 4.293
6.165 3.348 4.464
5.551 3.443 4.592
5.587 2.941 4.329
5.580 2.783 4.346
5.384 2.884 4.244
5.110 2.762 4.418
4.875 2.683 4.184
5.558 3.184 4.399
5.477 2.984 4.332
4.990 2.877 4.019
4.961 2.711 4.138
5.016 2.523 3.924
5.225 3.117 3.629
5.005 2.884 3.812
4.819 2.694 3.423
4.960 3.246 3.414
4.898 2.808 3.612
4.974 3.042 3.267
6.186 4.340 3.316
5.934 4.308 3.339
6.106 4.713 2.787
5.819 4.369 3.019
5.956 4.457 2.983
6.069 4.842 2.963
6.217 4.335 2.515
6.012 4.370 2.637
6.287 2.742 6.117
5.940 2.754 5.961
5.567 2.576 6.115
5.474 2.333 5.745
5.351 2.068 5.725
6.242 2.682 6.003
5.925 2.813 5.820
5.921 2.406 5.889
6.392 2.745 5.816
6.281 2.449 5.930
5.868 2.759 5.632
5.963 2.375 5.372
5.505 2.089 5.442
6.097 3.102 5.674
6.245 2.711 5.222
5.780 2.779 5.533
5.539 2.398 5.270
5.308 2.228 5.310
5.209 2.183 4.876
6.082 3.120 5.110
6.002 2.769 5.201
6.150 3.024 5.088
5.841 2.375 4.906
5.396 2.410 5.115
5.203 2.086 4.643
5.271 2.112 4.598
6.146 3.108 5.356
6.165 2.857 4.904
5.667 2.953 5.040
5.703 2.975 4.920
5.528 2.412 4.818
5.418 2.174 4.501
5.022 2.309 4.608
4.906 2.218 4.624
6.094 3.462 4.783
6.230 3.268 4.908
6.158 2.869 4.650
5.547 2.891 4.742
5.788 2.914 4.548
5.399 2.338 4.344
5.070 2.441 4.340
5.184 2.341 4.449
6.472 3.701 4.516
6.083 3.492 4.317
6.111 2.957 4.579
5.525 2.911 4.401
5.350 2.786 4.258
5.215 2.627 4.298
5.220 2.479 4.077
4.839 2.251 3.871
5.909 3.173 3.923
5.388 2.828 4.292
5.344 2.854 3.897
5.489 2.857 3.765
5.062 2.568 3.826
5.309 3.058 4.008
5.413 2.513 3.740
5.105 2.367 3.395
5.328 2.524 3.312
6.262 4.152 3.084
5.953 4.075 2.831
6.047 4.222 2.618
5.958 4.242 2.573
6.170 4.166 2.578
5.813 4.263 2.572
6.265 2.893 6.006
6.109 2.663 6.096
6.129 2.429 5.989
6.370 2.559 5.612
6.150 2.304 5.356
5.988 2.254 5.289
6.102 2.269 5.213
6.281 2.592 5.330
5.871 2.755 5.384
5.955 2.116 5.080
5.737 2.192 5.028
6.245 2.578 5.149
6.016 2.741 4.937
6.130 2.522 5.184
5.620 2.218 4.693
5.757 2.176 4.611
6.492 3.116 4.683
6.340 2.793 4.770
5.722 2.394 4.534
5.586 2.518 4.803
5.757 2.282 4.503
6.362 3.197 4.910
6.089 2.779 4.534
5.928 2.681 4.593
5.834 2.760 4.582
5.485 2.287 4.108
5.401 2.472 4.024
6.158 3.369 4.361
5.981 2.891 4.645
5.872 2.718 4.425
6.006 2.601 4.106
5.705 2.259 4.263
5.327 2.323 4.018
5.014 2.385 3.779
5.598 2.609 3.786
5.451 2.270 3.728
5.476 2.397 3.451
6.347 3.921 2.638
6.012 3.798 2.756
5.828 3.676 2.607
5.993 4.089 2.589
5.990 3.964 2.350
5.818 3.919 2.246
6.304 2.352 5.783
4.495 0.924 4.906
4.011 0.609 4.504
3.953 0.237 4.822
3.400 0.232 3.224
3.111 0.139 3.098
3.085 0.074 2.631
3.163 -0.019 2.876
5.058 2.252 3.891
5.058 2.098 3.943
4.634 1.943 3.674
4.062 0.743 3.360
3.820 0.713 3.389
3.439 0.540 2.945
3.136 0.364 2.726
3.013 0.055 3.117
3.179 0.557 2.582
4.911 2.279 3.667
4.767 1.976 3.506
4.974 2.075 3.523
4.537 1.829 3.119
4.564 1.361 3.100
4.153 1.387 3.081
4.004 1.050 3.224
3.890 0.883 3.065
3.762 1.033 2.753
3.401 0.592 2.810
3.124 0.657 2.935
3.223 0.428 2.779
5.006 2.499 3.342
4.855 1.944 3.277
4.925 1.942 3.317
4.409 1.947 2.896
4.481 1.586 2.893
4.037 1.437 2.821
4.080 1.437 2.949
3.651 1.210 2.663
3.501 1.226 2.463
3.448 0.688 2.380
3.135 0.776 2.418
5.159 2.184 3.152
4.690 1.977 3.357
4.493 2.238 2.998
4.544 1.720 2.922
4.255 1.648 2.603
4.329 1.614 2.737
4.184 1.540 2.887
3.960 1.232 2.338
3.679 1.081 2.507
3.339 0.926 2.204
4.806 2.344 3.005
4.824 2.283 3.040
4.640 2.089 2.546
4.334 1.745 2.627
4.374 1.919 2.285
4.238 1.601 2.210
3.848 1.142 2.243
3.811 1.081 2.043
3.640 1.135 2.203
4.993 2.430 2.442
4.761 2.188 2.715
4.498 1.906 2.589
4.359 1.591 2.197
4.238 1.821 2.125
3.850 1.592 1.901
3.571 1.133 2.105
4.803 2.170 2.310
4.213 2.205 1.994
4.270 2.011 2.082
4.262 1.684 1.886
3.842 1.582 1.916
2.755 0.374 0.730
2.597 0.130 0.968
2.397 0.208 0.620
2.567 0.786 0.786
2.720 0.640 0.869
2.529 0.335 0.411
1.955 0.492 0.762
2.157 0.117 0.659
2.862 1.248 0.753
2.543 0.780 0.454
2.595 0.791 0.647
2.314 0.438 0.372
2.393 0.144 0.214
2.192 0.316 0.342
1.985 0.253 0.334
4.337 0.053 6.171
5.029 0.744 6.456
4.693 0.551 6.099
4.500 0.062 5.862
4.090 -0.082 6.029
4.800 0.833 6.186
4.750 0.597 5.805
4.443 0.428 5.944
4.439 0.280 5.870
4.375 0.322 5.912
4.287 0.029 5.649
5.103 0.977 5.995
4.818 0.684 6.006
4.746 0.589 5.926
4.423 0.404 5.349
4.071 0.518 5.258
4.124 0.335 5.427
4.141 -0.060 5.089
4.659 1.156 5.371
4.515 0.855 5.374
4.351 0.440 5.485
4.300 0.481 5.167
3.926 0.122 5.017
4.062 0.353 5.108
4.638 1.111 5.119
4.331 0.916 5.217
4.478 0.657 5.176
4.231 0.579 4.816
4.214 0.053 5.089
3.972 -0.163 4.711
4.407 0.470 4.928
4.360 0.537 4.856
4.140 0.450 4.594
4.663 0.496 4.658
4.736 0.745 4.980
4.454 0.435 4.418
3.282 0.008 2.877
3.922 0.484 2.997
3.360 0.274 2.991
3.140 0.238 3.209
3.212 0.096 2.941
4.126 0.968 3.437
3.814 0.934 3.051
3.952 0.603 2.894
3.647 0.322 3.168
3.541 0.096 2.943
3.473 -0.125 2.848
3.331 0.451 2.433
3.184 -0.128 2.385
4.658 1.379 3.367
4.815 1.602 3.111
4.287 1.137 2.954
3.983 1.286 2.788
4.021 0.978 3.135
3.973 0.508 2.983
3.681 0.495 2.941
3.742 0.194 2.756
3.608 0.121 2.404
3.566 0.189 2.129
3.025 0.083 2.444
5.108 1.653 3.362
4.658 1.797 3.087
4.429 1.314 3.103
4.422 1.240 2.647
4.375 1.363 2.847
3.913 0.773 2.531
3.696 1.063 2.671
3.934 0.838 2.685
3.732 0.541 2.692
3.142 0.493 2.448
3.242 0.508 2.249
4.678 2.028 2.971
4.797 1.498 2.695
4.368 1.550 2.841
4.342 1.349 2.858
4.374 1.470 2.809
3.939 1.030 2.577
3.797 0.875 2.481
3.530 0.637 2.196
3.456 0.388 2.231
3.320 0.546 2.127
4.831 2.228 2.605
4.966 2.092 2.584
4.661 1.576 2.330
4.618 1.338 2.572
4.124 1.158 2.215
4.201 1.186 2.343
4.080 1.282 2.196
3.769 1.057 2.095
3.491 0.766 2.220
4.590 1.915 2.304
4.692 2.017 2.119
4.169 1.903 2.164
4.201 1.462 2.314
4.218 1.577 2.181
3.858 1.202 1.739
3.771 1.044 2.107
4.712 2.179 2.140
4.525 1.670 1.948
4.112 1.793 2.042
4.215 1.305 1.986
3.664 1.207 1.652
2.721 -0.034 0.621
2.576 0.354 0.886
2.413 0.144 0.587
2.205 0.033 0.262
2.758 0.726 0.627
2.839 0.654 0.210
2.524 0.141 0.475
2.230 0.341 0.278
2.001 0.267 0.009
4.648 -0.065 6.270
5.003 0.469 6.393
4.982 0.159 6.189
4.654 0.139 5.905
4.449 0.199 5.962
5.116 0.444 6.133
5.058 0.647 5.987
4.830 0.617 5.570
4.657 0.317 5.643
4.549 -0.111 5.837
5.327 0.849 6.012
4.946 0.581 5.518
4.939 0.719 5.851
4.517 0.085 5.633
4.624 0.154 5.224
4.091 0.095 5.366
5.232 0.941 5.508
5.078 0.572 5.477
4.888 0.384 5.126
4.743 0.251 5.054
4.473 0.460 5.201
4.419 -0.122 5.285
5.250 0.848 5.359
4.907 0.704 4.995
4.729 0.467 4.937
4.418 0.289 5.193
4.293 0.061 4.933
3.983 -0.136 4.966
4.755 0.615 4.808
4.569 0.759 4.670
4.265 0.384 4.724
5.116 0.953 4.705
4.824 0.918 4.870
4.820 0.388 4.693
4.476 0.514 4.796
4.674 0.030 4.712
4.136 0.157 3.404
4.041 -0.066 2.886
3.826 -0.025 2.907
4.481 0.525 2.922
4.150 0.506 3.233
3.906 0.344 2.741
3.658 0.108 2.804
3.620 -0.053 2.673
3.468 0.161 2.368
4.827 1.050 3.190
4.495 1.231 3.210
4.581 1.080 2.782
4.362 0.513 2.881
4.069 0.473 2.700
3.862 0.606 2.825
3.892 0.208 2.690
3.370 0.180 2.727
3.533 0.173 2.395
3.193 0.057 2.031
4.930 1.334 3.077
4.839 1.425 2.688
4.552 0.965 3.043
4.457 1.188 2.646
4.040 0.794 2.530
3.902 0.502 2.383
3.650 0.452 2.691
3.725 0.160 2.501
3.324 -0.042 2.227
3.395 0.328 2.300
3.512 0.157 1.999
5.001 1.811 2.644
4.560 1.421 2.818
4.824 1.432 2.631
4.624 1.111 2.547
4.478 0.786 2.247
4.070 0.957 2.291
3.999 0.538 2.407
3.793 0.500 2.371
3.353 0.135 1.846
3.457 0.347 1.830
4.987 1.791 2.431
4.999 1.423 2.449
4.733 1.263 2.401
4.358 1.095 2.530
4.389 1.239 2.021
4.022 1.158 2.071
3.834 0.830 2.103
3.654 0.660 1.677
3.626 0.545 1.732
5.036 1.766 2.216
4.943 1.644 2.255
4.568 1.508 2.225
4.617 1.138 1.958
4.068 0.950 2.080
3.878 1.109 1.672
3.773 0.760 1.876
3.881 0.687 1.515
4.713 1.593 1.990
4.842 1.716 1.707
4.325 1.456 1.682
4.396 1.221 1.603
4.220 0.952 1.883
3.824 1.055 1.436
4.277 1.537 1.420
4.288 1.429 1.734
2.896 -0.108 0.418
2.597 0.210 0.396
2.387 -0.068 0.016
5.204 -0.078 6.467
5.153 0.423 5.906
5.123 0.071 6.154
4.943 0.168 6.152
5.128 0.321 5.735
4.942 0.447 5.818
4.907 0.444 5.794
4.768 0.069 5.885
5.149 0.770 5.632
5.002 0.596 5.450
4.787 0.340 5.471
4.829 0.094 5.262
4.713 0.140 5.551
5.516 0.871 5.501
5.436 0.673 5.201
4.860 0.229 5.150
4.672 0.094 5.333
4.620 -0.040 4.924
5.160 0.638 5.273
5.112 0.880 5.040
4.801 0.467 5.268
4.949 0.589 5.133
4.830 0.178 4.991
4.701 0.261 5.052
5.039 1.045 5.148
5.155 0.434 4.874
4.690 0.578 4.690
4.726 0.320 4.485
4.557 0.273 4.391
5.564 1.088 4.887
5.594 0.803 4.825
5.213 0.630 4.811
5.261 0.152 4.741
4.787 -0.024 4.756
4.791 0.161 4.349
5.224 0.829 4.583
5.326 0.581 4.712
5.171 0.518 4.400
4.328 0.134 3.276
4.151 0.013 2.903
4.355 0.430 2.878
4.247 0.100 2.705
4.188 0.245 3.035
4.571 1.027 2.986
4.778 0.813 2.890
4.653 0.623 2.903
4.420 0.363 2.778
4.250 0.081 2.488
3.743 0.099 2.626
3.517 -0.038 2.100
5.032 1.113 2.899
4.962 0.861 2.590
4.720 0.995 2.395
4.598 0.449 2.335
4.358 0.591 2.342
4.248 0.235 2.510
3.983 0.152 2.473
3.538 0.067 2.162
3.968 0.392 1.864
3.752 0.230 1.821
4.827 1.465 2.760
4.774 1.179 2.649
4.841 1.186 2.283
4.284 0.775 2.099
4.114 0.525 2.005
4.169 0.555 2.087
3.947 0.492 2.105
3.486 0.332 1.790
3.858 0.460 1.808
4.974 1.526 2.305
4.561 1.392 2.478
4.834 1.081 1.976
4.392 1.086 2.153
4.051 0.663 2.221
3.983 0.788 1.737
4.066 0.405 1.842
3.644 0.502 1.548
3.973 0.535 1.617
5.161 1.753 1.959
4.911 1.164 2.105
4.373 1.439 2.220
4.611 0.856 1.653
4.067 0.813 1.680
4.011 0.484 1.888
4.074 0.759 1.853
3.903 0.317 1.443
4.616 1.340 2.057
4.748 1.487 1.981
4.543 1.290 1.838
4.378 0.894 1.719
4.060 0.617 1.722
3.770 0.865 1.654
4.707 1.383 1.532
4.614 1.202 1.553
4.525 1.457 1.390
4.239 1.222 1.498
4.178 1.161 1.373
2.892 0.204 0.093
5.570 0.194 5.877
5.366 -0.029 6.096
5.664 0.503 5.891
5.212 0.390 5.578
5.193 -0.082 5.697
5.345 0.467 5.639
5.599 0.336 5.463
5.290 0.324 5.400
4.909 -0.151 5.410
5.754 0.552 5.234
5.205 0.411 5.462
5.229 0.060 5.167
5.169 0.357 4.937
5.566 0.733 5.279
5.393 0.496 5.137
5.143 0.236 4.903
5.209 0.009 4.862
4.864 -0.124 4.680
5.386 0.953 4.997
5.587 0.799 5.107
5.402 0.601 4.545
5.186 0.421 4.462
4.869 0.201 4.777
4.488 0.036 4.719
5.669 0.849 4.795
5.632 0.608 4.834
5.499 0.443 4.688
5.351 0.364 4.637
4.882 -0.185 4.385
5.529 0.641 4.411
5.654 0.722 4.515
5.600 0.452 4.361
5.126 0.477 4.579
4.971 0.172 4.468
5.617 0.457 4.228
4.541 0.124 2.732
4.716 0.367 2.895
4.719 0.514 2.489
4.494 0.471 2.769
4.076 0.023 2.667
5.066 1.092 2.735
4.717 0.699 2.544
4.424 0.574 2.465
4.561 0.120 2.211
4.455 0.105 2.534
4.034 0.176 2.038
3.911 0.021 1.795
4.929 0.831 2.488
4.771 0.680 2.115
4.853 0.803 2.257
4.257 0.432 2.121
4.515 0.138 2.088
3.914 0.218 2.190
3.804 -0.021 1.786
4.080 0.329 1.529
4.940 1.106 2.461
4.775 1.178 2.307
4.579 1.009 2.044
4.779 0.724 2.168
4.562 0.768 1.800
4.095 0.240 1.894
4.083 0.094 1.697
4.151 -0.042 1.554
3.713 0.346 1.680
5.088 1.291 2.018
5.034 1.448 2.074
4.973 0.846 2.153
4.724 0.992 1.624
4.690 0.835 1.856
4.056 0.490 1.589
4.067 0.496 1.640
4.088 0.474 1.671
5.019 1.347 1.922
5.000 1.221 1.583
4.513 0.766 1.619
4.225 0.595 1.302
4.273 0.836 1.625
4.231 0.367 1.428
4.848 1.464 1.561
4.968 1.199 1.610
4.496 0.983 1.389
4.268 1.139 1.509
4.483 0.673 1.084
4.235 0.704 1.080
4.609 1.420 1.142
4.762 1.018 1.043
4.408 1.319 0.981
4.531 0.951 0.959
5.921 0.269 6.078
5.939 0.191 5.927
5.615 0.050 5.431
5.680 0.149 5.428
5.816 0.279 5.451
5.382 -0.032 5.386
5.770 0.361 5.339
5.375 0.046 5.333
5.645 -0.045 5.351
5.991 0.543 5.352
5.680 0.486 5.062
5.247 0.252 4.897
5.360 0.224 4.950
5.682 0.647 4.632
5.395 0.450 4.865
5.467 0.248 4.893
5.371 0.337 4.636
5.150 0.259 4.648
5.806 0.575 4.920
5.844 0.308 4.688
5.490 0.425 4.383
5.218 0.047 4.503
5.723 0.857 4.762
5.908 0.716 4.528
5.708 0.100 4.267
5.678 0.243 4.328
5.343 -0.211 4.011
5.715 0.903 4.187
5.776 0.611 4.184
5.726 0.214 4.110
5.400 0.101 3.954
5.552 0.688 3.952
5.489 0.380 3.721
5.022 0.256 2.499
4.641 0.229 2.368
5.197 0.494 2.385
4.772 0.165 2.595
4.699 0.315 2.386
4.557 -0.119 2.231
4.859 0.400 2.469
4.795 0.485 2.301
4.668 0.239 1.982
4.212 0.418 1.992
4.077 -0.177 2.061
5.037 0.711 2.065
4.802 0.886 1.993
4.734 0.826 2.177
4.768 0.241 2.076
4.453 0.298 1.609
4.509 0.131 1.541
4.033 -0.037 1.349
5.281 1.070 2.085
4.931 1.054 1.971
4.715 0.901 1.728
4.451 0.575 1.745
4.671 0.209 1.631
4.208 0.006 1.470
4.213 0.333 1.624
4.309 0.256 1.164
5.117 1.226 1.942
5.069 1.175 1.611
4.657 0.822 1.418
4.511 0.460 1.327
4.532 0.378 1.555
4.231 0.212 1.415
4.133 0.330 1.019
4.970 1.232 1.497
4.812 1.014 1.434
4.672 0.953 1.313
4.517 1.062 1.051
4.376 0.640 1.011
4.364 0.530 0.870
4.815 1.001 1.231
4.575 1.191 1.318
4.764 0.693 1.216
4.663 0.708 0.732
4.332 0.773 0.715
4.917 1.438 0.747
4.582 1.049 0.970
4.472 0.886 0.623
6.004 0.095 5.741
5.870 0.422 5.499
5.763 0.230 5.599
5.882 0.385 5.224
5.582 0.013 5.115
5.924 0.251 4.954
5.779 0.044 4.726
5.689 0.194 4.952
6.067 0.333 4.747
5.858 0.217 4.689
5.753 0.030 4.483
5.485 -0.184 4.479
5.999 0.226 4.545
5.972 0.445 4.388
5.575 -0.153 4.531
5.954 0.451 4.354
6.210 0.585 4.605
5.617 -0.039 4.178
5.572 0.048 4.081
6.156 0.401 4.427
5.746 0.681 4.319
5.953 0.326 3.865
5.417 -0.056 4.151
6.282 0.925 3.854
6.187 0.381 3.970
5.896 0.398 4.054
5.559 0.137 3.978
6.074 0.824 3.824
6.133 0.817 3.867
5.586 0.516 3.576
6.236 1.113 3.868
4.867 0.125 2.379
4.625 0.295 2.023
5.018 0.657 2.350
4.840 0.575 2.108
4.895 0.380 2.230
4.665 0.075 2.026
5.043 0.723 2.186
4.888 0.624 2.029
4.870 0.230 1.858
4.504 0.195 1.672
5.550 1.076 2.051
5.268 0.620 1.841
4.889 0.628 1.745
4.990 0.533 1.382
4.786 0.075 1.662
4.565 -0.135 1.175
4.211 -0.142 0.873
5.397 0.990 1.819
5.119 0.940 1.762
5.149 0.521 1.471
5.069 0.529 1.210
4.845 0.165 1.468
4.527 0.167 1.136
4.414 0.193 1.223
4.200 0.019 1.078
5.272 1.335 1.447
5.300 0.869 1.266
5.153 0.744 1.349
5.017 0.402 0.921
4.848 0.453 1.263
4.454 0.157 0.974
4.228 0.301 0.891
4.447 0.189 0.417
5.374 1.004 1.028
4.967 1.280 1.067
4.869 1.148 1.242
4.686 0.762 1.021
4.803 0.698 0.591
4.490 0.258 0.952
4.103 0.355 0.537
4.367 0.226 0.408
4.987 1.085 0.984
4.879 1.204 0.913
5.041 0.987 0.621
4.716 0.712 0.789
4.395 0.509 0.672
4.496 0.461 0.574
6.043 0.112 5.647
6.166 0.123 5.383
6.023 0.469 4.861
5.952 0.013 4.633
6.026 0.534 4.978
5.783 0.268 4.406
5.769 -0.064 4.730
6.299 0.270 4.321
6.362 0.255 4.296
5.888 -0.012 4.228
6.113 0.487 3.901
6.062 0.142 4.035
6.097 0.269 4.067
6.076 0.153 3.695
5.592 -0.087 3.617
5.911 0.450 3.457
6.240 0.587 3.356
5.742 0.469 3.516
5.968 0.780 3.657
5.935 0.605 3.488
6.303 0.659 2.988
5.033 0.049 1.734
5.193 0.711 1.700
5.208 0.135 1.740
5.228 -0.092 1.533
5.282 0.462 1.472
5.241 0.406 1.491
5.096 0.174 1.274
4.782 0.042 1.634
5.593 0.777 1.290
5.319 0.664 1.300
5.086 0.718 1.616
4.912 0.458 1.355
4.951 0.452 1.425
4.474 -0.073 1.298
4.375 0.068 0.584
5.353 0.752 1.084
5.467 0.570 1.230
5.242 0.633 1.094
4.993 0.538 1.292
4.757 0.184 0.710
4.648 0.031 0.854
4.422 0.095 0.618
4.482 0.379 0.640
5.454 0.886 0.992
5.288 0.974 1.022
4.996 0.874 0.833
5.130 0.633 1.081
5.073 0.367 0.883
4.707 0.271 0.762
4.715 -0.065 0.593
4.461 0.243 0.444
5.594 1.328 0.729
5.589 1.136 0.830
5.147 1.079 0.502
4.816 0.943 0.623
4.914 0.762 0.610
4.466 0.346 0.675
4.749 0.232 0.499
5.904 0.087 4.639
6.186 -0.060 3.553
6.038 0.225 3.458
6.211 0.092 3.536
6.107 0.440 3.123
6.104 0.311 3.313
5.990 0.613 3.185
5.372 0.238 1.693
5.191 0.294 1.353
5.063 0.040 1.280
5.584 0.492 1.646
5.597 0.538 1.574
5.396 0.460 1.063
5.391 -0.022 0.990
4.911 -0.057 1.235
5.670 0.960 1.086
5.603 0.456 0.924
5.231 0.267 0.959
5.189 0.538 0.997
5.143 0.169 0.875
4.924 0.166 0.587
5.887 1.185 1.261
5.468 0.732 0.720
5.235 0.788 0.917
4.982 0.214 0.846
4.859 0.439 0.669
5.023 0.137 0.576
4.532 0.082 0.391
5.723 1.286 0.583
5.722 1.136 0.736
5.408 0.877 0.702
5.096 0.591 0.500
5.239 0.515 0.288
4.610 0.451 0.583
4.682 0.087 0.294
6.102 0.155 3.228
6.143 0.350 2.827
5.591 0.266 1.291
5.703 0.318 1.205
5.577 0.214 1.134
5.648 0.274 1.036
5.237 -0.121 1.250
6.084 0.579 1.329
5.823 0.626 1.259
5.483 0.288 1.107
5.427 0.014 0.929
5.397 -0.129 0.558
6.143 0.976 1.042
5.942 1.038 1.152
5.808 0.857 0.765
5.438 0.281 0.581
5.312 0.180 0.828
5.180 0.042 0.682
6.179 0.929 0.931
6.152 1.104 0.512
5.689 0.612 0.739
5.569 0.684 0.682
5.354 0.655 0.568
5.356 0.501 0.188
4.987 0.334 0.106
5.945 0.073 1.071
5.648 0.136 1.246
6.458 0.671 0.965
6.194 0.700 1.135
5.816 0.102 0.948
5.654 0.134 0.838
5.529 0.120 0.703
6.168 0.883 0.791
5.899 0.498 0.782
6.146 0.683 1.005
5.722 0.248 0.683
5.315 0.405 0.681
6.312 1.143 0.794
6.297 0.652 0.702
6.137 0.351 0.362
5.493 0.526 0.462
5.363 0.267 0.571
5.485 0.202 0.479
6.005 0.516 0.843
6.124 0.040 0.948
6.153 -0.019 0.967
6.282 0.487 0.766
6.249 0.276 0.555
5.895 0.144 0.358
6.043 0.846 0.545
5.851 0.369 0.542
6.035 0.246 0.492
5.892 0.238 0.456
6.313 0.006 0.733
6.171 0.397 0.390
5.856 -0.234 0.690
6.147 0.349 0.480
6.133 -0.011 0.280
3.669 0.927 5.169
3.456 1.197 4.853
2.979 0.702 4.738
3.089 0.554 4.957
2.848 0.351 4.508
2.452 0.183 4.692
3.121 1.140 4.836
3.058 1.072 4.689
2.740 0.951 4.803
2.798 0.643 4.715
2.815 1.120 4.467
4.399 2.284 4.603
4.479 2.508 4.627
4.136 2.141 4.093
4.515 2.542 4.005
3.938 2.660 3.882
3.862 2.496 4.233
4.594 2.513 3.972
3.977 2.718 4.073
3.823 2.314 3.857
3.870 2.424 3.614
4.583 2.801 3.958
4.088 2.473 3.527
3.787 2.364 3.320
3.888 2.557 3.545
3.903 2.167 3.443
4.138 2.991 3.391
4.235 2.760 3.523
3.792 2.853 3.512
3.817 2.354 3.311
3.666 2.459 3.267
3.245 2.356 3.104
4.316 3.129 3.433
3.989 3.031 3.052
3.798 2.739 3.048
4.048 2.624 2.930
3.835 2.282 2.850
3.755 2.497 2.823
2.330 1.000 1.956
1.734 0.975 2.027
1.597 0.675 1.470
1.378 0.501 1.460
4.545 3.357 3.061
4.182 2.827 2.882
3.861 2.704 3.035
3.861 2.813 2.921
3.769 2.759 2.731
3.425 2.436 2.442
2.478 1.463 1.801
1.904 1.475 1.914
1.796 1.072 1.511
1.863 1.051 1.488
1.576 0.675 1.585
1.426 0.437 1.464
4.165 3.523 3.035
4.168 3.354 2.935
3.890 3.172 2.634
3.769 2.665 2.733
3.710 2.666 2.706
3.511 2.726 2.274
2.523 1.323 1.540
2.236 1.423 1.217
2.150 1.378 1.596
1.996 0.931 1.430
1.372 0.931 1.044
1.688 0.747 1.056
4.234 3.497 2.499
4.111 3.292 2.670
4.113 3.083 2.597
3.787 2.756 2.207
3.698 3.069 2.280
2.713 1.636 1.449
2.327 1.806 1.254
1.965 1.277 1.427
2.110 1.161 0.952
1.969 1.214 0.878
1.488 1.015 1.104
1.559 0.718 0.943
1.056 0.595 0.882
4.328 3.418 2.409
4.037 3.495 2.132
3.961 3.348 2.161
2.346 2.081 1.428
2.720 1.759 1.115
2.502 1.577 0.860
2.079 1.829 0.806
2.189 1.404 1.141
1.715 1.376 0.975
1.434 1.356 0.922
1.356 0.822 0.626
1.347 0.774 0.734
2.628 1.961 1.204
3.151 -0.045 6.288
3.315 0.509 5.978
3.004 0.481 5.750
2.791 -0.125 5.640
3.275 0.629 6.123
3.076 0.647 5.653
3.102 0.444 5.725
2.819 0.213 5.800
2.724 -0.046 5.732
3.223 0.858 5.796
3.265 0.499 5.847
2.987 0.232 5.531
2.886 0.284 5.375
2.838 0.242 5.214
3.504 1.305 5.687
3.182 0.694 5.395
3.137 0.757 5.568
2.858 0.618 5.127
3.152 0.179 5.226
2.713 0.034 5.227
2.607 -0.004 5.154
2.337 -0.023 4.745
3.600 0.981 5.286
3.469 0.678 5.162
3.277 0.556 5.072
2.762 0.435 5.155
2.845 0.214 4.853
2.716 0.211 4.628
2.161 0.301 4.856
3.273 1.024 4.859
3.169 0.984 4.778
3.325 0.626 4.816
3.160 0.536 4.898
2.715 0.603 4.754
2.752 0.212 4.679
3.757 0.750 5.039
3.250 0.767 4.714
3.154 0.617 4.897
3.121 0.666 4.454
3.007 0.396 4.440
3.469 0.814 4.761
3.197 0.642 4.695
3.029 0.494 4.454
4.667 2.086 4.423
4.688 2.549 4.177
4.235 2.327 4.197
4.676 2.433 4.090
4.560 2.551 4.123
4.197 2.276 3.798
3.827 1.832 3.747
4.777 2.841 3.996
4.250 2.213 3.625
4.306 2.337 3.549
4.020 2.289 3.639
3.643 1.726 3.546
4.467 2.837 3.640
4.573 2.591 3.331
4.110 2.230 3.625
4.050 2.071 3.493
3.710 2.326 3.135
3.771 1.687 3.008
4.555 2.840 3.662
4.438 2.608 3.455
3.965 2.376 3.176
3.809 2.526 3.328
3.860 2.449 3.191
3.810 2.198 3.194
3.284 1.961 2.865
4.763 2.759 3.101
4.219 2.943 2.971
4.372 2.605 3.144
4.177 2.431 3.178
3.949 2.469 2.943
3.461 2.114 2.968
3.307 2.066 2.600
4.365 2.876 2.896
4.543 3.071 2.653
4.353 2.513 2.967
4.079 2.647 2.632
4.062 2.358 2.628
3.803 2.442 2.527
2.223 1.267 1.593
2.053 0.880 1.589
1.758 0.691 1.632
1.893 0.578 1.076
1.586 0.440 1.138
4.555 3.321 2.979
4.473 2.914 2.470
4.095 3.126 2.563
3.932 2.941 2.667
3.703 2.582 2.446
3.507 2.514 2.525
2.728 1.293 1.652
2.417 1.460 1.295
1.982 1.217 1.045
2.178 0.850 1.309
1.959 0.936 1.352
1.635 0.848 0.910
4.549 3.186 2.204
4.238 2.891 2.311
4.266 2.910 2.196
4.106 2.751 2.164
2.556 1.537 1.323
2.691 1.469 1.400
2.143 1.332 1.108
2.078 0.962 1.082
1.872 0.996 1.222
1.830 0.760 0.992
1.817 0.577 0.559
1.589 0.434 0.929
2.696 1.771 1.138
2.580 1.730 1.170
2.348 1.568 0.841
2.385 1.392 1.168
2.299 1.352 0.794
2.032 0.963 0.590
1.931 1.164 0.643
1.877 0.892 0.546
1.564 0.854 0.625
2.639 1.621 0.887
3.320 -0.135 6.177
3.404 0.229 5.984
3.401 0.058 5.796
3.365 0.140 6.120
3.547 0.545 5.838
3.700 0.521 5.715
3.412 0.280 5.959
3.405 0.226 5.910
3.187 0.078 5.775
3.816 0.846 5.711
3.808 0.678 5.435
3.565 0.433 5.562
3.188 0.115 5.615
3.046 0.091 5.318
3.823 0.782 5.603
3.732 0.714 5.602
3.384 0.539 5.383
3.296 0.234 5.452
3.196 0.437 5.011
2.694 0.021 5.135
3.836 1.063 5.160
3.798 0.850 5.438
3.200 0.755 4.873
3.348 0.525 4.898
3.022 0.184 4.889
2.983 0.365 4.877
2.523 0.266 4.651
3.695 1.120 5.037
3.283 0.613 4.981
3.486 0.636 4.819
3.184 0.727 4.685
3.000 0.247 4.496
3.999 0.913 4.861
3.786 0.913 4.984
3.634 0.325 4.507
3.106 0.367 4.769
4.689 2.154 4.537
4.554 2.125 4.278
4.664 1.943 4.297
4.596 2.169 4.145
4.506 2.027 4.110
4.364 2.125 3.902
4.148 1.626 3.807
4.676 2.446 3.585
4.732 2.308 3.720
4.516 2.246 3.419
4.227 1.942 3.610
4.202 1.677 3.518
4.095 1.605 3.559
4.644 2.819 3.642
4.651 2.432 3.592
4.407 2.302 3.328
4.000 1.854 3.548
3.891 1.993 3.203
3.864 1.754 3.202
3.454 1.810 3.204
4.611 2.592 3.416
4.773 2.743 3.362
4.311 2.142 3.327
4.153 2.198 3.213
3.831 1.998 3.148
4.077 2.125 2.688
3.441 1.789 2.834
3.646 1.632 2.830
4.554 2.933 3.193
4.598 2.750 3.060
4.535 2.244 3.028
4.361 2.084 3.028
3.896 2.210 2.755
3.708 1.900 2.629
3.525 1.677 2.421
4.723 3.118 3.118
4.480 2.636 2.739
4.419 2.411 2.819
4.353 2.288 2.504
4.030 2.333 2.584
3.968 2.079 2.589
3.760 2.012 2.199
2.184 0.484 1.297
2.035 0.624 1.425
4.815 2.791 2.547
4.295 2.964 2.629
3.995 2.620 2.188
4.206 2.599 2.209
3.727 2.080 2.399
2.482 1.346 1.161
2.378 1.177 1.440
2.134 1.015 1.154
1.999 0.814 0.800
1.601 0.493 0.688
1.589 0.334 0.778
4.549 2.873 2.238
4.106 2.731 2.099
3.816 2.734 2.111
2.785 1.213 0.929
2.717 1.252 1.296
2.158 1.257 1.032
2.184 1.002 0.873
2.054 0.539 0.630
1.967 0.463 0.693
1.801 0.582 0.727
1.700 0.016 0.412
2.632 1.668 1.222
2.513 1.267 0.765
2.687 1.335 0.775
2.127 1.098 0.542
2.281 1.067 0.440
1.989 0.710 0.518
1.972 0.564 0.731
1.587 0.341 0.426
1.610 0.453 0.117
3.112 1.844 0.824
3.827 -0.046 6.100
3.717 0.356 6.242
3.728 0.303 5.803
3.516 0.115 5.672
4.084 0.624 5.749
3.915 0.389 5.705
3.963 0.378 5.881
3.729 0.417 5.742
3.505 0.221 5.847
4.342 0.966 5.625
4.174 0.680 5.751
3.864 0.544 5.564
3.684 0.268 5.660
3.392 0.257 5.346
4.352 0.883 5.342
3.769 0.899 5.289
3.993 0.681 5.128
3.690 0.392 5.149
3.633 0.526 5.156
3.488 0.020 5.071
3.784 0.657 5.025
3.587 0.554 4.999
3.679 0.385 4.934
3.377 0.404 4.731
3.394 0.329 4.783
3.300 0.133 4.517
3.834 0.684 4.971
3.788 0.633 4.926
3.616 0.476 4.922
3.211 0.251 4.865
4.021 0.581 4.926
3.958 0.729 4.650
3.660 0.519 4.840
5.111 1.924 4.139
4.924 2.338 3.835
4.816 1.951 3.864
4.574 1.754 3.616
4.405 1.819 3.531
4.093 1.766 3.668
4.835 2.506 3.659
4.973 2.346 3.798
4.337 2.204 3.691
4.514 2.045 3.548
4.062 1.686 3.436
4.282 1.320 3.111
3.765 1.284 3.336
3.818 1.318 2.993
4.963 2.604 3.339
4.644 2.141 3.204
4.731 2.297 3.526
4.332 2.099 3.361
4.041 1.622 3.073
4.111 1.851 2.861
4.056 1.379 3.103
3.728 1.361 2.661
3.278 1.187 2.833
4.944 2.636 3.076
4.493 2.370 3.383
4.667 2.120 3.187
4.505 2.011 3.106
3.969 1.653 2.955
3.961 1.748 2.577
4.065 1.371 2.743
3.518 1.229 2.498
3.637 1.366 2.701
4.982 2.635 2.821
4.800 2.362 2.763
4.483 2.116 2.889
4.263 2.022 2.687
4.258 2.135 2.660
4.182 1.983 2.516
3.705 1.907 2.737
3.666 1.371 2.283
3.500 1.327 2.477
4.657 2.536 2.683
4.706 2.556 2.573
4.581 2.350 2.397
4.090 2.190 2.658
4.020 1.812 2.256
3.675 1.921 2.314
3.755 1.447 2.157
4.449 2.676 2.419
4.461 2.508 2.342
4.183 2.227 2.342
3.964 2.007 2.191
4.006 2.065 1.903
2.632 1.013 1.115
2.417 0.412 1.007
1.959 0.446 1.094
2.222 0.183 0.653
1.923 0.016 0.763
2.639 0.823 1.217
2.302 1.062 1.129
2.298 0.532 0.961
2.040 0.659 0.934
1.773 0.602 0.886
1.875 0.380 0.723
1.584 -0.003 0.606
2.778 1.187 0.806
2.648 1.277 0.586
2.297 0.877 0.617
2.579 0.625 0.800
1.952 0.526 0.675
2.118 0.633 0.514
1.732 0.452 0.332
1.815 0.057 0.325
1.340 -0.123 0.184
4.190 0.202 6.403
4.337 0.643 6.064
4.176 0.260 6.258
3.986 0.237 6.020
4.151 0.181 6.032
4.459 0.708 6.022
4.541 0.568 5.729
4.371 0.348 5.978
3.883 0.145 5.634
3.644 -0.022 5.679
4.386 0.890 6.002
4.112 0.458 5.908
4.086 0.524 5.607
3.745 0.082 5.455
3.975 0.348 5.217
3.610 -0.021 5.143
4.378 0.878 5.718
4.265 0.998 5.276
4.159 0.551 5.382
4.144 0.346 5.458
3.559 0.074 5.270
3.847 0.179 5.029
4.292 0.888 5.394
3.950 0.502 5.071
4.061 0.475 5.014
3.982 0.416 4.718
3.380 0.238 4.942
3.313 0.256 4.798
3.856 0.452 4.955
3.753 0.590 4.496
3.689 0.135 4.760
4.236 0.918 4.841
4.007 0.398 4.860
4.011 0.152 4.854
3.377 -0.014 3.054
3.360 0.106 3.206
3.368 0.169 3.082
2.746 -0.024 3.004
5.221 1.888 3.936
4.674 1.970 3.815
4.950 1.840 3.839
3.939 1.046 3.208
3.632 0.765 3.058
3.281 0.428 3.200
3.311 0.522 3.199
3.074 0.195 3.030
3.219 0.506 2.603
5.016 2.271 3.842
4.714 1.785 3.395
4.975 1.758 3.637
4.636 1.486 3.468
4.214 1.747 3.176
4.410 1.185 2.996
3.926 1.247 3.250
3.776 1.207 2.795
3.776 0.702 2.670
3.424 0.948 3.004
3.147 0.695 2.509
3.350 0.182 2.441
5.250 2.077 3.599
4.723 2.013 3.490
4.648 1.968 3.388
4.329 1.750 3.032
4.554 1.667 2.883
4.386 1.635 3.099
3.841 1.397 3.010
4.013 1.365 2.574
3.620 0.969 2.491
3.601 1.014 2.374
3.505 0.661 2.672
5.295 2.402 3.242
5.118 1.986 2.857
4.519 1.953 2.933
4.741 1.836 2.708
4.532 1.599 2.979
4.169 1.796 2.567
3.898 1.353 2.700
3.662 1.167 2.643
3.852 0.876 2.657
3.548 0.948 2.516
4.741 2.169 2.821
4.507 2.290 2.904
4.559 1.828 2.810
4.220 1.677 2.637
4.263 1.711 2.415
3.873 1.771 2.263
4.128 1.420 2.328
3.718 1.056 2.268
3.509 1.191 1.953
4.944 2.521 2.769
4.788 1.964 2.539
4.307 1.857 2.499
4.046 1.575 2.257
4.251 1.878 2.309
4.023 1.386 2.324
3.563 1.424 1.836
4.573 2.154 2.179
4.189 2.150 2.240
4.158 1.863 1.832
3.930 1.754 2.191
3.951 1.667 2.013
2.700 0.564 0.840
2.208 0.370 0.736
2.149 0.326 1.007
2.630 0.724 0.660
2.314 0.415 0.745
2.369 0.498 0.479
2.076 0.411 0.563
1.957 0.197 0.290
2.637 0.950 0.701
2.894 1.074 0.411
2.431 0.604 0.458
2.581 0.410 0.324
2.116 0.193 0.192
2.023 0.441 0.498
2.024 -0.127 -0.006
4.340 0.043 6.285
4.944 0.702 6.139
4.810 0.232 6.119
4.279 0.269 6.183
4.364 0.037 5.973
4.843 0.900 6.170
4.835 0.506 5.775
4.758 0.638 5.651
4.488 0.181 5.711
4.070 0.438 5.847
3.893 0.005 5.465
4.814 1.054 5.673
4.842 0.921 5.952
4.435 0.511 5.839
4.389 0.310 5.538
4.420 0.382 5.578
3.967 0.233 5.629
3.822 0.092 5.199
5.054 0.925 5.356
4.884 0.579 5.480
4.388 0.723 5.270
4.295 0.279 5.041
4.284 0.156 5.369
3.844 0.304 5.229
4.649 0.697 5.463
4.274 0.758 5.293
4.473 0.422 5.123
4.231 0.409 4.934
3.732 0.096 4.869
3.614 -0.147 4.911
4.210 0.896 5.021
4.229 0.633 4.719
3.894 0.497 4.772
3.189 5.084 2.497
3.421 5.568 2.417
3.152 5.164 2.416
3.702 5.772 2.638
3.731 5.793 2.607
3.465 5.381 2.425
3.093 5.492 2.374
3.586 6.287 2.373
3.436 5.998 2.389
3.641 6.123 2.165
3.301 5.646 2.130
3.038 5.424 2.032
3.611 6.319 1.974
3.583 5.878 1.903
3.389 5.653 1.992
3.297 5.681 1.890
3.486 6.005 1.774
3.445 6.036 1.564
3.652 6.466 1.541
3.684 5.222 2.800
3.277 5.021 2.726
3.563 5.452 2.294
3.483 5.525 2.210
3.312 5.154 2.334
4.095 5.833 2.288
3.910 5.921 2.354
3.807 5.505 2.100
3.428 5.422 2.170
3.185 5.246 2.288
3.973 6.227 2.580
3.773 6.271 2.260
4.078 5.691 2.377
3.731 5.787 2.056
3.576 5.831 1.761
3.108 5.389 1.919
4.265 6.223 1.890
3.718 5.949 1.810
3.459 5.781 1.718
3.457 5.658 1.717
3.195 5.627 1.927
3.844 6.082 1.547
3.791 6.176 1.670
3.531 5.641 1.510
3.398 5.804 1.249
4.107 6.010 1.436
3.637 6.251 1.253
3.590 6.024 1.417
3.604 6.009 1.342
3.492 4.867 2.548
3.328 5.066 2.730
3.850 5.354 2.376
3.829 5.319 2.361
3.455 5.194 2.354
3.247 5.040 2.292
4.131 5.754 2.651
3.895 5.504 2.252
4.095 5.492 2.103
3.470 5.278 2.281
3.271 4.899 1.970
4.414 6.318 2.282
4.122 5.995 2.341
4.321 5.926 2.335
3.791 5.754 2.214
3.936 5.424 1.848
3.724 5.283 2.039
3.676 5.474 1.969
4.355 6.421 1.966
4.065 6.215 1.968
4.133 5.774 1.986
4.019 5.892 1.877
3.597 5.308 1.700
3.621 5.426 1.465
4.062 6.316 1.670
4.029 5.880 1.808
3.911 6.051 1.460
3.653 5.904 1.607
3.435 5.662 1.374
4.040 6.466 1.697
4.080 6.044 1.620
4.087 5.730 1.115
3.466 5.793 1.433
3.571 5.462 1.379
3.882 6.432 1.326
3.792 5.971 1.386
3.729 5.922 1.154
4.080 5.969 1.082
3.951 6.283 0.539
3.800 4.943 2.415
3.588 4.889 2.753
3.544 4.544 2.270
4.014 5.333 2.330
3.939 5.193 2.627
3.618 5.186 2.459
3.525 4.951 2.298
4.147 5.474 2.278
4.125 5.678 2.113
3.774 5.474 2.115
3.963 5.029 2.328
3.524 4.947 1.797
4.566 5.705 2.183
4.179 5.676 2.009
4.426 5.351 2.145
4.172 5.585 1.823
4.065 5.171 1.755
3.469 5.109 1.793
4.858 6.357 2.051
4.470 6.206 2.246
4.187 5.810 1.932
4.157 5.961 1.693
3.925 5.565 1.861
4.059 5.577 1.645
3.552 5.265 1.521
4.415 6.197 1.685
4.285 6.230 1.842
3.992 6.064 1.382
4.058 5.479 1.515
3.951 5.293 1.163
3.892 5.327 1.157
4.566 6.235 1.430
4.487 6.341 1.277
4.264 6.078 1.566
4.097 5.883 1.133
4.118 5.739 1.334
3.483 5.526 1.343
4.418 6.164 1.131
4.252 5.962 1.010
4.188 5.860 0.859
3.648 5.892 0.782
3.625 5.394 0.888
4.426 6.339 0.884
3.921 6.201 0.934
3.666 5.935 0.505
3.981 6.167 0.738
4.321 6.294 0.854
4.423 5.930 0.637
4.298 5.637 0.632
4.391 6.026 0.283
4.337 6.007 0.556
4.133 6.111 0.026
4.048 4.808 2.255
4.029 4.672 2.318
4.142 5.196 2.173
4.138 4.686 2.108
4.022 4.581 2.244
4.475 5.206 2.010
3.956 5.212 2.168
3.781 4.962 2.016
3.625 4.767 2.042
4.634 5.631 2.100
4.479 5.401 1.764
4.232 5.167 1.939
3.852 5.333 1.890
3.627 4.814 1.854
4.794 6.046 2.043
4.435 5.572 1.701
4.568 5.507 1.917
4.015 5.203 1.816
3.991 5.019 1.512
3.972 4.957 1.380
5.163 6.112 1.854
4.741 6.228 1.725
4.448 6.026 1.503
4.512 5.449 1.490
4.076 5.421 1.199
4.257 5.356 1.188
4.038 5.123 1.178
5.121 6.472 1.448
4.812 6.273 1.415
4.351 5.896 1.559
4.627 5.974 1.402
3.991 5.607 0.960
4.209 5.647 1.228
3.850 5.365 0.881
4.945 6.320 1.142
4.394 6.197 1.264
4.626 6.104 1.271
4.169 5.673 0.879
4.204 5.527 0.800
3.773 5.340 0.684
4.587 6.316 1.087
4.362 5.837 1.078
4.270 5.942 1.007
3.992 5.868 0.528
4.591 6.002 0.600
4.249 5.760 0.401
4.124 5.641 0.588
4.922 6.071 0.484
4.768 6.010 0.659
4.551 5.797 0.227
4.285 5.614 0.560
4.874 6.440 0.364
4.757 5.983 0.384
4.637 6.096 0.060
4.493 6.015 0.223
4.576 6.382 -0.073
4.625 5.987 0.163
6.165 6.131 3.024
5.531 6.110 3.149
4.135 4.491 2.340
3.906 4.232 2.259
4.363 4.498 1.945
3.831 4.748 1.993
4.400 4.818 2.206
4.098 5.025 2.160
3.890 4.620 1.933
4.604 5.407 1.795
4.568 4.899 1.635
4.190 4.985 1.945
3.800 4.652 1.426
4.596 5.373 1.535
4.665 5.282 1.616
4.602 5.437 1.708
4.067 5.305 1.672
4.103 4.767 1.615
5.065 5.768 1.513
4.512 5.663 1.772
4.632 5.419 1.575
4.332 5.479 1.395
4.464 5.103 1.371
4.117 5.225 1.038
4.859 6.109 1.335
4.861 5.886 1.302
4.887 5.926 1.111
4.800 5.818 1.158
4.539 5.412 0.893
4.208 5.183 1.282
3.824 5.274 1.023
5.026 6.430 1.241
4.923 6.194 1.305
4.990 6.066 0.937
4.621 5.695 0.970
4.472 5.732 1.094
4.103 5.275 0.793
3.834 5.132 0.714
4.732 6.175 1.132
4.554 6.019 0.692
4.700 5.815 0.614
4.314 5.694 0.845
4.095 5.557 0.709
4.623 5.951 0.622
4.447 6.214 0.590
4.249 5.972 0.704
4.033 5.516 0.280
5.325 6.207 0.792
5.009 6.165 0.343
4.989 5.811 0.381
4.724 5.602 0.332
4.446 5.285 0.213
4.924 6.449 0.270
5.031 6.100 0.422
4.869 5.760 0.368
4.813 5.762 0.291
4.612 5.468 0.017
5.044 6.232 0.160
4.771 6.121 -0.201
6.333 6.012 2.988
5.908 5.680 3.127
6.014 5.771 3.029
5.733 5.663 2.750
4.464 4.142 2.302
6.302 6.404 3.180
6.094 5.952 2.827
5.685 6.084 2.781
4.265 4.433 1.739
6.207 6.374 2.737
4.178 4.566 1.667
4.438 4.886 1.746
4.596 5.117 1.296
5.099 5.612 1.288
4.832 5.392 1.489
4.376 5.062 1.491
4.515 5.145 1.395
5.205 5.679 1.356
4.858 5.773 1.255
4.979 5.568 1.378
4.526 5.504 1.279
4.524 5.037 0.969
5.112 6.219 0.969
5.197 5.916 1.072
4.730 5.525 1.213
4.688 5.666 1.043
4.820 5.509 0.926
4.251 5.058 0.954
5.542 6.367 0.940
4.899 5.876 0.905
4.969 5.977 0.732
4.822 5.855 0.737
4.750 5.406 0.463
4.186 5.650 0.713
5.121 5.992 0.660
4.762 6.204 0.618
5.032 5.731 0.579
4.415 5.879 0.381
4.205 5.750 0.510
5.400 5.926 0.906
5.198 6.066 0.521
5.213 5.964 0.565
5.042 5.539 0.483
4.669 5.408 0.467
4.511 5.424 0.406
5.675 6.375 0.618
5.393 6.196 0.138
4.921 5.778 0.319
4.759 5.656 0.050
4.597 5.547 0.104
5.408 6.223 0.268
5.138 5.892 0.167
6.368 5.894 2.977
6.001 5.822 2.921
5.983 5.369 2.671
6.314 5.933 2.967
6.034 5.893 2.529
5.551 5.311 2.383
6.378 6.054 2.389
5.872 5.919 2.579
6.317 6.058 2.612
5.066 5.427 1.263
5.205 5.293 1.023
5.090 5.939 1.049
5.191 5.640 0.915
4.898 5.599 1.064
4.978 5.523 0.950
5.471 5.813 0.687
5.212 5.766 0.653
5.338 5.502 0.538
4.967 5.410 0.615
4.718 5.430 0.576
4.694 5.484 0.217
5.479 6.260 0.429
5.179 6.080 0.667
5.199 5.753 0.724
4.976 5.649 0.395
4.836 5.773 0.411
4.380 5.584 0.304
0.693 6.410 1.854
0.580 4.926 2.420
0.421 4.929 2.543
-0.030 4.575 2.299
0.492 4.768 2.360
-0.059 4.635 1.858
1.393 6.055 1.568
1.041 6.182 1.194
-0.134 5.558 0.285
0.129 5.501 0.008
0.751 5.258 2.659
0.545 5.123 2.603
0.680 4.867 2.272
0.407 4.748 2.463
0.314 4.177 2.186
0.717 4.903 1.943
0.512 4.927 2.196
0.151 4.642 2.152
0.269 4.445 2.066
0.470 5.203 1.868
0.376 4.917 1.618
0.292 4.883 1.458
0.108 5.067 1.583
-0.083 4.524 1.706
0.190 4.642 1.190
0.350 5.092 0.952
1.624 6.454 1.201
1.393 6.406 1.184
-0.169 5.285 0.072
0.132 5.353 0.067
0.234 5.401 -0.060
-0.243 5.279 -0.182
1.558 6.446 0.650
1.439 6.109 0.256
0.086 3.994 2.219
1.095 4.927 2.423
0.754 4.979 2.249
1.053 4.835 2.154
0.402 4.447 2.039
0.264 4.550 1.955
0.448 4.443 2.261
0.376 3.914 1.968
-0.104 4.243 1.607
1.005 4.761 2.304
0.980 4.815 2.191
0.611 4.521 1.831
0.370 4.520 1.847
0.463 4.151 1.856
0.189 4.354 1.715
0.346 4.135 1.407
0.603 5.195 1.843
0.532 4.644 1.808
0.627 4.655 1.884
0.090 4.236 1.527
-0.103 4.581 1.732
0.343 4.603 1.503
0.718 4.900 1.349
0.513 4.874 1.352
0.458 4.542 1.256
0.187 4.290 1.489
0.079 4.439 1.289
0.366 5.039 1.344
0.153 4.866 0.931
0.013 4.702 1.247
0.355 4.722 0.737
0.471 5.010 1.154
-0.006 4.565 0.609
0.058 4.799 0.638
-0.023 4.599 0.580
0.465 4.820 0.620
0.335 4.872 0.806
-0.027 4.971 0.423
-0.200 4.917 0.403
1.606 5.996 1.281
0.144 4.702 0.516
0.130 4.850 0.068
0.200 4.736 -0.013
1.367 5.990 0.588
0.136 5.274 0.347
1.213 6.083 0.773
1.920 6.322 0.435
1.832 6.079 0.589
1.623 5.713 0.399
1.367 6.299 0.495
1.602 6.295 0.200
0.318 3.975 2.002
0.272 3.621 1.549
1.765 4.986 2.644
1.335 5.066 2.480
1.127 4.768 2.126
1.053 4.374 2.084
0.713 4.506 2.146
0.681 4.352 2.282
0.239 3.907 1.920
0.414 3.830 1.707
0.321 4.028 1.583
0.266 3.945 1.541
1.592 4.847 2.262
1.390 5.042 2.145
1.239 4.544 2.171
0.978 4.624 1.983
0.554 4.604 1.656
0.731 4.437 1.772
0.073 3.910 1.766
0.543 4.121 1.511
0.403 3.959 1.421
0.981 5.158 1.934
1.123 4.633 1.926
0.616 4.875 1.908
0.923 4.603 1.583
0.740 4.187 1.317
0.518 4.027 1.375
0.512 4.345 1.269
0.054 4.143 0.935
1.170 4.833 1.725
0.853 4.546 1.304
0.772 4.595 1.601
0.280 4.597 1.517
0.344 4.136 1.016
0.198 4.505 1.060
-0.068 4.235 0.769
0.935 5.045 1.467
0.698 4.914 1.307
0.420 4.704 0.927
0.323 4.188 0.904
0.552 4.305 0.942
-0.057 4.193 0.889
0.184 4.213 0.465
0.808 4.790 1.211
0.438 4.811 0.713
0.502 4.283 0.869
0.502 4.402 0.773
0.053 4.349 0.633
0.211 4.230 0.411
0.689 4.791 0.751
0.222 4.515 0.611
0.167 4.817 0.102
0.419 4.684 0.000
0.005 4.614 0.099
0.287 4.703 0.320
0.150 4.560 0.119
1.600 6.152 0.624
1.831 6.510 0.667
1.701 6.270 0.448
1.431 5.800 0.188
1.914 6.063 0.737
1.985 6.001 0.423
1.929 5.718 0.527
1.347 5.842 0.127
1.947 6.410 0.117
1.805 6.115 0.312
1.460 5.804 -0.013
1.984 6.106 -0.153
0.537 3.865 1.880
0.119 3.763 1.629
1.741 5.034 2.764
1.505 5.092 2.350
1.375 4.945 2.133
1.333 4.382 2.483
1.047 4.593 2.061
1.234 4.460 1.848
0.641 3.889 1.969
0.835 4.000 1.852
0.244 3.837 2.025
0.284 3.784 1.425
0.082 3.961 1.641
0.098 3.367 1.589
1.841 5.029 2.044
1.395 4.735 2.375
1.147 4.886 2.047
1.055 4.733 2.046
1.127 4.602 1.958
0.887 3.994 1.814
0.879 3.924 1.915
0.621 3.785 1.366
0.417 4.207 1.429
0.529 3.718 1.312
0.177 3.448 1.137
1.296 4.841 1.714
1.590 4.690 1.979
1.103 4.758 1.898
1.251 4.725 1.834
1.076 4.310 1.725
0.859 4.263 1.391
0.683 3.778 1.228
0.528 4.212 1.033
0.430 3.923 1.008
0.168 3.875 0.815
1.278 4.906 1.378
0.836 4.577 1.532
0.818 4.316 1.550
0.818 4.117 1.242
0.440 4.015 1.123
0.552 4.266 0.775
0.275 4.207 1.032
0.331 3.710 0.831
0.133 3.689 0.725
1.177 4.922 1.030
0.681 4.729 1.124
0.729 4.492 0.786
0.662 4.283 1.092
0.518 4.212 0.835
0.358 4.190 0.570
0.135 4.287 0.281
0.078 3.983 0.574
0.556 4.665 0.925
0.368 4.606 0.469
0.556 4.376 0.569
0.520 4.471 0.233
0.068 4.156 0.158
0.038 3.964 0.181
0.882 4.583 0.826
0.422 4.639 0.465
0.507 4.707 0.400
0.519 4.493 0.227
0.127 4.135 0.281
0.508 4.687 0.145
2.193 6.042 0.676
2.017 6.236 0.307
1.613 5.781 0.326
1.608 5.764 0.203
2.514 6.311 0.308
2.153 5.911 0.628
2.132 5.977 0.487
1.666 5.639 0.133
2.479 5.998 0.203
1.973 6.167 0.137
1.748 6.079 0.192
1.875 5.628 0.278
2.051 6.197 0.045
0.817 3.849 1.577
2.217 5.159 2.646
2.224 5.006 2.234
1.972 4.804 2.462
1.664 4.474 2.262
1.532 4.295 2.136
1.209 4.458 1.860
1.274 3.868 2.220
0.998 3.756 1.752
1.050 3.666 1.801
0.642 3.819 1.980
0.672 3.545 1.464
0.654 3.373 1.518
0.164 3.282 1.362
2.037 4.831 2.235
1.861 4.973 2.013
1.519 4.457 1.874
1.790 4.615 1.878
1.284 4.183 1.722
1.381 4.108 1.753
1.141 4.216 1.781
0.645 3.909 1.812
0.937 3.681 1.711
0.570 3.866 1.449
0.498 3.792 1.287
0.271 3.551 1.059
0.128 3.412 0.818
-0.032 3.318 0.871
1.850 5.057 2.110
1.554 4.884 1.711
1.403 4.538 1.717
1.246 4.325 1.412
1.267 4.371 1.632
1.085 4.126 1.330
0.977 3.812 1.326
0.796 3.920 1.382
0.489 3.872 0.866
0.649 3.995 1.036
0.279 3.471 1.123
0.127 3.377 1.026
-0.045 3.239 0.945
1.680 4.564 1.311
1.337 4.851 1.494
1.451 4.600 1.192
0.922 4.449 1.451
0.779 4.023 1.344
0.606 3.787 1.084
0.479 4.061 0.955
0.620 4.024 0.552
0.521 3.547 0.516
-0.015 3.870 0.476
-0.081 3.511 0.504
1.199 4.178 1.044
0.915 4.458 1.178
0.705 4.259 0.695
0.471 4.147 0.799
0.578 3.814 0.594
0.411 3.853 0.287
0.315 3.821 0.474
0.099 3.490 0.329
0.655 4.303 0.879
0.662 4.234 0.468
0.590 4.106 0.554
0.307 4.253 0.324
0.623 4.144 0.022
0.376 4.101 0.361
0.195 3.704 0.070
0.516 4.402 0.470
0.551 4.123 0.082
0.618 4.330 0.040
2.092 6.184 0.674
1.958 6.054 0.694
2.109 5.797 0.267
1.685 5.858 0.248
2.211 5.571 0.445
2.313 5.613 0.383
2.071 5.611 0.377
2.654 5.855 0.298
2.345 5.793 0.408
2.011 5.640 0.042
2.608 6.217 0.260
2.685 5.209 2.723
2.312 4.736 2.336
2.045 4.522 2.529
2.095 4.710 2.067
1.778 4.388 2.204
1.558 4.291 1.995
1.684 4.041 2.134
1.584 4.127 2.060
1.080 3.664 1.779
0.875 3.693 1.706
0.745 3.832 1.570
2.386 5.303 2.192
2.238 5.048 2.414
2.038 5.106 2.360
2.262 4.563 2.278
2.025 4.660 2.146
1.492 4.269 2.090
1.556 4.431 2.015
1.535 4.212 1.694
1.004 3.949 1.609
0.810 3.820 1.350
1.105 3.519 1.193
1.084 3.796 1.450
0.497 3.582 1.113
0.700 3.481 1.210
2.823 5.291 2.202
2.358 5.334 1.950
2.448 5.167 1.746
2.266 4.691 1.705
1.839 4.832 1.842
1.622 4.313 1.795
1.486 4.304 1.766
1.416 4.287 1.530
1.037 3.787 1.252
0.924 3.636 1.448
0.895 3.652 1.183
0.715 4.012 0.978
0.827 3.782 1.064
0.589 3.575 0.905
0.374 3.327 0.716
0.187 3.376 0.573
0.164 3.216 0.357
1.529 4.811 1.289
1.403 4.586 1.191
1.463 4.115 1.386
1.044 4.352 0.969
0.990 4.149 1.245
0.809 3.921 0.768
0.791 4.194 0.588
0.842 3.891 0.720
0.743 3.861 0.400
0.420 3.691 0.619
0.107 3.520 0.440
-0.084 3.405 0.410
1.290 3.918 1.022
0.691 3.941 0.632
1.101 4.069 0.402
0.944 3.804 0.404
0.588 3.651 0.145
0.365 3.506 0.185
0.238 3.643 0.238
-0.193 3.397 0.100
0.848 3.884 0.301
0.751 4.130 0.282
0.321 4.006 -0.092
0.244 3.694 0.078
2.535 5.922 0.263
1.970 5.699 0.206
2.032 5.704 0.077
2.456 5.407 0.311
2.098 5.474 0.132
1.989 4.956 0.131
2.364 5.894 0.154
2.873 5.298 2.452
2.635 4.737 2.656
2.709 4.967 2.364
2.329 4.803 2.144
2.417 4.200 2.033
2.075 4.270 2.137
1.688 4.262 2.228
1.751 3.932 2.009
1.687 3.987 1.784
1.220 3.501 1.878
2.792 5.358 2.493
2.541 5.067 2.208
2.835 4.932 2.028
2.469 4.756 2.135
2.412 4.398 2.127
1.958 4.601 2.018
1.915 4.273 1.828
1.801 4.054 1.569
1.478 4.006 1.434
1.474 4.004 1.374
2.958 5.273 2.006
2.721 5.334 2.096
2.598 4.977 1.745
2.448 4.950 1.957
2.037 4.734 1.799
2.141 4.383 1.587
2.003 4.316 1.508
1.706 4.282 1.598
1.519 4.123 1.532
1.498 3.984 1.190
0.364 3.399 0.836
0.590 3.247 0.398
0.054 2.752 0.627
-0.098 2.519 0.212
2.960 5.267 1.860
2.783 5.399 1.576
2.662 5.312 1.659
2.562 4.736 1.550
2.398 4.661 1.659
0.920 3.227 0.709
0.782 3.380 0.442
0.237 3.061 0.216
0.228 2.746 0.046
0.097 2.801 0.010
2.722 5.530 1.872
0.876 3.719 0.130
0.744 3.215 0.370
0.206 3.467 0.139
0.095 3.150 -0.120
2.129 5.307 -0.005
2.087 5.109 0.086
1.877 4.981 -0.201
2.519 4.952 -0.086
2.794 5.530 -0.051
3.140 4.709 2.511
3.045 4.996 2.433
2.816 4.487 2.360
2.433 4.219 2.464
2.443 4.030 2.188
2.210 4.359 2.149
2.087 4.164 2.053
1.793 3.789 2.014
3.308 5.192 2.231
3.214 4.736 2.001
2.579 4.648 2.115
2.612 4.778 1.945
2.644 4.504 2.032
2.473 4.378 1.933
1.996 4.212 1.908
1.758 3.994 1.873
3.173 4.979 1.926
2.730 4.767 1.823
2.616 4.948 1.721
2.858 4.753 1.581
2.605 4.655 1.711
2.087 4.399 1.561
2.251 4.058 1.657
0.010 2.799 0.485
-0.195 2.567 0.037
3.314 5.487 1.669
3.020 5.010 1.738
2.856 4.777 1.529
2.784 4.804 1.757
0.469 3.249 0.399
0.220 3.086 0.184
0.253 2.886 -0.130
2.930 5.130 1.806
2.978 5.223 1.504
0.795 3.281 -0.039
2.071 5.156 0.059
3.437 4.802 2.670
3.258 4.443 2.436
3.191 4.451 2.427
3.044 4.426 2.356
2.761 3.880 1.850
2.402 4.089 1.879
2.182 3.827 2.103
3.512 4.783 2.329
2.971 4.699 2.358
3.199 4.761 2.000
2.878 4.564 2.114
2.837 3.990 1.851
2.665 3.901 1.750
2.394 4.102 1.634
3.225 5.020 2.148
2.920 4.580 1.891
3.122 4.718 2.005
3.046 4.715 1.799
2.831 4.287 1.608
2.584 4.231 1.449
0.299 2.482 -0.092
0.062 2.286 0.024
3.330 5.138 1.563
2.983 4.806 1.700
3.106 4.893 1.691
2.709 4.540 1.385
0.331 2.660 -0.166
3.125 5.178 1.497
3.367 4.969 1.665
3.496 5.255 1.221
3.632 4.735 2.297
3.538 4.353 2.052
3.157 4.251 2.388
2.985 3.993 1.931
2.772 4.110 2.150
2.687 3.711 1.857
3.703 4.852 2.107
3.344 4.680 2.262
3.375 4.234 2.141
2.850 4.410 1.753
2.841 4.260 1.959
2.429 3.740 1.920
-0.101 1.898 -0.125
3.355 4.710 1.730
3.420 4.650 2.026
3.335 4.429 1.476
2.946 4.246 1.495
2.897 3.973 1.285
3.518 4.729 1.812
3.419 5.026 1.530
3.296 4.416 1.263
3.343 4.935 1.414
3.580 4.961 1.571
3.516 5.374 1.206
2.508 4.535 -0.128
3.662 4.446 2.452
3.566 4.531 2.174
3.332 4.173 2.091
3.131 3.886 1.850
3.006 3.611 1.743
3.602 4.512 2.215
3.587 4.167 1.824
3.349 4.440 1.895
3.131 3.893 1.678
2.956 4.055 1.731
3.885 4.831 1.834
3.745 4.550 1.967
3.090 4.218 1.642
2.990 3.969 1.376
3.565 4.810 1.347
3.675 4.671 1.675
3.409 4.721 1.213
3.772 4.926 1.232
3.545 4.878 1.375
3.632 4.968 1.384
2.371 4.348 0.121
1.681 2.355 1.209
1.428 2.232 0.897
1.516 2.250 1.077
3.609 4.052 2.265
3.560 4.010 1.855
3.546 3.760 2.253
3.455 3.747 2.004
3.388 3.567 1.664
3.972 4.265 1.877
3.790 4.256 1.977
3.620 4.153 1.556
3.269 4.077 1.785
3.899 4.680 1.951
3.601 4.241 1.676
3.507 4.437 1.629
4.000 4.864 1.473
3.859 4.561 1.573
3.842 4.809 1.137
2.515 3.363 0.462
2.612 4.104 0.159
2.767 3.501 0.002
2.385 3.481 -0.122
2.619 4.014 0.230
2.459 4.202 0.045
2.283 2.368 0.927
1.952 2.128 0.791
1.934 2.052 0.799
1.437 2.025 0.823
1.590 1.680 0.792
1.087 1.606 0.920
4.282 3.914 2.054
3.830 3.782 2.102
3.657 4.036 1.754
3.279 3.542 1.795
2.092 2.406 1.355
2.008 2.673 0.658
1.773 2.317 0.731
1.640 2.288 0.656
1.699 1.906 0.744
1.675 1.998 0.305
4.173 4.378 1.818
3.806 3.857 1.934
2.079 2.568 0.976
2.368 2.874 0.534
2.172 2.385 0.590
1.928 2.081 0.571
2.310 2.685 1.003
2.108 2.554 0.459
1.987 2.514 0.332
2.073 2.556 0.174
2.552 3.152 0.595
2.544 2.790 0.352
2.097 2.565 0.685
1.993 2.741 0.247
1.891 2.668 -0.044
2.468 3.213 0.505
2.665 3.356 0.580
2.407 2.847 0.109
2.209 2.978 -0.013
2.198 3.200 0.134
2.646 3.414 0.542
2.878 3.673 0.295
2.368 3.107 0.086
2.394 3.017 0.326
1.955 2.973 0.240
2.974 3.950 0.156
2.964 3.648 -0.056
2.781 3.519 -0.017
3.232 4.017 0.106
