4.195 0.304 2.796
4.351 0.128 2.700
4.607 -0.034 2.636
1.970 1.702 3.146
4.051 0.681 2.660
4.302 0.474 2.637
4.483 0.420 2.651
3.530 0.870 2.584
3.726 0.723 2.503
3.939 0.607 2.519
4.245 0.508 2.467
4.434 0.284 2.444
4.661 0.160 2.365
4.838 0.060 2.304
3.218 0.948 2.381
3.434 0.847 2.284
3.697 0.714 2.311
3.883 0.604 2.221
4.153 0.448 2.197
4.287 0.263 2.195
4.517 0.101 2.108
3.008 1.083 2.178
3.137 0.890 2.076
3.340 0.784 2.028
3.586 0.683 2.006
3.773 0.484 2.008
4.023 0.351 1.933
4.213 0.200 1.906
4.478 0.059 1.836
2.917 1.055 2.112
2.879 1.010 1.849
3.066 0.893 1.850
3.348 0.717 1.767
3.577 0.594 1.763
3.720 0.477 1.774
3.988 0.261 1.664
4.230 0.112 1.647
4.377 0.073 1.622
2.677 1.118 1.867
2.852 1.041 1.859
2.807 0.953 1.657
3.041 0.832 1.563
3.284 0.637 1.578
3.493 0.520 1.520
3.627 0.446 1.435
3.877 0.256 1.418
4.142 0.079 1.454
2.334 1.200 1.665
2.625 1.069 1.708
2.781 0.983 1.687
2.773 0.923 1.432
2.912 0.801 1.333
3.179 0.599 1.308
3.430 0.505 1.237
3.590 0.332 1.290
3.849 0.167 1.206
3.988 0.090 1.163
1.673 1.654 1.624
1.818 1.454 1.565
2.077 1.378 1.465
2.304 1.171 1.420
2.466 1.078 1.419
2.690 0.875 1.378
2.683 0.859 1.142
2.858 0.764 1.100
3.077 0.567 1.079
1.535 1.620 1.327
1.774 1.406 1.320
1.976 1.303 1.226
2.251 1.107 1.189
2.404 1.001 1.198
2.629 0.818 1.126
2.528 0.804 0.864
2.771 0.637 0.884
1.508 1.463 1.100
1.701 1.353 1.102
1.887 1.206 0.981
2.124 1.065 0.936
2.331 0.953 0.946
2.549 0.795 0.935
2.498 0.743 0.698
1.418 1.418 0.872
1.608 1.326 0.847
1.839 1.133 0.759
2.016 1.051 0.709
2.242 0.935 0.715
2.455 0.790 0.613
1.330 1.359 0.628
1.601 1.285 0.551
1.778 1.108 0.479
2.000 0.960 0.459
2.159 0.854 0.416
1.227 1.337 0.308
1.504 1.179 0.301
1.670 1.084 0.277
1.905 0.935 0.212
1.190 1.278 0.106
1.430 1.218 0.098
4.578 1.266 4.910
4.742 1.146 4.917
4.945 0.991 4.907
5.200 0.844 4.818
5.351 0.648 4.754
5.627 0.575 4.761
5.851 0.408 4.773
6.011 0.281 4.643
6.236 0.091 4.627
4.456 1.229 4.656
4.636 1.026 4.629
4.879 0.916 4.632
5.052 0.745 4.543
5.312 0.669 4.583
5.584 0.538 4.544
5.803 0.399 4.523
5.992 0.228 4.480
6.187 0.098 4.451
4.569 1.074 4.399
4.850 0.852 4.415
5.047 0.694 4.345
5.212 0.556 4.364
5.409 0.443 4.252
5.721 0.314 4.285
5.918 0.174 4.252
6.113 -0.018 4.150
4.990 0.725 4.128
5.212 0.507 4.109
5.364 0.398 3.988
5.621 0.278 3.960
5.862 0.131 3.988
5.713 0.088 3.747
2.525 2.168 4.280
2.744 2.025 4.275
2.361 2.179 3.989
2.649 1.951 3.965
2.835 1.897 3.964
2.295 2.065 3.794
2.568 1.933 3.787
2.783 1.815 3.704
2.222 2.054 3.575
2.429 1.934 3.487
2.191 1.960 3.259
2.434 1.796 3.307
4.011 0.645 2.715
4.314 0.466 2.659
4.491 0.369 2.670
3.927 0.961 2.641
4.136 0.886 2.589
4.417 0.680 2.570
4.560 0.542 2.603
3.437 1.262 2.529
3.672 1.080 2.487
3.935 0.949 2.421
4.116 0.837 2.427
4.356 0.658 2.352
4.522 0.491 2.350
4.743 0.422 2.285
3.348 1.239 2.224
3.599 1.010 2.237
3.772 0.871 2.202
4.018 0.812 2.143
4.259 0.667 2.100
4.407 0.501 2.013
4.722 0.309 2.067
3.050 1.334 2.055
3.297 1.165 1.967
3.518 1.041 2.016
3.763 0.901 1.949
3.943 0.729 1.862
4.169 0.542 1.838
4.422 0.393 1.767
4.636 0.295 1.754
4.795 0.191 1.765
3.113 1.300 2.070
2.955 1.199 1.794
3.214 1.040 1.736
3.429 0.919 1.728
3.617 0.779 1.659
3.841 0.709 1.613
4.108 0.524 1.559
4.310 0.392 1.617
4.532 0.235 1.506
2.838 1.415 1.827
2.956 1.184 1.792
2.898 1.178 1.511
3.149 1.052 1.500
3.396 0.904 1.523
3.565 0.784 1.420
3.772 0.640 1.353
4.052 0.489 1.367
4.238 0.328 1.366
4.417 0.182 1.279
2.307 1.565 1.694
2.540 1.501 1.673
2.751 1.371 1.601
2.906 1.131 1.541
2.891 1.153 1.297
3.079 0.948 1.219
3.300 0.864 1.192
3.488 0.710 1.245
3.766 0.582 1.108
3.895 0.468 1.158
1.762 1.811 1.500
2.006 1.688 1.410
2.169 1.563 1.458
2.424 1.400 1.433
2.622 1.262 1.330
2.871 1.124 1.275
2.748 1.121 1.019
3.022 0.934 0.997
3.257 0.828 1.004
3.471 0.665 0.898
1.715 1.746 1.220
1.869 1.639 1.205
2.156 1.507 1.178
2.327 1.303 1.140
2.542 1.168 1.056
2.724 1.027 1.066
2.734 0.979 0.859
2.863 0.846 0.730
1.607 1.706 0.968
1.823 1.582 0.995
2.006 1.406 0.936
2.218 1.307 0.905
2.495 1.113 0.901
2.668 1.007 0.766
2.579 0.956 0.525
1.525 1.628 0.751
1.727 1.492 0.683
1.999 1.372 0.650
2.217 1.221 0.648
2.458 1.100 0.655
2.629 0.976 0.553
1.450 1.572 0.536
1.658 1.494 0.448
1.881 1.366 0.459
2.084 1.241 0.370
2.281 1.090 0.372
1.348 1.558 0.318
1.556 1.430 0.285
1.840 1.314 0.159
2.076 1.180 0.197
2.235 1.033 0.149
1.334 1.491 0.033
4.824 1.290 4.819
5.079 1.158 4.778
5.326 1.106 4.806
5.511 0.921 4.722
5.703 0.808 4.713
5.942 0.637 4.597
6.126 0.491 4.576
4.995 1.166 4.566
5.197 0.985 4.480
5.463 0.848 4.522
5.638 0.711 4.430
5.892 0.534 4.433
6.108 0.463 4.318
4.913 1.088 4.284
5.177 0.994 4.220
5.319 0.850 4.212
5.566 0.665 4.210
5.823 0.523 4.183
6.049 0.342 4.161
6.234 0.279 4.073
5.273 0.772 3.943
5.520 0.635 3.956
5.762 0.521 3.960
5.971 0.377 3.839
6.146 0.237 3.854
5.596 0.467 3.618
5.914 0.248 3.634
6.083 0.164 3.619
2.564 2.428 4.198
5.952 0.113 3.333
2.568 2.405 3.963
2.426 2.326 3.687
2.700 2.143 3.684
2.382 2.269 3.406
2.337 2.252 3.232
3.909 0.972 2.620
4.229 0.894 2.628
4.428 0.684 2.573
4.587 0.549 2.589
3.615 1.472 2.604
3.862 1.331 2.653
4.107 1.263 2.549
4.342 1.042 2.569
4.542 0.941 2.462
4.769 0.821 2.497
3.565 1.441 2.454
3.806 1.309 2.391
4.001 1.159 2.368
4.275 0.993 2.340
4.466 0.903 2.242
4.710 0.781 2.252
3.283 1.568 2.180
3.529 1.431 2.175
3.750 1.244 2.128
3.925 1.137 2.063
4.127 0.952 2.095
4.315 0.789 1.996
4.547 0.707 1.961
4.761 0.528 1.979
3.235 1.589 2.205
3.212 1.511 1.958
3.381 1.396 1.913
3.663 1.209 1.832
3.836 1.109 1.811
4.117 0.909 1.830
4.255 0.781 1.787
4.484 0.679 1.738
4.703 0.489 1.718
3.034 1.587 1.989
3.196 1.536 1.987
3.167 1.453 1.670
3.343 1.313 1.634
3.569 1.154 1.661
3.763 1.005 1.571
4.013 0.901 1.550
4.245 0.776 1.537
4.450 0.628 1.497
2.736 1.682 1.809
2.960 1.552 1.790
3.087 1.451 1.766
3.064 1.427 1.450
3.245 1.207 1.460
3.516 1.141 1.422
3.681 0.950 1.314
3.941 0.867 1.342
4.153 0.720 1.311
4.385 0.556 1.209
2.369 1.859 1.534
2.575 1.661 1.573
2.794 1.524 1.515
3.074 1.440 1.441
2.932 1.352 1.199
3.221 1.195 1.206
3.424 1.061 1.101
3.656 0.952 1.155
3.792 0.751 1.043
2.092 1.863 1.328
2.275 1.760 1.376
2.506 1.664 1.286
2.800 1.464 1.249
3.001 1.304 1.180
2.877 1.250 0.940
3.088 1.107 0.917
3.300 1.049 0.931
3.586 0.823 0.835
1.791 1.979 1.204
1.996 1.801 1.161
2.248 1.699 1.051
2.421 1.566 1.089
2.729 1.428 1.033
2.898 1.285 1.030
2.808 1.223 0.719
3.024 1.097 0.660
3.292 0.982 0.675
1.756 1.946 0.900
1.930 1.807 0.855
2.189 1.681 0.827
2.401 1.501 0.803
2.616 1.339 0.736
2.788 1.257 0.756
2.719 1.153 0.462
2.926 1.046 0.422
1.689 1.844 0.697
1.838 1.720 0.608
2.130 1.603 0.626
2.346 1.470 0.614
2.553 1.302 0.499
2.717 1.222 0.494
2.679 1.146 0.244
1.544 1.804 0.442
1.787 1.721 0.404
2.032 1.530 0.376
2.247 1.388 0.269
2.482 1.225 0.301
2.717 1.132 0.282
1.545 1.771 0.223
1.763 1.660 0.159
1.923 1.484 0.086
2.207 1.325 0.110
2.413 1.228 0.061
5.262 1.456 4.679
5.419 1.264 4.633
5.630 1.116 4.677
5.849 0.939 4.588
6.111 0.889 4.611
5.396 1.181 4.433
5.572 1.120 4.360
5.734 0.922 4.302
6.040 0.799 4.297
6.263 0.626 4.320
5.311 1.143 4.133
5.472 1.067 4.096
5.682 0.901 4.095
5.871 0.743 4.060
6.127 0.580 4.072
5.584 0.861 3.877
5.838 0.672 3.824
6.024 0.505 3.817
6.285 0.407 3.739
5.754 0.637 3.620
6.017 0.447 3.524
6.172 0.377 3.452
5.899 0.439 3.278
6.112 0.336 3.266
6.067 0.250 3.034
6.233 0.074 3.023
2.585 2.532 3.640
6.208 0.080 2.784
2.496 2.505 3.337
4.154 1.313 2.843
4.378 1.131 2.741
3.646 1.496 2.659
3.845 1.369 2.608
4.083 1.217 2.553
4.310 1.135 2.551
4.561 0.938 2.509
4.727 0.821 2.471
3.784 1.722 2.527
4.037 1.583 2.503
4.198 1.424 2.468
4.481 1.259 2.405
4.618 1.104 2.387
4.902 0.976 2.374
3.477 1.824 2.411
3.732 1.686 2.325
3.945 1.553 2.271
4.107 1.421 2.301
4.308 1.218 2.259
4.585 1.087 2.174
4.733 0.928 2.101
3.514 1.797 2.382
3.404 1.749 2.134
3.661 1.568 2.036
3.886 1.525 2.003
4.085 1.356 2.008
4.232 1.224 2.017
4.447 1.105 1.958
4.669 0.918 1.912
3.356 1.774 2.076
3.286 1.671 1.904
3.500 1.520 1.816
3.724 1.378 1.817
3.942 1.303 1.754
4.217 1.131 1.682
4.416 1.005 1.731
4.581 0.865 1.603
3.106 1.876 1.872
3.380 1.662 1.896
3.272 1.646 1.671
3.492 1.542 1.553
3.738 1.328 1.504
3.945 1.275 1.537
4.127 1.085 1.524
4.386 0.914 1.482
3.062 1.796 1.690
3.225 1.682 1.619
3.183 1.606 1.359
3.345 1.501 1.351
3.645 1.283 1.294
3.840 1.169 1.307
4.039 1.021 1.216
4.299 0.929 1.206
2.716 1.934 1.447
2.945 1.716 1.436
3.220 1.610 1.385
3.057 1.546 1.121
3.312 1.367 1.153
3.580 1.293 1.108
3.711 1.157 1.055
2.408 1.943 1.303
2.699 1.809 1.203
2.864 1.663 1.149
3.059 1.560 1.108
3.008 1.486 0.924
3.256 1.384 0.817
3.495 1.248 0.787
1.899 2.185 1.080
2.136 2.079 1.019
2.361 1.889 0.979
2.579 1.814 1.010
2.857 1.647 0.940
3.013 1.451 0.865
2.902 1.423 0.694
3.156 1.261 0.597
1.909 2.147 0.877
2.093 2.008 0.816
2.349 1.822 0.786
2.479 1.736 0.700
2.748 1.641 0.638
2.932 1.455 0.679
2.912 1.442 0.446
3.045 1.208 0.405
1.835 2.064 0.588
1.961 2.002 0.561
2.247 1.801 0.548
2.479 1.654 0.509
2.634 1.486 0.487
2.840 1.398 0.424
2.791 1.385 0.174
1.685 2.043 0.387
1.977 1.891 0.308
2.124 1.753 0.268
2.412 1.585 0.278
2.574 1.500 0.190
2.828 1.383 0.194
1.653 1.962 0.107
1.856 1.875 0.095
2.057 1.701 0.047
5.581 1.438 4.575
5.783 1.359 4.585
6.031 1.251 4.539
6.207 1.045 4.423
5.680 1.240 4.352
5.903 1.183 4.289
6.129 1.009 4.265
5.563 1.262 4.013
5.810 1.060 3.997
6.038 0.983 3.993
6.230 0.829 3.997
5.989 0.936 3.788
6.160 0.751 3.661
6.164 0.656 3.504
6.231 0.524 3.158
6.171 0.438 2.976
4.321 1.531 3.013
3.827 1.749 2.786
4.107 1.660 2.750
4.300 1.486 2.718
4.556 1.367 2.740
4.751 1.225 2.647
6.254 0.242 2.438
3.795 1.751 2.596
4.040 1.629 2.583
4.160 1.455 2.478
4.418 1.253 2.408
4.678 1.182 2.387
4.915 1.066 2.384
3.703 2.126 2.503
3.943 1.959 2.492
4.068 1.823 2.480
4.368 1.646 2.412
4.527 1.550 2.371
4.796 1.354 2.297
5.013 1.243 2.302
3.643 2.123 2.574
3.588 2.058 2.258
3.852 1.896 2.284
4.018 1.718 2.250
4.311 1.642 2.196
4.450 1.508 2.112
4.714 1.266 2.122
4.871 1.226 2.075
3.633 2.022 2.274
3.510 1.999 2.081
3.786 1.804 2.045
3.916 1.738 2.010
4.222 1.544 1.893
4.386 1.378 1.867
4.666 1.259 1.823
4.810 1.112 1.779
3.578 1.975 2.066
3.436 1.939 1.839
3.623 1.752 1.798
3.904 1.686 1.667
4.124 1.531 1.671
4.362 1.387 1.587
4.536 1.242 1.633
3.484 1.919 1.818
3.373 1.903 1.590
3.629 1.766 1.520
3.778 1.589 1.500
4.000 1.440 1.467
4.286 1.321 1.425
4.439 1.203 1.356
3.174 2.024 1.592
3.334 1.819 1.537
3.302 1.807 1.350
3.472 1.639 1.290
3.777 1.514 1.245
3.927 1.411 1.197
4.177 1.205 1.172
2.902 2.106 1.398
3.110 1.993 1.292
3.251 1.786 1.307
3.183 1.767 1.075
3.420 1.674 1.045
3.625 1.488 0.966
3.842 1.345 0.964
2.605 2.228 1.218
2.841 2.092 1.171
3.050 1.889 1.126
3.180 1.780 1.045
3.116 1.761 0.813
3.376 1.537 0.719
3.603 1.405 0.734
2.270 2.268 0.933
2.498 2.111 0.972
2.696 2.022 0.884
2.946 1.900 0.898
3.104 1.744 0.773
3.040 1.609 0.568
3.339 1.517 0.563
1.952 2.416 0.786
2.182 2.221 0.689
2.404 2.134 0.718
2.604 1.974 0.600
2.857 1.771 0.654
3.039 1.645 0.572
3.011 1.628 0.329
1.910 2.369 0.546
2.176 2.207 0.430
2.331 2.017 0.478
2.537 1.854 0.395
2.812 1.733 0.399
2.973 1.574 0.358
2.907 1.518 0.088
1.854 2.256 0.312
2.082 2.170 0.275
2.306 2.028 0.147
2.533 1.860 0.157
2.659 1.704 0.121
2.895 1.594 0.070
1.722 2.253 0.033
5.909 1.535 4.436
6.109 1.442 4.456
3.735 2.994 4.813
3.945 2.854 4.791
5.869 1.545 4.250
6.052 1.369 4.140
6.232 1.249 4.178
5.990 1.321 3.887
6.209 1.122 3.929
6.136 1.121 3.683
6.249 0.924 3.370
4.313 1.914 3.230
4.584 1.801 3.148
4.016 2.063 2.929
4.267 1.877 2.956
4.519 1.706 2.949
4.690 1.569 2.890
4.902 1.430 2.775
3.940 1.996 2.716
4.200 1.802 2.732
4.406 1.660 2.696
4.609 1.566 2.618
4.858 1.448 2.584
3.736 2.061 2.550
3.873 1.919 2.450
4.120 1.835 2.453
4.343 1.681 2.461
4.502 1.487 2.395
4.742 1.319 2.317
5.023 1.197 2.283
3.735 2.038 2.515
3.809 2.339 2.398
4.077 2.115 2.418
4.282 2.025 2.394
4.422 1.850 2.327
4.704 1.679 2.290
4.859 1.542 2.281
5.072 1.464 2.232
3.860 2.247 2.408
3.723 2.260 2.156
3.917 2.105 2.135
4.128 1.963 2.110
4.362 1.864 2.084
4.572 1.702 2.061
4.784 1.530 1.988
5.051 1.394 2.003
3.728 2.194 2.203
3.673 2.162 1.964
3.837 2.070 1.918
4.134 1.892 1.885
4.263 1.802 1.787
4.505 1.603 1.792
4.751 1.431 1.764
6.257 0.523 1.503
3.648 2.206 1.897
3.621 2.085 1.712
3.796 1.995 1.683
3.967 1.845 1.636
4.219 1.663 1.632
4.420 1.524 1.581
4.683 1.432 1.513
6.175 0.423 1.295
3.539 2.126 1.743
3.522 2.107 1.474
3.769 1.961 1.386
3.928 1.784 1.403
4.163 1.624 1.358
6.093 0.334 1.052
3.556 2.040 1.486
3.435 2.006 1.165
3.645 1.926 1.173
3.851 1.743 1.147
6.052 0.326 0.727
6.299 0.234 0.704
3.384 2.015 1.240
3.380 2.030 1.005
3.570 1.846 0.958
5.705 0.381 0.507
5.995 0.237 0.536
6.186 0.100 0.508
3.121 2.115 0.961
3.380 1.979 1.019
3.307 1.917 0.746
5.448 0.503 0.370
5.632 0.327 0.361
5.845 0.178 0.308
2.806 2.244 0.829
3.073 2.055 0.790
3.236 1.956 0.741
3.248 1.920 0.439
5.169 0.589 0.133
5.361 0.437 0.080
5.617 0.360 0.059
5.841 0.180 0.003
2.499 2.319 0.562
2.731 2.124 0.551
2.976 2.042 0.498
3.185 1.856 0.472
3.175 1.770 0.257
2.008 2.568 0.465
2.215 2.385 0.416
2.478 2.240 0.322
2.712 2.119 0.345
2.874 2.008 0.238
3.126 1.805 0.227
1.918 2.454 0.147
2.229 2.353 0.104
2.386 2.182 0.133
2.587 2.033 0.086
2.846 1.923 0.080
4.500 2.739 4.614
6.040 1.822 4.342
6.218 1.661 4.324
3.428 3.486 4.855
3.630 3.374 4.832
3.857 3.180 4.807
4.014 3.023 4.686
4.314 2.953 4.685
4.462 2.771 4.654
4.375 2.730 4.380
3.758 3.144 4.527
3.966 2.981 4.487
4.207 2.876 4.395
4.389 2.723 4.435
4.326 2.610 4.146
3.941 2.904 4.233
4.122 2.750 4.156
4.295 2.680 4.202
4.235 2.616 3.928
4.483 2.438 3.839
4.015 2.725 3.927
4.249 2.593 3.922
4.230 2.539 3.671
4.398 2.443 3.651
4.617 2.257 3.593
4.219 2.557 3.629
4.157 2.509 3.386
4.382 2.406 3.354
4.553 2.174 3.328
4.801 2.029 3.301
4.135 2.451 3.443
4.066 2.468 3.170
4.311 2.343 3.103
4.441 2.143 3.076
4.693 2.017 3.061
4.920 1.912 3.037
5.076 1.784 2.956
4.005 2.450 3.225
3.973 2.427 2.959
4.184 2.290 2.864
4.350 2.101 2.817
4.645 1.948 2.814
4.784 1.786 2.790
5.009 1.682 2.718
3.919 2.433 2.932
3.936 2.351 2.663
4.068 2.172 2.662
4.369 2.013 2.589
4.545 1.902 2.555
4.762 1.780 2.487
4.968 1.602 2.449
5.140 1.493 2.442
3.883 2.380 2.656
3.858 2.343 2.451
4.039 2.180 2.419
4.297 2.023 2.334
4.442 1.822 2.377
4.642 1.773 2.241
4.854 1.615 2.272
5.088 1.410 2.210
3.844 2.255 2.455
3.952 2.497 2.405
4.164 2.319 2.333
4.396 2.266 2.252
4.553 2.035 2.266
4.824 1.973 2.171
5.037 1.766 2.173
5.245 1.684 2.091
3.964 2.538 2.315
4.091 2.344 2.104
4.336 2.167 2.016
4.478 2.059 1.965
4.779 1.876 1.942
4.930 1.753 1.938
3.956 2.222 1.803
4.196 2.089 1.824
4.484 1.931 1.713
4.619 1.790 1.756
4.901 1.737 1.699
4.143 2.063 1.502
4.314 1.907 1.497
5.972 0.703 0.976
6.240 0.562 0.873
5.710 0.838 0.769
5.963 0.667 0.668
6.150 0.585 0.639
5.455 0.953 0.558
5.699 0.738 0.549
5.833 0.646 0.438
6.080 0.461 0.480
5.107 1.048 0.382
5.398 0.881 0.327
5.606 0.706 0.302
5.748 0.573 0.228
6.011 0.407 0.176
6.239 0.273 0.111
4.817 1.118 0.106
5.105 0.997 0.114
5.238 0.790 0.006
5.483 0.691 -0.025
2.574 2.416 0.276
2.820 2.334 0.262
2.042 2.742 0.098
2.275 2.511 0.078
2.471 2.384 0.064
4.637 2.987 4.586
3.531 3.693 4.744
3.711 3.594 4.719
4.014 3.419 4.668
4.200 3.277 4.586
4.412 3.164 4.593
4.668 2.969 4.543
4.577 2.875 4.285
4.776 2.769 4.299
3.506 3.622 4.551
3.683 3.505 4.424
3.923 3.338 4.428
4.131 3.207 4.440
4.360 3.095 4.345
4.533 2.923 4.353
4.524 2.864 4.077
4.733 2.756 4.000
4.921 2.588 3.961
3.594 3.491 4.225
3.782 3.331 4.197
4.085 3.141 4.183
4.256 3.052 4.149
4.495 2.841 4.032
4.436 2.842 3.777
4.572 2.649 3.791
4.819 2.518 3.699
5.065 2.426 3.662
3.769 3.214 3.987
3.982 3.100 3.857
4.128 3.013 3.907
4.373 2.790 3.860
4.294 2.745 3.627
4.521 2.577 3.520
4.785 2.479 3.543
4.928 2.390 3.503
5.191 2.169 3.472
3.846 3.027 3.631
4.069 2.941 3.660
4.335 2.766 3.537
4.242 2.682 3.381
4.498 2.529 3.311
4.681 2.442 3.263
4.938 2.275 3.202
5.068 2.126 3.146
5.308 2.026 3.172
4.057 2.863 3.400
4.245 2.685 3.324
4.131 2.667 3.137
4.347 2.476 3.045
4.548 2.378 2.978
4.817 2.216 2.971
4.985 2.096 2.935
5.274 1.996 2.850
4.181 2.701 3.046
4.124 2.579 2.832
4.298 2.506 2.784
4.536 2.328 2.725
4.769 2.175 2.762
4.991 2.032 2.742
5.143 1.865 2.602
5.340 1.806 2.602
4.089 2.565 2.865
4.000 2.567 2.585
4.272 2.465 2.582
4.438 2.274 2.521
4.680 2.089 2.521
4.912 2.028 2.451
5.067 1.862 2.402
5.271 1.737 2.392
3.965 2.522 2.634
3.892 2.555 2.313
4.195 2.343 2.301
4.320 2.203 2.286
4.620 2.133 2.219
4.839 1.984 2.250
4.974 1.808 2.147
5.208 1.634 2.167
3.935 2.535 2.387
4.268 2.621 2.187
4.519 2.438 2.233
4.663 2.328 2.174
4.936 2.192 2.074
5.171 2.057 2.047
5.345 1.884 2.041
4.193 2.500 2.016
4.381 2.421 1.957
4.660 2.257 1.861
4.866 2.077 1.900
5.031 1.920 1.842
4.577 2.204 1.711
6.262 1.013 1.167
6.090 0.977 0.824
5.893 0.999 0.722
6.107 0.886 0.593
6.259 0.784 0.645
5.569 1.122 0.429
5.718 1.026 0.392
5.964 0.884 0.429
6.213 0.742 0.304
5.094 1.405 0.317
5.250 1.257 0.206
5.513 1.098 0.183
5.644 0.955 0.184
5.860 0.801 0.186
6.081 0.670 0.071
4.940 1.269 0.049
5.232 1.131 0.019
4.776 3.177 4.458
5.004 3.078 4.473
3.656 3.891 4.694
3.916 3.727 4.629
4.140 3.585 4.626
4.302 3.506 4.558
4.582 3.361 4.483
4.773 3.221 4.421
4.727 3.169 4.208
4.930 3.042 4.202
3.588 3.893 4.425
3.828 3.665 4.409
4.042 3.585 4.301
4.206 3.377 4.293
4.481 3.292 4.261
4.681 3.173 4.186
4.573 3.056 3.956
4.806 2.939 3.921
5.061 2.781 3.935
3.523 3.819 4.130
3.681 3.685 4.133
3.967 3.479 4.088
4.165 3.359 4.056
4.360 3.214 3.989
4.557 3.038 4.006
4.523 3.010 3.707
4.746 2.924 3.742
4.975 2.724 3.652
5.135 2.565 3.617
3.867 3.450 3.888
4.090 3.303 3.865
4.346 3.162 3.801
4.483 3.079 3.735
4.413 3.028 3.523
4.624 2.798 3.411
4.932 2.747 3.446
5.066 2.561 3.337
5.317 2.383 3.372
5.573 2.299 3.266
4.026 3.318 3.617
4.245 3.138 3.562
4.474 3.026 3.479
4.365 2.907 3.198
4.554 2.747 3.239
4.797 2.691 3.144
5.060 2.480 3.093
5.263 2.409 3.069
5.457 2.249 3.026
4.144 3.031 3.253
4.375 2.962 3.208
4.274 2.890 3.054
4.487 2.748 2.964
4.685 2.607 2.879
4.992 2.468 2.837
5.137 2.361 2.891
5.408 2.208 2.869
5.604 2.055 2.785
4.120 3.014 3.067
4.324 2.927 2.960
4.167 2.780 2.754
4.383 2.656 2.771
4.600 2.495 2.676
4.816 2.397 2.630
5.062 2.303 2.562
5.289 2.113 2.624
5.475 1.987 2.557
4.257 2.796 2.708
4.118 2.732 2.545
4.332 2.591 2.497
4.616 2.504 2.463
4.773 2.369 2.384
5.008 2.251 2.399
5.262 2.091 2.373
5.439 1.967 2.271
4.098 2.749 2.538
4.319 2.593 2.230
4.515 2.464 2.171
4.759 2.317 2.109
4.884 2.173 2.083
5.155 2.014 2.102
5.338 1.842 2.012
4.404 2.812 2.119
4.608 2.701 2.157
4.867 2.535 2.106
5.070 2.391 2.023
5.267 2.266 1.949
5.524 2.135 1.942
4.729 2.436 1.853
5.006 2.298 1.768
2.966 3.589 1.902
2.858 3.511 1.592
6.011 1.290 0.880
6.305 1.148 0.790
5.805 1.433 0.622
5.937 1.267 0.594
6.143 1.157 0.545
5.468 1.434 0.417
5.679 1.313 0.406
5.892 1.222 0.306
6.105 1.012 0.262
4.975 1.730 0.192
5.140 1.570 0.167
5.336 1.424 0.203
5.629 1.339 0.092
5.836 1.154 0.050
6.055 1.046 0.021
6.242 0.918 -0.012
4.910 3.423 4.401
5.099 3.305 4.372
3.773 4.127 4.578
4.060 4.004 4.531
4.210 3.835 4.454
4.435 3.698 4.440
4.678 3.507 4.428
4.834 3.431 4.344
4.836 3.390 4.111
4.982 3.238 4.080
5.227 3.085 4.060
3.735 4.056 4.342
3.938 3.889 4.277
4.171 3.801 4.224
4.382 3.601 4.219
4.632 3.465 4.148
4.821 3.318 4.091
4.721 3.283 3.877
4.993 3.128 3.912
5.180 2.971 3.838
5.391 2.858 3.758
3.589 4.048 4.082
3.855 3.891 4.070
4.071 3.692 4.041
4.333 3.600 3.991
4.544 3.416 3.914
4.683 3.330 3.852
4.604 3.263 3.701
4.869 3.127 3.642
5.085 2.947 3.604
5.321 2.868 3.529
5.470 2.719 3.496
3.826 3.847 3.799
3.951 3.659 3.788
4.212 3.504 3.749
4.408 3.376 3.675
4.662 3.295 3.695
4.535 3.218 3.387
4.803 3.063 3.337
4.951 2.934 3.291
5.214 2.809 3.253
5.386 2.662 3.230
5.644 2.514 3.261
5.887 2.364 3.167
3.868 3.615 3.544
4.182 3.482 3.465
4.323 3.289 3.405
4.554 3.174 3.371
4.535 3.103 3.122
4.756 2.961 3.122
4.958 2.874 3.046
5.132 2.749 3.104
5.312 2.582 3.005
5.535 2.395 2.973
5.802 2.320 2.911
4.015 3.399 3.284
4.268 3.307 3.237
4.453 3.177 3.154
4.453 3.075 2.906
4.660 2.993 2.898
4.854 2.836 2.878
5.117 2.712 2.841
5.250 2.477 2.762
5.528 2.398 2.783
5.713 2.261 2.742
5.897 2.088 2.626
4.253 3.233 2.933
4.439 3.144 2.970
4.353 3.087 2.630
4.558 2.928 2.590
4.751 2.752 2.569
4.982 2.581 2.565
5.237 2.421 2.577
5.409 2.328 2.487
5.613 2.137 2.402
5.884 2.050 2.400
4.305 3.024 2.631
4.471 2.798 2.429
4.735 2.725 2.385
4.890 2.548 2.338
5.136 2.401 2.262
5.338 2.303 2.202
5.607 2.138 2.178
4.357 2.832 2.156
4.586 2.689 2.140
4.786 2.502 2.059
5.070 2.385 2.006
5.265 2.222 1.955
5.482 2.090 1.913
5.000 2.752 2.025
5.195 2.581 1.920
5.367 2.391 1.957
5.618 2.326 1.920
3.175 3.805 2.084
3.023 3.715 1.767
3.016 3.660 1.515
3.257 3.593 1.543
2.939 3.614 1.275
5.855 1.617 0.555
6.103 1.424 0.487
2.855 3.605 1.081
5.403 1.807 0.329
5.580 1.699 0.308
5.781 1.507 0.263
6.010 1.370 0.250
6.205 1.311 0.244
4.854 2.070 0.213
5.079 1.952 0.167
5.341 1.775 0.173
5.464 1.695 0.082
5.745 1.455 0.097
5.931 1.379 -0.022
5.011 3.595 4.313
3.890 4.362 4.508
4.181 4.223 4.403
4.396 4.006 4.406
4.601 3.935 4.333
4.773 3.735 4.343
4.966 3.618 4.291
4.930 3.535 4.102
5.140 3.397 4.002
3.868 4.262 4.243
4.104 4.145 4.163
4.237 3.966 4.222
4.506 3.900 4.145
4.662 3.704 4.094
4.899 3.560 4.035
4.839 3.529 3.835
5.070 3.326 3.802
5.254 3.236 3.749
5.517 3.061 3.664
3.773 4.243 3.985
4.031 4.041 3.945
4.151 3.961 3.963
4.466 3.771 3.934
4.590 3.633 3.847
4.817 3.512 3.801
4.814 3.456 3.580
5.039 3.309 3.479
5.245 3.176 3.444
5.447 3.076 3.454
5.662 2.878 3.414
5.889 2.803 3.389
3.726 4.203 3.757
3.871 4.075 3.746
4.166 3.852 3.727
4.342 3.692 3.651
4.515 3.562 3.577
4.770 3.431 3.527
4.670 3.372 3.325
4.965 3.262 3.234
5.158 3.130 3.241
5.367 2.936 3.192
5.541 2.853 3.199
5.818 2.660 3.170
6.023 2.565 3.135
6.168 2.435 3.039
4.016 3.829 3.397
4.223 3.653 3.441
4.465 3.500 3.413
4.691 3.397 3.328
4.613 3.304 3.029
4.786 3.216 3.047
5.091 3.104 3.022
5.250 2.908 2.965
5.497 2.744 2.881
5.659 2.650 2.898
5.919 2.524 2.848
6.165 2.372 2.819
4.410 3.496 3.105
4.649 3.409 3.053
4.595 3.258 2.823
4.796 3.204 2.786
4.964 2.986 2.778
5.244 2.833 2.714
5.416 2.782 2.735
5.657 2.584 2.595
5.884 2.441 2.633
6.063 2.322 2.531
6.249 2.136 2.531
4.505 3.333 2.870
4.729 3.158 2.514
4.929 2.962 2.478
5.069 2.846 2.430
5.337 2.679 2.387
5.570 2.559 2.358
5.806 2.415 2.346
6.006 2.251 2.274
4.621 3.087 2.287
4.803 2.911 2.275
5.062 2.786 2.277
5.274 2.647 2.242
5.514 2.543 2.104
5.640 2.334 2.115
5.934 2.199 2.029
4.935 2.730 1.999
5.225 2.568 1.997
5.430 2.390 1.880
5.664 2.255 1.893
5.300 2.776 1.824
5.559 2.655 1.864
5.693 2.466 1.815
3.299 3.992 1.944
3.490 3.865 1.949
3.231 3.975 1.689
3.456 3.809 1.672
3.111 3.862 1.418
3.381 3.754 1.413
3.551 3.675 1.401
3.013 3.884 1.223
3.317 3.670 1.235
3.440 3.569 1.097
6.173 1.675 0.431
2.955 3.760 0.995
3.216 3.704 0.940
5.299 2.208 0.369
5.464 2.030 0.241
5.691 1.940 0.260
5.891 1.728 0.242
6.189 1.578 0.150
4.750 2.383 0.125
5.005 2.251 0.147
5.169 2.183 0.119
5.395 2.031 0.003
5.656 1.900 0.018
5.175 3.779 4.257
3.997 4.571 4.392
4.241 4.443 4.382
4.498 4.308 4.376
4.728 4.156 4.257
4.864 4.015 4.209
5.163 3.829 4.256
5.037 3.735 4.021
5.286 3.610 3.890
3.995 4.528 4.192
4.163 4.296 4.090
4.431 4.241 4.092
4.654 4.116 4.000
4.783 3.907 3.993
5.029 3.825 4.024
4.924 3.760 3.685
5.243 3.606 3.728
5.442 3.398 3.627
3.909 4.446 3.968
4.140 4.301 3.912
4.325 4.189 3.811
4.588 3.985 3.854
4.782 3.817 3.795
4.931 3.687 3.731
4.847 3.714 3.443
5.109 3.561 3.435
5.363 3.394 3.440
5.495 3.293 3.418
5.725 3.148 3.281
5.950 2.921 3.257
6.204 2.784 3.281
3.811 4.363 3.662
4.066 4.205 3.632
4.263 4.059 3.569
4.449 3.997 3.567
4.708 3.776 3.509
4.878 3.662 3.442
4.802 3.610 3.225
5.042 3.515 3.177
5.253 3.331 3.212
5.435 3.220 3.098
5.714 3.041 3.060
5.897 2.938 3.060
6.129 2.792 3.051
4.372 3.904 3.311
4.655 3.721 3.225
4.865 3.605 3.278
4.754 3.591 2.997
4.993 3.462 3.008
5.169 3.244 2.965
5.396 3.105 2.894
5.628 2.960 2.791
5.825 2.899 2.846
6.054 2.744 2.772
6.220 2.606 2.738
4.560 3.684 3.000
4.712 3.539 3.024
4.676 3.535 2.699
4.855 3.375 2.710
5.138 3.194 2.689
5.309 3.140 2.603
5.507 2.954 2.578
5.710 2.792 2.573
5.921 2.656 2.570
6.166 2.474 2.445
4.668 3.536 2.717
4.855 3.281 2.417
4.974 3.159 2.415
5.292 3.000 2.377
5.509 2.878 2.321
5.661 2.753 2.332
5.852 2.616 2.320
6.074 2.454 2.237
4.939 3.077 2.197
5.193 2.990 2.178
5.375 2.795 2.114
5.604 2.704 2.050
5.786 2.563 2.042
6.030 2.377 2.009
6.271 2.318 1.926
5.296 2.753 1.865
5.509 2.607 1.815
5.717 2.522 1.746
5.696 2.915 1.729
5.813 2.735 1.695
6.037 2.603 1.631
3.468 4.281 2.162
3.393 4.260 1.919
3.658 4.071 1.873
3.808 3.954 1.848
3.309 4.184 1.626
3.587 4.049 1.566
3.809 3.876 1.584
3.219 4.078 1.411
3.509 3.939 1.374
3.687 3.848 1.356
3.879 3.730 1.307
3.126 4.061 1.137
3.357 3.923 1.087
3.562 3.801 1.114
3.871 3.698 1.030
3.990 3.544 0.935
4.228 3.267 0.662
3.079 4.043 0.867
3.311 3.851 0.876
3.479 3.708 0.846
3.702 3.596 0.797
3.973 3.473 0.734
4.219 3.336 0.736
4.139 3.295 0.510
4.285 3.139 0.432
4.559 3.015 0.359
4.758 2.844 0.393
5.012 2.722 0.340
5.232 2.516 0.311
5.405 2.401 0.258
5.599 2.275 0.159
5.866 2.081 0.212
6.041 1.983 0.141
6.305 1.859 0.050
3.001 3.959 0.597
3.215 3.817 0.649
3.457 3.716 0.546
3.685 3.502 0.532
3.861 3.445 0.500
4.089 3.243 0.432
4.063 3.189 0.209
4.231 3.106 0.210
4.451 2.891 0.187
4.638 2.745 0.076
4.910 2.667 0.107
5.124 2.459 -0.008
4.067 3.201 0.197
4.191 4.748 4.366
4.390 4.601 4.240
4.560 4.517 4.270
4.777 4.323 4.207
4.079 4.706 4.113
4.334 4.584 4.003
4.501 4.368 4.054
4.777 4.302 3.917
4.967 4.101 3.878
5.118 3.946 3.676
4.024 4.609 3.867
4.203 4.531 3.817
4.440 4.315 3.778
4.644 4.175 3.671
4.890 4.047 3.728
5.148 3.936 3.591
5.000 3.867 3.358
5.223 3.797 3.376
5.473 3.657 3.287
5.640 3.516 3.298
5.870 3.314 3.208
6.053 3.127 3.247
3.978 4.629 3.552
4.116 4.418 3.517
4.384 4.360 3.490
4.641 4.201 3.439
4.844 4.062 3.418
5.070 3.897 3.434
4.960 3.869 3.165
5.111 3.647 3.064
5.419 3.543 3.111
5.550 3.443 3.058
5.816 3.317 3.004
6.065 3.100 2.931
6.215 2.971 2.885
4.926 3.852 3.145
5.129 3.675 2.920
5.306 3.529 2.795
5.536 3.399 2.788
5.774 3.241 2.724
5.919 3.046 2.700
6.138 2.881 2.697
5.244 3.409 2.547
5.397 3.334 2.527
5.712 3.152 2.522
5.893 2.979 2.457
6.091 2.881 2.483
5.319 3.277 2.335
5.559 3.080 2.315
5.810 2.984 2.267
6.001 2.777 2.193
6.244 2.739 2.115
5.292 3.231 2.027
5.523 3.102 2.001
5.705 2.919 2.002
5.920 2.809 1.995
6.114 2.612 1.941
5.595 2.826 1.760
5.824 2.698 1.670
6.040 2.547 1.625
3.501 4.334 2.086
5.948 2.904 1.585
6.231 2.771 1.632
3.630 4.492 2.082
3.813 4.355 2.035
3.540 4.437 1.743
3.784 4.305 1.707
3.952 4.145 1.762
4.159 4.049 1.710
3.491 4.379 1.514
3.626 4.269 1.484
3.932 4.075 1.427
4.125 3.933 1.414
4.341 3.847 1.350
4.426 3.623 1.075
3.381 4.354 1.312
3.550 4.240 1.290
3.840 4.069 1.209
4.041 3.965 1.174
4.262 3.732 1.149
4.491 3.631 1.075
4.350 3.531 0.884
4.627 3.396 0.833
3.261 4.329 1.099
3.521 4.103 1.029
3.756 3.980 1.012
3.948 3.885 0.891
4.188 3.681 0.919
4.404 3.604 0.908
4.326 3.559 0.646
4.486 3.413 0.609
4.691 3.225 0.495
3.190 4.243 0.842
3.489 4.092 0.791
3.627 3.926 0.782
3.844 3.808 0.708
4.071 3.703 0.679
4.289 3.511 0.614
4.272 3.451 0.347
4.492 3.310 0.285
4.693 3.198 0.259
4.892 3.058 0.277
5.109 2.946 0.255
5.260 2.766 0.160
5.531 2.582 0.135
3.119 4.183 0.582
3.361 4.085 0.567
3.538 3.850 0.505
3.815 3.733 0.476
4.023 3.624 0.441
4.264 3.453 0.329
4.177 3.391 0.105
4.322 3.254 0.137
4.558 3.186 0.090
4.808 3.034 0.013
3.673 3.750 0.171
3.985 3.526 0.169
4.150 3.383 0.129
4.298 5.018 4.281
4.502 4.831 4.149
4.678 4.657 4.111
4.220 4.871 3.944
4.426 4.752 3.935
4.603 4.605 3.963
4.147 4.819 3.786
4.317 4.724 3.673
5.891 3.523 2.893
6.113 3.305 2.889
5.593 3.595 2.703
5.820 3.484 2.655
6.081 3.303 2.649
5.569 3.539 2.495
5.769 3.379 2.414
6.002 3.211 2.429
6.173 3.064 2.402
5.741 3.313 2.195
5.898 3.135 2.164
6.113 3.013 2.111
5.667 3.262 1.918
5.842 3.092 1.880
6.046 2.937 1.868
6.257 2.826 1.805
5.982 2.959 1.659
6.178 2.751 1.561
3.619 4.469 2.069
3.775 4.398 1.971
6.159 3.148 1.504
3.748 4.750 1.946
3.916 4.615 1.926
4.160 4.450 1.886
3.702 4.638 1.682
3.824 4.565 1.696
4.127 4.385 1.659
4.301 4.257 1.611
4.570 4.071 1.507
3.614 4.590 1.451
3.778 4.464 1.372
4.044 4.333 1.417
4.185 4.162 1.320
4.424 4.084 1.348
4.537 3.880 0.989
3.530 4.584 1.219
3.760 4.379 1.184
3.973 4.288 1.131
4.106 4.163 1.133
4.420 4.029 1.021
4.623 3.892 1.058
4.528 3.790 0.817
4.745 3.602 0.728
3.459 4.461 0.998
3.604 4.380 0.944
3.853 4.250 0.936
4.093 4.128 0.866
4.324 3.904 0.769
4.472 3.825 0.766
4.441 3.755 0.500
4.611 3.575 0.482
4.896 3.407 0.428
5.133 3.277 0.455
3.300 4.465 0.745
3.581 4.325 0.637
3.754 4.218 0.614
4.037 4.023 0.631
4.251 3.871 0.546
4.383 3.725 0.490
4.375 3.641 0.315
4.527 3.511 0.231
4.767 3.377 0.255
4.969 3.303 0.223
5.187 3.087 0.173
5.387 3.022 0.103
3.291 4.394 0.482
3.501 4.273 0.423
3.659 4.098 0.450
3.940 3.951 0.391
4.187 3.816 0.364
4.353 3.671 0.318
4.285 3.688 0.008
4.531 3.505 -0.037
3.595 4.060 0.136
3.805 3.898 0.126
4.073 3.832 0.039
4.283 3.621 0.005
4.381 5.162 4.161
4.584 5.029 4.090
4.348 5.109 3.866
4.278 5.065 3.612
6.274 3.511 2.758
6.161 3.462 2.575
5.877 3.643 2.357
6.178 3.503 2.307
6.048 3.352 2.043
6.275 3.242 2.068
5.976 3.304 1.818
6.218 3.199 1.730
6.137 3.183 1.523
3.713 4.754 1.951
3.897 4.553 1.917
4.199 4.462 1.861
6.256 3.331 1.473
3.808 4.941 1.820
4.031 4.825 1.832
4.291 4.630 1.798
4.541 4.518 1.757
4.751 4.356 1.724
3.790 4.916 1.631
4.019 4.716 1.614
4.172 4.537 1.531
4.384 4.427 1.510
4.632 4.260 1.426
4.834 4.068 1.156
3.748 4.858 1.419
3.894 4.716 1.301
4.113 4.542 1.279
4.308 4.384 1.272
4.556 4.263 1.171
4.776 4.162 1.238
4.698 4.063 0.966
4.975 3.931 0.854
3.587 4.811 1.101
3.802 4.657 1.066
4.069 4.538 1.070
4.306 4.368 1.004
4.524 4.162 0.952
4.680 4.055 0.987
4.657 4.012 0.720
4.827 3.915 0.647
5.059 3.751 0.652
3.566 4.668 0.839
3.785 4.572 0.795
3.943 4.481 0.861
4.177 4.271 0.736
4.377 4.197 0.690
4.643 4.041 0.646
4.530 3.946 0.406
4.797 3.792 0.449
5.040 3.633 0.361
5.172 3.529 0.337
3.457 4.666 0.678
3.719 4.558 0.596
3.859 4.418 0.592
4.098 4.236 0.543
4.305 4.062 0.444
4.507 3.965 0.407
4.448 3.905 0.161
4.725 3.778 0.171
4.937 3.620 0.111
5.173 3.478 0.076
5.343 3.345 0.102
3.564 4.459 0.311
3.811 4.307 0.273
4.061 4.168 0.261
4.307 4.013 0.247
4.506 3.911 0.230
3.720 4.293 0.071
4.008 4.094 0.063
4.586 5.420 4.103
6.251 3.636 2.205
6.229 3.633 1.986
4.195 4.821 2.095
4.336 4.651 2.066
6.190 3.409 1.490
3.875 4.935 1.859
4.108 4.780 1.800
4.249 4.684 1.826
4.453 4.530 1.723
4.730 4.397 1.676
3.960 5.162 1.746
4.224 4.999 1.692
4.437 4.828 1.747
4.630 4.761 1.674
4.812 4.538 1.601
4.952 4.366 1.348
3.877 5.047 1.577
4.124 4.927 1.511
4.341 4.781 1.494
4.510 4.654 1.373
4.800 4.538 1.394
4.973 4.333 1.397
4.888 4.358 1.102
3.852 5.075 1.320
4.055 4.857 1.208
4.299 4.746 1.265
4.438 4.630 1.135
4.695 4.447 1.136
4.866 4.341 1.081
4.880 4.249 0.852
5.005 4.096 0.798
3.748 5.013 1.012
4.000 4.854 1.002
4.216 4.732 1.003
4.352 4.510 0.965
4.645 4.439 0.880
4.840 4.288 0.900
4.737 4.192 0.636
4.985 4.111 0.619
3.697 4.944 0.835
3.901 4.822 0.762
4.067 4.595 0.678
4.360 4.519 0.639
4.579 4.384 0.681
4.794 4.270 0.627
4.685 4.135 0.408
4.928 4.075 0.328
5.091 3.903 0.323
3.620 4.860 0.535
3.865 4.790 0.543
3.983 4.553 0.467
4.225 4.403 0.477
4.459 4.347 0.426
4.648 4.136 0.398
4.598 4.129 0.098
4.862 3.961 0.119
5.080 3.783 0.091
5.205 3.665 0.052
3.954 4.503 0.237
4.184 4.415 0.172
4.395 4.259 0.195
4.595 4.150 0.104
4.578 5.013 2.225
4.072 5.169 2.042
4.230 5.084 2.012
4.443 4.864 1.926
4.661 4.715 1.887
4.924 4.583 1.824
4.001 5.121 1.777
4.208 4.965 1.694
4.456 4.896 1.654
4.645 4.710 1.618
4.844 4.596 1.681
5.236 4.609 1.480
4.078 5.359 1.712
4.278 5.247 1.663
4.569 5.075 1.598
4.793 4.945 1.614
5.002 4.738 1.595
5.207 4.644 1.454
5.111 4.567 1.283
4.080 5.350 1.413
4.261 5.141 1.437
4.417 4.968 1.413
4.693 4.838 1.353
4.915 4.733 1.285
5.132 4.548 1.226
5.005 4.553 0.979
3.918 5.285 1.183
4.151 5.105 1.185
4.427 5.005 1.176
4.562 4.815 1.077
4.855 4.678 1.037
5.044 4.531 1.005
4.940 4.501 0.718
3.868 5.239 0.988
4.066 5.093 0.933
4.319 4.868 0.924
4.496 4.791 0.893
4.724 4.667 0.795
4.969 4.509 0.808
4.834 4.451 0.553
5.143 4.268 0.463
3.791 5.119 0.690
4.060 5.040 0.679
4.268 4.892 0.619
4.439 4.684 0.558
4.700 4.601 0.529
4.880 4.428 0.542
4.841 4.379 0.300
4.998 4.194 0.233
5.226 4.144 0.199
3.972 4.996 0.467
4.185 4.797 0.369
4.425 4.688 0.307
4.547 4.553 0.368
4.761 4.376 0.264
4.775 4.317 -0.002
4.093 4.713 0.157
4.272 4.656 0.094
4.530 4.424 0.059
4.742 4.303 0.058
4.802 5.224 2.358
4.936 5.116 2.328
4.226 5.482 2.213
4.452 5.363 2.195
4.683 5.214 2.102
4.947 5.082 2.048
5.116 4.889 2.007
4.134 5.381 1.967
4.404 5.241 1.893
4.569 5.100 1.837
4.817 4.927 1.810
5.000 4.855 1.795
5.149 4.614 1.453
4.058 5.355 1.722
4.271 5.260 1.652
4.486 5.078 1.655
4.715 4.966 1.551
5.007 4.837 1.588
5.161 4.655 1.540
5.272 4.865 1.382
4.209 5.577 1.612
4.401 5.379 1.616
4.669 5.321 1.516
4.873 5.144 1.478
5.128 5.007 1.512
5.265 4.838 1.419
5.265 4.831 1.131
4.196 5.528 1.384
4.394 5.329 1.327
4.566 5.199 1.292
4.790 5.059 1.303
5.029 4.987 1.241
5.205 4.811 1.139
5.180 4.767 0.981
4.092 5.452 1.134
4.280 5.331 1.099
4.486 5.155 1.087
4.758 5.066 1.040
4.894 4.904 0.976
5.206 4.715 0.894
5.053 4.687 0.720
4.026 5.396 0.857
4.206 5.276 0.877
4.469 5.142 0.802
4.623 4.992 0.754
4.844 4.867 0.686
5.125 4.753 0.664
5.009 4.691 0.396
4.385 5.051 0.560
4.589 4.940 0.547
4.763 4.790 0.459
5.059 4.643 0.430
4.933 4.596 0.245
4.496 4.846 0.241
4.757 4.757 0.182
4.950 4.595 0.240
6.045 5.294 3.588
6.270 5.133 3.536
6.039 5.310 3.590
5.890 5.276 3.346
6.162 5.184 3.384
5.974 5.254 3.411
5.896 5.270 3.091
6.082 5.108 3.068
5.814 5.217 3.104
5.746 5.163 2.856
6.023 5.045 2.853
5.527 5.349 2.965
5.813 5.202 2.940
5.694 5.097 2.645
5.230 5.387 2.769
5.467 5.261 2.735
5.669 5.101 2.656
5.657 5.093 2.411
5.019 5.542 2.533
5.208 5.314 2.450
5.431 5.215 2.453
5.580 5.044 2.412
5.558 4.975 2.103
4.504 5.692 2.296
4.645 5.546 2.264
4.901 5.463 2.282
5.070 5.268 2.199
5.335 5.110 2.191
5.578 4.993 2.132
5.452 5.010 1.897
4.332 5.670 2.149
4.594 5.564 2.079
4.781 5.417 2.046
5.071 5.270 2.004
5.224 5.149 1.962
5.462 4.951 1.867
5.393 4.864 1.645
4.265 5.597 1.899
4.531 5.506 1.840
4.706 5.381 1.814
4.976 5.208 1.748
5.220 5.078 1.729
5.389 4.946 1.671
5.312 4.820 1.469
4.191 5.564 1.661
4.478 5.406 1.592
4.625 5.266 1.543
4.864 5.158 1.511
5.103 4.959 1.420
5.271 4.889 1.432
1.396 0.609 3.532
1.566 0.552 3.511
1.830 0.400 3.523
1.966 0.247 3.416
2.241 0.115 3.370
1.287 0.641 3.308
1.534 0.420 3.266
1.692 0.291 3.201
1.913 0.122 3.233
2.179 0.045 3.208
1.219 0.501 3.069
1.437 0.403 3.067
1.614 0.225 3.022
1.835 0.095 2.956
1.538 0.209 2.741
1.801 0.116 2.700
3.133 0.449 5.551
3.358 0.238 5.556
3.546 0.165 5.534
3.081 0.391 5.581
3.003 0.412 5.324
3.296 0.208 5.258
3.518 0.039 5.221
2.852 0.460 5.415
3.004 0.413 5.347
2.947 0.278 5.084
3.161 0.212 5.051
3.353 0.015 5.024
2.525 0.628 5.188
2.736 0.495 5.082
2.965 0.344 5.089
2.908 0.278 4.798
3.124 0.146 4.801
2.199 0.705 4.912
2.478 0.550 4.965
2.650 0.373 4.878
2.873 0.208 4.840
2.836 0.166 4.610
3.042 0.054 4.531
1.935 0.811 4.700
2.188 0.606 4.742
2.436 0.434 4.618
2.584 0.396 4.681
2.822 0.245 4.570
2.774 0.119 4.337
2.913 -0.014 4.343
1.646 0.845 4.572
1.924 0.714 4.504
2.056 0.571 4.489
2.280 0.487 4.446
2.506 0.319 4.365
2.731 0.181 4.312
2.687 0.103 4.100
1.594 0.769 4.262
1.841 0.652 4.294
2.012 0.485 4.236
2.219 0.404 4.223
2.396 0.197 4.091
2.693 0.065 4.080
2.549 0.024 3.891
1.540 0.741 3.996
1.755 0.625 3.974
1.905 0.444 3.930
2.104 0.370 3.952
2.399 0.136 3.916
2.611 0.095 3.809
1.462 0.681 3.821
1.616 0.563 3.769
1.880 0.399 3.739
2.090 0.322 3.710
2.300 0.140 3.638
1.328 0.677 3.506
1.620 0.542 3.515
1.816 0.382 3.513
2.028 0.183 3.412
2.241 0.063 3.404
1.495 0.885 3.476
1.746 0.710 3.487
1.925 0.607 3.383
2.129 0.394 3.365
2.341 0.248 3.309
1.447 0.811 3.229
1.663 0.635 3.210
1.789 0.512 3.204
2.038 0.363 3.155
2.255 0.270 3.103
1.765 0.511 2.939
3.294 0.671 5.515
3.432 0.537 5.456
3.652 0.354 5.440
3.941 0.245 5.354
4.113 0.059 5.302
3.069 0.779 5.543
3.224 0.615 5.468
3.142 0.597 5.278
3.384 0.453 5.182
3.611 0.271 5.199
3.801 0.130 5.116
4.000 -0.027 5.051
2.999 0.689 5.324
3.214 0.546 5.200
3.086 0.498 5.009
3.301 0.414 5.011
3.527 0.222 4.931
3.735 0.137 4.904
2.714 0.842 5.039
2.868 0.626 5.033
3.110 0.568 4.966
2.973 0.514 4.788
3.254 0.334 4.759
3.471 0.173 4.663
3.687 -0.003 4.594
2.415 0.852 4.857
2.594 0.791 4.878
2.798 0.572 4.744
3.025 0.490 4.750
2.919 0.438 4.462
3.190 0.284 4.473
3.361 0.096 4.448
1.883 1.119 4.669
2.110 0.986 4.631
2.264 0.880 4.591
2.499 0.701 4.626
2.746 0.589 4.585
2.964 0.399 4.461
2.900 0.345 4.219
3.083 0.274 4.205
1.734 1.124 4.424
1.948 0.903 4.399
2.165 0.814 4.376
2.425 0.610 4.319
2.657 0.476 4.331
2.816 0.380 4.301
2.809 0.299 4.024
2.976 0.157 3.948
1.659 1.012 4.181
1.891 0.926 4.223
2.182 0.713 4.126
2.327 0.629 4.060
2.578 0.427 4.030
2.774 0.308 4.061
2.728 0.210 3.809
1.666 1.014 4.005
1.795 0.873 3.963
2.034 0.689 3.884
2.303 0.535 3.814
2.453 0.400 3.764
2.729 0.268 3.793
2.591 0.198 3.505
1.600 0.934 3.716
1.816 0.774 3.708
1.967 0.613 3.690
2.197 0.539 3.556
2.384 0.370 3.603
2.612 0.203 3.482
1.494 0.905 3.445
1.729 0.672 3.421
1.937 0.622 3.370
2.094 0.400 3.363
2.308 0.246 3.279
1.583 1.081 3.399
1.821 0.947 3.380
2.078 0.824 3.307
2.296 0.668 3.254
2.452 0.458 3.189
1.792 0.881 3.062
1.925 0.762 3.119
0.882 0.620 1.203
0.816 0.587 0.912
3.324 0.814 5.405
3.573 0.712 5.339
3.835 0.562 5.368
4.069 0.384 5.324
4.218 0.269 5.221
4.491 0.106 5.236
3.114 1.034 5.423
3.402 0.791 5.396
3.269 0.748 5.196
3.546 0.668 5.152
3.693 0.488 5.045
3.950 0.360 5.015
4.195 0.224 5.005
4.400 0.085 5.013
2.850 1.122 5.182
3.073 0.938 5.229
3.332 0.840 5.185
3.249 0.744 4.945
3.454 0.591 4.861
3.681 0.400 4.789
3.903 0.270 4.782
4.139 0.176 4.773
4.256 -0.018 4.718
2.613 1.185 5.040
2.831 0.991 4.975
2.983 0.879 4.915
3.181 0.710 4.903
3.191 0.730 4.711
3.352 0.536 4.590
3.546 0.403 4.576
3.841 0.287 4.542
3.975 0.092 4.509
2.226 1.201 4.826
2.536 1.095 4.802
2.704 1.015 4.754
2.879 0.792 4.742
3.180 0.670 4.672
3.076 0.608 4.462
3.273 0.453 4.421
3.463 0.361 4.371
3.728 0.198 4.298
2.024 1.296 4.640
2.221 1.148 4.528
2.445 1.094 4.548
2.630 0.941 4.498
2.806 0.817 4.499
3.087 0.682 4.443
3.015 0.590 4.168
3.198 0.486 4.153
3.383 0.324 4.087
1.875 1.247 4.355
2.108 1.189 4.288
2.309 1.048 4.345
2.582 0.854 4.215
2.801 0.733 4.205
2.956 0.597 4.128
2.874 0.517 3.890
3.181 0.383 3.947
1.816 1.223 4.095
2.086 1.075 4.128
2.225 0.930 4.043
2.495 0.845 4.036
2.749 0.633 3.983
2.886 0.516 3.953
2.812 0.505 3.711
1.770 1.184 3.858
1.966 1.058 3.889
2.190 0.856 3.845
2.371 0.757 3.784
2.581 0.580 3.744
2.819 0.425 3.709
1.669 1.142 3.594
1.934 0.991 3.555
2.106 0.882 3.530
2.349 0.733 3.554
2.546 0.546 3.531
1.608 1.124 3.385
1.870 0.981 3.351
2.082 0.773 3.349
2.257 0.633 3.311
2.441 0.486 3.191
1.708 1.273 3.346
1.920 1.147 3.233
2.188 0.983 3.230
1.149 0.932 1.623
1.085 0.825 1.375
1.035 0.772 1.099
1.296 0.665 1.075
0.910 0.717 0.874
0.916 0.679 0.611
3.500 1.016 5.316
3.759 0.930 5.271
3.897 0.796 5.278
4.193 0.585 5.254
4.324 0.450 5.176
4.542 0.336 5.091
4.827 0.241 5.085
4.998 0.086 5.014
3.500 1.037 5.368
3.471 0.992 5.069
3.670 0.864 5.085
3.909 0.753 5.014
4.029 0.524 5.003
4.278 0.481 4.927
4.501 0.292 4.900
4.673 0.141 4.828
4.943 0.060 4.765
3.182 1.159 5.165
3.391 0.983 5.032
3.364 0.972 4.854
3.595 0.837 4.757
3.787 0.630 4.758
4.042 0.552 4.669
4.259 0.413 4.708
4.439 0.275 4.602
4.690 0.104 4.569
2.659 1.342 4.912
2.898 1.244 4.918
3.139 1.075 4.816
3.329 0.969 4.793
3.227 0.919 4.552
3.488 0.711 4.589
3.726 0.563 4.492
3.902 0.438 4.464
4.121 0.352 4.449
4.306 0.164 4.421
2.217 1.579 4.803
2.439 1.479 4.700
2.619 1.333 4.734
2.784 1.163 4.682
3.013 1.064 4.618
3.252 0.864 4.632
3.220 0.857 4.300
3.461 0.745 4.352
3.679 0.523 4.271
3.829 0.369 4.213
2.158 1.589 4.546
2.371 1.421 4.438
2.572 1.267 4.417
2.750 1.135 4.374
2.980 1.016 4.425
3.232 0.792 4.329
3.065 0.777 4.053
3.329 0.691 4.085
2.055 1.513 4.320
2.303 1.372 4.293
2.490 1.218 4.229
2.674 1.106 4.125
2.938 0.928 4.105
3.065 0.814 4.111
3.055 0.763 3.806
1.958 1.459 4.016
2.170 1.328 3.996
2.344 1.158 3.979
2.653 1.057 3.914
2.828 0.914 3.927
3.058 0.764 3.903
1.913 1.379 3.830
2.149 1.220 3.808
2.288 1.161 3.686
2.582 1.021 3.657
2.746 0.862 3.608
1.778 1.369 3.524
2.003 1.171 3.495
2.235 1.108 3.509
2.479 0.948 3.446
2.720 0.759 3.395
1.694 1.316 3.264
1.969 1.198 3.278
2.203 1.024 3.255
1.844 1.515 3.247
2.075 1.333 3.141
3.728 0.136 2.658
3.929 0.030 2.626
3.662 0.173 2.439
3.369 0.236 2.237
3.524 0.043 2.192
3.280 0.206 1.966
3.486 -0.013 1.867
1.317 1.173 1.552
1.488 1.028 1.481
1.247 1.073 1.282
1.485 0.991 1.203
1.711 0.760 1.174
1.116 0.985 1.016
1.393 0.913 0.962
1.562 0.703 0.890
1.138 0.974 0.807
1.345 0.860 0.756
0.996 0.912 0.526
1.246 0.799 0.532
3.648 1.269 5.231
3.879 1.088 5.205
4.034 0.992 5.182
4.276 0.799 5.132
4.476 0.698 5.036
4.710 0.601 4.995
4.972 0.455 5.055
5.158 0.277 4.920
5.406 0.088 4.967
3.662 1.271 5.241
3.510 1.185 4.970
3.816 1.079 4.940
3.939 0.960 4.867
4.202 0.748 4.910
4.425 0.607 4.853
4.600 0.554 4.803
4.889 0.371 4.806
5.086 0.209 4.700
5.336 0.028 4.665
3.372 1.394 5.061
3.591 1.262 4.949
3.497 1.175 4.738
3.687 0.993 4.721
3.924 0.843 4.665
4.143 0.782 4.683
4.318 0.624 4.591
4.521 0.501 4.585
4.759 0.307 4.527
4.993 0.221 4.451
5.205 0.032 4.405
3.088 1.492 4.849
3.285 1.272 4.809
3.467 1.165 4.775
3.442 1.094 4.528
3.626 0.924 4.450
3.808 0.856 4.374
4.012 0.697 4.383
4.297 0.578 4.311
4.439 0.355 4.339
4.654 0.310 4.291
2.333 1.768 4.714
2.576 1.703 4.699
2.729 1.485 4.616
2.933 1.344 4.588
3.176 1.217 4.516
3.407 1.077 4.553
3.365 1.088 4.306
3.582 0.904 4.215
3.721 0.753 4.132
2.287 1.727 4.424
2.476 1.633 4.444
2.683 1.434 4.417
2.882 1.305 4.317
3.106 1.156 4.299
3.350 1.057 4.270
3.219 0.992 3.992
3.496 0.863 4.016
2.134 1.683 4.199
2.330 1.549 4.118
2.625 1.467 4.082
2.769 1.249 4.062
3.069 1.115 3.995
3.257 1.037 4.044
3.215 0.941 3.759
2.083 1.615 3.915
2.261 1.507 3.902
2.513 1.370 3.890
2.742 1.262 3.795
2.964 1.111 3.844
3.148 0.946 3.766
2.028 1.573 3.708
2.180 1.484 3.637
2.451 1.353 3.661
2.692 1.153 3.572
2.861 1.050 3.601
1.891 1.610 3.418
2.185 1.447 3.389
2.366 1.300 3.367
2.540 1.175 3.329
1.831 1.498 3.182
2.108 1.360 3.153
4.175 0.346 2.779
4.335 0.114 2.735
4.564 -0.026 2.670
1.992 1.751 3.166
3.594 0.545 2.574
3.858 0.378 2.529
4.111 0.227 2.564
4.291 0.080 2.521
3.525 0.516 2.331
3.811 0.358 2.355
3.964 0.222 2.263
4.212 0.068 2.240
3.278 0.610 2.159
3.438 0.452 2.102
3.673 0.254 2.030
3.912 0.097 1.985
4.120 0.011 1.998
2.954 0.668 1.888
3.238 0.559 1.937
3.449 0.340 1.853
3.600 0.252 1.825
3.888 0.122 1.790
2.662 0.728 1.697
2.876 0.610 1.688
3.116 0.436 1.647
3.285 0.303 1.631
3.596 0.171 1.523
3.714 0.004 1.549
2.660 0.724 1.705
2.628 0.721 1.451
2.819 0.549 1.408
3.035 0.426 1.418
3.209 0.267 1.313
3.442 0.124 1.361
1.524 1.429 1.685
1.718 1.292 1.604
1.997 1.136 1.622
2.163 1.006 1.517
2.391 0.883 1.517
2.607 0.648 1.521
2.514 0.602 1.254
1.416 1.403 1.395
1.611 1.238 1.342
1.877 1.091 1.348
2.041 0.895 1.261
2.277 0.792 1.251
2.518 0.639 1.237
1.360 1.290 1.183
1.590 1.123 1.170
1.780 0.975 1.066
1.979 0.879 1.086
2.184 0.744 0.994
1.308 1.266 0.945
1.512 1.074 0.863
1.725 0.991 0.802
1.893 0.869 0.818
1.195 1.232 0.706
1.447 1.010 0.678
1.615 0.956 0.576
1.146 1.127 0.456
1.402 1.027 0.368
1.621 0.851 0.344
1.080 1.093 0.166
4.181 1.196 5.027
4.440 1.094 5.078
4.610 0.925 4.984
4.848 0.732 4.966
5.027 0.576 4.956
5.293 0.505 4.931
5.492 0.321 4.869
5.702 0.238 4.809
5.932 0.091 4.725
3.859 1.289 4.917
4.089 1.109 4.824
4.333 1.032 4.835
4.531 0.871 4.784
4.766 0.666 4.730
4.931 0.615 4.643
5.182 0.393 4.632
5.416 0.264 4.557
5.628 0.161 4.600
5.832 0.006 4.510
3.635 1.323 4.702
3.767 1.277 4.582
3.982 1.106 4.570
4.256 0.948 4.557
4.477 0.807 4.464
4.661 0.682 4.464
4.862 0.552 4.458
5.098 0.367 4.380
5.330 0.223 4.312
5.598 0.147 4.270
3.611 1.417 4.655
3.476 1.279 4.362
3.686 1.132 4.371
3.989 1.027 4.331
4.172 0.882 4.276
4.369 0.776 4.247
4.635 0.652 4.270
4.840 0.518 4.152
5.089 0.316 4.181
5.261 0.184 4.155
5.436 0.064 4.073
2.442 2.012 4.649
2.676 1.902 4.561
2.894 1.696 4.570
3.067 1.620 4.440
3.266 1.423 4.401
3.491 1.288 4.439
3.426 1.313 4.171
2.391 1.945 4.385
2.539 1.885 4.287
2.791 1.706 4.320
3.031 1.551 4.213
3.221 1.372 4.175
3.462 1.234 4.195
2.282 1.953 4.108
2.541 1.831 4.027
2.752 1.690 3.987
2.894 1.472 3.983
3.176 1.391 3.974
2.208 1.923 3.847
2.476 1.741 3.850
2.661 1.610 3.769
2.890 1.501 3.730
2.125 1.786 3.620
2.345 1.638 3.534
2.538 1.530 3.574
2.105 1.789 3.391
2.260 1.678 3.295
2.437 1.473 3.268
4.141 0.313 2.743
4.407 0.158 2.705
4.572 0.009 2.682
1.932 1.773 3.085
4.146 5.975 1.569
2.849 6.227 0.463
2.763 6.155 0.277
3.003 5.997 0.214
2.546 6.307 0.066
4.255 6.005 2.004
4.167 6.008 1.802
4.152 5.913 1.534
4.272 6.171 1.453
3.131 6.212 0.088
4.426 6.234 1.945
4.394 6.227 1.717
4.310 6.121 1.456
6.246 5.713 0.130
6.242 6.095 0.299
5.935 6.190 0.089
6.229 6.056 0.040
5.927 6.150 0.138
5.412 5.087 1.356
4.306 5.803 1.558
4.602 5.650 1.451
4.815 5.497 1.420
5.054 5.310 1.426
5.265 5.243 1.419
5.396 5.109 1.304
4.234 5.685 1.280
4.459 5.639 1.210
4.722 5.443 1.197
4.893 5.261 1.172
5.154 5.167 1.077
4.241 5.669 1.005
4.412 5.551 0.950
4.629 5.389 0.914
4.866 5.198 0.971
5.026 5.068 0.905
4.538 5.348 0.723
4.758 5.172 0.694
6.081 5.517 3.563
6.139 5.513 3.544
6.068 5.477 3.305
6.274 5.389 3.278
5.817 5.594 3.307
6.005 5.502 3.332
5.950 5.438 3.021
6.181 5.347 2.962
5.529 5.726 3.080
5.712 5.630 3.084
5.951 5.389 3.049
5.850 5.342 2.755
6.109 5.243 2.760
5.252 5.814 2.940
5.504 5.642 2.852
5.694 5.492 2.813
5.942 5.389 2.837
5.781 5.287 2.589
6.092 5.169 2.479
6.236 5.091 2.444
4.925 5.881 2.708
5.203 5.764 2.689
5.348 5.613 2.593
5.646 5.508 2.648
5.825 5.320 2.519
5.770 5.259 2.357
5.935 5.177 2.232
4.692 5.999 2.540
4.865 5.880 2.468
5.044 5.717 2.382
5.318 5.568 2.371
5.509 5.434 2.392
5.783 5.258 2.319
5.617 5.243 2.100
4.598 5.914 2.212
4.782 5.832 2.200
4.999 5.602 2.222
5.241 5.485 2.121
5.466 5.384 2.125
5.687 5.245 2.090
5.585 5.135 1.879
4.502 5.892 2.033
4.749 5.698 2.020
4.995 5.561 1.892
5.119 5.407 1.944
5.391 5.368 1.812
5.619 5.142 1.776
5.485 5.155 1.565
4.410 5.830 1.768
4.666 5.738 1.762
4.879 5.509 1.693
5.046 5.453 1.636
5.271 5.223 1.660
5.464 5.117 1.571
5.488 5.080 1.348
4.311 5.807 1.550
4.547 5.601 1.442
4.803 5.526 1.417
4.968 5.319 1.459
5.269 5.238 1.405
5.434 5.064 1.360
4.514 5.949 1.476
4.715 5.830 1.425
4.926 5.757 1.408
5.153 5.532 1.284
5.345 5.443 1.292
4.406 5.983 1.208
4.591 5.805 1.181
4.878 5.700 1.146
5.040 5.535 1.061
5.247 5.417 1.070
4.808 5.594 0.910
6.270 5.708 3.423
6.052 5.891 3.511
6.231 5.783 3.405
6.172 5.736 3.211
5.968 5.801 3.275
6.136 5.745 3.183
6.118 5.642 2.951
5.616 5.950 3.045
5.921 5.771 3.000
6.062 5.672 2.920
6.064 5.615 2.746
6.250 5.484 2.649
5.353 6.006 2.821
5.581 5.919 2.836
5.859 5.737 2.800
6.050 5.616 2.761
5.996 5.542 2.423
6.115 5.434 2.483
4.899 6.282 2.667
5.094 6.135 2.598
5.321 5.940 2.577
5.478 5.849 2.577
5.749 5.655 2.511
5.941 5.503 2.465
5.841 5.447 2.213
6.112 5.331 2.188
4.774 6.181 2.391
4.993 6.108 2.342
5.228 5.956 2.331
5.483 5.814 2.358
5.664 5.687 2.276
5.835 5.442 2.238
5.816 5.391 1.935
5.988 5.255 1.918
4.742 6.177 2.197
4.876 5.957 2.129
5.176 5.912 2.069
5.412 5.705 2.016
5.552 5.607 2.041
5.831 5.393 1.971
5.758 5.395 1.764
4.616 6.126 1.912
4.843 5.950 1.923
5.042 5.856 1.879
5.310 5.705 1.774
5.467 5.515 1.813
5.720 5.403 1.767
5.595 5.295 1.489
4.531 6.089 1.735
4.763 5.926 1.600
5.000 5.771 1.652
5.232 5.644 1.526
5.431 5.432 1.495
5.636 5.335 1.549
4.495 5.974 1.438
4.645 5.866 1.412
4.962 5.676 1.375
5.151 5.550 1.320
5.346 5.448 1.267
4.581 6.188 1.402
4.834 6.059 1.368
4.994 5.911 1.267
