16.030972 68.903694 28.338486
17.481968 66.96469 29.007486
12.783966 47.231693 46.351486
11.210964 47.15269 47.466484
7.438965 48.177692 54.542484
7.502968 47.69969 51.693485
40.45797 51.190693 43.365486
40.877968 53.593693 43.721485
46.79797 58.358692 41.154484
47.72997 57.315693 39.159485
4.6079674 66.56669 22.501486
2.9719658 66.37869 21.660486
48.19597 77.47569 22.902485
46.71597 76.21269 22.737486
0.17796707 23.736694 23.743488
1.3089676 26.209688 23.523487
48.84097 22.614685 14.233482
0.8319664 23.217682 13.053482
34.246967 32.80669 5.252487
33.33997 30.654692 5.4714813
32.267967 34.44269 15.199486
29.744968 34.29669 15.352486
33.467968 89.459694 33.216484
33.58497 87.73069 34.649487
23.043968 84.24269 38.310486
21.511969 85.513695 37.427486
14.81097 33.82769 35.629486
13.627968 34.38869 34.131485
15.498966 30.719692 27.170486
14.205967 32.82569 26.617485
21.01997 133.1987 33.270485
18.746967 133.9227 31.929485
13.999966 3.8506927 42.591484
15.874966 3.8166962 43.513485
37.40297 102.44969 47.410484
35.558968 102.34469 45.423485
26.243969 110.09169 46.213486
24.414968 109.70369 45.336487
15.180965 18.057693 58.400486
17.500965 19.516693 58.288486
22.19897 15.126694 51.152485
20.565968 13.945694 50.019485
12.775967 104.93469 2.2234879
13.473965 104.62769 0.31848526
20.486965 98.79369 4.1744843
21.20097 100.28669 2.5974884
18.397968 114.98969 49.697487
16.708965 116.35869 49.724483
8.3979645 116.56569 54.760487
7.1839676 117.99069 53.642487
18.03297 87.52469 45.935486
18.96597 86.81169 47.933487
8.199966 86.290695 55.791485
9.164967 85.945694 57.491486
29.333967 3.6396942 1.195488
27.209969 3.1826935 1.8344879
28.357967 127.37069 58.170486
27.612968 128.35869 56.556484
18.11597 52.60269 10.086487
17.72697 50.96569 8.555489
14.997967 56.565693 59.789486
17.008968 56.86069 58.644485
37.98797 11.834686 20.563484
39.559967 13.867691 20.778488
35.921967 16.678696 13.412483
35.61097 17.797699 11.739487
25.907969 30.13569 39.468487
25.138968 32.68169 39.481483
22.841969 27.492691 45.040485
20.823969 28.572691 45.061485
3.7309685 99.64669 37.559486
4.8539658 101.88269 36.779484
15.260967 106.16869 38.483486
16.08797 104.25669 38.213486
9.317966 111.79869 39.588486
10.395966 111.167694 42.103485
14.214966 100.42269 38.958485
13.495968 98.16569 40.120483
24.301968 9.062698 54.947487
22.419971 7.3086853 55.177486
19.67197 12.092697 2.9934883
17.68597 11.631699 3.077488
22.35397 32.72169 9.878487
23.053967 31.939692 12.171486
15.577969 40.001694 15.168488
15.055965 41.384693 16.731483
41.52797 86.14869 51.313484
42.420967 84.46369 50.111485
47.400967 92.78269 45.615486
45.781967 94.45369 44.651485
30.094969 113.90869 54.927486
28.992968 114.67169 53.360485
32.248966 126.25869 53.823486
33.385967 125.59469 56.039486
9.246967 102.084694 59.099487
7.903965 99.80969 59.551487
12.540966 98.63169 7.6584854
13.198967 97.153694 9.535484
7.913967 12.112686 56.814487
5.6149673 12.576691 55.931484
12.245968 12.963699 59.566486
14.660969 13.9326935 59.188484
13.011967 98.36369 14.227486
14.61697 98.653694 16.099487
21.078968 91.44769 14.291489
20.886967 92.38669 12.5924835
33.66797 72.06569 47.808487
33.318966 71.348694 45.418484
40.343967 65.12669 44.461487
41.01397 66.901695 42.431484
35.162968 83.28569 35.028484
33.601967 84.874695 34.835487
26.84797 85.31569 43.193485
25.166967 86.48769 41.767487
1.4329681 56.59269 51.957485
1.9719658 56.17869 49.740486
10.279964 51.63969 44.476486
11.377968 49.579693 45.378487
31.478968 42.52769 13.030487
32.731968 44.267693 12.263481
31.975967 54.079693 11.197487
30.015968 54.21369 12.030487
25.699968 18.669693 30.267485
27.518969 20.540695 29.029486
25.554968 23.16269 41.418484
24.057968 21.846695 41.157486
40.55697 49.69569 4.329483
41.66897 51.481693 5.7334824
41.349968 43.121693 9.289482
41.025967 42.969692 7.0014877
28.123968 100.94369 39.314484
30.276968 100.584694 38.043484
33.071968 92.37569 33.245487
35.34797 91.70769 33.285484
9.354965 10.959686 27.418486
10.566967 9.793686 29.319487
6.8599663 0.37168884 26.591486
7.5979652 133.7677 27.472486
17.92197 51.648693 34.269485
18.051968 51.427692 32.025486
27.080967 45.72769 25.613485
27.163967 47.468693 24.524487
34.75797 13.876694 5.389488
32.878967 12.568695 4.365486
23.575968 15.977692 5.808487
21.379969 15.112686 4.8124847
45.428967 54.16069 30.779486
45.49997 56.07869 29.590487
5.1149673 56.933693 21.916485
5.2969666 56.836693 19.337486
17.17397 132.5297 39.797485
17.95097 132.4587 37.711487
13.634968 3.2316895 32.239487
14.205967 4.7866974 33.774487
33.00697 117.21469 49.636486
32.245968 115.40069 48.676487
24.624968 112.31769 45.730484
22.242968 112.12869 45.790485
8.319965 88.762695 54.462486
7.3509674 89.88169 55.706486
9.292965 98.84569 48.490486
9.926968 100.68569 48.594486
45.907967 85.48869 60.308487
48.106968 86.86469 60.865486
5.0379677 85.012695 9.351486
5.411968 86.29969 7.452484
15.370968 63.42069 3.0264854
15.534969 62.08169 1.1974869
13.070965 57.46069 57.876488
14.563969 55.566692 57.144485
24.869968 101.26569 44.293484
26.559969 101.56069 45.918484
25.963968 110.09969 54.243484
26.861969 111.53569 53.153484
2.7589684 73.74269 2.3564873
2.8329659 71.624695 1.3114853
41.89797 67.709694 3.4264832
39.94497 69.609695 3.3264847
25.381968 76.13469 10.188484
26.182968 77.74069 9.264488
34.20197 70.28569 5.749481
34.252968 68.00669 5.9634857
31.152967 72.78469 59.753487
32.141968 73.99269 1.3624878
23.202969 79.07269 2.4424858
22.118969 79.320694 0.44748688
38.77997 74.74669 47.313484
39.75097 73.60469 49.546486
32.91797 73.43369 57.789486
31.876968 71.57369 57.312485
21.53197 90.06169 35.689487
22.45897 90.27069 34.049484
26.105968 94.95869 42.555485
26.796968 96.25469 44.221485
11.277966 126.52269 11.284485
10.463966 124.84269 9.588486
3.0369682 116.80769 10.366486
2.2529678 116.22269 8.870483
15.876965 32.23669 38.442486
18.208965 32.87569 38.105484
24.425964 40.04969 33.849487
24.03497 41.893692 32.644485
4.995968 92.75669 16.711487
4.684967 94.28569 15.276482
8.470966 101.917694 18.819489
9.032967 103.58069 20.981483
30.479967 23.161682 16.283485
29.794968 24.463684 18.259483
26.336967 18.03769 26.531487
24.609968 17.797699 28.005486
49.171967 113.68669 11.299484
1.4139671 114.61169 11.631485
9.149967 106.35869 7.0194855
10.292965 105.23169 9.127487
36.84897 44.919693 52.673485
36.290966 45.197693 50.223484
40.835968 56.47469 47.541485
38.48697 56.86969 46.533485
15.577969 37.607693 32.975487
13.661964 37.475693 33.883484
16.92197 42.517693 43.898483
16.280972 44.135693 45.349483
8.660965 53.115692 38.841484
8.722965 50.74869 39.671486
16.71397 47.58469 33.150486
16.858967 46.664692 31.414486
37.43197 20.367691 46.224483
36.48697 21.753693 47.799484
29.484968 20.31369 39.574486
31.197968 18.413696 40.097485
22.774967 56.52269 53.684486
21.03297 58.06969 52.638485
23.539967 67.66269 56.383488
25.189964 67.96169 58.554485
7.1529655 112.71369 40.928486
5.2799683 112.05469 41.542484
49.65497 122.66069 43.302486
48.115967 122.44869 44.647484
0.09496689 11.890686 8.701485
48.671967 13.636688 6.6234818
40.177967 10.86969 2.9284859
40.14697 9.674698 0.72748566
43.683968 1.7906952 48.811485
44.725967 0.23069763 50.052486
3.1219673 131.3227 53.937485
5.255966 131.41469 55.314487
30.345968 69.31069 56.595486
29.413967 68.86369 58.412487
30.536968 66.99269 5.914482
32.22397 65.80269 6.5384827
16.528965 133.4467 44.829487
16.785969 133.0037 42.545486
22.306965 0.62168884 49.380486
21.82697 2.4656982 49.779484
24.388968 88.25869 8.547485
26.776968 88.56569 8.352486
29.178968 84.722694 58.333485
27.396969 85.73269 57.469486
47.06297 40.731693 4.381485
44.754967 40.121693 4.0544815
45.851967 29.67369 58.490486
47.212967 30.567692 57.074486
8.410965 18.847687 8.319489
9.693966 19.993683 10.081482
18.121967 11.875687 6.4434814
20.416965 13.1796875 7.301483
25.817966 124.80869 18.016487
23.550968 126.10769 18.694489
16.096966 118.09669 15.137482
15.087971 118.71869 13.372482
49.016968 38.28569 30.393486
1.1399689 36.97269 29.398485
1.8339653 42.94369 20.312487
49.607967 42.25669 20.410486
38.96697 23.66369 16.018486
40.016968 23.93069 18.596481
37.86797 34.768692 21.418488
37.523968 34.42969 23.788486
42.663967 74.75569 28.682486
44.683968 75.084694 27.639486
3.863968 73.442696 34.930485
5.740967 73.28769 33.896484
12.5419655 53.94669 40.394485
11.8909645 51.71769 40.793484
23.18597 47.37669 38.547485
22.94897 49.073692 39.891483
8.567966 124.55569 32.961487
9.993965 123.03069 31.350485
4.7359657 122.48569 21.449486
3.1689682 124.19369 21.447485
14.549969 114.14069 48.197487
14.094967 115.56769 46.633484
22.54697 114.45269 38.763485
24.100971 115.91469 37.238487
17.969967 76.36669 18.336487
19.614971 76.42669 19.922485
26.116966 70.32869 17.544487
28.233967 69.472694 18.065483
19.442966 90.08669 46.291485
19.376965 91.35769 48.432484
20.613972 94.27269 57.078487
21.730968 92.61169 57.876488
24.547968 111.36869 10.294487
24.799969 109.40069 11.529488
35.794968 114.29469 10.314484
36.11897 113.72569 12.416489
15.216969 33.231693 4.9204865
16.21497 31.19469 5.411484
22.543964 25.634691 0.84648514
23.167965 24.707691 59.872486
37.97897 3.7856903 16.867485
38.732967 4.366699 19.008484
0.5179672 7.9546967 17.785484
0.6429672 10.168686 19.415482
23.049969 78.01069 31.973486
23.298967 78.82669 34.170486
36.58997 80.624695 31.759485
36.078968 79.00669 30.819485
33.922966 39.495693 53.142487
32.64597 37.655693 53.384483
29.160969 30.158691 1.7294884
28.102968 28.405691 2.0754852
0.033966064 134.5067 23.756485
48.32797 0.8766937 24.306486
45.030968 6.6516876 27.860485
44.21697 5.545685 25.990486
27.700966 48.525692 57.398487
26.471966 46.57069 56.812485
17.29597 47.24269 0.3304863
16.008968 45.087692 0.80848694
45.601967 55.40469 19.868484
44.31197 56.50569 17.925484
6.806965 56.68169 14.204483
5.7729683 54.62669 13.899483
4.153969 75.723694 43.492485
5.882969 77.47969 43.888485
15.091969 81.73169 48.998486
15.424969 84.07969 47.883484
13.597965 123.38169 10.940483
16.14397 122.84369 11.167488
18.681965 124.63669 23.375488
17.052967 125.89069 24.303486
48.90897 68.32669 53.314484
48.829967 70.46669 51.252483
42.56997 62.62669 45.412487
41.204967 61.164692 46.753487
22.903969 90.65269 47.659485
24.339968 90.82169 45.855484
34.38397 88.236694 51.476486
33.51397 90.17469 52.019485
25.262968 54.677692 46.068485
25.657969 54.927692 43.739487
29.495968 44.642693 39.980484
31.375969 44.88969 38.785484
30.780968 82.916695 56.478485
31.632969 84.25169 54.604485
33.427967 83.53069 43.891483
33.342968 85.19669 42.458485
33.733967 98.20269 16.708488
34.27897 96.46969 17.226486
39.720966 97.19369 8.378487
39.545967 97.06269 5.8784866
23.21397 7.0906982 40.630486
24.362965 6.4656982 42.155483
19.429966 4.348694 49.338486
17.013966 5.096695 48.359486
43.10997 69.67169 39.701485
40.788967 69.278694 40.250484
33.051968 68.57969 38.902485
33.02797 66.58769 40.237484
1.0719681 110.38369 59.915485
1.9359665 110.43669 1.1294861
10.366966 103.889694 57.496487
12.391968 103.65469 57.314487
35.89097 42.23569 52.147484
35.25197 42.68769 54.622486
43.842968 46.183693 0.96948624
44.817966 46.72169 60.083485
37.41797 120.92269 38.970486
37.93897 119.29669 37.558487
26.258968 121.02469 36.167484
26.148968 120.91469 38.755486
41.004967 30.356691 12.326485
43.41597 31.455692 12.284485
43.79397 41.892693 7.150482
45.32597 42.010693 6.228485
11.308968 29.818691 0.6824875
10.213966 30.932692 2.1154861
12.447968 37.801693 59.011486
10.5799675 39.789692 59.217487
3.2429657 64.081696 49.907486
1.6579666 63.59369 51.265484
43.88797 65.50269 55.801487
42.68897 65.89769 57.699486
24.840965 75.403694 35.829487
24.122967 73.19669 34.515484
12.153965 70.49269 35.618484
11.179966 68.86969 37.245487
27.203968 122.73269 16.704485
29.210968 123.09769 18.062487
21.579967 125.02969 23.607487
21.435968 126.60869 25.307486
8.423965 6.113693 4.459488
10.029964 7.415695 4.0234833
0.08596802 12.4296875 57.879486
0.8769684 13.66069 56.367485
46.712967 109.00769 11.764488
44.64697 110.22969 12.473488
40.92397 107.52969 23.667488
42.02097 105.55869 24.403488
20.882969 108.85769 17.684486
21.78497 108.66269 15.869484
19.623966 109.24269 4.6604843
20.694965 111.15469 5.329483
20.377972 93.70569 0.24648666
19.04697 94.24569 59.210487
15.987965 105.73069 56.946487
17.480968 107.42269 57.883488
47.43897 81.11669 54.522488
47.04797 80.40769 52.277485
5.8989677 85.528694 46.683487
5.785969 83.34169 44.780483
28.353968 49.42869 48.325485
26.488968 48.79169 49.165485
24.081968 38.56369 51.844486
22.440968 39.18869 50.647484
37.52097 89.72469 54.841488
35.55797 90.20369 53.543484
37.61297 89.32369 42.367485
37.816967 87.65769 40.930485
25.837969 132.5867 14.096481
27.953968 132.1317 13.647484
35.802967 130.7457 10.442482
36.02897 130.87169 8.286484
24.390965 125.63369 47.384483
23.03397 125.57669 49.659485
18.168964 133.4697 55.401485
19.525967 132.8447 57.209488
0.15296555 61.63769 10.318481
49.53397 59.53669 8.456482
45.88097 57.88769 7.1024857
43.97297 56.774693 8.300484
25.525969 130.6837 39.513485
27.063969 130.2667 41.171486
23.891968 133.6817 50.960484
21.911968 133.8487 52.290485
24.081966 15.001694 48.538486
22.319965 16.583694 47.892487
15.222965 20.181686 39.422485
14.447971 20.78769 41.715485
46.08497 9.176697 28.757486
46.87697 8.305695 27.490486
4.3769684 2.6756897 36.665485
5.512966 0.98069763 34.991486
38.518967 122.90269 60.192486
35.82697 121.89069 59.837486
31.666967 113.92069 52.870483
32.946968 113.30869 50.652485
6.439968 105.38069 33.657486
5.4899673 103.94069 35.321487
3.172966 93.81569 31.778486
4.550968 94.17169 30.283485
45.63997 80.27969 22.462486
46.717968 79.35069 21.380486
42.47197 80.26769 9.306488
40.58397 80.959694 8.6184845
47.289967 103.51369 21.114487
46.37497 104.74669 22.485485
48.899967 107.18369 13.039482
0.48396683 109.19169 12.472488
38.149967 92.24969 30.971485
36.239967 92.58669 30.529486
36.975967 96.60469 19.431486
35.52897 94.97969 19.163486
4.774967 100.31369 27.684486
5.9619675 101.56569 29.056486
15.399967 97.95569 36.013485
13.836967 97.20669 37.464485
36.338966 19.36969 43.832485
37.53497 20.927689 42.900486
30.224968 19.718689 34.652485
29.762968 20.616684 36.526485
31.174969 114.55369 9.823486
29.568968 116.00569 10.648483
18.263968 116.37969 12.760483
18.404968 116.889694 15.101486
36.072968 18.658691 50.723484
38.587967 19.558685 50.428486
40.89597 11.191696 52.578484
41.614967 9.322693 52.861485
23.288967 124.31269 0.013484955
22.001965 122.82469 60.489487
20.363972 122.18469 49.855484
20.516972 124.43669 49.895485
14.957966 31.447691 8.196487
13.084965 32.780693 6.874481
16.607967 44.06469 7.0624847
14.586971 45.13269 7.2394867
45.447968 19.225693 58.428486
46.47997 16.8387 58.595486
5.0259666 16.834686 5.3944855
6.884968 16.652695 4.621483
0.9379654 16.062698 26.400486
0.2089653 17.686691 25.097486
46.51297 23.794693 17.734486
45.02097 22.724686 16.480486
9.438965 72.71769 19.939484
10.173965 72.76069 22.180489
20.124966 79.304695 21.349487
20.65897 81.234695 20.115486
30.312967 49.037693 2.9954872
28.277967 48.586693 3.756485
19.041967 53.77769 8.065483
19.656967 55.01969 9.465485
5.828968 54.10569 19.432487
7.863968 53.287693 19.295486
11.546967 57.64469 10.672485
10.362965 59.06969 9.026482
33.11197 97.24369 28.226486
32.116966 97.75869 26.193485
25.96597 89.958694 26.286486
25.051968 87.96269 26.121487
31.696968 114.75669 36.541485
32.545967 113.65669 37.830486
34.946968 118.51269 47.179485
37.422966 119.21369 47.048485
24.423965 106.93669 1.0524864
25.680965 104.33369 0.80848694
19.183971 108.03669 55.318485
19.967968 109.80569 54.047485
7.755966 116.88669 29.393486
8.533966 115.60369 31.045486
15.539967 110.695694 22.835485
14.729969 108.84569 21.531487
11.759968 46.732693 16.848488
13.561966 45.386692 17.691483
3.3929672 41.45169 15.356483
2.7159653 39.066692 16.929482
24.344969 17.330688 59.713486
25.488968 16.3107 0.8234863
35.92597 13.559692 58.215485
35.54997 14.739685 55.840485
39.165966 24.42369 32.253487
40.989967 22.995682 31.759485
36.44597 21.919693 19.504486
37.991966 20.406693 19.243486
19.374968 83.540695 56.168488
22.068968 83.23769 56.072487
31.136969 77.804695 53.260487
30.352968 77.19969 55.315487
30.046968 71.94669 32.456486
28.533968 70.695694 31.624485
30.537968 68.139694 38.892487
30.877968 66.110695 38.199486
15.260967 94.95769 3.119484
14.254967 93.25769 1.3344879
19.232967 91.62369 51.207485
16.860966 91.38769 49.669487
12.679966 66.21069 27.023485
14.127968 67.792694 26.682486
8.857967 78.08569 32.368484
9.820965 77.30269 34.324486
42.551968 50.43569 30.212486
44.29197 49.184692 30.314486
38.686966 41.254692 36.176487
38.32797 41.43169 38.834484
45.051968 123.792694 44.568485
43.115967 123.30069 43.625484
38.64597 133.2807 39.559486
38.433968 0.08569336 40.128487
31.438969 46.38769 19.435486
29.559969 45.627693 18.862488
22.823969 47.356693 10.162483
22.038969 49.157692 9.349487
1.1839676 103.41969 50.023483
49.386967 101.72869 50.538486
44.121967 110.01769 46.611485
43.60997 111.75269 45.988483
22.191969 4.319687 17.738487
22.129969 6.4576874 17.636482
29.301968 8.538696 27.379486
31.167969 6.89769 26.499489
45.88297 114.64669 11.362488
44.545967 113.43469 9.382484
48.220966 108.62469 59.450485
0.57896805 107.74269 60.872486
41.606968 58.12569 45.443485
43.421967 57.816692 46.602486
43.89697 66.26669 44.297485
43.31497 67.18769 46.450485
12.747967 95.21069 43.507484
15.628971 94.79469 43.244484
22.655972 85.97469 40.447487
22.31197 84.45069 42.209484
42.79097 99.16669 47.895485
44.57697 97.76769 48.277485
47.338966 102.62769 53.780483
47.546967 104.58669 54.717487
30.415968 55.920692 13.869484
30.341969 54.22469 15.3684845
40.55097 54.56469 20.067482
40.25897 56.934692 19.397484
19.608967 86.89469 35.770485
20.65797 88.50269 37.355484
10.512966 89.95269 44.786484
11.375965 90.22769 47.010487
49.648968 104.52369 7.8164825
1.1549683 103.14469 9.053482
10.918964 98.94069 11.125488
10.008965 96.77969 11.992485
15.109966 115.86169 15.150482
16.596966 114.50769 14.124481
7.0749664 112.778694 14.8074875
6.2399673 114.21069 13.279488
17.566967 82.67369 17.216484
19.814968 83.44869 17.488487
23.151966 83.123695 4.825485
24.22697 81.56169 6.365486
46.781967 73.90469 59.585487
44.872967 72.900696 58.021484
40.239967 78.98269 5.9184875
42.156967 80.361694 5.258484
25.842968 17.862686 5.3374863
24.40697 19.349686 4.1374817
31.636969 28.331697 5.8044815
33.77297 27.95769 4.9814835
25.439964 27.743692 53.985485
26.047966 26.898691 52.093487
16.694965 27.832691 50.768486
14.5159645 26.57969 51.727486
5.4639664 28.365692 34.465485
4.4899673 28.931692 36.570484
43.86097 25.823692 39.815487
42.572968 27.483692 40.288486
40.044968 12.311691 59.963486
41.85497 13.248688 58.059486
37.804966 18.252686 6.6424866
36.921967 17.468689 8.767487
7.945965 27.51369 35.188484
7.1369667 28.823692 36.867485
8.040966 31.206692 46.233486
6.3409653 32.656693 46.395485
3.4269676 47.538692 13.621483
2.809967 45.37669 14.360481
13.351967 41.795692 14.033485
15.2659645 42.70969 12.328484
30.367968 56.504692 54.993484
32.13397 56.90469 55.414486
27.815968 47.86669 54.360485
27.077969 45.57769 54.256485
42.003967 25.430695 59.223488
40.287968 24.37268 59.051487
35.76497 17.987686 53.506485
36.776966 16.467697 54.282486
24.104969 31.631691 18.569489
23.735968 32.89469 20.297485
29.180967 39.65869 13.141487
28.436968 41.83369 14.378487
18.551968 100.19469 40.493484
17.67297 101.62769 42.147484
21.550968 109.12669 44.905483
22.372967 110.22069 43.685486
1.2759666 38.328693 37.748486
1.2729683 38.308693 35.701485
40.328968 38.86669 36.442486
38.15997 38.744694 36.653484
32.900967 42.808693 57.653484
32.585968 43.17869 60.201485
41.482967 50.08969 2.0674858
44.17997 49.59769 2.7414856
2.658966 113.223694 55.843487
4.7989655 113.66869 57.434486
15.000965 109.08569 56.865486
13.573967 107.38469 55.860485
3.9099655 52.38069 35.302486
4.6249657 52.15869 37.568485
2.210968 62.73769 40.599483
2.6089668 64.166695 41.632484
39.07097 124.04069 34.917484
39.864967 123.68769 37.057487
42.726967 0.7586975 38.148483
40.567966 0.72769165 38.797485
1.3149681 13.774689 53.751484
3.0069656 13.715698 54.060486
4.670967 14.663696 43.390484
5.526966 13.208694 42.610485
6.7809677 64.542694 51.219486
7.2569656 66.52469 50.082485
12.222965 70.165695 39.383484
11.568966 72.17369 37.979485
17.139965 134.26369 59.712486
16.885967 132.16269 0.3624878
25.651966 131.7347 6.1944885
27.740967 132.7287 6.7734833
44.73597 42.712692 36.433487
45.053967 44.754692 37.937485
39.037968 50.371693 30.536486
40.245968 51.93869 29.653486
34.26597 21.584686 25.973486
33.27797 19.723694 25.899487
25.712969 16.630692 24.330486
24.519968 15.760696 26.027485
30.982967 50.36669 48.604485
31.508968 52.92369 47.417484
37.155968 56.010693 56.419487
39.11197 57.15369 57.457485
6.7399673 20.433685 49.812485
5.0659676 21.683685 51.439484
45.24997 22.283691 54.354485
45.58497 23.863693 55.608486
5.113968 89.46469 29.062487
5.778969 88.303696 31.639486
8.293964 93.50769 42.259483
9.137966 91.66169 43.272484
3.2169685 78.48969 50.453484
4.1079674 78.055695 53.009483
3.000969 90.66469 53.535484
5.054966 91.098694 54.057484
24.241968 109.70569 56.621487
25.262968 111.90769 56.395485
25.838968 116.29369 5.4674835
25.728968 119.18369 4.917488
39.47397 66.624695 52.258484
38.08397 66.09169 50.356483
32.29897 75.18369 52.298485
30.678968 75.75569 50.818485
26.868965 38.842693 4.423485
24.425964 38.406693 4.8984833
18.717968 46.106693 11.724487
20.60297 46.33569 11.2434845
9.596966 24.210693 25.408485
11.520966 22.545685 25.213486
11.112965 29.745684 19.029488
12.682964 31.298693 19.064484
40.88097 77.082695 36.916485
40.58497 76.82969 34.612484
44.456966 66.89669 37.530487
42.25597 66.914696 38.444485
46.09897 52.108692 52.834484
43.94597 51.886692 53.024487
40.45897 42.69969 51.262486
40.42497 40.57769 52.659485
15.298969 27.446692 43.003487
15.073971 28.01069 44.944485
23.942966 34.33169 49.990486
23.247967 35.636692 51.647484
18.535969 68.82569 26.577486
18.356968 66.31069 26.720486
28.941969 63.35669 18.774487
30.898968 64.86569 19.208487
45.025967 127.37969 57.106487
45.92297 128.6597 55.815487
40.06497 129.8767 1.6714859
39.45997 127.68669 1.7114868
30.084969 51.40969 20.259485
28.747969 50.127693 21.430487
23.306969 53.99469 27.247486
25.122969 54.79869 25.455486
19.927967 128.5047 6.3544846
21.223969 128.27669 8.300484
26.457968 121.61169 4.325485
28.088968 120.96469 3.8894882
23.316969 21.74469 44.394485
25.485968 21.546692 43.712486
26.725967 24.670685 54.756485
25.270967 24.168686 56.536488
15.410969 86.52269 34.705486
14.566967 86.88269 32.563484
16.928967 86.38369 24.396486
18.358967 85.64069 23.075485
31.438969 60.11469 8.358482
32.330967 62.12469 9.164482
39.55697 68.208694 11.282486
40.90897 69.57869 12.229485
14.596966 135.40169 46.143486
15.925968 1.6946869 47.106483
7.2969666 8.743698 52.537487
8.107967 7.294693 53.387486
43.42997 7.7346954 4.546486
43.76597 7.245697 2.4864883
42.039967 8.751694 58.654488
40.40197 10.459686 57.354485
10.775967 34.82069 18.714485
11.118965 33.20169 19.948486
12.0159645 37.821693 29.257486
13.443966 37.809692 31.141485
14.966969 69.76569 39.638485
14.278965 71.318695 40.678486
22.68797 76.681694 46.393486
23.239971 78.39169 47.610485
46.68097 54.733692 54.254486
48.12697 53.108692 55.099487
43.648968 51.71569 4.060486
44.266968 50.32869 5.5294876
44.94397 18.163696 44.868484
44.198967 18.697693 47.097485
44.10397 5.0526886 47.686485
43.982967 5.246689 49.817486
45.044968 83.400696 22.304485
45.67297 82.33869 24.210485
39.84197 79.261696 33.894485
38.426968 78.06269 32.592487
13.869965 9.442688 2.5994873
14.354969 6.8546906 2.8764877
23.344967 3.7156982 8.666489
24.855965 2.8776855 7.9414825
29.014969 7.889694 29.843487
29.625969 5.5026855 29.804485
30.561968 0.35168457 39.262486
30.055967 134.3167 37.945484
1.8439674 103.02969 37.687485
49.641968 103.61269 36.850487
3.587967 105.03469 30.392485
4.0709686 103.68769 28.786486
24.373968 56.25769 0.256485
23.606968 54.33869 1.7864876
35.91197 50.995693 5.5414886
36.211967 51.386692 7.845482
2.3839684 110.24369 54.610485
0.8679657 109.46569 55.961487
1.342968 100.15569 60.645485
2.3079681 97.70669 60.385487
48.87397 88.860695 41.035484
47.581966 87.18869 41.114487
40.84797 91.34369 31.790485
39.386967 89.804695 31.620485
25.701967 58.05469 50.077484
25.308968 57.11869 48.434486
30.680967 65.96669 40.962486
28.625969 67.58969 40.843487
38.29197 50.851692 4.2414856
38.60497 50.36169 2.334488
27.607967 52.01369 59.015488
26.692968 52.07669 0.1674881
15.383968 0.9306946 4.0074844
17.332966 134.9747 2.8504868
27.500965 5.7566986 5.1134872
27.466965 7.673691 6.4714813
29.146969 26.700686 14.382484
27.070969 25.355682 15.158485
34.706966 17.742691 7.5174866
33.620968 15.694687 8.625488
16.46297 96.65469 39.166485
17.25597 96.06969 41.024487
24.914967 98.22769 42.828484
27.084965 98.88569 43.699486
12.055965 8.105698 31.210485
13.167965 10.106689 31.293486
18.343967 6.8386993 38.293484
19.85397 6.5346985 39.840485
32.16797 127.014694 39.397484
34.51397 127.06669 40.037487
38.74297 120.459694 34.974487
38.400967 118.20569 34.594486
6.153969 115.99869 4.256485
6.5849648 113.97469 5.103485
7.837967 116.20369 12.946487
7.243965 117.49069 14.500488
33.505966 86.82169 17.329483
32.100967 88.372696 16.466484
24.900969 93.71569 12.848488
26.327969 95.76769 12.543488
6.6029663 111.45569 44.468487
8.844967 111.50169 44.553486
12.841965 104.52669 53.889484
12.711967 102.43069 54.858486
33.19597 28.914692 2.5924873
34.641968 30.09069 1.0964851
38.02997 31.101692 54.089485
37.663967 32.988693 54.806484
34.768967 75.331696 1.702488
34.87697 75.57569 60.153484
39.317966 75.52069 51.188484
41.43097 75.89469 50.352486
30.087969 133.8627 6.470482
29.689968 132.05469 4.824486
33.21497 125.08569 1.0974884
33.415966 123.16369 60.750484
6.3579674 116.23169 33.941486
5.3699684 118.77269 33.946487
46.01297 123.01369 30.828485
44.983967 124.16969 29.181486
8.5229645 85.16169 60.630486
8.368965 83.71069 58.801487
18.142971 82.36769 3.8854828
20.55997 82.470695 3.4044876
43.114967 52.88369 27.290485
44.696968 52.22869 29.151485
4.354965 45.94269 28.537485
6.7429657 46.72269 28.928486
33.533966 32.82769 32.807487
32.184967 32.22169 31.073486
25.241968 32.892693 22.385487
26.398968 34.176693 21.264486
21.371967 54.83169 35.354485
18.980968 55.20369 35.765484
11.728966 52.75169 28.149487
11.337967 50.70369 28.032486
17.92297 105.52769 20.598486
19.849972 106.15569 22.173485
25.174965 115.45469 25.896486
26.457966 113.04169 26.996487
46.753967 128.5447 23.301485
48.89097 127.86869 22.545486
3.4949684 134.08269 26.760487
3.3479652 134.9207 29.261486
23.292969 112.57669 32.104485
25.375969 111.97869 33.116486
31.828968 114.92769 28.520485
31.350967 115.31869 26.689486
48.81997 125.46869 23.592487
47.454967 125.03969 21.685486
45.35997 117.91869 12.158485
43.628967 116.94469 13.446487
40.343967 66.511696 59.540485
39.907967 64.17669 60.515488
41.07097 59.33669 49.295486
39.54197 59.36369 47.578484
7.8599663 45.09269 58.208485
6.3909683 43.747692 59.287487
48.13297 41.00569 1.6864853
46.078968 40.323692 1.1924858
7.2829666 45.371693 47.299484
6.686966 47.391693 45.872486
3.3969688 52.21469 57.619488
1.6489677 53.629692 57.215485
7.4519653 135.1697 13.829483
7.420967 133.8337 15.128487
4.043968 5.8836975 16.554482
3.4969673 6.9556885 14.638481
34.36997 116.01969 14.710487
34.66097 114.25369 16.269485
25.589968 106.90869 17.085487
24.874968 105.06669 17.193481
12.186966 60.351692 40.058487
12.408966 58.80469 41.251484
10.132965 57.56769 52.004486
9.929966 60.30469 52.204487
38.060966 3.1996918 21.695488
37.116966 5.2746887 20.964485
28.480968 134.56769 19.225487
26.506968 134.77469 18.188484
32.55797 90.12669 19.894485
31.846968 88.28069 19.031487
20.362968 85.10369 20.775482
21.953968 83.55069 21.750488
7.9009666 94.20469 33.883484
9.154964 94.30469 35.992485
18.72697 95.49869 31.922485
18.350971 96.44469 33.774487
32.524967 118.39169 10.380486
30.577969 118.59369 11.173485
34.49397 120.26269 19.584488
34.900967 122.31869 20.889488
15.54797 130.7517 20.743484
14.78297 131.2777 19.325485
7.3939667 128.42569 22.287487
5.8479652 126.28669 21.473488
33.50197 38.045692 19.217484
32.43897 36.476692 19.956482
31.396969 25.618692 15.680489
32.955967 24.092691 14.425484
15.679966 42.74469 19.299486
15.368969 41.11069 20.175486
5.5279655 43.66169 28.195486
7.693966 42.766693 29.638485
20.782969 111.88169 34.915485
22.533968 110.57269 33.920486
29.818968 102.54069 35.717487
30.299969 103.38269 37.278484
35.391968 119.15169 21.994486
34.121967 120.68269 23.251486
35.185966 127.25069 28.756485
33.024967 127.46669 27.838486
26.805967 7.450699 38.144485
24.887968 6.7066956 36.776485
28.762968 135.41469 41.274487
30.244968 133.3687 40.626484
42.81197 128.1267 13.920486
42.384968 128.2947 16.180489
47.511967 132.68869 23.809486
46.838966 134.76869 23.008488
31.920967 66.81569 28.078485
29.353968 66.52369 28.688486
23.616968 56.982693 26.608486
22.846968 56.392693 29.276485
21.154964 116.12069 35.685486
18.917965 117.56869 35.206486
16.93797 107.76669 31.309486
17.417965 105.50969 30.829485
22.69997 111.73469 12.486488
21.252972 111.75169 9.941483
13.709965 119.93469 6.5454865
14.409969 122.13769 7.6134872
37.25897 0.146698 17.752487
35.75897 134.5667 17.062485
27.389969 133.89769 21.748482
26.166967 131.9487 22.541489
45.72197 75.639694 19.577484
43.260967 76.24169 18.999481
45.10397 79.56669 8.697487
44.483967 79.28669 6.3664856
25.591969 29.676691 17.376488
27.470968 28.631691 16.201485
29.743967 29.214691 4.1894836
30.911968 31.017693 3.7654877
23.236965 75.24069 44.020485
23.566967 77.39269 43.190487
21.544971 81.123695 40.567486
20.278965 82.75969 41.191486
45.115967 34.808693 40.218487
45.933968 35.94469 41.803486
42.067966 44.83469 38.566486
43.15197 46.16069 39.376484
23.364967 11.339691 53.020485
23.866968 12.763687 50.568485
26.649967 8.121689 41.275486
28.568968 7.862686 40.276485
41.85497 116.20269 9.650482
41.40297 117.85969 11.434486
46.43897 125.68569 15.999481
45.08997 127.65569 16.427483
3.2699661 43.559692 11.468483
1.7189674 42.163692 10.730484
43.43197 39.28369 15.858482
43.43997 38.337692 17.610481
36.831966 26.404696 59.969486
38.318966 26.120682 1.1484871
33.335968 17.146698 4.928482
36.24297 16.618698 5.1634827
19.428967 71.59969 58.632484
19.023968 70.11869 57.157486
11.179966 70.91969 49.466484
9.895966 68.70069 50.265484
8.875965 57.06469 23.866486
6.274967 57.808693 23.993486
4.3719673 50.07169 33.725487
3.5309677 47.77069 33.175484
34.830967 48.19369 20.738487
36.920967 47.60369 20.591484
38.075966 50.92569 14.398483
37.28697 53.18069 14.6564865
41.559967 123.98269 15.512482
40.963966 124.40469 17.847488
44.059967 126.10369 27.097488
42.15897 124.80969 27.893486
3.3339653 111.27669 51.636486
3.4669685 111.38069 48.996487
8.903965 103.99069 53.755486
8.430965 101.82569 54.466488
33.080967 75.638695 6.121483
33.115967 75.95069 3.8904877
25.003967 82.681694 58.805485
24.744968 83.66969 56.915485
21.930965 21.056686 30.404486
20.469967 20.679688 28.928486
24.039967 27.230684 18.649487
24.586967 27.188692 16.737486
36.89097 34.426693 3.7254868
37.699966 35.323692 5.902481
38.427967 45.14669 4.9434814
37.65297 47.22769 3.7554855
1.3649673 19.46968 12.852486
0.2809677 20.46968 14.574486
3.8659668 10.442688 19.049484
5.476967 10.5576935 20.135483
4.4409676 1.2666931 26.555487
3.9619675 2.2906952 28.668486
5.736965 13.819687 32.444485
5.5699654 14.352692 34.702484
40.61797 92.07569 58.169487
42.60997 93.29969 57.244488
45.357967 93.04869 48.167484
45.933968 94.99269 48.693485
21.317966 18.178696 31.131485
20.406971 16.279694 29.743486
24.315968 10.575699 36.774487
23.828968 9.020691 38.237484
31.986967 45.45069 55.287487
31.561968 45.12469 57.240486
39.44497 54.22269 58.433487
39.335968 55.15869 60.708485
36.810966 61.70969 15.458488
34.865967 59.75969 14.751488
44.085968 55.330692 10.489487
44.57597 53.17869 9.823486
42.54797 94.44969 33.263485
40.467968 94.76669 33.599487
40.309967 103.47069 24.490486
38.107967 103.76969 24.682486
11.702965 130.2677 32.908485
12.287968 128.9617 31.083487
7.802967 123.02669 34.957485
6.342968 121.17169 35.044487
31.707968 100.12169 18.768486
32.838966 98.90569 20.829483
26.225967 88.945694 15.349487
24.747969 90.22869 16.293488
4.3679657 93.87369 27.463486
3.7279663 91.39869 28.052486
43.38397 89.637695 24.339485
44.59897 88.07569 24.712486
31.438969 86.78769 55.617485
29.374968 85.71169 55.547485
20.307968 89.18869 50.238483
21.905968 90.79069 50.493484
41.17397 20.581696 32.920486
40.947968 19.151688 34.654484
47.593967 16.476685 43.946484
47.81897 18.282684 44.516483
44.268967 119.25669 59.778484
43.225967 119.39569 0.4514885
46.713966 116.50069 5.7624817
45.61697 115.13669 7.374481
48.14597 100.80869 21.549484
47.93697 97.92669 21.743484
0.031967163 90.45469 14.5314865
2.3649673 89.23069 15.478485
25.313969 23.429691 0.26648712
27.246967 24.713692 0.8254852
25.303968 34.219692 5.949486
24.891968 35.54669 4.7994843
11.578964 40.04869 13.139488
11.337967 38.61069 10.977486
13.892967 43.96569 1.9664879
14.903965 43.92869 4.0174866
42.67997 2.2586975 40.681484
40.870968 3.3976898 42.340485
38.838966 12.8046875 36.001484
39.57797 15.081696 36.803486
3.3009682 44.516693 6.5834885
3.0429688 43.43769 8.519485
0.7879677 34.386692 11.366486
2.2689667 32.86669 12.649483
37.17597 84.917694 7.141487
38.072968 85.48769 9.346481
49.192966 90.18469 11.7434845
1.1239662 90.27369 10.514488
31.775969 101.76869 26.755486
30.433968 102.87969 25.667486
23.180967 112.11669 27.559486
22.64997 111.81769 29.687487
23.651966 20.31369 6.5764847
23.358967 20.91069 8.551483
20.078968 26.404696 13.979485
18.359966 26.449694 12.806488
34.07697 84.61669 14.150482
35.446968 84.98269 16.205482
46.34097 87.17269 15.236488
46.15897 89.07369 14.941483
12.650967 132.1147 10.622482
11.169968 133.1427 9.077484
6.7349663 2.7996979 4.103485
6.7089653 4.1856995 5.8054886
6.0629654 85.73269 57.464485
7.3979645 88.19169 58.323486
3.717968 98.06069 3.8254852
5.6129684 99.542694 4.3614883
24.651968 132.9827 37.010487
23.631968 133.84169 35.240486
34.196968 0.2816925 30.761486
35.18897 2.096695 30.856485
26.601969 74.178696 15.334488
27.396969 73.138695 17.802483
23.789968 76.94969 13.495483
21.543968 77.41869 13.787483
28.047968 126.10669 49.739487
28.005968 127.67369 47.523483
31.796968 2.3356934 44.510487
30.940968 1.9936981 42.470486
44.822968 70.345695 42.696484
46.92497 69.79869 44.112484
47.70797 77.58669 53.019485
46.183968 76.915695 55.415485
6.891968 135.4047 38.556484
6.172966 2.0136871 38.849483
12.066967 10.576691 34.300484
10.528965 9.416687 32.760487
35.116966 123.92369 42.223484
34.172966 123.41069 44.170486
42.634968 122.12069 51.571484
42.53397 121.52569 53.753487
47.796967 21.012695 45.791485
45.40197 21.282684 46.689484
36.43997 23.269684 50.193485
36.518967 21.437683 50.831486
44.17597 30.047691 10.074486
46.004967 28.905691 9.005486
45.524967 26.568691 58.875484
47.31997 27.214691 58.215485
40.123966 36.04669 31.979486
41.177967 37.59069 33.803486
49.04097 46.16869 32.211487
46.65497 47.739693 31.429485
17.92097 44.495693 42.494484
17.822971 43.170692 41.335484
24.091969 41.62569 37.512486
25.695965 43.129692 37.297485
25.593967 100.81169 31.037485
27.663969 100.89369 30.698486
35.33997 108.85969 36.531487
34.121967 111.08369 37.016487
48.90497 5.041687 50.859486
49.170967 7.4016876 51.207485
48.04297 15.434692 56.726486
47.141968 13.684692 57.763485
6.4639664 118.45869 4.3864822
7.7049675 120.15469 3.6254883
4.752968 121.556694 14.608482
2.6389656 120.89269 14.161484
3.7369652 105.36569 36.738487
4.316967 107.21269 37.452484
45.356968 113.51669 42.993484
46.05097 112.92869 45.471485
35.900967 34.038692 46.371487
36.07697 31.649693 46.355484
44.93897 26.914692 53.002483
44.363968 26.445692 55.468487
49.02997 57.45169 3.2524872
49.58997 59.10969 2.1874886
4.929966 55.27269 56.572487
6.439968 57.06069 57.234486
17.530972 14.634689 43.708485
16.707966 12.180695 44.756485
6.7639656 7.3316956 41.211487
6.4899673 5.223694 41.746487
6.4059677 89.03269 17.699486
4.250969 90.77469 18.341484
45.913967 88.93869 17.927483
44.108967 88.41269 19.275482
46.287968 3.8606873 35.166485
44.75197 5.3296967 34.061485
38.15397 133.99269 28.511486
40.364967 133.3317 27.110485
13.660965 31.044691 55.636486
14.659969 29.042692 56.146484
3.9769669 25.132692 60.226486
4.163967 26.53469 58.294487
11.186966 107.02169 2.7664871
10.042965 107.89569 4.254486
1.2459679 114.82769 6.2354813
48.885967 114.53469 6.609482
42.44497 47.70169 43.428486
43.04397 49.71069 43.794487
48.281967 55.59969 51.726486
48.67997 57.606693 50.748486
10.575966 70.834694 5.9814835
9.025967 72.30269 5.1914825
8.256966 78.92469 59.459488
7.5299644 76.99469 58.985485
11.200966 49.55469 30.614485
9.388966 48.72369 29.299486
16.78497 38.38769 30.059486
18.648968 40.24269 30.326485
3.8879662 57.70169 3.9014816
6.005966 56.885693 3.5904846
8.574966 57.74969 54.380486
9.786964 55.648693 54.654488
30.314968 63.39269 16.333488
32.34897 63.10269 17.626488
34.637966 59.67569 26.005486
35.79397 58.87769 27.869484
21.604969 25.981691 28.176485
23.113972 28.064692 28.355486
21.28297 38.49169 23.085485
22.738972 39.69469 22.202486
30.752968 42.41669 36.918484
28.817968 41.365692 38.155483
33.461967 31.679691 42.088486
32.398968 30.373692 43.623486
6.5979652 23.28869 24.639486
6.384968 24.608692 23.117485
6.302967 25.54869 32.502487
8.229965 24.778692 33.228485
46.288967 82.51669 41.584484
48.31397 83.64969 42.108486
4.1129684 75.93869 49.724483
3.6719666 73.372696 49.814484
45.40897 110.64269 28.402485
43.26297 111.77369 29.119486
46.037968 122.67669 23.215487
43.872967 122.23869 24.258486
31.319967 24.694687 31.938486
31.836967 25.758682 33.852486
42.01597 24.704681 35.444485
41.587967 26.45569 37.109486
39.684967 67.64769 45.939484
41.66097 68.414696 44.961487
46.574966 71.02969 53.187485
46.789967 70.14269 54.880486
3.802967 20.534683 56.287487
6.122967 20.855682 55.363487
14.013966 19.595688 56.066486
13.603966 16.987686 56.052486
33.39097 42.247692 19.330482
31.622969 43.607693 19.641487
20.330969 40.675694 20.358482
18.728968 40.29269 18.893486
15.475971 30.583696 53.624485
16.357967 28.770693 53.632484
21.029964 18.878693 49.428486
20.624966 20.204681 47.575485
23.921968 35.70069 8.162483
24.96597 33.83869 8.556488
35.733967 35.883694 8.267487
35.075966 35.273693 6.389488
15.254971 14.96669 29.102486
16.64397 14.192688 27.055487
23.454967 7.4566956 30.870485
23.40797 7.989685 33.041485
46.571968 47.34269 41.787487
44.705967 48.135693 40.721485
45.84197 56.30469 42.749485
46.816967 54.739693 44.625484
15.572971 29.984692 58.566486
15.924969 32.099693 59.387486
18.082966 36.54969 8.696487
18.660969 34.030693 8.550484
41.53497 53.787693 22.677486
43.629967 54.586693 22.458487
5.962967 49.82569 22.105486
6.7419662 52.16569 21.521486
25.811966 69.49569 41.502483
24.389965 68.19169 42.155483
20.88197 59.86669 33.724487
19.029964 59.73069 35.551487
33.197968 111.37069 54.047485
34.926968 110.42269 52.795486
42.594967 107.02769 46.280483
42.47297 108.65469 44.996487
47.518967 80.02469 3.2974854
47.58397 79.777695 5.3704834
0.38196564 76.52169 14.934486
48.274967 75.30269 15.797485
44.00897 122.74069 36.079487
45.996967 122.07669 36.773487
5.349968 123.75969 36.087486
6.599968 125.37569 36.618484
7.5119667 54.34769 55.767487
8.657967 54.940693 57.982487
5.0069656 46.54769 4.506485
5.332966 43.65269 4.9794846
34.450966 3.0336914 45.410484
34.380966 5.568695 45.384483
39.358967 10.083694 50.881485
37.219967 11.176697 51.054485
27.576967 70.11469 56.894485
28.746967 69.693695 54.557487
31.778969 74.473694 47.936485
31.086967 76.09969 48.231483
2.9719658 95.48269 25.291485
1.8179665 95.01769 26.911486
4.6699677 103.63569 20.005486
4.5989685 105.13569 18.673485
41.35997 29.443691 58.335487
41.345966 27.898691 60.321487
39.81997 34.488693 7.3474884
38.788967 32.712692 8.584488
32.99997 131.6617 26.047485
32.36797 131.8357 27.987486
23.190968 126.78069 21.196486
21.934969 129.40169 21.223486
28.926968 44.77669 57.423485
29.488968 43.420692 58.721485
23.858969 47.815693 7.2484818
24.193968 45.948692 8.379486
4.8839684 47.45069 18.150482
4.677967 50.11069 18.289482
3.9359665 45.96469 9.651482
5.668968 44.495693 7.9774857
38.545967 78.35669 37.633484
36.808968 79.095695 38.737484
33.989967 73.25169 30.490486
32.011967 73.166695 29.080486
38.546967 37.371693 20.038483
40.435966 36.037693 19.726486
44.856968 27.665691 14.396484
42.36797 28.342691 13.678482
23.786968 99.21969 45.234486
25.144966 99.18269 46.928486
14.879971 100.28469 54.289486
15.356968 102.39169 53.644485
22.017971 121.49869 14.256485
22.96397 119.71869 13.061485
23.017971 110.89269 16.652481
24.923965 109.23869 16.075485
35.713966 83.18669 8.625488
35.158966 84.583694 10.587486
24.786968 78.89969 11.426483
22.495968 80.094696 12.142487
27.249968 52.205692 20.386482
26.469969 53.684692 18.297485
35.06497 51.46569 13.768486
37.162968 49.969692 12.214485
30.881968 20.269684 28.713486
32.04397 18.71669 29.950485
33.252968 27.931688 32.687485
33.623966 29.747683 32.915485
26.027967 132.1917 17.394485
26.121967 130.9057 19.536484
32.998966 129.93869 24.087486
34.210968 128.09769 25.280487
21.92297 96.61069 28.056486
20.792965 97.39069 26.616486
14.137966 88.75669 22.568485
15.261967 87.24369 22.037485
9.964966 38.170692 31.009485
11.496967 38.969692 32.378487
15.5419655 44.83369 40.825485
13.644966 44.96069 41.987484
17.192966 131.8597 22.523485
18.955967 131.33969 22.146486
11.340965 1.3296967 30.161486
12.271965 2.9836884 29.833487
29.521965 0.11869812 59.107487
27.313965 0.620697 57.895485
20.085964 127.07369 59.175488
17.292965 127.28969 59.559486
2.7739677 5.5106964 52.456486
1.0209656 6.170685 53.619484
46.460968 133.3237 57.902485
48.142967 132.80269 56.449486
1.2299652 4.461685 16.242485
1.078968 2.4646912 18.253487
48.06297 129.22269 20.059486
47.57697 127.39969 18.791489
30.548965 75.43569 58.641487
28.933968 74.930695 56.262486
19.142971 80.66369 57.100487
18.291965 81.78869 58.811485
45.546967 58.08569 11.829483
47.301968 59.365692 11.443481
6.6839676 58.71569 8.1824875
6.5769653 60.97169 7.3614883
3.1219673 70.292694 12.321487
0.92396545 69.70169 12.331482
3.5209656 60.58369 3.402481
1.8619652 59.57169 4.0434875
11.210964 70.48069 33.107487
10.281967 72.65469 32.478485
7.104965 67.49469 24.254486
6.389969 65.27069 23.918486
22.678968 95.26069 58.840485
23.717968 93.53269 59.998486
33.843967 92.94069 56.168488
35.066967 90.89069 56.092487
4.2229652 122.36669 17.308485
3.0119667 122.98269 18.944487
5.6109657 116.45369 27.373486
5.193966 115.223694 28.837486
20.904964 89.27169 25.378487
23.078968 89.76969 26.216486
24.531967 97.17969 28.132486
25.131966 98.57169 29.569487
34.733967 26.689692 11.089485
33.39697 24.533691 11.203484
21.740969 29.574692 10.5924835
20.819967 28.39269 12.214485
40.09197 102.49269 48.737484
39.921967 103.06269 50.580486
37.15497 112.60469 55.278484
36.151966 112.85869 53.111485
3.9389687 10.195694 39.954487
4.9459686 11.029694 37.877487
10.794968 11.900696 31.261486
12.262966 12.214691 29.850487
9.797966 121.49069 48.526485
8.584965 122.81769 47.549484
11.411964 135.0727 48.460484
8.9359665 135.3237 48.424484
16.119968 27.079683 40.306484
18.362965 26.463686 40.622486
17.642971 18.44069 30.596485
17.72697 15.838699 30.201485
19.80997 43.29069 45.360485
21.628971 42.620693 46.497486
26.356968 41.81069 39.584484
23.539967 41.53469 40.083485
30.831968 59.60669 56.104485
32.504967 59.782692 54.494488
25.280968 68.233696 53.807484
27.029968 67.89769 55.200485
29.618967 132.7107 57.637486
31.480968 133.58269 58.504486
34.73797 3.7316895 47.882484
37.024967 3.6056976 48.237484
3.5069656 65.47469 13.989487
3.953968 65.014694 16.444489
12.946964 65.95069 24.332485
11.721966 64.320694 24.906487
17.412968 118.79069 48.150486
16.79897 120.64869 47.451485
23.249966 121.97669 38.743484
23.88197 123.00569 36.665485
20.399967 102.02669 38.821484
21.102968 101.00969 41.116486
25.945969 108.69769 43.096485
26.793968 110.93969 43.579487
7.495968 60.41069 20.712486
8.644966 58.77269 20.682487
15.800968 58.54269 15.131485
15.937969 56.961693 17.288483
34.558968 45.38069 54.493484
34.942966 47.13069 53.652485
43.63397 54.61669 52.596485
43.267967 56.77769 53.000484
10.315968 42.56469 55.961487
9.068966 41.851692 57.671486
6.740967 37.90369 48.901485
6.6789665 35.182693 48.132484
48.65397 14.042694 35.451485
1.054966 13.542694 35.022484
6.2159653 21.198685 27.250486
7.5819664 22.496689 27.851486
37.553967 135.34169 35.865486
34.914967 134.6167 36.793484
37.870968 129.41269 29.252485
37.941967 127.51369 27.493486
26.609968 66.53869 45.995483
28.175968 66.77269 44.855484
39.00897 63.17369 49.414486
39.90397 64.76569 48.930485
35.828968 118.62869 15.462486
34.045967 117.87169 16.906487
42.84897 120.46969 17.266487
41.079967 121.40069 15.556488
49.20797 35.418694 44.072487
48.63197 33.32469 44.801487
49.149967 30.061691 55.378487
47.97997 28.191692 55.533485
5.903969 70.06369 24.219486
4.9899673 69.05869 26.197485
1.1349678 78.986694 25.796486
1.0049667 81.04969 26.274487
45.02197 28.87869 55.822487
45.77897 29.755692 54.052486
38.29397 34.99869 47.745483
38.77097 33.260693 45.690487
34.27797 28.47969 49.517487
32.325966 29.170692 50.249485
27.175968 25.77069 42.243484
25.609968 26.021692 40.642487
23.478968 10.430695 40.420486
25.428968 11.951691 39.024487
26.108969 18.426697 43.599483
28.169968 19.008682 43.016483
16.818966 85.17269 20.913483
14.634968 85.11769 20.514488
9.238968 75.77469 20.462486
7.325966 74.65569 19.736488
36.885967 14.673691 30.987486
38.335968 14.515686 29.382486
42.97897 19.77069 20.471485
41.77697 21.64769 19.703485
42.732967 103.02069 44.664486
44.84897 101.87469 44.120483
7.0209656 98.32769 46.594486
8.411964 100.16669 46.245483
34.54897 8.430695 51.861485
33.316967 5.843689 52.423485
43.059967 7.513687 54.635487
45.051968 6.7356873 53.755486
3.950966 124.95169 40.447487
4.3839684 123.22669 38.671486
11.715965 113.54869 39.372486
12.0159645 113.46069 41.903484
19.341969 109.32969 46.585484
21.06297 109.667694 47.868484
12.617966 114.95369 49.898483
10.949966 116.11269 50.517487
9.931965 134.0967 54.844486
11.097965 132.3057 54.729485
14.524967 129.6917 44.205486
16.15897 130.8227 43.917484
39.36297 66.097694 12.976486
40.092968 67.431694 14.612488
29.503967 71.82369 18.655487
29.176968 71.02369 20.684486
16.683971 124.64269 58.544487
19.392971 124.53569 58.345486
23.35397 133.5987 54.462486
24.613968 134.88869 53.477486
47.37697 86.79469 17.705482
0.17596817 86.736694 17.810486
0.554966 76.15669 17.617485
48.317966 76.386696 19.815483
15.49197 133.59169 23.869488
14.8939705 133.2107 21.962486
14.525967 7.719696 21.844482
15.401966 8.474686 19.485481
21.738968 31.228691 20.716486
23.223969 29.506691 19.872486
29.896969 22.688692 27.666487
31.700968 22.276691 26.450485
28.063965 61.19469 7.3544846
26.223965 61.52869 7.022484
19.661968 68.416695 4.810486
20.11697 69.21069 7.0834885
12.345966 131.2307 27.324486
12.742966 129.30069 28.429485
24.096966 129.3347 32.747486
24.957966 131.3347 31.448486
15.0159645 132.59169 13.726486
12.966965 131.36769 13.728485
5.575966 124.09969 18.913483
6.967968 123.74569 20.663483
33.95797 110.95069 16.789482
34.824966 110.93869 14.3044815
30.501968 101.98169 9.911484
32.261967 100.23969 9.120483
40.97797 94.80369 0.893486
42.164967 93.81669 60.092487
49.45197 98.03069 2.7504883
0.7829666 96.46369 1.6304855
9.730965 34.149693 12.250488
9.956966 35.83469 10.602486
4.1579666 37.446693 60.647488
4.698967 35.197693 59.801487
4.2969666 24.128693 4.037483
5.0089684 22.214691 3.7534866
13.141968 22.293686 57.774487
15.211971 22.028687 58.746487
32.467968 5.8296967 49.418484
32.50197 7.61969 50.362484
38.24497 16.697693 44.542484
39.463966 18.542694 45.157486
49.671967 15.143692 8.873482
47.905968 13.658691 9.386482
45.704967 16.972687 6.942482
45.321968 14.985687 5.764488
9.862965 82.40669 7.6544876
10.895966 80.54669 6.5504837
12.080967 78.723694 58.214485
12.068966 76.89869 57.328487
45.73697 82.275696 5.112488
44.28697 82.457695 6.6744843
42.02797 93.88569 5.787483
43.35597 96.06269 6.204483
47.27697 128.1277 7.671486
48.454967 127.95369 9.957481
39.032967 132.9937 7.9294815
