67.94542 59.793907 7.596527
69.884415 58.704906 7.140526
71.13741 65.783905 6.66053
72.78242 66.35991 8.570526
7.0754128 52.059906 32.27353
6.6884127 49.456905 31.971527
-0.569587 44.323906 37.29553
-2.082587 44.898907 38.367527
31.624414 1.5609131 54.692528
32.895412 0.96990967 56.64853
35.687412 81.73091 2.7685318
36.52941 81.49691 4.7525253
43.98741 12.98391 11.846527
42.437412 12.807907 9.724525
36.23041 8.782906 5.747528
36.354412 9.368912 3.8455276
25.537415 17.165909 4.473526
23.851414 15.277908 4.457527
12.389413 17.378906 5.0505295
12.183413 14.8989105 4.6615295
18.640413 79.30291 30.211527
16.329412 79.781906 30.865528
19.049414 5.236908 31.195528
17.895414 6.137909 32.67053
63.36541 55.674908 16.624529
63.464413 54.656906 15.0855255
53.23841 52.802906 17.12953
52.82841 53.81291 14.852531
62.270412 23.88991 13.115528
63.21041 23.857912 14.866528
56.470413 17.680908 20.078527
55.428413 15.185913 20.050528
46.888412 82.81491 40.368526
46.91041 84.754906 40.48053
52.638412 0.20091248 30.784527
54.07041 1.987915 29.640528
3.6004128 35.04191 36.819527
5.1154127 32.74291 37.42753
6.1364126 26.216908 46.360527
5.2334127 27.580908 48.24053
34.88541 74.70491 33.59953
36.53541 74.35691 32.33753
40.761414 70.908905 23.825527
43.07741 70.781906 25.052528
71.11041 35.55591 47.166527
72.39542 36.757908 48.16753
72.52841 44.727905 39.43353
71.370415 44.554905 37.303528
50.43441 60.483906 29.386528
51.17641 60.787907 31.127527
40.97341 63.622906 34.90453
39.798412 63.142906 36.859528
23.575413 84.34891 8.490532
23.895414 0.86891174 6.6235275
20.139414 9.574913 4.7015305
20.726414 11.238907 5.85553
65.81941 31.462908 30.746527
64.88741 29.400908 30.768528
68.076416 29.195908 41.54453
66.28142 28.067907 42.98053
59.12041 55.169907 36.87853
57.07841 55.229908 38.48853
50.249413 48.191906 44.92753
49.449413 46.95091 43.528526
71.840416 39.030907 21.230528
70.329414 40.260906 19.885529
63.87141 41.764908 28.951527
62.59841 43.307907 29.973528
65.524414 18.67691 59.658527
67.580414 19.12191 58.546528
64.994415 16.379906 47.45553
66.465416 16.446907 45.887527
0.8244129 45.251907 43.40453
2.6724129 44.064907 42.799526
8.382413 50.962906 34.41253
9.156413 48.966908 33.89053
43.92741 8.336906 1.9105301
44.62741 10.20591 1.2825317
45.67741 10.557907 11.667526
45.900414 7.901909 11.95153
73.59441 6.220909 61.23653
74.06142 4.185913 62.06953
67.829414 84.906906 5.8075256
67.01141 82.36091 6.001526
4.1684084 80.42491 40.785526
3.8754094 79.01591 38.92553
72.22742 81.04291 45.118526
70.24242 81.22191 45.98253
19.172413 11.415909 17.273527
19.206413 13.240906 15.621529
30.683414 12.631912 10.072525
32.879414 12.21891 11.004532
57.277412 68.62591 47.056526
56.68241 69.39891 45.06453
61.199413 75.51391 37.83753
61.49541 75.60691 35.861526
60.881413 58.140907 37.317528
59.074413 57.532906 38.98753
51.930412 58.120907 44.561527
51.060413 59.495907 46.00253
60.498413 5.645912 18.256529
58.73141 6.633911 17.196527
51.57141 3.948906 25.003527
50.645412 6.170906 24.961527
40.776413 72.39091 21.598528
41.486412 70.673904 20.676527
44.30141 75.172905 11.511528
45.01541 76.03691 13.748528
12.016413 42.343906 0.81653214
13.545413 41.885906 61.71053
16.770412 43.09691 55.87153
18.704414 41.267906 55.43253
29.381414 22.272911 48.51553
31.689413 21.936913 48.45853
33.429413 13.644913 44.993526
34.98241 15.05191 44.55953
45.17441 4.2809067 40.60553
45.95341 2.0999146 41.268528
56.52241 5.0549088 37.373528
55.840412 4.439911 35.179527
48.375412 83.198906 54.90453
49.31541 83.323906 52.89553
45.78641 78.228905 43.87753
46.55241 76.07791 44.40553
38.75341 54.046906 53.84653
36.694412 54.448906 53.92053
28.434414 47.14591 51.86453
28.546413 48.559906 50.16653
45.92641 84.83691 57.386528
45.42441 82.53891 57.08753
38.70941 82.29491 46.331528
40.686413 82.62891 44.972527
11.932413 16.144913 51.665527
11.658413 18.536911 51.623528
10.719413 19.182907 44.93953
12.332413 18.012909 43.254528
68.57242 51.530907 40.48253
69.10242 49.591908 41.396526
63.77841 43.941906 50.19853
65.03041 42.266907 50.86553
1.6264129 73.54391 10.580528
2.1934128 71.62291 11.728531
4.838413 73.20491 1.6045303
5.532413 74.80591 2.9065323
70.399414 6.689911 48.01453
69.951416 4.5339127 48.86153
64.562416 84.26391 48.387527
63.986412 1.8119125 48.10553
69.77741 45.95091 40.69553
69.549416 46.97191 42.935528
60.874413 40.663906 47.761528
59.18941 40.781906 47.181526
41.387413 38.403908 61.53653
39.14241 38.72891 61.713528
35.53141 40.887905 49.94153
33.768414 39.801907 49.04353
46.41241 73.98091 10.218528
48.21141 75.16591 10.348528
44.77341 73.73491 21.567528
43.632412 71.84791 22.478527
74.36542 70.632904 27.893528
73.829414 68.88491 26.404528
0.46340942 69.98891 15.657528
76.34441 71.478905 14.125528
4.317413 70.645905 14.593529
5.4784126 72.21191 14.439529
9.176413 74.24791 4.8755264
8.396413 74.85691 2.6735306
0.7074129 17.723907 20.515528
0.74641293 17.784912 18.566528
9.693413 13.938911 14.153528
9.351413 13.884911 11.697528
28.122414 24.106907 20.426527
28.575413 22.863907 18.812529
17.615414 26.650908 16.148527
17.087414 26.852907 13.806528
50.277412 17.779907 13.837528
50.26641 16.69091 15.500528
47.80941 21.257912 23.549528
48.25941 20.895912 25.717527
21.781414 26.352907 53.37153
19.837414 24.887907 53.04153
16.940413 31.277908 42.48253
17.459414 33.321907 41.00853
22.724413 20.98491 37.271526
21.367414 20.402908 39.166527
29.905413 15.278908 44.548527
30.523413 13.002907 44.35153
39.236412 37.229908 46.10653
38.89241 36.421906 48.38253
44.471413 30.455908 50.46553
46.67041 30.119907 51.394527
69.60941 32.521908 44.568527
68.37942 31.816908 43.187527
71.38941 36.633907 34.567528
72.57242 37.58291 32.64153
1.1474152 12.104912 12.852531
0.62441254 13.666908 13.865532
0.5094147 23.32891 4.2785263
0.78541565 22.250908 2.322525
47.125412 3.2709122 26.445528
47.39141 1.4579086 26.101528
45.78641 81.31991 38.228527
44.31441 79.36191 37.88453
31.488413 32.333908 44.603527
30.791414 32.648907 42.463528
31.362413 42.336906 37.42653
30.782413 43.273907 35.484528
71.37441 50.592907 38.93953
73.33842 50.955906 39.35653
3.0754063 54.405907 35.28053
5.422406 54.800907 34.181526
13.143413 83.23891 50.30953
11.550413 0.026908875 49.51753
4.8714128 4.744911 58.32053
4.338413 4.9299088 60.41153
5.4454126 15.848907 36.743526
5.230413 16.868912 34.589527
2.602413 16.35991 44.749527
0.7054129 16.629906 46.021526
20.518414 7.342911 33.380527
22.564413 6.267906 33.26053
17.686413 81.68891 32.74553
19.659414 81.284904 31.360527
72.022415 32.83891 3.4685287
72.54141 33.634907 5.1395264
65.63641 32.225906 16.138529
66.03442 30.489908 17.09553
0.24741364 50.931908 25.152527
1.401413 53.45791 23.904528
76.426414 45.465908 21.124527
74.135414 46.301907 20.864529
27.079414 13.781906 3.8175278
28.477413 15.21891 4.400528
35.616413 11.050911 10.019531
37.21641 12.114906 11.1755295
27.115414 24.301912 0.060531616
25.192413 23.482912 61.96853
30.075413 14.363907 60.16953
30.119413 15.612907 0.074531555
54.215412 72.58091 10.860527
52.49041 73.45591 9.708527
56.14241 76.87391 60.50953
57.699413 78.395905 62.04353
5.15141 5.212906 2.686531
3.0404103 5.9079056 2.8265305
73.299416 81.48891 2.1235275
71.551414 80.68991 0.9295311
43.87841 56.315907 55.80153
44.07741 58.656906 55.98553
42.074413 61.096905 5.0005264
42.14841 60.325905 7.0005264
9.517413 23.08191 10.182528
10.526413 21.52391 11.085527
6.0244126 22.63591 21.961529
7.2234125 23.392906 23.623528
12.161412 29.545908 15.084526
10.411412 30.965908 15.101532
15.935412 41.383907 13.598526
14.391413 43.050907 12.940529
25.116413 37.254906 22.967527
27.222414 37.848907 22.345528
22.951414 41.292908 12.434528
24.141413 42.169907 11.354527
69.03941 47.829906 38.778526
69.146416 46.16691 37.562527
74.507416 51.745907 28.642529
76.648415 51.262905 27.763527
55.12241 61.977905 31.069527
55.63541 59.743904 30.738527
47.581413 55.797905 28.498528
47.86241 54.66691 30.562527
69.33341 48.908905 1.1735306
70.647415 47.205906 0.58953094
61.72441 40.058907 61.88853
61.19041 38.465908 59.85553
56.639412 69.34291 18.594528
56.53141 67.12791 18.675528
56.901413 67.17491 31.295528
54.907413 65.90091 31.695528
7.3224125 8.629906 36.907528
6.1624126 10.568909 35.55753
8.811413 14.966911 26.526527
9.996412 13.091911 25.867527
59.97541 81.602905 61.950527
58.213413 80.68091 60.78853
58.229412 78.323906 48.43753
60.720413 78.57091 48.22253
-0.56758714 34.586906 50.85153
0.49041295 36.577908 50.94653
3.9524128 39.766907 40.958527
3.487413 38.685905 39.48753
21.896414 29.723907 39.583527
21.018414 27.540907 40.055527
20.832413 23.911907 50.991528
23.033413 25.073908 49.81353
15.929413 73.73591 8.447525
15.054413 71.798904 8.890526
10.049413 67.992905 19.740526
7.758413 68.20491 19.208529
55.98341 1.6379089 51.26353
57.39141 84.601906 51.97653
49.37841 78.83491 45.021526
51.381413 79.87591 43.42653
20.238413 62.140907 54.227528
18.273413 61.887905 52.15353
26.026413 56.390907 47.297527
28.085413 55.733906 48.89053
28.862413 38.10391 9.420532
28.620413 37.759907 7.1185303
38.49641 33.406906 2.0075302
38.32741 35.13091 0.56653214
32.719414 20.832909 29.178528
34.629414 21.786911 28.818527
41.40441 16.838913 22.794527
41.10641 15.109909 24.258528
67.564415 36.05491 44.998528
68.15341 37.000908 42.67053
68.27641 39.93091 33.78853
66.21042 39.62491 32.791527
34.78041 69.98591 47.89053
36.964413 69.01591 49.01753
31.425413 76.05591 55.761528
30.744413 78.33091 56.067528
38.185413 64.05291 20.407526
39.228413 66.05191 19.07953
40.325413 68.977905 9.157532
42.16141 68.019905 9.609528
2.5914128 69.83091 38.492527
1.3644129 72.12691 37.965527
10.924413 73.796906 29.220528
12.921412 73.59691 31.384527
45.776413 71.840904 36.000526
46.89041 73.54091 37.167526
50.289413 81.80291 30.040527
50.32841 81.50291 27.589527
4.733411 39.114906 51.66253
3.2924092 39.546906 53.16853
75.04241 49.29191 56.24953
76.56841 50.505905 54.86253
38.597412 13.166908 50.00753
39.46841 14.073906 52.27353
43.19841 16.200912 58.83353
45.069412 16.19091 59.77053
29.852413 23.060907 0.23353195
29.346415 23.422907 1.9825287
36.02241 31.026907 60.179527
36.117413 32.891907 0.21152878
27.820414 31.963907 9.61853
27.676414 30.008907 8.328529
31.780413 34.146908 60.30553
33.311413 35.15291 0.01153183
26.590414 17.228912 7.1005325
26.346415 15.416908 6.332527
33.33441 9.814911 7.2815323
34.200413 10.501907 5.1545258
51.250412 35.09691 30.236528
52.72541 36.61691 30.476528
48.26541 39.686905 40.64153
47.900414 37.723907 42.28053
70.02042 4.256912 51.82853
68.24042 5.203911 52.36153
61.83441 1.7059097 50.16853
59.84441 0.8059082 50.57953
45.96941 6.5449066 49.86853
46.16341 7.6299057 48.17053
46.604412 8.832909 39.562527
48.054413 10.388908 40.616528
16.978413 73.90391 56.54453
15.170413 72.590904 55.96153
5.7204127 77.185905 61.734528
4.440413 74.98691 61.914528
50.889412 56.436905 11.692528
51.43241 55.521904 13.301529
57.402412 63.125904 15.873528
57.602413 64.09991 18.295527
-1.7575872 67.73491 14.405525
0.034412853 66.00391 15.303528
6.192413 63.605907 5.73053
9.099413 62.854904 6.2885284
24.482414 34.27691 55.68053
25.932413 36.07591 54.64053
32.169415 44.46491 51.02853
30.071413 44.943905 50.64153
28.436413 21.043907 1.4965324
26.070414 21.369911 1.0465317
19.460413 26.287912 9.00753
17.627413 25.551912 10.474525
23.724413 46.44491 0.26453018
22.433414 44.864906 0.36653137
12.618413 46.678905 4.973526
11.778413 45.427906 4.129532
54.325413 35.670906 19.010529
52.068413 36.67991 18.608528
51.277412 45.593906 23.838528
49.333412 47.511906 23.758528
18.234413 48.001907 48.464527
17.412413 46.486908 49.87153
15.114412 50.407906 55.629528
13.422413 51.213905 56.84053
64.26241 28.490908 17.189528
66.177414 27.909908 18.378529
63.10841 20.240908 27.451527
61.87841 18.094908 27.443527
72.174416 29.718908 46.94553
72.53142 31.811907 46.06353
0.7094116 28.457907 35.818527
2.0134099 30.426907 35.51753
63.985413 79.48991 3.1615295
63.14141 77.61491 2.9085312
59.18241 68.895905 4.198532
58.083412 66.88891 4.464531
76.76942 42.628906 47.694527
0.34641266 43.245907 49.657528
70.84942 51.14591 54.32153
68.357414 51.385906 53.84753
12.458413 57.788906 49.04853
13.135412 59.153904 50.99353
17.299414 60.224907 42.87053
16.213413 61.564907 41.900528
31.832413 5.3539124 0.3615303
31.787415 7.3179092 61.414528
39.65341 83.82791 61.50253
38.261414 82.28991 61.908527
11.665413 45.948906 50.22553
13.023413 44.472908 48.98653
2.0874128 48.406906 44.754528
0.37241292 46.593906 45.90553
19.215414 36.160908 52.352528
18.408413 37.216908 50.505527
16.295414 42.572906 45.99653
18.555414 43.908905 46.18353
54.79441 15.347908 41.88453
56.221413 16.811913 43.41253
51.937412 23.54391 52.45553
50.943413 22.380913 53.71853
70.69241 61.892906 48.14153
72.177414 61.023907 49.07253
73.30641 52.783905 53.504528
73.12942 53.407906 55.915527
60.888412 69.50991 18.26253
62.39641 71.30191 19.269526
67.79141 75.851906 10.837532
69.58542 74.22391 10.503532
37.19141 84.57291 14.141525
34.79241 0.536911 14.2365265
26.340414 2.4699097 13.5855255
25.745413 2.6349106 11.418526
57.03541 22.271908 26.319527
56.394413 24.503908 26.029528
60.741413 33.39491 20.116528
61.949413 32.938908 18.754528
43.73241 53.382908 7.509529
41.22541 53.507908 8.476532
35.89841 50.519905 16.77653
34.728413 48.844906 15.759529
51.48141 80.46191 55.151527
52.24441 80.295906 57.15253
51.74741 6.8629074 51.98853
53.415413 7.976906 50.94453
62.98041 31.707907 15.974528
62.935413 32.473907 13.554527
64.08241 29.673908 2.7555313
65.106415 30.181908 1.233532
60.15341 81.72391 17.65153
58.84241 81.08191 15.456528
65.93242 2.6309128 8.325531
67.883415 3.2579117 8.66153
59.91941 41.904907 60.51353
58.51641 40.133907 61.477528
48.80041 44.894905 0.39653015
47.541412 44.13191 1.9205322
13.635412 40.206905 42.46653
14.309413 39.105907 40.80953
21.766413 33.68091 42.832527
24.027414 32.896908 43.94753
2.546413 51.164906 11.722527
2.144413 50.281906 9.510529
12.130413 54.292908 1.7855301
12.423412 52.134907 1.3895302
47.26641 61.825905 7.336525
48.901413 62.571907 5.920532
50.11241 69.03691 59.65953
49.29941 69.781906 57.498528
16.973413 16.28791 50.761528
17.686413 18.390907 50.19853
18.835413 21.852913 39.03753
18.516413 24.352915 38.020527
74.369415 32.086906 3.959526
74.67042 31.577908 1.7585297
2.8074086 37.48591 55.582527
1.6834106 36.688908 53.39953
30.176414 6.60791 48.41153
30.532413 4.377907 48.77953
23.294415 2.9939117 57.96253
24.163414 1.925911 59.234528
76.15842 76.26091 15.211528
73.69842 77.42691 14.338528
70.399414 74.38891 25.295528
68.97342 72.700905 25.903528
30.127413 35.317905 55.07853
28.230413 34.681908 54.144527
28.111414 31.953907 42.56653
26.023413 31.330908 42.61953
40.032413 66.06491 36.34853
38.94841 66.520905 33.84153
48.32141 66.82291 28.238527
49.166412 66.782906 25.644527
48.227413 43.691906 27.865528
49.708412 44.345905 25.703527
45.10741 40.295906 17.019527
43.84241 38.628906 17.065527
34.720413 47.710907 52.047527
33.992413 46.280907 50.39953
38.158413 51.521908 38.532528
40.68241 50.431908 38.53653
37.928413 15.284912 20.108528
35.69841 16.05191 20.314528
28.474413 15.806908 23.336529
26.990414 16.461906 24.273527
50.456413 1.8869095 53.31353
48.236412 0.8829117 52.66353
46.10541 7.153908 0.8535309
44.139412 5.4979095 1.3435326
29.656414 67.505905 13.706528
30.655413 68.98391 12.416527
33.607414 66.811905 3.200531
34.22541 65.629906 1.1835289
58.847412 46.344906 16.349527
60.317413 47.134907 17.957527
64.312416 54.955906 20.981527
64.23841 53.033905 19.901527
15.997413 50.554905 25.436527
15.013412 50.342907 23.565527
22.769413 44.939907 15.940528
24.575413 46.292908 15.374528
43.707413 42.723907 39.21153
44.513412 44.634907 38.82053
52.69141 43.413906 30.019527
54.44141 42.886906 31.588528
50.40641 16.70691 9.212532
49.165413 14.757912 8.470528
43.268414 12.49691 62.10153
42.69041 14.28891 60.776527
10.932413 4.028908 34.018528
13.405413 3.8559113 32.882526
19.794415 80.89291 36.35053
20.556414 79.05791 38.16353
66.607414 0.08290863 35.85853
66.896416 2.0739136 35.609528
70.20641 8.55291 26.955528
69.58542 10.605911 26.295528
57.70241 15.914909 1.3355293
59.81341 15.672913 2.5175323
62.57741 7.3069077 5.4395294
62.395412 6.255913 7.362526
52.44141 4.463913 28.024529
52.30141 4.5309067 30.021528
45.234413 84.01391 38.394527
42.82741 84.20591 38.992527
38.23141 59.850906 20.350527
36.062412 59.297905 19.296526
41.89741 55.920906 9.405525
43.69141 55.970905 8.485527
23.573414 26.506907 47.499527
23.823414 28.194908 45.67053
21.701414 34.510906 51.87653
22.769413 34.431908 53.71853
39.23741 34.008907 35.75953
38.518414 34.04791 33.32053
34.88441 44.39591 35.63553
33.304413 44.633907 37.443527
53.193413 35.230907 25.705528
52.576412 34.816906 27.916527
60.66741 41.172905 29.885527
60.26641 42.460907 32.20553
52.727413 33.056908 14.53653
51.47641 32.288906 16.541529
57.950413 25.669907 12.447525
59.055412 27.154907 11.755531
76.41541 55.566906 8.600533
76.69542 57.294907 7.6115265
0.18841553 50.487907 0.5315323
76.410416 48.605907 0.25053024
15.009413 6.3179092 35.31653
14.682413 5.0039062 37.22653
14.061413 2.772911 47.25153
14.476413 0.63191223 48.012527
21.830414 73.507904 26.722528
22.714413 71.394905 26.413528
16.065413 70.71691 28.171528
14.424413 69.59391 27.483528
14.0654125 52.42391 54.02953
13.982412 52.612907 51.77953
27.237413 50.403908 48.290527
27.013414 50.840908 45.963528
30.785414 24.066908 16.085527
29.257414 26.164907 15.705528
25.499414 34.70791 14.45253
26.423414 37.363907 14.784531
-0.7145872 51.465908 60.380527
-0.039587148 53.508907 60.85353
6.7824125 57.470905 53.088528
8.689413 57.447906 54.84353
49.93441 11.226906 12.908531
51.39741 12.421913 14.745529
58.16141 17.004906 4.8195267
55.55241 17.640907 4.7605286
6.169408 24.842913 13.07653
4.020406 23.75091 13.35553
74.17242 17.449913 14.875526
73.05541 18.78891 12.99353
74.288414 47.716908 42.511528
75.40341 46.727905 44.153526
76.69441 39.43691 50.30053
0.3984146 40.045906 48.34753
48.93441 78.60791 23.856527
46.82941 77.87091 24.737528
42.769413 83.656906 35.088528
41.597412 82.782906 36.91953
67.565414 57.743904 24.252527
64.96041 57.576904 24.525528
62.339413 54.922905 36.71653
62.041412 52.540905 36.165527
55.922413 61.551907 34.667526
54.73941 59.892906 34.271526
49.222412 53.407906 39.479527
47.03741 54.79891 40.08653
15.683413 21.31791 14.291527
17.574413 20.499908 15.82753
22.341413 26.81891 9.767532
24.030413 27.062914 9.592529
17.812414 55.986904 5.501526
16.893414 53.981907 4.971527
23.795414 46.870907 11.534531
22.450413 45.163906 11.00753
58.43841 68.35691 33.21953
58.87041 66.10691 33.35553
53.83541 64.36091 43.060528
52.340412 66.01191 43.30853
17.460413 82.37591 57.449528
18.890413 81.423904 56.317528
28.584414 78.351906 57.768528
29.287415 79.70991 58.908527
28.383413 44.004906 37.803528
28.688414 41.980907 38.943527
27.283413 38.840908 47.026527
25.677414 36.661907 47.396526
54.296413 24.971907 52.60553
54.17641 26.969908 51.34953
57.493412 26.218908 42.811527
57.562412 28.336908 42.658527
62.519413 3.873909 35.69053
61.623413 2.7329102 36.839527
68.09842 79.81791 39.277527
68.69642 78.29991 41.527527
39.09441 67.91591 20.980528
40.583412 68.60091 22.636528
34.62141 61.023907 30.996527
36.687412 61.352905 32.129528
11.4404125 69.05091 49.17053
10.011413 69.089905 50.616528
9.317413 69.26291 61.387527
10.659412 70.66991 61.32253
62.118412 8.369911 8.999527
63.97341 9.664909 10.255531
59.85141 19.07991 5.393532
59.624413 19.99791 7.419525
24.222414 52.793907 20.151527
23.120413 55.126907 20.200527
14.165413 52.08991 15.628528
13.017413 52.080906 17.996529
26.954414 69.02491 14.480528
25.696413 69.33291 16.774529
20.816414 69.588905 25.429527
19.370413 71.420906 25.985527
35.145412 84.47091 31.217527
34.303413 0.76290894 29.415527
42.819412 84.24691 24.381527
44.393414 84.30091 22.768528
71.68642 37.08891 9.086525
69.76441 38.467907 8.303528
63.80641 43.83291 15.11953
62.727413 42.22191 16.222528
12.122413 49.012905 2.947525
12.339413 48.831905 0.73152924
2.6134129 45.051907 58.089527
1.490413 47.234905 57.89653
5.3134127 34.69391 13.040527
6.2074127 34.801907 10.857529
15.680412 28.404907 9.199532
15.087413 26.846907 9.74353
42.257412 13.45591 57.02953
42.12641 12.45591 59.10153
50.658413 10.916908 53.14653
52.12141 10.116913 51.35153
15.296412 14.717911 1.2605324
15.671412 12.744911 61.873528
20.150414 19.01191 52.748528
19.410414 20.404907 51.53053
52.93341 29.218908 57.70453
52.28141 31.035908 57.57853
51.347412 30.132908 8.145531
51.514412 32.53391 7.4175262
72.52942 57.583904 10.783531
73.552414 59.552906 11.21553
66.07042 57.165905 20.481531
64.14542 57.546906 18.783525
45.07941 4.727913 52.74253
45.595413 3.9389114 50.900528
35.83641 82.11491 52.76453
34.11941 83.198906 51.05553
30.637413 75.531906 45.45253
29.577414 74.59691 47.50153
32.200413 0.29190826 51.40253
32.998413 84.01091 53.54153
35.88341 6.921913 2.487526
33.85741 6.046913 2.0175323
37.623413 2.3819122 12.575531
38.05641 0.46191406 11.631531
39.48341 70.61491 36.706528
39.262413 73.58691 36.875526
43.16341 83.01391 41.31353
45.069412 83.81391 42.44153
27.202414 40.871906 9.908531
25.273413 40.182907 9.38253
20.466413 30.457907 6.8045273
21.072414 28.202908 6.707527
27.567413 56.985905 1.4885292
29.292414 57.696907 3.2925262
27.658413 65.157906 2.06353
27.791414 66.16191 62.033527
44.825413 56.664906 44.89253
42.388412 55.823906 44.71953
33.70541 57.780907 51.26753
32.597412 59.633907 51.76553
58.269413 22.724907 52.505527
60.159412 23.411911 54.17553
61.36241 18.12291 1.7615318
63.76641 18.262909 1.844532
9.904412 72.91291 22.556528
8.205413 71.840904 23.219528
0.95941293 78.618904 27.465528
-1.230587 78.94791 26.550528
21.410414 72.86391 59.56453
19.894413 71.92491 58.60653
10.692412 71.05591 1.9305267
11.302413 69.70491 3.5525284
61.26541 11.856911 57.22853
62.42441 13.165909 56.23553
60.55741 16.424911 46.91353
58.242413 16.65091 46.081528
6.4964128 83.45891 36.82153
8.437413 82.53091 36.17753
13.443413 77.02891 34.92753
14.313413 76.173904 32.83653
25.702414 37.37491 7.1045303
25.000414 36.007908 5.6255264
29.847414 40.274906 6.9175262
30.587414 40.869907 9.07653
27.622414 72.34891 49.33553
27.362413 72.632904 47.13553
17.163414 75.95491 53.32153
16.862413 78.44591 52.75153
64.90942 5.8209076 51.66653
64.829414 3.7499084 50.08453
64.54341 5.717911 40.67753
64.97441 8.200912 41.14853
48.17741 35.851906 20.828527
48.250412 35.480907 23.445528
40.569412 26.171907 22.525528
39.109413 25.982908 20.975529
29.508413 53.779907 3.1945267
29.041414 51.708908 1.351532
40.102413 52.850906 58.36453
42.382412 53.019905 58.636528
72.690414 38.58291 18.527529
72.30641 36.698906 19.01153
74.52042 35.059906 8.700531
75.09741 33.691906 6.5055313
17.827414 44.871906 26.564528
18.176414 45.890907 23.721527
12.736413 49.59691 15.309527
14.218412 48.754906 13.606528
49.902412 49.418907 57.72253
50.69741 47.866905 58.693527
61.826412 43.302906 57.76453
62.62141 45.396908 58.25653
14.592413 60.156906 39.424526
15.658413 57.994907 39.484528
14.988413 62.729904 29.271528
15.2894125 64.80791 27.876528
7.7574124 23.272907 27.414528
9.380413 23.972908 25.533527
14.317412 23.566908 37.36253
16.055412 23.518908 36.693527
30.290413 18.813911 43.533527
32.616413 18.687912 42.60653
23.188414 26.339914 38.985527
24.311413 28.128908 39.21253
1.9874129 62.007904 30.608528
1.7244129 60.842907 28.515528
6.113413 61.103905 22.650528
6.2364125 58.731907 22.947527
24.004414 54.157906 44.165527
25.635414 52.539906 43.82053
25.795414 52.70191 31.857527
27.009413 51.179905 30.889528
26.253414 2.4469147 61.25753
24.993414 1.1439133 61.79553
32.57141 79.33191 0.57052994
32.93841 78.338905 60.526527
46.10641 46.746906 43.167526
47.05841 49.083908 43.72353
39.464413 47.504906 53.05253
37.553413 47.720905 51.561527
59.415413 38.667908 7.9135284
57.85041 40.351906 7.481529
60.729412 50.081905 3.2745285
62.48941 50.135906 4.742531
58.346413 22.40091 45.86353
60.18841 21.146912 46.89753
60.04941 18.223907 35.659527
57.49641 17.799911 36.150528
14.824412 52.953907 59.061527
14.182413 54.922905 60.66053
16.433413 62.406906 54.700527
16.703413 64.24491 54.75853
64.37942 35.57591 32.347527
64.30841 33.45191 34.193527
66.33241 33.205906 37.29553
68.119415 34.12391 37.311527
27.369413 55.616905 28.536528
27.209414 53.54191 29.082527
15.3554125 55.839905 24.358528
15.721413 57.451904 24.819527
64.062416 18.30291 10.664528
66.092415 18.769913 10.890526
67.703415 22.494911 61.84153
65.674416 20.276909 0.2135315
12.8154125 49.88191 52.62753
11.148413 49.48591 51.20853
6.4394126 40.761906 57.414528
4.107413 40.637905 57.588528
51.032413 7.8939056 2.4885254
50.91041 6.7459106 0.42353058
48.78641 15.2999115 55.74453
46.060413 15.7739105 54.810528
65.02042 16.476906 12.508528
66.74042 17.402908 13.924528
62.282413 15.129906 24.148527
60.34841 15.368912 23.662527
49.527412 33.368908 24.108528
50.55041 35.178905 25.366528
39.98041 39.540905 25.396528
39.139412 37.863907 25.035528
54.075413 25.673914 55.43453
52.921413 24.219912 55.12553
54.429413 15.620911 60.36553
55.333412 14.317909 58.963528
65.60242 60.467907 23.831528
63.32041 60.205906 24.170528
59.38541 57.741905 34.929527
57.28641 56.663906 34.67553
16.080414 62.784904 7.4795303
16.888412 64.73291 8.795532
26.555414 67.15391 3.511528
27.708414 68.23491 1.7655296
27.993414 43.203907 44.492527
30.074413 43.949905 45.506527
33.589413 50.539906 37.497528
34.845413 52.233906 38.31653
51.59241 57.276905 9.0505295
51.060413 55.610905 7.839531
51.297413 52.704906 60.254528
50.00841 54.087906 58.49353
58.402412 40.893906 1.9165268
59.87141 39.482906 2.8815308
67.41942 35.678905 0.6475296
67.49142 36.320908 60.595528
51.68141 82.27991 12.347527
53.192413 83.16491 11.06353
62.20341 3.3729095 6.765526
60.98841 3.8919067 5.4035263
40.09341 27.698908 41.78653
38.32141 27.968908 40.000526
34.09841 27.827908 32.590527
32.455414 26.646908 30.695528
28.624414 10.493912 58.21653
29.993414 9.409912 60.12653
40.659412 9.85891 53.80853
39.678413 11.45591 51.99353
3.8994129 25.219908 34.31353
2.2744129 24.138908 35.458527
0.9684129 23.885908 45.409527
0.65441287 21.883907 47.076527
18.195414 67.87391 9.158531
15.965413 67.30091 8.778526
7.1044126 65.965904 16.800528
7.554413 63.141907 16.84553
62.013412 7.847908 21.445528
63.632412 6.7639084 19.701529
66.57342 12.561913 12.710528
67.50442 14.668907 13.550528
48.041412 1.7649078 7.2035294
49.26041 1.5259094 9.793526
55.444412 4.6979065 4.735527
56.64041 4.4009094 6.54953
58.331413 10.989906 57.047527
60.104412 9.295906 57.32753
61.50341 84.158905 58.98853
59.94841 84.04091 60.66253
31.342413 61.513905 29.953527
29.741413 62.845905 29.907528
25.157413 62.773907 26.878527
24.896414 60.588905 26.943527
33.623413 72.893906 30.427528
33.597412 71.296906 29.151527
36.805412 73.21691 18.633528
35.65641 71.94591 17.377527
41.464413 25.962908 34.556526
41.909412 24.939913 32.477528
47.178413 19.103912 27.919527
48.61541 17.59491 27.517529
27.095413 5.502907 15.183525
28.584414 3.8799057 14.16153
20.739414 10.564911 10.86853
19.547413 9.541908 8.890526
60.61441 50.031906 18.05153
62.444412 48.995907 16.90853
62.227413 56.846905 10.983528
64.10041 57.516907 11.4635315
39.93941 51.20191 55.797527
41.423412 52.371906 56.03653
50.80641 52.07691 48.386528
50.22541 51.822906 46.254528
52.604412 56.987907 18.421528
54.429413 56.160904 16.939528
64.04141 59.534904 21.237528
64.980415 60.846905 19.804527
39.03641 80.54191 7.07753
36.77841 79.560905 6.5465317
34.21041 74.532906 12.566528
32.388412 74.35791 14.030525
55.540413 71.33191 31.699528
55.30241 69.34891 32.839527
50.666412 62.310905 40.583527
51.74541 60.434906 39.94653
52.129414 71.28091 59.859528
53.900414 70.14891 58.27253
59.62241 74.37591 50.17653
61.53841 73.879906 50.57953
43.87841 67.89791 57.40653
44.37141 70.77291 56.71253
49.64041 72.920906 45.01653
48.34441 73.39091 43.532528
58.526413 72.450905 33.01653
55.97441 72.77891 33.93353
52.769413 71.58491 44.527527
50.61241 70.212906 45.575527
76.827415 28.233908 44.72353
76.29241 26.421907 45.63353
69.64042 30.488907 34.306526
67.45042 29.285908 34.470528
38.48241 12.901909 18.308529
39.840412 13.227913 20.123528
36.44041 6.5519104 14.119528
34.173412 7.074913 15.575528
26.158413 9.716911 26.256527
24.964413 8.950912 27.748528
31.526413 15.852913 32.86253
29.997414 17.51091 33.75853
35.513412 60.923904 5.6425323
35.62841 60.450905 3.3635254
38.936413 60.182907 55.23653
37.12841 59.286907 54.56953
74.802414 6.2949066 54.38253
72.758415 7.165909 54.07953
1.5554123 12.444908 44.671528
0.92741394 12.092911 42.96153
25.834414 3.27491 34.26653
26.770414 5.2699127 32.37753
27.483414 7.534912 23.118528
27.843414 5.9809113 21.180529
50.34841 58.903904 42.129528
49.206413 58.330906 44.401527
39.41841 58.921906 38.672527
37.463413 59.255905 39.91353
2.9664128 67.214905 22.428528
2.259412 66.37491 20.605528
69.62942 63.410904 22.928528
69.13641 63.082905 25.186527
3.3764088 18.42691 47.041527
1.1344147 19.05291 47.486526
0.7734146 17.81791 58.54853
75.854416 16.861908 59.54253
25.503414 50.536907 11.957528
26.405413 48.45191 12.724528
25.962414 49.83291 23.212528
23.965414 51.945908 23.560528
49.86341 46.511906 13.138528
48.00841 47.088905 13.964528
44.52841 53.988907 21.984528
44.35041 53.901905 24.800528
59.464413 22.515907 6.1635284
57.62241 20.999907 5.101532
60.55241 25.730907 55.79453
62.805412 26.455908 56.32053
21.691414 35.132908 27.776527
20.894413 36.759907 27.235527
29.735415 37.62391 24.183527
31.722414 37.503906 23.730528
17.510412 1.5319138 22.236528
16.442413 0.007911682 23.019527
24.354414 4.3399124 31.868528
25.211414 5.3419113 29.920528
36.49541 27.062908 35.84453
38.95441 26.957907 35.76053
50.12241 28.373907 34.64053
51.215412 30.057907 34.428528
42.22441 10.013908 62.109528
41.277412 11.146912 61.07253
41.639412 0.6469116 60.27253
42.083412 83.92691 59.518528
34.560413 10.193909 36.22453
34.16841 8.295906 34.80153
25.240414 6.9929123 33.45253
23.986414 8.665909 33.139526
26.197414 18.068909 26.330528
24.622414 17.27491 25.671528
14.812412 17.540909 26.806528
13.084413 17.334908 25.818527
52.82941 11.270912 18.757528
51.714413 12.004906 17.497528
45.43441 18.70391 25.361528
43.79941 17.56591 24.396528
51.611412 32.793907 11.395531
52.39941 33.989906 9.483528
58.57741 38.25591 4.964531
56.78541 39.57591 3.4095306
67.38741 33.126907 34.64953
67.632416 32.046906 32.868526
69.40842 30.653908 21.875528
71.20841 29.121908 22.493528
1.4974129 84.01591 52.456528
0.45541286 1.3799133 51.97553
9.599413 1.6249084 45.38553
11.552413 2.4439087 45.854527
15.573413 82.65391 8.36953
17.676413 82.73791 9.182526
18.056414 1.8199081 18.696527
19.560413 0.42591095 19.574526
-1.8005872 82.588905 49.859528
-1.615587 84.04491 48.34053
7.9284124 82.02791 47.54353
8.747413 79.92891 46.993526
48.75241 59.820908 8.015526
46.512413 59.618904 8.824532
39.943413 57.972904 19.85953
41.582413 59.148907 21.439531
37.27941 32.083908 19.146528
37.14641 31.352907 21.739529
30.934414 24.097908 19.286528
31.449413 22.175907 17.998528
65.315414 46.088905 32.25953
67.15742 44.810905 32.283527
73.50142 43.849907 22.919527
72.063416 42.393906 20.938528
31.819414 16.476906 11.586525
30.467413 15.134911 10.57753
28.335413 26.865908 5.501526
26.353415 26.673914 5.584526
3.8074129 75.54291 33.36253
3.6314127 76.42591 31.496527
11.510412 76.93091 22.150528
9.862412 76.51591 20.422527
4.059407 25.306908 26.097528
2.4624074 24.645908 24.183527
72.58942 33.368908 21.799528
74.00142 35.05491 20.450527
64.704414 13.975906 57.71553
63.991413 11.750908 57.78153
61.243412 7.4549103 52.643528
59.14941 6.255913 52.13953
45.04441 36.511906 15.186531
45.52441 35.989906 12.918526
42.70941 39.20091 4.3595276
40.41741 38.25691 3.9395294
20.497414 74.756905 38.380527
18.798414 73.95691 39.549526
9.559413 77.07191 47.604527
10.674413 76.23891 49.595528
7.3604126 58.367905 17.36453
8.649413 59.034904 18.634531
17.571413 61.060905 10.221527
19.522413 62.737907 11.123528
36.17541 73.548904 35.79453
34.789413 71.89991 36.852528
25.965414 77.28091 42.082527
26.382414 79.17591 43.83653
21.817413 50.959908 60.65953
22.096415 48.693905 61.67753
26.930414 44.261906 53.48053
25.618414 46.599907 52.98553
40.80241 41.022907 36.047527
40.671413 42.42391 34.66153
41.70341 39.931908 33.651527
39.99741 37.91691 34.08753
48.40541 71.576904 39.04353
48.64941 69.26291 38.424526
50.03841 73.561905 27.392529
51.262413 73.104904 25.393528
5.7234087 3.909912 9.566528
4.535413 3.6049118 7.533531
70.64342 84.59691 5.622528
70.399414 82.326904 5.4065323
1.9644063 34.083908 21.890528
0.6164093 35.74991 21.643526
3.459409 34.51391 11.191528
3.98541 33.79091 8.761528
70.29041 11.623909 55.63853
70.09541 10.446907 53.18353
69.315414 12.241913 43.07953
70.007416 10.486908 42.57953
33.281414 2.8309097 51.165527
33.30641 3.8559113 53.32353
34.89941 83.36991 57.64753
34.097412 81.85991 55.769527
22.333414 77.74591 10.186531
22.319414 74.91391 11.226532
20.941414 66.69391 13.27153
20.731413 64.70491 12.481529
70.31741 48.44491 4.058525
72.53242 49.308907 3.4805298
2.2514088 45.542908 60.693527
4.2304125 44.391907 60.23153
68.11141 6.5079117 8.117531
68.80742 8.554909 8.470528
73.09641 16.797913 0.200531
73.535416 14.842911 60.804527
60.95241 68.116905 52.46553
63.06341 67.073906 51.93153
67.44542 70.43391 60.63453
70.08341 70.31591 61.061527
14.306413 28.054907 15.68853
15.670413 29.259907 14.068527
23.391413 31.454908 10.401527
25.233414 32.764908 10.723526
10.239412 61.877907 3.7935257
7.8854127 62.853905 3.3615265
9.614413 59.509907 52.61753
7.6684127 60.762905 51.31253
19.952414 60.076904 44.34353
22.042414 60.932907 45.318527
29.934414 58.812904 52.35553
29.548414 59.720905 54.42053
58.05841 30.634907 58.24553
58.254414 31.359907 56.39553
59.68941 34.56291 47.25153
62.123413 34.107906 46.061527
65.316414 63.702908 21.879528
67.521416 64.97291 21.401527
74.064415 65.143906 11.897528
73.82042 63.763905 10.459528
65.801414 46.472908 53.30753
66.47442 44.723907 51.58653
70.87642 51.61091 45.00953
72.39542 49.651905 43.68953
46.82141 58.308907 56.61353
45.805412 59.197906 58.07153
48.80141 57.124905 7.3955307
47.66241 55.170906 8.818527
25.397413 14.407906 55.193527
23.665413 13.353912 54.60853
17.308413 4.4439087 57.24953
15.592413 4.145912 55.810528
26.223413 74.157906 42.201527
24.656414 74.462906 41.28853
16.122414 74.49491 48.27953
16.623413 74.91591 50.957527
48.784412 53.663906 44.71853
49.137413 55.498905 44.241528
55.51641 58.197906 36.463528
58.450413 59.266907 36.66153
53.55141 26.965908 29.229528
54.47341 28.997908 29.480528
54.019413 35.278908 23.180529
51.956413 36.421906 23.332527
34.47641 84.20291 16.622528
32.85541 0.4969101 17.717527
23.951414 79.770905 20.463528
25.078413 80.84691 21.834528
31.344414 39.692905 4.7365265
33.92041 39.347908 5.261528
41.060413 47.573906 1.3665314
42.02941 49.640907 0.6715317
40.17041 55.609905 21.861528
37.930412 56.514904 21.568527
30.711414 52.262905 30.398527
29.968414 49.827908 30.929527
10.240413 52.463905 33.693527
9.397413 54.356907 34.58553
12.648413 64.38391 29.743528
12.695413 66.32091 30.771528
45.722412 21.021912 5.277527
47.443413 20.808907 4.087532
57.088413 19.042908 2.7905273
59.275414 19.70591 2.325531
36.23141 65.56591 42.56653
36.984413 63.835907 41.312527
37.85641 61.792908 52.96953
38.01641 63.991905 53.63553
6.159413 70.93891 1.8705292
5.0254126 70.49991 0.1435318
9.653413 71.51191 51.09453
11.901413 72.12791 51.831528
26.502413 71.146904 40.33553
28.890413 70.81891 40.470528
32.998413 68.70991 30.863527
32.89141 68.24491 29.020527
59.736412 1.1609116 0.37953186
58.192413 2.7909088 1.1565323
53.846413 4.2829056 1.8305321
54.30841 6.703911 0.18753052
67.30742 47.87491 4.860527
66.99142 48.182907 2.5405273
68.57042 49.309906 56.48053
71.18642 50.165905 57.17653
68.15542 37.198906 33.380527
69.939415 38.58291 31.981527
0.31441498 40.295906 25.415527
0.564415 41.78491 23.861528
56.06441 56.415905 56.352528
56.98941 54.565907 54.63953
61.797413 51.751907 62.12453
61.859413 49.384907 1.0785294
71.72141 79.33291 14.375528
73.48842 80.144905 14.117528
0.71541595 1.9359131 20.849527
76.592415 3.3539124 22.143528
19.374414 11.368912 54.59153
20.991413 13.285912 55.39953
22.279413 3.1339111 60.797527
23.030413 2.3229141 0.84353256
53.98141 79.73891 42.561527
53.74741 81.28891 44.33453
46.768414 3.3309097 45.66953
44.764412 1.6189117 45.261528
67.771416 78.57891 10.346527
67.41842 79.52691 8.226532
59.32841 78.271904 15.206528
57.504414 77.53091 16.216528
30.259413 9.040909 47.541527
28.474413 9.419907 49.16953
27.620413 22.249908 46.541527
29.192413 22.70391 45.018528
30.743414 61.434906 14.543526
30.870413 63.402905 14.057526
39.631413 59.126907 7.648529
39.554413 59.896904 5.5625305
52.519413 79.354904 27.702528
52.52241 80.28791 30.020527
48.790413 77.98791 41.935528
47.45241 79.296906 41.965527
73.15041 67.69591 12.723528
74.744415 70.240906 12.215528
69.023415 67.41591 21.758528
70.72742 67.979904 23.333529
55.79241 27.76291 32.83753
54.803413 26.067911 31.735527
49.05641 17.044907 36.12053
50.68841 16.19091 35.44853
36.66141 51.834908 52.13153
38.810413 52.807907 51.50153
45.65641 53.45191 42.457527
46.41841 52.255905 43.673527
19.928413 41.288906 14.283531
20.492414 39.932907 11.9255295
19.617414 29.086908 9.448532
18.235415 28.663908 10.352531
49.721413 50.64591 12.775528
49.235413 52.431908 14.187528
39.91141 45.304905 18.630527
41.94141 44.629906 19.593529
16.504414 9.10791 2.615532
18.690414 8.891907 2.1755295
20.665413 1.1189117 7.233528
20.454414 84.12091 8.457527
42.42741 4.7979126 10.316528
44.639412 5.668907 10.415527
46.28741 82.29091 20.006525
44.35841 83.059906 20.059526
6.8954124 63.898907 49.62553
8.445413 64.26291 51.61453
2.6134129 66.05691 60.87853
0.20941293 65.30491 59.984528
18.814413 46.662907 30.163528
19.752413 46.153908 31.984528
13.682413 43.710907 40.95953
13.025413 41.785908 40.396526
50.401413 29.227907 31.709528
51.67441 29.400908 29.881527
55.64941 24.399908 23.150528
55.713413 23.010908 21.591528
31.802414 56.911907 4.7465286
31.610415 56.454906 2.4835281
30.741413 58.075905 56.339527
29.576414 56.846905 54.25053
15.719413 27.262907 60.25353
16.743414 27.833908 0.1475296
9.913413 33.948906 0.113529205
9.872413 33.928905 60.283527
22.270414 67.74991 42.44153
22.761414 66.81391 40.46653
25.777414 66.70691 30.924528
28.027414 65.96691 29.502527
5.731412 16.56791 22.393528
5.992406 14.831909 23.991528
74.21342 17.85991 32.60053
76.20741 18.165909 33.68953
75.89242 63.445908 32.074528
76.078415 61.567905 30.299528
1.0244141 54.859905 38.278526
76.857414 53.45791 39.88353
33.728413 58.857906 33.71753
36.12241 58.757904 33.19653
41.84141 57.472904 23.594528
43.318413 56.956905 22.714527
53.220413 11.029907 58.50353
55.75341 11.66391 58.49553
61.97441 5.2359085 60.43853
60.30141 3.63591 61.207527
46.78841 0.15390778 10.311531
44.68341 84.42891 11.474525
44.64141 76.01691 20.250528
46.805412 75.62291 20.406527
64.80941 46.730907 2.57753
64.550415 47.314907 4.7785263
60.02341 42.780907 12.580528
58.46241 44.920906 12.177528
62.16341 28.902908 57.24653
64.13941 28.332907 57.942528
68.299416 34.06891 46.63353
66.77841 35.925907 47.722527
42.317413 48.634907 37.131527
43.68341 46.49991 36.74553
50.77841 49.304905 27.673527
52.734413 47.965908 27.675528
67.58241 1.2569122 22.578527
65.32141 1.0949097 23.096527
60.97341 83.382904 33.305527
60.06441 0.041908264 34.21853
36.680412 37.414906 11.50753
34.94141 38.958908 11.27153
31.136414 35.16591 19.850527
33.186413 34.89591 19.722528
13.763412 29.549908 41.03853
14.406413 31.348907 42.713528
12.405413 25.311907 53.53153
11.451412 22.988907 53.79353
10.329412 40.896908 2.8735275
8.2894125 40.427906 2.3455276
-2.2475872 39.58291 6.9845276
-3.0205872 41.340908 8.196526
18.360415 51.642906 60.45353
16.239412 52.949905 61.39953
18.827414 46.11791 8.650528
20.348413 46.208908 9.8355255
45.91341 11.85891 40.01053
47.21941 13.7359085 40.678528
42.89141 14.433907 53.40653
42.23141 12.178909 53.54253
68.37842 79.046906 3.8595276
69.99242 79.46791 2.7135315
70.08442 78.60591 11.546532
70.76642 76.757904 12.374527
19.261414 80.37091 9.749527
18.868414 80.18091 7.666527
22.351414 82.07091 59.804527
24.687414 83.02791 58.873528
1.2024155 48.306908 14.961525
0.311409 50.56991 13.847527
2.6634114 54.03491 11.4255295
4.30441 53.56291 12.707527
46.39841 55.341908 56.59353
48.393414 55.362907 56.60553
48.33541 57.908905 46.777527
47.31541 55.682907 46.15553
36.11441 48.137905 54.86053
35.60541 47.083908 56.88953
37.874413 40.335907 3.0315323
39.93341 39.699905 1.8425293
43.45941 43.632908 21.998528
43.25341 42.311905 20.547527
38.07841 41.248905 22.010529
39.67541 42.486908 22.356527
71.59942 51.702908 21.655527
69.94441 51.526905 23.332527
71.88741 45.099907 32.96053
70.34842 43.162907 32.435528
63.80741 66.156906 49.50753
63.23841 64.49791 48.21753
62.28641 63.364906 36.603527
61.21741 62.356907 34.95553
4.6484127 21.934906 0.85652924
6.0644126 21.716911 61.630527
10.119412 20.687912 53.324528
8.622413 22.041908 51.78853
71.548416 24.395914 46.005527
69.61642 24.064913 44.790527
76.40041 20.74791 36.35153
74.95841 20.643906 34.03653
76.411415 14.152908 15.876528
75.52042 15.875908 17.533527
68.69842 7.73291 24.626528
66.39142 7.6839066 23.536528
74.48441 27.542908 47.354527
73.91441 28.911907 48.97853
71.93041 25.236908 60.05853
73.92242 23.761908 60.55053
76.274414 3.875908 59.366528
1.3224106 3.849907 58.47153
1.2034149 80.34591 59.37653
2.2164128 80.70491 61.54153
7.870413 25.673914 51.67353
6.9584126 26.757914 53.93453
11.682413 20.448906 0.38853073
13.676413 19.559906 62.061527
40.17041 32.989906 21.070528
40.84941 33.83991 23.240528
39.088413 23.434908 23.257528
38.05241 21.747908 22.194529
70.20942 60.966908 59.44853
70.51341 58.737907 58.94853
74.036415 57.443905 7.0245285
72.32542 56.433907 8.36953
5.611413 1.0039139 23.816528
7.0864124 2.3409119 25.741528
-2.268587 2.8789062 24.334528
-2.5845869 0.81790924 23.422527
41.118412 83.49591 22.361528
39.338413 82.545906 20.942528
34.31541 74.53091 16.338528
35.73941 73.061905 15.049528
18.871414 6.5119095 18.307528
17.255413 7.6679077 18.965528
11.935412 12.278908 27.800528
11.258412 10.124908 28.787527
58.88541 77.23391 18.140528
58.69841 79.087906 19.706528
50.54341 1.2359085 26.739527
50.96941 84.740906 28.700527
54.241413 67.281906 17.370527
56.07741 66.059906 15.980529
48.382412 63.737907 8.52153
49.52241 65.15391 7.2465286
59.03541 75.07991 31.180527
60.96041 74.35891 33.041527
67.35841 74.69391 26.182528
68.02641 75.75191 24.231527
67.11242 9.868912 10.192528
66.77741 7.880913 10.776527
65.31841 4.956909 20.197527
67.18342 5.685913 21.42753
43.907413 11.922913 29.295528
41.930412 11.022911 30.951527
41.29941 0.85391235 35.060528
38.625412 0.8219147 35.193527
63.37741 65.80891 57.754528
65.15641 64.11491 58.172527
64.47441 61.066906 4.148529
66.05842 62.731907 5.8475266
49.88341 3.3649063 5.719528
49.41041 1.536911 4.511528
47.45541 81.34791 8.638527
49.28541 81.157906 10.814529
15.028413 14.910912 44.597527
17.125414 14.920906 43.78053
12.329412 6.665909 38.28753
12.172413 5.9269104 36.25953
5.7624125 37.13191 36.824528
7.0424128 37.148907 35.220528
12.8224125 37.81191 28.485527
14.468412 38.508907 30.387527
48.811413 34.871906 52.08453
51.24041 35.31991 51.415527
55.64941 44.111908 45.651527
54.352413 45.830906 44.45553
49.019413 44.407906 41.93453
47.909412 44.734905 43.929527
44.039413 38.259907 36.893528
44.01041 36.09591 36.997528
9.917413 44.757908 61.20353
11.476413 44.225906 59.66653
5.2864127 37.28491 53.57353
5.3604126 35.52091 54.66253
42.74041 77.282906 10.072525
44.525414 77.03691 8.627525
37.57241 79.52691 2.6095276
35.98141 79.34991 0.8915291
38.243412 36.056908 23.034529
37.03541 34.390907 21.821527
32.537415 32.44391 31.966528
32.783413 30.163908 30.744528
43.49541 66.11291 22.238527
41.700413 66.39991 20.990528
45.172413 66.81791 10.983528
45.958412 68.98091 11.080528
31.413414 20.902908 31.585527
29.915413 21.431908 29.926527
21.722414 25.761908 36.977528
20.219414 27.391907 37.45353
45.629414 21.404907 25.705528
44.227413 21.646912 27.697527
34.194412 23.131912 32.506527
33.623413 24.071909 30.489527
40.46941 68.46691 54.44553
39.32741 69.48491 55.99453
37.52441 76.47091 50.10353
38.652412 78.22291 49.34453
32.95241 74.28091 0.77153015
32.500412 72.66391 61.595528
38.319412 79.97591 60.80653
40.78141 80.94591 60.568527
69.75342 6.8329086 40.785526
70.774414 7.8969116 42.16353
3.381406 10.236908 44.87753
5.4634066 10.155907 43.798527
5.909413 22.854908 2.9755325
6.0504127 24.734907 3.9565277
12.993413 26.180908 56.17653
12.937412 24.112907 56.37153
17.704414 36.35291 25.986528
19.312414 36.439907 24.266527
23.399414 36.942905 15.275528
24.009413 35.27691 16.649529
28.447414 56.089905 46.167526
27.102413 55.455906 45.03053
31.879414 51.484905 35.722527
31.397413 50.21491 33.83553
70.30942 60.760906 27.384527
70.69642 59.278904 26.160528
71.06142 52.981907 37.936527
73.68141 52.833908 37.12653
32.233414 67.201904 0.34152985
32.902412 69.71891 61.85153
40.86341 67.185905 57.79153
41.928413 67.03691 56.01053
13.427413 74.48691 36.931526
11.260412 75.076904 37.81553
8.016413 82.07791 38.68853
8.409413 82.86991 40.73353
42.58041 55.310905 41.74453
42.22641 57.124905 41.129528
49.504414 58.331905 30.659527
47.26741 58.348907 29.815527
70.33442 32.496906 19.709528
68.57142 32.949905 20.392529
65.481415 39.643906 29.367527
64.25442 39.556908 31.300528
4.737413 40.715908 23.065527
3.1674128 40.975906 24.050528
2.958413 34.16591 34.36353
5.304413 35.111908 34.81653
63.817413 39.597908 18.014528
64.28442 37.723907 18.318527
63.18341 34.34691 16.075527
60.922413 35.252907 16.287527
26.654413 79.87091 24.850527
29.122414 79.34891 24.515528
24.521414 77.06591 13.619528
25.522413 78.65491 12.269528
57.714413 48.719906 31.373528
57.69741 50.537907 29.864527
54.117413 41.887905 26.676527
52.055412 42.633907 27.269527
0.1084137 22.56491 21.517529
1.6554108 22.100906 23.322527
0.1144104 22.20391 33.47553
1.7934086 21.49591 34.43853
12.703413 24.25091 39.65653
13.888412 24.321909 42.03853
11.063413 19.639908 49.164528
9.669413 18.781906 48.04153
56.449413 8.271912 51.11953
59.25241 8.869911 51.144527
58.375412 14.740906 41.95353
58.93241 16.660912 43.416527
1.2904129 1.236908 13.164528
3.5484128 0.4289093 11.585527
6.3124127 8.418907 21.055529
7.390413 6.625908 21.666529
32.66841 6.722908 48.59153
33.89741 5.361908 49.650528
45.15341 3.1229095 47.915527
45.797413 4.9879074 47.791527
68.83942 27.572908 32.372528
67.718414 28.426907 30.649529
67.785416 24.060907 29.775528
69.19241 24.933907 31.280527
39.838413 5.3939056 36.93453
40.873413 4.467911 39.027527
38.71241 14.692909 45.019527
38.74441 14.348907 47.26053
36.28141 26.886908 52.130527
38.414413 25.749907 51.11953
37.616413 35.111908 45.250526
37.77441 34.351906 43.33053
53.10541 10.140907 38.514526
51.603413 11.170906 38.07153
55.866413 14.702911 39.186527
55.389412 13.088913 39.866528
18.066414 75.03691 37.167526
19.182413 77.08091 37.311527
13.859412 84.36191 43.43453
11.955413 0.9159088 43.59453
64.62541 65.71091 8.698532
63.07741 65.645905 10.553528
57.60541 72.60091 10.75853
56.17741 74.35991 11.556526
63.068413 24.162907 28.193527
63.66941 26.494907 28.746527
66.23641 32.70191 18.717527
65.12441 34.719906 18.193527
57.85741 40.33291 43.083527
58.984413 42.307907 42.539528
69.00041 36.63191 36.174526
71.062416 37.608906 37.053528
24.330414 80.05191 8.417526
25.317413 82.158905 8.931526
30.993414 76.30791 11.14653
30.788414 76.282906 13.491531
43.16741 32.441906 49.43053
42.66741 31.280907 47.561527
40.463413 32.940907 41.632526
40.500412 30.503908 41.85053
7.3334126 48.869907 14.883528
7.3034124 46.465908 13.586528
3.9194129 42.93091 21.265528
3.0094128 44.587906 22.193527
12.766413 51.543907 20.666529
12.944412 49.512905 21.003529
9.718412 41.002907 24.634527
8.997413 39.010906 25.740528
6.1574125 9.728912 46.57353
7.2434125 8.602913 45.31553
9.672413 12.26091 54.24953
7.5754128 11.631912 55.64553
15.516413 55.910904 2.7935257
16.498413 57.813908 1.6895294
18.942413 63.164906 56.07753
20.379414 64.97491 56.40253
23.619413 3.4539108 45.28053
23.040413 0.725914 45.36553
24.349413 8.393906 43.03153
25.773413 10.202911 42.229527
40.381413 84.28091 2.5145264
41.51541 82.54291 0.76153183
45.91341 74.98391 59.29553
