5.816 2.935 6.041
5.282 3.288 5.923
5.426 3.197 5.992
5.410 3.646 5.947
5.382 3.835 6.280
5.694 2.690 5.834
6.028 2.670 5.840
5.932 3.267 5.733
5.303 3.621 6.122
5.540 3.834 5.902
5.568 4.223 6.049
6.018 2.686 5.419
6.179 3.146 5.799
5.735 3.060 5.493
6.037 3.439 5.707
5.447 3.852 5.628
6.346 3.315 5.196
6.209 3.633 5.350
5.814 3.394 5.451
5.423 5.770 5.960
5.466 6.178 6.078
5.479 6.005 6.142
5.872 6.357 6.090
6.117 6.328 5.987
6.236 6.174 5.505
4.577 3.225 6.440
5.177 2.074 5.727
4.912 2.744 5.985
4.740 2.588 6.119
4.584 3.160 6.161
4.602 3.441 6.138
4.763 3.491 6.036
5.121 1.940 5.691
5.510 2.702 5.674
5.090 2.650 5.893
5.007 3.213 6.159
5.168 3.178 6.114
4.792 3.744 5.924
5.045 3.972 6.251
4.889 3.789 6.285
5.502 2.185 5.165
5.449 2.454 5.725
5.203 2.280 5.826
5.467 2.810 5.953
5.031 3.266 5.725
5.318 3.231 5.893
5.174 3.473 5.618
5.243 3.797 6.192
5.636 2.275 5.437
5.752 2.405 5.588
5.787 2.928 5.439
5.669 3.323 5.834
5.646 3.313 5.664
5.346 3.475 5.681
5.958 2.691 5.187
5.734 3.170 5.547
5.815 3.367 5.548
5.382 3.333 5.321
6.032 3.153 5.077
6.066 3.700 5.590
5.171 6.151 6.223
5.041 6.473 6.081
5.092 5.826 5.894
5.568 5.919 5.839
5.864 5.941 5.623
5.397 5.740 5.534
5.383 6.198 5.706
5.721 5.757 5.650
5.790 5.651 5.685
5.887 6.241 5.746
6.259 5.938 5.415
6.239 6.159 5.648
4.855 0.203 5.386
5.039 0.044 5.479
4.877 0.401 5.622
5.329 0.553 5.242
5.299 0.603 5.252
5.315 1.008 5.316
4.999 1.601 5.498
5.283 1.816 5.622
4.722 2.209 5.720
4.699 2.456 5.491
4.512 2.320 5.799
4.597 3.128 6.075
4.410 3.137 6.051
4.676 3.219 5.750
4.189 3.587 6.065
5.569 1.449 5.194
5.151 1.938 5.496
5.191 1.802 5.283
5.122 1.986 5.542
5.350 2.254 5.723
5.093 2.987 5.766
4.938 2.901 5.905
4.888 3.001 5.547
4.630 3.340 6.071
4.867 3.726 5.627
5.848 1.641 4.883
5.756 1.882 5.159
5.175 2.307 5.007
5.078 2.738 5.644
5.219 2.635 5.350
4.972 3.187 5.280
5.032 3.168 5.574
5.018 3.624 5.521
5.878 2.063 5.217
5.626 2.126 4.953
5.579 2.670 5.153
5.551 3.016 5.216
5.236 3.245 5.442
5.220 3.649 5.683
5.737 2.752 4.762
5.969 2.884 4.832
5.371 2.920 5.413
5.741 3.178 5.280
5.091 5.585 5.583
5.341 6.122 5.450
5.064 6.177 5.616
5.641 5.200 5.447
5.353 5.921 5.682
5.270 6.197 5.187
5.144 6.434 5.627
5.810 5.277 4.864
5.811 5.411 4.933
5.488 5.767 5.198
5.848 6.039 5.479
6.333 5.134 4.610
5.906 5.500 5.100
5.852 5.922 5.119
5.782 5.983 4.963
6.131 6.044 5.438
6.242 6.029 5.122
6.052 6.315 4.857
4.639 -0.222 5.241
4.580 -0.087 5.320
4.678 0.263 5.345
4.864 0.575 5.282
4.839 0.025 5.171
4.912 0.523 5.499
4.831 0.792 5.564
4.681 0.986 4.928
5.036 1.371 5.058
4.805 1.406 5.168
4.697 1.741 5.697
5.046 0.597 4.863
5.044 0.426 5.177
4.649 1.058 5.388
5.073 0.996 5.224
4.861 1.320 5.214
4.860 1.306 5.157
4.796 1.569 4.978
4.626 2.111 5.245
4.998 2.478 5.187
4.485 2.852 5.583
5.478 0.422 4.850
5.016 0.584 5.018
5.205 1.182 4.833
5.419 1.207 5.127
5.234 1.239 5.153
4.946 1.710 5.018
5.372 1.861 5.245
5.122 2.392 5.428
5.088 2.508 5.019
4.967 2.693 5.143
4.924 2.897 5.681
5.269 0.969 4.807
5.306 1.358 4.657
5.338 1.692 4.907
5.245 2.126 4.868
5.127 2.136 5.208
5.110 2.715 5.163
5.037 3.114 5.198
4.704 2.952 5.198
5.163 3.181 5.108
5.733 2.024 4.458
5.628 2.364 5.024
5.457 2.141 4.881
5.293 2.582 4.823
5.015 3.083 4.768
5.161 3.324 5.372
6.035 2.125 4.759
5.384 2.482 4.798
5.366 3.025 4.714
5.762 3.236 4.630
6.089 2.681 4.688
5.895 2.834 4.599
5.097 5.515 5.173
4.903 5.857 5.799
5.013 5.123 5.087
5.212 5.474 5.456
5.207 5.865 5.652
4.852 6.081 5.603
5.276 5.386 5.219
5.185 5.475 5.151
5.471 5.560 4.918
5.274 5.744 5.283
5.169 6.461 5.074
5.970 5.228 4.717
5.871 5.517 4.682
5.736 5.549 4.868
5.783 5.973 4.773
5.229 5.874 4.860
6.263 4.717 4.579
6.193 4.992 4.484
5.678 5.490 4.773
6.164 5.913 4.776
5.683 5.843 4.633
5.697 6.038 5.069
6.190 5.273 4.342
6.404 5.357 4.773
5.844 5.770 4.643
5.725 6.119 4.635
3.349 2.007 5.925
3.289 2.188 6.408
4.060 0.353 5.419
4.238 0.325 5.296
4.572 0.427 5.450
4.643 0.062 4.932
4.452 0.617 4.970
4.459 0.608 5.336
4.800 0.930 5.286
4.330 1.152 5.237
4.752 0.541 4.706
4.442 0.377 5.174
4.618 0.761 5.369
4.701 1.042 5.029
4.507 1.096 4.766
4.481 1.448 4.896
4.638 1.753 5.007
3.028 5.124 6.242
4.857 0.481 4.625
4.693 0.899 5.092
4.491 0.712 4.753
4.914 0.809 4.997
4.777 1.069 5.149
4.922 1.311 5.224
4.585 1.773 4.959
4.685 2.354 5.178
4.302 2.610 5.211
3.602 5.877 6.153
4.951 0.568 4.620
4.812 0.809 4.564
5.105 1.319 5.017
5.419 1.294 4.500
5.058 1.678 4.996
5.082 1.728 5.033
4.987 2.112 4.865
5.082 2.396 4.949
4.525 2.180 4.777
4.520 2.808 5.003
5.545 0.699 4.647
5.282 1.069 4.477
5.706 1.085 4.581
5.529 1.649 4.776
5.140 1.623 4.828
4.992 2.015 4.899
5.041 2.456 4.976
5.220 2.335 5.087
5.066 3.131 4.974
5.460 1.098 4.757
5.461 1.592 4.411
5.633 2.048 4.743
5.459 2.206 4.676
5.494 2.426 4.555
5.368 2.902 4.848
5.017 2.699 4.641
5.623 2.098 4.519
5.319 2.554 4.381
5.760 2.645 4.650
5.462 3.052 4.606
5.287 3.238 4.500
5.974 2.227 4.336
5.563 2.573 4.457
5.455 2.995 4.598
5.043 5.143 5.261
4.661 5.561 5.418
4.764 6.017 5.178
5.384 5.133 5.123
5.214 5.377 4.861
4.727 5.620 4.792
4.874 6.139 4.884
4.786 6.269 5.220
5.228 5.168 4.558
5.246 5.437 4.490
5.216 5.691 4.945
5.288 5.941 4.793
5.132 6.153 5.182
5.554 5.085 4.213
5.428 5.297 4.599
5.637 5.400 4.778
5.461 5.840 4.939
5.502 5.709 4.561
5.559 6.093 5.048
5.937 4.987 4.498
5.915 5.108 4.538
5.649 4.938 4.419
5.846 5.292 4.348
5.573 5.975 4.284
5.724 5.813 4.722
5.568 6.192 4.597
6.431 4.596 4.214
5.994 5.286 3.908
6.383 5.425 4.229
6.227 5.436 4.452
5.673 5.924 4.470
5.984 6.089 4.674
6.198 6.002 4.233
6.359 6.119 4.554
3.272 1.850 6.265
2.988 1.895 6.103
3.073 1.671 6.170
3.035 2.288 5.852
2.533 2.213 5.992
2.902 2.599 6.406
2.826 2.617 6.119
3.788 0.130 5.483
3.914 0.440 4.874
4.225 -0.152 5.183
3.832 0.085 4.964
3.921 0.383 5.227
4.197 0.674 5.263
4.260 1.093 4.993
3.058 5.028 6.487
4.066 0.118 4.869
4.470 0.310 4.785
4.025 0.621 5.170
4.472 1.014 4.699
4.533 1.002 4.840
2.870 5.057 6.349
2.834 5.744 6.145
4.607 0.389 4.567
4.431 0.476 4.977
4.492 0.996 4.886
4.872 1.232 4.658
4.567 1.180 4.687
4.614 1.242 4.981
4.606 1.611 4.723
3.006 5.460 6.218
2.738 5.724 6.050
4.910 0.454 4.465
4.656 0.959 4.462
4.337 0.743 4.989
5.018 1.005 4.598
4.465 1.238 4.400
4.848 1.577 4.810
4.670 1.984 4.645
4.732 2.106 5.138
2.867 5.959 6.137
5.014 0.548 4.167
4.723 0.922 4.642
4.623 0.860 4.472
5.142 1.087 4.290
5.212 1.208 4.513
4.876 1.709 4.488
4.858 1.837 4.770
4.978 2.163 4.877
4.461 2.438 5.061
5.329 0.729 4.550
4.799 0.950 4.683
5.179 1.362 4.148
4.986 1.781 4.374
5.152 1.923 4.370
5.252 2.078 4.441
5.161 2.125 4.365
5.037 2.395 4.456
4.628 2.948 4.971
5.110 1.066 4.413
5.014 1.497 4.128
5.736 1.215 3.977
5.116 1.591 4.284
5.219 1.912 4.427
5.082 1.997 4.593
5.238 2.710 4.630
5.301 2.683 4.267
4.675 3.220 4.415
5.284 1.185 4.189
5.825 1.980 4.186
5.336 1.964 3.988
5.407 2.154 4.477
5.170 2.533 4.550
5.270 2.949 4.593
5.055 3.263 4.439
4.621 5.293 5.078
5.842 1.994 3.940
5.508 2.359 3.898
5.704 2.851 4.362
5.656 2.783 4.183
4.572 4.840 4.694
4.651 5.117 4.658
4.606 5.507 4.892
4.646 6.052 5.095
5.807 2.389 3.979
5.213 5.039 4.596
4.782 5.112 4.679
5.065 5.699 4.933
4.587 5.379 4.651
4.958 6.157 5.181
4.458 6.389 5.203
5.315 4.915 4.240
5.403 4.945 4.214
5.387 5.358 4.370
4.869 5.657 4.883
5.147 5.978 4.796
5.210 5.873 4.972
5.833 4.527 4.278
5.685 4.813 4.389
5.271 5.324 4.172
5.623 5.218 4.379
5.375 5.383 4.332
5.270 5.628 4.609
5.394 5.877 4.706
5.745 4.942 3.928
5.533 4.796 4.122
5.982 4.962 4.154
5.486 5.677 4.038
5.692 5.956 4.199
5.412 5.872 4.260
5.329 6.406 4.299
6.327 4.306 3.981
6.307 4.619 3.812
6.277 5.262 4.145
5.651 5.301 3.982
6.096 5.419 4.086
5.497 5.926 4.015
5.519 6.246 4.108
6.222 5.075 3.569
6.354 5.493 3.901
5.836 5.510 3.852
5.793 6.227 4.119
3.275 1.852 6.096
3.187 2.218 5.721
2.768 2.433 6.188
2.868 2.598 6.181
3.142 6.448 6.258
2.828 6.403 6.274
3.634 0.221 2.249
3.518 0.561 2.707
4.330 0.012 2.061
3.801 0.233 2.176
4.558 0.366 2.180
4.570 0.598 2.071
4.044 0.858 2.320
4.730 0.144 1.777
4.701 0.239 2.241
4.712 0.792 2.275
4.715 0.322 1.778
4.646 0.548 1.958
4.655 0.400 1.972
6.207 1.403 1.038
6.184 1.643 0.918
3.108 0.352 2.199
3.634 0.362 2.032
3.708 0.451 2.429
4.094 0.441 1.795
3.676 0.260 2.201
4.045 0.212 1.754
4.309 0.331 1.742
3.834 0.786 2.148
4.464 0.407 1.590
4.284 0.594 2.001
4.118 0.857 1.717
4.540 0.281 1.618
4.910 0.183 1.455
4.414 0.877 1.747
4.655 1.105 1.812
5.136 0.589 1.537
4.759 0.747 1.186
6.202 0.306 0.122
6.370 1.180 0.621
6.053 1.148 0.539
3.231 0.411 2.351
3.252 0.329 2.062
3.384 0.480 1.880
3.998 0.279 1.866
3.765 0.271 1.622
3.553 0.351 1.593
4.341 0.058 1.670
4.000 0.603 1.422
4.022 0.604 1.906
4.333 0.039 1.232
4.255 0.609 1.379
4.156 0.550 1.735
4.729 -0.008 1.180
4.238 0.493 1.165
4.135 0.408 1.460
4.409 0.875 1.140
4.724 0.667 1.113
4.879 0.986 1.348
4.459 0.740 1.249
6.187 0.284 0.041
6.276 0.321 0.264
6.388 0.390 0.123
5.908 0.691 -0.021
5.847 0.731 0.040
6.157 1.500 0.220
3.265 0.359 1.938
3.379 -0.076 1.957
3.433 0.213 1.775
3.878 0.035 1.680
3.669 0.373 1.793
3.457 0.571 1.584
3.710 0.325 1.547
3.880 0.432 1.508
3.719 0.813 1.493
4.202 0.493 1.081
3.976 0.520 0.978
3.657 0.966 1.612
4.195 -0.096 1.153
4.292 0.608 1.151
4.382 0.906 1.319
4.115 0.876 1.433
4.447 0.293 0.947
4.438 0.624 0.894
4.618 0.821 0.957
4.483 1.131 0.692
3.263 0.630 1.801
3.467 0.395 1.188
3.088 0.376 1.311
3.614 0.211 0.813
3.815 0.283 0.927
3.640 0.557 1.216
3.785 0.405 1.147
4.069 0.735 1.017
3.630 0.664 0.883
4.384 0.115 0.862
3.854 0.452 1.039
3.905 0.775 0.958
4.154 0.644 0.515
4.366 0.806 0.963
3.949 0.757 0.879
4.565 1.059 0.592
4.391 1.323 0.861
3.259 0.848 1.409
3.432 0.589 1.184
3.266 0.901 0.751
3.820 0.236 0.864
3.501 0.635 0.730
3.568 0.761 0.900
3.735 0.561 0.568
4.032 0.731 0.505
3.821 0.675 0.906
4.485 0.434 0.631
4.053 1.021 0.432
4.078 1.037 0.864
4.146 0.629 0.161
4.356 0.706 0.567
4.460 1.115 0.172
4.685 0.729 0.184
4.445 1.442 0.176
4.458 1.392 0.425
3.241 0.836 1.016
3.261 0.520 0.300
3.401 0.786 0.424
3.922 0.557 0.332
3.990 0.729 0.265
3.366 0.982 0.467
3.779 0.490 0.171
3.996 0.958 0.318
4.058 1.019 0.055
4.318 0.427 -0.050
4.273 0.856 0.254
3.857 1.214 0.353
4.034 1.574 -0.229
3.339 0.584 0.182
3.740 0.687 0.011
3.997 0.685 -0.044
3.750 1.329 -0.148
3.125 0.855 -0.209
1.266 0.011 0.561
1.849 0.001 0.390
0.934 -0.169 0.760
1.204 0.387 0.122
1.592 -0.067 0.356
1.452 0.529 0.419
1.909 0.500 -0.193
1.196 -0.195 0.103
1.090 0.174 0.282
0.791 0.338 0.041
4.488 0.012 4.167
4.741 0.405 4.355
6.369 -0.018 2.986
4.088 0.011 4.132
6.203 0.313 3.077
5.961 0.076 2.995
5.932 0.344 2.641
6.000 0.285 2.534
5.830 -0.258 2.477
5.540 -0.027 2.331
5.087 0.333 2.905
5.132 -0.057 2.713
5.236 0.013 2.230
5.217 0.044 2.496
5.637 0.354 2.266
4.767 -0.213 2.550
4.889 -0.000 2.162
5.197 0.076 2.028
5.391 0.212 2.371
5.485 0.225 2.011
6.221 1.355 1.644
4.149 0.262 2.640
4.299 0.016 2.100
4.625 0.401 2.172
4.306 0.900 2.372
4.596 0.154 1.990
4.533 0.564 2.189
5.163 -0.206 2.161
5.192 0.474 1.948
5.433 0.285 1.778
6.391 1.741 0.965
3.826 -0.004 2.379
3.932 0.150 2.693
3.868 0.103 2.370
3.703 0.458 2.578
4.170 0.064 2.080
4.063 0.588 1.897
4.215 0.504 2.329
4.396 0.362 2.035
4.275 0.750 1.954
4.145 0.474 2.116
4.627 -0.104 1.680
4.869 0.301 1.870
4.743 0.675 1.738
6.288 1.694 0.942
6.367 1.382 0.971
2.121 1.812 3.593
2.074 2.173 4.004
2.174 2.108 3.848
1.766 2.133 3.757
2.308 1.509 3.657
2.139 1.792 3.552
2.190 1.754 3.809
2.341 2.431 3.889
1.914 2.614 3.613
1.744 3.016 3.959
2.647 1.286 3.556
2.441 1.790 3.385
2.575 1.705 3.409
2.189 2.267 3.242
2.354 2.481 3.466
1.989 2.613 3.670
2.092 2.784 3.682
1.825 3.435 3.643
2.763 1.194 3.122
2.693 1.371 3.127
3.012 1.708 3.243
2.942 2.048 3.219
2.431 2.535 3.232
2.759 2.573 3.417
2.408 2.654 3.816
2.218 3.041 3.593
2.227 3.258 3.946
2.028 3.302 3.759
3.072 1.062 2.681
3.100 1.570 3.271
3.011 1.991 2.929
2.934 1.981 2.987
2.929 2.361 2.985
2.978 2.501 3.584
2.574 3.126 3.202
2.358 2.891 3.580
2.496 3.275 3.816
2.339 3.587 3.468
2.632 4.273 3.441
2.301 4.558 3.922
2.112 4.923 3.747
2.247 4.806 3.754
2.008 5.137 3.924
2.119 5.572 4.230
1.930 5.887 4.283
1.809 5.877 4.024
3.732 0.604 2.634
3.788 1.119 2.701
2.454 4.411 3.447
2.339 4.531 3.467
2.766 5.155 3.346
2.473 5.447 3.531
2.371 5.571 3.963
2.362 5.480 3.635
2.216 6.237 4.179
2.253 6.427 3.919
3.936 0.606 2.472
3.823 0.985 2.453
2.841 4.975 3.241
2.612 4.925 3.599
2.476 5.359 3.721
2.424 5.756 3.880
2.441 5.923 4.008
2.205 6.371 3.755
3.876 1.014 2.155
2.873 5.201 3.601
2.941 5.272 3.511
2.802 5.704 3.539
2.874 5.999 3.831
2.331 6.192 3.834
3.190 5.701 3.136
3.161 5.542 3.398
2.944 6.306 3.645
4.748 2.742 2.199
4.130 2.915 2.491
4.517 3.720 2.023
4.258 3.827 2.116
4.811 3.044 1.718
4.464 2.956 1.918
4.841 3.118 2.038
4.505 3.584 2.300
4.215 3.683 2.096
4.202 4.075 2.413
4.879 2.387 1.574
4.770 2.777 1.988
4.808 2.927 2.009
4.784 3.210 1.904
4.768 3.466 2.083
4.719 3.709 2.030
4.610 4.376 2.034
4.585 4.518 2.049
5.482 2.654 1.491
5.550 2.580 1.364
5.053 3.091 1.607
5.137 3.370 1.724
4.972 3.549 1.975
4.793 4.033 1.775
4.826 3.910 1.688
4.593 4.584 2.261
4.517 4.722 1.923
4.450 5.087 2.085
5.314 2.864 1.174
5.534 3.038 1.540
5.679 2.953 1.256
5.064 3.574 1.538
5.157 3.376 1.743
5.422 3.909 1.414
5.114 4.373 1.918
4.983 4.345 2.020
4.671 4.482 1.768
4.897 5.059 2.106
4.556 5.728 1.896
4.909 5.575 2.152
4.566 6.134 1.980
6.303 1.976 0.772
5.748 2.020 0.982
4.777 5.729 2.028
5.240 5.879 2.127
4.859 6.431 2.149
6.267 2.201 0.679
5.328 6.285 1.566
1.780 1.595 3.511
1.713 1.802 3.528
0.734 4.513 4.234
0.689 4.711 4.338
2.080 1.487 3.371
2.073 1.629 3.285
1.811 1.710 3.666
1.899 2.012 3.480
2.450 1.185 3.270
2.273 1.596 3.453
2.420 1.651 3.338
1.798 2.237 3.451
1.818 2.410 3.446
1.720 2.428 3.385
2.877 1.171 3.050
2.409 1.317 3.269
2.721 1.520 3.057
2.555 1.911 3.296
2.250 1.939 3.022
2.430 2.324 3.528
2.251 2.418 3.185
2.046 2.692 3.748
2.702 1.227 2.994
2.954 0.956 2.736
2.466 1.296 2.981
2.823 1.683 3.237
2.393 1.801 3.087
2.538 2.222 3.175
2.368 2.458 3.202
2.381 3.028 3.415
3.193 0.703 2.973
2.859 1.323 2.623
2.847 1.068 2.441
2.973 1.339 2.788
2.712 1.568 3.050
2.740 2.376 2.747
2.472 2.246 3.042
2.531 2.400 3.263
1.175 5.773 3.834
3.210 0.599 2.269
3.113 0.758 2.544
3.275 0.817 2.695
3.303 1.161 2.258
3.195 1.322 2.572
3.096 1.823 2.479
2.991 1.953 2.821
1.936 5.146 3.486
1.588 5.337 3.578
1.566 5.682 3.647
1.776 6.234 3.807
3.609 0.675 2.541
3.598 0.763 2.133
3.456 1.346 2.717
3.726 1.274 2.336
2.161 5.452 3.497
2.437 5.672 3.472
1.813 5.935 3.820
1.842 6.201 3.954
1.812 6.388 3.968
3.730 0.868 2.166
3.795 0.993 2.324
3.356 1.497 2.166
2.425 4.936 3.072
2.465 5.099 3.198
2.662 5.369 3.164
2.132 5.836 3.355
1.987 6.319 3.700
4.088 0.623 2.160
3.954 1.139 2.136
2.489 5.218 3.459
2.456 5.800 3.478
2.244 6.214 3.439
2.215 6.319 3.405
4.456 0.861 1.757
2.533 5.851 2.958
2.804 6.033 3.289
3.794 3.212 2.063
3.837 3.709 2.053
2.714 5.910 2.847
4.080 3.323 2.261
4.363 3.711 1.768
4.116 3.955 2.278
3.721 4.018 2.106
4.494 2.868 1.696
4.622 3.291 2.060
4.241 3.397 1.759
4.289 4.044 1.911
4.411 4.059 2.254
4.082 4.623 2.420
5.062 3.127 1.364
4.496 3.146 1.458
4.601 3.543 1.732
4.627 3.814 1.893
4.491 4.142 1.573
4.359 4.314 2.112
4.471 4.738 1.721
4.341 4.593 1.781
4.877 3.371 1.303
5.135 3.800 1.722
4.707 4.080 1.875
4.540 3.995 1.662
4.771 4.105 1.726
4.690 4.490 1.874
4.370 4.707 2.152
4.520 5.150 1.804
4.953 3.634 1.356
4.937 4.199 1.493
4.638 4.253 1.722
4.523 4.472 1.403
4.905 4.863 1.495
4.545 5.124 1.802
4.354 4.956 2.031
4.618 5.568 2.190
4.197 5.687 2.129
4.425 6.225 2.365
4.981 4.401 1.620
5.068 4.886 1.539
5.091 5.305 1.509
4.536 5.427 1.548
4.673 5.777 1.891
4.299 6.085 1.705
4.258 5.866 2.167
5.100 5.498 1.737
4.663 5.940 1.888
5.065 5.904 1.848
4.903 6.473 1.559
4.868 5.880 1.701
5.097 6.147 1.823
4.994 6.237 1.153
1.689 1.709 3.610
1.745 1.714 3.889
0.447 4.449 4.776
0.768 4.375 4.739
1.722 1.461 3.442
1.650 1.509 3.307
1.468 1.955 3.613
0.880 4.415 4.074
0.381 4.168 4.531
0.368 4.916 4.498
1.913 1.250 3.114
1.814 1.268 3.095
1.967 1.433 3.325
1.903 1.700 3.442
1.537 1.910 3.475
2.333 0.896 3.035
2.396 1.304 3.149
2.119 1.257 3.161
2.148 1.660 3.360
1.881 2.212 3.181
1.607 2.164 3.361
2.640 1.000 2.669
2.435 1.031 2.582
2.629 1.377 2.782
2.266 1.820 3.167
2.078 1.811 2.946
2.234 2.196 3.228
1.965 2.436 3.367
2.546 0.641 2.896
2.651 1.233 2.491
2.460 1.109 2.805
2.306 1.221 2.931
2.649 1.846 2.894
2.621 1.755 2.702
2.068 2.154 3.047
2.123 2.275 2.809
3.017 0.783 2.547
2.934 0.964 2.328
2.922 1.277 2.386
3.071 1.605 2.314
2.885 1.782 2.811
2.810 1.932 2.796
2.393 2.158 2.925
2.451 2.365 2.666
1.539 6.127 3.807
3.171 0.516 2.203
2.791 0.545 2.182
3.206 1.230 2.555
2.953 1.039 2.063
3.334 1.650 2.023
3.134 1.495 2.395
2.848 2.138 2.401
1.768 5.610 3.456
1.349 5.683 3.766
1.260 6.425 3.639
3.102 0.550 2.218
3.447 1.193 2.273
3.196 1.349 2.260
3.164 1.037 2.159
3.218 1.463 1.973
1.789 5.493 3.564
1.713 5.630 3.292
1.579 5.835 3.209
1.812 6.267 3.692
3.753 0.560 1.920
3.340 1.011 1.984
3.591 1.077 2.022
3.603 1.389 1.724
2.018 5.847 3.164
2.131 5.802 3.010
1.887 6.371 3.296
4.004 0.966 1.979
3.923 1.203 1.676
3.582 1.224 2.069
2.595 5.818 3.173
2.355 6.227 3.166
2.155 6.530 3.297
4.006 0.884 1.835
4.043 1.466 1.462
2.790 5.590 3.011
2.721 5.903 3.029
4.442 0.866 1.625
3.931 3.377 2.178
3.908 3.339 1.822
3.455 3.806 1.876
2.667 6.430 2.735
4.078 3.451 1.718
3.800 3.668 1.612
3.794 3.953 1.827
3.906 3.693 2.181
3.835 4.201 1.972
4.191 3.326 1.358
3.973 3.517 1.759
4.099 3.897 1.864
4.194 4.136 1.592
3.767 4.366 2.006
4.001 4.803 1.802
4.197 3.635 1.440
4.446 3.841 1.339
4.188 3.901 1.426
4.135 4.155 1.442
4.007 4.499 1.984
3.927 4.735 1.621
3.988 5.165 1.951
4.782 3.571 1.487
4.725 3.847 1.322
4.686 4.078 1.378
4.394 4.493 1.637
4.375 4.315 1.702
4.073 5.061 1.634
4.387 4.854 2.036
3.860 5.440 2.071
4.759 4.038 1.149
4.934 4.066 1.470
4.820 4.589 1.485
4.269 4.626 1.210
4.714 4.866 1.406
4.256 5.450 1.639
4.189 5.239 1.415
4.300 5.915 1.845
4.197 5.733 1.966
4.993 4.741 1.296
4.801 4.976 1.452
4.397 4.978 1.452
4.760 5.163 1.479
4.378 5.666 1.445
4.684 5.853 1.878
4.286 6.197 1.422
4.804 5.456 1.384
4.976 5.332 1.581
4.768 5.718 1.411
4.871 5.896 1.455
4.666 6.357 1.802
4.790 5.496 1.372
4.949 5.839 1.531
4.679 6.036 1.264
5.017 5.992 1.066
5.329 6.324 1.183
1.426 1.284 3.484
1.712 1.572 3.178
1.411 1.814 3.384
0.586 4.423 4.120
0.615 4.165 4.192
0.526 4.698 4.257
1.620 1.162 3.146
1.742 1.369 3.216
1.517 1.709 3.103
1.223 1.742 3.424
0.707 4.167 4.032
0.334 4.122 4.029
0.386 4.501 4.045
0.290 4.451 4.065
1.647 0.655 2.650
1.632 1.306 2.853
1.958 1.702 2.824
1.442 1.487 3.216
1.444 1.816 3.173
1.376 2.308 3.105
0.543 4.193 3.886
2.021 0.876 2.608
1.858 0.960 2.867
2.082 1.163 2.578
1.683 1.468 3.084
1.646 1.761 2.933
1.862 1.835 2.744
1.567 2.025 2.891
1.956 0.837 2.478
2.311 0.731 2.250
2.316 1.325 2.674
1.990 1.112 2.844
2.112 1.508 2.510
1.990 1.793 2.644
1.869 2.349 2.782
1.838 2.649 3.038
2.221 0.652 2.190
2.566 0.910 2.469
2.654 1.020 2.284
2.589 1.493 2.536
2.410 1.449 2.506
2.074 1.681 2.412
2.140 1.922 2.520
2.289 2.366 2.420
2.735 0.847 2.011
2.428 0.821 2.498
2.664 0.822 2.422
2.923 1.405 2.319
2.703 1.730 2.336
2.535 1.646 2.559
2.218 2.095 2.365
1.228 6.163 3.577
2.802 0.523 2.013
3.061 0.641 1.947
2.995 1.095 2.307
3.189 0.986 1.751
3.146 1.276 2.274
2.965 1.533 2.099
2.657 1.892 2.350
1.620 6.126 3.498
1.345 6.054 3.739
3.390 0.833 1.846
3.031 1.145 2.000
3.084 1.196 1.788
3.329 1.242 1.706
3.355 1.768 1.868
1.784 5.845 2.949
1.502 6.075 3.454
1.671 6.520 3.073
3.617 0.825 1.563
3.051 1.037 1.726
3.211 1.155 1.762
3.711 1.713 1.901
3.579 1.744 2.070
2.094 5.564 2.829
1.918 5.819 3.272
2.018 6.054 3.039
3.495 0.963 1.584
3.509 1.319 1.602
3.488 1.534 1.589
3.476 1.549 1.395
2.337 5.852 2.560
2.123 5.869 3.145
1.876 5.972 2.792
3.597 1.070 1.263
3.943 1.276 1.596
3.430 1.568 1.542
3.183 3.843 2.132
2.752 5.978 2.927
2.286 6.254 2.713
3.937 0.866 1.394
4.089 1.512 1.402
3.648 3.443 1.856
3.435 3.456 1.950
3.578 3.917 2.171
3.192 4.256 1.910
2.825 5.938 2.489
4.556 1.429 1.394
3.831 3.214 1.312
3.853 3.396 1.722
3.612 3.992 1.600
3.520 3.753 1.602
3.569 4.287 1.822
3.219 4.721 1.868
4.197 3.226 1.379
3.969 3.537 1.288
3.950 3.699 1.240
3.577 4.339 1.794
3.722 4.569 1.575
3.600 4.462 1.671
3.785 5.082 1.757
4.510 3.700 1.155
4.502 3.953 1.305
4.104 3.867 1.482
3.842 4.386 1.293
3.819 4.757 1.380
3.902 4.861 1.456
3.949 5.155 1.647
3.627 4.981 1.917
4.235 3.897 1.196
4.446 3.885 1.411
4.173 4.229 1.392
4.245 4.805 1.144
4.159 4.734 1.441
3.741 5.256 1.344
3.778 5.157 1.847
4.629 4.432 0.995
4.190 4.460 1.032
4.413 4.572 1.371
4.457 4.969 1.451
4.307 5.509 1.371
4.119 5.678 1.429
4.079 5.759 1.696
3.883 5.875 1.451
4.533 4.470 1.126
4.620 4.761 0.837
4.664 5.269 1.050
4.654 5.364 1.263
4.301 5.839 1.104
4.516 5.640 1.332
4.441 5.905 1.533
4.629 5.169 0.865
4.899 5.670 1.278
4.785 5.472 1.113
4.505 6.116 1.243
4.672 6.368 1.460
5.193 5.088 0.970
4.701 5.676 1.162
4.509 5.585 0.829
4.636 5.819 1.127
4.819 5.463 0.794
5.111 5.843 1.134
5.180 6.399 0.913
5.727 3.454 -0.091
5.310 6.134 0.985
1.570 0.934 2.922
1.210 1.231 3.045
1.372 1.839 3.147
1.554 1.864 3.222
0.299 3.820 3.826
0.448 4.401 3.815
0.261 4.275 4.071
0.505 4.642 4.216
1.571 0.977 2.608
1.661 0.991 2.647
1.476 1.198 2.796
1.147 1.372 3.240
0.911 1.651 2.974
0.682 3.836 3.547
0.408 4.019 3.797
0.107 4.332 3.441
0.167 4.526 3.893
0.188 4.517 4.016
1.843 0.463 2.590
1.859 1.135 2.748
1.726 1.199 2.731
1.234 1.574 2.701
1.629 1.927 2.847
1.113 2.191 2.869
0.707 4.064 3.207
0.708 4.224 3.743
0.388 4.736 3.835
1.621 0.554 2.457
1.708 0.934 2.078
1.979 1.248 2.351
2.102 1.514 2.774
1.455 1.420 2.492
1.813 1.751 2.780
1.430 2.012 2.583
2.196 0.694 2.625
2.422 0.825 1.925
2.303 1.381 2.142
2.183 1.295 2.147
1.808 1.840 2.477
1.564 1.999 2.612
1.657 2.065 2.390
2.317 0.642 2.462
2.634 1.084 2.015
2.347 1.186 2.243
2.456 1.250 2.335
2.408 1.734 2.305
2.019 2.013 2.497
2.750 0.946 2.060
2.612 1.223 2.030
2.628 1.356 2.078
2.517 1.493 2.243
2.635 1.463 1.938
2.654 1.808 2.223
2.732 0.347 1.804
2.681 0.671 1.861
2.389 1.291 2.108
2.578 0.979 1.921
2.846 1.257 1.968
2.856 1.520 2.157
0.971 6.123 3.440
3.265 0.703 1.883
3.151 1.045 1.963
2.987 0.995 1.601
2.917 1.141 1.730
3.194 1.394 1.441
1.686 6.070 3.230
3.089 0.748 1.280
3.318 1.315 1.548
2.904 1.259 1.681
3.567 1.376 1.283
1.945 5.734 2.693
1.659 6.019 2.606
3.727 0.794 1.510
3.334 1.352 1.241
3.560 1.526 1.439
3.290 1.673 1.193
2.279 5.846 2.683
1.702 6.475 2.704
3.587 0.909 1.159
3.612 1.331 1.397
3.583 1.761 1.449
3.538 1.970 0.938
2.848 3.374 1.734
3.201 3.589 2.085
2.865 3.972 1.712
2.396 6.227 2.287
4.094 1.025 1.038
3.757 1.442 0.940
3.515 1.595 0.956
3.343 3.364 1.580
3.429 3.396 1.819
3.159 3.683 1.655
2.918 4.374 1.887
2.865 4.598 1.710
2.560 6.231 2.501
4.088 1.550 0.930
3.999 1.462 0.883
3.813 3.388 1.147
3.441 3.621 1.573
3.620 4.283 1.551
3.563 4.193 1.842
3.449 4.627 1.684
3.442 4.909 1.658
4.181 1.247 0.934
3.966 3.835 1.410
3.728 3.901 1.034
3.803 3.982 1.154
3.481 4.382 1.279
3.389 4.738 1.419
3.518 4.771 1.345
4.275 3.598 1.335
4.142 4.108 1.377
3.846 4.152 1.109
3.928 4.714 1.034
3.842 4.477 1.282
3.582 5.164 1.629
4.181 3.953 1.081
3.994 4.576 0.940
4.083 4.711 1.431
3.747 5.039 1.244
3.638 4.945 1.408
3.892 5.373 1.642
4.546 4.659 0.818
4.340 4.614 1.065
4.149 4.932 0.970
4.320 5.145 0.962
4.060 5.505 0.942
4.136 5.550 1.237
4.368 4.569 0.995
4.594 5.032 0.646
4.142 5.553 0.736
4.103 5.599 1.308
3.821 6.037 0.915
4.104 6.024 1.050
4.826 4.942 0.922
4.514 5.402 1.041
4.311 5.950 0.881
4.074 5.963 0.733
4.099 6.175 1.190
4.731 5.790 0.817
4.843 5.639 0.723
4.588 6.196 0.597
5.006 5.969 0.736
4.655 5.798 0.781
4.560 6.333 0.915
4.874 6.123 0.604
4.949 6.335 0.368
1.646 0.633 2.890
1.147 1.053 3.051
1.233 1.135 2.839
0.992 1.795 2.848
1.188 1.580 3.033
0.690 3.572 3.409
0.341 3.724 3.783
0.137 4.263 3.540
0.528 4.272 3.563
0.098 4.731 3.801
1.163 0.763 2.728
1.501 0.952 2.595
1.373 1.332 2.633
1.308 1.746 2.450
0.667 1.871 2.859
0.549 3.460 3.385
0.501 4.073 3.540
-0.060 3.976 3.702
0.084 4.196 3.336
1.868 0.444 2.017
1.312 0.754 2.558
1.410 1.120 2.426
1.328 1.556 2.559
1.360 1.728 2.345
1.197 1.850 2.806
0.843 3.915 3.393
0.247 4.104 3.432
0.520 4.443 3.490
0.030 4.388 3.409
-0.033 4.783 3.517
1.704 0.892 2.153
1.972 0.838 2.210
1.792 1.108 2.438
1.755 1.217 2.214
1.615 1.556 2.059
1.433 1.585 2.274
1.427 1.983 2.428
0.489 3.759 2.817
0.808 4.265 3.108
0.480 4.645 3.450
0.615 4.717 3.092
2.073 0.965 2.094
1.850 0.989 2.014
2.179 1.069 2.180
1.916 1.324 2.353
1.591 1.513 2.011
1.915 2.085 2.395
0.716 3.962 3.011
0.792 4.151 2.784
0.823 4.714 3.149
1.756 0.739 2.226
2.341 1.202 1.876
2.304 1.531 1.656
1.838 1.491 1.823
2.045 1.600 1.824
2.409 0.903 2.044
2.252 1.111 1.480
2.329 1.265 1.852
2.286 1.398 1.630
2.829 0.735 1.335
2.692 1.360 1.866
2.930 1.222 1.572
2.816 1.754 1.876
3.071 0.684 1.282
2.775 0.866 1.696
2.501 0.982 1.802
2.962 1.143 1.327
3.007 0.580 1.261
3.188 1.288 1.139
3.053 1.530 1.392
3.141 1.235 1.045
2.588 3.436 1.864
2.263 3.876 2.028
2.269 4.182 2.235
1.718 5.991 2.742
3.384 0.850 1.058
3.023 1.165 1.129
3.065 1.383 1.226
3.595 1.483 1.160
2.541 3.653 1.869
2.845 3.475 2.003
2.584 3.906 1.769
2.458 4.153 1.850
1.877 5.807 2.232
1.513 6.544 2.461
3.789 0.932 0.765
3.159 1.284 0.944
3.140 1.522 1.295
3.517 1.623 1.101
3.068 3.007 1.343
2.832 3.710 1.635
2.649 3.867 1.302
2.680 3.783 1.435
2.633 4.167 1.704
2.168 6.262 2.428
3.615 1.289 0.739
3.816 1.477 0.952
3.608 1.520 0.709
3.465 3.160 1.109
3.395 3.772 1.152
2.874 3.891 1.413
2.776 4.378 1.238
3.001 4.389 1.803
2.326 6.062 2.401
4.144 1.195 0.626
3.620 1.423 0.870
3.566 3.402 1.185
3.430 3.820 1.062
3.463 3.797 1.423
3.243 4.269 1.311
3.340 4.505 1.316
3.067 4.670 1.216
4.063 1.338 0.310
4.102 1.650 0.813
3.602 3.349 1.102
3.766 3.674 0.944
3.473 3.862 1.182
3.518 4.264 1.327
3.589 4.924 1.007
3.312 4.705 1.407
4.630 1.507 0.435
4.252 1.781 0.420
3.697 3.839 0.950
3.509 4.522 1.247
3.639 4.483 0.835
3.573 4.622 1.391
3.351 5.303 1.459
4.582 1.529 -0.020
4.473 1.694 0.030
4.084 4.519 0.577
3.612 4.501 0.902
3.618 4.649 1.199
3.464 4.893 1.056
3.949 4.456 1.036
3.767 4.889 1.064
3.825 5.245 0.670
3.884 5.767 0.965
4.203 4.872 0.761
4.260 5.486 0.789
4.285 5.713 0.952
3.776 5.861 0.769
4.578 5.412 0.358
4.231 5.735 0.621
3.992 5.792 0.975
4.262 6.299 0.758
4.343 5.535 0.306
4.221 5.827 0.435
4.094 5.926 0.793
4.713 5.720 0.393
4.470 5.712 0.444
4.399 6.048 0.392
4.723 6.057 0.280
4.764 6.246 0.031
1.061 0.950 2.664
1.225 1.332 2.584
1.019 1.060 2.447
0.791 1.787 2.742
0.949 1.811 2.958
0.326 3.751 3.382
0.165 3.918 3.332
0.197 4.204 3.586
0.110 4.550 3.513
1.279 0.577 2.233
0.990 1.301 2.451
0.752 1.131 2.622
0.737 1.497 2.348
0.597 2.151 2.365
0.423 3.450 2.911
-0.205 3.749 3.407
1.152 1.011 2.332
1.328 1.285 2.207
1.398 1.382 2.340
0.854 1.446 2.253
0.823 1.780 2.206
0.424 3.786 2.975
0.330 3.685 3.053
0.233 4.292 3.313
0.434 4.039 3.135
-0.068 4.876 3.384
-0.160 5.110 3.058
1.728 1.280 1.712
1.380 1.440 1.923
1.589 1.431 1.860
1.092 2.013 1.941
0.710 3.738 2.753
0.794 4.166 2.712
0.632 4.050 2.626
0.212 4.366 2.690
0.258 4.832 2.945
0.484 4.786 3.251
1.882 1.410 2.099
1.549 1.580 1.817
1.419 1.614 1.688
0.881 3.554 2.393
0.683 4.313 2.840
0.901 4.433 2.656
0.639 4.315 2.875
0.819 4.843 2.999
1.145 3.813 2.230
1.032 3.962 2.428
0.750 4.148 2.366
0.736 4.608 2.548
1.574 3.958 1.987
1.067 4.210 2.533
1.144 4.554 2.377
1.322 4.318 2.661
1.963 3.522 1.979
1.732 3.937 1.851
1.616 4.183 1.954
1.265 4.511 2.090
2.265 3.538 1.560
1.708 3.853 2.068
2.093 4.160 1.939
1.985 4.183 1.885
2.179 3.401 1.305
2.094 3.857 1.557
1.881 3.734 1.845
1.884 3.917 1.987
1.830 4.438 1.693
3.063 0.954 1.027
2.891 1.182 0.945
2.865 2.997 1.225
2.787 3.532 1.653
2.588 3.598 1.205
2.417 3.702 1.445
2.558 4.256 1.789
2.368 4.429 1.613
3.270 1.339 0.883
3.350 1.229 0.694
3.050 3.315 1.314
3.026 3.418 1.499
2.514 4.001 1.067
2.412 4.079 1.278
2.492 4.527 1.439
2.138 4.755 1.400
2.093 6.168 2.123
3.767 1.443 0.587
3.507 1.265 0.914
3.348 3.440 1.114
3.206 3.670 1.241
2.763 3.890 1.361
2.804 4.138 1.080
2.585 4.429 1.559
2.352 6.455 1.705
3.652 1.604 0.262
3.914 1.855 0.503
3.585 2.060 0.406
3.407 3.336 1.004
3.463 4.053 1.151
3.298 3.975 1.150
2.943 4.223 1.313
3.001 4.278 1.028
3.930 1.384 0.285
3.780 1.751 0.591
3.889 2.219 0.352
3.771 2.345 -0.009
3.355 3.894 1.029
3.590 4.103 0.952
3.348 4.504 0.933
3.081 4.505 1.109
3.964 1.554 -0.138
4.384 1.628 0.392
4.303 2.020 0.076
4.124 1.982 -0.003
3.400 4.192 1.023
3.181 4.287 0.590
3.587 4.642 1.141
4.325 2.167 0.054
4.089 1.891 0.256
4.524 5.998 0.226
4.353 6.191 0.153
4.612 6.041 0.001
4.622 6.514 0.239
4.712 6.166 -0.222
1.399 1.041 1.980
0.912 1.280 2.496
0.920 1.270 2.335
1.091 1.551 2.383
1.038 1.904 2.571
0.449 3.625 3.317
0.332 4.025 3.432
0.804 0.889 2.172
0.914 1.251 1.997
1.004 1.223 1.973
0.931 1.616 2.421
0.385 1.881 2.137
-0.186 3.646 2.874
1.391 1.036 1.760
0.738 1.194 1.862
1.089 1.954 2.275
0.512 3.313 2.678
0.159 3.920 2.551
0.312 4.362 2.515
-0.107 4.231 2.799
0.646 3.458 2.314
0.530 3.774 2.424
0.444 4.190 2.778
0.032 4.469 2.536
0.091 4.781 2.913
-0.026 4.695 2.615
0.624 4.040 2.636
0.894 3.893 2.273
0.326 4.056 2.687
0.724 4.318 2.825
0.570 4.992 2.584
0.233 5.311 2.622
1.146 3.705 2.141
1.044 4.103 1.970
0.859 4.258 2.103
0.523 4.157 2.100
0.460 4.605 2.532
0.590 4.932 2.289
1.574 3.613 1.814
1.040 3.628 2.135
1.200 3.929 2.114
0.886 4.062 2.116
0.938 4.507 1.963
0.958 4.823 2.452
1.888 3.226 1.626
1.448 3.710 1.719
1.513 3.994 2.025
1.511 4.130 1.848
1.374 4.342 1.835
1.244 4.793 1.797
1.940 3.304 1.344
2.082 3.214 1.326
1.707 3.688 1.550
1.970 3.899 1.796
1.894 4.255 1.704
1.580 4.712 1.697
2.253 3.320 1.245
2.201 3.256 1.147
1.834 3.696 1.657
2.197 3.821 1.709
1.926 4.334 1.752
2.066 4.655 1.626
2.718 2.926 1.043
2.665 3.266 1.099
2.164 3.934 1.310
2.498 3.892 1.521
2.283 4.076 1.572
1.894 4.688 1.312
2.757 3.488 0.733
2.839 3.382 0.930
2.731 4.104 0.858
2.195 4.289 1.391
2.352 4.427 1.526
2.022 4.882 1.353
3.463 1.074 0.243
3.162 3.225 0.632
2.745 3.579 0.789
2.567 3.729 1.054
2.556 4.243 1.157
2.784 4.383 0.829
2.208 6.311 1.505
3.483 1.310 0.394
3.813 1.831 0.440
3.947 2.105 -0.026
2.805 3.543 0.868
2.771 3.999 0.951
3.038 4.311 1.057
3.772 1.637 0.001
3.491 1.955 0.051
3.378 2.019 0.352
3.592 2.347 0.220
3.908 2.331 -0.019
0.737 0.932 1.753
1.113 1.012 2.351
0.893 1.154 1.946
0.711 1.468 2.112
0.595 1.894 2.340
-0.129 3.818 3.080
0.482 1.190 1.928
0.661 1.650 1.743
0.405 1.767 2.266
0.449 1.924 1.845
0.766 1.551 2.031
0.198 3.657 2.396
0.405 3.675 2.028
0.381 3.993 2.166
0.142 4.039 2.518
0.073 4.711 2.338
-0.024 4.834 2.525
0.581 3.533 2.261
0.792 3.981 2.172
0.266 3.775 2.095
0.366 4.512 2.236
0.061 4.404 2.188
0.276 4.930 2.673
0.058 4.834 2.489
0.321 5.564 2.777
0.759 3.663 1.688
0.590 4.183 1.739
0.602 4.005 1.805
0.491 4.395 2.234
0.457 4.748 2.136
0.185 5.134 2.510
0.377 5.377 2.618
1.547 2.973 1.544
1.388 3.477 1.896
1.091 3.728 1.857
0.866 3.786 1.811
1.164 4.108 2.011
0.733 4.552 1.985
0.494 5.066 1.815
0.814 5.316 2.335
1.293 3.337 1.557
1.765 3.554 1.727
1.337 3.526 1.729
1.532 3.768 1.636
1.121 3.870 1.702
1.353 4.690 1.541
1.314 4.413 1.800
0.814 4.702 2.162
2.099 3.024 1.230
2.044 3.286 1.366
1.987 3.490 1.019
1.697 4.003 1.421
1.303 3.736 1.649
1.687 4.175 1.516
1.203 4.615 1.866
2.457 3.009 1.065
1.900 3.050 1.048
1.827 3.550 0.965
1.636 3.593 1.024
2.030 4.017 1.048
1.506 3.903 1.467
1.647 4.605 1.304
1.480 4.761 1.648
2.668 2.973 1.042
2.357 3.069 0.772
2.118 3.255 1.129
2.073 3.947 0.722
2.162 4.136 1.264
2.242 4.047 1.250
2.156 4.211 1.176
2.877 2.948 0.732
2.617 3.479 0.873
2.729 3.628 0.964
2.388 3.726 0.618
2.255 3.805 1.201
2.319 4.355 1.156
2.835 3.702 0.560
2.859 3.542 0.627
2.507 3.864 0.697
2.656 4.105 0.675
2.540 4.096 0.579
2.360 6.296 1.100
2.290 6.462 1.257
0.575 1.008 1.645
0.836 1.231 2.145
0.615 1.790 1.888
0.551 1.997 1.828
0.245 1.404 1.937
0.157 1.390 1.629
0.046 2.131 1.940
-0.176 3.951 2.272
-0.181 4.399 2.407
0.167 3.769 2.122
0.524 4.029 2.231
-0.031 4.121 2.301
0.152 4.614 2.189
-0.216 4.947 2.430
0.616 3.564 1.400
0.755 4.130 1.609
0.523 4.429 1.783
0.197 4.553 1.958
0.422 4.481 1.866
0.380 4.760 1.807
0.177 5.209 2.101
-0.069 5.776 2.123
1.341 3.240 1.207
0.926 3.509 1.326
1.182 3.932 1.567
0.715 4.231 1.621
0.719 4.323 1.703
0.537 4.301 1.616
0.587 4.753 1.799
0.647 5.113 1.994
0.481 5.308 2.090
1.663 2.747 0.880
1.654 3.006 1.162
1.595 3.293 1.241
1.032 3.744 1.201
0.965 4.092 1.551
1.146 3.949 1.162
1.135 4.626 1.458
0.831 4.577 1.760
0.561 5.105 1.467
1.663 2.972 0.720
1.514 2.726 1.008
1.878 2.998 0.959
1.294 3.718 0.830
1.698 3.830 0.858
1.593 4.069 1.359
1.159 4.015 1.231
1.292 4.445 1.442
1.775 2.883 0.739
1.991 3.066 0.562
2.065 3.610 0.566
2.049 3.878 1.078
1.654 3.641 0.973
1.805 4.025 0.842
1.576 4.374 1.238
2.518 3.042 0.550
2.071 3.494 0.818
2.109 3.452 0.990
2.096 3.558 0.724
2.030 3.813 0.815
1.881 4.342 1.103
2.177 3.263 0.626
2.116 3.370 0.413
2.036 3.624 0.836
2.004 4.058 0.614
2.051 4.313 0.874
2.815 3.515 0.165
2.612 3.813 0.536
2.345 3.837 0.769
1.867 5.953 1.207
2.275 6.266 0.926
0.625 1.470 1.605
0.398 1.852 1.662
0.165 1.775 1.986
0.014 1.452 1.378
0.109 1.789 1.521
0.406 4.213 1.536
0.281 4.302 1.782
0.287 3.712 1.499
0.503 3.935 1.640
0.225 4.514 1.432
0.282 4.655 1.721
0.211 4.980 2.085
-0.010 5.296 1.677
1.041 3.093 1.285
1.016 3.328 1.333
0.863 3.894 1.413
0.934 3.808 1.128
0.706 4.096 1.438
0.342 4.831 1.486
0.690 4.663 1.644
0.544 5.280 1.835
0.235 5.185 1.743
0.248 5.808 1.911
1.401 2.643 1.036
1.419 2.946 0.841
1.272 2.861 0.959
0.882 3.464 0.924
1.126 3.565 1.158
0.907 3.718 1.294
1.007 4.369 0.974
0.934 4.659 1.025
0.856 4.916 1.125
0.440 4.809 1.396
1.945 2.624 0.537
1.546 2.901 0.770
1.652 3.028 0.820
1.470 3.396 0.736
1.232 3.605 0.688
1.058 3.793 0.842
1.452 3.748 0.958
1.246 4.513 1.248
2.263 2.331 0.313
1.721 2.683 0.120
1.895 2.803 0.432
1.483 3.141 0.620
1.866 3.252 0.527
1.367 3.513 0.669
1.247 4.095 1.042
1.411 3.903 1.073
2.008 2.522 -0.047
1.867 2.679 0.413
2.031 3.261 0.606
1.801 3.554 0.658
1.825 3.934 0.829
1.769 4.029 0.819
2.400 2.896 0.313
1.990 3.131 0.184
2.325 3.314 0.265
2.233 3.604 0.595
2.587 3.254 -0.028
2.255 3.936 -0.006
1.876 6.305 0.521
1.817 6.317 0.664
2.592 5.809 0.410
2.190 5.961 0.200
2.455 6.428 0.387
0.264 1.726 1.622
0.154 1.788 1.704
1.421 0.478 0.183
0.097 4.414 1.375
-0.012 4.282 1.476
-0.206 4.814 1.574
1.547 0.446 0.291
1.363 0.954 0.296
0.422 4.539 1.473
0.417 4.392 0.997
0.190 4.913 1.106
0.198 5.091 1.366
-0.190 5.134 1.360
1.846 0.683 0.193
1.520 1.154 0.280
1.855 1.629 0.458
1.327 1.623 0.452
1.255 2.137 0.387
1.374 2.560 0.494
1.259 2.338 0.797
1.302 2.787 0.480
1.366 3.434 0.736
1.065 3.351 0.704
0.959 3.781 0.560
0.939 4.173 0.880
2.024 1.509 -0.195
1.838 1.874 -0.004
1.780 2.397 0.257
1.491 2.724 0.438
1.409 2.648 0.455
1.572 2.787 0.594
1.441 3.276 0.807
1.291 3.398 0.657
1.173 3.997 0.634
0.879 3.969 0.818
2.113 2.114 0.274
1.549 2.658 -0.111
1.912 2.607 0.094
1.632 2.952 0.242
1.590 3.375 0.630
1.487 3.609 0.366
1.291 4.091 0.436
1.766 2.978 0.085
1.976 3.162 0.329
2.052 3.182 -0.054
1.837 3.292 0.467
1.454 3.743 0.125
1.786 3.246 0.037
1.837 3.376 0.106
1.559 5.711 0.422
1.781 6.132 0.303
2.272 5.735 0.444
1.908 6.298 0.153
2.201 6.107 0.306
2.334 6.117 -0.141
0.717 0.502 0.383
1.282 0.487 -0.105
1.173 0.819 0.327
1.118 1.181 0.450
0.993 0.460 0.321
1.183 1.080 0.394
1.316 0.979 0.419
1.179 1.393 -0.239
1.255 1.620 0.110
1.254 1.637 0.244
1.270 2.254 0.293
1.319 1.334 0.139
1.493 1.670 0.163
1.448 2.384 0.328
1.416 2.154 0.131
1.050 2.397 0.477
1.027 2.912 0.632
1.433 2.255 0.212
1.494 2.849 -0.103
1.369 3.185 0.374
1.000 3.086 0.516
1.584 3.097 0.263
1.505 3.183 0.009
1.556 3.414 0.358
1.848 3.603 0.274
1.400 5.549 0.408
1.363 6.198 0.253
1.578 5.725 -0.142
1.522 5.830 0.074
1.306 6.480 0.016
1.925 6.023 0.276
0.562 0.320 0.112
0.429 0.454 -0.084
0.314 0.866 -0.035
0.850 0.716 0.275
0.829 0.599 0.073
0.938 0.727 0.377
0.629 1.471 0.244
1.046 2.066 -0.188
1.049 2.473 -0.093
1.434 5.332 -0.100
1.163 6.083 -0.100
1.006 6.375 0.283
1.311 6.357 0.150
0.204 0.250 -0.021
0.089 0.498 -0.258
0.300 0.344 0.147
0.226 0.663 0.187
0.612 0.682 -0.004
0.073 -0.109 0.147
2.708 1.804 5.738
2.937 1.994 5.744
2.945 2.410 6.097
2.607 2.639 6.027
2.762 2.965 5.990
3.220 0.288 4.956
3.672 0.336 4.819
3.155 2.541 5.796
2.627 2.482 5.848
2.773 3.101 5.928
3.800 0.375 5.248
3.460 0.608 4.864
4.042 0.882 4.724
2.288 4.970 6.497
3.906 0.213 4.838
3.646 0.584 5.041
3.830 0.737 4.790
4.046 0.656 4.864
2.340 5.099 5.913
2.649 5.512 6.064
2.241 5.819 6.167
4.375 0.299 4.506
4.227 0.398 4.447
3.848 0.723 4.493
3.985 0.951 4.718
3.990 0.940 4.686
2.700 5.692 6.095
2.662 6.062 6.000
4.669 0.134 4.529
4.565 0.478 4.339
4.452 0.955 4.551
4.542 0.673 4.534
4.438 1.115 4.782
4.373 1.521 4.455
3.001 5.857 5.709
4.491 0.491 4.359
4.377 0.607 4.411
4.285 0.774 4.622
4.757 1.248 4.476
4.621 1.413 4.264
4.201 1.583 4.653
4.141 1.835 4.369
4.609 0.392 4.116
4.538 0.680 4.324
4.505 0.809 4.103
5.150 1.137 4.367
5.042 1.699 4.051
4.851 1.869 4.350
4.389 2.199 4.437
4.405 2.231 4.249
5.228 1.198 4.246
4.748 1.265 4.431
4.905 1.359 3.963
4.863 1.309 3.908
5.207 2.007 4.460
4.847 2.137 4.500
4.874 2.199 4.263
4.799 2.658 4.487
4.910 1.263 4.080
5.228 1.156 3.818
5.302 1.762 3.751
5.233 1.892 3.952
4.902 2.453 4.193
4.932 2.309 4.156
4.807 2.944 4.057
5.152 1.410 4.180
5.375 1.310 4.005
5.204 1.632 3.947
5.400 2.316 4.042
5.541 2.145 3.709
5.147 2.366 3.822
5.359 2.822 4.223
4.480 4.884 4.538
4.554 4.925 4.614
4.214 5.619 4.842
5.750 1.809 3.648
5.483 2.099 3.901
5.550 2.260 4.023
5.425 2.714 3.973
5.116 2.504 4.006
5.319 2.740 3.878
4.783 4.904 4.492
4.429 5.177 4.785
4.768 5.352 4.614
4.306 5.676 4.594
4.164 5.773 4.788
5.585 2.015 3.496
5.565 2.791 3.847
5.497 2.680 3.809
5.159 4.591 4.517
4.746 4.851 4.445
4.681 5.241 4.338
4.480 5.607 4.484
4.852 5.592 4.691
4.422 5.853 4.580
5.445 4.769 4.443
5.212 4.998 4.065
5.000 5.211 4.349
5.180 5.341 4.453
5.012 5.536 4.590
4.770 5.941 4.706
5.489 4.622 4.185
5.392 5.260 3.943
5.200 5.397 4.191
5.103 5.798 4.058
5.254 5.818 4.609
5.014 6.134 4.292
5.683 4.625 3.604
5.929 5.223 3.936
5.345 5.036 3.713
5.368 5.626 3.910
5.538 5.669 4.181
5.063 6.143 3.988
6.124 4.729 3.596
5.802 4.727 3.557
5.676 5.228 3.449
5.699 5.642 3.603
5.880 5.480 4.157
5.406 6.079 4.098
6.162 4.617 3.169
6.238 5.205 3.273
5.824 5.069 3.308
5.761 5.323 3.807
6.012 5.779 3.854
6.237 5.862 3.787
2.618 1.888 5.845
2.871 2.255 5.498
2.646 2.250 5.557
2.615 2.511 6.031
2.291 2.903 5.843
3.235 0.244 5.345
2.747 1.821 5.683
2.481 2.391 5.243
2.594 2.406 5.697
2.127 2.541 5.875
2.279 3.210 6.006
1.490 4.818 6.279
3.533 0.294 5.016
3.440 0.277 4.604
2.835 2.019 5.483
2.878 2.410 5.378
2.730 2.460 5.502
2.385 2.636 5.400
2.264 3.314 5.717
2.100 5.148 6.034
1.625 5.063 6.479
3.613 0.339 4.663
3.280 0.233 4.958
3.550 0.645 4.541
2.729 2.428 5.158
2.748 2.474 5.215
2.755 2.811 5.560
2.488 3.059 5.536
2.309 5.027 6.066
2.341 5.568 6.019
2.012 5.844 5.859
3.553 0.064 4.470
3.974 0.627 4.885
3.835 0.654 4.817
3.818 0.585 4.650
3.355 3.089 5.169
3.124 3.375 5.225
2.870 3.392 5.101
2.013 5.631 6.124
2.222 5.860 6.233
3.808 0.176 4.598
3.903 0.297 4.500
3.596 0.577 4.762
4.034 1.037 4.558
2.403 5.651 5.578
4.142 0.295 4.473
4.197 0.792 4.551
4.155 0.663 4.433
4.101 0.761 4.262
4.088 1.299 4.285
4.286 0.681 3.817
4.226 0.951 4.052
4.519 0.686 4.527
4.561 0.944 3.943
4.600 1.536 4.339
4.496 1.615 4.517
4.575 0.714 3.944
4.532 1.322 3.879
4.974 1.191 3.937
4.743 1.669 3.782
4.610 1.516 3.873
4.704 2.151 4.376
4.912 1.371 3.795
5.046 1.473 3.624
5.104 1.508 3.722
4.974 1.660 4.008
4.442 2.337 3.758
4.833 2.294 3.879
3.622 4.683 4.898
3.951 4.440 5.023
3.916 4.917 4.722
4.655 1.382 3.563
5.357 1.467 3.385
5.257 1.671 3.620
5.109 2.238 4.040
4.813 1.965 3.651
4.796 2.725 3.783
4.950 2.834 4.278
4.188 4.475 4.539
4.216 4.542 4.609
3.661 5.162 5.013
4.018 5.212 4.582
5.094 1.208 3.819
5.152 1.676 3.383
5.284 1.526 3.801
5.173 2.170 3.832
5.259 2.064 3.848
5.023 2.379 4.019
4.915 2.623 3.849
4.233 4.734 4.235
4.392 4.743 4.238
3.990 5.133 4.507
4.328 5.483 4.764
3.771 5.946 4.806
5.444 1.492 3.729
5.704 2.167 3.417
5.270 2.383 3.367
5.476 2.352 3.885
5.411 2.520 3.901
5.392 3.196 3.564
4.521 4.889 4.065
4.163 4.994 4.579
4.076 5.537 4.483
4.108 5.696 4.702
3.928 5.924 4.409
5.429 1.811 3.061
5.488 2.025 3.534
5.413 2.528 3.643
5.244 2.974 3.683
5.132 2.806 3.723
4.876 4.918 3.815
4.938 4.881 4.052
4.755 5.120 3.998
4.423 5.429 4.579
4.549 5.940 4.376
4.613 5.886 4.473
5.961 2.384 3.188
6.084 2.490 3.060
5.867 2.715 3.170
5.803 2.699 3.230
4.973 4.769 4.050
4.743 4.876 3.877
4.992 5.301 3.906
4.955 5.564 4.220
4.492 5.708 4.496
4.658 5.903 4.464
6.162 2.525 2.747
6.004 2.717 3.249
5.799 2.522 3.362
4.995 5.037 3.928
5.060 4.942 4.071
5.240 5.325 4.164
5.169 5.899 4.057
5.117 5.964 4.120
5.193 4.981 3.460
5.438 5.438 3.559
5.131 5.595 3.546
5.361 5.560 3.771
5.879 5.047 3.166
5.848 5.335 3.677
5.325 5.402 3.765
5.616 5.549 3.830
5.989 4.892 3.211
6.046 4.943 3.304
5.853 5.416 3.538
6.078 5.415 3.599
6.288 5.125 3.127
5.924 5.172 3.328
2.445 1.920 5.482
2.708 2.457 5.368
2.335 2.734 5.361
2.211 2.956 5.414
2.232 2.950 5.658
1.696 4.996 6.305
3.377 0.302 4.774
2.499 1.783 5.082
2.463 2.399 5.266
2.375 2.315 5.247
2.134 2.877 5.470
2.184 3.030 5.722
1.802 4.878 6.252
1.411 5.075 5.997
1.644 5.443 6.481
3.135 0.265 4.382
2.984 2.197 4.920
2.798 2.504 4.951
2.340 2.473 4.974
2.693 3.020 5.315
2.526 3.134 5.641
2.503 3.625 5.514
1.966 4.919 5.630
1.896 5.312 5.978
1.766 5.412 6.290
3.629 0.024 4.420
3.063 0.300 4.472
2.766 1.982 4.957
2.862 2.272 5.200
2.915 2.489 5.336
2.796 3.214 5.315
2.833 3.532 5.451
2.223 3.237 5.334
2.099 5.228 5.783
1.513 5.546 5.675
3.356 0.263 4.399
3.349 0.383 4.282
2.793 2.494 4.672
3.027 2.558 4.800
2.610 2.869 4.915
2.742 3.604 4.998
2.971 3.846 5.092
1.889 5.791 5.950
4.051 0.486 4.289
3.609 0.291 4.479
3.184 2.875 4.527
3.211 3.062 5.014
3.233 3.664 4.829
3.212 3.501 5.239
3.110 3.522 4.752
3.464 3.392 4.604
3.006 4.053 4.675
3.268 4.226 4.794
3.413 3.476 4.465
3.227 3.797 4.706
3.085 4.429 4.569
3.050 4.320 4.811
3.504 4.255 4.799
3.446 4.425 4.908
3.699 4.322 4.686
3.066 4.787 4.535
4.752 1.309 3.457
4.807 1.825 3.888
4.253 2.021 3.662
3.925 4.078 4.577
3.735 4.275 4.499
3.391 4.584 4.373
3.681 5.192 4.848
3.705 5.501 4.521
4.693 1.837 3.608
5.067 2.250 3.410
4.482 2.084 3.566
4.554 2.599 3.938
4.022 4.471 4.000
3.857 4.481 4.348
3.954 4.734 4.180
3.512 4.930 4.485
3.390 5.265 4.726
3.413 5.376 4.449
5.084 1.577 3.651
4.811 2.337 3.153
5.210 2.468 3.329
5.129 2.666 3.643
4.866 2.649 3.674
4.189 4.586 4.340
4.169 4.674 4.053
3.867 5.199 4.268
4.190 5.261 4.417
3.874 5.341 4.501
3.738 5.454 4.238
5.059 1.836 3.361
4.956 2.014 3.570
5.329 2.684 3.346
5.116 2.993 3.270
5.263 2.816 3.497
4.475 4.811 4.183
4.449 5.279 4.241
4.331 5.259 3.926
3.877 5.332 4.099
4.206 5.826 4.295
5.600 1.700 3.180
5.290 2.083 2.820
5.670 2.527 2.927
5.611 2.635 3.162
5.419 2.834 3.046
5.375 3.321 3.481
4.511 4.916 3.732
4.535 5.096 4.172
4.306 5.742 4.190
4.147 5.881 3.926
4.370 5.803 4.127
5.761 1.604 2.757
5.626 1.777 2.919
5.889 2.415 3.174
5.476 2.643 3.187
5.523 2.761 3.299
5.232 2.825 3.399
5.594 2.981 3.517
4.884 5.137 3.611
4.515 5.559 4.023
4.521 5.716 3.675
4.569 6.091 4.002
6.044 1.908 2.565
5.827 2.272 2.788
6.118 2.060 2.760
5.712 2.614 2.672
5.739 2.977 2.990
5.958 2.788 3.257
4.963 5.246 3.634
4.743 5.385 3.914
5.001 5.516 3.500
6.134 2.236 2.763
6.360 2.170 2.780
6.154 2.374 2.833
6.311 2.836 2.728
5.819 3.095 2.987
6.175 1.872 2.842
6.247 5.445 2.825
2.477 2.038 5.457
2.356 2.276 5.558
2.275 2.527 5.466
2.212 2.660 5.209
2.135 3.203 5.220
1.578 4.689 5.807
1.621 5.220 6.270
1.453 5.332 6.094
2.992 0.091 4.498
2.358 1.897 5.092
1.974 2.351 4.809
2.333 2.408 5.018
1.814 2.513 5.196
1.811 3.226 5.208
1.607 4.813 5.645
1.309 5.168 5.614
1.309 5.134 6.006
2.961 0.336 4.644
2.377 2.209 4.683
2.675 2.185 4.644
2.647 2.816 5.261
2.132 3.162 4.780
2.086 3.194 4.850
1.997 3.456 5.364
1.394 5.160 5.877
1.128 5.263 5.986
3.361 0.044 4.113
2.773 2.278 4.650
2.516 2.491 4.661
2.890 2.637 4.863
2.251 3.125 4.860
2.358 3.448 4.777
2.359 3.622 4.794
2.773 2.345 4.808
2.843 2.809 4.372
2.874 2.832 4.813
2.535 3.142 4.963
2.609 3.146 4.555
2.286 3.512 5.036
3.203 2.743 4.337
3.274 3.245 4.403
3.087 3.032 4.907
2.670 3.396 4.746
2.655 3.781 4.883
2.897 4.007 5.038
3.514 3.025 4.346
2.953 3.222 4.534
3.298 3.814 4.543
2.739 3.811 4.350
3.019 4.215 4.561
2.817 4.292 4.733
3.119 3.429 4.198
3.521 3.810 4.409
3.078 4.235 4.620
3.273 4.100 4.836
3.004 4.296 4.378
2.660 4.512 4.918
3.237 3.705 4.465
3.133 4.072 4.503
3.229 4.460 4.619
3.224 4.342 4.776
3.001 4.695 4.778
3.348 5.192 4.637
3.857 4.185 4.015
3.764 4.358 4.013
3.663 5.015 4.383
3.649 5.138 4.359
3.144 5.106 4.276
3.314 5.250 4.557
3.670 4.429 4.281
3.767 4.811 4.240
3.871 5.048 4.236
3.324 5.381 4.127
3.340 5.334 4.473
3.474 5.864 4.622
5.135 2.059 3.345
4.542 2.568 3.353
4.447 2.651 3.310
3.913 4.550 3.989
3.936 4.552 4.148
3.614 4.742 3.974
3.855 5.453 3.929
3.517 5.447 4.398
3.590 6.033 4.097
5.173 1.738 3.127
4.852 2.040 3.130
4.959 2.670 3.077
4.720 2.951 3.068
4.831 3.159 3.165
4.461 4.674 3.615
4.057 4.831 4.135
4.238 5.154 3.906
4.160 5.494 3.852
3.850 5.855 4.391
5.478 1.770 2.533
5.089 1.891 2.580
5.223 2.352 2.651
5.297 2.880 2.828
4.991 2.833 3.252
5.072 3.346 3.386
4.064 5.081 3.647
4.009 5.242 3.589
4.075 5.854 3.879
5.409 1.857 2.897
5.586 1.919 2.741
5.763 2.322 2.800
5.307 2.598 2.940
5.506 2.997 3.046
5.546 2.883 3.017
4.985 3.367 3.222
5.550 1.727 2.399
5.912 2.036 2.221
5.789 2.290 2.599
5.877 2.719 2.663
5.508 2.900 2.635
5.408 2.865 2.842
5.299 3.084 2.709
5.921 2.166 2.585
6.095 2.124 2.190
6.257 2.176 2.188
5.736 2.618 2.656
5.700 2.729 2.548
5.752 2.944 2.766
6.420 1.682 1.982
5.914 2.326 2.111
6.076 2.341 2.154
6.183 2.976 2.351
5.957 3.028 2.405
2.104 2.186 5.012
2.449 2.412 5.136
2.349 2.493 5.374
2.228 2.672 4.995
2.125 2.832 5.094
1.614 5.021 6.027
1.066 4.869 5.656
1.330 5.361 6.103
3.169 0.127 4.352
1.915 1.754 4.554
1.879 2.256 5.066
1.919 2.493 4.955
1.646 2.517 4.778
1.456 4.583 5.458
1.010 5.129 5.551
1.199 5.156 5.701
2.460 1.797 4.616
2.188 2.221 4.735
2.590 2.425 4.518
2.477 2.763 4.789
1.854 2.982 4.806
2.281 2.885 5.082
1.406 5.471 5.394
2.823 2.204 4.226
2.630 1.982 4.597
2.375 2.479 4.369
2.577 2.825 4.534
2.199 2.969 4.841
2.175 3.277 4.736
2.219 3.566 4.676
2.986 2.115 4.139
2.619 2.588 4.138
2.822 2.811 4.139
2.464 2.999 4.732
2.680 3.353 4.565
2.667 3.399 4.843
2.466 3.481 4.738
2.095 3.810 4.649
3.002 2.422 4.354
3.100 2.531 4.182
2.893 3.031 4.269
2.683 3.067 4.399
2.462 3.745 4.681
2.439 3.852 4.593
2.501 3.794 4.883
3.118 2.974 4.139
3.311 2.853 4.426
3.087 3.616 4.236
2.778 3.430 4.161
2.637 3.730 4.446
2.642 4.098 4.656
2.613 4.606 4.712
2.433 4.786 4.651
3.424 3.026 4.027
3.242 3.463 4.137
3.166 3.657 4.193
2.844 3.782 4.327
3.101 4.511 4.478
3.047 4.439 4.575
2.686 4.659 4.338
2.952 5.169 4.405
3.479 3.662 4.287
3.131 4.208 3.997
2.971 4.180 4.326
2.890 4.753 4.348
3.261 4.909 4.392
2.719 4.972 4.581
2.936 5.137 4.337
3.757 4.201 3.941
3.415 4.123 4.223
3.503 4.686 3.911
3.474 4.554 4.337
3.013 5.121 4.333
3.186 5.248 4.088
2.775 5.570 4.250
2.729 5.822 4.529
3.937 4.532 3.560
3.613 4.739 3.794
3.307 4.763 4.029
3.428 5.069 4.052
3.235 5.371 4.130
3.338 5.784 4.224
3.350 5.789 4.331
4.717 2.313 3.270
3.906 4.684 3.542
3.613 5.000 3.678
3.749 5.423 3.864
3.589 5.652 3.783
3.700 5.909 4.290
3.349 6.127 3.868
5.037 2.002 2.723
4.906 2.357 2.965
4.701 2.759 2.877
4.929 3.272 3.003
4.043 4.892 3.566
4.119 5.144 3.936
3.882 5.690 4.023
3.527 5.935 3.996
5.229 2.116 2.731
4.999 2.549 2.926
4.914 2.384 2.928
4.898 2.975 2.757
4.636 2.999 3.107
4.705 3.110 3.041
3.924 5.315 3.483
5.633 1.670 2.215
5.584 1.997 2.309
5.415 2.666 2.792
5.362 2.767 2.574
5.330 3.265 2.918
5.138 3.154 2.668
5.189 3.239 2.896
5.370 2.065 2.242
5.862 2.064 2.055
5.750 2.374 2.515
5.468 2.868 2.221
5.712 2.898 2.376
5.276 2.821 2.419
