0.687 1.666 3.893
0.758 1.626 4.068
0.757 1.594 3.713
0.741 1.501 4.301
0.636 1.529 4.027
0.116 0.413 1.963
0.049 0.186 1.533
0.038 0.117 1.334
0.126 2.740 4.996
0.063 2.533 4.426
0.272 2.891 4.995
0.403 2.663 4.768
0.218 2.617 4.186
-0.029 2.182 4.139
0.102 2.531 4.699
0.321 2.459 4.384
-0.035 1.977 4.139
0.077 1.975 4.032
0.243 2.137 3.775
0.312 2.034 4.449
0.573 2.109 4.249
0.442 2.199 4.509
0.200 1.690 3.925
0.432 1.667 4.026
0.079 1.530 3.806
0.720 1.986 4.910
0.541 1.919 4.406
0.421 1.755 4.370
0.533 1.890 3.920
0.508 1.381 3.838
0.095 1.480 3.824
0.612 1.891 4.463
0.670 1.753 4.269
0.328 1.490 4.212
0.656 1.346 3.771
0.262 1.136 3.931
0.795 1.769 4.520
0.567 1.484 4.455
0.619 1.409 4.023
0.859 1.121 4.022
0.004 2.170 4.471
0.134 2.231 4.129
0.169 1.936 4.612
0.128 1.989 4.425
0.220 1.946 4.311
-0.052 1.933 3.975
-0.055 1.609 3.865
0.499 1.970 4.992
0.466 1.625 4.438
0.469 1.736 4.577
0.070 1.735 4.043
0.022 1.358 4.080
0.620 1.832 4.800
0.453 1.696 4.606
0.571 1.461 4.518
0.414 1.507 4.314
0.487 1.097 3.945
0.128 1.162 3.840
0.636 1.498 4.793
0.582 1.676 4.554
0.595 1.332 4.683
0.670 1.110 4.497
0.630 1.265 4.092
0.225 1.525 4.571
0.212 1.580 4.749
-0.061 1.476 4.285
0.336 1.589 4.339
0.206 1.598 4.347
0.275 1.510 4.616
0.382 1.542 4.433
0.081 1.071 4.561
0.035 1.235 4.216
0.250 0.908 4.053
0.406 1.341 5.014
0.616 1.399 4.708
0.407 1.383 4.702
0.559 1.326 4.195
0.531 1.226 4.365
0.136 1.050 3.926
0.250 1.443 4.432
0.074 1.553 4.628
-0.013 1.388 4.739
0.296 1.323 4.296
-0.162 1.190 4.032
0.530 1.466 4.911
0.481 0.997 5.025
0.064 1.297 4.777
0.198 1.226 4.589
0.406 1.028 4.428
-0.101 0.619 4.315
-0.042 0.998 4.689
0.354 1.251 4.799
0.350 0.900 4.697
-0.114 0.866 4.474
-0.134 0.939 4.413
5.738 3.823 4.706
5.631 3.687 4.573
5.704 3.828 4.268
5.710 3.289 3.979
5.418 3.528 3.751
5.784 3.963 4.766
5.789 3.785 5.001
5.937 3.631 4.404
5.794 3.351 4.358
5.572 3.348 4.094
5.788 3.466 4.129
5.827 3.540 4.773
6.108 3.241 4.830
5.722 3.603 4.618
5.999 3.434 4.558
6.025 3.254 4.431
5.961 3.189 3.916
6.449 3.222 4.911
6.224 3.151 4.741
6.072 3.119 4.660
6.192 3.170 4.199
5.746 2.914 4.068
5.648 2.709 4.209
6.168 2.975 4.522
5.926 3.099 4.592
5.895 2.823 4.255
5.839 2.907 4.241
5.354 5.211 6.218
5.378 4.875 6.313
5.461 4.797 6.193
5.452 4.891 5.848
5.931 4.538 6.094
5.731 4.598 5.870
5.965 4.349 6.104
5.961 4.163 6.231
5.705 4.149 5.646
5.500 4.410 5.703
5.556 4.310 5.329
5.785 4.116 5.652
5.625 3.844 5.415
5.859 3.913 5.404
5.596 3.931 5.085
5.602 3.798 4.905
5.496 3.815 4.728
5.879 3.648 5.454
5.780 3.827 5.442
5.956 3.496 5.355
5.774 3.523 4.865
5.563 3.719 4.673
5.553 3.318 4.560
5.721 3.164 4.308
5.348 3.409 4.342
5.876 3.416 5.401
5.960 3.311 5.428
6.141 3.305 5.107
6.026 3.560 4.689
5.861 3.424 4.726
5.702 3.122 4.415
5.448 3.262 4.122
5.411 3.155 4.100
6.328 3.499 5.554
5.836 3.134 4.904
6.186 2.959 4.960
6.151 3.178 4.833
5.679 2.844 4.482
5.921 2.925 4.170
5.821 2.830 3.943
6.323 3.253 5.118
6.321 3.094 4.990
6.284 2.809 4.976
6.120 2.993 4.767
5.920 2.745 4.208
6.227 2.738 4.815
6.100 2.731 4.422
5.000 4.970 6.319
5.345 4.843 6.169
5.127 4.547 5.876
5.342 4.675 6.328
5.350 4.782 5.978
5.454 4.299 5.864
5.490 4.767 6.495
5.480 4.237 6.174
5.463 4.395 5.778
5.170 4.425 5.736
5.421 4.383 6.116
5.797 4.228 5.869
5.404 3.846 5.825
5.644 4.216 5.358
5.467 4.059 5.543
5.815 4.028 6.011
5.534 3.990 5.800
5.579 3.879 5.575
5.472 3.629 5.664
5.495 3.864 5.426
5.366 3.788 5.267
5.224 3.724 4.806
5.199 3.369 4.847
5.683 3.850 5.785
5.895 3.958 5.599
5.783 3.719 5.376
5.814 3.805 5.591
5.677 3.691 5.017
5.402 3.285 4.924
5.641 3.345 4.569
5.291 3.254 4.703
6.005 3.352 6.037
6.036 3.596 5.765
6.027 3.590 5.453
5.695 3.550 5.345
5.611 3.051 4.954
5.547 3.098 4.623
5.387 3.277 4.835
5.273 3.086 4.251
5.825 3.207 5.487
6.149 3.349 5.387
5.850 3.220 5.458
5.646 3.155 4.977
5.555 3.202 4.804
5.710 3.011 4.682
5.871 2.892 4.679
6.173 2.999 5.367
6.134 3.042 5.456
5.833 2.805 4.909
5.912 2.722 5.052
5.904 2.691 4.862
6.268 2.873 5.351
5.907 2.489 4.944
6.259 2.808 5.125
5.831 2.369 4.722
4.684 4.992 6.139
4.981 4.610 6.261
4.954 4.647 5.954
5.000 4.466 6.046
5.115 4.359 5.949
5.108 4.185 5.715
5.285 4.361 5.599
5.404 4.492 6.370
5.379 4.079 6.025
5.369 4.318 5.789
5.076 3.901 5.784
5.635 4.264 6.360
5.188 3.973 5.957
5.380 4.166 5.824
5.325 3.946 5.516
5.154 3.714 5.582
5.600 3.750 6.218
5.550 3.934 5.940
5.391 3.780 5.718
5.308 3.881 5.521
5.243 3.717 5.503
5.099 3.453 5.118
5.446 3.674 5.125
5.980 3.943 6.317
5.521 3.569 6.203
5.511 3.722 5.750
5.492 3.464 5.923
5.723 3.328 5.466
5.442 3.390 5.342
5.440 3.184 5.229
5.258 2.984 4.805
5.671 3.672 6.240
5.667 3.489 5.757
5.731 3.145 5.940
5.781 3.522 5.361
5.475 3.412 5.509
5.371 3.113 5.137
5.303 3.135 5.037
5.325 2.861 4.871
5.800 3.475 5.892
5.841 2.980 5.927
5.691 3.238 5.519
5.519 3.117 5.121
5.460 3.038 5.047
5.655 2.821 4.791
5.706 2.718 4.614
6.182 3.011 5.796
5.783 3.154 5.547
5.740 2.666 5.406
5.601 2.533 5.360
5.836 2.755 4.860
5.692 2.661 4.933
6.293 2.821 5.696
5.815 2.616 5.499
5.939 2.800 5.235
5.705 2.536 4.906
6.052 2.389 5.795
5.954 2.392 5.749
6.065 2.083 5.493
4.482 4.984 6.314
4.707 4.825 6.343
4.890 4.753 6.198
4.912 4.462 6.229
4.828 4.334 6.173
4.845 4.136 6.293
4.940 4.318 5.770
4.951 4.321 6.292
5.229 4.109 5.809
4.743 3.842 5.850
5.191 3.937 5.924
5.076 4.061 6.156
4.953 3.791 5.596
4.868 3.545 5.448
5.527 3.625 6.348
5.554 3.539 6.064
5.311 3.413 5.564
5.252 3.658 5.591
5.219 3.359 5.414
5.426 3.507 6.106
5.598 3.724 6.015
5.543 3.402 5.659
5.161 3.389 5.421
5.352 3.331 5.636
5.248 2.927 5.118
5.682 3.198 6.098
5.660 3.207 6.158
5.625 3.066 5.645
5.571 3.086 5.711
5.330 2.994 5.361
5.602 2.772 5.422
5.190 2.749 5.151
5.703 3.176 6.013
5.597 3.090 5.873
5.675 3.026 5.625
5.746 3.089 5.481
5.694 2.866 5.177
5.237 2.953 5.194
5.922 3.213 6.148
6.084 2.947 5.668
5.627 2.594 5.477
5.958 2.551 5.655
5.483 2.781 5.148
5.408 2.602 5.273
5.943 2.732 5.721
6.101 2.581 5.831
6.110 2.640 5.449
5.704 2.590 5.557
5.614 2.307 5.148
6.306 2.488 5.644
6.229 2.387 5.569
5.870 2.337 5.464
6.212 2.441 6.007
6.171 2.544 5.795
5.758 2.456 5.656
6.031 2.138 5.691
5.576 1.998 5.096
6.179 2.334 5.804
5.805 2.288 5.682
4.587 4.656 6.331
4.575 4.191 5.964
4.760 3.920 6.411
4.822 4.153 6.409
4.982 3.840 5.850
4.992 3.969 6.335
4.928 3.946 5.901
4.879 3.414 5.627
5.282 3.886 6.098
4.990 3.752 6.102
4.936 3.303 5.711
5.218 3.360 5.612
5.230 3.506 6.308
5.480 3.396 5.875
5.299 3.377 5.852
4.919 3.179 5.515
5.243 3.053 6.288
5.302 3.360 6.126
5.585 2.937 5.713
5.228 2.796 5.509
5.167 3.017 5.252
5.414 3.298 6.009
5.720 2.745 5.860
5.403 2.666 5.839
5.584 2.959 5.799
5.185 2.526 5.516
5.076 2.542 5.206
5.955 3.108 5.974
5.594 2.993 6.044
5.449 2.604 6.004
5.516 2.571 5.728
5.421 2.666 5.395
5.622 2.341 5.314
5.741 2.881 6.408
6.054 2.873 6.186
5.750 2.398 6.052
5.659 2.602 5.684
5.756 2.329 5.475
5.577 2.472 5.152
6.225 2.355 6.093
5.807 2.393 6.065
5.872 2.290 5.568
5.920 2.406 5.587
5.582 2.264 5.320
6.020 2.447 5.949
5.651 2.274 6.192
5.623 1.987 5.933
5.723 2.012 5.480
5.761 2.118 5.461
6.063 2.129 6.331
5.980 1.926 6.097
5.753 2.131 5.902
5.863 1.939 5.366
5.858 2.116 6.126
6.106 1.926 6.008
4.810 4.217 6.246
5.078 3.518 6.154
4.850 3.316 5.813
5.390 3.486 6.290
5.159 3.283 5.872
5.259 2.959 5.623
5.181 3.045 6.119
5.122 2.966 6.020
5.210 2.763 5.925
5.050 2.614 5.618
5.246 2.825 6.405
5.394 3.059 5.884
5.275 2.776 6.045
5.149 2.640 5.871
5.220 2.552 5.293
5.463 2.911 6.269
5.255 2.749 5.747
5.549 2.284 5.619
5.206 2.568 5.324
5.431 2.107 5.502
5.599 2.680 6.004
5.722 2.589 5.867
5.369 2.261 5.683
5.531 2.452 5.518
5.510 2.134 5.200
5.905 2.282 6.036
5.962 2.069 5.920
5.514 2.319 5.777
5.468 2.299 5.740
5.423 2.100 5.524
5.812 2.243 6.048
5.568 1.967 6.037
5.732 1.927 6.036
5.444 1.743 5.701
5.615 1.650 5.463
5.946 1.955 6.319
5.934 2.037 6.026
5.570 2.019 5.529
6.088 2.010 6.084
6.036 1.937 5.755
5.950 1.688 5.880
6.220 1.606 6.118
5.849 1.455 6.076
3.460 3.452 4.473
5.060 2.601 6.376
5.282 2.455 6.125
5.284 2.553 5.807
5.365 2.462 6.019
5.292 2.294 5.959
5.129 2.152 5.931
5.187 2.388 5.462
5.395 2.626 6.254
5.292 2.283 5.822
5.358 2.121 5.745
5.196 2.072 5.508
5.497 2.109 6.239
5.740 2.171 6.293
5.464 2.116 5.895
5.508 2.175 5.884
5.425 2.017 5.574
5.660 1.981 6.407
5.515 1.707 5.997
5.332 2.061 5.783
5.498 1.705 5.804
5.494 1.765 6.427
5.469 1.661 6.219
5.361 1.568 5.853
5.388 1.575 5.727
5.854 1.513 6.383
5.687 1.746 6.233
5.880 1.460 6.074
5.519 1.205 5.489
5.999 1.420 6.177
5.929 1.312 6.162
5.708 1.185 5.873
6.020 1.361 6.040
6.095 1.373 6.164
3.576 3.412 4.788
3.447 3.322 4.716
3.279 3.075 4.548
5.027 2.313 6.022
4.996 2.094 6.056
5.523 2.381 5.997
5.380 1.923 6.011
5.096 2.095 5.954
5.536 2.034 6.223
5.387 1.928 5.821
5.217 1.813 5.780
5.332 1.880 5.593
5.443 1.974 6.385
5.465 1.643 6.124
5.327 1.821 5.812
5.287 1.741 5.491
5.441 1.865 6.205
5.461 1.461 5.899
5.104 1.505 5.797
5.740 1.619 5.934
5.627 1.319 5.930
5.552 1.438 5.659
5.555 1.318 6.089
5.769 1.167 6.084
5.356 1.135 5.923
5.849 1.204 6.185
5.841 1.000 6.241
6.141 0.999 6.166
3.458 3.641 5.081
3.329 3.127 4.706
3.424 3.278 4.818
3.459 3.416 4.877
3.319 2.884 4.940
4.947 2.017 6.473
4.905 1.946 5.987
5.500 2.092 6.214
5.222 1.600 5.877
5.305 1.617 5.855
5.340 1.534 5.519
5.329 1.496 6.290
5.198 1.367 6.191
5.323 1.363 6.157
5.190 1.235 5.931
5.310 1.475 5.852
5.241 1.401 6.091
5.381 1.221 5.906
5.368 1.010 5.723
5.303 1.292 6.213
5.358 0.972 6.246
5.585 1.190 5.939
5.504 0.977 6.332
5.477 0.770 6.056
5.972 0.645 5.963
3.057 3.350 5.185
2.933 3.470 5.008
2.984 3.186 4.962
3.213 3.257 5.110
3.321 3.045 4.956
3.100 2.931 5.082
3.515 2.694 5.157
5.297 1.866 6.200
5.139 1.641 5.757
4.887 1.106 6.142
4.959 1.127 6.135
5.033 1.089 6.150
5.289 1.099 5.987
4.829 0.789 5.733
5.560 0.987 6.084
5.279 1.121 5.963
4.962 0.886 5.622
5.299 0.636 6.214
5.183 0.876 6.080
5.494 0.732 6.030
5.721 0.629 6.040
5.627 0.731 5.866
5.764 0.426 6.093
3.183 3.223 5.508
2.926 3.058 5.413
2.849 3.048 4.843
3.143 3.026 5.243
3.024 2.870 5.032
2.912 2.713 5.070
3.103 3.198 5.607
3.097 3.097 5.194
3.053 2.632 5.280
3.535 2.571 5.361
3.409 2.541 5.240
3.510 2.412 5.143
4.846 0.976 6.293
4.617 1.295 5.956
4.873 0.908 5.623
4.957 1.037 6.029
4.959 0.858 6.037
4.934 0.859 5.800
5.052 0.544 6.041
5.139 0.771 5.694
4.894 0.588 5.700
5.309 0.602 5.937
5.107 0.477 6.120
5.190 0.301 5.898
5.396 0.357 5.933
5.439 0.495 6.097
5.490 0.447 6.420
2.994 3.066 5.409
2.839 2.977 5.260
2.778 2.891 5.228
3.119 3.208 5.615
3.115 3.037 5.708
3.117 3.005 5.138
2.869 2.749 4.981
3.137 3.058 5.803
2.970 2.696 5.330
3.072 2.924 5.278
2.874 2.755 5.125
3.200 2.654 5.688
3.433 2.588 5.545
3.198 2.463 5.248
3.517 2.503 5.244
3.095 2.419 4.975
4.840 1.198 6.240
4.759 0.771 6.166
4.898 0.683 6.317
4.760 0.926 6.074
4.674 0.397 5.936
5.179 0.868 6.294
4.684 0.533 5.810
4.718 0.450 5.815
4.877 0.169 5.485
5.141 0.415 6.176
5.214 0.397 6.081
5.048 0.338 5.985
4.782 0.180 5.814
5.027 0.319 6.486
5.240 0.187 5.987
5.064 0.334 5.968
2.856 3.383 5.849
2.611 3.116 5.706
2.829 3.172 5.194
2.423 3.015 5.097
3.086 2.849 5.925
2.916 2.881 5.639
3.034 2.791 5.848
2.915 2.895 5.502
2.513 2.540 5.338
3.112 3.096 6.077
3.247 2.942 5.772
2.985 2.598 5.787
2.817 2.556 5.518
2.903 2.484 5.430
3.202 2.450 6.087
2.916 2.752 5.679
3.202 2.621 5.693
3.103 2.176 5.459
3.320 2.150 5.590
3.014 2.410 5.382
4.304 0.563 6.300
4.787 0.674 6.118
4.302 0.614 6.068
4.255 0.370 5.874
4.661 0.217 5.977
4.597 0.511 5.784
4.528 0.228 5.758
4.733 0.403 6.140
4.841 0.105 5.903
4.647 0.270 5.812
5.243 0.290 6.249
4.870 0.076 5.852
2.511 3.139 5.962
2.668 2.920 5.787
2.646 2.992 5.655
2.431 2.669 5.700
2.492 2.720 5.106
2.935 2.803 5.889
2.768 2.788 6.022
2.601 2.567 5.820
2.630 2.756 5.689
2.347 2.776 5.269
3.111 2.948 6.179
3.105 2.474 5.878
2.631 2.806 5.809
2.964 2.443 5.362
2.618 2.484 5.135
3.289 2.710 6.381
3.001 2.446 5.873
2.731 2.206 6.022
2.821 2.150 5.798
3.023 2.105 5.537
3.102 2.430 6.367
3.178 2.403 6.209
3.198 2.184 5.990
3.173 2.376 5.478
2.914 2.142 5.319
4.441 0.849 6.400
4.255 0.622 5.903
4.374 0.450 5.707
4.261 0.624 6.423
4.217 0.236 5.870
4.384 0.098 5.902
4.514 0.327 6.409
4.329 0.268 5.859
4.373 0.048 5.756
4.666 -0.009 6.154
4.836 -0.120 6.304
2.639 3.201 6.294
2.231 2.725 5.825
2.265 2.638 5.955
2.271 2.888 5.709
2.409 2.728 6.430
2.431 2.885 5.917
2.266 2.461 5.909
2.518 2.705 5.552
2.294 2.459 5.631
2.545 2.448 6.102
2.678 2.361 6.220
2.473 2.357 5.809
2.570 2.208 5.643
2.500 2.161 5.336
2.779 2.310 6.389
2.672 2.303 5.925
2.709 2.418 5.814
2.784 2.366 5.680
2.779 2.132 5.960
3.959 0.461 6.431
4.008 0.245 6.140
3.899 0.492 6.093
4.234 0.126 5.962
3.994 0.013 5.696
4.290 0.117 6.339
4.356 -0.195 6.089
2.185 2.680 6.333
2.305 2.861 6.091
2.316 2.593 6.276
2.233 2.704 5.867
2.303 2.230 5.827
2.408 2.574 6.120
2.354 2.132 5.983
2.311 2.107 5.922
2.917 2.384 6.097
2.722 1.962 6.181
2.726 1.877 6.024
6.283 5.760 3.982
6.306 5.837 3.405
5.965 5.667 3.643
6.152 6.113 4.361
6.358 5.733 3.979
6.365 5.878 3.860
6.270 5.953 3.946
5.985 5.661 3.409
6.393 5.476 3.716
6.314 5.600 3.755
6.348 6.157 4.418
6.001 5.682 4.238
5.970 6.037 4.039
5.786 5.674 3.852
5.859 5.562 3.780
6.178 5.882 4.351
6.417 5.484 4.015
6.331 5.567 4.004
5.971 5.756 4.165
5.625 5.595 4.272
6.165 3.767 3.521
6.100 3.918 3.585
6.349 3.694 3.953
6.211 3.499 3.843
6.357 3.598 3.870
6.000 3.241 3.864
5.903 3.645 3.995
5.772 3.475 3.911
6.203 3.734 4.220
5.949 3.760 3.921
5.709 3.428 3.986
6.202 3.512 4.255
6.123 3.350 4.178
6.048 3.213 3.935
6.053 3.355 3.792
6.455 3.414 3.990
6.385 3.175 4.076
5.904 3.833 4.106
5.634 3.360 3.943
5.898 3.437 4.603
5.639 3.732 4.131
5.846 3.703 3.978
5.810 3.492 3.760
6.003 3.530 4.576
5.961 3.264 4.297
6.040 3.624 4.076
5.959 3.302 4.099
5.973 3.288 3.737
6.037 3.278 4.724
6.379 3.375 4.493
5.987 3.118 4.230
6.210 3.072 4.016
6.486 3.041 4.165
6.254 2.947 3.861
5.927 3.948 4.919
5.439 3.565 4.720
5.809 3.426 4.578
5.691 3.742 4.119
5.215 3.522 4.064
5.787 3.635 4.726
5.782 3.577 4.727
5.792 3.734 4.654
5.588 3.674 4.423
5.736 3.382 4.338
5.739 3.210 4.226
5.981 3.636 5.068
6.078 3.662 4.786
5.762 3.262 4.464
5.946 3.468 4.282
5.604 3.157 4.214
5.867 3.136 4.132
6.405 3.541 4.860
6.220 3.528 4.962
6.065 3.107 4.495
5.780 2.911 4.651
6.030 2.979 4.486
5.710 2.987 4.224
6.221 2.897 4.699
6.141 3.142 4.288
6.206 2.982 4.115
5.810 2.826 4.107
5.579 1.312 1.634
6.141 1.198 2.306
6.073 1.071 1.883
5.684 1.177 1.709
5.674 1.027 1.863
5.666 0.677 1.369
6.221 1.169 2.613
6.042 1.136 2.371
6.237 1.028 2.234
5.909 1.038 1.895
5.721 0.821 1.645
5.983 0.590 1.420
5.989 0.601 1.450
6.487 0.729 2.440
6.236 0.602 1.974
5.920 0.761 1.677
6.058 0.358 1.519
6.006 0.579 1.519
5.734 0.384 1.270
6.290 0.208 1.764
6.053 0.299 1.688
6.256 0.336 1.352
3.827 3.654 2.047
3.997 3.389 1.610
3.659 3.246 1.452
3.753 3.033 1.411
3.608 3.384 0.919
4.316 3.395 1.936
3.819 3.571 2.026
3.947 3.139 1.870
3.914 3.138 1.464
3.810 3.258 1.261
3.600 2.902 1.210
3.749 2.979 0.802
4.246 3.328 2.324
4.230 3.311 2.001
3.954 3.185 1.529
3.882 3.192 1.675
4.077 3.048 1.133
4.106 3.002 1.120
3.809 2.820 0.958
4.428 3.031 2.015
4.316 2.845 1.754
4.466 2.749 1.844
4.317 3.066 1.523
4.391 2.544 1.173
3.881 2.822 1.269
3.899 2.561 1.120
4.646 2.872 1.786
4.286 2.847 1.836
4.227 2.517 1.351
4.162 2.378 1.500
4.318 2.467 1.417
5.542 3.302 3.567
5.858 3.165 3.789
5.897 3.077 3.721
5.866 1.338 2.384
5.421 1.382 1.936
5.538 1.058 1.854
5.992 1.150 2.645
5.785 1.297 2.317
5.657 1.197 2.191
5.454 0.740 2.145
5.851 1.035 1.772
5.985 1.157 2.656
5.969 1.157 2.810
5.846 0.898 2.346
5.795 0.766 2.065
6.049 0.526 1.878
5.998 0.813 1.609
5.584 0.596 1.625
6.352 0.804 2.615
6.139 0.916 2.558
6.205 0.665 2.180
5.925 0.723 2.284
5.780 0.402 2.235
5.901 0.558 1.698
5.733 0.593 1.515
6.441 0.513 2.598
6.199 0.334 2.124
6.017 0.600 2.141
6.045 0.094 1.669
3.790 3.333 1.850
3.665 3.334 1.598
3.422 3.055 1.372
3.603 2.955 1.296
3.264 3.149 1.176
3.870 3.447 2.036
3.993 3.103 1.627
3.573 3.087 1.666
3.792 2.807 1.590
3.720 2.811 1.189
3.608 2.929 1.008
3.736 2.675 0.869
4.215 3.196 2.251
3.963 2.766 1.699
4.129 2.805 1.654
3.615 2.556 1.218
3.984 2.567 1.366
3.748 2.793 0.820
3.427 2.496 0.663
3.373 2.372 0.854
4.121 2.804 1.974
4.201 2.820 1.506
3.848 2.814 1.303
3.922 2.561 1.265
3.898 2.314 0.899
3.965 2.369 0.743
3.553 2.362 0.642
3.638 1.962 0.702
3.999 2.632 1.672
3.997 2.446 1.494
4.203 2.094 1.004
3.813 2.333 1.093
3.876 2.147 0.757
3.708 1.799 0.504
4.259 1.790 0.745
4.098 1.666 0.776
3.759 1.714 0.279
3.625 1.695 -0.089
4.227 1.553 0.055
4.063 1.245 0.173
3.915 1.117 0.092
4.095 1.110 0.141
5.565 1.203 2.514
5.609 0.956 2.511
5.526 1.267 2.319
5.466 0.892 2.272
6.029 1.161 3.030
5.639 1.076 2.488
5.451 1.051 2.391
5.384 0.656 2.098
5.350 0.674 2.048
6.026 1.198 3.250
6.164 0.927 3.079
5.928 1.078 2.627
5.743 0.599 2.470
5.891 0.918 2.519
5.724 0.791 1.910
5.818 0.741 1.944
5.988 1.214 3.453
6.170 1.014 2.888
6.087 0.722 2.916
6.245 0.939 2.854
5.971 0.413 2.321
5.874 0.459 2.449
5.916 0.231 2.183
5.753 0.216 1.952
6.029 0.605 2.938
6.269 0.706 2.983
5.923 0.646 2.545
6.015 0.319 2.376
5.908 0.465 2.265
6.053 0.504 2.689
6.365 0.242 2.379
3.598 3.336 1.698
3.342 3.007 1.548
3.100 2.771 1.351
3.149 2.815 1.084
3.048 2.699 0.787
3.505 2.813 1.711
3.778 2.796 1.822
3.427 3.070 1.515
3.540 2.776 1.246
3.531 2.449 0.908
3.177 2.801 0.705
3.074 2.635 0.881
3.698 2.911 1.726
3.939 2.691 1.962
3.574 2.624 1.774
3.731 2.375 1.576
3.625 2.302 1.193
3.431 2.216 0.886
3.449 2.431 0.762
3.340 2.193 0.595
3.783 2.500 1.698
3.868 2.707 1.456
3.881 2.286 1.327
3.689 2.147 1.391
3.494 2.237 0.839
3.438 2.073 1.012
3.765 1.997 0.488
3.276 1.788 0.518
3.848 2.327 1.751
4.038 2.062 1.401
4.094 2.180 1.402
4.000 2.180 1.165
3.831 2.159 0.904
3.765 1.892 0.478
3.846 2.027 0.613
3.339 1.751 0.015
3.824 1.865 1.137
3.817 1.771 0.693
4.040 1.849 0.715
3.981 1.663 0.472
3.867 1.618 0.293
3.731 1.310 0.292
3.762 1.670 0.657
3.890 1.695 0.600
3.966 1.518 0.157
3.675 1.260 0.295
3.909 1.448 0.407
4.026 1.141 0.349
3.749 1.311 0.022
4.270 0.997 0.582
3.911 1.018 0.239
4.445 0.561 0.064
4.507 0.398 -0.096
5.366 1.328 2.689
5.665 1.096 2.867
5.559 1.158 2.372
5.275 1.077 2.122
5.913 1.052 3.128
5.441 1.075 2.980
5.445 0.900 2.849
5.743 0.827 2.487
5.561 0.538 2.308
5.473 0.771 2.352
5.791 0.829 3.576
5.771 0.978 3.343
5.621 0.734 3.171
5.487 0.758 2.946
5.446 0.709 2.838
5.792 0.370 2.396
5.402 0.530 2.415
5.893 0.821 3.383
6.234 0.998 3.587
6.008 0.718 3.337
6.032 0.688 2.914
5.946 0.520 2.980
6.047 0.525 2.776
5.776 0.629 2.197
5.599 0.347 2.441
6.173 0.906 3.393
6.061 0.717 3.748
6.107 0.720 3.544
6.332 0.571 3.277
5.939 0.336 3.077
6.161 0.578 3.082
5.770 0.502 2.443
5.747 0.283 2.252
6.103 0.854 3.644
6.000 0.237 3.000
6.312 0.102 2.756
6.138 0.260 2.747
3.310 2.827 1.551
3.174 2.865 1.404
3.130 2.889 1.344
3.348 2.781 1.316
3.193 2.826 1.204
2.909 2.494 1.004
3.486 2.611 1.842
3.283 2.953 1.760
3.165 2.478 1.535
3.088 2.590 1.201
3.361 2.208 0.872
3.277 2.527 0.654
2.904 2.175 0.476
3.536 2.723 2.043
3.436 2.706 1.435
3.307 2.516 1.440
3.460 2.156 1.290
3.328 2.194 1.012
3.234 2.244 0.785
3.446 2.115 0.660
2.953 2.253 0.606
3.529 2.265 1.731
3.422 2.490 1.267
3.354 2.299 1.161
3.521 2.302 1.308
3.498 2.009 1.023
3.290 2.170 0.786
3.168 1.673 0.628
3.453 1.571 0.211
3.573 1.925 1.313
3.885 2.248 1.156
3.574 1.883 1.308
3.537 1.902 0.895
3.723 1.569 0.916
3.280 1.684 0.475
3.188 1.688 0.197
3.561 1.381 0.214
3.609 1.600 0.977
3.629 1.770 0.815
3.474 1.715 0.780
3.448 1.387 0.565
3.469 1.437 0.467
3.365 1.192 0.199
3.862 1.769 1.074
3.813 1.566 0.752
3.628 1.308 0.643
3.652 1.496 0.407
3.408 1.386 0.410
3.341 0.903 -0.227
3.897 1.310 0.765
4.048 1.051 0.830
3.736 1.141 0.369
3.821 0.901 0.164
3.503 0.868 0.194
3.918 1.123 0.658
3.832 0.719 0.409
4.129 0.821 0.444
3.797 0.846 -0.024
4.023 0.809 0.533
4.056 0.522 0.287
4.227 0.739 -0.027
4.356 0.319 0.101
4.216 0.635 0.268
4.138 0.299 0.350
5.022 1.017 2.901
5.058 0.943 2.926
5.056 0.941 2.653
5.342 1.095 3.149
5.099 0.917 2.881
5.380 0.939 2.948
5.199 0.875 2.464
5.193 0.880 2.298
5.634 1.255 3.622
5.398 0.777 3.119
5.321 0.988 2.984
5.601 0.676 2.722
5.476 0.639 2.721
5.191 0.746 2.395
5.798 0.812 3.405
5.527 0.907 3.427
5.412 0.886 3.076
5.349 0.766 2.790
5.379 0.641 2.561
5.225 0.532 2.551
5.918 1.023 3.591
5.857 0.525 3.690
5.809 0.418 3.263
5.644 0.655 3.295
5.776 0.380 3.142
5.445 0.332 2.659
5.345 0.289 2.646
6.186 0.911 3.527
6.263 0.743 3.559
6.009 0.778 3.697
6.235 0.494 3.353
5.940 0.521 3.323
5.909 0.256 3.115
5.713 0.080 2.822
6.265 0.651 3.746
6.110 0.687 3.724
6.062 0.402 3.996
6.201 0.320 3.340
6.110 0.384 3.383
5.878 0.468 3.222
6.023 0.177 3.104
6.220 0.482 3.711
6.411 -0.022 2.995
2.954 2.542 1.683
3.218 2.516 1.545
3.125 2.529 1.495
2.674 2.701 1.334
2.891 2.392 0.941
2.864 2.515 0.899
3.020 2.774 1.546
3.021 2.415 1.396
3.273 2.189 1.307
3.272 2.457 1.324
3.175 1.997 1.112
2.913 2.076 0.836
3.234 2.265 1.768
3.467 2.233 1.461
3.328 2.194 1.260
3.265 2.203 1.409
3.232 1.840 0.835
2.873 2.132 0.561
3.080 1.667 0.400
3.674 2.334 1.805
3.465 2.303 1.472
3.107 2.188 1.292
3.249 1.783 1.082
3.287 1.612 0.657
3.358 1.492 0.612
2.944 1.594 0.277
3.409 1.920 1.270
3.683 1.961 1.313
3.643 1.568 1.153
3.524 1.782 0.869
3.383 1.465 0.740
3.043 1.292 0.240
2.994 1.403 0.196
3.832 1.756 1.067
3.592 1.389 0.861
3.347 1.600 0.949
3.335 1.546 0.559
3.516 1.398 0.668
3.299 1.273 0.240
3.406 1.306 -0.085
3.843 1.433 1.226
3.695 1.321 0.841
3.794 1.461 0.519
3.688 0.980 0.317
3.226 0.988 0.297
3.583 1.173 -0.033
3.609 1.355 0.727
3.646 1.082 0.957
3.521 0.876 0.605
3.802 0.932 0.337
3.673 0.645 0.156
3.927 0.699 0.741
3.987 0.734 0.653
3.733 0.490 0.534
3.470 0.425 0.241
3.986 0.830 0.501
3.917 0.685 0.262
4.050 0.471 0.258
3.982 0.606 0.126
3.932 0.397 0.399
4.118 0.223 0.243
3.772 0.366 0.392
3.787 0.076 -0.127
4.295 -0.013 0.681
4.051 0.084 0.092
4.275 -0.137 -0.137
5.334 1.422 3.189
5.262 1.130 2.645
4.884 0.818 2.443
5.299 1.063 3.329
5.191 1.235 2.950
4.986 0.878 2.889
4.942 1.011 2.626
5.049 1.003 2.360
5.520 1.307 3.557
5.021 1.146 3.231
5.178 0.912 3.102
5.258 1.089 3.132
4.948 0.912 2.675
5.038 0.572 2.436
5.447 0.841 3.580
5.601 1.070 3.591
5.235 0.922 3.091
5.473 0.537 3.115
5.337 0.628 2.705
5.190 0.338 2.624
5.509 0.882 3.583
5.730 0.777 3.559
5.303 0.718 2.995
5.405 0.756 3.136
5.167 0.375 2.831
5.315 0.450 2.435
5.937 0.565 3.983
5.643 0.465 3.400
5.796 0.409 3.490
5.556 0.511 3.114
5.512 0.327 2.802
5.644 0.119 3.062
5.809 0.938 3.967
6.210 0.399 3.914
5.825 0.306 3.645
5.873 0.262 3.557
5.841 0.517 3.313
5.655 0.251 2.996
5.745 0.655 3.637
6.122 0.449 3.732
5.908 0.086 3.726
6.176 0.273 3.583
5.882 0.265 3.313
6.123 0.251 3.910
6.019 0.589 3.938
6.292 0.427 4.048
6.430 0.268 3.733
5.953 -0.022 3.307
6.136 0.138 3.698
2.905 2.874 1.788
2.937 2.716 1.679
2.676 2.551 1.610
2.727 2.141 1.154
2.590 2.316 1.208
2.639 1.987 0.647
3.175 2.509 1.836
3.222 2.190 1.716
2.937 2.157 1.460
2.654 2.376 1.414
3.012 2.287 0.935
2.963 1.821 1.071
3.313 2.341 1.585
3.180 2.375 1.599
3.088 2.135 1.354
2.824 2.034 0.981
3.087 1.627 0.932
2.641 1.891 0.604
3.332 2.074 1.354
3.098 1.828 1.464
3.054 1.886 1.132
3.273 1.917 0.882
2.993 1.631 0.546
3.368 1.661 1.244
3.176 1.847 1.276
3.269 1.681 0.759
3.251 1.473 0.852
3.050 1.250 0.411
3.516 1.671 1.154
3.427 1.344 1.018
3.249 1.112 0.796
3.139 1.156 0.779
3.197 1.045 0.583
3.440 0.979 0.976
3.320 0.932 0.830
3.423 1.185 0.741
3.109 1.091 0.562
3.008 0.783 0.258
3.611 0.973 1.012
3.453 0.620 0.546
3.608 0.589 0.218
3.492 0.570 0.308
3.184 0.396 -0.123
3.690 0.548 0.913
3.887 0.538 0.534
3.747 0.410 0.286
3.405 0.461 0.172
3.458 0.532 -0.038
3.711 0.621 0.594
3.783 0.358 0.502
3.687 0.107 0.345
3.677 0.056 -0.068
3.975 0.447 0.778
3.721 0.294 0.560
3.825 -0.030 0.423
3.911 0.055 0.306
4.804 1.078 3.251
4.738 0.983 2.720
4.261 0.308 0.942
3.827 0.216 0.493
3.818 0.095 0.377
5.016 1.113 3.417
4.800 0.978 3.190
5.187 0.992 3.115
4.714 0.756 2.635
4.679 0.961 2.406
5.094 0.839 3.533
4.818 0.992 3.462
4.606 0.914 2.811
4.551 0.625 2.657
4.709 0.521 2.466
5.382 1.023 3.779
4.885 1.147 3.536
5.249 0.912 3.266
5.164 0.600 2.823
4.957 0.422 2.702
5.008 0.751 2.900
5.120 0.875 3.641
5.393 0.900 3.365
5.339 0.866 3.273
4.990 0.492 3.236
4.903 0.565 2.664
4.746 0.273 2.829
5.549 0.558 3.802
5.255 0.582 3.732
5.196 0.709 3.384
5.068 0.623 3.319
5.113 0.108 2.722
5.441 0.675 3.586
5.305 0.310 3.611
5.341 0.346 3.581
5.195 0.329 3.357
5.571 0.365 3.754
5.659 0.551 3.773
5.839 0.132 3.561
5.420 -0.073 3.528
5.886 0.373 3.981
5.821 0.077 4.126
6.076 0.242 3.877
5.758 0.017 3.718
5.845 0.162 3.985
5.950 0.054 4.180
6.033 -0.056 4.099
2.951 2.560 2.057
2.568 2.215 1.487
2.694 2.240 1.569
2.496 2.208 1.369
2.736 2.373 1.029
2.599 2.282 1.173
3.557 3.670 4.114
3.655 3.534 3.891
2.668 2.039 1.826
2.978 2.263 1.676
2.925 2.189 1.210
2.462 2.122 1.341
2.728 1.676 0.931
2.788 2.069 1.517
3.103 1.865 1.533
2.777 1.608 1.039
2.654 1.879 0.906
3.186 1.897 1.299
2.937 1.463 1.161
2.957 1.648 1.140
2.900 1.644 0.778
2.985 1.641 1.170
2.980 1.281 1.002
3.083 1.179 1.099
3.320 1.353 1.037
3.113 0.923 0.776
3.313 0.953 0.746
3.181 0.846 0.708
3.351 0.893 1.133
3.408 0.762 0.531
3.273 0.662 0.692
3.204 0.396 0.182
3.275 0.642 0.602
3.517 0.585 0.531
3.549 0.291 0.596
3.165 0.345 0.225
3.806 0.239 0.976
3.802 0.332 0.807
3.559 0.158 0.578
3.460 -0.036 0.158
3.259 0.119 0.084
4.375 1.207 3.083
4.641 1.357 3.204
3.946 0.268 0.903
3.739 0.239 0.607
3.478 0.262 0.465
5.025 1.280 3.305
4.928 1.276 3.160
4.691 1.104 3.195
4.417 0.957 2.640
3.979 -0.054 0.883
4.902 0.991 3.532
4.930 1.097 3.455
4.882 1.108 3.019
4.734 0.714 2.945
4.591 0.511 2.449
4.639 1.157 3.554
4.661 1.002 3.684
4.948 1.086 3.443
4.626 0.778 3.150
4.487 0.663 2.879
4.462 0.833 2.948
4.832 0.794 3.654
5.045 0.577 3.391
4.881 0.530 3.157
4.978 0.447 3.375
4.507 0.480 3.067
5.300 0.527 3.847
5.025 0.788 3.415
5.130 0.721 3.399
4.988 0.579 3.116
5.084 0.594 3.063
4.988 0.231 3.725
5.199 0.163 3.490
5.220 0.222 3.025
2.710 2.445 1.933
2.603 2.038 1.608
2.479 2.237 1.384
2.433 1.843 1.034
2.172 2.070 1.175
3.179 3.387 4.213
3.368 3.327 4.102
3.124 3.212 3.800
3.443 3.102 3.747
2.650 2.104 1.503
2.505 2.193 1.646
2.699 1.983 1.144
3.412 3.492 4.540
3.690 3.118 4.135
3.534 3.090 3.837
4.440 1.263 3.290
4.445 1.299 3.157
4.112 1.091 3.109
3.487 -0.046 0.480
3.145 0.161 0.552
3.095 0.131 0.548
4.332 1.435 3.730
4.555 1.234 3.369
4.248 0.985 3.355
4.148 0.890 3.180
4.298 1.094 2.901
3.443 0.331 0.992
3.724 -0.093 0.751
4.737 1.304 3.921
4.516 0.957 3.543
4.765 0.992 3.488
4.319 1.024 3.310
4.344 0.847 2.903
4.927 0.812 3.570
4.640 1.106 3.687
4.730 0.780 3.200
4.851 0.842 3.098
4.571 0.615 2.934
4.510 0.715 2.634
4.606 0.680 3.599
4.508 0.851 3.454
4.655 0.423 3.186
4.368 0.577 3.017
4.298 0.386 3.007
4.580 0.470 3.895
4.495 0.816 3.405
4.758 0.685 3.070
4.695 0.541 3.104
4.792 0.520 3.416
5.017 0.290 3.515
2.361 2.117 1.673
2.428 2.125 1.306
3.055 3.379 4.612
3.326 3.307 4.049
3.010 2.957 4.104
2.925 2.893 3.740
3.310 3.203 4.637
3.548 3.085 4.407
3.326 2.876 3.985
3.317 2.874 3.974
3.668 3.125 4.500
3.398 2.721 4.448
3.305 2.913 3.959
3.126 2.727 3.745
3.626 2.362 3.543
3.807 2.905 4.214
3.451 2.849 4.108
3.703 2.468 3.973
3.664 2.638 3.636
3.525 2.386 3.955
3.694 2.705 4.075
3.590 2.685 4.182
3.663 2.389 3.675
3.933 2.406 3.780
3.944 2.033 3.966
3.916 2.100 3.953
3.829 2.144 3.587
3.674 2.045 3.531
3.833 2.109 4.018
4.043 1.961 4.083
3.807 1.739 3.826
4.062 1.483 3.290
4.044 1.398 3.312
4.045 2.059 4.022
4.273 1.616 3.810
4.078 1.459 3.570
3.797 1.178 3.180
3.748 1.093 2.902
4.253 1.668 3.562
4.334 1.358 3.764
4.148 1.487 3.537
4.190 1.194 2.965
4.112 0.963 3.037
4.570 1.499 3.774
4.508 1.348 3.811
4.163 1.102 3.215
4.076 1.135 3.217
4.068 0.864 2.824
4.235 0.582 2.753
4.375 0.979 4.013
4.301 1.080 3.561
4.405 0.886 3.648
4.280 0.918 3.283
4.243 0.847 2.879
4.033 0.879 2.866
4.730 0.950 3.831
4.436 0.698 3.393
4.542 0.546 3.488
4.453 0.610 3.120
4.437 0.711 2.708
4.526 0.501 3.929
4.642 0.749 3.321
4.281 0.527 3.185
4.447 0.417 2.929
4.007 0.433 2.924
4.657 0.542 3.756
4.521 0.341 3.496
3.003 3.445 4.496
2.969 3.178 4.374
3.021 3.309 4.331
2.704 3.096 3.929
3.476 2.954 4.809
3.295 2.828 4.583
3.166 3.054 3.997
3.151 2.915 4.137
3.207 2.386 4.082
3.335 3.163 4.753
3.451 2.895 4.643
3.472 2.738 4.035
3.383 2.741 4.008
3.332 2.449 4.036
3.052 2.356 4.063
3.768 2.964 4.840
3.287 2.781 4.325
3.332 2.377 4.265
3.197 2.500 3.912
3.286 2.254 3.744
3.567 2.308 4.146
3.121 1.924 3.928
3.380 2.669 4.337
3.357 2.418 4.500
3.454 2.480 4.244
3.372 2.412 3.973
3.715 2.218 4.133
3.407 1.747 3.925
3.534 2.119 3.696
3.826 2.255 4.351
3.489 2.233 3.956
3.388 2.037 3.955
3.783 2.108 4.027
3.592 1.825 3.737
3.485 1.895 3.689
3.714 1.844 3.148
3.996 1.820 4.004
3.650 1.775 3.787
4.089 1.842 4.019
3.673 1.855 3.833
3.854 1.613 3.433
3.551 1.516 3.459
3.654 1.222 2.980
4.023 1.915 3.945
4.235 1.746 4.146
3.787 1.610 3.724
4.009 1.543 3.529
4.039 1.252 3.276
3.645 1.205 3.279
3.599 1.338 3.034
4.081 1.585 3.916
4.099 1.258 3.710
3.826 1.091 3.495
4.202 1.208 3.408
3.897 0.875 3.415
3.879 1.149 2.908
3.733 0.779 2.983
4.199 0.927 4.065
4.379 1.130 3.857
4.033 0.863 3.292
4.177 0.728 3.344
4.162 0.602 3.231
3.721 0.760 3.013
4.628 0.849 3.672
4.457 1.083 3.873
4.477 0.785 3.688
4.277 0.712 3.560
4.373 0.561 2.896
4.055 0.723 2.871
4.581 0.574 3.786
4.461 0.453 3.785
4.552 0.606 3.302
4.317 0.526 3.058
4.326 0.233 2.741
4.475 0.552 3.558
3.991 0.406 3.644
4.226 0.157 3.090
2.751 3.013 4.668
2.639 3.009 4.556
3.032 3.196 4.280
2.873 3.093 4.128
3.111 3.112 4.697
3.244 2.836 4.525
2.780 2.679 4.358
3.069 2.602 4.257
3.035 2.493 4.070
3.027 2.637 4.851
3.358 2.807 4.669
2.928 2.533 4.372
3.048 2.636 4.154
3.023 2.270 4.143
3.100 2.041 3.841
3.122 1.988 3.773
3.582 2.515 4.606
3.158 2.434 4.547
3.080 2.582 4.156
3.248 2.168 3.973
3.127 2.321 4.194
3.433 2.351 4.254
2.960 2.078 3.607
3.296 1.785 3.854
3.460 2.421 4.936
3.682 2.258 4.810
3.536 2.406 4.298
3.103 2.077 4.215
3.028 2.144 4.153
3.554 2.027 4.074
3.225 1.809 3.907
3.518 1.683 3.656
3.251 1.568 3.532
3.519 2.041 4.407
3.416 2.323 4.610
3.397 2.190 4.281
3.495 1.893 3.954
3.365 1.904 4.232
3.587 1.504 3.661
3.312 1.523 3.452
3.276 1.402 3.681
3.099 1.296 3.140
3.723 2.072 4.321
3.740 1.930 4.322
3.352 1.840 3.997
3.768 1.572 4.245
3.599 1.632 3.794
3.695 1.575 3.663
3.587 1.435 3.499
3.642 1.388 3.365
3.350 0.943 2.935
3.748 1.826 4.502
3.617 1.434 3.897
3.865 1.318 4.183
3.723 1.191 4.006
3.791 1.174 3.864
3.448 0.983 3.540
3.433 1.287 3.474
3.413 1.009 2.992
3.618 0.714 3.105
3.842 1.547 3.887
4.067 1.340 3.886
3.846 0.987 3.608
3.735 0.901 3.347
3.751 0.839 3.217
3.881 0.603 3.123
3.643 0.805 3.079
3.946 0.913 4.105
3.838 0.699 3.984
3.776 0.915 3.740
3.827 0.779 3.437
3.672 0.539 3.042
3.962 0.657 2.775
4.222 0.751 3.653
4.213 0.457 3.763
4.063 0.521 3.377
3.814 0.332 3.318
3.757 0.289 2.881
4.195 0.465 3.712
4.227 0.208 3.505
4.273 0.565 3.290
2.832 2.916 4.601
2.518 2.896 4.418
2.536 2.924 4.237
2.942 2.780 4.735
2.911 2.779 4.563
2.553 2.463 4.620
2.492 2.615 4.177
3.027 2.270 4.006
2.877 2.930 4.739
2.952 2.768 4.777
2.726 2.381 4.290
2.827 2.547 4.419
2.958 2.153 4.278
2.891 2.100 4.257
3.126 2.191 3.990
3.200 2.512 5.037
3.140 2.623 4.824
3.049 2.227 4.255
2.927 2.199 4.487
2.865 2.141 3.872
3.088 2.080 4.135
2.972 2.071 3.866
3.065 1.965 3.779
3.493 2.327 4.828
3.364 2.090 4.520
3.125 2.108 4.437
2.992 1.862 4.289
3.266 1.942 4.130
3.454 1.754 4.373
3.364 1.951 4.114
3.204 1.490 3.883
3.050 1.683 3.791
3.233 2.086 4.949
3.476 2.238 4.681
3.151 1.959 4.119
3.234 1.946 4.000
3.254 1.422 4.319
3.296 1.423 3.943
3.500 1.410 3.685
3.331 1.594 3.403
3.177 1.139 3.457
2.905 1.417 3.361
3.762 2.028 4.505
3.385 1.957 4.164
3.399 1.831 4.364
3.428 1.477 4.223
3.651 1.636 4.123
3.575 1.267 3.813
3.601 1.036 3.570
3.206 1.275 3.471
3.049 1.221 3.378
3.125 1.167 3.086
3.633 1.493 4.593
3.675 1.364 4.398
3.623 1.517 4.084
3.554 1.125 4.001
3.622 1.133 4.069
3.558 0.925 3.640
3.648 0.886 3.417
3.282 1.099 3.419
3.213 0.890 3.099
3.356 0.534 2.775
3.827 1.476 4.221
3.863 0.996 4.279
3.613 1.061 4.002
3.665 1.124 3.564
3.425 0.620 3.543
3.729 0.847 3.532
3.286 0.518 3.112
3.418 0.694 2.912
3.648 0.961 4.081
3.979 0.625 3.856
3.738 0.625 3.593
3.458 0.705 3.329
3.461 0.467 2.926
3.470 0.277 3.053
4.018 0.482 3.878
3.810 0.271 3.320
3.987 0.228 3.353
3.611 0.475 3.024
0.998 0.658 -0.010
2.430 2.776 5.041
2.581 2.969 4.556
1.340 0.406 0.425
1.088 0.537 -0.103
2.574 2.628 4.762
2.705 2.822 4.904
2.422 2.363 4.770
1.451 0.417 0.259
1.198 0.274 -0.127
2.849 2.787 5.183
2.680 2.246 4.685
2.842 2.587 4.437
2.815 2.164 4.262
2.868 1.845 4.075
1.470 0.031 0.095
3.281 2.389 4.905
2.790 2.407 4.726
3.048 2.447 4.369
2.970 1.931 4.632
2.931 2.160 4.371
2.910 1.886 4.017
2.693 1.933 4.047
3.239 2.304 5.085
3.072 2.241 4.851
3.299 1.954 4.489
2.830 1.942 4.419
2.817 1.699 4.310
2.923 1.612 4.289
3.018 1.597 4.029
3.021 1.524 3.948
2.705 1.564 3.754
3.401 2.121 5.010
3.376 2.090 4.520
3.366 2.006 4.600
3.215 1.664 4.334
3.387 1.690 4.089
3.016 1.226 4.121
3.178 1.254 4.078
3.117 1.056 3.696
3.020 1.272 3.272
2.917 0.872 3.204
2.871 0.994 3.350
3.406 1.602 4.689
3.170 1.544 4.115
3.384 1.513 4.435
3.571 1.504 4.282
3.254 1.188 3.905
3.320 1.209 3.531
3.030 1.015 3.333
2.898 1.027 3.300
2.850 0.990 3.116
3.159 0.596 3.034
3.344 1.437 4.502
3.384 1.216 4.065
3.656 0.820 3.863
3.580 0.880 3.930
3.086 0.603 3.474
3.421 0.522 3.408
3.262 0.717 3.263
3.041 0.640 3.143
3.032 0.384 2.949
3.353 0.714 3.890
3.412 0.915 3.609
3.285 0.879 3.431
3.244 0.506 3.441
3.088 0.339 3.270
3.111 0.222 3.231
3.003 0.229 3.045
3.591 0.433 4.000
3.535 0.575 3.711
3.661 0.537 3.313
3.565 0.224 3.253
3.320 0.465 3.080
3.938 0.515 3.598
3.896 0.411 3.577
3.701 0.320 3.201
3.520 0.164 3.253
0.704 0.380 0.359
0.624 0.619 -0.033
2.431 2.561 4.903
0.898 0.629 0.543
0.860 0.373 0.504
1.202 0.437 0.339
2.610 2.430 4.800
2.680 2.386 5.044
1.469 0.155 0.345
1.151 0.176 0.174
1.138 0.389 0.021
2.624 2.285 4.987
2.632 2.405 4.767
2.830 2.093 4.664
1.534 -0.116 0.444
1.334 0.222 0.343
2.871 2.276 4.909
3.018 2.155 4.750
2.584 1.984 4.640
2.691 1.999 4.290
3.259 2.300 5.016
2.856 2.185 4.898
2.834 1.723 4.926
2.884 1.733 4.555
2.726 1.742 4.500
3.099 1.482 4.329
2.875 1.246 3.778
3.224 1.781 4.898
3.065 1.572 4.445
2.953 1.826 4.368
2.800 1.122 3.967
2.781 1.305 4.178
2.702 1.377 3.968
2.844 1.119 3.687
2.875 0.870 3.536
2.911 0.797 3.276
3.140 1.291 4.065
3.294 0.975 4.013
2.903 0.888 3.802
3.011 0.725 3.848
2.868 0.699 3.643
2.822 0.496 3.325
2.802 0.407 2.897
2.621 0.761 2.903
3.419 0.727 4.256
3.069 0.755 4.074
3.314 0.824 3.850
2.890 0.807 3.542
3.237 0.670 3.391
2.839 0.313 2.951
3.091 0.364 3.077
2.858 0.269 2.788
3.363 0.604 3.742
3.420 0.577 3.501
3.452 0.698 3.501
2.919 0.447 3.165
3.257 0.412 3.271
3.035 0.412 3.068
2.863 0.123 2.623
3.609 0.523 3.571
3.322 0.142 3.387
3.359 0.214 3.450
3.300 0.071 3.228
3.238 0.055 3.014
3.444 0.262 3.624
3.419 0.205 3.294
4.723 0.319 5.334
0.799 0.476 0.715
0.526 0.258 0.263
0.854 0.167 0.072
0.607 0.475 0.060
1.264 0.565 0.897
0.787 0.405 0.701
0.669 0.485 0.395
0.605 0.144 0.071
0.625 -0.004 0.183
2.538 2.512 4.998
1.091 0.172 1.073
1.015 0.175 0.570
1.220 0.270 0.650
0.836 0.242 0.512
2.664 2.091 5.188
1.240 0.087 0.838
1.143 0.219 0.754
2.706 2.291 5.221
2.560 0.809 3.634
2.662 0.827 3.095
2.478 0.833 3.050
2.648 0.590 2.977
2.554 0.462 2.706
2.687 0.613 3.676
2.539 0.834 3.589
2.818 0.594 3.475
2.712 0.670 3.053
2.768 0.325 2.847
2.477 0.098 2.862
2.485 0.117 2.540
3.122 0.498 3.693
3.057 0.466 3.372
2.712 0.530 3.625
2.837 0.335 3.132
2.809 0.466 2.779
2.649 0.231 2.717
2.778 0.255 2.660
2.882 0.400 3.968
2.913 0.359 3.472
3.099 0.057 3.573
2.726 0.329 3.040
3.000 0.050 3.112
3.328 0.092 3.733
3.163 -0.013 3.530
4.281 0.295 5.541
4.292 0.079 5.473
0.858 0.417 1.094
0.660 0.504 0.945
0.392 0.422 0.554
0.575 0.474 0.315
0.248 0.375 0.169
0.774 0.445 1.227
0.919 0.568 1.173
0.917 0.447 0.530
0.544 0.429 0.652
0.869 0.230 0.262
0.641 -0.015 0.199
1.204 0.423 1.394
1.254 0.181 1.107
0.819 0.127 0.993
0.766 0.279 0.627
0.820 -0.124 0.457
1.283 0.470 1.691
1.495 0.201 1.453
1.171 0.124 1.156
1.302 -0.103 1.169
1.483 0.240 1.502
1.466 0.034 1.391
2.091 0.176 2.305
1.894 0.013 2.109
1.873 0.071 1.700
2.118 0.384 3.078
2.299 0.319 2.962
2.056 0.385 2.732
2.055 0.167 2.650
1.892 0.083 2.448
2.724 0.657 3.310
2.670 0.154 3.240
2.297 0.431 3.252
2.424 0.208 2.768
2.178 0.110 2.686
2.407 0.034 2.719
2.782 0.561 3.875
2.772 0.336 3.381
2.679 0.393 3.398
2.777 0.351 2.915
2.549 -0.052 2.799
2.786 0.383 3.676
2.886 -0.088 3.701
2.549 0.267 3.206
3.790 0.481 5.669
3.967 -0.006 5.679
4.182 0.153 5.511
0.430 0.287 1.425
0.429 0.439 1.238
0.731 0.452 0.666
0.547 0.088 0.446
0.290 -0.016 0.593
1.009 0.344 1.479
0.812 0.300 1.344
0.560 0.189 1.273
0.838 0.095 0.680
0.392 0.126 0.530
0.947 0.494 1.922
0.962 0.169 1.373
1.170 0.030 1.224
0.696 -0.033 1.056
1.407 0.129 2.139
1.222 0.382 1.739
0.967 0.111 1.744
0.901 -0.141 1.268
1.520 0.101 2.089
1.535 0.191 1.775
1.414 -0.017 1.761
1.758 0.157 2.474
1.640 0.032 2.518
1.790 -0.169 2.219
2.118 0.558 3.042
2.132 0.148 3.069
1.846 0.285 2.892
1.843 0.029 2.703
2.084 0.092 3.498
2.456 0.226 3.249
2.401 0.113 3.123
2.406 0.417 3.663
2.436 0.185 3.596
2.503 0.156 3.564
6.389 3.521 -0.108
6.152 3.110 0.410
6.077 2.808 0.183
6.265 2.776 0.089
6.005 2.744 -0.008
5.184 4.436 1.312
5.416 4.457 1.412
5.930 2.569 0.041
5.862 2.834 0.266
5.899 2.687 -0.133
6.401 2.537 0.335
6.121 2.410 0.168
6.171 2.505 0.302
6.109 2.065 0.046
5.432 4.534 1.728
4.986 4.772 1.846
5.336 4.749 1.513
5.153 4.351 1.315
5.031 4.214 1.080
5.222 4.464 1.493
5.036 4.448 1.309
4.982 4.236 1.474
6.047 2.520 0.529
6.002 2.298 0.093
6.073 2.276 0.557
5.945 2.266 0.196
6.085 1.979 0.340
6.266 2.192 -0.162
6.458 2.160 0.473
5.978 2.052 -0.029
6.022 1.798 0.369
5.994 1.673 0.002
6.133 1.483 0.078
5.158 4.400 1.748
5.118 4.725 1.792
4.783 4.624 1.601
4.706 4.390 1.380
4.627 4.353 0.961
4.914 4.022 1.043
5.080 4.450 1.967
5.389 4.218 1.942
5.241 4.224 1.823
4.851 4.395 1.569
5.100 4.003 1.255
5.427 4.376 2.101
5.268 4.330 1.632
5.202 4.145 1.719
5.016 4.054 1.343
5.620 4.007 2.466
5.770 4.052 1.990
5.508 3.783 1.639
5.370 4.052 1.716
5.556 3.979 2.125
5.678 4.062 2.126
5.751 3.777 2.249
5.606 3.668 1.794
5.697 3.916 2.111
6.024 4.032 2.471
6.015 3.924 2.466
5.993 3.546 2.366
6.423 3.892 2.610
6.236 3.659 2.345
6.033 3.578 2.336
6.113 3.581 2.495
6.424 3.750 2.494
5.984 3.728 2.602
6.111 2.180 0.369
6.062 2.210 0.443
6.083 2.099 0.658
6.369 1.837 0.372
6.160 1.970 0.310
6.205 1.611 0.112
6.384 1.566 0.221
6.247 1.818 0.382
6.192 2.018 1.272
6.202 1.850 0.889
5.935 1.725 0.523
5.843 1.366 0.426
6.170 1.505 0.491
6.410 1.396 0.700
6.027 1.241 0.283
6.269 1.408 0.050
6.284 0.916 0.381
4.841 4.490 1.998
4.817 4.500 1.959
4.672 4.106 1.643
4.956 4.443 1.483
4.519 4.258 1.464
4.411 4.226 1.091
4.853 4.484 2.332
4.908 4.412 1.964
4.849 4.260 1.877
4.817 4.046 1.731
4.662 4.056 1.404
4.773 3.894 1.167
5.216 4.110 2.477
5.251 4.264 2.114
5.025 3.927 2.182
5.176 4.181 1.735
4.953 3.756 1.367
5.004 3.909 1.235
5.325 4.352 2.278
5.503 3.927 2.150
5.176 4.044 2.123
5.541 4.068 2.142
5.379 3.823 1.981
5.253 3.630 1.676
5.444 4.298 2.418
5.735 3.905 2.303
5.651 3.902 2.027
5.439 3.891 1.781
5.189 3.650 1.930
5.639 4.029 2.732
5.685 3.715 2.380
5.756 3.620 2.600
5.909 3.806 2.232
5.628 3.775 1.831
6.047 3.997 3.009
5.623 3.770 2.749
5.926 3.512 2.323
5.918 3.447 2.316
6.037 3.420 2.321
6.075 3.955 3.093
6.080 3.997 2.745
5.746 3.860 2.519
5.863 3.758 2.412
6.139 3.557 2.421
6.327 3.799 2.916
6.278 3.469 3.097
6.203 3.533 2.731
6.193 3.179 2.322
5.983 3.431 2.651
6.353 3.161 2.508
6.175 3.267 2.485
5.864 1.819 0.530
5.847 1.521 0.317
6.068 1.762 1.152
6.424 1.974 1.066
6.291 1.910 0.564
6.054 1.481 0.449
5.861 1.495 0.192
6.218 1.704 1.206
5.953 1.676 0.744
6.083 1.462 0.475
6.465 1.428 1.354
6.371 1.295 1.235
5.981 1.167 0.586
6.123 1.459 0.626
6.171 1.216 0.611
6.321 1.149 1.036
5.986 1.094 0.652
5.999 1.004 0.427
6.049 0.716 0.394
6.273 0.759 0.420
4.891 4.183 2.150
4.727 4.378 1.913
4.845 4.254 1.849
4.685 4.130 1.786
4.342 4.072 1.311
4.441 3.800 1.422
4.811 4.133 2.319
5.095 4.330 1.804
4.591 3.799 1.697
4.562 3.953 1.634
4.882 4.002 1.363
4.793 3.823 1.471
5.302 3.948 2.677
5.145 3.901 2.208
5.133 3.763 2.280
5.120 3.964 1.908
4.762 3.799 1.465
4.650 3.669 1.362
4.669 3.379 1.312
5.342 4.128 2.468
5.218 4.029 2.691
5.339 4.065 2.348
4.972 3.626 2.255
4.958 3.548 1.992
5.151 3.356 1.931
5.210 3.365 1.322
5.189 4.222 2.465
5.416 4.041 2.339
5.263 3.787 2.725
5.247 3.857 2.375
5.390 3.500 2.192
5.109 3.745 1.974
5.286 3.501 1.724
5.382 4.115 2.769
5.477 3.766 2.805
5.506 3.624 2.262
5.470 3.847 2.658
5.668 3.349 2.466
5.505 3.399 2.169
5.616 3.150 1.947
5.910 3.870 3.114
5.713 3.906 2.802
5.563 3.624 2.570
5.590 3.494 2.669
5.777 3.522 2.376
5.460 3.430 2.174
5.523 3.357 2.163
6.031 3.777 3.435
6.125 3.704 3.228
6.105 3.769 2.837
5.762 3.367 2.840
5.697 3.527 2.690
5.940 3.437 2.588
5.674 3.055 2.633
6.303 3.454 3.597
5.842 3.637 2.953
6.148 3.654 2.972
5.720 3.385 2.956
5.700 3.537 2.781
5.808 3.237 2.807
6.205 3.219 3.076
6.022 3.333 3.203
6.339 3.407 2.712
5.951 3.173 2.438
6.070 3.282 2.700
5.899 1.847 1.074
5.948 1.411 0.818
6.145 1.430 0.435
5.896 1.524 1.314
6.096 1.410 0.965
6.045 1.112 0.897
5.892 1.139 0.512
6.099 1.451 1.496
6.193 1.220 0.907
6.082 0.904 0.864
6.014 1.040 0.665
5.946 0.683 0.506
6.414 0.781 1.112
6.072 0.864 0.924
6.353 0.892 0.477
6.199 0.518 0.210
5.988 0.266 0.374
6.217 0.412 0.435
6.346 -0.064 0.208
4.690 3.950 1.903
4.369 4.136 1.887
4.408 4.049 1.735
4.421 4.108 1.536
4.092 3.921 1.217
4.398 3.736 1.205
4.854 4.118 2.123
4.937 4.041 1.918
4.636 3.985 2.084
4.389 3.689 1.506
4.408 3.705 1.647
4.578 3.674 1.116
4.586 3.756 1.313
4.910 3.863 2.563
4.943 3.963 2.356
4.645 3.759 2.056
4.803 3.828 1.819
4.518 3.766 1.656
4.656 3.691 1.618
4.629 3.647 1.546
4.477 3.310 0.980
5.221 4.147 2.484
5.177 3.645 2.734
5.082 3.892 2.621
4.946 3.433 2.202
5.005 3.544 2.194
4.660 3.659 1.819
4.639 3.142 1.711
4.663 3.197 1.513
5.330 3.926 2.733
5.126 4.067 2.566
5.424 3.537 2.717
5.114 3.448 2.536
4.934 3.505 2.272
5.194 3.169 2.036
4.912 3.335 1.602
4.876 3.182 1.781
5.333 3.932 2.891
5.339 3.590 2.637
5.171 3.653 2.485
5.427 3.722 2.746
5.364 3.207 2.634
5.365 3.083 2.161
5.010 3.090 2.213
5.843 3.710 2.983
5.423 3.700 3.225
5.324 3.824 2.810
5.207 3.507 2.515
5.650 3.242 2.728
5.376 3.386 2.694
5.354 3.030 2.304
5.851 3.527 3.551
5.857 3.471 3.389
5.722 3.307 3.111
5.801 3.625 2.887
5.732 3.175 2.677
5.845 3.171 2.803
5.618 3.179 2.442
5.974 3.702 3.316
5.847 3.573 3.482
5.891 3.124 3.209
5.606 3.031 3.110
5.705 3.212 2.521
5.781 3.153 2.603
6.161 3.548 3.288
6.019 3.082 3.195
5.840 3.293 3.349
6.019 3.209 3.136
5.729 3.194 2.634
6.356 3.009 3.314
6.078 2.848 2.948
6.061 2.844 3.155
5.896 1.629 1.835
5.848 1.153 1.530
5.711 1.065 1.147
5.933 1.250 0.797
6.119 1.390 1.451
5.885 1.038 1.529
5.806 1.110 1.295
5.994 1.109 0.828
5.786 0.873 0.731
6.057 0.767 1.279
6.113 0.817 1.229
6.171 0.606 1.090
5.968 0.758 0.680
5.977 0.407 0.645
6.274 0.450 1.270
6.182 0.512 1.031
5.995 0.464 0.519
6.185 0.291 0.364
6.435 0.441 0.565
6.112 0.028 0.638
5.938 0.085 0.270
4.232 4.075 2.260
4.332 3.984 1.897
4.288 3.744 1.785
4.097 3.459 1.485
4.231 3.538 1.308
4.778 3.689 2.231
4.573 3.552 1.872
4.605 3.828 2.002
4.428 3.644 1.889
4.325 3.538 1.354
4.171 3.256 1.263
4.207 3.478 1.295
4.759 3.815 2.455
4.911 3.476 2.142
4.834 3.391 2.139
4.449 3.594 1.809
4.650 3.568 1.833
4.332 3.394 1.380
4.187 3.430 1.064
4.392 3.289 1.281
5.108 3.574 2.494
4.978 3.607 2.328
4.717 3.570 2.332
4.624 3.644 2.348
4.850 3.469 1.714
4.805 3.170 1.683
4.438 3.059 1.508
4.548 3.282 1.517
4.947 3.773 2.516
5.128 3.374 2.687
5.139 3.554 2.635
5.076 3.518 2.463
4.979 3.279 2.157
4.775 3.161 2.043
4.712 3.169 1.935
4.693 2.801 1.782
5.398 3.774 2.863
5.328 3.644 2.508
5.245 3.484 2.952
5.350 3.373 2.429
5.375 3.183 2.505
5.314 3.312 2.336
5.414 3.418 3.180
5.472 3.594 3.144
5.405 3.631 2.961
5.410 3.518 2.707
5.292 3.449 2.696
5.361 3.084 2.665
5.783 3.684 3.411
5.556 3.696 3.516
5.763 3.179 2.927
5.329 3.448 2.757
5.273 3.133 2.890
5.492 3.091 2.661
5.651 3.380 3.609
5.542 3.113 3.359
5.934 3.096 3.015
5.550 3.035 2.918
5.674 2.825 2.827
5.863 3.449 3.474
5.975 3.022 3.204
5.708 3.078 3.145
5.655 3.030 3.090
6.259 2.968 3.598
6.192 3.231 3.521
6.072 2.696 3.292
6.346 3.066 3.807
6.361 2.975 3.261
5.907 1.182 1.695
5.802 1.079 1.680
5.789 1.173 1.473
6.040 1.158 2.092
5.962 1.035 1.932
6.021 0.802 1.658
5.963 1.137 1.393
5.725 0.787 1.044
6.480 1.072 2.128
6.149 1.086 1.917
6.064 0.821 1.981
6.175 1.053 1.724
5.783 0.663 1.241
5.745 0.587 1.400
6.080 0.651 1.096
6.257 0.547 1.451
6.047 0.406 1.318
5.893 0.529 1.167
6.278 0.216 1.090
6.120 0.358 0.847
6.305 0.410 1.074
6.097 0.042 1.102
6.101 -0.027 0.837
6.187 0.025 0.701
6.290 0.045 0.764
4.296 3.582 1.728
3.888 3.648 1.531
4.002 3.570 1.775
4.103 3.312 1.369
3.927 3.277 1.142
4.455 3.862 2.040
4.048 3.697 2.053
4.370 3.330 1.824
4.327 3.315 1.507
3.986 3.406 1.143
4.006 3.270 1.154
4.112 2.871 1.150
4.600 3.403 2.458
4.411 3.464 2.182
4.599 3.435 2.222
4.273 3.071 1.949
4.400 3.282 1.583
4.067 2.933 1.648
3.938 2.902 1.046
4.172 3.169 1.244
4.813 3.487 2.775
4.776 3.454 2.232
4.780 3.292 2.253
4.612 3.019 1.781
4.560 3.322 1.587
4.484 3.293 1.390
4.289 2.807 1.484
4.265 2.748 1.226
5.026 3.495 2.844
4.634 3.016 2.568
4.645 3.177 2.187
4.594 3.259 2.182
4.450 3.162 1.641
4.362 2.731 1.573
4.926 3.186 2.820
5.042 3.364 2.585
4.851 2.967 2.646
5.387 3.571 3.188
5.167 3.428 3.084
5.281 3.351 2.932
5.748 3.536 3.741
5.429 3.538 3.354
5.614 3.275 3.414
5.296 3.032 3.172
5.837 3.059 3.539
5.479 3.051 3.430
5.593 2.930 3.522
5.662 2.821 3.221
5.729 2.981 3.686
5.803 2.951 3.413
5.802 3.046 3.163
5.736 2.732 3.656
5.818 2.663 3.659
5.886 2.804 3.875
5.569 0.996 1.703
6.027 1.231 2.478
6.042 0.865 2.097
5.667 1.054 2.020
5.663 0.741 1.706
5.750 0.831 1.335
6.145 1.040 2.566
6.196 0.848 2.158
6.207 1.157 1.996
5.763 0.947 1.882
5.810 0.602 1.905
6.037 0.423 1.663
5.964 0.642 1.172
6.427 0.639 2.402
6.023 0.586 2.318
6.368 0.628 1.702
5.886 0.548 1.919
5.929 0.308 1.727
6.143 0.495 1.144
6.330 0.450 1.975
6.339 0.266 1.557
5.985 0.121 1.279
3.792 3.304 1.736
3.900 3.562 1.537
4.008 3.261 1.577
3.668 3.334 1.314
3.863 3.141 0.975
4.358 3.644 2.104
3.975 3.310 1.652
4.172 3.392 1.805
3.784 2.958 1.310
3.742 2.891 1.493
3.604 2.832 1.154
3.603 2.950 1.102
4.310 3.338 2.130
4.413 3.107 1.947
4.245 3.199 1.499
4.103 2.791 1.741
3.890 2.735 1.086
4.134 2.759 1.157
4.104 2.866 0.927
4.174 2.937 2.349
4.255 2.864 1.748
4.423 3.167 1.960
4.445 2.867 1.671
4.387 2.665 1.151
4.197 2.779 1.321
3.994 2.776 0.956
4.331 2.760 2.127
4.607 2.906 1.812
4.312 2.789 1.374
4.521 2.816 1.419
4.069 2.582 0.984
5.362 3.219 3.753
5.633 3.248 3.985
5.790 2.832 3.893
3.778 0.084 6.029
3.926 0.054 6.095
3.803 0.327 6.279
3.783 -0.137 6.112
1.878 2.613 6.299
1.910 2.556 5.807
2.266 2.429 6.187
2.237 2.495 5.903
2.558 2.209 6.493
2.444 2.183 5.877
3.492 0.451 6.250
3.715 0.180 6.305
3.296 0.458 6.134
3.409 0.220 6.317
3.436 0.325 6.004
3.205 0.338 6.120
3.999 -0.051 5.830
3.821 -0.051 5.843
0.323 0.684 1.579
0.266 0.158 1.399
0.458 0.231 1.255
0.425 0.051 0.815
0.181 0.283 0.896
0.278 0.035 0.502
0.580 0.285 1.892
0.860 0.152 1.617
0.656 0.347 1.471
0.486 0.057 1.011
0.556 0.158 0.981
1.140 0.221 1.800
0.697 0.436 1.899
0.810 -0.035 1.532
0.874 0.107 1.287
1.409 0.156 2.424
1.229 -0.037 2.040
1.075 0.104 1.664
1.174 0.022 2.206
1.573 0.236 2.070
1.564 -0.079 2.708
1.735 -0.005 2.361
1.928 0.234 3.115
1.596 0.057 2.719
2.026 0.152 3.144
3.581 0.347 5.912
3.417 0.076 5.909
3.623 0.156 5.856
0.481 0.431 1.725
0.455 0.150 1.655
0.504 0.424 1.552
0.150 0.159 1.118
0.312 0.285 0.956
0.376 0.218 2.092
0.760 0.096 1.782
0.490 0.318 1.378
0.485 0.215 1.425
0.910 0.450 2.143
0.711 0.136 1.724
0.813 0.181 1.894
1.024 -0.021 2.345
0.885 0.041 2.048
1.383 -0.067 2.715
