0.483 6.488 2.121
2.406 0.720 0.393
2.212 0.942 0.163
2.308 0.867 0.344
2.145 0.943 -0.037
2.258 1.064 0.286
2.396 1.657 0.185
1.343 5.746 1.633
0.963 5.700 1.789
1.283 5.881 1.955
1.026 6.305 1.635
0.954 6.005 1.268
2.816 0.697 0.189
2.500 1.096 0.122
2.445 0.813 0.685
2.792 0.878 0.445
2.562 1.387 -0.156
1.407 6.173 1.933
3.014 0.871 0.520
2.958 1.006 0.385
2.457 2.994 1.172
2.330 3.436 1.100
2.390 3.389 0.728
2.377 3.917 1.188
2.458 3.557 1.051
2.183 4.171 1.528
2.046 4.155 1.091
2.162 5.066 0.342
2.219 5.298 0.475
2.354 5.219 0.128
2.067 5.383 0.209
3.007 2.808 1.043
2.602 3.188 1.079
2.832 3.297 1.006
2.859 3.300 1.108
2.628 3.342 1.059
2.557 3.759 0.922
2.890 3.746 0.780
2.570 3.974 1.164
2.680 3.756 1.226
2.562 4.095 0.974
2.718 3.895 0.698
2.461 4.366 0.812
2.860 4.408 0.406
2.317 3.872 1.267
2.708 4.210 1.255
2.374 4.013 0.780
2.553 4.264 0.699
2.423 4.362 0.477
2.559 4.467 0.521
2.682 4.522 0.252
2.490 4.218 1.340
2.421 4.538 0.998
2.459 4.542 0.566
2.527 4.563 0.694
2.540 4.869 0.311
2.297 4.767 0.374
2.294 4.590 0.941
2.434 4.967 0.650
2.581 4.948 0.181
2.424 5.348 0.061
2.103 5.176 0.778
2.205 5.641 0.230
2.601 5.448 0.283
2.521 5.469 0.553
2.477 5.928 -0.009
2.345 5.962 -0.208
3.116 3.132 0.952
3.188 2.996 0.993
2.853 3.506 1.111
3.110 3.263 0.870
3.012 3.310 0.572
2.823 3.579 0.590
2.700 3.411 1.202
2.779 3.555 0.996
3.036 3.893 0.608
2.903 3.722 0.574
2.922 3.998 0.656
2.731 4.011 0.482
2.933 3.564 1.135
2.627 3.983 0.906
2.668 4.139 1.070
2.979 4.265 0.517
2.899 4.368 0.562
2.891 4.191 0.654
3.099 4.542 0.073
2.958 3.948 1.472
3.004 3.955 1.097
3.059 4.147 0.880
3.058 4.119 0.615
2.707 4.745 0.847
2.632 4.751 0.342
2.908 4.590 0.445
2.514 4.145 1.190
2.501 4.346 1.252
2.698 4.441 0.570
2.640 5.039 0.660
2.499 4.696 0.535
2.660 5.107 0.491
2.700 5.226 0.147
2.470 4.482 1.125
2.705 4.936 0.686
2.493 4.833 0.949
2.710 4.952 0.672
2.903 5.390 0.593
2.821 5.447 -0.027
2.554 5.116 0.757
2.656 5.416 0.953
2.827 5.466 0.640
2.714 5.793 0.027
2.436 5.873 0.338
2.425 5.955 0.080
2.590 5.850 -0.210
2.461 6.164 0.489
2.546 6.268 -0.148
3.647 2.887 1.211
3.673 2.867 0.860
3.479 3.339 1.077
3.588 3.021 1.123
3.237 3.425 0.527
3.422 3.123 1.523
3.084 3.247 0.842
3.432 3.658 0.783
3.158 3.964 0.436
3.138 3.434 1.509
3.006 3.479 1.160
3.410 3.953 0.904
3.383 3.973 0.768
3.271 4.150 0.502
3.321 4.023 0.228
3.292 3.741 1.495
3.236 4.087 1.061
3.029 4.232 1.105
3.139 4.051 0.772
3.089 4.415 0.789
2.935 4.347 0.655
3.127 4.149 1.685
2.951 4.371 1.452
3.010 4.086 1.215
3.134 4.537 0.481
2.870 4.466 0.671
3.068 4.554 0.577
3.068 4.723 0.489
3.251 5.100 -0.013
3.194 4.478 1.277
2.770 4.727 1.017
2.836 4.753 0.725
3.012 4.983 0.837
2.894 5.001 0.426
3.185 5.279 0.447
3.181 5.131 0.267
2.912 4.674 1.335
2.876 4.988 0.945
2.808 4.903 0.768
2.698 5.184 0.817
2.928 5.040 0.636
2.934 5.286 0.062
2.965 5.324 0.889
2.812 5.583 0.997
3.090 5.257 0.815
3.027 5.511 0.423
2.809 5.607 0.196
2.694 5.402 0.996
2.799 5.724 1.011
2.669 5.678 0.492
2.855 5.778 0.120
2.774 6.034 -0.108
2.935 6.123 0.640
2.682 6.213 0.545
2.738 6.274 0.017
3.578 2.846 1.006
3.397 3.005 0.688
3.847 3.038 1.220
3.476 2.959 0.822
3.957 3.294 0.862
3.669 3.077 1.344
3.582 3.233 1.014
3.871 3.296 0.778
3.504 3.395 1.386
3.432 3.497 0.998
3.472 3.522 0.881
3.510 4.096 0.750
3.517 3.745 1.553
3.419 3.790 1.170
3.360 3.862 0.854
3.618 4.048 0.700
3.242 4.095 0.793
3.470 3.827 1.452
3.595 4.203 1.357
3.479 4.154 0.728
3.263 4.026 0.757
3.156 4.576 0.728
3.539 4.688 0.361
3.438 4.225 1.438
3.537 4.263 1.095
3.481 4.583 0.578
3.198 4.607 0.990
3.189 4.984 0.450
3.154 4.912 0.353
3.220 4.533 1.181
3.073 4.911 0.902
3.334 4.924 0.781
3.350 5.258 0.431
3.166 5.054 0.619
3.470 5.080 0.063
3.059 4.863 1.109
3.103 5.307 0.819
3.235 5.490 0.725
3.154 5.317 0.613
3.371 5.191 0.141
3.163 5.336 0.754
3.253 5.401 0.619
3.072 5.842 0.575
3.380 5.557 0.461
3.243 5.549 -0.214
2.934 5.733 0.639
2.897 6.046 0.438
3.193 5.751 0.111
3.062 5.915 0.205
2.709 6.213 0.738
2.894 5.871 0.638
2.903 6.091 0.534
2.886 6.303 0.063
3.582 2.885 0.920
3.690 2.880 0.739
3.606 2.915 1.342
3.498 2.904 1.071
3.631 3.194 0.639
3.829 3.170 1.043
3.994 3.136 0.847
3.860 3.372 0.935
3.699 3.182 1.332
4.035 3.371 0.938
4.026 3.232 0.925
3.590 3.465 1.286
3.623 3.332 1.193
3.892 3.755 1.103
3.552 3.748 1.280
3.565 3.997 1.412
3.657 4.072 0.735
3.400 5.107 0.707
3.437 5.310 0.698
3.195 5.748 0.653
3.552 5.795 0.646
3.395 5.621 0.383
3.676 5.708 0.074
3.305 5.662 1.146
3.175 6.042 0.439
3.192 5.976 0.185
3.410 5.931 0.323
3.139 6.135 0.796
3.020 6.186 0.586
3.360 6.020 0.273
3.967 2.605 1.183
4.002 2.369 1.077
3.849 2.485 1.317
4.113 2.962 0.729
4.116 2.868 0.538
3.865 2.956 1.313
3.846 3.015 1.205
3.960 3.028 0.592
4.117 3.018 1.346
4.276 3.151 1.090
4.382 3.386 1.006
4.077 3.067 1.483
3.900 3.219 1.155
4.178 3.700 1.321
4.127 3.825 1.024
3.437 6.080 0.634
3.360 5.852 0.642
3.413 6.319 0.414
3.267 5.921 1.050
3.403 6.091 0.688
4.754 1.661 0.068
4.905 1.523 0.054
4.584 1.642 0.114
4.782 1.674 0.299
4.686 2.201 0.286
4.604 2.033 0.566
4.560 1.814 0.198
4.367 1.950 0.820
4.583 2.303 0.631
4.691 1.957 0.601
4.639 2.523 1.010
4.314 2.181 0.872
4.688 2.478 0.520
4.309 2.761 1.345
4.421 2.592 1.119
4.595 2.842 0.467
4.261 2.723 0.968
4.471 2.953 1.091
4.354 3.044 0.899
4.289 2.857 1.227
4.236 3.325 1.021
4.022 3.321 0.849
4.572 3.096 1.397
4.627 3.225 1.082
4.344 3.132 1.233
4.810 1.506 -0.021
5.009 1.352 0.374
4.962 1.696 0.269
4.989 2.043 0.238
5.027 1.866 0.780
4.932 1.703 0.535
4.907 1.648 0.152
5.003 2.033 0.385
4.614 2.083 0.968
5.007 2.006 0.767
4.953 1.870 0.279
4.682 2.294 0.397
4.767 2.583 0.128
4.785 2.211 1.119
4.990 1.981 0.824
4.664 2.327 0.732
4.857 2.168 0.165
4.720 2.810 0.282
4.766 2.132 1.204
4.730 2.495 0.953
4.578 2.289 0.363
4.884 2.752 0.460
4.691 2.631 1.085
4.428 2.565 0.970
4.541 2.662 0.801
4.748 2.756 1.051
4.632 3.015 0.808
4.584 3.120 0.729
4.375 3.229 1.513
4.691 2.940 0.940
4.753 3.319 1.443
5.409 1.568 0.016
5.182 1.680 0.271
5.374 1.426 -0.081
5.413 1.736 0.270
5.049 1.673 0.660
5.032 1.943 0.666
5.341 2.076 0.402
5.135 2.035 0.443
5.055 1.942 1.039
5.291 1.958 0.729
5.281 1.940 0.726
5.203 2.141 0.167
5.120 2.492 0.076
4.897 2.675 0.074
5.184 2.089 0.966
5.063 2.268 0.593
4.980 2.398 0.414
5.039 2.601 0.522
4.870 2.423 0.436
4.799 2.287 1.212
4.835 2.627 1.050
4.812 2.717 0.809
4.971 2.465 0.239
4.827 2.861 1.003
5.042 2.645 1.002
4.977 2.997 0.501
4.934 2.973 1.150
4.650 3.108 0.918
4.770 2.962 1.360
5.429 1.542 0.194
5.365 1.788 0.231
5.324 1.500 0.031
5.410 1.884 0.373
5.332 1.867 0.783
5.647 1.764 0.617
5.386 1.779 0.456
5.493 2.459 0.084
5.393 2.064 0.286
5.537 2.114 1.181
5.152 1.977 0.943
5.342 2.374 0.692
5.499 2.107 0.180
5.548 2.551 0.425
5.044 2.364 1.320
5.362 2.096 0.957
5.511 2.516 0.615
5.583 2.344 0.381
5.417 2.470 1.112
5.427 2.634 0.902
5.209 2.412 0.727
5.106 2.624 1.323
5.149 2.946 0.996
5.174 2.685 0.827
4.806 3.011 1.306
4.959 3.060 1.052
5.990 1.722 -0.036
5.653 1.787 0.326
5.911 1.832 0.505
5.558 1.871 0.014
5.566 2.103 0.443
5.850 1.905 0.234
5.767 2.242 0.106
5.644 2.244 1.082
5.380 2.282 1.072
5.478 2.313 0.846
5.589 2.274 0.497
5.674 2.234 1.126
5.470 2.481 0.695
5.810 2.569 0.721
5.436 2.398 1.191
5.542 2.637 1.256
5.155 2.957 1.572
5.648 2.726 0.893
1.892 0.163 0.498
2.284 0.162 0.514
2.122 0.216 0.612
1.918 0.213 0.414
2.628 0.053 0.833
2.701 0.239 0.662
2.306 0.117 0.822
2.253 0.422 0.493
2.559 0.018 1.094
2.879 0.063 0.990
2.921 0.092 0.742
2.821 0.087 1.192
2.777 0.494 0.801
2.411 0.279 0.698
3.158 -0.050 1.028
2.766 -0.086 0.794
3.128 0.160 0.777
2.575 0.411 1.899
2.838 0.110 1.288
2.789 0.139 0.999
2.676 0.487 0.778
2.926 0.537 0.619
3.420 -0.017 1.496
3.117 0.283 1.059
3.181 0.281 0.849
3.392 0.175 0.380
3.214 -0.015 2.073
3.032 0.205 1.632
3.078 0.190 1.657
3.214 0.436 0.991
3.297 0.387 1.040
2.946 0.602 0.454
3.741 -0.134 0.906
3.435 -0.074 1.470
3.526 0.236 1.597
3.482 0.163 1.061
3.356 0.330 0.731
3.093 0.209 2.371
3.158 -0.077 2.222
3.210 0.007 1.873
3.440 0.072 1.960
3.326 0.581 1.739
3.494 0.598 1.411
3.251 0.672 1.112
3.943 -0.158 1.350
3.746 0.228 2.167
3.664 -0.023 1.947
3.562 0.368 1.684
3.735 0.109 1.368
3.646 0.175 2.683
3.653 0.234 2.339
3.604 0.134 2.568
3.808 0.079 1.856
3.724 0.417 1.829
3.608 0.489 1.362
3.802 0.659 1.228
3.950 0.052 1.192
3.757 0.127 2.079
4.096 0.038 2.204
4.148 0.083 2.031
3.908 0.143 1.358
3.984 0.578 1.126
3.662 0.251 2.685
3.842 0.035 2.658
3.835 0.079 2.398
3.678 0.255 2.166
3.872 0.279 1.868
3.730 0.478 1.722
4.167 -0.144 1.558
4.263 0.289 2.540
4.108 -0.005 2.285
4.377 0.352 1.878
4.302 0.293 1.787
4.222 0.061 2.909
4.236 0.391 2.494
3.896 0.441 1.989
4.302 0.471 2.023
4.352 0.145 1.993
4.359 0.145 1.620
4.198 0.108 2.534
4.547 0.240 2.059
4.232 0.264 1.970
4.256 0.431 2.599
4.509 0.708 1.968
4.993 -0.152 2.301
4.554 0.209 2.034
5.383 0.167 4.550
5.592 0.223 4.799
5.329 0.056 4.343
5.430 0.420 4.350
1.607 -0.062 -0.034
2.111 0.212 -0.031
1.804 0.170 0.015
2.361 0.352 0.340
2.209 0.498 0.224
2.506 0.367 0.156
2.232 0.523 0.316
2.489 0.580 0.261
2.925 -0.169 0.111
2.828 0.417 0.413
2.669 0.422 0.167
2.708 0.699 0.076
2.898 0.418 0.458
2.738 0.458 0.249
2.779 0.709 0.174
5.504 1.636 -0.071
5.139 1.197 0.182
5.761 1.387 0.229
5.580 1.316 -0.002
5.931 -0.164 4.321
5.701 -0.039 4.160
5.842 -0.037 5.060
5.551 0.279 4.595
5.856 0.179 4.526
5.609 0.428 4.280
5.777 0.518 4.201
5.745 0.319 3.987
5.945 0.203 4.246
5.839 0.352 4.112
6.347 0.207 3.603
5.694 0.016 5.335
6.071 0.121 4.780
6.101 0.149 4.788
6.195 0.361 4.242
6.138 0.448 3.971
5.817 0.674 3.786
6.004 0.579 3.635
6.241 0.188 4.669
6.204 0.211 4.734
5.994 0.351 4.635
6.389 0.544 4.324
6.001 -0.083 4.374
5.969 0.210 4.086
5.522 -0.135 4.935
5.523 0.053 5.011
5.927 0.169 4.413
5.797 0.147 4.384
5.584 0.134 4.284
5.535 0.534 3.653
0.380 0.046 1.558
0.321 -0.210 2.273
0.201 -0.023 2.029
0.136 0.038 1.799
0.285 0.318 1.942
0.245 0.301 1.258
0.037 0.312 1.302
-0.164 0.442 2.674
-0.157 0.124 2.288
-0.096 0.373 2.116
0.211 0.751 1.813
0.258 0.856 1.487
0.074 0.670 1.091
0.181 0.585 0.882
0.056 0.644 2.062
0.069 0.731 1.973
0.000 0.814 1.439
0.320 1.112 1.394
0.371 1.136 1.296
-0.042 1.302 0.839
-0.231 1.019 1.569
-0.189 1.008 1.425
0.235 1.125 1.188
0.292 1.526 0.979
0.006 1.847 1.990
0.146 1.507 2.049
0.241 1.830 1.736
0.329 -0.173 2.009
0.545 0.289 1.545
0.160 0.228 2.701
0.204 0.076 2.649
0.199 0.228 2.282
0.363 0.356 2.027
0.451 0.280 1.785
0.695 0.561 1.514
0.178 0.248 2.437
0.254 0.502 2.238
0.308 0.496 1.867
0.169 0.713 1.782
0.544 0.797 1.570
0.302 0.674 1.230
0.073 0.763 2.458
0.371 0.722 2.040
0.070 0.764 1.844
0.209 0.815 1.553
0.598 0.965 1.189
0.221 0.861 1.247
0.168 1.089 2.572
0.354 1.252 2.085
0.413 1.210 1.905
0.370 1.382 1.627
0.408 1.232 1.251
0.502 1.459 1.333
0.343 1.189 2.290
0.019 1.360 1.908
0.290 1.311 1.800
0.422 1.650 1.488
0.445 1.354 1.289
-0.118 1.423 2.168
-0.124 1.680 2.031
0.271 1.607 1.430
0.124 0.501 5.256
0.102 0.952 5.160
0.089 1.031 4.608
0.309 1.390 2.437
0.349 1.687 1.974
0.279 1.970 2.062
0.596 1.663 1.588
0.017 1.336 4.776
0.190 1.908 2.314
0.108 1.808 1.883
0.780 0.273 2.109
0.409 0.040 2.770
0.407 0.393 2.412
0.545 0.122 2.069
0.826 0.385 1.807
0.663 0.247 1.852
0.647 0.341 2.427
0.818 0.427 2.212
0.418 0.793 2.135
0.762 0.836 1.912
0.448 0.495 1.705
0.704 0.663 2.405
0.497 0.689 2.193
0.619 1.048 1.906
0.451 1.021 1.839
0.766 1.132 1.292
0.691 0.791 2.431
0.717 0.860 2.288
0.682 0.990 2.239
0.379 1.354 1.551
0.766 1.297 1.715
0.206 0.583 4.906
0.471 1.205 2.500
0.613 1.261 2.136
0.521 1.504 1.768
0.574 1.581 1.785
0.049 0.847 5.239
0.160 0.767 4.986
-0.142 0.657 4.661
0.366 1.793 2.613
0.333 1.454 2.175
0.624 1.971 2.018
0.403 1.963 1.409
0.399 0.642 5.407
0.290 0.704 5.542
0.396 0.654 5.004
0.435 0.706 4.565
0.471 0.802 4.578
0.833 1.591 2.296
0.586 1.540 2.014
0.744 1.585 1.958
0.692 1.653 1.927
0.060 1.147 5.760
0.281 0.869 5.383
0.061 0.938 5.015
0.071 1.086 4.943
0.371 1.407 4.581
0.320 1.900 2.715
0.509 1.838 2.134
0.583 2.190 1.829
0.359 2.222 1.914
0.241 1.400 5.851
-0.097 1.167 5.616
-0.075 1.529 5.184
-0.016 1.326 4.901
0.514 2.049 2.353
0.184 1.265 5.903
-0.115 1.636 5.442
0.198 1.656 5.493
-0.109 1.640 5.068
0.202 1.616 5.224
0.129 4.244 1.609
0.021 4.422 1.475
0.969 0.484 2.327
1.154 0.515 1.987
0.850 0.668 2.419
1.127 0.595 2.244
1.098 0.896 1.768
0.544 0.858 2.460
0.987 0.816 2.021
0.680 0.915 2.160
1.076 1.219 1.925
0.437 0.450 5.076
0.289 0.444 4.756
0.721 0.831 2.829
0.827 1.141 2.148
0.673 1.466 1.975
0.595 1.399 1.761
0.761 1.310 1.586
0.100 0.517 5.174
0.623 0.818 4.930
0.560 0.773 4.889
0.488 1.192 2.607
0.481 1.598 2.112
0.733 1.311 1.760
0.604 1.404 1.583
0.364 0.834 5.520
0.283 0.571 5.386
0.432 0.736 5.049
0.227 0.948 4.788
0.572 1.176 4.614
0.343 1.672 2.519
0.470 1.547 2.341
0.567 1.677 1.758
0.610 1.731 1.816
0.715 0.839 5.521
0.566 1.033 5.580
0.405 0.833 4.875
0.608 1.146 4.779
0.753 0.931 4.491
0.772 1.851 2.319
0.812 1.571 2.219
0.874 1.829 1.833
0.879 1.955 1.623
0.408 0.902 5.633
0.606 1.254 5.432
0.546 1.279 4.941
0.690 1.136 4.841
1.005 1.914 2.401
1.041 1.888 2.435
0.931 2.352 2.087
0.866 2.295 1.584
0.568 1.179 5.380
0.182 1.342 5.247
0.321 1.509 4.961
0.926 2.321 2.665
0.632 2.468 2.520
0.841 2.537 2.032
0.607 2.489 1.786
0.733 2.659 2.617
0.506 2.662 2.320
0.922 2.840 2.101
-0.103 3.406 4.364
0.029 3.722 3.888
-0.114 3.705 4.482
-0.093 3.577 4.321
0.130 3.663 4.153
-0.175 4.160 3.986
0.330 4.839 1.481
0.112 5.055 1.810
-0.025 5.370 2.189
0.345 5.260 1.806
0.258 5.266 1.876
0.660 0.261 5.327
0.803 0.236 4.645
0.510 0.100 5.615
0.685 0.110 5.037
0.746 0.257 5.135
0.960 0.642 4.741
0.913 1.066 2.319
1.153 1.269 2.244
1.160 1.207 1.993
0.597 0.254 5.610
0.510 0.717 5.169
0.662 0.448 5.151
0.460 0.726 4.663
1.009 1.502 2.345
0.863 1.787 2.261
1.071 1.449 1.738
1.157 1.804 1.682
0.422 0.834 5.793
0.358 0.671 5.611
0.744 1.050 4.864
0.391 0.822 4.666
0.494 1.015 4.688
0.670 1.737 2.614
0.898 1.855 2.298
1.056 1.910 1.928
0.820 2.173 1.795
0.869 0.807 5.528
0.729 1.010 5.473
0.781 1.161 5.002
0.992 1.015 5.090
0.753 1.009 4.837
0.913 1.594 2.378
1.215 2.001 2.075
0.920 1.827 2.240
1.332 2.205 1.852
0.709 0.873 5.711
0.537 1.424 5.319
0.692 1.159 4.795
1.032 1.801 2.776
0.957 1.924 2.250
1.009 2.327 2.032
1.010 2.256 1.902
1.151 2.262 3.162
0.733 2.036 2.587
1.209 2.372 2.580
1.261 2.443 2.167
1.249 2.678 1.755
0.637 2.586 3.096
0.709 2.458 2.895
1.052 2.684 2.482
1.122 2.580 2.316
0.766 2.543 2.111
0.730 2.713 3.516
1.025 2.861 3.240
0.674 2.796 2.843
0.768 2.861 2.590
1.072 3.184 2.260
0.541 2.670 3.384
0.684 3.202 3.372
0.530 3.012 3.065
0.904 2.931 2.819
0.439 3.184 3.608
0.617 2.920 3.740
0.461 3.305 3.043
0.547 3.515 2.981
0.597 3.186 4.330
0.417 3.462 3.680
0.437 3.166 3.393
0.508 3.353 3.407
0.501 3.466 4.313
0.634 3.649 3.996
0.670 3.580 3.907
0.625 3.757 3.472
0.305 3.329 4.751
0.362 3.723 4.738
0.186 3.771 4.433
0.407 3.838 3.839
0.282 4.015 3.534
0.211 3.991 4.812
0.157 3.707 4.643
0.135 3.732 4.248
0.178 3.995 4.194
0.230 4.307 4.006
0.010 4.235 4.813
0.243 4.350 4.808
0.338 4.232 4.468
0.118 4.383 4.034
0.258 4.953 1.565
0.004 4.188 5.226
-0.155 4.603 4.669
0.266 4.689 4.536
0.197 4.337 4.404
0.420 5.381 2.149
0.267 5.060 1.907
-0.137 4.951 4.709
0.445 5.419 2.051
0.501 5.704 2.112
0.438 5.735 2.233
0.140 6.139 1.911
0.880 -0.077 5.632
0.801 0.093 5.096
1.213 0.147 4.999
0.977 0.404 4.603
0.852 0.065 5.535
0.938 0.368 5.301
0.739 0.313 5.243
1.230 0.537 4.990
0.985 0.404 4.630
0.946 0.447 5.677
0.992 0.514 5.306
0.903 0.834 5.200
0.716 0.617 4.871
0.972 0.764 4.684
1.190 1.678 2.320
1.454 1.577 2.149
0.831 0.639 5.432
0.886 0.950 5.166
1.065 0.839 5.092
0.899 0.887 4.710
0.662 0.880 4.438
1.238 1.904 2.563
1.055 1.848 2.087
0.988 2.140 2.225
1.181 2.057 1.824
1.036 0.779 5.242
1.124 1.003 4.960
0.914 0.955 4.786
1.583 1.701 2.285
1.211 1.841 2.206
1.405 2.304 1.801
1.470 2.074 2.878
1.265 2.219 2.533
1.369 2.347 2.192
1.427 2.581 1.725
1.609 2.586 1.883
1.039 2.184 3.144
1.032 2.285 2.971
1.212 2.310 2.374
1.523 2.301 2.224
1.486 2.604 1.854
1.242 2.724 1.878
0.936 2.410 3.207
1.195 2.792 2.991
0.978 2.829 2.635
1.426 2.684 2.181
1.297 2.599 2.005
1.043 2.683 3.592
0.906 2.958 2.970
1.312 2.689 2.671
0.972 3.080 2.671
1.209 2.938 2.304
1.259 3.167 1.950
0.921 3.048 3.956
1.058 3.156 3.629
1.001 2.785 2.984
0.982 3.342 3.002
1.097 3.099 2.879
0.882 3.393 2.431
0.569 3.071 3.857
0.742 3.284 3.684
0.815 3.396 3.684
1.013 3.174 3.536
0.883 3.544 3.060
0.630 3.435 4.323
0.809 3.310 4.200
0.840 3.157 4.104
0.894 3.684 3.582
0.837 3.424 3.569
0.582 3.515 4.801
0.547 3.467 4.422
0.491 3.374 4.058
0.892 3.775 4.023
0.540 3.831 3.728
0.551 3.625 3.264
0.738 3.437 5.192
0.421 3.814 4.724
0.694 3.655 4.424
0.689 3.849 4.199
0.525 3.631 4.255
0.834 3.957 3.897
0.576 3.864 5.207
0.556 3.846 4.959
0.486 3.790 4.645
0.596 4.071 4.158
0.488 4.262 3.913
0.495 4.202 4.721
0.593 4.084 4.484
0.251 4.047 4.544
0.598 4.372 4.183
0.944 5.276 1.979
0.147 4.629 4.896
0.338 4.294 4.328
0.505 5.162 2.363
0.430 5.511 1.887
0.456 5.474 2.495
0.369 5.761 2.152
0.362 5.579 2.479
0.286 6.064 2.031
0.178 6.045 2.558
0.613 6.022 2.037
1.919 0.647 0.478
1.278 0.143 5.108
1.332 0.204 4.491
1.366 0.219 5.688
1.272 -0.026 5.488
1.325 0.111 5.311
1.245 0.392 4.764
1.145 0.248 4.966
1.486 0.633 4.402
1.138 0.199 5.727
0.946 0.148 5.615
1.035 0.380 5.552
1.267 0.573 4.852
1.089 0.371 4.684
1.343 0.848 4.419
0.901 0.762 5.504
1.327 0.921 5.382
0.989 0.660 4.982
1.136 0.689 4.731
1.019 0.709 4.494
0.857 0.995 5.403
1.199 1.007 5.136
0.866 1.037 5.087
1.428 1.791 2.231
1.178 1.774 2.283
1.466 2.006 1.801
1.416 1.364 5.184
1.863 2.097 1.978
1.501 2.224 2.806
1.595 2.244 2.600
1.754 2.163 2.126
1.499 2.580 2.001
1.509 2.555 1.881
1.352 2.646 2.802
1.700 2.508 2.743
1.397 2.460 2.522
1.615 2.854 2.263
1.627 2.712 1.815
1.602 2.361 2.997
1.360 2.675 3.072
1.446 2.583 2.409
1.641 2.743 2.202
1.316 3.100 2.280
1.695 3.200 1.852
1.158 2.941 3.420
1.183 2.841 3.172
1.115 2.677 3.075
1.168 2.840 2.906
1.464 2.946 2.248
1.426 3.203 2.041
1.677 3.089 1.746
1.156 2.976 3.615
1.361 3.127 3.482
1.252 2.993 3.345
1.274 3.254 3.056
1.168 3.071 2.993
1.317 3.230 2.387
0.966 3.207 4.256
0.889 2.978 4.280
1.195 3.344 4.036
0.950 3.125 3.427
1.032 3.472 3.464
1.305 3.599 3.148
1.389 3.387 2.851
1.110 2.948 4.764
0.797 3.043 4.378
0.811 3.289 4.351
1.272 3.494 3.754
1.001 3.359 3.704
1.039 3.500 3.347
1.073 3.708 3.143
1.051 3.232 5.210
0.780 3.418 4.921
0.678 3.743 4.646
0.947 3.829 4.161
1.020 3.905 3.823
1.153 3.819 3.581
0.981 3.692 3.367
0.660 3.831 5.090
1.024 3.839 5.006
0.742 3.604 4.398
0.884 3.739 4.351
0.945 3.859 4.130
0.679 4.071 3.599
0.589 3.932 4.971
0.528 3.702 4.981
0.825 3.840 4.536
0.808 4.118 4.433
0.897 4.196 4.142
0.775 4.116 4.927
0.899 4.160 4.776
0.457 4.531 4.261
0.965 5.477 2.433
0.744 5.250 1.880
0.703 5.665 2.414
0.557 5.354 2.379
0.820 5.613 1.976
0.642 5.717 2.834
0.596 5.842 2.528
0.575 6.062 1.984
0.606 5.938 2.225
0.615 5.966 2.435
2.243 0.584 0.632
2.101 0.658 0.634
1.709 0.060 5.027
1.743 0.207 4.593
1.613 0.252 4.258
1.237 0.259 5.940
1.681 0.229 5.312
1.423 0.197 5.333
1.681 0.261 4.919
1.678 0.580 5.022
1.403 0.314 4.292
1.570 0.799 4.505
1.313 0.039 5.939
1.493 0.586 5.591
1.553 0.569 5.474
1.269 0.434 4.863
1.482 0.807 5.041
1.419 0.789 4.557
1.769 0.903 4.143
1.156 0.935 5.686
1.254 0.993 5.019
1.680 0.672 5.043
1.672 1.193 4.488
1.187 1.331 5.122
1.482 2.065 2.153
1.780 2.243 2.200
1.999 2.558 2.050
1.863 2.546 1.597
1.851 2.666 2.825
1.935 2.799 2.778
2.031 2.422 2.450
2.066 2.663 1.947
1.776 3.019 1.676
2.101 3.097 1.722
1.496 2.789 2.965
1.535 2.595 2.600
1.599 2.881 2.234
1.622 3.052 1.938
1.905 3.096 1.836
1.967 2.919 1.516
1.723 2.642 3.329
1.482 2.889 2.767
1.847 2.962 2.807
1.889 3.248 2.725
1.502 3.183 2.348
1.560 3.220 2.090
1.576 3.591 1.793
1.516 3.069 4.092
1.530 3.257 3.716
1.399 3.368 3.559
1.309 3.420 3.084
1.423 3.267 2.808
1.528 3.442 2.377
1.599 3.635 2.354
1.393 3.062 4.653
1.482 3.269 4.299
1.567 3.418 3.826
1.381 3.082 3.519
1.258 3.525 3.336
1.478 3.363 3.019
1.613 3.744 2.962
0.969 3.250 4.873
1.357 3.349 4.964
0.992 3.204 4.678
1.439 3.432 4.439
1.522 3.623 3.844
1.350 3.810 3.668
1.179 3.605 3.432
0.845 3.376 5.282
1.295 3.403 5.326
0.962 3.411 5.028
1.088 3.453 4.764
1.140 3.504 4.401
1.006 3.686 4.116
1.031 3.780 3.658
1.193 3.548 5.358
1.061 3.776 5.344
0.885 3.933 4.671
1.244 3.992 4.871
0.986 4.010 4.602
1.349 4.070 4.155
0.988 3.733 5.317
0.757 3.744 5.448
0.963 3.886 5.204
0.847 4.002 4.750
0.863 4.403 4.648
1.142 4.360 5.053
1.123 5.357 2.446
1.049 5.706 2.059
0.801 5.486 2.658
0.960 5.772 2.108
0.905 5.529 2.176
0.888 5.517 2.777
1.019 5.585 2.560
0.902 5.850 2.646
1.077 5.853 2.034
0.979 6.164 2.959
1.162 6.001 2.442
1.182 6.458 2.011
2.545 0.643 1.065
2.419 0.730 0.747
2.776 0.724 0.451
2.034 0.249 4.618
1.780 0.292 5.022
1.889 -0.007 4.974
1.800 0.272 4.598
2.181 0.322 4.501
1.905 0.268 4.374
1.699 0.090 5.790
1.965 0.318 5.526
1.826 0.347 5.274
1.660 0.278 4.595
1.923 0.496 4.478
1.831 0.702 4.417
1.835 0.722 3.895
1.625 0.478 5.407
1.557 0.858 5.324
1.539 0.688 4.780
2.004 0.796 4.635
1.994 0.865 4.270
1.502 1.053 5.006
1.486 1.047 5.051
1.521 0.985 4.622
1.621 0.969 4.512
1.972 2.558 1.885
2.189 2.807 1.873
2.106 2.873 1.426
2.241 2.830 2.420
1.974 2.607 1.947
2.056 2.741 1.918
2.096 2.737 1.385
1.951 2.937 1.123
1.926 2.774 2.960
2.016 3.109 2.217
2.132 3.060 1.970
2.047 2.911 2.053
2.098 3.286 1.741
2.346 3.406 1.441
1.863 3.158 3.275
2.061 2.925 2.730
2.095 3.415 2.344
1.976 3.107 2.452
2.154 3.255 1.943
1.804 3.516 1.991
2.133 3.738 1.536
1.883 3.108 3.178
2.057 3.287 2.755
1.658 3.261 2.839
1.832 3.380 2.495
1.971 3.754 1.847
1.137 2.851 5.591
1.557 3.000 5.204
1.465 3.090 5.034
1.290 3.371 4.929
1.296 3.564 4.724
1.356 3.635 4.173
1.688 3.754 4.087
1.263 3.168 5.657
1.337 3.199 5.215
1.241 3.424 5.020
1.282 3.567 5.001
1.638 3.546 4.720
1.548 3.867 4.299
1.162 3.411 5.511
1.430 3.670 5.295
1.521 3.962 5.214
1.334 3.853 5.081
1.585 4.006 4.498
1.368 3.842 4.289
1.383 3.879 5.504
1.117 3.824 5.052
1.157 4.090 4.822
1.334 4.246 4.744
1.131 5.379 2.791
1.417 5.834 2.676
1.392 5.483 2.197
1.435 5.610 2.095
0.943 5.776 3.033
0.970 5.851 2.811
0.984 5.748 2.837
1.119 5.756 2.603
1.069 5.967 2.025
1.217 6.085 3.505
0.971 6.213 2.970
1.247 5.931 3.040
1.130 6.197 2.332
2.614 0.482 1.323
2.890 0.377 1.437
2.806 0.621 0.960
3.055 0.940 0.499
2.173 -0.045 4.685
2.317 0.163 4.227
2.056 0.320 5.566
2.412 0.426 5.064
2.049 0.153 4.960
2.223 0.568 4.441
2.355 0.553 4.249
2.327 0.628 3.866
2.374 0.640 3.882
2.042 0.488 5.241
2.285 0.339 5.339
2.096 0.768 4.633
2.364 0.604 4.447
1.981 0.552 4.183
2.106 0.676 4.073
2.018 0.807 3.857
2.160 0.889 5.019
2.003 0.932 5.085
2.029 1.020 4.796
1.870 0.930 4.664
2.275 1.260 3.946
1.804 1.141 5.005
2.071 0.872 4.858
1.816 1.075 4.345
2.687 2.879 1.693
2.342 2.653 1.354
2.650 2.711 1.336
2.478 2.826 2.174
2.427 2.719 2.056
2.501 3.106 1.437
2.570 3.090 1.365
2.342 2.826 2.325
2.032 3.238 2.399
2.328 2.987 2.162
2.236 3.501 1.851
2.418 3.165 1.428
2.291 3.035 2.726
2.178 3.562 2.551
1.990 3.311 1.983
2.305 3.593 1.995
2.088 3.381 1.431
2.091 3.804 1.799
2.074 3.751 1.583
1.386 2.933 6.004
1.537 2.790 5.861
1.650 3.030 5.409
1.426 3.085 5.557
1.765 3.288 4.995
1.950 3.313 4.767
1.458 3.400 6.154
1.298 3.368 6.008
1.590 3.297 5.819
1.827 3.661 5.457
1.427 3.440 5.257
1.891 3.610 4.747
1.744 3.805 4.727
1.353 3.396 6.056
1.668 3.455 5.984
1.647 3.655 5.336
1.762 3.826 5.421
1.620 3.822 4.812
1.359 4.184 4.838
1.455 3.833 5.947
1.473 4.138 5.545
1.233 4.055 5.505
1.404 4.050 4.942
1.310 5.521 3.473
1.432 5.492 3.028
1.476 5.585 2.463
1.726 5.843 2.214
1.413 5.677 3.660
1.320 5.909 3.169
1.668 5.945 3.071
1.301 5.993 2.947
1.368 6.119 2.618
1.453 6.209 2.128
1.369 5.981 3.523
1.140 5.853 3.473
1.533 6.211 3.291
1.517 6.262 2.720
2.882 0.319 2.072
3.166 0.164 1.799
3.182 0.664 2.012
2.899 0.598 1.667
3.017 0.820 1.098
3.293 0.869 1.080
3.185 0.809 0.903
2.674 0.106 4.130
2.390 0.343 4.182
2.741 0.647 3.624
2.447 0.472 3.542
2.504 0.518 2.989
2.502 0.201 4.765
2.680 0.613 4.570
2.597 0.709 4.147
2.454 0.585 4.154
2.697 0.803 3.654
2.457 0.797 3.653
2.708 0.804 3.252
2.524 0.736 5.103
2.357 0.625 4.723
2.201 0.907 4.180
2.409 1.062 4.287
2.616 0.696 4.004
2.296 1.039 3.682
2.345 0.988 4.930
2.414 0.726 4.510
2.437 1.094 4.268
2.375 1.071 4.202
2.206 0.933 4.077
2.488 1.289 4.853
2.537 1.319 4.387
2.286 1.274 4.445
2.831 2.766 1.861
2.794 2.705 1.471
2.791 3.034 1.496
2.441 2.927 1.982
2.897 3.211 1.460
2.670 3.298 1.580
2.747 3.213 2.102
2.378 3.102 1.831
2.528 3.551 1.747
2.481 3.532 1.627
2.430 3.401 2.240
2.689 3.548 1.930
2.358 3.905 1.656
2.317 3.864 1.966
2.269 3.770 1.886
2.009 2.594 6.294
1.791 2.892 5.725
1.879 2.935 6.322
1.835 2.875 5.916
1.714 3.002 5.877
1.962 3.300 5.589
2.015 3.344 4.932
1.736 3.415 6.042
1.926 3.267 5.856
2.050 3.383 5.529
1.714 3.301 5.570
1.749 3.835 5.075
1.572 3.612 6.111
1.943 3.864 5.667
1.932 3.791 5.663
1.664 3.728 5.459
1.802 4.019 5.221
1.501 3.961 6.394
1.488 4.016 5.937
1.816 3.860 5.715
1.919 4.294 5.288
1.378 4.043 6.190
1.839 4.359 5.841
1.839 5.389 3.098
1.715 5.715 3.487
1.836 5.372 3.499
1.769 5.586 2.773
1.582 5.655 2.585
1.963 5.985 2.662
1.786 5.442 3.747
1.449 5.656 3.580
1.592 5.656 3.413
1.823 5.918 2.849
1.595 6.120 3.032
2.004 6.013 2.580
1.303 6.061 4.189
1.494 6.062 4.187
1.356 6.114 3.822
1.409 6.215 3.532
1.636 5.986 3.310
1.713 6.503 2.899
3.175 0.165 3.065
3.239 0.418 2.799
3.031 0.421 2.565
3.385 0.607 2.251
3.390 0.388 2.026
3.487 0.663 1.444
3.264 0.493 1.106
2.804 0.317 3.425
3.098 0.422 3.450
3.106 0.495 3.146
3.281 0.491 2.883
2.904 0.593 2.319
3.314 0.753 2.243
3.425 0.556 1.742
2.957 0.364 4.256
2.850 0.509 4.010
3.021 0.401 3.589
2.758 0.583 3.159
3.004 0.871 3.165
3.228 0.666 2.636
3.008 0.761 2.428
2.862 0.500 4.877
2.973 0.706 4.318
2.886 0.633 4.155
2.977 0.914 4.077
2.721 0.852 3.432
3.006 0.764 3.539
2.680 1.066 3.029
2.478 0.900 4.944
2.502 0.768 4.395
2.814 0.660 3.951
2.879 1.018 4.157
2.860 1.179 3.487
2.960 0.935 3.223
2.509 1.143 4.995
2.465 1.243 4.369
2.834 1.260 4.226
2.910 1.395 3.775
2.512 1.295 3.705
2.626 1.218 3.361
2.574 1.448 4.421
2.826 1.383 4.187
2.736 1.325 4.307
2.575 1.913 4.395
3.141 2.717 1.438
2.983 2.898 1.833
2.970 2.947 1.589
3.111 2.875 1.864
2.854 3.195 1.822
3.114 3.202 1.677
3.024 3.388 2.032
2.925 3.494 1.671
2.900 3.223 1.737
2.857 3.559 1.824
2.828 3.641 1.435
2.470 2.730 6.196
2.937 4.039 1.832
1.987 2.698 5.952
2.229 2.876 5.911
2.015 3.204 6.018
2.216 3.256 6.159
2.386 3.106 5.767
2.120 3.363 5.578
1.964 3.345 5.901
2.075 3.468 5.921
2.263 3.587 5.686
1.984 3.813 6.055
1.791 3.502 6.005
2.092 3.869 5.402
1.821 4.143 5.149
1.884 3.956 6.418
1.945 3.865 5.727
2.175 4.027 5.479
1.853 4.380 5.412
1.944 4.470 6.121
2.085 4.397 5.839
1.864 5.422 3.680
2.060 5.478 3.390
2.258 5.512 3.241
2.099 5.439 3.796
1.929 5.621 3.589
2.248 5.731 3.201
1.997 5.807 3.250
2.188 5.943 2.848
2.063 5.464 3.971
2.060 5.556 3.922
1.940 5.827 3.430
1.809 6.135 3.611
2.120 5.879 3.059
1.930 5.839 2.733
1.952 5.722 4.393
1.647 6.054 4.232
1.736 5.951 4.124
1.849 6.100 3.581
1.836 6.081 3.476
1.896 6.390 3.048
3.433 0.220 2.939
3.294 0.303 2.708
3.369 0.373 2.865
3.377 0.284 2.526
3.546 0.657 2.108
3.488 0.390 1.727
3.659 0.679 1.812
3.257 0.220 3.599
3.496 0.262 3.047
3.177 0.292 2.834
3.373 0.404 2.781
3.553 0.582 2.375
3.551 0.539 2.154
3.378 0.761 1.821
2.949 0.428 3.741
3.196 0.460 3.525
3.189 0.774 3.204
3.225 0.738 3.208
3.289 0.708 2.556
3.168 1.158 2.318
3.142 0.637 4.351
2.840 0.641 4.364
3.165 0.762 4.138
3.298 0.932 3.752
2.908 0.787 3.219
3.019 1.004 3.289
3.350 1.234 2.634
2.798 0.725 4.485
3.178 0.831 4.192
2.964 0.800 3.735
2.937 1.284 3.911
2.944 1.391 3.392
2.891 1.138 3.315
2.787 1.362 4.391
2.713 1.066 4.448
3.146 1.451 3.928
2.808 1.430 3.890
2.890 1.588 3.545
2.748 1.490 4.677
2.881 1.695 4.260
2.802 1.793 3.923
2.689 1.599 4.076
2.731 1.594 3.553
2.982 1.873 4.241
2.889 2.857 1.489
3.247 1.555 4.551
3.061 1.654 4.033
3.005 1.843 4.172
3.598 2.543 1.259
3.026 2.809 1.921
3.539 2.889 1.493
2.965 3.100 1.720
3.280 3.192 1.621
3.227 3.687 2.019
3.333 3.328 1.801
2.836 4.006 1.454
2.335 2.847 6.011
2.586 2.818 6.179
2.330 3.259 6.000
2.583 3.287 5.638
2.190 3.281 6.068
2.444 3.788 5.966
2.185 3.878 5.433
2.130 3.838 6.104
2.354 3.930 6.101
2.463 3.772 5.805
2.396 3.931 6.398
2.190 4.264 6.032
2.279 4.307 5.700
2.254 4.564 6.237
2.133 4.529 5.733
2.608 5.032 3.691
2.568 5.460 3.315
1.917 4.510 6.000
2.471 5.535 3.729
2.561 5.287 3.314
2.141 5.484 3.239
2.305 5.536 2.864
2.400 5.757 3.915
2.040 5.690 3.421
2.470 5.633 3.505
2.104 5.979 3.330
2.520 6.055 2.669
2.276 5.602 4.425
2.391 5.772 3.938
2.161 6.055 3.559
2.351 5.994 3.233
2.425 5.873 2.985
2.317 6.021 2.979
1.827 6.023 4.657
1.873 5.929 4.375
2.128 5.959 4.007
2.332 5.916 3.601
2.209 6.302 3.588
3.744 0.319 2.919
3.799 0.198 2.698
3.827 0.298 2.445
3.953 0.410 2.392
3.869 0.569 2.006
3.618 0.315 3.487
3.424 0.624 3.199
3.524 0.795 2.536
3.834 0.979 2.471
3.837 0.777 2.253
3.628 0.671 4.064
3.692 0.612 3.637
3.629 0.992 3.488
3.546 0.673 3.328
3.712 0.855 2.779
3.755 0.828 2.784
3.325 0.986 4.330
3.580 0.714 3.727
3.388 1.167 3.660
3.179 1.256 3.598
3.351 0.974 3.290
3.404 1.287 2.891
3.178 0.811 4.078
3.218 1.279 3.865
3.384 0.979 3.737
3.267 1.028 3.355
3.201 1.436 3.465
2.906 1.298 4.548
3.341 1.060 4.571
2.973 1.175 4.147
3.250 1.475 3.779
3.488 1.726 3.796
3.499 1.398 3.515
2.978 1.462 4.814
2.971 1.775 4.406
3.343 1.491 4.046
3.274 1.679 3.753
3.153 1.613 3.493
2.886 1.576 4.735
2.970 1.931 4.424
2.913 2.057 4.099
3.150 2.729 1.467
3.384 1.948 4.339
3.095 1.822 4.380
3.140 1.917 4.243
3.353 2.276 3.645
3.639 2.657 1.792
3.671 2.933 1.540
3.154 2.417 4.448
3.278 2.408 4.320
3.711 2.793 1.597
3.701 3.143 1.475
3.533 3.421 1.810
3.274 3.549 1.394
3.266 3.579 1.575
2.811 3.136 6.141
2.620 3.448 6.343
2.411 3.870 6.084
2.474 3.859 6.302
2.662 3.655 5.753
2.666 4.325 6.001
2.542 4.162 5.952
2.657 4.782 3.249
2.363 4.247 5.981
2.195 4.216 5.628
2.786 5.167 3.744
2.493 5.209 3.529
2.939 5.298 3.270
2.808 5.469 3.180
2.212 4.625 6.021
2.674 5.611 3.836
2.353 5.329 3.490
2.782 5.362 3.418
2.777 5.373 3.164
2.612 5.440 4.212
2.522 5.383 4.081
2.481 5.751 3.896
2.629 5.847 3.397
2.819 5.794 3.279
2.477 5.752 4.415
2.519 5.941 4.002
2.380 5.989 3.923
2.340 6.124 3.393
2.357 6.035 3.442
2.212 5.923 4.250
2.563 6.166 4.037
2.400 6.129 3.922
4.056 0.570 3.186
4.168 0.625 2.913
3.961 0.439 2.373
4.150 0.680 2.187
3.708 0.682 3.472
4.065 0.708 2.871
3.723 0.555 3.065
4.095 0.814 2.668
3.717 0.638 3.917
3.693 0.588 3.363
3.655 0.799 3.160
3.926 1.030 2.838
3.710 0.841 4.099
3.842 0.833 3.932
3.904 1.096 3.613
3.900 0.947 3.218
3.569 1.039 3.210
3.603 1.046 4.548
3.714 1.194 3.956
3.355 1.281 3.922
3.424 1.424 3.548
3.756 1.347 3.245
3.412 1.410 4.659
3.623 1.585 4.105
3.715 1.542 4.025
3.503 1.769 3.470
3.306 1.707 3.423
3.206 1.728 4.366
3.408 1.843 4.275
3.509 1.523 4.186
3.690 1.825 3.653
3.494 2.712 1.359
3.080 1.848 4.353
3.306 1.903 4.339
3.189 1.954 4.173
3.327 2.038 3.972
3.419 2.654 1.695
3.749 3.058 1.417
3.632 2.090 4.416
3.668 1.805 4.108
3.535 1.913 3.888
3.453 2.165 4.006
3.925 3.058 1.945
3.985 3.065 1.694
3.376 2.247 4.890
3.312 2.434 4.623
3.629 2.103 4.223
3.670 2.175 3.967
3.846 2.994 1.406
3.445 2.495 4.270
3.352 2.510 4.273
3.709 2.529 4.018
3.985 3.335 1.543
2.779 3.788 5.998
2.969 4.602 3.843
3.230 4.629 3.471
2.879 4.341 6.145
2.886 4.685 3.903
3.038 4.984 3.525
2.942 5.261 3.014
3.200 5.084 3.231
2.701 4.690 6.050
2.706 4.740 5.767
2.810 5.318 4.033
3.123 5.382 3.417
3.173 5.428 3.500
2.880 5.247 3.013
2.732 4.843 6.106
2.802 5.316 4.100
3.073 5.461 3.857
3.086 5.648 3.268
2.825 5.777 3.353
2.935 5.466 3.760
2.961 5.658 3.924
2.616 6.038 3.431
2.804 6.074 2.996
2.866 5.730 4.025
2.651 6.257 3.593
2.946 6.039 3.792
2.470 6.102 4.382
2.513 6.252 3.967
3.674 1.343 4.030
3.732 1.306 4.096
3.996 1.233 3.738
3.722 1.260 4.260
3.878 1.411 4.005
3.911 1.441 4.187
3.671 1.723 3.482
3.932 2.441 1.600
3.736 1.878 4.734
3.847 1.729 4.305
3.895 1.628 3.845
3.887 2.141 3.923
3.896 2.668 1.379
3.548 1.897 4.791
3.385 1.830 4.166
3.461 1.827 4.026
3.634 2.257 3.823
3.619 2.599 1.530
3.884 2.987 1.535
4.048 2.013 4.572
4.066 2.029 4.523
3.877 2.039 4.290
4.040 2.229 4.120
4.171 2.768 2.007
3.995 2.897 1.746
3.630 2.198 4.894
3.870 2.181 4.369
4.028 2.225 4.218
3.721 2.482 4.149
3.903 3.168 1.737
3.537 2.546 4.569
3.876 2.629 4.686
3.715 2.511 4.464
3.776 2.881 3.897
4.012 2.888 3.597
3.400 2.738 4.693
3.869 2.847 4.420
3.763 2.933 3.937
3.654 2.957 3.955
3.657 3.350 4.315
3.796 3.455 4.022
3.591 3.307 4.045
3.335 3.458 4.310
3.565 3.699 4.049
3.416 4.027 3.980
3.544 4.110 3.621
3.457 4.351 3.566
3.222 4.480 4.018
3.599 4.260 3.584
3.218 4.598 3.264
3.659 4.841 3.267
3.085 4.637 4.109
3.106 4.678 3.536
3.328 5.028 3.579
3.446 4.985 3.284
3.215 5.228 2.954
2.976 4.086 6.233
3.101 4.842 4.092
3.295 5.080 3.598
3.147 4.980 3.643
3.086 5.218 3.436
3.490 5.270 3.081
3.011 4.646 6.324
3.007 5.080 3.650
3.149 5.106 3.692
3.151 5.659 3.475
3.359 5.718 3.230
3.089 5.011 5.813
3.031 5.651 4.101
3.228 5.700 3.540
3.373 5.913 3.631
3.238 5.973 3.231
2.892 5.155 6.154
3.107 5.850 3.862
3.263 5.743 3.945
3.102 5.908 3.620
3.915 0.331 6.042
4.051 0.240 6.118
4.386 2.103 1.447
4.211 1.808 4.012
4.342 2.271 1.615
4.130 1.739 4.630
3.697 2.040 4.299
3.795 1.735 3.950
3.876 2.036 3.928
4.265 2.785 1.601
3.998 2.751 1.461
3.790 2.164 4.859
3.917 1.930 4.528
3.810 1.959 3.967
3.680 2.244 3.822
4.366 3.027 1.756
4.036 2.988 1.330
4.002 2.251 4.927
4.270 2.025 4.227
4.162 2.391 4.198
4.230 2.132 3.768
4.353 3.235 1.366
3.913 2.281 4.997
4.136 2.447 4.642
3.963 2.678 4.181
4.003 2.701 4.161
3.807 2.575 4.847
4.123 2.425 4.433
4.120 2.800 4.523
3.781 2.733 3.902
4.102 2.855 3.691
3.648 2.582 4.719
4.067 2.882 4.861
4.036 2.870 4.457
3.872 3.027 4.047
3.752 3.270 3.895
3.725 3.218 4.976
3.602 3.365 4.379
3.932 3.181 4.159
3.854 3.470 3.844
3.836 3.569 3.817
3.969 3.499 4.691
3.615 3.475 4.162
3.624 3.399 3.814
3.713 3.854 3.991
3.699 4.002 3.618
3.897 3.605 4.474
3.904 4.092 4.239
3.862 4.158 3.690
3.944 4.000 3.706
3.873 4.055 3.236
3.468 4.020 4.383
3.456 4.193 3.732
3.964 4.529 3.818
3.616 4.541 3.194
3.896 4.320 3.180
3.767 4.332 4.254
3.557 4.676 4.071
3.669 4.550 3.607
3.839 4.882 3.261
3.858 4.771 2.985
3.636 5.045 2.901
3.411 4.528 3.845
3.528 4.605 4.023
3.465 5.063 3.313
3.801 4.735 3.357
3.521 4.848 2.870
3.236 5.218 4.040
3.385 5.150 3.874
3.498 5.037 3.417
3.471 5.466 3.374
3.799 5.364 3.042
3.062 4.643 6.069
3.260 5.237 3.999
3.673 5.275 3.736
3.655 5.435 3.519
3.579 5.376 3.187
3.088 5.051 6.034
3.242 5.819 3.655
3.590 5.930 3.363
3.584 6.037 3.457
3.186 5.101 6.317
3.208 5.257 6.384
4.486 -0.154 5.759
4.218 0.156 5.585
4.274 0.025 5.951
4.454 0.063 5.824
4.231 0.429 6.173
4.129 0.397 6.285
4.567 1.794 1.290
4.347 0.502 6.326
4.697 2.414 1.873
4.745 2.142 1.192
4.424 2.281 1.589
4.533 2.353 1.654
4.120 1.730 4.415
4.364 2.193 4.308
4.501 2.717 1.589
4.691 2.738 1.336
4.309 1.884 4.522
4.220 2.145 4.448
4.193 2.310 4.109
4.020 2.227 3.851
4.563 3.225 1.540
4.128 1.924 4.784
4.419 1.991 4.257
4.624 2.156 4.001
4.842 3.293 1.530
4.333 2.390 4.903
4.361 2.112 4.612
4.509 2.682 4.475
4.508 2.475 4.315
4.177 2.662 3.841
4.278 2.749 5.108
4.019 2.549 4.732
4.027 2.552 4.856
4.408 2.904 4.598
4.449 3.058 3.977
4.367 3.101 3.959
3.882 2.777 5.191
3.883 2.905 4.955
3.950 2.827 4.792
3.926 2.789 4.560
4.234 3.217 4.143
4.029 3.124 3.915
4.101 2.885 5.133
4.135 3.046 4.555
4.165 3.049 4.389
3.903 3.484 4.051
4.102 3.580 4.220
4.188 3.531 3.582
3.759 3.477 5.072
4.267 3.604 4.370
3.935 3.371 4.403
3.869 3.555 3.956
4.023 3.952 4.023
4.151 3.806 3.411
4.080 3.553 4.436
3.925 3.664 4.438
3.875 3.774 4.065
4.019 4.038 3.858
4.143 4.228 3.834
4.004 4.434 3.517
3.925 4.358 4.244
3.999 4.177 4.420
3.938 4.511 3.938
4.128 4.393 3.770
4.016 4.558 3.337
3.943 4.694 3.418
3.944 4.706 2.985
3.816 4.366 4.078
3.819 4.703 4.280
3.813 4.427 3.765
4.063 4.533 3.682
3.740 4.601 3.179
3.778 4.896 2.875
3.884 4.839 2.792
3.602 4.585 4.067
3.596 4.793 3.762
3.918 4.759 3.710
3.888 5.102 3.129
4.033 5.300 3.021
4.037 5.421 2.982
3.692 5.232 4.138
3.778 5.156 3.619
3.820 5.228 3.469
3.624 5.525 2.992
3.760 5.375 2.676
3.593 5.213 3.717
3.920 5.712 3.386
3.744 5.402 3.241
3.210 4.986 5.930
3.478 5.087 6.198
3.038 5.712 6.111
4.518 -0.149 5.408
4.712 -0.056 5.104
4.591 -0.184 6.285
4.811 0.221 5.971
4.849 0.341 5.743
4.814 0.309 5.242
4.519 -0.220 6.315
4.571 0.252 6.258
4.708 0.313 5.746
4.760 0.661 5.443
5.107 1.685 1.126
4.273 0.434 6.264
4.471 0.336 6.404
4.470 0.655 5.837
4.973 2.005 1.659
4.730 2.129 1.108
4.343 0.298 6.517
4.769 2.211 1.674
5.044 2.151 1.457
4.992 2.350 2.004
4.818 2.670 1.624
4.555 2.715 1.603
4.975 2.654 1.629
4.141 1.897 4.533
4.610 2.098 4.662
4.561 2.143 4.434
4.536 2.896 1.599
4.739 2.457 5.326
4.759 2.428 4.888
4.557 2.256 4.690
4.488 2.464 4.481
4.402 2.583 5.518
4.342 2.771 5.111
4.282 2.650 4.761
4.247 2.521 4.749
4.510 2.833 4.310
4.435 3.130 4.335
4.124 2.759 5.488
4.117 2.703 5.031
4.351 2.886 5.062
4.419 3.083 4.864
4.494 2.877 4.725
4.391 3.130 4.425
4.350 3.184 4.186
4.110 2.972 5.213
4.318 3.167 5.004
4.120 3.290 4.926
4.383 3.319 4.814
4.492 3.603 4.334
4.424 3.310 4.089
4.644 3.765 4.017
4.412 3.287 4.922
4.106 3.393 4.675
4.349 3.544 4.486
4.381 3.639 4.314
4.561 3.706 4.314
4.449 3.748 3.734
4.410 3.896 3.513
4.079 3.612 4.472
4.247 4.025 4.523
4.392 3.830 4.064
4.101 3.906 3.897
4.230 3.948 3.691
4.398 4.138 3.295
4.215 4.465 3.231
4.372 4.333 4.218
4.236 4.399 3.931
4.264 4.476 3.921
4.467 4.394 3.386
4.317 4.450 3.293
4.236 4.603 2.974
4.133 4.888 2.847
4.149 4.434 3.845
4.313 4.531 3.856
4.118 4.785 3.500
4.042 4.982 3.130
4.473 4.911 3.134
4.347 5.236 3.009
4.137 4.822 3.777
4.155 4.955 3.601
3.964 5.013 3.596
4.239 5.392 3.041
4.415 5.334 2.976
4.044 5.429 2.617
3.899 5.222 3.816
3.856 5.331 3.826
4.054 5.180 3.400
4.185 5.296 3.030
4.069 5.743 3.151
3.824 5.653 3.742
3.967 5.472 3.151
3.468 4.981 6.056
3.667 5.221 6.088
3.618 5.156 6.234
3.302 5.438 6.226
3.374 5.972 6.291
4.913 -0.124 5.371
5.220 0.183 5.172
4.890 0.328 4.931
5.047 -0.074 6.202
4.965 0.015 6.074
4.788 0.197 5.417
5.117 0.481 5.372
4.965 -0.065 5.993
4.955 0.347 6.183
4.675 0.509 6.001
4.871 0.463 5.965
5.519 1.662 1.269
4.521 0.358 6.113
5.170 2.211 1.902
5.328 1.920 1.483
5.236 2.125 1.185
5.118 2.133 2.091
5.104 2.268 1.961
5.255 2.522 1.477
5.179 2.283 1.944
5.261 2.314 1.993
4.860 2.891 1.398
4.914 2.821 2.123
5.062 2.777 1.839
4.533 2.456 5.413
5.018 2.263 4.880
4.925 2.405 4.624
4.782 2.388 5.540
4.857 2.799 5.007
4.907 2.592 4.978
4.892 2.966 4.574
4.744 2.687 4.430
4.303 2.525 6.084
4.784 3.054 5.499
4.637 2.775 5.112
4.709 2.853 5.053
4.501 3.242 4.631
4.933 3.265 4.637
4.582 3.077 4.384
4.487 3.157 5.506
4.732 3.106 5.503
4.397 3.276 5.317
4.439 3.407 4.701
4.565 3.384 4.485
4.846 3.577 4.411
4.641 3.342 4.261
4.399 3.720 5.108
4.693 3.435 5.081
4.318 3.455 4.942
4.502 3.534 4.476
4.557 3.602 4.244
4.876 4.074 3.679
4.469 3.955 4.300
4.636 4.133 4.032
4.489 3.958 3.928
4.472 4.087 3.718
4.468 4.214 3.222
4.632 4.461 3.339
4.680 4.400 4.114
4.648 4.446 3.562
4.600 4.531 3.540
4.770 4.676 3.207
4.667 4.700 3.236
4.664 4.673 2.993
4.743 4.693 2.752
4.502 4.972 3.763
4.654 4.890 3.597
4.634 5.102 3.518
4.627 5.163 3.163
4.507 5.019 2.907
4.482 5.096 2.429
4.459 5.287 2.099
4.169 5.150 3.777
4.166 5.179 3.424
4.629 5.351 3.250
4.348 5.108 3.048
4.691 5.505 2.897
4.608 5.342 2.356
4.194 5.473 4.002
4.154 5.504 3.714
4.299 5.652 3.109
4.413 5.732 2.984
4.317 5.582 2.644
3.966 5.357 5.905
3.689 5.673 6.243
3.665 5.718 5.799
3.714 6.035 6.327
3.966 6.145 5.912
5.205 0.189 5.391
5.204 0.065 5.384
5.147 0.323 5.151
5.301 0.180 4.629
5.213 0.575 4.443
5.212 0.136 5.990
4.901 0.021 5.741
4.930 0.527 5.581
5.165 0.272 5.597
5.232 0.330 6.240
5.602 1.652 1.435
5.447 1.912 1.165
5.222 1.994 2.228
5.533 2.067 2.041
5.453 2.093 1.859
5.512 2.412 1.253
5.327 2.219 2.120
5.365 2.374 1.825
5.200 2.559 1.610
5.547 2.381 1.560
5.224 2.684 2.581
5.300 2.502 2.077
5.375 2.664 2.050
5.335 2.530 1.817
5.162 2.686 2.332
5.039 2.770 2.149
5.151 3.152 1.909
4.853 2.132 5.251
4.849 2.449 5.348
5.168 2.584 4.955
4.664 2.622 5.670
4.716 2.481 5.445
4.857 2.723 5.423
4.780 2.926 4.904
5.044 2.696 4.893
4.764 2.498 5.992
4.973 2.851 5.724
4.699 2.713 5.658
4.643 3.197 5.190
5.082 3.240 5.243
4.802 2.967 4.957
4.719 3.209 6.008
4.943 2.986 6.169
4.644 3.240 5.752
4.715 2.982 5.615
4.837 3.284 5.057
5.006 3.531 5.002
4.918 3.376 4.422
4.790 3.397 6.026
4.614 3.695 5.658
4.709 3.599 5.418
4.952 4.754 3.550
4.750 4.813 2.985
4.837 4.703 2.893
4.823 5.199 2.489
5.054 4.850 2.521
4.571 5.066 3.531
4.914 5.217 3.392
4.897 4.831 2.986
4.823 5.029 2.758
4.853 5.204 2.442
4.736 5.135 2.213
4.918 5.296 3.615
4.707 5.197 3.451
4.694 5.440 3.018
4.877 5.648 2.517
4.765 5.406 2.363
4.615 5.629 3.498
4.842 5.691 3.001
4.502 5.534 2.546
4.713 5.851 2.734
4.247 5.642 5.855
4.080 5.422 6.048
3.943 5.504 6.325
4.217 5.764 6.025
3.996 5.864 5.504
3.733 5.781 6.158
3.866 5.888 5.879
3.902 6.029 5.701
3.822 6.312 5.283
5.711 0.400 5.576
5.750 0.363 4.997
5.605 0.528 4.734
5.510 0.233 4.631
5.519 0.378 4.513
5.486 0.834 4.271
5.516 1.949 2.141
5.712 1.963 1.972
5.835 2.179 1.705
5.570 2.074 2.898
5.705 1.847 2.642
5.631 1.961 2.208
5.895 2.302 2.241
5.809 2.308 1.623
5.550 2.507 1.719
5.327 1.978 2.779
5.714 2.037 2.504
5.545 2.106 1.872
5.639 2.548 1.590
5.639 2.656 1.631
5.410 2.646 2.533
5.711 2.416 2.614
5.737 2.541 2.103
5.686 2.641 1.695
5.370 3.008 1.632
5.604 2.644 2.650
5.551 2.725 2.385
5.284 3.104 1.967
5.033 2.387 5.804
5.367 2.629 5.351
5.343 2.398 5.268
4.877 2.364 6.212
5.108 2.631 5.706
5.215 2.486 5.748
5.358 2.627 5.194
5.033 2.698 4.908
4.999 2.791 6.164
5.294 2.934 5.771
4.911 3.071 5.574
5.262 3.168 5.343
4.924 3.065 5.113
5.029 2.885 6.141
5.214 3.166 6.159
4.864 3.365 5.862
5.219 3.448 5.263
4.943 3.309 5.315
4.948 3.612 6.281
4.828 3.597 5.884
5.021 5.129 2.657
4.955 5.022 2.445
5.012 5.055 2.153
5.002 4.940 3.189
4.913 5.106 2.832
5.078 5.474 2.827
5.329 5.417 2.394
4.844 5.515 3.175
4.929 5.409 2.813
5.270 5.676 2.879
4.891 5.730 2.445
5.139 5.906 3.162
5.160 5.763 2.692
5.225 5.638 2.476
4.486 5.800 6.060
4.649 5.392 5.875
4.402 5.961 5.400
4.560 5.794 5.613
4.500 5.767 6.072
4.321 5.750 5.873
4.340 6.145 5.759
4.204 5.882 5.331
4.305 6.314 6.114
4.247 6.166 5.933
5.755 0.334 5.041
6.063 0.604 4.623
5.732 0.472 4.402
5.879 0.794 4.319
5.749 0.744 3.754
6.176 0.677 3.550
6.045 0.841 3.589
5.890 0.997 4.121
5.745 1.117 4.191
6.111 0.884 3.775
5.724 1.119 3.231
6.029 1.275 3.012
6.126 1.145 2.906
6.050 1.205 3.643
6.067 1.677 3.184
5.686 1.519 3.141
5.703 1.842 2.532
6.118 1.585 2.749
5.887 1.869 2.129
5.704 1.717 3.310
5.947 1.944 2.919
6.061 2.118 2.768
5.761 1.965 2.677
6.117 1.932 2.149
5.820 2.368 1.836
6.044 2.348 1.922
5.680 1.958 3.223
5.721 1.946 2.874
5.859 2.093 2.785
5.955 2.102 2.244
5.989 2.500 2.176
6.083 2.413 1.931
5.837 2.384 1.446
5.709 2.540 2.935
5.971 2.409 2.690
5.910 2.673 2.376
5.913 2.686 2.247
5.702 2.890 2.052
5.580 2.638 2.962
5.585 3.063 2.322
5.754 2.933 2.153
5.520 2.427 6.339
5.669 2.659 5.936
5.619 2.609 5.450
5.307 2.403 6.103
5.452 2.859 5.888
5.234 2.733 5.885
5.399 2.679 5.208
5.264 2.915 6.145
5.315 3.142 5.929
5.111 2.906 5.503
5.524 3.092 5.711
5.318 3.359 6.086
5.330 3.398 5.810
5.153 3.191 5.443
5.067 3.577 5.904
5.480 5.238 2.662
5.597 5.122 2.209
5.386 5.259 3.051
5.109 5.196 2.620
5.151 5.507 2.281
5.212 5.629 2.821
5.368 5.520 2.602
5.142 5.504 2.760
5.227 5.786 3.222
5.169 5.796 2.902
5.375 5.756 2.722
5.089 6.156 2.828
5.368 5.938 2.862
4.978 5.388 5.697
4.774 5.294 5.595
4.672 5.819 6.289
4.451 5.541 5.910
4.654 5.610 5.590
4.692 5.964 5.449
4.797 6.162 5.126
4.610 5.697 6.366
4.425 6.077 6.178
4.537 6.110 5.648
4.427 5.927 5.418
4.687 6.228 5.081
4.327 6.407 6.298
5.976 0.689 4.814
6.251 0.558 4.715
5.954 0.926 4.091
6.130 0.749 3.945
6.013 0.972 3.618
6.189 1.204 3.213
6.046 0.973 4.269
6.313 0.972 3.848
6.289 1.359 3.637
6.276 1.443 3.360
6.213 1.320 3.365
6.178 1.448 3.061
6.100 1.560 3.664
5.920 1.651 3.649
5.935 1.513 3.283
6.122 1.721 3.259
6.244 1.965 2.863
6.136 1.739 2.753
6.122 1.659 2.129
5.891 1.893 3.847
5.956 1.824 3.295
5.965 1.864 2.942
6.168 2.136 3.051
6.407 2.279 2.608
6.438 2.048 2.465
6.139 2.271 1.953
5.855 2.195 3.448
5.966 2.351 3.357
6.287 2.147 3.042
5.991 2.142 2.675
5.881 2.370 2.342
6.304 2.506 2.323
6.229 2.645 1.888
6.029 2.484 3.397
5.965 2.360 3.157
6.208 2.719 2.948
5.843 2.691 2.449
6.072 2.726 2.435
6.047 2.635 1.948
5.934 2.903 3.235
6.042 3.002 2.902
5.996 2.875 2.795
6.064 3.036 2.170
5.728 2.142 6.202
5.779 2.227 5.847
6.274 3.142 2.992
6.271 2.979 3.162
5.986 3.213 2.633
5.537 2.601 6.319
5.524 2.313 5.900
5.701 2.451 5.626
5.817 2.847 6.123
5.732 2.934 5.835
5.740 2.888 5.812
5.633 2.838 5.842
5.608 2.996 5.771
5.361 3.210 6.094
5.585 3.130 6.029
5.615 3.537 6.058
5.895 5.059 2.633
5.543 5.217 2.628
5.534 5.583 2.482
5.592 5.487 2.709
5.778 5.847 2.420
5.280 5.750 2.828
5.555 6.076 2.647
5.617 6.118 3.127
5.419 6.363 2.794
4.907 5.401 5.875
5.205 5.641 5.452
5.009 5.705 5.495
4.989 5.659 6.413
4.828 5.702 5.797
4.911 5.845 5.961
4.985 5.963 5.444
4.791 6.220 4.985
4.804 6.023 5.866
4.797 5.972 5.593
4.850 6.100 5.625
5.152 6.372 5.239
4.564 6.411 6.100
6.495 2.351 3.429
6.088 2.256 3.508
6.247 2.383 3.241
6.447 2.723 2.848
6.296 2.557 2.723
6.013 2.621 3.418
6.305 2.709 3.041
6.270 2.997 2.833
6.439 2.735 2.574
6.368 2.875 2.468
5.826 2.169 5.851
6.037 1.986 5.757
6.049 2.944 3.205
6.355 2.894 3.029
6.143 3.084 2.469
6.123 2.105 5.920
5.830 2.181 5.747
6.166 2.560 6.022
6.081 2.682 5.899
6.224 2.581 5.464
6.145 2.749 6.299
5.747 2.955 6.083
6.138 3.083 5.940
6.007 2.811 5.854
5.929 3.382 6.071
5.717 3.522 6.316
5.939 5.736 2.346
5.787 5.787 2.842
6.052 5.590 2.413
5.512 6.194 2.832
5.861 6.204 2.465
5.363 5.322 5.846
5.234 5.455 5.878
5.498 5.250 5.186
5.454 6.107 2.994
5.435 5.369 5.733
5.482 5.450 5.910
5.461 5.618 5.246
5.512 6.047 5.279
5.290 5.593 6.092
5.453 5.811 5.864
5.340 5.765 5.706
5.087 6.024 5.255
5.096 5.982 4.988
5.290 5.958 6.334
5.007 6.290 5.888
5.335 6.377 5.836
6.205 2.189 6.262
6.273 2.347 6.183
5.997 2.481 5.877
6.089 2.720 6.475
6.226 2.606 6.078
6.238 2.901 6.170
5.882 3.121 5.997
6.175 6.099 2.771
5.732 5.007 5.442
5.594 5.066 5.422
5.759 5.583 5.064
6.052 6.195 2.906
6.223 6.345 2.989
5.470 5.550 6.102
5.836 5.347 5.596
5.668 5.326 5.371
5.874 5.816 5.056
5.582 5.786 5.992
5.755 5.804 5.965
5.647 5.726 5.726
5.413 5.683 5.223
5.389 5.926 6.198
5.453 6.152 5.810
5.533 5.889 5.395
5.635 6.317 5.107
5.676 6.372 5.234
5.262 6.107 6.321
5.365 6.209 5.906
6.276 4.787 5.046
6.014 4.698 5.070
6.057 5.046 5.736
6.321 5.054 5.397
6.324 5.348 5.040
6.148 5.199 5.879
5.775 5.142 5.489
5.802 5.505 5.462
6.247 5.582 4.951
6.220 6.116 2.742
5.936 5.591 5.942
5.733 5.742 5.854
6.149 5.428 5.632
6.179 5.873 4.974
5.891 5.590 6.257
5.833 5.891 5.767
5.614 5.714 5.590
6.055 5.851 5.037
5.580 5.875 6.265
5.623 5.935 5.749
5.641 6.037 5.435
5.809 5.953 5.212
6.469 5.192 5.777
6.061 5.098 6.191
6.152 5.365 5.487
6.329 5.184 5.256
5.955 5.409 6.191
6.327 5.697 5.546
6.155 5.689 5.505
6.022 5.703 5.042
5.863 5.870 6.272
6.272 5.655 5.927
6.065 5.863 5.809
5.968 6.241 5.121
6.051 6.336 5.658
5.158 2.236 5.392
4.918 2.512 5.331
5.279 2.431 5.042
4.871 2.784 5.732
5.020 2.473 5.749
4.794 2.951 5.087
4.859 2.925 5.058
4.914 3.003 4.817
4.890 2.672 6.320
4.952 2.613 6.126
4.968 2.837 5.552
4.703 2.937 5.550
4.939 3.024 4.945
5.027 3.274 4.997
4.593 2.987 6.108
4.925 3.134 5.998
4.557 2.977 5.755
4.777 3.433 5.419
4.634 3.316 4.955
4.613 3.229 4.966
4.672 3.363 4.758
4.443 3.350 5.972
4.573 3.684 5.638
4.705 3.339 5.427
4.725 4.601 3.149
4.810 4.744 3.175
4.856 4.844 2.619
4.865 4.915 2.506
4.711 5.055 2.380
4.867 4.790 3.488
4.743 4.896 3.491
4.675 5.139 3.041
4.872 5.336 2.794
4.909 5.354 2.734
5.048 5.100 2.458
4.604 5.256 3.544
4.879 5.093 2.981
4.766 5.628 3.168
4.879 5.285 2.835
