17.562283 79.84561 58.102962
18.694286 79.73661 60.26496
29.041285 3.6446152 3.2409592
29.620285 1.4576111 2.3419647
33.094284 114.10761 62.25896
35.056286 115.40461 62.74496
50.684284 64.11361 42.34296
50.169285 66.786606 41.35596
40.810287 70.828606 38.91196
41.716286 72.746605 38.01096
27.919285 23.778608 56.137962
29.499285 23.506609 57.28596
38.998287 30.38961 59.07696
40.833286 30.28261 59.776962
44.573284 113.59661 37.85896
43.667286 113.71161 35.66496
39.641285 5.5026093 36.081963
41.453285 6.2066116 37.22996
43.267284 108.74861 42.547962
42.099285 106.73961 42.89996
35.727287 100.82761 48.63596
34.961285 98.71261 48.01796
38.041286 64.940605 33.81596
36.176285 64.60461 34.85896
33.854286 54.89361 35.66996
34.733284 53.82661 34.24596
28.659285 10.649612 43.00396
28.808285 12.241608 44.27496
38.518288 11.663605 49.02896
39.187286 10.745605 46.971962
33.801285 100.02161 52.261963
31.971285 100.355606 51.268963
30.476286 102.61661 40.17396
32.243286 101.60961 39.269962
52.219288 21.41261 59.15996
0.20728683 19.59561 60.149963
11.066288 16.15561 59.053963
11.4512825 14.127609 57.128963
9.081284 84.89461 47.02896
8.960285 84.85861 49.095963
18.960285 91.44061 49.380962
20.231289 89.84861 49.59296
48.103287 37.12261 27.04096
48.891285 39.17461 26.41496
40.589287 42.93761 31.09196
39.211285 43.60761 32.46296
48.494286 2.6616135 19.049961
48.965286 1.3136139 20.83696
4.158283 113.31861 23.802961
6.2762833 113.34761 22.486961
51.058285 60.17461 15.591957
49.316284 60.74461 15.2699585
42.105286 59.32961 8.816963
42.338287 58.06961 6.824959
36.151287 106.75061 60.81596
37.797287 107.65561 60.01396
43.027287 113.50961 1.8699646
45.719288 114.21461 2.30896
50.991287 65.261604 16.42296
50.118286 66.369606 18.830961
3.7012825 74.18761 14.425961
3.2482834 75.995605 14.08796
17.290287 78.81961 14.037961
14.710285 78.66561 13.850961
7.2252846 72.383606 20.292961
8.969284 72.18661 21.44096
4.323284 35.59061 28.84096
4.0722847 33.95461 27.69296
46.146286 31.11361 24.389961
44.661285 31.38261 26.34396
46.831287 44.006607 24.386961
49.416286 44.32761 23.67696
3.1392822 42.00461 16.09696
2.582283 40.567608 14.16396
36.812286 17.92961 13.399963
34.306286 17.989609 14.423958
23.805285 16.81061 15.451958
25.592285 15.165609 15.744957
41.251286 101.62561 37.93596
41.245285 99.62961 36.831963
33.691284 93.18061 36.85696
32.656284 93.27761 38.96196
35.261284 51.82061 7.118965
35.769287 49.59961 6.2139587
41.446285 43.42761 65.690956
40.763287 43.48861 63.68896
16.023289 88.67461 64.93496
18.02229 88.67061 63.644962
24.296284 89.03161 60.81396
24.367283 91.06861 62.602962
45.536285 30.902609 10.375961
47.563286 30.11461 11.492958
3.0472832 32.63261 2.3559647
4.881283 32.47261 2.5059586
9.716286 7.9116135 20.72496
11.623287 7.233612 20.01596
4.3712845 8.100609 18.40196
4.818283 7.7646103 20.788961
45.722286 107.97661 56.691963
46.767284 109.91861 57.158962
37.160286 111.92961 59.63496
35.750286 110.11861 60.20196
9.356285 30.034609 7.47596
10.5082855 28.17961 6.6669617
4.7112846 23.37961 1.6269608
5.0222855 24.33261 65.67996
14.426289 59.66261 8.39196
13.183285 59.13061 6.386963
13.348286 70.09861 1.2529602
12.3262825 71.508606 2.4919586
13.718288 102.57561 44.69496
14.514286 100.53661 46.30096
25.544285 98.46961 40.18496
27.334286 96.63761 40.36496
27.195286 9.58461 15.9329605
27.441286 10.763611 17.90796
35.477287 8.063614 12.102959
37.084286 7.2936096 11.514961
22.130285 29.76961 14.3949585
23.691286 30.92261 15.241959
26.656286 33.84761 5.0979614
28.088285 35.395607 5.0199585
21.031284 43.73861 48.49496
21.473286 45.803608 48.845963
28.337286 51.692608 47.26096
29.212286 50.27461 48.98196
44.384285 100.96561 8.66996
44.485287 102.72161 7.040962
48.946285 111.21161 11.973961
46.986286 112.94561 11.580963
23.847282 13.629607 4.4779587
23.028282 11.871613 6.231964
14.1022835 9.586609 13.360962
13.822285 7.8856125 14.149963
33.321285 115.67461 44.22596
32.118286 114.81261 42.52296
28.866285 104.82561 45.380962
27.240286 105.65461 46.214962
38.747288 23.271608 29.26796
38.151287 23.42561 27.16496
28.294285 20.822609 26.77396
29.027285 20.799608 28.61896
34.148285 6.217613 62.29296
32.000286 4.9606094 61.27996
39.639286 115.04261 1.2729645
38.984287 113.31561 65.54496
25.852285 24.284609 43.443962
26.612286 25.749609 45.15696
31.291286 29.24461 51.420963
31.866285 31.26261 50.366962
5.245285 116.18261 5.2589645
5.0742836 115.47161 7.0859604
48.646286 5.063614 5.2249603
47.401287 5.2846146 7.351959
11.319286 79.65761 24.78396
11.9512825 77.177605 23.92896
19.332287 75.09761 16.39396
21.414288 76.008606 16.691961
38.212288 109.57761 23.118961
36.611286 107.70861 22.070961
33.220287 100.81561 21.99896
31.397285 100.77261 20.48596
33.593285 16.215609 64.482956
35.136284 16.84861 0.08695984
36.919285 15.510609 54.603962
38.041286 13.91161 53.36396
19.09129 60.27961 49.059963
19.862286 60.35761 50.879963
17.449284 70.15661 56.928963
14.870289 70.10061 57.116962
16.793285 110.22961 35.62096
16.055286 109.61061 33.450962
13.804287 104.29961 25.747961
14.853283 105.83261 24.07696
41.404285 52.92061 7.143959
38.846287 53.77761 7.76696
36.910286 62.31961 64.14196
38.236286 63.64161 65.04696
5.9302826 42.89761 53.75696
5.5642853 41.638607 51.456963
6.971283 42.19061 57.872963
5.1992836 43.914608 57.665962
4.7162857 111.63461 45.78496
7.056286 111.98761 45.98396
12.480289 116.54161 50.04196
13.649288 0.14661407 51.78796
32.741287 73.45861 25.88396
32.635284 72.00061 27.39796
41.013287 70.00561 36.09796
42.789288 71.69761 35.36196
17.234285 74.65461 30.10096
18.997286 73.761604 29.34496
28.982285 70.72361 26.32696
30.331285 72.178604 25.41496
49.301285 69.70861 22.441965
49.822285 68.71461 20.85296
1.7802849 73.54061 12.23996
2.3342857 73.00061 10.360962
46.650288 85.81661 6.703964
48.490288 85.15061 5.339958
41.105286 76.55661 7.476959
41.026287 78.00161 9.093964
28.946285 46.52361 11.942963
29.900286 46.34361 10.097961
37.696285 39.37661 10.28096
39.078285 39.15661 12.221962
40.150288 55.50961 30.69796
39.514286 57.60161 31.37896
33.096287 62.17361 20.78296
33.885284 64.59061 20.076962
43.144287 2.8576126 26.28996
45.025288 2.2416153 26.96896
47.331287 8.54261 30.92196
49.750286 7.507614 31.195961
8.789284 32.48961 65.60996
7.035282 34.17361 65.04296
12.644283 41.57661 1.5199585
11.957287 43.77261 0.9229584
12.394283 8.539612 11.081963
14.659283 8.276611 10.723961
21.42529 2.586609 5.768959
21.248287 4.384613 6.457962
2.6282845 55.85561 19.34996
3.0262833 53.79861 19.070961
13.978283 52.85661 21.28396
16.31329 53.55461 20.649961
51.249287 93.69261 6.3099594
52.543285 95.11561 7.945961
51.795284 102.06861 1.4699631
0.38028336 100.216606 0.9859619
6.693283 75.067604 3.6019592
5.157284 76.008606 5.310959
49.285286 71.120605 4.3979645
48.401287 70.90261 2.1059647
43.411285 5.630615 61.017963
45.637287 4.900612 60.378963
52.746284 12.176605 53.30896
52.359287 14.464614 53.99996
2.1632843 18.381609 35.610962
1.9432831 20.566608 35.17696
52.159286 24.75861 27.38496
50.235287 25.99761 27.12496
52.782288 31.54561 19.722961
52.070286 32.277607 21.49496
7.367283 29.257608 21.21396
6.646282 29.68461 18.62696
28.007286 101.39861 39.74396
27.900286 103.61061 39.06296
20.752285 107.47161 33.26396
19.097284 108.52961 31.89496
23.478283 68.51661 14.014961
21.712284 69.75761 12.166962
12.915287 67.72261 19.055964
11.3262825 68.30861 17.345964
9.875282 62.17061 46.50896
10.171284 61.43261 48.88896
0.107284546 56.94061 46.26096
51.421288 57.27061 45.33496
31.322285 70.33661 11.420959
32.889286 71.12361 12.025963
39.816284 78.28161 11.403961
40.324287 76.203606 11.066963
23.803286 96.48161 24.49896
25.527285 97.63661 24.594961
27.683285 107.25461 17.39096
28.995285 105.42161 15.78896
8.500282 52.12661 46.92696
8.215282 52.46261 48.98296
4.3192825 59.50361 42.873962
5.1322823 58.24361 40.89196
24.842285 36.80261 28.05296
23.443285 34.81361 27.56796
23.464285 32.98861 17.49896
23.361284 30.83961 17.98296
50.392284 83.83661 3.2639618
49.377285 83.83361 1.1679611
44.220287 78.70661 61.012962
46.557285 78.56761 60.553963
33.217285 77.43461 37.20496
31.578285 79.26661 38.05796
33.089287 83.45461 46.623962
33.894287 85.18861 45.589962
49.105286 104.44561 13.607964
47.271286 105.78361 14.37896
39.761288 99.96061 10.37896
41.736286 98.10761 10.671959
2.219284 1.5916138 40.91896
0.21228409 0.2536087 40.39596
3.0982857 3.8766098 30.785961
4.872284 4.2366104 29.88296
41.132286 117.73561 19.264963
38.915287 117.19961 19.109964
39.141285 112.74061 12.854965
38.414288 111.07961 11.297958
26.162285 38.74461 28.93096
25.775286 40.58061 27.77496
27.723286 41.14661 21.30896
27.025286 42.54961 19.92996
23.862286 5.8816147 3.719963
24.159285 3.7306137 5.6669617
25.197285 10.116608 12.178963
23.843285 11.533615 11.758965
40.247288 86.02961 29.97096
38.254288 85.89461 31.47896
32.959286 77.15561 32.47496
33.175285 76.355606 34.57996
45.681286 112.47561 15.042961
47.455284 113.51561 14.311958
0.9172821 105.52361 17.63296
1.1042824 103.53261 16.162956
15.728283 14.327613 31.06096
17.317287 13.647613 32.49296
22.000282 9.160614 22.73896
20.436283 7.6336136 21.934961
16.689285 117.20161 61.21796
18.393286 116.37761 59.573963
25.729286 4.44561 64.16696
24.167286 4.4656143 0.45796204
28.917286 50.98161 58.90496
29.611286 50.31661 57.12796
34.093285 38.666607 57.976963
33.607285 37.93261 60.00896
25.780285 12.712609 13.57196
25.681286 14.579609 12.4329605
35.389286 16.29661 4.2749634
36.529285 14.842609 4.574959
45.308285 98.42761 25.80496
44.806286 100.43261 24.646961
33.734287 97.38161 22.490961
34.401287 95.59661 23.58296
31.426285 10.618609 13.91096
30.756285 12.078609 12.1899605
26.506285 17.476608 21.98196
24.987286 17.382608 20.92596
19.380283 70.87661 32.41196
18.856289 70.259605 30.615961
10.609283 63.76161 27.80396
11.944286 62.38561 26.87396
0.28128433 102.37461 45.963963
1.7542839 101.26661 47.12796
50.386288 97.99861 57.34796
52.282288 98.22861 58.589962
51.729286 66.88961 65.73996
52.104286 67.29461 1.6429596
9.698284 71.19361 1.6599579
9.670284 71.61661 4.1359634
21.430285 86.66861 30.608961
22.007284 86.75661 32.87096
20.630285 84.72961 26.18996
21.408285 84.08161 24.21496
39.077286 53.99861 33.76596
39.625286 55.95961 33.526962
47.582287 59.11761 32.42896
49.494286 58.63761 31.96196
44.480286 28.09261 42.40596
46.384285 27.13461 42.165962
40.739285 24.44961 30.91396
38.716286 24.21961 31.78996
22.665285 85.69661 13.084961
22.254286 87.85461 12.72296
22.870285 96.18261 21.39196
21.561285 95.18261 23.43796
33.427284 26.704609 32.55496
33.338287 25.218609 31.15996
25.067286 21.66461 36.51496
23.323286 22.948608 36.51496
38.079285 102.89261 60.782963
37.333286 104.53361 59.44796
42.040287 108.22861 53.108963
42.060287 110.03561 51.61996
42.453285 88.88961 61.477962
44.309284 88.58361 60.31396
47.903286 97.50161 57.93096
48.257286 99.49261 59.49496
5.3902855 9.426613 2.4679642
5.9372826 7.3976135 2.9789581
50.073284 8.489609 9.562965
50.053288 10.575607 10.384964
49.537285 101.494606 25.17296
50.284286 99.30961 25.69796
3.7482834 103.18561 34.55796
3.707283 104.22961 32.82696
23.277283 67.913605 46.14396
21.268284 68.52061 44.679962
19.881283 70.55761 35.08496
20.632282 68.22761 34.48096
17.07729 101.30561 52.489964
16.525288 103.08761 51.74396
8.786285 109.45361 47.26896
7.9022827 108.95961 45.075962
18.476284 112.00261 63.54296
18.301289 111.17561 65.55796
21.033283 3.908615 1.0389633
20.306286 5.6666107 2.106964
0.71328354 23.62761 53.434963
0.45628357 25.60261 54.06496
50.642284 24.548609 61.81496
49.054287 22.91261 61.50296
0.3202858 8.180611 15.104965
2.1022835 8.016609 16.47496
9.981285 16.327614 16.818962
10.897285 17.532608 15.58596
19.138287 93.12961 13.690961
18.130283 91.04561 14.126961
13.418285 96.31661 24.15896
10.769283 96.19161 24.785961
0.69428253 73.25161 48.91696
2.7462845 72.65861 48.06396
3.6162834 67.133606 58.37796
1.0272827 67.35461 58.92696
45.563286 102.58161 1.0469589
45.339287 102.61061 4.110962
38.850285 98.58561 63.26396
40.563286 99.86061 62.79496
32.473286 97.45861 25.78296
32.427284 99.39761 26.44796
36.577286 102.55061 36.686962
35.590286 101.91461 38.346962
50.402287 41.53161 26.08296
49.754288 41.791607 23.806961
6.0412827 47.685608 19.931961
5.129284 47.39861 17.99296
21.936285 45.08661 42.21796
23.423285 45.256607 43.58096
32.373287 39.603607 47.54496
33.397285 38.74661 45.56596
4.8172836 15.584609 18.66596
3.5812836 15.86661 20.313961
7.712284 25.90061 19.98596
8.694283 26.64361 18.10096
9.3262825 85.60861 33.51396
10.504284 85.48861 35.17796
16.291286 95.97661 39.03196
15.470287 97.14761 41.01796
48.919285 65.66561 65.70596
47.353287 64.94561 64.48496
52.524284 61.54161 61.14796
1.3012848 61.73261 62.54196
49.115288 38.07161 53.956963
49.586285 38.610607 51.78696
42.519287 41.394608 53.97396
40.313286 43.31561 53.99296
45.421288 8.943611 44.78996
46.486286 9.249611 46.97296
47.324287 2.1856155 49.49496
46.598286 0.098609924 50.02196
24.387283 85.04061 39.79996
23.247284 83.15661 38.75396
15.815289 81.54861 30.44696
17.959286 81.18361 29.42096
6.7962837 100.52161 5.57296
6.490284 98.14161 5.3789597
9.910282 98.78861 8.338959
11.539288 97.67761 8.980965
40.091286 86.80461 55.740963
41.495285 87.89161 56.94496
48.606285 95.51161 54.88196
50.865288 96.14661 55.228962
15.221287 80.82761 49.019962
14.836285 78.00061 48.37496
9.0762825 83.87161 40.89696
9.060284 83.42061 38.700962
38.629288 1.1206131 24.95196
36.470287 0.06161499 24.021961
33.454285 3.646614 12.02896
35.235287 5.068611 11.39196
42.401287 65.65761 2.367958
43.663284 65.64361 4.540962
46.609287 69.71361 12.562965
48.603287 68.70761 12.465965
23.206285 73.675606 14.757965
24.739285 75.27061 15.565956
26.112286 64.677605 17.00696
27.145285 62.86361 16.119957
39.563286 14.38561 39.52396
38.049286 15.844609 39.96796
41.741287 25.54661 46.36496
40.125286 26.28761 44.52396
2.1902847 102.20861 21.33496
52.774284 102.04861 21.36996
47.313286 97.14461 14.826961
48.444286 96.37261 12.350961
30.408285 96.73561 41.28196
32.494286 96.30761 42.70996
30.350286 87.66561 44.81496
30.079285 85.88761 45.651962
3.773285 57.36461 60.38896
3.0202827 59.03461 59.13296
10.433285 58.09961 50.90396
12.185284 57.20461 50.55596
48.800285 99.66561 48.19696
50.435287 101.09861 49.255962
45.261288 105.01561 58.69796
44.572285 103.42361 59.96096
44.430286 112.55361 32.53996
45.007286 111.00961 34.484962
34.258286 105.92861 37.54296
34.507286 104.27461 36.345963
43.222286 29.22861 29.62696
41.395287 29.017609 30.51296
32.991287 38.06661 33.12896
32.812286 37.84961 35.31596
14.861286 47.11361 10.91996
14.147289 46.71861 8.643959
18.904285 55.34661 3.8419647
21.086285 56.61861 2.9169617
26.105286 33.82761 57.15596
27.999285 34.82761 55.879963
37.188286 32.978607 62.989964
38.925285 34.21961 62.15596
15.470287 99.03461 53.254963
15.463284 97.43861 51.782963
9.583282 91.35261 54.97996
7.9682846 90.54761 55.123962
26.304285 12.100609 43.01496
25.650286 14.018609 42.45296
23.333284 19.50961 43.94696
22.996284 19.79461 46.23396
42.267284 37.25861 15.21196
40.856285 38.43361 16.546959
38.451286 48.84361 13.340965
36.516285 50.26961 13.038963
15.796284 25.069609 49.32096
14.850285 24.63661 46.957962
24.835285 30.49461 43.33496
24.541283 29.84261 41.06996
41.381287 27.027609 62.936962
41.560287 25.76661 61.435963
30.873285 18.07461 62.14196
29.626286 19.75861 62.365963
9.363285 62.06261 25.87696
7.1282845 62.03661 26.56596
52.720287 69.69761 24.09796
50.653286 68.663605 24.18696
43.853287 79.36761 58.255962
45.538284 79.79661 57.09096
48.154285 73.690605 49.457962
49.205284 72.03361 48.84396
4.1022835 61.72061 44.02896
5.221283 62.97461 45.74796
7.9462852 65.03261 52.443962
9.210285 65.34761 54.115963
16.278286 9.851608 8.007965
14.225285 9.740608 6.8009644
6.5342827 5.6756134 9.400963
4.610283 6.077614 7.214958
12.8642845 64.244606 46.21896
12.020283 65.966606 46.98096
15.485287 68.053604 39.15796
17.664288 67.43261 38.596962
40.789288 93.50761 36.73396
42.503284 91.79661 36.86996
47.337288 87.91861 41.19196
49.944286 87.51861 41.94196
38.133286 65.60061 25.22996
40.090286 66.88261 24.486961
42.690285 77.05461 26.56496
43.537285 76.76461 24.03896
20.800285 90.22161 12.896965
21.303286 90.45361 10.759964
22.977285 99.11661 3.268959
25.133286 99.70961 2.9639587
36.876286 32.32361 1.7089615
34.998287 32.58561 2.9989624
40.950287 32.07761 12.262962
42.798286 31.40861 12.631958
38.449287 99.79661 48.588963
37.391285 100.43861 50.665962
41.622288 103.18261 59.52896
40.519287 104.355606 61.10696
24.496284 90.14661 50.372963
24.944284 92.20561 51.59396
26.052286 88.62261 42.53496
24.372286 87.76361 42.87296
50.416286 90.85961 38.34896
52.627285 89.90561 38.62896
49.297287 84.33061 30.15896
50.142284 82.90761 28.32496
44.278286 105.60761 2.9369583
44.214287 107.22861 4.060959
38.132286 113.07561 2.7329636
36.152287 114.57661 3.3719635
36.613285 7.801613 8.480965
34.454285 7.519615 7.237961
32.464287 0.33161163 2.3359604
33.783287 117.466606 0.30496216
26.354286 3.69561 50.379963
24.342285 3.933609 48.73296
30.104286 115.21861 40.25096
30.971285 116.05861 38.59396
39.160286 64.93661 31.17396
40.424286 65.61061 32.721962
42.094288 68.62361 21.94096
41.650288 70.60161 22.74496
31.834286 50.07361 49.83396
31.952286 49.76061 47.65996
40.453285 42.79961 45.165962
41.176285 43.47361 43.38496
0.004283905 62.33361 43.366962
52.244286 60.30461 44.15496
49.572285 65.86261 36.43096
49.236286 65.80661 34.109962
30.711285 98.74961 53.344963
28.485285 99.15461 53.20996
28.289286 100.54461 42.73396
26.155285 101.96461 41.762962
18.247288 1.5286102 16.653961
17.005283 3.9396133 16.397957
7.6562843 0.83361053 11.451965
5.5452843 1.7106094 11.811958
4.226284 115.57261 18.61496
4.700283 116.96761 20.93396
7.629284 5.176613 28.740961
7.804283 7.2426147 29.82396
7.419285 89.78061 52.22296
5.426285 89.48261 51.622963
8.926285 87.84961 41.62196
10.834286 89.06061 40.40996
7.085285 76.580605 7.202965
8.537285 76.43261 5.181961
14.205288 81.31961 13.08696
13.435284 83.29261 14.236961
46.292286 12.794609 49.91896
45.176285 11.589609 47.49996
50.001286 14.758609 40.53196
50.085285 13.744609 38.65496
36.797287 62.38161 10.393959
37.683285 64.71361 9.659958
27.079285 66.97461 5.3159637
24.674286 67.33761 6.83696
33.702286 47.68161 59.323963
33.338287 48.85761 57.33496
38.761288 53.34361 48.57496
37.757286 54.78861 47.10896
47.852287 110.73461 32.77796
48.270287 111.17661 34.68896
7.566284 107.53361 30.54796
6.9142838 105.20661 30.37896
36.620285 32.32761 18.857958
35.469284 30.56061 18.287958
37.683285 25.51261 6.763962
39.848286 26.11561 6.664963
42.186287 111.10961 29.27196
40.859287 110.09261 28.20796
30.748285 115.50961 26.30396
32.261284 114.80261 24.542961
34.329285 21.59561 57.66996
35.486286 20.36261 55.837963
38.796288 26.920609 51.971962
38.903286 28.59961 53.88196
5.129284 0.8026123 60.81396
3.9672852 2.55661 59.540962
11.229282 10.1736145 55.991962
12.898289 11.386612 56.27396
26.348286 116.22561 33.81396
26.693285 114.33561 34.26196
31.515285 107.71961 26.688961
33.505287 107.37661 25.64096
35.145287 39.47561 43.15696
37.402287 37.98761 44.06596
28.198286 35.013607 49.629963
28.465286 37.513607 49.227962
14.995289 13.841609 56.656963
15.656284 15.841609 56.087963
23.528282 13.101609 50.491962
25.405285 11.56461 50.86796
26.607285 36.263607 52.200962
26.064285 36.23861 53.978962
16.656286 39.96861 51.379963
15.103285 39.69561 53.28796
9.992283 24.41561 47.53996
10.122284 23.649609 49.241962
1.8632851 23.631609 49.776962
52.706287 22.857609 50.69596
3.002285 82.23661 18.04996
4.155285 82.01961 16.618958
5.240284 91.56161 12.924965
3.2412834 91.33861 13.648964
51.208286 75.09961 50.20896
49.568287 76.52861 49.603962
2.6522827 87.56561 49.87796
0.5592842 88.41861 49.213963
15.759289 77.38761 54.031963
16.865284 79.22361 52.963963
22.541283 86.55161 53.30896
21.762283 88.39361 51.34396
24.672283 44.14761 62.067963
23.008286 44.824608 60.623962
19.601284 44.58361 51.00196
18.03629 46.16261 51.401962
42.852287 49.96361 60.373962
44.089287 48.09761 61.16296
44.191284 39.756607 55.608963
46.586285 39.52261 55.02996
44.580284 89.08961 44.50096
44.438286 88.02661 42.46896
33.448284 93.77361 41.78196
33.712284 92.21861 43.52596
19.033283 89.46261 61.29996
17.907284 91.29761 62.00696
22.796284 101.76661 59.228962
24.596283 101.21361 60.158962
26.930285 35.859608 2.2749634
28.706285 35.67561 0.87696075
25.618286 29.66861 58.57296
25.227285 28.39361 56.463963
9.796284 12.861603 19.356958
11.606289 11.614609 19.126963
2.6052856 5.6846085 13.969963
0.9982834 6.7536087 12.787964
6.311283 69.43461 57.122963
5.2772827 71.397606 58.20996
1.2082825 80.51461 53.58696
52.205284 81.42461 55.13296
11.713284 56.01561 39.83796
10.7012825 54.47861 40.92496
2.2812843 49.53161 36.69496
0.098285675 48.54261 37.665962
36.971287 25.62261 35.00696
35.073284 24.89861 36.27796
37.886288 17.34961 27.23796
39.137287 18.81061 27.42296
47.424286 96.72761 26.64496
46.992287 94.62561 26.90196
39.147285 89.36561 23.20696
39.220287 86.87561 23.89296
40.182285 62.20661 7.6359634
39.999287 61.37761 9.874962
49.288284 63.32861 14.84996
49.982285 65.11161 12.968964
3.655285 33.03561 16.469963
2.5782852 32.03061 14.568962
48.516285 22.97161 12.285965
49.024284 21.996609 14.4589615
50.849285 85.26161 45.34296
51.623287 85.20261 47.76196
39.781284 89.21161 50.45296
41.281284 89.57661 52.34796
51.972286 25.61061 51.72496
50.033287 26.462608 51.358963
52.672287 37.71061 47.13496
52.323284 36.66361 45.04996
32.120285 71.64461 44.12996
30.518286 70.69961 44.68896
39.460285 72.591606 47.04696
40.733288 73.122604 45.00696
9.119286 43.900608 36.73796
10.483284 45.61561 37.02296
11.940289 52.52061 29.19496
10.009285 53.36561 29.00896
12.116283 65.55661 17.96096
10.136284 65.413605 19.64896
52.773285 63.17561 18.260962
52.344288 63.10461 15.761961
32.446285 13.703609 44.25796
34.638287 14.831609 43.09096
30.996286 26.15861 45.04696
32.704285 24.882608 45.40596
35.255287 24.499609 15.94796
37.348286 24.139608 14.85096
47.592285 25.22361 7.9889603
48.547287 26.67161 9.6219635
33.528286 102.62861 7.219963
34.393284 102.38961 9.94796
35.709286 110.03061 12.0199585
35.432285 112.20761 11.010963
37.387287 86.25461 19.04696
36.319286 84.73361 18.43396
30.286285 81.30061 20.81196
31.201286 82.28061 18.72796
30.378286 92.79461 29.42196
32.917286 92.77361 29.27496
30.483286 102.18761 37.53196
31.832285 104.09661 36.94496
25.372286 16.021608 5.91996
24.676285 17.83961 4.888962
28.720285 16.75861 61.68396
27.306286 16.91561 59.63996
9.504284 42.35661 61.941963
9.110283 40.78861 60.44696
18.506283 35.74761 60.75896
17.293285 35.464607 62.859962
41.963287 112.26561 17.626963
42.494286 113.51261 16.302963
44.217285 111.85661 10.462959
44.698284 112.53761 12.590965
48.199287 78.67361 58.427963
48.430286 79.78661 56.679962
4.0102844 84.77361 62.02796
3.5732841 86.24361 63.371964
2.2322845 107.12461 15.876961
2.1922836 108.83861 14.728958
51.352287 113.23561 10.927963
49.656284 114.95461 9.764961
14.903286 104.02961 42.65396
16.877285 102.31461 41.73996
8.525284 97.76361 36.51096
8.257282 97.66461 34.50296
31.702286 58.85961 5.860962
33.518284 59.37461 4.1269608
29.308285 65.10961 61.70296
30.378286 65.47061 59.94096
35.519287 29.409609 49.761963
36.425285 28.17161 51.62796
25.491285 32.35161 54.700962
25.838285 33.51561 53.26696
31.469286 52.76761 22.31896
29.267284 52.48361 22.37896
21.843285 59.44661 28.306961
22.065285 62.02161 28.46196
22.276283 106.25061 11.681961
22.096283 105.03061 13.21196
15.086285 99.27861 12.527962
13.780285 98.42061 11.060959
39.549286 16.71361 37.79996
40.501286 17.16261 36.13496
42.549286 10.882609 46.24296
41.211285 12.534609 46.61896
12.791286 26.441608 7.757965
12.532284 26.93661 5.346962
16.375286 27.39861 13.687965
15.281284 26.15561 14.790962
1.3162842 112.39861 5.011963
3.3742828 112.091606 5.14196
2.7972832 106.23661 13.289963
3.9152832 104.80461 15.341957
48.417286 47.93761 40.81396
48.444286 46.89761 39.04396
38.435287 44.45961 36.17596
36.814285 45.249607 38.17496
27.383286 16.50961 52.755962
27.882286 16.28961 50.91096
31.282286 26.475609 48.88596
33.125286 28.33961 49.630962
37.785286 71.538605 37.58596
38.728287 71.86361 39.866962
30.952286 64.46561 46.17596
31.330286 62.52661 46.52496
34.439285 58.26961 40.66996
35.859287 59.95361 41.66996
42.740288 54.13461 45.575962
40.985287 54.96561 46.91496
12.898289 93.12561 43.123962
14.635288 91.66961 43.07096
22.568283 94.09461 38.095963
24.016285 93.23761 37.03296
10.747284 2.2586136 34.186962
9.0082855 2.086609 31.94896
2.3422852 112.45061 27.81296
2.964283 110.19461 28.35796
45.011288 51.20961 63.27996
43.274284 52.19861 61.74496
43.436287 63.24061 1.4189606
42.771286 64.494606 65.76396
39.190285 5.41761 11.370964
41.319286 6.108612 11.861961
46.330284 0.70861053 21.068964
45.177284 1.9906082 22.54996
26.574286 21.11261 43.60196
25.534285 21.05461 45.36596
30.017286 20.990608 55.94496
31.910286 22.027609 55.88196
0.83828354 22.41061 29.43296
2.6682854 21.712608 28.12596
0.95928574 10.074609 30.931961
52.231285 9.27461 31.20496
41.295284 108.25061 49.62096
40.834286 106.27361 51.429962
40.140285 102.00461 40.99096
39.543285 103.10761 39.39996
17.835285 11.895615 35.66096
19.476286 11.662613 34.22396
27.484285 9.710609 30.57396
28.866285 9.594612 32.91696
46.867287 29.74061 41.90296
44.306286 30.86461 42.68496
50.084286 38.84361 44.97696
51.666286 40.85861 45.97696
13.026287 98.78461 6.8119583
14.062283 96.97061 8.330963
18.332287 91.11461 11.393959
16.463284 90.77161 11.742958
10.409283 12.235611 49.741962
12.023289 11.157608 50.385963
15.914288 4.4416122 46.109962
14.749287 3.0766144 44.49996
32.483284 27.91261 10.198959
30.708286 29.097609 9.01796
20.445286 22.70061 7.3759613
19.195286 23.29761 9.623962
11.360287 27.50961 59.78496
11.618282 30.20261 59.734962
3.8492851 30.93561 52.614964
4.7532845 32.435608 50.89796
50.130287 40.05961 42.62596
51.527287 41.58561 41.03696
3.5202827 35.685608 33.214962
3.6642838 38.01161 32.41996
32.379284 25.50561 17.701962
31.041286 25.38661 19.58496
36.463287 28.22661 20.063961
38.718285 29.191608 19.81196
37.213287 54.98161 18.248964
36.862286 53.39561 19.14496
28.221285 46.16761 14.715965
27.001286 47.83361 13.615959
16.708286 57.90261 36.15696
15.232288 60.27161 35.74596
14.448284 48.560608 37.005962
16.337284 49.04361 38.50196
43.655285 56.52161 50.66996
42.342285 57.14661 52.78096
46.843285 48.59761 61.28696
47.846287 46.97061 61.86896
41.369286 30.74061 53.158962
40.338287 30.49861 51.63496
35.529285 40.70461 47.04496
37.155285 40.77861 46.05396
26.025286 99.70761 11.323959
27.372286 97.40761 12.309959
28.749285 97.94061 1.7289581
28.519285 100.29661 1.0149612
52.785286 17.34961 53.74596
0.22328568 18.87061 52.580963
10.479282 15.195609 47.66796
11.005283 17.07561 46.228962
23.076284 57.05261 11.825958
23.952286 54.91561 12.924965
25.996284 50.59961 17.210962
27.730286 50.18161 18.957964
36.922287 97.77261 14.344963
35.966286 95.43961 15.679962
26.297285 102.65061 14.35096
24.941286 101.25761 15.546959
8.156284 47.421608 47.80296
9.3262825 46.17361 46.16696
11.492283 38.839607 43.19096
12.858288 37.99561 41.72296
31.260286 70.84061 38.31096
30.036285 69.315605 39.02496
31.022285 58.62861 37.86296
33.081287 59.30761 36.852962
51.357285 85.88861 1.8549652
0.5402832 85.11361 1.9229584
50.813286 84.38261 12.776962
51.560287 86.55061 14.568962
33.346287 109.70961 62.075962
32.355286 111.47761 60.06996
20.029285 111.25561 60.767963
18.155285 111.76961 59.31996
18.191288 42.11261 18.77296
16.248287 40.985607 18.014961
17.815289 29.277609 17.194962
20.056286 29.99861 16.17896
24.217285 51.59961 12.248962
23.746284 50.65561 10.720963
28.008286 40.686607 7.426964
28.337286 38.95561 8.886963
43.154285 21.666609 3.606964
41.514286 21.041609 5.3409653
38.190285 20.840609 12.931961
37.218285 20.67561 14.50396
39.544285 76.551605 41.53296
41.199287 75.46261 41.57996
43.565285 81.99361 52.61196
45.544285 80.70061 52.469963
7.9542847 54.35061 21.65196
7.2762833 51.85161 21.71596
10.521282 41.963608 24.23596
12.792286 42.00761 23.30496
29.471285 65.79861 20.92396
31.208286 66.49361 19.08996
39.320286 68.15161 22.18396
38.191284 66.46261 22.33296
50.065285 18.812609 39.16396
51.544285 18.166609 37.054962
40.408287 19.677608 34.88396
38.851288 18.850609 34.19496
45.908287 107.81061 42.415962
46.840286 106.08461 43.34796
2.8812828 109.31961 43.42796
5.318283 109.36661 44.318962
16.720287 24.99061 9.534958
18.468288 25.58461 8.438965
24.251286 34.89761 3.856964
22.591286 36.74461 3.5679626
39.589287 5.1096115 4.93396
40.107285 7.1876144 5.9329605
34.525284 9.502609 62.09996
32.548286 8.856613 61.91996
30.215286 4.2586136 0.1899643
28.177286 5.4846115 64.82696
30.554285 12.051605 8.984962
33.021286 11.711609 10.237961
50.226288 85.41061 27.20596
50.240288 87.70061 28.21896
41.501286 91.56261 34.22296
40.772285 93.45061 33.873962
50.957287 45.69461 40.12996
49.719288 44.617607 38.568962
51.512287 44.96661 28.14096
50.022285 43.96161 27.28696
2.1702843 77.64661 48.42396
0.18628311 77.25461 46.998962
3.641285 82.22161 36.62796
5.660282 83.21261 36.14996
32.040287 93.83361 22.295961
30.055286 94.355606 22.64996
22.685286 86.07461 21.29696
21.544285 85.744606 19.38196
0.31228638 33.97361 16.24996
1.6382828 33.797607 18.038961
51.419285 38.05161 28.40296
52.451286 39.199608 29.91896
22.785286 66.010605 59.41696
21.597284 64.01961 59.601963
23.318285 68.17261 51.60596
22.943285 68.385605 49.14796
40.201286 74.65661 39.39296
38.150288 74.13961 38.73096
40.999287 79.72261 29.64596
42.306286 81.65761 30.33196
30.277285 13.662612 60.76496
28.634285 14.8476095 59.003963
29.266285 4.344612 54.16196
28.080286 3.8336105 52.364964
24.998285 60.75861 8.992958
27.022285 58.77461 9.450958
22.236284 51.38461 2.0279617
20.833284 49.86161 3.181961
17.226284 70.50261 61.892963
17.273289 72.46261 60.463963
9.144283 77.81561 57.985962
7.021282 78.28261 58.719963
22.713284 92.96561 52.94796
21.710285 94.06861 50.762962
13.473286 97.84761 58.48196
14.682285 98.17461 60.311962
37.011284 51.75761 34.60796
35.639286 50.59661 36.73296
37.047287 58.08261 44.04496
36.256287 57.12661 46.20896
35.694286 7.455612 60.04396
36.594284 7.818611 58.48296
33.199287 114.23961 59.53596
35.152287 113.97161 60.385963
31.914286 58.539608 42.186962
30.366285 59.62761 42.80896
34.479286 68.39261 35.83396
32.819286 67.95261 35.09096
14.519283 93.68661 63.08696
16.809284 92.40461 63.96796
24.889282 93.59361 63.290962
25.433285 94.64561 61.11396
34.955284 57.35761 20.24496
35.509285 55.046608 20.75196
31.238285 53.42061 31.34496
31.553286 55.73061 31.24396
47.692287 54.11561 6.8159637
47.837288 53.85861 4.5129623
3.5762825 54.68961 63.330963
4.042282 52.27061 61.79196
14.350285 50.66561 19.64696
15.67429 51.54961 17.301958
22.884285 53.35961 11.097961
22.027283 55.28661 9.76696
35.027287 89.96761 23.69396
36.201286 88.49661 22.84996
37.541286 77.54261 25.504961
36.521286 75.72261 26.71396
5.2892838 99.15561 55.082962
5.3072853 96.68061 55.364964
13.417286 89.14961 60.720963
11.953289 89.52561 62.748962
3.7112846 58.02661 17.345964
2.3122826 57.28161 15.449959
3.502285 57.09561 6.511963
3.2172852 58.51961 4.4609604
36.957287 69.274605 51.91696
36.919285 66.91861 51.03796
45.408287 65.60261 43.90496
47.490288 64.85161 45.77996
51.079285 63.68061 23.10596
0.13228607 64.71561 21.95996
6.030285 56.01561 23.136961
6.499283 55.14661 25.36096
5.2232857 104.89161 58.991962
5.5792847 103.07261 58.686962
49.695286 97.37061 62.019962
50.244286 97.01161 60.13496
36.267284 98.869606 9.799965
38.148285 99.03761 8.663963
40.342285 88.89861 1.259964
40.172287 90.98961 0.7319641
14.632282 106.69561 37.10596
13.891285 104.61261 38.06296
14.491283 103.41861 28.70796
15.776287 102.23561 27.09096
9.163284 53.21661 12.257965
8.330284 53.77461 14.379959
11.8292885 62.060608 11.434959
11.106289 62.55061 9.370964
13.876286 112.66461 54.14096
11.839283 112.133606 52.91296
13.848286 101.20461 53.191963
15.306286 102.23961 54.422962
46.242287 9.772614 11.873962
44.848286 8.367615 11.943962
52.669285 0.66960907 12.101959
1.1072845 2.7936096 11.538963
38.703285 10.559609 6.844963
36.322285 10.987609 7.229965
43.865288 15.461609 13.283958
45.105286 13.59061 12.826965
45.701286 6.8526154 26.11496
44.028286 6.749611 24.99696
50.582287 8.867615 15.42996
50.703285 10.338608 13.71496
17.684284 38.22261 9.827965
15.3642845 38.01561 11.006958
10.915283 28.07561 15.701958
9.913284 28.72661 14.309959
12.959286 48.33361 0.7359619
12.362286 46.12761 65.02696
9.536285 44.630608 54.019962
11.468288 44.367607 52.48296
29.409285 3.6846085 49.08396
29.887285 2.957611 50.88296
39.880287 0.5416107 52.53796
40.982285 2.370613 52.68896
13.009289 59.71461 10.8409605
14.742283 60.33161 12.036961
13.851284 59.14661 24.62496
11.944286 59.85361 25.95396
42.375286 46.92561 21.801958
43.905285 47.25761 20.248964
41.948284 40.49761 12.153961
40.418285 41.38261 10.626961
30.330286 32.96161 52.18996
29.891285 35.331608 53.48696
40.978287 31.63761 56.761963
43.361286 32.157608 56.64696
36.564285 19.542608 26.24996
34.792286 20.521608 24.78796
35.559284 14.391609 15.17996
37.747288 15.394609 14.888961
3.4082832 70.216606 34.07196
5.2572823 70.51661 32.63196
9.334286 74.705605 23.56196
7.047283 74.61361 22.37896
48.505287 49.29161 63.630962
50.211285 49.36361 61.05796
46.369286 62.90361 60.219963
48.604286 63.65361 60.21596
13.8262825 102.11061 62.393963
14.833286 100.68461 64.50596
25.643284 101.94561 62.776962
25.656284 103.994606 61.44496
12.582287 68.91861 36.37296
13.026287 68.49961 38.457962
3.8492851 69.42061 42.401962
2.6492844 68.36061 44.71796
32.846287 1.1256104 10.73896
34.304287 117.03861 10.845963
26.261286 115.35161 17.246965
25.127285 116.84061 18.332964
21.705286 109.355606 11.249962
19.981285 108.71561 10.205963
22.214285 103.82061 1.4909592
22.767284 101.96861 3.3259583
15.240284 94.97661 11.442963
13.885288 95.36461 13.365959
6.266285 94.69161 20.473963
5.8482857 93.40561 22.558962
19.68929 66.871605 15.612961
21.623283 65.90961 14.440964
24.813286 63.15561 7.907959
23.822285 61.31561 6.3199615
38.846287 108.06461 14.90596
39.421288 109.99661 15.69796
30.199286 1.1506119 17.240961
31.051285 0.54761505 15.106964
34.072285 26.632608 46.89996
35.824287 27.632608 47.540962
34.818287 24.212608 39.30596
34.224285 24.24761 41.89096
28.376286 97.55161 55.42396
26.681286 97.18261 57.11996
22.063286 107.71461 53.74396
20.811285 107.78661 51.50996
31.193285 71.69961 34.91096
32.866287 70.65861 36.14396
38.062286 74.358604 43.62896
38.565285 74.731606 45.81496
24.316284 47.65461 44.88296
22.499283 47.14161 46.235962
19.867283 57.88561 49.247963
22.036285 57.62561 49.595963
11.871288 16.63961 33.44296
13.047283 14.717612 32.44096
8.196285 9.563614 22.81296
8.509285 11.081604 21.65896
25.145285 113.40461 36.27796
25.602285 115.91261 36.67196
18.960285 2.8516083 45.36796
19.679285 4.202614 44.15696
45.685287 63.92061 55.93296
45.268288 65.29961 58.02796
43.596287 62.70261 50.75196
43.240288 60.83261 49.65396
2.2892838 35.59761 3.7089615
1.832283 35.27861 1.1529617
51.071285 44.57161 62.290962
52.114285 46.17761 63.23296
23.566284 60.46261 11.490959
25.683285 61.15161 11.334961
25.554285 73.87761 12.416962
22.947285 73.80561 11.219963
31.972286 106.22161 38.95896
29.976286 107.51261 37.84296
18.406284 107.06461 36.68796
18.731285 108.494606 35.09496
25.622284 88.39461 38.31796
24.869286 88.07461 40.21896
15.603283 86.41861 42.79496
15.172283 88.11661 44.57496
35.148285 92.46961 10.626961
34.136284 93.22561 12.887962
26.652285 98.02561 20.777964
27.826284 97.77661 22.872965
35.877285 101.25161 8.230965
36.253284 103.29561 7.471962
42.898285 109.92361 9.1219635
43.764286 108.83261 11.021965
21.522285 22.23361 46.19996
19.506285 23.50461 46.37196
26.280285 32.86461 47.90996
24.278286 33.09961 46.36496
46.589287 30.79761 15.424961
44.477287 30.09461 15.027961
47.396286 19.479609 19.274961
47.732285 18.29661 21.372961
21.011288 94.44461 29.53896
19.373287 95.48861 31.03896
9.440285 95.12761 36.71896
7.424286 95.26561 36.85596
10.915283 100.41061 5.82296
9.190285 98.98361 5.6569595
10.523285 89.32461 7.443962
11.06329 89.37361 10.023964
17.389286 7.606613 6.926964
18.059284 7.00161 4.771965
12.689289 115.79461 0.4859619
11.057285 116.04861 64.47096
24.067286 63.00661 3.8979645
26.108286 62.22161 4.7069626
28.486286 69.18761 2.0419617
29.372286 70.21261 0.5519638
38.277287 72.64461 50.44696
36.612286 71.97061 51.45396
34.296284 66.77661 52.191963
32.495285 67.03161 53.90996
9.160282 38.58061 26.31496
8.813286 38.400608 28.36396
13.983288 28.84961 29.06596
13.840282 26.70361 28.59096
39.326286 53.50061 51.643963
37.996284 53.76361 53.726963
37.112286 61.91661 61.44596
39.520287 63.02461 62.68996
20.73029 58.98161 6.511963
18.88329 60.70561 6.7069626
14.717289 51.51961 9.22496
14.469288 49.58561 10.6219635
45.133286 117.53161 65.60696
45.340286 116.76261 63.94696
42.260284 0.7686081 56.89896
43.198284 2.997612 56.09296
49.658287 49.38261 38.57196
50.895287 51.14161 37.22696
45.145287 49.34561 43.05196
44.429287 49.72661 45.05696
7.5862846 114.99061 1.5799637
7.5222855 115.06961 4.4119644
11.495289 6.3666153 4.66996
12.200283 7.938614 5.770958
48.894287 70.983604 65.35096
47.613285 72.47961 64.36496
49.887287 78.48861 54.325962
48.622288 79.84061 53.108963
29.239285 61.49261 47.92396
29.361286 62.29361 50.15396
25.601286 65.370605 59.596962
27.514286 66.649605 60.42696
52.749287 92.79661 9.622963
51.740288 94.48461 11.219963
5.782284 97.75061 20.855959
4.782284 97.51061 22.455965
51.757286 29.29461 41.630962
50.200287 27.389608 41.01896
45.527287 29.55661 32.15796
43.379288 30.13961 32.55596
5.627285 8.603615 52.88396
6.945286 9.349609 51.00696
11.718288 2.7916107 42.50296
11.669285 3.9486084 40.74696
32.591286 84.06561 15.074961
33.958286 83.07561 16.95096
36.381287 75.636604 20.92296
37.281284 75.717606 23.15096
7.5392838 83.33461 31.16496
6.9942856 84.64161 32.95496
9.5082855 94.20561 26.88196
11.433285 95.08061 27.136961
27.145285 18.115608 8.755959
25.583284 16.204609 8.72496
21.480286 20.458609 18.763964
22.180285 18.711609 19.689959
24.690285 98.49861 37.28496
24.050285 100.16961 38.095963
18.382286 104.75061 28.80096
18.052284 106.84761 28.37496
3.9542847 11.885605 49.24396
4.0362854 9.632614 49.05596
0.35728455 2.5646133 43.311962
1.1382828 2.1386108 45.60796
43.515285 45.179607 23.51696
43.375286 46.56861 25.820961
40.928288 37.11861 23.19696
38.812286 38.096607 23.81996
49.039288 40.34761 6.723961
50.815285 39.39861 8.230965
4.6492844 33.37861 12.868965
6.160282 34.88661 13.234962
42.970287 72.28161 21.043962
43.074287 70.522606 19.177965
42.702286 73.34961 13.700958
44.156284 73.11361 12.19696
24.010284 34.87261 54.70496
23.810284 36.109608 52.41896
16.993282 33.16061 44.30896
16.993282 34.789608 42.76096
14.115284 115.92061 52.57996
12.048283 115.01561 52.86296
8.037285 5.989609 54.165962
10.700283 6.0456085 53.505962
30.844286 114.90861 36.23896
30.986286 117.03961 34.908962
35.351284 3.7196121 25.69396
35.501286 5.2796097 26.858961
21.955286 70.912605 28.76996
20.843285 72.25061 30.64696
31.152285 78.07961 30.75296
30.962286 76.76261 28.62096
4.3552856 56.81361 25.93996
3.3072853 56.13461 23.97396
47.946285 55.93461 28.84696
47.899284 57.45561 30.00296
3.8062859 34.38561 41.200962
4.726284 34.95861 43.40096
7.396282 41.75461 37.07196
6.990284 41.51161 34.957962
52.614285 99.54861 23.542961
0.05228424 101.59361 24.75296
52.292286 107.78361 27.85296
0.6422844 109.92961 26.64696
35.050285 33.776608 21.226961
34.862286 31.55061 20.84396
37.317287 27.625608 32.34796
36.501286 25.743608 31.85096
52.538284 65.75761 42.80396
51.076286 66.19361 44.43396
45.656284 64.05461 52.15596
46.161285 63.72061 49.915962
48.026287 88.37061 44.68296
47.986286 90.49161 44.82996
39.072285 93.74661 48.01696
37.129284 93.10761 48.110962
27.161285 89.95061 64.09196
28.388285 89.26061 62.575962
36.811287 96.98161 63.643963
35.759285 97.71461 65.64296
18.311283 111.15561 11.090965
16.853283 111.14461 9.692963
9.6402855 100.71161 10.189964
8.300285 101.24061 7.8929596
49.149284 3.346611 24.79096
48.515285 3.57061 22.785961
50.317287 11.194611 16.924961
50.164288 13.247604 15.515961
0.20228577 54.78661 48.769962
51.174286 53.60061 48.47996
47.635284 61.96861 56.796963
48.125286 62.63161 54.629963
10.694283 51.57361 27.00896
8.202286 50.81661 27.66596
9.250282 47.96061 37.86896
7.4272842 46.02461 38.144962
10.668285 105.28061 60.962963
10.873283 104.24661 58.71696
14.358288 100.30961 58.060963
15.529285 100.08261 56.364964
19.720287 52.52861 33.81596
18.780285 51.95461 35.07996
20.56329 46.70661 38.082962
18.642284 45.66861 38.65596
44.033287 82.90061 7.580963
43.046288 81.91461 9.616959
42.924286 76.73561 12.007965
43.933285 75.66561 13.637962
51.457287 79.35761 46.41196
51.229286 78.89161 44.16396
46.958286 73.496605 36.94496
45.715286 75.773605 37.00196
28.783285 85.93161 0.81996155
28.117285 83.76661 2.247963
16.937284 88.77761 1.8449631
16.257286 86.83661 2.7209625
48.644287 95.32061 8.217964
48.604286 93.21161 6.9809647
41.182285 85.68961 4.509964
43.478287 85.21761 4.740959
7.7552834 97.80961 18.604961
7.455284 99.95961 17.57296
11.088284 111.01461 18.628962
9.608284 111.13461 19.86496
13.575283 116.22761 63.116962
13.306286 117.68661 61.22396
2.587284 115.55961 59.623962
1.5682831 117.46761 58.352962
5.8542824 54.22461 62.19496
5.717285 56.66961 61.943962
9.949284 62.76161 52.899963
7.714283 61.74561 52.18996
2.9252853 102.35861 18.38196
4.3832855 103.19761 19.96196
5.483284 110.92561 26.05796
4.7582855 108.76961 27.13396
50.708286 85.841606 37.922962
52.833286 84.28861 36.89796
1.3502846 73.04861 33.75896
1.6252823 72.71461 31.19496
43.063286 88.05161 19.02596
45.050285 89.65061 17.95696
1.6842842 89.56061 23.81096
2.4272842 87.58161 24.47296
26.325285 65.02861 24.577961
27.183285 62.65161 23.95396
25.853285 58.67761 14.629961
27.307285 60.25461 13.232961
13.792286 83.87161 3.285965
13.514286 86.28761 2.1289597
8.939285 84.53761 57.64696
7.047283 83.980606 59.025963
24.075283 106.90961 56.72996
22.160282 107.98461 56.66196
15.705288 103.730606 0.634964
15.507282 103.67161 2.674965
17.739285 7.516609 40.84196
15.340282 7.9586105 41.18096
11.561283 12.905609 47.06296
12.5792885 13.641608 49.115963
14.968288 115.02761 58.88496
16.30029 113.30761 58.033962
9.423283 113.67861 65.02996
10.5762825 113.97161 1.0959625
12.276287 56.86961 42.20296
12.430286 56.796608 44.00796
10.458282 46.43761 40.30596
12.247288 46.07661 38.94096
30.558285 83.51761 63.45996
30.391285 85.66961 63.08496
34.848286 78.76361 55.72996
33.496284 78.48361 54.04996
6.0722847 71.91661 34.90996
4.497284 73.508606 33.63696
7.9062843 81.84461 34.55896
8.728283 83.41961 35.60596
48.342285 28.98361 14.7749605
48.885284 29.09161 16.72596
51.927284 22.51661 25.056961
50.011288 21.34961 23.90496
39.386288 13.103609 5.9379654
38.864285 11.924609 3.622963
50.100285 13.828609 3.7009583
51.747288 14.309609 2.3759613
0.23828506 13.70861 39.76496
0.79128265 14.258613 37.34896
5.0152855 10.669601 32.05096
4.309284 8.782608 32.964962
36.890285 6.45961 23.53696
36.370285 8.573608 24.15196
32.762287 10.859604 23.79196
30.909285 9.412613 23.65096
9.203285 64.509605 8.907959
10.186283 66.217606 10.249962
17.711285 73.65861 5.2729645
16.019283 75.27961 3.832962
29.512285 50.046608 52.11396
31.662285 49.67261 53.51496
39.754288 46.16961 53.470963
41.644287 46.37061 52.213963
24.074286 102.50661 12.372963
24.774284 104.44361 12.65596
31.761286 104.33861 2.6499634
31.093285 106.92461 3.046959
39.297287 112.95261 31.15096
37.339287 114.44461 31.74696
28.578285 111.94461 35.49396
26.434286 111.14961 35.193962
38.019287 28.61561 2.8979645
37.498287 28.34161 0.68395996
37.628284 17.726608 4.1239624
38.799286 16.25161 2.5439606
30.775286 52.810608 57.35596
31.722286 54.62961 57.43296
35.539284 58.47361 48.36196
36.081287 60.85061 47.95896
43.443287 47.39861 44.05896
43.168285 45.68961 41.831963
44.965286 50.53161 34.728962
47.370285 51.58861 34.61996
49.038284 7.5366135 6.91996
49.522285 9.733612 6.9349594
42.499287 8.357613 10.686958
41.591286 9.035614 12.609962
6.898285 117.11261 18.15496
6.7952843 115.66961 19.60596
15.010288 2.0676117 17.84596
16.399288 0.32961273 18.65496
30.361286 99.23761 65.38896
32.809284 97.86461 65.33896
32.156284 87.47861 3.3499603
32.984287 86.89161 1.0649643
35.933285 17.952608 54.50696
37.568287 17.201609 52.45296
34.530285 22.764608 44.17896
36.131287 24.57461 44.16696
3.1892853 117.994606 11.913963
4.0982857 116.51961 13.749962
50.023285 108.49861 12.978958
51.151287 106.82461 14.430962
51.386288 92.94861 14.270961
0.839283 92.12061 14.654961
1.8832855 82.10861 21.014961
0.6632843 81.18561 19.61096
5.2572823 91.06361 55.150963
6.342285 91.62061 56.84396
4.313286 91.66161 64.99696
2.5222855 92.60761 65.05896
2.339283 86.93261 38.42896
4.0272827 85.78861 37.37996
2.5862846 84.79461 25.96596
0.8962822 83.52661 25.07696
40.085285 50.75261 20.406961
37.615288 50.60761 19.87796
29.807285 43.707607 20.07896
28.674286 45.66661 20.70496
2.3872833 49.82961 55.69096
2.9632835 48.06461 56.29396
51.213287 48.47761 58.36296
0.076286316 48.14061 57.75996
7.5982857 30.07161 52.935963
6.638283 30.31061 50.929962
14.252285 34.28061 44.49796
14.399288 35.331608 42.470963
12.5912895 10.28161 21.396961
14.882282 9.760609 22.84896
20.266285 19.64061 27.83596
18.532284 21.33861 27.174961
1.2712822 81.12861 23.75696
52.540287 80.85261 24.82196
45.273285 73.32661 19.809961
44.413284 74.47461 21.198961
16.738285 56.69661 22.34296
18.413288 57.93961 22.84696
13.254284 52.50561 15.218961
11.54929 53.62261 14.97296
8.732285 19.37561 39.64396
7.2882843 17.97361 41.28996
7.4112854 10.945602 46.116962
6.457283 9.12561 47.99396
38.959286 78.12061 56.21796
39.646286 77.20961 58.623962
40.415287 86.23461 0.6149597
41.527287 88.091606 64.93096
31.620285 56.20361 35.90296
29.128284 55.68161 36.05196
18.961285 62.810608 38.41796
17.513285 61.24161 36.98296
46.919285 105.56861 2.3719635
48.070286 104.28861 2.1619644
50.871284 98.81361 0.70095825
51.175285 96.49661 1.2149582
31.913286 59.66761 65.05496
32.701286 57.94161 63.088963
41.911285 51.93261 1.0689621
42.463287 50.34061 65.17896
16.187283 114.28561 52.92696
18.750286 114.33661 51.95996
14.274288 106.59361 43.00496
12.754284 106.40661 41.35896
40.325287 83.87661 32.52596
42.784286 84.50161 31.76396
46.839287 92.28161 32.04596
47.256287 94.67361 32.51596
49.724285 43.61561 41.41096
48.631287 41.71561 41.05596
42.848286 48.60661 49.54396
43.892284 47.56161 51.32696
7.271282 112.30361 49.02396
9.290283 111.35161 49.135963
16.811283 0.1246109 44.69996
16.70229 1.7376099 46.186962
13.075283 40.17761 25.46496
13.596287 39.36961 23.379961
9.716286 28.468609 19.747961
10.068283 27.583609 22.03396
34.964287 46.43761 9.626961
36.843285 48.34661 9.973961
47.223286 53.73061 9.603958
45.234287 53.90961 8.630959
23.298283 33.30861 43.95396
22.966286 33.249607 41.22696
20.292286 32.78861 32.58596
19.506283 30.77161 33.220963
50.714287 34.14661 17.84896
50.034286 31.704609 18.358961
45.705284 24.052608 24.28796
44.247288 23.712608 25.42196
41.129288 85.39061 52.380962
42.694286 84.53361 50.89096
36.602287 77.94461 41.30096
36.868286 79.50761 39.46796
32.184284 80.06061 34.87696
32.161285 81.99661 34.082962
22.151285 81.73761 30.21996
20.163284 80.49961 31.25096
16.837284 87.09061 8.944962
15.554287 88.75661 8.32296
11.432285 86.53961 19.919962
10.4702835 84.27361 19.377962
8.646282 77.233604 22.170961
9.214283 77.44261 24.47396
5.903282 81.04661 31.90496
5.3522835 82.40161 33.46196
15.4662895 34.99361 60.781963
16.666286 33.534607 59.69496
23.521282 27.06161 60.239964
24.638283 25.479609 58.25296
20.209286 66.480606 63.41896
20.320286 67.550606 61.40296
31.362286 73.814606 62.901962
32.425285 71.89361 62.739964
7.478283 68.30961 1.8259583
8.337284 66.72561 3.2299652
18.427288 65.29561 61.102962
19.531284 63.48361 60.88996
25.477283 80.88461 14.729965
25.263283 82.88561 15.521957
18.54929 86.19361 10.76696
18.777287 88.31661 11.367958
40.573284 29.20361 3.2009583
40.428288 28.579609 0.53596497
51.576286 35.10461 1.9889603
51.895287 36.71561 3.5809631
1.6842842 16.344608 13.78196
0.99728394 18.697609 13.181961
12.742283 22.159609 15.61396
12.322285 23.566608 13.742958
8.982285 9.723609 54.82796
8.544285 11.82661 55.69096
