3.037 3.785 4.587
3.006 2.866 4.347
3.154 3.369 4.175
2.928 3.286 4.201
2.778 3.537 4.253
2.735 4.012 4.541
2.819 3.909 4.748
2.972 4.206 4.654
3.111 3.154 4.408
3.021 3.523 4.459
3.154 3.599 4.705
2.965 3.911 4.686
2.689 4.015 5.053
2.875 4.050 4.941
2.875 4.089 5.009
3.128 3.333 4.827
2.959 3.552 5.055
2.968 3.811 4.816
2.918 3.787 5.250
2.780 4.222 5.185
2.624 4.109 4.935
2.480 4.393 5.229
3.165 3.635 5.202
3.133 3.796 5.159
2.868 4.056 5.300
2.994 4.165 5.452
2.736 4.207 5.232
2.546 4.598 5.286
2.701 4.728 5.329
3.183 3.646 5.219
3.103 3.873 5.482
3.185 3.812 5.519
2.886 4.225 5.776
2.861 4.407 5.698
2.896 4.681 5.577
2.546 4.783 5.665
2.681 5.073 5.538
3.115 3.951 5.553
2.813 3.726 5.679
2.864 4.237 5.779
2.657 4.099 5.797
2.631 4.324 5.674
2.517 4.770 5.958
2.423 4.799 6.008
2.604 5.031 5.833
3.017 3.887 5.674
2.768 3.860 6.233
2.688 4.428 5.937
2.741 4.338 6.268
2.681 4.485 6.002
2.625 4.767 6.046
2.653 5.208 6.056
4.030 1.402 5.617
3.835 1.857 5.938
3.867 2.061 5.702
2.343 4.387 0.083
1.952 4.493 -0.030
1.994 4.598 -0.102
1.993 4.883 0.197
1.994 5.157 0.335
1.771 5.308 0.348
2.073 4.258 0.125
2.182 4.310 0.358
2.047 4.525 0.204
2.156 4.798 0.220
1.749 4.953 0.454
1.704 5.554 0.416
3.483 1.318 0.019
3.262 1.702 0.085
2.976 2.070 0.042
2.877 2.269 -0.071
3.177 2.379 -0.072
2.475 4.693 0.190
2.090 4.728 0.322
2.079 4.972 0.324
1.950 5.211 0.349
2.022 5.424 0.458
3.352 1.634 -0.149
3.512 2.063 -0.178
3.252 2.139 -0.019
3.347 2.485 0.174
2.263 4.743 0.571
2.188 4.940 0.663
2.373 5.111 0.420
2.214 5.216 0.763
3.467 1.529 0.102
3.573 1.966 0.327
3.209 1.858 0.307
3.262 2.312 0.391
3.128 2.324 0.160
3.221 2.442 0.476
3.658 1.763 0.305
3.580 1.746 0.485
3.283 1.915 0.295
3.533 2.279 0.423
3.356 2.469 0.331
3.300 2.429 0.488
3.552 1.670 0.812
3.646 1.557 0.712
3.575 1.933 0.537
3.203 2.310 0.567
3.187 2.414 0.545
3.289 2.748 0.937
3.530 1.348 1.045
3.424 1.942 0.983
3.325 1.878 1.106
3.191 2.197 1.114
3.119 2.274 0.852
3.610 1.621 1.068
3.413 1.650 1.063
3.690 2.037 1.267
3.611 2.072 1.111
3.604 1.652 1.203
3.547 1.678 1.292
3.419 1.800 1.263
1.979 6.350 1.874
3.632 1.696 1.776
3.749 1.646 1.428
1.902 6.054 2.378
1.760 6.050 2.153
3.870 1.624 1.647
2.187 5.630 2.440
1.959 6.003 2.463
1.885 6.290 2.627
2.371 5.733 2.809
2.208 5.885 2.558
1.953 5.808 2.893
2.134 6.153 2.537
2.093 5.762 3.027
1.999 5.656 2.815
1.875 6.172 3.040
1.810 6.402 2.913
2.340 5.470 3.106
2.205 5.599 3.019
2.084 5.807 3.279
2.213 6.153 3.036
3.330 3.293 2.910
3.057 3.554 2.927
2.347 5.732 3.270
2.088 5.613 3.273
1.951 5.967 3.231
1.950 6.178 3.250
3.293 2.817 3.317
3.433 3.219 3.128
3.060 3.427 3.026
3.039 3.798 3.293
2.121 5.736 3.754
2.080 5.808 3.815
2.102 6.296 3.706
3.299 2.535 3.316
3.398 2.824 3.545
3.140 3.170 3.406
3.091 3.453 3.564
3.232 3.766 3.360
3.158 3.710 3.232
2.318 6.352 3.854
3.533 2.864 3.695
3.308 2.796 3.621
3.300 3.294 3.631
3.040 3.172 3.673
3.140 3.515 3.797
2.917 3.889 3.738
2.828 4.183 4.110
3.314 2.754 3.687
3.560 2.866 3.692
3.454 3.172 3.928
3.048 3.460 3.905
3.086 3.581 3.944
3.141 3.944 3.859
3.123 4.093 3.926
3.146 4.115 4.136
3.332 2.522 4.159
3.536 2.713 4.163
3.500 3.206 3.869
3.186 3.280 4.282
3.042 3.612 3.950
2.959 3.801 4.245
2.856 3.990 4.029
3.080 4.056 4.301
2.915 4.260 4.309
3.615 3.107 4.098
3.561 3.145 4.387
3.304 3.267 4.317
3.091 3.670 4.227
3.215 3.774 4.170
3.180 3.972 4.280
3.089 3.980 4.670
2.804 4.333 4.847
2.781 4.573 4.537
3.384 3.103 4.482
3.523 3.115 4.526
3.209 3.505 4.782
3.084 3.867 4.528
2.904 3.895 4.619
3.187 3.769 5.052
2.882 4.173 4.795
3.033 4.442 5.065
2.836 4.703 4.968
3.571 3.389 4.782
3.071 3.379 4.806
3.222 3.623 4.883
2.986 3.926 4.968
3.274 3.954 4.892
2.912 4.029 5.190
3.003 4.272 5.237
3.040 4.643 5.213
2.788 4.809 5.145
3.176 3.694 5.018
3.186 3.607 5.184
3.295 4.097 4.946
3.097 3.896 5.275
2.914 3.968 5.245
2.982 4.483 5.475
2.917 4.776 5.195
2.919 4.765 5.176
2.560 5.210 5.433
3.239 3.565 5.148
2.979 4.050 5.398
3.037 3.930 5.513
3.082 3.950 5.509
2.841 4.187 5.568
2.808 4.510 5.484
2.685 4.801 5.772
2.609 4.828 5.470
2.822 5.327 5.463
3.392 3.789 5.471
3.319 3.803 5.658
3.388 3.927 5.641
3.258 4.170 5.920
3.254 4.370 5.895
2.880 4.673 5.738
3.067 4.824 5.876
2.931 4.796 5.789
2.840 5.236 6.048
3.142 3.957 5.651
3.255 4.041 6.154
3.073 3.979 6.079
2.938 4.156 5.866
2.914 4.505 6.212
3.123 4.777 6.096
2.846 5.180 5.893
2.614 5.148 5.912
3.051 3.729 6.022
2.233 4.397 0.200
2.508 4.652 0.160
2.070 5.021 -0.133
2.037 5.182 0.288
2.114 5.188 0.192
1.824 5.281 -0.057
2.523 4.666 0.073
2.402 4.684 0.121
2.277 5.122 0.458
2.019 5.394 0.517
1.813 5.297 0.195
3.258 1.707 0.152
3.325 2.170 0.017
3.199 2.387 0.044
3.043 2.580 -0.004
2.503 4.828 0.364
2.544 5.040 0.461
2.301 5.033 0.447
2.272 5.172 0.498
2.273 5.554 0.418
3.569 2.083 0.132
3.461 2.355 0.142
3.206 2.678 0.029
3.817 1.556 0.234
3.693 2.063 0.133
3.729 2.141 0.068
3.378 2.297 0.445
3.380 2.447 0.379
3.304 2.808 0.429
3.717 1.528 0.617
3.645 1.794 0.272
3.850 2.077 0.331
3.719 2.291 0.377
3.305 2.705 0.350
3.580 2.651 0.686
3.846 1.450 0.536
3.551 1.666 0.850
3.672 2.145 0.807
3.505 2.487 0.591
3.382 2.660 0.867
3.571 2.885 0.898
3.674 1.517 0.782
3.731 1.910 0.814
3.813 1.904 1.104
3.679 2.367 0.950
3.439 2.578 0.951
3.555 2.548 0.849
4.099 1.495 1.209
3.853 1.701 1.135
3.547 2.242 1.267
3.599 2.200 1.017
3.616 2.446 1.051
4.098 1.622 1.379
3.837 1.914 1.366
3.653 1.946 1.174
3.739 2.132 1.324
2.371 6.299 2.136
3.903 1.447 1.419
4.032 1.806 1.427
3.780 2.177 1.470
2.281 5.932 2.216
2.027 5.930 2.106
3.830 1.695 1.890
3.857 1.606 1.918
2.465 5.668 2.492
2.171 5.935 2.407
2.082 6.019 2.649
4.038 1.553 1.946
2.424 5.645 2.764
2.387 5.893 2.786
2.243 6.075 2.910
2.663 5.686 2.973
2.203 5.987 3.110
2.119 5.915 2.840
2.377 5.488 3.192
2.330 5.960 3.023
2.465 6.124 3.308
2.516 5.514 3.340
2.330 5.772 3.285
2.371 6.031 3.366
2.340 6.160 3.422
3.720 3.196 3.210
3.422 3.225 3.102
3.213 3.542 3.197
2.506 6.049 3.819
2.178 6.470 3.813
3.801 2.946 3.239
3.632 3.037 3.377
3.450 3.222 3.481
3.342 3.411 3.435
3.201 3.864 3.439
3.559 2.734 3.391
3.601 2.900 3.655
3.609 3.193 3.378
3.647 3.250 3.798
3.419 3.452 3.637
3.250 3.662 3.535
3.203 4.017 3.665
3.388 4.043 3.813
3.786 2.476 3.667
3.896 2.586 3.596
3.843 3.163 3.892
3.600 3.407 3.983
3.554 3.421 3.951
3.263 3.578 3.822
3.448 3.966 3.964
3.295 4.077 4.050
3.429 4.221 4.325
3.625 2.555 4.150
3.759 2.600 4.000
3.841 3.052 3.902
3.718 3.012 4.104
3.331 3.545 3.950
3.583 3.731 4.221
3.401 3.750 3.948
3.360 4.093 4.170
3.175 4.094 4.535
3.244 4.112 4.309
3.605 2.870 4.159
3.701 2.884 4.125
3.501 3.070 4.194
3.655 3.513 4.194
3.478 3.649 4.165
3.242 3.659 4.206
3.082 3.867 4.316
3.390 4.117 4.681
3.261 4.166 4.580
3.046 4.392 4.648
3.698 3.143 4.318
3.827 3.193 4.705
3.538 3.233 4.405
3.300 3.832 4.491
3.197 3.837 4.358
3.494 4.080 4.442
3.387 4.187 4.638
3.065 4.308 4.772
3.323 4.429 4.655
3.032 4.680 4.887
3.666 3.077 4.560
3.413 3.568 4.840
3.584 3.474 4.717
3.494 3.924 4.870
3.366 4.142 5.003
3.520 4.220 5.209
3.230 4.263 4.913
3.188 4.666 4.975
2.950 4.468 5.269
3.050 4.764 5.210
3.118 5.160 5.064
3.716 3.358 4.787
3.349 3.705 5.094
3.438 3.636 5.199
3.514 4.052 4.994
3.428 4.129 5.304
3.426 4.196 5.274
3.329 4.263 5.196
2.978 4.563 5.247
2.840 4.937 5.172
2.823 5.233 5.465
2.853 5.516 5.326
3.528 3.395 5.315
3.289 3.876 5.122
3.238 3.829 5.370
3.542 4.073 5.713
3.539 4.163 5.420
3.133 4.357 5.571
3.341 4.685 5.726
3.251 4.927 5.477
2.880 4.938 5.622
2.808 5.341 5.665
2.972 5.709 5.813
3.491 3.929 5.428
3.313 3.844 5.618
3.501 3.930 5.829
3.454 4.041 5.892
3.430 4.499 5.790
2.976 4.476 5.783
3.131 4.726 5.781
3.073 5.140 6.021
2.737 5.357 6.018
2.791 5.631 6.080
3.425 4.096 5.554
3.186 4.277 5.811
3.101 4.366 6.119
3.228 4.468 6.121
3.003 4.701 6.098
2.893 5.039 6.111
3.083 5.242 6.275
2.892 5.705 5.984
2.541 4.579 0.044
2.552 5.102 -0.080
2.268 5.117 0.086
2.315 5.243 0.080
2.101 5.670 -0.102
2.738 4.782 0.160
2.621 4.915 0.175
2.221 5.332 0.080
2.308 5.365 0.388
2.276 5.593 0.164
3.469 2.105 -0.172
3.583 2.104 0.165
3.328 2.575 -0.170
2.545 5.319 0.161
2.615 5.368 0.457
3.524 2.730 0.011
3.978 1.829 0.346
4.015 2.208 0.207
3.776 2.539 0.062
3.598 2.703 0.111
3.632 2.974 0.136
4.020 1.918 0.391
3.766 1.921 0.366
3.761 1.983 0.311
3.783 2.274 0.613
3.662 2.580 0.367
3.505 2.927 0.380
3.385 3.147 0.551
4.207 1.562 0.552
3.832 1.861 0.705
4.032 2.365 0.812
4.003 2.385 0.506
3.854 2.636 0.882
3.538 2.766 0.878
3.596 3.153 0.851
4.052 1.852 0.831
3.817 1.877 0.675
4.058 2.031 1.088
3.801 2.558 0.938
3.718 2.736 0.881
3.724 2.917 0.757
3.744 2.902 0.788
4.233 1.652 1.210
4.065 1.902 0.933
3.963 2.197 1.245
3.661 2.158 1.076
3.666 2.712 1.153
3.640 2.987 1.140
4.296 1.875 1.225
3.858 2.062 1.377
3.875 2.006 1.278
3.948 2.176 1.593
3.606 2.406 1.378
2.270 6.115 2.128
4.341 1.470 1.344
3.948 1.853 1.439
3.853 2.321 1.540
2.424 5.672 2.286
2.470 5.834 2.366
2.464 6.097 2.095
4.004 1.808 1.866
4.087 1.923 1.901
2.646 5.515 2.314
2.486 5.761 2.208
2.552 6.025 2.604
2.645 6.228 2.280
2.543 5.647 2.730
2.448 5.547 2.562
2.776 6.054 2.543
2.567 6.390 2.529
2.892 5.317 3.024
2.690 5.897 2.885
2.648 5.748 3.022
2.413 6.367 3.014
2.996 5.712 3.204
2.587 5.598 3.236
2.756 5.778 3.324
2.562 6.051 3.142
2.596 5.683 3.474
2.755 5.831 3.301
2.585 6.300 3.457
3.827 3.092 3.078
3.588 2.903 3.437
3.580 3.440 3.328
3.565 3.457 3.517
4.085 2.516 3.515
4.046 2.748 3.547
3.667 3.257 3.435
3.761 3.361 3.685
3.607 3.435 3.755
3.426 3.862 3.413
4.094 2.242 3.827
4.124 2.852 3.810
4.107 2.667 3.625
3.855 3.106 3.926
3.914 3.213 3.997
3.504 3.473 3.943
3.410 3.797 3.658
3.709 3.833 4.009
3.367 4.181 4.232
4.237 2.630 3.873
4.009 2.506 3.809
3.978 2.986 3.921
3.800 3.127 4.195
3.655 3.218 4.035
3.718 3.670 3.873
3.729 3.656 4.048
3.635 3.921 4.260
3.305 4.241 4.265
3.683 4.108 4.263
3.564 4.269 4.240
3.868 2.599 4.207
4.080 3.037 4.068
3.805 3.093 4.034
3.938 3.093 4.366
3.841 3.354 4.182
3.708 3.605 4.281
3.693 3.892 4.164
3.367 4.356 4.369
3.624 4.074 4.577
3.373 4.248 4.435
3.243 4.459 4.666
4.216 2.893 4.557
4.062 2.911 4.498
3.972 3.212 4.452
3.617 3.573 4.599
3.741 3.589 4.701
3.518 4.113 4.662
3.590 3.974 4.500
3.507 4.190 4.916
3.583 4.477 4.791
3.496 4.443 4.738
3.089 4.687 4.922
3.219 5.070 4.671
3.750 3.123 4.489
3.807 3.400 4.527
3.593 3.363 4.666
3.681 3.751 4.802
3.736 3.758 4.866
3.400 4.340 4.825
3.712 3.990 5.075
3.419 4.442 4.925
3.335 4.712 5.064
3.426 4.635 5.150
3.330 5.057 5.174
3.233 5.347 5.066
2.968 5.251 4.948
3.791 3.302 5.150
3.821 3.483 4.929
3.831 4.069 5.083
3.468 4.015 4.869
3.470 3.906 5.114
3.498 4.160 5.323
3.633 4.645 5.175
3.146 4.755 5.392
3.293 4.850 5.279
3.171 5.099 5.158
3.162 5.234 5.416
3.189 5.475 5.245
3.579 4.004 5.155
3.415 4.100 5.324
3.418 4.270 5.334
3.517 4.516 5.459
3.563 4.376 5.517
3.273 4.654 5.572
3.254 4.769 5.503
3.128 5.229 5.790
3.164 5.604 5.648
3.093 5.781 5.613
3.769 3.960 5.319
3.685 4.468 5.584
3.571 4.641 5.874
3.211 4.585 5.953
3.409 4.941 5.866
3.307 5.344 5.771
3.314 5.460 6.010
2.881 5.588 5.959
2.887 5.693 5.811
3.426 4.279 5.903
3.556 4.364 6.087
3.236 4.831 6.060
3.363 5.072 5.937
3.317 5.298 5.915
3.097 5.354 6.099
3.281 5.749 6.282
2.868 5.051 0.141
2.576 5.365 -0.160
2.473 5.480 0.212
2.593 5.477 0.059
2.299 5.720 0.217
2.516 5.033 0.314
2.476 5.620 0.384
3.668 2.784 -0.134
3.886 2.123 0.208
3.776 2.372 0.170
3.992 2.671 0.169
3.979 3.052 0.204
3.563 3.048 0.107
4.162 2.150 0.457
4.218 2.079 0.579
4.159 2.623 0.526
3.829 2.553 0.499
3.784 3.084 0.612
3.768 3.269 0.574
3.672 3.270 0.702
4.141 1.787 0.400
4.317 2.145 0.583
3.996 2.424 0.555
4.177 2.282 0.780
3.975 2.846 0.702
4.050 2.829 0.830
3.660 3.305 0.914
3.483 3.307 0.683
4.324 1.820 1.004
4.226 2.121 0.975
4.344 2.180 0.946
4.218 2.481 0.711
3.957 2.474 0.797
4.082 2.699 0.849
3.763 3.058 0.966
3.888 3.114 0.867
4.156 1.956 1.207
4.167 2.209 1.048
3.983 2.382 1.152
3.901 2.588 0.964
3.784 2.622 0.999
3.998 2.816 1.013
4.030 3.203 1.025
3.713 3.093 1.308
4.387 1.900 1.239
4.356 2.147 1.463
4.164 2.216 1.406
4.281 2.532 1.216
4.069 2.517 1.587
4.101 2.960 1.379
2.618 6.123 1.893
4.254 1.778 1.715
4.355 2.008 1.378
4.184 2.125 1.411
3.049 5.523 1.979
2.758 5.844 2.120
2.571 5.929 2.298
4.427 1.648 1.673
2.984 5.277 2.228
2.815 5.503 2.338
2.721 5.771 2.473
2.709 5.990 2.282
2.477 6.469 2.501
3.212 5.439 2.523
3.022 5.561 2.476
2.863 5.715 2.442
2.849 6.128 2.749
2.555 6.275 2.637
3.132 5.550 2.795
3.137 5.444 2.991
2.728 5.852 2.852
2.902 6.252 2.793
2.654 6.104 2.800
3.187 5.611 3.036
3.029 5.831 3.215
2.743 6.238 3.272
2.634 6.346 3.224
3.167 5.927 3.231
2.980 5.932 3.267
2.685 6.083 3.390
3.877 2.888 3.435
3.874 3.402 3.265
4.016 3.338 3.166
4.351 2.551 3.505
4.393 2.672 3.276
4.302 2.823 3.538
4.026 3.376 3.505
3.882 3.539 3.460
3.829 3.760 3.575
4.380 2.601 3.503
4.320 2.673 3.578
3.948 3.029 3.725
4.019 3.340 3.934
3.935 3.593 3.859
3.763 3.403 3.802
3.847 3.753 3.712
4.551 2.251 3.691
4.337 2.506 4.014
4.223 2.840 3.919
4.179 2.829 4.150
4.205 3.280 3.913
4.204 3.493 4.042
3.836 3.471 3.956
3.655 3.685 3.876
3.781 4.002 4.059
3.559 4.163 4.310
4.398 2.357 4.185
4.110 2.828 4.339
4.119 3.142 3.980
3.962 2.951 4.235
3.907 3.405 4.334
3.933 3.482 4.203
3.744 3.972 4.116
3.924 3.893 4.352
3.665 4.356 4.416
3.609 4.226 4.388
3.441 4.527 4.495
4.208 2.513 4.604
4.097 2.953 4.579
4.178 3.088 4.544
4.115 3.171 4.664
3.953 3.514 4.689
4.015 3.979 4.449
3.856 3.972 4.476
3.817 4.291 4.378
3.689 4.248 4.563
3.574 4.400 4.598
3.677 4.727 4.851
3.423 4.831 4.677
3.602 5.288 4.774
4.142 3.200 4.775
4.188 3.344 4.540
3.884 3.760 4.531
3.822 3.678 4.657
4.020 4.156 4.663
3.693 4.287 4.839
3.978 4.090 4.890
3.691 4.213 4.875
3.460 4.430 4.894
3.573 4.953 5.237
3.588 4.885 5.130
3.538 5.150 5.087
3.124 5.319 5.237
4.049 3.974 5.041
3.658 4.178 5.044
3.877 4.349 4.810
4.006 4.177 5.391
3.517 4.534 5.462
3.680 4.453 5.306
3.360 4.790 5.322
3.265 5.204 5.246
3.210 5.148 5.478
3.095 5.612 5.347
3.119 5.644 5.192
3.164 5.712 5.356
4.058 4.014 5.083
3.629 4.196 5.129
3.986 4.318 5.328
3.935 4.207 5.638
3.574 4.502 5.529
3.741 4.631 5.737
3.602 4.967 5.372
3.421 5.141 5.557
3.179 5.402 5.520
3.441 5.535 5.424
3.234 6.107 5.632
3.177 5.990 5.824
3.978 4.048 5.570
3.800 4.598 5.540
3.499 4.416 5.843
3.819 4.613 5.796
3.517 4.982 5.661
3.658 5.249 5.853
3.377 5.467 5.641
3.162 5.814 5.877
3.179 5.804 5.916
3.289 6.233 5.736
3.794 4.495 5.911
3.575 5.003 5.805
3.416 5.058 5.964
3.618 5.036 5.847
3.585 5.578 5.897
3.501 5.691 6.121
3.010 5.929 6.204
2.740 5.246 -0.102
2.564 5.711 -0.129
2.794 5.771 -0.100
2.411 5.865 0.217
4.323 2.397 0.048
3.906 2.589 0.262
3.943 2.937 0.083
3.961 3.049 0.048
4.218 2.478 0.524
4.036 2.573 0.355
4.197 2.862 0.531
4.135 3.118 0.459
4.013 3.027 0.328
3.958 3.553 0.571
3.700 3.643 0.483
4.361 2.050 0.750
4.351 2.181 0.547
4.169 2.614 0.766
4.060 2.857 0.559
4.196 2.791 0.519
3.932 3.028 0.624
3.734 3.343 0.536
3.987 3.676 0.797
4.472 1.729 0.632
4.631 2.191 0.696
4.542 2.524 1.032
4.332 2.560 1.018
4.290 2.891 0.786
4.110 2.955 1.020
4.107 2.987 1.059
4.074 3.490 0.934
4.007 3.744 0.771
3.640 4.010 1.059
4.387 1.814 1.135
4.602 1.950 1.242
4.512 2.107 1.039
4.102 2.610 0.963
4.293 2.645 1.290
3.920 2.964 1.259
4.102 3.104 1.125
3.966 3.306 1.397
3.892 3.561 1.302
4.630 1.682 1.158
4.384 2.146 1.351
4.360 2.434 1.379
4.198 2.304 1.274
4.276 2.865 1.460
4.229 3.076 1.473
4.004 3.203 1.580
4.179 3.361 1.334
3.370 5.083 2.243
3.121 5.474 2.014
3.164 5.750 2.100
3.183 6.113 2.274
2.909 6.166 2.096
3.186 4.873 2.460
3.360 5.424 2.187
3.360 5.383 2.289
3.155 5.578 2.421
2.942 5.869 2.276
2.798 6.210 2.366
3.151 5.459 2.600
3.059 5.452 2.346
3.116 5.638 2.630
3.236 5.903 2.445
2.969 6.124 2.467
3.253 5.285 2.949
3.424 5.395 2.965
3.363 5.483 3.004
2.978 5.939 2.739
3.180 6.303 2.981
3.267 5.434 3.066
3.205 5.629 3.139
3.202 5.722 2.916
3.187 6.211 2.898
3.234 6.060 3.143
3.278 6.072 3.099
4.178 2.826 3.266
4.126 3.204 3.445
4.742 2.505 3.249
4.578 2.841 3.394
4.482 2.932 3.585
4.536 2.967 3.554
4.356 3.148 3.668
4.164 3.689 3.413
4.753 2.580 3.582
4.595 2.470 3.607
4.329 2.764 3.609
4.557 2.873 3.505
4.238 3.379 3.884
4.389 3.354 3.608
3.933 3.797 3.955
4.843 2.313 4.064
4.854 2.578 3.905
4.698 2.631 3.970
4.265 2.821 3.715
4.514 2.843 3.845
4.426 3.225 3.825
4.213 3.572 3.840
4.203 3.735 3.922
4.230 3.988 4.034
4.794 2.377 4.012
4.490 2.382 4.053
4.549 2.719 4.146
4.608 2.646 4.083
4.548 2.916 4.056
4.246 3.082 3.976
4.136 3.467 4.326
4.083 3.576 4.072
4.168 3.984 4.156
4.147 4.066 4.295
4.582 2.542 4.420
4.808 2.715 4.248
4.686 2.630 4.232
4.569 2.987 4.381
4.479 3.374 4.459
4.238 3.264 4.507
4.032 3.567 4.266
3.915 3.687 4.322
4.075 4.074 4.371
3.984 4.415 4.831
3.837 4.406 4.808
4.295 3.325 4.495
4.395 3.262 4.629
4.072 3.858 4.489
4.187 3.697 4.851
4.249 4.064 4.664
4.150 4.302 4.603
3.800 4.392 4.889
3.986 4.462 5.007
3.927 4.763 5.183
3.680 4.997 5.198
3.530 5.356 5.237
3.570 5.424 4.950
3.427 5.508 5.062
3.614 5.928 4.921
3.406 6.090 5.277
4.012 4.170 5.036
4.026 4.347 5.260
3.956 4.528 5.401
3.696 5.031 5.285
3.861 4.949 5.161
3.412 5.277 5.177
3.366 5.554 5.492
3.373 5.597 5.493
3.221 5.906 5.417
3.317 6.137 5.568
3.751 4.664 5.643
4.011 5.066 5.394
3.918 4.966 5.531
3.725 5.306 5.481
3.680 5.589 5.440
3.454 5.900 5.527
3.235 5.827 5.507
3.394 6.075 5.541
3.780 4.845 5.638
3.768 5.052 5.583
3.705 5.277 5.738
3.738 5.766 5.618
3.366 5.591 5.676
3.290 6.049 5.892
3.190 6.090 5.987
3.763 4.865 6.059
3.796 5.169 6.058
3.610 5.331 6.087
3.665 5.456 5.923
3.480 5.768 6.209
3.396 6.051 6.028
3.476 6.208 5.960
2.982 5.793 0.093
2.931 5.970 -0.179
2.955 6.204 -0.088
2.601 6.337 -0.020
4.340 2.801 0.385
4.182 3.051 0.392
4.067 3.260 0.193
4.050 3.595 0.067
4.628 2.462 0.422
4.138 2.735 0.206
4.189 3.250 0.571
4.202 3.434 0.561
4.250 3.402 0.325
4.204 3.920 0.637
3.902 3.985 0.687
4.486 2.563 0.508
4.384 2.538 0.444
4.473 2.703 0.778
4.237 3.039 0.479
4.016 3.163 0.856
3.979 3.565 0.720
4.093 3.804 0.594
3.959 4.037 0.630
4.665 2.524 0.844
4.285 2.406 1.021
4.433 2.775 0.748
4.473 3.248 0.865
4.430 3.087 0.888
4.249 3.419 0.802
3.902 3.485 1.098
4.175 3.744 0.828
3.748 4.169 1.210
4.767 2.344 1.208
4.491 2.493 0.902
4.215 3.001 1.280
4.144 2.885 1.198
4.267 3.183 0.962
3.963 3.300 1.295
3.925 3.565 1.134
4.081 3.965 1.187
3.987 4.110 1.403
3.873 4.275 1.365
3.565 4.746 1.634
4.340 2.689 1.192
4.397 2.851 1.269
4.462 3.363 1.271
4.081 3.277 1.569
4.257 3.709 1.395
3.927 3.791 1.228
4.028 4.004 1.643
4.062 4.260 1.541
3.762 4.706 1.478
3.648 4.692 1.894
3.916 4.561 1.598
3.723 4.990 1.978
3.649 5.204 1.580
3.529 5.195 1.942
3.340 5.796 1.680
3.743 4.344 1.919
3.595 4.413 1.528
3.755 4.860 2.175
3.708 4.966 2.032
3.718 4.963 2.006
3.581 5.547 1.983
3.543 5.790 2.209
3.427 5.904 1.965
3.131 6.170 2.070
3.143 6.424 1.964
3.739 4.644 2.301
3.584 4.755 2.271
3.801 5.142 2.042
3.534 5.401 2.333
3.590 5.439 2.422
3.524 5.831 2.352
3.320 6.155 2.365
3.169 6.342 2.450
3.579 4.946 2.607
3.641 4.985 2.658
3.519 5.414 2.476
3.509 5.443 2.571
3.178 5.746 2.357
3.125 5.856 2.494
3.424 6.264 2.776
3.665 5.102 2.617
3.384 5.501 2.855
3.709 5.544 2.577
3.476 5.569 2.642
3.386 5.827 2.961
3.219 6.233 3.016
3.400 5.179 3.141
3.651 5.669 2.824
3.234 5.740 2.941
3.459 5.961 3.133
3.263 6.241 3.205
3.378 5.745 3.088
3.452 6.164 3.285
4.821 2.930 2.996
4.695 3.069 3.298
4.782 2.280 3.247
4.986 2.616 3.504
4.715 2.551 3.538
4.483 2.873 3.640
4.511 2.942 3.274
4.309 3.159 3.577
5.007 2.061 3.691
5.079 2.375 3.581
4.649 2.673 3.671
4.754 2.798 3.738
4.797 2.768 3.561
4.513 3.319 3.484
4.619 3.499 3.567
4.200 3.456 3.693
5.229 1.855 3.979
4.824 2.242 3.741
4.816 2.277 4.057
4.956 2.715 3.681
4.761 2.752 3.839
4.570 3.249 4.087
4.478 3.368 3.976
4.292 3.445 3.834
5.330 1.947 3.974
5.103 2.061 3.853
5.062 2.140 3.865
4.711 2.351 4.271
4.761 2.707 4.077
4.866 3.095 4.289
4.593 3.084 4.069
4.651 3.127 4.045
4.433 3.612 4.392
4.282 3.729 4.347
5.230 1.596 4.200
4.947 2.113 4.169
5.023 2.031 4.399
5.122 2.332 4.237
4.777 2.879 4.293
4.576 3.090 4.360
4.806 2.974 4.551
4.374 3.442 4.465
4.701 3.703 4.582
5.359 1.680 4.508
5.315 1.887 4.500
4.972 2.240 4.630
4.754 2.609 4.474
3.691 5.494 4.982
3.587 5.483 5.187
3.684 5.787 5.054
3.522 6.134 4.993
3.723 5.205 5.141
3.789 5.303 5.174
3.918 5.650 5.196
3.490 5.993 5.320
3.524 5.886 5.312
3.890 5.060 5.486
3.724 5.116 5.299
3.778 5.580 5.599
3.945 5.832 5.554
3.666 5.914 5.757
3.535 5.886 5.625
4.121 5.018 5.770
3.677 5.530 5.849
4.005 5.564 5.609
3.658 5.996 5.849
3.695 6.074 5.829
3.985 5.147 6.132
3.894 5.564 5.880
3.683 5.706 6.216
3.866 5.852 5.934
3.718 5.879 6.044
3.552 6.136 6.219
3.150 5.823 -0.136
2.960 6.054 -0.137
4.557 3.075 0.111
4.171 3.383 0.279
4.129 3.515 0.383
4.214 3.960 0.135
4.007 3.888 0.133
4.737 2.781 0.188
4.542 3.034 0.492
4.422 3.398 0.365
4.237 3.477 0.270
4.424 3.656 0.548
3.970 3.884 0.689
4.128 4.365 0.481
4.836 2.741 0.496
4.709 3.007 0.427
4.478 3.265 0.563
4.584 3.467 0.857
4.476 3.713 0.560
4.208 3.911 0.508
4.109 3.899 0.796
3.943 4.341 0.820
3.920 4.510 0.845
4.046 4.499 1.037
4.558 2.818 0.981
4.547 2.741 0.957
4.364 3.277 0.696
4.576 3.501 1.019
4.210 3.677 1.093
4.434 3.938 1.060
4.068 3.925 1.023
4.015 4.295 1.078
4.028 4.491 1.127
3.824 4.511 0.988
4.076 4.597 1.159
4.020 4.979 1.455
4.720 2.878 1.037
4.626 2.934 1.314
4.401 3.221 1.155
4.430 3.454 1.134
4.265 3.745 1.349
4.094 3.930 1.088
4.265 4.410 1.263
4.159 4.604 1.149
4.156 4.740 1.040
3.943 4.687 1.639
4.096 4.782 1.341
3.645 5.125 1.351
4.372 3.190 1.528
4.544 3.511 1.284
4.541 3.716 1.254
4.291 4.058 1.542
4.318 4.167 1.393
4.256 4.545 1.467
3.798 4.650 1.293
3.821 4.527 1.721
3.941 4.868 1.698
3.891 4.975 1.694
3.597 5.064 1.735
3.694 5.498 1.836
3.715 5.727 1.686
4.343 3.656 1.523
4.428 3.851 1.651
4.153 4.101 1.463
4.189 4.500 1.525
3.815 4.503 1.877
3.935 4.755 2.119
3.791 4.742 1.881
3.854 4.953 2.112
3.716 5.076 1.975
3.797 5.489 1.998
3.442 5.533 1.926
3.698 5.873 2.012
3.278 6.241 2.159
3.969 4.269 1.753
3.983 4.802 2.133
4.057 4.577 2.321
4.090 4.843 2.280
3.864 4.957 2.218
3.678 5.349 2.220
3.730 5.285 2.041
3.766 5.725 2.369
3.712 5.906 2.489
3.384 6.130 2.102
4.179 4.408 2.226
3.984 4.943 2.368
3.973 4.893 2.349
3.758 5.117 2.501
3.673 5.597 2.282
3.679 5.737 2.614
3.513 5.676 2.737
3.471 5.982 2.370
4.008 4.866 2.611
3.931 5.288 2.778
3.645 5.431 2.692
3.611 5.630 2.637
3.469 5.924 2.828
3.669 6.225 2.699
4.009 5.404 2.999
3.732 5.585 3.053
3.799 5.826 3.092
3.848 5.924 2.816
3.543 6.142 2.852
3.904 5.417 3.168
3.586 5.804 3.130
3.637 5.789 3.161
5.039 2.775 3.272
4.794 2.634 3.104
4.640 2.862 3.116
5.100 2.027 3.470
5.185 2.251 3.272
4.941 2.475 3.347
4.887 2.845 3.266
4.901 2.954 3.229
4.963 3.146 3.438
5.270 2.079 3.342
5.145 2.104 3.487
5.130 2.298 3.520
4.995 2.771 3.649
4.757 2.952 3.429
4.857 2.817 3.587
4.885 3.181 3.507
4.632 3.406 3.688
5.273 1.875 3.873
5.188 2.031 3.763
5.179 2.559 3.892
5.224 2.621 3.894
4.866 2.606 3.662
5.019 3.040 4.079
4.660 3.065 3.836
4.627 3.639 3.971
5.368 1.824 3.935
5.435 1.966 4.008
5.232 2.506 4.242
5.158 2.754 4.114
4.970 2.558 4.132
4.838 3.072 3.923
5.022 3.236 4.174
4.888 3.477 3.952
5.527 1.758 4.412
5.112 2.047 4.163
5.407 2.178 4.314
5.230 2.669 4.401
5.120 2.637 4.216
4.879 2.985 4.398
5.021 3.198 4.557
5.453 1.793 4.662
5.393 2.035 4.531
5.444 2.434 4.581
5.055 2.528 4.496
5.227 2.657 4.680
3.822 6.156 4.975
3.666 6.036 5.034
5.517 1.848 4.816
5.386 2.108 4.908
3.865 5.509 5.368
3.847 5.954 5.157
3.873 6.085 5.434
3.641 6.119 5.383
4.100 5.437 5.305
3.924 5.677 5.423
4.076 5.746 5.547
3.697 6.110 5.472
4.144 5.513 5.781
4.033 5.666 5.861
4.082 5.977 5.565
3.779 6.149 5.828
4.305 5.578 6.153
4.163 5.526 5.939
3.878 5.748 6.132
4.079 6.280 5.863
3.367 6.281 -0.121
4.745 3.352 0.136
4.384 3.359 0.066
4.621 3.738 0.106
4.483 4.053 0.204
4.259 4.133 0.367
4.030 4.298 0.410
4.504 3.376 0.336
4.764 3.301 0.249
4.542 3.855 0.631
4.574 3.754 0.282
4.154 4.025 0.352
4.452 4.417 0.287
3.967 4.476 0.360
4.987 3.045 0.747
4.703 3.050 0.528
4.439 3.274 0.656
4.350 3.853 0.486
4.476 3.974 0.874
4.545 4.245 0.545
4.133 4.192 0.582
4.091 4.391 0.766
4.331 4.722 0.991
4.581 3.126 0.669
4.684 3.251 0.960
4.367 3.484 0.730
4.396 3.976 1.029
4.519 4.055 0.818
4.124 4.125 0.846
4.392 4.620 1.121
4.158 4.640 1.075
4.206 4.710 1.139
3.900 5.006 1.287
4.901 3.151 1.179
4.847 3.227 0.901
4.808 3.510 0.948
4.618 3.911 1.116
4.280 4.159 1.111
4.438 4.259 1.243
4.066 4.386 1.059
4.353 4.630 1.340
4.054 4.876 1.578
3.935 5.115 1.271
4.246 5.035 1.428
3.943 5.449 1.458
4.705 3.252 1.395
4.590 3.441 1.537
4.404 3.924 1.354
4.642 4.267 1.527
4.378 4.193 1.483
4.114 4.358 1.289
4.026 4.835 1.297
4.410 4.558 1.705
4.345 4.905 1.784
3.947 5.004 1.633
4.193 5.393 1.925
3.856 5.413 1.931
3.735 5.575 1.882
4.766 3.978 1.697
4.593 4.243 1.619
4.590 4.478 1.808
4.362 4.290 1.611
4.256 4.664 1.570
4.224 4.899 1.984
4.001 4.826 1.996
3.953 5.291 2.026
4.044 5.151 2.163
3.854 5.719 1.863
4.001 5.674 2.176
3.609 6.181 2.200
4.507 4.205 1.922
4.230 4.672 1.769
4.396 4.823 1.984
4.239 4.556 2.036
4.326 5.029 1.965
4.136 5.025 2.105
3.876 5.374 2.173
3.843 5.640 2.437
3.953 5.595 2.381
3.757 5.881 2.219
3.889 6.010 2.271
4.315 4.571 1.924
4.272 4.661 2.328
4.392 4.775 2.279
4.175 4.787 2.485
4.080 5.014 2.515
4.003 5.403 2.464
4.148 5.365 2.384
3.758 5.788 2.274
3.669 6.038 2.649
3.766 6.293 2.317
4.290 4.624 2.273
4.394 5.026 2.747
3.987 5.224 2.830
4.296 5.307 2.462
4.072 5.375 2.852
3.890 5.856 2.793
3.813 6.153 2.520
3.839 6.025 2.802
4.246 5.041 3.084
4.193 5.198 3.089
4.085 5.652 3.073
4.034 5.714 2.958
3.986 5.890 3.014
3.625 5.960 3.168
4.284 5.212 3.115
4.159 5.442 3.101
3.903 5.926 3.074
4.076 6.021 3.080
5.418 2.169 3.172
5.228 2.467 3.123
4.989 2.513 2.954
4.952 2.822 3.243
5.208 2.954 3.142
5.564 2.124 3.453
5.538 2.090 3.263
5.427 2.408 3.246
5.221 2.668 3.359
5.279 3.079 3.575
4.900 3.153 3.388
5.096 3.328 3.260
5.353 2.048 3.545
5.218 2.184 3.715
5.479 2.411 3.643
5.336 2.511 3.627
5.134 3.070 3.678
4.916 3.041 3.437
4.844 3.171 3.512
5.692 2.063 3.712
5.544 2.399 3.642
5.524 2.628 3.595
5.324 2.761 3.887
5.038 2.926 3.646
5.216 3.042 4.046
5.206 3.140 3.700
5.776 1.840 4.007
5.342 2.298 3.937
5.602 2.276 4.005
5.220 2.706 4.103
5.397 2.675 4.141
5.269 3.212 4.005
5.027 3.099 3.973
5.588 1.871 4.343
5.636 2.392 4.427
5.475 2.428 4.316
5.195 2.490 4.245
5.421 2.956 4.294
5.245 3.056 4.259
5.524 1.930 4.339
5.478 1.993 4.311
5.591 2.563 4.373
5.200 2.783 4.601
3.993 6.092 5.171
5.487 1.828 4.795
5.433 2.345 4.860
4.028 6.082 5.415
4.142 6.252 5.350
5.847 1.998 5.026
4.337 5.682 5.387
4.076 6.240 5.611
4.183 6.364 5.672
4.388 5.711 5.693
4.131 6.237 5.673
3.927 6.275 5.900
4.265 5.805 5.916
4.122 6.195 6.193
3.925 6.130 5.888
4.491 4.642 0.041
4.652 3.393 0.233
4.782 3.796 0.266
4.758 3.799 0.091
4.737 4.015 0.344
4.638 4.567 0.329
4.182 4.734 0.043
5.013 3.181 0.396
5.009 3.404 0.458
4.764 3.907 0.268
4.652 4.153 0.496
4.455 4.228 0.449
4.586 4.449 0.517
4.256 4.614 0.700
4.378 4.872 0.707
4.914 3.262 0.599
4.957 3.343 0.424
4.956 3.608 0.627
4.800 4.109 0.493
4.388 4.155 0.601
4.384 4.409 0.832
4.219 4.737 0.759
4.350 4.957 0.877
4.567 5.012 0.983
4.398 4.983 1.010
4.743 3.476 0.723
4.901 3.596 0.828
4.636 3.759 0.715
4.868 3.993 1.063
4.659 4.330 1.029
4.318 4.240 1.005
4.583 4.638 1.047
4.408 4.763 0.866
4.259 4.745 1.243
4.203 5.000 1.393
4.062 5.260 1.248
5.020 3.641 1.184
4.612 3.792 1.201
4.540 4.019 1.317
4.697 4.068 1.220
4.367 4.582 1.191
4.280 4.392 1.236
4.246 4.836 1.379
4.556 4.655 1.331
4.374 5.146 1.606
4.123 5.437 1.379
3.993 5.576 1.510
4.777 3.536 1.458
4.604 4.038 1.252
4.736 4.081 1.509
4.608 4.384 1.448
4.518 4.371 1.234
4.382 4.594 1.502
4.295 4.588 1.590
4.487 5.097 1.656
4.163 5.237 1.753
4.394 5.434 1.711
4.236 5.767 1.634
4.903 4.011 1.588
4.408 4.394 1.599
4.505 4.666 1.616
4.653 4.598 1.548
4.406 4.643 1.838
4.549 5.188 2.009
4.199 5.049 1.820
4.169 5.236 2.052
4.160 5.690 1.957
4.215 5.905 2.053
4.605 4.287 1.762
4.628 4.597 1.745
4.410 4.761 2.061
4.572 4.874 2.240
4.408 4.998 2.135
4.330 5.033 2.232
4.391 5.626 2.249
3.993 5.431 2.097
3.966 5.827 2.339
3.849 6.097 2.189
4.745 4.636 2.075
4.488 4.646 2.167
4.736 4.674 2.351
4.321 4.847 2.272
4.313 5.126 2.184
4.342 5.509 2.323
4.253 5.575 2.395
3.933 5.654 2.641
3.937 6.017 2.561
4.142 6.120 2.367
4.348 4.542 2.337
4.512 4.765 2.763
4.647 4.941 2.631
4.609 5.285 2.625
4.369 5.561 2.843
4.030 5.554 2.879
4.291 5.955 2.570
4.038 5.841 2.861
4.044 6.198 2.696
4.713 4.659 2.625
4.469 4.837 2.988
4.366 5.301 3.038
4.277 5.411 2.746
4.148 5.555 2.792
4.096 5.848 2.851
4.210 6.159 2.994
4.068 6.182 3.050
4.253 5.354 2.877
4.275 5.395 3.176
4.386 5.500 3.075
4.125 5.643 3.055
4.084 6.170 3.150
5.438 2.366 2.736
5.233 2.914 2.695
4.598 5.350 3.159
4.112 5.742 3.398
4.357 5.891 3.185
5.579 2.171 2.951
5.384 2.410 2.846
5.587 2.712 3.220
5.365 2.859 3.249
5.381 3.144 3.003
5.070 3.396 3.000
5.803 2.031 3.348
5.517 2.385 3.334
5.416 2.519 3.148
5.377 2.798 3.130
5.427 2.853 3.486
5.178 3.279 3.435
5.660 2.013 3.532
5.826 2.177 3.327
5.362 2.354 3.694
5.567 2.554 3.501
5.215 2.966 3.433
5.478 3.386 3.565
5.701 2.061 3.685
5.742 2.263 3.712
5.632 2.520 3.579
5.588 2.574 3.794
5.220 2.833 3.813
5.340 3.147 4.025
5.587 1.958 4.158
5.769 2.386 3.770
5.627 2.335 3.822
5.729 2.746 3.918
5.367 2.774 4.140
5.452 3.127 4.106
5.964 2.020 4.153
5.936 2.177 4.096
5.572 2.704 4.012
5.487 2.838 4.061
5.508 3.090 4.066
6.037 1.890 4.384
5.847 2.107 4.454
5.738 2.479 4.432
5.457 2.728 4.519
5.876 2.239 4.599
5.881 2.219 4.522
5.977 2.203 4.662
4.244 6.149 5.649
4.466 5.976 5.846
4.433 6.301 6.136
4.284 4.411 0.198
4.969 3.527 0.107
5.080 3.896 0.060
4.791 4.033 0.022
4.785 4.288 0.333
4.513 4.329 0.181
4.669 4.723 0.203
4.719 4.798 0.426
5.079 3.501 0.435
4.800 3.973 0.594
4.739 4.073 0.261
4.670 4.169 0.587
4.646 4.475 0.441
4.616 4.750 0.298
4.491 4.726 0.542
4.583 4.758 0.814
5.142 3.805 0.488
5.049 3.824 0.406
4.955 4.265 0.803
4.829 4.433 0.800
4.716 4.605 0.854
4.423 4.851 0.553
4.616 4.742 0.639
4.732 4.764 0.831
4.686 4.963 0.801
5.045 3.521 0.782
4.991 3.730 0.789
4.775 3.891 0.723
4.989 4.047 0.895
4.718 4.569 0.785
4.530 4.851 1.102
4.550 4.778 0.862
4.516 5.082 1.260
4.725 5.008 1.141
5.019 3.608 1.025
5.086 3.835 0.882
4.988 4.279 1.193
4.869 4.562 0.928
4.773 4.537 1.207
4.634 4.924 1.349
4.610 4.812 1.263
4.618 4.933 1.505
4.499 5.141 1.378
4.766 4.199 1.516
4.891 4.413 1.332
4.805 4.320 1.518
4.898 4.557 1.398
4.608 4.712 1.352
4.636 4.830 1.597
4.374 5.074 1.793
4.705 5.436 1.643
4.270 5.327 1.695
4.711 4.438 1.394
4.917 4.245 1.509
4.690 4.552 1.578
4.730 4.760 1.561
4.741 4.856 1.658
4.636 5.144 1.910
4.696 5.308 1.880
4.370 5.456 1.931
4.153 5.808 1.826
5.010 4.526 1.848
4.641 4.587 1.798
4.696 4.660 1.669
4.848 4.676 1.990
4.827 5.262 2.147
4.541 5.406 2.258
4.605 5.427 2.177
4.379 5.832 2.208
4.203 5.753 2.237
4.643 4.816 2.019
4.548 4.999 2.293
4.720 4.677 2.426
4.785 4.930 2.365
4.505 5.365 2.454
4.441 5.404 2.344
4.604 5.663 2.350
4.468 5.864 2.370
4.258 5.993 2.349
4.769 4.663 2.261
4.596 4.727 2.645
4.796 4.878 2.609
4.465 5.050 2.717
4.459 5.488 2.566
4.375 5.851 2.623
4.308 5.784 2.666
4.285 6.266 2.606
4.883 4.624 2.360
4.681 4.996 2.659
4.617 5.412 2.985
4.558 5.526 2.681
4.621 5.699 2.846
4.506 5.865 2.849
4.424 5.994 2.748
5.679 2.662 2.782
4.943 5.156 2.852
4.688 5.208 2.995
4.666 5.291 3.224
4.600 5.755 3.120
4.285 5.893 3.080
4.122 6.151 3.144
5.765 2.116 2.627
5.850 2.594 2.885
5.630 2.602 2.922
5.658 2.922 2.679
5.516 3.182 2.929
4.732 5.271 3.342
4.646 5.261 3.216
4.517 5.852 3.457
4.565 5.782 3.356
5.814 2.188 3.068
5.708 2.503 2.847
5.679 2.475 2.908
5.443 2.707 2.977
5.357 3.125 3.198
5.502 3.365 2.895
4.829 5.415 3.469
4.638 5.579 3.510
5.905 2.055 3.111
5.769 2.406 3.227
5.881 2.796 3.419
5.467 2.795 3.084
5.373 2.857 3.274
5.299 3.220 3.244
5.844 2.234 3.574
5.718 2.269 3.516
5.740 2.532 3.442
5.703 3.035 3.601
5.514 2.997 3.437
5.611 3.131 3.602
6.134 2.183 3.513
5.781 2.432 3.662
5.948 2.816 3.630
5.628 2.952 3.839
5.757 3.098 3.945
5.465 3.433 3.604
5.845 2.138 3.813
5.780 2.421 3.806
5.979 2.390 4.066
5.714 2.877 3.899
5.467 3.005 4.015
6.097 2.316 4.358
6.080 2.497 4.353
5.887 2.750 4.252
5.911 2.608 4.047
6.083 2.057 4.210
5.916 2.323 4.578
5.772 2.670 4.436
6.016 2.245 4.680
5.801 2.426 4.800
6.264 2.092 4.666
4.780 6.238 5.541
4.642 6.019 5.980
5.010 3.639 -0.038
4.977 3.963 0.247
5.088 4.244 0.139
5.016 4.355 0.253
5.008 4.587 0.256
4.989 4.904 0.118
5.362 3.583 0.214
5.068 3.743 0.168
4.940 3.964 0.405
5.146 4.450 0.219
4.927 4.795 0.433
4.966 4.661 0.433
4.653 5.087 0.779
5.380 3.511 0.757
5.336 3.750 0.533
5.004 3.926 0.557
5.039 4.259 0.494
4.724 4.390 0.632
4.784 4.724 0.563
4.758 4.812 0.497
4.898 4.861 0.870
5.300 3.804 0.943
5.313 4.174 0.797
5.041 4.364 0.972
5.047 4.712 0.730
5.000 4.848 1.010
4.745 4.933 0.929
4.835 5.178 1.244
4.924 5.120 1.107
4.958 4.163 1.282
4.982 4.121 1.272
5.049 4.484 1.164
4.974 4.948 1.040
4.776 4.907 1.042
4.952 5.031 1.344
4.641 5.248 1.419
4.956 4.425 1.337
4.941 4.614 1.362
4.969 4.734 1.359
4.678 4.902 1.317
4.824 5.156 1.558
4.970 5.249 1.449
4.875 5.371 1.655
4.867 4.583 1.726
5.061 4.545 1.537
4.762 5.102 1.680
5.057 4.789 2.007
4.863 5.129 1.849
4.668 5.363 2.081
4.456 5.803 2.086
4.958 4.596 1.651
4.918 4.821 1.905
5.024 4.817 1.910
4.912 5.334 1.963
4.675 5.382 1.994
4.574 5.556 2.301
4.732 5.882 2.277
5.113 5.041 2.006
5.102 4.992 2.440
4.740 5.272 2.366
4.912 5.212 2.243
4.755 5.599 2.319
4.811 5.860 2.242
4.503 6.104 2.432
5.027 4.925 2.432
4.799 5.030 2.496
4.954 5.150 2.452
4.619 5.145 2.405
4.899 5.682 2.629
4.688 5.753 2.513
4.368 5.992 2.743
4.348 6.265 2.772
5.976 2.696 2.138
5.950 2.853 2.467
5.125 4.748 2.488
4.938 5.063 2.812
4.957 5.276 2.606
4.953 5.438 2.702
4.556 5.577 2.714
4.444 5.962 2.994
4.530 6.399 2.874
5.981 2.353 2.582
5.928 2.618 2.647
5.939 2.552 2.437
5.862 2.949 2.723
5.086 5.235 3.002
4.980 5.276 2.983
4.938 5.622 3.055
4.881 5.765 3.049
4.581 5.878 3.201
4.461 6.195 2.985
5.856 2.238 2.649
6.179 2.459 2.697
5.840 2.722 2.878
5.874 2.857 2.986
5.529 3.170 2.868
5.050 5.277 3.205
4.729 5.314 3.467
4.859 5.414 3.093
4.822 5.568 3.439
4.763 6.015 3.141
4.635 6.205 3.552
6.222 2.452 3.079
5.914 2.612 3.045
5.801 2.638 2.890
5.814 2.738 3.114
5.900 2.981 2.852
5.058 5.112 3.376
4.647 5.642 3.447
4.635 5.821 3.603
4.482 6.037 3.555
5.933 2.421 3.171
6.162 2.622 3.271
5.932 2.598 3.397
5.899 2.994 3.436
5.895 3.240 3.120
5.914 3.410 3.118
4.783 5.324 3.964
6.062 2.097 3.337
6.160 2.639 3.498
6.191 2.778 3.676
5.925 2.795 3.712
5.837 3.194 3.734
6.260 2.437 3.707
5.905 2.417 3.565
5.864 2.642 3.861
5.997 2.868 3.941
5.816 3.334 3.891
6.186 2.389 4.046
6.314 2.416 4.128
6.172 2.535 3.890
5.875 2.858 4.067
6.280 2.054 4.342
6.175 2.578 4.006
6.210 2.603 4.067
6.357 2.022 4.342
6.173 2.418 4.323
5.563 3.813 5.555
5.748 4.057 5.799
5.502 4.467 5.808
0.259 0.200 2.695
0.488 0.147 2.591
0.365 0.576 2.806
0.408 0.251 2.880
0.356 0.456 2.775
0.323 0.477 2.835
0.160 0.916 3.069
0.294 -0.107 2.988
0.447 0.406 3.290
0.280 0.417 3.055
0.132 0.727 3.352
0.233 0.930 3.003
0.350 -0.031 3.484
0.337 0.139 3.317
0.310 0.450 3.217
0.250 0.756 3.368
0.308 0.991 3.470
0.478 -0.037 3.391
0.301 0.145 3.764
0.268 0.657 3.460
0.072 0.613 3.584
0.356 1.012 3.579
0.393 -0.138 3.900
0.420 0.240 3.754
0.400 0.328 3.923
0.233 0.625 3.791
0.252 0.733 4.047
0.741 0.042 3.940
0.383 0.378 4.097
0.610 0.540 3.881
0.361 0.469 4.315
0.143 0.738 4.287
0.482 0.148 4.435
0.652 0.332 4.478
0.515 0.305 4.148
0.401 0.625 4.462
0.444 0.101 4.446
0.382 0.323 4.364
0.584 0.323 4.573
-0.079 1.853 6.004
0.177 1.528 5.926
0.143 1.875 6.258
0.124 1.404 6.238
0.586 0.177 2.139
0.757 0.366 2.378
0.613 0.419 2.349
0.609 0.118 2.509
0.528 0.426 2.439
0.488 0.566 2.583
0.691 0.146 2.448
0.523 0.509 2.654
0.565 0.751 2.787
0.303 0.986 2.484
0.491 0.318 2.752
0.352 0.539 3.012
0.636 0.635 2.839
0.259 0.643 3.000
0.091 0.955 3.082
0.632 0.226 3.038
0.541 0.215 2.987
0.322 0.600 3.066
0.470 0.670 3.332
0.158 1.217 3.152
0.622 0.235 3.349
0.724 0.373 3.248
0.416 0.368 3.191
0.601 0.990 3.268
0.186 0.833 3.591
0.887 0.322 3.551
0.717 0.147 3.721
0.767 0.698 3.624
0.390 0.702 3.485
0.481 0.983 3.712
0.590 0.091 3.648
0.629 0.176 3.676
0.599 0.374 3.761
0.588 0.851 3.905
0.474 1.100 3.692
0.616 0.030 4.130
0.873 0.480 3.985
0.619 0.689 4.255
0.403 0.723 4.248
0.250 2.379 5.332
0.267 2.160 5.431
0.023 2.090 5.636
0.125 2.432 5.718
0.318 1.947 5.943
0.135 1.997 5.698
0.126 1.993 5.784
0.215 2.531 5.728
-0.001 2.666 6.091
0.303 1.436 6.205
0.211 1.782 5.979
0.419 1.902 6.136
-0.015 2.168 6.152
0.032 2.434 6.145
0.114 2.646 6.154
0.354 1.402 6.166
0.343 1.494 6.377
0.566 1.686 6.154
0.384 1.795 6.149
0.197 1.613 0.268
0.491 0.178 1.437
0.553 0.293 1.804
0.767 0.201 1.816
0.706 0.334 1.747
0.924 0.440 2.142
0.628 0.384 2.068
0.509 0.686 2.232
0.635 0.328 2.227
0.849 0.355 2.603
0.626 0.642 2.439
0.357 0.735 2.612
0.648 0.364 2.571
0.622 0.332 2.482
0.718 0.577 2.808
0.614 0.855 2.667
0.642 1.166 2.896
0.835 0.265 2.737
0.779 0.643 2.899
0.715 0.874 2.761
0.482 1.092 2.885
0.481 1.088 2.914
0.546 1.252 2.837
1.048 0.261 3.205
0.684 0.566 3.244
0.676 0.752 3.286
0.605 1.082 2.970
0.380 1.303 3.026
0.384 1.228 3.084
1.015 0.311 3.486
1.014 0.499 3.216
0.933 0.869 3.376
0.810 0.844 3.494
0.785 1.300 3.590
0.439 1.371 3.529
0.732 0.101 3.354
0.867 0.614 3.621
0.961 0.711 3.471
0.824 0.960 3.496
0.699 1.119 3.705
1.027 0.606 3.850
0.817 0.544 4.008
0.642 0.953 3.670
-0.189 2.931 4.469
0.029 2.864 4.336
0.227 2.732 4.773
0.147 2.349 4.853
0.008 2.981 4.889
0.253 2.885 4.998
0.095 2.621 4.972
0.066 2.910 5.068
0.189 2.718 5.248
0.042 3.003 5.037
0.132 2.305 5.069
0.271 2.424 5.007
0.222 2.781 5.260
-0.063 2.761 5.533
-0.031 2.870 5.345
0.588 1.937 5.450
0.490 2.256 5.522
0.044 2.576 5.547
0.253 2.712 5.190
0.078 2.799 5.629
-0.041 3.091 5.543
0.480 1.633 5.676
0.290 1.735 5.458
0.337 1.978 5.583
0.239 2.218 5.503
0.404 2.680 5.713
0.081 2.702 5.796
0.090 2.695 5.973
0.418 1.437 5.946
0.375 2.041 5.972
0.567 2.230 5.666
0.498 2.220 6.005
0.358 2.507 5.880
0.083 2.683 5.679
0.242 2.494 5.985
0.865 1.388 5.963
0.505 1.425 5.987
0.575 1.902 5.966
0.671 2.123 5.923
0.498 2.456 6.150
0.337 2.573 6.085
0.401 2.592 6.232
0.871 1.455 6.181
0.562 1.569 6.029
0.491 1.708 6.168
0.475 2.209 6.309
0.278 2.397 6.327
0.045 1.505 0.637
0.434 1.785 0.469
0.020 1.795 0.286
-0.050 2.221 0.622
-0.056 2.100 0.559
-0.031 2.429 0.594
1.023 0.494 1.371
0.777 0.188 1.728
0.650 0.674 1.754
1.050 0.407 1.998
0.948 0.510 1.773
0.776 0.825 1.792
0.978 0.322 1.935
0.746 0.706 2.163
0.937 0.699 1.988
0.665 1.025 2.243
0.962 0.312 2.353
1.049 0.580 2.470
0.877 0.823 2.595
0.961 0.894 2.550
0.688 1.136 2.396
1.117 0.429 2.454
0.775 0.616 2.667
0.854 0.813 2.741
0.794 0.849 2.624
0.681 1.125 2.721
0.530 1.377 2.534
1.035 0.369 2.675
0.875 0.441 2.643
0.763 0.976 2.955
0.862 1.030 2.804
0.796 1.392 3.101
0.606 1.433 2.808
1.206 0.327 3.008
1.014 0.679 3.147
0.863 0.618 3.086
1.044 1.023 2.930
0.760 1.315 3.022
0.876 1.203 3.143
1.140 0.500 3.484
1.055 0.649 3.490
0.764 0.871 3.273
0.988 1.162 3.457
0.958 1.228 3.176
0.830 1.609 3.429
0.879 0.517 3.585
1.067 0.695 3.655
1.024 0.852 3.458
0.657 1.350 3.642
0.067 2.970 3.817
-0.158 3.433 3.911
0.110 2.956 4.331
0.205 3.257 4.363
0.030 3.183 4.303
0.113 2.734 4.250
0.353 2.954 4.307
0.097 3.257 4.649
0.254 3.445 4.673
0.099 2.823 4.265
0.150 3.047 4.781
0.107 2.864 4.879
-0.062 3.241 4.892
-0.079 3.608 4.666
0.448 2.716 4.711
0.220 2.815 4.818
0.407 2.946 5.015
0.108 3.142 5.138
-0.090 3.096 5.122
0.238 3.660 4.826
0.525 2.413 4.926
0.358 2.643 4.816
0.129 2.995 4.745
0.306 2.788 5.263
0.183 2.878 5.054
-0.051 3.171 5.156
-0.012 3.525 5.313
0.535 2.014 5.155
0.620 2.495 5.078
0.478 2.622 5.055
0.515 2.873 5.194
0.303 2.624 5.213
0.278 3.091 5.545
0.311 3.432 5.418
-0.118 3.662 5.646
0.603 1.904 5.375
0.605 2.224 5.386
0.508 2.381 5.172
0.434 2.439 5.361
0.449 2.724 5.528
0.199 2.881 5.667
0.319 3.092 5.693
0.702 1.531 5.601
0.685 1.944 5.327
0.524 2.128 5.703
0.371 2.540 5.745
0.451 2.611 5.608
0.529 2.879 5.556
0.566 2.594 6.044
0.109 3.143 6.012
1.119 1.405 5.755
0.971 1.511 5.820
0.652 1.751 5.925
0.546 2.071 5.577
0.406 2.306 5.870
0.576 2.590 5.803
0.419 2.949 6.024
0.462 2.634 5.985
1.077 1.391 5.749
0.953 1.474 6.042
0.775 1.514 5.914
0.821 2.041 5.951
0.795 1.975 5.902
0.416 2.358 6.078
0.536 2.584 5.873
0.609 2.923 6.041
0.847 1.097 6.006
0.864 1.368 6.329
1.087 1.621 6.244
0.690 1.703 6.151
0.523 2.268 6.443
0.531 2.213 6.254
0.385 2.562 6.374
0.283 1.925 0.166
0.073 1.989 0.367
0.199 2.323 0.213
0.308 1.641 0.266
0.362 2.111 0.459
0.050 2.186 0.508
0.366 1.803 0.194
0.420 2.253 0.522
0.448 2.459 0.527
0.078 2.492 0.502
1.177 0.659 1.393
0.988 0.451 1.843
1.227 0.687 1.862
1.291 0.491 1.897
0.995 0.612 1.987
0.844 1.039 1.759
1.093 1.045 2.011
1.028 0.558 2.257
1.236 0.715 2.244
1.076 0.776 2.129
1.056 0.977 2.204
0.721 1.200 2.112
1.220 0.640 2.542
1.216 0.564 2.451
0.929 0.776 2.580
0.889 0.889 2.544
1.056 1.410 2.254
0.771 1.711 2.321
1.087 0.254 2.699
1.297 0.779 2.625
1.001 0.785 2.440
0.930 1.165 2.506
0.768 1.500 2.476
0.874 1.644 2.678
0.758 1.872 2.742
1.459 0.358 2.776
1.150 0.692 2.954
1.237 1.032 2.722
1.096 1.023 2.958
0.908 1.156 2.815
1.032 1.293 2.857
0.580 1.671 3.037
1.476 0.232 3.090
1.312 0.785 3.170
1.266 0.814 2.972
1.150 1.276 3.273
1.161 1.332 3.101
0.816 1.399 2.937
1.399 0.747 3.431
1.071 0.660 3.104
1.198 1.101 3.426
0.917 1.383 3.437
0.821 1.693 3.247
0.143 3.616 3.912
0.142 3.509 3.982
-0.114 3.691 3.765
1.266 1.223 3.578
0.349 3.377 3.928
0.417 3.407 4.193
0.128 3.772 4.029
0.121 4.014 3.854
0.530 3.360 4.120
0.037 3.602 4.224
-0.013 3.442 4.465
0.131 3.924 4.443
0.502 3.044 4.411
0.322 3.033 4.238
0.192 3.437 4.433
0.158 3.742 4.639
0.315 3.966 4.645
0.217 3.948 4.524
0.597 2.940 4.231
0.391 3.047 4.489
0.513 3.079 4.701
0.449 3.220 4.838
0.276 3.786 4.660
-0.001 3.800 4.827
0.260 4.118 4.928
0.676 2.870 4.475
0.592 2.738 4.586
0.500 3.139 4.710
0.331 2.945 4.977
0.451 3.509 4.800
0.158 3.685 4.840
0.352 3.909 4.831
0.118 4.046 4.917
0.799 2.301 4.872
0.749 2.595 5.009
0.490 2.894 4.734
0.498 2.885 5.029
0.399 3.093 5.038
0.408 3.176 5.306
0.114 3.639 5.032
0.018 3.889 5.283
0.881 2.227 5.223
0.578 2.187 4.894
0.787 2.296 5.227
0.574 2.897 5.312
0.558 3.062 4.964
0.767 2.821 5.318
0.499 3.202 5.389
0.403 3.212 5.567
0.488 3.432 5.232
0.941 1.802 5.100
0.987 2.171 5.121
0.912 2.231 5.285
0.624 2.312 5.108
0.712 2.531 5.472
0.649 2.846 5.383
0.453 2.974 5.500
0.418 3.275 5.589
0.290 3.309 5.493
1.050 1.733 5.516
0.959 1.800 5.433
0.858 2.196 5.328
0.901 2.082 5.537
0.797 2.521 5.354
0.827 2.535 5.655
0.574 3.081 5.603
0.723 2.967 5.792
0.586 2.891 5.846
1.125 1.529 5.818
0.993 1.686 5.643
0.997 1.885 5.537
1.071 2.124 5.606
0.760 2.143 5.574
0.676 2.433 5.787
0.836 2.797 5.930
0.720 2.856 5.650
0.731 2.848 5.967
1.328 1.305 5.750
1.143 1.623 5.936
1.273 1.846 5.747
0.871 1.910 5.839
0.884 2.280 6.079
0.967 2.477 5.945
0.816 2.642 6.200
0.577 2.733 5.948
1.140 1.233 6.167
1.168 1.687 6.142
1.239 1.930 6.113
0.893 2.100 6.101
0.907 2.067 6.026
0.849 2.370 6.422
0.760 2.805 6.213
0.299 1.519 0.219
0.574 1.826 0.144
0.457 1.902 0.249
0.202 2.177 0.092
0.046 2.361 0.220
0.116 2.776 0.307
0.355 1.923 0.509
0.570 2.076 0.399
0.301 2.184 0.241
0.173 2.489 0.488
0.697 1.959 0.451
1.222 0.776 1.414
1.461 0.509 1.677
1.424 0.880 1.696
1.557 0.447 1.645
1.251 0.835 1.777
1.259 0.820 1.930
1.036 1.300 1.994
1.576 0.649 2.134
1.197 0.797 2.043
1.249 1.147 2.218
1.094 1.212 2.271
1.038 1.304 2.045
1.001 1.423 2.281
1.334 0.667 2.422
1.402 0.806 2.131
1.184 0.875 2.343
1.108 1.062 2.366
1.150 1.406 2.572
1.085 1.586 2.327
0.779 1.752 2.618
1.589 0.450 2.537
1.577 0.867 2.396
1.148 0.838 2.583
1.287 1.013 2.460
1.330 1.581 2.683
1.120 1.674 2.524
0.825 1.616 2.501
0.756 1.918 2.876
1.690 0.380 2.752
1.585 0.590 2.594
1.505 1.018 2.796
1.286 1.222 2.989
1.105 1.361 2.763
1.171 1.792 2.898
0.924 1.947 2.780
1.520 0.610 2.903
1.468 1.080 3.007
1.215 1.086 3.111
1.268 1.546 2.951
0.896 1.792 2.964
1.021 1.708 3.072
1.378 1.068 3.276
1.133 1.340 3.087
1.074 1.524 3.488
1.012 1.502 3.504
0.037 3.770 3.995
0.133 4.068 3.877
0.023 4.337 3.637
0.328 3.671 4.036
0.144 3.870 4.202
0.439 3.906 3.898
0.348 4.064 4.108
0.154 4.264 3.936
-0.071 4.561 4.273
0.531 3.324 4.324
0.346 3.608 4.365
0.513 3.644 4.199
0.122 3.771 4.121
0.245 4.124 4.454
-0.089 4.491 4.330
0.170 4.496 4.164
0.640 3.110 4.465
0.420 3.431 4.252
0.680 3.545 4.657
0.613 3.707 4.377
0.462 4.019 4.627
0.259 4.170 4.533
0.078 4.538 4.349
0.048 4.573 4.627
0.739 2.941 4.396
0.548 2.927 4.549
0.695 3.256 4.486
0.516 3.519 4.731
0.508 3.808 4.554
0.492 3.945 4.763
0.283 4.262 4.892
0.149 4.459 4.738
0.270 4.350 4.992
0.040 4.548 4.703
0.920 2.824 4.675
0.679 3.029 4.681
0.753 3.124 4.824
0.688 3.049 4.782
0.683 3.527 4.998
0.301 3.768 4.896
0.239 4.035 4.980
0.254 4.080 5.043
0.173 4.369 5.099
0.308 4.534 4.863
0.989 2.602 4.648
0.638 2.883 4.664
0.742 3.227 4.870
0.790 2.824 4.991
0.455 3.409 5.095
0.494 3.621 5.012
0.665 3.803 5.171
0.415 3.867 5.180
0.515 4.274 5.188
0.996 2.223 5.026
0.813 2.430 5.090
1.054 2.471 4.859
0.673 2.909 5.236
0.881 2.956 5.119
0.851 3.188 5.148
0.760 3.076 5.296
0.634 3.231 5.263
0.599 3.842 5.191
1.438 1.854 5.189
1.401 1.872 5.053
1.148 2.338 5.337
1.045 2.178 5.287
0.913 2.368 5.304
0.822 2.816 5.426
0.659 3.173 5.283
0.903 3.041 5.430
0.809 3.000 5.561
1.602 1.519 5.310
1.360 1.762 5.465
1.196 1.835 5.617
1.191 2.131 5.561
0.899 2.197 5.291
0.807 2.621 5.459
0.870 2.968 5.704
0.746 2.876 5.362
0.964 2.835 5.966
1.540 1.429 5.620
1.406 1.413 5.543
1.516 1.882 5.803
1.178 1.954 5.507
1.081 1.943 5.854
1.067 2.257 5.887
0.990 2.711 5.673
0.854 2.637 5.617
0.971 2.764 5.674
1.735 1.066 6.023
1.612 1.373 6.083
1.198 1.688 5.692
1.438 1.706 5.843
1.101 2.084 6.150
1.093 2.517 5.836
0.855 2.444 5.976
0.922 2.728 5.837
1.479 1.250 6.145
1.361 1.404 6.203
1.413 1.758 6.079
1.204 1.848 6.248
1.362 2.042 6.216
1.163 2.109 6.092
1.245 2.642 6.110
0.727 1.661 0.026
0.465 2.011 -0.069
0.522 2.223 0.318
0.271 2.410 0.278
0.586 2.382 0.203
0.421 1.978 0.372
-0.186 4.316 1.201
0.239 4.193 1.306
-0.013 4.504 1.335
0.134 4.276 1.674
0.248 4.177 1.298
0.126 4.387 1.867
-0.095 4.385 1.734
0.242 4.560 1.835
1.527 0.689 1.694
1.487 0.756 1.725
1.637 1.044 2.036
1.443 1.129 1.929
1.486 1.143 2.000
1.171 1.702 2.045
1.771 0.490 2.177
1.733 0.897 1.888
1.330 1.270 2.169
1.389 1.447 2.055
1.131 1.538 2.123
1.137 1.553 2.005
1.283 2.057 2.294
1.042 2.226 2.297
1.803 0.495 2.482
1.564 0.758 2.336
1.350 1.154 2.347
1.492 1.448 2.330
1.277 1.369 2.548
1.182 1.849 2.345
1.017 2.013 2.228
0.859 1.983 2.634
1.139 2.439 2.645
1.566 0.607 2.410
1.461 0.727 2.574
1.468 0.960 2.458
1.322 1.443 2.778
1.210 1.577 2.779
1.076 1.568 2.446
1.331 1.809 2.646
1.073 1.926 2.790
1.079 2.388 2.721
1.704 1.023 2.871
1.499 1.159 2.582
1.449 1.233 2.883
1.294 1.283 2.856
1.355 1.502 2.693
1.352 1.699 2.697
0.928 1.938 2.787
1.402 0.886 3.110
1.457 1.209 3.210
1.275 1.457 2.877
1.488 1.779 2.899
1.059 2.096 2.901
1.284 1.985 3.074
1.453 1.220 3.103
1.447 1.393 3.491
1.259 1.829 3.328
0.507 4.318 3.649
0.443 4.266 3.874
0.106 4.683 3.675
0.690 3.905 3.992
0.651 4.156 4.065
0.185 4.393 4.159
0.196 4.642 4.162
0.359 4.742 4.087
0.055 5.007 4.245
0.494 3.518 4.237
0.671 3.578 4.316
0.668 4.154 4.282
0.208 4.061 4.326
0.320 4.279 4.336
0.355 4.743 4.450
0.122 4.725 4.198
0.250 4.900 4.398
0.980 3.159 4.301
0.599 3.392 4.400
0.606 3.817 4.296
0.491 3.788 4.467
0.359 4.068 4.477
0.159 4.632 4.683
0.141 4.799 4.576
0.282 4.638 4.458
0.284 4.872 4.491
0.604 3.505 4.572
0.766 3.744 4.846
0.778 3.755 4.810
0.692 3.777 4.859
0.563 4.333 4.843
0.401 4.605 4.664
0.327 4.564 4.774
0.404 4.783 4.658
0.027 5.152 4.874
1.136 3.187 4.665
0.721 3.188 4.768
0.668 3.334 4.813
0.763 3.750 4.724
0.790 4.004 4.892
0.478 4.364 4.767
0.509 4.452 5.090
0.371 4.405 5.196
0.240 4.707 5.173
1.095 2.893 4.733
0.856 2.996 4.937
0.780 3.007 5.105
0.846 3.397 4.939
0.822 3.706 5.153
0.823 3.623 5.038
0.646 3.989 5.128
0.640 4.035 5.046
1.131 2.403 4.875
