4.621 4.498 5.658
4.720 4.132 5.422
4.937 4.097 5.270
5.133 3.728 5.129
3.899 4.966 5.779
4.140 4.858 5.647
4.273 4.613 5.419
4.408 4.355 5.407
4.560 4.247 5.160
4.739 4.048 5.017
4.968 3.891 4.927
5.025 3.643 4.828
4.110 4.574 5.208
4.198 4.484 5.177
4.299 4.277 4.975
4.511 4.071 4.781
4.754 3.798 4.619
4.930 3.555 4.559
5.041 3.437 4.348
4.078 4.324 4.942
4.278 4.199 4.826
4.419 4.005 4.532
4.477 3.797 4.549
4.735 3.571 4.379
4.810 3.333 4.104
5.078 3.203 4.053
5.616 4.385 6.286
5.409 4.611 6.110
5.450 4.358 6.068
4.718 5.001 6.201
4.887 4.905 6.028
5.121 4.587 5.904
5.289 4.488 5.690
4.506 5.197 6.028
4.684 4.953 5.947
4.833 4.807 5.768
4.958 4.723 5.756
5.092 4.459 5.604
5.313 4.307 5.475
4.225 5.175 5.886
4.417 5.056 5.748
4.576 4.885 5.558
4.694 4.668 5.492
5.007 4.495 5.377
5.014 4.263 5.175
4.162 5.105 5.584
4.304 4.836 5.339
4.500 4.549 5.165
4.693 4.444 5.059
4.922 4.144 4.967
5.076 4.015 4.755
4.122 4.770 5.222
4.299 4.687 5.037
4.509 4.426 4.949
4.667 4.256 4.756
4.958 4.056 4.584
5.132 3.830 4.461
4.102 4.632 4.704
4.375 4.522 4.632
4.510 4.237 4.461
4.706 4.102 4.354
4.935 3.789 4.261
5.096 3.708 4.137
5.679 4.874 6.211
5.763 4.589 6.195
5.245 5.113 6.243
5.484 4.781 6.059
5.621 4.654 5.875
4.728 5.524 6.226
4.876 5.337 5.982
5.085 4.995 5.906
5.367 4.780 5.751
5.434 4.593 5.670
4.530 5.428 5.985
4.700 5.210 5.780
5.000 5.130 5.653
5.172 4.865 5.570
5.230 4.591 5.478
4.592 5.230 5.673
4.660 5.134 5.451
4.849 4.872 5.379
5.085 4.574 5.224
5.204 4.373 5.106
4.585 5.101 5.312
4.691 4.843 5.100
4.806 4.725 4.903
5.057 4.478 4.782
4.620 4.575 4.725
4.801 4.385 4.552
5.002 4.231 4.417
3.095 6.337 5.661
4.544 4.625 4.585
4.724 4.413 4.341
4.823 4.265 4.219
4.986 3.962 4.040
6.125 4.849 6.145
5.668 5.289 6.300
5.770 5.098 6.194
6.074 4.930 5.912
5.210 5.397 6.177
5.512 5.326 5.971
5.637 5.161 5.821
5.882 4.956 5.723
4.951 5.614 6.006
5.054 5.512 5.870
5.257 5.267 5.784
5.454 5.059 5.645
5.651 4.847 5.455
4.941 5.487 5.696
5.051 5.286 5.637
5.235 5.106 5.475
3.500 6.343 5.304
6.255 5.226 6.278
5.575 5.747 6.263
5.730 5.566 6.081
6.056 5.253 5.918
6.208 5.063 5.900
5.330 5.868 6.097
5.446 5.753 6.034
5.634 5.531 5.985
5.717 5.232 5.714
5.217 5.722 5.853
5.393 5.446 5.680
5.501 5.349 5.459
6.160 5.701 6.160
5.593 6.056 6.288
5.848 5.846 6.088
6.010 5.688 6.018
6.039 5.607 5.918
5.467 6.050 6.140
5.679 5.853 5.875
5.694 5.800 5.708
6.084 6.104 6.244
5.929 6.157 6.096
6.112 6.004 5.855
6.239 5.727 5.783
6.083 5.217 3.958
4.882 6.076 4.147
6.234 5.836 4.176
5.571 6.099 4.390
5.708 5.922 4.099
6.054 5.789 4.083
6.195 5.671 3.846
5.366 6.112 4.101
5.649 5.985 3.928
5.838 5.744 3.728
5.858 5.524 3.640
6.189 5.332 3.492
5.149 6.180 3.922
5.451 6.073 3.771
5.498 5.787 3.509
6.126 6.143 4.227
6.024 6.163 3.975
6.102 6.067 3.818
5.819 6.181 3.785
5.971 5.923 3.641
6.179 5.760 3.472
6.185 5.603 3.317
5.575 6.225 3.598
5.674 6.098 3.384
5.867 5.882 3.374
6.352 6.158 3.772
6.144 6.191 3.575
6.174 6.041 3.448
5.877 6.234 3.269
6.018 5.990 3.125
4.343 1.054 6.271
4.465 0.724 6.183
3.934 1.241 6.166
4.073 1.023 6.094
3.321 1.646 6.206
3.559 1.350 6.097
3.795 1.238 5.863
3.050 1.852 6.161
3.140 1.628 6.047
3.443 1.409 5.818
2.428 2.177 6.137
2.600 2.030 5.990
2.855 1.750 5.953
2.946 1.511 5.801
4.232 1.488 6.198
4.448 1.217 6.169
3.865 1.684 6.188
4.005 1.473 5.979
3.455 1.950 6.274
3.571 1.816 6.144
3.792 1.651 5.983
3.012 2.282 6.150
3.086 2.045 5.946
3.318 1.789 5.928
2.516 2.627 6.284
2.621 2.376 6.003
2.861 2.130 5.886
3.042 1.955 5.748
4.839 1.471 6.303
4.505 1.552 6.108
3.963 2.067 6.172
4.112 1.876 5.995
2.798 2.653 5.891
2.978 2.481 5.858
4.303 0.834 4.641
4.445 0.648 4.556
4.832 1.929 6.278
5.118 0.801 4.832
4.620 1.009 4.685
4.831 0.824 4.672
4.260 1.177 4.678
4.447 1.100 4.452
4.679 0.865 4.312
5.290 1.973 6.110
5.154 1.059 4.748
4.702 1.547 4.817
4.838 1.315 4.668
5.063 1.143 4.475
4.205 1.592 4.596
4.504 1.532 4.501
4.701 1.307 4.396
4.775 1.078 4.305
6.121 1.645 6.200
5.727 1.943 6.066
5.225 2.316 6.200
5.412 2.104 6.040
5.178 1.431 4.765
5.416 1.368 4.523
4.746 1.731 4.643
5.017 1.489 4.465
5.239 1.288 4.271
4.210 2.083 4.765
4.462 1.823 4.503
4.677 1.662 4.498
4.711 1.487 4.178
4.952 1.325 4.201
6.093 2.156 6.320
5.713 2.274 6.091
5.896 2.052 6.054
6.139 1.844 5.972
3.804 3.680 6.281
3.495 3.977 6.200
5.496 1.574 4.545
4.702 2.397 4.804
4.880 2.108 4.708
4.910 1.959 4.568
5.047 1.694 4.332
5.378 1.514 4.248
4.286 2.479 4.664
4.465 2.270 4.606
4.676 2.053 4.334
4.851 1.841 4.355
4.979 1.684 4.116
5.115 1.522 4.036
6.151 2.579 6.308
5.718 2.836 6.147
5.874 2.499 6.075
6.027 2.310 5.914
6.360 2.153 5.671
4.408 3.823 6.266
3.742 4.188 6.224
3.883 3.957 6.144
4.139 3.792 5.944
3.439 4.324 6.169
3.510 4.137 5.978
3.861 4.017 5.900
3.918 3.840 5.729
4.141 3.531 5.686
3.725 3.704 5.555
3.853 3.491 5.400
4.081 3.280 5.189
4.282 3.151 5.087
4.519 2.996 4.983
4.527 2.692 4.785
4.702 2.532 4.667
4.882 2.287 4.492
5.194 2.193 4.372
5.353 1.850 4.255
5.465 1.738 4.126
3.820 3.370 4.935
3.991 3.226 4.884
4.149 2.854 4.685
4.481 2.659 4.571
4.502 2.474 4.429
4.691 2.356 4.337
4.908 2.127 4.119
5.156 2.015 4.046
5.306 1.774 3.950
5.904 1.329 4.129
6.198 1.055 3.945
6.061 1.273 3.973
5.756 1.270 3.737
6.029 1.229 3.680
6.077 0.858 3.493
5.569 1.470 4.030
5.726 1.359 3.749
5.444 1.574 3.681
6.186 -0.033 6.270
6.175 -0.038 6.234
6.013 0.009 5.944
6.081 0.076 5.882
6.146 0.220 5.758
6.113 0.273 5.924
5.929 0.280 5.542
6.099 0.077 5.526
6.054 0.265 5.689
5.833 0.228 5.421
5.952 0.105 5.282
5.870 0.291 5.363
5.686 0.229 5.205
5.777 -0.058 4.943
5.681 0.210 5.085
5.438 0.223 4.923
5.678 0.101 4.779
5.452 0.228 4.962
5.263 0.152 4.707
5.320 -0.055 4.499
5.098 0.486 4.827
5.267 0.220 4.741
5.009 0.212 4.479
5.230 -0.049 4.346
4.814 0.389 4.653
5.065 0.208 4.472
4.854 0.236 4.268
4.668 0.506 4.429
4.822 0.149 4.304
6.157 0.524 5.484
6.124 0.506 5.407
5.948 0.431 5.274
6.167 0.299 5.186
5.882 0.382 5.166
5.813 0.511 5.075
5.968 0.190 4.899
6.191 0.038 4.765
5.834 0.533 5.094
5.634 0.423 4.785
5.830 0.195 4.644
5.973 0.120 4.561
5.351 0.571 5.018
5.657 0.443 4.877
5.465 0.421 4.619
5.637 0.174 4.475
5.731 0.004 4.366
5.184 0.683 4.667
5.412 0.505 4.505
5.225 0.392 4.252
5.371 0.202 4.151
5.538 0.085 4.042
4.974 0.680 4.496
5.159 0.371 4.347
4.931 0.491 4.031
5.212 0.174 3.962
4.900 0.634 4.250
4.956 0.381 4.133
6.022 0.760 5.160
6.263 0.413 4.897
6.150 0.676 5.125
5.886 0.706 4.955
6.042 0.436 4.732
6.298 0.296 4.671
5.724 0.954 4.943
5.993 0.616 4.901
5.793 0.754 4.585
5.861 0.544 4.533
6.039 0.340 4.373
6.261 0.062 4.325
5.641 0.871 4.722
5.652 0.702 4.695
5.612 0.655 4.387
5.627 0.419 4.372
5.944 0.190 4.146
6.076 0.027 3.969
5.333 0.885 4.496
5.474 0.638 4.499
5.365 0.644 4.208
5.511 0.417 4.041
5.651 0.206 3.883
5.814 0.038 3.690
5.172 0.789 4.387
5.364 0.606 4.122
5.116 0.650 4.059
5.273 0.408 3.875
5.505 0.211 3.612
4.924 0.962 4.129
5.149 0.647 3.902
6.057 0.987 4.806
6.274 0.791 4.699
6.107 0.869 4.827
5.923 0.976 4.493
5.981 0.787 4.424
6.145 0.497 4.163
5.777 1.089 4.758
5.855 0.849 4.443
5.737 0.814 4.240
5.828 0.639 4.165
6.001 0.525 3.989
6.277 0.293 3.853
5.598 1.022 4.467
5.664 0.824 4.292
5.554 0.880 4.138
5.723 0.766 3.994
5.909 0.523 3.806
6.072 0.318 3.642
6.187 0.143 3.460
5.325 1.016 4.268
5.581 0.880 4.105
5.260 0.813 3.835
5.444 0.716 3.626
5.635 0.429 3.565
5.138 1.150 3.978
5.268 0.864 3.821
6.041 1.081 4.358
6.130 0.930 4.168
5.862 1.288 4.527
6.023 1.135 4.311
5.863 1.133 4.147
6.063 0.951 3.981
6.206 0.656 3.956
5.631 1.285 4.265
5.927 1.143 4.096
5.591 1.051 3.978
5.859 0.949 3.823
5.992 0.698 3.722
6.066 0.557 3.515
5.558 1.282 4.110
5.643 1.056 4.020
5.383 1.159 3.661
5.536 1.001 3.510
5.229 1.270 3.937
5.426 1.118 3.711
6.049 1.403 4.020
6.110 1.104 3.874
6.063 1.301 4.023
5.747 1.367 3.804
5.948 1.211 3.746
6.218 0.989 3.438
5.541 1.465 3.922
5.850 1.420 3.902
5.401 1.551 3.701
6.262 6.177 3.082
0.883 -0.036 6.094
0.701 0.052 5.851
0.348 0.217 5.676
0.405 -0.058 5.518
0.075 0.147 5.559
0.227 -0.002 5.393
0.075 0.021 5.066
0.993 0.082 6.234
0.825 0.049 6.067
0.958 0.202 5.894
1.067 -0.043 5.846
0.822 0.154 5.653
1.042 0.007 5.494
0.390 0.343 5.619
0.638 0.253 5.375
0.693 -0.019 5.286
0.260 0.387 5.415
0.406 0.251 5.150
0.648 0.069 5.122
0.064 0.397 5.196
0.224 0.175 5.059
0.469 0.040 4.804
0.115 0.185 4.841
0.260 0.060 4.652
0.070 0.113 4.326
1.390 0.005 6.065
1.023 0.240 5.870
1.218 0.065 5.796
1.271 0.325 5.614
1.516 0.125 5.570
0.886 0.395 5.505
1.071 0.226 5.331
1.242 0.017 5.210
0.666 0.685 5.421
0.693 0.448 5.364
0.861 0.274 5.153
1.170 0.041 5.030
0.414 0.649 5.185
0.598 0.414 5.065
0.678 0.171 5.013
0.927 -0.011 4.800
0.061 0.774 5.187
0.199 0.726 5.002
0.461 0.390 4.850
0.563 0.228 4.648
0.791 -0.015 4.564
-0.025 0.651 4.779
0.147 0.390 4.655
0.439 0.311 4.399
0.593 -0.015 4.301
0.178 0.247 4.242
0.270 -0.007 4.195
1.238 0.180 5.705
1.448 0.008 5.430
1.660 0.258 5.441
1.719 0.005 5.282
1.310 0.534 5.286
1.518 0.207 5.175
1.665 0.121 4.983
0.974 0.746 5.199
1.012 0.527 4.958
1.288 0.194 4.934
1.421 0.053 4.844
0.539 0.947 5.015
0.657 0.673 4.888
0.866 0.554 4.786
1.130 0.359 4.747
1.246 0.097 4.518
0.258 0.994 5.007
0.399 0.851 4.865
0.515 0.673 4.656
0.655 0.555 4.561
0.891 0.247 4.508
0.979 0.100 4.256
0.076 0.881 4.662
0.360 0.603 4.477
0.436 0.392 4.438
0.689 0.351 4.160
0.929 0.084 4.015
0.167 0.717 4.193
0.349 0.459 4.188
0.499 0.290 3.899
0.174 0.407 3.880
1.613 0.312 5.288
1.892 0.029 5.246
2.118 0.185 4.957
1.560 0.516 4.922
1.803 0.275 4.840
1.863 0.117 4.721
1.323 0.633 4.990
1.384 0.402 4.804
1.620 0.281 4.723
1.680 0.006 4.489
0.794 0.976 4.790
1.083 0.706 4.668
1.153 0.453 4.503
1.441 0.244 4.422
1.466 0.092 4.183
0.524 1.178 4.790
0.658 0.954 4.589
0.855 0.711 4.535
0.970 0.424 4.369
1.186 0.378 4.218
1.388 0.101 3.983
0.078 1.365 4.569
0.393 1.122 4.492
0.545 0.963 4.383
0.725 0.627 4.202
0.852 0.456 4.001
0.970 0.269 3.916
1.150 0.155 3.862
0.122 1.174 4.342
0.325 0.813 4.089
0.389 0.710 3.941
-0.020 0.028 2.515
2.150 0.048 4.993
0.547 2.249 6.326
0.798 2.186 6.134
2.487 0.203 4.623
1.861 0.494 4.771
2.004 0.264 4.535
2.227 0.058 4.390
1.507 0.715 4.593
1.735 0.455 4.525
1.877 0.384 4.440
2.135 0.137 4.286
1.351 0.689 4.494
1.449 0.434 4.262
1.783 0.380 4.122
1.865 0.121 3.905
1.127 0.621 4.174
1.278 0.433 4.065
1.544 0.369 3.952
1.628 0.084 3.776
1.147 0.527 3.866
1.244 0.353 3.760
1.567 0.138 3.515
0.225 0.281 2.265
0.283 0.068 2.241
0.126 0.189 1.883
1.972 1.299 6.229
1.482 1.723 6.308
1.616 1.498 6.109
1.075 1.964 6.113
1.341 1.723 6.039
0.593 2.326 6.165
0.813 2.123 6.187
2.522 0.148 4.602
0.783 2.484 6.045
0.873 2.397 5.957
1.117 2.182 5.866
1.314 1.991 5.748
2.545 0.286 4.599
2.715 0.074 4.472
2.283 0.524 4.506
2.406 0.346 4.374
2.537 0.208 4.102
1.827 0.724 4.332
1.988 0.506 4.149
2.194 0.281 4.085
2.418 0.090 3.867
1.602 0.661 4.078
1.907 0.594 3.989
1.981 0.307 3.800
2.234 0.062 3.687
1.587 0.541 3.788
1.853 0.348 3.692
2.029 0.069 3.507
1.686 0.302 3.477
1.828 0.048 3.198
0.133 0.812 2.370
0.278 0.439 2.135
0.543 0.380 1.964
0.216 0.515 1.915
0.296 0.257 1.854
0.536 0.143 1.677
0.141 0.352 1.536
0.233 0.149 1.418
0.004 0.156 1.266
2.056 1.757 6.139
2.124 1.550 6.009
2.374 1.413 6.018
1.438 2.145 6.258
1.681 1.936 6.196
1.724 1.768 5.981
2.029 1.632 5.807
1.007 2.326 6.220
1.320 2.092 6.024
1.408 1.892 5.889
1.594 1.733 5.785
0.748 2.471 6.174
0.836 2.413 5.898
1.043 2.133 5.737
1.231 1.900 5.772
2.587 0.349 4.626
2.860 0.193 4.494
1.088 2.592 5.868
1.192 2.450 5.746
1.463 2.134 5.628
1.648 1.945 5.434
2.708 0.566 4.373
2.912 0.370 4.318
3.040 0.137 4.184
1.119 2.456 5.446
2.337 0.830 4.372
2.643 0.580 4.224
2.728 0.396 4.067
2.835 0.112 3.949
2.211 0.722 4.102
2.291 0.554 3.963
2.545 0.277 3.899
2.786 0.248 3.713
1.948 0.683 3.792
2.184 0.518 3.770
2.432 0.347 3.641
2.486 0.171 3.497
1.933 0.638 3.457
2.090 0.294 3.268
2.412 0.198 3.276
1.893 0.355 3.210
2.170 0.108 3.064
1.950 0.149 2.725
0.322 1.117 2.512
0.438 0.952 2.401
0.646 0.777 2.192
0.207 1.059 2.265
0.359 1.037 2.185
0.448 0.700 2.052
0.559 0.505 1.952
0.112 0.885 2.041
0.263 0.695 1.890
0.507 0.523 1.715
0.153 0.814 1.567
0.208 0.593 1.443
0.150 0.533 1.165
1.885 2.195 6.192
2.169 1.962 6.034
2.220 1.684 5.989
2.545 1.623 5.842
1.624 2.335 6.149
1.783 2.088 6.080
1.902 2.018 5.930
2.204 1.683 5.738
2.298 1.556 5.574
1.040 2.683 6.296
1.315 2.483 5.993
1.383 2.457 5.905
1.558 2.194 5.803
1.806 1.991 5.699
1.866 1.818 5.498
3.212 0.225 4.390
1.028 2.481 5.916
1.308 2.305 5.621
1.343 2.188 5.501
1.649 1.931 5.398
2.710 0.517 4.493
2.852 0.442 4.256
3.135 0.232 4.093
0.116 6.166 4.642
0.167 5.036 6.244
0.064 5.511 6.280
0.172 5.358 6.026
0.579 5.516 6.116
0.585 5.558 6.109
0.565 5.902 6.127
0.541 5.852 6.137
2.075 4.612 4.931
2.337 4.370 4.816
3.803 2.510 3.432
4.002 2.391 3.451
1.546 4.931 4.944
1.808 4.752 4.814
1.836 4.601 4.775
1.998 4.419 4.568
2.213 4.108 4.471
1.208 5.212 4.891
1.341 4.912 4.816
1.503 4.758 4.686
1.645 4.477 4.452
1.882 4.345 4.391
2.019 4.073 4.196
2.307 3.952 4.084
0.788 5.394 4.806
0.977 5.169 4.749
1.191 4.884 4.515
1.316 4.771 4.310
1.610 4.545 4.257
1.664 4.337 4.142
1.812 4.095 3.992
2.106 3.926 3.885
2.198 3.770 3.640
0.599 5.403 4.682
0.786 5.151 4.453
1.019 5.023 4.310
1.208 4.675 4.113
1.380 4.517 3.966
1.520 4.404 3.848
1.723 4.131 3.732
1.879 3.997 3.636
2.036 3.704 3.416
2.276 3.517 3.327
0.266 5.519 4.565
0.414 5.393 4.409
0.718 5.162 4.312
0.838 4.858 4.126
0.949 4.746 3.906
1.195 4.503 3.769
1.375 4.409 3.740
1.559 4.195 3.526
1.734 3.871 3.303
1.815 3.685 3.288
2.077 3.522 3.022
2.161 3.335 3.005
2.383 3.202 2.831
3.565 1.707 1.844
0.102 5.796 4.567
0.333 5.501 4.444
0.110 5.523 4.249
1.900 3.271 2.687
2.202 3.178 2.573
2.266 2.931 2.342
2.478 2.690 2.209
2.645 2.474 2.100
2.830 2.290 2.014
3.058 2.077 1.893
3.131 1.865 1.649
3.271 1.806 1.615
0.149 5.474 4.197
1.999 3.061 2.321
2.170 2.968 2.256
2.367 2.673 2.074
2.531 2.488 2.007
2.726 2.379 1.849
2.859 2.089 1.600
2.954 1.959 1.521
3.103 1.640 1.352
1.756 3.106 2.166
1.983 2.974 1.948
2.150 2.772 1.773
2.194 2.482 1.637
2.496 2.329 1.504
2.535 2.136 1.382
2.719 1.957 1.224
2.878 1.653 1.031
1.707 2.942 1.705
1.891 2.732 1.595
1.989 2.483 1.509
2.270 2.283 1.244
2.428 2.118 1.159
2.509 1.935 1.121
1.662 2.708 1.428
1.882 2.517 1.251
2.030 2.299 1.102
2.202 2.127 0.895
0.108 4.335 2.369
0.245 4.183 2.085
0.145 4.177 1.891
0.297 3.972 1.688
0.134 4.008 1.594
0.340 3.646 1.418
0.161 3.639 1.137
0.158 3.587 0.767
-0.035 3.271 0.444
0.291 3.126 0.192
0.429 2.968 0.071
0.049 3.091 0.038
3.875 3.086 4.577
4.056 2.948 4.566
4.296 2.786 4.367
4.381 2.585 4.128
4.497 2.347 4.041
4.810 2.205 3.956
4.876 1.907 3.741
5.065 1.693 3.655
3.776 2.987 4.229
4.058 2.677 4.114
4.219 2.492 4.067
4.426 2.249 3.807
4.546 2.170 3.616
4.755 1.895 3.513
4.842 1.782 3.355
3.844 2.655 3.934
3.989 2.517 3.832
4.142 2.255 3.600
4.272 2.220 3.398
4.571 1.951 3.310
2.136 4.563 4.861
2.353 4.424 4.757
3.854 2.587 3.430
3.932 2.323 3.448
1.854 5.234 5.141
2.124 5.034 5.032
2.237 4.710 4.741
3.774 2.970 3.527
3.969 2.793 3.342
4.190 2.499 3.309
1.602 5.337 5.034
1.728 5.134 4.869
1.852 4.908 4.758
1.974 4.841 4.580
2.241 4.571 4.511
2.437 4.363 4.303
1.230 5.483 4.966
1.402 5.363 4.854
1.534 5.081 4.580
1.615 4.900 4.449
1.925 4.721 4.355
2.093 4.618 4.182
2.241 4.450 4.083
0.782 5.680 4.883
0.914 5.514 4.699
1.120 5.326 4.509
1.331 5.144 4.356
1.441 4.984 4.196
1.735 4.827 4.053
1.941 4.604 3.921
2.075 4.309 3.849
2.187 4.109 3.644
0.839 5.683 4.814
0.709 5.699 4.633
0.866 5.565 4.450
0.932 5.415 4.325
1.197 5.108 4.102
1.236 4.941 4.027
1.479 4.771 3.811
1.730 4.469 3.718
1.839 4.304 3.646
0.398 5.948 4.803
0.679 5.775 4.612
0.401 5.840 4.439
0.671 5.617 4.191
0.719 5.358 4.042
0.939 5.097 3.887
1.153 4.968 3.740
1.288 4.796 3.625
1.554 4.534 3.602
3.255 2.346 2.002
3.566 2.166 1.907
3.776 1.919 1.756
0.293 5.962 4.568
0.361 5.714 4.351
0.325 5.845 4.072
0.352 5.596 4.059
0.661 5.325 3.862
2.681 2.941 2.100
2.837 2.703 2.091
2.946 2.535 1.806
3.229 2.334 1.670
3.345 2.123 1.585
3.568 1.929 1.537
0.144 5.890 4.311
0.223 5.844 4.121
0.070 5.774 3.997
0.216 5.617 3.686
2.352 3.209 2.158
2.362 2.962 1.915
2.603 2.670 1.803
2.845 2.631 1.643
2.867 2.389 1.423
3.157 2.173 1.413
3.291 1.911 1.162
0.086 5.741 3.946
2.315 2.963 1.767
2.363 2.672 1.508
2.673 2.547 1.380
2.695 2.419 1.281
2.965 2.087 1.172
3.165 2.029 0.948
2.145 2.912 1.434
2.315 2.806 1.243
2.489 2.584 1.114
2.649 2.263 0.969
2.755 2.186 0.977
3.005 1.872 0.741
2.036 2.784 1.153
2.224 2.552 1.013
2.316 2.284 0.733
2.490 2.107 0.645
0.097 4.812 2.311
0.388 4.486 2.229
0.400 4.416 1.937
0.572 4.150 1.815
0.196 4.502 1.981
0.296 4.271 1.818
0.511 4.177 1.560
0.547 3.926 1.569
0.100 4.353 1.586
0.316 4.130 1.369
0.446 3.940 1.306
0.631 3.657 1.058
0.056 4.178 1.162
0.162 3.894 1.003
0.383 3.719 0.947
0.673 3.626 0.822
0.100 3.899 0.832
0.193 3.795 0.653
0.341 3.628 0.436
0.498 3.370 0.429
0.705 3.069 0.167
0.028 3.729 0.413
0.249 3.616 0.384
0.445 3.285 0.206
0.525 3.100 0.066
-0.080 3.459 -0.001
3.851 3.485 4.709
4.069 3.443 4.583
4.112 3.114 4.412
4.300 3.045 4.272
4.513 2.757 4.082
4.746 2.575 4.005
4.825 2.359 3.775
5.102 2.109 3.732
3.711 3.610 4.361
3.826 3.428 4.227
3.971 3.144 4.062
4.199 2.954 4.071
4.436 2.725 3.888
4.487 2.645 3.678
4.648 2.288 3.558
4.854 2.147 3.445
3.692 3.443 3.984
3.796 3.249 3.983
3.902 2.966 3.740
4.175 2.729 3.696
4.333 2.589 3.566
4.464 2.345 3.395
1.846 5.100 5.068
2.030 4.990 4.991
2.337 4.706 4.763
3.761 2.902 3.567
4.016 2.703 3.367
4.147 2.548 3.162
1.841 5.606 5.020
2.100 5.411 4.985
2.292 5.231 4.769
2.369 5.021 4.711
3.834 3.407 3.496
4.014 3.110 3.397
4.149 2.959 3.245
4.287 2.813 3.199
1.628 5.800 5.097
1.687 5.595 4.836
1.953 5.473 4.701
1.983 5.234 4.675
2.179 4.996 4.409
2.391 4.869 4.354
1.140 5.937 4.864
1.413 5.763 4.855
1.583 5.619 4.599
1.747 5.320 4.552
1.915 5.173 4.411
1.989 4.962 4.231
2.138 4.750 4.042
1.214 6.031 4.932
0.895 5.989 4.654
1.158 5.837 4.598
1.392 5.609 4.444
1.469 5.305 4.341
1.650 5.190 4.154
1.785 5.065 4.052
1.956 4.793 3.921
0.891 6.193 4.784
1.021 6.073 4.745
0.812 5.953 4.493
0.918 5.872 4.348
1.084 5.550 4.212
1.286 5.293 4.067
1.432 5.248 3.919
1.723 4.951 3.853
1.874 4.850 3.694
3.942 2.264 1.778
0.576 6.263 4.602
0.856 5.919 4.542
0.681 5.928 4.233
0.738 5.814 4.023
1.015 5.639 3.907
1.138 5.453 3.875
1.214 5.142 3.723
3.434 2.622 1.889
3.604 2.451 1.753
3.829 2.233 1.562
0.382 6.271 4.309
0.659 5.995 4.332
0.468 5.960 4.088
0.562 5.780 3.867
0.715 5.649 3.734
0.914 5.332 3.522
3.098 2.684 1.823
3.276 2.562 1.652
3.512 2.429 1.543
3.677 2.238 1.326
0.176 6.092 4.147
0.360 6.062 4.031
0.202 5.976 3.703
0.468 5.789 3.738
2.743 2.887 1.685
2.878 2.682 1.494
3.179 2.605 1.325
3.331 2.316 1.171
3.532 2.190 1.098
-0.003 6.115 3.901
0.234 5.981 3.704
0.090 6.063 3.594
2.664 2.931 1.359
2.750 2.841 1.247
2.828 2.526 1.069
3.133 2.311 0.939
3.226 2.081 0.916
0.098 5.904 3.520
2.321 2.884 1.144
2.468 2.827 1.098
2.739 2.619 0.900
2.847 2.437 0.815
2.983 2.150 0.604
0.660 4.755 2.291
0.765 4.501 2.107
0.941 4.291 1.971
2.255 3.046 1.061
2.329 2.826 0.792
2.477 2.600 0.595
2.720 2.428 0.470
2.846 2.133 0.333
0.327 4.969 2.100
0.377 4.696 2.082
0.659 4.518 1.842
0.893 4.383 1.670
0.945 4.120 1.518
2.373 2.525 0.442
2.461 2.280 0.369
0.109 4.971 2.011
0.243 4.821 1.882
0.397 4.637 1.611
0.554 4.370 1.504
0.725 4.241 1.298
0.916 3.925 1.210
0.083 4.681 1.622
0.260 4.497 1.381
0.372 4.336 1.197
0.576 4.158 1.049
0.760 3.929 1.079
0.846 3.856 0.928
0.102 4.609 1.108
0.255 4.336 0.973
0.487 4.155 0.852
0.579 4.054 0.802
0.794 3.677 0.540
0.857 3.642 0.534
0.038 4.288 0.764
0.222 4.215 0.631
0.389 4.041 0.609
0.607 3.811 0.308
0.753 3.654 0.302
0.939 3.388 0.081
0.103 4.126 0.390
0.097 3.975 0.223
0.309 3.852 0.114
0.542 3.540 0.042
3.917 4.030 4.678
3.957 3.803 4.535
4.159 3.588 4.344
4.405 3.395 4.262
4.533 3.146 4.162
4.770 3.003 3.990
4.857 2.826 3.770
5.006 2.662 3.684
3.841 3.765 4.215
3.927 3.630 4.112
4.224 3.426 4.028
4.420 3.236 3.796
4.542 3.017 3.783
4.674 2.847 3.602
4.794 2.574 3.491
3.733 3.550 3.953
3.963 3.405 3.817
4.189 3.113 3.575
4.231 3.024 3.503
4.417 2.779 3.300
1.903 5.617 5.186
2.066 5.409 4.924
2.202 5.263 4.859
2.495 5.060 4.685
3.792 3.470 3.538
3.998 3.178 3.459
4.127 3.054 3.242
4.222 2.739 3.155
1.839 6.034 5.109
2.132 5.803 4.984
2.138 5.668 4.819
2.467 5.450 4.722
2.594 5.176 4.635
3.730 3.864 3.504
3.998 3.672 3.392
4.045 3.446 3.290
4.217 3.122 3.170
1.530 6.265 5.052
1.774 6.036 4.929
1.832 5.896 4.711
2.054 5.607 4.603
2.120 5.363 4.492
2.390 5.299 4.343
3.685 3.647 3.245
3.822 3.353 3.061
1.429 6.119 5.122
1.400 6.198 4.718
1.576 6.069 4.639
1.647 5.889 4.523
1.883 5.644 4.322
1.993 5.436 4.163
2.100 5.160 4.051
2.385 5.026 3.983
1.386 6.241 4.868
1.057 6.184 4.568
1.244 5.984 4.458
1.430 5.752 4.273
1.585 5.649 4.148
1.879 5.353 3.950
1.998 5.233 3.777
1.116 6.272 4.604
0.854 6.199 4.399
1.184 5.938 4.158
1.355 5.846 4.038
1.410 5.686 3.851
1.665 5.485 3.780
1.794 5.234 3.663
4.101 2.447 1.592
0.904 6.210 4.380
0.703 6.123 4.101
0.879 5.964 4.012
1.147 5.884 3.848
1.299 5.642 3.734
1.365 5.449 3.540
3.828 2.647 1.535
3.963 2.450 1.423
0.726 6.219 4.143
0.526 6.194 3.858
0.731 6.078 3.665
0.900 5.726 3.545
3.533 2.773 1.392
3.584 2.573 1.330
3.717 2.308 1.157
0.568 6.191 3.951
0.339 6.129 3.707
0.597 6.034 3.509
3.021 3.049 1.420
3.216 2.734 1.314
3.358 2.529 1.067
3.518 2.407 1.048
0.346 6.155 3.749
0.203 6.182 3.403
0.282 6.066 3.228
2.740 3.183 1.357
2.907 3.053 1.141
3.034 2.866 1.040
3.209 2.588 0.867
3.408 2.427 0.821
0.085 6.115 3.425
2.603 3.106 1.101
2.648 2.936 0.987
2.931 2.835 0.700
3.029 2.520 0.587
3.236 2.358 0.587
0.884 4.978 2.095
0.978 4.806 2.013
1.239 4.545 1.835
1.358 4.331 1.780
2.569 2.933 0.690
2.748 2.745 0.495
2.823 2.624 0.357
3.110 2.333 0.253
0.510 5.164 1.956
0.671 4.968 1.913
0.820 4.740 1.706
1.034 4.557 1.660
1.141 4.306 1.450
1.271 4.181 1.329
2.295 2.923 0.440
2.510 2.845 0.330
2.705 2.608 0.137
2.897 2.358 0.124
0.340 5.269 1.867
0.402 4.982 1.608
0.557 4.881 1.551
0.775 4.578 1.336
0.855 4.318 1.264
1.083 4.210 1.053
-0.023 5.215 1.509
0.236 4.977 1.402
0.488 4.774 1.310
0.664 4.641 1.144
0.752 4.371 0.951
0.884 4.171 0.873
1.094 4.058 0.676
-0.045 5.006 1.140
0.259 4.726 1.111
0.293 4.665 0.855
0.593 4.425 0.837
0.672 4.176 0.705
0.927 3.899 0.520
1.036 3.779 0.396
0.037 4.705 0.916
0.233 4.577 0.637
0.425 4.442 0.481
0.558 4.245 0.403
0.766 3.946 0.334
0.836 3.766 0.056
0.246 4.342 0.262
0.355 4.221 0.231
0.426 3.954 0.041
3.949 4.275 4.476
4.158 4.030 4.371
4.323 3.852 4.182
4.540 3.553 4.059
4.606 3.411 3.871
4.843 3.145 3.776
5.008 3.073 3.666
3.722 4.244 4.343
3.976 3.987 4.083
4.117 3.827 4.102
4.308 3.516 3.896
4.519 3.455 3.681
4.669 3.169 3.545
4.915 2.989 3.485
2.238 5.903 5.237
2.461 5.545 5.082
2.667 5.394 4.902
3.707 3.991 3.927
3.917 3.756 3.773
4.152 3.515 3.638
4.223 3.344 3.593
4.543 3.143 3.404
4.626 3.074 3.218
1.924 6.082 5.127
2.011 5.890 5.044
2.226 5.656 4.813
2.453 5.331 4.769
2.606 5.225 4.554
3.786 3.897 3.532
4.020 3.593 3.434
4.090 3.492 3.222
4.296 3.143 3.072
1.995 6.182 4.927
2.161 6.026 4.910
2.310 5.781 4.657
2.605 5.552 4.473
2.764 5.466 4.463
3.827 4.282 3.601
3.908 4.010 3.421
4.029 3.873 3.274
4.254 3.663 3.077
4.488 3.488 3.018
1.889 6.228 4.677
2.010 5.990 4.570
2.137 5.866 4.433
2.314 5.649 4.392
2.508 5.452 4.168
3.639 4.304 3.297
3.671 4.115 3.194
3.954 3.864 3.000
3.974 3.590 2.854
4.208 3.485 2.747
1.574 6.261 4.477
1.831 6.051 4.470
2.069 5.874 4.302
2.239 5.684 4.033
2.407 5.393 3.893
3.566 4.110 2.975
3.757 3.781 2.856
3.899 3.681 2.655
1.483 6.273 4.255
1.592 6.107 4.210
1.852 5.767 4.013
2.001 5.670 3.880
2.118 5.482 3.670
1.302 6.223 4.077
1.345 5.975 3.850
1.608 5.812 3.831
1.753 5.690 3.733
1.001 6.174 3.801
1.197 5.977 3.770
1.399 5.883 3.542
4.217 2.635 1.316
0.883 6.292 3.691
1.127 6.111 3.524
3.778 2.866 1.221
3.976 2.603 1.076
0.754 6.142 3.297
3.326 3.068 1.191
3.669 2.798 0.960
3.753 2.632 0.812
3.028 3.215 0.945
3.245 3.067 0.903
3.344 2.885 0.707
3.478 2.589 0.645
1.276 5.025 2.049
1.427 4.768 1.950
1.682 4.705 1.756
2.931 3.152 0.861
3.048 3.055 0.650
3.235 2.868 0.530
3.385 2.524 0.401
0.931 5.170 1.940
1.107 4.991 1.774
1.377 4.821 1.738
1.511 4.614 1.476
1.616 4.408 1.416
2.654 3.139 0.518
2.780 3.047 0.408
3.073 2.850 0.221
3.167 2.567 0.067
0.572 5.439 1.839
0.791 5.132 1.782
1.006 5.035 1.639
1.186 4.902 1.568
1.248 4.624 1.387
1.471 4.444 1.276
2.390 3.121 0.424
2.696 3.079 0.248
2.823 2.761 0.056
0.405 5.450 1.645
0.577 5.282 1.588
0.763 4.973 1.417
0.910 4.817 1.305
1.077 4.583 1.096
1.228 4.394 1.009
0.363 5.171 1.279
0.586 5.059 1.140
0.778 4.836 1.072
0.813 4.557 0.919
1.078 4.379 0.648
1.207 4.196 0.606
0.249 5.216 1.027
0.284 4.958 0.864
0.569 4.760 0.824
0.783 4.572 0.612
0.799 4.433 0.532
1.092 4.155 0.391
0.165 5.050 0.648
0.426 4.845 0.496
0.597 4.650 0.383
0.646 4.342 0.317
0.900 4.136 0.140
0.059 4.725 0.374
0.290 4.639 0.246
0.471 4.407 -0.014
4.170 4.522 4.470
4.306 4.268 4.340
4.565 4.081 4.130
4.663 3.825 3.899
4.869 3.660 3.897
5.039 3.515 3.677
2.552 6.103 5.231
2.711 5.772 5.128
3.941 4.362 4.099
4.174 4.213 3.937
4.317 3.951 3.810
4.436 3.803 3.747
4.711 3.638 3.596
4.806 3.459 3.461
5.005 3.192 3.318
2.229 6.275 5.250
2.435 5.967 5.040
2.625 5.766 4.948
2.816 5.615 4.757
3.931 4.236 3.731
4.064 4.044 3.691
4.320 3.780 3.579
4.434 3.573 3.397
4.543 3.366 3.223
4.799 3.288 3.165
2.058 6.209 5.060
2.168 5.962 4.830
2.350 5.876 4.696
2.577 5.555 4.593
2.793 5.361 4.370
3.695 4.208 3.499
3.844 3.993 3.414
4.067 3.785 3.223
4.219 3.627 3.104
4.338 3.433 3.002
2.284 6.333 4.740
2.466 6.009 4.541
2.669 5.812 4.460
2.857 5.744 4.358
3.983 4.450 3.368
4.048 4.174 3.358
4.192 4.004 3.118
4.339 3.927 3.053
4.559 3.563 2.923
2.239 6.340 4.564
2.292 6.093 4.337
2.579 5.828 4.146
2.603 5.633 4.128
3.662 4.412 3.134
3.825 4.210 3.150
4.105 3.997 2.967
4.291 3.921 2.710
4.464 3.721 2.658
1.982 6.201 4.314
2.116 6.046 4.116
2.353 5.769 3.913
3.421 4.356 2.985
3.642 4.215 2.904
3.880 4.022 2.654
4.077 3.876 2.584
4.237 3.682 2.488
1.864 6.262 4.025
1.990 6.049 3.977
2.167 5.928 3.810
3.242 4.511 2.781
3.471 4.192 2.539
3.745 4.033 2.393
3.878 3.788 2.297
1.656 6.335 3.721
1.699 6.009 3.736
3.058 4.473 2.537
3.351 4.216 2.359
4.101 2.754 0.958
1.994 5.129 2.202
2.247 4.899 2.142
2.398 4.678 1.930
3.718 2.972 0.873
3.852 2.827 0.700
1.693 5.307 2.196
1.861 5.050 1.993
2.001 4.778 1.834
2.104 4.663 1.821
3.461 3.236 0.713
3.505 2.946 0.695
3.793 2.921 0.403
1.377 5.407 2.085
1.529 5.279 1.949
1.729 4.954 1.737
1.892 4.827 1.728
2.078 4.606 1.441
3.102 3.349 0.608
3.214 3.229 0.526
3.306 3.027 0.465
3.518 2.811 0.332
1.132 5.357 1.912
1.264 5.295 1.723
1.412 4.949 1.600
1.575 4.858 1.407
1.758 4.687 1.348
2.765 3.398 0.395
2.948 3.189 0.263
3.243 3.021 0.212
3.342 2.869 0.028
0.891 5.458 1.655
1.057 5.268 1.576
1.348 5.077 1.367
1.474 4.770 1.159
1.686 4.608 1.110
2.602 3.343 0.260
2.890 3.181 -0.014
0.785 5.377 1.338
0.907 5.263 1.308
1.115 5.123 1.208
1.268 4.909 0.897
1.470 4.718 0.883
0.604 5.412 1.215
0.760 5.161 0.990
0.912 5.015 0.923
1.103 4.896 0.676
1.175 4.718 0.672
0.483 5.176 0.861
0.598 5.062 0.685
0.913 4.767 0.515
0.948 4.675 0.404
1.176 4.449 0.213
0.538 4.960 0.346
0.691 4.808 0.269
0.850 4.546 0.114
0.998 4.351 -0.079
2.969 6.233 5.375
3.115 6.002 5.297
4.349 4.696 4.214
4.387 4.528 4.154
4.577 4.193 4.004
4.757 4.058 3.757
4.936 3.797 3.695
2.750 6.231 5.210
2.997 6.009 5.016
3.049 5.898 4.979
4.320 4.411 3.932
4.419 4.278 3.711
4.538 3.982 3.544
4.749 3.864 3.469
5.015 3.593 3.332
2.581 6.196 4.987
2.724 6.078 4.751
2.959 5.859 4.583
3.141 5.573 4.532
4.021 4.505 3.600
4.195 4.162 3.530
4.453 4.001 3.433
4.567 3.784 3.287
4.823 3.610 3.172
2.312 6.196 4.646
2.606 6.078 4.630
2.656 5.865 4.470
2.911 5.728 4.352
3.815 4.525 3.505
4.130 4.327 3.277
4.256 4.001 3.112
4.361 3.878 3.090
4.606 3.569 2.822
2.647 6.277 4.390
2.761 6.079 4.295
2.985 5.871 4.165
3.965 4.618 3.396
4.268 4.422 3.253
4.328 4.281 3.096
4.467 4.095 2.858
4.765 3.926 2.809
2.476 6.220 4.140
2.600 6.059 4.077
2.755 5.914 3.952
3.865 4.698 3.069
3.970 4.400 2.994
4.205 4.179 2.856
4.405 3.978 2.650
4.482 3.916 2.482
2.224 6.230 3.934
2.555 6.125 3.816
3.472 4.820 2.972
3.710 4.733 2.851
3.760 4.414 2.752
4.037 4.337 2.617
4.124 4.117 2.397
4.276 3.814 2.217
3.288 4.919 2.808
3.478 4.604 2.590
3.677 4.420 2.433
3.901 4.237 2.345
3.923 4.115 2.259
4.149 3.851 2.010
3.175 4.890 2.619
3.350 4.686 2.361
3.459 4.463 2.263
3.583 4.255 2.130
3.777 3.978 1.888
2.668 5.030 2.486
2.962 4.859 2.238
3.093 4.612 2.101
3.277 4.532 1.951
3.403 4.200 1.850
2.311 5.199 2.332
2.529 5.100 2.196
2.643 4.861 2.064
2.978 4.735 1.940
3.034 4.522 1.796
2.106 5.528 2.257
2.103 5.334 2.042
2.402 5.149 1.947
2.601 4.900 1.884
2.778 4.712 1.627
1.642 5.725 2.234
1.855 5.537 2.082
2.033 5.268 1.846
2.214 5.123 1.775
2.421 4.835 1.672
2.592 4.618 1.529
3.625 3.302 0.398
3.963 3.063 0.253
1.460 5.585 1.940
1.564 5.372 1.767
1.760 5.205 1.661
1.928 5.035 1.483
2.056 4.878 1.422
3.315 3.499 0.345
3.571 3.213 0.308
3.683 3.104 0.187
1.282 5.674 1.665
1.474 5.484 1.672
1.563 5.217 1.381
1.692 4.971 1.241
1.926 4.857 1.164
3.028 3.570 0.318
3.165 3.411 0.133
3.364 3.196 -0.000
1.124 5.733 1.425
1.171 5.389 1.286
1.408 5.282 1.242
1.646 5.086 1.061
1.737 4.885 0.947
2.857 3.637 -0.007
0.873 5.696 1.252
1.058 5.433 1.108
1.185 5.328 0.946
1.395 4.994 0.806
1.584 4.781 0.686
0.857 5.411 0.986
1.037 5.298 0.735
1.156 5.142 0.573
3.239 6.371 5.051
3.387 6.088 4.982
4.818 4.435 3.840
4.892 4.345 3.722
3.024 6.366 4.954
3.240 6.064 4.825
3.418 5.845 4.586
4.442 4.746 3.816
4.577 4.458 3.682
4.769 4.343 3.516
4.947 4.152 3.331
2.838 6.202 4.632
2.985 6.153 4.536
3.294 5.869 4.353
4.170 4.691 3.596
4.421 4.455 3.458
4.636 4.326 3.179
4.842 3.982 3.029
4.925 3.907 2.951
2.688 6.191 4.447
2.940 6.091 4.281
3.111 5.911 4.115
4.091 4.722 3.308
4.225 4.454 3.206
4.439 4.326 3.088
4.559 4.158 2.828
4.814 3.893 2.813
3.244 6.038 3.984
4.148 4.941 3.139
4.384 4.778 3.072
4.545 4.543 2.923
4.637 4.249 2.805
4.825 4.176 2.674
4.044 4.839 3.009
4.108 4.691 2.851
4.340 4.424 2.742
4.598 4.349 2.532
4.739 4.156 2.418
4.925 3.918 2.292
3.560 5.066 2.928
3.831 4.884 2.732
3.987 4.712 2.631
4.073 4.506 2.435
4.328 4.268 2.353
4.468 4.170 2.129
4.647 3.827 2.078
3.427 5.147 2.651
3.658 4.971 2.491
3.739 4.711 2.390
3.947 4.529 2.206
4.149 4.272 2.115
4.272 4.171 1.979
3.094 5.240 2.620
3.237 5.003 2.362
3.489 4.960 2.247
3.691 4.757 2.122
3.749 4.443 2.067
3.968 4.295 1.851
4.028 4.156 1.759
2.775 5.502 2.479
2.907 5.286 2.344
3.156 5.078 2.227
3.313 4.902 2.037
3.404 4.656 1.929
3.557 4.572 1.742
3.703 4.259 1.632
2.384 5.769 2.397
2.589 5.496 2.274
2.791 5.277 2.111
2.848 5.130 1.950
2.977 4.856 1.774
3.274 4.704 1.669
3.306 4.426 1.528
2.037 5.923 2.205
2.119 5.688 2.224
2.350 5.507 2.075
2.584 5.373 1.863
2.707 5.137 1.665
2.778 4.937 1.619
3.099 4.733 1.348
1.586 6.142 2.170
1.860 5.832 2.126
1.978 5.742 1.914
2.219 5.494 1.751
2.392 5.258 1.567
2.438 5.005 1.467
2.686 4.861 1.330
1.500 6.042 2.032
1.661 5.802 1.902
1.786 5.736 1.668
1.908 5.439 1.608
2.214 5.306 1.357
2.212 5.088 1.258
3.572 3.394 0.175
1.179 6.139 1.761
1.509 5.902 1.547
1.641 5.724 1.540
1.680 5.567 1.314
2.019 5.207 1.218
2.108 5.020 1.082
3.140 3.872 0.166
3.242 3.622 0.109
1.182 5.848 1.392
1.409 5.673 1.272
1.646 5.463 1.111
1.766 5.288 0.856
1.288 5.751 1.037
1.294 5.535 0.914
1.582 5.219 0.718
3.721 6.161 4.727
3.488 6.091 4.476
3.426 6.118 4.211
4.516 4.636 3.217
4.803 4.419 3.197
4.963 4.244 2.972
4.999 4.052 2.913
3.145 6.186 4.116
4.290 4.958 3.132
4.283 4.762 3.011
4.468 4.514 2.957
4.779 4.369 2.704
4.965 4.062 2.597
4.466 4.960 2.871
4.614 4.623 2.838
4.908 4.569 2.713
4.959 4.357 2.494
4.116 5.148 2.902
4.397 4.824 2.702
4.497 4.667 2.494
4.714 4.476 2.370
4.923 4.352 2.315
4.988 4.105 2.046
3.803 5.387 2.798
3.880 5.173 2.621
4.152 4.961 2.528
4.232 4.798 2.244
4.478 4.571 2.256
4.712 4.292 1.967
4.770 4.098 1.885
3.559 5.388 2.504
3.730 5.040 2.336
3.917 4.989 2.180
4.160 4.674 2.168
4.363 4.521 1.894
4.421 4.320 1.805
4.710 4.189 1.667
3.333 5.483 2.373
3.379 5.230 2.216
3.606 5.189 2.165
3.807 4.905 1.933
3.838 4.663 1.838
4.128 4.479 1.677
4.222 4.283 1.615
4.437 4.193 1.350
2.676 5.992 2.529
2.870 5.798 2.371
3.082 5.547 2.264
3.199 5.248 2.070
3.450 5.098 1.919
3.622 4.865 1.763
3.723 4.701 1.616
3.812 4.568 1.559
4.052 4.337 1.300
2.363 6.073 2.306
2.466 5.917 2.296
2.702 5.653 2.052
2.813 5.419 1.985
3.056 5.391 1.846
3.140 5.053 1.625
3.340 4.940 1.461
3.487 4.784 1.404
2.089 6.055 2.222
2.404 5.922 2.104
2.485 5.775 1.899
2.711 5.532 1.676
2.827 5.265 1.514
3.077 5.164 1.457
3.229 4.988 1.217
2.035 6.091 1.969
2.216 5.989 1.729
2.304 5.710 1.625
2.475 5.545 1.534
2.619 5.253 1.368
2.788 5.131 1.198
1.826 6.142 1.789
1.978 5.976 1.557
2.024 5.623 1.344
2.340 5.579 1.248
2.521 5.241 1.204
1.606 6.113 1.414
1.761 5.969 1.384
1.963 5.629 1.126
2.089 5.422 0.953
1.443 6.134 1.321
1.547 5.943 1.021
1.701 5.776 1.002
4.070 6.138 4.377
3.809 6.086 4.175
3.666 6.082 4.081
5.057 4.603 2.890
4.484 4.945 2.932
4.734 4.685 2.761
4.802 4.499 2.679
4.995 4.278 2.571
4.877 4.878 2.564
5.071 4.745 2.532
5.158 4.468 2.326
5.370 4.326 2.283
4.422 5.068 2.520
4.704 4.870 2.431
4.760 4.787 2.276
5.015 4.618 2.163
5.125 4.244 1.926
5.352 4.180 1.767
4.193 5.367 2.474
4.298 5.103 2.288
4.550 4.849 2.260
4.634 4.734 2.012
4.725 4.513 1.878
4.916 4.273 1.725
5.084 4.069 1.587
3.803 5.609 2.377
4.000 5.382 2.161
4.072 5.069 2.066
4.353 4.981 1.959
4.451 4.701 1.852
4.590 4.571 1.628
4.778 4.268 1.499
4.985 4.206 1.404
3.418 5.667 2.211
3.499 5.619 2.080
3.803 5.331 1.991
3.912 5.065 1.944
4.095 4.899 1.706
4.179 4.729 1.509
4.424 4.546 1.442
4.663 4.323 1.308
4.784 4.221 1.068
2.942 6.211 2.346
3.021 5.993 2.157
3.127 5.777 2.068
3.338 5.485 1.846
3.600 5.265 1.737
3.638 5.159 1.587
3.966 5.021 1.462
4.137 4.800 1.421
4.272 4.510 1.269
2.694 6.089 2.144
2.767 6.011 1.882
3.009 5.727 1.828
3.176 5.508 1.689
3.390 5.256 1.533
3.530 5.138 1.430
3.756 5.018 1.321
2.416 6.075 1.920
2.690 6.008 1.692
2.897 5.674 1.555
3.053 5.555 1.544
3.206 5.257 1.231
3.272 5.105 1.261
2.251 6.114 1.737
2.458 5.947 1.573
2.579 5.791 1.391
2.723 5.452 1.286
2.029 6.101 1.354
2.246 5.934 1.296
2.524 5.693 1.137
2.546 5.570 0.964
1.945 6.108 1.271
2.026 5.868 1.043
2.156 5.676 0.938
4.476 6.162 4.102
4.247 6.056 3.987
4.760 4.892 2.576
4.930 4.775 2.412
5.113 4.547 2.424
5.400 4.328 2.240
5.348 4.826 2.314
5.432 4.643 2.127
4.734 5.172 2.196
4.910 5.046 2.147
5.070 4.725 1.944
5.231 4.643 1.770
5.531 4.396 1.726
4.502 5.287 2.185
4.620 5.106 2.105
4.775 5.042 1.866
5.018 4.821 1.701
5.111 4.645 1.655
5.224 4.271 1.569
5.430 4.131 1.322
4.057 5.469 2.109
4.223 5.290 2.036
4.376 5.063 1.882
4.634 5.041 1.587
4.704 4.706 1.577
4.947 4.462 1.331
5.192 4.327 1.188
5.239 4.160 1.086
5.497 3.940 0.889
3.631 5.816 1.987
3.847 5.638 1.830
4.023 5.349 1.707
4.297 5.116 1.608
4.325 4.917 1.432
4.502 4.786 1.394
4.694 4.621 1.206
4.988 4.443 1.028
5.015 4.227 0.848
5.198 4.035 0.806
3.228 6.200 2.107
3.395 5.911 1.970
3.477 5.729 1.815
3.665 5.467 1.724
3.813 5.387 1.484
3.954 5.179 1.400
4.200 4.928 1.285
4.290 4.764 1.123
4.525 4.592 0.846
4.721 4.377 0.769
4.934 4.137 0.561
3.071 6.096 1.786
3.141 5.873 1.789
3.413 5.834 1.517
3.575 5.558 1.464
3.600 5.435 1.307
2.786 6.141 1.541
2.961 6.038 1.496
3.134 5.786 1.399
2.585 6.228 1.349
2.735 6.028 1.314
2.411 6.085 1.093
2.543 5.920 0.925
4.788 6.101 3.838
4.487 6.225 3.742
5.304 4.820 2.282
5.509 4.599 2.163
5.617 4.763 1.870
5.915 4.669 1.845
5.117 5.211 1.971
5.374 4.945 1.800
5.448 4.761 1.793
5.628 4.507 1.556
5.884 4.383 1.502
6.012 4.225 1.258
4.805 5.326 2.002
4.970 5.106 1.725
5.200 5.044 1.652
5.260 4.818 1.538
5.459 4.500 1.370
5.560 4.330 1.173
5.863 4.238 1.055
4.577 5.337 1.645
4.805 5.209 1.492
4.878 4.887 1.490
5.127 4.853 1.255
5.327 4.500 1.135
5.519 4.342 0.921
5.595 4.188 0.896
4.428 5.372 1.475
4.547 5.255 1.288
4.635 5.023 1.120
4.807 4.708 1.097
5.065 4.566 0.885
5.292 4.455 0.691
5.342 4.260 0.605
4.419 5.166 1.105
4.490 4.934 0.904
4.675 4.864 0.891
4.944 4.663 0.739
5.003 4.329 0.516
5.155 4.082 0.301
5.098 4.118 0.144
5.069 6.211 3.584
5.229 5.954 3.560
4.841 6.168 3.370
5.638 4.727 1.973
5.761 4.611 1.817
5.803 4.922 1.805
6.055 4.716 1.737
6.142 4.568 1.493
5.433 5.179 1.740
5.646 5.016 1.556
5.859 4.888 1.452
5.971 4.531 1.328
6.128 4.410 1.154
5.059 5.356 1.615
5.346 5.231 1.586
5.358 5.066 1.397
5.692 4.890 1.263
5.803 4.570 1.042
5.889 4.344 0.906
4.931 5.362 1.346
5.154 5.137 1.279
5.329 5.022 1.115
5.494 4.786 0.940
5.551 4.628 0.845
5.794 4.334 0.699
4.947 5.205 0.963
5.138 4.941 0.957
5.197 4.730 0.737
5.462 4.633 0.675
5.542 4.325 0.514
4.775 4.910 0.685
4.987 4.857 0.586
5.159 4.631 0.351
5.387 4.387 0.221
4.915 4.501 0.079
5.100 4.466 -0.032
5.381 6.238 3.379
5.502 5.992 3.131
5.099 6.138 3.191
5.746 4.909 1.747
6.059 4.760 1.696
6.184 4.560 1.611
6.030 5.275 1.606
6.220 4.972 1.507
5.677 5.368 1.618
5.704 5.184 1.525
5.903 4.993 1.236
6.151 4.764 1.251
5.460 5.500 1.432
5.661 5.251 1.279
5.803 4.971 1.036
5.981 4.876 0.904
6.129 4.694 0.795
5.221 5.493 1.120
5.465 5.208 0.968
5.491 5.022 0.814
5.732 4.860 0.695
5.984 4.548 0.572
5.277 5.189 0.805
5.388 5.017 0.551
5.463 4.755 0.474
5.723 4.650 0.271
5.118 5.002 0.319
5.377 4.799 0.276
5.470 4.563 0.060
5.217 4.806 0.032
5.731 6.303 3.173
5.420 6.139 2.906
5.935 5.258 1.631
6.207 5.038 1.539
1.220 2.725 5.729
1.319 2.670 5.550
1.501 2.475 5.382
1.701 2.210 5.232
1.829 2.045 5.209
2.844 0.755 4.287
3.164 0.611 4.229
3.321 0.384 3.934
3.378 0.137 3.804
0.972 2.865 5.490
1.201 2.588 5.391
1.441 2.375 5.118
1.438 2.188 5.090
2.675 0.716 3.986
2.926 0.584 3.841
3.037 0.435 3.859
3.264 0.111 3.592
2.599 0.854 3.852
2.655 0.553 3.594
2.923 0.454 3.608
3.101 0.222 3.453
2.290 0.799 3.633
2.447 0.518 3.480
2.717 0.450 3.239
2.803 0.216 3.131
2.232 0.495 3.275
2.459 0.426 3.039
2.728 0.127 2.965
2.238 0.354 2.811
2.546 0.191 2.693
2.195 0.153 2.417
0.536 1.495 2.861
0.701 1.399 2.721
0.880 1.263 2.446
0.388 1.483 2.599
0.393 1.361 2.480
0.711 1.244 2.332
0.779 0.927 2.070
0.144 1.496 2.320
0.308 1.333 2.270
0.541 1.228 1.977
0.649 1.057 1.875
0.838 0.846 1.834
0.099 1.346 2.046
0.340 1.245 1.758
0.450 1.021 1.674
0.688 0.695 1.577
0.006 1.079 1.629
0.322 0.982 1.391
0.489 0.841 1.260
0.103 1.045 1.262
1.902 2.608 6.293
2.114 2.424 6.193
2.378 2.202 6.011
2.458 1.939 5.882
2.702 1.853 5.609
1.573 2.872 6.212
1.765 2.620 6.062
1.859 2.359 5.832
2.095 2.203 5.656
2.185 1.964 5.539
2.526 1.849 5.433
1.285 3.009 6.026
1.370 2.786 5.948
1.507 2.560 5.866
1.797 2.312 5.694
1.851 2.161 5.595
2.072 1.957 5.319
3.318 0.521 4.456
3.371 0.412 4.238
3.568 0.195 4.095
1.165 2.869 5.776
1.410 2.660 5.476
1.584 2.425 5.507
1.699 2.211 5.327
1.936 2.053 5.157
2.823 0.828 4.243
3.011 0.555 4.192
3.299 0.437 4.084
3.415 0.115 3.893
1.268 2.967 5.596
1.490 2.755 5.527
1.725 2.532 5.276
1.902 2.403 5.212
2.064 2.289 4.969
2.977 1.017 4.192
3.204 0.889 3.936
3.490 0.604 3.919
3.615 0.478 3.656
0.163 4.143 6.161
1.216 3.023 5.266
1.276 2.810 5.194
1.583 2.631 5.065
1.762 2.349 4.966
1.823 2.137 4.701
2.821 1.014 4.007
2.987 0.756 3.739
3.207 0.573 3.580
3.324 0.343 3.508
0.071 4.257 6.151
1.160 2.730 4.926
1.264 2.535 4.761
1.404 2.321 4.730
1.685 2.166 4.627
2.634 1.041 3.620
2.820 0.858 3.584
3.073 0.597 3.352
3.272 0.455 3.247
1.144 2.579 4.559
1.259 2.324 4.439
2.596 0.813 3.401
2.874 0.551 3.119
3.005 0.389 3.006
2.599 0.583 2.889
2.858 0.357 2.857
2.642 0.326 2.515
0.921 1.716 2.803
1.029 1.551 2.783
1.107 1.330 2.517
0.561 2.087 2.881
0.626 1.741 2.649
0.839 1.587 2.451
0.944 1.445 2.336
1.157 1.239 2.250
0.316 1.914 2.570
0.396 1.859 2.354
0.567 1.676 2.363
0.725 1.319 2.136
1.023 1.118 2.064
0.005 1.997 2.425
0.254 1.822 2.179
0.437 1.631 2.042
0.533 1.473 1.874
0.779 1.133 1.744
0.127 1.837 2.025
0.327 1.607 1.743
0.487 1.452 1.730
0.550 1.117 1.551
0.062 1.580 1.541
0.198 1.425 1.525
0.441 1.183 1.365
-0.027 1.303 1.305
1.969 2.927 6.204
2.087 2.868 6.096
2.326 2.593 5.951
2.425 2.488 5.814
2.642 2.222 5.710
2.879 2.020 5.467
4.193 0.340 4.417
1.811 3.023 5.954
1.995 2.812 5.844
2.058 2.648 5.721
2.312 2.363 5.672
2.504 2.144 5.544
2.546 1.973 5.410
3.574 0.728 4.474
3.752 0.670 4.360
3.907 0.378 4.224
1.500 2.941 5.895
1.647 2.881 5.631
1.981 2.556 5.519
2.069 2.447 5.435
2.171 2.210 5.175
3.216 0.942 4.352
3.466 0.826 4.235
3.687 0.689 4.096
3.713 0.402 4.011
1.303 3.069 5.554
1.531 2.802 5.509
1.680 2.661 5.328
1.937 2.483 5.091
2.023 2.233 4.994
3.027 0.945 4.107
3.228 0.844 4.016
3.475 0.527 3.956
3.504 0.462 3.678
1.533 3.196 5.410
1.764 3.040 5.351
1.866 2.904 5.238
2.087 2.645 5.110
2.147 2.432 4.866
3.134 1.176 3.974
3.355 0.944 3.889
3.648 0.737 3.719
3.747 0.569 3.622
0.341 4.395 6.006
1.379 3.150 5.256
1.547 3.095 5.094
1.682 2.897 4.897
1.808 2.576 4.879
2.067 2.419 4.615
3.023 1.216 3.875
3.173 1.004 3.699
3.278 0.891 3.601
3.612 0.641 3.408
0.111 4.651 6.212
0.243 4.519 6.118
0.097 4.437 5.773
1.055 3.238 4.975
1.284 3.027 4.885
1.476 2.739 4.670
1.702 2.548 4.517
1.790 2.477 4.437
3.073 0.992 3.348
3.158 0.811 3.197
3.326 0.590 3.215
0.135 4.516 5.773
1.094 3.039 4.575
1.289 2.791 4.548
1.489 2.694 4.374
1.597 2.516 4.276
1.729 2.296 4.107
3.039 0.732 3.119
3.182 0.530 2.929
0.998 2.846 4.286
1.254 2.583 4.036
1.473 2.448 3.887
1.587 2.133 3.756
2.964 0.569 2.672
1.103 2.698 3.787
1.253 2.506 3.714
1.382 2.190 3.508
0.996 2.428 3.415
1.165 2.267 3.348
1.398 1.979 3.146
1.605 1.772 3.098
0.909 2.345 3.216
1.089 2.153 3.180
1.179 1.943 2.990
1.413 1.846 2.818
1.516 1.682 2.727
0.763 2.228 2.886
1.043 2.029 2.836
1.183 1.906 2.565
1.373 1.577 2.416
1.431 1.369 2.354
0.703 2.261 2.750
0.805 2.045 2.567
1.029 1.843 2.407
1.149 1.547 2.222
1.339 1.385 2.149
0.500 2.139 2.462
0.666 2.029 2.370
0.694 1.812 2.141
0.976 1.637 1.984
1.163 1.458 1.848
0.211 2.186 2.205
0.437 2.025 2.042
0.672 1.728 1.857
0.687 1.633 1.831
0.890 1.477 1.588
0.119 2.240 2.032
0.260 1.942 1.920
0.386 1.742 1.649
0.535 1.558 1.572
0.790 1.384 1.382
-0.000 2.070 1.567
0.165 1.898 1.558
0.296 1.639 1.341
0.035 1.848 1.300
2.177 2.995 5.904
2.350 2.866 5.871
2.607 2.580 5.652
2.825 2.366 5.543
4.001 1.024 4.481
4.050 0.819 4.496
4.218 0.719 4.246
1.919 3.193 5.987
2.065 3.087 5.813
2.212 2.793 5.585
2.344 2.720 5.511
2.643 2.414 5.298
3.764 1.047 4.337
4.002 0.795 4.255
4.159 0.708 4.106
1.658 3.161 5.705
1.826 3.018 5.515
2.134 2.772 5.315
2.217 2.618 5.308
2.337 2.429 5.017
3.421 1.298 4.296
3.505 0.984 4.094
3.817 0.881 3.936
3.938 0.654 3.840
1.579 3.236 5.418
1.599 3.037 5.378
1.782 2.792 5.229
2.111 2.682 5.011
2.150 2.489 4.896
3.241 1.277 4.008
3.422 1.079 3.883
3.478 0.823 3.661
3.796 0.546 3.540
1.638 3.372 5.394
1.834 3.207 5.134
2.042 3.096 5.105
2.180 2.802 4.875
2.399 2.648 4.797
3.283 1.529 3.837
3.513 1.197 3.700
3.789 1.032 3.689
3.861 0.925 3.404
1.324 3.584 5.164
1.421 3.421 5.076
1.565 3.302 4.952
1.787 3.019 4.804
2.073 2.853 4.582
2.094 2.643 4.548
3.369 1.204 3.557
3.481 1.094 3.326
3.746 0.763 3.181
0.251 4.886 6.080
1.162 3.571 5.091
1.346 3.410 4.942
1.369 3.168 4.699
1.582 3.094 4.611
1.855 2.925 4.394
2.011 2.601 4.262
2.177 2.362 4.130
3.390 1.087 3.110
3.571 0.781 3.006
1.081 3.405 4.612
1.320 3.216 4.420
1.506 3.040 4.284
1.556 2.817 4.295
1.700 2.723 4.149
1.983 2.376 3.984
1.094 3.210 4.333
1.153 3.001 4.066
1.335 2.860 4.054
1.618 2.607 3.828
1.657 2.388 3.602
1.926 2.227 3.561
1.089 3.108 3.871
1.164 2.878 3.715
1.434 2.641 3.678
1.485 2.495 3.462
1.804 2.189 3.278
1.853 1.967 3.109
1.046 2.828 3.578
1.247 2.682 3.338
1.439 2.454 3.299
1.602 2.190 3.075
1.642 2.021 2.868
1.933 1.844 2.730
0.908 2.626 3.122
1.166 2.456 3.001
1.262 2.242 2.945
1.465 2.017 2.773
1.710 1.762 2.583
1.859 1.717 2.505
0.819 2.724 2.917
0.976 2.488 2.841
1.111 2.314 2.611
1.348 2.099 2.508
1.475 1.756 2.316
1.689 1.619 2.275
0.800 2.456 2.587
0.867 2.240 2.472
1.164 1.985 2.276
1.231 1.903 2.063
1.377 1.623 1.979
1.682 1.377 1.833
0.569 2.505 2.306
0.707 2.237 2.200
0.882 2.012 2.047
1.086 1.872 1.876
1.335 1.601 1.727
1.395 1.487 1.554
0.351 2.357 2.059
0.645 2.271 1.895
0.679 2.039 1.735
0.862 1.803 1.738
1.094 1.580 1.488
0.410 2.309 1.697
0.630 2.015 1.600
0.650 1.846 1.509
1.044 0.780 -0.044
4.002 1.540 4.536
4.172 1.290 4.493
4.258 1.136 4.363
4.487 0.843 4.227
2.185 3.246 5.664
2.370 3.064 5.438
2.493 2.852 5.427
3.846 1.380 4.398
3.851 1.198 4.220
4.138 0.993 4.037
4.228 0.789 4.001
1.820 3.489 5.573
1.944 3.177 5.425
2.157 2.981 5.229
2.411 2.928 5.168
2.553 2.649 4.896
3.480 1.498 4.070
3.760 1.327 4.049
3.933 1.070 3.757
3.997 0.842 3.757
1.646 3.467 5.251
1.763 3.208 5.247
1.984 3.090 4.962
2.181 2.812 4.893
2.259 2.690 4.791
3.400 1.433 3.942
3.601 1.320 3.791
3.801 1.075 3.577
3.852 0.771 3.516
1.727 3.665 5.235
1.962 3.449 5.044
2.117 3.264 4.923
2.320 3.088 4.829
3.601 1.606 3.737
3.734 1.454 3.714
3.783 1.303 3.456
3.955 1.080 3.318
0.577 5.059 6.191
1.461 3.958 5.026
1.568 3.654 5.011
1.801 3.506 4.731
1.959 3.298 4.661
2.065 3.065 4.499
2.347 2.909 4.342
3.435 1.387 3.313
3.666 1.318 3.317
3.848 1.088 3.111
1.299 3.803 4.964
1.366 3.643 4.686
1.635 3.550 4.622
1.835 3.297 4.489
2.016 3.072 4.367
2.145 2.853 4.090
2.310 2.663 3.975
1.046 3.898 4.681
1.228 3.643 4.431
1.411 3.510 4.363
1.639 3.245 4.142
1.790 3.091 4.029
1.956 2.856 4.008
2.066 2.745 3.703
1.022 3.726 4.252
1.309 3.502 4.116
1.452 3.187 4.013
1.553 3.142 3.881
1.664 2.942 3.671
1.873 2.743 3.618
2.074 2.532 3.407
0.975 3.431 3.813
1.189 3.348 3.798
1.321 3.090 3.537
1.523 2.914 3.448
1.639 2.747 3.423
1.958 2.474 3.171
2.106 2.276 3.003
1.063 3.177 3.596
1.264 3.092 3.414
1.309 2.829 3.304
1.482 2.679 3.016
1.749 2.485 3.015
1.858 2.336 2.900
2.060 2.060 2.675
2.146 1.797 2.593
0.989 3.110 3.194
1.080 2.778 3.015
1.367 2.705 2.797
1.502 2.466 2.713
1.715 2.188 2.543
1.893 2.079 2.450
1.994 1.870 2.259
2.229 1.595 2.190
0.942 2.953 2.764
1.043 2.608 2.574
1.342 2.442 2.424
1.478 2.214 2.430
1.713 1.983 2.231
1.827 1.882 1.997
1.932 1.704 2.005
0.984 2.716 2.404
1.172 2.419 2.341
1.280 2.261 2.208
1.481 2.049 2.015
1.653 1.858 1.787
1.797 1.709 1.669
0.724 2.708 2.140
0.927 2.533 2.108
1.176 2.193 1.849
1.288 2.136 1.756
1.405 1.855 1.552
1.620 1.655 1.414
0.719 2.496 1.829
0.951 2.193 1.652
1.133 2.148 1.555
1.226 1.928 1.468
4.184 1.609 4.508
4.323 1.435 4.231
4.447 1.194 4.203
4.689 1.028 4.004
3.825 1.856 4.322
3.972 1.706 4.153
4.134 1.561 4.072
4.228 1.210 3.875
4.399 1.161 3.749
0.927 4.902 6.179
2.222 3.520 5.244
2.356 3.200 5.107
3.732 1.742 4.050
3.895 1.419 3.832
3.973 1.234 3.797
4.287 1.094 3.572
0.961 4.945 6.197
1.734 3.660 5.213
1.939 3.492 5.016
2.178 3.248 4.907
2.370 3.040 4.672
3.531 1.616 3.774
3.649 1.445 3.605
3.902 1.267 3.423
4.123 1.065 3.329
0.657 5.106 6.105
1.881 4.053 5.223
2.036 3.846 5.066
2.097 3.614 4.857
2.250 3.434 4.848
3.749 1.967 3.637
3.847 1.607 3.411
4.022 1.437 3.356
4.164 1.230 3.151
1.664 4.061 4.894
1.757 3.816 4.804
1.949 3.628 4.758
2.178 3.525 4.538
2.243 3.280 4.445
1.321 4.312 4.853
1.361 4.092 4.691
1.627 3.962 4.664
1.668 3.678 4.408
1.877 3.494 4.275
2.149 3.210 4.254
2.265 3.121 4.115
1.134 4.225 4.650
1.168 4.054 4.569
1.408 3.953 4.339
1.613 3.739 4.212
1.679 3.496 4.024
1.838 3.286 3.997
2.141 3.177 3.859
2.301 2.825 3.699
0.987 4.184 4.361
1.218 3.895 4.084
1.462 3.662 3.978
1.570 3.494 3.913
1.801 3.205 3.783
1.896 3.075 3.652
2.140 2.937 3.391
2.226 2.683 3.229
1.077 3.840 3.881
1.223 3.639 3.681
1.320 3.444 3.567
1.585 3.314 3.542
1.600 3.031 3.265
1.780 2.891 3.190
2.058 2.664 2.999
2.186 2.491 3.008
2.388 2.345 2.771
1.180 3.544 3.482
1.321 3.211 3.253
1.579 3.147 3.182
1.703 2.874 2.938
1.892 2.694 2.913
1.965 2.532 2.619
2.101 2.257 2.635
2.363 2.002 2.422
2.584 1.915 2.267
1.221 3.304 2.941
1.329 3.082 2.931
1.538 2.945 2.792
1.728 2.699 2.632
1.807 2.464 2.512
2.034 2.290 2.309
2.163 2.002 2.222
2.330 1.855 1.958
2.578 1.649 1.844
1.052 3.075 2.593
1.221 2.866 2.527
1.492 2.602 2.437
1.695 2.435 2.212
1.727 2.195 2.100
1.936 2.153 1.887
2.130 1.974 1.868
2.273 1.600 1.648
1.117 2.796 2.206
1.280 2.680 2.069
