2.513 4.400 0.685
1.442 2.678 0.538
1.293 2.448 0.567
1.209 2.219 0.670
1.056 2.024 0.648
0.796 1.813 0.489
3.253 5.136 0.774
2.959 4.885 0.869
2.879 4.733 0.814
2.838 4.430 0.745
2.082 6.316 0.093
1.994 5.977 0.104
2.277 6.119 0.166
2.136 5.814 0.297
1.881 5.680 0.285
2.386 5.992 0.402
2.330 5.791 0.294
2.110 5.593 0.312
1.919 5.295 0.274
2.588 5.852 0.436
2.509 5.543 0.410
2.168 5.532 0.449
2.038 5.210 0.410
1.900 5.093 0.473
2.639 5.660 0.584
2.624 5.573 0.666
2.473 5.280 0.661
2.385 5.043 0.603
2.076 4.947 0.484
0.878 2.690 0.487
0.705 2.493 0.616
0.413 2.388 0.641
2.891 5.576 0.690
2.755 5.320 0.814
2.694 5.076 0.655
2.453 4.889 0.660
2.274 4.853 0.690
2.249 4.592 0.771
0.912 2.719 0.789
0.932 2.331 0.642
0.773 2.139 0.694
0.490 2.014 0.736
2.957 5.196 0.924
2.797 5.094 0.876
2.669 4.840 0.776
2.541 4.546 0.821
2.343 4.463 0.856
1.216 2.625 0.769
1.083 2.508 0.766
1.086 2.183 0.881
0.923 2.018 0.731
0.651 1.970 0.829
3.118 5.142 0.933
2.986 4.843 0.987
2.815 4.602 1.046
2.621 4.501 1.011
1.730 6.258 0.263
1.878 6.073 0.392
1.592 5.857 0.252
2.088 6.263 0.556
2.003 6.011 0.369
1.823 5.716 0.419
1.570 5.651 0.450
2.326 5.953 0.598
2.083 5.791 0.625
1.939 5.561 0.521
1.777 5.489 0.530
1.623 5.276 0.608
2.536 5.951 0.809
2.379 5.796 0.723
2.104 5.534 0.713
2.093 5.317 0.584
1.931 5.030 0.644
1.623 4.899 0.699
2.561 5.760 0.780
2.419 5.661 0.915
2.363 5.350 0.752
2.074 5.094 0.842
1.978 4.963 0.711
1.774 4.787 0.875
2.608 5.508 0.864
2.393 5.186 1.006
2.264 5.033 0.928
2.232 4.745 0.830
2.044 4.564 0.948
0.646 2.428 0.885
0.644 2.243 0.967
2.907 5.335 0.998
2.573 5.050 1.177
2.575 4.918 1.114
2.465 4.722 1.053
2.246 4.456 0.967
1.058 2.605 1.027
0.904 2.342 1.000
0.815 2.101 1.111
0.578 1.984 1.066
2.861 4.954 1.166
2.610 4.713 1.117
2.511 4.627 1.106
1.613 6.211 0.511
1.475 5.896 0.448
2.040 6.235 0.732
1.809 6.001 0.629
1.687 5.760 0.667
1.490 5.576 0.598
1.308 5.392 0.548
2.232 6.116 0.784
2.045 5.902 0.694
1.838 5.619 0.806
1.679 5.532 0.832
1.670 5.361 0.780
1.406 5.147 0.727
2.332 5.999 0.850
2.244 5.851 0.975
1.977 5.643 0.968
1.968 5.391 0.836
1.807 5.074 0.795
1.504 4.876 0.883
2.480 5.810 1.103
2.430 5.605 0.963
2.132 5.531 1.006
2.138 5.245 1.054
1.821 5.130 0.902
1.738 4.762 0.939
1.537 4.678 1.074
2.538 5.432 1.216
2.282 5.398 1.148
2.216 5.005 1.113
2.143 4.828 1.209
1.961 4.667 1.140
2.607 5.266 1.260
2.370 4.922 1.347
2.317 4.771 1.346
2.039 4.589 1.295
0.943 2.652 1.248
0.839 2.509 1.183
0.622 2.208 1.282
0.420 2.104 1.171
1.508 6.197 0.672
1.478 6.104 0.817
1.817 6.047 0.807
1.641 6.000 0.824
1.359 5.631 0.778
1.354 5.420 0.768
2.097 6.160 0.958
1.874 5.958 1.040
1.764 5.753 0.893
1.572 5.572 1.034
1.519 5.307 0.975
1.303 5.114 0.999
1.183 4.990 0.916
2.272 6.056 1.076
2.033 5.936 1.069
1.982 5.711 1.194
1.789 5.351 1.101
1.646 5.228 1.029
1.422 4.940 1.118
1.349 4.895 1.094
2.295 5.717 1.306
2.117 5.578 1.290
1.955 5.377 1.244
1.787 5.079 1.218
1.614 4.966 1.297
1.466 4.681 1.178
2.362 5.395 1.379
2.205 5.169 1.463
1.924 4.933 1.248
1.906 4.703 1.414
1.587 4.503 1.328
2.258 5.111 1.452
2.137 4.879 1.540
1.944 4.636 1.417
0.506 2.226 1.403
0.356 2.030 1.466
1.660 6.089 1.058
1.500 5.997 1.139
1.290 5.873 1.104
1.246 5.492 1.097
1.029 5.352 0.965
1.886 6.286 1.205
1.863 6.133 1.303
1.578 5.800 1.199
1.430 5.579 1.280
1.386 5.391 1.246
1.284 5.266 1.117
0.969 4.979 1.109
0.876 4.804 1.068
1.901 5.878 1.440
1.768 5.728 1.364
1.616 5.589 1.247
1.519 5.222 1.384
1.479 5.067 1.368
1.194 4.835 1.275
0.986 4.771 1.212
1.894 5.582 1.448
1.943 5.322 1.490
1.605 5.083 1.538
1.522 5.043 1.487
1.461 4.696 1.346
1.224 4.490 1.310
2.093 5.150 1.489
1.957 5.055 1.663
1.623 4.885 1.590
1.667 4.582 1.496
1.511 4.462 1.611
0.863 5.409 1.255
0.855 5.261 1.157
0.586 5.021 1.319
1.325 5.755 1.430
1.233 5.448 1.352
1.122 5.374 1.444
0.847 5.182 1.426
0.832 4.949 1.305
0.601 4.751 1.245
0.412 4.473 1.340
1.496 5.615 1.567
1.387 5.457 1.523
1.162 5.249 1.490
1.063 5.011 1.597
1.047 4.864 1.572
0.762 4.657 1.394
0.711 4.371 1.449
1.685 5.537 1.735
1.520 5.174 1.635
1.398 5.138 1.579
1.184 4.775 1.576
1.220 4.601 1.611
0.946 4.516 1.544
1.751 5.040 1.858
1.519 4.964 1.791
1.522 4.765 1.782
1.282 4.433 1.823
-0.037 6.209 5.604
0.299 6.181 5.689
0.134 5.934 5.679
0.080 5.823 5.682
0.353 6.194 5.976
0.078 6.121 5.992
6.185 4.931 0.362
6.036 4.864 0.171
6.125 4.788 0.401
6.043 4.474 0.330
6.288 4.278 0.405
6.204 5.358 0.531
6.093 5.148 0.463
6.020 4.915 0.548
5.698 4.776 0.556
5.741 4.547 0.418
5.561 4.240 0.464
6.179 4.870 0.563
6.203 4.866 0.591
6.020 4.643 0.635
5.779 4.328 0.476
6.051 4.527 0.623
6.035 4.246 0.625
5.037 4.593 0.392
4.898 4.433 0.443
5.446 4.946 0.460
5.355 4.661 0.624
5.292 4.450 0.591
5.108 4.338 0.581
6.103 5.361 0.634
6.018 5.224 0.706
5.808 5.006 0.619
5.710 4.738 0.697
5.486 4.649 0.668
5.390 4.381 0.605
5.299 4.208 0.701
6.255 5.047 0.880
5.963 4.791 0.722
5.791 4.634 0.766
5.715 4.522 0.778
5.579 4.270 0.854
5.497 3.972 0.865
6.085 4.612 0.901
5.977 4.470 0.852
5.898 4.379 0.920
5.703 4.141 0.840
6.151 4.355 1.007
5.956 4.079 0.966
4.575 4.729 0.419
5.090 4.930 0.548
4.967 4.770 0.571
4.720 4.493 0.527
5.378 4.991 0.807
5.325 4.800 0.667
5.180 4.521 0.647
4.904 4.362 0.638
5.776 5.141 0.983
5.805 5.116 0.959
5.631 4.908 0.815
5.519 4.698 0.877
5.216 4.403 0.962
5.086 4.292 0.831
6.140 5.324 1.073
6.030 5.022 0.983
5.805 4.866 0.965
5.664 4.613 1.063
5.587 4.555 1.072
5.519 4.371 1.012
5.222 4.015 1.003
6.264 4.924 1.118
5.966 4.746 1.250
5.908 4.629 1.192
5.850 4.454 1.195
5.570 4.078 1.073
5.501 3.862 1.097
6.320 4.717 1.280
6.032 4.354 1.342
5.900 4.218 1.287
5.718 3.964 1.340
6.233 4.295 1.418
6.148 4.092 1.409
6.182 4.094 1.705
4.259 4.883 0.651
4.520 4.734 0.644
4.773 4.808 0.722
4.685 4.472 0.758
5.323 4.965 0.900
5.129 4.919 0.910
4.926 4.598 0.879
4.777 4.380 0.849
5.515 5.040 1.132
5.400 4.849 1.130
5.359 4.773 1.124
5.270 4.398 1.171
5.102 4.306 1.061
5.867 5.141 1.314
5.705 4.978 1.161
5.674 4.867 1.178
5.437 4.468 1.226
5.305 4.416 1.236
5.267 4.126 1.117
6.186 5.135 1.429
6.007 4.830 1.347
5.736 4.580 1.376
5.735 4.432 1.330
5.581 4.183 1.333
5.443 3.992 1.269
6.334 4.887 1.549
6.035 4.752 1.533
5.921 4.496 1.518
5.911 4.371 1.446
5.709 3.999 1.493
5.610 3.978 1.411
6.145 4.294 1.653
5.900 4.064 1.697
5.829 3.959 1.581
6.183 3.928 1.758
6.090 1.986 0.127
6.039 1.718 0.082
6.124 1.615 0.072
6.160 2.468 0.075
6.020 2.419 0.066
5.874 2.068 0.047
6.166 2.252 0.211
6.127 1.968 0.292
5.822 1.748 0.298
6.151 1.849 0.472
6.017 1.658 0.308
6.168 1.445 0.432
6.225 2.561 0.078
6.108 2.380 0.204
5.787 2.152 0.189
6.200 2.467 0.443
6.049 2.325 0.446
5.857 1.990 0.523
5.791 1.774 0.476
6.191 2.219 0.699
6.043 1.955 0.615
6.044 1.828 0.696
5.742 1.613 0.516
6.042 1.508 0.819
5.942 1.338 0.631
6.246 1.181 0.894
4.153 0.247 0.185
3.888 0.061 0.116
5.990 2.357 0.657
5.818 2.189 0.629
5.631 2.026 0.660
5.530 1.813 0.609
6.164 2.269 0.767
6.064 2.053 0.822
5.960 1.734 0.858
5.687 1.528 0.758
5.541 1.450 0.810
6.259 1.779 0.976
5.995 1.693 0.847
5.910 1.469 0.942
5.684 1.320 0.896
6.222 1.626 1.166
6.126 1.323 1.108
5.906 1.179 1.077
6.251 1.195 1.140
3.750 0.969 -0.007
3.608 0.608 0.006
3.493 0.497 0.113
3.360 0.335 -0.012
3.319 -0.004 -0.010
3.854 0.467 0.282
3.703 0.236 0.145
3.602 0.214 0.250
3.947 0.178 0.316
5.825 2.127 0.981
5.646 1.940 0.891
5.485 1.791 0.929
6.029 2.338 1.151
5.952 2.126 0.998
5.763 1.800 0.953
5.630 1.725 1.031
5.454 1.452 1.027
6.118 2.150 1.167
6.014 2.018 1.107
5.992 1.741 1.177
5.718 1.529 1.222
5.563 1.429 1.158
5.372 1.165 1.186
6.304 1.793 1.374
6.143 1.589 1.390
5.936 1.455 1.377
5.796 1.172 1.192
5.682 0.952 1.298
6.274 1.415 1.433
6.052 1.212 1.392
6.013 1.052 1.459
3.218 1.038 0.069
3.347 0.924 0.238
3.255 0.706 0.211
3.047 0.387 0.201
2.947 0.207 0.198
2.848 0.075 0.088
3.339 0.463 0.299
3.284 0.311 0.141
3.184 0.125 0.322
3.525 0.353 0.292
3.471 0.279 0.320
5.559 2.141 1.201
5.248 1.919 1.205
5.190 1.712 1.165
5.781 2.130 1.286
5.546 1.906 1.214
5.387 1.688 1.158
5.250 1.496 1.242
5.111 1.306 1.208
4.959 1.206 1.281
6.042 2.163 1.368
5.942 1.923 1.477
5.819 1.738 1.419
5.612 1.564 1.306
5.550 1.382 1.423
5.378 1.139 1.350
5.249 1.015 1.288
6.247 2.179 1.570
6.132 1.910 1.528
5.938 1.616 1.509
5.831 1.421 1.425
5.629 1.189 1.393
5.603 1.066 1.546
5.280 0.872 1.395
5.153 0.751 1.389
6.225 1.631 1.581
5.963 1.434 1.720
5.947 1.187 1.596
5.667 1.026 1.606
5.547 0.729 1.524
5.473 0.573 1.545
4.537 4.074 -0.088
4.757 3.987 0.187
4.661 3.750 0.052
4.474 3.608 0.189
4.353 3.342 0.100
4.081 3.081 0.044
2.609 0.464 0.201
2.557 0.260 0.265
2.423 0.002 0.078
2.961 0.458 0.320
2.745 0.382 0.331
2.609 0.218 0.376
3.175 0.315 0.496
2.954 0.113 0.539
3.200 -0.019 0.572
5.202 1.927 1.362
5.012 1.772 1.258
4.961 1.581 1.362
4.822 1.269 1.273
5.518 1.968 1.410
5.462 1.796 1.352
5.317 1.596 1.460
5.144 1.415 1.447
4.885 1.190 1.450
4.708 1.036 1.381
5.796 1.969 1.682
5.492 1.770 1.679
5.332 1.480 1.476
5.298 1.199 1.600
5.035 1.070 1.636
4.942 0.839 1.534
4.852 0.647 1.441
5.953 1.785 1.655
5.636 1.531 1.776
5.575 1.298 1.778
5.501 1.148 1.628
5.177 0.997 1.609
5.125 0.714 1.724
5.028 0.509 1.629
5.064 0.260 1.740
5.854 1.336 1.831
5.736 1.220 1.904
5.560 0.938 1.826
5.392 0.844 1.755
5.212 0.689 1.736
5.066 0.474 1.783
5.068 0.203 1.781
5.083 0.126 1.973
5.681 0.796 1.879
5.544 0.731 1.933
5.461 0.574 1.840
5.268 0.199 1.867
5.106 0.083 1.893
5.532 0.117 1.950
4.319 4.546 0.067
4.321 4.230 0.126
4.099 4.106 0.068
4.016 3.808 -0.027
3.893 3.781 0.137
3.608 3.521 0.124
3.519 3.347 0.033
3.461 3.073 0.018
4.557 4.274 0.164
4.358 4.261 0.201
4.271 3.868 0.171
4.083 3.792 0.236
3.947 3.582 0.200
3.832 3.257 0.146
3.605 3.188 0.190
4.735 4.210 0.438
4.584 4.088 0.299
4.402 3.850 0.241
4.290 3.576 0.381
4.177 3.393 0.241
4.027 3.189 0.206
4.823 4.139 0.417
4.693 3.980 0.527
4.622 3.610 0.380
2.469 0.321 0.417
2.226 0.123 0.297
4.993 3.899 0.606
2.802 0.487 0.584
2.591 0.098 0.497
2.926 0.175 0.645
2.709 0.142 0.726
3.138 0.081 0.755
5.199 2.031 1.634
4.908 1.869 1.429
4.777 1.511 1.546
4.696 1.465 1.420
4.564 1.278 1.484
5.204 1.793 1.740
5.161 1.745 1.701
4.903 1.458 1.589
4.896 1.314 1.563
4.699 1.119 1.651
4.555 0.949 1.561
5.532 1.830 1.701
5.306 1.486 1.694
5.110 1.246 1.822
4.907 1.202 1.804
4.805 0.932 1.741
4.728 0.730 1.756
4.771 0.422 1.757
5.533 1.631 1.821
5.490 1.350 1.830
5.304 1.165 1.833
5.228 0.925 1.824
5.044 0.767 1.867
4.897 0.627 1.762
4.664 0.392 1.740
4.829 0.361 1.913
4.728 0.168 1.923
5.640 1.363 2.024
5.468 1.156 1.991
5.366 0.957 1.908
5.142 0.740 2.009
5.023 0.454 1.930
4.901 0.282 2.058
5.013 0.101 2.113
5.689 1.025 2.198
5.482 0.766 2.172
5.374 0.486 2.150
5.284 0.373 2.013
4.946 0.130 2.131
5.184 0.098 2.155
5.431 0.346 2.287
5.374 0.294 2.270
5.277 -0.010 2.130
5.488 -0.010 2.439
3.901 4.563 0.037
3.728 4.489 0.100
3.501 4.272 -0.031
3.423 4.039 0.037
3.190 3.903 -0.032
4.074 4.680 0.277
4.025 4.576 0.242
3.907 4.285 0.170
3.671 4.084 0.056
3.638 3.922 0.082
3.476 3.686 0.196
3.282 3.499 0.083
4.314 4.572 0.343
4.104 4.289 0.360
4.091 4.252 0.244
3.895 3.993 0.324
3.740 3.734 0.189
3.483 3.548 0.325
3.437 3.335 0.223
4.503 4.400 0.498
4.370 4.127 0.371
4.261 4.018 0.416
4.058 3.734 0.322
3.877 3.590 0.372
3.680 3.326 0.397
4.742 4.397 0.635
4.547 4.080 0.567
4.313 3.918 0.561
4.256 3.611 0.498
3.965 3.570 0.624
4.743 4.144 0.670
4.577 3.940 0.645
4.430 3.793 0.744
2.142 0.281 0.554
4.930 4.047 0.750
4.803 3.751 0.922
2.557 0.213 0.760
2.262 -0.024 0.705
5.051 3.855 0.978
2.729 0.149 0.882
4.724 2.055 1.694
4.460 1.820 1.692
4.409 1.544 1.604
5.050 2.127 1.740
4.934 1.792 1.753
4.624 1.772 1.650
4.493 1.474 1.612
4.351 1.356 1.636
5.227 1.943 1.939
5.060 1.813 1.834
4.755 1.575 1.945
4.635 1.247 1.833
4.593 1.160 1.729
4.503 1.025 1.858
4.471 0.641 1.947
5.300 1.877 1.994
5.130 1.637 2.000
5.021 1.435 1.940
4.919 1.204 1.971
4.645 1.011 1.878
4.572 0.838 2.011
4.349 0.704 1.950
4.624 0.530 2.139
5.347 1.405 2.209
5.225 1.235 2.135
5.029 1.025 2.115
4.793 0.964 2.185
4.837 0.647 2.064
4.686 0.505 2.100
4.832 0.278 2.174
4.601 0.095 2.117
5.375 1.115 2.232
5.259 0.950 2.255
5.134 0.751 2.221
4.970 0.473 2.148
4.791 0.406 2.108
4.919 0.139 2.250
4.712 -0.083 2.232
5.481 0.766 2.287
5.277 0.536 2.384
4.981 0.404 2.416
4.901 0.226 2.227
5.172 0.073 2.475
5.322 0.399 2.381
5.170 0.270 2.507
5.201 0.098 2.476
5.443 0.042 2.552
3.702 4.726 0.292
3.634 4.564 0.239
3.399 4.350 0.337
3.293 4.080 0.305
3.054 3.974 0.206
4.011 4.769 0.495
3.846 4.628 0.445
3.758 4.271 0.351
3.614 4.087 0.383
3.503 4.036 0.261
3.313 3.834 0.401
4.169 4.653 0.593
4.091 4.408 0.484
3.806 4.307 0.578
3.767 4.045 0.521
3.613 3.809 0.468
3.450 3.613 0.474
4.380 4.478 0.697
4.234 4.284 0.591
4.056 3.991 0.671
3.992 3.793 0.539
3.851 3.759 0.708
4.528 4.465 0.777
4.428 4.084 0.735
4.131 3.867 0.747
4.075 3.779 0.774
4.773 4.230 0.876
4.530 4.055 0.967
4.297 3.762 0.918
1.870 -0.005 0.727
4.963 4.002 1.031
4.659 3.914 1.094
2.130 0.150 1.013
5.011 4.041 1.130
4.742 1.912 1.519
4.609 1.791 1.533
4.356 1.541 1.655
5.984 5.588 3.814
5.867 5.211 3.924
5.698 5.084 3.896
6.284 5.406 3.966
6.004 5.171 4.035
5.980 4.885 4.059
5.795 4.812 3.890
6.349 4.954 4.042
6.087 4.905 4.053
5.924 4.637 4.184
5.837 4.395 3.981
6.066 4.580 4.281
6.043 4.240 4.296
6.129 4.167 4.317
3.561 6.274 2.318
3.851 6.310 2.497
3.750 6.091 2.563
4.171 6.216 2.745
3.974 5.961 2.562
4.358 6.137 2.725
6.132 5.768 4.169
5.969 5.525 4.056
5.745 5.345 4.072
6.219 5.386 4.136
5.945 5.290 4.170
5.757 5.021 4.108
6.080 5.052 4.352
5.983 4.894 4.283
5.801 4.729 4.396
6.257 4.832 4.378
6.021 4.497 4.534
3.572 6.284 2.553
3.351 6.075 2.548
3.766 6.199 2.704
3.473 5.853 2.668
3.424 5.769 2.786
4.085 6.276 2.907
3.881 5.974 2.869
3.769 5.842 2.958
3.484 5.677 2.891
3.308 5.428 2.834
4.318 6.153 2.941
4.144 6.096 3.057
4.121 5.857 2.983
3.776 5.657 2.899
3.650 5.493 2.940
3.526 5.306 2.961
3.864 5.236 3.193
3.646 5.115 3.124
6.225 6.153 4.304
5.976 5.768 4.400
5.883 5.679 4.391
5.699 5.428 4.249
6.283 5.646 4.408
6.037 5.558 4.405
5.791 5.315 4.421
5.645 5.152 4.403
6.214 5.310 4.499
6.078 5.256 4.582
5.994 4.917 4.616
6.206 5.111 4.732
5.995 4.869 4.576
2.997 6.230 2.718
3.227 6.142 2.722
3.020 5.962 2.706
3.492 6.207 3.036
3.373 6.003 2.863
3.201 5.696 3.001
3.059 5.581 2.984
3.966 6.192 3.046
3.833 6.104 3.124
3.695 5.828 3.023
3.489 5.624 3.166
3.335 5.364 3.010
3.991 6.120 3.178
3.891 5.929 3.288
3.768 5.628 3.171
3.583 5.445 3.173
3.461 5.310 3.122
3.863 5.667 3.239
3.852 5.410 3.247
3.559 5.178 3.311
3.960 5.286 3.488
3.871 5.031 3.430
5.783 6.254 4.416
5.795 5.989 4.498
5.611 5.768 4.491
5.957 6.096 4.469
5.827 5.933 4.550
5.737 5.757 4.491
5.573 5.604 4.549
6.297 5.988 4.750
6.015 5.831 4.678
5.848 5.675 4.714
5.847 5.364 4.598
6.304 5.569 4.752
6.141 5.436 4.868
5.853 5.279 4.834
6.232 5.394 4.958
6.161 5.194 4.885
2.881 6.053 2.827
3.135 6.207 3.025
3.023 5.938 2.958
2.808 5.876 3.017
3.371 6.211 3.089
3.280 5.991 3.170
3.109 5.911 3.228
3.099 5.645 3.105
3.592 6.129 3.218
3.429 5.910 3.373
3.353 5.707 3.191
3.196 5.541 3.275
3.888 6.211 3.500
3.804 5.943 3.524
3.693 5.744 3.505
3.554 5.644 3.452
3.341 5.436 3.330
3.902 5.711 3.566
3.598 5.533 3.434
3.547 5.273 3.503
3.942 5.247 3.737
3.711 5.087 3.742
3.799 4.912 3.788
5.964 6.189 4.466
5.747 6.010 4.380
5.607 5.837 4.309
5.723 6.099 4.676
5.483 6.007 4.505
5.867 6.267 4.838
5.741 5.980 4.820
5.562 5.774 4.730
6.232 6.160 4.860
6.023 6.138 4.892
6.008 5.870 4.952
5.726 5.742 4.856
5.649 5.436 4.932
6.239 5.860 4.926
6.154 5.632 4.964
6.055 5.594 4.937
6.100 5.359 5.024
2.740 6.173 3.071
3.131 6.171 3.189
2.828 6.074 3.225
2.683 5.921 3.296
3.126 6.134 3.398
3.083 5.856 3.447
2.848 5.643 3.406
3.593 6.163 3.554
3.328 5.954 3.438
3.194 5.844 3.557
3.100 5.678 3.429
3.709 6.032 3.559
3.561 5.747 3.676
3.445 5.559 3.540
3.335 5.519 3.606
3.614 5.784 3.781
3.646 5.465 3.670
3.376 5.378 3.803
3.747 5.469 3.783
3.649 5.108 3.780
3.817 5.117 3.895
5.592 6.092 4.710
5.380 5.871 4.620
5.603 6.143 4.901
5.454 5.945 4.823
5.730 6.331 5.005
5.768 6.004 4.944
5.615 5.922 5.012
6.003 6.188 5.089
5.845 5.868 5.132
5.666 5.784 5.145
6.264 5.982 5.291
5.942 5.741 5.129
5.766 5.558 5.223
6.272 5.606 5.441
2.529 6.269 3.334
2.503 5.955 3.369
2.748 6.015 3.505
2.712 5.877 3.505
3.104 6.179 3.673
2.894 6.030 3.506
2.779 5.697 3.637
3.318 6.196 3.829
3.348 6.076 3.787
3.012 5.861 3.647
3.037 5.640 3.632
3.512 5.898 3.926
3.249 5.654 3.858
3.166 5.610 3.844
3.515 5.592 4.039
3.265 5.332 3.959
3.473 5.271 4.015
5.497 6.123 4.833
5.396 5.892 4.916
5.315 6.294 5.113
5.244 5.997 4.951
5.535 6.161 5.169
5.359 5.973 5.185
5.972 6.212 5.362
5.795 5.925 5.386
5.621 5.769 5.214
6.193 6.171 5.399
6.068 6.069 5.475
5.941 5.929 5.405
6.141 3.621 6.203
6.077 3.545 6.335
2.614 6.102 3.660
3.023 6.151 3.865
2.802 6.111 3.793
5.152 6.145 4.908
5.415 6.161 5.094
5.309 6.104 4.965
5.091 6.143 5.182
5.390 6.230 5.408
5.248 6.037 5.439
5.846 6.212 5.622
5.667 6.145 5.616
5.366 4.008 6.015
5.226 3.758 6.063
5.815 4.111 6.244
5.568 3.836 6.178
5.407 3.559 6.282
4.994 6.249 5.046
5.156 6.170 5.265
5.127 6.265 5.511
5.275 6.220 5.583
4.605 4.310 5.938
4.764 4.008 6.049
5.058 4.257 6.258
5.085 4.076 6.104
5.103 3.908 6.208
4.973 6.099 5.536
5.017 6.272 5.718
4.587 4.298 6.056
4.889 4.478 6.344
4.703 4.078 6.167
4.537 6.214 5.448
4.936 6.176 5.685
4.419 6.322 5.654
3.965 6.197 5.865
3.262 6.214 5.762
3.632 6.171 5.929
3.539 6.137 5.908
3.767 6.022 6.047
4.028 6.121 6.103
2.966 6.203 5.776
2.674 6.060 5.777
3.256 6.304 6.057
3.135 6.158 5.878
3.461 6.120 6.040
3.224 5.831 6.054
3.642 6.193 6.286
3.475 5.980 6.278
2.214 6.114 5.772
2.394 6.148 5.935
2.355 5.892 5.861
2.817 6.252 6.073
2.593 6.039 6.126
2.419 5.781 5.959
2.862 6.060 6.081
2.782 5.852 6.080
2.747 5.633 6.191
2.049 6.149 5.934
2.299 6.194 6.038
2.209 6.131 6.020
2.526 6.102 6.305
2.393 6.026 6.198
1.834 6.267 6.180
6.188 4.287 1.974
6.140 4.009 2.001
5.947 3.972 1.913
6.130 4.012 2.103
4.436 4.829 0.975
4.686 4.924 1.116
4.581 4.696 1.002
5.112 4.856 1.172
4.856 4.669 1.210
4.749 4.482 1.171
5.297 4.935 1.228
5.274 4.795 1.344
5.143 4.629 1.372
4.980 4.357 1.195
5.578 5.035 1.423
5.586 4.812 1.433
5.408 4.583 1.396
5.294 4.390 1.417
4.993 4.280 1.389
5.981 5.126 1.688
5.885 4.977 1.515
5.767 4.667 1.537
5.642 4.523 1.541
5.457 4.329 1.535
5.348 4.196 1.451
6.214 5.072 1.703
6.099 4.692 1.779
5.780 4.536 1.686
5.789 4.324 1.682
5.552 4.184 1.760
5.463 3.964 1.758
6.173 4.679 1.907
5.963 4.530 1.796
5.918 4.333 1.847
5.761 4.013 1.729
6.265 4.239 1.919
6.089 4.189 1.946
5.844 3.930 1.877
6.148 4.491 2.171
5.999 4.375 2.177
6.042 4.248 2.257
5.713 3.886 2.223
6.293 4.236 2.308
6.098 4.119 2.295
5.866 3.867 2.253
6.351 3.933 2.400
4.597 4.481 1.446
4.937 4.610 1.577
4.738 4.487 1.554
5.458 4.875 1.583
5.184 4.791 1.735
5.138 4.466 1.551
4.950 4.237 1.700
5.769 5.007 1.896
5.628 4.777 1.697
5.341 4.642 1.781
5.243 4.360 1.761
5.039 4.074 1.807
5.947 4.850 1.900
5.758 4.535 1.826
5.620 4.338 1.913
5.408 4.159 1.915
5.283 3.946 1.863
6.166 4.839 2.022
6.166 4.769 2.133
5.825 4.527 2.045
5.690 4.253 1.980
5.587 4.090 1.927
6.215 4.634 2.214
6.010 4.437 2.124
5.887 4.110 2.232
5.715 4.026 2.107
6.336 4.827 2.359
6.157 4.722 2.353
6.008 4.477 2.314
5.932 4.310 2.391
5.691 4.127 2.437
6.209 4.246 2.548
6.069 4.042 2.559
5.900 3.877 2.535
6.144 3.992 2.647
6.065 3.688 2.721
6.240 3.549 2.715
5.289 4.625 1.901
5.723 4.888 2.129
5.621 4.689 2.164
5.407 4.453 2.188
5.309 4.360 2.036
6.053 4.808 2.248
5.764 4.577 2.325
5.683 4.426 2.185
5.471 4.106 2.255
6.268 4.912 2.462
6.164 4.622 2.365
5.931 4.396 2.449
5.788 4.185 2.467
5.615 3.995 2.387
6.108 4.941 2.719
6.100 4.699 2.624
5.889 4.510 2.699
5.671 4.306 2.568
5.640 4.091 2.620
6.260 4.562 2.756
6.080 4.299 2.831
5.792 4.144 2.810
5.773 3.993 2.693
6.307 4.252 2.773
6.122 4.112 2.825
5.858 3.783 2.809
5.716 3.634 2.857
6.179 3.909 2.942
6.166 3.772 2.973
5.897 3.469 2.890
6.249 3.666 3.067
6.068 3.330 3.159
6.269 3.327 3.271
5.800 4.753 2.397
5.733 4.695 2.563
5.518 4.414 2.464
5.384 4.298 2.358
6.071 4.817 2.641
5.923 4.681 2.691
5.871 4.448 2.697
5.762 4.211 2.590
5.662 4.112 2.531
5.860 4.698 2.918
5.846 4.561 2.766
5.569 4.419 2.722
6.139 4.943 3.066
6.054 4.684 2.941
5.894 4.402 2.951
5.707 4.338 3.013
5.605 3.977 2.875
6.282 4.605 3.072
5.994 4.259 3.070
6.023 4.025 3.079
5.873 3.959 3.115
5.552 3.610 2.946
6.201 4.202 3.203
6.111 4.020 3.121
5.980 3.848 3.277
5.867 3.541 3.154
6.145 3.573 3.300
6.082 3.391 3.381
6.258 3.362 3.433
5.857 4.818 2.792
5.742 4.523 2.728
5.597 4.296 2.739
5.700 4.759 2.970
5.691 4.645 2.956
6.128 4.842 3.244
6.001 4.775 3.123
5.845 4.413 3.118
5.593 4.365 3.178
5.559 4.046 3.131
6.231 4.500 3.361
5.931 4.419 3.388
5.936 4.076 3.250
5.640 3.887 3.248
6.148 4.316 3.475
6.042 4.085 3.456
5.849 3.884 3.373
5.662 3.543 3.348
6.151 3.873 3.486
5.971 3.734 3.574
5.800 3.545 3.612
6.105 3.510 3.575
6.053 3.359 3.751
6.313 3.239 3.768
5.877 4.757 3.152
5.679 4.627 3.143
6.071 5.020 3.451
5.826 4.789 3.484
5.808 4.515 3.372
5.572 4.447 3.476
6.170 4.844 3.467
5.986 4.616 3.565
5.911 4.477 3.559
5.637 4.332 3.497
5.602 4.070 3.478
6.284 4.412 3.694
5.947 4.398 3.644
5.954 4.065 3.730
5.805 3.886 3.591
5.672 3.732 3.701
6.125 4.073 3.799
5.995 3.937 3.829
5.962 3.762 3.673
5.698 3.625 3.719
6.155 3.922 3.791
6.020 3.586 3.947
5.988 3.383 3.890
6.345 3.593 3.920
6.191 3.284 3.934
6.274 3.068 4.067
6.081 5.237 3.641
5.874 4.943 3.647
5.811 4.863 3.721
6.170 5.156 3.709
6.143 4.990 3.700
5.902 4.732 3.838
5.687 4.590 3.831
5.523 4.327 3.655
6.305 4.691 3.902
6.186 4.585 3.810
5.930 4.377 3.934
5.842 4.171 3.878
5.702 3.896 3.914
6.236 4.534 3.987
6.109 4.232 3.999
5.963 4.100 3.968
5.718 3.888 3.964
6.260 4.114 4.175
6.144 3.927 4.044
5.913 3.625 4.197
5.826 3.450 4.100
6.205 3.491 4.285
5.918 3.277 4.292
6.136 3.230 4.355
3.981 6.160 2.296
4.279 6.188 2.547
6.174 5.505 3.911
5.886 5.216 3.814
5.871 5.116 3.944
6.338 5.297 4.054
6.128 5.276 4.057
5.943 5.066 3.955
5.857 4.851 4.036
6.311 5.140 4.132
6.129 4.875 4.053
5.897 4.575 4.120
5.808 4.395 4.008
6.053 4.477 4.219
5.957 4.258 4.142
6.136 4.272 4.256
3.551 6.207 2.313
3.919 6.245 2.526
3.771 6.120 2.560
4.211 6.155 2.748
3.968 5.888 2.614
4.356 6.222 2.740
2.277 0.560 3.510
2.096 0.312 3.501
2.078 -0.017 3.480
2.656 0.515 3.772
2.587 0.313 3.638
2.357 0.106 3.663
2.979 0.583 3.725
2.770 0.465 3.709
2.662 0.230 3.891
2.493 0.070 3.834
3.070 0.469 3.935
2.970 0.200 3.947
2.766 0.011 3.866
3.235 0.287 4.085
3.212 0.068 4.030
5.098 2.077 4.465
4.947 1.985 4.445
4.844 1.744 4.384
5.547 2.427 4.709
5.577 2.090 4.615
5.282 1.864 4.644
5.222 1.771 4.535
5.019 1.510 4.512
4.936 1.419 4.555
4.791 1.205 4.587
5.689 2.225 4.681
5.648 1.987 4.801
5.585 1.756 4.711
5.383 1.654 4.781
5.124 1.504 4.641
4.946 1.119 4.673
4.924 0.913 4.775
5.889 2.065 4.817
5.718 1.942 4.857
5.652 1.781 4.876
5.573 1.554 4.759
5.415 1.328 4.779
5.173 1.097 4.755
5.943 1.703 4.970
5.919 1.507 4.995
5.705 1.263 5.071
5.618 1.238 4.869
0.305 2.010 2.063
0.087 1.929 2.046
0.091 1.579 2.064
0.669 2.156 2.117
0.384 2.014 2.029
0.253 1.795 2.149
0.142 1.552 1.999
0.051 1.394 1.978
0.862 2.120 2.240
0.765 2.063 2.332
0.682 1.905 2.188
0.447 1.573 2.262
0.339 1.325 2.246
0.291 1.280 2.212
-0.021 0.984 2.208
1.023 2.113 2.420
1.010 1.796 2.456
0.765 1.701 2.343
0.736 1.558 2.311
0.593 1.185 2.268
0.371 1.094 2.335
0.330 0.944 2.387
0.940 1.605 2.438
0.818 1.262 2.407
0.705 1.090 2.533
3.505 4.062 2.957
3.199 3.796 2.898
3.129 3.691 2.988
3.016 3.593 2.917
2.732 3.296 2.954
2.679 3.117 2.833
2.553 2.985 2.841
3.642 4.028 3.122
3.456 3.753 2.993
3.199 3.595 3.123
3.202 3.386 3.040
3.097 3.066 2.926
2.754 3.061 2.989
2.682 2.725 2.946
3.830 3.776 3.209
3.601 3.570 3.300
3.383 3.396 3.285
3.328 3.316 3.073
3.135 3.084 3.204
3.090 2.743 3.169
2.888 2.636 3.157
3.701 3.486 3.285
3.537 3.359 3.409
3.475 3.163 3.295
3.414 2.903 3.386
3.131 2.626 3.332
3.782 3.218 3.490
3.691 2.928 3.461
3.505 2.856 3.434
2.300 0.717 3.834
2.225 0.607 3.824
2.167 0.368 3.667
2.738 0.775 3.839
2.619 0.514 3.915
2.304 0.317 3.960
2.306 0.303 3.957
2.195 0.062 3.942
3.002 0.954 4.093
2.891 0.671 4.061
2.677 0.412 3.934
2.574 0.241 4.040
2.340 0.039 3.950
3.431 0.918 4.221
3.265 0.679 4.132
3.005 0.523 4.169
2.966 0.303 4.075
2.786 0.073 4.123
3.618 1.066 4.411
3.494 0.739 4.424
3.391 0.569 4.278
3.288 0.438 4.277
3.015 0.279 4.367
2.936 -0.007 4.183
3.646 1.036 4.286
3.762 0.852 4.439
3.635 0.693 4.538
3.591 0.558 4.523
3.444 0.297 4.468
4.069 1.021 4.395
3.864 0.932 4.403
3.930 0.815 4.640
4.789 1.842 4.681
4.622 1.612 4.698
4.419 1.282 4.720
4.352 1.169 4.522
4.104 0.909 4.550
3.896 0.679 4.692
5.127 2.072 4.755
5.008 1.848 4.823
4.952 1.572 4.890
4.765 1.379 4.829
4.528 1.189 4.694
4.416 0.930 4.704
4.312 0.764 4.817
5.483 1.989 4.957
5.400 1.893 4.999
5.286 1.731 4.932
4.985 1.502 4.826
4.960 1.220 4.928
4.828 0.981 4.866
4.725 0.780 4.857
5.600 1.970 5.101
5.573 1.656 5.065
5.307 1.454 5.052
5.255 1.278 5.098
5.148 1.048 5.096
5.017 1.036 4.955
4.891 0.786 4.931
5.708 1.652 5.193
5.558 1.424 5.106
5.404 1.267 5.206
5.300 1.116 5.219
5.049 0.907 5.155
0.263 2.195 2.279
-0.029 2.034 2.091
0.303 1.987 2.251
0.192 1.769 2.397
-0.008 1.533 2.288
0.647 1.956 2.422
0.325 1.606 2.425
0.167 1.544 2.520
0.127 1.194 2.433
0.653 1.712 2.664
0.507 1.559 2.573
0.441 1.379 2.670
0.315 1.161 2.650
0.099 0.867 2.538
0.599 1.271 2.702
0.349 1.098 2.581
0.214 0.899 2.587
0.115 0.643 2.564
3.511 4.999 2.955
0.234 0.183 2.818
0.011 0.084 2.756
3.644 4.878 2.993
3.534 4.690 3.123
3.274 4.523 3.028
3.090 4.258 2.983
3.689 4.720 3.292
3.697 4.565 3.252
3.461 4.293 3.235
3.227 4.114 3.257
3.211 3.918 3.221
3.052 3.727 3.117
2.845 3.616 3.209
3.820 4.409 3.255
3.537 4.189 3.371
3.408 4.104 3.318
3.378 3.895 3.292
3.087 3.704 3.196
3.089 3.474 3.298
2.882 3.327 3.316
4.019 4.327 3.414
3.802 4.083 3.398
3.607 3.859 3.527
3.449 3.649 3.445
3.407 3.570 3.439
3.267 3.287 3.330
2.978 3.040 3.423
3.940 3.933 3.495
3.828 3.757 3.482
3.717 3.478 3.594
3.474 3.407 3.613
3.387 3.176 3.419
3.306 2.887 3.586
3.876 3.473 3.768
3.773 3.190 3.598
3.544 2.946 3.708
2.476 0.963 4.064
2.342 0.733 3.961
2.141 0.639 4.062
2.036 0.365 3.890
2.658 1.064 4.099
2.576 0.956 4.035
2.412 0.761 4.144
2.228 0.373 4.177
2.087 0.274 4.133
1.988 0.117 4.154
2.969 1.197 4.322
2.821 1.032 4.174
2.785 0.775 4.262
2.523 0.462 4.221
2.542 0.305 4.215
2.369 0.086 4.146
3.367 1.168 4.498
3.193 1.065 4.330
3.029 0.840 4.492
3.000 0.532 4.441
2.880 0.388 4.273
2.647 0.234 4.411
2.430 0.079 4.419
3.432 1.310 4.442
3.608 1.090 4.549
3.394 0.784 4.519
3.257 0.655 4.504
3.129 0.409 4.412
2.941 0.187 4.416
2.839 0.144 4.438
3.732 1.248 4.575
3.578 1.176 4.461
3.731 1.015 4.613
3.633 0.835 4.608
3.338 0.592 4.669
3.327 0.301 4.661
3.047 0.227 4.602
4.208 1.641 4.810
3.972 1.260 4.788
3.861 1.221 4.747
3.662 0.880 4.647
3.933 0.891 4.888
3.637 0.650 4.726
3.584 0.361 4.720
4.607 1.748 4.796
4.572 1.592 4.931
4.313 1.422 4.844
4.135 1.283 4.888
4.036 1.066 4.894
3.879 0.807 4.717
3.982 0.736 4.971
4.886 1.787 4.926
4.877 1.686 4.965
4.635 1.481 5.016
4.557 1.211 5.073
4.403 1.159 4.880
4.161 0.791 4.997
4.159 0.632 4.935
5.293 2.050 5.157
5.087 1.707 5.067
4.987 1.477 5.139
4.879 1.352 5.188
4.715 1.053 5.185
4.435 0.921 5.010
4.442 0.726 5.088
5.407 1.888 5.365
5.242 1.595 5.176
5.098 1.464 5.336
5.040 1.120 5.326
4.878 0.986 5.185
4.755 0.859 5.264
4.479 0.517 5.268
5.370 1.481 5.416
5.377 1.386 5.352
5.227 1.116 5.474
5.027 0.930 5.400
4.817 0.742 5.347
5.509 1.201 5.590
5.235 0.922 5.458
0.048 1.782 2.574
0.374 1.719 2.704
0.227 1.625 2.603
0.548 1.616 2.834
0.239 1.340 2.839
0.250 1.193 2.802
-0.090 0.967 2.827
3.154 5.298 3.043
0.427 1.175 2.890
0.117 0.787 2.985
-0.037 0.666 2.919
3.364 5.201 3.137
3.127 5.006 3.177
0.172 0.541 2.954
0.061 0.349 2.953
3.491 5.003 3.371
3.349 4.738 3.342
3.176 4.595 3.354
3.079 4.469 3.319
0.121 0.298 3.181
0.122 -0.071 3.139
3.597 4.892 3.417
3.599 4.637 3.423
3.302 4.358 3.305
3.221 4.323 3.406
3.083 4.053 3.315
2.826 3.830 3.326
3.820 4.662 3.567
3.589 4.441 3.468
3.551 4.374 3.545
3.279 4.021 3.465
3.172 3.915 3.511
3.157 3.798 3.550
2.898 3.481 3.405
4.022 4.528 3.747
3.852 4.330 3.655
3.636 4.222 3.745
3.470 3.928 3.614
3.475 3.752 3.580
3.245 3.558 3.658
3.138 3.332 3.570
4.098 4.184 3.708
3.816 4.067 3.748
3.764 3.881 3.696
3.621 3.575 3.779
3.496 3.503 3.831
3.320 3.181 3.649
3.997 3.804 3.961
3.786 3.713 3.882
3.816 3.460 3.833
3.527 3.368 3.904
2.072 1.270 4.075
2.087 1.103 4.046
1.822 0.741 4.093
4.016 3.699 4.301
3.797 3.428 4.176
2.563 1.343 4.153
2.340 1.160 4.219
2.217 0.824 4.205
1.915 0.694 4.266
1.854 0.510 4.194
2.755 1.316 4.296
2.670 1.149 4.337
2.578 0.896 4.396
2.355 0.729 4.296
2.098 0.469 4.295
2.072 0.323 4.324
3.029 1.461 4.469
2.928 1.199 4.578
2.721 0.987 4.483
2.575 0.902 4.430
2.481 0.612 4.532
2.283 0.485 4.492
2.244 0.162 4.521
3.068 1.513 4.582
3.296 1.361 4.707
3.041 1.079 4.575
3.038 0.977 4.602
2.915 0.583 4.675
2.643 0.464 4.490
2.564 0.260 4.564
2.294 0.064 4.503
3.188 1.211 4.689
3.496 1.171 4.728
3.391 0.903 4.777
3.095 0.659 4.788
2.932 0.614 4.802
2.820 0.407 4.727
2.623 0.118 4.799
3.629 1.313 4.682
3.360 1.100 4.791
3.562 0.989 4.985
3.382 0.796 4.932
3.405 0.514 4.938
3.231 0.387 4.914
3.990 1.623 4.948
3.834 1.329 4.973
3.713 1.130 4.962
3.639 1.046 4.911
3.792 0.984 5.127
3.556 0.691 4.975
3.530 0.537 5.060
4.337 1.728 5.051
4.241 1.445 4.965
4.086 1.360 5.133
3.843 1.165 5.049
3.759 0.828 4.924
4.000 0.662 5.181
3.693 0.622 5.091
4.682 1.745 5.238
4.475 1.484 5.235
4.428 1.414 5.236
4.307 1.240 5.237
4.037 0.865 5.212
3.983 0.652 5.136
4.172 0.546 5.294
5.046 1.755 5.400
4.831 1.668 5.315
4.672 1.387 5.371
4.542 1.150 5.329
4.438 1.100 5.254
4.231 0.800 5.352
4.078 0.682 5.217
5.144 1.664 5.500
5.132 1.452 5.530
4.902 1.220 5.516
4.713 1.029 5.390
4.615 0.851 5.395
4.452 0.685 5.446
5.393 1.624 5.643
5.281 1.447 5.637
5.124 1.076 5.607
4.960 0.961 5.592
4.848 0.696 5.604
4.581 0.606 5.483
5.345 1.117 5.693
5.312 0.960 5.826
5.126 0.764 5.761
4.915 0.711 5.647
0.036 1.965 2.738
0.081 1.566 2.813
2.876 5.402 3.205
0.124 1.526 2.919
-0.027 1.273 2.884
2.952 5.217 3.333
0.121 1.155 3.174
-0.007 0.983 3.188
3.158 5.279 3.471
3.059 4.986 3.416
0.096 0.655 3.252
3.297 5.090 3.489
3.188 4.928 3.472
2.994 4.677 3.569
2.977 4.426 3.429
0.132 0.313 3.258
3.604 4.954 3.669
3.303 4.676 3.637
3.297 4.448 3.515
3.170 4.364 3.543
2.983 4.132 3.484
3.656 4.818 3.846
3.495 4.526 3.766
3.417 4.465 3.841
3.321 4.079 3.710
3.195 3.867 3.781
3.026 3.781 3.730
3.826 4.618 3.839
3.766 4.413 3.930
3.537 4.262 3.787
3.420 4.057 3.917
3.224 3.905 3.745
3.191 3.660 3.831
3.050 3.357 3.753
3.865 4.395 3.964
3.826 4.191 3.908
3.581 3.830 4.023
3.541 3.697 3.945
3.274 3.512 3.929
3.058 3.202 3.989
4.055 4.196 4.103
3.949 3.975 4.141
3.759 3.781 4.196
3.590 3.577 4.006
3.402 3.441 4.154
2.142 1.281 4.068
1.956 1.059 4.079
1.745 0.822 3.995
3.859 3.709 4.348
3.827 3.369 4.224
2.171 1.464 4.256
1.972 1.213 4.385
1.950 1.136 4.264
1.826 0.835 4.337
3.901 3.823 4.418
3.737 3.696 4.486
3.617 3.587 4.479
2.532 1.645 4.528
2.357 1.252 4.436
2.121 1.070 4.368
1.982 0.988 4.470
1.857 0.739 4.462
2.602 1.376 4.519
2.438 1.204 4.524
2.449 0.940 4.614
2.143 0.752 4.539
2.146 0.534 4.476
1.860 0.374 4.443
2.993 1.409 4.704
2.874 1.352 4.761
2.683 1.027 4.783
2.489 0.879 4.765
2.402 0.657 4.616
2.141 0.493 4.674
2.934 1.450 4.744
3.192 1.338 4.759
2.913 1.158 4.854
2.874 1.008 4.827
2.684 0.662 4.829
2.624 0.506 4.770
2.493 0.398 4.802
3.245 1.348 4.952
3.310 1.261 5.064
3.143 1.038 5.055
3.014 0.913 4.947
2.888 0.551 5.004
2.812 0.512 5.033
3.577 1.522 5.009
3.242 1.116 5.066
3.569 1.007 5.176
3.349 0.798 5.007
3.286 0.627 5.180
3.027 0.574 5.070
3.722 1.400 5.205
3.633 1.278 5.121
3.520 1.106 5.212
3.703 1.005 5.218
3.589 0.760 5.158
3.337 0.635 5.253
4.207 1.590 5.192
3.873 1.339 5.322
3.890 1.093 5.350
3.597 0.882 5.277
3.847 0.911 5.387
3.709 0.642 5.387
4.399 1.625 5.359
4.305 1.320 5.353
4.145 1.223 5.446
3.924 0.926 5.320
3.906 0.774 5.394
4.075 0.735 5.412
4.669 1.730 5.593
4.524 1.523 5.517
4.401 1.218 5.593
4.385 1.072 5.506
4.193 0.932 5.571
4.061 0.756 5.568
5.167 1.847 5.617
4.856 1.527 5.657
4.853 1.303 5.688
4.538 1.207 5.702
4.418 0.917 5.673
4.288 0.734 5.625
5.318 1.563 5.779
5.176 1.470 5.755
4.917 1.154 5.810
4.878 1.099 5.790
4.608 0.773 5.879
4.444 0.537 5.845
5.228 1.355 5.905
5.010 1.157 5.946
4.988 0.847 6.001
4.708 0.721 5.959
5.350 0.972 6.114
5.100 0.670 6.005
2.781 5.567 3.425
2.895 5.355 3.391
3.025 5.251 3.630
3.031 4.945 3.647
3.357 5.133 3.656
3.189 4.877 3.718
3.034 4.645 3.690
3.474 4.922 3.919
3.306 4.747 3.835
3.177 4.583 3.871
3.008 4.459 3.847
0.050 -0.000 3.615
3.662 4.773 3.897
3.550 4.715 3.974
3.201 4.451 4.008
3.169 4.223 4.039
3.092 3.981 3.935
3.711 4.644 4.040
3.574 4.469 4.082
3.374 4.351 4.107
3.327 4.164 4.018
3.093 3.851 4.129
2.973 3.726 4.109
3.899 4.472 4.340
3.705 4.397 4.160
3.693 4.251 4.194
3.521 3.920 4.201
3.352 3.832 4.166
3.161 3.605 4.229
3.861 4.319 4.374
3.758 4.017 4.361
3.692 3.736 4.272
3.438 3.679 4.382
3.280 3.460 4.217
2.208 1.384 4.301
1.938 1.368 4.354
1.976 1.152 4.272
1.806 0.894 4.333
3.960 3.984 4.521
3.772 3.735 4.388
3.730 3.404 4.392
2.237 1.742 4.506
2.019 1.617 4.559
1.995 1.336 4.563
1.803 1.143 4.558
1.577 0.971 4.566
3.947 4.100 4.784
3.882 4.009 4.603
3.818 3.872 4.667
3.601 3.533 4.613
3.373 3.302 4.558
2.311 1.539 4.590
2.331 1.434 4.572
2.120 1.264 4.683
1.845 1.023 4.730
1.726 0.843 4.707
4.269 4.088 4.768
4.011 3.850 4.848
3.816 3.668 4.772
3.721 3.484 4.846
2.511 1.585 4.781
2.418 1.196 4.839
2.199 1.078 4.823
2.070 0.924 4.720
2.015 0.669 4.788
2.851 1.499 4.932
2.653 1.316 4.982
2.483 1.250 4.847
2.441 1.029 5.004
2.274 0.777 4.968
2.069 0.647 4.964
2.864 1.654 4.986
3.034 1.395 5.118
2.884 1.190 5.109
2.694 1.036 5.016
2.695 0.781 4.961
2.491 0.684 4.953
3.135 1.426 5.032
3.283 1.241 5.207
3.093 1.148 5.258
3.013 0.956 5.137
2.818 0.753 5.205
3.133 1.215 5.230
3.436 1.147 5.234
3.261 0.996 5.229
3.110 0.674 5.232
3.600 1.398 5.360
3.319 1.126 5.275
3.545 0.971 5.361
3.367 0.912 5.451
3.854 1.511 5.520
3.680 1.197 5.400
3.457 1.047 5.533
3.713 0.924 5.671
4.208 1.460 5.661
4.083 1.188 5.594
3.893 1.076 5.544
3.647 0.865 5.606
3.984 0.647 5.718
4.392 1.601 5.750
4.385 1.378 5.739
4.218 1.177 5.711
4.132 0.990 5.759
3.816 0.773 5.768
4.813 1.596 5.988
4.708 1.442 5.814
4.562 1.319 5.863
4.430 0.922 5.819
4.211 0.848 5.804
5.065 1.556 6.030
4.733 1.326 5.935
4.585 1.095 5.956
4.504 0.856 5.988
4.324 0.593 5.969
5.057 1.394 6.208
4.955 1.132 6.179
4.750 0.924 6.078
4.609 0.785 6.158
4.609 0.477 6.068
5.064 0.733 6.222
4.953 0.675 6.348
1.024 4.224 3.273
0.926 4.088 3.247
0.817 3.887 3.244
2.734 5.514 3.606
2.956 5.272 3.726
3.129 5.203 3.874
3.022 4.981 3.979
3.257 5.107 4.151
3.175 4.780 4.123
2.936 4.682 4.049
3.415 4.911 4.150
3.357 4.744 4.183
3.240 4.405 4.109
3.119 4.329 4.118
3.754 4.786 4.394
3.578 4.597 4.301
3.308 4.377 4.238
3.143 4.191 4.219
2.990 4.001 4.234
3.845 4.580 4.548
3.728 4.383 4.465
3.618 4.338 4.405
3.437 4.105 4.363
3.143 3.846 4.316
2.985 3.577 4.451
1.841 1.757 4.432
1.675 1.518 4.345
1.664 1.301 4.339
3.843 4.286 4.483
3.717 4.168 4.632
3.459 3.922 4.567
3.319 3.748 4.497
3.227 3.406 4.582
2.203 1.685 4.443
2.174 1.454 4.443
1.938 1.340 4.459
1.809 1.202 4.596
1.536 0.909 4.480
4.056 4.158 4.685
3.785 4.025 4.751
3.706 3.754 4.755
3.563 3.612 4.645
3.345 3.315 4.747
2.110 1.916 4.784
1.867 1.535 4.722
1.854 1.355 4.787
1.588 1.175 4.739
1.605 1.076 4.614
3.840 4.268 4.965
3.801 4.129 4.984
3.615 3.923 4.796
3.364 3.679 4.949
3.407 3.494 4.787
2.202 1.670 4.920
2.201 1.480 4.848
1.898 1.269 4.884
1.842 1.064 4.852
1.665 0.977 4.842
4.170 4.208 5.143
3.928 3.930 5.074
3.848 3.666 5.032
3.678 3.589 4.922
2.451 1.631 5.118
2.323 1.318 4.942
2.157 1.057 5.049
2.055 0.948 4.944
1.825 0.715 5.014
4.344 3.887 5.176
4.142 3.721 5.110
3.991 3.632 5.051
3.812 3.427 5.189
2.639 1.369 5.183
2.444 1.150 5.055
2.249 1.068 5.090
2.112 0.792 5.199
4.319 3.739 5.200
2.626 1.070 5.190
4.192 1.459 5.889
4.098 1.305 6.053
3.880 0.994 5.976
4.602 1.414 6.052
4.322 1.241 6.160
4.204 1.116 6.074
4.180 0.904 5.988
4.876 1.597 6.240
4.816 1.399 6.233
4.533 1.128 6.165
4.472 0.906 6.122
4.312 0.828 6.273
1.175 4.537 3.426
0.938 4.243 3.401
0.766 4.030 3.340
0.670 3.833 3.284
0.505 3.665 3.297
1.154 4.080 3.474
1.034 3.939 3.565
0.783 3.834 3.429
3.174 4.702 4.311
3.134 4.479 4.381
1.361 2.068 4.401
1.236 1.766 4.392
3.318 4.565 4.590
3.150 4.368 4.619
3.165 4.226 4.585
1.535 1.952 4.439
1.534 1.774 4.436
1.358 1.540 4.376
3.654 4.495 4.658
3.466 4.214 4.687
3.224 4.151 4.560
3.209 3.830 4.661
2.029 1.887 4.611
1.830 1.732 4.588
1.742 1.519 4.510
1.555 1.350 4.487
1.444 1.175 4.480
3.766 4.289 4.815
3.662 4.160 4.704
3.428 3.987 4.764
3.372 3.715 4.848
2.187 1.824 4.808
2.026 1.554 4.757
1.891 1.403 4.720
1.638 1.132 4.777
1.467 1.059 4.794
3.882 4.160 4.984
3.816 4.080 4.907
3.512 3.875 4.994
3.496 3.601 4.849
3.401 3.364 4.896
2.083 1.785 4.948
1.848 1.783 5.018
1.764 1.392 4.944
1.565 1.366 5.026
1.470 1.030 5.004
3.743 4.250 5.042
3.593 4.103 5.137
3.404 3.969 5.203
3.370 3.733 5.086
3.148 3.449 5.097
1.989 1.561 5.056
1.786 1.280 5.079
1.677 1.190 5.105
1.646 0.989 5.116
3.993 4.255 5.327
3.879 4.064 5.224
3.565 3.852 5.237
3.448 3.576 5.220
3.303 3.271 5.260
2.112 1.367 5.305
2.001 1.171 5.276
1.892 0.959 5.167
4.355 4.325 5.445
4.060 3.994 5.301
3.942 3.746 5.371
3.739 3.727 5.354
3.759 3.485 5.388
4.451 4.175 5.533
4.255 4.001 5.558
4.157 3.726 5.493
4.086 3.475 5.454
3.839 3.390 5.511
4.600 3.933 5.650
4.410 3.849 5.655
4.281 3.490 5.712
4.131 3.326 5.589
4.688 3.750 5.801
4.586 3.695 5.784
5.046 3.801 5.871
0.988 4.512 3.638
0.968 4.357 3.649
0.774 4.184 3.544
0.652 3.999 3.587
0.439 3.680 3.606
1.180 4.345 3.790
1.036 4.257 3.806
0.934 3.948 3.653
0.742 3.746 3.690
0.567 3.631 3.666
1.149 4.169 3.859
1.179 3.873 3.765
0.997 3.788 3.770
0.816 3.394 3.911
1.298 3.694 3.993
1.003 3.615 4.020
0.988 3.451 3.939
0.875 3.007 4.171
1.075 3.158 4.183
0.994 2.990 4.068
1.115 2.853 4.214
1.070 2.881 4.210
1.266 2.740 4.251
1.174 2.526 4.265
0.939 2.297 4.255
1.238 2.863 4.277
1.264 2.407 4.374
1.144 2.237 4.538
0.988 2.029 4.415
1.563 2.297 4.663
1.350 1.993 4.488
1.276 1.787 4.659
0.950 1.654 4.628
1.615 2.144 4.632
1.611 1.896 4.600
1.274 1.719 4.709
1.151 1.479 4.746
1.137 1.270 4.600
3.209 4.356 4.773
3.227 4.136 4.791
1.740 2.031 4.752
1.712 1.854 4.802
1.554 1.720 4.855
1.298 1.419 4.728
1.237 1.299 4.863
3.692 4.343 5.050
3.468 4.268 5.000
3.336 4.060 4.928
3.106 3.737 4.977
2.019 1.917 4.937
1.918 1.619 4.927
1.752 1.421 4.917
1.481 1.264 4.874
1.388 1.102 4.974
3.849 4.224 5.194
3.556 4.021 5.154
3.543 3.983 5.054
3.321 3.696 5.018
3.192 3.432 5.039
1.667 1.682 5.159
1.589 1.468 5.239
1.433 1.355 5.077
1.252 1.122 5.066
3.690 4.278 5.369
3.472 4.155 5.264
3.381 3.972 5.314
3.310 3.721 5.255
1.744 1.334 5.187
1.585 1.270 5.294
3.882 4.342 5.530
3.696 3.981 5.552
3.473 3.906 5.549
3.393 3.733 5.358
3.208 3.419 5.344
4.158 4.246 5.643
4.055 4.116 5.568
3.959 3.870 5.561
3.816 3.621 5.678
3.556 3.410 5.624
3.349 3.286 5.583
4.302 4.074 5.845
4.123 4.074 5.677
4.071 3.822 5.796
3.834 3.612 5.661
3.847 3.427 5.713
3.626 3.193 5.616
4.599 4.064 5.799
4.418 3.839 5.950
4.163 3.549 5.783
3.977 3.518 5.793
3.948 3.324 5.758
4.725 3.852 6.048
4.527 3.800 5.938
4.348 3.596 6.026
4.136 3.388 5.984
4.808 3.752 6.233
4.662 3.473 6.106
4.496 3.430 6.098
4.963 3.600 6.327
4.813 3.499 6.332
1.019 4.610 3.931
0.753 4.369 3.771
0.700 4.293 3.874
0.410 4.025 3.859
0.413 3.749 3.770
1.199 4.601 3.951
0.936 4.360 4.028
0.769 4.158 3.964
0.740 3.969 3.964
0.419 3.751 4.025
0.501 3.356 4.006
1.287 4.268 4.154
1.155 4.210 4.048
1.024 3.868 4.075
0.869 3.854 4.017
0.750 3.515 4.067
0.540 3.350 4.048
0.587 3.302 4.216
1.344 4.118 4.120
1.116 3.749 4.227
0.953 3.563 4.182
0.742 3.385 4.144
0.720 3.261 4.094
0.808 3.070 4.220
0.710 2.819 4.324
1.403 3.653 4.340
1.198 3.549 4.251
1.022 3.207 4.329
0.881 3.136 4.399
1.030 3.049 4.522
0.865 2.715 4.404
0.769 2.648 4.451
1.359 3.331 4.499
1.148 3.171 4.514
0.944 2.926 4.404
1.235 2.821 4.459
1.019 2.712 4.585
0.852 2.511 4.464
0.730 2.125 4.562
1.293 3.110 4.574
1.133 2.885 4.594
1.333 2.795 4.647
1.138 2.515 4.773
0.974 2.196 4.610
0.982 2.152 4.572
0.679 1.954 4.696
1.315 2.694 4.708
1.475 2.558 4.791
1.485 2.412 4.884
1.249 2.152 4.841
1.065 1.872 4.855
0.840 1.650 4.671
0.719 1.480 4.755
1.516 2.632 4.887
1.639 2.232 4.919
1.461 2.049 4.840
1.276 1.895 4.947
1.034 1.622 4.845
1.016 1.384 4.928
1.645 2.172 5.119
1.557 1.921 5.021
1.519 1.592 4.946
1.370 1.472 4.993
1.024 1.270 4.961
3.263 4.328 5.189
3.179 4.030 5.154
1.817 1.757 5.204
1.637 1.578 5.239
1.343 1.452 5.247
1.307 1.113 5.096
3.639 4.455 5.367
3.575 4.084 5.384
3.326 3.943 5.275
3.149 3.818 5.335
1.564 1.604 5.449
1.241 1.497 5.276
1.121 1.278 5.403
3.380 4.237 5.622
3.214 3.939 5.579
3.227 3.805 5.626
3.737 4.356 5.611
3.510 4.112 5.592
3.517 3.901 5.627
3.339 3.650 5.627
3.132 3.582 5.707
3.987 4.286 5.918
3.845 4.085 5.764
3.842 3.957 5.773
3.696 3.813 5.732
3.396 3.478 5.777
3.259 3.336 5.713
4.201 4.180 5.982
4.101 4.071 5.892
3.968 3.759 5.837
3.705 3.715 5.957
3.713 3.502 5.913
3.554 3.293 5.891
4.406 4.180 6.193
4.148 3.920 6.047
4.083 3.648 6.046
3.887 3.549 6.066
3.793 3.304 6.026
3.589 3.087 6.120
4.574 3.911 6.278
4.434 3.750 6.206
4.311 3.673 6.095
4.216 3.277 6.279
3.987 3.183 6.128
1.056 4.874 3.993
0.743 4.713 4.071
0.679 4.407 4.083
0.466 4.278 4.139
0.341 4.161 3.922
0.130 3.926 4.038
1.080 4.726 4.165
0.908 4.474 4.218
0.838 4.384 4.097
0.720 4.219 4.104
0.506 4.000 4.117
0.399 3.672 4.164
0.460 3.441 4.270
1.233 4.546 4.267
1.165 4.412 4.375
0.993 4.181 4.405
0.794 4.119 4.276
0.695 3.883 4.266
0.520 3.642 4.232
0.361 3.385 4.314
0.524 3.355 4.370
0.382 3.096 4.442
1.233 4.269 4.368
1.220 4.053 4.445
0.965 3.891 4.447
0.841 3.750 4.403
0.663 3.525 4.492
0.575 3.249 4.443
0.653 3.133 4.432
0.638 2.861 4.449
0.379 2.721 4.459
1.266 3.997 4.498
1.190 3.668 4.466
1.001 3.525 4.641
0.918 3.320 4.522
0.781 3.087 4.526
0.883 2.996 4.572
0.819 2.857 4.575
0.639 2.581 4.686
0.533 2.451 4.563
1.146 3.420 4.617
1.112 3.254 4.651
0.978 3.068 4.731
1.144 2.923 4.692
0.885 2.740 4.813
0.816 2.402 4.816
0.711 2.201 4.657
0.588 2.011 4.659
1.308 3.017 4.758
1.135 2.854 4.784
1.344 2.733 4.828
1.161 2.481 4.853
0.948 2.327 4.861
0.873 2.070 4.772
0.680 1.982 4.887
0.417 1.746 4.909
1.356 2.686 4.941
1.325 2.531 5.056
1.348 2.427 4.937
1.226 2.288 4.940
0.876 1.998 4.971
0.761 1.904 5.020
0.731 1.556 5.045
0.463 1.397 5.045
1.382 2.726 5.093
1.346 2.300 5.196
1.321 2.047 5.234
1.200 1.988 5.131
0.964 1.662 5.038
0.880 1.555 5.090
0.643 1.345 5.074
1.564 1.948 5.336
1.389 1.813 5.316
1.137 1.517 5.307
1.087 1.339 5.232
0.939 1.088 5.206
1.542 1.628 5.281
1.342 1.488 5.381
1.252 1.231 5.337
3.402 4.160 5.509
3.301 4.065 5.492
3.113 3.738 5.488
3.555 4.077 5.897
3.332 4.051 5.868
3.084 3.817 5.805
2.974 3.605 5.802
3.773 4.202 6.032
3.665 4.025 6.001
3.476 3.894 6.107
3.355 3.727 6.016
3.247 3.472 5.957
2.952 3.226 5.899
4.208 4.368 6.205
3.929 4.096 6.268
3.902 3.931 6.239
3.581 3.634 6.090
3.522 3.402 6.106
3.442 3.305 6.090
3.254 3.174 6.121
4.053 3.808 6.209
3.812 3.499 6.238
3.601 3.394 6.294
3.504 3.125 6.244
3.335 2.947 6.130
0.891 4.874 4.352
0.606 4.856 4.276
0.559 4.631 4.325
0.318 4.449 4.343
0.246 4.137 4.278
1.155 4.989 4.374
1.062 4.761 4.392
0.850 4.560 4.369
0.641 4.522 4.470
0.607 4.265 4.376
0.385 3.999 4.369
0.330 3.825 4.319
0.350 3.571 4.556
1.207 4.642 4.468
1.129 4.514 4.545
0.852 4.224 4.625
0.763 4.053 4.585
0.525 3.853 4.535
0.468 3.756 4.444
0.387 3.407 4.503
0.484 3.436 4.508
0.247 3.099 4.571
1.414 4.618 4.722
1.111 4.410 4.757
0.974 4.274 4.556
0.867 4.033 4.708
0.806 3.844 4.695
0.680 3.499 4.711
0.554 3.297 4.683
0.585 3.246 4.770
0.546 3.059 4.744
0.399 2.879 4.626
1.271 4.071 4.832
1.155 3.882 4.858
0.964 3.643 4.749
0.834 3.523 4.665
0.584 3.132 4.671
0.726 3.057 4.768
0.710 2.807 4.931
0.403 2.711 4.814
0.416 2.512 4.798
0.245 2.247 4.869
1.344 3.798 4.956
1.148 3.488 4.958
1.053 3.379 4.797
0.770 3.159 4.855
1.014 2.987 5.023
0.762 2.852 4.898
0.756 2.594 5.048
0.628 2.363 4.964
0.315 2.238 5.033
0.158 1.900 4.939
1.167 3.143 5.031
1.004 2.929 4.999
1.183 2.880 5.077
0.962 2.575 5.183
0.896 2.431 5.178
0.603 2.228 5.046
0.522 2.092 5.031
0.316 1.920 5.110
0.280 1.618 5.114
1.096 2.737 5.060
1.143 2.458 5.207
1.062 2.308 5.247
0.905 2.010 5.222
0.666 1.962 5.162
0.638 1.757 5.102
0.488 1.478 5.229
1.369 2.379 5.301
1.215 2.138 5.279
1.016 1.970 5.298
0.877 1.827 5.344
0.790 1.656 5.357
0.555 1.396 5.300
1.453 2.105 5.478
1.129 1.912 5.383
1.086 1.638 5.492
0.934 1.420 5.345
0.763 1.279 5.350
3.201 3.939 6.069
3.046 3.858 6.048
2.890 3.536 6.075
2.840 3.380 5.979
3.488 4.086 6.222
3.416 3.864 6.161
3.167 3.690 6.294
3.125 3.417 6.115
2.885 3.214 6.203
2.771 3.047 6.104
0.887 5.280 4.618
0.751 4.974 4.546
0.515 4.892 4.549
0.435 4.644 4.483
0.384 4.526 4.394
0.966 5.178 4.556
0.942 4.903 4.651
0.694 4.680 4.695
0.552 4.591 4.555
0.507 4.223 4.585
0.278 4.201 4.539
1.266 4.987 4.743
0.999 4.764 4.771
0.977 4.671 4.845
0.782 4.329 4.738
0.602 4.078 4.796
0.519 4.029 4.786
0.336 3.797 4.796
0.317 3.431 4.894
1.382 4.845 4.828
1.328 4.639 4.890
1.010 4.529 4.831
0.908 4.285 4.864
0.702 3.949 4.848
0.553 3.828 4.866
0.467 3.643 4.926
0.412 3.522 4.892
0.490 3.256 4.867
0.327 3.095 5.019
1.188 4.248 5.078
1.156 4.169 4.958
0.884 3.837 5.059
0.769 3.672 4.984
0.573 3.504 4.995
0.532 3.229 4.876
0.781 3.093 5.010
0.513 2.991 5.106
0.467 2.787 5.087
0.200 2.573 5.043
0.121 2.321 5.103
0.959 3.592 5.200
0.797 3.303 5.012
0.613 3.097 5.115
0.882 2.964 5.170
0.629 2.736 5.181
0.653 2.613 5.196
0.369 2.475 5.223
0.170 2.292 5.116
0.060 1.927 5.058
1.014 3.318 5.161
0.897 2.941 5.197
0.940 2.768 5.232
0.814 2.534 5.355
0.678 2.266 5.285
0.501 2.149 5.319
0.197 1.835 5.345
0.049 1.618 5.267
0.991 2.462 5.380
0.863 2.332 5.498
0.662 2.224 5.331
0.615 1.912 5.424
0.429 1.661 5.370
0.229 1.565 5.420
0.055 1.321 5.356
1.047 2.167 5.464
0.971 2.018 5.574
0.747 1.913 5.481
0.628 1.588 5.599
0.398 1.404 5.529
0.324 1.219 5.590
1.159 1.817 5.699
1.014 1.694 5.635
0.849 1.519 5.586
0.635 1.379 5.734
2.584 3.490 6.311
0.741 5.232 4.745
0.606 5.058 4.804
0.566 4.812 4.767
0.386 4.766 4.782
1.204 5.443 4.798
1.008 5.117 4.856
0.844 4.959 4.795
0.727 4.758 4.927
0.593 4.652 4.898
0.311 4.293 4.827
1.519 5.528 5.031
1.357 5.341 4.984
1.209 5.018 5.083
0.923 4.752 5.012
0.871 4.617 4.872
0.608 4.449 4.920
0.621 4.264 4.995
0.428 4.045 4.904
1.366 5.188 5.064
1.194 4.878 5.143
1.170 4.794 5.116
0.903 4.412 5.134
0.918 4.247 5.113
0.662 4.076 5.056
0.537 3.870 5.016
1.367 4.590 5.169
1.259 4.444 5.173
0.958 4.103 5.168
0.871 3.914 5.170
0.785 3.774 5.186
0.496 2.728 5.451
0.328 2.483 5.404
0.088 2.395 5.321
0.021 2.022 5.414
0.614 2.471 5.448
0.517 2.368 5.545
0.324 2.055 5.571
0.188 1.890 5.441
-0.004 1.819 5.527
0.658 2.129 5.644
0.562 1.975 5.588
0.254 1.836 5.596
0.275 1.534 5.696
0.136 1.383 5.507
0.746 2.016 5.808
0.615 1.853 5.757
0.416 1.780 5.679
0.298 1.531 5.679
0.287 1.308 5.629
-0.034 1.122 5.653
0.601 1.597 5.915
0.435 1.380 5.926
0.444 1.188 5.776
0.876 5.787 5.082
0.730 5.661 5.048
0.643 5.378 4.862
0.543 5.136 4.926
0.458 4.994 4.999
1.355 5.918 5.132
1.153 5.609 5.199
0.994 5.452 5.135
0.907 5.232 5.022
0.786 5.099 5.038
0.522 4.836 5.016
0.319 4.639 5.043
1.475 5.678 5.282
1.270 5.467 5.284
1.248 5.389 5.316
1.016 5.107 5.249
0.960 4.873 5.124
0.767 4.672 5.197
0.593 4.559 5.149
1.822 5.706 5.369
1.575 5.578 5.277
1.482 5.358 5.457
1.373 5.090 5.377
1.224 4.997 5.294
0.957 4.828 5.230
0.782 4.480 5.292
0.638 4.430 5.390
1.950 5.555 5.429
1.764 5.550 5.453
1.750 5.188 5.436
1.492 5.055 5.483
1.286 4.872 5.566
0.206 2.140 5.794
0.017 2.036 5.777
0.322 2.144 5.793
0.263 1.983 5.812
0.089 1.685 5.750
0.436 1.837 5.930
0.155 1.632 5.957
0.187 1.385 5.881
0.446 1.402 5.980
0.310 1.244 6.107
0.054 1.050 5.979
1.095 6.061 5.104
0.932 5.822 5.252
0.663 5.750 5.204
0.608 5.368 5.166
0.329 5.197 5.107
1.233 6.045 5.448
