55.102024 79.44651 12.7124
52.602024 79.15051 12.241401
50.610023 39.725513 44.4344
49.164024 41.102512 43.5144
39.909023 33.68751 44.4344
38.205025 35.025513 44.2944
38.076023 86.54551 9.2794
40.061024 87.85151 7.9714
42.090023 92.702515 13.3644
43.329025 91.85851 15.288401
20.493025 75.69951 46.3354
21.802025 77.43051 46.7744
32.583027 77.660515 42.2474
32.207024 77.11751 40.269398
40.644024 87.69651 10.8244
42.740025 88.41251 9.3674
50.752026 88.36551 13.3304
51.118027 89.27451 10.854401
48.455025 54.384514 11.4664
48.250027 54.78551 14.2144
39.587025 61.16651 17.6784
38.974026 59.62451 18.7704
0.97203064 19.829514 39.4404
1.5990295 18.067513 41.2234
66.61302 14.478516 52.144398
64.75703 16.013512 52.894398
57.854027 3.6135101 23.1744
57.871025 6.337509 22.9734
62.572025 9.048515 15.729401
62.686028 10.29451 14.1074
43.754025 73.231514 35.4524
42.096024 71.72951 33.9334
47.851025 67.924515 26.521399
46.386024 66.09851 26.5844
61.983025 5.0015106 45.7014
61.696026 5.3095093 47.852398
62.199024 4.721512 57.4544
62.622025 5.0205154 0.61639786
29.587025 0.493515 55.1824
28.458025 98.05651 55.4104
38.196026 93.02551 53.5704
38.498024 95.22851 52.6364
32.982025 85.771515 15.649401
32.355026 85.68651 13.4524
26.600025 78.99251 17.9564
24.689026 80.27851 19.3134
37.475025 37.512512 56.1534
39.523026 37.12051 57.1074
45.582024 48.42451 58.3534
44.292027 48.836514 56.4544
45.733025 55.00051 34.5204
47.702026 56.70151 35.811398
57.036026 50.75151 40.3554
58.675026 49.686512 39.5644
8.746025 28.679512 4.0104
10.628029 30.168512 3.5704
3.435028 30.222511 8.9034
4.1200256 29.58151 10.8914
25.580025 11.841515 8.5034
24.283026 11.666512 10.496401
28.871025 19.125511 10.6864
30.898026 19.777512 11.566401
45.992023 26.621513 28.885399
47.341026 25.441513 27.6954
53.414024 18.312515 35.8054
53.222027 19.665512 36.9584
42.702026 57.76351 2.7023969
44.291023 59.129513 1.8043976
35.082024 55.553513 55.8954
33.683025 56.80751 57.9134
10.2990265 81.80151 -0.75060004
8.90403 81.23551 -2.1596003
7.546028 75.70851 5.8944
8.343025 75.91751 8.4174
35.050026 72.25051 32.1634
37.506023 71.30351 33.3244
43.376026 74.43551 23.784399
42.475025 75.09651 21.6334
56.440025 11.056511 44.8864
56.673027 9.356514 43.3094
67.90502 8.316513 41.9664
66.95702 7.4995117 44.0114
23.875027 75.46551 8.0314
21.547031 74.88251 9.2674
13.694031 72.40851 8.9194
14.108025 71.87551 6.4184
25.275026 93.49551 47.6394
26.598026 95.33451 46.0174
29.412025 89.856514 40.4504
30.363026 87.95751 40.2724
39.942024 57.969513 14.7234
37.801025 59.565514 16.3664
38.360023 59.725513 7.9453998
38.020023 61.662514 6.2984
40.211025 58.57651 43.991398
42.633026 58.204514 43.817398
48.735023 67.51651 40.6764
49.700024 67.43351 38.5944
30.998026 70.564514 28.701399
32.150024 69.54551 27.257399
33.842026 74.62751 26.1834
34.510025 75.69251 28.2654
26.876026 95.33151 18.7524
26.277025 97.95751 18.9224
17.326025 91.20951 15.2654
19.180025 90.68551 17.4864
42.124023 71.67751 49.894398
40.358025 71.53151 48.4654
37.493027 62.376514 45.2294
36.007027 62.581512 43.873398
27.138025 46.67351 46.3364
26.207026 48.450512 45.2754
18.305025 45.427513 42.9684
18.513025 48.261513 42.9674
25.274025 33.11251 43.1084
25.755026 31.305511 41.4064
32.578026 35.80851 33.5704
33.961025 33.990513 33.6424
65.88203 52.60551 12.1014
64.870026 54.14751 11.4804
59.204025 62.84651 15.970401
60.985027 63.565514 15.484401
24.439026 10.744514 58.9954
25.346025 10.010513 56.686398
35.181026 9.920509 58.7564
36.718025 11.368515 0.0983963
17.496025 75.90851 7.7623997
17.380026 73.62351 7.6724
23.112026 68.99851 14.2804
25.303026 70.05351 13.932401
0.0850296 48.399513 17.5634
2.725029 48.86251 16.7224
11.05603 53.76551 19.281399
12.119026 56.072514 19.7964
24.157026 33.686512 34.3414
26.131025 34.24351 33.9744
33.606026 26.388512 31.6174
35.674026 27.113512 31.4364
21.240026 59.68151 49.7504
22.649025 57.53451 49.894398
24.133026 67.57651 47.8544
26.127026 69.06251 47.5254
24.222025 38.48051 49.602398
25.689026 38.991512 51.2264
32.923027 32.99251 45.6894
35.232025 33.665512 44.8544
25.478025 13.647514 51.8234
24.401026 13.145515 54.3054
35.053024 13.449516 1.3363991
34.917027 12.159515 3.6344
48.624023 67.508514 44.1854
50.817024 68.106514 44.7074
60.990025 67.55951 41.1804
61.693027 65.56051 40.8374
19.70203 4.2495117 42.7784
17.642029 4.3885117 43.199398
11.405029 96.33751 36.6564
9.77803 96.65251 35.0844
65.564026 81.95051 4.3474
67.89102 80.96251 3.8594
66.39403 83.99051 12.1854
64.96503 84.71851 13.750401
9.040031 20.37651 43.2914
8.6740265 20.139511 41.491398
9.8750305 19.89151 32.2854
9.229027 17.969513 33.6484
15.604026 94.593506 11.4214
17.579025 94.35951 12.6504
21.705027 92.64151 18.295399
21.668026 90.49351 18.3734
21.692026 83.35951 6.1893997
19.456026 84.51651 5.7704
21.499025 86.21151 15.6084
20.442026 86.99851 17.7064
5.624031 83.94851 50.2814
6.2400284 85.84451 50.0704
69.20802 94.40951 50.449398
69.15302 94.941505 53.040398
54.252026 4.5275116 20.3134
56.367027 4.788513 21.031399
60.687027 95.34651 14.6414
62.328026 94.01651 13.401401
69.00402 60.157513 12.234401
0.042030334 61.684513 10.8774
64.50002 62.016514 17.5844
66.47702 61.913513 18.9784
32.510025 16.050514 40.7054
34.345024 15.771515 39.5564
35.564026 4.5345154 41.943398
37.028027 4.3355103 40.9794
38.394024 49.92551 54.2894
36.071026 49.512512 54.1744
28.247025 45.109512 49.1044
26.179026 44.150513 49.095398
66.53303 16.832512 38.3404
64.51602 16.61351 38.3394
61.257027 11.406509 48.929398
59.877026 12.282509 50.2544
30.425026 16.22551 36.3144
30.661026 17.677513 34.3674
28.828026 27.67051 39.9944
27.590025 29.231522 41.6694
50.094025 25.261513 17.1764
51.348026 27.19851 17.889399
53.390026 27.929512 22.576399
51.999027 26.992516 22.9924
54.015026 2.2125092 54.5504
52.018024 3.0065155 56.1124
52.179028 11.073509 50.4464
52.731026 12.186516 52.811398
23.044033 49.31251 52.7894
22.572033 47.60451 53.9114
15.779022 47.80751 46.706398
17.829025 48.97351 45.9254
3.8890305 22.722511 25.8224
2.3560257 21.732513 26.4734
65.718025 13.193512 24.861399
64.64503 11.606514 25.2754
58.257027 76.89851 28.007399
58.133026 78.61751 26.399399
62.114025 75.84751 18.302399
60.502026 74.37451 19.6034
19.748028 31.468512 20.1554
20.470028 30.909512 22.8044
15.262024 40.18751 29.3134
13.594025 41.642513 27.9984
40.092026 6.9445114 0.8833999
41.457024 6.2755127 2.2904
34.692024 0.086509705 8.9994
33.128025 1.1605148 10.2254
39.501026 57.086514 17.6904
39.513023 56.25751 19.6684
47.333023 63.491512 21.6764
49.339024 63.526512 20.2754
14.557022 88.99351 32.1124
14.606026 89.55351 34.561398
23.857029 84.08851 34.5344
25.879032 84.41551 35.401398
17.356026 78.56551 45.0374
18.679024 78.27551 47.012398
13.568031 71.97151 42.3884
14.692024 69.46251 41.3634
61.800026 89.18451 42.7514
62.797028 87.40851 41.7324
54.515026 79.38651 48.6694
55.450027 77.827515 47.5714
16.204025 25.62651 31.8564
14.499023 25.324516 30.496399
12.308029 32.92452 22.132399
14.028023 33.988514 23.0404
39.207024 94.413506 27.0044
39.664024 93.26151 28.5064
48.605026 90.67151 29.844398
49.215023 91.86051 31.0704
52.318027 36.13951 50.3414
53.407024 36.699512 48.8404
43.836025 29.065512 48.2314
41.767025 28.618511 49.5504
15.383026 6.179512 57.1854
13.262024 7.528511 57.8034
10.643028 96.62851 0.42139816
9.777031 95.09051 58.290398
56.021027 58.01451 29.0774
56.073025 58.30051 31.1034
65.02103 57.34151 30.9254
63.629025 59.18951 31.635399
42.836025 88.48251 5.7894
43.314026 86.55451 7.1134
36.745026 78.25251 3.4464
37.965023 76.58351 4.2024
28.031025 75.34951 38.6714
29.442026 76.188515 40.0134
34.166027 70.99951 48.1214
36.688026 70.89351 47.4484
22.565025 98.22551 9.2894
21.353025 97.91851 11.3934
30.593025 0.88451385 10.3364
31.019026 98.58551 9.302401
14.3980255 20.486511 45.7304
16.775026 21.07251 46.234398
23.809025 21.451515 42.942398
25.931026 20.23751 42.1904
42.563026 96.01751 42.6184
44.884026 96.12751 41.9274
38.413025 3.2865143 45.9164
38.286026 1.6995163 44.1914
66.398026 5.18351 45.304398
68.94502 4.0915146 45.2724
7.038025 8.525513 51.0804
8.743027 8.973511 52.859398
45.510025 30.679512 57.2174
46.154026 30.962511 59.047398
48.665024 36.48651 3.705399
49.580025 38.63151 4.3914
38.425026 73.75751 15.6534
39.146027 75.731514 16.3764
33.006027 79.77051 22.767399
32.126026 81.856514 22.3354
35.027027 43.420513 36.9804
35.934025 41.740513 36.067398
41.230026 39.253513 27.625399
42.949024 39.123512 28.639399
64.52702 78.19951 36.1624
64.634026 79.41651 34.4384
67.05702 81.855515 22.5044
64.941025 82.91751 22.6334
3.3510284 70.79551 14.0404005
4.1500244 72.49751 15.833401
64.248024 76.36651 16.4714
62.888027 77.51051 14.8554
15.252029 34.24251 48.7894
15.573029 35.449512 46.6624
18.121025 24.726511 40.7424
19.802029 26.387512 39.7024
57.115025 69.53251 56.3764
58.815025 70.64851 56.7584
52.286026 79.64251 51.5734
54.330025 81.39851 51.9254
37.190025 50.068512 18.278399
39.407024 50.91751 18.6344
44.993027 49.04351 9.4074
45.117023 47.387512 7.3993998
61.822025 99.107506 38.3164
63.482025 1.6615143 38.456398
1.9620285 93.89351 42.0424
1.9320297 91.660515 41.2754
20.137026 18.177513 43.7324
19.099026 17.11351 42.1484
19.148026 7.4605103 45.4004
19.698025 4.9025116 45.4054
12.544029 35.13851 34.2854
13.468025 33.81551 33.0224
20.752033 31.186512 28.6164
23.294033 32.282513 27.2664
21.423025 8.451515 23.285398
22.351027 10.376511 22.5084
29.036026 4.07251 15.033401
29.485025 6.106514 15.274401
25.146025 88.32551 16.1934
23.434025 87.23551 17.9574
20.298025 82.96951 27.0474
18.356026 81.77651 27.107399
37.223026 44.54351 37.866398
35.891026 44.422512 40.248398
29.805025 46.114513 45.970398
29.816025 47.27051 48.0304
36.475025 62.797512 41.0754
37.581024 61.04951 41.9664
44.664024 57.43751 38.074398
45.519024 58.47851 36.2704
5.9670258 56.155514 29.1274
6.2240295 55.093513 27.4594
11.77803 63.331512 22.5114
13.288025 62.893513 20.8804
33.998024 97.885506 2.3713999
35.356026 0.11151123 3.7314
28.594025 10.201515 5.9834
29.262026 10.459511 3.6144
54.189026 46.630512 -0.50260013
51.978027 47.16651 0.0953999
51.486027 52.351513 11.3634
51.750027 49.77951 10.9354
36.425026 75.08951 6.4003997
35.848026 76.93651 7.8904
23.265026 78.69251 10.4104
22.953026 80.61051 10.6464
15.815025 46.74451 11.9884
17.656029 46.794514 10.2194
21.072033 51.426514 13.7924
22.060032 49.71451 14.479401
0.78902435 38.538513 46.8924
3.159027 39.025513 46.5374
3.2820282 37.25051 37.7494
4.305031 37.935513 36.2094
6.7950287 57.447514 1.8203964
5.994026 59.845512 2.1593976
13.604027 64.49151 55.1404
14.946022 65.88651 54.0454
61.933025 51.662514 0.17039871
64.31902 51.940514 58.574398
65.773026 40.900513 57.6214
64.70103 39.40451 58.1284
64.36302 83.32951 19.9974
63.073025 82.36751 20.8084
55.006027 83.50451 14.1474
55.790028 82.32951 12.0224
1.187027 6.9965134 26.0374
69.261024 7.55851 25.094398
60.811028 10.731514 29.3224
59.116024 10.670509 31.330399
64.72903 59.732513 15.071401
65.65602 57.79951 14.361401
67.96403 48.400513 15.7574005
68.109024 46.75051 13.979401
35.255024 66.17051 52.5834
36.713024 64.37351 53.8634
40.763023 59.56951 1.2643967
39.936024 59.344513 3.2813993
31.381025 94.52951 17.923399
32.946026 95.69451 19.4714
32.502026 7.785515 21.6414
30.543026 8.08651 22.7174
49.355026 63.295513 59.0434
48.987026 63.129513 56.8124
44.454025 71.58551 53.1274
42.659023 70.26151 52.2684
49.586025 88.78951 22.8974
51.407024 87.60251 23.121399
54.523026 89.17851 14.8534
53.497025 88.271515 13.269401
5.187027 30.750511 -1.6586001
5.51503 30.37651 0.6094
65.96603 34.98051 3.0753999
64.037025 35.47551 3.4164
68.83702 89.33451 48.3954
68.29803 89.44051 50.7684
60.596027 81.16351 46.7294
62.438026 79.910515 46.422398
33.525024 84.01551 11.7914
31.391026 84.17351 11.3324
26.372026 90.14851 14.5634
28.499025 90.03751 15.1974
5.586029 66.17151 0.7703972
4.9340286 68.17751 58.6974
63.000027 66.80651 59.0454
62.681026 67.61551 2.323399
62.908028 15.172516 58.1054
63.038025 14.565514 55.8654
53.436028 22.40551 51.9244
55.580025 23.782509 51.019398
39.781025 39.795513 34.130398
41.437023 39.09751 32.8844
41.664024 51.26351 31.809399
39.919025 52.044514 30.8774
18.920029 58.25051 36.408398
18.150024 58.852512 34.4624
15.84903 68.508514 37.8724
13.646027 69.22251 37.192398
25.448025 23.30851 52.7744
25.174026 25.47451 54.3124
20.780025 30.745516 43.512398
22.755026 29.905512 42.255398
42.792027 52.34151 58.7114
43.499023 51.380512 56.8234
47.740025 54.150513 48.7384
48.064026 55.711514 46.5024
54.846027 46.34151 21.9704
53.961025 44.29151 21.2974
49.280025 52.00751 13.0074005
47.251026 51.843513 12.3014
25.189026 69.00351 41.262398
24.544025 67.46051 43.2674
20.764025 58.775513 38.1784
22.482025 58.037514 36.2534
5.102028 64.57951 35.1894
6.0680313 63.989513 37.0444
14.649025 55.90251 33.4734
14.172028 54.398514 31.7894
69.21403 5.052513 0.15939713
68.99102 2.8485107 0.87939835
0.80202484 97.33751 52.2374
2.3160248 96.64451 50.2334
29.442026 65.50551 27.2234
30.308025 67.258514 27.5444
28.402025 66.72851 18.7624
26.149025 66.06851 19.1894
33.480026 58.98751 24.0534
32.767025 59.90251 26.423399
35.427025 51.13951 33.2004
35.482025 52.35351 35.3094
16.269028 43.76451 7.7214
16.535027 45.755512 7.9593997
3.9430313 47.80051 9.6034
3.711029 46.29851 7.5934
28.747025 23.397514 24.038399
26.298025 23.161514 23.753399
16.582026 24.464516 18.159399
17.204025 22.233513 19.003399
39.245026 76.08051 6.8044
38.413025 77.44751 8.6224
49.397026 76.16451 11.394401
51.071026 77.34751 10.578401
14.617027 43.96551 1.6284
15.075027 42.693512 3.8334
16.609024 31.891512 5.3764
17.276024 30.579512 7.3294
53.597027 57.04951 30.125399
51.555023 57.46651 29.6964
49.469025 47.190514 30.2874
47.943024 45.73551 28.4924
59.683025 62.70851 11.6014
59.385025 63.40951 13.4574
66.73502 68.53351 7.1404
67.29302 68.93751 4.3834
1.9240265 31.072512 17.8334
1.1180267 30.314516 20.284399
64.47402 25.89151 25.8454
64.15402 24.436516 27.6304
38.497025 48.72851 27.257399
39.918026 49.359512 28.3494
48.079025 39.09851 27.753399
49.628025 38.19651 28.923399
3.5110245 97.26451 22.882399
2.746025 95.78351 24.403399
3.0700302 5.646515 20.9744
3.3080292 3.493515 19.5584
16.418022 44.89851 4.9183965
14.629028 45.936512 3.5024
8.443031 50.449512 58.0324
8.982025 50.905514 55.4974
20.160027 87.34951 42.3034
20.218025 87.83151 44.6824
22.182026 82.06151 53.8934
21.320026 82.75051 56.3434
65.74902 87.81151 41.401398
64.97702 85.785515 41.2564
64.080025 86.71151 28.6294
62.926025 88.01451 27.729399
58.193027 20.078514 14.345401
59.373024 21.15451 15.977401
64.705025 10.948509 20.8314
63.450027 10.96051 22.746399
0.44102478 45.693512 7.0703998
2.3960266 43.817513 6.9944
1.5470276 36.963512 -1.7096002
69.29903 36.330513 -1.4756
23.556026 70.32551 48.3224
22.60503 69.28851 46.4904
16.170029 64.03951 44.331398
16.857025 63.656513 41.8494
5.010025 25.37951 26.8184
6.2380295 24.021511 25.2304
9.830025 34.12451 21.7514
8.205025 35.56251 21.594398
6.8130264 4.675514 1.2283999
5.91803 6.7775116 0.79539996
5.7000275 1.8225098 7.0504
5.032028 1.8065109 5.2854
65.82703 15.948509 35.8494
65.177025 14.230515 34.6754
62.954025 20.273514 29.6504
63.325027 22.785515 30.236399
2.786026 40.477512 26.0134
2.5610275 41.84751 28.2024
0.87002563 52.42351 27.8774
2.5450287 53.261513 28.8154
48.547024 63.287514 24.7414
46.403027 64.24851 24.680399
36.360023 63.536514 30.444399
35.092026 63.358513 28.844398
68.411026 7.9445114 19.878399
68.205025 6.89151 21.927399
3.0510254 98.62951 17.3694
1.2690277 98.88151 16.0224
10.09803 49.422512 31.3954
8.816025 48.705513 33.0554
7.09803 38.77351 36.012398
5.8270264 38.699512 33.8884
52.909027 31.949518 24.0854
52.605026 29.674517 24.4254
56.095024 28.29351 35.547398
54.955025 30.138514 35.2954
4.4030304 48.760513 35.4074
4.720024 49.406513 37.4094
13.359024 46.498512 44.4274
13.879028 48.43151 44.9744
52.251026 87.65651 41.3884
50.071026 87.75051 40.2054
47.167027 96.55351 40.6414
47.506023 98.69551 39.4414
39.792027 13.229515 18.552399
41.979027 14.361511 18.1404
45.074024 18.062515 7.8714
44.945026 16.660515 6.2704
37.872025 76.33451 40.213398
36.927025 78.47451 41.9544
48.524025 77.40951 39.7634
48.064026 75.16451 40.4204
20.929026 96.24751 2.733399
20.585026 97.89551 4.2673993
21.911026 7.736511 54.8654
24.443026 8.531509 54.1764
21.835026 81.90251 13.519401
23.989025 82.32651 13.031401
30.541025 81.73551 7.1524
31.725025 82.15351 5.1604
11.659027 90.69651 32.8834
9.354027 89.855515 31.9834
7.6760254 79.70451 30.976398
8.711029 77.45051 30.6694
16.727028 32.330513 2.0743985
14.368027 31.950512 1.5253983
6.5450287 40.693512 59.067398
7.4290314 41.483513 56.9384
47.130024 76.95051 24.1364
44.642025 76.80751 23.878399
35.897026 75.79851 30.7334
34.813026 77.75151 30.7614
46.351025 36.93151 27.9924
45.332024 38.795513 27.4704
39.759026 47.886513 24.0424
41.014027 49.79951 24.4084
30.237026 51.44651 7.0034
31.956026 51.21751 5.4804
40.193024 43.70251 8.6374
42.254025 43.88151 8.3474
1.8310242 74.55251 51.6074
0.25102997 74.064514 53.873398
62.533028 71.92851 1.3223991
60.708027 70.81651 0.3783989
21.188026 21.75151 15.1384
23.224026 22.358513 14.0634
34.609024 20.371513 16.7084
35.613026 20.288513 18.9024
66.80702 34.324512 10.5964
67.774025 34.200512 12.748401
2.138031 33.26551 20.7274
3.385025 33.42351 18.5054
21.608027 61.15451 1.1803999
20.595026 59.84051 2.3794
31.465025 62.523514 6.0274
32.128025 63.075512 8.2274
0.82302856 12.138512 39.4384
2.2730255 12.012512 41.1084
63.372025 9.273514 49.4584
63.948025 7.471512 48.4354
56.570026 5.235512 5.5844
58.406025 3.995514 5.1014
69.345024 7.1785126 3.0784
68.91802 9.828514 3.3664
43.624023 16.12651 19.948399
42.755024 16.61451 22.0434
45.413025 20.490509 31.8354
47.002026 20.757515 34.0634
25.578026 57.393513 -0.8256001
23.818026 57.20151 -2.6326003
24.382025 53.22151 7.7493997
26.369026 54.69551 7.5824
5.5070267 98.75151 7.9354
6.133026 0.2815094 9.5284
66.66003 6.427513 14.5484
68.26802 5.139511 16.4794
25.207026 40.73051 32.7314
25.024025 41.80851 30.8794
27.724026 32.831512 22.3874
30.081026 33.33251 21.9434
34.733025 18.136513 7.5843997
36.293026 18.407509 6.2724
43.689026 10.463516 2.1053998
41.982025 9.115509 2.5614
66.15402 45.484512 51.8754
64.911026 46.616512 50.9644
55.455025 44.156513 56.026398
55.710026 42.164513 54.6114
0.7380295 33.07051 9.1044
0.31502533 34.165512 11.316401
0.073028564 44.90251 16.0104
69.217026 44.686512 18.0584
48.329025 37.77951 35.547398
48.426025 39.44751 37.2854
48.274025 47.80051 36.9174
48.836025 49.525513 35.408398
23.870026 52.318512 52.4144
24.844025 53.843513 53.887398
34.193024 57.004513 48.1124
34.388027 59.78551 47.817398
68.83903 89.63251 18.2834
67.913025 91.189514 17.0394
61.297028 92.14951 25.975399
61.006027 94.53351 27.3634
1.286026 5.453514 17.8594
0.6780243 8.247513 18.1364
1.0260239 15.288513 11.5634
0.3010254 15.267509 9.802401
41.059025 32.31252 53.3284
40.119026 30.835512 54.6064
45.568024 21.199516 59.116398
45.835026 20.47451 56.7634
33.087025 39.380512 32.5834
30.405025 38.810513 32.754402
29.671026 45.713512 43.1784
28.271025 47.20851 43.783398
38.231026 90.00551 30.1304
37.502026 89.870514 28.1714
35.630024 86.31051 17.7034
37.420025 85.37751 16.614399
35.296024 37.83451 21.7064
35.452026 35.796513 23.017399
36.605026 36.046513 26.830399
36.670025 37.43751 25.0814
27.046026 43.087513 10.0114
29.239025 44.54251 9.3004
34.504025 38.150513 1.9333999
34.931026 35.79451 1.9194
37.711025 63.227512 18.6154
39.496025 64.48851 17.5834
31.365025 65.23251 24.8384
32.772026 64.00051 24.878399
44.762024 22.083511 2.4524
42.766026 21.93151 3.5144
39.744026 29.161514 11.6594
40.693024 29.004517 13.696401
40.687023 14.07251 54.8014
42.627026 13.041512 54.4794
49.732025 22.687515 51.1014
51.445026 21.048515 49.9734
17.171028 51.364513 39.713398
17.014023 49.81951 41.2824
14.106026 39.75951 41.4144
13.173027 40.40351 43.2894
39.997025 15.291512 22.632399
38.852024 14.229515 21.4044
29.879025 10.605515 23.5864
30.431025 9.931511 25.910398
3.98703 20.546509 14.6244
2.7400284 18.33451 14.0444
2.8560257 8.207512 19.9124
1.3810272 7.986511 20.851398
67.887024 53.658512 46.9524
67.86002 55.650513 46.9214
58.763027 58.747513 40.0484
58.036026 60.16851 41.8034
4.3700256 53.13851 26.534399
2.7300262 51.43751 26.031399
13.092026 45.123512 28.9914
12.216026 46.878513 30.0704
50.978024 86.52351 27.7334
52.621025 85.98451 29.5844
55.563026 75.522514 30.826399
56.999027 74.49151 31.729399
45.928024 2.616516 43.9504
47.679024 1.9415131 43.644398
52.974026 2.719513 33.0274
52.705025 0.50951385 31.9054
11.461029 16.635513 31.9014
13.138031 17.051514 30.4664
20.55103 11.098511 24.4404
22.139027 10.64151 26.0854
23.642025 92.716515 3.4703999
25.792027 93.454506 2.5734
27.758026 95.56951 10.2214
25.731026 94.08051 9.8984
30.486025 79.786514 21.0404
28.939026 80.44951 22.8244
19.336025 77.73651 27.9544
19.694025 75.828514 29.114399
57.675026 34.78451 6.6004
58.169025 35.74551 4.7534
57.144028 46.746513 0.52239996
56.772026 45.53651 -1.0736
50.470024 89.06951 19.7974
52.540028 89.88251 21.9054
51.347023 0.28951263 24.1504
52.364025 2.4645157 23.281399
58.691025 11.070511 35.102398
59.270027 12.374512 33.1544
60.910027 18.688515 30.3724
62.231026 17.54551 30.3884
64.69802 2.8455124 0.9603996
66.440025 3.604515 0.4583969
64.482025 13.327515 54.0644
63.372025 12.782509 52.338398
11.798027 30.224512 33.1514
12.839027 31.689512 31.600399
9.562027 36.86751 23.6084
10.868027 38.297512 24.337399
27.139025 72.14051 51.4924
26.003025 73.72051 52.6394
31.545025 80.80451 58.1574
30.530025 82.842514 57.0564
22.638025 15.408516 56.074398
22.140026 13.291512 55.9484
23.792027 18.955513 54.4144
24.815025 20.775513 53.9674
52.778027 59.66051 24.8704
54.786026 59.768513 23.2514
65.87602 60.42351 30.146399
64.401024 62.010513 30.9954
32.195026 78.786514 25.3794
33.160027 78.08751 27.1314
25.342026 82.03351 36.0394
26.451025 82.47151 37.7584
55.529026 44.68251 19.0634
57.283028 46.40451 19.844398
63.461025 49.554512 10.3464
63.628025 50.761513 12.316401
69.64102 22.812515 28.017399
1.449028 21.57051 29.635399
5.9120255 20.44751 38.9244
6.831024 22.553513 38.3604
49.429024 60.537514 53.1254
51.211025 59.43251 52.5024
47.830025 49.476513 56.6534
48.451023 48.252514 58.692398
7.7080307 92.31151 17.2884
9.423027 92.66451 19.659399
20.420033 92.61651 21.5604
22.274029 94.00951 20.8314
4.930031 27.326515 0.6813965
4.73703 25.052513 58.8624
11.950027 19.58551 50.3674
11.060028 17.901512 50.7044
22.066025 3.5585098 47.8844
23.163025 1.6755142 48.0184
33.741024 3.078514 43.9124
35.641026 2.0245132 44.5394
42.052025 23.534515 1.3973961
40.709026 23.95951 3.0263982
36.249023 17.907509 1.5893974
34.774025 16.429512 1.4003983
28.014025 93.74251 33.2864
28.872025 95.45751 34.6064
22.470026 92.425514 44.436398
23.003025 89.93551 45.2094
19.229027 3.118515 28.857399
18.240028 3.316513 31.055399
17.109024 90.36751 31.8904
17.448029 88.86051 30.1754
57.490025 22.880516 16.4294
56.869026 24.15451 14.5554
57.471027 22.131516 6.9814
56.748024 21.21151 5.0414
47.762024 12.158516 33.1104
50.403027 11.598511 33.2054
49.360023 0.75551605 30.7834
51.412025 2.3115158 30.562399
40.215023 69.80251 36.3024
39.277023 68.25451 35.6524
49.345024 67.18751 28.6544
49.065025 65.50651 26.663399
22.293026 33.23151 53.9654
21.823032 31.680511 55.6624
16.882027 34.13451 52.5314
14.784027 33.86451 51.2754
11.989029 13.681511 5.4654
13.814026 14.582512 4.3974
20.982029 13.28051 6.8504
22.20303 12.601509 8.6264
36.187023 96.56851 4.0404
36.606026 98.524506 5.7944
47.175026 0.087509155 11.484401
48.857025 0.7305145 10.1244
1.899025 68.64051 46.3534
3.5590286 69.57351 44.3024
62.509026 69.40651 40.0574
63.062027 67.36251 38.9824
5.4880295 88.62451 39.588398
4.675026 88.83251 41.6284
7.456024 91.81051 50.817398
8.656029 92.95551 52.3014
4.527031 13.69751 9.4204
5.3840256 15.670509 10.8244
10.736031 19.645515 13.628401
10.336029 18.091515 15.6034
14.256027 82.73751 42.9554
15.748024 80.716515 44.6614
11.203026 80.69151 55.873398
13.155029 79.35051 56.2494
46.485023 0.25951385 15.7094
43.887024 0.94551086 16.4934
37.039024 98.95851 10.5214
38.315025 1.1975098 11.8244
23.540026 96.98551 41.0494
25.128025 98.75151 39.9404
37.800026 95.99351 41.4394
38.790024 98.39451 41.5984
33.580025 50.54251 36.2784
35.450024 48.92551 35.7044
25.929026 44.64851 30.2934
23.533026 45.48651 30.2214
48.921024 45.552513 38.401398
47.853024 43.552513 38.908398
49.201023 48.83951 45.192398
49.355026 50.142513 46.3104
4.378029 79.29251 52.3774
2.3370285 79.95151 52.5314
64.12602 78.13751 42.8134
64.55502 75.83851 43.1764
27.435026 60.73051 1.8863988
25.593025 60.032513 0.17239761
25.588026 70.11151 58.0364
25.259026 71.29051 55.9254
5.300026 90.70751 17.5984
2.72303 91.508514 16.6154
69.07603 88.54051 26.2024
1.2830276 89.591515 26.7974
27.254026 12.451515 49.1744
29.527025 12.73951 50.7944
33.388027 17.221512 56.2074
35.302025 15.601509 55.6184
27.485025 49.77751 8.0254
27.947025 47.76551 7.3634
28.808025 56.86951 3.7014
28.224026 58.09751 2.1914
23.146027 27.594513 56.7304
24.767025 26.568512 56.8764
35.345024 28.038513 55.2254
34.209026 29.543512 57.1834
2.1500244 14.41951 49.9534
1.0760269 15.264511 48.1564
4.3680267 7.771515 41.199398
2.9100266 8.053513 40.0804
34.071026 21.535515 -0.9436001
32.409027 21.778511 -1.9586
26.187025 22.12651 6.6844
27.699026 20.786514 8.5764
4.505028 29.08151 47.970398
6.536026 30.457512 48.6544
12.530029 35.75151 43.8054
10.09903 36.05851 44.4854
51.871025 31.970512 18.5494
52.560024 31.90751 16.7294
59.073025 34.38451 14.2004
58.582027 33.64751 12.116401
26.999025 0.4765091 53.915398
26.293026 3.0645142 54.5324
34.825024 4.7725143 50.651398
35.114025 2.8135147 51.5764
54.579025 32.15451 13.8864
56.515026 32.241512 12.8794
63.052025 32.98951 10.859401
64.44302 32.91751 9.519401
26.365026 53.144512 15.4264
26.640026 55.72151 14.2404
36.318024 59.440514 18.8594
37.342026 58.594513 20.8184
15.802026 61.426514 18.4284
16.203026 59.36951 18.3464
20.851027 67.96251 19.1864
22.228025 69.60351 20.3074
15.384026 89.911514 38.1894
16.763025 91.04451 39.3394
27.749025 91.35051 37.1404
28.654026 88.97751 37.817398
25.014025 26.000511 32.4914
25.726027 25.535515 30.312399
15.665026 22.166512 27.958399
14.815025 24.370514 27.7774
49.488026 1.8705139 4.6554
47.755024 0.9425125 5.1254
45.344025 89.314514 5.2824
46.669025 87.93551 5.8094
55.796024 29.288511 39.3504
53.803024 30.071512 39.5524
48.655025 26.878511 47.4474
50.044025 25.604511 46.5514
11.297028 47.051514 14.6854
12.385025 48.892513 14.8644
10.294029 55.84151 5.6214
9.003029 56.706512 4.1664
42.532024 35.22151 16.8084
43.332024 36.73651 15.309401
50.935024 36.63951 5.7064
53.075027 36.52751 6.0464
35.939026 59.525513 45.0934
35.049026 57.391514 45.4134
40.789024 50.315514 53.4694
41.397026 51.304512 55.0164
25.655025 98.63451 27.7334
23.328026 97.20051 27.989399
17.100025 97.48651 18.6794
16.678026 0.5695114 18.2004
18.318026 4.1335144 21.9904
20.119026 6.0675125 21.7724
16.954025 5.8765106 24.5084
16.199026 4.588516 26.0364
57.173027 82.09951 52.220398
59.137028 82.33751 50.3654
69.13103 77.91251 56.5284
1.2180252 78.467514 55.186398
19.07203 20.366516 42.5564
19.37703 20.729515 40.1684
15.766029 26.708511 35.9884
14.589027 25.040512 34.4404
1.6700287 23.03051 23.7874
1.6020279 23.344513 21.7484
3.8600311 11.698509 23.1134
1.8980255 11.903511 23.7444
37.513023 67.04251 56.6084
35.758026 67.83751 57.9484
31.325026 58.352512 0.456398
31.158026 57.15451 2.4893994
5.687027 33.74951 23.1524
5.7070312 34.79251 21.1094
67.512024 41.02951 23.9124
66.93603 43.185513 23.7614
0.45703125 69.90451 22.0124
0.5780258 69.89151 24.080399
2.8860245 68.08851 32.0964
3.3690262 70.175514 30.6414
57.075027 35.40451 45.2124
58.146027 33.665512 47.1354
64.92902 43.415512 46.9474
67.023026 42.11151 46.8334
3.2810287 47.49451 4.7334
2.0450287 47.933514 6.4834
61.952026 49.738514 7.0053997
62.099026 51.822514 5.8074
28.019026 8.806511 26.7354
27.342026 9.746513 24.5304
23.576025 97.71051 22.208399
25.346025 96.83551 23.6894
12.632027 7.3015137 37.311398
11.925026 4.8475113 36.9934
6.6320267 4.3505096 44.9124
7.1340256 6.9545135 45.5774
58.521027 58.483513 19.7694
60.304028 57.21051 20.3414
2.8280258 56.144512 21.510399
3.187027 54.81451 19.8174
15.561028 12.334511 7.1584
16.944023 12.616516 8.6614
22.025028 22.776512 11.611401
22.030033 24.450516 10.477401
40.420025 9.568512 47.3354
41.024025 9.830513 45.1634
35.291027 6.8015137 36.7214
34.571026 5.094513 35.859398
17.903023 7.872513 21.6574
19.339027 9.112511 20.455399
12.00103 14.870514 19.257399
10.787025 16.110512 19.3844
32.493027 65.02351 5.3193974
32.940025 67.54851 4.5653996
31.218025 71.05551 53.3024
33.702026 71.54651 52.3034
29.518024 64.25551 39.3154
31.324026 65.44151 40.2504
34.915024 64.47551 50.033398
35.178024 62.879513 52.0014
45.367023 6.5345154 47.5844
44.654026 8.134514 48.4404
37.630024 13.231514 48.6054
39.498024 14.924515 48.2334
4.3890305 67.39951 20.3394
4.2730255 68.93451 22.0164
3.248024 61.07751 30.212399
4.6390305 61.226513 32.2144
4.2190247 58.004513 9.3774
1.8130264 58.43251 9.7374
2.1880264 61.460514 -1.3866
4.0420303 60.058514 -0.46660012
58.014027 84.424515 54.2744
58.868027 84.896515 52.3924
65.926025 86.008514 58.8834
65.677025 84.39951 1.3443985
22.812025 88.786514 0.8333969
23.548025 90.15451 2.3453984
32.615025 84.03851 58.6344
34.100025 82.60851 1.3333969
3.6940308 95.10051 40.3704
3.9240265 93.50351 39.5214
0.105026245 97.93851 29.7234
67.706024 98.34751 28.8654
23.57603 68.258514 59.0274
23.103031 70.19551 0.64239883
15.909027 60.80751 3.2753987
14.579025 60.82651 4.6193967
31.488026 31.117512 44.1904
31.594025 33.23251 42.9964
34.974026 28.44251 33.5544
36.367023 29.564512 32.1794
40.771027 41.09151 48.1064
39.424026 41.19451 45.637398
40.669025 46.595512 46.8724
38.960026 45.19551 46.7144
28.972025 62.481514 27.795399
29.876026 63.967514 29.142399
31.467026 55.08451 36.831398
33.255024 56.686512 37.8964
37.152023 25.703514 55.380398
38.515026 27.484512 54.6914
36.970024 20.241516 45.8354
35.405025 19.10051 44.8864
15.316025 48.27751 15.729401
14.050026 49.58451 16.6954
23.167027 46.338512 26.1234
23.06403 48.80051 26.6314
9.636024 12.582512 51.3464
8.804031 11.609512 53.0654
16.985023 13.736511 0.59939957
18.953026 14.498512 0.1853981
62.842026 86.300514 -0.85359997
61.570026 85.18551 -0.5736
57.902027 87.674515 9.927401
58.972027 89.98451 10.0934
67.369026 92.10451 50.5044
66.07402 91.46951 48.7374
55.067024 91.20751 51.2474
55.877026 89.74951 52.206398
5.6170273 80.95551 29.4994
4.6500244 80.44551 27.819399
8.518028 89.84051 20.635399
7.5160294 88.911514 18.944399
23.188026 72.65651 58.2244
25.160027 72.47351 0.27539825
25.800026 84.66351 58.3324
23.630026 85.99851 59.1484
38.298023 60.276512 47.0874
36.623024 61.593513 47.6324
36.627026 69.37751 49.5774
36.306026 70.82951 50.6054
37.116024 29.985512 54.0574
37.411026 31.583511 54.8694
28.472025 39.22451 55.4304
26.450026 38.095512 55.8324
27.851025 48.719513 25.9214
29.837025 47.998512 26.5564
29.808025 53.100513 37.4354
29.850025 50.90951 37.9544
62.438026 30.353512 40.9604
61.567024 32.436512 41.512398
52.156025 35.184513 36.3004
50.040024 36.39151 37.3194
67.371025 59.72151 0.30539995
66.427025 58.58551 1.5243999
59.763027 65.52851 5.1984
57.887028 64.00051 6.7004
2.37603 21.983513 13.026401
1.6930313 20.742516 10.9684
65.02902 18.166512 6.0034
62.572025 17.361511 5.5484
11.1250305 67.84351 50.0694
12.884026 67.133514 48.2874
8.423027 58.07651 44.3214
9.377029 56.456512 42.4004
20.085026 86.01851 58.449398
18.450027 86.20651 0.6513977
11.256027 82.799515 1.9563985
11.7990265 80.52551 1.055397
34.771027 80.93251 58.0374
34.032024 79.34751 57.1114
38.818024 69.72151 2.441399
37.373024 67.93551 2.056397
36.082024 83.22951 43.568398
34.108025 82.35451 43.1204
34.416027 74.81151 33.2204
34.346024 73.22151 34.6714
42.350025 91.13851 45.3274
44.458023 92.397514 46.2264
49.874023 95.54251 50.9794
48.610023 95.61651 52.9474
55.911026 58.82751 41.5044
54.614025 58.448513 43.3084
56.107025 50.93251 49.1704
54.214027 51.36251 47.5754
1.4960251 51.767513 21.535398
0.42702484 52.547512 23.9564
60.986027 47.93151 30.406399
61.561028 45.72951 31.3314
62.621025 44.04251 34.505398
63.782024 45.74251 33.5144
66.50703 46.157513 24.2244
65.45203 47.762512 23.357399
17.834023 84.67151 -1.7386
19.277023 82.97351 -0.84260005
18.394028 79.15351 8.2454
18.162025 81.06051 10.090401
13.966026 81.34751 24.0084
15.395027 79.28451 25.482399
18.284027 70.77051 20.0794
18.473022 69.00051 21.2654
49.858025 13.61451 37.4214
49.297024 11.908516 35.7744
44.490025 6.288513 44.8704
43.701023 8.782509 44.901398
65.61402 1.7275162 3.1643999
67.71002 3.0605087 3.5574
1.4190292 8.29351 4.9004
3.22303 8.547516 3.2303998
64.05802 54.17551 56.8104
65.38203 53.039513 56.1334
66.900024 61.79151 51.0434
65.46302 62.396515 49.5304
60.828026 31.530512 6.3554
63.519028 32.17452 6.9993997
61.688026 22.186516 6.1444
59.373024 21.70951 5.0894
54.773026 57.365513 21.135399
53.459026 56.11851 22.8254
47.193024 48.644512 25.0584
44.966026 49.21451 25.632399
8.194031 82.76051 41.6474
8.078026 80.97851 43.3264
68.496025 86.51051 45.6154
66.59003 87.24851 46.5634
13.478027 30.113512 36.3464
12.194031 32.12451 34.9734
5.652031 34.19051 44.2854
2.8370285 35.23551 43.8884
39.768024 46.330513 49.3984
39.198025 48.65251 50.0734
33.618027 49.86051 39.394398
34.561024 52.27951 38.9594
19.772026 83.69451 2.1034
21.388025 82.51851 1.1063999
23.120026 72.67951 5.3684
24.138025 70.716515 5.0064
1.1080246 87.96251 52.5834
2.0560303 89.68251 51.6604
4.94503 94.55951 3.1803975
5.819031 96.98051 2.8103986
25.970026 49.01451 56.5144
25.063026 48.356514 54.6564
33.315025 53.82151 53.6144
33.861027 56.385513 53.8134
1.9190292 32.75051 39.4924
0.46902466 32.91151 41.4614
62.108025 32.288513 44.1954
62.594025 30.110512 43.4884
58.441025 14.213516 53.9684
60.830025 13.43351 53.2004
54.926025 11.339516 55.1324
53.479027 12.978516 55.3054
19.314026 88.73951 47.9784
16.43303 88.65351 47.2454
10.077026 90.52951 52.7534
8.729027 90.99151 54.5564
5.5280304 25.108513 37.6074
7.7710266 24.97651 37.8284
2.147026 31.638514 43.3354
1.4350281 32.53452 44.8824
68.63002 75.99151 30.538399
69.010025 76.62951 33.0234
6.645027 68.12951 38.1894
4.578026 67.05651 39.2984
5.4460297 65.60351 54.0034
7.044029 67.02351 53.3604
8.776024 73.63151 43.7584
7.971031 72.52051 41.6294
64.56103 64.85051 43.8014
65.14002 63.780514 42.0434
4.2750244 60.114513 44.6104
2.864029 58.40251 45.429398
17.292023 44.41951 12.7474
16.162025 43.984512 14.512401
11.990028 35.74951 21.100399
12.383026 36.399513 22.969398
67.61502 17.081512 6.2734
69.065025 18.05951 7.7904
4.9060287 25.619514 2.9854
3.2710266 26.841515 2.7344
61.955025 65.01751 47.6384
61.373024 66.23451 49.7744
59.141026 62.863514 58.1414
60.780025 61.63851 0.57239914
6.624031 54.35451 31.753399
5.546028 53.239513 29.844398
67.898026 48.60351 36.1104
68.954025 49.88251 36.8254
50.995026 67.99351 7.8884
52.922028 67.313515 7.0594
60.770027 77.370514 12.5414
62.283028 77.022514 10.793401
65.15502 82.31151 14.6994
65.871025 81.01951 12.8444
6.221031 74.828514 15.9714
7.9240265 76.02651 16.7054
34.374027 42.366512 44.7704
34.188026 40.393513 45.8554
32.678024 38.929512 58.4904
31.618025 41.41751 58.1044
52.816025 92.841515 50.6544
53.760025 93.41251 48.6004
61.037025 96.62251 53.2504
61.739025 96.43351 55.5314
1.1680298 5.4945145 30.4994
68.61703 3.6265106 30.6134
2.272026 98.746506 41.8264
4.095024 0.25551605 42.8414
0.24502563 23.28051 53.3724
68.83702 21.923515 52.4674
3.1280289 22.97551 59.1114
2.4690247 24.82351 1.0543976
2.838028 86.33051 26.2894
3.2700272 86.189514 28.229399
13.3370285 81.14851 26.562399
11.886024 80.56551 25.4854
47.273026 16.580513 18.5824
45.224026 17.324516 17.409399
46.522026 26.257515 9.7464
47.993027 27.16851 7.9734
25.639025 37.45451 12.5794
26.939026 35.691513 12.2284
19.956026 30.708511 11.7374
20.148026 29.349512 10.618401
37.233025 18.65651 15.819401
37.544025 17.93251 17.9744
49.723026 20.574516 20.6344
49.847023 23.271515 20.910398
46.752026 60.16651 1.1313972
48.276024 57.922512 0.42639923
54.680027 54.914513 54.4974
56.503025 53.57051 53.2284
60.724026 29.058517 54.276398
60.622025 27.55651 56.0274
0.536026 26.277512 58.2924
1.5790253 26.304512 56.442398
20.126026 36.948513 51.540398
17.875023 36.429512 51.6074
13.43203 44.72351 58.4804
11.859024 46.51451 58.4674
3.873024 76.84751 29.0444
3.5960312 78.99051 29.868399
5.192024 85.83251 39.5724
6.2120285 84.49051 40.3644
38.302025 95.95751 59.0704
36.203026 95.60951 57.5924
29.154026 87.45551 55.0224
29.103025 85.827515 56.1074
49.476025 73.32451 10.0234
51.629025 72.99051 10.6594
56.739025 63.31951 17.0254
55.937027 61.996513 15.236401
34.814026 62.044514 18.7334
32.342026 61.497513 18.434399
36.244026 57.83951 8.5054
35.703026 58.600513 5.9884
49.581024 69.37251 36.5594
48.345024 70.29751 38.408398
47.563026 62.412514 34.7324
47.619026 62.75051 32.3614
36.496025 36.31451 -0.56759995
38.610023 34.93151 -1.0616002
35.040024 25.038511 4.7734
33.397026 24.01551 4.7194
16.370026 33.736515 15.7894
18.934025 33.653515 16.3844
24.051025 24.525513 12.8104
25.676025 25.57351 11.6144
14.306023 50.93851 31.5044
16.480026 51.622513 31.4244
22.291027 41.74551 35.3294
22.197033 41.282513 33.2434
59.442024 21.812515 51.2074
61.139027 20.064514 50.6854
52.896027 18.925514 48.8844
54.095024 21.061516 47.8494
27.155025 54.07751 21.4054
27.953026 53.26451 23.7244
24.895025 58.106514 24.2244
22.514027 58.89051 24.4954
27.092026 94.52051 24.1094
27.061026 94.76751 21.4904
37.354027 92.26151 27.2664
36.406025 93.23851 28.9504
42.950024 11.408516 58.9874
42.116024 12.353516 57.3534
44.086025 19.018509 0.07239914
42.419025 21.227516 0.5703964
15.801025 62.223515 53.5174
16.995026 61.912514 51.5084
20.734026 67.342514 42.4444
20.994026 65.11051 41.2264
12.0870285 65.59451 20.8394
13.249031 66.83151 19.041399
22.18903 61.247513 23.0494
24.478031 60.36151 22.2184
22.02203 0.38851166 6.1363997
19.888027 98.88151 6.8254
18.104027 97.10151 -0.6416001
18.032028 96.59251 -3.0926003
63.835026 51.856514 53.4384
65.051025 52.84251 51.4554
58.197025 49.290512 42.7044
59.614025 47.68951 42.3644
36.398026 31.863512 43.0074
38.155025 29.975512 43.1274
42.987026 24.067513 41.5464
44.463024 26.171509 41.2154
23.377033 17.911514 56.9744
20.931026 18.701515 56.5824
16.420029 21.61451 5.202397
16.223022 23.95951 4.990399
50.610023 77.94251 50.0144
48.855026 76.30551 49.0424
45.528027 84.88251 56.1014
47.786026 85.57451 55.7644
19.262024 61.981514 41.2404
18.160027 60.380512 42.7094
18.623024 57.734512 51.7884
18.562027 60.093513 50.4694
10.877029 95.03151 55.8834
12.6480255 94.04951 54.6054
16.897026 2.4685135 48.5384
16.941025 4.0955124 49.9824
14.179024 0.03451538 19.5784
14.970024 97.19351 20.132399
22.218029 92.910515 23.6244
23.141033 95.04651 23.7934
20.505032 1.5745163 46.026398
18.826027 1.6175156 44.658398
9.730026 5.15551 46.9554
10.052025 5.91951 49.137398
62.167027 1.6705093 2.799397
61.857025 2.3115158 0.70339966
51.896027 3.9445114 1.536396
52.569027 3.167511 3.5693974
54.449024 46.54851 32.7574
52.853027 44.95251 32.3064
58.846027 43.19551 23.5494
56.723026 44.164513 22.545399
69.40402 81.14351 -1.1776001
69.28503 79.33851 -0.14659996
65.57603 81.11451 7.4184
64.43202 79.44751 8.4624
28.236025 37.64651 9.0074005
30.438025 36.87851 9.9804
39.792027 41.18251 7.7674
42.120026 40.43951 8.6334
48.485023 3.118515 7.0703998
49.157024 3.6705093 9.2564
47.951023 2.9145126 15.663401
47.079025 2.1385117 13.4824
20.114025 29.267511 7.3213997
19.666025 30.906511 8.7234
20.627026 29.290512 2.9134
22.958025 29.267511 2.6504
38.091026 11.371513 46.4514
40.188026 12.880516 46.2984
45.428024 12.049515 35.0924
46.898026 13.463516 35.9674
0.5590286 46.865513 50.8224
0.71702576 45.96651 48.720398
5.5310287 38.20851 45.4614
7.5820312 36.575512 45.4414
50.626026 97.690506 49.324398
49.578026 0.6085129 48.1284
53.926025 91.73851 40.3784
52.124027 90.68051 42.3554
41.954025 91.86551 47.9974
40.288025 93.48651 48.5374
34.357025 97.99051 51.4044
33.569027 0.64551544 50.8654
51.005024 2.056511 49.769398
52.107025 0.41551208 50.6184
58.658028 97.43851 58.1854
58.682026 95.89151 56.9574
39.576023 73.15751 33.8564
41.423023 74.56151 33.894398
46.156025 79.81251 35.5644
45.149025 80.70851 34.0324
67.01802 42.97451 52.7734
68.455025 42.68951 50.6394
1.6360245 29.123512 51.470398
3.3060303 29.767511 50.5944
48.029026 55.84151 39.9054
46.399025 57.865513 40.2454
54.731026 59.870514 39.6344
56.435024 59.68851 38.5234
43.433025 48.45251 1.2183999
43.639027 47.61251 3.1383998
40.053024 57.68051 6.4834
38.620026 58.36751 5.3984
66.61703 19.109512 36.6524
69.28503 19.092514 37.0484
1.9640274 30.083513 40.6754
68.981026 30.663515 40.5644
30.015026 98.39351 1.3973961
32.292027 96.80851 0.37739944
25.234026 88.54751 53.5174
23.135025 87.02851 53.9344
62.248024 77.63651 8.3184
62.309025 76.21551 6.5094
52.597027 79.27551 8.611401
51.722027 81.30751 9.2624
53.537025 20.083511 19.3354
54.127026 22.273514 20.4504
58.473026 21.270515 29.892399
58.006027 21.32151 32.3444
59.521027 98.18651 37.0594
58.410027 96.11351 37.706398
51.811028 95.85251 30.101398
51.084026 94.14251 29.0704
28.441025 68.54551 48.4414
28.428026 70.64151 49.192398
34.831024 78.23851 44.2104
35.038025 80.35351 45.0014
54.791027 67.092514 54.0374
52.254025 67.14151 55.012398
53.109024 77.29051 58.567398
54.406025 75.953514 1.2193985
68.98502 15.767509 38.1954
68.358025 16.495514 35.8014
6.3030243 10.769516 28.205399
5.62603 10.401512 25.9784
59.411026 73.41451 30.6744
58.094025 74.09951 28.719398
59.491024 71.43751 18.628399
61.362026 71.86651 18.8074
63.212025 64.39451 20.9054
61.948025 61.969513 21.3244
1.086029 56.823513 23.9474
3.4850311 56.90451 24.9124
1.4590302 28.352512 1.3153992
68.59003 27.873512 0.7273979
59.170025 30.971512 2.7893987
57.487026 30.083511 1.6093979
13.5000305 59.59051 18.746399
13.450027 57.873512 17.6724
9.630028 57.206512 7.9544
7.8720245 58.141514 6.4024
15.172028 31.348513 49.5004
12.804031 30.662516 48.2014
3.0820312 27.662514 53.4134
2.409027 25.292511 53.4194
35.468025 68.092514 5.6474
37.119026 66.93551 4.7484
38.931026 71.64151 8.1524
38.461025 74.06551 8.842401
15.953026 92.10951 55.3894
14.745026 92.53251 53.4524
23.114033 95.246506 48.415398
24.137028 96.25251 46.4004
20.816025 28.34951 37.838398
21.542027 28.397514 39.6774
27.125025 24.993515 34.1014
27.850025 24.667511 32.1664
18.703026 64.83751 9.4204
20.262028 64.47751 7.2544
11.57003 68.73451 2.8384
11.150024 68.66751 0.6784
62.815025 68.44751 21.580399
63.591026 70.535515 21.7904
66.483025 73.17651 32.7914
66.67403 75.26251 32.2504
37.894024 85.97651 3.5013967
38.385025 84.96451 0.86639786
36.786026 86.06551 49.6474
38.935024 85.97651 48.6144
52.358025 32.811512 21.4084
53.376026 34.45451 21.6194
51.113026 40.20351 26.7374
52.035027 38.52151 28.1064
69.51702 59.073513 32.8954
67.16902 58.669514 33.7914
59.716026 61.06951 37.568398
61.052025 59.28451 38.6354
56.860027 13.720512 26.3664
59.185024 13.689514 27.430399
54.429028 15.615509 24.816399
55.116024 15.106514 22.361399
36.930023 81.42051 47.3964
37.538025 81.76051 45.3914
43.513023 74.89951 46.998398
42.082024 75.00551 44.949398
4.6390305 34.96551 37.6384
6.680031 36.038513 35.8224
11.7730255 38.22451 42.5734
10.755028 36.55651 41.6804
64.886024 84.47651 25.1304
63.744026 85.88151 26.2804
61.239025 92.60451 15.3954
60.404026 93.815506 16.6564
55.975025 34.85751 22.3904
55.099026 36.65551 22.4954
58.866024 44.747513 20.982399
60.314026 45.693512 21.871399
20.55103 28.340511 27.250399
18.521027 28.69251 28.861399
13.277031 37.850513 29.104399
12.262024 39.20351 27.3434
52.758026 9.58551 5.4424
53.256027 11.838516 6.9024
48.000027 14.355515 17.3394
45.723026 14.478516 17.5164
3.5830307 97.85151 5.8144
4.189026 98.788506 3.9653974
66.11002 98.65651 54.8534
66.497025 97.691505 52.7654
34.217026 24.315514 18.2244
36.265026 23.40651 18.357399
45.764027 26.296509 25.4814
47.678024 25.563515 24.8844
46.297024 23.68551 43.5574
46.778027 24.342512 41.5284
48.274025 34.53651 36.3564
46.069023 35.71151 36.3324
1.6470261 83.84951 26.0204
1.1750259 81.61351 25.2474
64.469025 80.42951 19.7334
62.729027 79.606514 18.535398
42.295025 93.078514 43.6814
40.313026 92.73251 42.9874
34.966026 93.397514 31.5444
35.973026 91.56851 31.0334
62.055027 71.13651 30.194399
60.501026 69.80551 28.725399
67.68803 65.53951 21.2794
67.481026 66.61151 18.986399
13.083031 64.19351 52.0224
11.32003 65.79051 51.9184
7.0280304 66.84051 44.6624
7.248024 65.37751 42.7434
54.534027 58.636513 33.3424
56.796024 60.41051 32.7214
58.853027 70.81651 30.948399
60.500027 71.11151 32.1814
0.3920288 26.220512 51.6814
1.3920288 24.43151 51.0754
5.392029 20.318512 43.0804
4.076027 20.26651 40.9754
43.724026 22.338516 35.3674
45.643024 21.236511 36.1664
55.125027 27.007515 37.5824
55.132027 27.008514 40.5554
53.896027 59.947514 4.927399
53.102024 58.09951 6.681397
57.926025 53.90351 56.1904
59.017025 54.436512 58.0004
43.562023 11.171509 30.1054
45.084026 12.476509 31.3104
50.539024 13.009514 20.0954
51.643024 11.046509 20.284399
23.72903 71.56951 53.5084
23.144032 72.92751 55.0044
15.821022 72.95751 4.424397
14.889023 74.13051 5.202397
64.246025 44.47951 49.4464
63.664024 42.552513 50.887398
52.833027 40.64751 47.3754
53.441025 41.505512 45.8064
0.7200241 84.71551 54.630398
68.661026 85.49351 52.7744
67.231026 84.106514 42.4414
65.80902 83.37651 41.6254
63.791027 5.0245132 31.6744
64.828026 6.1625137 33.9804
64.94302 92.79751 32.1904
65.64503 92.37151 29.9214
53.657024 72.53151 30.3214
54.801025 72.81951 31.9664
60.877026 71.13851 38.0504
61.159027 69.23651 37.9304
43.522026 81.05951 29.6304
44.326023 80.42351 27.5264
54.146027 80.480515 24.5814
54.581024 81.58551 22.639399
38.345024 31.519512 32.5194
37.216026 31.477512 34.7364
41.905025 28.18551 42.762398
41.009026 29.652512 44.5994
21.553026 34.809513 40.0984
22.660027 34.87551 42.6974
32.143024 36.33551 42.588398
30.101025 35.15251 42.9924
2.725029 76.94951 53.5044
2.4830246 75.66351 54.9234
12.52903 69.05251 55.6214
11.972031 67.88651 53.4864
47.277023 58.018513 32.2694
45.136024 57.56451 33.9684
36.948025 64.36251 35.2054
34.908024 62.938515 35.6854
13.939026 39.415512 5.5734
14.925026 41.22351 7.2654
7.255028 45.711514 3.0254
5.72303 43.83551 1.3884
10.200027 56.510513 0.07839966
9.21003 56.531513 57.0224
9.414024 57.22951 46.9574
10.284027 55.36251 44.9644
58.214027 4.8485107 43.5134
59.962025 3.8735123 41.852398
0.87802887 6.047516 39.1074
0.600029 8.383514 38.3304
9.186028 79.26151 46.0154
10.218025 78.967514 44.0724
6.9740295 80.14251 53.845398
8.506027 79.105515 55.4204
11.104027 5.2495117 28.3774
10.995026 4.9525146 25.736399
5.3610306 98.06151 18.885399
7.3060303 96.42151 20.041399
55.350025 8.027512 33.7184
55.452026 6.3675156 31.7444
64.70103 7.8695145 23.1134
66.71302 8.385513 24.2114
7.7680283 45.12051 53.8854
10.202026 44.87051 54.3494
13.448029 37.07051 45.9004
12.871025 39.13251 46.5084
27.487026 11.61451 51.9834
29.075026 11.646515 53.3994
36.833023 16.840515 52.644398
35.168026 17.866516 53.6384
36.762024 21.831512 3.2484
36.751026 23.157509 4.9274
36.873024 25.062515 12.404401
35.427025 26.175514 11.017401
14.708023 85.53151 39.4404
12.608025 86.65451 40.1324
7.3820267 83.78751 48.4514
7.4460297 82.10451 47.318398
67.095024 10.897514 23.8664
67.06802 9.997513 21.8524
65.565025 17.523514 23.0494
65.900024 15.3815155 23.1574
43.285027 8.811516 31.8284
43.140026 9.187515 33.8474
42.991024 98.35051 40.7844
41.971024 0.018508911 42.9034
66.41502 80.17851 38.7464
65.676025 79.51651 40.7334
4.522026 75.70951 41.9934
6.581024 75.25451 43.0134
17.19703 51.76551 49.0984
15.028023 52.769512 47.6314
13.489029 64.63551 48.7784
16.214027 64.30751 48.7734
26.370026 20.680511 22.510399
24.882025 18.791512 21.604399
26.682026 11.269516 29.4174
24.764025 9.632515 29.916399
48.359024 71.21251 6.2124
49.466026 71.50751 3.8434
60.382027 68.01251 0.3294
59.241024 68.05851 -1.3836
63.204025 61.988514 11.4124
63.549026 59.394512 10.944401
51.893024 62.86851 9.4544
52.055027 64.74851 8.0274
59.539024 23.798515 14.8374
61.299026 23.57151 15.9234
61.703026 29.993517 24.3774
59.468025 30.258516 25.257399
59.429028 35.976513 10.3444
58.106026 36.698513 12.281401
