0.228 2.414 0.358
0.475 2.365 0.025
0.263 2.396 0.149
0.204 2.659 0.279
0.695 2.443 0.579
0.586 2.566 0.520
0.641 2.586 0.139
0.415 3.120 0.473
0.544 2.888 0.128
0.285 3.285 0.452
0.721 2.684 0.445
0.590 3.047 0.388
0.394 3.378 0.622
0.771 3.184 0.762
0.590 3.473 0.630
2.387 1.615 0.487
2.592 1.688 0.210
2.400 1.579 1.064
2.648 1.608 0.502
2.732 1.815 0.232
2.948 1.673 0.190
2.398 2.125 0.711
2.743 1.939 0.408
2.677 2.131 -0.004
2.352 2.371 0.431
2.499 2.228 0.096
2.690 1.964 1.179
3.012 1.916 0.704
2.835 1.933 0.575
3.039 1.999 0.264
2.482 2.109 1.110
2.620 2.139 0.620
2.990 2.022 0.522
2.909 2.340 0.232
2.471 2.568 0.768
2.771 2.311 0.331
2.674 2.590 0.202
2.666 2.849 0.273
2.577 2.629 0.125
2.542 3.127 0.186
1.312 4.813 0.991
1.207 4.820 1.180
2.912 1.989 1.338
3.098 2.064 1.269
3.240 1.949 0.968
3.203 2.226 0.498
3.260 1.954 0.519
3.276 2.410 -0.096
2.680 2.339 1.553
2.797 2.145 1.052
2.907 2.363 0.717
3.107 2.352 0.603
3.366 2.251 0.276
3.405 2.383 -0.011
3.190 2.816 0.141
2.681 2.634 1.200
2.948 2.638 0.962
2.797 2.466 0.696
2.931 2.705 0.295
3.219 2.828 0.095
2.644 2.821 0.829
2.852 3.014 0.424
2.965 2.960 0.087
2.556 3.122 0.403
2.642 3.056 0.287
2.734 3.567 0.204
1.457 4.886 1.278
1.244 5.091 1.263
1.276 5.367 1.303
3.027 2.099 1.676
3.293 2.144 1.206
3.309 2.006 0.988
3.446 2.281 0.716
2.808 2.262 1.615
2.874 2.430 1.350
3.331 2.568 0.867
3.444 2.468 0.637
3.321 2.519 0.623
3.306 2.899 0.295
2.877 2.761 1.557
3.033 2.511 1.123
2.991 2.773 0.841
3.176 2.908 0.615
3.306 2.902 0.450
3.448 2.832 0.236
3.261 3.046 0.197
2.875 2.873 1.301
2.969 2.907 0.961
3.094 2.942 0.554
3.110 3.105 0.512
3.181 3.002 0.135
3.252 3.371 -0.006
2.791 3.096 0.956
2.737 3.141 0.710
2.943 3.415 0.316
3.057 3.438 -0.026
3.107 3.820 0.158
2.818 3.546 0.183
2.910 3.603 0.181
2.837 3.787 0.103
2.771 4.012 -0.141
1.925 5.008 1.418
1.764 5.222 1.443
1.657 5.430 1.065
1.376 5.675 1.328
1.543 5.500 1.189
1.290 5.933 1.413
3.192 2.193 1.774
3.532 2.354 1.301
3.435 2.417 1.178
3.193 2.503 1.585
3.433 2.455 1.317
3.468 2.443 1.220
3.658 2.472 1.031
2.949 2.893 1.533
3.092 2.890 1.327
3.132 2.926 1.200
3.271 2.801 0.811
3.690 3.116 0.564
3.563 3.181 0.254
2.965 3.041 1.527
2.954 3.041 1.432
3.165 3.100 0.993
3.274 3.278 0.652
3.335 3.067 0.616
3.374 3.370 0.353
3.343 3.407 0.054
2.989 3.359 0.951
3.243 3.342 0.883
3.107 3.655 0.553
3.223 3.397 0.350
3.330 3.692 0.262
3.095 3.650 0.099
2.018 5.231 1.653
2.263 5.325 1.286
1.773 5.296 1.594
1.997 5.320 1.195
2.006 5.380 1.006
1.807 5.733 1.596
1.782 5.619 1.210
1.963 5.904 1.073
2.269 5.878 0.569
1.700 6.033 1.307
1.781 6.048 1.315
1.713 6.177 0.794
2.027 5.989 0.759
3.368 2.492 1.747
3.504 2.476 1.462
3.368 2.713 1.806
3.479 2.858 1.492
3.734 2.881 1.401
3.216 2.904 1.748
3.284 2.963 1.374
3.452 3.158 1.159
3.555 2.893 0.934
2.917 3.133 1.875
3.200 3.358 1.388
3.399 3.130 1.276
3.546 3.406 0.918
2.415 5.397 1.634
2.320 5.206 1.350
2.494 5.290 1.269
1.971 5.648 1.587
2.123 5.685 1.357
2.236 5.692 1.067
2.656 5.557 0.909
2.041 5.897 1.552
2.230 5.868 1.248
2.194 5.930 0.945
2.231 5.904 0.805
2.638 6.000 0.425
1.958 6.095 1.549
1.824 6.083 1.243
2.072 6.026 1.156
2.207 6.148 0.753
2.406 6.278 0.414
3.747 2.543 2.178
3.599 2.916 2.110
3.834 3.003 1.811
3.374 3.106 2.107
3.492 3.279 1.775
3.241 3.267 1.798
2.698 5.076 1.664
2.813 5.150 1.325
2.366 5.297 1.860
2.528 5.371 1.492
2.683 5.626 1.414
2.849 5.392 1.029
2.288 5.767 1.728
2.560 5.747 1.509
2.675 5.853 1.151
2.842 5.908 0.786
2.802 6.020 0.721
2.893 6.016 0.529
2.284 5.847 1.909
2.221 5.884 1.358
2.512 6.191 1.276
2.717 6.032 0.938
2.648 6.144 0.481
2.850 6.182 0.290
2.028 6.236 1.440
4.022 2.662 2.185
3.770 2.942 2.203
3.677 3.384 1.934
2.843 5.195 1.551
2.934 5.197 1.171
2.993 5.497 1.664
3.008 5.397 1.551
3.425 5.479 1.045
2.619 5.440 1.910
2.913 5.652 1.651
2.892 5.498 1.250
3.060 5.841 1.138
3.230 5.898 0.766
3.270 6.060 0.608
2.593 5.980 2.084
2.616 5.966 1.790
2.815 5.946 1.426
3.078 6.106 1.168
3.142 6.148 0.647
3.373 5.999 0.521
2.630 6.103 1.486
2.638 6.342 1.443
2.900 6.359 1.198
2.876 6.169 0.745
4.171 2.697 2.288
4.068 3.041 2.143
2.963 5.183 1.789
3.116 5.484 1.446
3.279 5.569 1.076
3.307 5.438 1.809
3.275 5.394 1.447
3.689 5.608 1.429
3.837 5.659 1.117
3.120 5.876 1.972
3.088 5.772 1.652
3.496 5.816 1.362
3.458 5.913 0.861
3.634 6.037 0.752
3.118 6.165 1.670
3.214 5.917 1.593
3.073 6.127 1.385
3.214 6.313 1.116
3.444 6.195 0.561
5.453 3.118 0.580
5.552 3.173 0.211
3.644 5.202 1.660
3.804 5.340 1.398
3.349 5.350 1.732
3.239 5.501 1.570
3.430 5.455 1.215
3.581 5.505 0.971
3.474 5.694 2.086
3.537 5.751 1.686
3.757 5.617 1.549
3.846 5.796 1.331
3.383 6.063 2.118
3.351 5.917 1.830
3.570 6.083 1.400
3.885 6.002 1.008
3.357 6.083 1.524
3.453 6.211 1.393
5.470 3.276 0.873
5.542 3.337 0.485
5.836 3.554 0.333
6.125 3.572 0.089
5.302 3.601 1.048
5.544 3.635 0.613
5.697 3.687 0.313
5.233 3.918 0.998
5.450 4.045 0.603
4.289 4.767 1.524
4.333 4.874 1.219
4.087 5.156 1.793
3.924 5.074 1.517
4.324 5.103 1.157
3.765 5.500 1.912
3.634 5.369 1.890
4.023 5.290 1.361
4.009 5.625 1.258
3.654 5.775 2.113
3.543 5.779 1.877
3.614 5.681 1.479
3.777 5.710 1.171
0.120 2.061 0.164
0.368 2.359 0.454
0.481 2.286 -0.074
0.393 2.400 0.122
-0.030 2.784 0.283
1.573 -0.045 0.913
1.253 0.150 0.934
1.726 0.199 0.971
0.375 0.512 3.469
0.541 0.626 2.952
0.765 0.694 3.329
0.771 0.654 3.256
1.025 0.814 2.895
0.317 0.121 5.394
0.326 0.171 5.674
0.507 0.148 5.235
1.313 0.607 3.470
1.283 0.658 3.005
-0.037 0.353 5.843
0.096 0.169 5.493
0.911 0.721 3.735
1.290 0.969 3.183
1.280 0.917 3.136
1.271 0.857 2.614
0.148 0.590 5.465
2.069 0.194 3.248
2.088 0.375 2.907
1.624 0.392 3.497
1.686 0.435 3.228
2.066 0.557 2.827
0.375 0.204 5.975
0.529 0.152 5.714
1.387 0.828 3.823
1.485 0.602 3.485
1.575 0.883 3.081
1.926 0.851 2.830
0.047 0.275 6.335
0.174 0.300 6.071
0.253 0.443 5.698
1.108 0.982 3.664
1.339 1.038 3.301
1.598 1.127 3.158
1.664 1.061 2.837
0.063 0.809 5.926
0.274 0.730 5.593
2.477 0.012 3.443
2.571 0.054 3.076
2.575 0.204 2.869
2.009 0.233 3.763
2.329 0.394 3.507
2.489 0.603 3.213
2.355 0.375 2.732
1.762 0.698 3.892
2.003 0.557 3.661
2.054 0.713 3.357
2.308 0.774 3.176
2.346 0.662 2.963
1.766 1.016 4.052
1.594 0.774 3.749
1.883 1.020 3.378
1.886 1.068 2.902
0.590 0.513 6.120
1.567 1.008 3.807
1.700 1.331 3.487
1.735 1.390 3.145
1.971 1.158 2.966
0.207 0.765 6.152
0.573 0.927 5.857
2.838 -0.142 3.604
2.963 -0.030 3.369
2.971 -0.044 3.156
3.146 0.204 2.712
3.452 0.171 2.522
2.546 0.405 4.037
2.472 0.398 3.630
2.736 0.341 3.449
2.950 0.442 3.016
2.950 0.512 2.767
2.118 0.378 3.987
2.194 0.463 3.876
2.544 0.699 3.659
2.433 0.589 3.443
2.772 0.770 2.851
1.962 0.575 4.436
1.905 0.627 4.163
2.030 0.883 3.744
2.321 0.768 3.627
2.275 0.911 3.381
2.649 0.747 3.029
1.840 0.968 4.381
2.007 1.101 4.201
2.156 0.907 3.814
2.033 1.079 3.376
2.198 1.265 3.100
1.842 1.202 3.890
1.801 1.465 3.693
1.954 1.397 3.336
0.667 0.936 6.240
3.580 -0.054 2.939
3.715 0.182 2.622
3.673 -0.070 2.271
3.979 0.079 2.221
2.932 0.041 4.132
3.098 0.219 3.629
2.945 0.120 3.320
3.189 0.249 3.256
3.416 0.440 3.056
3.468 0.177 2.587
3.670 0.305 2.381
2.640 0.509 4.167
2.827 0.470 3.915
2.663 0.518 3.701
2.857 0.568 3.386
2.992 0.477 3.118
3.138 0.466 2.956
2.283 0.486 4.694
2.500 0.570 4.294
2.474 0.697 4.136
2.678 0.736 3.600
2.940 0.785 3.317
3.096 0.662 2.985
1.940 0.783 4.545
2.392 0.976 4.157
2.280 0.859 3.958
2.392 0.817 3.626
2.755 0.890 3.421
1.919 1.189 4.332
2.114 1.208 4.082
2.182 1.052 4.063
2.537 1.138 3.733
2.008 1.570 4.078
2.110 1.521 3.986
4.193 -0.009 2.369
3.699 -0.016 3.357
3.714 0.196 3.241
3.814 0.222 2.996
3.993 0.233 2.701
4.243 0.190 2.183
3.137 0.288 4.269
3.157 0.342 4.069
3.424 0.425 3.682
3.392 0.435 3.350
3.487 0.329 3.028
3.638 0.302 2.777
3.843 0.530 2.361
2.617 0.457 4.833
2.896 0.371 4.357
2.835 0.424 4.276
3.168 0.665 3.982
3.083 0.677 3.484
3.331 0.581 3.416
2.298 0.652 4.904
2.639 0.882 4.628
2.509 0.836 4.478
2.622 0.942 4.050
2.969 0.886 3.981
2.928 1.044 3.486
2.306 1.000 5.031
2.267 0.990 4.563
2.387 0.983 4.317
2.719 1.104 4.134
2.850 1.040 3.816
2.147 1.343 4.760
2.347 1.248 4.435
2.562 1.222 3.878
4.473 0.020 3.093
4.385 0.265 2.638
4.431 0.102 2.589
4.043 0.400 3.033
4.277 0.406 2.770
4.350 0.281 2.365
2.401 0.318 5.706
2.647 0.418 5.329
2.756 0.423 5.253
2.745 0.507 4.821
3.118 0.601 4.525
3.013 0.754 4.203
3.443 0.749 3.943
2.156 0.858 5.786
2.338 0.858 5.257
2.688 0.812 5.110
2.594 0.868 4.935
2.903 0.768 4.687
3.076 1.044 4.276
3.093 1.034 4.081
2.335 1.058 5.186
2.351 1.220 5.035
2.607 1.110 4.744
2.637 1.294 4.392
2.790 1.223 4.264
2.249 1.244 4.889
2.456 1.505 4.819
2.535 1.571 4.338
4.868 0.180 2.777
4.748 0.431 2.744
2.552 0.361 6.307
2.727 0.377 5.962
3.080 0.490 5.688
2.441 0.649 6.042
2.594 0.605 5.888
2.907 0.816 5.706
3.111 0.722 5.161
3.054 0.870 5.117
2.527 0.721 6.130
2.439 0.754 5.842
2.566 1.011 5.656
2.938 0.983 5.182
3.089 1.121 5.102
2.965 1.068 4.710
2.415 1.311 5.837
2.391 1.291 5.461
2.711 1.387 5.316
2.764 1.334 5.047
3.073 1.443 4.724
2.449 1.634 5.503
2.546 1.590 5.302
2.538 1.569 4.781
2.868 0.378 6.370
3.113 0.491 5.873
3.287 0.473 5.790
2.631 0.827 6.284
2.896 0.831 5.881
3.181 0.720 5.742
3.231 0.960 5.366
2.685 0.952 6.055
2.690 1.016 6.015
3.026 1.118 5.572
2.982 1.280 5.361
3.266 1.146 4.977
2.401 1.142 6.072
2.722 1.346 5.765
2.939 1.423 5.771
2.826 1.324 5.437
3.188 1.415 5.012
2.507 1.647 5.749
2.685 1.511 5.700
2.888 1.582 5.295
2.890 1.638 5.171
2.412 1.936 5.649
2.507 2.049 5.343
3.973 2.316 2.924
4.001 2.432 2.642
3.203 0.619 6.188
3.111 1.058 6.208
3.186 1.026 5.695
2.927 1.359 5.908
3.278 1.278 5.638
3.323 1.295 5.378
3.012 1.390 6.061
3.160 1.572 5.670
2.994 1.679 5.529
3.323 1.593 5.151
2.456 1.542 6.133
2.626 1.688 6.013
2.798 1.660 5.662
3.116 1.871 5.453
3.170 1.872 5.024
2.623 2.065 5.998
2.808 2.102 5.723
2.725 2.111 5.325
3.940 2.475 3.269
4.191 2.447 2.972
4.285 2.468 2.536
3.244 1.045 6.307
3.310 1.486 6.139
3.427 1.544 6.093
3.049 1.625 6.150
3.319 1.544 5.949
3.544 1.620 5.583
3.019 1.977 6.141
3.229 2.012 5.707
3.344 1.837 5.706
4.354 2.224 3.332
4.438 2.396 3.064
2.714 2.206 6.193
3.009 2.274 5.697
2.951 2.285 5.685
4.093 2.475 3.722
4.304 2.543 3.281
4.407 2.663 3.212
4.647 2.732 2.814
4.918 -0.032 5.536
4.986 0.043 5.167
5.076 0.131 4.975
5.257 0.082 4.744
4.848 0.336 5.022
4.979 0.503 4.703
5.133 0.544 4.449
5.002 0.511 4.823
5.236 0.636 4.492
4.604 2.023 3.696
4.853 1.767 3.517
3.468 1.655 6.027
4.642 2.008 3.853
4.862 2.079 3.436
4.720 2.085 3.310
3.176 1.971 6.072
3.458 2.156 5.583
4.525 2.327 3.766
4.468 2.381 3.519
4.860 2.479 3.363
4.838 2.451 2.812
2.917 2.351 6.302
3.159 2.414 6.056
3.281 2.545 5.848
4.196 2.570 3.646
4.565 2.645 3.391
4.462 2.827 3.069
4.626 2.873 2.931
0.014 -0.107 0.832
0.446 0.055 0.509
0.388 -0.036 0.438
0.839 0.158 0.693
0.483 0.378 0.911
0.726 0.423 0.668
0.985 -0.046 0.998
1.009 0.052 0.538
1.362 0.060 0.926
1.196 0.195 0.855
1.672 -0.022 0.739
1.871 0.055 0.413
1.776 0.192 -0.016
1.361 0.232 0.578
1.518 0.363 0.274
2.288 -0.007 0.141
1.665 0.153 0.582
2.053 0.260 0.474
2.163 0.227 0.026
1.794 0.457 0.797
1.853 0.597 0.555
1.954 0.677 0.275
2.087 0.165 0.864
2.232 0.048 0.741
2.505 0.236 0.499
2.597 0.059 0.122
2.178 0.421 0.870
2.093 0.522 0.508
2.356 0.365 0.384
2.410 0.366 0.106
2.051 0.558 0.767
1.891 0.661 0.627
2.200 0.834 0.407
1.763 1.099 0.401
2.113 1.138 0.150
3.025 0.171 0.542
3.178 0.211 0.364
2.609 0.353 0.781
2.775 0.318 0.425
2.776 0.407 0.229
2.292 0.638 0.966
2.580 0.458 0.727
2.461 0.559 0.347
2.804 0.732 0.337
2.062 0.786 0.993
2.412 0.839 0.706
2.540 0.896 0.517
2.497 0.911 0.002
1.992 1.020 0.655
2.137 1.313 0.442
2.405 1.295 0.062
3.524 -0.092 0.058
3.228 0.353 0.431
3.523 0.141 0.252
2.979 0.410 0.471
3.035 0.512 0.484
3.266 0.722 -0.089
2.623 0.559 0.898
2.844 0.605 0.591
2.992 0.941 0.143
3.109 0.964 -0.004
2.562 1.013 0.848
2.710 1.114 0.489
2.895 1.197 0.180
2.480 1.112 0.787
2.433 1.248 0.495
2.808 1.172 0.244
3.205 0.631 0.640
3.516 0.706 0.347
3.137 0.771 0.675
3.077 0.914 0.294
3.203 1.018 0.131
2.694 1.066 0.888
3.001 1.111 0.530
2.888 1.062 0.399
3.117 1.281 0.051
2.520 1.554 1.019
2.854 1.397 0.707
2.782 1.470 0.529
2.895 1.421 0.135
3.029 1.237 0.830
3.386 1.399 0.695
2.883 1.672 1.180
2.876 1.443 0.699
3.158 1.785 0.399
3.335 1.811 0.347
3.058 1.767 1.281
3.319 1.705 1.015
3.366 1.876 0.835
3.283 1.949 1.312
3.386 1.851 0.963
4.418 -0.063 2.196
4.520 -0.059 1.827
4.212 0.385 1.937
5.264 -0.088 1.487
4.866 0.179 2.003
4.949 0.308 1.876
4.874 0.410 1.603
5.038 0.214 1.409
4.444 0.631 2.133
4.587 0.575 1.886
4.779 0.391 1.714
4.951 0.505 1.455
5.291 1.434 -0.045
4.973 1.716 -0.066
5.072 0.045 2.309
5.249 -0.053 2.012
5.365 0.070 1.853
5.456 0.223 1.371
4.942 0.324 2.260
5.129 0.261 1.886
5.084 0.307 1.915
5.530 0.433 1.348
5.550 0.514 1.361
5.623 0.840 0.919
4.931 0.544 2.385
4.999 0.723 1.896
5.064 0.615 1.888
5.361 0.771 1.372
5.391 0.637 1.183
5.377 0.873 0.882
5.306 0.998 0.917
5.335 1.080 0.438
5.590 1.054 0.290
5.713 1.343 -0.140
4.969 1.065 1.792
5.178 1.174 1.303
5.052 0.916 1.071
5.339 1.124 0.977
5.107 1.348 0.790
5.385 1.562 0.632
5.422 1.554 0.147
5.187 1.422 0.793
5.294 1.587 0.657
5.397 1.684 0.186
5.055 2.104 0.204
5.701 0.058 1.960
5.967 -0.075 1.733
5.436 0.101 2.461
5.523 0.431 2.068
5.672 0.355 1.774
5.604 0.286 1.666
5.983 0.248 1.238
5.929 0.753 1.142
5.277 0.596 2.328
5.285 0.553 2.148
5.477 0.562 1.828
5.538 0.768 1.753
5.612 0.800 1.298
5.906 0.757 0.896
5.817 1.021 1.034
5.973 0.942 0.656
5.247 0.786 2.196
5.328 0.818 1.811
5.299 0.736 1.699
5.601 0.889 1.203
5.868 1.048 0.975
5.541 1.091 1.000
5.875 1.345 0.706
6.039 1.434 0.459
5.906 1.474 0.110
5.059 1.186 1.985
5.435 1.187 1.549
5.483 1.084 1.388
5.473 1.103 1.017
5.353 1.462 0.939
5.463 1.474 0.689
5.854 1.699 0.450
5.812 1.670 0.038
5.420 1.336 1.186
5.469 1.540 0.917
5.407 1.706 0.996
5.532 1.909 0.536
5.543 2.007 0.493
5.708 2.049 0.056
5.227 1.961 0.982
5.238 2.036 0.674
5.413 2.062 0.442
5.433 2.237 0.197
5.324 2.339 0.269
5.329 2.365 0.079
5.889 0.001 2.747
5.997 0.066 2.244
6.092 0.014 2.130
6.048 0.074 1.895
5.445 0.474 2.597
5.562 0.311 2.334
5.811 0.611 1.956
6.052 0.329 1.691
6.243 0.491 1.567
6.299 0.937 1.359
5.440 0.599 2.321
5.669 0.764 1.999
5.991 0.612 1.912
6.161 0.801 1.427
6.055 0.997 1.057
6.086 1.233 1.322
6.100 1.178 1.017
5.457 0.896 1.897
5.826 1.071 1.602
5.951 0.943 1.602
6.065 1.161 1.223
5.819 1.546 1.290
6.139 1.326 0.927
6.012 1.433 0.513
5.623 1.462 1.721
5.643 1.452 1.336
5.715 1.381 1.180
5.536 1.649 1.249
5.740 1.589 0.866
5.955 1.664 0.387
5.955 1.798 0.323
5.684 1.514 1.336
5.530 1.612 1.089
5.510 1.796 1.219
5.523 2.080 0.930
5.883 1.927 0.607
6.022 1.969 0.352
5.592 2.033 0.916
5.344 2.266 1.067
5.390 2.191 0.903
5.659 2.418 0.628
5.747 2.315 0.134
5.337 2.122 1.121
5.428 2.430 0.812
5.611 2.537 0.563
5.789 2.562 0.169
5.376 2.701 0.324
5.410 3.024 0.163
6.308 0.140 2.466
5.973 0.442 2.543
6.149 0.373 2.086
5.936 0.678 2.538
6.008 0.695 2.226
6.167 0.508 1.963
5.913 0.756 2.347
6.108 0.838 1.742
6.276 0.888 1.480
6.269 1.309 1.376
5.917 1.213 1.811
6.209 1.081 1.649
6.132 1.288 1.149
5.999 1.564 1.173
6.332 1.543 1.151
5.862 1.564 1.690
6.238 1.486 1.315
6.086 1.659 1.270
5.927 1.919 1.107
6.038 1.920 0.825
6.014 1.969 1.247
5.618 2.126 1.288
5.793 2.134 0.945
6.017 2.188 0.611
6.091 2.153 0.249
5.800 1.965 1.050
5.568 2.484 1.207
5.658 2.310 0.982
6.030 2.319 0.498
5.912 2.418 0.311
6.159 2.416 0.115
5.706 2.383 1.008
5.597 2.565 0.911
5.648 2.735 0.616
6.000 2.722 0.346
5.928 2.722 -0.131
5.514 3.109 0.756
5.607 2.865 0.504
5.594 3.144 0.282
6.143 -0.044 2.481
6.096 2.326 1.015
5.848 2.606 1.154
6.071 2.692 0.834
6.222 2.777 0.521
5.956 2.819 1.158
6.092 2.956 0.553
6.278 2.906 0.431
6.280 2.851 0.049
5.581 3.040 0.948
5.742 3.068 0.561
5.932 3.198 0.314
6.081 3.104 0.053
0.934 0.098 0.167
1.218 0.118 0.440
1.465 -0.013 0.482
1.669 -0.045 0.258
1.953 0.060 0.176
1.420 0.250 0.378
1.462 0.473 0.373
6.194 0.819 6.027
5.963 0.973 6.224
6.160 1.169 5.786
5.987 1.178 5.982
5.817 1.309 5.715
6.264 1.490 5.517
5.547 1.557 6.041
5.909 1.760 5.892
5.890 1.559 5.503
6.347 2.397 4.267
6.230 2.816 4.416
6.254 2.841 3.896
6.111 3.126 3.901
6.284 3.178 3.569
5.947 3.454 3.676
6.293 1.072 6.116
6.130 1.571 6.284
5.131 3.513 6.055
5.423 3.633 5.690
5.621 3.611 6.380
5.638 3.842 5.995
5.717 3.762 5.833
5.904 3.716 6.058
6.221 3.482 6.017
5.917 3.951 6.086
6.003 3.941 5.911
6.074 3.827 5.647
5.987 4.153 6.346
6.242 4.106 6.015
5.917 0.006 4.833
5.256 0.222 5.461
5.350 0.208 5.459
5.324 0.106 4.940
5.533 0.454 4.844
4.928 0.580 5.606
5.102 0.428 5.204
5.230 0.480 4.953
5.386 0.443 4.598
5.768 0.588 4.385
4.916 0.775 5.257
5.285 0.669 4.895
5.178 0.737 4.836
5.454 0.983 4.554
4.858 1.158 5.000
5.282 1.071 4.668
5.192 1.156 4.239
5.018 1.266 4.541
5.238 1.492 4.247
5.150 1.401 3.900
5.147 1.852 4.389
5.024 1.689 3.932
5.136 1.769 3.640
4.936 1.885 4.185
5.120 2.046 3.995
5.101 2.214 3.743
5.400 2.236 3.525
4.621 2.086 4.295
4.886 2.320 3.818
4.953 2.311 3.761
5.280 2.207 3.426
5.361 2.356 3.156
3.615 2.246 5.983
4.699 2.612 4.004
4.984 2.548 3.766
5.006 2.745 3.290
5.117 2.685 3.206
3.490 2.594 6.263
3.493 2.526 5.719
4.498 3.006 3.740
4.662 2.970 3.512
4.921 2.758 3.230
4.841 3.027 2.921
5.612 0.168 4.757
5.472 0.171 5.696
5.685 0.232 5.660
5.879 0.147 5.141
5.451 0.161 6.021
5.554 0.262 5.800
5.678 0.409 5.362
5.660 0.465 5.130
5.927 0.517 4.859
5.195 0.596 6.041
5.403 0.644 5.547
5.473 0.596 5.398
5.732 0.516 5.031
5.672 0.809 4.996
5.987 0.819 4.536
5.156 0.729 5.789
5.325 0.955 5.274
5.551 0.890 5.048
5.712 0.852 4.784
5.835 1.149 4.385
4.993 1.220 5.382
5.135 1.266 5.187
5.270 1.209 4.940
5.594 1.422 4.492
5.777 1.299 4.274
5.055 1.612 5.075
5.296 1.608 4.600
5.502 1.712 4.634
5.672 1.608 4.169
5.708 1.631 3.942
5.138 1.699 4.805
5.210 1.808 4.400
5.355 2.038 4.099
5.492 1.788 3.911
5.666 2.059 3.714
5.092 2.189 4.535
5.257 2.027 4.046
5.317 2.264 3.816
5.581 2.241 3.686
5.548 2.242 3.249
4.874 2.261 4.293
5.188 2.352 4.145
5.080 2.483 3.659
5.408 2.387 3.705
5.654 2.537 3.403
4.922 2.562 4.184
5.070 2.751 3.658
5.255 2.923 3.356
5.276 2.893 3.216
3.705 2.625 6.142
3.697 2.655 5.945
5.006 3.117 3.906
5.213 3.147 3.579
5.237 3.217 3.195
5.458 0.041 5.829
5.681 -0.036 5.563
5.760 0.194 5.224
5.882 0.247 5.988
6.116 0.368 5.687
5.520 0.458 6.143
5.529 0.341 5.947
5.955 0.670 5.596
5.903 0.707 5.215
5.514 0.653 5.987
5.677 0.630 5.814
5.650 0.860 5.556
5.869 0.909 5.376
5.912 1.020 5.155
5.310 0.943 5.944
5.448 1.022 5.760
5.568 1.022 5.466
5.714 1.236 5.168
5.761 1.228 5.128
5.860 1.115 4.806
5.184 1.233 5.838
5.438 1.462 5.574
5.354 1.481 5.233
5.613 1.286 4.960
5.688 1.437 4.592
6.070 1.642 4.303
5.245 1.571 5.539
5.371 1.775 5.343
5.488 1.751 4.756
5.600 1.595 4.714
5.738 1.804 4.202
5.802 1.787 3.981
6.065 1.715 3.621
5.291 2.115 5.002
5.503 2.061 4.527
5.699 1.928 4.230
5.903 2.038 4.142
6.033 1.970 3.782
5.997 2.336 3.376
5.256 2.280 4.638
5.317 2.179 4.418
5.471 2.512 3.866
5.785 2.531 3.683
5.892 2.566 3.349
5.323 2.463 4.397
5.609 2.487 3.931
5.728 2.762 3.738
5.692 2.668 3.513
5.278 3.060 3.807
5.408 2.998 3.765
5.611 2.821 3.271
3.937 3.019 6.122
5.332 3.290 3.669
5.372 3.268 3.376
5.735 0.198 5.812
5.876 0.360 5.486
5.944 0.490 6.132
5.982 0.549 5.694
5.764 0.781 6.319
5.918 0.814 5.892
5.913 0.941 5.747
6.015 0.893 5.431
5.600 1.148 6.177
5.455 1.123 5.806
5.640 1.086 5.632
5.774 1.410 5.311
6.004 1.180 5.251
5.230 1.250 6.057
5.573 1.290 5.805
5.541 1.541 5.658
5.878 1.461 5.382
6.027 1.433 5.062
5.970 1.478 4.849
5.456 1.624 5.655
5.733 1.668 5.263
5.754 1.690 5.155
5.970 1.977 4.863
5.976 1.819 4.340
6.171 1.942 4.088
5.800 2.254 4.629
5.762 2.300 4.455
5.839 2.270 4.205
6.264 2.206 4.033
6.163 2.379 3.673
5.601 2.446 4.360
5.855 2.676 4.027
6.135 2.619 4.024
6.154 2.469 3.605
5.689 2.722 3.932
5.962 2.930 3.723
6.035 2.778 3.578
5.673 2.973 3.800
5.932 3.100 3.355
6.016 0.640 6.189
6.066 1.190 6.002
6.266 1.101 5.962
5.744 1.284 6.189
5.942 1.265 5.854
6.039 1.471 5.564
5.580 1.665 5.901
5.796 1.633 5.900
5.814 1.703 5.502
6.201 2.249 4.292
5.946 2.769 4.329
6.208 2.779 3.938
6.069 3.115 4.125
6.283 3.172 3.740
5.891 3.413 3.691
6.231 3.200 3.265
6.177 3.065 0.865
5.884 3.129 1.074
6.004 3.228 0.752
6.181 3.201 0.710
5.758 2.582 3.040
5.394 2.788 3.103
6.159 2.570 3.202
5.784 2.759 3.090
5.741 2.996 3.103
6.383 2.736 3.383
6.178 3.000 3.348
6.418 2.992 2.967
6.128 3.242 3.159
6.140 3.212 3.501
0.108 2.245 0.745
0.252 2.254 0.673
0.247 2.606 0.391
0.060 0.792 3.157
0.364 0.765 2.969
-0.008 1.119 2.906
0.141 0.879 2.440
0.125 1.229 2.503
0.334 1.477 2.175
-0.045 1.483 2.214
0.349 1.537 1.739
0.110 2.021 1.783
0.308 1.914 1.652
0.215 1.864 1.399
0.381 1.968 1.006
0.141 2.394 1.438
0.115 2.188 1.169
0.443 2.163 1.156
0.536 2.409 0.852
-0.111 2.724 1.244
0.275 2.452 1.060
0.384 2.556 0.545
-0.032 2.804 1.050
0.019 2.812 0.619
-0.068 3.187 0.770
-0.036 3.478 0.847
0.152 0.878 3.520
0.486 0.963 3.433
0.556 0.698 2.946
0.780 0.899 2.669
0.032 1.078 3.504
0.169 1.102 3.164
0.348 1.044 2.901
0.475 1.291 2.778
0.721 1.378 2.464
0.107 1.335 3.027
0.031 1.366 2.846
0.458 1.534 2.569
0.635 1.345 2.352
0.734 1.377 2.017
0.082 1.817 3.037
0.189 1.589 2.692
0.454 1.906 2.299
0.474 1.959 2.009
0.510 1.904 1.815
0.134 2.045 2.626
0.119 2.185 2.179
0.455 2.009 1.898
0.496 2.170 1.733
0.535 2.032 1.533
0.722 2.096 1.303
0.129 2.178 2.402
0.233 2.436 1.910
0.282 2.545 1.692
0.289 2.329 1.266
0.610 2.628 1.271
0.641 2.574 0.882
-0.044 2.636 1.814
0.009 2.587 1.509
0.433 2.586 1.446
0.326 2.656 1.167
0.671 2.808 0.850
0.112 2.813 1.644
0.243 2.882 1.442
0.123 3.034 1.072
0.264 2.911 0.920
-0.010 3.390 0.942
0.261 3.295 0.717
0.211 3.761 0.654
0.243 3.845 1.510
0.367 3.770 1.060
0.503 3.863 0.773
0.593 1.066 3.626
0.628 0.805 3.446
0.683 0.941 3.228
0.929 1.119 2.843
0.996 1.236 2.468
0.246 1.039 3.728
0.491 1.175 3.498
0.751 1.177 3.048
0.862 1.372 2.774
0.746 1.318 2.457
0.936 1.255 2.262
0.182 1.613 3.249
0.415 1.522 3.102
0.552 1.730 2.772
0.585 1.653 2.447
0.836 1.776 2.362
0.264 1.672 3.126
0.490 1.834 2.619
0.544 2.021 2.484
0.679 2.072 2.300
1.003 2.141 1.866
0.238 2.075 2.744
0.287 2.173 2.273
0.638 2.370 2.310
0.692 2.196 1.743
0.922 2.211 1.748
0.141 2.341 2.484
0.471 2.654 2.092
0.534 2.480 1.892
0.620 2.637 1.600
0.718 2.685 1.316
0.200 2.816 2.211
0.463 2.696 1.658
0.506 2.929 1.585
0.683 2.844 1.156
0.783 2.843 0.801
0.063 3.090 1.978
0.352 3.081 1.734
0.433 3.280 1.469
0.439 3.193 1.214
0.814 3.349 0.940
0.260 3.198 1.900
0.103 3.558 1.478
0.506 3.559 1.104
0.532 3.608 0.840
0.207 3.577 1.430
0.079 3.557 1.272
0.252 3.767 0.836
0.266 3.766 1.908
0.153 3.978 1.425
0.317 3.875 1.290
0.583 3.998 0.953
0.241 4.235 1.525
0.462 4.126 1.353
0.796 1.022 3.603
1.100 1.113 3.105
1.055 1.186 3.133
1.272 1.272 2.592
0.620 1.436 3.586
0.991 1.323 3.275
0.982 1.336 2.939
1.077 1.379 2.645
1.329 1.564 2.247
0.598 1.570 3.069
0.923 1.747 2.958
1.053 1.862 2.728
1.235 1.965 2.417
0.776 2.021 2.827
0.792 2.226 2.705
0.794 2.185 2.185
0.729 2.174 2.622
0.647 2.310 2.446
1.069 2.584 2.000
0.695 2.763 2.308
0.892 2.855 1.897
1.059 2.694 1.750
0.405 2.882 2.253
0.789 2.889 1.923
0.933 2.913 1.704
0.996 2.970 1.415
0.231 3.168 2.292
0.405 3.284 1.882
0.707 3.361 1.557
0.608 3.408 1.386
1.039 3.506 1.226
0.165 3.578 1.825
0.624 3.551 1.667
0.514 3.620 1.248
0.786 3.778 1.159
0.347 3.773 1.824
0.163 3.980 1.618
0.553 3.956 1.426
0.668 3.976 0.881
0.450 3.873 1.957
0.622 4.035 1.680
0.653 4.143 1.298
0.774 3.938 0.983
0.404 4.203 2.001
0.507 4.271 1.757
0.527 4.440 1.431
0.535 4.448 1.088
0.114 4.478 1.871
0.139 4.508 1.725
0.379 4.538 1.201
-0.010 4.889 1.722
1.038 1.139 3.611
1.354 1.471 3.278
1.356 1.269 3.169
1.486 1.343 2.686
0.146 0.905 5.679
1.030 1.595 3.329
1.263 1.633 3.197
1.178 1.774 2.670
0.893 2.037 3.217
1.280 1.806 2.846
0.763 2.968 1.973
1.001 3.084 1.690
0.693 3.431 1.967
0.761 3.440 1.659
0.932 3.471 1.660
0.556 3.814 1.931
0.855 3.754 1.904
1.009 3.817 1.550
0.935 3.638 1.204
0.251 3.941 2.090
0.588 3.887 1.833
0.802 3.908 1.276
0.778 4.199 1.000
0.755 4.159 1.972
0.712 4.162 1.688
1.012 4.270 1.701
0.922 4.172 1.285
0.367 4.383 2.094
0.744 4.310 1.681
0.748 4.383 1.443
0.867 4.598 1.399
0.206 4.494 2.295
0.498 4.515 1.943
0.355 4.663 1.663
0.757 4.725 1.559
0.653 4.760 1.280
0.081 4.826 2.248
0.033 4.832 2.139
0.333 5.079 1.584
0.541 5.008 1.321
0.132 5.030 1.947
0.179 5.257 1.599
1.338 1.389 3.716
1.472 1.568 3.306
0.227 1.046 5.950
0.376 0.981 5.919
0.180 1.402 5.410
0.166 1.362 6.165
0.024 1.294 5.850
0.337 1.353 5.375
0.260 1.561 5.270
0.023 1.557 5.764
0.104 1.840 5.396
0.020 2.147 5.513
0.123 2.104 5.341
0.131 2.470 5.173
0.065 2.628 4.737
0.927 3.832 1.823
1.000 3.992 1.433
0.709 4.169 2.017
0.887 4.043 1.750
0.798 4.209 1.720
1.059 4.344 1.336
1.089 4.319 2.039
1.123 4.341 1.836
1.279 4.218 1.564
0.894 4.349 2.362
0.940 4.507 1.975
1.049 4.620 1.806
1.286 4.480 1.450
0.583 4.620 2.405
0.521 4.735 2.062
0.692 4.793 1.801
0.878 4.720 1.615
0.932 4.853 1.263
0.207 4.862 2.592
0.473 4.937 2.225
0.471 5.253 1.847
0.642 5.269 1.601
0.874 5.042 1.417
0.140 5.188 2.699
0.048 5.314 2.558
0.302 5.192 2.124
0.315 5.313 1.950
0.655 5.534 1.588
0.063 5.547 2.191
0.409 5.530 1.840
0.570 1.349 6.122
0.489 1.391 5.766
0.491 1.486 5.441
0.169 1.428 6.173
0.536 1.468 5.974
0.532 1.674 5.488
0.289 1.928 5.718
0.221 1.644 6.234
0.265 1.828 5.881
0.532 1.933 5.583
0.210 2.235 5.676
0.556 2.190 5.186
0.033 2.041 5.819
0.117 2.257 5.625
0.264 2.564 5.405
0.140 2.375 5.239
0.355 2.533 4.801
0.018 2.333 5.576
-0.070 2.655 5.079
0.230 2.846 5.060
0.214 2.938 4.738
0.120 3.018 4.733
0.151 2.940 4.544
0.488 3.210 4.251
0.025 3.256 4.525
0.337 3.433 4.327
0.358 3.456 4.006
0.187 3.501 4.231
0.199 3.575 3.909
1.080 4.246 2.044
1.264 4.446 1.727
1.183 4.257 1.357
0.110 3.979 4.468
0.261 4.006 4.273
1.416 4.543 1.713
1.639 4.630 1.427
1.190 4.812 1.970
1.189 4.638 1.660
1.385 4.906 1.458
0.687 4.805 2.228
0.855 5.071 1.975
1.155 5.016 1.778
1.403 5.021 1.554
0.443 5.241 2.732
0.653 5.110 2.439
0.690 5.091 2.014
1.087 5.163 1.746
1.193 5.236 1.306
0.148 5.233 2.787
0.394 5.298 2.425
0.678 5.519 2.404
0.690 5.623 1.918
0.778 5.505 1.591
1.027 5.455 1.493
-0.047 5.676 2.823
0.162 5.732 2.654
0.425 5.809 2.363
0.606 5.942 2.095
0.534 5.992 1.689
0.059 6.049 2.374
0.372 5.865 2.158
0.650 1.863 5.969
0.805 1.950 5.772
0.378 2.027 6.148
0.625 2.067 6.012
0.755 2.047 5.546
0.583 2.245 5.669
0.479 2.437 5.339
0.284 2.067 6.187
0.333 2.321 5.885
0.511 2.294 5.732
0.454 2.708 5.483
0.391 2.699 5.275
0.684 2.653 5.046
0.627 2.578 4.957
-0.053 2.361 6.164
0.163 2.588 5.959
0.393 2.660 5.500
0.219 2.935 5.747
0.298 3.033 5.288
0.494 2.770 5.124
0.652 2.961 4.936
0.729 3.058 4.368
0.149 2.698 5.945
0.204 2.737 5.479
0.094 3.007 5.441
0.132 3.190 5.161
0.381 3.312 4.914
0.401 3.220 4.735
0.457 3.335 4.607
0.869 3.339 4.269
0.032 3.084 5.725
0.065 3.512 5.323
0.013 3.334 5.116
0.283 3.554 4.790
0.596 3.672 4.439
0.750 3.754 4.029
0.020 3.600 4.835
0.148 3.933 4.680
0.451 3.868 4.234
0.302 3.955 4.061
0.115 3.983 4.749
0.159 4.201 4.312
1.318 4.296 1.932
1.466 4.573 1.585
1.350 4.904 1.948
1.631 4.995 1.528
1.255 5.196 2.189
1.411 5.014 1.908
1.536 5.221 1.724
1.032 5.331 2.456
0.928 5.426 2.295
1.287 5.269 1.981
1.356 5.469 1.562
0.457 5.435 2.631
0.931 5.712 2.529
0.866 5.646 2.017
1.024 5.636 1.685
1.220 5.679 1.606
-0.083 5.592 3.590
0.327 5.827 3.304
0.300 5.956 2.822
0.526 5.715 2.573
0.473 5.873 2.281
0.823 5.857 2.125
1.059 5.842 1.719
0.059 5.958 3.307
0.277 6.014 3.031
0.442 6.212 2.675
3.082 2.502 2.016
2.938 2.616 2.034
0.600 2.085 6.044
0.845 2.480 5.683
0.652 2.483 6.074
0.822 2.481 5.866
0.551 2.594 5.952
0.738 2.702 5.400
1.026 2.766 5.226
0.837 2.786 4.792
0.526 2.767 6.143
0.560 2.622 5.709
0.440 2.976 5.793
0.598 3.079 5.419
0.579 3.192 5.049
0.811 3.167 4.937
0.996 3.114 4.749
1.230 3.053 4.283
0.414 3.124 5.848
0.550 3.315 5.317
0.426 3.266 5.314
0.648 3.452 4.863
0.729 3.366 4.477
1.022 3.441 4.299
0.976 3.487 4.132
0.437 3.762 5.025
0.414 3.567 4.946
0.815 3.535 4.429
0.749 3.714 4.173
0.841 3.637 3.960
0.234 4.089 4.806
0.554 4.087 4.552
0.656 3.997 4.174
1.865 4.952 1.764
1.646 5.298 2.097
1.621 5.312 1.746
1.134 5.682 2.234
1.272 5.481 2.008
1.512 5.715 1.816
1.034 5.916 2.339
1.171 5.998 1.927
1.464 5.796 1.734
0.092 6.100 3.825
0.139 6.230 3.582
0.287 6.118 3.409
3.418 2.446 2.241
3.106 2.431 2.516
3.101 2.514 2.004
2.913 2.908 2.626
2.825 3.012 2.515
3.108 2.829 1.930
2.491 3.011 2.596
2.952 2.962 2.484
2.821 3.084 1.916
1.000 3.256 5.223
1.217 3.308 4.965
1.194 3.402 4.763
1.466 3.488 4.400
1.373 3.453 4.205
1.584 3.493 3.935
1.753 3.495 3.581
0.939 3.453 5.399
0.887 3.381 5.063
1.227 3.653 4.584
1.133 3.541 4.618
1.424 3.635 4.051
1.423 3.683 4.069
1.714 3.701 3.577
0.828 3.749 5.139
0.877 3.877 4.571
0.912 3.852 4.292
1.306 4.024 4.000
1.196 3.841 3.917
0.637 4.064 4.636
0.949 4.068 4.387
0.958 4.209 4.202
1.996 5.432 2.015
1.710 5.853 1.882
0.013 6.166 4.123
3.352 2.536 2.742
3.569 2.401 2.350
3.153 2.545 2.699
3.312 2.789 2.403
3.621 2.700 2.109
2.844 2.954 2.912
3.073 2.921 2.743
3.010 2.949 2.357
3.274 3.068 2.298
2.494 3.010 3.326
2.779 3.044 3.128
2.777 3.184 2.903
2.922 3.402 2.383
3.267 3.179 2.292
1.990 3.273 4.145
2.231 3.484 3.775
2.219 3.507 3.518
2.420 3.434 3.204
2.585 3.364 3.122
2.711 3.580 2.790
2.891 3.676 2.602
1.755 3.492 4.665
1.704 3.410 4.402
1.970 3.595 4.116
2.147 3.550 3.648
2.304 3.737 3.492
2.300 3.832 3.229
1.184 3.716 4.983
1.414 3.867 4.486
1.481 3.870 4.211
1.878 3.936 3.930
1.764 3.725 3.905
2.121 3.933 3.599
1.154 4.123 4.738
1.382 4.072 4.414
1.286 3.961 4.195
1.574 4.225 4.155
1.656 4.306 3.621
1.223 4.282 4.528
1.212 4.469 4.172
1.278 4.235 3.921
1.382 4.667 4.506
1.354 4.943 4.042
-0.063 5.062 6.104
0.113 5.263 5.917
0.144 5.446 6.027
0.063 5.493 5.742
-0.030 5.882 5.431
0.081 5.986 5.109
3.637 2.555 2.963
3.665 2.591 2.799
3.882 2.794 2.592
3.191 2.749 3.206
3.458 2.958 3.129
3.504 2.979 2.589
3.854 2.860 2.316
3.126 2.867 3.594
3.060 2.944 3.384
3.392 3.031 2.932
3.394 3.255 2.793
3.427 3.089 2.235
2.565 3.138 3.593
2.690 3.136 3.588
3.028 3.255 3.163
3.097 3.528 2.890
3.320 3.495 2.751
3.301 3.499 2.303
2.405 3.612 4.270
2.305 3.638 3.989
2.424 3.620 3.619
2.661 3.503 3.289
2.962 3.689 3.128
2.952 3.627 2.748
3.089 3.776 2.757
1.887 3.673 4.471
2.150 3.551 4.255
2.343 3.602 3.853
2.440 3.669 3.683
2.510 3.687 3.412
2.611 3.762 3.198
1.786 3.783 4.591
1.777 3.944 4.608
1.853 3.919 4.137
2.254 4.152 4.038
2.124 3.968 3.785
2.330 4.170 3.196
1.587 4.150 4.757
1.707 4.299 4.267
1.872 4.416 4.215
1.839 4.180 3.993
2.150 4.506 3.761
1.410 4.512 4.719
1.683 4.419 4.508
1.517 4.580 4.117
1.663 4.443 3.913
1.230 4.901 4.452
1.638 4.659 4.009
1.788 5.032 4.490
1.914 4.932 4.140
1.816 5.081 3.850
0.510 5.108 5.956
0.550 5.352 6.136
0.232 5.542 6.004
0.424 5.364 6.033
0.209 5.711 5.915
0.367 5.686 5.619
0.288 5.689 6.029
-0.078 6.123 5.952
0.103 5.988 5.869
0.236 5.968 5.311
0.077 6.111 5.986
3.708 2.770 3.351
3.757 2.854 3.176
3.972 2.860 2.833
4.056 2.711 2.548
3.419 2.864 3.694
3.640 2.984 3.359
3.705 3.041 3.057
3.892 3.070 2.821
3.825 3.215 2.586
3.389 3.230 3.714
3.345 3.367 3.477
3.396 3.349 3.008
3.546 3.429 2.659
3.787 3.311 2.442
3.104 3.538 3.844
2.934 3.586 3.523
3.269 3.579 3.415
3.479 3.577 3.100
3.663 3.509 2.927
2.790 3.549 4.068
2.626 3.578 3.729
2.815 3.642 3.726
3.135 3.912 3.349
3.312 3.762 2.919
2.226 3.771 4.429
2.408 3.844 4.065
2.648 3.836 3.661
2.798 4.109 3.539
2.823 4.133 3.196
2.117 4.213 4.522
2.330 4.028 4.444
2.324 4.017 3.925
2.446 4.204 3.769
2.753 4.191 3.625
1.855 4.402 4.826
1.755 4.233 4.504
2.140 4.344 4.290
2.369 4.330 4.180
2.233 4.591 3.638
2.392 4.572 3.499
1.722 4.586 4.856
1.727 4.571 4.677
1.748 4.588 4.153
2.210 4.781 4.126
2.112 4.769 3.554
1.761 5.012 4.638
1.841 5.033 4.378
1.980 4.953 3.823
1.906 5.183 4.687
1.849 5.239 4.448
2.044 5.205 4.031
2.268 5.293 3.690
1.687 5.261 4.356
2.098 5.591 3.908
0.580 5.530 6.333
0.670 5.284 6.381
0.437 5.784 6.270
0.444 5.477 6.048
0.343 5.961 6.099
0.401 6.048 6.158
0.427 6.090 6.244
0.314 6.093 5.752
0.332 6.063 6.115
2.780 2.536 6.001
2.889 2.397 5.714
4.080 2.709 3.668
4.166 2.858 3.240
4.215 2.962 2.856
4.393 2.873 2.724
3.614 3.134 3.925
3.724 3.206 3.423
3.902 3.090 3.169
4.067 3.148 2.975
4.255 3.093 2.688
3.435 3.405 3.710
3.504 3.351 3.665
3.813 3.263 3.202
3.988 3.560 2.868
3.276 3.500 3.897
3.565 3.515 3.626
3.577 3.806 3.132
2.978 3.875 4.044
3.098 3.797 3.867
3.417 3.812 3.515
2.858 3.995 4.367
2.979 4.028 3.807
3.063 4.148 3.728
2.484 4.384 4.542
2.742 4.267 4.051
2.695 4.538 3.817
2.795 4.393 3.708
2.083 4.531 4.710
2.460 4.711 4.605
2.381 4.590 4.152
2.411 4.733 3.846
2.855 4.683 3.628
1.844 4.760 4.570
2.288 4.887 4.474
2.390 4.757 3.989
2.340 4.942 3.901
1.934 5.049 4.758
1.933 5.136 4.350
2.074 5.294 4.214
2.300 5.246 3.655
2.061 5.109 4.705
2.289 5.322 4.485
2.216 5.426 4.395
2.621 5.363 3.919
1.873 5.544 4.872
2.240 5.381 4.384
2.258 5.659 4.161
2.447 5.603 3.951
1.897 5.966 4.581
2.161 5.776 4.228
2.348 5.879 3.868
1.936 6.006 3.957
1.931 5.997 3.867
2.832 2.480 6.282
3.002 2.543 5.935
3.291 2.680 5.727
4.175 2.851 3.541
4.165 3.014 3.288
4.288 2.922 3.277
4.708 3.028 2.746
2.753 2.853 6.210
2.956 2.900 5.752
4.105 3.153 3.813
4.027 3.111 3.304
4.250 3.214 3.142
2.565 3.087 6.290
4.001 3.674 3.481
3.901 3.528 3.497
2.864 4.384 4.423
2.971 4.477 3.889
2.570 4.833 4.574
2.718 4.793 4.378
2.677 4.780 4.182
2.085 4.874 4.757
2.300 4.934 4.595
2.693 4.938 4.203
2.629 5.092 3.944
2.103 5.274 4.925
2.355 5.141 4.391
2.226 5.331 4.116
2.661 5.313 4.104
0.172 2.087 0.905
0.249 2.305 0.705
0.121 2.492 0.682
2.965 6.120 6.136
2.927 6.309 5.718
3.002 6.131 5.382
4.418 3.468 6.247
4.600 3.402 5.807
4.331 3.617 5.927
4.523 3.818 5.629
4.626 3.769 5.586
4.201 4.071 5.973
4.263 3.924 5.805
4.622 3.925 5.543
4.544 3.989 5.033
3.746 4.344 6.396
4.045 4.139 5.948
4.143 4.310 5.597
4.377 4.463 5.586
4.438 4.302 5.132
4.699 5.229 3.881
4.984 5.250 3.769
4.915 5.193 3.565
4.473 5.493 3.986
4.703 5.522 3.541
4.769 5.633 3.259
4.412 5.656 3.547
4.760 5.645 3.321
4.532 5.857 3.246
4.707 3.712 6.337
4.744 3.665 5.857
5.058 3.649 5.839
4.467 3.752 6.038
4.664 3.830 5.781
4.815 3.995 5.726
5.112 4.057 5.404
4.524 4.000 6.243
4.509 4.328 5.953
4.862 4.097 5.583
4.786 4.386 5.247
5.053 4.276 5.022
4.250 4.269 6.027
4.581 4.547 5.984
4.675 4.478 5.510
4.768 4.721 5.340
4.939 4.584 5.069
5.071 4.480 4.592
4.485 4.679 5.418
4.549 4.860 5.162
4.848 4.819 5.126
4.683 4.914 4.836
5.093 5.110 4.264
4.964 5.107 4.188
5.248 4.977 3.722
4.776 5.066 4.792
4.779 5.143 4.538
4.804 5.157 4.008
5.098 5.464 3.766
5.083 5.362 3.496
4.680 5.458 4.341
4.853 5.451 3.996
4.833 5.540 3.928
5.183 5.559 3.498
4.507 5.739 3.879
4.851 5.976 3.658
4.788 5.948 3.604
4.605 6.259 3.637
4.934 6.318 3.338
4.959 3.846 6.159
5.093 3.702 5.904
5.240 3.822 5.593
4.905 4.025 6.066
5.068 4.222 5.856
5.159 4.019 5.607
5.264 4.318 5.277
4.933 4.353 6.077
4.813 4.516 5.666
5.066 4.494 5.509
5.219 4.543 5.070
5.228 4.623 5.033
4.622 4.671 6.095
4.838 4.710 5.708
4.817 4.810 5.319
4.978 4.581 5.010
5.103 4.688 4.861
5.303 4.848 4.733
4.501 4.804 5.504
4.790 5.111 5.553
5.052 5.016 4.961
5.147 4.901 4.893
5.169 5.186 4.711
5.234 5.198 4.449
5.379 5.125 4.012
4.730 5.312 4.985
4.849 5.417 4.784
5.165 5.490 4.385
5.344 5.439 4.362
5.307 5.520 3.978
5.457 5.351 3.844
4.807 5.727 4.729
4.801 5.774 4.439
5.048 5.811 4.089
5.067 5.834 3.783
5.290 5.707 3.586
4.629 5.896 4.529
5.015 5.916 4.149
4.927 6.115 3.964
5.067 5.994 3.719
4.866 6.183 4.170
4.915 6.217 3.966
5.478 3.873 6.341
5.331 3.881 6.048
5.470 4.099 5.742
5.872 4.163 5.527
5.269 4.262 6.237
5.447 4.185 6.043
5.479 4.218 5.617
5.543 4.422 5.395
5.928 4.525 5.007
5.059 4.537 6.256
5.103 4.606 5.972
5.452 4.411 5.731
5.357 4.704 5.289
5.589 4.681 5.100
4.953 4.732 5.726
5.041 4.926 5.555
5.178 4.898 5.387
5.454 5.093 4.924
5.545 4.988 4.576
5.097 5.194 5.412
5.316 5.303 5.115
5.282 5.129 4.823
5.426 5.149 4.607
5.425 5.289 4.286
4.968 5.297 5.293
5.219 5.536 4.961
5.459 5.358 4.624
5.528 5.544 4.359
5.743 5.644 4.062
5.001 5.787 4.977
5.234 5.775 4.591
5.406 5.941 4.364
5.486 5.841 4.227
5.613 5.986 3.716
4.808 5.914 4.780
4.920 6.192 4.448
5.278 6.196 4.263
5.395 6.051 3.937
5.429 6.071 3.804
5.764 4.095 6.055
5.789 4.110 5.721
6.047 4.182 5.520
5.447 4.261 6.147
5.734 4.527 5.657
5.754 4.548 5.386
6.007 4.482 5.096
5.595 4.745 6.108
5.432 4.748 5.839
5.636 4.777 5.484
5.945 4.665 5.246
5.268 4.897 5.643
5.564 5.101 5.327
5.586 5.117 5.041
5.341 5.396 5.323
5.502 5.424 5.158
5.582 5.528 4.998
5.347 5.621 4.968
5.380 5.745 4.912
5.768 5.851 4.378
5.197 5.957 4.975
5.454 5.882 4.638
5.687 6.009 4.426
5.536 6.144 4.263
5.187 6.217 4.910
5.212 6.182 4.897
5.301 6.178 4.497
6.040 4.270 6.341
5.996 4.465 6.107
6.294 4.468 5.735
5.890 4.691 6.370
5.886 4.441 5.975
5.940 4.591 5.706
5.951 5.014 6.009
6.008 4.974 5.544
5.623 6.069 4.841
5.758 6.102 4.546
2.184 5.439 5.002
2.609 5.355 4.580
2.697 5.423 4.312
2.747 5.617 3.925
2.199 5.626 4.858
2.388 5.811 4.548
2.339 5.663 4.268
2.441 5.782 3.988
1.913 5.788 4.947
2.159 5.991 4.575
2.328 6.004 4.329
2.484 5.878 4.058
2.565 5.927 3.641
1.991 6.309 4.632
2.264 6.407 4.159
3.248 2.734 5.919
3.260 2.740 5.740
4.555 3.089 3.518
4.739 3.154 3.197
3.240 2.904 6.170
3.130 3.032 5.907
3.003 3.485 6.115
2.576 3.500 6.230
2.644 5.259 4.698
2.870 5.101 4.249
2.187 5.478 4.804
2.642 5.368 4.515
2.570 5.573 4.301
2.731 5.391 4.125
2.564 5.607 5.214
2.554 5.660 4.759
2.755 5.750 4.663
2.305 5.752 5.432
2.471 5.845 5.046
2.559 5.845 4.760
2.569 5.854 4.366
2.961 5.985 4.053
2.106 6.045 5.232
2.409 5.993 4.887
2.556 5.947 4.884
2.586 6.026 4.339
2.748 6.168 4.225
2.894 6.275 3.938
3.360 2.822 6.188
3.625 3.037 6.011
3.907 3.060 5.624
3.498 3.049 6.115
3.490 3.171 5.804
3.507 3.350 5.797
3.302 3.542 6.291
3.381 3.686 5.788
3.198 3.759 6.222
2.705 5.450 4.903
2.681 5.442 4.901
2.758 5.539 4.594
2.923 5.808 5.097
2.796 5.650 4.784
2.582 5.844 5.524
2.745 5.930 5.287
2.956 6.135 4.918
2.879 5.937 4.508
2.232 6.080 5.455
2.590 6.155 5.043
2.594 6.293 4.813
3.861 3.005 6.212
4.192 3.101 5.808
3.675 3.479 6.120
3.771 3.457 5.866
3.698 3.764 5.878
3.577 3.812 5.835
3.383 4.026 6.138
3.560 3.996 5.857
3.220 4.082 6.143
2.676 5.671 5.118
3.031 5.801 4.851
2.705 5.991 5.435
2.739 6.233 5.308
3.147 5.970 4.980
2.317 6.219 5.707
4.173 3.125 6.256
4.294 3.145 6.003
3.820 3.459 6.148
4.034 3.608 5.950
4.408 3.536 5.637
3.730 3.962 6.281
3.988 3.880 5.870
3.989 3.956 5.440
3.797 4.001 5.962
3.652 4.042 5.711
4.616 5.412 3.294
4.529 5.755 3.165
2.879 6.107 5.939
3.148 6.273 5.879
3.016 6.285 5.624
4.582 3.299 6.169
4.807 3.347 5.806
4.183 3.851 6.112
4.487 3.681 5.655
4.639 3.727 5.428
4.040 4.075 6.070
4.464 4.120 5.586
4.579 4.056 5.551
4.758 3.968 5.301
3.775 4.306 6.170
4.120 4.259 6.146
4.139 4.483 5.751
4.185 4.420 5.349
4.354 4.280 5.054
4.846 5.166 3.935
4.763 5.219 3.832
4.885 5.340 3.248
4.407 5.440 3.849
4.548 5.379 3.482
4.858 5.471 3.495
4.418 5.777 3.720
4.553 5.812 3.448
4.608 6.123 3.180
5.047 5.238 3.147
5.413 5.427 2.694
5.307 5.429 2.586
5.582 5.388 2.139
5.057 5.370 3.035
5.299 5.588 2.704
5.209 5.555 2.519
5.255 5.576 2.250
4.860 5.769 3.068
5.003 5.940 2.807
4.962 5.709 2.341
4.531 5.959 2.972
4.673 6.182 2.806
5.540 5.516 3.368
5.069 5.655 3.102
5.214 5.672 2.843
5.089 6.062 3.292
5.361 6.018 2.988
5.007 6.342 3.052
5.570 5.853 3.511
5.338 6.231 3.338
5.560 6.301 3.436
3.565 5.912 2.035
3.778 5.880 1.842
4.141 5.790 1.588
4.115 6.063 1.142
3.579 6.016 1.796
3.845 6.001 1.511
5.654 3.460 0.912
5.755 3.538 0.785
6.116 3.704 0.576
6.107 3.666 0.356
5.373 3.704 1.303
5.543 3.774 1.156
5.653 3.726 0.637
5.872 4.004 0.550
5.887 3.927 0.355
5.650 3.912 1.162
5.440 4.165 1.265
5.339 3.976 0.970
5.461 4.192 0.585
5.619 4.010 0.440
5.288 4.043 1.295
5.344 4.148 1.249
5.384 4.421 0.882
5.392 4.365 0.835
5.200 4.440 1.368
5.026 4.536 1.190
5.052 4.612 0.782
4.997 4.674 1.581
5.165 4.435 1.213
4.962 4.886 1.056
4.517 4.669 1.678
4.788 4.910 1.584
4.980 4.789 1.095
4.785 4.962 1.156
4.231 5.154 2.008
4.609 5.079 1.654
4.483 5.226 1.368
4.778 5.250 1.246
4.676 5.372 1.169
4.058 5.136 2.284
4.238 5.212 2.066
4.471 5.244 1.809
4.541 5.349 1.306
4.706 5.320 1.165
3.835 5.347 2.062
3.877 5.645 2.010
4.097 5.617 1.560
4.202 5.629 1.209
3.756 5.808 2.045
3.863 5.880 1.778
3.942 5.719 1.739
4.082 5.814 1.305
3.854 6.005 2.121
3.986 6.086 2.130
4.304 6.064 1.830
6.032 3.551 1.083
6.327 3.841 0.970
5.594 4.073 1.595
5.882 3.922 1.257
6.071 4.044 0.809
6.253 4.001 0.630
5.722 4.007 1.474
5.638 4.241 1.449
5.627 4.053 1.169
5.829 4.394 1.016
5.937 4.473 0.416
6.302 4.447 0.424
5.424 4.265 1.481
5.548 4.362 1.533
5.425 4.546 1.083
5.742 4.661 0.853
5.749 4.709 0.545
5.195 4.324 1.515
5.365 4.591 1.268
5.254 4.641 1.317
5.444 4.929 1.207
5.401 4.679 0.850
5.090 4.766 1.738
5.102 4.805 1.599
5.370 4.742 1.408
5.232 4.893 1.190
5.299 5.151 0.995
4.743 4.854 2.078
4.883 5.057 1.803
5.086 4.994 1.734
4.963 5.085 1.439
4.834 5.403 1.312
4.454 4.984 2.451
4.630 5.167 2.271
4.559 5.041 1.720
4.787 5.306 1.696
5.084 5.362 1.285
4.812 5.493 1.310
4.149 5.503 2.519
4.421 5.317 2.422
4.493 5.318 2.083
4.569 5.298 1.635
4.526 5.588 1.559
4.977 5.398 1.207
3.840 5.674 2.547
3.994 5.803 2.164
4.374 5.840 2.172
4.245 5.833 1.889
4.612 5.835 1.316
3.998 5.885 2.182
4.196 6.110 2.085
4.080 5.847 1.647
4.233 6.198 2.551
4.180 6.145 2.148
6.081 4.118 1.449
6.088 4.255 0.906
5.874 4.370 1.634
6.125 4.497 1.444
6.177 4.457 1.078
6.295 4.622 0.727
5.763 4.354 1.604
5.543 4.630 1.399
5.828 4.571 1.116
5.983 4.855 0.953
6.057 4.775 0.797
6.113 4.646 0.498
5.512 4.431 1.888
5.574 4.697 1.690
5.421 4.774 1.334
5.512 4.924 1.185
5.682 5.100 0.874
5.872 5.036 0.735
4.941 4.912 2.179
5.298 4.789 1.964
5.317 4.835 1.830
5.370 4.770 1.343
5.284 5.161 1.556
5.390 5.035 1.060
4.726 4.923 2.452
4.809 4.862 2.453
4.931 5.062 2.048
5.079 5.227 1.736
5.418 5.031 1.591
5.124 5.474 1.512
4.559 5.369 2.840
4.502 5.406 2.553
4.884 5.350 2.264
5.023 5.368 2.022
5.149 5.239 1.652
5.187 5.584 1.576
4.250 5.350 2.917
4.410 5.594 2.661
4.570 5.723 2.176
4.844 5.577 2.053
4.910 5.558 1.686
4.347 5.658 2.893
4.434 5.869 2.570
4.639 5.900 2.037
4.738 5.905 1.874
4.076 6.156 2.397
4.207 6.192 2.040
6.223 4.657 1.441
6.011 4.754 1.718
6.150 4.935 1.518
6.020 4.987 1.136
5.820 4.755 1.538
5.703 4.953 1.538
5.959 5.106 1.325
5.929 5.078 1.126
6.132 5.069 0.923
5.391 4.899 2.356
5.624 4.901 2.125
5.775 4.949 1.961
5.784 5.023 1.736
5.664 5.277 1.491
4.765 5.141 2.970
4.964 5.249 2.700
5.328 5.341 2.319
5.356 5.078 2.207
5.608 5.150 2.013
5.692 5.224 1.628
4.753 5.431 2.811
4.889 5.397 2.841
5.143 5.439 2.533
5.172 5.513 2.217
5.178 5.663 1.937
4.552 5.481 2.973
4.878 5.762 2.512
4.962 5.623 2.477
4.997 5.760 1.992
4.371 5.932 2.978
4.694 6.062 2.478
4.616 5.843 2.231
5.067 5.097 3.004
5.214 5.187 2.868
5.352 5.344 2.472
5.705 5.426 2.446
4.931 5.634 2.954
5.098 5.680 2.908
5.273 5.574 2.550
5.432 5.657 2.223
4.892 5.849 3.031
4.892 5.717 2.818
4.952 5.953 2.382
4.763 6.141 3.018
4.855 6.108 2.824
