5.797 3.221 3.937
5.605 3.151 4.050
6.308 3.227 3.493
6.067 3.325 3.435
5.808 3.428 3.728
5.611 3.559 3.796
6.216 3.494 3.250
5.957 3.499 3.347
5.782 3.533 3.414
5.609 3.651 3.655
6.158 3.668 3.233
6.022 3.874 3.275
5.720 3.998 3.668
5.877 4.262 3.278
5.212 2.015 4.626
5.441 1.915 4.102
5.279 1.978 4.403
5.242 2.389 4.654
5.954 2.133 3.909
5.655 2.215 4.160
5.492 2.289 4.301
5.380 2.478 4.284
5.979 2.230 3.856
5.807 2.582 3.999
5.560 2.501 4.047
5.422 2.755 4.340
6.395 2.432 3.567
6.082 2.683 3.728
5.890 2.876 3.855
5.555 2.735 3.901
5.483 3.108 4.067
6.025 2.871 3.543
6.009 3.106 3.530
5.581 3.164 3.870
5.517 3.160 4.087
6.166 2.513 3.102
5.831 2.866 3.382
5.712 2.993 3.483
5.444 2.946 3.493
5.428 3.364 3.622
5.918 3.020 3.011
5.646 3.210 3.184
5.667 3.388 3.399
5.446 3.555 3.673
5.816 3.320 3.170
5.712 3.435 3.299
4.713 1.508 4.571
4.899 1.686 4.279
4.920 1.816 4.501
5.425 1.664 4.053
5.238 1.905 4.326
4.775 1.976 4.310
5.522 1.649 3.785
5.461 2.060 3.965
5.166 2.072 4.280
4.839 2.258 4.339
5.919 2.026 3.647
5.610 1.972 3.733
5.486 2.098 3.938
5.388 2.445 4.090
4.898 2.350 4.295
6.093 2.033 3.364
5.669 2.400 3.561
5.411 2.423 3.846
5.345 2.639 3.888
5.003 2.658 4.009
6.075 2.532 3.229
5.934 2.518 3.427
5.704 2.544 3.679
5.404 2.729 3.666
5.218 2.999 3.842
6.054 2.557 3.256
5.827 2.863 3.265
5.552 3.022 3.438
5.601 3.005 3.693
5.182 3.331 3.644
5.905 2.727 2.793
5.646 2.844 3.191
5.462 2.963 3.240
5.273 3.095 3.303
5.177 3.172 3.445
5.854 2.850 2.793
5.473 3.216 2.992
5.303 3.158 3.270
4.565 1.473 4.409
4.881 1.651 4.211
4.550 1.782 4.262
5.246 1.399 3.680
5.204 1.729 3.909
5.016 1.706 4.182
4.818 2.016 4.320
5.601 1.599 3.451
5.551 1.605 3.603
5.281 1.869 3.704
5.054 2.059 4.039
4.822 2.048 4.009
5.740 1.763 3.304
5.624 1.820 3.642
5.378 2.033 3.774
5.217 2.268 3.781
4.847 2.300 3.793
5.998 2.057 3.202
5.735 2.069 3.300
5.533 2.320 3.310
5.213 2.361 3.622
5.080 2.569 3.574
4.910 2.800 3.653
5.905 2.170 3.139
5.537 2.537 3.084
5.559 2.545 3.449
5.234 2.912 3.486
5.134 3.059 3.799
6.054 2.707 3.031
5.646 2.781 3.188
5.601 2.888 3.171
5.255 2.963 3.267
5.089 3.157 3.592
5.755 6.365 6.156
6.115 4.384 6.213
5.723 4.577 6.172
5.559 6.048 5.949
6.089 6.135 5.451
5.779 6.121 5.604
6.123 3.326 6.217
6.306 3.580 6.131
6.019 3.751 6.089
6.219 4.016 6.131
5.823 4.054 6.178
6.022 4.185 5.991
5.750 4.394 6.330
5.694 4.254 6.163
5.393 4.545 6.284
5.441 6.191 5.677
5.162 6.239 5.850
6.270 5.811 5.006
5.928 6.002 5.293
5.877 6.042 5.351
5.752 6.105 5.497
6.261 6.179 5.016
6.001 2.238 6.186
6.087 2.181 6.255
6.071 2.470 6.152
5.724 2.834 6.153
5.917 2.604 6.040
6.276 2.754 6.115
5.832 3.006 6.244
5.783 2.989 6.222
6.103 2.718 5.826
6.038 3.143 5.840
5.641 3.465 6.103
5.892 3.551 6.090
5.630 3.663 6.248
5.825 4.092 5.949
5.554 4.127 6.085
5.746 4.468 5.978
5.270 4.654 6.054
5.031 4.627 5.920
4.930 4.482 6.236
6.087 5.177 4.907
5.843 5.345 4.959
6.279 5.605 4.533
6.077 5.577 4.734
5.961 5.843 4.913
5.631 6.035 5.087
5.361 6.247 5.361
6.264 5.854 4.655
5.995 5.962 4.778
5.591 6.196 4.865
6.214 6.333 4.679
5.406 2.986 6.063
5.211 3.128 6.310
5.670 3.189 5.829
5.294 3.396 6.138
5.316 3.452 6.066
5.529 3.601 5.962
5.146 3.869 6.154
5.084 4.121 6.298
5.286 3.940 5.846
5.142 4.185 5.978
4.824 4.430 6.303
5.163 4.453 5.865
5.008 4.484 6.063
4.802 4.644 5.729
4.617 4.853 5.977
4.372 4.975 6.320
6.288 4.566 4.625
6.252 4.327 4.647
6.177 4.694 4.465
5.800 4.899 4.654
6.355 5.008 4.373
5.923 5.169 4.503
5.864 5.280 4.790
5.641 5.410 4.810
6.131 5.494 4.582
5.892 5.574 4.652
5.663 5.732 4.868
5.541 5.803 4.908
5.379 6.228 4.958
6.091 5.875 4.360
5.912 6.035 4.479
5.858 5.927 4.698
5.537 6.234 4.719
6.205 5.859 4.257
6.118 6.047 4.394
4.784 3.170 6.261
5.081 3.439 6.036
4.905 3.592 6.195
5.060 3.872 5.971
4.686 3.864 5.933
4.766 3.993 6.196
5.073 4.111 5.874
4.809 4.015 5.937
4.604 4.263 6.052
4.548 4.609 6.067
4.926 4.553 5.738
4.491 4.852 6.178
4.228 4.964 6.165
4.667 4.617 5.813
4.310 4.504 5.685
4.177 4.697 6.006
3.895 4.888 6.250
6.159 4.152 4.538
6.047 4.006 4.443
6.139 4.523 4.207
5.897 4.654 4.510
5.932 4.503 4.481
6.162 4.765 4.066
5.806 4.858 4.324
5.859 5.017 4.578
6.007 4.507 4.342
6.196 4.767 3.919
5.903 5.049 4.312
5.692 5.189 4.377
5.681 5.255 4.390
6.280 5.010 3.968
6.198 5.147 4.188
5.852 5.526 4.283
5.575 5.505 4.504
5.569 5.852 4.567
5.262 5.725 4.775
6.256 5.680 3.895
6.033 5.557 4.048
5.840 5.808 4.324
5.637 5.886 4.508
5.239 6.258 4.396
6.110 5.785 3.792
5.983 5.972 4.014
5.868 6.011 4.099
5.504 6.201 4.134
6.008 6.253 3.897
4.502 3.294 6.151
4.133 3.352 6.297
4.495 3.736 5.986
4.354 3.626 6.079
4.163 3.792 6.230
4.536 3.886 5.925
4.514 3.865 5.808
4.096 4.249 6.094
3.933 4.433 6.156
4.696 4.236 5.656
4.563 4.227 5.708
4.301 4.476 5.927
4.197 4.504 6.017
3.772 4.759 6.139
4.445 4.426 5.793
4.235 4.565 5.664
4.086 4.804 5.853
3.880 4.964 6.130
4.412 4.313 5.530
4.323 4.722 5.683
3.894 4.737 5.620
3.648 4.876 5.876
3.540 4.887 5.962
5.807 3.838 4.538
4.557 4.664 5.271
4.102 4.789 5.381
4.149 5.122 5.731
3.926 5.276 5.744
5.618 3.699 4.544
5.883 4.030 4.251
5.874 4.116 4.315
5.945 4.190 4.083
5.799 4.385 4.352
5.869 4.399 4.160
5.865 4.447 3.874
5.645 4.723 4.016
5.882 4.479 4.051
6.045 4.749 3.934
5.754 4.855 4.096
5.607 5.155 4.215
5.404 5.402 4.375
5.908 4.690 3.769
5.962 5.212 3.653
5.979 5.274 3.956
5.754 5.468 4.108
5.564 5.512 4.031
5.192 5.548 4.451
6.202 5.196 3.769
6.145 5.180 3.624
5.908 5.343 3.595
5.896 5.518 4.013
5.490 5.636 4.128
5.488 5.881 4.016
5.266 6.094 4.446
6.205 5.403 3.618
6.226 5.479 3.357
6.072 5.877 3.585
5.934 5.907 3.758
5.639 6.121 3.969
5.561 6.123 3.880
6.241 5.705 3.434
6.070 6.080 3.571
5.924 6.153 3.590
5.794 6.191 3.678
6.254 6.250 3.419
3.924 3.304 6.023
4.004 3.460 6.015
4.255 3.725 5.848
4.072 3.792 5.900
3.669 4.023 6.099
4.504 3.865 5.597
4.155 3.924 5.749
4.079 3.994 5.827
3.837 4.342 5.952
3.665 4.472 6.187
4.608 4.087 5.466
4.166 4.327 5.525
4.120 4.414 5.880
3.840 4.561 5.824
3.648 4.555 6.055
3.382 4.818 6.284
4.505 4.550 5.402
4.138 4.471 5.502
4.076 4.658 5.628
3.699 4.855 5.888
3.639 5.077 6.004
4.333 4.333 5.372
3.925 4.509 5.434
3.715 4.711 5.444
3.518 4.856 5.781
3.468 4.909 5.796
5.411 3.666 4.311
4.223 4.526 5.062
3.954 4.645 5.353
3.943 4.918 5.465
3.687 4.930 5.557
3.267 5.212 5.569
5.494 3.861 4.066
5.514 4.046 4.057
4.066 5.028 5.128
3.858 5.067 5.380
3.748 5.179 5.493
5.626 4.078 4.169
5.697 4.141 3.777
5.665 4.297 3.819
5.667 4.384 3.916
5.585 4.619 4.013
5.834 4.479 3.714
5.960 4.660 3.515
5.497 4.886 3.768
5.330 5.029 3.847
5.755 4.913 3.729
5.954 4.982 3.434
5.823 5.120 3.687
5.415 5.384 3.665
5.156 5.339 3.897
5.926 5.045 3.409
6.036 5.349 3.364
5.731 5.533 3.386
5.508 5.680 3.639
5.303 5.565 3.827
5.204 5.904 4.061
6.087 5.170 3.244
5.928 5.561 3.277
5.859 5.775 3.408
5.561 5.916 3.504
5.301 5.919 3.748
5.235 6.177 3.678
6.144 5.654 3.192
6.107 5.715 3.175
5.986 6.058 3.260
5.611 5.974 3.376
5.378 6.071 3.655
6.099 5.702 3.088
6.228 6.067 3.035
6.164 6.092 3.112
6.090 6.013 2.831
3.302 3.518 6.088
3.758 3.509 6.002
3.379 3.514 6.085
3.163 3.846 6.289
3.856 3.755 5.534
3.635 3.882 5.657
3.440 3.862 5.888
3.213 4.167 6.135
3.255 4.220 6.132
3.949 3.828 5.439
3.718 4.059 5.649
3.539 4.306 5.838
3.546 4.383 5.925
3.312 4.552 5.983
4.199 4.012 5.453
3.807 4.289 5.436
3.569 4.352 5.728
3.446 4.451 5.972
3.297 4.778 5.986
4.279 4.336 5.215
4.050 4.443 5.233
3.762 4.634 5.517
3.593 4.776 5.627
3.463 4.918 5.761
5.172 3.404 3.971
4.012 4.460 5.069
3.673 4.477 5.033
3.617 4.469 5.210
3.206 4.609 5.568
3.281 4.947 5.725
5.335 3.504 4.211
4.113 4.553 4.843
3.873 4.597 5.012
3.601 4.828 5.287
3.552 4.919 5.264
3.269 5.178 5.337
4.111 4.785 4.824
4.058 4.883 4.965
3.592 5.114 4.896
3.546 5.162 5.288
3.234 5.475 5.190
3.992 5.111 4.893
3.877 5.229 4.966
3.627 5.451 5.093
3.474 5.554 5.127
3.779 5.710 4.752
3.635 5.691 4.804
3.585 5.888 5.048
3.157 6.180 5.308
3.736 6.019 4.640
3.459 6.247 4.782
5.504 5.247 3.390
5.343 5.624 3.354
5.594 5.652 3.069
5.304 5.729 3.267
5.249 5.764 3.575
4.955 5.909 3.469
5.797 5.921 3.017
5.606 5.948 3.288
5.304 6.283 3.295
6.175 6.015 2.850
5.663 6.105 2.717
5.563 6.113 3.081
6.076 6.020 2.831
6.026 6.195 2.641
5.960 6.070 2.620
4.803 1.660 5.116
4.513 1.933 5.162
4.371 2.019 5.469
4.052 2.125 5.465
4.854 1.762 5.223
4.915 1.998 4.920
4.686 2.044 5.118
4.510 2.144 5.370
4.657 1.962 5.035
4.825 2.139 4.890
4.613 2.451 5.023
4.833 2.086 4.739
4.951 2.424 4.808
2.933 3.599 5.872
4.948 2.560 4.819
4.979 2.797 4.398
3.594 3.705 5.457
3.327 3.871 5.862
3.099 4.153 5.998
2.981 4.096 6.134
5.165 2.764 4.434
5.227 2.902 4.434
3.912 3.920 5.283
3.591 4.038 5.323
3.340 4.221 5.515
3.050 4.174 5.673
3.088 4.418 5.937
4.979 2.923 4.491
5.173 3.254 4.265
3.782 4.027 5.110
3.638 4.362 5.172
3.634 4.391 5.388
3.324 4.573 5.515
3.039 4.554 5.901
5.169 3.284 4.175
5.256 3.515 4.019
4.103 4.268 5.138
3.698 4.612 5.285
3.685 4.710 5.343
3.217 4.877 5.595
3.114 4.916 5.573
5.139 3.331 4.126
3.757 4.259 4.817
3.650 4.464 4.925
3.216 4.443 4.993
3.206 4.790 5.158
2.794 4.852 5.279
3.967 4.470 4.625
3.936 4.616 4.657
3.565 4.782 4.944
3.359 4.729 5.019
3.314 4.967 5.174
2.964 5.140 5.347
3.959 4.669 4.380
3.729 4.983 4.564
3.495 5.147 4.759
3.177 5.186 4.975
3.175 5.421 5.067
2.808 5.372 5.289
3.940 5.084 4.319
3.710 5.227 4.630
3.568 5.187 4.755
3.455 5.523 4.751
3.290 5.758 4.841
2.870 5.713 5.256
3.754 5.423 4.311
3.598 5.647 4.591
3.545 5.726 4.551
3.208 5.752 4.980
3.093 5.938 5.127
2.700 6.115 5.198
3.891 5.670 4.365
3.628 5.964 4.680
3.244 5.996 4.812
2.986 6.325 4.861
3.758 6.239 4.428
5.552 5.714 2.664
5.481 5.822 2.911
5.136 6.122 3.195
4.987 6.312 3.249
5.666 5.969 2.792
5.330 6.314 2.895
5.797 6.157 2.407
5.919 6.183 2.436
4.477 1.627 4.750
4.226 1.806 5.130
4.224 1.999 5.180
3.962 2.093 5.181
3.578 2.073 5.548
4.506 1.723 4.906
4.639 1.958 4.674
4.495 1.883 4.744
4.294 2.116 4.933
4.119 2.423 5.154
4.469 1.950 4.857
4.580 2.209 4.598
4.476 2.200 4.843
4.393 2.315 5.038
4.744 2.039 4.445
4.865 2.434 4.448
4.516 2.449 4.593
4.780 2.479 4.387
4.975 2.492 4.405
4.548 2.669 4.532
4.819 2.535 4.461
4.895 2.947 4.116
3.228 4.153 5.386
2.976 4.170 5.492
5.051 2.987 4.075
4.861 3.038 4.144
3.603 3.876 4.971
3.370 4.174 5.140
3.320 4.357 5.330
3.100 4.409 5.310
5.009 3.028 4.065
3.785 4.136 4.924
3.449 4.410 4.835
3.393 4.493 5.123
3.079 4.686 5.294
3.096 4.844 5.343
3.710 4.223 4.596
3.251 4.372 4.773
3.218 4.440 4.870
2.919 4.587 4.980
1.422 5.593 6.017
1.392 5.722 6.086
3.826 4.428 4.232
3.683 4.462 4.454
3.570 4.468 4.614
3.375 4.890 4.729
3.115 4.980 4.757
2.832 5.006 5.057
1.292 6.135 5.979
1.029 6.234 6.111
3.898 4.635 4.199
3.878 4.681 4.183
3.417 4.942 4.592
3.334 4.986 4.662
3.245 5.081 4.725
2.950 5.428 5.024
2.840 5.309 4.901
3.949 4.830 3.891
3.712 4.809 4.212
3.595 5.104 4.382
3.438 5.107 4.352
3.314 5.336 4.633
3.056 5.425 4.870
2.903 5.678 5.026
4.056 5.344 4.166
3.757 5.510 4.103
3.615 5.392 4.330
3.375 5.709 4.411
3.197 5.804 4.551
2.812 5.963 4.653
2.774 6.166 5.034
3.737 5.503 3.996
3.535 5.868 4.163
3.213 5.800 4.214
3.200 6.052 4.566
3.072 6.287 4.588
3.487 5.921 3.901
3.370 6.270 4.232
5.188 5.998 2.428
5.436 6.167 2.286
4.319 1.585 4.510
4.158 1.618 4.925
4.031 1.811 4.980
3.625 1.888 5.102
3.560 2.025 5.121
3.187 2.280 5.407
4.339 1.516 4.621
4.552 1.648 4.530
4.348 2.023 4.677
3.988 2.108 4.941
3.904 2.352 5.079
3.591 2.265 5.009
4.259 1.837 4.505
4.477 1.954 4.302
4.174 2.256 4.623
4.122 2.490 4.633
3.807 2.563 4.870
4.547 2.081 4.289
4.617 2.301 4.227
4.316 2.364 4.332
4.195 2.562 4.572
4.422 2.422 4.160
4.702 2.452 4.213
4.424 2.673 4.136
4.694 2.646 3.945
4.662 2.947 3.911
1.570 5.121 6.130
4.624 2.658 4.093
3.410 4.152 4.842
3.140 4.333 5.173
1.374 5.465 6.155
3.517 4.122 4.663
3.398 4.381 4.674
3.044 4.388 4.900
3.082 4.579 4.902
1.465 5.565 6.177
1.411 5.934 6.260
5.370 2.464 2.243
6.091 3.494 1.124
6.000 3.682 1.385
5.774 4.056 1.572
5.735 4.104 1.682
5.244 4.225 1.734
5.280 4.201 1.924
5.083 4.465 2.142
6.033 4.030 1.165
5.921 4.031 1.403
5.675 4.424 1.339
5.385 4.499 1.464
5.149 4.682 1.822
5.056 4.686 1.788
6.218 4.211 1.072
5.844 4.365 1.025
5.856 4.644 1.327
5.586 4.842 1.356
5.430 4.733 1.578
6.295 4.567 0.836
5.932 4.707 0.917
5.776 4.847 1.265
5.535 4.817 1.229
6.036 4.852 0.791
5.887 4.970 0.943
6.342 0.263 1.988
5.967 0.472 2.117
5.824 0.393 2.402
5.533 0.673 2.554
5.238 0.843 2.661
5.261 1.095 2.927
5.042 0.994 2.892
4.620 1.293 3.167
4.395 1.288 3.316
4.275 1.450 3.393
4.051 1.867 3.510
6.048 0.762 2.026
5.834 0.805 2.369
5.782 0.906 2.224
5.459 0.932 2.485
5.121 1.143 2.640
4.935 1.304 2.876
4.808 1.427 2.832
4.539 1.569 3.219
4.249 1.720 3.417
4.256 1.986 3.492
5.809 1.057 2.148
5.864 1.185 2.312
5.559 1.306 2.396
5.251 1.501 2.685
5.114 1.495 2.843
4.888 1.881 2.981
4.637 1.923 3.063
4.529 2.049 3.093
5.727 1.325 2.137
5.473 1.726 2.163
5.296 1.756 2.385
5.268 2.012 2.546
5.001 1.921 2.606
4.868 2.282 2.699
4.603 2.370 3.003
5.827 1.955 2.051
5.411 2.075 2.371
5.183 2.268 2.378
5.139 2.340 2.563
4.975 2.368 2.833
5.377 2.499 2.348
5.701 1.891 1.773
5.223 2.258 1.827
4.558 3.987 1.974
5.166 3.631 1.435
5.150 3.892 1.643
4.893 4.081 1.956
4.812 4.041 2.088
5.886 3.601 0.972
5.959 3.836 1.124
5.549 3.727 1.231
5.317 4.146 1.512
5.298 4.181 1.508
5.118 4.368 1.584
4.684 4.506 1.712
6.173 3.795 0.720
5.784 4.093 0.916
5.710 4.145 0.969
5.523 4.308 1.295
5.360 4.391 1.489
4.921 4.685 1.471
4.788 4.556 1.726
6.314 3.993 0.633
5.894 4.193 0.877
5.851 4.362 0.922
5.686 4.371 1.101
5.343 4.713 1.092
5.255 4.768 1.416
4.954 4.988 1.470
6.389 4.241 0.373
5.909 4.372 0.561
5.904 4.709 0.759
5.687 4.872 1.043
5.543 4.772 1.186
5.166 5.153 1.110
6.051 4.593 0.437
5.792 5.015 0.803
5.717 4.930 0.855
5.568 5.025 1.031
5.647 0.047 2.052
5.662 0.297 2.423
5.352 0.419 2.491
6.172 0.061 1.581
6.078 0.067 1.918
5.906 0.331 2.064
5.663 0.346 2.183
5.530 0.643 2.213
5.130 0.693 2.484
5.092 0.821 2.676
4.616 1.214 2.834
6.096 0.524 1.684
6.042 0.448 1.709
5.722 0.828 1.958
5.335 0.776 2.167
5.173 1.033 2.393
5.202 1.213 2.575
4.922 1.460 2.626
4.571 1.465 2.657
4.374 1.587 3.005
5.956 0.696 1.745
5.669 1.053 1.888
5.547 1.158 2.155
5.466 1.308 2.231
5.158 1.528 2.348
4.846 1.434 2.417
4.617 1.713 2.508
4.359 1.988 2.658
5.689 1.090 1.745
5.600 1.315 2.003
5.452 1.597 1.936
5.058 1.535 2.171
4.926 1.702 2.394
4.824 1.835 2.468
4.647 2.039 2.615
5.802 1.583 1.789
5.617 1.818 1.856
5.229 1.914 2.083
5.124 2.191 2.040
4.729 2.151 2.464
5.642 2.063 1.693
5.297 2.043 1.851
5.468 1.975 1.272
5.419 2.114 1.490
5.202 2.155 1.670
4.341 3.685 1.877
4.617 3.698 1.576
4.451 3.937 1.968
4.785 3.926 1.543
4.681 4.085 1.694
4.588 4.257 1.633
5.523 3.775 0.991
5.114 4.006 1.273
4.904 3.987 1.414
4.642 4.154 1.311
4.426 4.243 1.540
5.633 4.011 0.684
5.466 4.059 0.709
5.319 4.164 1.121
5.066 4.354 1.285
4.993 4.370 1.429
4.504 4.639 1.512
5.779 4.277 0.687
5.478 4.181 0.584
5.250 4.561 0.907
5.286 4.536 1.085
5.003 4.719 1.180
4.737 4.885 1.417
5.740 4.259 0.316
5.514 4.469 0.703
5.422 4.619 0.774
5.197 4.762 0.955
5.106 4.903 1.013
4.934 5.148 1.176
5.847 4.945 0.381
5.471 4.806 0.442
5.282 5.063 0.711
5.008 5.332 0.778
5.681 5.271 0.552
5.292 5.223 0.455
5.433 -0.054 1.843
5.353 0.107 2.154
5.135 0.308 2.362
5.987 0.168 1.747
5.685 0.331 1.650
5.284 0.530 1.980
5.118 0.503 2.210
4.966 0.693 2.188
4.801 1.006 2.529
6.172 0.095 1.304
5.830 0.519 1.343
5.853 0.656 1.532
5.425 0.607 1.673
5.368 0.958 1.992
4.991 1.016 2.225
4.939 1.143 2.319
4.657 1.246 2.420
5.880 0.595 1.415
5.743 0.651 1.367
5.675 0.800 1.698
5.360 1.024 1.698
5.158 1.068 1.986
4.934 1.335 2.117
4.729 1.478 2.300
4.648 1.732 2.404
5.976 0.921 1.294
5.684 1.313 1.417
5.566 1.322 1.605
5.123 1.536 1.967
4.964 1.635 2.017
4.757 1.794 2.215
4.602 1.940 2.281
5.695 1.303 1.463
5.550 1.641 1.465
5.222 1.639 1.524
4.974 1.786 1.736
4.920 1.871 2.063
5.634 1.742 1.530
5.389 1.935 1.504
5.288 2.065 1.784
5.628 1.750 0.879
5.402 1.749 1.066
5.310 1.794 1.245
4.997 2.178 1.482
5.361 1.999 1.123
5.113 2.203 1.223
4.049 3.437 1.852
4.375 3.664 1.431
4.274 3.937 1.570
4.598 3.745 1.141
4.629 3.799 1.434
4.191 4.181 1.490
4.934 3.918 1.010
4.772 4.062 0.954
4.526 4.247 1.192
4.226 4.382 1.443
5.191 3.957 0.553
5.141 4.082 0.934
4.844 4.222 0.918
4.666 4.554 0.970
4.302 4.697 1.366
5.312 4.322 0.611
5.192 4.371 0.710
4.973 4.481 0.951
4.775 4.651 0.973
4.633 4.907 1.214
5.578 4.408 0.434
5.147 4.611 0.428
5.007 4.876 0.665
4.680 5.055 0.663
4.484 5.037 0.807
5.602 4.846 0.365
5.405 4.947 0.507
4.956 4.968 0.388
4.781 5.167 0.759
4.701 5.469 0.972
5.405 4.997 0.271
5.072 5.394 0.472
4.943 5.319 0.628
5.178 0.065 1.869
5.054 0.385 2.134
5.576 0.186 1.353
5.560 0.255 1.598
5.225 0.227 1.830
5.063 0.554 1.755
4.829 0.599 1.943
5.781 0.028 1.168
5.771 0.245 1.329
5.371 0.586 1.443
5.180 0.665 1.511
5.079 0.834 1.697
4.939 0.838 1.732
4.575 1.088 1.923
5.851 0.598 1.254
5.491 0.827 1.309
5.491 0.838 1.303
5.063 0.967 1.557
4.814 1.030 1.735
4.657 1.158 1.789
4.564 1.410 2.118
5.913 0.750 1.114
5.512 0.934 1.013
5.590 1.253 1.151
5.332 1.182 1.532
4.976 1.354 1.568
4.791 1.514 1.734
4.678 1.809 1.989
5.874 1.353 1.065
5.465 1.519 1.281
5.258 1.614 1.454
4.989 1.716 1.454
4.884 1.797 1.578
4.657 1.804 1.887
5.572 1.612 0.926
5.330 1.726 1.259
5.104 2.056 1.205
5.094 2.183 1.371
5.614 1.328 0.543
5.338 1.564 0.823
5.069 1.701 0.958
4.940 1.929 1.166
4.782 2.095 1.400
5.571 1.759 0.561
5.341 2.074 0.841
4.956 2.072 1.057
4.911 2.163 1.049
5.406 2.173 0.432
5.242 2.279 0.580
3.794 3.490 1.486
4.040 3.768 1.406
4.445 3.937 1.302
4.098 4.099 1.376
4.575 3.873 0.824
4.232 4.212 0.891
4.193 4.215 1.075
4.912 4.001 0.518
4.627 4.267 0.838
4.565 4.348 0.823
4.196 4.454 0.884
5.291 4.244 0.238
4.907 4.277 0.448
4.661 4.345 0.465
4.602 4.749 0.670
4.191 4.618 0.922
5.187 4.346 0.216
5.014 4.656 0.187
4.763 4.761 0.472
4.559 4.999 0.584
4.509 5.157 0.870
4.963 4.721 0.070
4.857 4.983 0.422
4.834 5.156 0.433
4.418 5.137 0.456
5.118 5.025 -0.110
5.079 5.090 0.179
4.802 5.346 0.158
4.483 5.604 0.561
5.071 5.382 0.044
4.815 5.702 0.138
4.491 5.703 0.472
4.875 -0.073 1.792
5.271 0.030 1.428
4.952 0.295 1.357
4.799 0.290 1.636
5.813 0.103 1.025
5.617 0.242 1.113
5.446 0.381 1.143
5.084 0.405 1.238
4.882 0.691 1.386
4.608 0.986 1.605
5.668 0.489 0.768
5.398 0.801 0.982
5.224 0.808 1.313
5.083 0.947 1.521
4.759 1.135 1.455
4.526 1.265 1.708
5.668 0.645 0.789
5.399 0.848 0.867
5.293 1.057 1.073
5.029 1.317 1.171
4.953 1.195 1.370
4.599 1.493 1.426
5.532 1.160 0.853
5.298 1.419 0.943
5.041 1.505 0.951
4.768 1.699 1.188
4.594 1.672 1.536
4.512 1.791 1.545
5.655 1.473 0.639
5.482 1.535 0.781
5.086 1.824 0.904
5.118 1.830 1.131
4.758 1.982 1.344
5.492 1.413 0.502
5.117 1.576 0.460
4.876 1.769 0.624
4.690 1.823 0.988
4.664 1.954 1.049
5.646 1.736 0.273
5.181 1.782 0.546
4.947 1.985 0.504
4.809 2.158 0.685
4.606 2.169 0.741
5.467 1.763 0.233
5.488 1.976 0.308
5.035 2.265 0.592
4.835 2.396 0.484
4.760 2.452 0.629
5.573 2.178 -0.118
5.483 2.402 0.310
5.157 2.445 0.196
4.882 2.420 0.554
5.562 2.437 0.163
3.771 4.075 1.093
4.139 3.902 0.945
4.030 4.228 1.031
4.556 4.190 0.447
4.359 4.359 0.555
3.927 4.467 0.795
4.762 4.198 0.179
4.455 4.293 0.388
4.224 4.410 0.430
3.984 4.737 0.695
4.846 4.567 0.222
4.705 4.537 0.084
4.422 4.719 0.479
4.169 4.810 0.393
4.794 4.846 -0.043
4.630 5.049 0.179
4.385 5.328 0.338
4.489 5.224 0.218
4.399 5.452 0.277
4.299 5.861 -0.049
3.232 0.825 2.733
3.084 0.849 2.691
4.915 0.048 1.124
4.957 0.160 1.145
5.432 0.170 0.740
5.159 0.418 0.882
5.040 0.385 1.163
4.823 0.549 1.349
5.321 0.684 0.887
4.888 0.856 1.029
4.780 0.769 1.025
4.459 1.085 1.179
5.176 0.955 0.667
4.991 0.995 0.797
4.701 1.082 0.884
4.721 1.310 1.127
4.351 1.447 1.305
5.314 1.143 0.537
5.028 1.174 0.786
4.954 1.520 0.734
4.601 1.395 0.919
4.343 1.638 1.201
5.375 1.430 0.487
5.056 1.398 0.442
5.000 1.501 0.759
4.656 1.789 0.849
4.687 1.895 1.075
5.093 1.252 0.242
5.161 1.320 0.406
4.876 1.732 0.493
4.643 1.766 0.557
4.455 1.832 0.945
5.441 1.405 0.155
5.094 1.557 0.203
5.002 1.720 0.484
4.817 2.011 0.495
4.299 2.138 0.711
5.283 2.003 0.144
4.864 2.055 0.343
4.824 2.105 0.474
4.561 2.405 0.648
5.036 2.233 0.234
4.851 2.394 0.280
4.643 2.603 0.336
4.918 2.698 0.191
4.286 4.390 0.126
4.136 4.566 0.184
3.982 4.717 0.498
4.549 4.620 0.154
4.135 4.685 0.161
4.040 5.042 0.358
4.193 5.017 -0.037
3.969 5.207 0.048
4.015 5.321 0.134
3.563 0.263 2.088
3.335 0.535 2.138
3.006 0.788 2.441
2.696 0.918 2.468
3.294 0.910 2.076
3.193 0.825 2.283
2.733 1.170 2.325
3.018 1.260 2.160
2.780 1.273 2.240
2.918 1.476 2.271
4.934 1.069 0.586
4.561 1.159 0.856
4.392 1.130 0.989
5.291 1.073 0.313
4.829 1.133 0.513
4.834 1.339 0.808
4.609 1.329 0.700
4.149 1.742 1.089
5.214 1.403 0.262
5.045 1.413 0.326
4.711 1.434 0.452
4.657 1.870 0.717
4.276 1.930 0.928
4.949 1.438 0.220
4.476 1.535 0.294
4.459 1.703 0.573
4.061 1.670 0.594
4.977 1.686 -0.099
4.817 1.862 0.009
4.426 1.825 0.168
4.301 1.990 0.530
4.105 2.143 0.582
4.795 1.963 0.022
4.676 2.135 0.226
4.422 2.354 0.383
4.188 2.509 0.575
4.585 2.276 -0.112
4.485 2.642 0.266
4.477 2.925 0.165
3.302 0.267 1.800
3.233 0.220 1.923
3.108 0.414 1.890
2.661 0.708 2.072
2.460 0.777 2.286
3.233 0.582 1.811
3.141 0.729 1.977
2.911 0.994 2.155
2.643 1.008 2.163
3.082 0.905 1.802
2.989 1.247 1.975
2.600 1.231 1.988
2.904 1.436 1.946
2.753 1.943 1.757
4.891 1.094 0.135
4.385 1.416 0.440
4.368 1.554 0.520
4.065 1.593 0.766
4.697 1.505 0.059
4.478 1.633 0.174
4.353 1.659 0.348
4.230 1.825 0.699
4.400 1.554 0.048
4.179 1.499 0.196
3.850 1.910 0.504
4.199 1.773 -0.024
4.064 2.050 0.205
3.832 2.022 0.496
4.086 2.302 0.158
3.955 2.332 0.324
4.024 2.538 0.007
3.196 0.159 1.436
3.071 0.231 1.685
2.930 0.530 1.810
2.451 0.585 1.889
2.352 0.607 2.220
3.201 0.319 1.512
3.229 0.450 1.552
2.897 0.732 1.744
2.556 0.762 1.872
2.543 1.118 1.946
2.966 0.947 1.509
2.807 0.984 1.573
2.391 1.144 1.727
2.963 1.230 1.430
2.543 1.503 1.698
2.796 1.781 1.684
4.509 1.310 0.176
4.109 1.561 0.077
3.920 1.634 0.491
4.133 1.656 0.121
3.705 1.686 0.040
3.895 2.005 -0.076
3.745 1.995 0.188
3.333 2.242 0.321
3.592 2.392 0.054
3.627 2.610 0.285
3.592 2.847 -0.046
3.114 -0.063 1.320
2.717 0.274 1.364
2.667 0.403 1.706
2.517 0.394 1.708
2.308 0.543 1.933
3.233 0.297 0.875
3.118 0.227 1.210
2.928 0.376 1.270
2.742 0.536 1.591
2.559 0.797 1.655
2.117 1.037 1.822
2.986 0.646 1.023
2.714 0.867 1.457
2.483 0.880 1.326
2.277 1.140 1.744
2.550 1.398 1.443
2.397 1.324 1.569
3.931 1.646 0.132
3.768 1.731 0.134
3.504 1.823 0.027
3.167 2.236 0.221
3.235 2.588 0.061
2.951 2.989 0.214
2.843 0.102 0.953
2.590 0.294 1.245
2.484 0.236 1.303
2.294 0.304 1.530
2.104 0.705 1.609
3.009 -0.014 0.904
2.819 0.391 0.943
2.719 0.562 1.086
2.368 0.592 1.312
2.355 0.588 1.302
2.185 0.844 1.415
2.557 0.746 1.067
2.235 0.886 1.118
2.290 1.259 1.285
3.259 1.868 -0.050
3.099 1.801 -0.072
2.842 2.413 0.010
2.624 2.589 0.096
2.615 3.012 0.209
2.404 0.003 0.970
2.324 0.202 1.220
1.965 0.458 1.366
3.069 0.080 0.605
2.615 0.214 0.872
2.620 0.377 0.765
2.154 0.480 0.878
3.392 0.094 -0.016
3.295 0.065 0.297
2.851 1.735 -0.104
2.299 0.179 0.807
2.491 0.133 0.521
2.999 0.045 -0.037
0.926 0.849 0.154
0.469 0.049 0.182
0.760 0.307 0.092
5.759 2.520 2.690
5.625 2.567 2.870
5.464 2.768 2.867
5.080 3.025 3.209
6.055 3.958 1.873
6.347 4.420 1.682
6.235 4.580 1.758
6.175 5.019 1.455
4.474 1.375 4.322
4.702 1.444 3.895
4.781 1.304 4.139
4.334 1.458 4.162
5.249 1.337 3.549
4.986 1.414 3.610
4.620 1.691 3.738
4.551 1.721 4.062
5.612 1.391 3.244
5.525 1.639 3.192
5.252 1.677 3.503
5.125 1.824 3.620
4.864 1.949 3.625
4.465 2.243 3.730
5.585 1.580 2.851
5.542 1.671 3.200
5.446 1.806 3.416
4.949 2.082 3.574
4.904 2.317 3.453
4.726 2.429 3.870
5.711 1.758 2.881
5.725 1.875 3.052
5.357 2.163 3.195
5.296 2.353 3.186
4.858 2.309 3.293
4.795 2.588 3.459
5.962 1.977 2.740
5.633 2.181 2.976
5.348 2.345 3.060
5.310 2.548 2.996
5.068 2.823 3.391
4.901 2.960 3.537
5.809 2.626 2.745
5.395 2.580 2.755
5.374 2.885 2.876
5.155 2.944 3.135
5.514 2.433 2.546
5.457 2.713 2.563
6.326 3.907 1.427
5.866 4.035 1.619
5.663 3.981 1.726
6.172 4.161 1.463
5.968 4.448 1.577
5.671 4.523 1.935
6.156 4.623 1.473
5.924 4.742 1.518
5.843 4.635 1.541
6.274 4.851 1.191
6.122 4.894 1.356
4.409 1.290 3.864
4.383 1.510 3.965
5.082 1.336 3.312
5.089 1.270 3.310
4.836 1.362 3.610
4.496 1.608 3.488
4.394 1.631 3.720
5.723 1.235 2.859
5.597 1.354 2.761
5.303 1.462 3.059
5.030 1.547 3.203
4.948 1.886 3.297
4.703 1.925 3.557
4.416 1.988 3.738
5.715 1.506 2.515
5.481 1.445 2.645
5.265 1.824 2.850
5.198 1.690 3.165
4.752 1.922 3.131
4.639 2.188 3.217
4.333 2.330 3.432
5.793 1.540 2.483
5.467 1.785 2.599
5.300 1.874 2.795
5.262 2.176 2.815
4.883 2.238 3.199
4.626 2.460 3.152
4.433 2.641 3.339
5.696 1.990 2.327
5.405 2.337 2.579
5.368 2.450 2.866
4.931 2.457 2.852
4.844 2.522 2.937
5.677 2.320 2.436
5.203 2.709 2.573
5.303 2.441 2.260
6.351 3.550 1.135
6.047 3.880 1.387
5.816 3.885 1.309
5.498 4.161 1.648
5.296 4.144 1.810
5.046 4.423 2.020
5.094 4.605 2.065
5.990 4.011 1.049
5.842 4.116 1.188
5.629 4.438 1.475
5.352 4.417 1.650
5.294 4.692 1.766
5.032 4.886 1.931
6.043 4.398 0.865
6.032 4.551 1.267
5.876 4.462 1.196
5.434 4.831 1.548
5.320 4.874 1.492
6.192 4.602 0.907
6.148 4.646 0.936
5.741 4.862 1.052
5.699 4.984 1.282
6.110 4.791 0.729
5.914 5.042 1.037
6.150 0.367 2.218
6.077 0.353 2.144
5.757 0.410 2.297
5.722 0.759 2.587
5.391 0.903 2.589
5.265 0.923 2.710
5.022 1.095 2.878
4.606 1.256 3.202
4.444 1.395 3.403
4.424 1.420 3.284
3.979 1.588 3.542
6.034 0.535 2.059
5.835 0.775 2.106
5.652 0.896 2.443
5.334 0.955 2.634
5.199 1.099 2.831
5.117 1.453 2.793
4.897 1.579 2.834
4.567 1.700 3.205
4.511 1.754 3.294
4.191 1.984 3.326
5.875 0.904 2.005
5.667 1.169 2.383
5.529 1.314 2.371
5.445 1.333 2.531
4.974 1.690 2.606
5.008 1.923 2.705
4.703 1.802 3.090
4.595 2.007 3.191
5.798 1.446 2.236
5.708 1.471 2.173
5.439 1.818 2.485
5.327 1.733 2.399
4.866 2.066 2.581
4.848 2.321 2.858
4.529 2.269 3.034
5.690 1.787 2.083
5.404 1.884 2.254
5.361 2.085 2.353
4.906 2.381 2.481
4.690 2.318 2.810
5.478 2.264 2.124
3.304 3.982 3.906
0.922 5.378 5.305
3.613 3.765 3.474
3.435 4.082 3.398
3.281 4.128 3.504
3.149 4.163 3.782
3.009 4.437 4.072
3.939 3.798 2.922
3.694 3.995 3.078
3.547 4.210 3.471
3.432 4.398 3.557
3.065 4.445 3.516
2.948 4.539 3.705
2.849 4.677 3.829
4.020 4.073 2.844
3.923 4.216 3.154
3.805 4.604 3.105
3.560 4.716 3.482
3.203 4.789 3.429
3.014 4.915 3.530
2.669 5.152 3.847
2.496 5.166 3.981
4.249 4.391 2.537
4.197 4.584 2.901
4.017 4.670 2.893
3.612 4.785 3.199
3.667 4.844 3.163
3.303 4.980 3.440
3.171 5.078 3.424
2.977 5.467 3.603
2.668 5.575 3.808
2.367 5.560 3.960
4.773 4.316 2.451
4.450 4.398 2.380
4.130 4.718 2.567
4.012 4.769 2.693
3.744 5.125 3.076
3.690 5.222 3.220
3.386 5.225 3.379
3.050 5.405 3.402
3.118 5.723 3.532
2.766 5.845 3.771
2.640 5.953 3.953
2.482 5.881 4.013
4.725 4.456 2.338
2.392 6.371 3.735
3.456 1.486 4.059
3.275 1.783 4.212
3.095 1.869 4.458
2.903 2.034 4.716
2.818 2.236 4.729
2.473 2.101 4.941
2.161 2.475 4.935
2.063 2.477 5.315
1.918 2.762 5.408
3.475 1.766 3.913
3.549 1.829 4.180
3.239 1.995 4.437
2.843 2.225 4.557
2.633 2.334 4.573
2.637 2.448 4.740
2.311 2.712 5.044
2.172 2.862 5.210
1.847 2.898 5.193
1.826 2.981 5.309
4.012 1.803 3.783
1.792 3.331 5.296
1.514 3.608 5.364
1.376 3.559 5.579
1.102 3.643 5.777
0.902 4.084 5.977
0.645 4.204 5.980
0.648 4.202 6.149
3.806 1.740 3.843
1.579 3.692 5.386
1.567 3.947 5.349
1.362 4.085 5.468
0.865 4.115 5.806
0.649 4.461 5.891
0.695 4.494 5.873
0.296 4.710 6.049
1.367 4.228 5.185
1.379 4.242 5.382
0.948 4.508 5.452
0.876 4.481 5.579
0.558 4.663 5.967
0.307 4.844 6.098
0.095 5.092 6.014
1.359 4.673 5.281
1.230 4.736 5.295
0.905 4.861 5.600
0.878 5.059 5.673
0.629 5.150 5.807
0.252 5.349 6.124
0.007 5.306 6.307
1.346 4.964 5.381
1.135 5.046 5.334
0.837 5.285 5.714
0.685 5.457 5.611
0.422 5.609 5.810
3.278 3.821 3.885
1.023 5.626 5.339
3.245 3.779 3.545
3.083 3.877 3.539
1.255 5.110 4.947
0.904 5.332 5.127
3.778 3.758 3.054
3.522 3.801 3.226
3.308 3.933 3.197
3.222 4.080 3.369
2.918 4.138 3.518
3.952 3.807 2.760
3.754 3.996 2.703
3.514 3.966 2.886
3.438 4.107 3.266
3.068 4.220 3.335
2.846 4.366 3.340
2.800 4.456 3.553
4.296 3.890 2.467
4.184 4.042 2.460
4.033 4.166 2.668
3.599 4.251 2.875
3.552 4.344 3.109
3.361 4.471 3.007
3.165 4.614 3.332
2.910 4.908 3.405
4.447 3.729 2.305
4.501 4.062 2.309
4.116 4.308 2.515
4.049 4.504 2.556
3.671 4.609 2.597
3.532 4.681 2.813
3.243 4.916 2.964
2.977 5.120 3.054
2.857 5.126 3.287
4.498 4.180 2.207
4.365 4.329 2.129
4.220 4.544 2.396
4.135 4.549 2.525
3.859 4.786 2.662
3.720 5.061 2.808
3.401 5.191 2.845
4.373 4.189 2.255
4.529 4.584 1.895
4.484 4.879 2.097
3.998 5.022 2.387
4.439 4.663 1.993
4.509 4.806 1.870
4.716 4.959 1.810
2.817 1.886 4.169
2.602 1.986 4.412
2.455 2.087 4.401
2.299 2.269 4.577
2.000 2.413 4.844
1.843 2.561 4.923
1.589 2.484 5.270
1.365 2.753 5.397
1.293 2.987 5.564
2.838 2.213 4.301
2.461 2.256 4.334
2.364 2.320 4.409
2.271 2.470 4.816
1.871 2.762 4.779
1.643 2.866 4.913
1.614 3.148 5.111
1.251 3.087 5.371
1.122 3.216 5.314
0.744 3.332 5.641
2.254 2.885 4.426
2.119 3.005 4.764
1.780 3.204 4.709
1.712 3.339 5.040
1.229 3.286 5.084
1.253 3.687 5.387
1.019 3.815 5.385
0.732 3.808 5.758
0.486 4.171 5.753
0.361 4.136 5.833
1.858 3.283 4.697
1.521 3.613 4.885
1.496 3.808 4.989
1.297 3.931 5.072
0.905 4.013 5.390
0.845 4.211 5.589
0.475 4.267 5.624
0.471 4.324 5.835
0.315 4.430 5.821
1.432 3.824 5.024
1.371 3.979 4.938
1.186 4.311 5.249
0.959 4.465 5.457
0.791 4.405 5.604
0.454 4.535 5.531
0.136 4.837 5.784
-0.052 5.056 5.999
1.241 4.217 4.836
1.232 4.422 5.067
1.003 4.622 5.087
0.775 4.702 5.380
0.431 5.020 5.512
0.338 5.083 5.578
0.108 5.291 5.727
1.153 4.687 5.011
1.073 4.953 5.045
0.863 5.177 5.264
0.553 5.136 5.303
0.533 5.311 5.403
3.309 3.669 3.370
2.915 3.831 3.437
1.056 4.992 4.812
0.833 5.427 5.063
3.607 3.240 2.985
3.122 3.537 2.927
3.010 3.541 3.254
2.963 3.680 3.220
1.153 5.077 4.651
0.767 5.021 4.762
0.584 5.325 4.859
3.778 3.290 2.529
3.514 3.564 2.671
3.302 3.604 2.895
3.063 3.994 3.016
2.966 3.985 3.196
2.805 4.184 3.329
3.983 3.649 2.231
3.728 3.552 2.373
3.650 3.837 2.462
3.401 3.927 2.908
3.184 4.142 2.782
3.112 4.218 3.104
2.773 4.331 3.184
4.053 3.363 2.295
4.232 3.877 2.138
3.830 4.060 2.439
3.634 4.038 2.537
3.554 4.058 2.491
3.381 4.378 2.826
2.987 4.460 3.038
2.798 4.599 2.923
4.265 3.799 2.024
4.309 4.169 2.130
3.916 4.081 2.085
3.768 4.266 2.404
3.586 4.412 2.520
3.428 4.533 2.582
3.266 4.719 2.795
2.967 5.020 2.928
4.146 4.069 2.027
4.128 4.281 2.000
4.123 4.276 2.066
3.795 4.547 2.320
3.762 4.844 2.186
3.510 4.962 2.582
4.257 4.382 1.950
4.202 4.507 1.642
4.224 4.557 1.890
4.003 4.921 1.950
3.667 5.051 2.195
4.227 4.381 1.674
4.576 4.809 1.648
4.308 5.008 1.864
4.549 4.779 1.465
4.494 5.138 1.343
4.516 4.992 1.405
2.218 1.955 4.183
2.061 2.200 4.538
1.941 2.367 4.565
1.791 2.401 4.691
1.582 2.652 5.030
1.289 2.590 5.224
0.897 2.872 5.086
0.852 3.066 5.325
2.286 2.254 4.221
2.275 2.357 4.464
2.062 2.447 4.451
1.580 2.608 4.787
1.444 2.814 4.837
1.389 2.955 4.882
1.057 3.089 5.171
0.938 3.392 5.233
0.794 3.312 5.277
2.079 2.797 4.479
1.742 2.831 4.386
1.688 2.935 4.496
1.331 3.223 4.756
1.056 3.305 4.903
0.899 3.410 5.121
0.635 3.683 5.235
0.457 3.960 5.338
0.233 3.907 5.613
1.675 3.440 4.588
1.352 3.385 4.798
1.386 3.738 4.877
1.129 3.873 4.945
0.792 3.968 5.097
0.467 3.924 5.112
0.472 4.125 5.498
0.103 4.431 5.440
1.523 3.813 4.545
1.198 3.751 4.672
1.184 3.989 4.818
1.027 4.261 4.882
0.637 4.233 5.047
0.400 4.595 5.390
0.147 4.672 5.406
0.158 4.707 5.598
1.342 4.241 4.448
1.153 4.269 4.733
0.982 4.445 4.742
0.670 4.473 5.108
0.413 4.577 5.228
0.364 4.914 5.403
0.173 5.078 5.528
1.332 4.538 4.533
1.013 4.778 4.687
0.773 4.787 4.737
0.489 5.074 5.055
0.341 5.030 4.999
3.379 3.346 3.002
3.265 3.324 3.184
3.013 3.591 3.221
2.685 3.711 3.473
1.085 4.777 4.651
1.055 4.940 4.608
0.586 5.079 4.694
3.394 3.227 2.522
3.157 3.381 2.791
3.103 3.405 2.763
2.731 3.648 2.995
2.769 3.691 3.245
1.047 4.592 4.242
1.037 4.894 4.222
0.713 5.092 4.534
0.561 5.221 4.753
3.608 3.295 2.491
3.405 3.442 2.406
2.986 3.660 2.819
3.003 3.855 2.815
2.845 4.073 2.861
1.130 5.003 4.049
0.739 5.255 4.274
3.990 3.409 1.995
3.727 3.724 2.116
3.451 3.886 2.378
3.361 3.800 2.625
2.928 4.139 2.613
2.837 4.326 2.873
2.703 4.225 2.845
3.943 3.437 2.195
3.932 3.746 1.946
3.649 3.825 2.083
3.453 4.047 2.150
3.136 4.219 2.289
2.990 4.256 2.502
2.811 4.547 2.581
3.940 3.718 1.818
3.855 3.980 1.764
3.752 4.169 1.916
3.592 4.384 2.063
3.342 4.547 2.370
3.018 4.687 2.543
2.833 4.760 2.528
4.004 4.019 1.667
4.140 4.315 1.799
3.758 4.328 1.911
3.772 4.503 1.850
3.400 4.758 2.133
3.122 4.799 2.276
4.050 4.098 1.632
4.105 4.446 1.382
3.940 4.648 1.619
3.850 4.759 1.817
4.098 4.598 1.591
4.351 4.582 1.358
4.132 4.764 1.491
4.109 4.586 1.432
4.222 4.953 1.097
4.380 4.984 1.317
4.393 5.339 0.975
4.508 5.258 1.137
2.079 2.049 3.992
1.985 1.999 4.110
1.544 2.110 4.504
1.526 2.429 4.486
1.120 2.585 4.798
0.916 2.603 4.981
0.740 2.928 4.879
0.760 2.995 5.131
2.064 2.366 4.093
1.640 2.356 4.118
1.493 2.515 4.448
1.370 2.794 4.455
1.223 2.758 4.867
0.948 3.110 4.807
0.774 3.152 4.978
0.334 3.443 5.126
1.646 2.971 4.299
1.471 3.106 4.388
1.221 3.091 4.475
0.859 3.350 4.690
0.681 3.533 4.990
0.584 3.560 5.101
0.371 3.696 5.067
1.334 3.159 4.201
1.232 3.446 4.440
1.027 3.414 4.526
0.849 3.816 4.829
0.671 3.760 5.005
0.300 4.101 4.963
0.111 4.190 5.062
1.417 3.571 4.152
1.001 3.709 4.416
1.056 3.896 4.446
0.782 4.151 4.724
0.505 4.378 4.959
0.297 4.450 5.039
0.094 4.656 5.200
1.363 4.043 4.174
1.070 4.103 4.224
1.078 4.345 4.307
0.862 4.465 4.660
0.582 4.524 4.703
0.402 4.507 4.988
0.142 4.737 5.188
3.162 2.949 2.876
2.958 3.106 3.087
2.768 3.374 3.056
1.233 4.293 4.236
0.939 4.407 4.319
1.000 4.633 4.464
0.505 4.893 4.503
0.418 4.947 4.723
0.199 5.209 4.845
3.371 3.131 2.444
3.412 3.244 2.554
3.108 3.363 2.964
2.694 3.574 3.047
2.492 3.698 3.239
0.992 4.772 4.133
0.893 4.880 4.226
0.714 4.863 4.496
0.528 5.218 4.698
3.283 2.955 2.223
3.111 3.214 2.572
2.750 3.235 2.480
2.649 3.611 2.647
2.351 3.542 2.860
1.152 4.572 3.691
0.827 4.598 3.927
0.806 4.681 4.088
0.572 5.097 4.318
0.427 5.085 4.380
3.661 3.036 1.862
3.211 3.147 2.174
3.152 3.582 2.213
2.858 3.617 2.544
2.653 3.870 2.604
2.453 3.904 2.679
1.050 4.836 3.828
0.846 5.126 3.996
0.660 5.296 4.204
0.311 5.380 4.211
3.721 3.066 1.943
3.612 3.478 1.819
3.422 3.402 2.106
3.288 3.534 2.140
2.962 3.778 2.417
2.686 4.036 2.460
2.604 4.163 2.659
1.060 5.055 3.603
0.881 5.337 3.840
3.676 3.538 1.734
3.579 3.656 1.657
3.637 3.688 1.798
3.263 3.910 2.160
2.947 4.219 2.170
2.970 4.223 2.230
2.560 4.249 2.347
3.674 3.588 1.799
3.766 3.783 1.622
3.572 3.907 1.749
3.224 4.199 1.843
3.230 4.212 2.158
2.871 4.555 2.055
3.775 3.868 1.513
3.772 4.012 1.492
3.573 4.231 1.505
3.583 4.357 1.729
3.090 4.711 1.827
3.796 4.304 1.535
3.817 4.368 1.287
3.697 4.470 1.359
3.486 4.732 1.659
4.062 4.543 1.248
4.077 4.788 1.285
3.702 4.897 1.270
4.148 4.570 1.111
4.105 4.986 0.952
4.099 4.986 1.160
4.203 5.158 0.804
2.664 6.188 1.970
4.178 5.308 0.788
4.380 5.362 0.649
4.269 5.549 0.729
1.683 2.074 3.988
1.614 2.049 4.124
1.299 2.267 4.261
1.180 2.571 4.492
0.824 2.440 4.787
0.640 2.590 4.891
1.411 2.491 4.011
1.445 2.476 4.299
1.099 2.592 4.298
0.924 2.712 4.619
0.666 2.906 4.762
0.542 3.158 4.693
1.353 2.897 4.163
1.253 2.830 4.069
0.894 3.047 4.498
0.746 3.096 4.476
0.681 3.276 4.543
0.228 3.692 4.895
1.248 3.147 4.120
1.039 3.390 4.270
0.826 3.471 4.394
0.680 3.494 4.665
0.551 3.840 4.820
0.319 3.814 4.721
1.014 3.631 4.199
0.968 3.675 4.208
0.818 3.986 4.482
0.405 3.995 4.543
0.160 4.196 4.569
0.128 4.375 4.734
2.866 2.823 2.776
2.607 2.677 2.832
1.322 3.733 3.965
0.956 4.017 4.026
0.939 4.051 4.267
0.607 4.359 4.458
0.288 4.455 4.639
0.222 4.533 4.577
3.348 2.688 2.433
2.935 3.009 2.601
2.697 3.030 2.847
2.469 3.334 2.864
1.186 4.357 3.858
0.875 4.386 4.016
0.803 4.683 4.196
0.379 4.570 4.262
0.136 4.813 4.485
0.163 4.961 4.722
3.182 2.923 2.264
3.143 3.210 2.324
2.783 3.321 2.680
2.603 3.609 2.857
2.405 3.541 2.886
1.054 4.593 3.680
0.869 4.799 4.037
0.596 4.655 4.079
0.615 4.945 4.198
0.456 4.970 4.339
3.402 2.948 2.058
3.089 3.070 2.170
2.986 3.115 2.185
2.578 3.174 2.486
2.387 3.306 2.675
2.339 3.615 2.775
0.933 4.363 3.687
0.693 4.673 3.627
0.389 4.789 3.972
0.210 4.871 3.945
0.089 5.021 4.262
3.211 2.768 2.083
3.286 3.185 1.789
3.037 3.103 1.836
2.832 3.487 2.102
2.638 3.523 2.204
2.489 3.769 2.505
2.187 3.773 2.483
0.991 4.812 3.581
0.797 4.833 3.563
0.591 4.893 3.610
0.505 5.291 3.967
0.329 5.253 4.179
3.258 3.118 1.644
3.479 3.377 1.618
3.164 3.579 1.660
2.952 3.498 2.110
2.691 3.827 2.096
2.630 3.936 2.212
1.037 5.035 3.460
0.882 5.184 3.445
0.742 5.366 3.494
0.477 5.456 3.749
0.378 5.398 3.954
3.553 3.239 1.711
3.680 3.697 1.525
3.175 3.866 1.770
3.115 3.943 1.681
3.027 3.948 2.119
2.563 4.229 2.145
1.105 5.073 3.273
1.122 5.332 3.388
0.891 5.489 3.541
0.651 5.667 3.581
3.385 3.499 1.590
3.606 3.952 1.435
3.374 4.031 1.665
3.321 4.048 1.760
2.954 4.281 1.895
1.050 5.523 3.271
3.476 3.743 1.439
3.539 4.016 1.288
3.360 4.183 1.383
3.669 4.050 1.243
3.809 4.363 0.957
3.681 4.345 1.248
3.779 4.616 0.975
2.021 5.714 2.243
1.901 6.070 2.287
1.575 6.078 2.323
3.704 4.717 0.888
3.990 4.812 0.924
2.425 5.853 1.803
2.238 6.150 2.123
2.141 6.177 2.269
3.808 4.900 0.780
3.835 5.023 0.582
2.609 6.103 1.711
2.543 6.266 1.774
3.964 5.038 0.674
4.138 5.294 0.520
2.846 6.223 1.446
4.120 5.439 0.502
4.135 5.660 0.405
4.125 5.622 0.292
1.215 2.168 3.831
1.064 2.319 4.107
0.746 2.229 4.253
0.685 2.464 4.568
1.073 2.549 3.983
0.565 2.857 4.387
0.496 2.939 4.292
0.830 2.963 4.129
0.466 3.085 4.387
0.290 3.392 4.547
2.919 2.054 2.565
0.878 3.223 4.153
0.723 3.328 4.080
0.501 3.536 4.454
0.282 3.757 4.499
2.896 2.098 2.402
2.553 2.491 2.772
2.569 2.601 2.724
0.609 3.750 3.932
0.388 3.927 4.256
0.250 3.907 4.323
0.090 4.005 4.598
2.828 2.548 2.462
2.843 2.583 2.413
2.631 2.732 2.528
2.325 2.836 2.762
0.835 3.860 3.955
0.535 4.042 4.010
0.298 4.085 4.269
0.218 4.360 4.454
3.134 2.658 2.213
2.928 2.785 2.275
2.656 2.982 2.538
2.223 3.070 2.752
2.033 3.210 2.937
0.840 4.327 3.778
0.701 4.329 4.023
0.404 4.559 4.125
0.323 4.569 4.325
0.176 4.797 4.346
3.180 2.887 2.040
3.158 3.064 2.136
2.927 3.132 2.293
2.635 3.408 2.429
2.491 3.495 2.437
2.329 3.490 2.579
0.843 4.461 3.451
0.647 4.675 3.731
0.674 4.796 3.884
0.240 4.863 4.064
0.158 5.013 4.346
3.224 2.874 1.864
2.777 3.025 1.945
2.679 3.012 2.016
2.335 3.093 2.281
2.365 3.465 2.466
1.935 3.438 2.447
0.910 4.388 3.428
0.450 4.384 3.390
0.237 4.831 3.813
0.096 4.726 3.961
3.007 3.104 1.607
2.696 3.375 1.737
2.574 3.496 2.027
2.329 3.510 2.182
0.907 4.693 3.286
0.771 4.726 3.526
0.299 5.071 3.520
0.239 5.010 3.556
3.021 3.333 1.562
2.845 3.693 1.742
2.490 3.714 1.957
2.404 3.869 2.116
1.003 5.022 3.169
0.703 5.035 3.143
0.601 5.229 3.463
0.321 5.226 3.454
0.165 5.363 3.627
2.859 3.751 1.583
1.304 5.108 2.679
0.878 5.173 2.995
0.901 5.320 3.174
0.652 5.596 3.289
0.367 5.515 3.420
0.173 5.785 3.516
1.144 5.111 2.780
1.140 5.505 2.831
0.871 5.479 2.929
0.730 5.753 3.082
0.300 5.951 3.267
1.607 5.237 2.267
1.415 5.462 2.646
1.116 5.740 2.773
1.022 5.854 2.949
0.805 5.810 2.933
1.890 5.452 1.969
1.593 5.580 2.304
1.301 5.869 2.291
1.360 5.776 2.525
1.133 5.934 2.668
2.022 5.647 1.831
1.852 5.668 1.845
1.729 5.921 2.166
1.602 6.087 2.152
1.339 6.133 2.424
2.460 5.754 1.643
2.195 5.903 1.706
2.149 5.910 1.885
1.875 6.174 2.071
1.677 6.261 2.162
2.473 5.918 1.378
2.391 5.938 1.494
2.009 6.153 1.810
2.506 6.280 1.185
3.964 5.515 0.330
4.040 5.577 0.149
4.127 5.781 -0.026
4.161 5.941 -0.001
2.668 0.994 2.765
2.223 1.023 2.721
2.457 0.997 2.838
2.504 1.316 2.604
2.291 1.371 2.844
2.526 1.271 2.431
2.793 1.538 2.421
2.513 1.612 2.540
2.188 1.869 2.839
2.839 1.591 2.419
2.735 1.636 2.415
2.724 2.004 2.470
2.313 1.999 2.548
2.300 2.127 2.616
2.901 1.882 2.329
2.920 2.120 2.151
2.672 2.165 2.318
2.321 2.424 2.546
2.327 2.508 2.575
1.912 2.595 2.882
2.759 2.026 2.197
2.945 2.262 2.019
2.775 2.318 2.194
2.505 2.424 2.395
2.213 2.809 2.564
2.147 2.901 2.565
1.836 2.936 2.751
0.335 3.972 3.873
0.139 4.310 3.860
2.881 2.250 1.995
2.938 2.436 1.809
2.667 2.563 2.048
2.591 2.959 2.143
2.327 2.961 2.191
2.034 3.151 2.478
1.844 3.153 2.753
0.559 4.100 3.610
0.524 4.212 3.698
0.173 4.568 3.674
0.073 4.458 3.878
3.113 2.654 1.796
2.905 2.942 1.750
2.578 3.028 2.079
2.581 3.325 2.229
2.307 3.504 2.286
2.144 3.477 2.357
0.737 4.245 3.460
0.582 4.629 3.637
0.213 4.547 3.627
0.119 4.687 3.817
2.782 2.890 1.784
2.423 3.031 1.791
2.122 3.173 1.999
2.028 3.408 2.233
1.915 3.550 2.373
0.692 4.391 3.209
0.373 4.596 3.420
0.050 4.680 3.441
2.419 3.237 1.729
2.436 3.246 1.776
2.002 3.657 1.882
0.800 4.612 2.912
0.581 4.822 3.140
0.126 4.993 3.195
0.150 5.028 3.539
0.816 4.821 2.816
0.828 4.953 3.025
0.615 5.051 2.883
0.446 5.216 3.218
0.151 5.353 3.428
0.879 4.954 2.726
0.882 4.952 2.884
0.676 5.131 2.782
0.305 5.393 3.015
0.023 5.405 3.294
1.284 5.087 2.215
0.939 5.328 2.448
0.981 5.201 2.594
0.774 5.569 2.851
0.488 5.716 2.890
0.345 5.744 3.186
0.088 5.963 3.139
1.546 5.003 2.063
1.526 5.363 2.108
1.272 5.560 2.375
0.817 5.449 2.584
0.771 5.868 2.724
0.554 5.771 2.876
0.398 6.012 3.010
1.881 5.111 1.736
1.791 5.414 2.017
1.477 5.465 2.080
1.305 5.845 2.282
0.938 5.840 2.340
0.936 5.871 2.323
2.311 5.504 1.394
1.824 5.498 1.664
1.798 5.731 1.732
1.562 5.773 1.997
1.261 5.967 2.029
1.156 6.244 2.290
0.936 6.092 2.392
2.378 5.582 1.023
2.390 5.479 1.264
2.048 5.660 1.406
1.783 5.777 1.508
1.541 6.005 1.759
1.413 6.204 1.987
2.642 5.751 0.997
2.354 5.951 1.115
2.004 5.910 1.381
1.989 6.115 1.370
2.598 6.029 0.784
2.542 6.035 0.919
2.080 6.272 1.096
2.374 1.052 2.436
2.220 1.145 2.774
2.316 0.870 2.475
2.444 1.286 2.200
2.349 1.292 2.567
2.127 1.331 2.774
2.340 1.288 2.272
2.666 1.453 2.291
2.213 1.646 2.200
1.970 1.715 2.644
1.794 1.870 2.545
2.635 1.513 2.053
2.609 1.714 1.951
2.489 1.762 2.161
2.259 1.852 2.470
2.042 1.997 2.481
1.813 2.252 2.512
2.463 1.780 2.146
2.581 2.051 1.799
2.492 2.149 2.200
2.285 2.288 2.304
2.059 2.492 2.255
1.974 2.516 2.452
1.637 2.815 2.813
2.623 2.021 1.830
2.863 2.223 1.905
2.482 2.324 2.004
2.252 2.374 2.085
2.128 2.597 2.376
1.820 2.680 2.246
1.582 3.011 2.629
2.673 2.126 1.898
2.904 2.574 1.784
2.542 2.508 1.663
2.367 2.820 2.025
2.288 2.880 2.204
1.987 2.982 2.192
1.836 3.093 2.263
0.418 4.260 3.437
0.022 4.376 3.658
2.759 2.377 1.517
2.593 2.983 1.712
2.588 2.991 1.699
2.413 3.073 1.953
1.988 3.256 2.040
1.885 3.300 2.333
0.700 4.431 3.102
0.213 4.585 3.374
0.064 4.740 3.438
2.355 2.881 1.517
1.995 2.984 1.749
1.979 3.302 1.973
1.606 3.320 1.992
0.236 4.437 3.194
0.381 4.550 2.728
0.237 4.702 2.956
0.083 4.826 3.017
0.509 4.849 2.806
0.225 5.005 2.858
0.188 5.131 2.860
0.893 4.900 2.349
0.687 5.154 2.398
0.451 5.145 2.560
0.142 5.273 2.836
1.251 4.846 1.933
0.856 5.223 2.128
0.570 5.252 2.391
0.520 5.433 2.454
0.182 5.724 2.656
0.147 5.634 2.719
1.726 4.805 1.721
1.291 5.187 1.780
1.104 5.358 1.836
0.934 5.277 2.055
0.821 5.659 2.179
0.563 5.572 2.387
0.415 5.724 2.464
0.046 5.943 2.718
1.840 5.035 1.447
1.666 5.074 1.426
1.608 5.330 1.503
1.303 5.425 1.950
0.997 5.717 1.918
0.886 5.724 2.069
0.584 5.881 2.132
0.440 5.952 2.331
2.039 5.036 1.167
1.979 5.442 1.288
1.699 5.519 1.360
1.657 5.593 1.459
1.377 5.800 1.685
0.983 5.967 1.962
1.055 6.177 2.055
0.553 6.259 2.251
2.349 5.340 0.783
1.926 5.648 1.156
1.831 5.612 1.278
1.592 5.786 1.265
1.319 5.945 1.613
1.351 6.194 1.563
2.212 5.753 0.715
2.164 5.770 0.825
2.028 5.950 1.026
1.756 5.990 1.325
1.410 6.336 1.414
2.563 6.004 0.762
2.251 6.195 0.766
1.982 6.332 0.942
2.255 0.911 2.300
2.005 1.119 2.430
2.156 1.006 2.235
2.281 1.236 2.045
2.041 1.278 2.234
1.940 1.518 2.469
2.393 1.105 2.068
2.441 1.281 2.062
2.196 1.448 2.261
1.778 1.643 2.141
1.832 1.711 2.566
1.401 1.925 2.657
2.363 1.498 1.856
2.498 1.625 1.948
2.275 1.677 1.881
1.840 1.913 2.165
1.917 2.059 2.317
1.543 2.164 2.422
1.461 2.436 2.579
2.372 1.752 1.904
2.343 1.743 1.627
2.362 2.046 1.948
2.077 2.119 1.874
1.776 2.356 2.129
1.604 2.618 2.348
1.344 2.772 2.583
1.320 2.691 2.697
2.426 1.838 1.852
2.490 2.169 1.527
2.392 2.286 1.710
1.984 2.404 1.975
1.984 2.426 2.070
1.753 2.598 2.074
1.561 2.973 2.268
1.392 2.938 2.429
2.403 2.161 1.505
2.538 2.557 1.658
2.116 2.664 1.673
1.847 2.782 1.828
1.872 2.995 2.029
1.539 3.106 2.085
1.420 3.419 2.480
2.163 2.951 1.725
2.035 2.993 1.732
1.915 3.300 1.959
1.659 3.245 1.889
0.061 4.542 3.164
1.919 3.038 1.431
1.628 3.026 1.609
1.439 3.342 1.879
0.179 4.648 2.717
0.335 4.831 2.505
0.196 4.925 2.483
0.717 4.697 2.084
0.512 5.032 2.241
0.121 4.962 2.410
0.771 5.028 1.999
0.645 5.021 1.925
0.593 5.254 2.027
0.382 5.513 2.394
-0.027 5.532 2.484
1.446 4.993 1.482
1.082 5.155 1.582
1.011 5.050 1.699
0.732 5.392 2.024
0.570 5.603 1.982
0.479 5.691 2.224
-0.018 5.645 2.208
2.054 4.847 0.981
1.663 5.121 1.150
1.418 5.153 1.397
1.205 5.324 1.539
0.945 5.310 1.665
0.728 5.499 1.788
0.492 5.593 1.959
0.417 5.775 2.041
0.212 5.884 2.282
2.170 4.846 0.647
2.009 4.994 0.734
1.802 5.149 1.112
1.578 5.354 1.123
1.364 5.465 1.376
1.287 5.536 1.401
0.802 5.687 1.476
0.648 5.843 1.840
2.301 5.044 0.498
1.994 5.319 0.697
1.750 5.370 0.988
1.592 5.747 1.087
1.291 5.647 1.148
1.129 5.845 1.432
1.139 6.014 1.575
2.499 5.428 0.401
2.263 5.577 0.407
1.844 5.881 0.622
1.609 5.976 0.782
1.404 6.154 1.016
1.269 6.249 1.295
2.258 5.929 0.456
2.127 5.996 0.617
1.747 6.023 0.730
2.128 0.873 2.071
1.787 0.864 2.276
2.117 0.736 2.064
1.985 1.201 1.937
1.941 1.094 2.007
1.586 1.388 2.250
2.103 1.033 1.939
2.101 1.197 1.729
1.776 1.597 2.007
1.746 1.765 2.033
1.447 1.677 2.185
1.267 1.851 2.339
1.147 2.158 2.541
1.977 1.432 1.894
2.070 1.591 1.760
1.945 1.652 1.892
1.650 1.877 2.045
1.530 2.051 2.099
1.394 2.165 2.256
1.045 2.250 2.385
0.871 2.478 2.465
2.354 1.613 1.522
2.131 1.813 1.621
2.172 1.878 1.771
1.868 2.042 1.772
1.687 2.147 1.874
1.522 2.264 2.203
1.093 2.471 2.160
0.917 2.799 2.327
0.925 2.969 2.574
2.416 1.735 1.578
2.066 2.283 1.646
1.827 2.460 1.543
1.720 2.497 1.819
1.512 2.790 2.009
1.369 2.963 2.140
1.173 2.880 2.305
0.830 3.134 2.255
2.126 2.744 1.506
1.802 2.753 1.543
1.561 2.850 1.736
1.371 3.134 2.057
1.247 3.100 2.008
1.850 3.012 1.557
1.727 3.317 1.647
1.315 3.305 1.693
1.522 2.997 1.505
1.251 3.398 1.617
0.183 4.879 1.979
0.500 4.891 1.818
0.143 5.145 1.965
0.197 5.210 2.110
1.107 4.759 1.083
1.038 5.118 1.244
0.930 5.201 1.507
0.608 5.186 1.648
0.259 5.508 1.724
0.033 5.622 1.832
2.195 4.448 0.587
1.819 4.683 0.542
1.576 4.830 0.620
1.420 5.048 0.820
1.334 5.029 1.114
0.963 5.100 1.128
0.979 5.364 1.319
0.609 5.547 1.571
0.372 5.810 1.639
0.304 5.942 1.708
2.506 4.582 0.120
2.170 4.726 0.368
2.138 4.917 0.464
1.870 4.974 0.485
1.524 5.048 0.831
1.304 5.193 1.061
1.260 5.556 1.133
1.090 5.735 1.274
0.669 5.820 1.317
2.148 4.860 0.097
2.026 5.045 0.272
1.783 5.418 0.626
1.512 5.416 0.686
1.545 5.718 0.864
1.259 5.819 0.841
1.057 5.870 1.053
2.398 5.393 -0.034
2.284 5.381 0.291
1.851 5.573 0.202
1.869 5.536 0.523
1.389 5.785 0.720
1.313 6.097 0.694
2.197 5.515 0.082
2.056 5.672 0.253
1.917 6.040 0.398
1.534 5.993 0.476
1.822 0.743 1.679
1.689 0.670 1.718
1.972 1.035 1.699
1.673 1.123 1.877
1.775 1.059 1.614
1.974 1.262 1.497
1.764 1.348 1.687
1.496 1.514 1.972
1.265 1.579 2.138
1.175 1.704 2.028
0.909 1.851 2.294
0.697 2.197 2.449
1.782 1.137 1.634
2.140 1.380 1.373
1.715 1.563 1.649
1.691 1.889 1.813
1.522 1.978 1.795
1.234 2.208 2.082
1.095 2.323 2.012
0.624 2.363 2.426
0.510 2.498 2.506
0.280 2.736 2.611
2.041 1.525 1.536
1.729 1.913 1.378
1.750 2.058 1.689
1.403 2.092 1.646
1.151 2.505 1.737
0.938 2.361 1.893
0.798 2.695 2.301
0.585 2.929 2.442
0.359 2.965 2.614
1.840 2.217 1.388
1.595 2.467 1.556
1.354 2.736 1.779
1.129 2.850 1.863
0.838 2.982 2.017
0.527 3.031 2.060
0.337 3.177 2.412
1.678 2.691 1.568
1.443 2.750 1.505
1.226 2.906 1.833
1.100 3.140 1.783
0.780 3.407 1.980
1.552 3.004 1.585
1.302 3.256 1.619
1.110 3.284 1.510
0.960 3.352 1.527
2.317 3.569 -0.060
2.550 3.343 0.097
2.409 3.937 -0.023
2.057 3.916 0.236
1.912 4.210 0.363
