5.484 5.688 5.143
5.435 5.879 5.287
5.760 5.494 5.248
5.606 5.444 5.448
5.855 5.650 4.786
5.674 5.601 5.114
5.298 5.577 5.258
6.345 5.092 5.137
5.941 5.203 5.529
5.769 5.031 5.617
6.141 5.151 5.000
5.924 5.104 5.119
5.490 4.970 5.407
5.865 5.091 4.718
5.455 5.205 5.159
5.270 5.240 5.162
5.297 5.615 5.679
5.263 5.437 5.501
5.448 4.998 5.725
5.224 5.200 5.531
6.308 3.374 5.744
6.127 3.586 5.603
5.803 3.529 5.326
6.320 2.776 3.562
6.192 2.592 3.598
6.015 2.589 3.734
6.203 2.104 3.950
6.312 2.123 3.471
5.929 2.254 3.760
6.377 1.829 3.958
6.300 2.037 3.380
6.070 2.024 3.538
6.348 1.599 3.737
6.218 1.660 3.286
6.331 4.734 5.544
6.122 4.735 5.682
6.206 4.817 5.152
6.153 4.860 5.393
5.899 4.690 5.666
6.022 4.842 5.048
5.798 4.727 5.142
5.574 4.770 5.367
5.641 5.035 4.799
5.527 4.998 4.881
5.370 4.735 5.217
6.197 4.538 5.626
5.954 4.489 5.760
6.258 4.592 5.127
5.906 4.348 5.410
5.927 4.317 5.630
5.906 4.598 4.752
5.843 4.423 5.048
5.613 4.437 5.353
5.490 4.530 4.960
5.270 4.500 5.035
6.270 4.122 5.958
6.248 4.006 5.336
6.157 4.195 5.734
6.296 4.139 4.944
6.110 4.132 5.323
5.689 4.196 5.458
5.842 4.197 5.067
5.460 4.067 5.266
6.395 3.651 5.859
6.182 3.840 5.420
6.083 3.791 5.746
6.048 3.769 5.277
5.734 3.869 5.420
5.558 3.778 5.220
6.177 3.426 5.735
6.028 3.565 5.455
5.879 3.437 5.430
6.037 3.439 6.028
5.916 3.283 6.179
5.860 3.292 5.889
5.593 3.412 6.110
5.419 3.360 6.285
5.618 3.408 5.707
5.425 3.446 5.946
5.051 3.361 6.112
5.228 3.562 5.397
5.259 3.550 5.689
4.897 3.393 5.930
5.752 3.131 6.250
5.780 3.032 5.604
5.644 3.078 5.942
5.447 3.150 6.266
5.651 3.043 5.513
5.400 3.031 5.658
5.041 3.167 5.995
4.878 3.150 6.345
5.012 3.221 5.500
4.908 3.125 5.787
4.818 3.176 5.978
5.635 2.849 5.912
5.453 2.796 6.150
5.368 2.718 5.813
5.050 2.674 5.920
4.941 2.687 6.174
5.020 2.945 5.487
4.972 2.871 5.842
4.807 2.849 5.982
4.588 2.681 6.169
5.456 2.430 5.962
5.169 2.470 5.919
5.010 2.319 6.113
4.911 2.490 5.722
4.713 2.417 5.985
4.385 2.520 6.245
4.672 2.448 5.443
4.420 2.436 5.759
4.114 2.482 6.085
5.028 2.037 6.250
5.166 2.277 5.702
5.033 2.227 6.029
4.885 2.201 5.562
4.708 2.100 5.967
4.535 2.238 6.162
4.533 2.319 5.504
4.497 2.274 5.688
4.316 2.157 5.870
3.935 2.182 6.079
4.894 1.761 5.962
4.596 1.863 6.183
4.878 1.855 5.594
4.724 1.821 5.760
4.490 1.799 6.058
4.304 1.836 6.365
4.705 1.990 5.296
4.311 2.033 5.489
4.097 2.004 5.825
3.934 1.891 6.063
4.598 1.579 5.833
4.366 1.425 5.987
4.649 1.619 5.222
4.450 1.688 5.587
4.286 1.458 5.807
3.987 1.480 5.952
4.472 1.332 5.267
4.452 1.286 5.614
4.163 1.301 5.761
6.155 0.516 6.196
6.177 0.069 5.986
5.902 0.124 6.168
5.617 4.793 5.839
5.366 4.847 5.579
5.219 4.822 5.330
5.781 4.353 5.984
5.725 4.424 5.679
5.390 4.463 5.585
5.235 4.520 5.449
6.142 3.895 5.988
5.756 4.007 5.904
5.643 4.013 6.085
5.727 3.996 5.704
5.494 4.070 5.903
5.420 4.185 5.475
5.163 4.185 5.712
6.146 3.801 6.059
5.719 3.855 5.737
5.579 3.661 6.139
5.650 3.896 5.559
5.509 3.722 5.857
5.143 3.580 6.037
5.263 3.702 5.549
5.267 3.915 5.767
5.979 3.357 5.967
5.784 3.249 6.273
5.754 3.292 5.856
5.603 3.395 6.071
5.337 3.337 6.331
5.692 3.359 5.720
5.442 3.507 5.739
5.294 3.397 6.018
5.316 3.630 5.304
5.125 3.401 5.696
4.957 3.524 5.934
5.357 6.137 4.895
5.272 6.111 5.166
5.243 6.296 4.685
5.003 6.209 4.828
4.952 6.221 5.151
4.921 6.183 4.726
4.698 6.318 4.897
4.357 6.257 4.556
5.590 5.969 4.846
5.391 5.722 4.866
5.190 5.893 5.206
5.322 6.044 4.489
5.072 5.831 4.881
4.964 5.826 4.932
5.382 5.933 4.017
5.175 6.001 4.244
4.793 5.923 4.543
4.719 5.915 4.904
5.248 6.039 3.710
5.042 6.048 3.987
4.935 6.163 4.219
4.716 5.974 4.461
4.404 6.043 4.666
5.176 6.191 3.330
5.056 6.074 3.336
4.783 6.176 3.718
4.694 6.139 3.925
4.429 6.139 4.110
5.087 6.379 2.825
5.069 6.281 3.077
4.732 6.105 3.219
4.496 6.099 3.481
4.363 6.007 3.754
4.469 6.215 3.004
4.278 6.320 3.409
4.434 6.232 1.784
4.109 6.198 1.901
3.960 6.187 2.055
3.690 6.189 2.432
4.040 6.168 1.835
3.853 6.289 1.974
5.666 5.694 4.762
5.250 5.488 4.985
5.252 5.540 5.053
5.196 5.544 4.554
4.986 5.521 4.617
4.837 5.455 4.845
5.314 5.802 3.954
5.121 5.605 4.339
4.981 5.641 4.597
4.732 5.623 4.713
5.096 5.857 3.928
4.733 5.806 4.033
4.642 5.680 4.272
5.017 5.886 3.377
4.847 5.912 3.726
4.592 5.715 3.982
5.061 5.985 2.911
4.801 5.860 3.270
4.493 5.882 3.436
4.820 5.996 2.586
4.607 6.040 2.662
4.457 5.899 3.026
4.197 5.845 3.208
4.793 6.066 2.169
4.670 5.966 2.219
4.395 6.071 2.435
4.347 5.927 2.814
4.767 6.247 1.795
4.550 6.006 2.114
4.351 6.157 2.477
3.974 5.987 2.645
4.311 6.190 1.675
4.127 6.109 1.878
3.913 6.076 2.127
3.770 5.993 2.494
4.464 5.926 1.518
4.106 5.849 1.863
3.965 5.953 1.984
3.813 5.794 2.243
4.263 5.824 1.352
3.833 5.850 1.609
3.845 5.852 1.791
3.498 5.820 2.202
3.663 6.073 1.453
3.610 5.908 1.768
3.355 5.760 2.048
1.389 6.213 1.221
1.344 6.075 1.515
1.140 6.000 1.805
1.141 6.255 0.939
1.081 5.998 1.183
0.690 6.092 1.525
1.091 6.198 0.889
0.892 6.269 1.050
0.515 6.063 1.283
5.403 5.236 4.715
5.390 5.153 4.759
5.066 5.123 4.961
5.218 5.318 4.276
5.153 5.196 4.562
4.775 5.191 4.766
4.790 5.891 2.309
4.595 5.729 2.495
4.237 5.724 2.853
4.684 5.847 1.928
4.374 5.804 2.183
4.167 5.851 2.323
3.915 5.842 2.515
6.005 6.008 0.290
4.458 5.868 1.659
4.295 5.808 1.934
4.057 5.930 2.094
3.668 5.788 2.303
5.060 6.018 5.457
4.676 5.918 5.814
4.769 6.134 5.374
4.567 6.010 5.548
4.432 6.255 5.047
4.384 6.058 5.385
4.215 6.285 4.940
2.344 6.157 4.229
2.214 5.991 4.459
1.987 5.980 4.525
2.165 6.223 4.025
1.860 6.064 4.164
1.805 6.110 4.391
1.591 6.041 4.744
1.932 6.166 3.814
1.632 6.181 4.047
1.532 6.050 4.318
1.311 6.246 4.378
0.867 6.169 4.399
1.472 6.212 3.761
1.157 6.240 3.919
1.001 6.247 4.138
0.931 6.044 4.580
0.543 6.190 4.235
0.461 6.243 4.569
1.042 6.362 3.772
0.855 6.329 4.145
0.542 6.272 4.333
0.311 6.144 4.047
0.194 6.138 4.247
0.606 6.152 3.957
0.373 6.244 4.001
5.031 5.875 5.557
4.666 5.781 5.304
4.410 5.920 5.155
2.480 6.034 4.159
2.087 6.072 4.260
2.075 6.084 4.697
2.400 5.906 3.938
2.071 5.726 4.388
2.021 5.805 4.592
1.723 5.678 4.763
2.245 5.989 3.956
1.926 5.854 4.106
1.778 5.712 4.329
1.530 5.728 4.509
1.792 5.986 3.583
1.823 5.777 3.937
1.502 5.912 4.184
1.235 5.795 4.261
0.719 5.860 4.444
1.432 5.827 3.667
1.130 5.799 3.973
1.089 5.865 4.297
0.735 5.862 4.483
0.523 5.902 4.090
0.904 5.855 3.803
0.858 5.920 4.005
0.635 5.755 4.242
0.305 5.936 3.934
0.269 6.013 4.263
0.561 5.867 3.718
0.495 5.899 3.933
0.087 6.109 3.818
0.088 5.864 3.873
5.028 5.336 5.472
4.755 5.402 5.187
2.289 5.784 4.391
2.309 5.685 4.735
2.277 5.952 3.949
2.230 5.893 4.410
1.847 5.877 4.437
1.741 5.731 4.811
2.359 5.509 4.130
2.099 5.426 4.200
1.833 5.339 4.555
1.656 5.327 4.720
-0.013 5.269 6.149
2.112 5.529 3.850
2.031 5.464 4.159
1.823 5.600 4.234
1.538 5.356 4.585
1.732 5.507 3.718
1.366 5.677 4.119
1.213 5.533 4.271
0.622 6.009 1.694
0.336 6.121 1.533
4.899 5.187 5.387
2.658 5.435 4.673
2.351 5.398 4.967
2.200 5.342 4.982
2.573 5.608 4.083
2.431 5.561 4.421
2.158 5.296 4.655
1.985 5.272 4.987
2.234 5.487 4.074
2.090 5.479 4.332
1.972 5.357 4.347
1.640 5.458 4.676
4.588 4.388 0.536
4.415 4.531 0.838
4.072 4.283 1.213
4.331 4.590 0.110
4.163 4.590 0.559
4.136 4.520 0.659
3.847 4.494 0.984
3.543 4.436 1.234
4.258 4.547 -0.068
4.040 4.511 0.276
3.846 4.446 0.632
3.715 4.395 0.689
3.296 4.441 1.040
3.808 4.676 0.152
3.538 4.645 0.190
3.341 4.456 0.636
3.045 4.484 0.707
1.388 4.322 1.820
1.268 4.389 1.517
1.073 4.368 1.536
6.183 4.089 2.901
5.929 3.860 3.230
6.249 4.048 2.383
6.059 3.923 2.777
5.927 3.886 2.839
6.279 4.054 2.158
6.042 4.105 2.291
5.811 3.958 2.526
5.572 3.918 2.651
3.864 3.967 3.748
3.672 4.030 3.609
3.281 4.095 3.302
4.707 4.172 0.441
4.522 4.105 0.569
4.390 4.173 0.894
4.521 4.204 0.196
4.201 4.171 0.285
4.112 4.249 0.518
3.964 4.229 0.844
3.986 4.302 0.112
3.677 4.173 0.572
3.612 4.176 0.761
3.846 4.411 0.112
3.452 4.201 0.284
6.213 3.556 3.221
6.101 3.587 2.941
5.906 3.723 3.013
5.934 3.700 3.447
6.082 3.694 2.448
5.920 3.644 2.733
5.866 3.584 3.019
5.497 3.563 2.998
5.504 3.661 3.236
5.918 3.769 2.337
5.743 3.874 2.427
5.628 3.718 2.647
5.411 3.777 2.941
5.268 3.772 3.281
4.822 3.728 3.346
5.088 3.683 2.667
4.907 3.590 2.912
4.736 3.745 3.333
4.474 3.690 3.350
4.363 3.479 3.758
4.416 3.761 2.896
4.243 3.680 3.304
4.095 3.592 3.406
3.802 3.715 3.732
4.122 3.699 3.032
3.707 3.801 3.211
3.505 3.534 3.552
3.546 3.627 3.174
3.486 3.715 3.423
3.154 3.836 3.128
4.916 3.864 -0.010
4.729 3.939 0.258
4.488 3.844 0.425
4.169 3.834 0.735
4.482 4.011 0.055
4.305 3.976 0.357
3.959 3.842 0.699
4.014 3.863 0.190
3.663 3.902 0.288
6.366 3.387 3.196
6.093 3.214 3.559
6.111 3.227 2.866
6.035 3.243 3.001
5.862 3.254 3.387
5.558 3.333 3.628
6.278 3.391 2.333
6.069 3.516 2.564
5.756 3.453 2.757
5.644 3.254 2.998
5.270 3.403 3.260
5.165 3.357 3.574
5.846 3.371 2.373
5.460 3.386 2.548
5.446 3.377 2.772
5.076 3.305 3.031
5.047 3.226 3.418
4.775 3.269 3.688
5.078 3.316 2.778
4.969 3.317 2.927
4.721 3.224 3.232
4.469 3.414 3.438
4.220 3.326 3.566
4.641 3.403 2.641
4.390 3.480 3.023
4.175 3.256 3.209
4.092 3.233 3.456
3.804 3.162 3.712
4.137 3.527 2.772
4.001 3.296 3.111
3.887 3.342 3.095
3.563 3.429 3.434
3.726 3.336 2.827
3.666 3.472 3.129
3.345 3.303 3.240
3.297 3.573 2.899
3.109 3.415 3.146
5.202 3.652 0.156
4.870 3.602 0.329
4.786 3.494 0.770
2.992 3.192 2.551
2.941 3.281 2.924
4.733 3.760 -0.104
4.778 3.472 0.119
4.416 3.612 0.591
4.376 3.635 0.161
4.317 3.561 0.371
4.000 3.575 0.165
6.154 3.074 3.230
6.096 2.961 3.391
5.923 2.901 3.761
6.238 2.922 2.646
5.956 2.899 3.015
5.672 3.025 3.103
5.542 2.843 3.420
5.874 2.974 2.551
5.772 3.110 2.821
5.448 3.000 2.969
5.342 3.027 3.238
5.276 2.966 3.454
5.429 3.210 2.453
5.397 3.073 2.810
5.224 3.135 3.079
4.804 2.926 3.208
4.622 2.977 3.405
5.145 3.026 2.677
4.788 3.201 2.838
4.781 3.075 2.975
4.456 2.875 3.270
4.171 3.045 3.670
4.757 3.153 2.608
4.495 3.106 2.774
4.175 3.069 3.008
4.020 3.044 3.237
3.831 3.070 3.678
4.089 3.143 2.579
3.950 2.984 3.023
3.905 3.147 3.051
3.596 3.014 3.423
3.671 3.182 2.813
3.594 3.212 3.016
3.269 3.162 3.261
3.594 3.239 2.602
3.188 3.276 2.741
3.034 3.243 2.916
5.084 3.647 0.097
4.809 3.435 0.501
4.771 3.642 0.773
3.166 3.190 2.549
2.838 3.197 2.937
5.081 3.192 0.147
4.856 3.345 0.435
4.730 3.330 0.665
3.178 2.976 2.202
3.157 2.974 2.569
2.809 2.774 2.772
4.590 3.331 0.117
4.334 3.247 0.359
2.753 2.945 2.418
2.550 2.934 2.572
4.129 3.181 0.338
6.167 2.642 3.171
6.038 2.527 3.308
5.750 2.597 3.634
6.191 2.852 2.591
5.860 2.660 2.909
5.748 2.658 3.153
5.538 2.666 3.388
5.674 2.636 2.814
5.535 2.775 3.057
5.426 2.711 3.231
5.244 2.666 3.326
5.362 2.739 2.635
5.068 2.813 3.028
4.943 2.673 3.097
4.826 2.697 2.694
4.692 2.714 3.094
4.460 2.595 3.269
4.355 2.809 2.921
4.295 2.622 3.140
4.027 2.706 3.207
4.104 2.813 2.514
4.065 2.694 2.767
3.755 2.787 3.007
3.447 2.685 3.284
3.716 2.855 2.781
3.478 2.860 3.017
3.339 2.826 3.156
5.395 3.273 0.421
5.166 3.245 0.692
3.440 2.933 2.362
3.359 2.821 2.686
3.098 2.690 2.882
5.187 3.354 0.233
4.897 3.180 0.303
4.769 3.108 0.533
3.245 3.037 2.374
2.993 2.902 2.467
2.911 2.764 2.735
5.068 2.871 0.203
4.950 2.919 0.385
4.765 2.966 0.528
3.178 2.640 2.249
3.128 2.509 2.396
2.779 2.633 2.658
4.638 3.085 0.165
4.429 2.859 0.464
3.061 2.691 2.012
2.695 2.570 2.156
2.676 2.576 2.369
2.869 2.603 1.737
2.441 2.608 1.976
2.366 2.673 2.311
1.693 3.201 0.207
6.291 2.233 3.030
5.877 2.295 3.304
5.744 2.314 3.459
6.095 2.490 2.821
5.843 2.419 3.082
5.637 2.189 3.278
5.857 3.022 0.128
5.421 2.876 0.524
5.440 2.926 0.788
3.786 2.605 2.588
3.509 2.521 2.862
3.188 2.579 3.095
5.566 2.856 0.091
5.341 2.961 0.315
5.097 2.993 0.588
4.893 2.729 0.742
3.371 2.487 2.530
3.227 2.495 2.558
3.154 2.553 2.910
5.053 2.941 -0.045
4.790 2.961 0.424
4.722 2.901 0.478
3.323 2.756 2.257
3.045 2.682 2.349
2.738 2.535 2.763
5.180 2.730 -0.044
4.813 2.731 0.352
4.774 2.610 0.502
3.265 2.433 2.140
3.124 2.371 2.297
2.791 2.295 2.597
4.683 2.578 0.096
3.083 2.433 1.906
2.758 2.303 2.320
2.553 2.401 2.471
2.756 2.390 1.693
2.607 2.364 1.952
2.359 2.342 2.185
2.650 2.464 1.353
2.517 2.366 1.461
2.273 2.484 1.775
2.033 2.273 2.098
2.520 2.606 1.024
2.283 2.402 1.261
1.959 2.507 1.476
2.474 2.530 0.717
2.152 2.560 1.054
1.988 2.505 1.146
2.462 2.737 0.288
2.302 2.795 0.572
1.994 2.640 0.794
2.149 2.822 0.026
2.073 2.785 0.176
1.816 2.756 0.433
1.746 2.895 0.189
6.218 1.943 3.082
5.969 1.989 3.307
6.271 2.502 0.471
5.919 2.427 0.762
6.114 2.613 0.063
5.900 2.467 0.348
5.813 2.623 0.660
5.508 2.361 0.824
6.155 2.601 0.046
5.631 2.680 0.252
5.498 2.545 0.466
5.391 2.512 0.532
5.104 2.390 0.824
5.353 2.632 0.307
5.123 2.482 0.462
4.942 2.542 0.758
3.351 2.267 2.651
3.081 2.331 2.875
5.115 2.678 -0.002
4.872 2.610 0.264
4.698 2.486 0.590
3.296 2.420 2.252
3.031 2.339 2.385
2.883 2.287 2.521
4.813 2.329 0.162
4.508 2.339 0.462
3.087 1.975 2.372
2.679 1.816 2.448
2.970 2.094 1.872
2.831 2.042 2.201
2.497 2.050 2.485
2.807 2.234 1.708
2.405 1.997 1.970
2.390 2.073 2.103
2.644 2.304 1.344
2.580 2.172 1.408
2.393 2.194 1.634
2.161 2.040 1.921
2.690 2.208 0.801
2.559 2.313 1.116
2.132 2.127 1.337
2.090 2.150 1.478
1.769 2.091 1.676
2.604 2.342 0.413
2.419 2.362 0.666
2.215 2.304 0.994
1.980 2.228 1.003
1.702 2.185 1.438
2.495 2.306 0.139
2.214 2.479 0.535
1.924 2.394 0.597
1.879 2.340 0.953
2.273 2.578 -0.081
2.052 2.353 0.148
1.833 2.342 0.492
1.693 2.483 -0.062
6.259 2.005 0.891
6.135 2.288 0.485
5.898 2.071 0.756
5.667 2.159 1.113
6.231 2.363 0.065
5.972 2.239 0.353
5.719 2.216 0.496
5.474 2.263 0.720
5.337 2.165 1.030
6.231 2.274 0.175
5.612 2.353 0.091
5.628 2.343 0.345
5.257 2.284 0.614
5.224 2.122 0.734
5.380 2.203 0.197
5.133 2.389 0.324
4.977 2.324 0.628
4.897 2.238 0.248
4.656 2.238 0.386
2.982 1.938 2.351
2.849 1.898 2.635
2.652 1.781 2.037
2.595 1.728 2.332
2.636 1.790 1.575
2.632 1.687 1.836
2.192 1.736 2.019
2.781 2.003 1.096
2.579 1.797 1.334
2.164 1.809 1.713
2.133 1.798 1.863
2.715 2.060 0.870
2.391 1.959 0.940
2.316 1.865 1.185
1.991 1.943 1.386
1.870 1.715 1.844
2.732 1.975 0.346
2.361 2.095 0.677
2.169 1.927 0.913
1.933 2.024 1.159
1.897 1.835 1.293
2.383 2.181 0.160
2.269 2.053 0.498
2.081 2.027 0.690
1.854 2.069 0.738
1.965 2.100 0.195
1.650 2.009 0.535
6.334 1.728 0.801
6.215 1.824 0.441
6.074 1.947 0.740
5.792 1.872 0.967
5.521 1.690 1.249
6.127 1.939 0.047
5.919 2.027 0.389
5.836 1.808 0.502
5.598 1.870 0.640
5.421 1.864 0.884
5.078 1.869 1.321
6.250 1.966 -0.018
5.673 1.998 0.185
5.491 1.892 0.311
5.197 2.000 0.454
5.002 1.830 0.698
4.869 1.716 0.886
5.312 2.061 0.044
5.043 1.925 0.263
4.769 1.891 0.459
4.736 1.818 0.931
2.575 1.428 2.166
2.441 1.453 1.849
2.187 1.480 2.180
2.381 1.491 1.332
2.363 1.563 1.644
1.976 1.489 1.789
2.508 1.688 1.065
2.213 1.492 1.058
1.898 1.583 1.506
1.776 1.568 1.635
2.513 1.863 0.389
2.487 1.839 0.414
2.189 1.612 0.730
2.008 1.549 0.954
1.853 1.671 1.302
2.294 1.922 0.154
2.272 1.828 0.271
1.957 1.775 0.652
1.929 1.814 0.104
6.181 1.512 0.863
6.048 1.659 0.503
5.863 1.520 0.533
5.879 1.381 0.811
5.579 1.365 0.998
5.426 1.335 1.399
5.964 1.730 0.200
5.770 1.622 0.533
5.503 1.434 0.745
5.243 1.606 0.983
5.214 1.438 1.135
4.976 1.483 1.290
5.620 1.725 0.129
5.230 1.701 0.363
5.059 1.680 0.803
4.970 1.431 0.831
4.639 1.377 1.127
4.931 1.608 0.243
4.764 1.696 0.458
4.710 1.604 0.660
2.201 1.099 1.924
2.024 1.166 1.740
1.781 1.255 1.540
4.686 0.712 4.072
4.409 0.774 3.746
4.278 0.757 3.678
5.758 1.179 0.794
5.634 1.252 1.068
5.246 1.080 1.235
5.259 1.015 1.479
4.941 1.027 1.787
5.409 1.322 0.691
5.213 1.147 0.914
5.201 1.067 1.140
4.793 1.087 1.343
4.626 0.978 1.645
5.391 1.360 0.461
5.075 1.277 0.541
4.861 1.326 0.876
4.715 1.311 1.109
4.586 1.175 1.400
4.810 1.371 0.347
4.629 1.395 0.675
4.525 1.206 0.869
4.841 0.161 4.157
4.825 0.290 3.715
4.593 0.304 3.884
4.710 0.360 3.308
4.580 0.503 3.483
4.545 0.322 3.768
4.899 0.507 2.879
4.634 0.491 2.918
4.338 0.412 3.247
4.167 0.286 3.503
5.071 0.579 2.076
4.844 0.492 2.412
4.593 0.574 2.698
4.290 0.426 2.813
4.113 0.627 2.985
5.265 0.825 1.254
5.170 0.680 1.473
4.937 0.828 1.575
4.855 0.697 1.847
4.594 0.719 2.062
4.338 0.740 2.353
5.370 1.023 0.809
4.982 0.979 0.899
4.789 0.725 1.172
4.595 0.761 1.451
4.594 0.720 1.642
4.310 0.606 1.873
5.071 0.863 0.516
4.849 0.904 0.753
4.532 0.845 0.943
4.368 0.748 1.198
4.143 0.777 1.546
4.663 0.940 0.579
4.308 1.031 0.847
4.178 0.779 1.119
5.148 0.041 3.411
4.828 0.168 3.539
4.625 -0.100 3.794
5.092 0.241 2.948
4.880 0.137 3.118
4.703 0.118 3.427
4.366 0.045 3.711
4.923 0.305 2.374
4.852 0.147 2.719
4.613 0.124 2.976
4.435 0.162 3.254
4.045 0.224 3.445
4.874 0.419 1.941
4.660 0.179 2.178
4.647 0.262 2.494
4.424 0.255 2.782
4.188 0.282 2.933
4.990 0.407 1.383
4.925 0.480 1.747
4.756 0.422 1.868
4.568 0.308 2.073
4.396 0.309 2.404
4.230 0.227 2.616
4.993 0.492 0.870
4.903 0.496 1.194
4.738 0.579 1.513
4.400 0.455 1.800
4.249 0.494 1.805
4.138 0.323 2.057
4.925 0.513 0.805
4.704 0.645 0.944
4.364 0.509 1.208
4.134 0.421 1.348
4.061 0.499 1.632
4.703 0.524 0.499
4.364 0.689 0.763
4.157 0.560 0.935
3.994 0.421 1.285
4.050 0.488 0.667
4.029 0.413 0.758
3.695 0.405 1.147
0.295 0.652 0.319
5.068 0.078 1.944
4.772 0.183 1.598
4.611 0.194 1.829
4.390 -0.045 2.041
4.218 -0.085 2.169
4.964 0.252 1.145
4.765 0.108 1.304
4.344 0.218 1.530
4.135 0.094 1.896
4.141 0.075 2.050
4.711 0.285 1.039
4.415 0.242 1.113
4.216 0.312 1.436
4.079 0.232 1.774
4.327 0.237 0.839
4.131 0.226 0.867
4.078 0.277 1.098
3.777 0.152 1.516
4.106 0.400 0.443
4.058 0.221 0.873
3.761 0.270 1.009
4.072 -0.080 0.558
4.026 -0.111 0.663
3.622 0.125 0.498
3.467 0.062 0.846
0.867 0.247 0.131
0.557 0.298 0.296
0.216 0.193 0.044
4.245 -0.012 0.657
4.043 0.176 0.379
4.025 0.102 0.771
4.286 5.598 1.551
4.088 5.489 1.813
3.867 5.420 2.136
3.872 5.558 2.328
4.029 5.679 1.361
4.054 5.481 1.675
3.836 5.443 1.922
3.505 5.585 2.103
3.889 5.716 1.295
3.821 5.630 1.449
3.624 5.582 1.573
3.254 5.653 1.918
3.392 5.830 1.229
3.131 5.645 1.403
3.049 5.574 1.662
2.738 5.557 1.808
3.058 5.622 1.195
2.707 5.702 1.590
2.633 5.531 1.777
2.560 5.640 1.186
2.433 5.590 1.436
2.297 5.751 1.744
2.136 5.623 1.424
1.936 5.643 1.666
1.727 5.783 1.791
1.943 5.800 1.202
1.632 5.787 1.294
1.586 5.672 1.659
1.206 5.775 1.723
1.553 5.805 1.094
1.159 5.735 1.357
1.020 5.853 1.769
1.217 5.789 0.950
0.929 5.707 1.209
0.802 5.719 1.361
0.957 6.012 0.760
0.714 5.863 1.015
0.585 5.909 1.244
5.308 4.939 4.649
5.183 4.986 5.101
6.200 5.666 0.231
4.450 5.578 2.007
4.335 5.553 2.289
6.097 5.688 0.171
4.310 5.717 1.664
4.075 5.636 1.689
4.100 5.540 2.151
3.827 5.513 2.329
4.240 5.329 1.469
4.138 5.356 1.731
3.973 5.126 2.086
4.194 5.324 1.296
3.887 5.406 1.512
3.806 5.142 1.697
3.477 5.298 1.908
3.978 5.271 1.245
3.622 5.295 1.445
3.439 5.318 1.535
3.206 5.169 1.956
3.642 5.516 0.794
3.342 5.399 1.050
3.227 5.377 1.334
3.020 5.304 1.596
2.739 5.164 1.846
3.232 5.522 0.965
3.120 5.360 1.148
2.872 5.251 1.545
2.658 5.296 1.564
2.361 5.241 1.925
2.878 5.361 0.995
2.636 5.433 1.317
2.359 5.343 1.416
2.224 5.384 1.734
1.962 5.434 1.981
2.437 5.405 0.929
2.221 5.393 1.329
2.025 5.389 1.540
1.607 5.422 1.746
1.618 5.415 1.918
1.984 5.490 1.190
1.568 5.464 1.329
1.561 5.464 1.479
1.296 5.301 1.697
1.434 5.419 1.170
1.356 5.449 1.318
0.971 5.384 1.522
1.305 5.476 0.815
1.074 5.624 1.102
0.676 5.573 1.374
0.740 5.540 0.992
0.478 5.443 1.272
6.155 5.578 0.296
5.960 5.382 0.161
4.458 5.244 1.451
4.275 5.267 1.794
3.899 5.317 1.875
4.209 5.168 0.944
4.118 5.120 1.319
3.926 4.910 1.515
3.651 4.878 1.635
4.174 5.231 0.902
3.864 4.999 1.006
3.611 4.981 1.305
3.452 5.060 1.593
3.247 5.052 1.770
3.723 5.205 0.680
3.744 5.072 0.823
3.502 5.202 1.169
3.333 5.076 1.425
3.139 5.115 1.599
2.892 4.913 1.776
3.394 5.245 0.765
3.109 5.253 0.958
3.029 5.162 1.037
2.831 5.070 1.429
2.675 5.108 1.653
2.269 4.947 1.744
2.872 5.166 0.941
2.614 5.041 1.188
2.347 4.960 1.429
2.101 4.943 1.526
1.966 5.005 1.847
2.417 5.071 0.932
2.182 5.098 1.216
1.981 5.059 1.421
1.575 5.060 1.767
1.452 5.034 1.935
1.800 5.089 1.053
1.702 5.124 1.208
1.375 5.206 1.557
1.279 5.022 1.833
1.363 5.111 0.929
1.210 5.080 1.267
0.930 5.124 1.482
0.891 5.087 1.191
0.752 5.102 1.408
6.341 4.716 2.570
6.323 4.797 2.166
6.295 5.190 0.311
4.227 4.853 0.958
4.022 4.771 1.212
3.982 4.723 1.408
4.374 4.772 0.394
4.093 4.816 0.770
3.899 4.886 1.074
3.709 4.742 1.156
3.542 4.639 1.358
3.931 4.892 0.369
3.707 4.954 0.679
3.726 4.808 0.763
3.353 4.743 1.099
3.136 4.789 1.389
2.995 4.766 1.594
3.644 4.853 0.348
3.372 4.786 0.508
3.200 4.899 0.941
2.984 4.865 1.167
2.868 4.631 1.244
2.519 4.657 1.649
2.867 4.886 0.847
2.417 4.917 1.076
2.385 4.707 1.471
2.059 4.609 1.589
1.897 4.567 1.889
2.009 4.862 1.258
1.873 4.894 1.498
1.673 4.729 1.596
1.497 4.737 1.765
1.569 4.945 1.258
1.373 4.718 1.333
1.363 4.743 1.631
1.293 4.877 1.120
1.126 4.858 1.402
0.642 4.795 1.256
6.285 4.389 2.883
6.270 4.288 2.469
5.980 4.206 2.753
6.217 4.330 2.170
6.087 4.529 2.398
4.518 4.422 0.676
4.299 4.409 0.847
4.008 4.381 1.137
4.497 4.578 0.261
4.246 4.614 0.502
4.024 4.508 0.757
3.729 4.477 0.991
3.591 4.452 1.213
4.244 4.655 0.032
4.047 4.562 0.148
3.742 4.583 0.527
3.482 4.464 0.651
3.383 4.466 0.949
3.662 4.718 0.197
3.530 4.561 0.242
3.499 4.499 0.440
3.064 4.582 0.831
1.593 4.350 1.877
1.184 4.440 1.604
0.873 4.625 1.331
6.221 3.939 3.017
6.033 3.954 3.091
6.171 4.031 2.469
6.052 3.916 2.736
5.772 4.075 2.861
6.118 4.156 2.152
6.089 4.104 2.160
5.690 4.179 2.591
5.580 3.991 2.827
3.769 4.005 3.867
3.502 3.861 3.658
3.281 4.007 3.480
0.408 3.715 5.453
0.197 3.825 5.682
0.147 3.559 5.965
0.379 3.810 4.853
0.262 3.727 5.224
0.116 3.890 4.770
1.164 4.323 1.926
1.022 4.362 2.221
0.931 4.349 2.461
0.642 4.351 2.704
0.896 4.449 1.850
0.876 4.472 2.089
0.553 4.420 2.302
0.432 4.167 2.619
0.836 4.327 1.531
0.640 4.309 1.925
0.427 4.262 2.156
0.179 4.253 2.338
0.598 4.488 1.574
0.332 4.423 1.596
0.061 4.401 1.937
3.637 3.906 3.912
3.365 3.730 4.173
3.175 3.828 4.484
3.175 3.646 4.781
3.538 3.833 3.818
3.231 3.790 4.137
2.943 3.967 4.246
2.694 3.770 4.502
3.221 3.945 3.750
3.079 3.974 3.728
2.824 3.917 4.066
2.639 3.959 4.370
2.888 4.067 3.402
2.699 3.852 3.690
2.427 3.888 3.878
0.646 3.385 5.205
0.363 3.344 5.230
0.233 3.454 5.702
0.607 3.430 4.701
0.445 3.457 4.833
0.215 3.507 5.191
0.488 3.766 4.130
0.290 3.586 4.397
0.196 3.542 4.660
0.551 3.648 3.696
0.247 3.643 4.053
0.231 3.716 4.196
0.538 3.638 3.672
0.350 3.891 3.700
-0.003 3.622 3.959
0.620 3.910 3.187
0.573 3.788 3.434
0.195 3.669 3.554
-0.094 3.793 3.530
0.975 3.924 2.190
0.970 3.891 2.371
0.582 3.913 2.719
0.392 4.025 3.054
0.285 3.739 3.148
0.111 3.925 3.489
0.983 3.994 1.707
0.833 3.967 2.028
0.558 4.138 2.230
0.376 4.045 2.478
0.281 4.048 2.849
0.798 4.177 1.553
0.640 4.209 1.847
0.437 4.149 2.067
0.055 4.147 2.178
0.367 4.292 1.576
0.095 4.193 1.924
3.750 3.594 3.947
3.329 3.409 4.258
3.428 3.703 3.766
3.325 3.657 3.930
2.915 3.646 4.352
3.157 3.570 3.651
2.888 3.518 3.698
2.886 3.650 4.126
2.982 3.708 3.270
2.740 3.622 3.628
0.790 3.101 4.843
0.675 3.165 4.989
0.463 2.998 5.336
0.277 2.992 5.593
0.799 3.192 4.289
0.640 3.324 4.698
0.316 3.085 4.843
0.193 3.283 4.990
0.649 3.411 3.949
0.404 3.241 4.098
0.406 3.203 4.430
0.066 3.279 4.610
0.766 3.411 4.047
0.545 3.314 3.849
0.211 3.373 3.872
0.086 3.394 4.330
0.602 3.407 3.567
0.368 3.418 3.654
0.272 3.364 3.532
0.183 3.393 3.841
0.646 3.662 3.013
0.431 3.528 3.396
0.247 3.475 3.519
-0.074 3.483 3.402
0.873 3.670 2.335
0.694 3.528 2.687
0.545 3.692 2.873
0.333 3.467 2.981
0.088 3.591 3.306
0.726 3.727 2.063
0.672 3.704 2.206
0.387 3.572 2.304
0.066 3.691 2.739
0.429 3.729 1.831
0.453 3.641 2.028
0.276 3.687 2.335
0.257 3.967 1.493
0.077 3.854 1.714
3.723 3.278 3.925
3.362 3.322 3.733
3.306 3.136 3.975
3.264 3.298 3.410
2.980 3.315 3.843
2.900 3.404 3.229
2.739 3.321 3.510
1.012 2.944 4.810
0.783 2.908 5.166
0.751 2.712 5.353
2.678 3.125 3.171
0.902 2.983 4.538
0.884 2.854 4.801
0.715 2.974 4.900
0.440 2.791 5.222
0.772 3.055 4.208
0.672 3.067 4.464
0.253 2.788 4.859
0.026 2.869 5.105
0.725 3.035 3.761
0.502 2.946 4.026
0.412 3.081 4.452
0.231 2.905 4.690
0.603 3.039 3.828
0.563 3.108 3.787
0.380 3.100 3.983
0.045 3.035 4.179
0.718 3.264 3.353
0.492 3.032 3.725
0.248 3.100 3.553
0.167 3.072 3.810
0.556 3.292 2.982
0.409 3.087 3.335
0.151 3.105 3.517
-0.092 3.281 3.325
0.569 3.385 2.619
0.382 3.369 2.815
0.250 3.212 2.971
-0.070 3.189 3.239
0.490 3.283 2.190
0.274 3.477 2.327
0.292 3.426 2.593
0.433 3.416 2.027
0.097 3.466 2.228
0.144 3.512 1.744
3.467 2.890 3.705
3.170 2.948 3.476
2.938 2.966 3.249
1.116 2.773 4.928
0.737 2.923 5.278
0.507 2.707 5.472
2.659 3.227 2.969
1.157 2.663 4.649
1.004 2.586 4.766
0.848 2.495 5.078
0.602 2.409 5.419
2.774 2.806 2.964
0.935 2.513 4.472
0.852 2.614 4.779
0.644 2.559 4.883
0.491 2.518 5.223
0.752 2.772 4.366
0.458 2.740 4.587
0.447 2.671 4.800
0.255 2.432 4.902
0.791 2.831 3.909
0.439 2.834 4.080
0.227 2.644 4.185
0.168 2.554 4.474
0.806 2.861 3.687
0.475 2.864 3.628
0.182 2.853 3.960
0.118 2.790 4.086
0.443 2.810 3.685
0.110 2.827 3.545
0.152 2.830 3.747
0.560 2.850 3.176
0.172 2.942 3.534
0.282 3.097 2.834
0.276 2.860 2.868
0.430 3.023 2.188
0.162 3.031 2.557
0.367 3.230 1.822
0.061 3.227 2.096
0.119 3.227 1.768
4.246 2.165 5.342
3.935 2.341 5.586
3.077 2.782 3.332
1.357 2.533 5.174
1.075 2.495 5.310
2.826 2.850 3.087
1.222 2.513 4.660
0.899 2.449 4.865
0.917 2.600 5.235
0.562 2.389 5.344
2.617 2.783 3.107
1.183 2.298 4.552
1.061 2.144 4.766
0.763 2.109 5.145
0.522 2.243 5.330
2.550 2.540 2.835
1.057 2.274 4.341
0.833 2.258 4.516
0.639 2.357 4.741
0.270 2.071 5.131
2.475 2.559 2.653
0.718 2.448 4.173
0.553 2.246 4.440
0.319 2.276 4.612
0.129 2.752 2.081
0.107 2.953 1.528
4.463 1.956 5.232
4.229 1.918 5.504
3.848 1.821 5.766
3.763 1.889 5.782
4.032 1.911 5.202
3.862 1.856 5.448
3.565 1.923 5.738
1.712 2.164 4.958
1.438 2.075 5.305
1.228 2.210 5.569
1.409 2.165 4.789
1.286 2.089 4.913
0.922 2.255 5.377
0.738 2.025 5.514
2.858 2.460 3.110
1.332 2.136 4.664
1.002 2.211 4.913
0.809 2.087 5.028
0.601 2.078 5.399
2.654 2.457 2.940
1.239 1.954 4.478
1.066 1.843 4.643
0.670 1.886 5.068
0.573 1.727 5.225
2.493 2.108 2.841
0.803 1.870 4.449
0.636 1.984 4.859
2.504 2.364 2.574
2.266 2.364 2.361
4.433 1.697 5.237
4.096 1.624 5.238
3.876 1.700 5.638
3.720 1.681 5.944
4.046 1.836 5.023
3.932 1.811 5.054
3.731 1.596 5.320
3.387 1.586 5.677
3.175 1.749 5.703
3.638 1.669 4.850
3.451 1.811 5.294
3.299 1.781 5.420
3.203 1.514 5.686
2.832 1.660 5.464
3.151 1.747 4.973
2.914 1.630 5.236
2.889 1.822 5.388
2.663 1.854 5.153
2.310 1.672 5.501
2.827 1.906 4.937
2.674 1.861 5.227
2.367 1.775 5.174
2.126 1.633 5.296
1.932 1.693 5.506
2.424 1.788 5.073
2.115 1.772 4.976
1.987 1.787 5.022
1.630 1.670 5.470
1.411 1.723 5.607
1.995 1.761 4.930
1.678 1.939 4.786
1.438 1.747 5.271
1.262 1.834 5.518
1.115 1.631 5.720
1.374 1.796 4.658
1.311 1.861 4.840
1.076 1.782 5.171
0.811 1.792 5.352
1.197 2.043 4.586
0.965 1.909 4.761
0.786 1.904 4.960
0.634 1.871 5.153
2.550 2.175 2.976
0.877 1.725 4.667
0.775 1.544 4.865
0.661 1.542 5.136
2.578 1.887 2.730
2.343 1.997 2.612
2.113 2.032 2.342
1.814 2.027 2.311
4.371 1.323 5.000
4.233 1.441 5.305
4.055 1.429 5.580
3.736 1.211 5.715
4.089 1.446 4.765
3.842 1.325 5.118
3.823 1.307 5.291
3.418 1.382 5.652
2.950 1.458 5.710
3.865 1.391 4.677
3.622 1.454 4.961
3.576 1.482 5.196
3.229 1.268 5.459
3.087 1.287 5.734
2.716 1.296 5.446
2.735 1.387 5.707
3.487 1.533 4.800
3.349 1.555 4.994
2.909 1.500 5.253
2.927 1.398 5.445
2.454 1.310 5.154
2.346 1.511 5.414
2.065 1.342 5.727
2.919 1.505 4.799
2.895 1.598 4.984
2.459 1.413 5.170
2.373 1.581 5.125
2.270 1.318 5.350
1.943 1.411 5.580
1.847 1.276 5.605
2.594 1.505 4.851
2.217 1.395 5.100
2.206 1.610 4.889
1.841 1.583 5.146
1.591 1.485 5.218
1.558 1.477 5.505
1.265 1.431 5.756
2.198 1.637 4.900
1.582 1.624 4.858
1.342 1.381 5.049
1.182 1.424 5.393
1.000 1.426 5.569
1.469 1.527 4.544
1.161 1.581 4.872
0.928 1.530 5.075
0.834 1.473 5.468
1.061 1.647 4.652
0.844 1.445 4.806
0.598 1.474 5.248
2.545 1.910 2.730
2.324 1.519 2.439
2.179 1.592 2.839
2.002 1.768 2.435
1.883 1.732 2.631
1.883 1.794 2.175
1.735 1.591 2.482
1.738 1.908 2.002
4.667 1.015 4.692
4.374 1.102 5.042
4.160 0.935 5.197
4.054 1.103 5.513
4.223 1.112 4.594
4.068 1.166 4.813
3.787 1.016 4.988
3.620 1.015 5.349
3.382 0.976 5.578
2.944 0.910 5.642
3.961 1.335 4.304
3.927 1.074 4.540
3.752 1.192 4.829
3.441 1.120 5.134
3.199 0.990 5.239
2.937 1.026 5.447
2.837 0.999 5.454
2.523 1.048 5.636
3.589 1.207 4.378
3.542 1.158 4.617
3.110 1.110 4.855
3.008 1.183 5.037
2.824 0.996 5.372
2.489 1.251 5.037
2.298 1.103 5.319
2.209 0.992 5.750
2.961 1.313 4.771
2.885 1.131 5.013
2.452 1.083 5.090
2.322 1.156 4.940
2.063 1.181 5.228
1.858 1.042 5.436
1.643 0.962 5.726
1.519 1.001 6.004
2.552 1.237 4.807
2.396 1.286 4.911
2.056 1.120 4.816
1.827 1.182 4.942
1.720 1.043 5.311
1.554 1.005 5.491
1.347 1.041 5.743
1.094 0.930 6.003
2.030 1.220 4.798
1.563 1.259 4.910
1.561 1.236 5.104
1.310 1.178 5.396
1.009 1.219 5.571
0.849 1.027 5.799
1.137 1.363 4.742
1.055 1.202 5.184
0.856 1.136 5.346
0.561 1.218 5.653
2.284 1.402 2.404
2.032 1.192 2.729
1.996 1.338 2.413
1.830 1.273 2.423
1.758 1.318 2.684
1.855 1.418 2.082
1.702 1.274 2.411
1.551 1.366 2.613
1.524 1.473 1.798
1.355 1.341 2.237
4.533 0.708 4.746
4.420 0.859 4.963
4.181 0.812 5.245
4.429 0.790 4.302
4.412 0.740 4.524
3.999 0.738 4.647
3.843 0.720 4.954
3.630 0.630 5.334
4.329 0.840 4.004
4.104 0.854 4.397
3.943 0.959 4.518
3.640 0.822 4.823
3.470 0.835 4.942
3.326 0.644 5.349
2.737 0.868 5.388
3.760 1.034 4.118
3.480 1.028 4.251
3.382 0.926 4.556
3.089 0.969 4.725
2.942 0.683 5.021
2.828 0.806 5.369
2.656 0.882 4.964
2.317 0.798 5.402
2.074 0.644 5.561
3.011 0.776 4.518
2.864 0.766 4.935
2.670 0.796 5.116
2.380 0.911 4.786
2.154 0.888 5.172
2.009 0.788 5.267
1.714 0.678 5.587
1.518 0.740 5.853
1.378 0.802 6.049
2.245 0.983 4.959
1.789 0.954 5.046
1.613 0.968 5.215
1.471 0.833 5.438
1.195 0.797 5.575
1.142 0.692 5.886
0.800 0.726 6.004
1.555 0.922 4.985
1.294 0.835 5.262
0.971 0.786 5.390
0.736 0.654 5.684
0.504 0.700 5.950
1.041 0.939 5.126
0.849 0.893 5.199
0.527 0.720 5.467
2.380 0.919 2.548
2.111 1.112 2.757
2.035 0.992 2.884
2.115 1.121 2.276
1.942 1.108 2.418
1.731 1.063 2.582
1.515 0.892 3.017
1.802 1.245 2.094
1.702 0.964 2.242
1.348 1.116 2.579
1.338 1.056 2.700
1.501 1.247 1.756
1.528 1.061 2.059
1.084 1.177 2.254
0.947 1.083 2.599
4.794 0.659 4.488
4.447 0.521 4.522
4.353 0.537 4.876
4.544 0.594 4.283
4.284 0.569 4.453
3.987 0.631 4.643
3.861 0.373 4.956
4.255 0.595 3.936
3.920 0.470 4.126
3.949 0.499 4.516
3.666 0.491 4.831
3.982 0.775 3.750
3.845 0.685 3.930
3.501 0.485 4.179
3.313 0.460 4.632
1.658 0.392 5.459
1.433 0.356 5.719
1.400 0.357 6.129
1.003 0.238 6.155
1.542 0.563 5.347
1.335 0.513 5.638
0.953 0.408 5.699
0.921 0.345 6.099
1.234 0.501 5.169
0.964 0.566 5.258
0.909 0.446 5.580
0.496 0.346 5.948
0.433 0.523 6.091
0.750 0.647 5.112
0.505 0.528 5.450
0.315 0.383 5.535
2.236 0.717 2.717
1.780 0.533 2.944
1.674 0.606 3.026
2.183 0.730 2.238
1.829 0.639 2.467
1.770 0.774 2.655
1.442 0.694 2.827
1.289 0.686 3.015
1.934 0.941 1.950
1.545 0.841 2.327
1.342 0.843 2.477
1.274 0.811 2.805
1.021 0.743 2.952
0.840 0.656 3.222
0.396 0.646 3.189
1.303 0.799 2.082
1.067 0.782 2.276
1.007 0.886 2.520
0.739 0.643 2.648
0.529 0.581 3.058
0.462 0.647 3.234
0.089 0.812 2.934
0.548 0.880 2.552
0.445 0.689 2.781
0.113 0.656 3.043
4.608 0.157 4.226
4.525 0.312 4.642
4.523 0.248 4.190
4.375 0.151 4.422
4.056 0.097 4.622
4.121 0.310 3.914
4.152 0.232 4.300
3.694 0.342 4.341
4.041 0.283 3.663
3.687 0.229 4.004
1.347 0.156 5.945
1.192 0.097 6.088
1.353 0.042 5.553
1.097 0.095 5.743
0.721 0.100 6.027
0.666 0.072 6.337
0.918 0.151 5.427
0.776 0.048 5.547
0.524 0.149 5.774
0.381 0.089 5.920
0.245 0.101 6.243
0.623 0.095 5.306
0.349 0.206 5.624
0.031 0.168 5.791
2.050 0.409 2.670
1.769 0.361 2.759
1.593 0.324 3.110
1.512 0.385 3.303
1.898 0.390 2.445
1.665 0.387 2.607
1.485 0.382 2.877
1.167 0.315 3.057
1.100 0.277 3.250
0.585 0.402 3.334
1.707 0.596 2.100
1.492 0.567 2.462
1.285 0.437 2.510
1.098 0.322 2.854
0.800 0.252 3.176
0.558 0.314 3.441
0.277 0.225 3.057
0.062 0.243 3.469
1.160 0.514 2.206
1.018 0.330 2.397
0.873 0.473 2.717
0.501 0.314 2.816
0.431 0.468 3.002
0.174 0.348 2.956
0.563 0.370 2.359
0.439 0.422 2.771
-0.001 0.391 2.936
0.210 0.443 2.523
4.278 0.073 3.865
3.935 -0.045 3.691
1.978 0.057 2.664
1.721 0.044 2.546
1.359 -0.081 2.802
1.246 0.005 3.000
1.304 0.191 2.390
1.140 0.109 2.529
0.878 -0.058 2.775
0.803 0.132 3.067
0.310 -0.054 3.044
1.036 0.094 2.366
0.658 0.129 2.654
0.480 0.060 2.963
0.352 0.060 3.122
0.100 0.208 2.767
0.516 0.271 2.474
0.208 0.181 2.715
0.002 -0.040 3.001
0.161 0.058 2.381
0.199 0.644 0.454
0.084 0.186 0.404
2.238 5.280 3.977
2.127 5.097 4.282
2.010 5.216 4.484
1.817 5.045 4.599
0.154 4.806 5.997
1.794 5.177 3.917
1.754 5.276 4.169
0.866 5.679 1.838
0.561 5.771 1.768
0.379 5.670 1.472
3.197 4.691 6.281
3.226 4.745 6.270
3.031 4.683 6.102
2.862 4.736 6.005
2.774 4.722 5.926
2.576 4.902 6.046
2.835 4.824 5.651
2.807 4.860 5.832
2.563 4.862 5.599
2.917 4.894 5.120
2.607 4.877 5.452
2.457 4.905 5.684
2.176 4.856 5.520
2.847 5.090 4.696
2.687 4.895 4.975
2.547 4.914 5.277
2.322 5.042 5.380
2.821 5.096 4.424
2.680 5.065 4.660
2.330 4.948 4.725
2.114 5.072 4.985
2.674 5.250 4.108
2.508 5.005 4.339
2.085 4.990 4.659
1.997 5.028 4.736
2.434 5.232 3.859
2.167 5.103 4.121
1.916 5.180 4.436
1.646 5.197 4.697
0.364 4.465 6.270
2.369 4.858 3.969
2.006 4.936 4.152
1.945 4.935 4.379
0.158 4.488 6.033
1.025 5.416 1.992
0.820 5.509 1.927
0.489 5.381 1.735
0.421 5.567 1.455
3.073 4.292 6.325
3.242 4.405 6.203
2.847 4.346 5.969
2.828 4.490 6.366
3.053 4.395 5.707
2.952 4.418 6.114
2.710 4.474 5.845
2.390 4.425 6.001
3.229 4.687 5.370
2.944 4.550 5.605
2.624 4.462 5.890
2.544 4.677 5.495
2.392 4.436 5.866
3.136 4.599 4.912
2.816 4.580 5.076
2.786 4.558 5.307
2.515 4.570 5.670
2.203 4.669 5.325
3.073 4.788 4.517
2.749 4.638 4.754
2.562 4.603 4.831
2.323 4.648 5.276
2.354 4.687 5.432
2.883 4.771 4.224
2.681 4.671 4.603
2.529 4.688 4.777
2.140 4.802 4.922
2.509 4.970 4.168
2.493 4.834 4.373
2.088 4.792 4.451
2.092 4.779 4.874
0.186 4.509 6.161
2.462 4.871 3.771
2.228 4.871 4.240
1.998 4.918 4.281
0.335 4.298 5.770
-0.011 4.255 5.938
0.082 4.452 5.568
1.233 5.025 2.037
1.069 5.067 2.058
0.846 5.002 2.241
0.941 5.048 1.797
0.571 5.079 1.873
0.609 5.033 1.496
0.362 5.068 1.729
3.285 4.090 6.126
3.062 4.052 6.159
2.887 4.191 5.872
2.750 4.210 6.311
3.240 4.295 5.819
2.897 4.188 5.888
2.682 4.194 5.628
2.585 4.217 6.116
2.201 4.016 6.310
3.187 4.205 5.216
2.812 4.135 5.522
2.819 4.209 5.846
2.565 4.364 5.632
2.178 4.275 5.711
3.206 4.437 4.691
3.163 4.415 4.810
2.868 4.329 5.032
2.699 4.212 5.346
2.565 4.273 5.582
2.287 4.275 5.437
3.363 4.406 4.095
2.953 4.542 4.532
2.769 4.328 4.770
2.516 4.295 4.962
2.400 4.386 4.998
2.259 4.182 5.474
3.050 4.512 4.007
2.888 4.485 4.268
2.595 4.423 4.380
2.408 4.304 4.637
2.229 4.319 4.802
2.721 4.580 3.851
2.547 4.500 4.113
2.378 4.576 4.305
2.232 4.482 4.579
0.232 3.942 5.741
0.026 4.073 5.949
0.199 4.189 5.247
0.043 4.119 5.498
1.187 4.772 1.986
1.150 4.629 2.284
1.101 4.719 1.833
0.716 4.766 2.188
0.537 4.599 2.340
0.740 4.750 1.622
0.594 4.734 2.036
0.368 4.676 2.074
0.473 4.745 1.516
0.278 4.883 1.766
2.967 3.967 5.835
2.752 3.914 6.095
2.987 3.831 5.894
2.785 4.025 5.584
2.560 3.763 5.813
2.174 3.844 6.264
3.026 4.075 5.258
3.012 4.030 5.446
2.815 3.809 5.787
2.456 3.993 5.592
3.523 4.025 4.267
3.170 4.111 4.549
2.966 4.163 4.828
2.745 3.908 4.963
2.747 3.985 5.165
2.570 4.002 5.381
3.384 4.289 3.879
3.141 4.272 4.162
3.036 4.067 4.395
2.838 4.110 4.531
2.621 3.984 4.696
2.501 4.061 4.992
3.067 4.248 3.684
3.025 4.351 3.994
2.908 4.315 4.078
2.660 4.262 4.408
2.451 4.202 4.704
2.786 4.314 3.641
2.548 4.154 3.960
2.327 4.082 4.079
0.357 3.833 5.379
0.272 3.606 5.726
-0.050 3.559 5.866
0.382 3.797 5.054
0.176 3.657 5.221
0.190 3.932 4.893
1.225 4.330 2.008
1.006 4.395 2.294
0.848 4.226 2.554
0.626 4.216 2.719
1.128 4.490 1.899
0.881 4.376 1.967
0.672 4.416 2.298
0.349 4.308 2.525
0.780 4.451 1.521
0.470 4.522 1.774
0.455 4.431 2.123
0.128 4.377 2.467
0.578 4.600 1.467
0.315 4.487 1.793
0.070 4.373 1.971
3.758 3.920 3.971
3.449 3.743 4.377
3.345 3.888 4.363
2.963 3.752 4.637
3.347 3.822 3.859
3.301 3.994 3.993
2.914 3.789 4.235
2.847 3.809 4.616
3.057 3.922 3.580
3.088 3.835 3.826
2.717 3.772 4.160
2.442 3.944 4.252
2.812 3.901 3.318
2.787 3.937 3.756
2.463 3.916 3.868
0.743 6.337 0.731
0.656 6.267 0.856
0.348 6.213 1.075
0.325 6.255 0.661
0.082 6.247 0.916
0.032 6.196 1.340
0.069 1.262 0.197
0.080 0.996 0.194
0.012 0.617 0.050
0.483 5.917 0.833
0.393 5.829 0.995
