29.875765 58.161045 24.632479
32.661766 49.496048 31.440477
32.278767 51.317047 32.96948
4.7987633 42.990036 39.991478
2.8837624 42.043045 41.12248
2.0367622 35.256042 49.658478
3.3887634 34.862045 51.221478
16.467766 1.1880417 6.972479
18.184765 1.3950424 8.521479
27.039764 0.84804535 11.074479
27.030766 2.6500473 12.559479
33.711765 109.13204 42.880478
32.462765 107.52204 42.562477
33.101765 99.58904 40.93948
33.867767 101.264046 39.85048
15.361765 69.24104 4.809476
14.614765 68.12105 3.0044785
18.739765 77.766045 62.771477
18.873766 76.809044 60.013477
22.325766 39.819046 43.250477
24.598764 39.780045 42.74648
24.102764 50.67404 35.48748
23.914764 52.78305 36.74748
14.683764 1.1790466 12.321479
16.465765 2.0770416 13.5564785
19.605764 6.6500397 20.710478
19.749765 8.505035 22.500479
39.132763 48.920048 24.882479
39.388763 50.928047 23.885477
28.683765 52.505047 20.321478
27.413765 52.388046 21.927479
9.4597645 100.781044 36.70648
8.540765 98.57905 35.98148
5.729765 90.88004 32.01148
5.157765 88.53204 31.982477
0.8597641 107.15904 42.881477
52.346764 105.474045 42.186478
47.912766 104.654045 51.81648
48.905766 102.56405 52.340477
15.527764 103.10805 54.26148
16.745766 104.10404 52.098476
14.312765 114.96505 48.78948
14.057765 114.96605 46.749477
42.817764 115.864044 16.459478
44.023766 113.74705 17.380478
47.771763 116.572044 26.123478
48.287766 115.80005 28.223478
48.746765 3.3220444 28.496477
50.798763 4.406044 27.192478
52.109764 12.427048 31.966478
51.066765 14.210037 32.82948
4.0947647 77.61504 25.020477
2.2797623 76.08205 25.337479
51.500763 83.68604 18.664478
51.844765 85.74905 19.389479
24.046764 113.46405 58.793476
21.619764 113.016045 59.001476
14.637765 118.27605 58.862476
13.634765 117.77305 56.825478
43.192764 49.721046 7.596479
43.182766 49.496048 10.152478
31.829765 49.250046 9.856479
31.807764 48.348045 7.947479
15.411765 86.336044 24.062477
14.424765 85.58804 22.171478
18.721766 73.80105 24.572477
16.694765 74.17905 25.144478
29.066765 71.197044 32.31048
28.821764 68.70405 33.86348
26.266766 61.568047 35.214478
24.431765 62.476048 35.18848
20.752766 48.915047 49.367477
19.862764 50.748047 47.881477
25.096766 58.661045 47.94948
25.949764 59.520046 46.71248
51.901764 71.03505 37.716476
50.622765 72.334045 39.485477
46.104763 76.708046 36.402477
46.556767 78.43905 34.98248
19.434765 20.156036 33.319477
19.208765 18.905045 35.60048
11.891765 27.52504 35.32048
13.222765 29.117035 35.92848
32.925766 55.743046 9.113479
34.195766 56.347046 10.799479
40.788765 55.407047 18.288479
41.612766 53.79405 19.892479
1.0757637 14.654037 7.962476
1.8757629 16.891037 7.470479
49.051765 24.034042 63.424477
48.341766 23.210037 61.512478
23.267765 40.474045 0.25347883
24.368765 42.160034 1.4424788
32.762764 40.349045 7.122479
33.189766 42.183044 8.202478
41.818764 26.140045 30.355478
40.613766 26.49704 31.748478
31.150764 20.318039 27.476479
29.049765 21.785034 27.811478
6.736763 79.95104 54.319477
4.2567635 80.09505 54.215477
48.617764 76.88605 58.06048
49.154766 74.88004 58.35148
15.187765 28.920044 31.381477
15.532764 26.603043 31.687477
17.368765 23.66504 24.841478
16.684765 26.13504 24.792479
19.217766 61.501045 42.570477
20.100765 61.58605 44.769478
26.376764 70.63004 42.64848
25.908764 70.84105 40.35748
9.040765 102.236046 41.674477
7.557765 101.14905 43.651478
15.515764 93.39404 48.04648
17.627766 93.35204 47.270477
28.337765 65.50604 3.1974792
26.716764 66.07605 1.8434753
19.615765 70.62904 7.2404757
17.984766 71.085045 8.793477
26.074764 30.433044 62.27548
24.648766 29.524033 0.29747772
24.438765 33.56404 8.000478
23.090765 33.23604 9.70448
52.353764 52.699047 54.15048
1.8677635 53.687046 53.339478
0.9927635 56.518047 1.1494751
1.9147644 59.090046 0.4294815
16.077765 71.15005 22.882479
15.786765 73.32705 22.675478
13.394765 74.72604 15.730479
15.321765 74.541046 16.934479
33.347767 82.99705 10.076479
32.987766 84.347046 12.698479
40.494766 78.903046 15.212479
39.394764 78.49104 13.425479
6.9427648 99.24304 20.21148
7.340765 98.363045 22.217478
3.405765 89.95405 25.437477
3.506765 91.26105 26.895477
14.071765 7.3990326 0.26747876
15.296764 9.06604 1.0514787
15.550765 14.831039 10.633479
13.626764 15.600037 8.487479
0.10676193 14.493042 15.617479
51.757763 15.142044 17.48948
4.1267624 22.79004 20.106478
5.795765 22.289047 19.11748
33.053764 98.778046 57.734478
32.915764 99.516045 55.832478
43.432766 96.10805 51.470478
43.548763 95.03805 53.35048
1.9507637 94.78404 40.688477
0.31176376 96.183044 40.681477
46.147766 99.67705 50.62948
45.782764 97.77305 51.84348
6.732765 6.938034 59.152477
5.0087624 6.2260437 58.62048
49.941765 9.189041 61.306477
49.140766 11.590042 60.645477
20.388765 27.53804 55.07848
19.204765 25.475037 55.554478
15.613765 26.337036 1.9184799
16.854765 27.66504 2.942482
17.264765 14.959045 50.03748
19.160765 16.636047 49.82148
23.147764 21.613037 46.763477
22.399765 23.439041 47.758476
50.422764 103.93905 22.268478
52.519764 102.83704 21.328478
45.517765 103.640045 11.153479
44.997765 101.54604 9.976479
12.689765 30.509033 42.463478
13.293765 31.730042 44.992477
23.163765 37.38704 42.79448
25.086765 35.84604 42.80348
45.079765 51.664047 11.612478
44.552765 53.194046 10.426478
1.2157631 61.098045 10.981479
1.210762 63.489044 10.852479
24.799765 45.644043 45.19848
26.457766 47.129044 45.598476
32.155766 42.615036 38.380478
30.391766 42.86104 36.507477
20.249765 90.781044 46.64148
18.068766 90.836044 47.674477
10.651765 86.791046 40.32248
8.589765 86.67905 41.262478
8.443765 103.29604 30.083477
7.9447646 105.266045 30.088478
6.610765 113.97805 34.52248
7.606765 113.13005 36.563477
52.530766 98.36504 0.38547516
0.8297653 100.51305 0.8344803
4.8677635 110.27205 63.777477
6.1647644 110.08804 61.58648
5.0967636 77.28404 53.264477
5.982765 75.986046 54.785477
51.288765 68.822044 55.708477
51.102764 66.973045 54.867477
20.896765 112.809044 17.81548
21.677765 114.62205 19.125479
15.212765 118.26804 25.892477
15.232764 120.32404 26.981478
18.073765 45.24504 33.78248
18.716764 44.798035 36.165478
9.322764 41.66304 42.124477
8.131764 40.476044 40.409477
0.98676515 86.88505 21.454477
1.3287652 88.04005 19.330479
12.453765 90.210045 15.918479
13.450765 90.83904 17.77748
10.465765 104.74404 48.50348
8.358765 105.694046 49.591476
14.726765 112.65805 54.729477
15.654765 112.21905 57.089478
48.211765 30.348038 42.681477
50.311764 29.644043 41.306477
44.162766 29.562042 30.583477
42.247765 28.972046 31.702478
37.192764 74.364044 28.427479
37.603764 72.72604 29.679478
46.066765 66.031044 25.321478
45.954765 63.365047 25.725477
49.642765 113.92505 31.022478
49.833763 113.42104 28.875479
6.663765 112.66105 26.441479
7.628765 112.891045 28.225477
17.568766 45.656036 45.02448
16.742765 45.076035 43.03148
10.510765 36.349045 42.605476
8.987764 36.12404 39.980476
17.443766 23.809036 16.330479
15.783765 22.213043 15.886478
11.672765 19.943039 24.958477
10.594765 17.957047 24.744478
38.968765 34.313034 45.668476
41.031765 35.589035 46.08748
35.396767 34.815033 56.21848
34.193768 37.076035 56.12948
9.364765 76.57805 15.196479
8.641765 78.73305 15.160479
11.522765 84.94005 21.732477
12.062765 87.98405 22.018478
23.140764 73.86805 39.897476
23.627766 73.030045 41.930477
28.700766 83.71404 41.97448
30.837765 84.03204 41.041477
6.8977623 103.23305 27.642477
5.460762 101.81304 28.961477
47.983765 104.62105 26.515478
47.520763 103.114044 24.877478
11.256763 18.455048 55.597477
9.738762 19.883041 57.03848
0.1777649 12.6020355 60.49748
51.134766 13.698044 59.83048
1.0337639 119.111046 7.353479
2.762764 118.76005 8.071479
52.090763 117.168045 19.240479
50.788765 115.37904 19.728477
1.5357628 105.69205 24.507479
2.0667648 104.349045 22.418478
46.706764 114.055046 19.42348
46.480766 113.364044 21.566479
36.592766 103.69005 43.28248
37.180767 103.01904 40.95348
49.342766 102.460045 39.839478
50.104763 101.27104 37.97648
10.625765 96.239044 57.444477
10.603765 94.724045 56.109478
8.097765 101.208046 50.10148
7.7457647 102.30305 48.256477
31.623764 85.27605 10.271479
33.049767 85.042046 8.678478
29.196764 94.055046 10.850479
29.020765 96.57905 10.7804785
50.473766 53.320045 50.887478
0.063762665 52.612045 51.172478
6.3817635 61.110046 46.92848
6.352764 62.491047 48.521477
13.996765 110.320045 18.760479
14.997765 111.74405 16.765478
8.572764 118.35605 12.985479
9.887765 120.044044 13.549479
26.537766 16.45604 3.8014755
26.747765 16.115036 1.4854813
27.354765 25.37204 61.20348
27.972765 25.071045 58.36448
47.212765 37.653046 50.777477
48.970764 38.750046 50.923477
44.125763 47.455048 46.347477
46.200764 48.665047 47.347477
15.276765 47.284046 45.290478
15.784764 45.525047 47.08048
5.793765 47.649048 46.35848
6.095765 48.453045 44.520477
15.220765 30.156036 34.32048
16.652765 29.62004 35.964478
23.677765 32.478043 44.235477
21.441765 32.136047 44.557476
9.889765 21.931046 37.793476
8.492764 20.916046 39.29448
16.646765 15.119034 43.12748
18.413765 13.804047 42.084476
52.037766 38.030045 20.885477
0.0017623901 37.645035 18.230478
46.861763 36.34204 23.362478
47.724766 35.317047 24.945478
1.9077644 26.783035 -0.65852135
52.350765 27.333038 -0.091521434
49.242764 24.435043 10.423479
47.475765 23.244034 11.101479
20.929766 113.529045 2.9474792
18.560764 113.85405 4.1254807
16.468765 120.793045 58.73248
16.892765 120.06505 56.87148
3.498764 76.99104 1.7874756
4.585762 75.11604 1.9744797
51.365765 70.92405 57.610477
49.465763 70.683044 56.21948
8.009765 112.01804 61.068478
9.212765 113.52405 59.839478
17.289764 102.79005 58.89248
16.587765 102.88104 56.714478
21.068766 114.169044 12.401479
21.123766 115.15105 14.245479
18.076765 0.23104095 19.597479
17.231766 2.3060455 20.354479
34.913765 122.18605 39.35848
36.590767 120.863045 40.248478
36.960766 111.63505 39.783478
35.208767 110.81305 41.258476
38.489765 57.65505 33.24548
39.130764 58.499046 31.078478
31.612764 56.448048 33.665478
31.375765 54.397045 34.66248
4.646763 116.08804 37.659477
3.019764 116.83105 36.617477
46.626766 117.54905 36.758476
44.410767 117.265045 35.57148
29.409765 29.744034 18.330479
27.710764 31.162033 18.202478
18.405766 29.308044 21.592478
18.957766 29.516037 23.972479
47.864765 41.822037 14.212479
47.738766 43.224045 12.570478
47.640766 39.468033 21.584478
49.981766 39.014038 22.577478
7.793762 55.163048 8.264479
7.9877625 54.231045 10.496479
48.570766 50.819046 14.039479
48.274765 52.865047 14.962479
1.100765 13.791046 36.507477
0.78176475 13.368042 34.42048
11.232765 10.677048 34.87248
10.969765 9.327042 36.505478
2.7457619 7.319046 51.457478
1.2157631 8.06604 50.257477
45.349766 13.751038 48.320477
44.023766 13.197037 49.59948
40.272766 111.281044 0.79447937
38.198765 109.694046 1.3124771
32.166767 109.33704 57.014477
32.818768 109.71404 55.17648
34.068768 71.26205 3.9194787
33.175766 72.89705 5.261479
45.724766 72.58704 6.847479
45.755764 71.805046 4.360479
12.139765 81.349045 5.0584764
12.164765 83.015045 3.4314804
2.948765 83.39504 59.901478
2.183765 85.38705 61.08048
3.6917648 111.086044 12.288479
1.4847641 110.515045 12.043479
47.552765 120.361046 12.344479
46.931767 121.09005 14.216479
17.885765 1.3900452 22.897478
18.373766 3.8270416 22.943478
20.385765 10.850037 30.418478
21.445765 12.992035 29.902477
21.926765 95.19305 13.5234785
20.340765 94.46905 13.164479
16.432766 99.36005 23.645477
14.640764 98.017044 23.796478
46.813766 114.862045 51.16448
45.811764 113.27605 50.08548
49.586765 107.958046 41.380478
51.425766 108.88705 42.70448
8.431765 54.080048 47.28948
9.761765 52.368046 49.632477
4.1007648 49.571045 60.021477
1.905765 49.548046 59.839478
45.373764 35.70604 49.984478
47.220764 34.774033 51.133476
43.060764 25.59404 46.971478
41.729763 24.240036 48.778477
2.1867638 36.654037 22.121477
0.9847641 37.77304 23.439478
47.027763 38.931046 27.863478
45.729763 40.48404 27.914478
23.687765 99.34305 20.710478
22.997765 101.42605 20.302479
14.575765 107.291046 14.025479
15.098764 109.35705 14.821479
22.314764 83.79704 24.948479
22.593765 85.53705 26.514479
26.935764 83.85304 18.436478
27.333765 81.52705 17.832478
5.100765 19.99704 20.858479
3.0807648 19.811035 22.265478
47.342766 21.350037 26.559479
49.270763 20.711044 27.901478
25.631765 103.49404 17.950478
25.151764 101.53204 18.562479
31.274765 92.95204 17.151478
29.456764 91.54904 17.891478
22.534765 41.02504 33.534477
23.266766 38.586044 32.58548
25.396765 37.406036 40.333477
23.370764 38.48604 39.911476
10.145765 48.18804 15.286479
10.530765 49.17504 12.599479
18.790766 42.45204 7.6584787
19.044765 42.95204 5.452479
28.197765 75.20205 38.96848
26.569765 76.864044 38.804478
26.187765 72.307045 31.902477
26.816765 71.042046 30.577478
25.482765 18.106033 37.054478
26.131765 18.174042 39.838478
34.685764 23.132034 34.92548
33.318768 23.948044 37.040478
21.796764 52.430046 15.606479
19.790766 53.817047 16.314478
16.202765 60.972046 10.379478
14.600764 59.029045 10.659478
33.113766 102.35605 52.28848
35.034767 102.23004 51.840477
39.889763 107.376045 50.619476
42.189766 107.81204 50.91348
19.188765 87.114044 48.71748
17.920765 85.70505 49.22548
9.052765 83.42805 53.542477
7.408765 82.37305 54.033478
21.310764 100.948044 47.804478
21.181765 98.56204 47.341476
30.596766 99.05405 53.894478
32.300766 98.48004 52.486477
1.3707619 111.03505 15.228478
0.45976257 112.04805 16.831478
49.527763 113.31105 23.624477
48.318764 112.76305 25.596478
15.210765 73.180046 13.5894785
16.587765 75.09505 13.595479
25.886765 73.50504 17.648478
26.617765 71.74905 17.309479
38.797764 1.5360413 61.862476
37.070766 1.6240463 63.222477
31.316765 5.1910477 55.283478
32.179764 6.341034 53.83548
35.005764 102.473045 37.681477
35.483765 104.417046 38.88448
45.976765 108.80405 37.529476
47.404766 107.40105 37.56048
48.570766 87.48405 54.03748
50.458763 88.39704 53.765476
51.515766 97.74204 61.722477
49.506763 98.28304 60.98248
51.154766 122.18504 52.28148
48.997765 121.02005 51.338478
4.6437645 115.01205 46.28848
4.4547653 117.07505 45.319477
44.244766 65.12904 40.31448
44.836765 64.62005 42.72648
37.724766 65.017044 51.279476
35.534767 65.96705 50.151478
19.890764 29.404037 61.826477
19.295765 31.196045 61.029476
16.333765 37.655045 57.985477
18.242765 38.19104 59.758476
9.786765 46.832047 20.377478
12.305765 46.998047 19.090479
14.150764 47.531048 31.260477
16.355764 47.603046 30.631477
13.587765 44.761047 32.60548
14.854765 42.927048 32.07048
13.312765 32.112045 29.914478
13.982764 31.036041 28.423477
35.641766 3.8510437 52.376476
35.218765 5.104042 50.33548
40.411766 13.891037 50.13448
41.709766 12.555038 48.31448
24.647764 43.116043 27.112478
23.995764 41.43004 25.776478
18.513765 35.537033 27.524477
19.941765 34.382034 25.627478
39.800766 53.297047 0.7974777
37.462765 52.361046 0.91347504
33.369766 63.228046 63.50248
35.328766 64.49605 0.2664795
21.342766 102.21204 9.706479
19.139765 101.90005 9.613479
12.062765 93.43504 14.837479
12.270765 91.19305 13.572479
37.682766 30.24704 32.05948
39.914764 29.406036 33.19048
46.825764 35.79004 39.770477
48.289764 35.388046 41.07248
33.314766 63.691048 48.38548
34.093765 62.291046 47.630478
38.688766 60.146046 38.028477
41.059765 60.644047 39.320477
15.563765 4.1070404 37.269478
17.996765 4.609047 36.985477
26.288765 11.129044 40.425476
26.740765 12.408035 42.130478
7.149765 56.14805 36.23648
7.946765 53.909046 36.99548
5.986765 42.749046 33.61848
4.5877647 42.029045 35.87648
18.488766 95.906044 62.58648
18.499765 93.24104 62.51748
23.415764 95.570045 8.659474
25.544765 95.53605 9.369481
48.936764 98.168045 42.124477
50.367764 97.03605 40.220478
45.733765 99.39604 35.69648
43.682766 99.32504 34.73948
11.113765 75.62105 22.649477
10.124765 76.222046 19.977478
4.402765 84.10805 22.852478
2.6817648 84.614044 21.297478
27.395765 52.19005 33.38948
26.382765 49.990044 34.33748
31.969765 42.345047 34.42848
32.218765 40.05504 33.54348
15.507765 33.802048 23.956478
16.638765 34.343033 21.672478
15.914764 37.130035 11.401479
16.129765 39.02704 12.578479
31.993765 74.305046 23.206478
33.871765 75.278046 24.295479
24.606764 81.73305 23.941479
24.258764 82.82704 22.235477
2.906765 10.050034 49.19048
2.3077621 12.264038 48.098476
8.255764 8.295044 48.674477
6.644764 6.8710327 49.293476
3.535765 64.20405 19.82948
5.955765 63.672047 21.291477
7.328765 54.063046 22.500479
9.366765 52.729046 21.789478
16.307766 39.052048 9.590479
16.861765 40.506042 8.258479
16.597765 29.754044 4.5754786
17.413765 30.786041 6.802479
12.308765 54.09205 57.293476
11.773765 51.583046 58.04648
15.298765 49.16905 47.519478
17.477766 49.992046 46.818478
4.8277626 47.91204 23.902477
3.866764 50.019043 25.550478
6.444763 41.168045 28.759478
4.092762 41.96904 28.826477
46.328766 76.530045 29.812477
45.681767 76.88805 31.870478
40.161766 70.058044 38.40748
38.062763 69.86905 37.41348
2.0487633 76.889046 44.550476
0.5757637 78.31104 45.77348
43.112766 75.88004 45.971478
41.576763 77.67905 45.223476
25.481764 1.6330414 1.4844818
24.722765 0.8770447 63.86548
28.565765 5.3630447 56.084476
28.293764 6.21904 53.609478
32.726765 106.90005 8.441479
34.374767 107.113045 10.558478
40.194763 108.17404 2.1984787
41.786766 107.96805 4.025479
51.138763 50.211044 53.637478
0.47876358 49.14804 54.85848
1.4697647 41.139038 51.32448
52.028763 39.98204 51.202477
20.763765 42.813034 1.451477
19.818766 41.933044 3.0374756
9.292765 46.333046 61.99748
8.376765 45.239044 0.2514801
12.020765 112.49105 16.38848
12.5187645 110.72604 15.409479
15.283765 103.30305 9.157478
16.789764 104.03705 9.626478
25.446764 53.872047 33.665478
26.291765 55.685047 34.360477
28.559765 60.206047 27.382479
28.206764 61.109047 24.645477
50.147766 57.893047 57.813477
51.426765 57.608047 55.94948
5.975765 58.33605 63.839478
7.9077644 59.203045 0.21447754
8.040764 84.05005 35.10748
6.5027657 85.89404 34.686478
49.683765 79.14604 29.263477
47.767765 78.97105 29.686478
38.814766 9.586044 15.768479
38.637764 7.516037 16.694479
35.294765 10.151047 26.715477
36.863766 9.407043 28.396479
28.323765 75.58904 18.389479
30.423765 76.015045 17.414478
29.114765 83.87105 9.488479
28.366764 86.34505 9.208479
34.200768 27.110046 51.37948
33.278767 25.311035 51.444477
32.589767 23.999039 39.868477
31.860765 21.935043 39.04648
20.036766 54.208046 26.482477
19.702765 53.219048 24.804478
26.866764 46.612045 26.636478
27.442764 46.347046 24.767477
13.344765 80.46604 58.78948
14.564765 82.49605 57.95648
9.937765 89.49605 63.603477
11.752765 91.154045 63.604477
45.083763 53.362045 16.337479
45.932766 55.235046 15.820478
0.13576508 62.354046 15.938478
2.5327644 62.909046 15.492479
14.949764 2.656044 10.007479
13.914764 3.9600449 11.054479
6.642765 8.522034 3.5524788
7.289765 9.948044 1.9814788
18.912766 27.794037 36.36848
17.528765 26.562042 34.805477
11.092765 22.490036 40.42848
11.496765 25.146042 40.797478
14.417765 48.771046 13.643479
12.266765 50.371048 14.381479
18.512766 55.988045 9.561479
18.638765 58.158047 8.495479
12.020765 96.70605 17.014479
11.324765 98.042046 18.460478
15.2097645 89.30105 22.870478
17.209764 90.89805 23.104479
14.618765 95.112045 60.027477
13.699764 94.63004 61.312477
2.185765 89.21204 58.22648
2.509765 87.13505 56.60848
20.368765 23.205048 53.93348
19.775764 22.307037 52.174477
15.429765 17.958038 46.588478
15.849765 17.030045 44.882477
10.6437645 101.45505 28.522478
9.033765 101.698044 26.439478
11.604765 112.50705 21.930477
13.095765 113.35505 22.930477
18.298765 12.848038 31.325478
17.357765 14.528046 32.463478
19.289764 22.28804 30.613478
18.244764 23.522034 32.63648
51.758766 43.319046 8.060475
50.565765 43.055046 5.9554796
48.329765 48.18305 60.491478
50.549767 47.862045 59.258476
13.880765 22.87004 10.454478
15.020764 24.680038 11.613479
23.847765 28.379044 5.447479
24.430765 28.878036 3.4684787
40.051765 94.25404 48.791477
41.875763 93.89905 49.491478
33.267765 93.80405 52.06748
31.063765 93.93704 52.43548
47.026764 87.36804 26.056479
48.821766 88.18704 26.103477
43.840763 83.27405 26.003477
44.082764 84.92304 24.825478
48.284763 92.126045 25.906479
46.897766 92.39604 23.773478
42.462765 100.31705 30.941479
42.519764 102.849045 30.980478
5.151765 73.461044 31.699478
4.880765 71.723045 30.180477
15.473764 70.180046 33.76548
13.885765 72.23305 33.77148
9.416763 94.112045 15.084479
8.733765 92.25704 14.425479
2.4197655 95.36904 24.547478
1.0757637 94.279045 25.978477
30.834764 8.096039 55.39148
29.459764 8.534042 53.34448
34.714767 17.436035 45.87248
36.531765 17.129044 47.223476
47.860764 48.353046 10.763478
45.484764 48.901047 11.434479
42.700764 53.337048 12.551479
43.148766 54.784046 14.512479
17.360765 79.46905 59.73248
19.046764 78.96204 58.588478
20.557766 90.53605 56.86448
23.136765 90.28705 56.977478
31.817764 35.703033 19.577478
33.370766 34.914047 17.817478
42.266766 38.863037 9.683478
43.261765 40.46904 11.333479
24.346766 113.222046 41.87848
26.344765 113.65205 41.459476
28.508764 2.3460464 39.167477
30.661764 3.0230408 38.562477
10.967762 107.31405 40.869476
8.837765 106.02104 41.82348
50.763763 106.92204 36.918476
50.251766 105.01904 37.64948
38.008766 3.2970428 45.055477
37.283764 3.4590454 47.166477
29.095764 5.6280365 42.42848
27.546764 6.965042 41.21148
39.182766 10.595047 23.791477
41.101765 12.323044 23.520477
47.904766 8.295044 32.28848
46.121765 7.116043 32.22948
9.831764 84.96805 3.7644806
8.126762 86.22904 4.878476
51.896763 91.03204 62.908478
51.471764 93.029045 62.17048
46.718765 73.167046 62.227478
44.603764 71.30205 61.652477
49.545765 60.488045 56.630478
48.242764 59.848045 57.91948
33.292767 119.430046 47.168476
35.269764 118.20505 47.256477
28.550764 109.306046 48.425476
29.313765 107.029045 49.195477
4.2877655 95.81505 46.21148
4.7987633 97.00905 48.362476
48.343765 99.62205 55.401478
49.248764 98.09505 57.01748
6.688765 103.15904 51.056477
8.564765 103.84405 51.556477
15.927765 110.47105 54.006477
17.812765 111.210045 55.67648
50.021763 63.760048 7.866479
51.206764 62.258045 6.552479
2.9157639 59.747047 12.980479
5.6697655 59.604046 13.585479
35.427765 53.51605 6.6344805
33.438766 54.689045 5.24648
35.658764 53.605045 58.790478
35.136765 55.998047 58.38648
43.075764 65.89404 17.966478
42.202766 64.35705 16.505478
40.734764 59.519047 19.44048
38.868763 58.571045 18.272478
8.351765 44.035034 3.0604787
8.2097645 44.377045 5.2864785
13.410765 40.52704 12.670479
13.372765 39.072037 13.526479
35.486767 115.94205 7.137479
36.944767 117.348045 8.0564785
44.667767 120.49505 13.083479
43.963764 119.26804 14.770479
30.044765 1.2020416 28.586477
29.818766 1.5620422 31.321478
18.340765 120.892044 27.028479
17.347765 121.81605 28.507479
12.124765 2.0720444 32.18848
12.486765 122.308044 32.659477
4.378765 117.18705 31.564478
5.718765 116.63705 29.833477
26.142765 95.14805 31.383478
27.044765 94.54804 29.699478
24.806765 101.39304 22.570478
23.189764 101.22704 24.075478
18.993765 68.70004 24.909477
21.642765 67.420044 24.992477
22.276764 62.015045 15.364479
21.512764 62.667046 13.418479
41.091766 55.041046 6.5354786
40.212765 57.100048 7.7174788
43.358765 65.223045 12.631479
41.866764 65.51904 13.957479
22.397764 5.017044 51.417477
23.541765 6.563034 50.78948
32.419765 121.834045 48.338478
34.442764 121.738045 48.852478
50.626766 5.7080383 2.6774788
52.175766 6.0520477 4.3584785
45.168766 14.447037 7.8644786
44.247765 16.021042 9.133479
19.987764 53.024048 58.366478
17.874765 53.81505 57.744476
11.261765 54.768047 50.28948
11.341765 54.144047 48.193478
7.8177648 18.960037 20.511478
9.180765 18.599045 18.92648
6.999765 29.917038 14.721478
5.248765 29.711044 16.273478
4.6387634 23.673035 6.0154786
2.8337631 23.35704 5.230479
3.6057625 14.543045 12.284478
3.9147644 15.16304 14.073479
43.741764 89.88605 4.005478
42.707764 91.68905 4.69048
52.191765 95.225044 0.22148132
0.48076248 93.50704 0.7024765
17.019766 118.85905 54.547478
18.773766 117.83905 54.088478
17.367765 116.16505 43.92748
16.722765 114.93504 45.76848
32.733765 34.05304 56.498478
32.111767 35.919037 57.65748
31.040764 29.46904 4.2824783
32.751766 28.981033 4.675481
31.934765 66.82705 47.48948
32.921764 66.085045 49.306477
34.109764 73.77505 58.82448
34.739765 72.17204 59.772476
35.312767 58.260048 34.92148
34.739765 59.897045 36.069477
37.228767 70.81004 32.109478
35.285767 72.40904 32.17848
31.076765 7.9590454 59.35648
31.290764 6.3000336 58.10648
40.356766 121.98205 57.65548
39.393764 120.01305 58.734478
16.324764 4.029045 8.011478
17.746765 5.3220444 9.471478
22.243765 10.612045 14.495479
24.206764 10.292038 15.491479
5.908764 18.632034 41.133476
3.906765 18.789047 39.87748
52.319763 28.026047 38.859478
51.610764 27.114044 40.57248
45.575764 119.680046 52.09448
43.925766 118.68504 52.32148
37.938766 115.96505 43.74648
35.705765 116.51804 44.869476
2.106762 95.25905 63.062477
4.1997643 95.71404 62.138477
3.2077637 105.71805 59.27448
2.8337631 107.14604 60.91348
22.393764 80.405045 3.3744788
20.662766 80.93704 3.5194788
10.212765 77.51804 5.0344787
9.569765 79.69205 5.6794786
23.822765 53.625046 56.83048
26.341764 53.048046 57.640476
27.193766 42.15505 62.78848
27.762764 41.532047 1.2934799
19.988766 24.628036 16.193478
20.962765 26.348038 16.057478
29.617765 20.938034 24.135477
30.815765 20.677048 22.050478
34.835766 69.15005 10.035479
34.356766 71.21805 8.128479
33.596767 72.809044 17.354479
33.435764 73.96805 18.941479
6.6197624 42.23604 52.19248
5.896763 40.323044 52.957478
48.025764 39.09604 57.679478
46.509766 39.535034 56.813477
40.064766 73.875046 57.444477
42.062763 74.695045 57.14148
46.704765 84.93604 53.547478
47.507763 85.086044 50.89848
3.8137627 62.877045 49.341476
3.052765 65.38405 49.307476
7.4177628 62.376045 60.547478
8.707764 64.336044 61.075478
29.855764 20.797043 30.471478
29.097765 23.031036 29.896479
31.167765 32.115036 32.20248
30.634766 31.680038 34.51648
19.353765 3.956047 20.443478
20.667765 4.368042 21.472479
26.172764 3.6210403 28.487478
24.947765 5.215042 27.957478
0.052764893 68.17405 8.471478
51.329765 66.252045 9.168479
41.413765 67.21605 11.157478
39.291763 66.79005 9.993479
9.624765 33.455048 45.72448
7.973765 33.603043 47.34948
6.1477647 33.895035 56.728477
6.017765 32.207047 54.69148
19.163765 110.531044 32.735477
18.778765 108.64704 34.263477
11.945765 100.71705 35.01148
12.513765 102.15704 37.27448
8.092765 104.932045 34.79348
7.415765 107.473045 35.39648
18.121765 112.96505 36.319477
19.785765 112.47805 34.99448
26.283764 62.402046 46.01848
25.509766 64.24805 47.062477
15.662765 65.503044 54.800476
15.496765 63.135048 55.72448
44.840763 112.99505 39.99748
46.772766 113.67305 39.465477
52.143764 117.16405 41.84248
51.956764 118.02405 43.679478
47.105766 113.559044 30.781479
46.218765 112.06805 32.095478
36.948765 116.99405 31.937477
35.410767 117.41305 30.300478
26.845764 74.06204 34.117477
28.603765 72.875046 34.84248
30.381765 75.544044 43.547478
29.915764 77.60905 43.443478
0.53276443 19.684036 44.000477
0.8537636 18.854034 45.74748
9.231762 24.811035 42.44148
8.607765 22.980042 40.901478
3.3337631 39.100037 37.617477
2.967762 41.207047 38.402477
46.202766 45.522034 42.499477
45.350765 46.335045 44.076477
30.785765 28.74704 21.486479
32.030766 26.617035 21.389479
40.650764 28.115036 29.161478
41.563766 27.846039 26.960478
42.865765 44.493042 59.144478
42.690765 44.922043 61.630478
43.755764 46.640045 5.694478
43.873764 46.91204 8.378476
39.163765 80.71404 57.751476
39.073765 83.114044 57.019478
41.658764 89.07504 47.220478
40.053764 88.017044 45.466476
28.528765 10.093033 39.721478
28.868765 8.239044 38.548477
32.090767 3.4540405 36.26648
30.137764 2.1500473 36.10148
0.63676476 59.892048 48.306477
0.14176486 59.716045 50.388477
11.354765 62.137047 55.096478
12.136765 62.298046 52.784477
10.241765 74.614044 55.506477
8.705765 76.38305 55.694477
1.4667652 73.57905 58.957478
0.508765 72.82705 57.125477
24.045765 108.16505 18.59348
23.592764 109.59205 20.412477
21.185764 112.04805 31.055477
19.378765 111.930046 29.543478
22.654764 12.204041 16.734478
22.141766 13.414047 18.36048
13.458765 17.237045 24.365479
14.218764 19.404037 24.221478
24.633764 98.208046 8.077481
25.185764 98.10805 5.807477
17.091764 98.002045 62.66948
15.694765 96.50804 61.769478
12.859765 87.40804 24.871477
10.331765 87.473045 26.154478
12.406765 77.849045 19.431479
12.832765 77.12005 21.347479
22.318766 121.45405 49.46148
21.993765 120.139046 50.83548
17.157764 113.14805 53.75448
16.051765 114.363045 51.637478
37.063766 61.692047 50.51748
34.742767 61.528046 50.119476
27.717764 58.737045 48.74548
27.579765 57.300045 50.12948
44.488766 105.12904 53.36348
46.459766 105.32604 54.70448
45.100765 109.098045 1.5204773
44.209766 110.96304 0.9924774
13.133765 120.89505 30.544477
14.886765 120.24105 29.745478
14.798765 1.4780426 37.325478
13.280765 2.4110413 36.18948
41.206764 42.276047 59.272476
40.852764 43.198044 57.28048
30.465765 40.269043 56.950478
29.432764 39.817047 54.451477
11.605765 65.931046 57.500477
11.776765 64.60405 55.70648
7.684765 73.864044 50.277477
5.794765 74.877045 48.986477
46.098766 35.44304 53.53848
46.855766 36.476044 55.34448
48.631763 26.121033 56.85148
48.780766 24.627045 58.743477
44.472763 65.86704 7.550479
45.281765 64.88104 5.497479
52.212765 73.236046 7.0814786
0.5497627 75.32404 6.4284787
24.708765 102.750046 50.050476
23.978765 104.39704 49.665478
25.789764 100.98505 37.17848
23.643764 102.04604 36.561478
1.3407631 100.24505 4.7784786
52.065765 98.63304 4.5294785
45.547764 89.641045 7.0794787
46.413765 89.128044 5.1844788
31.592764 63.683044 22.009478
30.134766 63.085045 23.865479
18.855764 60.465046 20.990479
17.056765 60.120045 22.804478
27.898766 96.48105 8.359479
27.260765 98.75504 7.8894777
31.257765 98.55005 62.312477
32.966766 96.96304 61.230476
28.991764 4.553047 11.675479
30.554764 5.8290405 12.005479
36.449764 2.8830414 1.4314789
37.184765 1.1590424 2.4864786
18.634766 101.33804 54.97548
20.412766 101.919044 54.30148
30.434765 100.77305 60.818478
30.317764 101.043045 63.124477
28.389765 48.200043 17.743479
28.249765 46.445045 19.253479
36.091766 44.981033 20.432478
35.449764 45.712036 18.104479
3.9287648 97.71604 37.277477
4.2267647 95.89504 39.35748
7.432765 86.82905 37.49748
5.293765 87.267044 36.94748
14.204764 24.843033 14.966479
12.809765 25.73204 12.784479
12.635765 30.910034 7.0994787
11.311765 29.01204 7.7134786
37.566765 87.67404 44.348476
37.740765 86.66105 42.048477
32.669765 94.51904 41.999477
32.715767 96.90804 41.27448
2.156765 30.227036 8.864476
4.2077637 30.824036 7.6854753
4.2147636 40.373047 3.2004776
3.2657623 41.562042 0.9994812
27.880764 25.889038 37.75348
25.234764 25.450043 37.382477
24.131765 35.376038 30.638477
26.093765 35.85704 29.781479
0.49876404 26.669037 44.01748
50.989765 26.299042 43.13648
51.842766 31.772034 44.27348
51.990765 33.181046 42.119476
14.598764 52.254047 58.96948
15.050765 54.203045 58.061478
18.134766 60.161045 55.82848
18.250765 62.446045 56.62248
10.664765 72.26205 33.96648
11.748765 74.19205 33.43148
4.579765 75.58904 26.792479
4.207765 73.751045 27.369478
42.782764 63.889046 3.9824753
43.550766 65.208046 2.1034775
41.688766 60.640045 55.83048
42.672764 58.489048 56.557476
16.617765 107.58005 4.768479
16.257765 106.71604 6.536479
5.647765 105.09305 9.163479
5.013765 105.49304 11.151479
45.834766 39.487045 11.851479
44.895763 37.496033 12.509479
1.0217628 30.395035 11.592479
3.3327637 30.146042 11.503479
29.744764 13.060043 41.312477
31.141766 11.911041 39.85848
38.418766 10.552048 35.12148
40.480766 11.23204 33.999477
48.470764 0.5030441 35.41348
48.805763 120.59605 34.005478
48.750763 116.75404 30.953478
47.436764 118.84105 31.662477
31.271765 35.57904 54.479477
30.100765 33.880035 55.354477
20.214766 41.404037 54.03248
21.978765 42.287033 52.215477
33.089767 71.77205 1.3024826
32.437767 71.05105 63.04548
42.548763 67.29604 4.0824814
41.723766 67.20305 6.1594744
48.443764 51.489048 49.987476
49.577766 52.154045 48.54648
43.357765 59.814045 41.35148
44.202766 61.618046 41.616478
42.395763 97.948044 2.0014787
40.347763 98.34205 1.2714788
31.836765 103.58205 6.789479
30.997765 102.333046 8.762479
29.201765 121.71405 11.1224785
31.142765 120.681046 10.792479
37.292767 3.9570465 14.570478
39.319763 4.9210434 15.466479
1.3587646 34.682037 47.11348
3.8587646 34.016037 46.74648
6.797764 28.813034 36.00248
8.227764 30.595047 36.103477
30.567764 6.2610474 39.105476
32.833767 5.029045 38.45548
34.704765 12.398041 42.978477
32.852764 10.350037 41.81048
26.948765 65.77505 34.39348
25.940765 64.38104 36.255478
30.184765 62.138046 43.958477
29.001764 61.029045 45.73348
0.65576553 89.95605 41.42848
0.5657654 88.21805 39.749477
45.649765 86.79804 48.05848
43.917767 85.48505 47.14348
44.502766 40.541046 32.14848
45.896763 42.535034 32.97248
3.0767632 37.431046 34.297478
3.8107643 35.533035 33.35548
44.178764 54.519047 26.895477
44.340763 53.688046 28.615479
52.592766 62.490047 29.981478
1.1487656 62.317047 31.507479
36.493767 83.51105 41.438477
34.367767 82.33005 40.94148
29.301765 77.809044 37.369476
28.140764 79.05105 38.68448
40.325764 32.07904 5.3024797
39.968765 34.470047 5.922475
36.729767 35.720047 58.820477
36.802765 37.792038 57.56648
46.069763 49.658047 43.94848
44.851765 51.212048 42.32448
42.898766 56.612045 36.05148
41.290764 56.518047 34.64348
31.248764 49.090042 13.941479
33.122765 48.472046 12.782479
29.815765 38.164047 15.590479
30.545765 35.73604 15.755479
34.520767 104.391045 53.24748
36.631767 103.571045 53.786476
45.115765 98.33804 55.21948
43.619766 96.431046 55.952477
48.893764 2.4410477 25.098478
49.592766 0.6250458 23.043478
41.939766 5.5060425 15.168479
40.973766 7.03804 15.496479
19.317764 49.117046 22.032478
18.690765 51.11305 23.087479
13.738765 58.615047 26.265478
11.665765 59.80805 27.235477
25.182764 93.53705 25.998478
26.103765 92.76305 27.910479
16.653765 91.653046 31.786478
15.112764 89.95705 32.088478
45.180763 24.949036 29.805477
44.501766 25.912033 28.133478
45.694763 24.179047 18.11748
44.818764 24.95404 16.490479
44.483765 30.687042 10.706479
42.566765 31.976044 11.223478
48.351765 37.604034 19.214478
49.765766 38.888046 17.804478
14.799765 29.055038 26.330479
16.085766 28.705048 24.686478
5.6337647 25.923035 20.738478
6.196765 23.481033 21.624477
16.569765 42.27104 49.022476
16.943766 41.294037 51.082478
10.190765 39.673035 58.50448
8.700765 40.765045 57.78048
11.881765 38.84204 60.48248
11.118765 39.608047 61.832478
12.439765 33.963043 7.6224794
13.780765 34.597046 9.654477
16.333765 68.322044 24.628477
16.088766 65.85905 24.245478
19.741766 68.35204 27.284477
21.877766 68.820045 27.368479
1.4097633 70.88505 49.91248
3.8297653 70.767044 49.73348
3.9787636 61.852047 46.83648
1.9547653 61.243046 45.610477
7.981762 69.31004 22.881477
5.4047623 69.264046 22.809479
0.59376526 77.416046 14.585479
1.538765 78.444046 16.463478
1.3707619 77.99004 26.932478
3.4437637 79.059044 27.133478
4.7727623 87.73205 29.567478
4.4027634 88.95505 28.108479
29.114765 14.1280365 16.63148
30.905766 15.888046 16.017479
33.887764 22.619034 7.3504786
34.706764 21.157043 5.926479
47.994766 69.60505 19.393478
47.288765 71.599045 18.669477
51.508766 76.64705 28.499477
50.305763 76.55305 30.337479
38.403763 4.5960464 2.2204785
39.262764 6.5590363 1.1224788
38.858765 13.37204 5.7844787
38.481766 15.061035 6.8164787
27.447765 54.090046 10.366479
28.564764 56.123047 9.046478
30.655766 67.43504 8.327478
32.450768 67.611046 9.468478
38.320766 15.8550415 31.399477
39.675766 14.196045 31.788479
46.270763 13.781036 23.316479
48.420765 14.119034 23.452478
42.039764 94.766045 47.154476
43.880764 94.67204 45.466476
43.383766 106.40005 47.631477
44.083763 107.989044 46.146477
6.5547647 111.765045 1.9734802
7.373765 109.474045 1.4034805
18.108765 109.126045 2.755478
19.840765 108.67805 1.0354767
48.696766 52.047047 34.37648
50.750763 51.338047 34.090477
6.5917625 55.567047 28.454477
6.653763 54.46805 26.671478
30.333765 10.633041 1.7234802
32.917767 11.554047 1.628479
39.838764 4.3270416 59.244476
40.313766 6.2230377 57.79448
8.801765 57.874046 37.55348
8.721764 59.141045 39.26848
0.19976425 68.51205 40.686478
1.5037651 70.26205 39.632477
8.652765 95.585045 60.03748
10.379765 96.85104 60.43348
12.145765 98.76205 7.019475
13.160765 100.99304 7.758481
6.8187647 13.802048 14.765479
4.972765 12.159042 14.686479
9.941765 1.6800461 14.315479
8.148765 2.3410416 14.9904785
14.265764 59.703045 23.302479
13.337765 57.831047 23.886478
7.938765 55.352047 14.124479
8.958765 56.28005 12.268478
39.025764 24.95604 19.139479
40.651764 23.241043 18.695478
42.430763 16.853043 11.733479
43.193764 18.589035 12.897479
48.828766 15.5060425 7.9644747
46.992764 16.302048 7.5324755
43.978764 18.768036 62.757477
43.885765 18.393036 60.027477
10.460765 82.60204 58.10648
9.988765 80.08205 58.73348
3.680765 76.89805 55.60848
2.1027648 76.83704 54.05848
11.413765 65.488045 7.230479
12.976765 66.37105 7.098479
7.382765 75.53705 9.197478
5.575765 75.98105 9.101479
14.363765 72.544044 45.37848
14.194765 71.46805 47.28848
12.133765 62.871044 50.105476
11.481765 62.114048 47.76848
52.169765 117.12105 60.591476
1.453762 115.850044 60.846478
2.8127632 5.3550415 55.83148
0.5797653 5.694046 54.792477
18.746765 102.84104 12.461478
16.884766 101.88805 11.453479
8.216764 103.055046 19.669477
6.283765 103.80105 18.90248
37.342766 76.96404 27.255478
35.172764 76.31605 27.164478
31.812765 87.140045 32.93548
32.874767 86.39704 35.12048
48.280766 50.110046 52.56648
46.759766 49.927048 51.57148
39.389763 50.117046 60.53248
39.271763 52.192047 60.05348
48.686764 117.543045 52.209476
46.272766 116.84105 52.714478
40.342766 121.196045 61.21048
41.020763 0.8300476 60.666477
34.121765 32.004044 33.30148
34.680767 33.49504 34.79248
35.461765 32.841034 45.26048
35.856766 35.32904 45.964478
46.120766 0.76904297 26.233479
46.723766 121.54805 25.192478
34.282764 117.862045 25.115479
32.926765 116.876045 26.212479
45.044765 75.17605 6.0464754
45.056767 74.56305 3.6864777
40.123764 81.070045 60.37048
42.402763 81.85805 60.33048
43.044765 74.17204 51.904476
41.079765 74.45004 52.94748
32.871765 77.64304 51.762478
31.066765 78.72105 52.243477
39.909763 76.71304 10.618479
38.732765 78.29005 10.700479
37.865765 78.76904 18.826479
37.200768 80.31605 20.548477
40.275764 90.28304 20.621477
41.778763 91.39504 19.13148
0.021762848 88.487045 15.347479
52.109764 86.822044 13.996479
5.323765 108.99404 10.328479
5.165765 110.903046 9.849479
18.018764 111.46304 4.9564786
18.261765 108.95405 6.4184785
6.6667647 112.77505 58.80848
5.635765 110.97604 58.388477
5.946765 112.42104 46.897476
7.703765 111.38605 45.95548
45.525764 117.34605 15.564479
47.610764 116.419044 16.009478
47.421764 109.73405 5.254479
45.677765 108.78204 4.0994787
48.226765 51.619045 25.359478
49.086765 50.441048 23.182478
43.795765 43.506046 31.386478
42.836765 42.067047 29.967478
48.994766 6.7300415 45.847477
47.182766 5.9730377 44.798477
42.763763 122.15704 54.682476
44.607765 120.57505 55.019478
44.171764 55.996048 58.470478
44.858765 54.441048 60.075478
42.740765 45.354046 53.30948
40.406765 45.318047 54.89148
46.003765 36.685043 26.601479
44.380764 37.94304 27.872478
34.424767 35.972046 30.416477
34.826767 33.602036 31.360477
6.463764 32.83304 12.836479
5.781765 32.42604 15.175479
2.2237625 30.511047 24.190477
1.7857628 28.85904 21.827478
23.217764 71.06605 38.92048
24.158764 72.793045 37.623478
18.669765 78.084045 41.847477
19.385765 80.26205 42.901478
12.835765 61.319046 57.005478
13.323765 63.182045 57.221478
14.005765 65.59005 4.562478
12.114765 65.76105 3.0664825
27.413765 29.090042 1.6414795
27.874765 27.083038 2.3824768
39.007763 24.990036 62.42848
41.063766 26.351044 61.722477
0.7927649 97.223045 2.8984756
2.534765 99.34605 2.706482
9.043765 91.709045 1.826477
11.400765 93.002045 1.5954819
9.311765 3.2120438 24.380478
7.201765 4.1510468 25.048477
5.4167647 13.308044 29.338478
5.3447647 14.90004 27.936478
39.228764 112.320045 15.876479
39.046764 113.74004 17.69048
33.183765 109.35605 26.621477
34.593765 107.31104 27.343477
49.223766 75.68504 8.4054785
47.895763 74.38104 8.516479
38.980766 75.736046 14.645479
40.585766 76.45205 16.469479
25.419765 47.566048 20.533478
23.954765 46.530045 19.577478
18.200766 42.095047 18.36448
16.815765 41.284042 16.81548
47.159763 48.132046 15.567479
46.760765 50.436047 15.951479
38.710766 43.756046 19.82248
37.106766 43.442047 18.033478
14.645764 38.35504 15.849479
13.359765 36.849045 15.379478
6.366765 38.828033 9.858479
8.129765 36.918045 10.018478
36.069767 14.226044 9.979479
34.409767 16.671036 10.420479
38.011765 14.330048 22.203478
39.645763 12.301041 21.509478
5.649765 82.697044 38.29648
6.8117647 84.403046 38.605476
12.813765 74.49305 36.867477
10.255765 73.56505 37.01748
47.750763 0.97904205 28.262478
49.570766 0.68104553 27.171478
4.745762 1.4780426 34.88948
5.4337654 121.876045 36.28648
19.728765 40.99904 51.020477
19.305765 39.302048 52.346478
13.819765 34.17404 48.36448
12.175765 33.511047 46.94848
36.338764 102.70204 25.092478
37.866764 103.78304 23.940477
38.953766 104.70505 14.025479
38.167767 104.264046 11.888478
22.326765 48.276047 47.187477
23.396765 50.03005 47.14148
20.894766 46.937046 37.65548
19.761765 44.694046 38.619476
11.556765 28.90004 32.87948
13.100765 30.681046 32.67848
20.021765 38.767044 33.73848
20.147766 40.841034 34.540478
29.136765 26.30104 21.569477
30.502766 25.132034 23.372478
19.677765 24.799042 26.346478
19.338766 22.266037 27.243479
30.188765 102.08804 4.959479
28.875765 103.36904 6.5284786
18.399765 104.42404 5.9614787
16.342766 103.56505 6.557479
9.150764 40.826035 34.98748
7.5427647 40.340042 33.304478
11.406765 30.850037 28.280478
11.466765 29.198044 29.950478
3.752765 15.759033 36.75348
5.376765 16.927048 38.07848
15.224765 13.868042 35.47248
16.758764 15.427048 34.78548
44.847763 39.729034 43.098476
45.659763 41.386047 41.284477
36.417767 36.145035 38.008476
37.202766 35.409042 35.67548
48.701763 119.67905 25.372478
49.900764 121.403046 25.237478
5.5677643 1.4380417 23.262478
6.562763 1.7570419 25.533478
17.159765 85.88104 20.064478
15.276765 87.52204 20.044477
11.451765 78.82504 15.683479
12.126765 77.17505 15.118479
44.308765 37.21904 9.764479
46.355766 35.871033 9.704478
51.891766 38.069046 0.23947889
50.118763 37.451035 0.19447881
32.129765 95.05105 58.73348
31.053764 97.305046 58.84448
25.037766 99.93704 50.958477
23.067764 100.73505 50.645477
24.595764 9.486038 52.41448
26.503765 9.56604 52.23348
31.829765 10.587036 59.417477
29.784765 11.171036 60.366478
40.294765 106.53705 61.633476
42.539764 105.06405 61.68348
43.448765 104.056046 9.036481
44.169765 106.05005 10.1314745
49.521763 5.613037 61.499477
46.744766 6.367035 62.180477
49.500763 117.724045 60.793476
47.757763 115.89705 61.57348
30.502766 72.86005 17.171478
29.361765 70.809044 17.734478
33.567764 63.916046 24.308477
35.546764 63.594048 23.566479
34.523766 94.36005 5.4894786
34.894764 92.086044 5.4024787
26.677765 85.29804 7.222479
26.861765 84.24404 5.2634788
5.9027634 42.689045 3.7244787
5.4177628 44.235046 1.9534787
51.056767 47.256046 9.881478
50.583763 49.046047 11.268478
28.824764 4.338043 31.139479
29.159765 4.5790405 28.768478
21.032764 11.930038 26.038479
21.257765 10.091034 24.319477
26.800764 90.486046 58.318478
25.620764 90.32504 56.05148
21.518764 89.08904 48.72448
21.505764 88.184044 46.797478
3.900765 116.93905 41.20348
5.722765 117.36005 42.772476
11.267765 4.9550476 46.895477
10.729765 4.1910477 49.068478
28.662766 65.03705 63.861477
27.676765 63.597046 62.542477
29.116764 55.325047 56.21048
27.367765 53.932045 55.186478
49.662766 34.873047 63.429478
52.196766 35.060043 63.422478
0.15576553 46.378044 58.85648
1.0467644 45.876038 56.118477
33.320766 20.837036 51.34948
33.839767 21.147034 49.51148
25.032764 23.92604 52.888477
24.014765 22.113037 53.425476
31.537766 56.370045 53.54448
30.605764 58.140045 53.223476
31.004765 58.991047 2.3364792
30.784765 57.017048 2.7344818
0.3847649 88.489044 52.53748
0.8007648 88.722046 55.07248
11.814765 93.14504 54.03948
12.665765 92.81304 56.312477
10.002766 4.390045 28.667479
9.376762 2.1510468 27.768478
2.5897636 4.6360474 22.770477
5.2217636 4.420044 23.243479
16.921764 36.891037 62.33548
19.345766 36.145035 62.15648
22.783764 38.203033 10.717481
24.160765 36.38304 10.309476
11.182765 62.984047 10.015479
9.482765 63.681046 8.074479
1.4507649 59.57905 3.2564788
3.587765 59.855045 2.8584788
12.933765 75.43905 27.960478
13.561765 77.46605 27.629478
10.221765 84.47904 33.47348
8.996765 86.54604 34.08148
17.058765 1.6330414 63.376476
19.233765 3.1790466 62.979477
22.947765 10.377045 63.30248
25.056765 9.838043 63.74748
49.152763 49.390045 48.44248
47.870766 48.05805 49.707478
3.630764 46.158047 41.95348
4.4457626 46.401047 44.20548
1.481765 19.020035 25.899477
3.6427648 19.652039 24.912477
10.941765 28.853043 26.477478
12.844765 28.102036 27.938478
31.500765 59.413048 21.040478
30.717764 61.700047 20.147478
20.864765 56.414047 22.715477
18.288765 56.806046 22.958477
26.553764 50.192047 48.445477
25.251764 48.48204 48.077477
31.917765 43.90204 57.750477
32.873764 46.338043 56.936478
5.447765 62.468044 33.01748
6.861765 62.858047 34.818478
6.254765 72.069046 42.374477
5.836765 73.60304 41.048477
29.705765 30.545044 54.784477
31.246765 28.647034 53.158478
32.224766 21.308044 55.936478
30.943766 19.888046 57.293476
2.8417625 102.640045 4.177479
3.408764 103.03705 5.972479
4.177765 111.974045 7.6414785
3.2857628 113.79905 7.221479
23.568766 15.224045 16.996479
24.948765 13.563034 16.135479
21.271765 17.235046 4.5994787
22.407764 16.44104 3.0994787
22.241764 55.636047 36.096478
22.482765 57.453045 37.883476
28.775764 55.505047 48.138477
27.417765 53.796047 47.869476
10.234764 103.90904 38.39348
8.757763 103.26305 36.806477
52.032764 99.11904 38.35748
51.182766 99.77705 40.396477
46.466766 17.746033 9.606479
48.612766 16.925034 10.190478
0.83976364 28.34404 13.863479
1.0897636 27.723038 11.704478
18.817764 93.88004 49.932476
20.538765 91.72005 49.695477
16.283766 96.51904 58.020477
16.791765 97.79704 59.56648
40.486763 83.877045 43.015476
40.820766 83.947044 45.19148
36.617767 82.01005 56.826477
36.231766 79.93704 56.62748
3.0737648 30.939041 36.33548
1.5897636 32.51004 35.194477
3.5577621 29.946045 28.055477
3.9227638 31.520035 26.419477
23.013765 111.599045 16.069479
24.341764 110.56105 17.713478
29.385765 104.31004 21.984478
30.570765 102.183044 22.435478
10.993765 0.3490448 9.010479
13.165765 122.07905 9.098478
21.678764 115.695045 10.269479
23.053764 116.18805 12.233479
30.830765 101.656044 1.9714813
29.099764 103.73405 2.1814804
36.147766 111.516045 2.3444824
37.446766 112.26005 4.07148
29.797764 116.90905 53.32348
30.081764 118.72604 54.338478
28.478765 5.309044 61.166477
29.318766 3.930046 62.72548
13.784764 71.85505 11.454478
15.129765 71.26005 9.618479
16.898766 78.28204 1.0594789
15.328765 79.640045 0.05547888
17.183765 94.54804 23.404478
19.650764 93.91505 24.404478
16.708765 90.65105 18.765478
15.504765 91.140045 20.613478
31.956764 32.50804 19.978477
33.806767 32.057037 18.536478
42.273766 36.06604 21.975477
44.209766 36.51204 20.647478
40.623764 63.356045 53.950478
40.217766 64.10104 56.24548
36.540764 74.12405 57.48848
35.515766 76.81104 57.014477
3.8007648 27.430038 61.14148
5.020765 25.780045 60.98948
14.089765 29.105042 5.696477
13.095765 27.026047 6.4504747
2.6867638 78.961044 4.537479
1.0107651 79.40704 3.5244787
46.061764 84.84605 7.004479
44.481766 87.00804 6.3984785
19.205765 7.9960327 51.20448
20.811766 7.2720337 52.12748
28.081764 7.8050385 56.42048
28.639765 6.715042 58.630478
42.363766 115.27105 0.09047699
43.842766 116.39405 62.30348
43.048763 108.042046 56.028477
42.983765 107.073044 54.095478
28.508764 43.263046 49.02348
29.887764 41.838043 49.862476
38.861763 47.459045 48.786476
40.642765 46.04004 49.137478
39.594765 63.201046 19.237478
39.165764 62.945045 16.73248
34.708767 69.906044 12.756479
33.050766 69.986046 11.575479
28.404764 68.52305 0.82847595
30.532764 68.64905 63.48348
36.769764 62.358047 55.800476
35.838764 59.832047 55.811478
10.916765 17.708038 20.937477
12.965765 19.133041 21.527477
21.185764 20.52304 18.515478
21.662766 20.509033 15.770479
1.0947647 115.531044 0.51947784
1.3177643 112.99305 63.507477
0.5697632 104.569046 7.581479
0.6897621 102.50804 6.5324755
33.368767 83.531044 38.659477
35.506767 84.530045 38.744476
