18.468483 17.710669 72.88952
14.055481 60.090668 25.689514
15.046478 61.29667 27.43451
9.337479 62.00467 37.58651
6.7454834 62.85267 37.490517
71.76749 7.631669 54.84152
71.70948 8.778669 56.39552
63.496487 3.922669 64.79252
63.180485 5.552669 66.22552
48.605484 12.623669 1.1075134
49.576485 11.5856695 73.91952
57.800484 10.07167 66.22552
56.429485 11.202669 64.65652
65.381485 6.933669 13.373512
63.352486 5.6756687 12.303513
56.536484 4.626669 23.389511
55.218483 2.484669 23.07251
27.893486 48.22067 71.40452
29.39048 46.696667 70.89152
20.608482 41.342667 5.554512
22.317482 40.53967 6.8655167
8.90448 57.634666 4.3345184
8.575478 55.53867 4.038513
5.734482 53.645668 15.111511
5.8654785 51.396667 16.080513
39.949486 33.02567 36.771515
41.659485 31.41567 36.134518
49.557484 35.21967 28.720516
50.367485 37.402668 28.399517
52.495483 47.544666 33.532516
51.390484 46.645668 32.07051
62.858486 47.31767 26.532516
62.470486 48.75567 24.840515
69.908485 54.47667 45.731518
70.032486 56.736668 45.38952
7.4434814 56.599667 38.352516
7.4714813 59.138668 38.123516
40.895485 54.640667 60.58352
39.710484 54.493668 58.25052
49.456486 53.897667 51.893517
50.365486 55.708668 52.14652
8.735481 66.65467 39.19552
6.6494827 66.10967 39.419518
70.76649 66.13267 48.172516
71.08649 64.78867 49.24352
40.328484 67.52567 10.1955185
39.117485 0.33467102 11.156517
33.550484 60.82367 19.453514
31.881485 62.152668 18.911514
32.574486 62.74067 1.1055145
32.285484 64.10567 2.658516
24.008484 57.770668 11.101517
24.72448 59.85967 11.971512
53.904484 12.545669 41.192516
53.976486 14.868669 41.96652
44.248486 11.524669 50.220516
42.363483 12.407669 48.648518
62.874485 61.870667 7.479515
64.604485 61.626667 9.347511
54.633484 56.07467 15.285515
55.435486 56.183666 17.914513
72.44548 41.20667 45.992516
71.19548 41.951668 44.636517
68.74848 38.551666 53.89652
67.091484 37.84667 55.09052
11.633484 11.455669 62.704517
12.954483 12.139668 64.284515
17.274483 17.95467 55.385517
17.32048 16.217669 54.225517
1.2404785 13.244669 18.121513
1.0904846 10.554669 17.524513
8.635483 14.267669 9.844513
10.357483 14.082669 9.148514
21.774483 9.9606695 16.884514
20.662483 7.738669 17.768517
11.677483 7.350669 26.438515
9.597481 6.985669 25.007515
36.879486 24.56167 50.77852
37.884483 24.751669 53.217518
31.074486 22.05867 62.990517
32.064484 19.90567 62.380516
42.257484 18.54467 34.386517
42.735485 16.43067 35.621517
40.288486 18.90067 47.065517
42.333485 19.248669 49.02052
60.318485 21.89667 10.715515
61.983486 22.96067 11.374512
66.83048 23.52867 0.16851807
66.04449 23.13267 72.13552
24.354485 32.94867 6.3855133
22.393486 32.46067 6.9585114
16.507484 29.23567 15.8435135
15.305481 30.63167 17.534515
64.22048 13.768669 12.675514
66.59848 13.227669 12.739517
3.4384842 12.719669 5.934517
4.477478 11.388669 4.724518
25.12548 52.19267 12.743515
25.652481 53.460667 14.732513
20.172485 48.194668 22.799515
20.545486 50.34467 23.57051
54.410484 11.007669 58.108517
54.186485 9.515669 56.997517
60.462486 17.540668 49.163517
58.860485 18.49067 48.558517
5.3794785 1.895668 19.508514
5.7154846 2.7026672 21.572517
70.172485 5.3856707 29.50351
68.44849 3.8146667 29.42051
18.12648 51.759666 26.106516
18.887482 52.40667 28.197517
14.188484 48.001667 39.290516
12.200478 48.530666 38.537518
36.503487 45.15767 1.4075165
34.512486 44.881668 1.1265182
25.282484 38.48967 6.0565186
26.943485 36.37967 6.4335175
41.128487 52.778667 26.769516
41.557484 50.883667 26.263512
37.719486 55.752666 24.875511
38.741486 57.687668 25.744514
47.388485 44.181667 28.339518
45.241486 45.146667 29.023518
39.092484 40.974667 37.183517
38.092484 38.536667 37.416515
44.007484 51.535667 66.88852
44.311485 53.95767 66.757515
49.988483 56.849667 71.520515
52.140484 55.23967 71.007515
16.508484 55.841667 25.951515
16.11348 53.777668 27.500511
6.9534836 55.32367 35.580513
5.8044815 54.77667 33.38851
47.431484 49.58167 62.616516
47.836483 51.41367 62.89552
51.565483 55.815666 54.672516
53.855484 54.801666 54.25152
5.4244843 17.26067 5.229515
5.4104843 17.994669 7.3505173
10.128479 18.02767 10.281517
10.313484 15.918669 11.409515
30.193485 49.388668 70.269516
30.456486 51.203667 69.67852
32.756485 47.19167 58.679516
32.116486 46.16567 56.689518
46.523483 51.31067 31.394516
47.065483 53.23467 30.435516
55.657486 54.729668 20.745514
55.135483 52.74067 19.638512
24.742485 54.917667 49.294518
22.34948 54.612667 49.046516
14.655479 52.13767 57.679516
14.756477 52.78967 60.06952
22.368484 32.80367 1.5695114
23.33548 31.66867 73.714516
29.050484 30.91867 66.24852
29.27848 29.54767 64.18552
14.220482 67.78867 47.218517
13.61248 0.73166656 47.650517
9.239479 66.74567 56.836517
7.23748 65.79667 57.310516
41.523483 58.37867 63.57752
43.263485 58.53267 65.11452
38.512486 57.15667 1.5035172
38.145485 54.793667 2.7665176
57.073483 59.36467 19.435516
58.968483 59.11767 20.788513
65.855484 64.05967 12.440514
67.783485 64.86867 13.092514
36.676483 2.777669 46.790516
38.287483 3.883669 47.273518
32.471485 6.649669 57.344517
31.484486 8.692669 57.422516
25.790482 42.058666 28.524517
24.922485 40.53967 29.701517
20.339485 35.92267 40.222515
22.130486 37.662666 41.331516
25.378487 33.084667 44.45252
24.185486 31.01267 44.617516
22.240486 27.53667 56.338516
22.713486 27.68367 58.303516
63.666485 46.12967 24.00351
65.74848 47.20767 23.758514
69.21149 53.036667 13.477516
67.83749 54.354668 12.778511
40.379486 44.854668 42.974518
41.973484 45.189667 44.842518
49.791485 46.932667 35.04952
50.090485 49.187668 35.344517
57.249485 8.48667 40.370518
57.238483 10.393669 39.843517
65.97649 8.873669 30.899517
66.02648 11.083669 31.400517
47.726486 18.84367 2.6555176
45.699486 18.630669 1.4335175
42.298485 20.35367 13.676514
41.320484 22.03067 14.841515
24.44748 68.54367 54.33352
24.83448 68.00667 56.72352
12.774483 67.68867 63.495518
13.782478 65.97467 64.45752
30.518484 56.909668 71.44352
29.527485 55.404667 70.48352
32.838486 53.625668 59.988518
33.323486 51.458668 59.35452
67.964485 29.93667 20.798515
65.85948 30.876669 21.103516
59.991486 28.07067 30.703514
60.756485 26.34967 31.547516
21.797485 19.592669 1.429512
23.18248 18.748669 2.394516
24.582481 12.759669 1.932518
22.815483 12.798669 0.5515137
60.987484 10.5596695 11.766518
59.963486 8.694669 10.330513
49.683483 7.039669 16.905518
50.154484 7.567669 19.124512
63.782486 24.30667 52.721516
63.212486 24.48567 50.467518
1.1504822 25.47667 44.194515
0.666481 27.69167 43.108517
49.436485 61.440666 18.739517
49.842484 63.65067 19.035515
42.700485 65.64967 28.608513
43.872486 67.38067 29.59951
8.567482 33.92667 50.489517
9.55748 32.53167 52.045517
1.5184784 31.38767 62.807518
1.7084808 29.42967 62.863518
19.44648 38.842667 4.3655167
17.94648 40.51767 4.7985153
8.380478 35.92267 13.369514
9.526482 37.10367 15.155518
68.382484 64.61867 67.65652
68.30448 65.35967 65.29452
5.22348 1.0026703 59.128517
7.019478 0.85466766 60.391518
13.063484 54.472668 3.8885117
15.386482 54.36467 4.5085144
17.134483 54.368668 65.74552
19.65548 54.33167 65.83152
49.150486 40.76267 27.70951
48.521484 41.855667 25.706512
55.819485 40.599667 16.632515
57.400486 39.466667 16.588516
59.222485 50.12967 21.267517
58.257484 51.147667 22.618515
53.698483 50.04667 33.21051
51.911484 50.95567 34.11251
12.872482 7.571669 64.77352
12.125481 8.876669 63.62552
16.568481 8.494669 52.363518
18.04448 6.697669 51.641518
36.339485 34.47867 15.554512
38.649487 34.638668 16.149513
45.472485 37.57567 8.2185135
43.596485 37.541668 7.108513
66.51048 33.069668 36.95952
65.95748 33.08667 34.662518
72.910484 41.161667 29.948517
1.392479 39.958668 29.689516
72.965485 24.36467 3.670517
1.3484802 25.35367 4.239517
8.010483 24.51967 68.43552
8.32048 27.10967 67.33152
47.679485 23.75367 61.15452
49.531483 23.86167 62.997517
41.055485 23.12267 71.77652
38.913486 23.68467 70.87852
33.303486 67.966675 3.0845184
31.281485 66.93167 3.6505127
24.046486 63.431667 11.205513
23.972485 65.02667 12.508514
50.902485 41.875668 29.731514
49.617485 43.72767 29.623512
57.241486 45.842667 19.780518
58.850483 43.70767 20.041512
13.587479 66.51367 44.75152
14.050484 68.522675 43.671516
23.763481 66.37767 36.342518
24.940483 64.58067 36.013515
59.056484 39.48567 73.55152
57.595486 38.280666 72.52552
49.422485 39.38067 6.116516
47.253483 39.286667 6.852516
12.949478 33.681667 19.201515
13.658478 35.506668 19.945518
5.295479 33.30467 28.969513
6.0164795 31.803669 30.35151
63.396484 67.94767 10.524513
62.861485 66.34267 9.598518
54.770485 64.22567 19.313515
53.728485 62.265667 17.896515
12.315483 58.667667 3.7855148
11.977478 60.68467 3.1345139
17.620483 58.319668 65.937515
18.615479 60.125668 66.30052
1.3844833 27.28867 24.286514
2.8304825 26.79867 22.616516
9.976479 29.30767 14.849518
12.250481 28.62267 14.928513
27.938484 47.34467 29.388517
26.478485 46.67867 31.088516
19.842484 42.204666 38.135517
20.66748 44.12967 39.736515
18.257484 25.99967 54.37552
16.97248 26.08367 52.676517
25.525482 23.34467 44.788517
24.701485 23.34467 42.935516
64.86148 6.468669 69.42052
64.143486 8.253669 71.188515
51.479485 8.116669 0.15451813
51.636486 8.937669 1.9735184
12.867477 2.816669 45.985516
14.924484 4.233669 46.04952
20.061485 6.828669 35.171516
19.150482 5.908669 33.23752
12.3424835 25.60167 12.3205185
13.143478 24.72867 14.221512
4.0524826 24.45967 22.772514
5.2014847 22.69667 23.03051
65.87749 41.88667 22.603516
65.37148 43.80267 22.486511
1.0634842 42.416668 13.019516
1.142479 44.61467 12.316513
54.236485 37.424667 66.09752
55.501484 38.70667 67.03052
61.355484 42.22167 56.232517
62.061485 40.78867 54.17452
36.653484 54.321667 19.225517
36.885487 55.361668 16.957512
38.195484 65.35367 9.834518
40.718483 64.81367 9.640518
12.527481 45.356667 55.40452
13.57048 45.17767 57.433517
3.8774796 40.77567 64.87552
4.5384827 40.31867 67.19052
19.214478 21.84567 73.37552
18.713478 23.37967 72.39252
28.719482 26.23867 67.41552
30.337486 24.63967 67.92152
52.217484 30.98867 66.617516
50.469486 30.59867 65.10852
42.809486 29.50467 0.54351807
44.223484 29.26367 2.467514
19.68248 44.419666 26.964518
20.767487 45.454666 28.309517
13.007484 43.43567 38.846516
14.58548 41.395668 38.868515
54.244484 42.829666 51.61252
56.897484 43.631668 51.280518
60.850487 48.04767 41.351517
63.036484 48.09567 41.31352
65.23348 16.730669 33.170517
66.93248 15.748669 34.492516
56.671486 12.527669 41.14652
56.431484 14.826669 42.628517
55.092484 40.21967 51.884518
54.625484 38.24067 51.927517
45.110485 37.160667 58.596516
43.185486 38.59667 59.407516
50.126484 68.28367 54.04852
50.707485 65.63467 54.061516
40.855484 63.211666 63.16652
42.842484 62.652668 64.340515
57.039486 23.36367 9.879517
54.906483 22.98967 10.160515
48.839485 21.34867 20.676514
48.806484 19.262669 21.760513
33.40348 8.293669 62.11952
33.087486 9.088669 64.450516
23.01548 5.0566688 69.144516
22.887482 2.860669 69.730515
18.733482 13.6916685 70.62152
18.856483 15.572669 68.57052
26.629486 16.10367 60.433517
27.87748 18.19567 61.14752
39.515484 61.814667 42.734516
38.000484 60.42167 41.111515
44.300484 64.43267 31.984516
43.119484 63.590668 30.285517
63.139484 42.127666 22.743515
61.205486 43.01967 22.832512
53.039486 41.093666 31.463516
52.909485 38.80967 31.46151
11.94548 2.57267 63.092518
10.755478 2.605667 61.46552
12.777481 3.650673 48.599518
13.9294815 5.3716707 48.469517
54.121483 68.88567 56.11152
53.374485 68.36767 54.377518
61.220486 2.3096695 45.300518
61.233486 0.5906677 44.496517
53.510483 17.33667 6.614517
53.469486 15.125669 7.684517
46.713486 12.477669 16.308517
45.354485 14.120669 15.925514
70.257484 36.111668 24.089516
72.771484 36.446667 23.90651
6.749481 39.104668 15.696518
8.68248 40.079666 15.827515
60.606483 22.64367 32.505516
58.900486 23.73467 33.203518
52.413483 27.02767 42.134518
52.837486 24.60267 43.520515
10.37648 15.325669 46.497517
9.652481 14.228669 48.51452
1.642479 13.250669 56.440517
2.5664825 12.147669 58.262516
31.50148 38.161667 50.95152
30.365486 38.61567 52.012516
23.88948 35.975666 59.64752
21.802483 35.90467 60.324516
15.503479 37.222668 18.857513
16.171478 35.21067 17.517517
19.777481 42.744667 7.4405136
22.19548 42.626667 8.305511
41.390484 41.703667 19.678513
40.316486 43.89367 19.594513
47.109486 46.425667 8.939514
47.038483 48.645668 8.993515
4.227478 56.237667 35.247517
2.4644775 56.09667 34.016518
70.73148 50.182667 44.517517
71.54449 48.24067 44.333515
28.882484 64.57567 37.845516
29.297485 63.54767 39.762516
22.596481 64.78767 48.692516
23.011482 62.68667 50.013515
12.23848 40.42267 70.83552
10.319481 39.64967 69.22452
17.88948 41.51067 61.802517
20.381485 40.16367 61.64552
57.554485 35.50367 14.303513
57.176483 33.910667 15.275513
51.848484 30.89667 25.134514
51.569485 32.52967 25.89051
27.770485 41.50467 53.13252
30.032486 41.056667 53.836517
26.273483 44.51067 65.40552
24.71048 46.12467 65.98452
46.548485 35.256668 61.780518
48.638485 34.743668 60.84152
54.535484 32.111668 51.399517
55.742485 33.52667 50.683517
21.032486 1.9186707 66.54552
19.02848 2.1756668 65.57452
24.795486 65.48367 57.310516
26.789482 64.38367 57.651516
28.767487 7.787669 1.8275146
29.380486 7.841669 4.118515
19.337486 5.5506687 10.367516
18.638481 7.360669 11.727516
4.472481 62.284668 2.446518
3.3824844 63.536667 3.382515
69.729485 56.48367 10.279518
70.30748 55.120667 11.797516
10.666481 41.668667 54.755516
8.212479 42.44167 54.00052
73.311485 39.703667 61.865517
72.074486 41.72867 62.170517
60.374485 16.14167 46.740517
59.907486 15.876669 44.947517
66.89848 21.93967 37.11252
67.504486 20.85067 35.270515
40.769485 20.90067 51.344517
39.653484 20.45267 53.52752
30.305485 17.23267 61.176517
29.455484 14.987669 60.61252
19.954483 61.711666 50.27752
18.577484 61.439667 48.579517
11.151482 59.063667 58.412518
10.634483 57.24267 60.308517
69.463486 8.786669 13.573517
68.87548 7.213669 13.125511
3.392479 6.902669 2.9995117
4.810478 6.892669 4.4665146
38.413486 13.483669 30.592516
36.513485 14.411669 31.655518
31.799484 9.8426695 41.822517
33.710484 9.492669 42.617516
28.206482 52.89367 70.30752
28.75248 53.56867 72.326515
24.509483 49.76167 7.7255173
25.937485 49.764668 9.550514
58.086483 17.63167 46.013515
56.518486 18.664669 46.78652
49.558483 16.36767 53.48652
48.448483 14.955668 54.75052
34.875484 37.502666 53.89652
35.942486 35.79067 54.54152
29.614485 33.862667 64.68352
30.570484 32.03767 64.14252
30.446486 37.155666 9.334518
32.447487 36.687668 9.479515
33.686485 39.786667 71.80852
35.850487 39.078667 71.38952
55.784485 23.07467 65.71252
55.818485 22.90167 63.43052
64.65348 26.09267 57.009518
66.26048 27.61367 56.34152
7.7144775 67.46567 21.142517
10.430481 68.02567 21.539513
15.664482 6.2026644 11.733513
16.925484 4.9056673 10.259514
2.3534775 57.99967 72.65252
4.1654816 56.750668 72.30952
10.331482 59.349667 62.552517
10.093483 60.085667 60.43752
15.318481 45.56867 20.154518
16.047478 47.49167 20.210518
19.438484 50.445667 10.279518
21.089485 49.40167 8.953514
66.576485 50.008667 42.568516
68.213486 50.440666 43.781517
62.538486 46.61467 54.510517
63.099483 43.918667 54.932518
19.40548 51.13667 62.060516
18.580482 53.168667 63.359516
24.107483 59.00467 53.464516
26.25048 58.56067 52.967518
45.875484 67.77767 31.194511
46.415485 66.22667 30.14151
56.500484 66.43867 24.582512
56.457485 67.34167 22.746513
56.962486 49.967667 39.002518
55.975483 51.639668 38.871517
51.801483 50.17267 49.308517
51.858486 50.717667 51.441517
53.337486 49.09467 35.981518
52.146484 47.58267 36.535515
50.369484 47.98467 49.387516
51.640484 45.80467 49.870518
63.817486 58.03167 7.267517
65.921486 59.398666 7.8035126
0.7734833 60.508667 71.41952
0.45348358 59.292667 69.34552
19.90348 60.59567 68.561516
19.28048 62.951668 68.43252
15.398483 66.33667 5.953514
15.075478 68.56867 5.479515
19.15548 22.34467 40.076515
19.20948 23.51667 41.70952
14.464478 20.04867 51.32052
12.300484 20.33567 51.43152
41.452484 25.67367 71.353516
40.706486 27.17567 69.576515
46.338486 28.75667 59.554516
44.964485 26.68667 59.025517
36.845486 30.13867 14.568512
34.907486 29.74767 16.045517
31.513485 25.05467 25.635513
29.450485 24.94667 23.950516
34.578484 57.897667 40.01552
36.870483 57.58967 40.657516
44.497486 60.237667 31.570517
45.190483 58.168667 31.760517
37.761486 1.6946691 62.90952
37.758484 3.951669 63.939518
47.179485 7.574669 54.975517
45.535484 6.209669 53.918518
18.36248 4.3166704 53.420517
16.426483 3.7396698 54.235516
9.816483 0.015670776 58.850517
8.451485 67.81967 59.502518
58.704483 31.83467 14.409515
58.898483 30.06467 15.259514
50.621483 27.22867 22.60051
48.539486 27.74667 21.979515
40.715485 4.3076677 27.866516
39.802486 2.8846664 26.60151
43.144485 1.8966675 16.092514
45.638485 1.7016678 15.9075165
23.897484 19.224669 40.50152
25.276482 18.32067 41.978516
15.998482 17.31967 50.920517
16.20848 18.35167 52.66652
32.964485 35.85067 69.687515
31.785484 38.390667 70.33452
25.027481 30.01267 1.0785141
23.749481 30.78067 2.696518
69.73548 11.607669 14.545517
71.68248 10.841669 14.527512
7.3584824 9.246669 6.3225174
8.745483 9.965669 8.045517
16.047478 10.984669 10.428513
16.509483 13.518669 8.849518
18.555481 12.137669 73.50352
20.26648 10.666669 72.09652
27.272484 67.24167 18.693512
27.701485 69.00267 20.127518
24.608482 63.65867 30.490517
26.11148 63.813667 32.19751
63.803486 14.564669 51.211517
65.827484 13.333669 51.657516
56.093483 12.701669 61.58352
55.684483 14.554668 61.02252
48.695484 2.0366669 36.429516
49.045483 0.15167236 36.746517
43.323486 65.93367 48.019516
42.001484 67.579666 48.887516
25.391485 0.1906662 71.077515
27.521484 68.35867 71.51452
31.880486 1.5626678 59.505516
30.629484 2.5596695 58.15452
49.715485 32.28867 44.03552
48.774483 30.87367 42.961517
56.214485 35.758667 34.916515
55.986485 37.85767 34.130516
53.987484 53.431667 37.52851
53.014484 55.092667 36.11251
63.009487 57.90067 27.71151
62.794487 57.631668 25.455513
52.401485 63.85767 37.11451
53.551483 62.592667 36.151512
58.815483 65.86167 25.771515
60.332485 67.94767 26.33751
35.336487 67.87467 44.932518
33.769485 0.08167267 43.929516
32.941486 2.41967 56.670517
33.546486 69.04667 56.531517
69.71948 52.09567 62.957516
67.366486 52.32467 63.442516
58.006485 52.38767 69.06452
58.156483 51.35367 70.52552
1.5964813 64.50767 53.338516
4.063484 65.57667 53.066517
6.394478 3.9306688 44.282516
8.352478 3.5786667 44.56352
53.398483 42.349667 66.13852
53.031483 44.12367 64.73152
60.926487 49.49667 57.39652
60.980484 51.51067 58.415516
38.408485 59.418667 60.00752
38.992485 61.50567 59.678516
47.407486 63.673668 51.36852
49.025486 62.902668 51.88352
71.629486 47.718666 12.565514
73.09248 48.90067 13.837517
68.339485 47.51067 24.397514
67.98348 46.62167 26.311516
5.908478 23.00467 64.51852
4.327484 21.56467 64.95752
73.30548 21.053669 1.7235184
72.256485 22.76667 0.93751526
32.770485 4.719669 42.36252
34.715485 3.773669 41.985516
38.232487 7.583669 31.411516
39.063484 8.55267 29.228518
27.716486 7.930669 20.491516
29.847485 7.160669 21.152512
38.213486 8.679669 13.883514
37.444485 10.873669 13.663513
15.8654785 34.95467 2.1525116
13.562485 35.18267 2.455513
5.923485 33.50267 8.853516
7.14048 32.41867 9.894516
36.468487 56.132668 4.0695114
34.655483 57.328667 3.6745148
31.528484 56.688667 13.982513
31.860485 56.59467 16.306519
72.77448 51.10767 28.193516
72.05348 52.787666 29.605516
65.97448 47.937668 40.017517
64.938484 49.68567 40.409515
33.015484 40.197666 12.959518
31.666485 40.120667 10.837517
40.646484 41.473667 3.094513
41.539486 43.23967 2.9395142
73.312485 23.64867 21.758514
72.86449 25.12067 23.39251
65.994484 21.83767 33.232513
63.787487 22.55767 33.29151
68.37749 16.74567 56.40252
67.54348 14.484669 56.350517
60.071484 11.3426695 65.36452
62.045486 11.146669 66.01452
8.2664795 36.222668 51.630516
7.531479 37.74267 53.246517
1.5514832 34.28667 62.308517
73.006485 33.61367 61.55652
23.71048 9.616669 18.739517
24.803482 10.439669 20.090515
15.324478 7.111669 28.97351
14.753479 8.954669 29.01551
9.302483 33.09367 14.292511
7.7734833 33.90667 15.524513
71.979485 33.00367 23.893517
70.39249 33.54067 22.551514
60.098484 6.974669 65.24952
60.913486 7.513669 67.437515
50.323483 3.174669 69.08752
49.629486 3.2886689 71.58852
10.80648 5.132669 43.614517
9.1034775 5.020669 41.520515
15.379478 12.810669 31.897516
14.142479 12.258669 30.151516
43.550484 55.197666 29.699516
41.509483 56.306667 28.847517
36.077484 51.25567 39.333515
36.585484 48.86767 38.693516
0.73748016 27.41367 6.540512
72.79248 25.76367 6.167511
64.852486 25.560669 15.693512
63.215485 24.50567 14.441513
17.967484 63.335667 11.383514
19.567482 63.21967 12.369514
12.023483 61.47767 21.972511
11.660484 59.383667 20.652512
12.04348 64.78367 62.64652
10.422478 63.326668 64.116516
2.192482 62.47867 70.368515
1.4504776 63.14467 72.02452
35.747486 23.32967 10.336517
36.980484 25.23967 11.395515
46.913483 29.08167 6.5275116
47.609486 27.34067 5.364517
58.035484 56.466667 55.113518
60.014484 57.224667 55.89752
68.34248 58.89467 46.441517
67.22448 60.32567 44.815517
7.397484 1.1956711 24.008514
6.1534805 1.0856705 25.884514
0.6644821 2.3916702 33.393517
72.63948 1.2556686 34.401512
66.48648 32.40567 2.832512
66.16148 29.92967 1.8175125
54.514484 29.58867 7.799515
55.080486 30.92067 9.4425125
62.526485 19.00367 51.314518
63.023487 17.17667 50.295517
69.727486 25.796669 42.120518
67.92748 27.053669 42.137516
56.310486 50.162666 52.974518
57.529484 49.83067 55.003517
47.395485 46.570667 61.394516
47.851486 46.431667 63.684517
40.453484 9.82167 13.207512
40.413486 8.031669 12.034515
50.229485 14.512669 5.5415115
48.986485 15.170669 3.868515
51.405483 5.994669 36.340515
49.466484 6.619669 37.162518
40.739487 5.9776692 44.624516
40.794483 4.025669 46.340515
15.9674835 30.59567 71.83752
15.551483 28.26867 71.01352
6.0854797 26.87067 6.5695114
4.3724823 25.83467 5.5255127
21.674484 32.53367 61.83352
20.483482 33.36567 60.524517
12.692482 37.49867 70.24752
10.795479 37.092667 68.81552
46.656483 31.53267 24.466515
46.584484 31.41567 27.214516
36.244484 29.41267 32.50351
34.772484 28.876669 31.081512
18.907478 19.91867 35.516518
18.090485 17.99667 36.933517
12.227478 18.123669 46.783516
12.333481 16.45967 48.10552
34.153484 33.51867 15.076515
32.787483 31.74967 15.132515
25.083485 26.30167 20.919518
26.630486 25.04767 20.471512
38.735485 61.76867 5.9375153
38.660484 63.377666 4.215515
44.896484 64.19367 69.18052
44.863483 62.835667 67.62652
68.74748 47.71967 7.6975174
68.34548 49.654667 8.054512
3.442482 56.882668 1.2995148
5.0894775 56.314667 2.1735153
16.22348 31.57867 37.725517
15.536484 29.61067 38.053516
9.496483 31.51267 49.137516
10.394478 30.27667 50.586517
7.3894806 48.854668 15.711517
6.7614822 47.77467 13.978516
13.0804825 48.528667 5.6555176
13.09848 51.09467 5.139511
40.527485 53.356667 5.2255173
38.975487 52.256668 5.963516
27.733484 56.662666 11.500511
27.161486 54.19967 11.823517
21.838486 28.43167 0.31451416
22.267487 26.31167 0.3115158
29.788483 31.72667 69.08052
31.705482 33.12267 68.78052
41.758484 31.72167 59.39052
40.158485 30.42367 58.471516
33.071484 25.44867 67.26152
32.518486 24.20667 65.756516
5.4224777 53.10867 18.228516
7.258484 52.638668 19.468513
3.0264816 50.258667 29.812515
4.5044785 48.494667 29.661514
35.043484 17.16067 62.767517
33.882484 14.993669 61.70252
39.947483 14.917669 50.52752
42.117485 14.7246685 50.22952
65.91148 2.233673 67.36952
63.360485 2.1826706 66.79452
54.141483 2.2056732 0.6205139
53.025486 0.7606735 2.4365158
40.838486 50.770668 4.4505157
40.002483 50.153667 2.219513
48.797485 51.035667 68.35152
50.652485 52.131668 68.55952
23.58648 34.53267 61.999516
25.107483 33.381668 62.73652
16.910484 33.07867 72.881516
14.969482 34.215668 73.74952
62.438484 0.4876709 26.585516
61.904484 2.3376694 27.663517
59.310486 66.09867 38.979515
57.133484 65.04867 39.527515
2.5784836 28.66867 26.609512
2.2724838 30.71667 25.412514
10.175484 30.63967 17.082512
12.741478 29.95767 17.205513
16.43248 48.23367 59.56252
18.380478 47.54667 59.850517
25.593483 51.799667 51.262516
26.991486 50.202667 51.574516
65.38448 56.863667 26.813515
67.06948 58.090668 25.510513
72.796486 58.72667 15.699516
1.7984848 59.49167 15.798515
37.955486 10.390669 47.34852
39.722485 10.70367 48.95852
33.087486 11.340669 58.47352
33.004486 9.622669 60.037518
66.71249 57.541668 9.855515
67.03948 58.084667 11.883514
60.247486 52.78967 21.332512
58.334484 54.36467 21.646515
18.52948 48.021667 7.7205124
18.03048 48.037666 9.936516
13.91848 43.396667 19.413513
11.69548 43.22167 18.846512
30.309484 22.59667 44.427517
31.028484 20.44667 43.665516
41.447483 23.60167 37.044518
40.500484 25.00467 35.108517
7.1814804 27.62967 9.149513
6.999481 29.57167 9.842514
71.38448 28.49867 17.357513
71.19448 29.82967 19.741516
52.148483 12.988668 58.262516
53.849483 13.262669 59.704517
53.833485 7.929669 60.09052
54.224483 5.845669 58.332516
22.798485 12.297668 18.873512
22.662483 12.258669 16.079514
33.284485 12.124669 8.607513
31.05648 13.288669 7.0465164
67.492485 11.266669 50.62652
68.104485 13.2246685 49.89652
2.352478 16.49267 44.095516
3.0904846 15.432669 42.567516
69.21748 67.53467 50.107517
67.04148 66.67367 49.137516
61.333485 61.14467 57.63952
59.718483 61.80367 58.557518
62.766487 8.433669 47.669518
62.925484 8.791669 45.592518
72.37248 12.973669 38.197517
1.0014801 11.968669 38.900517
2.8604813 34.32367 10.059517
3.1344833 32.82967 8.815514
69.51048 25.71767 16.593513
68.660484 23.95167 16.188515
14.25148 41.008667 2.1455154
12.158478 40.069668 1.6895142
5.37648 41.548668 12.616516
7.1674805 40.085667 13.152512
54.838486 58.01067 71.75252
57.108486 58.28167 71.32152
64.130486 58.99067 62.850517
65.36248 57.070667 62.324516
19.86348 27.14967 41.293518
21.248482 25.72367 42.093517
18.791481 31.65367 53.697517
19.523483 29.95867 55.296516
14.582481 6.503669 68.215515
13.309479 6.079669 66.827515
6.5664825 2.993669 0.7455139
6.2964783 5.147669 1.618515
64.37448 29.553669 36.14251
63.639484 31.71667 35.29151
67.19348 34.48367 23.369514
68.091484 32.313667 22.665512
18.98648 42.507668 22.575516
20.923485 41.11067 22.547516
27.064484 44.89367 13.210518
27.680481 46.42867 11.104515
34.494484 14.003669 64.175514
36.464485 15.516669 64.67552
45.441483 16.06667 58.663517
44.513485 17.234669 56.926517
33.140484 42.904667 35.385513
35.782486 43.60767 34.759514
43.652485 47.63667 26.643517
44.379486 46.93567 24.903511
45.585484 32.139668 21.915512
45.435486 34.33967 21.046516
48.501484 35.18667 9.742516
50.307484 36.84467 10.892517
39.661484 0.610672 65.29052
39.441486 2.3846664 66.28852
32.753487 1.0146713 1.443512
33.026485 2.6676712 3.0085144
41.041485 33.382668 16.512512
40.447483 31.51567 16.579514
49.137486 28.78467 7.840515
50.170483 26.62367 8.094513
0.25447845 6.240669 33.451515
2.0424805 4.976669 34.133514
7.0494843 13.288669 25.616516
5.676483 12.178669 24.201515
46.851486 54.334667 66.52352
47.720486 52.95067 65.21152
53.431484 57.904667 55.45152
55.125484 56.80367 55.738518
32.287483 34.43267 49.983517
30.773483 33.132668 49.325516
25.632484 32.19067 60.40352
23.374481 31.47267 59.65452
15.57048 22.64067 14.997513
15.776482 24.46867 13.606514
21.868484 26.11667 3.1735153
23.291481 24.25667 2.7335129
73.171486 7.547669 0.68351746
73.10748 5.475669 0.37351227
61.222485 5.829669 7.142517
60.167484 4.099669 6.439514
26.40348 37.70667 27.978518
25.951485 37.528667 30.276516
17.289482 33.952667 36.302517
17.44648 34.083668 38.391518
30.256485 4.045669 39.189518
28.853485 5.929669 38.41152
31.138485 5.832669 27.764517
32.900486 4.913669 27.119516
28.569485 51.523666 30.911514
29.710485 49.24967 29.813515
38.896484 51.01867 22.065514
37.541485 49.79067 20.812515
7.5384827 40.85767 50.082516
7.3324814 40.31167 52.25852
70.98949 39.516666 60.48752
70.84548 37.42267 60.25852
40.649487 37.444668 42.776516
42.539486 36.34567 43.807518
34.722485 32.86567 50.971516
34.337486 31.96567 52.977516
50.573483 19.78567 60.14552
48.842484 18.984669 59.684517
42.498486 14.624669 70.01752
41.308483 13.062669 68.98452
46.808483 26.14967 20.435516
46.793484 26.06667 18.077515
57.045483 29.43367 13.302513
56.094486 30.40267 11.914513
32.000484 39.551666 31.01551
31.618484 41.34467 30.163513
39.327484 40.085667 20.908516
40.564484 38.611668 20.869514
1.1264801 40.51867 48.579517
1.5594788 39.744667 46.52852
10.312485 43.667667 38.071518
10.994484 46.176666 38.180515
41.833485 43.44167 21.984512
39.385487 43.28267 22.708511
35.758484 39.322666 33.411514
36.705486 37.423668 33.90651
28.066484 45.08967 67.70352
29.334484 43.182667 66.799515
36.983486 42.18667 57.760517
36.494484 43.95767 56.524517
58.898483 13.786669 65.07452
58.333485 13.426669 67.40252
49.749485 19.19467 0.49551392
47.524483 17.623669 73.80652
3.3724823 50.74067 32.651516
1.77948 51.67267 31.861517
68.296486 48.640667 41.145515
68.199486 46.454666 40.734516
45.651485 68.35367 14.111511
44.275486 68.92867 12.186516
53.526485 2.5556717 4.4725113
53.244484 4.1936693 2.630516
58.414486 0.70466906 60.040516
60.680485 0.95466906 59.90952
66.03149 9.167669 52.394516
65.937485 8.70367 50.255516
39.493484 11.225669 16.308517
38.271484 9.284669 17.095512
28.052485 13.8826685 21.541512
27.570484 11.682669 20.610512
25.172485 49.453667 48.852516
23.189484 50.716667 49.531517
18.256477 43.402668 57.90352
19.561485 43.69867 60.490517
45.364483 35.166668 6.4335175
45.872486 33.32567 7.2865143
36.848484 32.646667 13.540512
35.180485 32.45467 12.621513
28.699486 64.62567 73.10752
28.091484 62.23967 73.90652
21.616486 64.82567 11.078514
20.213486 66.66567 11.644516
34.113483 37.39467 11.632515
35.222485 38.827667 13.321518
41.697483 36.93667 3.9645157
41.120483 38.500668 2.6975174
63.486485 27.55067 54.57052
65.44548 26.23367 53.817516
72.62749 31.53267 45.794518
1.1074829 32.55467 46.645515
54.463486 27.93967 45.64752
53.554485 28.74067 43.86952
62.068485 30.74767 37.962517
63.904484 32.133667 38.573517
30.973486 53.916668 55.51552
30.378485 55.15867 53.163517
36.640484 59.765667 43.922516
38.193485 60.97667 44.861515
0.9714813 16.092669 21.317513
0.06348419 14.108669 22.017517
68.17848 12.906669 31.316513
68.756485 14.749669 31.873512
1.8114777 39.45667 26.607513
2.6534805 37.752666 28.019516
9.79348 35.27367 17.388512
11.549484 36.38067 18.620514
64.59348 31.39967 71.59552
65.32148 29.34367 70.33252
71.34348 38.24967 63.03452
72.97649 38.320667 64.20452
4.9954834 47.08267 68.021515
6.5994797 45.452667 67.58452
13.790482 49.287666 59.710518
13.797478 47.667667 58.683517
44.346485 20.75567 59.02152
44.889484 22.40367 59.86852
35.722485 19.043669 68.19252
35.229485 17.519669 66.53652
23.489487 7.636669 35.135513
22.124481 8.779669 34.490517
25.94548 13.610669 23.33651
28.01448 12.876669 24.096512
64.47348 20.46667 31.27951
65.79449 20.42067 29.16951
72.324486 21.02267 21.101517
0.7264786 20.34467 19.733513
57.131485 65.72367 58.746517
56.661484 65.06167 56.957516
63.439484 67.41767 46.885517
63.763485 0.7456665 46.428516
56.024483 38.72167 14.150513
58.558483 37.98267 13.416512
65.30648 43.16367 4.368515
65.30148 40.987667 3.8815155
49.297485 36.97767 62.308517
51.347485 35.55967 61.91052
61.515484 37.377666 55.128517
60.011486 38.328667 53.970516
54.874485 9.940669 6.5485153
54.057484 11.495669 6.425514
48.420483 6.413669 14.780518
46.329483 6.255669 16.191513
49.951485 42.51967 64.27351
51.830486 40.599667 64.74752
58.823483 45.27667 54.913517
59.620483 43.301666 54.43052
42.537483 55.37267 4.0365143
40.961483 57.147667 3.1885147
47.640484 60.454666 69.65252
46.964485 58.821667 68.94652
36.379486 58.181667 61.629517
38.386486 57.85967 63.29252
42.010487 50.02567 62.523518
44.392487 49.577667 63.31952
41.834484 55.093666 25.772514
43.351486 53.737667 25.442513
52.568485 54.645668 17.152512
50.805485 53.952667 16.104515
42.302486 3.3026733 49.668518
40.472485 4.0686693 49.677517
34.896484 1.7226715 58.91752
34.139484 1.0756683 60.73752
48.151485 50.30467 65.38752
48.028484 48.08867 65.77352
43.269485 45.89367 1.8785172
43.733486 45.140667 3.7855148
39.608486 4.840665 12.107513
39.353485 2.421669 13.503517
29.834484 66.69267 17.478516
31.374485 65.88067 18.891518
65.86248 35.84567 56.84052
65.40549 37.78867 57.33452
57.332485 35.40567 67.42552
57.487484 37.83167 68.36952
47.864483 25.50367 37.657516
49.345486 24.03167 39.471516
58.416485 25.25367 31.026516
59.174484 25.63567 28.682516
16.846481 15.513669 10.300514
16.48848 16.99667 11.245514
26.534485 21.58667 5.1905136
25.673485 19.83767 3.9525146
60.128483 26.692669 13.516518
61.468487 26.59267 15.590515
52.448483 21.91067 22.950516
51.631485 23.80967 23.826515
38.864487 33.008667 18.585518
39.259483 34.33567 19.947517
30.236485 35.01067 27.203514
29.050486 36.417667 27.935516
8.43248 60.855667 18.817513
9.851479 62.230667 20.010513
15.537483 66.47967 9.433517
15.747482 68.203674 8.165512
33.44748 4.668668 6.019516
33.267487 2.6006699 5.880516
23.811485 1.1766663 14.340515
22.71048 68.67967 15.505516
48.223484 58.65167 16.391518
47.719486 61.280666 16.510513
40.481483 59.98467 25.604515
40.298485 59.55967 27.602516
5.783478 49.14967 32.08551
6.458481 51.35767 33.023514
10.864479 51.11567 20.703514
12.89048 50.75367 21.506516
71.27348 40.423668 42.19552
0.21147919 41.211666 43.418518
7.2294846 43.326668 35.249516
9.770477 42.348667 35.84852
52.435486 35.65667 11.801514
53.101486 35.03867 9.530518
60.373486 37.897667 1.3615112
61.438484 39.92167 1.1145172
42.657486 34.91867 18.432518
44.293484 36.273666 19.702515
47.430485 42.098667 8.900513
48.463486 40.133667 9.084518
27.975485 33.65867 44.33452
28.268484 31.83467 43.295517
38.293484 38.211666 40.207516
38.454483 40.58167 39.745518
12.433479 67.43567 27.065514
10.23748 68.45867 27.493515
16.55648 63.22067 28.616516
17.314484 65.10667 28.61251
59.210484 10.632669 8.776512
61.277485 9.85467 8.206512
67.00048 9.314669 71.82152
67.035484 7.168669 71.64252
24.436485 28.78367 41.66752
26.489485 29.84867 42.486515
32.969486 30.39967 32.533516
31.993484 31.817669 31.687517
32.203484 12.272669 43.088516
33.218483 11.332669 45.162518
21.090485 9.728669 51.27152
21.617485 8.667669 53.058517
64.92049 50.83067 25.261513
64.16648 50.72867 23.313515
72.32249 54.05467 15.960518
0.0054779053 52.959667 14.402512
68.28748 64.73367 29.263517
66.006485 65.53567 29.891518
63.165485 63.410667 40.346516
62.465485 65.96367 40.414516
5.5784836 2.488669 39.892517
5.423485 4.307669 38.858517
15.392479 6.812669 31.713516
16.039482 4.650669 30.842516
18.16848 39.301666 55.964516
19.271484 37.855667 55.828518
24.735481 39.375668 45.235516
22.470482 39.14467 44.23052
60.124485 1.5936737 7.3435135
58.060486 2.4916687 7.1175156
53.494484 69.08467 18.375511
55.747486 68.27767 19.311516
63.734486 50.493668 57.497517
64.340485 51.42167 55.947517
71.520485 57.00567 50.003517
0.3854828 57.417667 49.575516
67.24848 28.53767 40.076515
65.01548 28.43167 39.673515
57.705486 27.35267 48.03652
57.345486 29.09867 48.960518
58.444485 50.33267 73.340515
57.150486 48.67767 72.80452
51.652485 44.78367 9.408516
49.234486 44.972668 7.9025116
19.870483 31.62867 1.0615158
17.73648 32.695667 1.4785156
7.428482 29.55667 7.047516
6.5994797 31.56367 7.2235184
65.76348 4.8416643 29.245516
63.869484 6.173665 29.490517
58.298485 0.017669678 39.078518
59.745483 68.508675 40.517517
71.65448 16.442669 73.09452
73.199486 14.487669 73.200516
8.597481 13.682669 64.17052
8.827484 11.3426695 64.57352
1.9854813 3.4056702 36.594517
72.907486 3.532669 36.239517
65.98748 1.985672 45.82052
66.95648 2.2606735 47.823517
46.168484 23.57867 56.484516
44.439484 24.36067 57.825516
37.640484 26.43967 66.827515
39.359486 25.17667 67.97352
65.55448 19.18367 34.988518
63.519485 20.10067 34.69552
58.069485 20.77567 45.358517
55.961483 21.11167 45.88352
8.219482 64.64167 20.646515
5.956482 64.11167 20.070518
0.083480835 62.320667 30.562515
0.5884781 61.56167 32.342514
0.75447845 65.90367 35.04952
72.450485 67.64367 34.70252
69.90348 65.24767 45.428516
67.97649 66.14567 46.462517
23.156487 10.892669 72.87952
25.15448 10.350669 73.67852
30.297485 18.039669 63.98652
31.95948 17.06167 63.273518
29.249481 10.105669 21.904518
27.133484 10.290669 23.04451
19.021484 3.270669 30.049515
20.48748 2.460669 31.750511
63.817486 34.94767 17.147514
65.782486 36.271667 18.221512
71.76448 41.91467 9.914513
0.3874817 40.675667 9.234512
58.555485 20.730669 26.527512
57.195484 22.56167 24.804512
64.18449 27.45367 17.706512
66.187485 26.41667 18.494514
28.001486 18.89667 20.733513
28.930485 20.15367 22.424515
36.000484 27.19967 14.556519
34.737484 26.52367 12.702515
43.657486 13.136669 52.193516
45.416485 12.142669 53.726517
36.177486 9.832669 63.44452
35.917484 7.906669 62.523518
72.43948 31.77067 5.757515
71.56948 31.37267 3.330513
9.65448 34.22667 70.42552
8.518478 35.598667 68.96052
61.174484 23.54467 30.166512
63.160484 22.74667 30.451515
70.67848 24.87867 19.216515
71.84948 25.97767 20.787514
43.175484 13.795669 17.543518
45.239483 13.9086685 18.859512
35.213486 16.01767 25.814514
33.449486 16.803669 25.75351
34.880486 4.126668 63.628517
34.963486 1.3016663 63.538517
30.273485 1.909668 0.455513
30.632484 2.1166687 2.4105148
43.704483 4.775669 67.37552
44.696484 6.688669 67.73852
50.282486 6.096669 56.64552
48.796486 5.430669 54.75152
32.393486 42.13667 53.197517
32.607487 40.96367 51.620518
42.107487 47.287666 46.986515
41.236485 48.363667 45.197517
53.773483 20.87867 8.467514
52.026485 22.48167 8.318512
42.342484 17.26067 12.915512
42.170486 17.859669 14.7825165
42.249485 63.01867 46.525517
41.844486 65.31667 45.511517
48.552483 66.30767 36.599518
48.231483 66.69667 33.954517
56.882484 27.20667 11.363518
56.589485 27.85767 9.057518
68.82948 26.66567 3.2985153
67.67648 27.27667 1.7285156
34.925484 41.17867 16.161514
37.213486 41.356667 16.716515
43.587486 42.959667 5.505516
45.054485 44.126667 6.326515
39.592484 16.866669 13.293518
39.172485 18.755669 14.932518
35.346485 13.518669 25.075516
34.281487 11.020669 25.776512
31.260485 16.578669 4.592514
33.152485 15.791669 5.3065186
40.019485 15.188669 71.79552
38.819485 15.197669 70.01052
32.384483 66.80567 21.470512
30.984486 64.78267 22.190514
29.472485 58.85367 33.13851
31.223486 59.44867 34.254517
64.062485 42.771667 59.379517
65.563484 42.280666 61.52952
61.908485 37.981667 72.92052
59.960484 37.00467 72.65152
11.233482 44.08767 1.3795166
10.006477 45.22867 0.13051605
3.039482 41.36467 9.717514
3.166481 42.81167 11.416512
7.6574783 12.576669 43.865517
6.2544785 14.389668 44.691517
0.942482 9.499669 54.35452
0.016479492 11.343669 55.75752
27.489487 22.53167 24.310516
27.19648 23.45067 26.895515
19.119484 22.55667 35.07051
20.067482 21.88167 36.925514
46.440483 68.15867 69.75352
47.889484 67.62867 71.687515
41.228485 64.22667 6.7965164
39.230484 65.62667 7.295517
46.289486 57.468666 66.52752
45.393486 59.84667 65.73652
53.317486 62.20567 55.082516
53.216484 64.73367 54.518517
2.1444778 4.3986635 0.932518
3.9364777 6.029668 0.4365158
11.005478 1.5816727 65.87652
10.510483 0.5616684 63.887516
51.399483 9.438669 38.84852
49.865486 9.688669 37.888515
42.219486 7.642669 46.926517
40.394485 8.306669 46.275517
56.175484 6.095669 38.936516
58.066483 5.709669 39.271515
63.372486 11.26967 30.821516
63.675484 10.319669 29.040516
52.559483 33.50267 68.10752
50.807484 33.327667 66.66352
48.743484 30.19467 4.0655136
46.995483 31.55467 5.352516
72.26448 64.08067 32.544518
70.03848 63.218666 31.274517
66.53848 57.138668 40.969517
65.98448 58.78267 42.884518
28.44448 27.13267 10.591515
28.837486 24.78367 10.200516
19.511482 19.87567 16.235512
18.158478 21.23267 17.363518
69.79048 15.699669 35.777515
70.76548 16.63967 37.691517
67.05849 14.284669 47.594517
65.55248 14.574669 49.04152
27.866486 10.542669 2.104515
25.517487 10.410669 2.4765167
21.262482 9.51267 13.249512
22.97248 8.678669 14.924515
46.178486 62.659668 14.179512
45.578484 63.493668 12.204514
53.611485 65.44867 3.4545135
52.545483 66.44867 1.3295135
0.41548157 1.7786713 58.06952
72.32948 3.810669 58.003517
68.94749 2.1546707 67.852516
68.16348 0.3536682 69.33852
23.468485 21.81167 1.3895111
25.653484 21.987669 1.830513
34.479485 23.07867 67.66152
36.576485 23.67667 67.13752
12.290482 13.901669 49.217518
11.602478 15.046669 50.72252
9.09948 16.41367 63.182518
7.563484 18.126669 63.300518
49.898483 58.28367 69.49852
51.731483 57.79567 69.24452
56.082485 60.801666 58.525517
57.253483 62.87967 58.648518
13.962479 46.49167 3.3935165
13.888481 44.20667 4.203514
7.777481 42.31667 14.582512
8.463478 43.035667 16.118515
36.569485 3.793669 44.111515
37.621487 2.1306689 43.448517
43.195484 9.208669 33.900517
43.798485 7.442669 32.957516
26.547485 26.02867 43.503517
27.621483 27.09867 44.96652
21.453484 23.62867 56.67352
22.32148 25.07567 57.283516
48.289486 58.92867 51.02952
46.585484 58.945667 49.887516
40.546486 57.689667 60.783516
41.028484 59.666668 60.782516
13.309479 53.641666 40.011517
13.535484 52.105667 38.45252
19.283485 56.534668 29.069517
21.28048 56.92267 29.937517
71.41248 50.98467 12.811516
71.69248 52.792667 12.479515
6.121483 59.459667 5.6035156
4.9014816 58.46467 3.7445145
52.225483 53.25467 50.967518
51.554485 53.051666 48.25052
57.381485 57.73467 40.26552
59.448483 56.424667 40.282516
27.339485 11.397669 43.828518
27.745483 13.918669 43.353516
19.69748 16.55267 53.130516
20.310486 14.839669 54.927517
36.468487 43.36567 41.303516
36.475487 45.792667 41.023518
26.552485 41.43567 44.062515
25.436485 41.94267 46.367516
72.924484 62.065666 68.36452
72.213486 60.63567 67.05652
5.1714783 64.32167 58.02152
5.5114822 62.16567 56.70952
25.060486 46.813667 10.004517
24.758484 44.79667 11.378517
17.200478 39.21267 18.938515
18.80848 38.454666 20.319511
51.441483 3.733669 18.136513
52.785484 5.209669 19.016518
60.945484 6.048669 9.836517
62.746487 4.091669 9.715515
37.695484 39.94967 55.15252
39.083485 40.591667 56.29952
49.225483 41.54667 48.974518
47.608486 40.638668 47.713516
64.643486 46.111668 56.70852
64.76448 48.131668 56.06352
71.79348 48.22667 47.233517
70.770485 46.59667 46.308517
46.389484 62.243668 32.913517
46.561485 60.195667 33.168518
39.805485 53.77667 42.09852
39.694485 55.925667 42.919518
66.740486 2.1786728 50.989517
65.740486 0.35466766 50.66652
60.772484 67.67667 60.860516
60.767487 67.21167 63.050518
5.065483 26.94067 63.46552
6.345482 29.171669 63.34152
14.02948 30.95367 55.031517
16.440483 30.98467 54.845516
64.104485 21.21567 68.25152
65.813484 20.09867 69.63952
2.3144836 28.78467 65.43452
4.033478 27.89767 65.60952
6.829483 6.682669 41.552517
4.9514847 8.695669 40.683517
11.697479 13.050669 30.921516
10.707481 12.223669 29.443518
25.442486 7.710669 16.524513
26.657486 9.189669 18.157516
36.728485 13.703669 13.235512
37.000484 13.813669 11.034515
62.964485 36.02567 53.004517
61.351486 36.855667 51.746517
66.131485 39.48367 41.684517
64.81748 40.30967 40.269516
6.336479 64.27067 55.27852
8.512482 63.99167 54.606518
10.665482 63.930668 42.540516
12.36348 62.90767 41.148518
72.58348 12.247669 0.50351715
71.81848 13.5406685 2.3155136
65.15649 6.910669 10.518517
63.227486 8.175669 10.895515
29.551483 4.921666 25.96051
28.840485 3.9276705 24.485512
18.95948 67.38767 28.324516
17.207481 68.048676 27.29551
18.330482 36.97867 1.8555145
19.46148 39.06867 1.7115173
27.535484 35.48467 66.17752
29.318481 34.12867 67.56652
50.038483 14.319669 39.025517
50.415485 16.07567 40.393517
46.172485 21.44967 38.280518
43.920486 22.33767 38.607517
45.528484 3.9136734 51.499516
46.932484 3.3756714 53.00152
42.422485 1.4576721 65.16252
41.914486 3.6626663 65.77352
46.636486 54.73467 47.373516
47.652485 56.417667 48.076515
56.040485 62.829666 40.818516
55.138485 62.619667 38.601517
72.09948 61.939667 12.986511
70.13848 62.66567 14.436516
62.944485 57.597668 22.79451
63.854485 55.759666 22.86351
46.569485 61.92067 49.42452
46.242485 60.396667 47.347515
51.471485 66.14367 38.957516
53.538483 66.03567 38.366516
70.131485 13.053669 35.460518
68.60848 13.484669 34.257515
61.314484 10.433669 43.263515
62.308487 11.418669 45.074516
26.176485 58.744667 70.99452
27.565485 57.50367 70.44552
33.269485 58.402668 60.57052
35.043484 60.01067 59.043518
20.511482 57.653667 49.766518
19.878487 55.625668 48.780518
13.031479 53.37967 55.099518
11.647484 53.189667 57.129517
32.530483 21.74267 26.116516
33.375484 23.31567 25.46051
41.265484 19.855669 16.711517
43.245483 19.00667 17.183517
13.818481 3.313669 66.16152
14.518478 2.231669 64.34552
20.45848 4.246669 55.00752
20.853485 6.216669 54.353516
69.71149 47.786667 10.466515
67.508484 46.763668 10.629517
62.707485 42.336666 18.782516
61.656487 43.571667 20.302513
63.350487 65.454666 28.358517
62.687485 63.474667 27.747517
57.612484 58.397667 37.253517
55.869484 58.002666 37.89052
55.549484 53.18567 15.625511
56.881485 53.91467 17.427513
64.74948 55.423668 7.906517
64.40448 55.549667 5.651512
29.84748 28.86367 29.744516
29.921486 30.03567 31.844517
22.715485 27.17367 40.379517
23.94548 26.02767 41.024517
8.839478 44.31067 18.736511
6.435478 44.89467 18.554512
1.7614822 45.583668 26.786514
0.22447968 46.627666 27.595512
31.305481 60.794666 36.921516
29.771484 61.15167 38.319515
23.79448 56.551666 47.38252
22.356483 58.189667 47.780518
63.598484 67.55167 43.816517
62.514484 68.30567 41.76452
66.449486 1.6486664 31.364517
68.783485 1.9826736 31.278517
34.688484 8.678669 47.295517
34.730484 10.8426695 47.599518
26.698484 6.251669 54.664516
26.587484 5.664669 57.051517
3.0514832 46.11467 65.01452
5.027481 46.265667 65.39752
10.102478 48.72667 55.044518
8.588478 48.383667 53.795517
20.288483 10.565669 69.21852
19.535484 11.156669 67.35752
24.84848 13.188669 57.20952
22.82148 14.058669 56.442516
5.9334793 51.494667 53.121517
5.958481 49.48467 53.77152
72.326485 46.250668 63.77152
0.4954834 47.36067 64.81052
52.840485 51.724667 16.446518
50.353485 51.12867 17.264511
45.740486 52.69967 27.853516
43.495483 52.58867 27.713516
3.2694778 65.24067 36.682518
4.022484 63.60867 37.148518
69.07249 62.52467 45.002518
68.92748 63.45767 47.135517
25.43148 22.58767 59.878517
23.253487 22.67567 58.98052
17.990479 26.51067 71.01052
16.105484 25.55767 71.41452
30.034485 17.87267 44.753517
31.922485 18.15567 45.412518
25.166485 10.440669 53.28452
23.763485 12.288669 53.962517
13.187485 1.494667 6.1295166
12.471481 0.32766724 4.239517
20.998482 0.98867035 69.33852
21.91948 68.20467 69.03652
19.198479 19.89167 54.13952
20.98848 18.47967 54.352516
28.102486 19.76367 45.845516
27.774483 22.00767 45.392517
6.57148 56.07467 52.73652
6.2544785 55.07567 50.752518
15.475479 55.972668 43.704517
17.609482 54.79067 43.115517
34.160484 62.257668 21.871513
33.383484 60.521667 23.004517
24.019485 61.10767 29.970512
25.014484 61.064667 31.994514
43.592484 59.730667 46.926517
41.467484 60.065666 46.800518
33.583485 60.342667 56.87652
34.306484 58.29667 56.880516
54.137486 48.46967 13.658516
52.555485 46.72167 13.028511
45.407486 46.461666 21.866516
43.488483 45.43567 21.587517
17.453484 35.65067 40.760517
18.450478 35.74167 42.523518
15.00248 37.11667 53.470516
15.413483 35.104668 54.657516
13.16748 33.66467 54.482517
11.593483 32.73167 53.768517
4.6864777 34.361668 64.37852
6.1574783 33.25267 65.80952
18.046478 63.88667 47.058517
16.826485 62.440666 46.335518
7.7684784 58.763668 54.537518
6.90448 58.77567 52.39052
65.603485 44.94167 39.720516
63.314484 45.26267 39.954517
64.936485 47.40067 28.167517
66.09648 48.53367 26.437517
32.417484 13.639668 4.104515
31.895485 11.567669 4.0115128
33.628487 11.430669 65.86352
33.774487 13.410669 66.617516
52.533485 1.947669 19.787514
53.398483 3.865669 21.427513
46.300484 6.347669 31.95951
44.858486 4.587669 32.49951
6.22348 50.82367 71.53952
6.6654816 52.750668 72.36552
9.354485 54.90667 60.59752
10.829483 54.13567 59.523518
59.154484 41.375668 71.08352
58.548485 42.83067 69.64952
62.733486 45.148666 58.634518
61.935486 47.01867 57.915516
60.559486 40.79567 36.07752
58.897484 39.51167 36.637516
52.188484 33.38467 45.04252
50.270485 34.99167 45.81352
53.211483 62.24867 73.13452
55.634483 60.73967 72.59952
63.375484 61.528667 63.213516
62.375484 60.815666 61.93152
42.992485 50.83267 48.70252
43.689484 48.966667 49.088516
35.256485 47.62267 55.939518
34.559486 49.03267 58.47252
19.372482 25.49567 57.23752
19.922485 27.35667 58.477516
15.144478 29.30067 68.86352
15.148483 31.60267 69.520515
36.567486 63.35367 41.926517
36.179485 65.10367 41.08452
