4.945 0.822 1.397
4.512 0.597 1.395
4.400 0.563 1.602
4.371 0.778 1.320
3.891 0.301 1.662
5.344 1.137 1.679
5.014 1.085 1.624
4.754 1.065 1.512
4.706 0.787 1.475
4.367 0.531 1.818
4.361 0.605 1.905
4.201 0.465 1.488
3.922 0.699 1.529
5.155 1.339 1.624
5.018 1.344 1.609
4.769 1.231 1.660
4.435 1.224 1.537
4.405 0.857 1.814
3.973 0.679 1.698
3.747 0.641 1.653
4.181 0.823 1.919
5.102 1.668 1.821
5.239 1.267 1.943
4.749 1.452 2.012
4.549 1.156 1.610
4.221 1.083 1.932
4.028 0.631 1.859
4.126 0.844 1.898
3.775 0.616 2.372
5.419 1.681 1.867
5.222 1.340 1.810
4.746 1.347 2.263
4.388 1.209 1.869
4.584 0.980 2.091
4.051 0.964 2.044
4.185 0.735 2.133
4.193 0.916 2.441
5.183 1.550 2.241
5.253 1.368 2.073
4.770 1.080 2.511
4.810 1.321 2.075
4.660 1.106 2.370
4.043 1.130 2.304
4.216 0.924 2.252
4.216 0.765 2.692
4.051 0.721 2.460
5.306 1.661 2.606
4.879 1.284 2.561
4.885 1.262 2.343
4.617 0.947 2.626
4.125 0.732 2.594
4.073 0.673 2.790
4.119 1.061 3.047
3.914 0.952 2.839
4.977 1.307 2.722
4.636 1.128 2.831
4.623 1.239 3.058
4.442 0.777 2.965
4.162 0.868 2.961
4.087 0.693 3.136
3.975 0.861 2.995
3.748 0.689 3.124
4.551 1.334 2.890
4.425 1.137 2.872
4.208 0.855 3.197
3.877 1.039 3.219
3.979 0.905 3.161
3.920 0.802 3.259
3.514 0.557 3.536
3.250 0.428 3.659
4.438 1.146 3.214
4.451 1.167 3.212
4.039 0.769 3.582
4.262 0.875 3.550
3.980 1.023 3.708
3.875 0.704 3.701
3.534 0.548 3.895
3.246 0.446 3.824
4.339 0.888 3.753
4.260 1.124 3.776
4.241 1.189 3.684
3.980 0.671 3.641
3.910 0.965 3.884
3.346 0.752 3.741
3.250 0.646 4.202
3.248 0.427 4.184
6.375 2.406 3.428
5.868 2.030 3.699
4.500 1.324 3.572
4.179 1.209 3.796
4.225 1.076 3.980
3.720 0.902 3.964
3.802 0.806 3.987
3.517 0.664 4.048
3.177 0.615 4.035
2.956 0.399 4.440
3.067 0.157 4.130
6.342 2.171 3.913
6.201 2.089 3.682
5.868 1.892 3.702
3.965 0.921 4.261
4.285 1.179 4.151
3.828 0.702 4.289
3.867 0.840 4.618
3.468 0.667 4.265
3.495 0.403 4.247
3.041 0.368 4.619
2.710 0.404 4.397
6.049 2.137 3.847
6.258 2.228 4.051
5.809 2.136 4.034
5.408 1.980 3.975
4.033 0.903 4.099
4.335 1.274 4.358
3.829 0.960 4.429
3.734 0.766 4.611
3.412 0.535 4.752
3.474 0.485 4.820
3.215 0.560 4.903
2.745 0.540 4.742
6.272 2.156 4.243
6.195 2.263 4.217
5.895 2.130 4.165
5.521 2.085 4.155
4.361 1.250 4.410
4.381 1.082 4.770
4.110 1.014 4.630
4.020 0.995 5.027
3.816 0.754 5.035
3.576 0.734 4.794
3.171 0.281 4.784
3.221 0.546 5.023
6.113 2.327 4.635
6.150 2.322 4.665
5.656 2.172 4.374
5.739 1.807 4.486
4.052 1.305 4.689
4.370 1.014 5.044
4.232 0.948 5.163
3.899 1.071 4.892
3.493 0.976 5.360
3.364 0.444 5.167
3.294 0.413 5.263
3.001 0.436 5.198
6.067 2.069 4.927
5.722 2.188 4.994
5.849 1.885 4.736
4.044 1.338 4.954
4.327 1.177 5.040
3.863 1.291 5.366
3.769 1.108 5.401
3.771 0.977 5.523
3.330 0.843 5.444
3.243 0.715 5.427
3.100 0.586 5.295
5.967 2.110 4.850
5.839 2.349 4.944
5.474 2.007 5.020
4.285 1.002 5.081
3.886 1.116 5.587
3.847 0.918 5.606
3.733 0.790 5.522
3.506 0.558 5.447
3.301 0.459 5.620
6.076 2.382 5.274
5.882 2.152 5.306
5.884 1.954 5.135
4.112 1.021 5.758
3.776 0.990 5.664
3.513 0.953 6.060
3.635 0.529 5.952
6.296 2.383 5.238
6.011 2.358 5.250
4.475 0.636 0.485
4.289 0.596 0.325
4.624 1.249 0.587
4.661 1.160 0.631
4.501 0.660 0.476
3.885 0.521 0.781
4.849 1.202 0.902
4.607 1.068 0.666
4.300 1.062 0.684
4.460 0.681 0.854
4.081 0.620 0.905
3.723 0.586 1.454
5.288 1.286 0.784
4.735 1.304 0.945
4.631 1.034 1.238
4.496 1.096 1.351
4.218 1.117 0.944
4.049 0.773 1.105
3.863 0.420 1.231
3.918 0.526 1.462
5.115 1.533 1.203
4.793 1.132 1.501
4.596 1.002 1.471
4.600 1.125 1.191
4.178 1.129 1.454
4.052 0.979 1.198
3.768 0.846 1.459
4.065 0.885 1.729
5.040 1.468 1.297
4.782 1.350 1.699
4.592 1.344 1.778
4.434 1.288 1.666
4.528 0.823 1.694
4.204 0.632 1.833
4.020 0.925 1.757
3.974 1.045 1.499
2.270 0.040 1.826
5.021 1.481 1.490
5.068 1.597 1.299
4.670 1.581 1.766
4.650 1.262 1.337
4.014 1.330 1.538
3.890 1.255 1.813
3.772 0.749 1.907
3.896 0.974 1.842
2.431 -0.043 2.367
5.088 1.749 1.611
4.995 1.468 1.864
4.725 1.467 1.945
4.655 1.401 1.739
4.103 1.199 2.008
4.274 1.005 1.935
3.711 1.057 1.985
3.781 1.035 1.953
2.206 0.086 2.343
5.266 1.850 2.096
4.870 1.369 1.921
4.704 1.486 2.000
4.340 1.235 2.182
4.384 1.195 2.143
4.056 0.905 2.233
3.780 1.162 2.135
2.566 0.301 2.827
2.277 0.219 2.700
4.970 1.418 1.989
4.916 1.438 2.379
4.525 1.560 2.342
4.194 1.057 2.277
4.181 1.272 2.124
2.475 0.168 3.082
4.529 1.598 2.727
4.628 1.318 2.372
4.457 1.069 2.470
4.001 0.933 2.697
4.206 1.538 2.980
4.310 0.987 2.715
6.104 2.208 2.899
6.273 2.281 2.802
5.861 2.387 2.903
3.651 0.809 3.416
3.822 1.152 3.762
6.221 2.397 3.195
6.008 2.544 3.360
5.851 2.324 3.393
3.819 0.934 3.995
3.610 0.871 4.080
3.461 0.962 3.993
3.046 0.832 3.765
6.105 2.540 3.434
5.837 2.353 3.697
6.055 2.182 3.468
5.534 2.091 3.637
3.946 1.226 3.887
3.498 0.957 4.326
3.409 0.709 4.035
3.198 0.780 4.290
3.170 0.584 4.270
6.022 2.237 3.775
6.082 2.409 3.795
5.697 1.983 3.573
5.355 1.892 3.678
4.035 1.472 4.184
3.725 1.306 4.516
3.666 1.056 4.504
3.668 0.654 4.586
3.173 0.600 4.425
3.197 0.449 4.463
2.651 0.473 4.502
6.300 2.702 4.093
5.738 2.165 4.105
5.814 2.227 3.865
5.543 2.037 4.059
4.032 1.261 4.322
3.838 1.185 4.357
3.755 1.280 4.526
3.688 1.207 4.734
3.278 1.058 4.588
3.262 0.833 4.633
3.134 0.789 4.932
2.741 0.580 4.948
6.077 2.528 4.158
6.105 2.176 4.465
5.834 2.172 4.277
5.548 2.206 4.377
4.313 1.238 4.601
3.893 1.248 4.805
3.895 1.138 4.928
3.631 1.304 4.840
3.446 1.042 4.946
3.461 1.049 5.064
3.095 0.669 5.146
2.949 0.585 5.192
6.354 2.410 4.302
5.999 2.419 4.628
5.869 2.350 4.389
5.358 2.137 4.755
4.127 1.309 4.912
3.879 1.318 4.889
4.135 1.102 5.017
3.675 1.177 5.307
3.480 1.069 5.077
3.186 0.755 5.120
3.078 0.705 5.234
2.928 0.793 5.260
6.366 2.382 4.536
5.848 2.415 4.648
5.620 2.518 4.617
5.443 2.274 4.911
4.251 1.586 5.066
4.090 1.571 5.339
3.877 1.333 5.372
3.551 1.172 5.176
3.477 1.005 5.446
3.211 0.744 5.580
3.314 0.784 5.509
2.925 0.890 5.431
6.383 2.733 5.131
5.921 2.623 5.162
5.840 2.335 4.940
5.754 2.404 4.803
4.006 1.205 5.240
4.048 1.380 5.355
3.896 1.483 5.413
3.757 1.020 5.521
3.555 1.036 5.507
3.316 1.108 5.867
3.031 0.999 5.622
3.056 0.733 5.682
6.318 2.624 5.280
5.943 2.620 5.178
5.813 2.583 5.227
3.937 1.349 5.477
3.951 1.455 5.559
3.743 1.254 5.716
3.887 1.166 5.861
3.435 0.948 5.888
3.442 0.905 5.789
3.316 0.721 5.872
6.060 2.877 5.302
5.863 2.319 5.348
4.546 1.680 5.809
4.291 1.352 5.921
3.737 0.661 0.079
3.258 0.604 0.089
3.260 0.248 0.123
3.219 0.138 0.259
3.896 0.658 0.039
3.568 0.484 0.066
3.583 0.629 0.306
3.114 0.677 0.106
4.350 1.001 0.032
4.102 0.931 -0.027
3.914 0.805 0.105
3.749 0.825 0.009
3.553 0.585 0.719
3.626 0.497 0.544
4.681 1.193 0.434
4.397 0.938 0.472
4.086 0.999 0.442
4.005 1.036 0.402
3.730 0.607 0.654
3.562 0.876 0.555
3.506 0.502 0.991
4.866 1.556 0.555
4.776 1.172 0.624
4.395 0.929 0.639
4.208 0.922 0.853
3.875 0.939 0.847
3.655 0.630 0.609
3.630 0.608 1.165
4.905 1.482 0.903
4.818 1.428 0.791
4.433 1.289 0.945
4.392 1.034 0.716
4.319 1.237 0.931
4.058 1.011 1.131
3.980 0.686 1.181
3.696 0.687 1.435
5.034 1.607 1.105
5.032 1.671 1.087
4.625 1.166 0.991
4.223 1.351 1.270
4.231 0.924 0.917
3.894 0.741 1.150
3.916 0.987 1.386
3.601 0.674 1.250
2.216 -0.035 1.807
5.007 1.629 1.338
4.791 1.401 1.114
4.606 1.275 1.461
4.577 1.104 1.329
4.087 1.252 1.603
3.863 1.071 1.439
3.952 1.048 1.432
3.636 1.057 1.642
2.630 -0.075 1.879
5.236 1.407 1.311
4.715 1.644 1.306
4.656 1.559 1.694
4.634 1.243 1.746
4.011 1.240 1.457
3.947 0.935 1.765
3.900 0.840 1.836
3.906 1.179 1.485
2.120 0.418 2.060
1.906 0.295 2.084
2.023 -0.155 2.105
5.016 1.815 1.656
4.522 1.504 1.289
4.302 1.571 1.575
4.397 1.580 1.700
3.969 1.253 1.631
3.698 1.296 1.695
3.474 1.014 1.613
2.539 0.501 2.276
2.161 0.260 2.325
1.881 0.325 1.986
1.702 0.068 2.064
5.194 1.908 1.698
4.914 1.586 1.672
4.548 1.531 1.759
4.277 1.445 1.615
4.324 1.597 1.858
4.066 1.355 2.006
2.686 0.530 2.388
2.544 0.103 2.477
2.055 0.098 2.248
1.922 -0.127 2.405
4.975 2.011 1.843
4.752 1.438 1.941
4.505 1.361 2.068
4.184 1.312 2.286
4.154 1.198 1.921
2.186 0.352 2.389
1.973 0.459 2.866
2.139 -0.048 2.449
4.263 1.805 2.109
4.293 1.542 2.224
2.219 0.602 2.882
1.966 0.447 2.882
1.772 -0.018 3.151
1.918 0.176 2.955
2.134 0.243 3.265
1.846 0.343 3.309
1.547 0.069 2.969
6.056 2.654 2.465
2.000 -0.014 3.515
1.962 0.087 3.420
6.171 2.496 2.944
6.072 2.648 2.702
1.746 0.057 3.428
5.994 2.704 3.035
5.759 2.735 3.152
5.759 2.463 3.262
1.603 -0.041 3.791
6.332 2.653 3.031
6.019 2.551 3.297
5.577 2.399 3.311
5.305 2.535 3.440
6.346 2.660 3.622
6.002 2.825 3.657
5.552 2.646 3.271
5.368 2.316 3.617
5.551 2.246 3.783
3.516 0.979 4.025
3.405 1.075 4.086
6.343 2.907 3.786
6.027 2.851 3.945
5.941 2.413 3.785
5.532 2.227 3.558
5.552 2.409 3.593
3.657 1.117 4.463
3.552 1.139 4.138
3.080 1.308 4.439
2.933 1.102 4.186
3.092 0.701 4.642
5.997 3.007 4.017
6.085 2.741 4.161
5.943 2.441 4.143
5.571 2.529 3.887
5.379 2.113 4.147
5.006 2.147 3.920
3.709 1.161 4.774
3.378 1.097 4.681
3.392 1.180 4.542
3.363 0.902 4.625
2.979 0.857 4.817
2.599 0.528 4.733
6.375 2.764 4.367
5.819 2.691 3.968
5.727 2.786 3.988
5.458 2.520 4.294
5.172 2.427 4.467
5.182 2.166 4.493
3.739 1.317 4.950
3.701 1.418 4.620
3.680 1.156 4.781
3.226 1.299 5.089
2.993 1.037 4.847
3.125 1.115 5.094
2.916 0.558 5.109
6.374 2.731 4.213
6.151 2.679 4.496
5.621 2.799 4.662
5.437 2.267 4.675
5.245 2.239 4.613
3.789 1.621 4.656
3.878 1.540 5.219
3.795 1.615 5.166
3.626 1.441 5.045
3.286 1.228 4.958
3.056 1.105 4.928
2.835 0.743 5.154
2.895 0.870 5.254
2.318 0.545 5.427
6.292 2.951 4.709
5.991 2.726 4.517
5.900 2.564 4.493
5.622 2.490 4.509
5.319 2.225 4.706
3.783 1.771 4.836
3.854 1.538 5.013
3.780 1.364 5.041
3.495 1.458 5.355
3.219 1.243 5.228
3.164 1.098 5.194
3.032 1.061 5.458
2.835 0.930 5.362
2.628 0.787 5.339
6.055 2.957 4.714
5.992 2.938 4.730
5.866 2.609 4.945
5.881 2.769 4.917
3.946 1.820 5.347
3.799 1.512 5.249
3.718 1.479 5.313
3.586 1.156 5.341
3.564 1.190 5.377
3.290 1.355 5.545
2.768 1.199 5.448
2.624 0.867 5.737
6.157 2.870 5.008
4.098 1.622 5.269
4.178 1.822 5.579
4.255 1.875 5.771
3.991 1.702 5.791
3.413 1.213 5.670
3.252 1.295 5.867
3.442 0.997 5.792
3.123 0.979 5.861
2.883 0.879 5.998
4.303 1.933 5.697
4.114 1.468 5.533
3.322 0.670 0.152
3.159 0.787 -0.136
2.732 0.583 -0.021
2.621 0.232 0.043
3.699 1.113 0.286
3.223 0.716 0.484
2.979 0.768 0.418
2.865 0.747 0.268
4.501 1.207 -0.087
4.004 1.522 0.305
4.036 1.268 0.160
3.834 0.942 0.348
3.567 0.952 0.062
3.619 0.751 0.245
3.555 0.875 0.734
3.044 0.931 0.614
4.711 1.737 0.355
4.550 1.332 0.530
4.404 1.388 0.555
4.242 0.964 0.208
3.687 1.240 0.669
3.514 0.853 0.684
3.531 0.831 0.609
3.465 0.726 0.881
5.031 1.627 0.342
4.490 1.753 0.378
4.293 1.658 0.464
4.261 1.410 0.439
4.253 1.419 0.427
3.887 1.031 0.530
3.733 1.106 0.686
3.535 0.818 0.936
3.655 0.923 1.073
4.712 1.583 0.847
4.909 1.423 0.691
4.269 1.728 0.760
4.062 1.306 0.612
4.183 1.441 1.096
3.901 0.935 1.002
3.677 0.912 1.148
3.503 0.895 1.046
1.994 0.132 1.429
5.017 2.073 0.943
5.132 1.742 1.061
4.867 1.685 1.124
4.679 1.664 1.250
4.230 1.397 0.868
3.930 1.251 1.296
3.638 1.326 1.271
3.861 1.229 1.029
3.894 1.282 1.246
2.280 0.322 1.679
1.889 0.331 1.666
5.323 2.047 1.100
4.951 2.038 1.200
4.875 1.923 1.281
4.747 1.352 1.283
4.437 1.230 1.492
4.247 1.499 1.441
3.955 1.218 1.554
3.786 1.317 1.267
3.782 0.896 1.817
2.490 0.437 1.797
2.057 0.026 2.067
1.922 0.106 1.970
5.062 1.814 1.396
4.881 1.802 1.323
4.628 1.585 1.399
4.471 1.674 1.607
3.961 1.173 1.390
3.726 1.008 1.482
3.575 1.145 1.704
2.214 0.468 1.909
1.997 0.538 1.694
1.945 0.073 2.161
1.703 -0.123 2.218
4.620 2.027 1.459
4.761 1.990 1.673
4.223 1.784 1.307
4.432 1.514 1.420
4.093 1.405 1.569
3.864 1.609 1.584
2.450 0.552 1.939
1.937 0.558 2.015
1.807 0.239 1.913
1.528 0.439 2.287
1.695 -0.037 2.088
1.350 0.191 2.047
4.958 2.034 1.749
4.576 2.140 1.556
4.333 1.766 1.633
4.016 1.746 1.786
3.919 1.359 1.815
2.249 0.418 2.422
2.009 0.546 2.457
1.856 0.321 2.502
1.616 0.056 2.275
1.703 -0.031 2.316
1.145 0.094 2.408
4.238 1.673 1.969
4.106 1.611 1.858
2.320 0.471 2.776
2.150 0.567 2.686
1.766 0.395 2.645
1.819 0.110 2.541
1.378 0.076 2.620
1.251 -0.001 2.607
2.243 0.590 2.729
2.030 0.707 2.819
1.908 0.298 2.823
2.030 0.258 2.909
1.708 0.101 2.941
1.501 0.186 3.200
5.992 2.881 2.251
2.375 0.467 3.091
2.062 0.535 3.228
1.793 0.494 3.183
1.515 0.115 3.252
1.217 0.283 3.362
0.977 0.240 3.398
6.080 2.804 2.340
1.936 0.646 3.267
2.017 0.175 3.358
1.598 0.152 3.495
1.633 0.262 3.427
1.143 0.189 3.271
6.117 2.985 2.921
5.945 2.952 2.904
5.447 2.626 2.536
1.735 0.378 3.424
1.818 0.385 3.704
1.581 -0.004 3.823
1.249 0.295 3.919
6.085 3.098 2.914
5.986 2.570 3.042
5.448 2.554 3.169
5.389 2.606 3.080
1.539 0.133 3.962
1.424 0.049 3.951
6.047 2.909 3.305
5.946 2.619 3.191
5.406 2.817 3.204
5.430 2.735 3.234
5.253 2.542 3.325
1.574 0.027 4.379
1.305 0.294 4.385
1.323 0.079 4.263
5.935 3.146 3.485
5.918 2.611 3.552
5.405 2.706 3.510
5.209 2.473 3.645
5.356 2.419 3.573
5.182 2.199 3.390
1.348 0.134 4.285
1.277 0.057 4.240
5.997 2.971 3.860
5.991 2.801 3.583
5.544 2.616 3.583
5.336 2.799 3.870
5.272 2.492 3.556
5.257 2.342 3.652
3.035 1.253 4.335
2.959 0.960 4.589
0.904 0.008 4.919
6.178 3.207 4.131
6.090 2.742 4.104
5.522 2.852 3.789
5.691 2.750 3.927
5.366 2.284 3.845
4.912 2.496 4.077
3.333 1.384 4.613
3.062 1.343 4.702
2.969 1.044 4.578
2.773 1.202 4.914
2.359 0.982 4.768
1.205 0.337 4.937
5.971 3.000 4.140
5.856 2.977 4.255
5.640 2.628 4.281
5.331 2.779 4.345
5.055 2.685 4.226
4.907 2.354 4.484
3.676 1.431 4.909
3.465 1.566 4.657
3.204 1.333 4.959
2.983 1.092 4.782
2.822 1.322 4.836
2.637 0.863 4.920
1.076 0.247 5.049
5.982 3.196 4.287
5.926 3.132 4.360
5.811 2.831 4.419
5.380 2.645 4.249
5.094 2.562 4.546
4.044 1.710 4.966
3.548 1.744 5.010
3.516 1.283 4.885
3.190 1.620 5.018
3.035 1.286 5.159
2.997 1.169 5.333
2.509 1.147 5.244
2.469 0.872 5.311
5.967 3.342 4.499
5.795 2.767 4.797
5.784 2.938 4.910
5.622 2.901 4.864
5.447 2.644 4.867
3.921 2.001 4.957
4.036 1.566 5.120
3.468 1.732 5.288
3.481 1.441 5.354
3.071 1.376 5.391
3.143 1.292 5.445
2.929 1.401 5.287
2.731 1.172 5.423
2.523 1.075 5.340
6.122 2.825 4.947
5.514 3.027 4.867
4.054 1.881 5.210
4.146 1.910 5.407
3.567 1.559 5.553
3.693 1.355 5.672
3.368 1.523 5.676
3.301 1.193 5.827
2.987 1.229 5.627
2.766 1.057 5.630
2.434 0.826 5.850
3.961 1.960 5.583
4.080 1.668 5.554
3.932 1.925 5.789
3.887 1.862 5.675
3.656 1.530 5.705
3.210 1.312 5.637
3.092 1.352 5.636
2.801 1.100 5.878
2.652 1.335 6.138
2.310 1.176 6.167
4.494 1.886 5.780
4.196 2.060 5.617
3.734 1.738 5.693
3.033 1.009 -0.097
3.017 0.985 0.027
2.619 0.782 -0.047
2.469 0.677 0.142
2.305 0.544 0.290
3.608 1.147 0.291
3.363 1.041 0.414
3.021 0.753 0.292
2.863 0.720 0.470
2.514 0.804 0.480
4.602 1.706 0.242
4.155 1.569 0.169
4.026 1.537 0.311
3.824 1.198 -0.039
3.744 1.446 0.396
3.360 0.993 0.423
3.400 1.155 0.520
3.067 1.252 0.640
2.901 0.853 0.396
4.788 1.918 0.070
4.339 1.585 0.352
4.079 1.636 0.456
4.310 1.609 0.361
3.683 1.624 0.263
3.656 1.227 0.261
3.391 1.341 0.224
3.289 1.016 0.849
3.420 0.908 0.815
3.086 0.811 0.988
4.870 2.027 0.408
4.582 1.811 0.323
4.340 1.763 0.431
4.205 1.726 0.580
4.196 1.325 0.634
3.811 1.413 0.537
3.802 1.137 0.878
3.619 1.377 0.559
3.633 1.357 0.956
3.346 0.919 0.759
4.942 1.897 0.800
4.541 1.769 0.914
4.685 1.692 0.899
4.306 1.846 0.948
4.212 1.593 0.627
3.901 1.637 0.768
3.816 1.341 0.851
3.313 1.000 0.742
3.444 1.083 1.334
1.675 0.307 1.620
1.601 0.007 1.414
5.080 2.165 1.090
4.837 1.801 0.811
4.533 1.843 1.062
4.144 1.884 1.178
4.038 1.799 0.977
3.795 1.576 1.288
3.730 1.426 1.007
3.496 1.051 1.163
3.738 1.270 1.249
2.050 0.411 1.656
1.894 0.511 1.805
1.804 0.150 1.624
1.536 0.229 1.729
5.146 2.235 1.008
4.772 2.082 1.406
4.416 1.895 1.010
4.572 1.656 1.418
4.073 1.546 1.376
3.924 1.431 1.245
3.986 1.276 1.451
3.423 1.503 1.327
2.337 0.449 1.797
1.956 0.303 1.979
1.744 0.451 2.030
1.302 0.238 1.879
4.860 2.147 1.606
4.538 1.759 1.688
4.322 2.017 1.376
4.350 1.529 1.698
3.847 1.663 1.648
3.645 1.233 1.539
1.792 0.770 1.767
1.615 0.319 1.841
1.654 0.576 1.838
1.235 0.472 1.755
1.388 0.057 1.833
4.484 2.159 1.343
4.414 2.322 1.579
4.488 2.233 1.529
3.973 1.873 1.576
3.882 1.836 1.732
2.113 0.849 1.892
2.222 0.537 1.878
1.907 0.608 2.144
1.656 0.541 1.936
1.389 0.455 2.301
1.403 0.326 2.131
0.937 -0.137 2.372
4.497 2.288 1.864
4.281 2.026 1.917
3.862 1.807 1.833
2.322 1.199 2.409
2.485 0.782 2.436
2.249 0.548 2.191
2.010 0.431 2.321
1.840 0.637 2.526
1.388 0.452 2.340
1.434 0.177 2.517
0.864 0.266 2.689
0.610 -0.151 2.737
2.344 0.774 2.314
2.350 0.665 2.540
1.861 0.951 2.658
1.844 0.637 2.719
1.814 0.423 2.701
1.227 0.323 2.523
1.311 0.180 2.735
1.286 -0.072 2.788
0.680 0.255 2.605
2.186 0.734 2.771
2.109 0.590 2.757
1.952 0.886 3.051
1.767 0.494 2.783
1.297 0.193 2.724
1.269 0.126 2.850
1.268 0.205 2.925
0.658 -0.098 2.820
5.722 3.195 2.155
2.541 0.970 2.907
2.226 0.848 2.971
1.742 0.810 2.931
1.650 0.549 3.070
1.713 0.574 3.167
1.512 0.477 2.953
1.105 0.039 3.088
0.881 0.249 3.097
5.759 3.234 2.677
5.477 2.766 2.635
2.210 0.973 3.263
1.722 0.734 3.099
1.685 0.747 3.389
1.616 0.377 3.465
1.128 0.580 3.632
1.023 0.269 3.501
0.860 0.246 3.650
0.781 -0.065 3.602
5.791 2.984 2.883
5.822 2.945 2.483
5.513 2.816 2.892
1.604 0.487 3.722
1.395 0.674 3.451
1.345 0.170 3.520
1.122 0.045 3.774
0.948 0.335 3.643
0.829 -0.002 3.564
5.745 3.239 2.874
5.657 3.133 2.803
5.632 2.680 3.114
5.339 2.646 3.003
5.062 2.716 2.878
1.784 0.645 3.810
1.211 0.575 3.859
1.279 0.454 3.703
1.127 0.044 4.018
0.883 0.241 4.021
5.653 3.086 3.318
5.580 3.011 3.040
5.310 2.680 3.413
5.130 2.719 3.137
5.095 2.829 3.064
4.744 2.380 3.232
1.422 0.483 4.212
1.083 0.554 4.286
1.075 0.050 4.174
0.846 -0.067 4.028
5.994 3.235 3.243
5.646 3.170 3.424
5.481 2.941 3.634
5.327 2.558 3.377
4.975 2.749 3.365
4.878 2.311 3.731
1.239 0.288 4.209
1.190 0.157 4.487
0.781 0.187 4.709
6.066 3.224 3.481
5.751 3.081 3.735
5.332 2.749 3.531
5.079 2.636 3.804
5.247 2.511 3.841
4.809 2.381 3.981
4.794 2.293 3.937
0.804 0.157 4.917
0.878 0.012 4.903
5.875 3.016 4.057
5.924 3.155 4.093
5.320 2.786 4.058
5.173 2.784 4.045
5.330 2.515 4.026
5.048 2.801 4.092
4.918 2.686 3.968
3.086 1.618 4.666
3.046 1.410 4.608
2.439 1.101 4.799
0.755 -0.019 4.962
5.935 3.107 3.935
5.874 3.045 3.944
5.715 2.809 4.375
5.329 2.945 4.159
4.969 2.549 4.154
5.031 2.871 4.369
3.180 1.863 4.937
3.331 1.503 4.991
2.759 1.365 4.806
2.468 1.413 4.782
2.338 1.190 4.943
6.148 3.354 4.515
5.583 3.138 4.295
5.558 2.875 4.570
5.589 3.018 4.445
5.383 2.893 4.448
3.538 1.962 4.968
3.517 1.738 4.901
3.111 1.630 4.844
3.128 1.514 5.305
2.790 1.132 5.046
2.298 1.218 5.104
2.478 1.315 5.019
5.995 2.992 4.717
5.631 3.028 4.742
5.285 2.959 4.744
3.678 2.025 5.222
3.320 1.699 5.136
3.429 1.661 5.420
3.153 1.698 5.182
3.168 1.336 5.377
2.941 1.349 5.563
2.646 1.156 5.535
2.182 1.066 5.526
1.921 0.917 5.481
3.765 2.198 5.264
4.012 1.999 5.418
3.413 1.715 5.424
3.596 1.643 5.366
3.119 1.768 5.331
2.877 1.432 5.791
2.904 1.287 5.684
2.388 1.530 5.786
2.285 1.187 5.669
2.343 0.927 5.874
4.192 2.304 5.189
3.737 1.807 5.270
3.647 2.276 5.540
3.516 1.770 5.517
3.306 1.765 5.965
2.972 1.936 5.582
2.938 1.534 5.845
2.670 1.442 6.072
2.761 1.420 5.836
2.285 1.366 6.122
4.323 2.460 5.755
4.025 2.387 5.788
3.749 2.015 5.796
2.798 0.938 0.082
2.856 0.870 0.130
2.336 0.981 -0.035
2.081 0.551 0.340
2.286 0.361 0.221
3.245 1.350 -0.035
2.961 1.339 0.169
3.067 0.931 0.495
2.579 0.894 0.160
2.433 0.674 0.236
4.231 1.906 -0.043
4.094 2.003 0.025
3.824 1.909 0.111
3.869 1.677 0.283
3.377 1.356 0.180
3.446 1.174 0.185
3.463 1.193 0.204
2.924 1.148 0.686
2.783 1.178 0.678
2.665 0.831 0.529
4.998 2.162 0.059
4.802 1.952 0.273
4.542 1.954 0.334
4.098 2.065 0.300
4.123 1.835 0.521
3.990 1.758 0.406
3.723 1.290 0.523
3.312 1.590 0.475
3.227 1.214 0.841
3.198 1.243 0.887
2.857 1.101 0.879
4.599 2.115 0.314
4.771 2.328 0.634
4.245 2.172 0.603
4.097 2.064 0.525
3.784 1.709 0.641
3.876 1.732 0.534
3.812 1.698 0.450
3.357 1.612 0.822
3.599 1.413 1.128
3.199 1.527 0.849
5.237 2.548 0.837
4.803 2.315 0.522
4.516 2.122 0.663
4.292 1.925 0.943
4.129 2.108 0.659
4.004 1.983 0.857
3.840 1.837 0.786
3.759 1.685 0.973
3.450 1.299 1.050
3.562 1.499 1.125
5.031 2.488 1.005
5.026 2.397 0.691
4.885 2.380 1.181
4.355 1.859 1.218
4.225 2.081 0.801
4.275 1.878 0.947
3.641 1.870 1.213
3.664 1.706 0.984
3.516 1.405 0.998
1.706 0.601 1.443
1.602 0.319 1.880
1.426 0.052 1.702
5.100 2.279 1.275
4.709 2.078 1.066
4.680 2.176 1.235
4.339 2.203 1.098
4.119 1.948 1.342
3.637 1.541 1.139
3.474 1.806 1.487
1.915 0.532 1.951
1.944 0.535 2.024
1.786 0.461 2.143
1.348 0.350 2.097
1.275 0.056 2.044
4.723 2.414 1.482
4.654 2.110 1.428
4.166 2.175 1.395
3.882 2.108 1.594
3.731 1.647 1.758
1.908 0.952 1.938
1.712 0.761 1.877
1.560 0.789 1.978
1.679 0.438 1.812
1.235 0.275 1.909
4.877 2.425 1.294
4.760 2.447 1.171
4.450 2.375 1.472
4.042 2.084 1.350
4.089 2.220 1.591
2.316 0.953 1.994
2.350 1.069 1.837
2.056 1.106 2.183
1.553 0.600 1.935
1.574 0.431 2.297
1.081 0.668 2.419
1.312 0.511 2.188
2.432 1.301 2.213
2.293 1.001 2.507
1.881 1.065 2.348
1.916 0.635 2.222
1.421 0.645 2.624
1.229 0.626 2.629
1.138 0.501 2.456
0.828 0.362 2.382
2.358 1.564 2.662
2.493 1.023 2.730
2.045 1.041 2.583
1.839 0.783 2.452
1.534 0.790 2.598
1.338 0.745 2.551
1.535 0.561 2.696
1.063 0.644 2.700
0.775 0.590 2.838
0.920 0.107 2.917
2.624 1.414 2.736
2.296 1.330 2.681
2.318 1.012 2.940
1.965 1.164 2.633
1.804 0.867 2.914
1.710 0.891 2.690
1.181 0.810 3.005
1.006 0.618 2.741
1.134 0.510 3.122
0.601 0.157 2.854
0.514 0.329 3.053
2.512 1.353 2.927
2.088 1.126 2.898
2.224 1.230 2.956
1.987 0.891 3.197
1.360 0.840 3.338
1.240 0.854 3.311
0.968 0.439 3.323
0.976 0.254 3.444
0.679 0.266 3.280
0.317 0.348 3.269
5.870 3.421 2.311
5.295 3.076 2.425
2.167 0.995 3.332
1.870 0.834 3.336
1.586 1.071 3.192
1.442 0.848 3.392
1.563 0.715 3.521
1.231 0.653 3.295
1.076 0.231 3.338
0.683 0.403 3.300
0.720 0.397 3.424
5.656 3.060 2.696
5.623 3.107 2.874
5.101 2.865 2.653
5.152 2.970 2.728
1.782 1.117 3.786
1.858 0.729 3.511
1.384 0.765 3.622
1.008 0.376 3.605
0.828 0.597 3.729
0.571 0.298 3.868
0.667 0.088 3.611
5.704 3.426 3.011
5.767 3.047 2.715
5.356 3.029 2.927
4.957 2.838 2.799
4.945 2.933 3.268
4.602 2.627 3.136
1.394 0.837 3.707
1.053 0.655 4.095
0.814 0.720 4.104
0.641 0.530 3.731
0.769 0.106 3.971
5.795 3.224 3.131
5.360 3.110 3.167
5.358 3.318 3.021
4.940 2.918 3.118
4.859 2.963 3.459
4.533 2.877 3.274
4.442 2.403 3.419
0.947 0.612 4.336
1.002 0.637 4.266
0.840 0.125 4.362
5.568 3.487 3.457
5.743 3.208 3.312
5.457 3.329 3.532
5.383 2.861 3.355
5.054 3.072 3.350
4.520 2.834 3.717
4.539 2.546 3.562
4.246 2.485 3.419
1.018 0.493 4.268
0.630 0.180 4.580
5.905 3.584 3.473
5.437 3.110 3.730
5.165 3.246 3.499
5.399 2.980 3.703
5.144 3.116 3.922
4.767 2.798 3.798
4.356 2.840 3.739
4.425 2.541 3.694
0.839 0.560 4.860
5.827 3.304 4.060
5.693 3.511 3.880
5.333 3.049 3.772
5.340 3.247 4.165
5.201 2.973 3.939
4.913 2.741 4.034
4.821 2.687 4.075
5.740 3.233 4.067
5.808 3.368 3.901
5.403 3.361 4.222
5.376 3.321 4.294
4.849 2.747 4.452
4.647 2.652 4.108
4.610 2.680 4.235
3.194 1.703 4.757
2.996 1.652 5.069
2.737 1.319 4.766
2.422 1.615 5.024
1.991 1.300 4.743
5.527 3.576 4.334
5.259 3.447 4.224
5.060 2.995 4.296
4.907 3.034 4.321
4.748 3.103 4.680
3.365 1.865 5.104
2.812 1.982 5.200
2.926 1.536 4.956
2.642 1.774 5.254
2.276 1.313 5.001
2.109 1.363 5.151
1.890 1.281 5.277
3.318 2.196 5.232
3.178 2.144 5.489
3.256 1.660 5.476
2.691 1.890 5.446
2.409 1.608 5.134
2.501 1.689 5.544
1.992 1.498 5.315
2.031 1.464 5.343
3.804 2.250 5.273
3.552 1.973 5.523
3.427 1.799 5.374
2.802 1.807 5.590
2.768 1.828 5.524
2.706 1.401 5.834
2.351 1.566 5.568
2.345 1.601 5.716
2.127 1.176 5.509
1.755 1.303 5.591
3.735 2.339 5.366
3.645 2.266 5.895
3.449 2.212 5.898
3.432 1.982 5.578
3.147 1.897 5.775
2.766 1.785 5.618
2.558 1.877 5.895
2.401 1.467 6.078
2.348 1.598 5.883
2.115 1.344 6.065
1.750 1.233 5.800
3.915 2.217 5.853
3.573 2.401 5.535
2.743 1.214 -0.084
2.608 1.225 -0.167
2.248 0.790 0.206
2.147 0.787 0.087
2.089 0.816 -0.022
1.822 0.607 0.061
3.333 1.663 0.005
3.092 1.584 0.338
2.788 1.376 0.297
2.835 1.362 0.071
2.463 0.932 0.102
2.062 0.890 0.467
4.313 2.096 0.210
4.073 2.011 0.218
3.982 1.789 -0.069
3.504 1.813 0.021
3.199 1.788 -0.036
3.063 1.759 0.073
3.458 1.551 0.252
2.956 1.456 0.512
2.646 1.183 0.346
2.713 1.177 0.698
4.912 2.641 0.199
4.740 2.645 0.405
4.236 2.397 0.325
4.449 1.946 0.077
3.833 2.079 0.490
3.853 1.932 0.373
3.572 1.845 0.408
3.219 1.508 0.423
3.250 1.765 0.438
3.351 1.756 0.735
3.064 1.410 0.920
5.250 2.617 0.174
4.761 2.366 0.315
4.620 2.397 0.523
4.594 2.193 0.572
4.295 2.347 0.545
3.913 2.300 0.517
4.085 2.142 0.560
3.479 1.982 0.547
3.277 1.679 0.485
3.140 1.625 0.820
3.168 1.530 0.903
5.266 2.665 0.681
4.813 2.450 0.490
4.749 2.581 0.863
4.438 2.204 0.677
4.211 2.275 0.492
4.151 2.312 0.630
3.731 2.161 0.961
3.814 1.723 0.806
3.540 1.893 0.828
3.257 1.791 0.736
5.025 2.854 0.677
4.751 2.735 0.788
4.368 2.304 0.865
4.321 2.128 0.817
3.925 2.228 0.850
3.885 1.921 0.853
3.853 1.768 1.085
3.462 1.598 1.130
4.785 2.567 1.331
4.546 2.526 1.019
4.713 2.214 1.197
4.388 2.124 1.234
3.970 2.265 1.136
3.721 2.256 1.302
3.707 1.955 1.092
2.133 1.051 2.023
2.006 1.066 1.955
1.778 0.565 1.662
1.632 0.585 1.838
1.370 0.389 2.094
4.808 2.802 1.318
4.764 2.405 1.582
4.374 2.226 1.262
4.126 2.181 1.597
3.833 2.151 1.718
1.789 1.434 1.881
1.856 1.128 1.807
1.774 1.042 1.755
1.230 0.652 1.939
4.655 2.782 1.125
4.340 2.656 1.393
4.094 2.783 1.219
4.005 2.214 1.358
2.107 1.126 1.847
2.107 1.212 1.863
1.804 1.106 2.282
1.448 0.786 1.914
1.184 0.764 2.021
1.129 0.749 2.346
2.482 1.486 2.035
2.382 1.531 2.238
2.122 1.276 2.373
1.755 1.353 2.412
1.805 1.157 2.154
1.298 0.807 2.522
1.037 0.995 2.500
1.009 0.535 2.477
2.730 1.479 2.562
2.476 1.384 2.246
2.124 1.190 2.372
1.989 1.493 2.583
2.029 1.244 2.514
1.407 0.967 2.464
1.220 0.930 2.392
1.108 0.867 2.440
0.858 0.917 2.489
0.986 0.477 2.630
2.520 1.540 2.535
2.496 1.801 2.784
2.118 1.575 2.670
2.225 1.413 2.523
1.719 1.234 2.566
1.454 1.130 2.581
1.237 0.921 2.955
1.419 0.998 2.792
1.084 0.610 3.125
0.685 0.839 3.061
0.635 0.255 3.005
2.893 1.517 3.074
2.305 1.727 2.988
2.317 1.434 2.778
2.203 1.538 2.976
1.679 1.157 3.228
1.800 1.339 3.182
1.229 1.065 3.088
1.233 1.106 2.915
1.129 0.519 3.055
0.852 0.447 3.005
0.693 0.463 3.338
0.468 0.351 3.484
5.447 3.277 2.382
2.449 1.549 3.040
2.166 1.554 3.383
2.082 1.253 3.387
1.946 1.036 3.376
1.735 1.365 3.436
1.444 1.194 3.301
1.211 0.684 3.509
1.147 0.808 3.447
0.734 0.861 3.426
0.626 0.556 3.331
0.406 0.352 3.462
5.821 3.306 2.570
5.577 3.250 2.799
5.114 3.267 2.728
4.972 3.097 2.698
1.592 1.049 3.483
1.623 0.878 3.620
1.493 1.118 3.740
1.215 0.992 3.422
0.965 0.676 3.869
0.677 0.343 3.492
0.574 0.400 3.880
5.832 3.539 2.721
5.217 3.576 3.126
5.140 3.461 3.008
5.179 3.186 2.976
4.591 2.967 2.805
4.570 2.937 3.266
4.283 2.692 3.241
4.038 2.809 3.247
1.232 0.968 3.728
0.714 0.624 3.675
0.520 0.386 4.022
0.439 0.346 3.959
5.755 3.647 3.320
5.334 3.416 3.131
5.015 3.117 3.194
4.825 3.043 3.400
4.697 3.115 3.219
4.438 2.797 3.065
4.474 3.020 3.343
4.066 2.488 3.172
3.892 2.749 3.609
0.568 0.440 4.172
0.373 0.423 4.427
5.587 3.445 3.397
5.324 3.362 3.177
5.049 3.364 3.455
5.182 3.155 3.284
4.861 3.204 3.501
4.848 2.856 3.387
4.502 2.659 3.586
4.135 2.549 3.550
4.163 2.603 3.825
0.652 0.759 4.537
5.500 3.788 3.506
5.696 3.581 3.572
5.164 3.206 3.568
5.235 3.327 3.523
4.628 3.026 3.781
4.427 2.847 3.692
4.656 2.867 3.636
4.086 2.717 3.724
4.025 2.480 3.770
5.470 3.484 3.854
5.433 3.724 3.923
5.463 3.455 4.051
5.216 3.221 3.749
4.692 3.035 4.033
4.861 3.198 3.818
4.250 2.893 3.948
4.493 2.935 4.037
5.511 3.450 4.254
5.186 3.520 3.954
5.258 3.280 4.252
4.922 2.964 4.230
4.851 2.835 4.412
4.577 2.730 4.397
2.846 2.060 4.811
2.660 1.946 4.929
2.279 1.395 4.910
2.253 1.349 5.067
5.238 3.538 4.604
4.988 3.435 4.384
4.945 3.190 4.604
4.717 2.971 4.694
3.093 2.095 5.026
2.881 1.816 5.201
2.510 1.908 5.109
2.124 1.869 5.146
1.929 1.291 5.379
1.784 1.514 5.095
3.155 2.169 5.171
2.961 2.073 5.310
2.786 2.147 5.180
2.719 1.707 5.550
2.266 1.465 5.417
1.951 1.398 5.237
1.724 1.212 5.515
1.536 1.246 5.236
3.395 2.337 5.246
3.337 2.339 5.527
2.907 1.889 5.731
2.901 2.069 5.686
2.329 1.876 5.452
2.345 1.505 5.814
2.285 1.619 5.765
2.114 1.652 5.773
1.770 1.255 5.797
1.660 1.448 5.972
3.659 2.346 5.471
3.221 2.194 5.788
3.085 2.443 5.898
2.750 2.279 5.518
2.697 2.106 5.962
2.723 1.934 5.601
2.201 1.959 5.981
2.067 1.847 6.102
1.778 1.556 5.949
1.683 1.302 5.854
1.524 1.348 6.003
3.644 2.536 5.803
1.094 0.331 0.248
2.578 1.340 -0.166
2.158 1.110 -0.172
1.948 1.096 0.221
1.902 1.009 0.230
1.554 0.798 0.325
1.309 0.952 0.355
1.264 0.745 0.076
3.082 1.829 0.186
2.981 1.653 -0.013
2.490 1.548 0.421
2.551 1.302 0.433
2.376 1.123 0.389
2.233 0.923 0.194
4.099 2.294 0.177
3.846 2.220 0.091
3.412 2.028 0.101
3.352 1.793 0.245
3.231 1.664 0.088
3.279 1.544 0.401
3.032 1.646 0.195
2.781 1.664 0.561
5.229 3.135 0.097
4.984 2.695 -0.011
4.930 2.728 0.333
4.632 2.719 -0.020
4.401 2.473 0.130
4.216 2.266 0.192
4.076 2.227 0.224
3.918 2.238 0.491
3.574 2.095 0.234
3.408 1.849 0.212
2.914 1.987 0.228
3.316 1.577 0.706
5.041 3.137 0.179
5.105 3.019 0.559
4.629 2.622 0.528
4.757 2.881 0.507
4.413 2.548 0.528
4.011 2.462 0.652
4.117 2.320 0.570
3.577 2.174 0.590
3.460 1.887 0.611
3.552 2.123 0.779
2.994 1.908 0.757
5.330 2.899 0.369
4.999 2.835 0.502
4.690 2.596 0.478
4.577 2.494 0.817
4.159 2.801 0.835
4.039 2.412 0.784
4.163 2.470 0.599
3.599 2.032 0.773
3.529 2.149 0.727
3.412 1.867 1.057
5.079 3.199 1.004
4.950 2.991 1.017
4.451 2.964 0.727
4.280 2.458 0.732
4.406 2.375 0.901
3.971 2.187 0.867
3.883 2.347 0.912
3.664 1.934 1.278
5.026 2.892 1.190
4.790 2.693 1.201
4.277 2.700 1.232
4.234 2.459 1.044
4.132 2.251 1.319
3.890 2.194 1.409
2.031 1.311 1.576
1.705 1.208 1.762
1.714 0.937 1.944
1.199 0.836 1.779
4.483 3.008 1.364
4.389 2.431 1.421
4.322 2.390 1.374
3.987 2.188 1.646
0.520 -0.062 4.407
0.720 -0.001 4.737
0.495 -0.141 5.102
0.715 0.185 5.079
0.400 -0.127 5.408
0.184 0.255 3.143
0.195 0.046 3.730
0.398 0.252 3.665
0.173 -0.022 4.042
0.191 0.019 3.892
0.184 0.051 3.818
0.562 0.337 4.034
0.314 -0.101 4.469
0.597 0.387 4.525
0.072 0.286 4.371
0.286 0.129 4.947
0.034 0.153 4.689
0.020 -0.210 4.853
0.676 0.167 5.132
0.274 0.210 5.223
-0.059 -0.166 5.054
0.180 0.431 5.111
0.225 0.308 5.106
0.245 0.032 3.284
0.347 0.086 3.762
0.027 0.291 3.635
0.329 0.184 3.822
0.018 0.338 3.882
0.443 0.269 3.903
-0.088 0.082 4.056
0.309 0.507 4.445
-0.136 0.321 4.219
0.349 0.373 4.682
0.326 0.101 4.576
0.345 0.244 4.906
0.263 0.526 4.963
0.280 0.533 4.885
6.262 4.065 1.848
6.034 4.076 2.041
6.140 3.795 1.847
6.126 4.213 2.266
5.927 3.777 2.078
5.681 4.011 2.409
5.966 4.237 2.440
5.713 3.923 2.614
5.770 3.629 2.500
5.988 3.885 2.942
6.034 4.141 2.853
5.678 3.705 2.980
5.871 3.818 3.168
5.518 3.656 3.175
5.871 4.123 3.299
5.603 3.463 0.392
6.075 4.360 5.032
6.286 4.774 5.166
5.753 4.674 5.202
5.666 3.714 0.117
5.545 3.754 0.125
5.376 3.535 0.428
6.277 4.652 4.438
6.236 4.660 4.408
5.841 4.825 4.661
6.462 4.949 5.069
6.149 4.808 4.982
5.640 4.771 5.096
6.296 5.074 5.327
5.887 4.889 5.217
5.670 4.687 5.399
5.414 4.374 4.994
5.412 4.309 0.329
5.485 4.026 0.303
5.168 3.993 0.068
5.382 4.092 0.301
5.233 3.859 0.383
5.182 3.725 0.684
6.078 5.199 3.624
6.032 5.146 4.072
5.904 5.215 4.058
5.949 5.247 4.281
6.045 4.745 4.585
6.338 5.049 4.379
5.837 4.845 4.829
5.502 4.694 4.735
6.062 5.050 4.962
5.918 4.923 4.778
5.876 4.985 4.877
5.427 4.783 4.997
5.982 5.032 4.987
5.725 4.886 5.076
5.682 4.954 4.982
5.580 4.909 5.142
5.525 4.675 -0.103
5.364 4.262 -0.110
5.339 4.014 0.319
4.932 3.913 0.075
5.477 4.338 0.345
5.353 4.084 0.477
4.973 4.320 0.425
5.503 4.060 0.825
4.944 4.373 0.702
5.013 4.147 0.739
5.131 4.226 1.035
5.885 5.082 3.649
5.906 5.234 3.664
6.039 5.347 4.008
5.988 5.514 3.938
5.752 5.392 3.926
5.746 5.007 4.078
6.098 5.520 4.410
5.886 5.018 4.127
5.748 4.998 4.429
5.364 5.015 4.641
6.028 5.402 4.527
5.742 5.354 4.562
5.931 5.146 4.513
5.585 5.075 4.738
6.390 5.296 4.810
5.774 5.411 4.787
5.928 5.113 4.928
5.734 5.038 4.692
5.306 5.123 4.840
6.363 5.384 4.989
5.914 5.235 4.953
5.940 5.277 5.197
5.374 4.993 5.020
5.343 4.794 5.090
5.826 4.845 -0.138
5.508 4.670 0.180
4.950 4.278 0.187
4.761 4.229 -0.012
5.360 4.385 0.421
5.349 4.500 0.199
4.801 4.368 0.318
5.034 4.674 0.373
5.110 4.507 0.811
5.462 4.751 0.839
5.269 4.565 1.067
5.107 4.482 1.011
5.072 4.560 0.880
4.997 4.583 1.041
4.920 4.689 1.212
4.801 4.671 1.454
5.731 5.567 3.316
5.595 5.292 3.483
6.357 5.833 3.664
5.962 5.292 3.725
5.867 5.503 3.497
5.534 5.201 3.710
6.120 5.603 3.656
6.034 5.703 3.933
5.649 5.220 3.689
5.802 5.311 4.023
6.314 5.560 4.114
6.152 5.580 4.280
5.919 5.374 4.159
5.819 5.137 4.077
5.503 4.976 4.156
6.176 5.525 4.148
5.853 5.587 4.063
5.955 5.461 4.441
5.654 5.172 4.149
5.285 5.348 4.279
6.354 5.590 4.630
6.247 5.600 4.418
5.760 5.521 4.688
5.683 5.566 4.396
5.289 5.015 4.808
6.219 5.705 4.747
5.713 5.460 4.808
5.873 5.387 5.011
5.336 5.060 4.863
5.202 5.181 5.124
6.222 5.653 4.953
6.039 5.665 4.937
5.905 5.303 4.946
5.446 5.534 5.078
5.274 4.951 5.059
5.467 4.886 0.300
5.021 4.868 0.328
4.760 4.294 0.343
5.113 4.621 0.300
5.296 4.770 0.327
4.947 4.504 0.448
4.987 4.810 0.401
4.896 4.735 0.382
4.890 4.846 1.001
4.852 4.384 1.060
5.354 4.980 1.121
5.118 4.661 0.970
5.199 4.947 1.155
4.755 4.702 1.004
4.903 5.035 1.377
4.823 4.997 1.363
5.038 4.927 1.686
4.634 4.972 1.685
4.892 4.784 1.955
4.738 4.942 1.989
4.762 5.016 2.240
5.589 5.559 2.875
5.218 5.396 2.953
5.804 5.744 3.215
5.810 5.636 2.953
5.397 5.493 3.008
5.598 5.179 3.044
6.306 5.857 3.300
6.118 5.975 3.415
5.939 5.492 3.214
5.456 5.685 3.592
5.298 5.195 3.539
6.264 6.111 3.369
6.048 5.603 3.318
5.787 5.910 3.622
5.469 5.349 3.584
5.541 5.349 3.613
5.019 5.450 3.502
6.119 5.790 3.837
5.988 5.805 4.030
5.536 5.460 3.820
5.587 5.706 3.919
5.414 5.446 3.847
6.031 5.921 4.024
6.030 5.805 4.084
5.520 5.730 4.269
5.712 5.557 4.277
5.337 5.298 4.064
6.275 5.862 4.070
5.718 5.571 4.450
5.739 5.785 4.490
5.626 5.751 4.483
5.501 5.506 4.394
5.996 5.793 4.356
6.159 5.664 4.438
5.644 5.810 4.439
5.671 5.648 4.686
5.317 5.298 4.772
6.193 5.758 4.734
5.973 6.049 4.959
5.884 5.524 4.606
5.343 5.429 4.940
5.294 5.298 5.010
6.160 6.061 4.795
6.115 5.825 4.765
5.940 5.646 5.180
5.562 5.391 5.296
5.562 5.567 4.869
5.358 5.546 5.057
4.917 4.922 -0.009
4.755 5.001 -0.098
4.891 4.638 0.351
5.191 5.087 0.503
4.852 4.515 0.354
4.881 4.881 0.528
4.674 4.952 0.820
4.872 5.043 0.930
4.812 4.588 0.963
5.188 5.083 1.158
4.695 4.802 1.020
4.786 5.284 1.200
4.888 5.281 0.859
4.725 5.018 1.262
4.653 4.943 1.377
4.887 5.291 1.628
4.893 5.114 1.374
4.867 5.329 1.884
4.791 4.939 1.963
5.050 5.559 1.706
4.741 5.487 2.189
4.733 5.219 1.808
5.256 5.671 2.084
5.184 5.260 2.336
4.550 5.067 2.193
5.474 5.665 2.422
5.427 5.271 2.627
4.845 5.297 2.514
4.719 5.117 2.301
5.825 5.959 2.769
5.263 5.664 2.817
5.283 5.626 2.651
5.232 5.291 2.581
4.882 5.123 2.649
5.992 5.886 2.849
5.790 5.719 2.792
5.293 5.463 2.705
5.343 5.561 2.718
4.827 5.385 2.849
4.952 5.158 3.000
5.862 6.234 3.224
6.077 5.909 2.861
5.465 5.692 3.133
5.338 5.902 3.293
5.110 5.533 3.149
5.012 5.597 3.172
4.798 5.143 3.169
6.037 6.102 3.211
5.771 5.779 3.417
5.617 5.659 3.500
5.386 5.806 3.197
5.072 5.834 3.419
5.041 5.435 3.456
6.369 6.037 3.320
5.812 6.177 3.456
5.891 6.044 3.761
5.361 5.595 3.687
5.083 5.863 3.584
5.248 5.544 3.456
6.048 6.195 3.562
5.993 6.193 3.525
5.806 5.749 3.772
5.337 5.653 3.924
5.404 5.502 3.929
5.106 5.582 3.848
6.103 6.160 4.190
5.758 5.884 4.048
5.654 6.045 4.244
5.602 5.937 4.019
5.538 5.897 4.002
5.213 5.521 4.026
6.230 6.286 4.398
5.814 5.995 4.107
5.716 6.045 4.363
5.502 5.671 4.062
5.158 5.576 4.415
5.153 5.664 4.480
6.117 6.376 4.580
6.121 6.350 4.493
5.757 6.136 4.689
5.600 5.832 4.730
5.389 5.614 4.504
5.314 5.420 4.752
5.996 5.949 4.770
5.841 6.133 4.625
5.667 6.089 4.946
5.585 5.692 4.952
6.149 6.414 5.025
5.992 6.036 5.127
5.735 5.898 5.107
5.310 5.764 5.280
4.769 5.147 0.002
6.286 5.758 0.007
4.612 4.752 0.381
4.955 5.259 0.644
4.862 4.788 0.790
4.734 5.150 0.925
4.427 5.200 1.015
4.972 5.381 0.954
4.648 4.899 1.119
6.085 6.023 0.636
4.613 5.341 0.930
4.337 5.103 1.200
6.310 6.497 0.969
4.693 5.484 1.395
4.349 5.466 1.273
4.933 5.371 1.655
4.532 5.361 1.496
5.193 5.358 1.502
4.973 5.555 1.748
4.681 5.564 1.778
5.248 5.770 1.941
4.936 5.647 1.742
4.499 5.428 1.833
5.344 5.704 2.355
4.967 5.876 2.181
4.785 5.305 2.415
4.600 5.180 2.401
5.718 5.997 2.190
5.429 5.785 2.281
5.238 5.796 2.291
4.690 5.747 2.494
4.503 5.263 2.490
5.651 6.138 2.473
5.387 5.773 2.810
5.144 5.893 2.805
5.294 5.629 2.555
4.852 5.436 2.461
4.760 5.397 2.779
5.812 6.146 2.904
5.794 6.282 2.625
5.623 5.924 2.973
5.256 5.973 3.075
5.190 5.707 2.903
4.904 5.719 2.687
4.782 5.706 2.710
5.833 6.459 2.967
5.680 6.390 3.131
5.496 5.924 3.066
5.553 6.080 3.081
5.199 5.700 3.220
5.019 5.477 3.142
4.878 5.558 3.024
5.872 6.302 3.258
5.469 6.249 3.205
5.402 5.896 3.202
5.273 5.910 3.202
5.145 5.644 3.246
4.861 5.452 3.613
5.889 6.180 3.437
5.572 6.076 3.504
5.318 6.167 3.772
5.197 5.785 3.742
4.830 5.711 3.434
5.686 6.420 3.752
5.503 6.106 3.904
5.273 5.864 3.736
5.132 5.864 3.880
4.919 5.766 4.073
5.756 6.279 4.112
5.529 6.033 3.927
5.573 5.978 4.001
5.024 5.796 4.107
5.251 5.887 3.868
5.853 6.411 4.366
5.470 6.085 4.159
5.296 5.949 4.383
5.918 6.396 4.590
5.363 6.019 4.694
5.347 5.921 4.555
5.889 6.041 4.657
5.560 6.260 4.710
6.013 6.087 0.006
5.934 6.219 0.176
5.760 6.092 0.231
4.718 5.329 0.676
6.038 6.390 0.687
6.110 6.079 0.405
4.741 5.062 1.030
6.422 6.167 0.588
4.694 5.244 1.010
4.394 5.449 0.932
4.232 5.550 0.794
4.651 5.576 1.029
4.661 5.500 1.441
4.455 5.720 1.618
4.658 5.616 1.366
5.139 5.791 1.864
4.584 5.848 1.922
4.708 5.502 1.613
5.070 5.978 1.684
4.919 5.880 1.991
4.828 5.601 1.746
4.361 5.759 1.806
5.242 5.952 2.323
5.068 5.837 1.988
4.650 5.808 2.071
4.767 5.654 2.012
5.771 6.352 2.414
5.286 6.357 2.229
5.264 5.932 2.210
4.847 6.112 2.167
4.956 5.643 2.301
4.745 5.709 2.403
5.487 5.961 2.586
5.377 6.286 2.568
4.858 6.130 2.811
4.763 5.874 2.789
4.490 5.635 2.545
5.598 6.131 2.880
5.228 5.909 2.852
4.975 5.857 2.750
4.809 5.750 2.873
4.365 5.638 3.090
5.624 6.405 3.049
5.093 6.231 3.163
4.940 5.825 3.240
4.989 5.739 3.267
4.569 5.896 2.960
5.575 6.041 3.301
5.086 5.999 3.385
4.822 6.026 3.536
5.008 5.675 3.491
4.663 5.963 3.533
5.320 5.979 3.612
5.005 6.193 3.607
4.690 5.863 3.816
5.483 6.351 3.803
5.128 6.051 3.941
4.941 6.198 3.755
5.304 6.102 3.973
5.154 6.303 3.952
5.512 6.431 4.354
5.781 6.072 0.276
5.770 6.399 0.179
5.906 6.189 0.594
4.408 5.371 1.175
4.358 5.848 1.449
4.555 6.000 1.304
4.382 5.774 1.523
4.706 6.069 1.833
4.521 6.038 1.898
4.594 5.539 1.549
5.165 6.232 1.736
4.572 5.875 2.042
4.616 6.099 1.951
4.417 5.886 1.910
5.213 6.181 1.947
4.619 6.179 2.169
4.836 5.805 1.932
4.461 5.973 2.181
4.915 6.368 2.415
4.745 6.272 2.475
4.539 5.993 2.244
4.226 5.968 2.637
4.874 6.019 2.534
4.720 6.185 2.528
4.495 6.156 2.461
4.491 5.766 2.747
4.880 6.028 3.045
4.438 6.004 2.998
4.637 5.762 2.832
4.671 6.047 3.114
4.754 6.124 3.273
4.576 5.736 3.166
4.906 6.450 3.409
4.922 6.165 3.574
4.698 5.849 3.565
4.905 6.375 3.335
4.804 6.288 3.678
4.444 5.862 1.391
4.560 6.309 1.877
4.066 5.739 1.710
4.597 6.069 2.076
4.317 6.198 2.094
4.261 6.160 1.797
4.670 6.132 2.013
4.270 6.306 2.346
4.125 6.207 2.176
4.358 6.036 2.364
4.198 6.064 2.313
4.733 6.196 2.601
4.339 6.034 2.617
4.456 6.462 3.049
4.156 6.262 2.889
4.669 6.258 3.239
4.386 6.358 3.154
4.186 6.398 1.674
4.164 6.231 2.058
4.013 6.167 2.381
3.983 6.201 2.236
6.029 4.236 1.820
6.306 3.925 2.217
6.126 3.970 1.949
6.396 3.905 2.127
5.844 4.084 2.246
5.789 3.707 2.123
6.151 4.095 2.326
5.798 3.697 2.804
5.848 3.785 2.728
6.333 3.853 2.834
6.011 4.154 2.712
5.916 3.659 2.829
6.073 3.911 2.959
5.725 3.847 3.066
5.695 3.694 3.188
5.256 3.684 0.131
2.087 1.739 1.957
1.705 1.357 1.698
1.638 1.263 1.660
1.561 1.389 2.070
4.671 2.953 1.195
4.481 2.828 1.360
4.239 3.053 1.447
3.880 2.644 1.595
2.077 1.660 1.950
2.311 1.344 1.773
1.783 1.597 2.242
1.703 1.420 1.999
1.340 1.110 2.144
1.372 1.071 2.253
2.679 1.792 1.976
2.190 1.880 2.094
1.915 1.585 2.216
1.658 1.336 2.321
1.722 1.495 2.254
1.677 1.132 2.301
1.061 1.321 2.321
1.129 1.069 2.537
2.741 1.909 2.433
2.699 1.703 2.547
2.461 1.775 2.499
2.039 1.507 2.237
2.039 1.411 2.308
1.555 1.411 2.352
1.513 1.320 2.677
1.528 1.072 2.686
1.207 0.862 2.677
1.006 1.027 2.611
2.832 2.342 2.364
2.972 2.064 2.588
2.708 1.786 2.400
2.258 1.552 2.831
2.310 1.765 2.650
1.954 1.756 2.849
1.774 1.349 2.992
1.464 1.525 2.888
1.476 1.154 2.801
1.234 1.163 2.994
0.857 0.834 2.941
0.838 0.791 2.728
3.069 2.344 2.852
2.943 2.286 2.869
2.710 2.004 2.937
2.428 1.766 3.044
2.371 1.626 2.944
2.295 1.631 2.971
1.918 1.519 2.923
1.609 1.259 2.806
1.699 1.373 3.084
1.410 1.422 2.869
1.158 1.301 3.069
0.933 1.076 3.353
0.547 0.787 3.073
0.602 0.517 3.045
3.034 2.499 2.711
3.074 2.341 2.847
3.102 2.095 3.212
2.859 1.938 3.181
2.737 1.862 3.040
2.536 1.798 3.169
1.949 1.909 3.103
2.132 1.718 3.055
1.735 1.408 3.391
1.378 1.147 3.271
1.357 1.239 3.427
1.213 0.883 3.506
0.975 0.937 3.256
0.853 0.725 3.270
0.455 0.968 3.236
0.205 0.456 3.301
5.327 3.687 2.430
3.567 2.780 2.970
3.442 2.558 3.087
3.013 2.338 3.217
3.017 2.294 3.323
3.049 2.029 3.328
2.611 2.325 3.373
0.925 0.869 3.657
0.849 0.798 3.675
0.493 0.651 3.850
0.436 0.763 3.926
5.337 3.723 2.895
5.453 3.484 2.887
5.244 3.339 2.817
4.894 3.495 2.741
4.813 3.113 2.945
4.228 2.945 3.062
4.359 2.740 3.184
3.890 3.019 2.923
3.704 2.599 2.983
3.666 2.417 3.232
3.274 2.571 3.358
3.212 2.264 3.298
3.410 2.210 3.461
0.571 0.806 4.145
0.139 0.824 3.830
5.305 3.958 3.154
5.384 3.742 3.234
5.039 3.328 3.005
4.969 3.507 3.443
4.780 3.080 3.454
4.630 3.315 3.248
4.188 2.963 3.119
3.983 2.851 3.314
3.808 2.773 3.232
3.711 2.778 3.185
3.220 2.535 3.377
3.012 2.560 3.604
0.279 0.696 4.107
5.636 3.822 3.360
5.121 3.822 3.203
5.345 3.476 3.291
4.875 3.413 3.530
4.717 3.369 3.720
4.370 3.111 3.541
4.167 3.212 3.376
3.870 3.090 3.765
3.735 2.681 3.759
3.491 2.495 3.756
3.643 2.347 3.605
5.536 4.017 3.651
5.222 3.911 3.683
4.982 3.502 3.777
4.890 3.581 3.502
4.875 3.388 3.747
4.604 3.386 3.820
4.494 3.215 3.858
4.160 3.053 4.061
4.048 3.057 3.727
3.881 2.629 3.923
5.410 3.531 4.076
5.315 3.529 3.691
4.761 3.492 3.844
4.961 3.288 4.051
4.551 3.419 4.179
4.476 3.101 3.798
4.054 2.948 4.094
3.841 2.926 4.006
5.035 3.606 4.057
5.016 3.429 4.393
4.855 3.178 4.041
4.727 3.017 4.272
4.344 3.123 4.156
4.309 3.073 4.464
2.187 2.007 4.715
2.155 1.994 4.849
1.809 1.723 4.789
1.598 1.520 4.912
5.212 3.317 4.387
4.651 3.535 4.428
4.472 3.440 4.308
4.504 2.977 4.558
2.691 2.090 5.155
2.533 2.217 5.306
2.063 1.678 5.154
2.004 1.692 5.380
1.597 1.666 5.375
1.375 1.608 5.428
2.661 2.459 5.331
2.332 2.320 5.115
2.466 1.977 5.292
2.293 1.747 5.346
2.030 1.566 5.502
1.756 1.766 5.589
1.396 1.647 5.482
1.442 1.583 5.725
3.087 2.491 5.582
2.780 2.087 5.729
2.733 2.037 5.744
2.151 1.922 5.424
2.144 1.878 5.572
1.880 2.002 5.622
1.919 1.813 5.600
1.599 1.654 5.758
1.380 1.229 5.914
0.927 1.252 5.735
3.380 2.433 5.672
2.867 2.538 5.856
2.658 2.509 5.910
2.564 2.375 5.584
2.582 2.232 5.994
2.279 1.732 5.870
2.097 1.879 5.855
1.942 1.760 5.663
1.661 1.691 5.814
1.361 1.386 6.195
0.945 1.505 5.915
1.162 1.386 5.957
0.923 0.657 0.009
0.534 0.386 0.120
0.419 0.316 0.271
0.407 0.140 0.293
2.472 1.545 0.006
1.992 1.506 -0.189
2.108 1.545 0.075
1.682 1.159 -0.040
1.296 1.150 0.115
1.407 1.020 0.232
0.924 0.637 0.282
0.671 0.889 0.261
0.683 0.727 0.307
0.434 0.617 0.246
0.149 0.377 0.430
0.186 0.067 0.552
2.963 1.848 0.091
2.841 2.042 0.364
2.558 1.766 0.141
0.641 0.598 0.448
0.433 0.402 0.717
0.307 0.201 0.651
0.140 0.235 0.486
3.604 2.568 -0.161
3.770 2.333 0.106
3.519 2.275 0.079
3.150 2.164 0.178
3.070 2.035 0.144
3.136 1.896 0.590
0.343 0.423 1.043
-0.100 0.258 1.035
5.127 3.237 -0.000
4.909 3.043 0.200
4.914 3.248 0.135
4.599 2.787 0.286
4.346 2.929 0.268
4.110 2.888 0.052
4.095 2.360 -0.000
3.808 2.690 0.104
3.417 2.582 0.432
3.232 2.387 0.470
2.969 1.896 0.499
2.846 2.159 0.502
0.201 0.540 1.196
5.432 3.563 0.345
4.938 3.446 0.468
4.885 3.108 0.218
4.813 2.898 0.162
4.382 2.960 0.149
4.269 2.756 0.367
3.918 2.809 0.583
3.731 2.310 0.610
3.612 2.276 0.410
3.365 2.453 0.322
3.372 1.990 0.630
5.368 3.437 0.483
4.976 3.491 0.311
5.061 3.129 0.636
4.660 3.202 0.686
4.483 3.124 0.844
4.147 2.772 0.560
4.052 2.515 0.559
3.738 2.769 0.582
3.517 2.541 0.555
3.320 2.126 0.721
5.139 3.365 0.593
4.767 3.001 0.652
4.543 2.832 0.999
4.317 2.724 0.970
4.290 2.698 0.878
3.877 2.700 0.977
3.838 2.708 0.755
3.620 2.646 0.790
5.031 3.159 1.125
4.738 3.272 1.017
4.517 3.171 1.045
4.341 2.924 1.317
3.975 2.546 1.207
3.955 2.749 1.102
2.122 1.694 1.790
1.693 1.258 1.948
1.492 1.220 1.885
1.614 1.216 1.728
4.941 3.035 1.406
4.355 2.808 1.447
4.527 3.036 1.399
4.339 2.527 1.215
2.261 1.833 1.488
1.863 1.949 1.745
1.540 1.793 1.832
1.747 1.529 1.924
4.807 3.258 1.177
4.718 3.185 1.499
4.581 2.986 1.381
4.183 3.018 1.518
2.163 1.980 2.106
2.181 2.117 1.904
2.061 1.759 1.811
1.899 1.563 1.899
1.548 1.695 1.939
1.507 1.509 1.971
2.797 2.066 2.099
2.334 2.201 2.329
2.200 1.825 2.259
1.864 1.649 2.014
1.920 1.632 1.998
1.388 1.540 2.491
1.446 1.365 2.349
1.016 1.366 2.350
2.682 2.286 2.495
2.707 2.123 2.392
2.526 2.263 2.257
2.171 1.982 2.425
1.848 2.020 2.544
1.970 1.711 2.241
1.438 1.682 2.716
1.521 1.390 2.642
0.963 1.406 2.372
0.918 1.218 2.392
2.883 2.390 2.380
2.880 2.337 2.522
2.690 2.071 2.805
2.253 1.910 2.748
2.401 1.782 2.699
2.125 1.736 2.603
1.721 1.974 2.934
1.700 1.717 2.727
1.353 1.325 2.961
1.370 1.250 2.903
1.164 1.399 2.615
3.051 2.350 2.688
3.171 2.425 2.575
2.826 2.535 2.680
2.816 2.048 2.711
2.508 2.074 2.788
2.042 2.003 2.985
2.153 2.107 2.988
1.963 1.780 2.862
1.407 1.713 3.035
1.273 1.369 2.838
1.320 1.253 3.014
0.974 1.231 2.897
3.648 2.613 2.629
3.067 2.441 2.482
3.129 2.410 2.931
3.024 2.376 2.913
2.841 2.586 2.838
2.558 2.303 3.224
2.634 1.970 3.115
2.065 2.036 2.955
2.161 1.965 3.279
1.697 1.606 2.954
1.402 1.614 3.375
1.498 1.795 3.100
1.139 1.535 3.099
4.229 3.187 2.681
3.760 2.889 2.991
3.746 2.821 3.009
3.485 2.571 2.755
3.487 2.468 2.741
3.170 2.429 2.967
3.330 2.447 3.169
2.786 2.263 3.076
2.514 2.341 3.197
2.671 2.046 3.167
2.050 2.246 3.400
1.925 1.966 3.497
5.088 3.522 2.700
4.842 3.335 2.966
4.430 3.534 2.990
4.115 3.336 2.899
3.931 3.078 2.873
3.840 3.021 3.189
3.688 2.721 3.202
3.623 3.010 2.938
3.295 2.737 2.977
3.050 2.793 3.282
2.929 2.704 3.362
2.978 2.416 3.511
2.917 2.473 3.623
5.386 3.782 3.122
4.948 3.526 3.378
4.866 3.680 3.283
4.592 3.226 3.118
4.567 3.551 3.067
4.034 3.045 3.434
3.875 3.033 3.466
3.619 3.169 3.361
3.587 3.020 3.620
3.504 2.921 3.368
2.998 2.580 3.255
3.144 2.633 3.624
5.432 3.788 3.164
4.919 3.875 3.289
4.995 3.799 3.537
4.577 3.651 3.661
4.175 3.334 3.407
4.093 3.099 3.302
4.055 2.909 3.605
3.534 3.043 3.675
3.384 3.067 3.619
3.543 2.926 3.619
2.919 2.691 3.899
5.090 3.716 3.603
4.940 3.671 3.626
5.037 3.538 3.793
4.654 3.655 3.802
4.618 3.279 3.886
4.134 3.476 3.580
3.897 2.940 3.863
3.797 2.830 4.044
3.494 2.885 3.658
3.481 2.922 3.742
5.149 3.636 3.858
4.813 3.628 3.682
4.722 3.567 3.997
4.310 3.526 4.133
4.428 3.367 4.169
4.068 3.321 4.217
3.843 3.189 4.073
3.767 3.096 4.344
4.828 3.725 4.377
4.672 3.701 4.149
4.632 3.584 3.996
4.246 3.146 4.427
4.166 3.397 4.232
3.799 3.032 4.223
1.762 2.055 4.872
1.660 1.876 4.848
1.362 1.747 5.167
1.376 1.452 5.055
4.495 3.406 4.457
4.416 3.598 4.291
4.065 3.283 4.623
4.275 3.108 4.384
2.260 2.030 4.887
2.003 1.986 4.899
1.708 1.823 5.247
1.658 1.873 5.310
1.153 1.895 5.425
1.011 1.438 5.365
2.297 2.250 5.254
2.381 2.266 5.074
1.845 2.164 5.381
1.814 1.903 5.551
1.583 1.674 5.550
1.321 1.821 5.424
1.429 1.563 5.657
1.017 1.362 5.535
2.430 2.344 5.272
2.463 2.478 5.642
2.074 2.405 5.618
1.869 1.938 5.660
1.710 2.000 5.799
1.827 2.009 5.433
1.588 1.738 5.731
