43.40264 61.70506 58.338097
45.496643 61.467056 58.3341
30.590641 59.819057 48.379097
31.141642 57.35106 48.186096
26.787642 52.632057 57.081097
24.676641 52.627056 56.475098
6.1616364 25.976057 55.957096
5.1436386 27.924057 56.921097
68.159645 26.381058 67.0441
68.951645 24.297058 68.0271
24.367641 65.46406 42.544098
24.72364 67.90106 43.5281
34.34264 0.31305695 34.8691
35.810642 1.1080551 36.4801
56.90264 6.737058 72.6951
58.95364 7.096058 71.9311
67.07364 8.753058 62.589096
64.97464 7.978058 60.942097
22.477642 13.096058 65.1661
21.470642 14.386058 66.3351
17.43464 10.892058 1.2210922
15.750641 9.514058 0.86909485
49.91864 16.465057 68.2741
50.15664 18.33006 67.8991
55.87764 21.710058 57.2301
56.95064 23.600058 57.781097
70.241646 48.98206 17.005096
69.54364 47.041058 16.521095
61.83664 43.640057 26.7341
61.636642 41.660057 25.941093
8.934639 24.156057 39.0841
10.997635 23.329058 39.749096
21.206635 26.917057 32.749096
20.827637 25.563057 31.073097
10.411636 41.64906 23.311096
12.305634 40.82206 22.1381
21.162636 47.729057 17.635094
20.930634 47.222057 15.605095
25.471642 69.235054 27.644098
26.281641 1.1680527 28.696098
22.298641 64.926056 37.783096
23.072641 65.64306 39.978096
2.0406418 25.278057 32.75809
2.6036377 23.825058 31.063095
10.781639 25.501059 22.188095
9.80764 26.034058 20.491096
44.23864 10.780058 61.080097
46.46664 11.1210575 61.0211
48.359642 9.0290575 50.2301
50.02164 10.385058 48.8701
27.71264 57.97006 2.4730911
26.430641 56.17106 2.166092
26.59864 57.951057 65.8641
28.57764 57.75406 65.0301
32.78564 17.308058 59.3211
33.178642 18.95506 60.1251
30.17164 16.177057 71.4631
29.21364 18.122059 72.0721
0.40164185 25.428059 71.9581
68.796646 24.438057 70.7541
64.47364 18.921059 4.4370956
63.36364 20.429058 4.813095
69.28864 31.966057 66.7491
1.0346375 32.902058 66.6941
3.6456375 35.527058 55.691097
1.7636414 34.715057 54.934097
9.320641 16.282059 19.396095
7.922638 16.20506 17.560097
67.43164 18.244059 24.314095
67.01164 16.166058 25.479095
2.021637 55.610058 58.583096
1.6486359 56.680058 60.8541
62.25064 54.897057 68.284096
62.48264 53.689056 70.0531
59.91164 12.590057 58.5701
59.24464 14.932057 59.791096
55.71964 10.172058 69.242096
54.87664 11.828058 70.3911
67.796646 40.12906 49.3071
69.104645 39.51006 47.693096
3.5186386 44.47506 38.7511
5.729637 44.771057 39.497097
20.808641 61.03306 18.136093
21.301641 58.72606 16.588097
27.83864 62.250057 8.186096
26.78264 63.716057 6.384094
22.31664 0.7150574 62.291096
20.454641 0.33805847 63.9251
13.643641 1.1530533 70.7181
15.253641 2.2150574 72.2791
41.93164 3.9190521 60.678097
40.99464 5.442055 62.0641
33.781643 69.04106 69.1711
33.505642 0.21405792 70.950096
22.45564 20.160059 47.377098
20.985641 21.692059 47.214096
29.27864 20.300058 37.274097
31.33864 21.458057 37.1201
2.7896423 14.635057 50.754097
3.5396423 16.557058 49.801098
10.804634 14.984057 40.2581
12.707634 14.007058 41.137096
47.58464 3.6010513 26.543098
44.80764 3.6810532 26.184097
39.205643 3.886055 36.999096
40.053642 1.773056 37.558094
32.29964 3.3090582 68.0691
33.15364 5.3930583 69.3981
39.01264 9.283058 60.9391
40.866642 8.099058 60.5421
1.2096405 38.90106 34.929096
0.26164246 40.36406 33.254093
10.39064 37.530056 24.450096
11.407639 39.222057 24.739098
21.355642 60.48206 20.6921
20.123642 58.960056 19.993095
17.436642 54.492058 31.328094
15.121641 55.793056 31.650093
36.59764 40.520058 64.4441
35.18264 38.74106 63.886097
28.967642 35.979057 71.576096
27.978642 34.181057 71.0541
30.12264 11.418058 31.0001
29.524641 13.521058 31.5281
37.79064 16.112059 22.920097
36.267643 17.732058 22.907097
18.508642 16.794058 23.451096
18.91764 19.153059 22.969093
24.89064 20.955057 13.016098
23.526642 21.575058 11.375092
26.69164 13.177057 28.454094
26.554642 15.228058 27.612099
23.567642 18.661058 29.2771
22.66764 20.404058 29.503098
62.37064 35.291058 45.9451
63.34064 34.320057 43.601097
66.21264 40.48406 34.541096
67.811646 42.25506 35.016098
55.081642 33.89306 39.727097
53.86464 31.756058 39.7721
46.184643 34.11906 47.3951
46.885643 33.757057 49.921097
56.720642 2.5590582 13.745094
57.29564 3.827058 15.261093
63.25264 12.912058 7.5570984
63.83464 13.042058 5.855095
10.256638 32.58506 42.884098
11.05764 33.077057 45.6181
6.6816406 31.189058 54.1821
4.351639 30.315058 54.3961
15.129642 41.669056 45.1681
15.548641 43.520058 46.301098
22.776642 49.91406 38.610096
23.06364 51.11506 40.9671
1.1676407 46.214058 18.166092
2.5396423 45.10106 16.550095
12.055634 48.235058 9.112091
10.47464 47.91406 7.5680923
17.024635 19.241058 64.3341
16.36364 20.193058 65.9731
14.311638 21.510057 0.4310913
15.94664 21.297058 1.5820923
34.84964 9.456058 0.07409668
35.630642 7.392058 76.0171
25.901642 3.5320582 4.7430954
23.822641 3.0650582 4.3680954
14.007637 45.186058 9.240097
12.042641 44.048058 8.768097
9.054642 40.298058 20.959099
10.318642 38.84306 22.108093
51.51664 52.770058 6.565094
53.14464 54.72506 6.686096
59.76964 54.313057 71.9741
61.34764 52.840057 72.924095
40.373642 14.873057 3.1820984
42.15964 16.074059 2.9240952
48.84164 18.147058 70.187096
47.990643 19.925058 69.2241
56.734642 17.998058 17.976097
56.504642 15.789058 17.909096
50.52364 13.799058 28.005096
48.261642 13.823058 29.4021
45.045643 5.863053 45.8691
46.06264 5.7210546 47.9871
43.47264 2.011055 59.7171
41.31964 1.2380524 59.130096
0.16564178 15.669058 65.5151
0.46063995 17.552057 64.4561
7.889641 23.549057 56.538097
6.4456406 23.075058 55.176098
44.09864 54.686058 0.45109558
45.08964 53.96106 2.301094
36.650642 50.568058 9.423096
37.197643 51.155056 11.632095
45.240643 29.270058 31.322098
46.40164 31.212057 30.503098
57.08064 30.655058 23.511093
56.15364 31.681057 21.545097
24.18864 39.029057 36.378098
22.067642 39.82306 36.5981
12.648642 38.349056 42.547096
12.802641 37.988056 44.712097
64.33464 43.76806 48.824097
62.30864 43.26006 48.8201
54.14664 45.646057 58.103096
54.91764 46.12806 59.761097
24.25064 24.027058 68.0811
24.370642 22.579058 69.1261
19.27864 23.051058 4.853096
19.239641 21.115057 5.0620956
43.38364 15.548058 23.6231
43.336643 16.864058 21.615097
51.129642 16.709059 11.4040985
52.63464 14.934058 11.598091
61.90564 8.002058 2.0610962
59.838642 8.624058 3.3110962
54.59964 3.614058 11.674095
53.497643 5.073058 13.272095
19.180641 11.678058 4.1060944
21.179642 13.569057 4.607094
24.860641 13.960058 68.6211
26.630642 15.738058 68.6401
31.13964 66.67906 30.687096
33.219643 66.59906 31.150093
38.62464 68.63106 20.6251
40.657642 69.54706 21.167099
53.16264 7.399058 68.5461
51.324642 7.335058 66.8511
54.52364 13.268058 56.433098
55.34664 11.879058 54.846096
30.913641 49.716057 3.7180939
28.864641 49.938057 2.4100952
22.248642 50.111057 72.131096
21.467642 49.076057 74.0271
49.79764 24.053059 50.7241
51.768642 23.402058 50.463097
57.15964 26.628057 41.5981
59.220642 27.613058 42.1111
30.696642 53.542057 5.311096
29.538641 52.12306 6.303093
21.70264 50.049057 13.196098
20.325642 50.21106 15.422096
62.51664 47.862057 30.346098
62.60764 45.960056 31.665098
54.78764 46.01906 40.259098
52.89564 46.86406 41.3821
21.973642 41.825058 52.426098
23.642641 40.60006 52.9101
32.560642 41.40806 46.7231
34.36364 39.603058 46.1601
40.38164 21.376059 46.9511
41.400642 19.452059 47.0621
35.75664 14.300057 54.898098
36.199642 15.431058 57.303097
36.86864 41.65806 28.227097
34.81164 42.15006 27.465096
27.641642 37.792057 35.502094
28.602642 36.340057 37.125095
51.68064 44.896057 21.622093
52.27764 45.266056 24.0811
47.35664 40.779057 32.767094
47.004642 38.162056 32.420094
59.220642 18.413057 19.772095
57.83764 17.023058 20.908096
51.296642 16.536058 30.3471
51.991642 14.103058 30.0281
29.937641 6.121058 14.415092
31.21664 7.692058 14.468094
40.29064 7.1960583 5.551094
42.87664 6.758058 5.7530975
67.451645 21.536058 26.973099
66.465645 19.304058 26.700096
57.42964 17.477058 35.64809
56.85464 15.464058 35.05309
61.338642 21.506058 59.206097
60.68464 22.516058 57.145096
65.97064 22.988058 45.811096
67.19664 21.294058 45.961098
0.533638 57.661057 20.4021
0.2666397 58.772057 22.408096
70.20864 54.041058 33.835094
68.576645 52.17706 33.67709
18.304642 68.719055 74.4751
18.46264 0.9190521 75.355095
27.76164 4.2860565 67.1971
26.547642 5.333054 65.8221
13.719642 31.912058 63.458096
13.999641 34.20506 62.982098
20.133642 35.41506 54.005096
19.509642 33.89106 52.721096
44.449642 48.674057 36.871098
46.40164 49.569057 37.1321
49.74364 45.58106 38.374096
48.71064 46.679058 39.922096
39.01564 36.41406 63.449097
37.837643 37.868057 64.591095
30.991642 33.23006 71.6021
30.395641 31.513058 72.1941
42.65964 10.698058 5.8540955
44.63164 12.040058 5.1400986
50.004642 12.411058 71.3841
50.34364 14.351058 69.7651
6.753639 11.224058 71.0511
4.5776367 12.453058 71.173096
66.98864 10.037058 2.7980957
67.23564 11.100058 4.8020935
17.59864 42.39906 69.883095
17.299637 44.522057 70.7881
12.893639 42.374058 5.206093
10.75264 41.571056 5.2100983
8.045639 37.236057 39.934097
10.269638 36.686058 40.2571
17.437637 43.46906 33.4181
18.749634 42.43406 32.009098
63.46064 43.423058 46.1461
62.40364 41.537056 45.4161
69.87564 42.633057 37.047096
69.62164 44.35706 35.4721
60.02164 66.72706 31.814095
60.19364 68.36406 31.157097
67.992645 67.90706 23.1241
69.88864 66.12806 22.592094
2.0036392 59.405056 44.6111
3.498642 57.647057 44.9161
66.67664 53.84306 54.280098
64.925644 52.42106 54.808098
59.58764 63.000057 13.816093
60.692642 65.26506 13.500092
67.633644 68.53506 3.1820984
69.70464 68.75106 3.3460922
1.0546417 2.2910538 23.320099
70.19764 0.88305664 21.932098
8.205635 0.5810547 12.277092
9.443642 2.4140549 12.845093
4.567642 59.993057 42.4871
3.47464 59.270058 40.934097
12.39064 62.460056 33.7931
13.09864 63.16306 31.740097
46.31164 36.104057 71.3151
44.42564 35.186058 70.7201
40.06164 32.65506 5.266098
41.510643 31.775057 6.808098
44.484642 11.825058 63.9531
45.824642 11.613058 65.8861
36.773643 4.888058 74.3011
38.359642 5.4450583 76.1351
12.55764 23.963058 19.431091
12.517639 22.393057 17.829094
18.313637 23.796059 7.1850967
17.139633 25.780058 7.055092
47.97264 67.565056 21.574097
49.59464 66.07706 20.5401
56.87464 69.93306 14.247093
57.04064 0.38705444 11.886093
31.663641 13.4040575 56.1751
32.66764 14.600058 57.624096
29.294641 6.2670584 65.4611
30.39064 4.780058 66.6641
9.688637 19.058058 18.956093
10.533638 17.692059 17.067093
16.760635 18.857058 6.7100983
18.79464 18.80906 8.0780945
54.046642 50.806057 62.4871
52.130642 51.93506 62.1401
44.81264 46.693058 70.5681
43.23164 44.862057 70.7041
15.9596405 51.60906 32.207096
16.130638 49.625057 33.3201
7.5046387 47.85806 42.378098
7.415642 45.624058 43.0711
37.34764 67.14306 74.2911
38.053642 68.02806 75.7181
33.72964 67.51906 10.657097
33.82864 66.03106 11.831093
47.690643 40.030056 51.569096
48.357643 38.12906 51.259098
51.48564 44.675056 42.7421
50.92464 44.903057 40.7171
65.71264 69.55006 39.8831
66.810646 1.2520523 39.373096
6.4076385 4.5390553 34.6601
6.3346405 5.727059 32.693096
44.683643 19.498058 66.0601
46.17364 17.761059 64.6971
53.352642 20.680058 55.956097
53.23564 23.097057 56.454098
21.746641 66.64306 20.822098
22.263641 64.73906 20.4011
32.636642 68.82806 13.530098
31.48064 67.34906 12.284096
47.525642 59.603058 3.5750961
49.49664 60.404057 2.867096
57.886642 61.619057 69.8931
58.130642 63.61606 70.1391
39.77664 42.953056 29.928093
38.650642 44.174057 28.218094
45.086643 51.347057 21.2351
47.149643 52.688057 22.231094
63.85364 35.146057 27.602098
63.97364 35.67806 29.526098
53.63164 37.23206 36.498096
54.50164 35.186058 37.033096
44.211643 37.01006 49.664097
43.48064 37.062057 48.003098
49.91764 39.74106 37.415096
51.53364 38.54606 38.719097
51.255642 25.447058 53.490097
51.93464 25.962057 51.1951
60.03564 29.555058 44.5061
61.70064 30.595058 46.304096
40.31164 3.9200516 18.849098
40.190643 2.1560516 17.569092
49.90164 3.8540573 11.062096
51.67364 3.1190567 11.884094
32.52664 51.744057 44.0431
32.24564 49.293056 43.468098
38.79264 45.78206 33.206097
38.02064 46.90606 31.636097
18.562641 43.798058 50.0431
19.54264 45.56006 50.590096
29.937641 47.12906 42.433098
29.60864 49.057056 43.9651
65.57364 0.35905457 2.6970978
64.532646 68.609055 3.341095
56.699642 64.52106 10.728096
58.108643 64.99706 12.002098
2.356636 51.57206 2.3730927
2.2986374 50.93506 0.15209198
9.9826355 55.76106 68.6911
11.366638 54.152058 69.0641
45.359642 25.685059 29.239098
45.75164 23.624058 27.6941
52.19364 23.468058 16.594093
52.89464 25.119059 17.960098
61.623642 20.613058 8.316093
63.18364 18.523058 8.224098
57.72464 10.782058 16.517097
58.06264 8.803058 15.2640915
24.873642 20.032059 32.784096
23.447641 18.608059 31.932098
19.352642 20.242058 43.3561
17.038641 19.883059 43.448097
23.17064 7.036058 61.989098
21.481642 6.510058 60.804096
26.73664 10.756058 49.936096
26.65364 9.412058 47.885098
59.20964 22.087057 40.4031
59.10464 21.324059 38.234097
68.367645 24.020058 31.170097
66.92764 25.619059 30.280098
11.721634 33.85806 20.4581
9.55864 34.17006 20.205093
16.899635 37.78206 12.114098
16.40564 38.881058 10.499092
32.462643 64.79106 67.5011
32.101643 67.30006 68.3211
23.472641 66.82606 0.9320984
23.878641 64.68806 2.4070969
15.345641 37.944057 48.240097
17.739641 37.050056 46.996098
24.752642 43.75506 41.2311
27.21664 43.71306 40.718098
38.962643 22.451057 5.0190964
40.02964 24.420057 5.0450974
42.225643 27.302057 68.3081
43.63964 25.963058 67.675095
54.31564 55.81706 63.1471
54.34664 53.56706 62.510098
62.706642 58.32406 54.8131
61.40364 59.28306 53.3411
2.5966415 42.54706 75.2351
4.7336426 41.87806 75.6991
14.943634 45.626057 68.4221
13.26664 45.291058 66.7231
51.11464 1.2440567 28.755096
51.26364 69.20206 28.460098
39.656643 67.68406 35.186092
40.677643 68.81106 37.17409
24.985641 8.999058 10.650093
22.836641 8.735058 9.209091
16.679642 10.085058 20.0951
16.949642 8.169058 20.294098
11.192635 19.33006 58.212097
9.554642 20.348059 59.4101
5.6676407 9.603058 67.175095
6.3066406 11.017058 68.438095
64.08564 26.929058 45.045097
63.27164 28.338058 46.259098
56.30164 26.397058 55.7231
55.97564 24.226057 55.469097
3.7936401 16.394058 30.672098
4.330635 16.054058 32.795097
69.506645 14.961058 44.463097
67.576645 14.120058 44.559097
67.657646 26.522058 49.3701
66.48864 29.015059 49.7361
58.93664 25.837057 59.221096
59.72564 23.858057 59.273098
26.262642 5.753058 9.1160965
26.359642 7.756058 8.575096
32.93064 11.509058 76.1781
33.601643 13.549058 75.785095
34.086643 33.65106 23.003098
34.129642 34.430058 21.337097
44.523643 36.325058 14.123093
45.73064 36.97006 16.016098
9.809639 24.836058 59.7301
10.007637 24.858057 61.545097
1.0196381 18.695059 67.2881
0.9826355 19.478058 69.563095
35.669643 47.10106 28.005096
34.872643 48.39906 26.890099
38.037643 55.417057 17.633095
40.08264 55.85206 17.983093
33.11764 20.948057 74.6501
32.38264 22.390059 73.1681
35.07564 21.028057 60.3141
37.15164 20.369059 60.298096
56.18664 45.041058 62.4881
54.89064 46.639057 62.4451
48.532642 41.096058 73.2251
47.11164 40.383057 72.0651
33.241642 51.66306 5.037094
35.094643 51.973057 6.6840973
43.63164 49.10706 76.0741
44.88364 49.363056 73.9621
64.34664 31.309057 47.1401
63.12764 32.71106 46.920097
57.03764 33.37806 57.1531
57.26364 35.24106 57.7291
28.936642 27.976057 72.7921
29.86264 29.582058 74.104095
21.845642 28.216057 7.2110977
21.413641 26.856058 8.765099
1.8536377 2.3830566 9.120094
3.2586365 3.1960526 11.167091
67.89064 69.14106 20.243095
66.99764 0.8820572 21.370094
41.19464 36.74806 30.979097
40.392643 38.396057 32.6261
34.081642 37.71906 42.5131
34.024643 35.59306 43.1801
38.78364 41.478058 31.842098
39.50064 43.20606 33.539097
29.835642 43.60006 39.234097
29.770641 44.98306 40.567097
39.22464 42.473057 48.270096
41.29164 43.674057 48.650097
46.177643 45.002056 38.969097
45.93664 46.818058 38.338097
13.427635 30.602058 26.280098
14.430634 29.082058 27.839098
7.137642 29.317059 36.6331
5.698639 27.334057 37.136097
25.012642 32.48006 70.5451
26.52264 31.860058 71.757095
17.766642 26.339058 4.4750977
16.288641 27.126059 3.5570984
33.33364 60.189056 12.978096
34.296642 61.818058 12.580093
42.94464 60.16406 2.2830963
42.130642 61.757057 1.2880936
40.12664 61.902058 75.3291
41.906643 60.529057 74.215096
49.75864 65.38706 66.700096
49.15164 65.37406 64.3801
21.47464 12.351058 9.911095
19.900635 13.571057 8.881096
8.646637 15.636058 13.059097
8.888641 15.405058 14.891098
52.98264 9.399058 30.3191
51.38764 8.681058 29.112099
59.05864 14.148058 21.1521
58.59364 14.580058 19.469093
31.82764 14.071057 34.669098
29.56064 14.502058 34.419098
20.71664 12.697058 43.5221
19.404642 10.655058 43.0691
59.123642 0.08305359 73.3781
59.50364 68.398056 75.5021
55.27764 1.6030579 9.977097
52.95064 0.4600525 9.8280945
49.73564 45.632057 20.078094
48.89464 46.362057 18.583092
54.67964 46.21106 8.275093
54.05064 43.840057 6.664093
51.497643 65.19106 43.6661
53.48864 65.17506 45.1541
62.98964 0.63905334 37.2361
63.80964 1.5600586 39.4041
66.26164 37.516056 48.325096
66.478645 37.465057 50.6601
59.98964 36.528057 58.671097
59.35064 33.903057 58.794098
44.87564 12.817058 26.018097
44.17564 12.508058 27.913094
36.907642 11.901058 36.986095
35.788643 12.730058 35.776096
46.00164 10.346058 6.633095
47.52064 12.120058 7.0540924
55.97464 14.256058 74.1061
54.83564 15.129058 72.340096
62.41664 32.25906 65.7081
60.53864 32.94706 65.0261
56.88364 31.381058 0.3060913
54.942642 31.620058 0.023094177
3.9356384 12.784058 13.391098
4.9136353 11.085058 14.415092
2.2426376 13.8450575 26.6091
70.16464 13.705058 24.755096
21.026642 38.534058 34.3341
19.75764 36.90006 33.192097
12.736641 31.867058 41.7031
13.5776415 32.80006 44.156097
28.15364 38.60006 75.8331
28.27564 36.592056 0.46209717
22.244642 35.570057 11.266098
20.666641 33.541058 11.763092
60.57964 65.68806 74.425095
58.331642 66.70006 73.6551
49.92964 63.74806 4.990097
47.88164 64.84006 4.893097
44.02964 47.959057 14.510094
42.80564 49.82906 13.854095
46.608643 52.89406 4.9950943
48.42564 53.306057 5.5240936
37.81364 9.038058 19.383095
39.331642 10.302058 20.215096
48.36364 13.601058 11.452095
47.79864 11.353058 10.754097
15.838638 26.921059 48.5221
16.605637 27.952057 50.509098
11.9596405 22.049057 58.2991
10.852638 22.264057 60.630096
68.51664 64.86306 1.9930954
69.77664 63.17706 2.2180939
4.4196396 64.33406 66.1681
5.712639 62.771057 66.7041
49.30564 28.012058 49.087097
51.025642 28.463058 50.1051
56.91364 29.359058 41.1531
56.706642 31.103058 39.8751
43.615643 30.111057 68.3591
43.232643 31.577057 66.4021
49.16964 34.929058 56.0491
50.93664 34.08606 55.401096
23.553642 7.256058 44.127098
25.203642 5.680058 43.304096
27.45964 8.514058 32.0361
27.392641 10.520058 31.100098
41.95264 17.652058 25.146095
41.95064 19.075058 26.367096
37.155643 16.780058 38.041096
36.13464 18.678059 38.277096
58.365643 39.515057 65.9321
59.00064 42.168056 65.839096
52.84164 40.544056 75.8511
50.70364 39.51906 75.437096
11.403633 29.279058 61.052097
11.108635 27.457058 60.004097
18.16964 31.008059 50.317097
16.232635 30.342058 49.2781
20.66964 51.40006 37.317097
19.083633 51.786057 35.971096
12.633636 45.01906 44.907097
13.744637 45.64306 46.454098
38.907642 64.40406 14.515099
37.48864 63.53806 13.115097
43.740643 66.16306 2.9080963
42.25864 65.40506 0.9590912
19.817642 47.145058 53.0641
20.39664 49.076057 53.601097
27.55364 53.82206 44.2441
29.877642 52.39906 44.127098
24.534641 30.191057 52.253098
25.822641 31.520058 53.117096
32.948643 32.96906 42.8551
35.005642 32.429058 43.2361
31.26464 37.126057 21.173096
32.51464 38.522057 20.434097
35.54064 44.29006 10.032097
35.233643 42.085056 9.121094
43.47164 27.240057 47.3901
45.268642 27.795057 48.6881
35.428642 29.012058 58.420097
36.94364 27.963058 59.5001
62.68364 16.83006 21.995094
63.24964 16.466059 20.080093
3.0676422 17.304058 13.190094
5.1086426 17.769058 13.861092
8.323639 15.124058 71.4721
8.923637 12.940058 70.6351
11.981636 12.783058 58.4451
13.146637 11.100058 58.0081
34.77264 27.325058 4.456093
35.29064 26.840057 6.212097
28.15364 19.476059 12.3280945
28.975641 19.486057 14.243095
9.593636 6.073052 52.8891
8.062637 6.359055 53.810097
1.33564 3.1110535 63.4881
2.220642 1.023056 63.7991
26.019642 12.623057 47.884098
27.277641 13.508058 49.441097
36.37464 15.224058 40.310097
38.087643 15.6210575 41.815098
68.62164 4.070053 7.645096
67.38564 2.737053 5.6440964
61.95564 68.970055 16.554092
62.18064 68.62606 19.077095
20.854641 9.552058 4.303093
20.18164 9.614058 2.0870972
27.958641 9.710058 70.1931
27.915642 9.615058 67.8151
49.83664 62.438057 64.492096
48.36964 62.14906 63.187096
44.23064 56.028057 73.0451
43.65464 53.515057 73.6551
2.533638 67.92306 25.786095
1.9786377 69.50606 27.022095
65.67764 69.72806 37.27309
65.34664 67.92406 37.28909
54.33564 2.912058 48.3341
52.414642 4.264058 47.7441
57.98064 6.4450583 36.9861
57.03364 7.934058 35.282097
45.67464 64.16406 2.2470932
44.073643 63.49706 0.8940964
52.490643 64.72406 67.4431
54.47364 65.58306 66.8591
66.38664 34.14906 28.664097
65.799644 34.604057 30.965097
56.75664 33.12006 37.523098
54.96964 32.69606 36.3331
40.857643 47.459057 32.37109
42.343643 49.07306 31.113098
50.72464 52.51106 26.308098
51.90864 52.820057 28.270096
35.09964 11.723058 74.3801
37.100643 9.756058 74.214096
47.78664 13.064057 68.9691
47.54264 13.685058 66.7781
52.27464 24.510057 13.713097
50.54964 26.206059 12.783096
59.38164 31.696058 6.648094
58.57764 31.547058 4.553093
69.590645 27.651058 30.1511
0.13163757 29.581059 29.719093
6.995636 32.72506 19.7061
8.192642 30.835058 18.857094
63.43664 66.65006 33.335094
62.58664 65.67806 31.701096
65.78764 63.166058 20.851097
67.77764 62.61606 19.705093
46.199642 8.752058 46.095097
46.586643 8.321058 48.156097
38.78564 7.8340583 57.291096
38.976643 5.928058 56.274097
46.565643 17.925058 9.903091
45.830643 19.371058 11.124092
38.73864 19.154058 22.4161
40.62664 19.652058 23.844093
5.73864 64.79806 48.720097
7.188637 66.38506 50.531097
2.0146408 64.11206 60.6121
0.52864075 62.743057 61.344097
15.297642 9.482058 37.555096
13.637641 10.011058 35.748096
19.701641 11.301058 25.579094
19.564642 13.455058 24.157097
14.267641 58.054058 50.2861
16.03264 57.404057 50.8681
24.721642 56.09506 42.5211
23.68164 55.17106 40.7721
44.88964 22.287058 10.372093
43.31364 21.029058 10.5520935
34.25264 18.204058 18.902092
35.044643 18.747059 20.661095
45.011642 68.49706 1.4720917
46.641644 69.679054 1.5020981
56.10464 67.50806 71.175095
56.72964 69.69506 70.1901
19.581642 39.59506 52.088097
21.727642 39.05306 51.880096
30.937641 40.42706 44.568096
30.94864 42.063057 43.339096
37.38164 56.554058 50.775097
37.08564 54.895058 49.3061
41.86164 61.96306 39.9931
43.29764 59.770058 38.645096
58.04264 18.130058 39.0901
58.47164 18.890059 41.3281
52.38464 20.340057 50.832096
53.40864 19.555058 53.068096
40.086643 8.219058 44.3831
41.04164 10.6210575 45.082096
36.60364 7.892058 55.482098
35.80464 10.271058 57.0141
53.74464 31.203058 18.170097
53.05664 29.921059 16.662094
62.18964 30.614058 8.348091
63.95764 29.573057 8.067093
46.330643 35.58006 68.3841
48.32764 33.96706 69.354095
54.05164 33.93206 59.141098
55.004642 32.159058 58.2431
69.19164 35.945057 34.030098
68.82164 33.778057 33.631096
61.86364 28.540058 40.4861
61.775642 30.183058 42.587097
1.9556351 48.96106 37.6601
0.63664246 50.81706 38.2171
65.424644 46.119057 48.079098
67.54264 46.38006 49.0421
65.25964 42.38606 69.076096
63.99964 43.16406 67.2251
3.1546402 42.82306 60.650097
5.1906357 43.34406 61.045097
12.815636 35.19606 23.714096
13.176636 37.320057 23.704094
16.72464 43.159058 13.9530945
18.985634 42.966057 13.314095
62.50164 40.69106 8.239098
65.036644 40.876057 7.952095
0.6476364 44.62806 75.5931
0.408638 43.80206 73.1571
8.881638 48.834057 4.1680984
10.239639 49.85906 5.305092
6.134636 53.26706 3.5340958
6.378639 55.209057 5.2970963
66.32364 5.691058 60.394096
67.97664 5.665058 61.683098
4.823639 11.065058 52.477097
2.2306366 11.879058 52.1461
53.81564 61.679058 67.784096
51.87164 62.035057 67.2321
45.19664 56.974056 75.508095
43.55564 58.382057 76.1691
50.22664 2.936058 48.7861
50.50264 0.7520523 48.512096
40.317642 65.81806 54.817097
41.407642 63.932056 55.094097
46.080643 29.200058 13.0290985
45.109642 30.269058 11.341095
53.14564 34.604057 4.0170975
53.122643 34.14006 1.3930969
17.867638 64.26306 75.3661
17.700638 65.93806 0.007095337
8.499641 63.97706 7.3680954
7.6386414 61.731056 7.148094
27.44864 56.759056 42.282097
26.915642 56.61606 40.544098
36.20864 56.66306 34.255096
36.88164 58.92706 33.822098
40.40264 35.973057 46.9721
40.95364 38.56606 48.3211
33.59064 35.299057 58.357098
32.17364 34.049057 57.5431
36.56364 4.496058 37.032097
35.386642 3.4400582 39.246098
28.818642 4.995058 48.628098
30.279642 3.0300581 48.732098
16.716637 54.53306 71.8011
17.131638 56.07906 73.3141
12.769638 54.89306 7.414093
10.914635 53.895058 7.837097
40.176643 33.014057 28.542097
38.191643 33.37206 29.206097
31.90364 32.584057 39.095097
33.809643 32.993057 40.128098
64.104645 26.739058 26.099098
64.338646 24.475058 27.0411
56.87464 22.926058 35.736095
55.59064 22.592058 34.266094
67.92964 8.185058 23.421097
68.73164 9.821058 23.899094
63.64264 13.009058 22.786095
61.66664 14.215057 21.619095
23.512642 69.56906 24.992096
25.62564 0.3090515 24.6531
33.774643 0.7590561 16.216095
35.31264 2.1160583 15.087097
61.15864 53.376057 49.7031
60.48864 51.070057 50.215096
54.17564 49.39206 59.8971
51.907642 49.278057 58.830097
57.12464 33.36206 3.0220947
56.02964 33.99606 0.6920929
63.748642 35.464058 68.2951
66.56664 35.00506 68.0151
61.44164 49.919056 68.8011
58.984642 49.825058 68.480095
51.914642 43.805058 0.7710953
51.43764 46.083057 1.7300949
55.949642 0.82805634 53.739098
57.65364 69.00706 54.829098
49.26964 67.44106 62.532097
48.80264 69.17106 64.1691
21.898642 63.57906 24.0001
20.253641 62.40706 22.421097
12.763641 61.250057 29.911095
12.266642 60.01906 31.115097
57.14264 64.38306 32.455097
55.65164 62.67706 33.7501
46.775642 59.25406 38.3901
48.12764 57.94806 38.2081
59.65564 6.316058 34.25909
60.17364 8.649058 34.834095
66.561646 10.696058 25.088097
67.68264 12.210058 24.794098
69.29264 16.638058 28.2341
67.43464 15.535058 28.065094
60.43764 12.481058 36.293095
57.71264 11.539058 36.41409
17.633642 54.943058 13.267097
18.18164 56.69706 13.689095
28.095642 59.22606 8.439095
28.405642 58.495056 6.1720963
34.29364 43.242058 24.745094
36.128643 42.404057 24.8881
46.240643 46.24806 18.566093
44.90364 45.939056 16.541092
23.664642 59.87906 2.294098
21.364641 61.008057 2.4710922
19.562641 60.110058 14.913094
18.915642 62.696056 14.773094
68.39864 54.16506 35.9811
66.33764 54.88506 36.712097
61.15964 51.33006 47.3541
62.97364 50.57206 48.741096
49.30564 30.856058 50.761097
48.86464 32.76906 51.631096
40.96064 28.626059 62.3551
38.93164 29.178059 61.540096
16.152641 4.513058 58.039097
14.622642 3.103058 56.477097
19.395641 6.878058 45.8551
18.793642 8.162058 44.164097
20.32764 3.251058 2.5760956
21.211641 5.4920583 2.2900925
32.08664 9.205058 74.4701
31.304642 10.350058 72.3631
8.745636 55.995056 45.830097
9.370636 57.117058 44.3411
13.583633 59.943058 34.038097
12.11264 58.42706 33.641098
13.256638 0.45305634 34.5831
13.434639 2.7290573 35.6201
6.130638 69.927055 46.6541
5.255638 68.06806 46.436096
52.98664 58.431057 63.157097
53.574642 60.173058 62.554096
58.62464 60.56706 52.277096
60.45364 61.972057 51.5851
52.442642 24.434057 34.707096
51.12764 26.002058 36.377098
46.47264 19.040058 45.6241
45.06164 20.074059 46.943096
47.469643 57.027058 4.1080933
47.816643 56.626057 6.511093
40.97364 53.284058 15.155098
40.50664 55.647057 14.990097
28.592642 40.911057 38.497097
26.345642 40.54506 37.282097
36.642643 42.23406 30.754097
35.58264 44.132057 29.123098
46.56464 57.325058 58.013096
46.086643 55.340057 59.019096
41.70764 54.12906 69.1131
40.47364 51.66506 69.5171
40.76564 18.173058 6.752098
41.072643 19.845058 8.997093
37.191643 15.002058 19.714096
38.898643 13.469058 20.4161
42.816643 26.838058 65.383095
43.448643 26.576057 63.419098
50.261642 26.113058 56.3351
50.35064 27.986057 54.7501
62.40364 29.192059 63.8471
64.39264 30.188057 64.6261
3.3796387 29.990057 57.037098
4.5246353 31.514057 56.8271
8.837639 59.440056 27.712097
9.303642 62.00406 27.062096
14.728638 66.08206 17.549095
16.519638 67.31106 18.203094
7.208641 14.824058 32.67309
6.3696365 15.426058 30.850098
13.332634 14.847057 21.542099
12.179634 14.997058 19.574097
2.3156357 0.4540558 7.0120926
2.83564 1.8950577 5.7480927
8.888641 2.7070541 71.7801
10.615639 1.2330551 72.853096
64.88664 39.938057 69.6911
62.82064 40.196056 68.5321
55.16764 34.36906 74.1111
52.73864 34.645058 74.687096
38.92564 36.25806 29.468098
38.72364 37.874058 30.789097
30.607641 38.21806 41.287098
30.547642 35.93306 41.471096
66.33464 27.171059 9.567093
67.78164 25.947058 9.353096
5.7336426 27.635057 75.9221
6.9296417 28.465057 1.6800919
8.692642 3.8730545 30.964096
10.164642 4.661057 29.279099
12.524635 3.447052 19.283096
14.455635 3.6790543 18.359093
3.6196365 29.095058 15.338097
5.396637 28.083057 14.135094
13.563637 32.73006 8.011093
13.7066345 35.076057 7.8400955
38.90164 24.886057 43.728096
38.16564 22.949059 43.1881
26.59864 23.722057 49.524097
27.13264 21.149057 49.853096
30.398642 31.389057 22.772095
29.735641 29.217058 24.029099
24.25464 27.826057 34.21509
26.224642 28.212057 35.533092
66.33364 45.04606 15.086098
64.31564 44.638058 13.922096
58.12664 44.82406 24.5551
59.115643 42.905056 26.405098
63.44064 22.196058 7.200096
62.68764 22.944057 5.5210953
67.090645 27.539059 72.2271
67.633644 26.809057 70.3341
5.009636 31.586058 35.778095
4.9456406 30.194057 34.269093
12.727638 33.55706 25.938095
14.749634 32.90706 26.992096
17.255638 49.91306 72.730095
15.978638 48.88606 71.2531
6.910637 43.13706 2.3260956
7.3296356 45.070057 4.1490936
64.71864 66.30006 21.413094
62.43464 66.21006 20.365097
60.37164 59.834057 29.509094
58.872643 59.207058 29.4861
23.995642 56.780056 21.955093
25.37664 54.936058 20.5971
36.11264 56.230057 14.970093
35.706642 55.181057 13.424095
34.82564 46.923058 65.091095
34.67564 47.138058 67.132095
26.419641 42.148056 73.9601
27.656641 43.22006 75.6301
67.00364 19.911058 65.2601
65.91564 21.164059 64.2901
3.6056366 19.329058 54.859097
2.7496414 20.746058 53.128098
1.1416397 21.477058 30.842098
1.123642 20.815058 33.463097
62.61964 14.275058 39.506096
60.62164 14.112058 38.269096
38.498642 57.346058 32.17509
39.87064 56.04506 31.564095
50.949642 61.22506 26.425095
50.45164 60.334057 24.270096
62.664642 64.17006 16.576096
62.66264 62.04506 17.796097
58.84864 57.530056 27.505096
56.36064 57.592056 27.786095
51.78464 62.87306 44.8831
53.14864 62.627056 46.5981
43.24364 57.646057 54.8751
43.05564 55.846058 54.1751
30.832642 44.41306 59.538097
30.946642 42.92106 57.7441
39.13464 46.70406 49.1751
37.767643 46.98206 47.9791
40.05464 22.896057 24.025093
40.96064 24.871058 24.678093
46.579643 31.825058 17.118095
48.91364 32.28606 16.600098
62.46864 45.44906 67.7271
63.21464 44.44206 69.6791
55.72464 40.758057 1.9740982
55.17564 38.409058 1.8890915
27.92164 54.39306 23.2491
29.578642 54.362057 21.667099
36.843643 53.76706 15.612091
35.469643 52.472057 13.271095
23.338642 53.585056 54.531097
24.207642 55.26206 55.0291
30.700642 64.523056 49.812096
29.659641 65.02406 47.998096
1.6336365 24.796059 35.7171
0.69664 23.618057 34.496098
63.810642 24.187057 43.0691
62.59864 26.093058 43.186096
10.509636 29.858057 19.9021
11.374634 27.808058 19.032097
19.161636 28.200058 9.633095
19.171638 30.278057 10.043098
18.13264 17.541058 61.852097
16.65064 19.060059 61.694096
25.17764 23.686058 51.6751
25.69264 25.791058 53.1601
64.95664 12.693058 3.3600922
64.381645 14.607058 3.327095
1.8776398 12.817058 70.1621
2.6436386 13.847057 67.9901
13.533638 65.09606 34.707096
14.82164 66.35906 36.067097
2.569641 66.56106 42.1261
2.795639 64.56006 42.2221
42.837643 52.99106 34.13509
41.39564 53.21206 32.224094
49.23064 55.467056 23.920097
48.51964 56.766056 22.275093
7.6676407 64.49606 11.175095
7.9546356 65.19906 12.939095
3.8526382 60.02506 22.310097
4.7426376 58.24106 22.640099
15.425636 45.523056 33.3401
15.306641 43.780056 31.843098
6.5566406 42.131058 39.579098
4.8046417 41.88006 37.880096
51.86264 50.15806 7.3330917
51.25864 50.88506 9.222092
44.733643 43.890057 14.644096
46.91764 43.244057 15.481094
54.57264 40.42106 41.295097
54.108643 39.458057 38.790096
59.50364 40.473057 28.403097
61.59764 41.681057 29.130098
5.3936386 40.133057 63.512096
3.3276367 40.33706 61.957096
62.65664 39.339058 66.0421
62.282642 41.529057 65.2401
64.007645 33.735058 25.161095
63.18064 35.513058 24.9031
0.2726364 36.242058 13.939095
1.4026413 37.28106 15.339096
0.2876358 6.5450583 63.746098
1.3186417 7.154058 65.896095
62.63564 6.519058 73.492096
61.15164 4.790058 74.7461
50.03164 45.006058 75.1951
47.963642 45.056057 74.8891
57.48564 48.391056 66.6341
56.83764 50.31006 65.715096
33.102642 27.866058 22.785095
33.36964 25.391058 22.807098
27.13964 21.389057 33.07909
27.86564 20.729057 35.06209
42.15864 31.920057 27.160095
42.810642 33.882057 26.705093
53.05964 32.79506 20.171097
53.07864 34.51606 18.740097
25.19564 64.95806 24.423096
26.39364 63.085056 26.001099
18.033642 58.32406 34.045094
16.312641 58.667057 32.961094
34.81964 58.027058 29.7081
36.25164 59.52606 30.662094
45.385643 60.279057 22.2211
43.89764 60.057056 20.5281
20.412642 41.638058 72.4271
20.973642 40.077057 73.3061
14.224641 38.86606 6.2410965
14.448641 37.80906 8.388092
59.38164 19.364058 58.2301
59.76764 19.606058 60.171097
53.47364 15.477057 70.0521
52.852642 16.928059 71.0521
64.20464 12.185058 62.103096
65.35064 14.130057 63.023098
56.67264 13.594058 71.3191
57.01264 11.960058 72.8781
39.59764 9.299058 2.5760956
41.205643 10.664058 1.9670944
49.26664 9.891058 70.7971
50.10564 9.193058 68.7791
17.305641 15.867058 5.7050934
18.967642 18.062057 5.291092
26.013641 20.357058 72.6661
26.339642 18.552057 71.7551
18.897642 33.57106 49.0711
20.715641 32.71206 49.4461
27.88664 39.13506 40.568096
27.253641 38.22506 38.838097
7.354637 12.030058 36.193096
8.840637 12.689057 37.635098
4.3386383 9.626058 50.201096
3.8916397 12.139058 50.191097
3.7506409 29.208057 37.221096
2.3666382 27.496058 35.920097
64.49864 29.780058 43.6391
64.522644 31.412058 44.461098
42.68664 22.707058 46.344097
41.00664 23.870058 45.2371
47.04964 26.052057 34.2431
45.386642 26.109058 32.8271
19.97664 52.249058 17.532097
20.901642 50.367058 18.719093
13.652641 45.57906 27.691093
13.266642 44.10806 26.177094
38.241642 0.68305206 18.437096
37.427643 2.3670578 18.994095
30.401642 2.0950546 29.507095
28.81364 0.98605347 29.1941
6.380638 7.080058 13.079094
6.958641 8.337058 15.5780945
69.52464 5.566058 23.323097
67.339645 5.066058 23.052094
4.6576385 2.763054 66.853096
3.7016373 4.8480535 68.0431
65.06864 4.828057 73.980095
63.71564 4.670052 75.4301
59.44764 44.480057 46.207096
58.52964 42.38606 46.941097
56.11464 49.564056 46.783096
57.66264 48.695057 45.544098
5.2026367 49.159058 42.3951
4.958641 46.76806 43.561096
69.14264 43.42006 54.720097
66.80264 43.66406 54.073097
53.21264 37.377056 18.881096
50.71464 38.15006 19.599098
43.99364 37.15606 30.144096
42.371643 36.15606 28.697098
13.245636 6.8860583 55.823097
14.412636 6.862058 57.680096
3.856636 6.375058 63.8681
5.1086426 6.506058 66.131096
35.380642 8.353058 18.364098
36.28364 6.772058 19.295097
27.28564 3.4630582 27.5551
26.485641 2.2990582 26.1941
38.53564 19.506058 25.607094
36.35664 20.485058 24.952095
33.17964 16.742058 35.60809
30.847641 16.862059 35.392094
48.351643 54.222057 3.0310974
49.11264 56.141056 1.8690948
58.05664 58.37106 70.0681
58.18964 57.01806 67.2641
62.268642 50.682056 13.858093
62.72864 48.487057 14.560097
58.25964 49.63606 25.266098
56.227642 49.618057 24.398094
48.04864 7.467058 28.408098
48.72464 8.824058 30.204098
41.684643 7.2220583 40.141098
39.893642 5.653058 39.144096
18.94564 22.078058 30.585098
17.580635 19.692059 30.856098
12.2066345 17.470058 40.7431
14.23864 16.285059 41.4161
1.32164 21.827057 9.506096
2.4356384 23.333057 9.822098
8.663635 31.597057 3.8400955
11.160637 31.088058 4.004097
50.42264 17.520058 72.4671
51.76264 18.832058 73.173096
44.551643 14.599058 4.5380936
43.587643 15.638058 6.345093
62.23164 6.135056 38.749096
62.22364 4.1960526 40.8681
56.83264 2.6560516 49.5421
56.664642 3.8850555 51.623096
7.958641 33.659058 41.942097
7.3046417 31.562057 41.380096
69.730644 31.970058 51.393097
68.76664 30.596058 49.658096
2.5116425 46.78106 75.8761
2.4316406 45.89906 74.0801
10.7096405 48.76706 65.3081
10.12764 47.76006 63.4171
5.469635 2.509056 9.414093
4.9336395 2.400055 7.198097
13.629639 4.1650543 75.8481
14.272636 5.826058 1.3990936
11.299637 0.68305206 69.2051
10.082642 0.5090561 67.4361
15.68364 68.746056 57.796097
15.312637 67.75806 55.534096
16.41964 56.118057 34.728096
17.484634 55.45406 36.615097
10.681641 50.347057 44.3471
9.574638 52.10806 45.0361
9.931641 7.048058 72.4491
8.983643 8.792058 73.8761
0.847641 5.142058 6.393097
69.49764 6.0250583 5.916092
25.20264 43.132057 0.1880951
22.98364 43.195057 76.1371
21.263641 46.410057 12.579094
21.029642 44.62806 13.524094
19.446642 62.112057 75.133095
17.273642 61.374058 74.7201
14.260641 61.89206 10.787094
15.331641 63.022057 12.123093
58.45464 2.1180582 33.64809
58.29164 0.7390582 31.183098
64.782646 5.783058 23.605095
65.199646 8.359058 23.171097
19.524635 56.972057 17.084091
17.702637 56.187057 17.003098
10.51564 49.433056 26.2361
9.648636 51.065056 27.127098
23.678642 57.951057 39.992096
23.524641 58.54506 42.484097
16.524641 61.83606 51.555096
14.931642 60.667057 51.131096
50.14764 52.362057 39.8411
50.98864 53.13706 41.8201
38.37064 50.792057 46.9651
39.351643 49.16506 47.346096
12.09864 7.251058 33.46809
9.549637 7.160058 31.969093
16.903633 9.258058 22.799095
16.148636 11.393058 23.293098
13.283638 54.23406 50.039097
14.347633 52.972057 51.1961
5.6406403 48.09506 59.3761
5.6366425 49.88506 59.533096
64.286644 40.86506 30.591097
64.758644 42.44706 32.311096
60.185642 39.13706 43.544098
57.66964 39.44806 43.6381
68.33464 20.848057 43.601097
69.14064 18.58006 44.109097
8.213638 15.441058 37.698097
7.6636353 14.500058 35.4931
10.041641 58.605057 47.1051
11.938637 57.25306 46.630096
20.763634 63.160057 39.252098
19.689636 64.34106 38.2451
68.95964 58.46206 40.5701
0.37664032 58.000057 42.4931
61.77764 57.662056 50.2861
60.22864 57.77606 48.4311
15.8196335 52.999058 12.013092
16.85064 52.26806 13.664093
9.716637 46.24106 23.592094
8.518639 48.299057 24.2201
11.229637 69.01706 32.975098
10.420639 67.38606 33.857098
0.99463654 65.04606 39.811096
69.355644 66.23406 40.5501
48.17564 2.5560532 66.7381
47.067642 1.2370529 65.118095
39.316643 67.412056 69.8921
38.22364 65.78406 71.6891
20.357641 67.49106 75.2771
19.38264 65.58306 73.7881
24.616642 65.95606 65.298096
24.98364 68.09506 65.1271
52.37864 19.016058 11.230095
53.87464 18.234058 12.152092
56.095642 23.877058 17.129097
55.442642 25.563057 18.055092
34.02264 23.356058 59.330097
32.56464 23.730059 57.3631
44.64764 21.987059 51.4951
44.323643 22.811058 49.1321
28.325642 14.214058 72.1631
27.725641 15.997058 72.7821
24.296642 11.208058 8.192093
22.124641 10.683058 7.5560913
59.470642 42.603058 8.653091
57.35764 42.424057 7.770096
48.907642 38.744057 14.855095
48.72664 36.65006 16.071098
52.907642 15.885057 53.725098
51.303642 14.2130575 53.6611
48.67064 7.7950583 64.4751
47.525642 9.578058 65.3941
2.2636414 39.54506 54.7231
4.18264 40.22706 54.3341
7.8156357 42.30906 42.8421
6.956642 40.51006 41.7311
35.79964 1.7300568 50.664097
34.43264 1.4830551 48.940098
42.178642 67.45906 40.0851
43.17264 69.262054 41.414097
2.6536407 8.286058 48.6111
1.3666382 10.576058 48.752098
63.04064 6.717058 57.519096
62.90164 7.714058 59.3691
65.369644 65.95506 2.4880981
63.75264 67.03606 1.2930984
52.81164 62.03106 7.740097
51.61964 63.662056 7.249092
52.379642 58.04706 24.592094
51.01564 57.63706 23.5401
56.615643 57.49806 11.537094
57.97864 55.848057 10.848091
17.725641 46.83706 10.151093
18.39664 48.820057 10.372093
27.05664 54.56006 4.037094
28.616642 52.60106 3.5930939
26.09164 18.949059 14.167091
26.35864 16.534058 14.357094
22.442642 13.292058 26.863098
21.80664 15.325058 27.417099
33.365643 30.192059 42.5481
31.364641 31.305058 41.468098
24.163641 25.525057 48.8541
24.408642 27.283058 50.838097
28.617641 25.253057 52.887096
28.78964 27.888058 53.635098
37.350643 29.207058 45.0141
36.463642 28.125057 42.963097
11.964638 40.45506 45.6051
12.299637 42.319057 45.7171
5.245636 42.38006 56.068096
6.2116394 41.07906 57.502098
39.95764 44.259056 11.011093
41.98064 43.827057 10.355095
50.69764 44.74606 4.0820923
51.17564 45.19106 5.999092
26.790642 51.940056 59.872097
24.825642 51.71906 59.083096
15.710641 48.091057 67.839096
17.144642 47.08806 69.6671
42.37664 32.01906 47.309097
41.148643 33.60906 45.908096
49.56264 35.98906 37.3191
51.45064 36.09206 37.678097
7.2886353 29.696058 39.2781
5.366638 29.801058 39.878098
69.67664 26.267057 50.9531
69.755646 23.669058 51.615097
41.629642 18.980059 64.2631
40.00664 17.769058 63.034096
31.42164 12.929058 71.5591
31.913641 14.757058 73.0371
18.352642 65.14106 21.772095
20.36164 65.54806 22.996094
17.065641 67.15106 33.58009
17.942642 66.773056 35.72909
47.07064 53.487057 57.040096
48.00764 51.862057 56.163097
54.55864 56.891056 48.308098
55.39964 59.381058 48.706097
70.19264 29.948057 32.352097
67.605644 30.795057 32.225098
58.02364 25.239058 36.766098
59.53864 23.894058 37.2991
20.652634 69.330055 43.1401
19.342636 68.06606 41.961098
11.719635 65.35706 50.805096
9.675636 64.95806 50.638096
35.685642 0.3370514 53.877098
34.587643 68.690056 54.3471
24.426641 67.88906 60.4171
24.965641 67.85206 62.384098
51.88864 64.08906 65.0821
53.27864 62.432056 64.145096
59.66964 66.78506 54.791096
61.33764 68.52206 55.2171
12.027641 42.86506 64.3731
12.108642 41.315056 62.333096
24.24364 44.69106 57.659096
22.943642 44.97506 56.116096
42.963642 64.912056 58.338097
40.975643 63.79006 58.075096
34.53364 60.577057 66.0811
34.29764 57.82206 66.0671
0.19863892 4.1270523 27.057098
1.6306381 5.3110585 28.596098
63.866642 3.973053 38.609097
65.04164 5.3650517 39.365097
2.5226364 48.530056 1.7820969
3.0546417 47.085056 2.678093
64.909645 43.51006 10.188095
66.08264 43.723057 11.987091
58.59864 8.285058 57.260098
60.164642 6.608058 58.5561
55.00264 5.5910583 68.8711
54.261642 3.798058 69.6631
64.80864 58.24106 53.3351
66.98664 59.721058 53.767097
1.1116409 64.45206 44.0281
69.62965 65.81606 43.623096
46.330643 1.1170578 3.9220963
48.135643 0.9750519 3.499092
51.75964 4.8680577 69.7131
50.43964 3.3700562 68.2521
68.96164 57.82306 2.5610962
66.744644 58.176056 3.377098
62.95364 54.473057 14.079094
60.82064 53.17806 13.537094
48.483643 62.77406 23.233093
47.80764 63.688057 20.672096
56.99964 63.570057 13.791092
57.45464 61.190056 13.158096
60.490643 15.7460575 57.413097
61.63764 17.696058 57.872097
66.75264 19.104057 47.0841
65.908646 18.692059 44.9231
50.123642 56.57906 39.039097
51.435642 55.680058 38.145096
53.859642 59.251057 27.222097
55.532642 60.919056 27.379097
46.773643 22.535057 69.534096
45.650642 21.051058 71.3191
41.01464 19.997059 4.721092
38.926643 19.535059 3.7130966
4.8716354 22.476057 33.60809
5.2116394 23.700058 31.520096
14.116638 26.775057 25.704094
15.685638 25.553059 25.127098
38.03664 2.4270554 39.6541
39.55064 0.98405457 40.232098
29.597641 69.23706 46.686096
29.293642 67.01606 46.1101
22.05964 7.7420583 6.381096
20.704641 6.664058 5.115097
15.451641 5.640058 16.587097
13.040641 4.943058 16.238098
32.51564 30.254057 21.618095
34.150642 31.567059 21.215096
38.81364 31.146057 8.269096
40.64564 32.53706 9.418098
31.818642 47.457058 2.839096
33.39664 48.58606 3.8610916
39.14064 48.03206 70.7781
41.094643 48.943058 70.0931
36.29364 33.30306 4.4180984
35.13964 31.417057 3.6130981
44.225643 30.009058 71.1151
43.941643 32.236057 70.2661
48.928642 38.710056 34.56609
50.14264 36.708057 35.02209
55.96664 42.94206 25.452095
55.54464 41.62206 23.659096
11.147636 65.14506 14.649094
10.192642 66.537056 13.784096
4.5766373 69.636055 25.448097
5.3126373 0.14105225 27.521095
7.785637 69.14706 49.305096
7.9646378 67.74106 47.283096
15.665634 3.186058 40.3681
14.329636 4.726052 38.768097
3.5366364 27.406057 33.39709
2.6386414 29.564058 32.555096
11.634636 29.681057 22.473099
12.01564 31.551058 22.218094
61.07364 58.064056 70.9881
61.77464 56.096058 70.9071
2.5906372 60.119057 64.520096
3.1536407 57.59306 63.850098
68.14365 59.21106 76.2791
67.04564 59.29506 74.2751
2.0436401 62.97506 64.9911
2.1006393 65.18306 64.5741
24.385641 33.94906 54.374096
26.609642 34.52306 54.7291
23.19864 30.848057 66.3561
21.623642 31.361057 68.2361
55.84264 50.391056 41.6671
56.53664 51.819057 43.2371
60.78564 50.84506 32.727097
59.96064 52.655056 32.405098
69.286644 21.130058 50.477097
0.21963501 19.733059 51.8621
64.60664 16.020058 60.1891
62.51764 16.232058 60.017097
39.22264 26.405058 62.456097
40.461643 25.564058 64.2381
35.225643 25.685059 75.7041
34.669643 26.986057 0.92209625
23.061642 35.24806 69.647095
21.985641 37.34506 69.4291
30.31364 34.93206 61.7241
31.50464 34.99106 60.115097
31.04264 51.02606 26.272095
31.555641 49.272057 27.390099
21.797642 48.138058 34.26109
23.12964 46.34506 35.28909
42.89764 33.80106 10.210098
42.969643 35.95606 9.486092
49.28364 41.348057 0.966095
48.176643 42.417057 75.7941
56.16764 53.703056 64.7821
57.108643 55.891056 64.756096
66.923645 56.097057 57.124096
65.688644 56.78906 55.627098
33.77864 26.470058 39.448097
34.767643 28.340057 39.303097
38.997643 27.464058 28.372097
37.98764 28.962057 26.808098
61.62064 58.200058 33.530098
60.88764 56.300056 34.0141
53.623642 57.76806 42.8751
53.61264 55.59306 44.5551
48.316643 66.43506 7.270096
48.25864 67.08406 8.8890915
42.391644 63.758057 18.068092
41.54064 61.26006 17.564095
15.5706415 57.967056 10.160095
14.961641 55.773056 9.350098
24.050642 57.459057 1.6560974
23.597641 57.01806 75.6361
7.2476425 7.858058 34.013096
8.691635 7.6820583 35.9241
3.6076355 4.483058 46.018097
2.5206375 5.995058 46.582096
0.9746399 25.314058 53.950096
70.06764 27.320057 53.465096
64.507645 23.101057 63.254097
63.970642 23.609058 65.2911
27.293642 66.78006 27.433098
28.100641 64.85306 27.535097
20.593641 60.557056 35.5771
20.87964 61.369057 37.3961
34.56864 31.290058 23.997093
34.83964 32.10206 25.529099
28.93164 32.590057 36.364094
28.637642 30.638058 37.83009
41.558643 64.03806 36.017097
39.30664 65.44706 36.3121
35.419643 59.813057 47.2351
32.809643 60.18406 46.4941
17.29964 61.235058 71.9861
19.572641 61.28806 72.3901
24.156641 64.86706 61.7451
22.839642 64.11606 60.123096
20.971642 54.90706 39.469097
20.853642 52.675056 39.8201
15.623641 50.249058 50.275097
16.779642 51.56006 52.083096
26.43864 68.30506 45.685097
24.769642 68.65306 47.183098
17.481642 63.778057 53.8491
17.530642 61.58006 54.5211
57.46964 36.700058 24.8881
55.54164 36.13706 23.699097
48.58464 32.964058 31.570099
48.455643 34.35006 33.422092
8.846642 60.710056 67.2061
9.525642 60.494057 69.7061
1.4896393 58.402058 1.9910965
1.2306366 56.417057 2.5450974
21.62964 66.14506 42.5291
22.16764 67.45906 44.581097
14.2616415 67.16406 53.2311
13.392641 64.96506 53.023098
66.133644 56.94106 16.518097
66.994644 59.075058 15.718094
1.7416382 57.812057 5.301094
1.809639 60.285057 4.200096
11.687637 54.686058 27.261093
12.244637 56.72606 28.244095
18.146637 61.035057 17.385094
17.540634 59.042057 16.833092
20.979641 39.298058 31.7201
20.812641 39.439056 29.619095
27.23364 44.758057 20.760094
28.71664 43.238056 21.612099
26.21364 51.090057 23.2761
25.444641 48.479057 22.129097
19.288641 49.530056 33.360096
18.62564 51.451057 33.21709
11.89164 56.40806 49.1601
9.720642 55.001057 48.170097
68.631645 55.80306 53.191097
68.14264 57.26206 54.8681
55.67564 26.704058 36.983097
55.310642 25.461058 35.547096
63.67664 29.193058 27.774097
65.29364 27.884058 28.109098
70.08264 49.237057 75.119095
0.6166382 51.299057 74.536095
9.318642 51.050056 66.2191
10.37764 51.84306 64.145096
21.979641 54.833057 56.468098
21.627642 56.777058 57.4321
15.036641 53.58606 66.966095
14.287642 54.96306 68.0601
14.750633 50.804058 69.4351
13.568634 49.91506 68.4701
6.9136353 48.563057 1.905098
5.0586395 48.91406 3.2360916
38.359642 3.9980545 58.386097
37.54364 3.3970566 56.5711
29.48364 64.59306 61.802097
27.58164 64.21606 63.0851
3.118637 63.159058 22.812096
