37.10563 75.16266 4.040731
35.91563 76.81366 5.015731
43.87863 36.68166 51.96273
42.29863 38.451656 51.22773
48.11463 42.816658 42.668728
48.42963 45.31566 42.76773
15.16963 27.033657 26.13973
16.31963 28.614658 25.550732
26.39863 28.496658 26.085732
26.51063 30.407658 26.735731
27.18063 5.3956604 15.608731
26.59563 6.6396484 17.329731
25.82563 16.519653 22.292732
27.02063 16.049652 23.71873
1.2086258 64.84166 18.832731
2.6436272 66.11766 17.815731
12.762627 67.975655 16.05973
13.724628 69.60766 17.67773
33.68863 130.40765 46.72173
35.28463 131.99466 46.245728
42.12063 4.4946594 54.62173
42.77463 6.4706573 54.95573
40.88263 91.89266 27.822731
39.49163 93.59366 27.547731
30.21663 98.30066 33.96373
28.60563 99.30966 33.33773
0.9376259 14.071655 39.17673
2.3326263 12.590652 41.03173
43.82063 17.427658 42.04573
41.80263 17.067657 43.376728
0.8066292 127.40166 6.902731
2.2626266 126.52466 8.086731
48.69963 121.64666 18.17473
48.07363 119.17466 17.707731
0.11262894 108.71666 28.377731
0.20262909 108.21466 30.785732
45.66763 97.32866 34.17273
47.55363 98.05966 35.53073
49.08163 110.90966 23.601732
0.9486275 111.584656 25.067732
1.817627 121.99166 30.50773
2.7356262 123.26866 28.867731
32.71963 67.542656 56.85873
30.827631 69.54766 57.36173
34.88963 71.376656 2.7307358
35.17563 72.40266 4.0477295
22.73663 128.38565 18.15973
22.30163 129.98766 17.14973
17.53263 5.20665 26.199732
17.861631 3.2086487 27.240732
32.50663 77.893654 10.181731
31.459631 76.63766 8.241731
29.65563 67.93966 11.017731
27.698631 67.976654 9.540731
44.44063 25.091658 55.71673
44.54563 24.656662 58.06373
1.9516258 17.45166 58.390728
2.2626266 16.547653 59.86573
28.82663 39.525658 2.884735
27.97463 38.715656 4.9277344
20.89963 31.244658 0.08272934
22.06663 31.125658 60.54773
20.67763 76.641655 2.603731
22.14963 74.77666 2.7227309
16.16163 68.56166 10.404731
18.66263 69.59766 10.952731
42.96863 1.90065 11.303731
45.45463 1.778656 10.506731
49.36363 129.87566 18.846731
0.7996292 128.40265 20.439732
46.57163 112.181656 55.10973
47.41663 113.85266 55.84873
5.145626 118.60566 59.84873
6.8356285 117.08966 60.54173
16.079632 108.37266 7.8367324
16.75863 109.23566 5.4547324
15.700626 97.97966 2.709732
17.789629 97.30966 2.7367325
20.98963 83.66266 38.41973
19.21863 84.420654 39.97973
18.47563 94.17766 43.47373
16.23163 94.56966 44.967728
11.986626 39.14266 59.91073
13.461628 40.707657 59.47073
9.919628 41.574657 51.87973
8.923626 43.263657 50.93473
2.0226288 10.00766 36.26673
2.1286278 7.9896545 37.585728
12.341629 6.1166534 40.58673
13.253628 7.7556458 41.71573
31.00363 17.431656 52.90273
29.93663 15.823654 51.95873
25.07663 16.78865 43.08673
23.94263 18.97966 43.25573
32.55363 10.245651 53.21273
34.22463 11.949646 52.55873
38.00163 10.665649 44.43073
38.44863 9.942657 42.10473
14.15163 78.91166 55.21373
14.280628 78.919655 53.04273
14.570629 80.60866 46.07673
15.241627 79.600655 44.18873
29.97763 73.753654 50.17773
28.95663 75.64966 51.38173
34.08663 82.79166 58.06573
33.31663 84.76066 57.78473
45.36363 130.83466 42.96973
45.39263 131.22466 45.16973
35.66963 129.91365 43.82473
34.13063 129.62366 42.24773
35.61963 35.929657 0.20672989
37.95263 35.507656 0.58073044
30.30863 42.28666 4.048729
29.08663 41.14766 6.3127303
36.05763 69.88666 11.424731
36.20863 69.640656 13.844731
41.52663 77.35266 9.357731
43.42863 76.60666 10.881731
15.112631 105.06766 33.48273
16.93363 106.39866 32.36873
25.89163 101.80966 37.25973
27.31563 100.72066 36.55273
4.9886284 20.093658 6.554731
7.0686264 20.727646 6.021731
12.281628 18.355652 12.821732
10.942627 19.588654 11.988731
32.82363 11.942657 10.550731
32.57563 10.001648 10.049731
38.19263 0.42965698 11.170732
39.94363 131.37065 11.871731
2.6416283 54.81466 30.860731
2.718628 54.90466 32.92673
2.3766289 48.554657 41.71573
0.56562805 49.15366 43.432728
14.04063 24.079659 45.92273
13.926628 25.187658 47.74773
15.101627 29.748657 43.22973
14.61063 31.929657 44.14373
34.051632 39.48866 23.921732
34.05063 39.566658 21.785732
39.12463 35.91866 13.283731
41.19163 36.73966 11.726731
37.61763 120.612656 17.77573
39.57863 121.51266 17.37173
38.01363 129.62866 26.308731
35.82663 129.58865 26.471731
15.870632 100.52966 17.380732
13.743626 101.06966 16.91373
4.4086266 97.49266 22.294731
1.6636276 97.55366 22.005732
24.07963 132.03665 13.586731
25.063631 2.0346527 14.263731
26.58963 129.52466 18.578732
27.757631 127.362656 19.262732
16.63563 27.800657 32.90973
17.604628 27.352657 30.367731
10.0856285 35.69666 30.095732
10.720627 34.608658 31.51773
10.777626 86.07866 51.92873
12.868626 84.889656 52.83673
18.98263 89.88866 49.81973
20.532629 90.35866 48.64573
46.14863 0.4106598 23.76073
46.41663 130.46466 23.61173
1.5126266 121.95466 21.116732
1.9076271 122.61366 19.26173
38.68263 96.19966 11.544731
40.48363 95.47666 12.291731
49.68763 94.59466 18.18773
48.941628 93.96966 20.41773
16.69663 80.23266 48.81273
15.088627 78.42165 47.744728
14.450626 73.27266 57.64873
12.639626 71.52466 57.52473
0.29262924 15.282654 1.54673
48.58363 14.129654 0.9707298
38.97963 15.947647 4.7677307
38.68663 13.77565 4.280731
10.578629 81.74366 21.03973
11.882626 81.99566 18.203732
12.226627 71.127655 15.843731
12.520626 70.30366 13.840732
38.46863 100.34766 11.839731
38.35563 99.36766 9.804731
27.54363 98.17966 8.053731
25.709631 99.76366 8.152731
30.28063 64.34166 7.312731
29.69763 66.46666 7.779731
27.32963 74.53366 6.559731
24.35663 74.70566 6.878731
6.0006256 102.14966 8.560731
6.4906273 99.71366 9.243731
10.978626 93.07666 7.369731
9.2176285 92.14966 8.406731
48.96763 40.81466 11.588731
48.86663 38.518658 10.5597315
40.41063 32.019657 15.969731
38.66463 34.15666 15.554731
28.29163 52.41766 16.352732
30.06063 50.552658 16.78973
34.01563 56.443657 26.747732
35.66263 55.83366 27.876732
21.49663 14.812653 46.58173
23.79563 16.364655 45.883728
23.58963 5.2136536 45.90173
24.09863 3.0416565 45.120728
38.80663 65.55366 49.39173
40.78263 67.197655 49.06173
47.03563 66.60266 42.60773
48.91163 67.78265 43.44273
33.07363 126.47666 22.224731
34.63163 125.27066 21.370731
35.98563 118.62766 16.456732
33.50063 119.71866 15.038732
8.879627 48.27966 4.8067307
10.625626 49.747658 5.411731
18.164629 43.677658 11.987731
18.10063 41.83666 12.816731
16.76963 96.71566 15.291731
17.47363 98.50666 16.09773
18.334631 104.78966 24.811731
17.38863 105.31366 26.435732
0.83062744 74.60366 16.97973
1.1286278 76.73166 17.11173
3.730629 84.67266 17.564732
4.3496284 86.73566 17.266731
13.03363 32.39966 54.15073
13.17063 32.25166 51.745728
23.88163 32.507656 54.40373
25.26363 32.109657 52.42873
4.5246277 41.219658 37.80273
4.931629 41.36966 35.27673
44.40663 39.520657 30.60473
44.49663 40.06566 28.40673
15.59663 23.94365 37.51173
15.821629 26.510649 37.23573
9.363628 21.834656 43.91373
8.295628 19.873657 44.45973
1.8546257 110.112656 32.55273
2.322628 110.65266 30.706732
13.539627 108.65566 31.495731
12.944626 108.52166 33.74073
14.046627 100.97166 58.758728
12.059628 101.81866 60.15773
7.556629 98.17166 5.9857306
9.994629 96.61066 6.5677314
34.46563 62.35666 11.479732
33.16463 61.45966 10.219731
33.18663 51.07866 14.005732
34.91163 51.540657 15.310731
42.11363 80.20866 11.926731
39.49063 80.03866 11.5267315
39.81163 86.46966 8.911731
41.21163 84.91066 10.219731
4.867626 120.77766 61.82473
6.251629 119.90266 1.4207306
6.4886284 123.33166 8.491732
4.612629 124.23866 7.8007293
42.64163 72.30166 4.8007355
44.39963 71.11966 5.941732
39.66563 61.67566 6.488733
37.80963 62.04166 6.61173
35.15463 49.01566 55.49173
33.59663 47.033657 55.73573
24.64763 49.242657 61.870728
24.54163 49.75166 59.46173
6.397629 76.55566 46.75573
5.628628 75.389656 48.58873
49.22063 84.19266 52.49673
49.56263 86.530655 51.38173
15.252628 92.875656 41.99873
15.821629 95.20666 42.35773
17.414629 93.53266 50.120728
16.71063 91.42066 50.20573
37.41163 117.16966 27.346731
36.05563 118.69766 27.047731
39.10463 110.931656 19.207731
40.62163 111.89866 21.092731
32.76563 19.498657 24.717731
34.27563 20.608658 24.219732
33.93463 28.704649 32.81773
35.93863 30.42665 33.174732
12.375626 94.91866 25.675732
13.986626 96.09366 26.97973
17.73963 98.16066 35.00273
17.791628 96.028656 34.94873
45.90363 91.74166 47.11473
45.02263 91.50366 45.36473
40.81563 82.94066 44.98673
42.17563 81.544655 45.41573
47.90963 16.485657 55.64373
46.44363 15.598648 56.19073
38.47863 8.080658 52.64873
36.38863 8.51265 52.38473
4.652626 105.13166 51.43173
6.5946274 104.04866 52.20473
14.491627 100.13666 51.529728
15.779629 98.67866 49.91673
18.32163 16.02565 25.985731
20.74463 16.641647 26.078732
20.52363 27.74565 31.515732
21.17363 27.78465 33.78973
12.81363 45.434658 22.97573
14.43463 47.24566 21.940731
21.92363 53.05066 19.072731
22.45063 54.352657 21.565731
41.41963 2.9606476 39.82673
40.07263 1.3256531 38.63873
41.90663 129.60365 30.31973
41.42063 128.00066 31.76773
48.33463 80.58266 16.97573
49.71363 81.723656 17.669731
10.144627 83.80466 13.304731
10.589626 82.82966 15.410731
28.57963 24.515656 27.616732
30.632631 23.519653 27.855732
36.30063 13.126648 32.57973
34.24063 13.135651 33.56673
40.30563 102.52966 12.101731
41.37863 101.72766 14.180732
42.33163 109.14666 7.424731
40.42063 108.97166 5.8077307
35.56963 13.110657 39.83173
33.83663 14.029648 38.06673
40.42463 16.38266 30.259731
39.72863 14.325653 30.165731
18.61463 39.18366 19.88673
16.60563 40.21766 19.464731
11.0476265 40.650658 13.873732
11.848629 42.365658 12.193731
45.71863 115.66666 41.70173
46.38863 113.973656 40.17373
47.04463 111.54166 30.513731
48.97363 110.68466 31.905731
36.70763 77.89466 60.34173
37.63063 79.74766 61.16473
44.79663 84.18766 5.642732
45.73563 81.88866 5.4737334
9.193626 82.83866 24.179731
10.091629 80.99966 25.81973
11.199627 71.794655 18.25873
10.209629 70.419655 19.65073
7.5166283 72.96466 29.539732
6.265629 71.309654 30.289732
44.39063 71.54166 30.21873
43.81363 69.48366 31.497732
17.10663 47.28866 12.608731
15.853626 45.16166 11.988731
10.258629 48.692657 20.461731
8.877628 50.455658 20.984732
37.16663 116.640656 31.36173
38.01863 118.87466 30.476732
35.97163 125.56366 40.97373
38.20863 125.78666 41.05973
12.49063 16.301651 59.37573
13.4726305 16.63765 61.41373
22.52263 9.1406555 60.75773
21.35263 7.082657 61.83773
48.87563 121.75966 47.20173
0.9606285 122.48266 47.89973
47.07363 125.04466 56.27473
47.36463 127.55166 56.06973
6.737629 94.02766 2.9307327
6.0876274 93.28466 0.73672867
14.632626 90.94866 54.93673
13.307629 89.88366 55.62373
6.6686287 33.139656 27.657732
7.431629 34.16766 29.504732
49.11263 39.79366 27.086731
48.933628 37.941658 25.853731
8.934628 15.975647 51.724728
10.415627 13.932648 52.27573
7.881626 5.9706573 59.22173
10.060627 5.3706512 59.21173
10.134628 86.22066 14.733731
12.428627 86.77266 14.119731
14.980633 92.83966 24.30973
15.385632 93.39266 26.536732
41.28463 86.904655 36.83073
42.62163 88.39866 37.50973
48.05563 91.99466 45.36773
49.18163 91.85366 47.66973
13.53563 23.855652 43.10973
13.876631 21.60765 43.74373
19.26763 26.193647 34.90173
18.00563 27.872648 36.31573
6.690628 56.080658 56.05873
8.190628 56.82666 55.04773
13.650627 63.63066 54.05173
13.897629 64.309654 51.94073
2.1356277 2.6856537 23.787731
3.9646263 3.8846588 22.935732
5.8776283 8.897659 17.20973
3.829628 10.10965 16.839731
47.80363 123.528656 6.2617307
46.63863 124.16166 8.388731
41.23163 125.75966 13.219731
38.81463 125.751656 12.884731
0.8186264 62.761658 21.161732
1.4506264 61.63966 19.339731
1.2976265 55.10466 12.191731
0.12462616 56.373657 11.216731
0.098629 3.1806488 9.647731
1.1616287 4.0596466 11.557731
0.15162659 4.7916565 20.095732
1.6116257 4.8166504 21.797731
26.32463 124.48466 34.22173
25.37663 125.89866 32.82273
32.33463 1.3006592 30.77173
31.945631 3.0706482 31.47273
11.984627 62.16366 32.20373
10.853626 61.34166 30.522732
8.872627 69.20766 21.985731
10.673626 69.34766 23.34073
33.41363 60.56266 32.924732
31.41163 60.830658 33.11873
31.15263 70.375656 35.96973
30.17163 71.14966 37.82373
1.1696281 23.326658 42.00473
2.5256271 22.244658 43.41373
9.789627 27.934658 51.11773
8.670628 26.972658 52.56073
49.70163 86.02066 11.2107315
48.76863 85.44066 13.042731
49.01263 81.156654 5.0437307
47.43063 79.90066 4.0897307
26.57663 87.41166 17.31273
27.01563 89.06966 18.647732
20.007631 84.795654 24.127731
18.68363 84.11166 22.540731
6.574627 91.42366 30.780731
5.1186256 90.68966 29.27773
2.6416283 81.32866 34.82373
3.362629 79.82866 36.20173
43.13963 7.752655 15.994731
41.90063 9.685654 16.776731
42.88263 12.657654 29.064732
41.97363 14.73465 28.759731
4.1186256 69.778656 21.940731
4.4536285 71.961655 21.53173
7.805626 75.08366 11.057731
9.470627 76.348656 12.120731
13.693626 1.6406555 43.99773
13.810627 3.4566498 41.85173
12.502628 4.4876556 32.81773
12.577629 6.582657 31.591732
48.691628 131.58066 43.17673
46.95363 132.08566 41.17073
42.08063 8.075653 34.33673
40.13763 7.952652 35.31073
33.24163 91.62266 47.94173
31.98063 92.06166 49.58373
30.39463 103.75466 52.56173
30.65763 102.49466 54.67473
16.01363 23.638659 5.086731
15.858631 24.722658 7.064731
8.882626 33.21666 9.071731
8.894627 34.50966 11.043731
11.068626 57.54766 56.75073
9.344627 55.89266 57.12173
9.837627 52.679657 1.3907318
8.564629 52.386658 2.6907349
38.25063 110.08066 24.66373
36.47463 111.37466 23.794731
26.306631 116.88666 24.54173
25.55563 116.72566 26.453732
25.205631 60.31866 4.483731
22.82863 60.76666 5.261731
25.64563 58.87366 16.519732
26.035631 60.969658 17.162731
32.96063 110.56366 35.19973
31.403631 109.39166 35.15473
31.05563 101.58166 28.15373
32.08763 100.58766 27.339731
8.692627 127.38366 28.661732
9.274628 129.33165 28.821732
18.053629 130.04466 27.872732
19.16163 131.35866 29.688732
16.65063 91.10966 53.22973
16.736631 92.89666 52.69573
24.39863 97.29666 54.03073
25.403631 95.06866 53.82673
14.261631 0.19265747 35.38373
13.070629 0.07865906 37.11573
9.9036255 131.43365 47.19973
11.270626 130.20065 45.46573
49.948627 112.77266 49.06073
1.334629 111.38466 49.73273
8.240627 112.24066 48.29973
10.482628 111.99566 47.81673
35.36763 40.359657 29.058731
34.69463 40.87766 30.79573
32.54263 44.25866 39.99073
32.95963 45.82166 38.92473
11.064629 116.64366 0.24972916
9.863628 116.63766 60.70473
9.509628 124.64666 0.76272964
10.968628 124.91566 2.2167358
35.06463 72.514656 21.73273
33.09863 71.24366 22.255732
40.95763 72.764656 28.53473
39.86263 74.69166 29.363731
26.34863 114.47666 32.22973
25.479631 115.28566 33.90673
15.574631 107.66266 34.28373
14.338631 107.78066 36.188732
13.555626 4.207657 4.160731
12.611626 5.924652 3.994731
4.5966263 11.557648 9.568731
2.551628 10.56665 9.911731
27.056631 80.99866 20.21973
29.04763 79.92266 19.45573
21.70763 73.75966 25.089731
20.67563 72.89866 26.81973
18.632627 36.95966 15.991732
17.75463 35.888657 17.61273
8.611626 32.236656 24.322731
10.368626 31.866657 25.377731
15.391628 48.86866 3.624733
12.629627 48.76666 3.3357315
9.311626 46.608658 56.62473
9.539627 44.776657 57.02073
20.76263 65.45266 24.322731
21.98663 66.78265 22.530731
16.50863 69.531654 13.207731
14.435631 68.337654 13.967731
48.468628 126.88066 33.26573
47.71563 129.13466 33.223732
1.5806274 0.7856598 39.70673
3.159626 1.2386475 41.092728
26.96063 59.907658 49.91473
27.38163 59.22066 52.057728
24.959631 68.739655 58.86873
25.48963 70.93766 58.20473
31.95063 41.12866 22.338732
30.25863 42.00166 23.329731
24.11063 46.85666 14.096731
22.90863 46.37866 12.6777315
32.37363 104.98966 57.69273
34.47263 104.96966 58.93773
40.92763 97.37066 51.258728
42.97663 97.59366 52.953728
28.25263 114.96166 19.634731
30.09563 114.60166 18.76173
36.63263 105.44866 20.89373
35.03163 105.91066 18.804731
21.02463 107.01666 0.14572906
18.63463 108.10966 0.9417305
13.586631 115.74166 61.56573
14.85863 115.30166 1.4897308
33.00763 118.87066 3.6467361
31.41863 118.68666 1.8937302
22.93963 121.54666 60.19073
21.01463 121.45466 58.24873
38.89763 59.91066 57.474728
37.07963 60.65866 56.51973
40.38163 70.74866 56.26773
42.15563 69.420654 56.24173
0.05662918 126.17066 30.938732
49.94363 124.61666 29.711731
49.38963 120.20066 20.42073
1.0426292 119.89866 18.81373
22.26363 125.98466 37.92073
20.000631 125.237656 38.31973
12.18463 120.53466 32.80373
13.430631 118.91966 33.18073
0.7146263 124.028656 40.967728
2.1316261 122.60966 40.07073
5.5096283 124.140656 29.439732
5.6226273 126.16366 27.92773
38.35363 7.8146515 3.6337357
37.05063 5.7696533 3.2917328
46.47563 1.3556519 1.959732
46.21163 3.7926483 2.93573
5.715626 17.092651 11.221731
6.0426292 15.070648 12.584731
13.678627 8.972656 6.256731
12.167629 6.6616516 6.862731
18.764627 20.393646 13.974731
16.785627 21.05365 14.652731
8.140629 15.165649 20.728731
7.761627 12.978653 19.81673
8.545628 68.69366 59.94073
8.035625 70.66066 58.58273
47.75063 72.127655 2.2157288
48.72063 71.418655 4.110733
42.62363 82.504654 50.30573
41.35563 84.03265 48.32673
43.54163 83.448654 40.20673
43.36263 82.46966 38.40573
40.30763 97.92366 13.388731
41.84963 99.05166 14.404732
41.23163 104.06766 9.920732
39.54963 102.55466 8.604731
32.53563 112.10866 42.58673
32.35663 112.21666 44.90073
21.81863 106.70366 45.61273
22.469631 105.84566 47.50673
7.1986275 110.49666 6.653731
5.331627 111.40466 6.131731
3.5876274 119.22666 5.724731
4.520626 118.73466 3.454731
42.75363 32.171658 12.547731
41.01463 32.387657 11.040731
32.97463 22.741657 11.805731
34.14963 23.543657 13.792731
49.20863 116.99966 5.2807307
48.50163 115.08166 5.7747307
1.2936287 108.07366 12.291731
2.7286263 107.56466 10.688731
7.609627 74.62366 55.994728
9.462627 75.36666 56.35073
0.47262573 81.22966 1.7627296
1.4776268 81.72766 3.6477356
47.77863 38.485657 22.610731
47.63763 40.396656 20.50073
5.058628 35.56466 13.226731
4.244629 33.528656 14.443731
29.34863 94.16266 39.35373
27.809631 92.68366 40.84173
20.35563 99.41466 44.64173
21.09263 98.681656 47.11773
41.23263 70.072655 51.39873
40.17963 70.18666 53.56373
40.74863 58.04866 55.36673
41.98963 56.47566 54.133728
13.282627 108.60166 46.71273
12.022629 107.01666 48.52573
14.173626 109.41566 41.90173
14.112629 109.52066 39.99373
9.237629 48.47966 29.69873
6.138626 48.783657 29.99673
11.632626 46.16866 39.08773
13.389626 45.36166 38.29973
33.85063 126.06266 60.59473
33.01863 128.49866 60.60073
28.13163 1.6306458 58.38573
27.146631 2.0706482 55.64173
41.75863 26.84265 40.00673
43.50663 25.019653 39.95073
42.37263 23.672653 49.44373
42.33963 21.185654 50.474728
23.24463 64.724655 4.836731
24.844631 65.17266 3.2227325
24.36763 61.10266 54.15373
22.240631 60.03766 54.53573
24.65063 114.21266 16.981731
23.00163 113.653656 17.853731
14.07263 115.098656 21.606731
13.75663 113.04966 23.34073
38.49263 30.469658 2.508731
37.10863 32.06466 2.189731
32.59763 39.15666 9.265731
34.57863 39.93866 11.194731
47.09863 13.35965 30.20873
45.41763 12.599655 28.21273
6.1226273 5.858658 27.695732
7.4626274 6.904648 28.346731
46.41463 44.75366 36.40573
45.78563 47.07066 35.29473
6.440628 45.66366 37.59673
6.871628 44.457657 40.11673
46.41263 29.484657 26.85773
47.59663 28.457657 28.27873
2.2406273 26.660658 24.506731
0.5876274 26.576658 23.00073
1.2736282 101.35466 3.763733
49.760628 102.36666 2.9657288
6.4606285 111.55966 3.78273
8.882626 111.93766 3.7947311
12.209629 113.390656 55.41473
12.042629 115.26866 56.21673
1.5946274 116.31666 49.41373
2.0366287 114.29766 49.04073
40.89463 89.00966 23.56273
40.66463 86.35566 23.102732
38.95563 85.19466 12.186731
36.96163 86.432655 12.025731
42.41663 47.434658 28.897732
41.40063 46.10666 30.675732
38.53463 43.99666 39.41273
37.87763 45.80766 40.78573
23.25663 45.823658 52.20673
25.42663 46.60566 53.00473
36.09663 42.95166 49.75673
36.65263 43.254658 47.72573
13.327629 74.44266 45.34773
12.213627 76.43866 45.08873
6.077629 76.752655 55.45873
4.7886276 77.91366 56.98073
37.66363 128.64465 5.2977295
36.21463 127.16666 4.364731
40.21063 123.29866 56.363728
42.03163 123.74766 55.83973
21.07363 80.724655 37.07973
20.87063 81.22066 39.09773
17.18563 77.59766 45.98073
15.3806305 77.14766 44.49073
1.6136284 119.56066 16.21973
3.5226288 118.38466 14.920732
14.05463 118.68266 19.74773
14.09663 121.27166 19.37173
8.006626 124.68866 27.828732
8.435627 122.64166 28.844732
3.7536278 116.52466 20.190731
5.6826286 117.81466 19.31973
5.0366287 68.70766 24.890732
3.1466255 69.60966 24.557732
43.74563 67.542656 25.407732
42.56163 69.91566 24.969732
28.375631 27.968658 8.737731
27.920631 29.966658 7.639731
29.15063 39.193657 10.523731
28.08563 41.51566 10.975731
39.02063 101.31566 58.89373
38.94863 100.06166 60.55473
42.02263 96.58066 8.164736
39.90263 95.46266 9.111734
46.46063 117.125656 5.577731
44.57063 116.79366 6.867731
47.06163 113.97466 16.20973
47.06063 113.22066 14.231731
41.24163 30.537657 49.995728
41.32363 28.580658 51.19873
47.16463 35.261658 59.51473
46.86763 33.61466 60.508728
3.7886276 101.97066 51.80173
4.504627 100.29066 50.47373
2.3006287 90.584656 47.47373
1.6626282 92.43766 46.50073
17.48463 43.677658 16.054731
18.990631 43.89666 14.525731
27.32863 50.68966 14.221731
27.36263 49.922657 12.273731
7.905628 87.654655 27.435732
10.280628 86.08966 26.494732
5.6236267 88.41266 19.578732
4.3026276 89.80066 18.12673
25.14163 95.57866 57.99673
23.351631 96.34366 59.17273
17.46563 104.29966 1.1317291
16.632631 103.85066 60.93673
37.71163 104.46066 23.27773
36.69963 102.39566 23.994732
38.53763 93.74366 24.463732
40.69163 94.709656 23.179731
42.05863 60.75966 37.32373
42.93863 62.65966 36.40973
36.39563 71.59066 42.12973
36.05463 72.81766 40.50073
45.00563 42.00066 41.43073
45.91663 43.30666 39.77373
4.2716255 38.497658 38.94073
4.232628 38.242657 37.02373
40.03163 15.433655 47.57373
40.86263 15.353653 49.41273
0.7196274 11.17865 50.43773
1.565628 9.159653 51.63173
15.24363 107.16966 48.52673
16.64863 106.10266 49.26973
24.12063 115.40166 50.501728
23.74463 117.27766 50.15173
1.7906265 122.181656 43.52773
49.72863 122.87166 44.79473
3.4246292 126.16366 53.59773
4.4416275 128.05066 53.286728
40.99863 48.29266 37.17073
42.66963 50.373657 36.60373
40.16863 56.873657 28.34773
39.06463 55.24366 29.36173
22.778631 63.93866 55.17273
21.11663 63.00066 53.90073
12.60663 66.97066 44.97873
13.73563 68.65266 44.61473
40.61163 112.348656 32.42073
41.82563 114.959656 32.53173
41.16163 126.12766 33.74373
43.43763 126.88066 33.584732
26.722631 114.21166 44.54173
27.195631 114.30266 46.64673
26.48063 105.29366 53.67273
26.00563 105.72966 55.86473
37.46763 94.59266 3.4917297
35.37463 94.56866 2.2867355
26.77463 97.49766 5.28273
24.66863 97.55766 4.612732
27.22063 50.081657 25.270731
28.243631 48.337658 26.32373
24.95463 49.138657 35.42373
25.23463 47.32166 34.29573
10.328629 55.573658 50.24773
9.768627 54.82266 52.18673
8.707626 48.039658 52.32273
7.9936256 49.76766 52.03173
0.5156288 20.614655 56.35873
48.92663 20.148651 55.26073
43.79863 26.032652 48.418728
43.73663 28.152662 49.578728
1.6306267 83.98066 6.499731
49.72763 84.92165 4.751731
41.68663 92.65166 6.608731
39.83763 93.83966 5.903731
23.31063 3.9156494 6.413732
23.931631 4.646652 4.1037292
22.299631 7.0176544 58.82373
23.51263 8.437653 58.14573
18.79163 30.697659 11.824731
20.25363 28.695658 11.728731
15.27863 27.098658 20.87273
13.866631 25.249657 20.179731
6.902626 19.14566 24.294731
8.326626 20.037659 25.164732
7.7716255 18.58165 16.603731
7.0436287 17.51065 14.953732
12.158627 19.088657 60.61473
13.180626 21.002657 61.224728
7.482628 30.632658 0.041728973
7.1776276 32.756657 60.77173
16.382627 90.84566 34.89073
17.10563 92.84966 34.18973
12.784626 84.364655 25.90273
13.878628 84.06366 23.363731
30.809631 29.135658 6.7987304
30.40263 31.144657 7.300733
22.63463 27.627657 0.57373047
22.96463 28.093658 2.6477356
19.81563 85.518654 10.385731
17.410631 84.68866 10.676731
19.816631 79.71566 2.8127308
19.688631 79.22066 0.45773083
38.30663 68.10466 34.24073
38.45963 69.67266 32.58873
34.33963 76.000656 25.710732
33.09763 75.45866 23.717731
21.01563 115.75866 30.00773
22.55363 114.05066 29.040731
16.03863 106.57966 24.446732
17.47063 106.19266 22.556732
27.69263 101.64866 12.122731
28.91263 99.69766 12.816731
35.22363 94.52766 5.335731
36.95863 93.22066 6.2487307
39.40763 103.58966 46.27873
40.33063 102.03166 47.69873
31.222631 99.06466 44.890728
32.87563 100.63266 45.11673
49.06963 129.13666 0.12472916
0.91962814 129.49365 61.14873
7.454628 3.176651 59.175728
5.773628 4.2196503 59.00473
13.55863 12.371658 40.35473
13.00763 14.623657 41.04273
21.61063 19.62465 45.09573
21.26963 21.281662 46.01473
0.21962738 38.50266 49.46673
0.09962845 36.580658 50.97273
41.42363 38.784657 53.94373
41.67563 36.601658 54.19173
6.0806274 4.252655 41.17973
4.3666267 4.771652 39.03873
9.7976265 130.73265 31.331732
9.416626 128.36066 32.13773
15.245632 21.307657 12.305731
14.589626 22.703657 14.053731
6.9676285 29.125658 12.398731
6.6036263 30.889658 13.3357315
42.91063 26.081657 2.987731
43.71163 27.437658 4.631731
38.61463 35.457657 10.748731
37.11463 36.78066 10.971731
1.166626 14.755646 5.0387344
2.2086258 12.589645 6.234731
9.248627 6.8176575 0.06072998
11.035625 5.503647 61.90773
49.53763 28.167658 9.402731
1.9676285 27.555658 9.844731
2.5216255 25.667658 21.207731
4.138626 27.306658 22.300732
20.60563 46.185658 49.51073
21.431631 47.804657 48.47773
16.24463 42.68066 39.57573
17.96563 41.831657 41.40773
37.64263 54.60466 40.40373
35.57963 53.527657 39.34073
42.66763 59.08366 34.92073
40.88763 60.85066 34.54773
29.209631 85.031654 43.58073
30.51063 86.33066 42.01673
25.19263 90.723656 51.856728
23.49263 91.71066 51.75473
26.76063 17.047653 36.75573
25.99663 17.48465 35.084732
25.22563 31.101652 35.94773
23.31163 31.122648 34.49873
37.16263 57.59566 52.41473
37.36463 55.67466 51.96473
46.40663 59.79966 43.28073
48.04063 59.47466 45.44873
8.176628 84.02266 53.14873
7.6046257 86.126656 51.76273
8.135628 79.71466 42.90873
8.952629 81.462654 41.81373
11.240627 54.934658 19.776731
10.788628 56.136658 17.005732
2.1346283 50.98866 11.966731
2.0496292 51.46866 14.126731
37.43763 51.57766 53.59373
36.77463 53.49466 53.94173
27.35563 55.442657 52.03573
26.26263 56.98266 50.66373
39.24363 113.20166 2.4747314
40.17863 115.528656 1.8657303
35.41263 122.36866 58.08173
35.79163 124.34566 58.71973
14.66963 94.61066 11.239731
16.868631 95.96966 10.706731
19.12363 86.960655 4.719731
20.459631 87.740654 2.662731
15.09663 64.48166 10.573731
16.113628 62.57266 11.136731
13.224628 56.95366 18.72973
13.207626 56.589657 20.856731
41.58563 6.596649 13.981731
40.12963 4.9826508 14.815731
31.50163 1.5096588 19.939732
29.38763 1.4896545 19.09473
30.500631 54.66966 26.155731
31.28463 57.05466 26.806732
26.20663 61.36366 33.30173
24.53763 60.70166 34.78273
35.44063 49.57266 11.227731
35.03263 52.03766 12.541731
30.87463 60.27866 8.998731
31.087631 61.86966 7.298731
42.81263 110.75566 54.52573
42.24263 112.015656 56.668728
44.61363 116.84466 2.9707336
43.62363 115.12366 4.812729
47.02163 23.98465 4.937731
48.23763 23.231659 6.611731
39.21963 18.252655 6.723731
38.85963 16.45465 7.649731
29.77063 25.164658 13.205731
28.64963 27.181658 12.892731
26.88063 33.46666 21.276731
28.68563 33.45266 22.529732
17.64563 66.448654 7.663731
17.32663 65.86766 9.958731
21.74363 64.74166 19.256731
23.30463 64.87266 20.984732
48.02463 37.77266 3.9767303
47.67263 36.91866 1.69273
39.18763 37.151657 58.133728
38.88663 35.580658 59.20673
16.359629 115.85166 29.084732
14.546627 115.61166 30.829731
9.317627 108.417656 21.563732
8.970627 106.02966 22.339731
23.63463 44.651657 45.40173
24.06563 44.533657 47.57573
32.22763 43.70266 54.27173
30.69463 45.64866 54.85173
36.13863 83.322655 25.585732
34.69963 83.21366 23.866732
28.24863 82.63366 22.807732
30.302631 83.24666 23.922731
22.89863 84.18766 36.09073
23.37563 81.94466 36.112732
19.71463 75.42266 27.262732
17.61663 76.42566 26.679731
18.53263 15.426651 15.989732
19.05563 17.380646 17.90673
23.92363 17.746658 25.35073
25.50963 18.276657 27.07373
13.246628 29.183657 47.75973
11.150627 29.504658 49.29973
5.475628 36.14066 49.932728
3.6446266 36.059658 48.599728
30.861631 33.449657 23.97273
33.05963 32.73966 22.88573
42.09863 24.236658 21.789732
41.39063 21.980658 20.93873
27.18563 29.995657 49.64673
28.99663 30.822659 50.84773
37.19563 35.478657 46.78573
38.16563 35.983658 45.133728
46.30563 105.74666 57.92673
45.89363 108.13566 56.17273
37.42063 103.71266 48.44573
37.27263 105.04566 46.77873
21.87463 85.70266 26.92773
22.212631 87.89766 27.480732
27.62063 84.57666 34.69673
29.51763 85.72266 35.92973
8.632626 127.46766 43.86273
9.985626 125.63266 44.474728
1.2756271 120.36066 45.84573
49.46663 119.05466 45.62573
21.65763 5.998657 3.8537292
20.95863 4.9686584 5.550733
14.727631 127.848656 4.21373
13.744631 127.251656 2.6417313
17.382627 46.33466 50.79973
16.450628 44.72566 50.15773
14.06863 49.71866 41.76773
13.686626 48.323658 39.95773
49.615627 66.27266 17.026731
48.94463 63.86466 16.03973
40.47763 58.081657 19.456732
39.52663 56.27866 17.80573
10.124626 70.99366 8.027731
8.683628 72.35266 9.350731
0.9566269 64.06266 12.958731
0.34562683 62.219658 12.674731
37.24463 26.387657 39.613728
35.17063 26.415657 40.154728
37.01863 22.106657 49.89573
38.85863 23.298658 50.988728
48.47163 83.44166 1.2477303
49.56463 83.25966 61.28473
0.28562546 93.70466 1.2937317
48.95763 95.45066 1.7927322
33.78763 114.528656 47.72373
35.25463 113.389656 48.39873
34.08563 104.10666 47.321728
33.52763 103.22866 45.57573
27.18363 106.43466 35.31773
25.92663 108.37366 36.02773
25.962631 102.34766 44.96673
23.51663 102.30866 45.73473
11.975628 54.101658 22.202732
11.698627 54.43066 24.140732
0.64562607 56.623657 29.505732
0.98262787 57.66066 31.286732
25.552631 32.025658 28.467731
26.97063 33.095657 27.832731
29.462631 41.777657 27.04573
29.42263 39.98066 26.00373
31.60663 73.16166 48.30673
32.02763 71.99166 49.84473
29.89463 60.02366 47.25373
29.12663 58.49666 49.147728
39.41263 107.403656 44.94073
39.75063 109.81566 45.52473
46.19963 113.52066 43.45973
47.49763 114.99266 44.03773
27.20763 49.116657 22.624731
27.33563 47.00266 24.23273
17.15163 41.88366 22.459732
15.51863 43.221657 23.022732
28.00563 82.14666 60.43773
25.47163 82.86866 60.63973
22.97063 89.16466 50.300728
21.27463 89.91066 51.26673
36.51263 90.65266 48.21873
35.87763 92.20566 46.842728
32.04763 85.057655 38.67773
32.28263 82.779655 37.758728
23.63163 103.98166 55.508728
22.24463 105.19066 56.59673
11.87763 101.77566 56.93373
10.63863 103.51766 57.70873
27.72163 120.17066 32.52973
27.24863 122.49366 33.01673
27.46863 1.6196594 28.891731
25.81763 1.3886566 28.29573
23.33863 71.851654 11.6187315
20.87163 72.15866 10.204731
21.688631 81.72166 3.1717308
19.393631 82.70566 3.0687308
35.76363 72.559654 45.36673
38.17363 72.52166 44.78573
40.28363 82.39466 38.44273
40.91663 84.13066 40.20273
20.160631 103.59366 12.256731
20.87663 103.89366 9.860731
21.23963 107.75466 3.606731
18.75663 108.14366 3.786731
26.42163 101.36866 30.224731
25.70863 102.07166 28.505732
31.70663 103.27766 26.35073
33.32963 101.98866 24.08373
16.677631 106.96866 44.08473
17.09163 107.22766 46.31173
23.87463 116.46966 42.43573
22.72563 118.66866 42.27373
6.0646286 94.75666 10.694731
6.027626 96.17566 9.010731
42.90363 94.06666 11.237731
42.16063 93.34166 9.447731
20.65463 95.59666 28.06273
19.374628 94.39166 26.91373
13.272629 98.66966 35.716732
13.050629 100.80866 36.65873
11.222626 106.36366 18.82673
10.616627 104.73566 20.27173
3.605629 111.69766 15.161732
2.2336273 111.792656 13.129731
37.12963 9.267654 46.60173
37.29663 8.253647 44.88073
40.32263 129.99866 40.25273
42.62363 129.88466 41.30173
7.357628 25.297651 56.15773
8.559628 23.542664 56.02473
10.338627 19.04866 0.7197304
10.5476265 17.20665 2.0367355
1.4576263 31.264658 59.59173
49.18663 30.132658 58.89973
46.46963 35.486656 53.29473
46.85463 36.164658 51.30373
19.60563 47.866657 4.323731
17.50363 47.470657 5.0437307
13.844627 57.08666 9.262731
16.128628 56.33466 10.034731
33.46763 60.69666 59.62373
33.69063 62.69466 61.02873
42.13063 58.33666 57.66673
43.69463 57.171658 57.828728
35.56763 129.79866 51.41673
34.99463 128.98965 48.88573
25.35763 124.02066 53.828728
24.19063 124.16266 55.835728
2.3906288 86.19366 19.31973
4.0246277 87.19066 21.511732
7.7886276 80.49966 29.50373
7.287628 77.78466 30.161732
2.192627 75.87066 35.46973
1.423626 77.85566 36.591732
1.4496269 71.70466 47.47373
2.2696266 69.90765 47.59473
3.8926277 32.792656 23.85773
4.695629 33.880657 22.004732
3.3566284 46.533657 23.54173
2.534626 45.949657 21.65273
4.8516273 34.854656 17.84073
6.3686256 36.96066 16.86973
11.730629 38.318657 27.179731
13.727627 39.32066 28.346731
37.66463 74.377655 11.388731
37.34663 76.16366 12.310731
37.24063 85.653656 9.357731
36.97763 85.82766 7.190731
14.326626 52.365658 43.46273
15.437626 52.158657 42.02473
5.3616257 55.22266 40.29673
3.555626 55.73166 39.34473
29.01263 128.92065 56.29873
28.462631 130.45265 57.96673
18.85263 129.20865 2.285736
17.16463 129.26065 0.8067322
38.34563 82.66566 12.772731
37.42263 80.96766 13.282731
31.41463 76.60866 19.640732
31.48763 74.36066 21.363731
15.501631 130.77966 51.18873
17.78663 131.12965 50.46973
20.00863 121.64966 48.58673
20.60963 120.03366 49.88673
29.330631 8.518646 50.26173
28.33263 9.843658 48.53873
22.19463 12.168655 54.30973
19.97463 12.213654 54.49273
15.38963 12.95166 23.247732
17.17963 14.138657 23.80573
19.47163 12.214645 19.74773
18.88863 9.948654 20.32073
35.31263 65.11166 19.00773
35.57363 66.75966 18.00073
41.08763 62.75866 18.78573
40.29763 61.04566 20.15973
34.04263 4.02565 4.980736
33.27263 1.7576599 4.6237335
31.92863 6.175659 56.59373
31.64263 8.135651 56.04573
29.27963 128.98566 53.765728
28.65463 131.21565 54.807728
37.47263 6.8906555 56.63973
35.54663 7.8336487 57.07073
21.87163 7.129654 38.53773
19.59763 6.207657 38.93373
17.52563 127.71866 41.50973
18.72463 126.87766 40.133728
15.071629 89.93366 3.070732
14.491627 92.17366 1.959732
7.871628 88.42366 54.04573
10.161629 88.24266 53.41573
29.41663 65.34566 59.02473
32.11663 64.64866 59.01373
37.17763 67.823654 50.41073
36.84663 67.20666 48.40173
31.79363 4.7706604 22.23273
33.19563 4.3696594 24.057732
39.84763 0.22265625 16.169731
38.71363 130.63666 14.508731
30.81063 22.552658 24.185732
31.46863 22.147657 21.747732
28.61363 26.720657 23.68773
31.181631 26.953657 23.220732
17.84663 82.98466 25.108732
20.01663 83.20066 26.442732
16.674631 86.240654 36.10673
16.004631 88.55266 36.61473
18.866629 60.30566 56.23973
17.374628 61.83266 54.258728
11.956627 56.784657 48.23573
11.609627 54.872658 46.74773
25.587631 102.223656 56.93773
27.76763 101.639656 56.349728
38.28963 97.64566 59.82473
39.77863 98.66566 58.154728
11.133629 4.2366486 29.749731
10.166626 4.3406525 28.005732
1.6376266 3.700653 27.700731
49.97263 2.0336456 26.671732
10.990627 97.34966 37.56973
9.9226265 99.00266 38.82773
17.831629 97.02966 45.53173
18.53763 97.72066 47.76873
35.56663 115.57566 7.2217307
35.30763 113.98866 5.915731
25.94363 108.23166 11.575731
26.976631 109.71466 13.510732
3.9726257 13.0646515 55.61673
4.100628 15.119659 55.41473
10.885628 17.80365 49.84673
12.451626 19.455658 49.09573
30.86063 64.82666 0.7107315
31.38563 62.40566 0.51073074
28.11063 56.66766 54.32973
25.993631 57.35466 53.52673
3.4516258 66.48666 59.140728
1.0756264 66.40765 59.71373
0.68862915 60.08966 7.3997283
49.49263 57.74966 8.28673
32.97863 94.292656 41.43673
34.74463 93.94466 40.05173
39.40163 102.82766 38.286728
40.96963 101.41266 38.328728
19.136631 12.172653 24.049732
19.57563 10.894653 25.862732
25.21363 6.250656 33.06273
23.51263 5.2376556 34.25573
33.86063 58.11166 45.11073
34.32163 59.25866 46.82373
45.27963 61.75366 41.84473
45.71863 63.96666 42.30473
49.330627 40.13566 24.11473
49.511627 41.09866 22.290731
7.442627 45.901657 21.43473
9.542629 46.039658 20.707731
5.0096283 90.36666 51.41673
7.5296288 90.12466 51.91273
9.542629 96.195656 40.85173
8.333626 98.28466 41.32973
12.878628 13.171646 55.32773
12.8356285 14.453659 53.16473
10.637627 24.614655 53.59573
10.267628 24.08165 51.21473
45.28763 89.55866 55.46673
43.39463 88.85466 54.52373
40.69263 77.489655 54.01873
42.926632 77.35866 53.620728
25.75263 43.01666 39.39873
25.24463 43.70266 41.54973
30.96463 37.85666 50.80273
29.59063 37.03766 51.85573
14.807629 5.9406586 27.879732
15.2716255 3.8096466 27.76073
9.979626 130.52365 18.735731
8.815628 128.87866 19.429731
19.04063 86.67966 35.02473
20.41663 85.74166 36.473732
28.96863 86.723656 39.07373
30.830631 87.23266 37.79573
19.56063 13.42366 48.36873
18.09263 13.008652 46.09173
13.83563 10.365646 44.01673
14.66263 12.414658 44.800728
8.961628 75.60466 31.308731
10.956627 76.587654 30.76473
11.8966255 75.431656 42.72773
11.728626 73.03466 43.37773
11.2716255 62.63866 49.564728
10.268627 62.71166 47.59073
12.084629 63.89866 37.870728
11.781628 63.76366 35.80573
35.76763 109.87466 21.544731
35.82263 108.40166 19.272732
40.34263 115.66266 16.210732
39.83863 117.84766 17.200731
43.47363 42.52466 10.729732
43.52363 41.50166 8.765731
45.73863 31.321657 2.2177308
46.67063 29.813658 3.4767308
46.08663 10.149658 34.49373
45.79563 12.349655 33.45773
43.48563 24.28366 36.202732
44.77263 25.935652 37.57973
37.88263 59.74466 29.551731
38.15263 61.87566 31.023731
28.60763 67.26066 25.425732
26.51963 66.69166 27.16373
29.14763 92.02166 18.647732
26.417631 92.04766 17.787731
26.85963 103.68666 15.130732
28.55463 103.21466 14.574731
44.29063 24.044662 4.422731
42.65963 24.805664 6.549731
41.34163 26.139662 14.358731
41.12363 25.74565 16.82773
24.85563 117.63566 20.59473
23.27163 119.22766 20.15073
23.24563 122.63666 8.987731
22.06963 123.92366 7.441731
48.65763 5.6196594 52.328728
49.33963 4.5916595 54.14973
5.5786285 128.89066 55.39873
4.3566284 127.03466 56.22573
1.2426262 34.763657 20.93073
2.3166275 33.833656 18.849731
1.2036285 32.16266 10.538732
0.9466286 30.501657 9.540731
25.72363 47.851658 11.525731
25.99563 48.35466 8.985731
21.42763 36.43366 10.938731
19.549631 37.040657 11.498731
9.304626 70.89866 54.04073
8.307629 69.556656 51.85273
8.669628 76.63666 43.21473
6.560627 77.61866 43.64173
48.65463 32.706657 58.40673
0.36062622 32.93266 57.46673
8.818626 36.61966 57.946728
8.628628 35.91166 60.40373
2.8326263 8.682648 49.488728
4.1016273 6.1186523 49.93673
10.916626 14.349655 49.35273
12.494629 14.975647 50.47073
44.92763 118.77566 18.38373
44.33263 119.31666 20.690731
40.73363 126.80066 28.086731
40.31163 129.14665 28.12573
27.945631 128.92966 8.651731
28.427631 130.46066 10.565731
32.66563 127.17266 19.62173
34.97463 126.29166 18.99373
37.01963 113.16366 34.36573
34.96563 112.723656 33.80173
34.04563 104.23566 27.019732
35.65163 104.36866 25.772732
2.6036263 22.418655 22.33373
3.081627 20.461655 21.412731
43.22863 17.439651 27.226732
41.03063 18.320648 27.11873
16.93463 4.25766 47.689728
18.513628 2.5066528 46.69573
14.31963 128.62665 41.550728
13.333626 126.82566 40.66473
44.52463 27.319654 8.299731
44.96863 24.934662 7.718731
4.864628 19.863647 10.383731
5.3876266 20.849655 12.556731
36.54163 90.12866 52.67373
37.46363 91.34766 50.73673
34.70563 100.43566 47.47573
32.82763 101.81966 47.647728
35.64463 8.1666565 42.39373
37.16863 7.2586517 40.95773
27.05063 1.7886505 35.84573
25.785631 3.5696564 34.68273
29.35963 113.98966 45.33673
31.62863 114.69866 46.08473
37.58163 124.00366 50.08273
36.33763 125.29566 48.65673
39.08163 107.02966 8.764731
39.50563 108.67066 9.492731
31.36363 102.69266 14.888731
31.20163 103.87966 17.35173
14.705631 122.30166 16.63673
16.471628 121.68766 14.856731
13.680626 125.48366 4.979731
11.243626 126.90066 4.161731
47.801632 59.941658 22.775732
47.86063 58.85566 25.058731
43.84563 48.499657 25.032732
44.56663 47.580658 26.741732
44.92063 83.20166 26.904732
45.90563 80.70866 27.10773
8.106628 84.85666 28.25773
7.3516273 85.20466 26.206732
30.375631 34.34166 52.17173
28.74463 32.596657 52.76473
36.29163 36.26766 49.50473
35.46263 38.48766 48.95573
36.44663 53.513657 14.036732
37.16163 53.87866 15.6847315
35.32663 62.58466 17.405731
34.68563 64.61866 16.04873
20.26063 83.32866 0.5707321
20.07163 85.683655 0.16873169
25.02063 78.587654 5.009735
26.70863 77.27266 6.245733
16.86963 85.46666 13.685731
16.78963 86.96466 12.108731
24.632631 85.40166 13.635732
25.990631 83.96866 12.486732
43.12063 4.249649 12.9277315
44.26763 4.346649 10.858731
2.039627 13.10466 11.290731
3.1256256 14.739655 12.330731
39.24063 13.114655 17.29873
40.61563 13.363647 18.97273
37.56063 12.60965 29.806732
36.08763 10.63765 30.808731
23.74563 117.80066 22.872732
23.53063 117.889656 24.80573
13.24563 118.95766 22.863731
11.81663 117.17466 21.940731
12.486626 27.170658 22.846731
14.353626 27.740658 23.40273
18.95463 33.35566 17.44473
20.54363 31.980658 18.86573
10.163628 74.67266 9.648729
11.976627 73.08266 9.638735
11.970627 69.95066 59.94073
10.347626 71.18666 59.46873
16.09563 114.30266 4.947731
16.38863 116.20366 3.3937302
26.88063 120.86066 3.846733
26.19663 122.90866 3.9347305
23.04763 82.461655 8.096735
21.98163 84.835655 8.81373
24.802631 88.74466 60.42873
24.38363 86.30066 59.85773
1.8016281 90.46966 19.71273
2.077629 88.56266 19.999731
41.69563 91.42266 24.990732
41.45963 92.40666 22.660732
19.01663 34.64166 20.211731
20.18963 36.936657 18.779732
31.79463 37.02266 21.06073
32.57363 37.296658 22.844732
12.417629 99.59966 53.90273
11.027626 99.64266 55.83473
1.980629 101.80866 56.81173
1.7506256 101.875656 54.60573
28.40963 14.943649 38.23673
27.46863 14.38266 40.23973
16.45063 11.835648 42.26673
15.201631 10.055649 41.550728
20.94863 50.074657 34.33673
20.923628 51.527657 32.37673
11.352627 58.13766 33.21873
9.067627 59.13366 32.64073
21.68663 35.30866 58.94873
22.96363 35.39166 60.50973
28.101631 44.78766 55.77473
28.14963 46.213657 57.65773
28.54663 70.38666 34.292732
29.49863 72.63866 35.51973
30.33363 70.35866 25.957731
30.00563 69.34066 23.554731
18.17663 120.69966 46.46673
18.13163 121.84766 44.87973
13.69063 111.48366 43.66573
13.02563 111.459656 45.88973
25.77763 102.96166 54.26173
24.42663 103.37166 52.94973
29.61463 97.15566 42.71473
29.61263 99.71466 43.01873
4.6276283 22.235657 7.745729
1.8096275 22.466658 7.474733
47.09963 29.336658 61.04573
47.25163 31.435658 62.00573
35.03463 15.930649 8.661731
33.29463 17.283646 8.681731
29.07963 20.920654 13.343731
27.86763 23.043655 13.492731
1.6656265 109.16866 25.661732
1.5136261 108.90466 23.518732
49.38763 98.49866 20.752731
47.69263 98.264656 19.26173
30.389631 130.17166 60.18473
28.85963 131.53566 60.744728
25.99563 130.83665 10.159731
26.14963 0.36364746 11.95373
17.73563 120.83366 17.00373
17.25563 121.82866 19.686731
18.910631 114.49366 13.641731
21.09163 113.792656 12.689731
37.74963 50.51566 12.629731
39.11863 48.86266 12.623731
46.78663 48.130657 22.690731
46.42063 47.22566 24.65373
36.10963 1.3296509 5.429731
37.74763 2.252655 6.809731
27.81863 0.9626465 13.844731
28.14163 2.7636566 14.8947315
38.99863 2.949646 28.417732
36.83563 2.8216553 27.59073
38.13863 125.90666 29.603731
37.93863 127.21566 27.894732
24.101631 126.33666 8.132731
22.40663 126.58566 6.679731
23.02563 3.4616547 13.198731
23.35363 5.5116577 13.342731
32.69163 73.02766 44.46173
33.97363 72.09266 43.20473
32.92263 60.393658 44.18873
31.91663 58.86266 42.92373
23.327631 61.72366 17.36573
21.86763 62.199657 18.70973
19.983631 62.58466 24.165731
21.55563 62.37066 22.36173
1.3086281 57.34666 42.41373
0.61462784 55.35566 41.44773
6.633629 49.54466 49.41373
6.773628 47.05766 50.35173
33.33663 14.856659 61.70873
33.09663 15.690659 59.17373
23.917631 9.1406555 0.99372864
23.50663 7.252655 1.8337288
24.79663 115.74566 5.311731
25.35063 115.86666 2.6387308
22.29463 106.38766 10.136731
22.70863 107.51966 11.659731
30.96563 75.31566 45.42173
32.90663 75.19066 46.085728
37.02563 71.30366 48.48273
38.801632 69.822655 49.67473
45.10763 30.859657 24.334732
44.42163 31.232658 26.110731
39.68963 22.310658 25.098732
40.67963 21.202658 26.269732
39.98163 96.14466 0.3167305
40.50563 95.987656 60.25673
41.59263 86.52066 0.64873123
40.33263 86.17766 1.9847336
15.77363 118.00366 30.261732
16.50163 118.84566 32.07473
25.58963 118.834656 32.85173
23.59663 117.23566 33.54673
26.77763 112.02266 16.86273
27.74663 114.08666 16.51873
29.59163 118.41866 4.348731
27.57263 118.21266 3.777731
24.476631 33.08566 59.77573
25.337631 33.87866 57.34373
35.98263 36.63366 58.43573
37.78863 35.236656 56.66573
9.177628 83.44066 39.31873
10.168629 85.37166 38.65373
6.023628 94.10566 33.29673
6.9136276 95.80866 31.310732
25.007631 45.18066 0.14673233
24.97463 43.636658 60.97273
22.39663 42.86366 50.29073
20.20163 43.734657 50.36573
7.112629 30.950657 38.15873
7.8806267 31.627657 40.31973
14.099628 40.72566 45.61873
14.183628 43.25366 44.35773
38.13963 86.504654 61.87873
38.46963 86.92466 59.24073
47.26763 85.66466 54.07573
46.02363 85.87466 51.96673
34.67163 66.62466 14.180732
36.72863 67.27466 15.403731
47.37563 63.53166 12.676731
48.05463 62.052658 14.250731
19.94063 6.5956573 7.542731
21.903631 8.397659 7.256731
18.563631 12.9166565 15.257731
17.50663 12.613647 16.933731
26.67863 90.88466 14.389731
26.528631 89.12366 15.1517315
26.25163 91.88766 9.483731
28.049631 93.32966 8.838731
14.0386305 101.67766 12.962731
15.008631 99.445656 12.419731
25.643631 100.139656 10.975731
27.12163 98.13166 10.693731
26.92263 116.93466 49.90273
28.97563 116.19666 50.08173
37.11463 123.82666 56.24373
38.33463 125.03866 54.35273
25.62463 65.613655 5.9387336
24.01463 65.73666 7.3437285
22.77363 68.47266 60.62773
24.521631 68.517654 61.41973
36.21563 2.4326477 42.45773
34.66163 0.4166565 41.86773
27.04463 125.79966 39.03473
27.441631 125.10366 40.94773
32.54563 94.26666 4.096733
31.03363 92.47166 4.9967346
20.62563 95.01866 4.43573
21.07863 97.35466 3.7277298
0.48562622 21.321655 27.71573
0.25862885 19.867645 29.820732
10.796627 18.970657 30.72573
10.314629 19.184647 28.525732
4.989628 27.077658 34.84073
4.308628 29.434658 34.47473
47.62063 20.541658 28.827732
47.89363 20.863657 26.515732
40.45063 16.00766 20.80273
40.93263 16.180649 18.78273
37.44263 18.765656 10.642731
35.83463 16.754654 10.876731
45.63263 43.70166 26.658731
47.83963 42.16866 27.51073
6.359627 43.32266 34.22873
8.068626 41.59766 33.52873
31.27363 59.11466 35.70573
29.85263 60.58366 35.688732
35.71863 70.44166 37.39473
33.36963 70.13766 38.80673
0.098629 17.792648 55.27873
2.5636292 17.793655 55.446728
8.098629 19.753647 47.12573
10.004627 21.602661 46.71973
12.604626 107.29466 57.96973
14.243626 106.00666 58.95173
13.4036255 114.77166 4.9587326
12.993626 115.80166 3.035736
16.927631 81.96466 11.907731
16.81463 80.933655 13.604732
28.86463 79.69366 13.764731
28.73963 79.78866 16.707731
4.9416275 113.68366 3.1847305
5.0876274 115.92866 2.674736
45.79063 111.72266 4.428734
43.67763 109.73566 5.0107346
12.410625 107.403656 9.619731
13.998627 105.71966 10.079731
14.984631 94.56966 4.6557307
13.325626 94.09966 3.764731
44.96263 25.537657 42.79873
47.22663 25.122658 43.11273
1.1156273 35.27366 47.93573
49.96463 37.43966 46.63773
44.95263 88.267654 52.41673
46.86763 88.906654 51.75773
1.605629 100.62066 48.119728
49.003628 101.80866 48.49173
17.92163 81.63766 39.76973
18.36263 80.056656 41.19873
19.653631 69.502655 38.81173
19.35063 67.41566 39.932728
28.78363 112.501656 35.49473
30.41263 111.26066 36.88773
37.46763 109.14466 42.988728
36.53863 110.67966 44.39473
12.593628 36.44766 55.25073
10.753628 34.333656 54.80473
3.6476288 45.199657 50.11773
1.8796272 44.809658 50.745728
25.30863 71.184654 53.01673
26.983631 72.139656 52.45573
33.41163 75.379654 0.7107315
35.43763 74.488655 1.7457314
11.043629 7.084656 27.80973
9.595627 8.5646515 28.428732
13.433628 8.339645 38.97973
12.242626 9.967651 39.863728
28.25863 16.64766 30.85773
27.67563 14.778656 30.88573
36.20863 5.6196594 28.029732
36.53163 5.498657 26.011732
21.02263 73.15066 29.794731
18.799631 73.64466 29.338732
12.54963 77.16166 28.842731
10.831631 78.96366 28.32673
39.48163 21.083664 52.06073
40.69763 20.839645 53.53173
34.22863 17.598648 60.94273
33.19363 18.32965 0.39173126
6.699627 49.32166 6.887731
7.907627 50.809658 6.657731
13.876629 55.22266 15.176731
13.633629 52.91866 15.950731
41.76063 102.30266 56.66373
40.42463 103.90666 57.56573
36.88663 110.08366 3.062729
36.54463 108.35766 4.910736
26.17663 74.767654 50.81373
25.375631 77.29966 50.356728
17.042631 78.08066 59.15573
15.83563 79.93766 58.592728
34.60163 113.44366 45.41673
35.29163 112.82666 43.42373
31.86363 125.19466 39.73673
