68.885826 3.6550522 18.468224
68.83683 4.200058 16.184223
0.88882446 11.092057 37.023224
2.6608276 12.421052 38.217224
7.3848267 5.905052 45.59822
8.567825 3.9250565 45.70222
26.709827 51.437057 7.6342235
28.105827 51.918056 9.493223
26.645826 55.785057 19.700224
24.528828 57.667057 20.230223
43.175827 16.032057 49.957222
43.104828 17.080057 52.179222
50.832825 20.670057 56.087223
52.251827 22.314056 54.76322
19.252823 26.160057 54.530224
20.428825 25.248058 52.455223
17.083824 31.832058 42.655224
17.482826 29.752058 41.713223
11.835831 5.5670547 7.3722234
12.685829 3.6350555 8.149223
9.594826 99.68706 14.530224
10.977829 98.275055 12.637223
47.997826 35.572056 0.062221527
48.692825 37.500057 55.870224
40.850826 34.340057 53.198223
38.505825 34.757057 52.661224
7.149826 76.98705 48.75622
4.687828 77.388054 48.595222
8.075829 88.34006 49.023224
6.9228287 89.747055 48.03522
18.978828 76.54506 55.07722
18.044823 76.777054 56.739223
6.265831 77.845055 56.404224
5.008827 80.47205 56.088223
40.079826 73.26405 1.2962227
37.547825 73.41805 0.5262222
29.379827 81.27106 4.0582237
29.267826 81.19806 6.509224
15.111824 34.913055 26.458223
13.977829 35.274055 28.351223
24.199831 31.243057 33.083225
24.095827 29.027058 32.819225
20.387827 71.94406 5.150223
21.793827 70.00206 4.7162247
27.000828 66.50706 56.587223
27.623827 68.04406 55.13822
36.420826 90.71506 56.710224
37.740826 91.68205 55.331223
45.204826 96.67106 1.957222
47.334827 97.03106 1.108223
68.71483 83.330055 15.477223
0.48182678 81.89206 13.783223
6.87883 92.566055 12.690224
4.970825 93.69505 12.000223
29.665827 53.938057 8.974228
32.009827 53.270058 9.551224
37.134827 62.965057 4.535225
38.164825 61.318054 6.1382217
62.178825 54.994057 52.90322
61.408825 53.015057 53.220222
52.026825 53.097057 52.482224
53.498825 54.100056 51.818222
18.229828 60.133057 56.43122
16.636826 60.584057 1.1832237
10.72683 60.172054 6.5482216
8.55883 59.302055 6.570225
30.651827 85.86706 17.312223
31.555826 86.73006 15.182223
30.333826 94.02006 23.647223
28.313828 94.00606 22.509224
48.144825 7.034057 33.619225
46.377827 8.392057 32.334225
44.458828 19.021057 35.721222
44.642826 19.572058 33.604225
24.613827 102.787056 39.784225
25.015827 101.87705 42.586224
32.232826 101.48906 37.134224
33.194828 100.60506 35.555225
3.2578278 97.76505 28.589222
1.3038254 97.84705 29.022223
7.760826 92.801056 25.444223
8.973831 90.61706 25.356224
27.945827 83.61105 43.573223
30.228827 83.051056 44.24322
25.862827 73.04305 39.967224
23.753828 73.15606 39.929222
25.609827 0.4320526 17.678223
27.503826 1.7500534 17.048223
32.26383 9.235055 12.5152235
32.967827 9.622056 10.016224
37.713825 55.640057 36.489223
35.734825 55.271057 37.570225
29.553827 51.989056 33.243225
26.994827 51.390057 32.821224
31.036827 91.82205 45.463223
32.428825 91.038055 43.789223
40.162827 86.027054 47.850224
41.897827 84.81206 47.297222
66.95083 91.49006 6.946224
65.01783 90.43005 7.547226
61.543827 82.415054 10.318223
61.428825 84.48805 8.467224
2.722824 2.2120514 50.581223
2.1908264 4.0080566 49.059223
67.47583 0.46605682 37.968224
68.20982 2.4670563 37.764225
6.413826 93.177055 40.540222
7.7168274 94.08906 39.086224
8.682831 90.051056 45.734222
6.8678284 90.73906 45.213223
54.702824 103.12605 45.072224
53.014824 104.64706 44.79122
51.631824 104.71306 35.133224
53.104824 103.23605 35.554222
11.194824 3.4740524 46.350224
11.470825 2.3160553 48.453224
10.312828 13.957055 53.454224
10.355827 13.348054 55.93122
13.512825 43.555058 33.758224
13.394829 40.848057 33.083225
2.2988281 37.676056 35.274223
0.7258301 38.418056 36.63822
7.1208267 0.26605225 33.664223
9.616829 0.2420578 34.49922
19.571823 103.70905 28.850224
18.75483 1.7600555 28.843224
67.97483 26.759058 38.719223
68.899826 26.245058 40.849224
65.15683 32.586056 48.51322
64.92683 31.358057 50.810223
63.120827 86.552055 30.175222
63.792824 86.749054 32.681225
68.763824 87.00606 23.481224
67.47583 84.206055 22.912224
43.775826 93.415054 32.442223
44.506824 94.679054 30.653223
53.113827 96.721054 26.428223
51.41683 98.596054 26.939222
0.81482697 59.984055 52.06322
68.05883 59.133057 53.261223
62.597824 68.96006 52.543224
61.662827 69.495056 54.93722
61.541824 20.228058 30.929222
60.906826 19.739058 32.814224
68.53383 13.234057 39.105225
0.8028259 14.359057 40.955223
65.844826 47.389057 27.354223
66.01983 49.295055 25.979223
64.45483 50.735054 17.012224
65.47382 50.746056 15.420223
36.352825 100.02905 0.5262222
36.718826 99.43806 55.376225
43.910828 96.84206 4.3072243
43.946827 98.72706 6.167225
19.266823 39.501057 47.86022
19.611824 38.33806 46.015224
17.406822 38.376057 37.659225
15.446831 37.222057 38.428223
62.193825 91.59006 44.894222
61.777824 93.05906 47.050224
63.034824 102.82506 51.321224
62.588825 103.956055 49.001225
39.882828 99.76706 47.09722
41.710827 99.06905 45.946224
38.560825 101.33305 35.75622
40.026825 100.01806 34.286224
32.904827 70.72606 10.841224
32.42283 71.57506 8.657224
20.720827 75.56905 10.563224
18.914827 75.88106 11.655224
5.3988266 44.172054 54.59722
6.296829 43.884056 56.515224
10.440826 52.128056 7.354225
10.01783 50.307056 8.978226
50.990826 56.849056 33.782223
50.941826 56.353054 31.522223
42.914825 59.526054 23.494223
44.084827 61.091057 23.457224
50.630825 54.913055 51.053223
49.272827 55.251057 49.449223
46.296825 63.039055 46.13122
43.817825 63.680058 45.732224
16.299828 48.931057 0.3132248
16.235825 47.003056 1.0262222
6.6558304 44.840057 5.773224
4.4458313 44.320057 5.571224
21.842827 22.903057 15.639223
21.007828 23.208057 13.228224
28.666826 26.683058 5.7832236
28.599827 27.863058 3.8812237
21.346827 77.12605 54.015224
21.634827 75.52106 55.345222
32.646828 72.86305 50.001225
34.383827 70.99106 51.169224
36.343826 87.42406 4.927223
36.296825 89.45306 3.3802223
45.037827 84.91905 6.646221
46.485825 87.14306 6.389221
45.081825 32.624058 31.428223
44.410828 32.381058 29.737223
39.457825 23.127058 37.332222
38.701828 21.019056 37.335224
66.10583 87.40706 36.896225
64.455826 85.88106 35.358223
60.110825 78.35306 42.324223
59.340824 78.12806 44.828224
46.401825 63.662056 21.169224
46.867825 61.825054 22.495224
46.701828 72.80505 26.544222
48.218826 73.870056 25.602222
17.204826 36.393055 47.14622
15.42083 35.105057 46.065224
8.37883 26.992058 45.385223
6.338829 28.126059 45.732224
45.787827 48.793056 3.4802237
43.964825 49.857056 4.4292235
48.367825 49.491055 16.048223
48.413826 46.881054 16.718224
59.310825 23.928057 28.637222
60.512825 22.625057 29.584223
68.012825 29.533058 31.891222
1.0928268 30.347057 31.487223
56.299824 15.614057 23.603224
58.273827 16.429056 22.640223
50.249825 13.728057 23.169224
51.494827 11.669057 23.950224
4.00383 61.619057 52.13922
5.8448257 60.349056 53.11822
0.28582764 61.581055 45.504223
0.7678299 62.883057 43.99222
14.370827 13.183057 34.607224
15.199829 14.825057 33.323223
18.175827 4.329057 29.546223
16.318825 3.474057 29.839222
42.569828 26.547058 52.309223
44.388824 28.508059 52.831223
52.685825 27.469057 50.04222
50.918827 28.736057 49.269222
0.0258255 72.32806 3.6702232
66.68182 72.23606 3.6282234
67.50483 80.42006 12.487226
0.4688263 79.58806 11.928224
40.560825 50.262054 32.718224
38.900826 51.373055 33.467224
41.053825 56.810055 40.090225
39.721825 54.350056 41.033222
59.449825 94.69405 46.412224
58.413826 92.84206 46.844223
51.353825 91.93606 38.129223
51.335827 93.844055 37.590225
18.224823 103.57105 14.666224
19.869827 0.886055 15.588223
19.209824 7.7530518 22.795223
19.383827 7.015053 24.679224
64.153824 102.12705 28.690222
65.78483 101.749054 27.326223
56.273827 98.35106 25.485224
54.190826 99.20905 26.589222
56.694824 91.13006 21.880222
58.307827 89.748055 21.474224
50.18083 85.804054 17.644224
48.743828 86.54205 15.938224
47.444828 20.351057 34.876225
49.446827 20.571056 35.164223
42.41683 20.188057 41.502224
41.195827 20.325058 39.625225
55.247826 63.674057 52.13922
56.579826 65.455055 53.032223
46.494827 67.14706 3.311222
46.134827 69.05506 3.6732216
31.797827 91.94806 37.338223
33.795826 92.26405 37.183224
42.79183 97.42506 31.150223
43.016827 99.40806 32.976223
7.876831 3.1890564 32.426224
8.949829 2.950058 34.318222
13.749825 11.822053 36.754223
15.30883 10.093057 36.364223
23.555826 13.671057 11.541224
23.361826 11.6870575 11.533223
14.286827 5.5120573 16.139223
15.060829 5.823057 19.047224
6.154831 47.930058 41.796223
3.9108276 46.315056 42.838223
8.393829 43.837055 53.885223
7.637825 41.758057 54.245224
67.665825 60.234055 7.3502274
65.32583 59.320057 7.9722214
60.552826 67.303055 55.940224
58.594826 66.27906 54.599224
60.433826 21.984056 24.682222
58.576824 22.598057 25.613224
49.974827 30.385057 22.663223
48.445827 28.336058 23.586224
10.41983 98.191055 36.972225
11.620827 96.74206 35.690224
8.342827 86.47506 36.627224
7.644829 85.10106 34.690224
15.04583 5.162057 49.362225
14.422829 7.514057 49.752224
14.500824 14.985057 54.52822
15.933823 15.765057 56.37422
46.924828 6.5240555 16.291224
48.398827 6.065056 14.7322235
43.452827 1.086052 5.0942235
41.364826 104.580055 5.214224
46.809826 11.238057 49.724224
48.808826 11.172057 51.170223
57.831825 13.676057 52.490223
59.248825 15.678057 52.664223
61.949825 84.70306 33.688225
61.296825 82.790054 34.107224
56.339825 76.010056 37.442223
58.760826 75.31406 37.195225
57.026825 36.847057 42.795223
54.937824 37.56006 42.755222
61.400826 45.147057 37.190224
60.914825 46.094055 35.180225
26.348825 40.755054 37.998222
25.774828 42.925056 38.201225
15.878822 42.556057 34.875225
15.0518265 43.357056 37.340225
22.438828 100.50005 49.094223
24.468826 98.665054 50.019222
29.017826 95.860054 3.0952225
30.636827 94.53406 2.2632217
15.75383 95.63106 9.8052225
17.213829 94.82406 8.131226
16.894829 101.54305 55.661224
18.619827 100.58906 54.04822
27.222828 12.190057 31.688223
28.893827 11.386057 29.269222
38.653828 18.132057 32.153225
41.052826 17.158058 32.72822
17.383827 63.269054 17.131224
19.134827 63.690056 16.448223
26.950827 64.73906 25.623222
27.194826 66.67306 27.059223
57.153824 28.721058 6.9582233
55.662827 30.516058 7.7962236
62.032825 36.34506 15.648224
60.522827 34.76206 17.081223
66.693825 37.114056 47.046223
65.472824 38.770058 48.490223
66.316826 43.982056 41.157223
64.61583 44.559055 39.220222
21.480827 17.873056 45.939224
21.177828 18.070057 48.56222
31.157827 21.311058 50.302223
32.751827 22.759058 48.65322
47.770824 98.61706 25.351223
46.955826 96.25406 24.520224
43.232826 86.18105 24.986223
43.971825 84.11406 24.199223
26.926826 62.133057 26.684223
29.470827 61.417057 26.670223
32.372826 54.249054 29.781223
31.394827 52.315056 28.654222
40.505825 2.8770523 2.0852242
40.455826 4.640053 2.554222
48.216827 7.5190506 10.200223
47.380825 7.919052 12.428224
26.959827 38.29706 27.839222
27.895826 39.782055 29.230223
18.276827 45.700054 33.027225
15.953827 45.810055 31.871223
31.412827 85.19405 46.221222
28.783827 85.64406 46.08322
30.915827 74.637054 46.068222
28.715828 73.24106 46.97922
57.750824 96.52006 19.029222
56.912827 94.70306 18.032223
51.732826 102.370056 21.225224
50.045826 104.12605 20.733223
17.617828 22.065058 10.318223
19.510826 22.016058 10.738225
15.327827 25.999058 5.5292244
15.382828 24.867058 7.8432236
38.207825 74.99006 22.230223
37.552826 75.72506 20.424223
33.793827 67.30706 26.647223
31.990828 65.65306 26.601223
37.325825 64.582054 31.176222
37.826828 64.68606 28.486223
29.870827 55.999054 25.779222
30.207827 55.613056 23.897223
37.148827 98.49306 46.88922
36.373825 96.46306 46.900223
35.349827 97.274055 2.6002235
35.649826 94.87705 3.846222
56.258827 62.979057 21.574223
56.342827 62.374054 23.665224
53.704826 71.56206 28.578222
51.743828 72.275055 29.096222
1.9498291 50.393055 30.642223
1.2268295 50.282055 28.261223
61.829826 58.380054 29.238222
61.197826 59.515057 27.531223
6.6958313 2.5850525 46.575222
4.0998306 2.525055 45.178223
6.102829 1.4100571 36.160225
8.389824 1.4640579 37.173225
2.9808273 56.615055 22.524223
2.713829 54.119057 22.092222
65.56383 55.100056 11.909224
65.59183 52.462055 13.433224
23.351824 78.21206 55.385223
23.43683 79.968056 55.703224
13.518829 85.164055 2.6212234
11.736824 83.75506 1.7112236
39.890827 53.006054 43.64522
40.636826 55.063057 43.607224
31.471827 57.164055 50.335224
29.422827 59.001057 50.179222
62.820824 33.169056 19.936224
60.902824 31.758059 20.389223
65.12983 21.870058 18.596224
66.14383 20.234056 20.200224
28.253826 28.024057 55.961224
27.964827 29.210058 0.85422134
26.761827 35.579056 53.254223
25.286827 36.680058 51.788223
11.01783 18.285057 47.245224
11.75383 19.869057 48.807224
13.686829 26.453058 44.43022
11.499825 26.614058 43.797222
45.070827 28.910057 41.696224
45.338825 31.339058 40.993225
48.705826 30.521057 49.595222
48.381824 28.584057 50.71522
46.974827 88.97205 43.683224
47.458828 87.901054 45.672222
45.932827 95.91605 52.475224
45.304825 94.360054 54.307224
11.821831 97.96606 1.8972244
12.883827 97.888054 0.08522415
5.15683 2.4940567 56.56322
5.5418243 4.4060516 0.27422333
0.32782745 32.70606 47.02022
0.5988312 30.507057 47.38122
3.8048248 28.376059 36.956223
1.7878265 26.961058 37.084225
32.744827 100.482056 31.983223
31.582827 101.98805 33.672222
23.305828 104.343056 27.711224
22.650827 104.07205 25.635223
5.361824 89.06406 52.456223
4.6278305 89.88106 54.710224
12.645828 92.27206 3.5342216
12.658829 90.81406 5.259224
19.207827 59.720055 50.508224
19.151827 58.434055 52.045223
26.818827 62.185055 50.39522
27.557827 60.615055 48.962223
25.173826 85.10006 14.594223
27.338827 86.34705 14.063224
33.788826 76.926056 17.124224
33.79183 79.22806 18.712223
4.0658264 69.96206 23.807222
5.199829 69.78206 22.092222
66.901825 66.512054 15.998223
64.889824 68.24106 16.341223
41.774826 43.529057 22.193224
41.092827 42.126057 24.602222
43.648827 47.661057 18.937223
44.839825 46.398056 20.763224
1.0208282 46.903057 29.084223
1.0598297 47.144054 31.481222
61.462826 47.866055 37.335224
61.759827 49.599056 38.582222
18.517822 46.643055 23.559223
19.772827 45.212055 24.790224
12.387825 46.705055 23.100224
10.518829 48.164055 22.527224
57.352825 86.15806 22.676224
55.727825 86.23006 23.889223
47.821827 80.065056 28.981222
48.224827 77.98106 27.457222
34.849827 22.173058 20.782223
36.832825 20.751057 19.856224
31.127827 12.3710575 15.618223
30.699827 11.427057 13.302223
1.8918304 13.121057 45.628223
2.0718307 12.414057 43.530224
3.6528244 14.986057 33.928223
4.8968277 16.859056 33.731224
25.429827 92.79105 30.210222
25.363827 90.84805 31.513222
34.935825 85.71206 28.075222
36.497826 84.86706 27.300222
53.241825 37.885056 44.879223
50.977825 37.927055 44.09022
56.833824 34.411057 51.925224
56.368824 32.749058 49.987225
67.03583 68.788055 39.589222
0.18882751 69.162056 38.344223
68.90483 77.400055 45.234222
0.87683105 79.052055 43.86122
17.714828 81.69705 43.494225
17.520828 81.59705 40.868225
22.971827 71.94806 44.363224
24.04883 74.499054 44.175224
44.342827 39.541058 3.6432228
42.122826 40.824055 3.8032227
43.938828 32.657055 54.122223
42.942825 30.757057 52.773224
7.276825 97.29906 22.861223
8.510826 95.72706 22.718224
13.91983 101.40806 24.379223
13.925827 103.35606 25.049223
18.361824 39.150055 6.115223
16.316826 38.868057 6.571224
14.860825 50.564056 5.6002235
13.370827 52.391056 6.953224
66.51883 0.6840515 49.477222
64.25483 0.9980545 49.509224
0.94182587 7.9030533 45.79922
1.6858292 6.6890564 47.547222
22.694828 85.96406 16.506224
24.522827 87.29906 17.901222
25.247828 96.44505 20.283224
26.182827 97.788055 21.737223
39.725826 63.150055 3.0322227
38.450825 62.965057 1.7572212
31.007828 60.438057 52.186222
29.432827 61.426056 51.23022
14.946831 100.68005 16.957224
15.106827 101.86806 18.898224
20.466827 3.8300552 27.502222
21.317827 5.1370544 25.576223
56.789825 56.551056 29.817223
54.579826 55.741055 30.456223
58.838825 48.777058 37.317223
57.778824 47.671055 35.632225
20.646828 71.51506 18.507223
20.308823 71.48806 15.931224
9.645828 73.71706 16.435223
7.98983 72.58806 15.514223
45.216827 30.512058 3.3412247
47.002827 29.323057 3.6742249
56.666824 33.722057 56.759224
56.424824 34.795055 2.2162247
11.820831 82.067055 33.788223
9.681824 83.27206 33.927223
5.366829 79.191055 25.364223
3.7128296 78.122055 25.771223
5.3728256 59.371056 34.859222
5.050827 60.696056 33.51322
66.47583 62.630054 25.309223
65.778824 65.04106 25.435223
21.215828 92.094055 31.525223
22.862827 93.38306 30.836224
25.971827 96.74306 24.355223
23.797827 96.64406 23.120224
15.091827 59.303055 7.6292233
15.955826 60.773056 9.343224
10.42083 52.228054 12.204224
11.513824 50.824055 10.952224
41.437828 69.984055 19.392223
41.963825 68.60406 21.338223
36.281826 73.78306 30.070223
36.33283 76.14206 29.828222
43.253826 23.624058 44.954224
45.066826 24.247057 43.821224
54.148827 16.759058 42.928223
54.771824 14.914057 44.566223
25.007828 9.976052 27.593224
26.504827 10.392053 29.662222
25.137827 0.73605347 30.040222
23.008827 103.90906 30.297222
28.858828 3.2130508 1.1572227
28.026827 1.0850525 2.068222
33.613827 0.4810562 51.47222
33.64583 0.4340515 49.217224
21.470827 1.5500565 55.450222
22.550827 0.6760559 56.671223
25.858828 98.09006 5.5052223
28.077827 97.82005 5.971222
66.235825 12.766057 19.740223
65.486824 14.978057 19.315224
59.842827 16.064056 25.365223
58.363827 16.937057 27.290222
28.304827 38.285057 6.6422234
29.154827 35.980057 6.9872246
36.744827 34.650055 55.02022
37.467827 36.605057 54.616222
27.166826 83.76405 36.417225
26.451826 85.998055 35.416225
16.926826 79.803055 33.002224
16.127827 78.22906 33.164223
60.421825 67.274055 52.640224
59.373825 65.75606 51.760223
52.390827 73.926056 43.526222
53.088825 72.38906 41.629223
32.503826 20.590057 44.918224
30.159826 20.956057 46.04822
18.885828 22.640057 42.045223
17.945827 21.293056 43.758224
20.319828 99.99106 11.8312235
19.173828 98.86205 13.696223
23.746828 95.47405 13.587223
22.685827 97.579056 12.743223
9.991829 8.192057 19.575224
10.981827 8.215057 18.088223
17.544823 18.558058 23.689222
18.360825 18.864058 21.619223
27.340828 75.012054 31.517223
26.561827 74.997055 29.794222
22.422827 71.56106 37.623222
21.466827 71.40406 39.653225
6.9688263 66.204056 40.468224
4.3038254 66.97506 40.164223
3.9448242 76.15305 46.50022
2.7558289 77.51906 45.650223
30.830828 97.29506 4.3642235
32.456825 95.721054 3.7762222
29.456827 84.554054 6.431225
29.264828 84.191055 4.271221
7.4548264 35.180058 20.102222
9.196831 36.829056 21.372223
13.041824 45.103054 16.025223
14.713829 46.609055 16.266224
34.171825 75.317055 47.662224
32.960827 73.06306 47.093224
42.917828 67.00706 46.48022
43.868828 66.165054 49.05522
46.143826 88.954056 10.200224
46.956825 90.71506 11.369224
48.374825 87.94705 18.071222
50.368828 87.956055 19.162224
34.778828 94.40906 46.619225
35.07583 94.68205 44.41622
36.21483 102.52106 49.02022
36.31883 0.47205353 49.698223
63.322826 77.17406 17.543224
65.193825 77.46106 18.379223
68.10283 70.345055 25.188223
67.429825 68.01906 26.488222
48.136826 82.93005 4.025223
48.507828 85.402054 4.6642227
52.730827 93.221054 8.924225
54.056824 94.61806 9.803224
14.789825 44.585056 39.882225
15.148827 43.660057 42.171223
4.1368256 40.973057 44.036224
3.3708267 42.596054 43.185223
34.952827 93.11305 13.304223
33.807827 92.760056 15.826223
41.785828 98.609055 21.030224
43.645824 96.96306 20.834223
37.610825 75.51906 9.713223
39.655827 76.551056 10.328225
46.213825 79.776054 56.70922
46.421825 82.134056 55.894222
21.217827 71.79706 2.205223
22.026827 69.929054 1.2082214
34.213825 72.85406 55.339222
35.524826 71.68206 0.19922256
5.778824 5.1490555 4.571224
4.7218246 3.4280548 4.4512215
62.879826 7.112053 11.060224
62.048824 6.7690506 8.636223
59.188824 18.852057 22.241222
59.601826 19.236057 19.878223
50.012825 26.418058 18.799223
48.343826 25.725058 19.290224
49.358826 45.643055 20.712223
49.918827 46.168056 22.549223
44.260826 47.584057 32.466225
43.774826 50.161057 32.162224
25.412827 12.421057 50.00622
27.400827 11.390058 51.04822
22.812828 15.230057 47.894222
21.455828 15.340057 46.358223
45.682827 66.66806 5.9022217
46.726826 68.037056 7.644226
42.940826 73.051056 1.3532219
42.802826 74.24106 56.401222
52.846825 40.138058 3.0132217
52.370827 42.271057 1.4722214
59.877827 41.104057 6.552223
59.960827 42.989056 7.670227
38.480827 6.586057 5.4332237
37.653828 8.170057 6.3992233
45.986828 13.484057 10.131223
46.263824 14.844057 8.476227
42.54183 53.483055 17.543224
44.02783 55.159058 17.384224
38.853825 61.858055 10.068224
36.864826 62.253056 11.602223
36.687828 30.805058 7.953224
38.006824 32.601055 8.912224
33.912827 38.709057 9.7062235
35.961826 38.930058 11.089223
2.1568298 88.25005 31.881222
4.443825 88.524055 32.917225
5.6908264 98.927055 31.508223
6.868828 100.693054 32.538223
27.332827 2.2580566 50.18122
26.635826 2.214058 48.47322
37.057827 4.666054 43.380222
38.408825 2.9960556 41.350224
15.463829 17.941057 29.836224
13.284828 17.289057 28.603222
5.6138306 15.005057 31.550222
4.5558243 13.600057 30.384222
22.526827 102.287056 41.547222
22.946825 104.16006 41.309223
17.941826 0.36505127 51.322224
19.175827 0.6160507 53.518223
7.1298294 64.398056 9.638222
7.682831 62.447056 8.3572235
0.140831 71.29406 6.412224
67.39883 69.55606 7.514221
45.947826 90.510056 20.099224
44.037827 89.096054 20.760223
33.695827 86.763054 21.372223
34.211826 87.75105 23.204224
2.9128265 13.942057 0.7722244
1.1158295 12.604057 0.1752243
67.83583 14.555057 45.79922
66.13483 15.667057 45.289223
29.574827 59.243057 42.51422
31.558826 57.861057 42.129223
27.381826 47.321056 42.225224
27.935827 46.621056 40.632225
0.98983 76.233055 25.825222
0.36982727 77.79506 26.814222
63.331825 85.773056 23.731224
61.867825 87.25205 25.175222
47.890827 98.75306 3.4142227
46.599827 99.427055 4.889221
47.500828 2.612053 54.269222
47.422825 4.7440567 53.49922
47.077827 39.752056 16.737223
45.442825 39.986057 15.050223
34.462826 42.410057 19.538223
33.522827 42.747055 17.482224
49.16683 36.334057 15.7322235
48.582825 37.33806 18.229223
47.388824 30.880058 24.968224
47.432827 29.616058 26.214222
51.721825 24.658058 13.202224
50.683826 24.266058 15.626224
46.419827 16.495056 20.133223
45.727825 14.611057 21.577223
9.736824 55.074055 23.327223
8.022827 56.208057 22.770224
14.898827 62.535057 16.671223
16.080826 60.781055 15.730224
55.603825 8.607057 39.104225
56.946827 8.588057 40.876225
56.935825 15.762057 46.668224
57.723824 17.950058 46.515224
43.436825 95.25706 8.706223
42.136826 97.511055 8.718224
37.105827 99.24206 3.0242233
38.812828 100.63206 2.8192215
19.394827 97.884056 34.765224
21.042828 98.71306 36.663223
29.063828 96.690056 30.840223
31.171827 98.49306 31.015223
24.657827 34.247055 11.591224
24.861828 35.90806 12.976224
35.079826 31.424057 10.393224
36.418827 33.87306 11.030224
64.36983 59.156055 32.943222
65.32683 57.506054 34.678223
5.4698257 52.373055 38.426224
6.977829 54.569057 38.776222
30.193827 81.77206 18.788223
27.965828 82.025055 19.281223
23.013826 72.54106 18.062223
22.976828 71.177055 16.457224
41.440826 52.937057 36.530224
39.717827 51.209057 36.439224
42.036827 40.695057 36.493225
40.365826 40.917057 35.598225
27.219828 92.76505 45.82722
27.730827 92.65706 47.781223
33.998825 98.40405 54.88922
33.004826 100.17506 55.50722
59.802826 21.649057 55.907223
58.494827 22.494057 54.706223
67.43583 28.568058 49.668224
68.903824 28.512058 51.315224
26.770826 9.063057 43.85522
25.396828 10.268057 44.775223
15.719827 9.665057 39.741222
16.550827 10.156057 41.970222
40.794827 64.46506 18.364223
41.107826 63.887054 16.499224
35.949825 73.759056 11.159224
34.723827 73.00105 9.517223
10.074829 47.533054 27.668222
10.298828 48.595055 25.537224
5.251831 37.689056 23.893223
3.1368256 37.980057 25.015223
9.0898285 101.03106 36.133224
8.707825 101.665054 38.98522
15.0518265 1.5070572 33.327225
15.82383 3.4140549 32.972225
20.012827 52.939056 29.440222
19.385828 51.261055 30.983223
26.451826 45.356056 37.718224
28.705828 45.657055 37.801224
55.904827 23.434057 54.364223
56.453827 21.907057 53.191223
58.871826 31.395058 49.84122
60.237823 32.668056 48.814224
18.731827 28.134058 39.434223
18.785828 26.031057 40.142223
26.332827 26.284058 41.404224
25.291826 25.339058 43.422222
53.327824 47.027058 38.153225
53.733826 47.091057 35.855225
53.668827 50.558056 29.266222
51.568825 50.635056 29.439222
34.760826 19.669058 9.871224
33.952827 20.951057 8.594223
42.948826 29.919058 9.993222
40.723827 30.930058 8.889221
14.943825 43.860054 55.05622
13.331825 44.789055 53.843224
8.07383 49.574055 48.20922
8.124825 51.099056 46.707222
9.449829 82.80006 36.466225
10.168831 84.59705 36.341225
14.8398285 87.902054 44.293224
16.43583 87.63905 46.247223
64.91983 50.210056 9.960223
65.816826 50.091057 11.988223
2.7098312 51.234055 19.668222
4.111824 52.637054 19.734222
34.403828 26.789057 20.232224
32.205826 28.046057 20.008223
30.373827 38.355057 26.064222
29.695827 40.10206 25.113224
8.5518265 36.052055 15.214224
9.552826 36.583057 13.511224
3.11483 37.531055 6.4732237
2.012825 37.680058 8.565224
6.2148285 1.9800568 49.96622
5.2128296 3.959053 49.41722
5.279831 12.2340555 1.0232239
6.708824 14.146058 1.127224
39.211826 86.566055 51.07622
38.962826 86.985054 52.830223
43.920826 82.816055 5.401222
43.719826 81.46606 7.1542244
42.434826 53.442055 3.7672234
43.633827 52.179054 3.0192223
46.667828 61.829056 54.948223
45.391827 63.871056 56.36022
35.146828 18.318058 11.944223
36.972828 18.222057 11.154223
39.02783 15.586057 19.780224
38.906826 18.207058 19.845222
67.99583 55.792057 25.891222
0.82982635 56.225056 24.471224
3.498825 53.143055 32.418224
4.034828 52.294056 30.652224
49.868828 32.245056 31.772223
49.617825 34.63706 31.344223
57.565826 30.793058 38.604225
56.162827 29.040058 39.045223
61.744827 13.247057 18.936224
63.700825 13.412057 18.182222
56.237823 13.145057 6.4932237
57.046825 10.934057 6.7782235
32.523827 100.70006 19.210222
33.049828 100.17006 16.940224
42.464825 98.75506 13.145224
42.963825 98.52805 11.040223
2.7788239 83.47906 24.489223
3.4648285 81.17406 24.636223
8.465828 83.734055 14.021223
10.444824 84.61706 13.401223
20.790827 19.649057 21.207224
20.417828 22.331057 20.807222
30.570827 25.610058 17.419224
32.441826 25.746058 18.524223
65.93683 58.671055 39.842224
65.57383 56.358055 40.687225
4.673828 64.23906 39.200222
5.694824 64.082054 37.443222
25.739826 69.54406 29.570223
24.554827 68.568054 27.606222
26.457827 66.52006 19.118223
24.838827 66.97406 17.091223
52.394825 27.729057 7.618225
51.936825 26.585058 5.3502235
45.335827 17.267057 11.953225
44.613827 16.122057 10.153226
53.409824 21.700058 0.8982239
51.644825 21.329058 1.943222
59.459824 19.723057 4.7652245
58.783825 21.048058 6.214222
7.7048264 23.509058 8.401222
8.379829 21.614058 9.026222
16.041824 17.179058 1.8592224
17.866829 18.383057 1.469223
38.075825 102.87605 4.990223
36.938828 102.54706 3.3882217
26.094828 4.532051 5.391224
27.186827 6.820053 6.3102226
28.936827 59.159058 0.018222809
27.102827 59.958057 0.60422134
18.092827 67.89106 0.38822174
19.428827 70.12706 0.13222122
35.620827 1.886055 21.765223
35.653828 3.4530563 23.596224
40.746826 101.79706 28.638222
41.709827 99.97405 29.886223
63.689827 9.457055 18.767223
61.935825 10.657052 19.218224
53.959824 2.334053 16.970222
51.774826 3.124054 17.121223
22.274828 68.84906 40.637222
23.128828 69.219055 39.11022
27.225826 58.405056 39.710224
25.183826 58.605057 38.036224
37.671825 83.88106 29.873222
35.396828 84.663055 30.665222
30.206827 94.37906 28.003223
28.270826 94.41705 29.624222
29.287827 26.164057 53.95822
27.411827 25.302057 55.325222
28.458828 14.585057 54.893223
30.291826 14.700057 56.753223
59.412827 83.33606 30.131222
60.345825 83.05505 27.815222
60.379826 73.50205 34.062225
59.477825 75.65505 33.508224
51.651825 7.091057 52.846222
52.939827 4.8400574 53.64522
62.026825 11.720056 52.956223
61.419827 13.641053 53.599224
56.043827 73.08505 28.780222
54.712826 75.22806 27.903223
56.813824 85.41905 31.049223
56.376827 87.16106 29.936222
40.413826 4.416054 18.895224
39.30583 3.888054 20.941223
40.393826 96.93105 22.937223
39.381824 94.91006 22.258223
30.419827 54.511055 0.9972229
31.151827 52.654057 1.4512215
37.421825 55.816055 6.714222
39.040825 56.807056 7.738228
28.181828 10.2220545 45.95222
26.679827 10.263055 47.42322
24.318827 0.32705688 48.804222
24.609827 103.77106 50.686222
46.324825 76.10106 26.932222
45.636826 77.32706 28.875223
37.090828 77.428055 22.618223
36.285828 79.14506 22.226223
62.549824 33.077057 17.391224
61.537827 31.215057 16.407223
57.880825 22.107058 11.843224
58.593826 23.094057 13.752223
37.336826 53.218056 41.975224
37.349827 50.850056 41.838223
28.265827 44.579056 42.544224
27.234827 44.224056 44.269222
56.981827 85.33606 4.1782227
58.590824 85.46506 5.9252243
59.198826 96.78106 8.642227
61.183826 96.50706 7.4072266
6.979828 57.638054 40.198223
9.524826 57.257057 41.371223
18.039825 59.666058 32.498222
19.751823 59.287056 34.467224
12.580826 17.041058 49.671223
14.167824 15.723057 50.136223
14.631828 4.878057 44.897224
12.26683 4.691057 43.809223
44.533825 61.784058 36.761223
46.91683 60.990055 36.095222
48.887825 51.820057 33.581223
50.410828 53.166058 32.111225
50.207825 1.0950546 18.132223
50.781826 104.40706 16.225224
44.91683 100.08706 9.003223
45.438828 98.38905 9.780224
7.421829 51.566055 49.957222
6.8258286 51.471054 51.663223
10.662827 48.241055 52.554222
13.119827 47.785057 52.52722
16.305824 42.420055 16.732224
15.133827 43.741055 15.028223
20.193825 45.940056 5.7462234
18.523827 44.921055 4.7052236
66.92383 63.744057 46.612225
67.014824 64.301056 44.03422
67.48283 72.88905 47.383224
67.441826 74.78506 45.906223
40.063828 79.25005 33.604225
39.481827 77.41805 34.281223
29.157827 75.76605 34.555225
28.850826 76.995056 32.468224
43.385826 98.384056 52.21522
44.730827 97.26605 50.85422
44.702827 91.662056 41.704224
46.095825 92.53506 40.615223
54.115826 67.70106 8.619225
51.700825 66.95306 7.904228
58.081825 71.32706 0.3212242
57.826824 68.59106 56.247223
68.028824 24.543056 21.728224
67.63383 24.017057 19.406223
57.730824 26.627058 18.071222
56.805824 24.470057 16.945223
6.243828 30.574059 47.57622
7.779831 32.333057 48.515224
9.993828 34.077057 0.5572243
10.44883 32.43506 1.5602226
53.705826 7.732057 21.903223
53.907825 9.698057 23.662224
49.319828 9.755057 15.190224
50.130825 7.584057 15.943223
51.549828 45.225056 51.218224
52.701828 43.573055 51.84022
44.885826 42.824055 48.086224
42.749825 43.939056 46.748222
51.505825 19.075058 33.095222
51.026825 21.565058 32.771225
42.782825 11.958057 31.464222
41.198826 12.997057 32.795223
35.892826 26.015059 33.091225
35.755825 24.484056 31.682222
40.998825 34.714058 26.900223
43.16683 35.742058 28.237223
18.564827 69.05006 41.87522
20.054827 67.16006 42.011223
27.139828 60.017056 43.989223
28.639828 60.301056 45.234222
10.882828 74.677055 49.282223
11.427826 76.06406 50.975224
7.220825 85.15706 54.587223
5.4348297 85.63206 53.22222
4.5568237 83.624054 26.733223
4.7288284 85.456055 27.347223
7.941826 93.20905 22.765223
10.501831 93.107056 22.795223
42.124825 11.076057 26.476223
44.200825 10.995057 26.974222
46.812828 10.730057 15.506224
46.344826 8.841057 14.585223
26.723827 12.073057 43.450222
27.870827 11.109057 42.094223
33.576828 19.999058 41.197224
33.001827 22.529057 40.736225
39.959827 61.748055 17.559223
38.322826 62.426056 16.173223
27.844828 64.90306 21.699223
29.106827 64.46706 24.131224
37.039825 4.811058 27.387222
36.608826 5.152054 25.519222
29.975826 11.074052 21.170223
28.680826 12.397058 19.044224
55.905827 33.76906 16.793224
55.861824 33.403057 14.189223
54.203827 34.681057 5.6042237
55.000824 32.888058 7.0422235
37.649826 33.552055 49.41722
38.657825 32.125057 48.55522
42.833828 32.468056 37.713223
44.067825 34.337055 38.209225
43.662827 10.160057 49.849224
43.912827 10.556057 52.39522
32.884827 14.224057 53.726223
30.680826 14.168057 53.085224
57.034824 22.308058 0.15122223
55.398827 21.115057 55.79122
62.663826 17.624058 4.457222
63.659824 16.026056 5.7502213
5.4568253 23.671057 48.817223
4.6158295 21.411057 48.700222
66.36783 21.851057 46.463223
65.64383 19.266058 46.608223
26.979828 72.96406 25.261223
28.109827 74.20306 27.002222
36.227825 66.81406 29.059223
38.348827 67.65706 29.272223
7.366829 80.554054 36.198223
7.3438263 79.36506 38.177223
66.69983 84.95805 39.153225
0.037826538 86.093056 39.791225
44.727825 61.701057 49.53522
44.922825 61.371056 51.970222
49.543827 51.697056 52.439224
50.087826 52.425056 50.288223
4.7048264 13.747057 20.905224
6.1608276 14.406057 22.566223
13.967827 17.958057 25.397223
14.671829 20.257057 25.662224
30.640827 56.365055 14.355224
32.146828 57.434055 14.974223
43.40283 51.038055 14.363223
44.134827 49.197056 16.080223
4.201828 0.46405792 2.8312225
3.1728287 2.5810547 2.0742226
67.594826 9.566056 6.3362236
66.54483 10.162057 8.503227
41.803825 102.054054 35.919224
42.335827 102.98605 37.897224
51.117825 97.135056 39.679222
51.370827 99.276054 40.665222
43.601826 54.359055 45.928223
42.841827 53.619057 43.836224
48.529827 61.433056 38.192223
50.341827 62.446056 37.72822
51.437828 62.528057 8.178223
51.467827 64.55706 6.318222
49.762825 61.965057 52.93722
51.015827 59.931057 53.116222
33.356827 22.562057 13.553224
31.565826 21.504057 12.052223
25.983828 14.399057 17.181223
27.135826 12.283057 16.649223
49.378826 79.831055 56.39522
51.755825 80.011055 56.474224
51.420826 92.28406 55.571224
52.41683 94.03005 0.33322144
32.670826 45.423058 13.766223
31.436827 44.367054 15.345223
25.640827 42.894054 23.827223
26.007828 42.799057 26.254223
60.419827 75.57406 50.690224
58.022827 75.27805 50.186222
56.612823 73.386055 38.580223
55.441826 71.45306 38.390224
1.7788239 75.08606 1.4482231
2.2108307 72.89606 2.3952217
11.007828 68.87806 4.9792213
11.599831 68.00606 7.389221
38.884827 72.913055 28.444223
40.322826 72.09806 26.830223
43.568825 64.191055 21.437223
41.301826 65.622055 20.812223
47.790825 15.730057 4.011223
48.437828 13.538057 4.6822243
46.578827 7.372057 1.5712242
45.739826 4.945057 0.72322464
10.227829 27.871058 20.218224
8.104828 28.308058 19.215223
9.242828 34.018055 23.284224
7.7478256 36.384056 23.968224
57.571827 32.907055 30.131222
55.236824 33.01206 31.709223
47.981827 36.500057 30.436222
46.112827 35.912056 31.914223
30.282827 10.143057 9.694222
31.722826 9.592057 7.6372223
32.987827 15.541057 56.163223
34.910828 15.884057 55.78422
61.598824 40.059055 26.972223
61.394825 41.309055 28.597223
68.05682 31.959057 32.634224
67.66283 31.908058 35.540222
45.862827 26.367058 42.420223
48.358826 25.662058 42.49322
56.586826 22.676058 36.555225
56.381824 23.489058 34.529224
45.912827 86.80006 41.526222
44.620827 88.777054 41.68722
40.271828 80.440056 36.987225
40.148827 78.01706 36.847225
10.348831 88.42106 24.854223
11.556824 86.620056 24.326223
14.602829 76.04606 25.291224
16.924828 77.080055 24.614223
33.734825 51.880054 32.114223
34.710827 53.532055 32.967224
31.245827 61.055058 40.99922
32.812828 61.701057 41.86122
46.067825 86.428055 11.387223
48.141827 86.92006 12.3312235
57.043827 81.027054 13.885223
57.411827 78.78306 14.799223
11.748825 81.915054 11.751224
11.844826 79.482056 12.660224
7.500824 74.567055 13.396223
8.541824 76.03106 15.348224
14.092827 96.831055 14.9822235
15.660828 96.80906 13.458223
12.902824 84.11806 13.144223
14.873825 83.594055 14.891223
29.684826 11.433057 52.79122
32.220825 11.769057 53.52022
38.722828 6.504057 1.4792213
40.006824 5.884057 56.308224
67.123825 102.970055 51.962223
0.33882904 103.82606 51.574223
11.384827 104.78206 50.842224
9.889824 102.97405 49.894222
55.907825 59.774055 26.557222
56.429825 59.488056 24.473223
62.670826 47.856056 26.624222
62.645824 46.953056 24.343224
6.264824 7.0920563 18.100224
8.111824 6.2930527 19.661222
4.546829 101.22806 25.042223
4.467827 99.455055 23.767223
19.971825 88.60206 23.441223
18.095825 89.551056 23.162224
21.97783 90.89206 13.122224
19.662827 89.65606 13.276223
57.480824 103.60306 26.840223
58.668827 0.0010528564 28.911222
57.613827 94.98805 36.129223
55.690826 96.552055 36.861225
49.307827 10.137057 11.154223
49.567825 11.615057 12.858224
60.274826 17.344057 15.068223
60.256824 19.239058 16.115223
14.916824 96.46206 55.900223
14.147827 95.206055 0.44122314
11.76783 86.773056 0.7562218
9.824829 86.95805 56.328224
11.483826 7.0160522 28.154222
9.22683 6.061058 26.850224
8.78183 99.91605 23.842222
6.935829 100.36606 24.108223
24.654827 44.844055 7.4872284
23.273827 45.700054 5.5512238
29.824827 50.209057 55.337223
30.110826 52.661057 55.851223
52.212826 101.31206 48.163223
50.906826 102.64105 46.553223
48.385826 93.89506 40.961224
49.292828 91.53106 42.211224
3.512825 86.235054 29.683222
5.144829 86.14606 31.408222
3.3428268 75.62906 29.397223
1.0198288 75.746056 28.880222
27.733828 24.732058 3.0622215
30.118826 24.482058 3.028225
40.349827 27.475058 55.25022
39.880825 29.168058 55.884224
6.404831 62.852055 55.322224
4.5398254 62.343056 54.759224
66.41983 72.36106 51.719223
67.635826 73.443054 50.148224
20.477829 46.290054 3.016224
17.839828 47.049057 3.2752228
15.791824 58.716057 4.6402245
13.609825 59.635056 5.070225
14.01683 23.959057 12.383224
14.886826 22.714058 10.3242235
17.990822 13.802057 14.226223
19.900826 13.056057 13.544224
8.638824 46.784058 51.18122
6.8848267 48.478054 50.191223
67.75583 53.403057 56.769222
67.77183 53.894054 2.108223
38.206825 81.511055 45.627224
35.49983 81.483055 46.258224
33.488827 91.18606 39.714222
31.690826 91.456055 40.904224
2.7978287 41.825054 51.61722
2.1558304 42.338055 53.55522
63.772827 49.823055 54.689224
63.356827 48.184055 55.803223
44.880825 6.6800537 20.665224
44.391827 6.297058 18.330223
37.773827 7.4740524 11.573223
36.557827 7.2790527 9.247224
20.661827 26.378057 29.615223
19.479828 26.095058 31.217222
20.460823 32.661057 24.724224
20.944826 34.502056 23.754223
44.280827 19.416058 47.955223
44.408825 17.082058 46.67422
36.169827 16.285057 38.896225
36.31183 18.237057 38.137222
8.736824 15.406057 55.75022
8.679825 17.153057 56.47822
11.187828 27.535057 0.20722198
9.883827 26.979057 2.3522224
60.690826 70.93806 28.807222
62.163826 72.76505 28.281223
62.850826 84.25706 21.699223
61.184826 83.97706 20.327223
51.731827 101.04806 25.956223
50.982826 101.02006 23.730223
43.013824 4.8000565 22.255222
44.445827 3.7100525 20.650223
45.138824 42.160057 42.517223
47.465828 41.574055 41.611225
46.266827 38.649055 38.406223
43.733826 38.042057 37.218224
36.942825 17.427057 55.259224
36.865826 17.569057 1.0952225
41.245827 27.603058 1.1032219
43.205826 28.630058 2.2482224
63.977825 40.958057 20.063223
65.39783 40.430058 18.409224
4.6058273 38.203056 16.227224
5.0048294 39.124058 14.0482235
5.1528244 44.243057 40.080223
6.8358307 44.944057 42.053223
14.290825 46.107056 34.052223
16.409828 45.163055 35.071224
25.781824 40.351055 21.425222
24.828829 38.577057 22.324223
14.78083 36.001057 23.936224
14.951828 33.80306 22.327223
42.229828 73.10006 41.779224
43.648827 74.870056 40.799225
45.056828 84.582054 42.741222
45.213825 86.14206 44.08322
46.824825 25.890059 50.919224
47.286827 24.776058 48.919224
56.142826 17.905058 50.28522
55.499825 18.514057 52.93122
68.55783 100.54105 20.941223
67.84183 102.61105 22.014223
63.476826 104.68706 27.118223
63.162827 102.345055 25.971222
56.172825 87.68005 32.758224
57.602825 87.18305 34.357224
62.861824 90.15505 42.526222
63.178825 88.57606 40.533222
63.954826 39.583057 24.720222
64.24083 39.995056 27.291224
0.88082886 28.726057 28.266222
2.9168243 29.885057 28.789223
57.172825 5.3160553 31.048223
55.708824 6.8630524 30.375223
54.066826 0.5240555 20.896223
52.198826 0.048057556 22.362223
27.069826 57.820057 45.47222
25.264828 56.966057 47.009224
24.589827 47.780056 50.359222
23.688828 48.484055 48.23522
45.516827 68.096054 46.189224
45.876827 65.96206 47.00722
55.577824 63.050056 49.14522
56.715824 61.068054 47.810223
4.479828 14.951057 3.8882217
6.764824 16.263058 3.4262238
3.2578278 27.213058 54.935223
3.3538284 26.179058 52.524223
13.755829 98.34206 34.799225
11.129829 99.20905 34.317223
6.04583 99.372055 28.600224
4.3178253 100.62605 28.797222
61.382824 37.478058 9.480224
62.216824 39.771057 8.466224
64.163826 46.868057 10.317224
63.423824 45.213055 8.761224
45.586826 51.176056 34.151222
46.204826 48.789055 34.49222
45.27783 43.826057 45.169224
46.374825 44.903057 46.946224
25.444826 96.235054 48.981224
24.060831 94.26906 49.25722
14.983826 88.080055 48.322224
14.986824 86.10006 49.871223
26.849825 41.536057 9.058224
25.08883 42.462055 8.756224
14.18383 40.263058 12.084224
13.29483 42.811054 12.866223
48.918827 17.930058 34.267223
49.820827 17.792057 36.410225
47.911827 17.863058 47.811222
47.644825 15.212057 48.23522
62.160824 90.29906 47.894222
61.545826 88.82706 49.400223
3.137825 87.36806 54.38922
4.598831 87.164055 55.82622
67.40783 63.736057 50.16622
0.62882996 62.653057 48.318222
4.3068237 73.079056 47.43022
5.5898285 74.53506 48.179222
52.929825 29.418058 5.7062225
52.889824 31.226057 7.2062225
43.742825 32.597057 10.395223
42.606827 33.569057 12.543225
27.201826 104.39406 19.474224
29.015827 0.82105255 19.264223
35.502827 3.0030518 28.939222
34.35383 4.702057 30.189222
68.39183 56.757057 54.87522
0.68383026 56.866055 53.267223
62.318825 51.338055 47.05522
59.953827 51.046055 46.047222
15.845825 87.13206 23.338223
14.431824 87.09006 24.855223
6.496826 86.120056 29.205223
6.2078247 88.982056 29.328222
41.467827 36.19206 31.599222
41.883827 34.26206 31.003223
35.283825 26.264057 35.693222
36.664825 24.480057 35.758224
52.590828 27.727058 13.082223
51.737827 26.751059 11.213223
55.893826 24.517057 3.6912231
54.117825 25.899057 3.844223
5.3868256 93.66006 44.34822
4.7668304 94.485054 42.475224
1.1368256 103.31406 48.321224
67.67383 103.259056 48.934223
54.502827 59.774055 22.127224
56.969826 59.898056 21.839224
53.388824 53.331055 23.789223
51.92383 55.559055 23.724224
56.420826 54.439056 13.947224
55.927826 55.348057 12.023224
58.689827 64.372055 19.991222
56.968826 65.39406 20.663223
67.18182 51.850056 24.639223
65.722824 54.259056 24.833223
60.990826 52.817055 14.975224
59.676826 52.369057 12.901223
15.122826 96.12705 17.292223
15.591827 98.08405 17.002224
24.988825 93.928055 21.747223
26.001825 92.121056 22.417223
65.457825 87.275055 40.776222
66.930824 88.39506 39.501225
5.437828 93.44605 37.017223
6.4488297 95.33505 37.244225
27.554827 12.443057 10.041223
25.246826 12.321057 9.441223
30.230827 20.559057 4.802223
31.934826 21.280058 3.6122246
40.100826 9.818057 27.924223
39.649826 12.034057 27.816223
28.207827 10.574057 26.669222
27.123827 9.301057 25.271223
17.002823 18.976057 31.873222
16.305824 17.084057 33.134224
16.160828 23.083057 42.88122
14.881828 23.582058 45.182224
30.990828 47.753056 56.38122
32.876827 47.164055 0.8662224
37.309826 39.497055 55.233223
35.718826 39.44906 53.623222
41.482826 16.487057 17.705223
43.398827 16.027058 18.982224
38.578827 5.819057 23.711224
39.301826 4.358057 25.308224
20.626823 54.027058 38.313225
21.253824 53.190056 40.009224
20.863825 42.414055 40.845222
18.794823 41.335056 41.766224
56.795826 82.33305 7.4812236
58.528824 83.05805 9.138224
57.165825 93.524055 12.788223
57.042824 94.68406 15.3902235
44.108826 74.37605 49.575222
45.058826 73.09705 51.080223
44.573826 69.79906 0.69922256
42.696827 70.43106 56.752224
20.639828 89.28206 2.1802216
21.480827 90.74006 0.0332222
20.756826 94.164055 9.752225
22.041828 95.13106 10.929223
21.038828 57.340057 32.311222
19.152826 57.783054 31.058222
27.440826 60.444057 24.008223
28.119827 61.640057 22.184223
11.748825 43.076057 54.821224
10.401825 41.413055 53.92422
11.4008255 34.171055 3.832222
11.668831 34.245056 5.8382225
38.863827 17.691057 9.397224
40.677826 18.139057 7.335228
48.312828 24.014057 3.8762245
48.820827 26.823057 3.6352234
26.060827 4.6440573 1.1462212
26.606827 5.919057 0.054222107
18.267828 14.110057 56.537224
19.612827 15.638057 55.98022
0.8438263 41.270058 49.497223
1.6888275 41.182056 47.38122
7.4748306 33.217056 43.66022
8.585831 32.493057 45.991222
51.460827 3.5070572 14.551224
52.816826 1.2750549 14.893224
52.54883 96.91805 9.424224
50.103825 95.386055 9.169224
14.15583 33.605057 36.971222
12.48983 32.976055 38.912224
1.3218307 35.120056 36.347225
68.014824 34.319057 37.432224
18.115822 80.818054 28.033222
16.586823 82.61506 29.275223
22.50883 90.471054 33.475224
22.918825 89.91605 31.161222
37.088825 18.989058 21.487223
38.558826 18.490057 22.742224
27.203827 17.541058 27.042223
26.277826 15.942057 27.671223
57.628826 84.95006 49.636223
55.800827 85.344055 48.900223
54.527824 75.43606 43.198223
54.133827 75.21706 40.659225
38.581825 46.766056 41.97322
40.583828 46.371056 41.540222
39.90283 42.355057 49.54922
37.860825 41.779057 50.760223
13.893829 38.64406 36.011223
14.442825 38.563057 33.927223
7.814827 41.090057 26.826223
8.60183 38.944057 25.966223
38.047825 72.124054 54.95222
40.452827 71.663055 55.77022
38.825825 79.152054 47.921223
39.714825 78.65806 45.211224
53.556824 9.418054 45.43022
55.241825 9.143052 47.308224
59.723824 2.7030563 41.794224
61.685825 3.047058 42.41022
1.6878281 26.329058 13.807223
1.0318298 24.499058 13.295223
62.057827 19.317057 10.847223
61.871826 18.613058 13.204224
67.94083 23.324057 38.968224
68.70083 21.669058 40.312225
3.5998306 26.406057 35.132225
5.48983 26.998058 34.808224
26.487825 32.858055 51.787224
26.773829 33.037056 54.343224
16.053825 35.348057 2.9002228
14.549828 33.717056 3.6772232
33.133827 42.928055 12.457223
34.928825 41.240055 11.597222
38.818825 46.222057 1.3332214
40.589825 45.405056 0.6922226
33.146828 102.64105 11.860224
33.194828 100.124054 11.691223
43.145824 95.93005 13.181224
44.913826 95.511055 14.339224
60.850826 50.431057 53.93722
62.121826 51.769054 55.683224
57.748825 51.089054 8.926224
55.873825 51.763054 9.817224
1.6108246 27.458057 25.520224
1.6818237 26.107058 23.991222
10.640831 20.953056 26.739223
8.321831 21.483057 28.213223
14.965828 81.20905 45.700222
13.760826 80.61305 47.18822
15.882828 70.05906 44.630222
14.876831 68.276054 43.50622
42.206825 12.824057 28.590223
44.448826 13.874057 27.579224
38.903828 21.713057 21.770224
39.542828 20.677057 19.806223
0.43782806 39.668056 7.372223
1.1368256 40.559055 5.365223
61.705826 41.260056 56.52122
63.002827 41.754055 54.84722
57.591824 1.9550552 34.165222
59.011826 3.4440536 32.026222
67.52983 101.205055 33.452225
0.25382996 100.137054 31.964222
34.961826 47.908054 56.02722
36.500828 49.449055 54.77122
43.881824 48.829056 44.766224
42.532825 49.411057 42.699223
28.477827 32.841057 34.317223
27.319826 31.007057 33.331223
34.573826 37.930058 30.771223
36.771828 38.358055 30.019222
65.68883 66.870056 13.620223
65.778824 64.526054 13.427223
65.399826 71.28506 10.895224
64.16283 70.02206 13.047223
40.713825 40.376057 26.615223
40.510826 41.080055 28.669222
33.66683 42.034058 36.848225
31.643827 40.073055 36.911224
27.282827 20.862057 6.6372223
27.674828 23.132057 5.174225
20.281828 16.992058 1.3152237
20.785828 14.973057 2.2942238
45.991825 95.10406 26.816223
47.990826 95.81306 28.299223
45.779827 0.79805756 34.882225
44.037827 1.3930511 36.140224
7.889824 6.270057 16.133223
7.8398285 8.786057 15.658223
5.144829 11.544057 6.1992235
6.444824 13.164057 5.0612235
15.436829 93.71506 4.2152214
15.215828 91.53606 5.6112213
24.468828 85.65405 4.9862213
25.861826 87.065056 4.0912247
48.645824 47.419056 9.497224
50.243828 47.547054 10.829224
52.095825 40.275055 16.326223
50.30583 40.786057 15.793223
8.303825 30.650057 50.768223
8.652824 32.377056 52.32722
3.9848251 39.384056 52.220222
3.0448303 38.242058 50.72822
54.154827 12.069057 43.754223
54.957825 13.263057 42.09022
50.058826 9.566057 33.905224
49.783825 8.487057 31.939222
23.377825 4.530052 6.5172234
22.74383 4.197052 3.9662247
14.727829 10.370057 54.425224
14.451828 12.323052 55.504223
2.0058289 14.996057 15.2982235
3.9928284 14.913057 14.179223
11.671829 23.062057 13.880223
10.704826 25.079058 13.9892235
66.496826 21.777058 41.504223
67.49583 24.211058 41.69422
4.751831 29.184057 49.679222
6.415825 28.404058 51.351223
20.652824 32.073055 16.946224
20.037827 34.156055 16.589224
14.010826 27.574059 8.969224
15.046829 28.472057 6.6682234
42.80583 54.247055 10.323223
42.249825 53.232056 12.578223
36.251827 60.655056 8.943224
34.40983 61.988056 9.826223
68.62783 87.776054 36.036224
0.9558258 86.19605 36.846222
2.0828247 79.83305 27.498222
