2.867 0.585 0.772
2.936 0.286 0.823
3.261 0.301 1.079
3.258 0.361 0.947
3.492 0.352 0.986
3.849 0.366 1.035
2.130 1.189 0.622
2.342 1.062 0.570
2.545 0.900 0.767
3.014 0.631 0.893
3.068 0.531 0.928
3.303 0.365 1.049
3.556 0.817 0.914
3.770 0.553 0.816
3.964 0.404 1.107
4.163 0.341 0.937
2.469 1.125 0.696
2.926 0.987 0.644
3.142 0.841 0.830
3.288 0.624 0.808
3.316 0.521 0.804
3.531 0.956 0.913
3.599 0.690 0.667
4.083 0.769 1.041
4.071 0.524 0.934
4.332 0.552 0.908
2.828 1.332 0.411
3.008 1.218 0.534
3.486 1.053 0.860
3.418 0.771 0.754
3.598 1.028 0.788
3.935 0.841 0.629
4.039 0.978 0.808
4.165 0.712 0.869
4.508 0.515 0.828
4.531 0.368 1.063
3.324 1.278 0.530
3.580 1.179 0.521
3.749 1.100 0.842
3.868 1.404 0.540
3.857 1.191 0.716
4.174 1.007 0.724
4.568 0.864 0.665
4.469 0.750 0.974
4.858 0.629 0.884
4.941 0.609 1.173
3.496 1.203 0.510
3.924 1.225 0.576
3.778 1.373 0.454
3.982 1.181 0.548
4.418 1.213 0.630
4.414 1.084 0.724
4.876 1.089 0.819
5.079 1.025 0.767
5.147 0.900 0.898
3.928 1.488 0.504
4.090 1.606 0.474
4.385 1.461 0.676
4.508 1.434 0.456
4.571 1.196 0.778
4.940 1.208 0.823
4.947 0.926 0.717
5.327 0.822 0.765
3.911 1.645 0.387
4.264 1.858 0.585
4.685 1.515 0.552
4.641 1.368 0.691
5.054 1.234 0.794
5.073 1.122 0.694
5.249 0.980 0.801
4.729 1.892 0.471
5.001 1.504 0.685
5.000 1.561 0.443
5.440 1.353 0.565
5.531 1.468 0.601
4.887 1.717 0.375
5.332 1.633 0.362
1.397 0.213 0.876
1.584 -0.022 0.869
1.465 0.433 1.257
1.455 0.241 1.023
1.888 0.153 1.115
1.407 0.563 0.879
1.653 0.253 1.131
1.889 0.334 1.085
2.239 0.068 1.317
2.289 0.017 1.218
1.792 0.794 1.042
2.015 0.419 1.031
2.094 0.406 1.020
2.346 0.219 1.216
2.349 0.154 1.058
2.783 -0.051 1.197
2.948 0.069 1.151
1.651 0.933 0.937
1.988 0.788 1.063
2.041 0.471 0.935
2.294 0.459 1.028
2.561 0.308 1.058
2.642 0.385 1.194
3.103 0.168 1.262
3.000 0.504 1.319
2.062 0.953 0.857
2.291 0.746 0.848
2.515 0.767 1.163
2.821 0.500 1.188
3.010 0.593 1.229
3.198 0.267 1.363
3.240 0.409 0.976
3.346 0.353 1.282
2.552 1.048 0.954
2.786 0.781 1.047
3.006 0.654 0.876
3.055 0.789 1.005
3.423 0.427 0.963
3.399 0.667 0.894
3.726 0.794 1.058
3.723 0.525 1.164
2.890 1.098 0.865
2.849 0.990 0.944
3.130 1.022 1.083
3.371 0.750 1.044
3.640 1.043 0.833
3.872 0.712 1.186
4.097 0.787 1.072
4.020 0.653 1.289
3.170 1.021 1.011
3.412 1.034 1.024
3.628 0.806 0.992
3.659 1.050 0.863
3.827 1.009 0.974
4.058 0.917 1.187
4.336 0.921 0.940
4.452 0.678 1.097
3.468 1.274 0.850
3.497 1.194 0.853
3.876 1.288 0.971
3.927 1.263 0.837
4.168 1.246 1.051
4.265 0.985 1.044
4.531 0.719 1.066
4.644 0.692 1.096
3.739 1.224 0.678
3.798 1.498 0.601
4.279 1.441 0.935
4.196 1.421 0.841
4.547 1.290 0.913
4.807 0.924 0.914
5.093 0.996 0.933
5.258 0.869 1.101
3.844 1.600 0.696
3.925 1.771 0.802
4.101 1.496 0.763
4.608 1.418 0.760
4.663 1.288 0.733
4.961 1.396 0.910
5.055 1.078 1.093
5.192 1.210 1.203
1.962 2.886 -0.007
2.344 2.813 -0.011
3.964 1.547 0.542
4.522 1.834 0.526
4.493 1.677 0.862
4.820 1.489 0.672
4.855 1.560 0.961
5.061 1.204 1.034
5.424 1.108 1.158
2.291 2.757 -0.094
2.588 2.683 0.167
4.443 1.864 0.708
4.767 1.872 0.770
4.846 1.832 0.813
5.006 1.734 0.923
5.150 1.512 1.008
5.584 1.315 0.822
2.825 2.939 0.028
3.025 2.903 0.030
4.854 2.036 0.657
5.162 1.789 0.542
5.202 1.673 0.564
5.530 1.590 0.908
2.873 2.996 0.176
5.294 2.144 0.467
5.339 1.982 0.531
1.365 0.201 1.146
1.546 0.181 1.078
1.888 -0.010 1.072
1.375 0.359 1.324
1.704 0.163 1.444
1.752 0.102 1.346
1.931 0.147 1.572
1.426 0.546 1.228
1.699 0.516 1.277
1.824 0.344 1.437
2.289 0.290 1.556
2.357 0.163 1.505
2.557 -0.147 1.456
1.833 0.661 1.127
2.079 0.381 1.422
2.109 0.448 1.350
2.344 0.253 1.402
2.496 0.145 1.531
1.967 0.751 1.079
2.063 0.882 1.226
2.516 0.671 1.130
2.629 0.542 1.474
2.831 0.541 1.420
3.159 0.398 1.374
2.234 0.853 1.091
2.422 0.648 1.230
2.565 0.742 1.125
3.086 0.732 1.303
3.091 0.334 1.558
3.344 0.559 1.286
2.577 0.991 1.239
2.722 0.954 1.097
3.048 0.843 1.413
3.128 0.636 1.440
3.337 0.912 1.218
3.076 1.078 1.148
3.470 1.008 1.291
3.378 0.929 1.317
3.822 0.767 1.335
3.433 1.130 1.089
3.706 1.398 1.274
3.864 1.227 1.309
4.086 1.165 1.346
4.162 0.951 1.456
3.482 1.356 1.107
3.916 1.316 1.162
3.879 1.288 1.199
4.308 1.092 1.054
4.241 1.068 1.106
4.591 0.884 1.247
3.680 1.305 1.111
4.055 1.574 1.056
4.333 1.248 1.179
4.349 1.349 1.315
4.864 1.126 1.358
4.810 1.058 1.315
1.738 2.989 0.130
1.912 2.675 0.330
1.916 2.570 0.453
4.324 1.642 0.968
4.449 1.531 1.158
4.478 1.618 0.974
4.775 1.463 1.090
5.124 1.153 1.327
1.909 3.118 0.147
1.833 2.958 0.157
2.308 2.656 0.296
2.293 2.720 0.241
4.260 1.928 0.768
4.523 1.855 1.042
4.930 1.719 0.918
4.925 1.537 1.165
5.327 1.322 1.248
5.387 1.402 1.395
1.787 3.062 0.228
1.998 2.955 0.087
2.421 3.175 0.226
2.472 2.990 0.285
4.397 2.139 0.883
4.669 1.885 1.026
4.983 1.708 1.124
5.241 1.897 0.968
5.330 1.478 1.196
5.416 1.466 1.024
1.905 3.554 -0.027
2.085 3.351 -0.025
2.404 3.230 0.062
2.635 3.154 0.297
2.993 2.876 0.151
4.582 2.215 0.653
4.758 2.197 0.912
5.070 1.989 0.815
5.210 1.999 1.006
5.393 1.710 1.092
2.475 3.605 0.142
2.430 3.367 0.240
2.804 3.418 0.192
2.896 3.030 0.273
4.727 2.373 0.589
5.029 2.423 0.890
5.235 2.345 0.648
5.328 2.264 1.018
5.481 2.110 0.831
2.634 3.713 0.077
2.938 3.588 0.225
5.231 2.692 0.652
5.382 2.554 0.755
5.534 2.454 0.718
3.061 3.661 -0.102
1.370 0.131 1.523
1.301 0.494 1.320
1.486 0.116 1.236
1.653 0.144 1.295
2.110 0.070 1.360
1.297 0.520 1.503
1.412 0.342 1.747
1.711 0.346 1.724
1.893 0.026 1.625
2.064 -0.045 1.889
1.626 0.586 1.419
1.990 0.600 1.450
2.015 0.293 1.822
2.249 0.140 1.741
2.424 0.084 1.853
1.730 0.860 1.565
2.131 0.675 1.660
2.161 0.400 1.545
2.278 0.275 1.655
2.641 0.165 1.652
2.265 0.953 1.419
2.256 0.662 1.649
2.712 0.705 1.483
1.382 2.647 0.466
1.540 2.290 0.756
1.527 2.900 0.398
1.856 2.691 0.496
2.031 2.433 0.755
4.222 1.643 1.396
4.461 1.225 1.402
4.576 1.369 1.363
1.708 3.060 0.478
1.856 2.794 0.444
2.087 2.590 0.617
2.293 2.547 0.575
4.249 1.658 1.206
4.448 1.827 1.218
4.651 1.488 1.206
4.749 1.591 1.479
5.001 1.196 1.426
1.758 2.992 0.301
1.812 3.165 0.365
2.064 2.869 0.617
2.499 2.858 0.443
4.471 1.881 1.147
4.456 1.736 1.213
4.585 1.922 1.127
5.010 1.632 1.218
5.279 1.553 1.493
1.889 3.199 0.408
2.048 3.061 0.529
2.320 3.146 0.521
2.371 2.870 0.481
2.556 2.743 0.445
4.569 2.339 1.099
4.667 1.910 0.969
4.722 1.986 1.018
4.973 1.750 1.220
5.265 1.801 1.401
5.329 1.525 1.301
1.904 3.356 0.237
2.207 3.293 0.357
2.401 3.203 0.520
2.664 3.331 0.380
2.750 3.195 0.472
4.624 2.346 1.145
4.793 2.152 0.936
5.133 2.096 1.183
5.371 2.043 1.124
5.282 2.022 1.218
5.445 1.881 1.331
2.221 3.650 0.204
2.464 3.638 0.288
2.552 3.585 0.274
2.881 3.251 0.402
4.853 2.634 1.012
4.939 2.391 0.971
5.122 2.455 0.987
5.412 2.063 1.219
5.693 2.232 1.309
2.383 4.067 0.281
2.534 3.703 0.233
2.821 3.651 0.175
2.790 3.574 0.275
4.910 2.726 0.948
5.045 2.762 0.914
5.345 2.591 0.906
5.319 2.308 1.024
5.726 2.282 1.015
2.281 4.235 0.134
2.614 3.830 0.027
2.911 3.713 0.059
4.614 3.039 0.635
5.012 2.940 0.672
5.100 2.678 0.669
5.370 2.863 0.925
5.619 2.639 0.795
4.806 3.212 0.647
4.922 3.221 0.673
5.130 3.185 0.563
5.316 3.129 0.913
5.473 2.844 0.660
4.912 3.148 0.673
5.170 3.501 0.697
5.372 3.326 0.638
4.922 3.551 0.632
5.112 3.578 0.548
5.036 3.790 0.498
5.044 3.668 0.570
5.343 3.717 0.284
4.673 4.262 0.319
4.765 3.876 0.393
4.952 3.785 0.282
5.310 3.922 0.385
5.285 4.151 0.216
4.647 4.360 0.035
4.820 4.490 -0.027
5.100 4.169 0.031
5.350 4.034 0.268
5.545 3.992 0.334
5.014 4.662 -0.066
5.168 4.432 0.084
5.496 4.466 0.106
1.404 0.171 1.759
1.424 0.157 1.576
1.719 0.086 1.700
1.267 0.418 1.509
1.575 0.518 1.760
1.792 0.342 1.535
1.883 0.281 1.846
2.290 0.023 1.860
1.395 0.660 1.652
1.614 0.549 1.930
1.621 0.203 1.735
2.065 0.296 2.100
2.291 0.278 2.125
2.510 0.129 1.925
1.598 0.738 1.732
1.928 0.624 1.799
2.241 0.531 1.836
2.387 0.280 1.909
2.132 0.674 1.801
2.166 0.521 1.814
1.077 2.311 0.882
5.862 0.014 2.514
1.062 2.317 0.828
1.513 2.430 1.028
6.201 0.092 2.512
1.252 2.692 0.715
1.650 2.480 0.951
1.686 2.271 0.993
1.430 2.688 0.759
1.828 2.861 0.729
1.746 2.750 1.027
2.016 2.418 0.856
1.771 3.128 0.691
1.791 3.065 0.752
1.893 2.816 0.709
2.108 2.702 1.042
2.387 2.596 1.129
4.495 1.767 1.691
4.866 1.692 1.542
1.596 3.257 0.591
2.092 3.140 0.553
2.168 3.010 0.887
2.485 2.794 0.926
2.693 2.709 0.766
4.461 1.896 1.292
4.665 1.901 1.459
4.903 1.670 1.592
5.070 1.725 1.673
1.791 3.519 0.403
2.023 3.291 0.678
2.295 3.234 0.531
2.449 3.192 0.891
2.770 2.982 0.787
4.550 2.333 1.156
4.487 2.042 1.378
4.694 2.140 1.410
5.001 1.853 1.563
5.311 1.757 1.418
5.479 1.711 1.443
1.999 3.528 0.403
2.140 3.629 0.410
2.555 3.510 0.693
2.685 3.142 0.809
2.663 3.269 0.698
4.683 2.518 1.100
4.892 2.297 1.325
5.141 2.160 1.404
5.293 2.240 1.515
5.349 1.859 1.395
5.659 2.066 1.597
2.193 3.860 0.366
2.173 3.607 0.353
2.365 3.489 0.442
2.817 3.587 0.681
4.488 2.700 0.900
4.567 2.535 1.126
4.787 2.555 1.255
5.255 2.342 1.270
5.154 2.387 1.195
5.577 2.144 1.426
5.755 1.997 1.293
2.406 3.882 0.359
2.664 3.940 0.357
4.340 2.802 1.144
4.599 2.809 1.150
4.672 2.869 0.923
5.151 2.752 0.978
5.358 2.556 1.196
5.329 2.537 1.310
5.528 2.310 1.324
5.752 2.346 1.228
4.540 3.052 0.971
4.833 3.059 0.942
4.971 3.130 1.126
5.043 2.846 1.039
5.376 2.653 0.961
5.476 2.695 1.198
5.780 2.624 1.116
4.674 2.996 0.866
4.783 3.405 0.994
4.919 3.119 0.911
5.310 3.215 0.974
5.480 3.154 1.005
5.648 2.767 1.100
4.731 3.456 0.645
4.740 3.444 0.688
5.064 3.520 0.664
5.108 3.405 0.989
5.429 3.204 0.970
5.655 3.327 0.911
4.704 3.751 0.590
4.874 3.631 0.868
5.006 3.625 0.780
5.060 3.762 0.801
5.263 3.467 0.699
5.553 3.404 0.910
4.522 3.958 0.636
4.603 3.992 0.604
4.884 3.692 0.667
4.984 3.646 0.854
5.235 3.971 0.578
5.352 3.796 0.725
4.438 4.434 0.349
4.824 4.321 0.371
4.981 4.158 0.563
4.975 3.881 0.621
5.247 3.981 0.652
5.452 4.078 0.456
4.476 4.630 0.387
4.432 4.675 0.310
4.674 4.375 0.468
5.068 4.180 0.446
5.147 4.230 0.497
5.410 4.103 0.538
5.548 4.427 0.493
4.156 4.811 0.218
4.454 4.706 0.264
4.656 4.810 0.331
5.069 4.776 0.263
5.092 4.500 0.440
5.265 4.402 0.542
5.519 4.341 0.380
0.968 0.354 1.815
1.224 0.077 2.080
1.312 0.378 1.800
1.502 0.241 1.742
1.548 0.241 2.107
1.943 0.204 2.142
1.283 0.439 1.875
1.548 0.452 1.793
1.883 0.453 1.803
1.936 0.396 2.124
2.227 0.085 2.188
2.217 -0.145 2.002
1.265 0.519 2.036
1.371 0.577 2.028
1.781 0.314 2.127
2.009 0.435 2.334
2.007 0.347 2.378
1.891 0.780 2.037
1.924 0.353 2.128
4.758 0.113 2.519
0.811 2.290 1.243
5.297 0.250 2.481
5.505 0.152 2.453
1.154 2.531 1.112
1.248 2.421 1.127
5.619 0.324 2.478
5.613 0.147 2.601
1.133 2.585 1.305
1.300 2.378 1.369
1.731 2.295 1.245
5.810 0.399 2.579
5.889 0.171 2.681
6.228 -0.089 2.755
1.347 2.745 1.060
1.560 2.502 1.210
1.630 2.428 1.328
1.969 2.419 1.402
6.157 0.295 2.431
1.495 3.034 0.966
1.670 2.931 1.110
2.021 2.767 0.974
2.095 2.655 1.350
2.211 2.564 1.272
1.710 3.283 0.966
1.881 3.126 1.009
1.945 2.832 1.112
2.268 2.728 1.068
2.497 2.677 1.250
1.617 3.236 0.717
1.922 3.329 0.822
2.087 3.078 1.001
2.376 3.072 1.068
2.457 2.922 1.098
4.727 1.834 1.810
4.771 2.009 1.695
1.804 3.415 0.630
2.124 3.309 0.865
2.360 3.291 0.916
2.494 3.291 0.961
2.631 2.995 1.075
4.722 2.166 1.528
4.868 2.062 1.717
5.029 1.935 1.807
5.320 1.897 1.722
5.309 1.805 1.686
1.828 3.589 0.789
2.021 3.603 0.836
2.280 3.479 0.837
2.600 3.431 1.055
2.818 3.120 1.013
4.642 2.423 1.253
4.718 2.352 1.442
4.973 2.351 1.561
5.283 2.244 1.600
5.497 2.122 1.631
5.505 2.017 1.596
2.192 3.623 0.733
2.446 3.571 0.912
4.556 2.776 1.237
4.824 2.620 1.401
4.896 2.714 1.408
5.126 2.496 1.625
5.226 2.430 1.596
5.561 2.196 1.714
5.729 2.216 1.702
4.629 2.854 1.259
4.544 3.141 1.270
4.785 2.822 1.266
4.970 2.691 1.397
5.245 2.823 1.485
5.448 2.506 1.436
5.526 2.486 1.466
5.877 2.495 1.451
4.610 3.006 1.057
4.784 3.178 1.226
5.016 3.280 1.288
5.301 3.109 1.346
5.338 2.826 1.309
5.420 2.902 1.477
5.713 2.798 1.335
5.989 2.477 1.528
4.617 3.427 1.136
4.688 3.160 1.303
5.027 3.311 1.064
4.993 3.290 1.258
5.147 3.187 1.157
5.430 3.130 1.274
5.742 3.039 1.326
5.868 2.876 1.490
4.328 3.502 1.078
4.821 3.652 0.988
4.781 3.532 0.892
4.956 3.558 0.853
5.292 3.531 0.918
5.522 3.248 1.057
5.743 3.281 1.351
5.690 3.311 1.243
4.538 3.889 0.867
4.495 3.776 0.988
4.872 3.596 0.773
5.097 3.468 1.055
5.096 3.727 0.913
5.291 3.865 1.039
5.643 3.730 1.029
5.789 3.568 1.074
4.354 4.285 0.707
4.632 4.299 0.831
4.690 3.955 0.947
5.036 3.824 0.975
5.037 3.769 0.935
5.194 3.908 0.931
5.572 3.919 0.792
5.710 3.833 0.866
4.167 4.641 0.671
4.366 4.532 0.730
4.538 4.447 0.757
4.675 4.375 0.785
5.203 4.114 0.693
5.210 3.893 0.996
5.356 4.158 0.610
5.686 4.222 0.787
4.242 4.935 0.448
4.303 4.873 0.592
4.398 4.493 0.563
4.861 4.599 0.581
4.826 4.537 0.730
5.059 4.346 0.848
5.280 4.067 0.696
5.655 4.267 0.846
4.143 5.019 0.354
4.544 4.876 0.227
4.770 5.011 0.357
4.963 4.753 0.607
5.001 4.546 0.672
5.249 4.639 0.635
5.614 4.476 0.716
1.127 0.225 2.233
1.246 0.286 2.267
1.516 -0.033 2.180
1.282 0.491 2.206
1.516 0.348 2.067
1.491 0.081 2.236
1.706 0.074 2.328
1.863 -0.097 2.409
1.233 0.567 1.928
1.580 0.436 2.053
1.723 0.366 2.203
2.009 0.499 2.206
2.263 0.132 2.217
1.551 0.698 2.288
1.716 0.663 2.296
1.881 0.314 2.558
4.189 0.202 2.661
4.476 -0.034 2.888
4.575 0.140 2.832
4.772 0.315 2.601
5.044 0.199 2.986
0.796 2.429 1.405
5.106 0.326 2.659
4.980 0.120 2.881
5.228 0.162 2.767
5.660 -0.047 2.875
1.022 2.361 1.393
1.126 2.358 1.638
5.423 0.191 2.786
5.632 0.148 2.885
5.764 -0.024 2.951
1.131 2.567 1.365
1.486 2.461 1.559
1.724 2.595 1.346
1.954 2.312 1.518
5.943 0.323 2.815
6.091 0.421 2.707
6.190 0.298 2.970
1.212 2.929 1.269
1.602 2.613 1.416
1.787 2.745 1.561
1.797 2.522 1.576
2.132 2.562 1.441
6.171 0.594 2.600
1.498 2.909 1.117
1.606 2.796 1.311
1.945 2.945 1.279
2.073 2.832 1.459
2.119 2.488 1.599
2.493 2.451 1.701
1.600 3.094 1.010
1.778 3.182 1.107
1.898 3.024 1.335
2.327 2.951 1.201
2.302 2.774 1.416
2.431 2.641 1.561
1.541 3.310 1.086
1.775 3.202 1.095
2.127 3.303 1.363
2.393 3.139 1.394
2.489 3.011 1.184
2.649 2.762 1.438
1.930 3.594 0.851
1.952 3.579 1.139
2.085 3.384 1.119
2.414 3.383 1.044
2.498 3.045 1.362
4.931 2.398 1.904
5.025 2.139 1.931
5.180 2.146 1.963
2.141 3.701 1.048
2.203 3.714 0.904
2.525 3.591 1.052
4.803 2.494 1.795
4.965 2.471 1.691
5.041 2.299 1.681
5.479 2.331 1.820
5.711 2.051 2.021
4.774 2.757 1.461
4.912 2.652 1.777
4.909 2.596 1.739
5.186 2.561 1.613
5.485 2.530 1.873
5.619 2.169 2.060
6.047 2.033 2.102
4.582 3.173 1.443
4.700 2.912 1.455
4.967 2.822 1.545
5.369 2.760 1.630
5.348 2.735 1.606
5.765 2.546 1.596
5.908 2.333 1.977
6.064 2.284 1.727
4.552 3.053 1.271
4.562 3.448 1.365
5.015 3.150 1.431
5.157 3.182 1.444
5.240 2.875 1.533
5.484 2.833 1.602
5.701 2.810 1.525
5.910 2.644 1.888
6.154 2.727 1.979
4.364 3.382 1.426
4.625 3.421 1.285
5.008 3.490 1.123
5.140 3.404 1.457
5.122 3.423 1.317
5.596 3.087 1.385
5.742 3.212 1.663
5.997 3.133 1.637
6.069 2.832 1.710
4.433 3.827 1.113
4.751 3.637 1.357
4.775 3.534 1.360
4.825 3.637 1.156
5.133 3.649 1.360
5.525 3.396 1.338
5.434 3.327 1.440
5.777 3.412 1.316
5.840 3.199 1.447
4.211 4.208 1.070
4.628 4.093 1.099
4.867 3.771 1.311
4.961 3.854 1.365
5.032 3.874 0.988
5.319 3.957 1.251
5.346 3.673 1.186
5.730 3.615 1.217
4.116 4.486 0.842
4.352 4.488 1.003
4.429 4.273 0.843
4.820 4.103 0.844
4.829 3.886 0.966
4.939 3.794 1.087
5.278 4.018 1.141
5.402 4.168 1.092
5.690 3.946 1.358
4.122 4.789 0.656
4.332 4.739 0.631
4.456 4.455 0.797
4.733 4.453 0.717
4.985 4.324 1.000
5.183 4.379 1.022
5.143 4.217 0.947
5.399 4.175 1.070
5.655 4.072 1.216
3.997 4.963 0.447
4.203 4.979 0.548
4.450 4.987 0.725
4.699 4.718 0.851
4.845 4.751 0.740
5.104 4.622 0.974
5.224 4.277 1.051
5.395 4.220 0.945
5.331 4.413 0.925
4.009 5.377 0.437
4.396 5.091 0.380
4.506 5.217 0.492
4.834 4.957 0.539
4.819 4.708 0.647
4.938 4.737 0.686
5.425 4.624 0.883
5.330 4.575 1.014
0.698 0.522 2.198
1.018 0.234 2.238
1.138 0.351 2.560
1.524 0.061 2.547
1.619 -0.019 2.404
1.274 0.493 2.212
1.452 0.605 2.184
1.557 0.254 2.255
1.654 0.388 2.609
2.023 0.124 2.482
1.553 0.787 2.211
1.862 0.704 2.299
2.034 0.523 2.414
1.422 0.714 2.494
1.828 0.529 2.596
3.816 0.205 2.833
4.136 -0.028 2.951
4.003 0.488 3.009
4.091 0.449 2.814
4.447 0.319 3.090
4.512 -0.052 3.187
4.452 0.537 2.783
4.563 0.370 3.023
4.763 0.278 3.065
5.170 0.282 3.094
5.332 0.141 3.090
4.918 0.342 2.841
5.229 0.326 2.845
5.221 0.303 2.921
5.646 0.088 3.262
1.189 2.431 1.739
1.330 2.434 1.691
5.418 0.504 3.030
5.741 0.284 3.135
5.973 0.329 2.925
5.971 0.141 3.208
1.013 2.605 1.585
1.319 2.669 1.527
1.650 2.697 1.595
1.754 2.520 1.931
6.154 0.322 2.905
6.331 0.133 3.095
1.420 2.886 1.498
1.411 2.885 1.666
1.778 2.654 1.728
1.886 2.516 1.753
2.110 2.460 1.776
2.380 2.382 1.731
1.549 3.060 1.577
1.650 3.116 1.542
2.000 2.940 1.463
1.967 2.881 1.758
2.287 2.812 1.769
2.530 2.456 1.901
2.715 2.370 1.945
1.702 3.169 1.400
1.711 3.142 1.307
2.057 3.077 1.534
2.053 2.836 1.664
2.511 2.907 1.682
2.699 2.825 1.609
2.769 2.560 1.627
1.521 3.684 1.438
1.826 3.521 1.465
1.959 3.242 1.459
2.367 3.089 1.342
2.491 2.967 1.592
2.870 2.924 1.690
2.070 3.617 1.255
2.080 3.393 1.382
2.426 3.469 1.497
2.652 3.387 1.527
2.764 3.113 1.637
4.844 2.246 2.055
5.239 2.045 2.313
2.509 3.847 1.343
2.401 3.667 1.250
4.878 2.465 1.976
5.083 2.367 2.141
5.382 2.355 2.052
5.700 2.154 2.035
5.780 2.185 2.419
5.010 2.865 1.727
5.097 2.796 2.023
5.220 2.512 2.082
5.534 2.627 2.194
5.728 2.390 2.253
5.769 2.132 2.073
4.847 3.282 1.776
4.876 3.082 1.802
5.128 2.902 1.853
5.287 2.809 2.029
5.620 2.674 1.816
5.749 2.691 2.049
6.015 2.366 2.232
6.075 2.470 2.208
4.700 3.299 1.567
4.817 3.436 1.752
5.265 3.061 1.780
5.221 3.186 1.851
5.462 2.989 1.766
5.560 2.742 1.765
5.997 2.718 1.936
6.121 2.668 2.117
4.540 3.358 1.470
4.755 3.496 1.447
5.116 3.527 1.520
5.171 3.372 1.735
5.517 3.308 1.785
5.730 3.043 1.694
5.796 3.222 1.838
6.096 2.970 1.951
6.115 2.894 1.797
4.762 3.716 1.350
4.891 3.596 1.672
4.854 3.923 1.387
5.159 3.573 1.620
5.242 3.587 1.615
5.730 3.444 1.790
5.821 3.306 1.678
5.861 3.369 1.725
4.412 4.251 1.287
4.662 4.180 1.334
4.691 3.855 1.264
4.959 3.824 1.274
5.160 4.054 1.202
5.246 3.853 1.402
5.662 3.639 1.597
5.679 3.626 1.638
4.230 4.694 0.962
4.306 4.306 1.224
4.365 4.317 1.308
4.801 4.300 1.176
4.963 4.064 1.308
5.245 4.124 1.418
5.366 4.098 1.410
5.537 4.155 1.429
3.910 5.121 0.711
4.030 4.918 0.899
4.309 4.920 1.001
4.379 4.646 1.023
4.766 4.425 1.221
4.883 4.484 1.180
4.932 4.175 1.168
5.066 4.217 1.231
5.503 4.547 1.289
3.548 5.145 0.670
4.074 5.168 0.893
4.048 5.003 0.812
4.157 4.962 0.937
4.430 4.856 0.940
4.868 4.586 1.101
5.098 4.621 0.977
5.266 4.533 1.149
5.452 4.325 1.334
3.914 5.452 0.702
3.987 5.463 0.796
4.287 5.114 0.772
4.551 5.272 0.857
4.705 5.105 0.954
4.950 4.989 0.983
5.041 4.776 0.948
5.099 4.851 1.177
0.738 0.520 2.377
0.960 0.594 2.411
1.121 0.422 2.565
1.316 0.185 2.789
1.582 0.132 2.600
1.753 0.088 2.742
0.833 0.829 2.295
1.101 0.569 2.665
1.401 0.597 2.624
1.528 0.296 2.558
1.638 0.304 2.580
1.354 0.653 2.505
1.716 0.761 2.395
3.741 0.045 3.382
3.601 0.298 2.942
3.935 0.248 3.223
4.082 0.104 3.227
4.250 0.156 3.139
3.729 0.571 2.936
4.052 0.450 3.190
4.367 0.497 3.159
4.408 0.400 3.171
4.807 0.181 3.103
4.712 0.176 3.349
4.033 0.706 3.143
4.211 0.502 2.929
4.595 0.350 3.033
4.879 0.506 3.235
5.005 0.365 3.311
5.298 0.241 3.480
5.487 0.128 3.473
4.690 0.780 3.100
5.067 0.431 3.276
4.986 0.499 3.148
5.165 0.386 3.293
5.593 0.191 3.477
5.616 0.100 3.243
1.120 2.592 2.026
5.530 0.428 3.369
5.700 0.134 3.414
6.058 0.260 3.289
6.353 0.147 3.595
0.993 2.787 1.928
1.316 2.599 1.935
1.601 2.471 2.014
1.739 2.569 2.166
1.866 2.453 2.123
6.179 0.370 3.328
1.262 3.068 1.716
1.378 2.969 1.708
1.851 2.711 1.835
1.886 2.735 2.035
2.127 2.646 2.060
2.429 2.420 1.959
2.553 2.385 2.090
1.377 3.218 1.583
1.494 3.045 1.844
1.903 2.864 1.770
1.992 2.801 1.802
2.184 2.852 1.968
2.299 2.755 1.923
2.632 2.505 2.204
2.952 2.366 2.139
1.618 3.421 1.578
1.798 3.418 1.562
2.005 3.339 1.863
2.290 2.951 1.807
2.210 2.928 1.952
2.486 2.772 1.918
2.621 2.770 2.148
3.005 2.751 2.007
1.831 3.540 1.545
2.119 3.426 1.619
2.379 3.419 1.788
2.639 3.029 1.903
2.678 2.940 1.737
2.761 2.816 1.811
2.312 3.477 1.475
2.342 3.403 1.717
2.740 3.361 1.763
2.844 3.143 1.913
5.132 2.415 2.244
5.213 2.495 2.207
5.455 2.141 2.488
5.840 2.206 2.372
5.154 2.925 2.065
5.076 2.652 2.310
5.388 2.594 2.171
5.530 2.573 2.295
6.018 2.224 2.457
5.891 2.429 2.482
5.129 3.254 1.954
5.190 3.177 2.012
5.463 3.060 1.976
5.516 2.943 2.271
5.662 2.820 2.111
5.920 2.467 2.176
6.357 2.451 2.391
4.828 3.417 1.724
5.187 3.371 1.941
5.448 3.277 1.835
5.396 2.927 1.953
5.797 2.889 2.281
6.043 2.885 2.102
6.092 2.726 2.168
4.971 3.689 1.865
5.035 3.450 1.622
5.068 3.425 1.814
5.289 3.554 1.820
5.555 3.432 2.030
5.930 3.268 2.153
6.110 2.998 2.050
6.247 2.980 2.243
4.657 3.818 1.588
4.820 3.957 1.769
5.039 3.761 1.767
5.230 3.666 1.875
5.502 3.546 1.721
5.665 3.458 1.748
5.829 3.250 1.843
6.248 3.088 1.876
4.698 4.184 1.367
4.791 4.028 1.702
5.032 3.857 1.746
4.985 4.193 1.475
5.335 4.134 1.788
5.406 4.036 1.582
3.675 4.815 1.311
4.216 4.618 1.219
4.104 4.407 1.358
4.580 4.308 1.397
4.800 4.344 1.347
5.015 4.194 1.434
5.071 4.115 1.428
5.278 4.339 1.345
3.641 5.299 0.811
3.625 5.223 0.995
4.077 5.135 1.189
4.153 4.772 1.041
4.296 4.617 1.274
4.581 4.612 1.303
4.698 4.360 1.327
4.901 4.303 1.540
5.125 4.438 1.525
3.604 5.360 0.997
3.753 5.426 1.065
4.021 5.414 0.811
4.074 5.315 1.050
4.213 5.082 0.965
4.429 4.871 1.005
4.782 4.744 1.147
4.949 4.573 1.399
5.007 4.544 1.239
3.487 5.844 0.721
3.917 5.631 0.699
3.964 5.535 0.863
4.204 5.407 1.036
4.551 5.387 1.099
4.733 5.052 1.185
4.763 4.860 1.029
5.174 4.987 1.265
0.737 0.871 2.580
0.969 0.732 2.856
1.120 0.417 2.888
1.128 0.369 2.985
1.316 0.230 2.984
1.687 0.285 3.090
0.902 0.991 2.680
1.300 0.629 2.711
1.434 0.620 2.723
1.592 0.413 2.919
3.496 -0.071 3.378
3.624 0.352 3.445
3.651 0.172 3.362
3.835 0.246 3.472
3.534 0.534 3.133
3.799 0.382 3.454
3.885 0.392 3.206
4.115 0.335 3.401
4.333 0.030 3.432
4.380 0.074 3.641
3.560 0.757 3.265
3.604 0.695 3.256
3.948 0.667 3.108
3.864 0.515 3.251
4.253 0.556 3.328
4.468 0.420 3.329
4.545 0.150 3.539
4.759 0.221 3.653
5.006 0.046 3.689
3.669 1.011 2.998
3.906 1.020 2.958
3.803 0.930 3.234
4.181 0.811 3.237
4.388 0.587 3.321
4.640 0.604 3.507
4.775 0.494 3.328
5.095 0.491 3.562
5.001 0.254 3.527
5.230 0.207 3.626
3.997 0.936 2.957
4.115 1.112 3.137
4.570 0.913 3.062
4.680 0.852 3.422
4.751 0.628 3.353
5.195 0.363 3.451
1.664 2.836 2.045
1.876 2.644 2.259
1.799 2.613 2.288
2.122 2.468 2.403
2.260 2.315 2.408
2.594 2.247 2.560
1.231 3.192 1.840
1.559 3.118 2.029
1.805 2.979 2.081
2.031 2.960 2.059
2.024 2.524 2.266
2.268 2.715 2.295
2.322 2.342 2.315
2.843 2.207 2.513
2.910 2.297 2.420
2.973 2.132 2.587
1.413 3.489 1.885
1.705 3.160 1.870
1.647 3.276 1.860
2.021 3.130 1.960
2.065 2.761 2.056
2.307 2.925 2.301
2.541 2.828 2.176
2.795 2.571 2.225
3.121 2.334 2.359
3.148 2.433 2.361
1.641 3.350 1.801
2.035 3.359 2.041
2.223 3.053 2.069
2.427 3.161 2.154
2.423 2.799 2.173
2.861 2.876 2.200
2.969 2.767 2.429
3.034 2.687 2.443
2.116 3.495 1.739
2.382 3.267 1.883
2.303 3.136 1.934
2.762 3.261 1.894
2.775 3.166 2.059
3.030 3.084 2.176
2.355 3.450 1.852
2.722 3.567 1.775
2.937 3.190 2.056
3.028 3.146 2.037
5.190 2.518 2.415
5.525 2.322 2.681
5.698 2.215 2.582
5.906 2.129 2.845
5.238 2.743 2.476
5.546 2.854 2.338
5.696 2.660 2.543
5.701 2.369 2.522
5.971 2.441 2.786
6.332 2.354 2.803
4.990 2.973 2.132
5.347 2.930 2.278
5.508 3.052 2.355
5.682 2.764 2.449
5.887 2.528 2.465
6.241 2.416 2.745
5.006 3.297 2.226
5.246 3.356 2.105
5.545 3.265 2.196
5.614 2.939 2.497
6.041 2.974 2.403
6.205 2.939 2.493
5.276 3.651 2.242
5.540 3.583 2.293
5.614 3.250 2.290
5.669 3.324 2.220
6.174 2.997 2.474
6.087 3.190 2.424
5.897 3.707 2.149
5.956 3.585 2.254
6.018 3.489 2.418
3.072 5.215 1.095
3.473 5.022 1.377
3.615 4.959 1.215
3.721 4.915 1.522
4.061 4.865 1.559
4.305 4.727 1.394
2.989 5.681 1.063
3.266 5.676 0.912
3.192 5.500 1.084
3.570 5.304 1.370
3.581 5.041 1.374
4.073 5.200 1.489
4.099 4.838 1.383
4.490 4.758 1.387
4.608 4.861 1.496
4.691 4.607 1.618
3.132 5.682 0.883
3.146 5.833 1.059
3.362 5.760 1.156
3.767 5.373 1.168
3.812 5.228 1.024
4.149 5.300 1.399
4.452 4.987 1.312
4.449 5.140 1.536
4.678 4.820 1.478
4.844 4.914 1.590
3.323 6.058 0.763
3.457 5.883 0.851
3.957 5.768 0.975
4.119 5.413 1.069
4.151 5.572 1.306
4.461 5.402 1.159
4.466 5.253 1.190
4.759 5.150 1.284
0.326 0.854 2.782
0.599 0.992 2.828
0.966 0.793 3.085
1.050 0.636 3.008
1.194 0.498 2.957
1.463 0.421 3.250
0.585 1.240 2.677
1.079 0.891 2.804
1.294 0.784 2.961
1.255 0.765 3.067
-0.026 0.022 3.290
0.190 -0.056 3.147
-0.120 0.345 3.071
0.272 0.385 3.128
0.442 0.288 3.112
0.626 0.246 3.140
0.117 0.703 3.117
0.320 0.582 3.099
0.596 0.468 2.990
0.688 0.425 3.237
0.861 0.109 3.071
1.021 0.185 3.307
0.174 0.799 2.904
0.159 0.922 2.809
0.359 0.830 2.928
0.645 0.607 3.036
0.861 0.614 3.088
1.066 0.410 3.036
1.301 0.109 3.341
1.550 0.029 3.254
-0.013 0.233 3.483
0.255 0.046 3.353
0.139 0.341 3.273
0.305 0.186 3.225
0.484 0.081 3.395
0.688 0.035 3.449
0.266 0.631 3.189
0.421 0.616 3.359
0.571 0.331 3.326
0.886 0.301 3.454
1.102 0.188 3.378
1.209 0.141 3.494
-0.120 1.185 3.091
0.250 1.063 3.111
0.377 0.936 3.230
0.795 0.747 3.160
1.022 0.671 3.281
1.094 0.494 3.412
1.270 0.504 3.535
-0.001 0.182 3.774
0.110 0.398 3.629
0.372 0.545 3.714
0.590 0.157 3.757
0.234 0.898 3.441
0.311 0.587 3.379
0.380 0.595 3.604
0.878 0.502 3.592
1.021 0.257 3.737
0.008 0.963 3.167
0.187 0.881 3.357
0.441 0.917 3.499
0.512 0.753 3.473
0.919 0.500 3.633
1.080 0.637 3.662
-0.038 0.360 3.868
0.236 0.499 3.775
0.424 0.350 3.832
0.167 0.961 3.793
0.443 0.904 3.834
0.393 0.563 3.750
0.831 0.474 3.983
0.072 1.218 3.532
0.254 0.992 3.530
0.314 1.079 3.787
0.500 0.732 3.782
0.863 0.887 3.687
0.150 0.665 4.100
-0.047 1.070 3.744
0.171 0.879 3.802
0.625 0.788 3.836
0.166 1.306 3.649
0.491 1.058 3.825
0.541 0.966 3.866
0.077 1.271 4.178
0.374 1.017 4.291
0.034 1.415 3.991
0.372 1.289 4.064
0.708 1.205 4.243
-0.046 1.217 4.378
2.391 0.071 4.829
2.458 -0.044 5.003
0.201 1.480 4.291
0.384 1.194 4.201
1.583 0.177 5.150
1.576 0.221 5.240
1.708 0.351 5.143
1.918 0.090 5.209
2.305 0.113 5.274
1.879 0.261 5.068
2.161 0.525 4.934
2.521 0.348 5.290
2.720 0.037 5.362
2.859 0.183 5.129
0.174 1.642 4.503
0.551 0.161 5.468
0.713 0.095 5.479
0.901 0.164 5.510
1.456 -0.067 5.344
1.314 0.187 5.205
1.424 0.187 5.391
1.642 0.149 5.322
1.840 0.202 5.389
2.061 0.208 5.392
1.497 0.296 5.198
1.799 0.334 5.366
1.785 0.553 5.382
2.105 0.361 5.287
2.177 0.256 5.395
2.376 0.139 5.587
1.672 0.399 5.201
1.906 0.621 5.129
2.075 0.592 5.190
2.523 0.310 5.337
2.510 0.262 5.600
2.610 0.212 5.674
3.092 0.111 5.548
2.017 0.573 5.223
0.231 0.205 5.686
0.241 0.313 5.363
0.377 0.267 5.591
0.634 -0.046 5.539
0.775 0.248 5.493
0.786 0.348 5.502
1.131 0.202 5.511
1.148 0.149 5.653
1.717 0.220 5.547
0.950 0.386 5.521
0.982 0.320 5.671
1.248 0.093 5.659
1.410 0.078 5.717
1.579 0.176 5.742
2.009 0.163 5.547
2.181 -0.007 5.764
1.389 0.611 5.378
1.370 0.495 5.472
1.530 0.359 5.505
1.914 0.385 5.591
2.018 0.282 5.554
2.176 0.192 5.838
2.547 0.007 5.697
2.727 0.046 5.962
1.590 0.744 5.443
1.948 0.488 5.523
1.951 0.649 5.518
2.133 0.509 5.430
2.371 0.318 5.643
2.660 0.276 5.628
2.772 0.384 5.854
2.847 0.012 5.891
3.299 -0.111 6.023
1.835 0.739 5.522
-0.011 0.035 5.647
0.310 0.069 5.820
0.073 0.338 5.600
0.249 0.445 5.880
0.568 0.284 5.899
0.780 0.081 5.846
0.826 0.003 5.878
1.455 0.012 6.045
0.448 0.401 5.664
0.651 0.613 5.811
0.927 0.342 5.687
0.913 0.275 5.990
1.342 0.156 6.003
1.464 0.104 6.089
1.459 0.270 5.771
1.878 0.148 5.855
0.871 0.473 5.695
0.971 0.256 5.767
1.287 0.246 5.894
1.550 0.342 6.016
1.612 0.480 6.001
1.760 0.348 5.889
2.134 0.036 5.846
2.361 0.146 5.928
1.162 0.544 5.824
1.341 0.645 5.601
1.761 0.291 5.761
1.832 0.692 5.862
2.024 0.572 5.767
2.035 0.192 5.820
2.360 0.110 5.977
2.737 0.249 5.942
2.766 -0.084 5.993
1.471 0.835 5.783
1.677 0.449 5.906
1.968 0.779 5.716
2.000 0.596 5.739
2.388 0.710 5.662
2.390 0.499 5.973
2.850 0.225 6.001
2.933 0.171 5.935
3.162 0.228 6.232
2.046 0.855 5.642
0.153 0.167 6.061
0.376 0.217 5.972
0.388 -0.077 6.017
-0.068 0.426 5.858
0.349 0.409 6.114
0.291 0.287 5.963
0.696 0.305 5.949
0.689 0.159 6.170
0.993 -0.087 6.119
1.343 0.150 6.180
0.284 0.786 6.032
0.622 0.710 5.923
0.920 0.555 5.938
0.881 0.288 6.187
1.286 0.293 6.059
1.496 0.241 6.207
1.548 0.226 6.196
1.823 0.081 6.168
1.818 -0.075 6.244
0.809 0.689 6.059
1.122 0.453 6.121
1.177 0.312 5.907
1.633 0.162 5.961
1.744 0.581 6.010
1.997 0.363 6.064
2.097 0.102 6.318
2.279 0.198 6.208
1.424 0.460 5.862
1.653 0.515 6.176
1.913 0.762 6.066
1.819 0.684 6.032
2.017 0.619 6.248
2.474 0.378 6.201
2.677 0.172 6.222
1.771 0.769 5.958
2.189 0.760 5.958
2.339 0.612 5.966
2.573 0.571 6.123
2.566 0.487 6.333
2.974 0.232 6.114
0.266 0.448 6.136
0.154 0.563 6.159
0.308 0.471 6.228
0.322 0.353 6.145
0.162 0.716 5.958
0.397 0.764 5.966
0.561 0.715 5.998
0.875 0.496 6.332
1.121 0.635 6.383
1.464 0.743 6.195
1.552 0.417 6.258
1.811 0.554 6.101
2.221 0.655 6.273
0.018 1.046 6.176
0.891 0.197 2.070
0.442 0.180 2.551
0.644 0.237 2.491
0.876 0.278 2.376
1.021 0.052 2.607
0.418 0.013 2.592
0.483 0.180 2.665
0.423 0.111 2.775
0.928 0.101 2.659
0.414 0.581 2.367
0.868 0.258 2.620
1.065 0.442 2.735
1.017 0.206 2.743
1.214 0.087 2.756
0.178 0.236 2.885
0.592 0.069 3.053
0.148 0.439 2.598
0.285 0.274 2.768
0.697 0.190 2.724
0.851 0.044 3.047
1.138 -0.050 2.979
0.198 0.796 2.605
0.459 0.732 2.773
0.679 0.380 2.914
1.036 0.225 2.905
1.111 0.342 2.984
1.185 0.009 2.921
1.674 0.066 3.228
0.116 -0.031 3.163
0.385 -0.119 3.198
-0.083 0.419 3.153
0.281 0.160 3.046
0.277 0.083 3.250
0.660 0.075 3.274
0.047 0.528 3.054
0.257 0.628 3.062
0.573 0.458 3.171
0.638 0.179 3.326
0.842 0.208 3.196
1.197 0.171 3.387
0.165 1.069 2.789
0.205 0.857 2.770
0.442 0.740 3.014
0.819 0.434 2.876
1.006 0.548 3.030
1.222 0.268 3.073
1.398 0.142 3.319
1.372 0.090 3.328
6.247 -0.144 0.001
4.376 0.072 0.183
4.527 0.235 -0.065
4.447 0.250 -0.071
4.882 0.075 0.019
4.760 0.318 -0.035
5.070 0.341 -0.023
5.416 0.035 0.159
5.395 0.394 0.061
5.459 0.317 -0.005
5.485 0.187 0.230
5.687 0.103 0.408
5.728 0.445 0.054
5.824 0.337 -0.018
6.120 0.358 0.198
5.750 0.563 0.021
0.190 3.032 1.766
0.125 5.286 0.972
0.290 5.336 1.088
0.609 5.055 0.956
0.210 5.461 0.895
0.276 5.552 0.725
0.414 5.209 0.822
0.698 5.273 1.014
0.858 5.155 1.112
0.030 5.929 0.770
0.201 5.902 0.879
0.425 5.555 0.780
0.546 5.530 0.723
0.778 5.474 0.858
1.215 5.277 1.079
1.425 5.392 0.983
0.037 6.114 0.613
0.516 6.125 0.801
0.432 6.023 0.839
0.786 5.908 0.903
1.099 5.695 0.819
1.039 5.538 1.057
1.434 5.420 0.892
1.537 5.217 0.878
0.264 6.408 0.628
0.354 6.177 0.443
0.643 5.977 0.675
0.954 5.836 0.558
1.061 5.879 0.888
1.195 5.685 0.778
1.391 5.569 0.735
1.752 5.540 0.987
0.721 6.256 0.659
0.949 6.013 0.763
1.119 5.862 0.597
1.369 5.897 0.821
0.073 5.333 1.125
0.543 5.123 1.334
0.629 5.036 1.411
0.729 5.004 1.315
0.154 5.700 0.879
0.238 5.433 1.041
0.427 5.613 1.028
0.855 5.320 1.194
1.089 5.237 1.365
1.064 5.137 1.416
0.114 5.956 0.926
0.298 5.892 0.845
0.411 5.799 0.894
0.573 5.790 1.106
0.751 5.686 0.966
1.040 5.410 1.045
1.349 5.335 1.226
1.362 5.273 1.297
0.236 6.328 0.652
0.280 6.076 0.915
0.414 6.124 0.877
0.644 5.766 1.004
1.138 5.887 1.004
1.093 5.757 1.185
1.495 5.489 1.047
1.646 5.515 1.349
1.940 5.436 1.396
0.456 6.274 0.910
0.648 6.221 0.986
1.053 5.896 0.831
1.248 6.066 1.076
1.174 5.742 1.182
1.400 5.702 1.264
1.554 5.491 1.312
1.997 5.515 1.394
2.208 5.299 1.257
0.977 6.070 0.878
1.333 6.255 0.949
1.354 6.041 0.911
1.719 5.854 0.973
1.693 5.662 1.142
1.890 5.759 1.116
2.236 5.584 1.197
2.446 5.429 1.309
1.977 5.884 1.085
2.088 5.713 1.019
2.470 5.701 1.046
2.666 5.547 1.251
2.553 6.030 0.994
2.568 5.843 1.078
2.687 5.962 0.929
0.500 5.066 1.677
0.693 5.025 1.587
0.278 5.398 1.252
0.390 5.292 1.422
0.412 5.095 1.333
0.664 5.144 1.441
0.904 5.109 1.481
0.389 5.627 1.145
0.355 5.649 1.305
0.678 5.426 1.452
0.738 5.375 1.656
1.000 5.063 1.407
1.269 5.017 1.697
0.280 5.974 1.217
0.296 5.736 1.093
0.720 5.848 1.319
0.762 5.789 1.255
1.177 5.423 1.316
1.291 5.519 1.336
1.490 5.342 1.565
1.699 5.125 1.470
0.215 6.090 1.123
0.628 5.975 1.273
0.738 5.818 1.310
1.006 5.857 1.371
1.160 5.799 1.272
1.441 5.563 1.440
1.570 5.579 1.416
1.731 5.529 1.378
1.898 5.308 1.613
0.817 6.399 0.932
0.783 6.263 1.043
1.025 6.060 1.212
1.200 5.846 1.133
1.340 5.722 1.482
1.699 5.658 1.532
2.051 5.458 1.364
2.212 5.334 1.612
2.274 5.475 1.642
1.224 6.134 1.276
1.265 6.050 1.316
1.587 5.852 1.359
1.811 5.929 1.257
2.049 5.779 1.432
2.377 5.550 1.457
2.583 5.558 1.417
1.814 6.227 1.165
2.032 6.040 1.420
2.093 6.022 1.459
2.356 5.741 1.445
2.515 5.903 1.505
2.130 6.109 1.137
2.545 5.919 1.305
2.789 5.837 1.348
2.709 6.232 1.086
2.778 6.043 1.263
0.439 5.109 1.834
0.773 5.215 1.813
0.978 4.921 1.996
0.249 5.522 1.799
0.569 5.426 1.606
0.608 5.177 1.850
0.857 5.274 1.793
1.208 4.958 1.878
0.252 5.907 1.511
0.314 5.720 1.451
0.826 5.564 1.549
0.973 5.422 1.783
1.001 5.423 1.885
1.220 5.105 1.685
1.544 5.235 1.953
0.273 6.092 1.384
0.612 5.693 1.624
0.707 5.871 1.486
0.850 5.542 1.771
1.094 5.645 1.756
1.473 5.316 1.715
1.661 5.259 1.995
1.930 5.239 2.005
0.421 6.173 1.212
0.753 5.901 1.526
0.851 5.949 1.525
1.027 5.681 1.423
1.253 5.793 1.501
1.551 5.527 1.820
1.802 5.566 1.929
1.800 5.339 1.936
2.135 5.299 1.914
0.825 6.176 1.416
1.015 6.121 1.551
1.147 6.024 1.373
1.579 5.776 1.450
1.742 5.662 1.603
2.011 5.645 1.553
2.222 5.453 1.716
2.415 5.590 1.791
1.330 6.298 1.372
1.499 6.019 1.342
1.941 5.945 1.700
1.975 5.933 1.722
2.270 5.639 1.716
2.378 5.545 1.891
1.805 6.016 1.490
2.129 6.183 1.394
2.201 5.932 1.643
2.581 5.712 1.618
2.234 6.269 1.352
2.398 6.253 1.588
2.761 5.865 1.768
2.710 6.133 1.496
0.508 4.977 2.226
0.813 4.734 2.281
0.296 5.342 2.113
0.410 5.206 2.077
0.679 5.239 2.093
0.780 4.942 2.035
0.855 4.935 2.139
0.275 5.548 1.958
0.599 5.609 1.837
0.688 5.292 1.865
1.076 5.180 2.216
1.216 5.219 2.270
1.391 4.852 2.318
0.378 5.886 1.818
0.715 5.776 1.946
0.858 5.546 1.886
1.025 5.485 1.892
1.263 5.366 2.022
1.377 5.258 2.204
1.535 5.231 2.295
0.754 6.014 1.867
0.714 5.763 1.850
1.056 5.716 1.991
1.283 5.780 2.063
1.378 5.424 1.953
1.690 5.265 2.222
1.657 5.276 2.131
0.870 6.150 1.606
1.070 5.895 1.774
1.210 6.041 1.787
1.331 5.643 1.835
1.384 5.827 2.046
1.830 5.753 1.879
1.809 5.408 1.953
2.272 5.476 2.143
0.953 6.128 1.815
1.304 6.135 1.760
1.533 5.847 1.811
1.815 6.019 1.899
1.806 5.660 1.947
2.211 5.592 1.954
2.333 5.406 2.008
1.437 6.229 1.751
1.895 5.923 1.734
2.012 6.113 2.002
2.044 5.692 1.773
2.424 5.737 2.100
1.987 6.398 1.654
2.170 6.081 1.664
2.383 6.140 1.771
2.406 6.037 2.021
2.468 6.329 1.706
2.761 6.283 1.672
0.301 5.010 2.542
0.549 4.688 2.429
0.353 5.266 2.234
0.312 5.001 2.292
0.501 4.923 2.493
0.984 4.885 2.443
0.258 5.554 2.136
0.437 5.332 2.359
0.459 5.104 2.318
0.824 5.004 2.531
1.099 5.177 2.446
1.228 4.848 2.493
0.400 5.646 1.999
0.427 5.524 2.225
0.864 5.361 2.265
0.979 5.396 2.318
1.080 5.290 2.460
1.444 4.980 2.570
0.322 5.816 2.152
0.595 5.606 2.195
0.829 5.557 2.061
1.148 5.449 2.140
1.211 5.450 2.336
1.618 5.388 2.450
1.531 5.217 2.248
0.600 5.910 2.037
0.833 5.905 2.172
1.027 5.894 1.918
1.216 5.610 2.169
1.512 5.558 2.198
1.729 5.420 2.238
1.767 5.501 2.363
0.882 6.055 1.881
1.238 6.172 1.845
1.362 5.978 2.109
1.593 5.882 2.220
1.703 5.789 2.182
2.030 5.665 2.398
1.265 6.341 1.957
1.298 5.935 2.018
1.809 5.956 2.216
1.917 5.791 1.964
1.935 5.736 2.222
2.187 5.589 2.282
1.913 6.020 2.018
2.027 5.928 2.160
2.287 5.829 2.051
2.222 5.895 2.174
1.980 6.250 2.103
2.158 6.043 2.120
2.540 6.049 2.008
2.702 6.135 2.054
0.108 2.371 3.815
0.153 2.550 3.517
0.049 4.846 2.821
0.332 4.577 2.863
0.572 4.596 3.042
0.023 5.166 2.691
0.465 4.896 2.787
0.688 4.979 2.577
0.729 4.697 2.642
0.816 4.487 2.785
0.312 5.265 2.590
0.439 5.084 2.474
0.763 5.146 2.500
0.956 5.071 2.758
1.081 4.959 2.788
0.257 5.608 2.539
0.529 5.329 2.556
0.522 5.408 2.361
0.793 5.136 2.601
1.091 5.169 2.721
1.217 5.133 2.673
0.373 5.731 2.214
0.625 5.532 2.479
0.769 5.555 2.581
0.749 5.394 2.583
1.108 5.431 2.657
1.396 5.306 2.505
0.617 5.723 2.358
0.674 5.761 2.499
1.002 5.636 2.341
1.376 5.487 2.358
1.400 5.557 2.406
0.822 6.090 2.199
0.939 5.924 2.302
1.075 5.805 2.326
1.508 5.854 2.289
1.472 5.487 2.608
0.926 6.124 2.139
1.359 5.852 2.410
1.635 5.956 2.424
1.617 5.784 2.460
1.823 5.666 2.563
1.298 6.322 2.119
1.635 5.944 2.388
1.939 6.063 2.328
2.136 6.016 2.288
2.073 6.098 2.310
2.152 6.166 2.321
2.203 6.330 2.377
2.510 6.240 2.223
-0.077 2.518 3.892
0.200 2.765 3.954
0.435 3.114 3.858
0.185 3.392 3.594
0.352 3.058 3.620
0.339 3.320 3.427
0.613 3.273 3.722
0.448 3.542 3.487
0.550 3.534 3.703
0.563 3.838 3.384
0.715 3.953 3.383
0.277 4.385 3.249
0.349 4.345 3.240
0.402 4.092 3.148
0.593 4.180 3.439
0.025 4.633 3.127
0.247 4.421 2.990
0.539 4.285 3.138
0.553 4.211 3.138
1.029 4.160 3.450
0.057 4.895 2.978
0.273 4.654 3.173
0.681 4.626 3.017
0.621 4.656 3.124
-0.004 5.300 2.967
0.346 4.955 3.025
0.340 4.831 3.098
0.669 4.914 3.150
0.862 4.682 3.010
0.116 5.510 2.831
0.168 5.211 2.650
0.302 5.315 2.826
0.608 5.109 3.045
0.974 5.129 2.928
1.082 4.953 2.937
0.159 5.595 2.692
0.506 5.516 2.733
0.642 5.368 2.884
0.880 5.185 2.698
0.845 5.082 2.717
1.113 5.046 3.055
0.482 5.666 2.533
0.561 5.632 2.814
0.947 5.601 2.800
1.235 5.452 2.710
1.227 5.232 3.006
0.645 6.057 2.642
0.679 5.829 2.560
0.980 5.545 2.558
1.168 5.539 2.703
1.349 5.566 2.705
0.923 6.024 2.606
1.274 5.919 2.558
1.385 5.792 2.546
0.111 2.567 4.329
0.234 2.958 4.038
0.155 3.078 3.943
0.309 3.190 4.177
0.298 3.216 4.001
0.543 3.188 4.037
0.239 3.569 3.866
0.468 3.551 3.831
0.405 3.509 3.755
0.168 4.048 3.696
0.295 3.940 3.695
0.372 3.917 3.680
0.610 3.804 3.697
0.080 4.331 3.454
0.337 3.970 3.668
0.485 3.959 3.595
0.828 3.877 3.770
0.085 4.429 3.437
0.412 4.435 3.452
0.650 4.151 3.608
0.577 4.208 3.712
0.842 4.012 3.554
-0.123 4.863 3.427
0.289 4.660 3.201
0.600 4.634 3.517
0.515 4.354 3.428
0.847 4.158 3.616
0.214 5.000 3.275
0.222 4.782 3.416
0.582 4.602 3.406
0.685 4.596 3.422
1.088 4.501 3.298
0.127 5.137 3.212
0.273 5.211 3.193
0.650 5.191 3.033
0.684 5.057 3.329
0.835 4.711 3.169
1.123 4.754 3.317
0.137 5.688 2.743
0.243 5.419 2.818
0.402 5.464 3.120
0.521 5.253 3.091
0.965 5.073 3.030
0.902 4.931 3.321
0.277 5.879 2.780
0.228 5.765 2.884
0.574 5.469 2.995
0.750 5.445 2.897
0.949 5.378 3.160
1.253 5.139 3.020
0.438 5.868 2.903
0.824 5.704 2.807
0.751 5.593 2.811
0.989 5.453 3.146
0.793 5.988 2.949
0.924 5.839 2.758
-0.126 2.630 4.400
0.238 3.039 4.441
0.102 3.401 4.113
0.286 3.316 4.218
0.149 3.430 4.003
0.331 3.227 4.285
0.116 3.843 4.085
0.384 3.510 3.897
0.385 3.402 4.048
0.119 4.065 3.689
0.106 3.996 3.748
0.373 3.786 3.989
0.706 3.588 3.897
-0.002 4.097 3.620
0.359 4.272 3.950
0.430 4.192 3.957
0.636 3.879 3.901
0.232 4.427 3.472
0.227 4.521 3.790
0.326 4.273 3.620
0.854 4.176 3.970
0.831 3.959 3.991
-0.121 4.986 3.401
0.247 4.831 3.645
0.412 4.690 3.522
0.786 4.606 3.547
0.763 4.260 3.652
0.912 4.141 3.748
0.070 4.995 3.293
0.271 5.043 3.492
0.472 4.749 3.506
0.823 4.715 3.490
1.073 4.698 3.550
0.074 5.529 3.197
0.278 5.214 3.365
0.368 4.994 3.320
0.595 5.156 3.464
0.882 4.749 3.582
1.204 4.811 3.562
0.214 5.715 3.216
0.311 5.396 3.311
0.691 5.176 3.283
0.705 5.125 3.391
1.052 5.078 3.598
0.230 5.793 2.982
0.355 5.878 3.205
0.416 5.720 3.176
0.800 5.427 3.143
1.029 5.466 3.461
0.510 5.785 3.159
0.888 5.674 3.179
0.129 3.034 4.540
0.128 3.207 4.530
0.323 3.322 4.439
0.311 3.693 4.479
0.286 3.399 4.540
0.223 3.981 4.183
0.434 3.721 4.095
0.434 3.774 4.478
0.032 4.067 3.885
0.320 3.930 4.032
0.471 4.043 4.017
0.613 3.740 4.411
0.178 4.281 3.873
0.500 4.317 4.100
0.507 4.171 4.100
0.690 3.860 4.320
0.094 4.552 3.792
0.410 4.558 4.063
0.538 4.428 3.890
0.751 4.404 4.001
0.819 4.132 4.089
0.201 4.872 3.654
0.564 4.601 3.836
0.543 4.628 3.774
0.814 4.658 4.028
1.040 4.307 4.114
-0.028 5.279 3.752
0.421 5.015 3.838
0.664 4.809 3.899
0.700 4.786 3.800
1.066 4.836 3.888
0.182 5.500 3.636
0.081 5.508 3.421
0.484 5.385 3.692
0.656 5.202 3.596
0.915 4.864 3.735
0.193 5.768 3.347
0.224 5.399 3.556
0.570 5.374 3.677
0.806 5.264 3.488
0.379 5.739 3.419
0.388 5.720 3.486
0.727 5.466 3.512
0.361 3.286 4.763
0.037 3.584 4.649
0.372 3.496 4.705
0.194 4.112 4.356
0.381 3.891 4.309
0.640 3.762 4.554
0.264 4.122 4.397
0.266 3.931 4.234
0.722 3.899 4.501
0.148 4.438 4.146
0.470 4.497 4.194
0.491 4.276 4.383
0.687 4.290 4.480
-0.033 4.715 4.192
0.284 4.762 4.047
0.614 4.669 4.257
0.700 4.393 4.410
0.781 4.198 4.262
0.307 4.942 3.832
0.289 4.752 3.980
0.485 4.614 4.152
0.936 4.622 4.185
0.094 5.224 3.787
0.285 4.998 3.922
0.665 5.078 4.041
0.797 4.978 3.972
0.125 5.407 3.796
0.294 5.332 3.939
0.562 5.433 3.847
0.764 5.182 4.043
0.170 5.656 3.544
0.389 5.708 3.663
0.418 5.443 3.798
0.244 6.087 3.715
0.349 5.922 3.457
0.216 3.796 4.797
0.133 4.013 4.803
0.331 3.936 4.881
0.266 4.257 4.456
0.330 4.219 4.732
0.489 4.054 4.790
-0.036 4.443 4.490
0.326 4.430 4.402
0.519 4.378 4.505
0.770 4.329 4.753
0.169 4.875 4.375
0.167 4.632 4.491
0.581 4.536 4.272
0.535 4.639 4.471
0.239 5.020 4.130
0.372 4.937 4.376
0.734 4.876 4.218
-0.009 5.212 4.141
0.286 5.165 4.065
0.429 5.134 4.163
-0.128 5.564 3.871
0.335 5.403 3.894
0.398 5.566 4.094
0.037 5.779 3.839
0.464 5.569 3.807
-0.010 4.973 4.379
0.331 4.877 4.418
0.109 5.068 4.590
0.241 5.006 4.599
-0.074 5.317 4.458
0.112 5.352 4.336
0.285 5.553 4.161
0.184 5.847 4.223
0.136 1.576 0.682
1.674 3.239 0.147
1.754 3.354 -0.073
0.180 1.915 0.754
0.083 2.370 0.684
0.349 2.093 0.567
0.427 2.114 0.874
0.071 2.392 0.492
0.454 2.460 0.738
0.557 2.338 0.819
0.646 2.463 0.729
0.840 2.445 0.591
0.831 2.540 0.570
1.007 2.505 0.539
0.911 2.698 0.375
1.305 2.725 0.579
1.205 2.951 0.385
1.323 2.801 0.517
1.565 2.959 0.253
1.388 3.306 0.204
1.543 3.461 0.229
1.733 3.502 0.207
1.830 3.987 0.016
2.194 4.045 0.051
0.265 1.791 1.153
-0.042 1.963 1.002
0.228 1.995 1.232
0.028 2.369 1.001
0.327 2.143 0.799
0.495 2.226 0.958
0.038 2.653 0.789
0.518 2.529 0.803
0.445 2.221 0.974
0.679 2.308 1.079
0.122 2.774 0.758
0.443 2.788 0.834
0.579 2.465 0.741
0.738 2.368 0.748
0.915 2.500 0.910
0.277 2.913 0.813
0.602 2.953 0.721
0.704 2.542 0.699
1.187 2.736 0.830
0.800 3.005 0.603
0.827 2.714 0.656
1.160 2.858 0.776
1.158 2.936 0.763
1.156 2.891 0.627
1.209 3.179 0.544
1.327 3.032 0.526
1.321 3.588 0.385
1.446 3.463 0.582
1.638 3.603 0.532
1.825 3.755 0.429
0.256 1.917 1.250
0.150 2.071 1.290
0.146 2.148 1.369
-0.139 2.274 1.219
0.376 2.385 1.334
0.420 2.196 1.137
0.690 2.181 1.360
0.178 2.503 0.946
0.477 2.430 1.063
0.590 2.474 1.060
0.675 2.456 1.252
0.104 3.089 1.025
0.293 2.907 1.010
0.495 2.836 0.950
0.745 2.514 1.239
0.908 2.651 1.109
0.309 3.118 0.755
0.370 3.045 1.002
0.656 2.893 0.930
0.640 2.846 1.147
1.150 2.649 1.130
0.633 3.100 0.851
0.881 3.148 0.720
0.804 2.990 0.942
1.107 2.894 0.876
0.704 3.304 0.908
1.131 3.082 0.833
1.377 3.206 0.991
1.151 3.340 0.770
1.444 3.372 0.855
1.401 3.496 0.726
1.465 3.458 0.782
1.570 3.484 0.873
0.307 4.705 -0.011
0.130 5.000 0.197
-0.073 2.352 1.432
0.324 2.023 1.378
0.274 2.326 1.342
0.342 2.279 1.392
0.585 2.238 1.469
-0.037 2.601 1.308
0.278 2.531 1.472
0.552 2.435 1.284
0.850 2.316 1.407
-0.122 2.926 1.270
0.106 2.813 1.307
0.474 2.633 1.337
0.822 2.565 1.425
0.886 2.617 1.482
0.273 3.079 0.920
0.383 2.979 0.978
0.730 3.107 1.073
0.693 3.050 1.178
0.874 2.742 1.448
0.510 3.460 1.061
0.577 3.017 1.068
0.919 3.164 1.205
1.193 3.047 1.328
0.807 3.442 0.999
1.075 3.364 1.179
1.297 3.294 0.996
1.186 3.341 1.183
1.298 3.423 1.012
1.409 3.416 1.069
0.205 4.961 0.146
0.154 4.845 0.424
0.093 5.448 0.226
0.332 5.154 0.110
0.740 5.149 0.408
0.277 5.564 0.151
0.443 5.392 0.002
0.646 5.272 0.353
0.790 5.561 0.080
0.789 5.631 0.016
-0.097 2.393 1.670
0.057 2.472 1.761
0.255 2.335 1.791
0.058 2.821 1.537
0.240 2.699 1.677
0.678 2.641 1.458
0.756 2.380 1.790
-0.074 3.154 1.464
0.136 2.873 1.394
0.406 2.744 1.541
0.567 2.715 1.573
0.866 2.637 1.539
0.016 3.443 1.427
0.428 3.200 1.409
0.427 2.961 1.432
0.780 2.980 1.472
0.978 2.879 1.418
0.755 3.251 1.410
0.923 3.115 1.497
1.263 3.124 1.607
0.966 3.458 1.269
1.229 3.142 1.336
1.266 3.384 1.286
0.158 5.266 0.356
0.264 4.997 0.343
0.298 4.874 0.383
0.007 5.392 0.240
0.330 5.287 0.568
0.424 5.249 0.527
0.188 5.827 0.049
0.223 5.497 0.323
0.579 5.459 0.447
0.756 5.208 0.473
0.995 5.404 0.401
-0.046 6.138 0.021
0.250 5.740 0.140
0.557 5.662 0.351
0.646 5.706 0.336
0.916 5.564 0.331
0.938 5.486 0.268
0.253 6.255 -0.070
0.485 5.899 0.068
0.761 5.739 0.172
0.910 5.769 0.397
0.536 6.194 -0.030
0.102 2.455 1.788
-0.045 2.980 1.633
0.132 2.685 1.702
0.473 2.851 1.863
0.022 3.333 1.696
0.121 2.957 1.712
0.291 2.858 1.543
0.671 2.767 1.904
0.683 2.830 1.673
0.426 3.328 1.520
0.581 3.092 1.747
0.775 3.079 1.584
0.900 2.951 1.768
0.880 3.136 1.770
0.945 3.168 1.523
1.329 3.235 1.592
-0.155 5.252 0.641
0.252 5.154 0.701
0.513 5.183 0.828
0.094 5.664 0.703
0.183 5.506 0.469
0.395 5.336 0.799
0.620 5.085 0.841
0.201 5.777 0.501
0.326 5.694 0.375
0.332 5.631 0.519
0.807 5.304 0.499
0.972 5.296 0.768
1.165 5.214 0.879
0.275 5.932 0.480
0.296 5.853 0.467
0.706 5.877 0.564
0.758 5.813 0.464
0.999 5.432 0.569
1.162 5.423 0.753
0.323 6.140 0.297
0.381 6.219 0.486
0.707 6.102 0.512
0.997 5.689 0.531
1.009 5.690 0.549
0.778 6.368 0.446
0.962 6.296 0.363
0.161 2.856 1.996
0.366 5.377 0.981
0.313 5.178 0.903
0.707 5.174 1.111
0.095 5.624 0.875
0.186 5.508 0.750
0.404 5.273 0.953
0.751 5.144 1.006
1.019 5.157 0.998
-0.079 5.887 0.638
0.174 5.746 0.805
0.355 5.729 0.817
0.704 5.732 0.898
0.738 5.402 1.034
1.099 5.432 1.057
1.247 5.316 1.198
0.171 6.250 0.538
0.456 6.075 0.535
0.632 5.923 0.787
0.902 5.848 0.676
1.152 5.647 0.828
1.034 5.618 0.979
1.472 5.588 0.973
1.770 5.269 1.197
0.207 6.425 0.373
0.411 6.041 0.409
0.546 6.205 0.549
1.067 5.873 0.741
1.066 5.800 0.873
1.430 5.657 0.948
1.466 5.518 1.038
1.747 5.483 0.889
0.892 6.082 0.415
0.882 6.251 0.658
1.405 5.956 0.736
1.287 5.896 0.710
5.831 0.134 5.637
6.096 -0.050 5.644
6.046 0.376 5.401
6.321 0.086 5.486
5.825 0.188 5.916
5.958 0.360 5.559
6.164 0.242 5.847
6.196 0.603 5.606
6.322 0.442 5.635
6.073 0.609 5.640
5.826 0.114 6.155
5.826 -0.079 6.031
5.850 0.382 5.886
5.989 0.220 6.046
5.946 0.398 5.871
6.391 0.491 5.780
6.189 0.880 5.945
5.626 0.368 6.283
6.004 0.375 6.086
6.037 0.348 6.164
5.899 0.661 6.172
6.070 0.355 6.310
6.006 0.870 6.074
6.364 0.948 5.869
6.226 1.042 6.124
6.220 1.200 6.245
0.190 5.376 4.560
1.949 6.313 4.452
1.630 6.251 4.820
1.368 5.922 5.062
1.536 6.190 5.132
1.285 6.092 5.538
1.634 6.038 5.334
1.200 5.660 5.966
1.244 5.875 5.831
1.411 6.206 5.654
1.589 6.371 5.748
0.453 5.123 6.412
0.586 5.472 6.005
0.841 5.233 6.385
0.840 5.726 6.249
1.178 5.806 6.109
1.158 6.011 6.156
1.485 6.159 6.018
1.010 5.873 6.161
1.353 6.157 6.291
1.392 6.166 6.220
0.845 2.540 5.838
1.011 2.552 5.784
1.211 2.395 5.854
1.697 2.371 6.161
0.821 2.849 5.552
0.976 3.031 5.633
1.246 2.802 5.841
1.475 2.801 5.785
1.714 2.677 5.794
1.779 2.504 6.079
0.916 3.295 5.607
1.027 3.360 5.581
1.263 3.172 5.793
1.538 2.820 5.907
1.528 2.832 5.712
1.921 2.855 5.894
2.000 2.794 5.804
2.313 2.426 5.848
0.973 3.583 5.600
0.996 3.275 5.549
1.450 3.301 5.742
1.499 3.336 5.664
1.795 3.019 5.849
1.853 2.860 5.865
2.235 2.830 5.753
2.255 2.558 6.025
2.397 2.717 5.930
2.865 2.701 6.080
1.161 3.726 5.601
1.297 3.421 5.505
1.807 3.381 5.467
1.817 3.096 5.509
2.120 3.058 5.737
2.127 3.108 5.939
2.507 3.051 5.719
2.813 2.843 5.832
3.009 2.802 6.106
2.954 2.813 6.005
3.259 2.881 6.047
3.252 2.490 6.165
1.920 3.660 5.653
2.091 3.548 5.644
2.256 3.443 5.820
2.246 3.223 5.710
2.658 2.990 5.904
2.767 3.128 5.738
3.002 2.878 5.904
2.979 3.014 5.727
3.490 3.085 5.902
3.595 2.720 6.038
3.732 2.808 6.019
3.784 2.508 6.158
4.027 2.505 6.096
4.231 2.380 6.089
2.833 3.265 5.859
2.791 3.050 5.713
3.003 3.037 5.962
3.421 3.294 5.925
3.497 3.074 5.903
3.740 3.022 5.906
3.938 3.090 5.913
4.235 2.789 5.966
