42.997734 26.930828 23.834032
43.936733 28.489828 24.922031
41.440735 24.524828 36.86703
43.067734 23.15083 37.81903
11.476738 48.812828 59.802032
9.926735 50.29783 58.97103
4.525734 43.258827 69.212036
6.420738 42.121826 69.312035
13.239738 54.391827 48.906033
13.942734 56.06083 49.947033
10.884735 60.39383 60.43003
10.392738 58.341827 60.504032
45.559734 48.58283 11.975037
43.271732 48.65683 13.341034
41.775734 47.61083 24.13403
43.229733 47.175827 25.46603
21.461731 40.90883 31.309032
20.624733 39.06783 30.333033
10.019737 37.202827 36.537033
9.659737 34.799828 35.92203
33.776733 54.27083 3.8110352
33.913734 53.090828 5.8090363
30.841732 50.850826 17.159035
28.437733 50.94183 17.434036
36.408733 15.303825 67.882034
38.617733 16.413826 68.47203
41.622734 15.95282 56.17403
43.699734 16.32582 55.70103
64.146736 0.0038223267 63.96403
65.72473 0.53082275 66.063034
69.47573 7.031822 57.129032
67.82073 6.170822 55.947033
13.8127365 57.86783 29.382032
13.655739 57.715828 31.43703
12.1237335 50.417828 41.73603
10.037735 49.675827 42.119034
3.6787338 64.972824 0.83003235
1.8037338 65.41782 72.12103
3.214737 63.55983 60.414032
5.138733 64.29483 59.61903
33.132732 2.4048233 61.858032
30.847733 3.2638245 63.06203
24.733732 67.80083 72.74803
22.835733 0.30682373 0.046035767
19.314735 46.376827 63.76603
20.61473 44.919827 64.01303
29.392733 50.847828 56.52103
28.730738 51.78183 54.63703
40.037735 57.37783 47.07603
39.303734 58.43583 49.01303
32.297733 53.29683 57.16003
29.729733 53.764828 56.63103
4.419739 1.8708267 8.880035
5.8167343 2.6178207 10.304031
75.24073 5.2878265 19.876038
73.15773 5.3468246 19.895035
35.247734 31.937828 52.481033
34.160732 33.94783 51.975033
35.594734 36.266827 41.47203
36.879734 35.37983 40.40303
62.10773 21.477829 52.95803
62.193733 22.199821 55.21703
55.716732 18.995827 64.91603
54.28073 20.989822 65.03004
40.693733 2.6218262 67.84903
41.677734 4.6248245 67.14103
46.42673 2.748825 56.788033
45.85673 0.8278198 55.760033
18.797737 52.85983 51.751034
16.361732 53.389828 51.953033
14.045738 47.933826 59.926033
14.083733 46.36683 61.18703
66.20174 17.731827 18.001032
64.563736 19.113823 18.19803
56.09273 17.916824 26.657032
54.77373 16.463821 26.181032
5.5857315 49.24283 18.16504
4.4017334 50.167828 16.377037
9.148735 47.655827 5.7480316
9.926735 49.056828 4.1650314
9.929733 66.235825 45.775032
10.760735 0.24882507 45.99903
17.167732 2.1928253 34.907032
18.233734 4.06382 34.205032
68.855736 0.3408203 14.000038
69.33974 2.8628235 14.683037
3.2277374 2.448822 6.3210373
3.110733 3.7458267 4.4460373
36.271732 27.165829 38.20103
34.207733 26.493828 37.515034
29.264732 29.05683 47.17303
29.246733 29.843828 49.84603
64.289734 9.224823 69.754036
62.16873 8.721825 70.159035
56.663734 2.4828262 3.9190369
54.09273 3.1688232 3.5310364
21.525734 56.68583 70.69103
23.348732 56.312828 71.99603
14.967735 56.17083 7.5330353
13.504738 54.121826 6.936035
33.770733 42.15883 34.98403
33.720734 44.22883 35.47303
40.282734 45.994827 26.252031
38.64073 47.334827 25.372032
4.598732 51.607826 2.2550354
3.6797333 49.542828 2.7010345
71.744736 47.681828 11.778038
72.19673 46.127827 13.41404
56.892735 28.732828 49.773033
55.368732 27.114828 49.808033
56.23973 21.579828 48.822033
54.799732 20.960829 47.15903
24.512733 33.147827 9.8780365
23.280733 34.216827 8.640038
30.735733 32.77583 72.37703
32.499733 33.34483 0.43403625
66.454735 30.04283 39.780033
67.40373 28.590828 38.273033
73.233734 32.17983 28.98603
72.216736 31.408829 27.18703
71.34873 10.982826 37.93603
69.25574 9.972824 38.636032
66.84973 11.699821 50.927032
64.60374 11.349823 50.872032
60.89173 25.64783 32.754032
61.770733 26.992828 34.600033
69.204735 33.61083 25.061031
67.78273 33.49183 23.499031
2.0077362 50.60383 0.9480362
75.61573 50.53883 0.03603363
69.83173 45.99083 10.093033
68.39574 47.829826 10.595032
10.023735 63.83283 63.066032
9.858734 65.17183 64.73203
5.1757355 60.77683 2.4130325
3.8097382 58.76983 2.553032
48.702732 10.449821 55.57103
50.392735 8.972824 56.62303
60.55073 6.4078217 48.251034
60.14073 7.9978256 46.24103
21.251732 50.397827 31.897032
21.742737 49.697826 33.66003
17.313736 49.322826 43.032032
15.891731 50.861828 44.289032
10.398735 24.943829 52.362034
11.886734 24.613829 53.657032
4.1997375 22.551828 63.01903
4.613739 23.81783 65.05703
62.459732 51.814827 26.258032
64.35973 52.59583 26.501032
71.342735 55.758827 16.825031
70.384735 53.785828 15.424031
17.872734 60.22483 12.701035
17.25573 62.26383 12.430031
24.457733 63.542828 3.1650314
24.196732 61.89183 1.3940353
34.796734 36.27083 53.240032
36.359734 35.273827 53.35303
40.076733 35.14383 42.08303
40.302734 33.368828 41.466034
33.37673 65.53083 24.219036
35.433735 66.65883 24.376034
42.073734 62.480827 16.129036
43.254734 60.27483 15.680038
44.860733 56.79683 12.4010315
44.407734 55.49883 10.190033
53.13373 52.709827 3.5200348
53.290733 51.81183 1.3290329
33.699734 26.926828 51.445034
34.521732 28.443829 52.432034
29.273733 26.499828 63.94503
28.765734 28.67183 64.62103
42.785732 46.48383 9.756035
41.388733 46.71383 8.149033
49.019733 48.52483 71.72303
48.31473 49.252827 69.659035
75.68674 24.662828 24.233032
0.674736 25.071829 25.943031
10.258736 30.899828 18.412031
10.829735 31.485828 20.25003
46.768734 6.8628235 53.802032
46.17573 5.328827 52.03503
51.886734 7.2238235 41.37303
50.950733 4.863823 41.17303
30.858732 56.17283 42.27603
30.691732 54.46283 44.057034
24.304733 56.08183 54.76203
26.288733 55.01983 54.87603
12.852737 41.257828 5.5660324
14.74073 42.821827 4.5450363
20.72673 44.224827 68.58103
23.009735 45.57383 68.576035
71.080734 31.18583 61.76203
71.04774 29.82083 63.64103
62.52573 29.14383 71.05103
60.964733 29.333828 70.71803
28.149736 54.938828 19.549032
25.992737 54.864826 19.810032
18.333733 48.528828 26.053032
16.293732 49.042828 27.335032
29.158733 25.28983 29.946032
28.960733 24.36283 28.17703
36.850735 28.491829 20.318031
35.23173 28.641829 18.675032
24.576733 1.0528259 18.575035
23.408733 0.99082184 16.768036
30.067734 66.47683 7.919037
32.303734 66.09183 7.3330383
72.55673 60.925827 35.467033
72.35073 62.85083 36.920033
64.36874 62.319828 46.67203
65.61874 61.63683 48.209034
42.72473 57.77683 32.733032
40.75173 57.76683 31.554031
34.513733 56.14483 42.133034
33.260735 54.67383 42.905033
48.727734 37.202827 48.11703
48.879734 37.90983 50.24903
41.187733 31.08483 56.53403
40.496735 31.708828 58.36303
43.048733 52.023827 11.867035
45.117733 52.74783 10.705032
50.152733 47.704826 1.1830368
51.880733 48.403828 0.69503784
28.400734 58.91483 22.069035
29.706734 57.63183 20.430038
36.561733 58.723827 10.013031
36.949734 60.383827 11.229034
74.11073 59.34583 33.425034
72.843735 60.97183 32.87403
6.3957367 62.94083 24.84303
5.865738 64.80183 24.620031
42.95473 58.319828 13.478035
41.267735 59.132828 13.998039
34.514732 60.39183 23.180035
32.142735 60.26783 23.611034
26.567734 60.19183 56.15303
27.804733 62.17883 55.650032
34.862732 65.42383 47.93503
33.86373 66.03083 46.01403
50.73173 32.69283 49.273033
52.004734 33.87983 51.02703
46.962734 28.256828 59.643032
44.839733 28.923828 59.85903
72.54673 67.42583 20.16603
73.82674 66.57183 21.571032
64.65974 63.64483 28.79503
64.18073 62.23383 27.481031
53.339733 16.422821 9.828033
53.372734 15.9238205 7.532036
59.64173 21.326828 0.3610382
59.742733 23.222824 71.75903
57.559734 19.774826 46.857033
56.782734 19.209824 44.775032
67.76974 21.333824 37.92303
68.441734 22.816826 39.58103
28.211733 28.701828 68.56903
29.629732 27.48783 70.312035
25.738733 24.871828 8.120033
26.085733 22.669828 7.710037
23.287735 64.222824 35.98503
21.634735 63.86783 35.51303
15.632736 66.83583 44.724033
16.179733 67.08983 47.19403
42.553734 52.355827 65.936035
41.475735 53.54183 67.770035
36.65473 51.912827 4.502037
35.048733 51.08983 4.1440353
27.778734 19.36982 63.726032
26.482735 20.443825 65.83203
21.541733 19.351822 2.4770355
19.349731 19.908829 2.013031
30.698732 50.771828 1.3720322
31.909733 48.557827 0.702034
38.607735 55.070827 65.66904
37.409733 55.465828 63.59803
66.90173 45.778828 45.50503
67.48573 47.73583 45.912033
71.771736 52.25483 35.071033
72.09074 51.06683 32.94203
59.51573 45.453827 36.68603
59.986732 48.127827 37.82503
60.05873 52.294827 27.484032
58.88673 51.979828 25.360031
33.205734 7.3388214 44.275032
31.751734 8.695824 43.57403
33.987732 8.755821 30.245031
33.142735 7.7218246 28.793032
72.050735 38.08783 8.907036
72.52973 35.633827 8.775032
69.580734 31.631828 19.223038
68.55873 33.576828 20.411034
3.2547379 52.44883 20.021034
3.7167358 52.49183 17.943039
7.457733 56.02683 7.5920334
9.662735 55.861828 7.6930313
56.156734 47.840828 56.253033
58.42573 46.87283 56.22803
64.98873 48.883827 46.84603
65.57473 50.77783 47.275032
3.5767365 67.41882 56.63903
2.0587387 1.1198196 56.25803
9.506737 3.3588257 46.593033
8.355736 1.9198227 45.890034
39.71773 38.60083 41.407032
38.457733 37.182827 41.988033
32.91973 37.59383 51.81003
32.136734 35.63183 52.41603
16.25573 24.059828 22.79803
17.01973 25.641829 21.032036
26.381737 27.293829 13.488037
27.553736 26.465828 11.937035
67.18073 36.120827 22.486034
66.410736 35.431828 20.202034
70.330734 41.669827 11.797035
70.44773 43.626827 10.970032
59.820732 15.416824 47.497032
60.72673 17.88382 47.494034
70.425735 18.427826 40.607033
70.052734 16.852821 38.941032
54.359734 59.25383 1.3210373
55.75173 57.62783 1.2330322
65.636734 62.389828 69.297035
65.56174 61.75483 67.15103
47.317734 54.750828 51.461033
46.980732 57.14983 51.42203
57.459732 59.50683 42.876034
56.409733 61.41383 42.00603
53.026733 29.595829 67.15604
52.993732 31.09883 68.70803
44.830734 29.031828 4.664032
46.170734 28.20283 6.6330338
50.271732 62.44683 53.71603
49.674732 61.03483 52.259033
58.69973 63.097828 43.223034
60.46373 63.737827 42.99803
40.783733 7.498825 67.616035
39.402733 8.345825 65.68304
41.958733 12.986824 54.61203
43.665733 11.920822 53.247032
34.403732 6.82782 48.898033
32.415733 4.7218246 48.914032
38.789734 8.31382 52.41003
39.394733 10.213821 51.09703
38.641735 8.058823 14.463036
39.860733 8.686821 12.544037
47.012733 10.217827 4.6260376
46.674732 10.512825 2.865036
43.39173 24.805828 39.72103
41.30773 25.943829 39.23603
33.15473 27.779829 48.302032
31.632732 25.929829 48.467033
47.86373 65.18383 53.051033
46.26573 63.75583 51.877033
38.672733 61.77783 60.25903
37.434734 61.55783 61.63403
35.32873 21.645828 71.47403
36.746735 21.253828 0.5330353
32.139732 25.212828 10.919037
30.263733 24.437828 11.897034
62.21373 55.826828 44.856033
63.764732 55.67083 46.217033
56.755733 56.70483 56.09103
56.70473 54.60883 56.47703
54.605732 40.53883 32.553032
52.941734 41.33083 32.22003
53.497734 46.368828 20.23603
51.91273 47.15783 20.65603
19.276733 35.67883 7.3970337
21.221733 35.61683 5.849037
27.200739 42.683826 0.006034851
29.901735 42.87383 0.33403778
56.018734 46.86783 2.7470322
55.97473 47.911827 4.0380325
53.674732 40.787827 13.7530365
53.59373 42.30283 15.647034
39.879734 55.63583 11.125038
39.749733 53.653828 10.783035
31.900732 53.806828 19.84404
30.167732 53.479828 18.672035
6.0767365 10.720825 6.270035
4.686737 9.615822 4.9340363
13.110733 14.581825 70.90303
12.669739 16.689827 71.51203
28.666735 25.509827 66.38303
27.392733 23.396828 66.62403
17.811737 21.050827 72.659035
18.426735 22.520828 1.1990356
44.324734 13.108826 2.0190353
44.27373 10.962822 1.7760315
36.740734 10.648827 12.168037
34.602734 11.395821 11.372032
5.353737 0.050827026 23.27303
7.2247314 0.15182495 24.195034
15.745735 67.262825 15.273033
16.617737 1.0158234 14.305038
75.664734 53.606827 33.176033
0.2767334 56.070827 32.955032
5.4727325 58.48183 22.51703
4.445732 56.94983 21.009031
52.181732 58.60983 72.438034
53.066734 56.47783 0.29903412
60.366734 57.65583 63.84603
62.033733 58.04183 64.69804
38.818733 57.660828 8.573036
40.68973 57.951828 9.779037
48.457733 56.02083 71.23503
49.392735 54.377827 71.72303
25.426733 57.918827 37.225033
26.818733 56.86783 35.668034
32.219734 61.39183 26.54503
34.527733 61.16483 26.967031
7.8287354 22.398827 16.117035
9.419739 21.253822 17.311035
10.0857315 15.407822 13.479034
9.010735 17.390823 13.209038
55.290733 32.168827 68.79103
55.52373 30.103828 67.66403
65.15974 32.67283 61.66703
66.50574 31.229828 61.32003
29.016733 48.45083 34.80503
27.913733 48.88683 33.11803
37.025734 49.000828 23.768032
37.462734 51.02783 24.483032
30.217737 31.608828 33.91703
30.314737 31.451828 36.70003
22.635735 29.46283 44.47903
20.39273 30.38383 45.15903
63.528732 67.24383 10.425034
62.799732 67.00483 8.364037
68.912735 2.139824 71.254036
68.28073 4.1958237 71.52603
67.61073 10.608826 17.02703
68.397736 9.847824 18.94803
59.799732 12.199821 27.297031
57.880733 13.061821 27.61403
3.8407364 22.905828 28.499031
5.731735 22.54283 26.876032
11.976738 28.818829 20.318031
14.012733 28.18883 20.793032
14.392738 64.33583 46.912033
13.419739 63.84583 44.69403
19.258736 63.19783 36.18003
19.704735 62.74183 33.884033
64.46273 18.991821 0.9010315
61.944733 20.197823 1.3620377
56.262733 17.75882 11.659035
57.99673 18.211823 13.266037
66.803734 4.0608215 51.82503
66.58673 6.064827 51.90803
74.16673 9.6478195 41.95803
74.94873 7.816826 41.66003
67.99973 50.68083 30.274033
66.053734 49.183826 30.002031
63.491734 48.09683 43.247032
61.290733 47.577827 43.079033
53.77373 68.02083 60.67403
52.178734 66.191826 60.48103
45.07973 62.20383 68.55703
43.12673 62.79183 68.32903
13.978737 53.711826 66.50203
14.292732 56.42783 67.76203
8.411736 48.62283 1.6810379
7.7417374 50.78283 1.9230347
65.453735 21.859825 19.459032
67.10073 19.839828 19.353031
60.408733 17.747826 29.741032
60.894733 15.630821 29.708033
0.9827347 34.17383 62.93103
1.4967346 32.410828 61.43003
9.711739 35.86583 54.448032
11.473732 35.113827 55.79303
75.607735 20.514824 23.063032
75.22173 21.832825 24.860031
66.72473 19.217827 32.92203
66.53173 20.154823 34.655033
41.563732 38.13083 46.045033
43.160732 37.062828 47.08203
41.834732 36.063828 60.171032
41.844734 37.47783 61.86203
69.45773 39.363827 26.315031
67.397736 38.576828 26.22503
60.32173 36.202827 34.948032
61.145733 34.99783 37.04003
6.603737 18.15982 13.730034
5.4357376 16.357826 14.523033
73.25373 13.127823 19.716034
71.06073 13.574821 18.863037
69.20773 17.789825 18.410032
68.663734 15.416824 18.88903
62.959732 14.726822 28.071032
61.76573 13.246826 28.851032
18.542732 29.336828 61.517033
20.631737 29.652828 61.128033
27.303736 34.091827 52.357033
27.610735 31.950829 50.480034
23.705734 21.440826 8.300034
24.220734 23.591827 9.762032
13.233734 21.731827 16.419037
12.109734 23.961823 16.224037
62.10673 53.06683 7.895035
63.74773 52.61583 6.823036
70.981735 55.13083 69.70503
69.75373 56.404827 68.69804
58.382732 40.33283 19.457039
58.066734 42.85883 19.27404
61.46273 44.717827 7.3440323
61.87073 47.113827 6.671036
24.933733 43.468826 13.246033
27.050734 42.015827 13.593033
33.86373 40.97183 3.9770355
34.611732 42.835827 3.0880356
43.05773 32.738827 41.605034
42.030735 31.125828 41.495033
39.966732 25.52583 52.44303
40.462734 23.77583 53.57703
0.46873474 50.736828 69.63803
0.5097351 51.44183 67.449036
5.7867355 55.28183 58.086033
6.4897385 53.44383 58.30003
67.92173 41.36583 24.74403
68.18473 39.43083 23.121029
69.50173 46.987827 13.560036
69.04673 49.397827 13.015038
41.816734 35.015827 8.016037
42.692734 33.882828 9.224037
35.295734 37.222828 17.619034
32.929733 36.08283 17.293037
32.38373 22.633827 49.142033
33.219734 24.360825 50.761032
27.238733 20.494827 61.50703
27.338734 22.746826 62.37603
46.046734 18.203827 58.11703
46.117733 19.515823 56.92903
49.264732 21.837822 45.906033
51.333733 21.330826 44.913033
30.629732 64.191826 42.738033
30.624733 65.05983 40.85903
38.385735 67.874825 31.186031
39.615734 66.14483 31.650032
54.165733 34.63083 70.436035
52.96073 36.266827 69.60803
42.477734 33.265827 5.7620316
41.378735 34.83283 5.103035
36.666733 20.699821 34.79803
36.431732 22.303825 33.16103
45.255733 19.744827 24.317032
46.680733 17.960823 24.518032
54.79473 47.96283 0.766037
55.17673 48.18683 71.451035
63.82473 54.340828 65.56703
65.08373 54.486828 63.39003
34.250732 56.37883 2.4230347
35.267735 58.50383 3.8310318
38.063732 59.87183 65.269035
40.22473 60.13883 66.14204
37.39773 30.899828 1.0430374
38.921734 30.138828 1.9160309
32.737732 31.56083 12.859039
31.079733 32.764828 13.351036
31.040733 33.96983 69.87804
30.188732 35.40983 68.21703
37.281734 40.20083 59.80003
35.538734 41.52683 58.905033
33.37073 13.82682 14.286034
31.575733 15.56382 14.597038
22.725733 11.825821 20.796036
23.362734 11.904823 22.935032
65.86674 58.91983 48.52603
65.75073 60.174828 50.60203
60.082733 56.042828 59.927032
60.938732 57.11783 61.25103
8.330734 59.98183 60.50203
7.4067383 61.640827 61.17903
74.77773 59.79483 71.91403
73.97974 61.862827 71.31503
4.3927383 35.65683 34.03603
4.983734 35.113827 35.85503
72.67073 35.94183 45.968033
72.21273 34.04483 46.050034
26.557734 41.23383 16.048035
25.68473 40.04783 14.8520355
17.947731 40.142826 25.763035
18.482735 40.042828 28.127033
46.118732 16.154823 60.046032
46.50273 18.237823 61.00803
42.102734 16.448822 72.03004
41.625732 18.61882 72.118034
41.184734 12.649826 51.636032
42.75873 10.971825 50.619034
50.880733 13.250824 42.79703
50.010735 12.414825 40.775032
0.21873474 23.995829 63.09703
74.955734 24.146828 61.19603
8.191734 28.359829 54.434032
7.916733 27.433828 52.011032
54.71773 23.63383 31.023031
52.14873 22.98783 30.039032
47.54373 26.90083 39.97003
45.872734 27.74083 41.26903
54.504734 19.993828 27.657032
56.434734 19.924828 28.672031
60.811733 22.446823 18.255032
60.67873 24.715828 16.813032
54.25873 55.59283 57.122032
52.184734 56.14583 58.03403
48.611732 50.13883 66.992035
47.284733 48.849827 66.54404
1.2397385 7.09182 23.21803
1.1097336 5.228821 24.460032
69.021736 6.109825 34.343033
67.150734 6.7238235 33.94303
27.649736 47.563828 72.63603
28.766733 47.83883 1.417038
22.460732 43.10383 10.159035
21.021736 41.63183 10.202034
74.04874 37.98383 29.353031
71.76873 37.938828 29.32603
64.47273 32.389828 36.26203
65.09673 29.937828 36.969032
21.73973 33.618828 66.08103
24.080734 33.18483 66.54404
13.846733 32.495827 72.74803
11.697739 31.415829 0.12503815
49.660732 11.417824 3.4870377
51.318733 12.420822 4.339035
57.312733 17.358826 67.22203
55.78773 16.516823 66.379036
73.649734 27.920828 43.536034
72.95673 25.44583 43.19303
63.91473 23.269829 52.85303
64.79774 22.85883 54.64703
21.948732 38.488827 63.11203
23.237734 37.84683 61.25703
32.469734 45.05983 58.02103
32.31573 45.225826 56.01603
7.490738 36.69183 37.224033
8.114738 38.37283 38.350033
2.5037384 30.446829 45.515034
4.414734 28.800829 46.191032
40.949734 7.304825 50.731033
41.998734 6.2238235 49.525032
52.045734 11.442825 44.237034
54.358734 11.958824 44.511032
14.872734 63.536827 67.41503
15.889732 62.53783 69.32304
7.2607346 60.12383 4.150032
6.638733 58.24083 3.7480316
32.907734 25.953829 31.947031
33.693733 23.392828 31.014032
41.545734 23.898829 23.804031
43.755733 24.47383 24.578032
29.891733 46.15983 37.371033
30.152735 47.128826 39.01203
20.318733 42.988827 45.52003
21.848732 43.141827 47.308033
45.031734 13.199821 39.329033
43.219734 14.470825 39.725033
36.61973 15.231827 48.96503
35.927734 13.255821 49.51203
10.029732 4.927826 26.769032
8.163734 5.1628265 26.132032
17.35173 9.906822 18.470032
17.211731 8.343826 17.289032
0.24973297 2.0828247 1.0260315
74.79273 3.686821 0.43403625
4.140732 6.5298233 62.50103
2.051735 5.865822 61.76303
47.212734 2.7298203 36.099033
47.583733 4.901825 36.38703
53.89173 7.2158203 26.520031
55.874733 5.857826 26.338032
27.921732 34.97583 35.050034
28.571733 35.766827 36.85403
17.760735 33.65083 41.170033
16.982735 33.70483 43.29003
30.099733 63.237827 24.58703
27.950733 63.50383 24.98203
25.405733 62.70483 36.79803
25.340733 64.332825 37.64503
70.75373 16.982826 57.38003
70.31274 17.64682 55.18203
5.483734 16.015823 49.545033
6.8317337 18.016823 50.40303
17.857735 2.7408218 72.21803
20.179733 1.9788208 72.38403
13.744736 66.41183 9.6280365
14.946732 64.72583 9.904037
54.763733 21.381828 10.173035
56.165733 22.41483 11.231033
62.276733 26.915829 1.7380371
61.26073 27.56383 72.82003
41.32173 59.785828 47.90203
42.971733 61.03883 48.077034
47.408733 62.60683 35.177032
49.334732 62.01983 36.184032
59.53173 0.12682343 44.62303
59.512733 1.7588196 42.92203
68.080734 63.11783 34.474033
69.88773 62.86083 35.218033
47.306732 6.161827 20.741032
45.313732 5.377823 20.13903
35.803734 7.095825 28.895031
36.792732 8.901825 30.288033
72.245735 21.850822 41.14503
71.82073 19.842827 42.34003
64.412735 14.031822 50.046032
62.84273 14.704826 49.210033
7.087738 44.35883 54.282032
4.8477325 44.910828 53.25503
6.754738 48.44383 41.621033
8.185738 46.88083 41.67203
62.605732 41.885826 59.14503
64.357735 42.447826 60.07403
70.33873 46.647827 50.787033
72.164734 47.245827 51.157032
7.1617355 33.516827 35.295033
7.164734 34.562828 33.16103
14.890732 39.904827 26.639032
15.940735 40.273827 28.450031
23.651733 27.11583 8.517036
22.900734 25.580828 6.593033
25.78373 34.577827 70.04103
27.877733 34.460827 70.574036
56.406734 60.32483 39.63903
58.142735 62.16383 38.99803
61.59473 63.19183 28.52403
60.90673 62.132828 26.757032
75.29173 22.115822 42.54003
75.053734 20.750824 41.690033
7.113739 22.280823 32.932034
8.508736 23.525826 31.788033
0.07473755 30.138828 65.39003
74.15773 31.338829 64.702034
68.61573 29.967829 4.2670364
66.664734 31.005829 3.9800339
26.169731 18.890823 9.741035
24.25373 18.822823 8.692032
17.632736 18.000824 16.977036
15.598732 18.709824 18.280037
16.535736 49.63083 65.37103
18.001732 51.660828 66.019035
22.016731 57.11583 56.59903
23.829735 58.987827 56.58203
49.400734 26.491829 28.72503
47.407734 26.726828 29.478031
47.139732 33.731827 30.865032
48.985733 32.445827 30.542032
47.85773 24.250828 40.695034
47.830734 22.686829 42.52803
36.016735 24.486828 49.51403
36.188732 23.18583 51.413033
44.017735 9.84182 36.37403
45.521732 7.8988266 35.25103
47.83673 15.161827 24.461031
49.568733 13.778824 23.612032
73.77074 6.363823 1.3780365
73.49274 4.75782 2.8040314
66.676735 0.97182465 12.637039
66.926735 2.9378204 13.573036
44.146732 14.794823 37.267033
42.706734 14.128822 35.913033
52.57173 15.759827 27.62803
51.462734 17.154823 26.293032
62.02273 29.75183 18.983032
60.223732 28.211828 18.88903
58.024734 25.932829 30.54803
57.331734 23.816828 31.325031
31.804733 13.290825 64.43103
31.045732 12.3628235 63.14403
34.146732 13.278824 51.946033
34.28773 11.477821 50.849033
12.635735 11.191826 31.611032
13.105736 10.637825 33.579033
6.035736 8.159821 42.030033
5.087738 10.206825 42.730034
30.024733 40.362827 16.279037
29.620733 40.63083 13.954033
37.586735 43.765827 5.704033
36.565735 41.96283 4.8480377
9.544739 13.917824 49.93503
8.558739 15.68882 49.83203
17.722733 22.585823 43.893032
18.145737 24.402824 43.619034
71.11373 66.413826 71.20703
71.85374 64.871826 72.72504
62.874733 61.53283 6.174034
61.08173 62.771828 6.214035
64.88074 6.9758224 14.209038
64.858734 7.7798233 16.689034
57.44773 7.7988205 26.241032
55.985733 9.459824 26.472034
51.039734 2.7828217 1.9550323
53.235733 3.3528214 1.0850372
61.062733 3.0848236 67.18103
60.05373 2.9148254 65.299034
32.461735 48.181828 21.11403
31.013733 46.43083 21.69803
24.327734 45.31083 31.365032
25.906733 45.515827 33.266033
4.8507385 59.32883 5.4910355
5.237732 56.90583 6.502037
73.34773 56.786827 15.501038
72.467735 58.69883 14.714035
25.93473 11.360825 24.935032
23.868736 12.156822 25.582031
18.800735 12.74482 35.22303
16.694733 13.657822 35.781033
65.54173 15.038826 32.09703
64.12373 15.998825 30.29803
70.59973 21.943825 21.644032
71.89474 23.472824 21.59703
35.275734 24.313828 36.52903
35.164734 22.503822 37.93003
27.311733 23.551826 45.112034
27.947733 25.522827 46.26203
71.855736 65.59882 51.95103
70.37873 66.96683 50.61103
75.67173 67.82483 40.023033
1.8537369 66.51683 39.58203
20.461731 23.557829 58.864033
18.946732 25.44983 58.28403
22.570732 30.470829 47.622032
20.888733 32.06183 47.07503
74.233734 1.7658234 38.69203
72.62873 3.064827 38.48603
66.844734 1.7938232 48.81203
68.13074 2.3728256 50.363033
49.41273 4.7048264 3.5960312
50.609734 3.6178207 4.8140335
43.99673 5.807823 14.555038
43.153732 7.085823 15.70504
3.3427353 11.808823 24.299032
3.8947372 12.450821 26.29503
69.13074 8.912827 34.253033
70.190735 9.892822 35.710033
24.424736 41.267826 51.622032
23.326736 43.56183 52.38203
16.75573 37.481827 57.64803
17.439735 35.87983 58.82703
32.576733 37.95083 38.26903
30.167732 37.79883 37.170033
23.107733 34.090828 45.002033
21.662733 34.487827 46.94403
8.749733 23.084824 67.80804
8.629738 24.038826 65.52803
16.28273 22.540825 56.858032
16.746735 20.074821 57.559032
22.882736 39.58983 48.538033
23.940735 41.45683 47.654034
28.023737 41.98583 35.92303
28.504732 39.74283 35.106033
4.306732 1.5908203 42.06003
5.8997345 2.9678268 41.858032
14.610733 4.2158203 33.39503
13.807732 2.4818268 32.40803
28.682734 11.280823 7.764038
28.150736 13.107826 8.6510315
18.862732 10.502823 16.329033
18.828735 12.235825 17.918037
41.230732 11.99482 36.052032
42.76673 11.975822 37.766033
33.041733 10.226822 45.272034
33.50873 10.956825 47.198032
46.212734 0.9478226 0.6960373
47.040733 3.0068207 1.7710342
39.406734 0.78582 11.815033
39.387733 2.998825 12.728035
18.187737 55.38883 33.10203
18.395737 57.60383 34.552032
9.170738 56.11783 41.190033
9.514732 55.79783 43.06203
10.379738 58.69183 43.149033
10.860733 57.18283 45.108032
4.351738 54.43683 55.94603
2.3367386 54.67283 54.886032
11.885735 13.8018265 32.20703
12.381737 14.125824 34.32003
0.96473694 12.871826 41.70003
1.9617386 14.223824 43.884033
59.063732 64.98883 25.059032
57.151733 65.85583 23.357029
65.27074 2.526825 16.134033
65.20673 4.4578247 15.257034
23.000732 36.576828 65.84403
24.157734 36.33683 63.885033
31.584732 39.25683 57.07503
33.850735 38.912827 55.76603
55.139732 18.857826 14.099037
54.394733 20.642822 12.923035
45.658733 19.540825 21.113037
43.96773 20.584824 20.128036
0.9607315 4.16082 58.57403
2.9427338 3.3818207 57.718033
8.682732 9.293823 49.022034
8.401733 7.5518265 47.738033
53.59973 58.28483 57.25903
54.587734 60.00583 57.094032
60.54673 66.972824 47.885033
61.87173 65.246826 47.842033
58.497734 61.76283 25.03403
56.91873 63.06683 25.443031
49.646732 54.44183 32.351032
49.728733 56.361828 34.20703
53.490734 12.097824 61.32403
53.888733 10.001823 60.274033
61.811733 10.219826 49.997032
62.62773 12.101822 48.78403
38.267735 9.209824 33.467033
38.905735 8.973824 35.635033
35.00273 6.2938232 46.039032
34.11373 4.6168213 45.025032
14.758736 46.34683 44.655033
12.944733 45.99983 44.093033
8.311737 39.070827 52.54203
6.238739 38.96883 52.59503
30.977734 14.686821 27.546032
33.080734 14.270821 27.070032
37.12773 20.284828 17.289032
35.910732 22.117828 16.190031
69.38074 20.600828 57.72903
69.733734 22.859829 56.803032
75.49073 29.607828 48.105034
0.84173584 28.128828 46.815033
34.65473 34.15283 55.15303
34.05873 32.217827 54.91803
24.126734 33.486828 62.86903
25.306732 32.160828 64.27603
63.596733 36.209827 57.573032
65.75373 35.29683 57.27203
66.01974 40.050827 45.976032
66.053734 42.49183 45.683033
15.133736 54.946827 11.181038
13.276733 55.60883 9.761032
6.6197357 55.598827 20.711037
7.7437363 56.73483 22.45303
27.356733 39.753826 32.490032
27.162733 41.94183 31.455032
33.43273 42.85383 21.362032
35.406734 43.528828 21.749031
29.192734 64.72683 22.589031
30.880733 65.80783 22.05003
40.659733 64.42583 15.176033
39.816734 65.51883 13.210037
32.80873 23.030823 13.343033
31.126734 21.798828 13.187035
26.182734 16.032822 23.025036
26.214733 15.991821 25.208035
11.883736 40.377827 23.29903
13.507736 39.278828 21.852032
22.106735 44.347828 15.6660385
24.121735 44.91383 15.790039
57.714733 25.366829 50.080032
58.372734 23.500828 49.328033
64.26473 24.901829 37.538033
64.553734 26.99083 36.26203
31.439734 6.0888214 62.649033
33.236732 5.036827 62.149033
39.93973 2.8058243 51.258034
40.165733 4.9028244 51.584034
47.39873 33.425827 44.43503
48.096733 33.542828 46.67203
38.965733 32.827827 55.719032
36.927734 33.023827 54.62403
13.384735 39.03283 59.162033
11.479736 38.56883 58.22403
2.6587372 32.141827 64.438034
2.122734 32.453827 66.37203
8.887733 49.411827 56.753033
11.040733 47.945827 57.05003
14.997734 51.67183 46.80503
17.346733 52.361828 46.115032
20.681732 31.592829 7.7410355
18.89373 31.59183 9.014038
13.232735 27.09183 18.496033
11.883736 29.17483 17.115036
6.077736 5.6458206 43.68703
4.5667343 4.269821 44.996033
74.89173 4.089821 55.35403
72.939735 2.998825 55.628033
75.30573 38.82583 50.009033
73.577736 40.20683 50.95803
67.66673 41.00683 62.13903
67.98873 38.99183 62.857033
1.6197357 60.348827 37.27703
3.7087326 60.11383 36.20803
7.3947372 60.375828 24.484032
9.491737 60.14583 24.682032
31.409733 5.9188232 6.8320312
33.399734 5.000824 6.5800323
35.50973 4.9098206 68.09603
36.179733 7.14682 68.048035
31.077738 16.835823 46.67303
31.581736 18.509827 48.30503
22.35073 13.873825 57.225033
21.117737 15.666824 58.07103
58.98173 24.854828 52.44303
60.31673 23.902828 53.84003
51.963734 22.221828 63.61203
50.393734 22.229828 62.586033
31.580732 33.96283 34.462032
33.146732 32.71183 34.065033
43.598732 36.81083 28.522032
43.950733 35.33983 26.936031
19.234734 27.189829 43.468033
18.460732 26.853828 41.789032
24.012733 33.13883 31.671032
25.176735 34.620827 32.69503
51.96873 24.743828 11.466034
50.96073 26.409828 11.223038
42.943733 24.83483 21.19104
42.340733 22.604828 21.49503
49.355732 18.418823 60.79103
49.359734 20.869827 60.63803
59.459732 21.615822 52.553032
59.584732 21.373825 50.272034
12.077736 59.292828 26.84703
11.832733 61.38883 25.367031
20.89473 62.80283 17.46203
22.56073 62.437828 18.388031
33.371735 1.3258209 9.869034
33.118732 3.3448257 10.455032
24.146732 3.5678253 16.56604
25.012733 3.81382 18.885033
49.818733 59.84283 54.77303
48.24473 58.24183 54.43803
38.520733 59.39883 62.86103
36.653732 57.875828 62.649033
37.334732 39.398827 21.332039
37.985733 38.342827 19.213036
45.311733 37.09583 10.657036
44.048733 36.51783 9.118034
26.897734 30.94983 9.443031
27.424732 33.008827 10.633034
35.130733 36.87983 2.5810318
37.209732 35.884827 2.1000366
34.902733 31.826828 19.655037
34.568733 30.99083 17.430038
40.93973 27.71983 22.058033
39.006733 29.18583 22.122036
3.5047379 55.847828 36.837032
4.117737 53.119827 36.61603
11.204735 52.57483 27.64203
12.867737 50.850826 27.039032
63.11573 55.86083 29.146032
61.85073 53.996826 28.959032
58.180733 52.861828 39.510033
57.57273 51.528828 41.25703
1.2177353 34.30983 8.932037
2.766739 35.863827 10.961037
5.376732 42.100826 1.4270325
5.370735 40.58883 72.52303
22.982735 56.74683 35.22003
22.493736 57.96783 37.36103
15.200737 57.46183 45.97003
13.233734 56.54083 46.71303
25.074734 2.0188217 37.72103
24.961733 0.2868271 36.09003
31.444733 64.18182 26.695032
30.424732 65.67183 25.626032
6.0557327 63.62983 5.6000366
5.1397324 65.220825 5.101036
12.581734 66.69883 67.50304
11.178734 67.46883 65.55804
28.553736 38.883827 51.504032
28.956736 38.93483 53.670033
19.162735 34.42383 60.461033
19.14273 35.91983 61.61103
44.070732 25.89783 58.88403
42.664734 27.448828 59.093033
36.278732 22.925829 68.726036
37.027733 23.742828 70.68003
25.120735 59.78083 2.638031
25.959732 61.47783 4.115036
16.60073 57.111828 9.907036
17.50473 56.466827 11.812035
70.19973 67.847824 68.838036
71.33373 1.2688217 70.01303
75.356735 6.7568207 59.615032
73.59873 7.790825 59.31303
53.368732 41.897827 70.39803
54.353733 40.15183 68.45303
60.51773 41.08883 60.67903
59.60773 41.94383 58.725033
63.40073 37.627827 6.2430344
61.70673 37.265827 5.2720337
56.929733 31.374828 16.118034
54.302734 31.14683 15.834038
60.39773 23.597824 34.57503
61.78173 24.542824 35.98603
54.012733 21.318825 43.940033
53.97473 19.204826 43.223034
11.686737 31.507828 53.928032
10.929733 33.868828 53.183033
19.554733 39.34583 46.226032
20.480736 40.932827 47.745033
57.427734 1.7408218 63.54203
58.62973 0.7188263 65.21903
47.637733 65.46083 70.201035
48.257732 64.84882 72.75103
68.521736 43.81883 28.428032
69.91673 45.70583 28.71503
1.3337326 48.42183 17.564032
2.2797318 49.945827 18.443031
34.878735 63.53183 28.512032
35.894733 61.63683 29.77703
30.515734 62.15283 40.75003
28.757732 60.70083 41.032032
73.44673 65.221825 37.56703
73.36273 67.275826 38.883034
62.84973 66.02383 45.54203
65.08373 65.263824 47.070034
36.982735 45.489826 61.56403
36.236732 43.107826 61.420033
28.705732 39.757828 69.21104
28.243732 37.41683 68.54003
57.20473 34.90183 16.282036
58.89373 36.750828 16.931038
62.84473 40.10383 7.9150314
64.68473 40.63683 7.270035
1.4957352 23.535828 65.93903
75.78173 22.286827 65.85703
65.97173 21.440826 1.3670349
66.21474 19.968826 3.2300339
30.826733 29.891829 69.11203
32.348732 31.747828 69.91603
39.922733 33.39983 61.05403
39.348732 35.11483 59.69503
45.160732 15.065826 20.447037
47.298733 13.418823 20.047035
54.652733 12.63382 10.484032
55.685734 15.228821 11.129036
63.50273 31.95983 54.893032
63.28773 31.753828 52.802032
71.47974 30.82483 46.71403
69.97874 32.502827 46.814034
45.282734 7.615822 69.51403
44.62773 5.179825 69.26704
50.580734 5.467827 59.16503
50.053734 4.2018204 58.072033
67.801735 36.202827 41.74203
68.31873 33.76183 40.813034
74.967735 32.88883 30.799032
1.2897339 34.479828 30.670033
32.171734 66.82483 63.78603
31.919733 63.98483 63.54703
25.539734 65.44083 1.2990341
26.343733 67.25383 1.8780365
71.63773 63.38683 15.009033
70.41773 61.68683 15.5640335
62.89173 62.58083 24.879032
62.617733 60.61583 25.380032
36.52273 59.27783 44.884033
38.623734 59.26283 45.29003
45.312733 59.418827 36.25603
44.173733 59.86583 34.33403
58.873734 42.33083 40.53303
56.74673 43.112827 40.202034
48.416733 42.43583 47.83203
50.159733 43.57383 48.627033
52.256733 38.38183 14.346039
52.143734 39.04783 16.777039
45.353733 37.778828 26.337032
44.059734 39.58083 27.006031
61.99673 64.28083 9.030037
63.44773 64.24483 11.104034
53.480732 60.181828 18.101036
52.771732 58.18983 18.239037
75.61273 31.565828 7.761032
74.65974 29.720829 8.541031
70.605736 26.467829 19.921036
68.703735 27.01183 21.532032
43.719734 26.43883 5.138031
43.49673 25.263828 2.7470322
54.04373 23.882828 69.01303
54.06573 23.00883 66.87403
7.664734 36.80983 18.737032
8.118736 34.70783 19.079031
75.63074 32.96283 27.669031
1.1727371 31.95983 29.307032
1.4067383 43.368828 53.11703
3.4327316 42.08883 52.071033
7.275734 44.24883 40.90903
6.344734 43.133827 38.656033
18.534737 61.029827 15.73304
18.397736 63.33683 16.601036
8.473732 64.26783 25.718029
8.992737 66.528824 26.283031
29.419733 32.278828 68.202034
29.393734 30.78583 66.85004
37.416733 33.771828 57.98403
36.086735 36.002827 57.43703
30.930733 48.461826 56.51603
30.546734 48.398827 54.24303
37.540733 47.828827 45.76203
36.31473 47.00483 44.037033
71.76573 3.1348267 18.617031
70.39073 4.057823 19.578032
61.783733 4.0118256 28.47903
62.748734 5.788826 28.61803
42.18273 50.17183 48.494034
43.30173 51.25583 50.16003
36.709732 51.29083 60.546032
37.586735 49.000828 60.45003
49.160732 34.91983 62.94203
51.12773 33.279827 62.88303
59.612732 37.14483 56.537033
59.12273 38.71183 57.50703
12.294739 29.999828 55.97803
12.059738 32.05383 57.09203
3.4817352 29.49783 64.60603
2.122734 28.28983 66.19003
27.892733 55.687828 57.546032
28.431734 56.30583 59.844032
20.620735 50.070827 67.79003
21.161736 51.440826 69.31703
17.777733 53.27083 31.332031
19.386734 52.17083 30.134031
26.499733 57.188828 20.780031
25.484734 58.97483 19.67303
2.113739 63.08783 37.307034
0.912735 62.47183 35.537033
5.059738 1.3048248 25.61403
6.723732 1.3788223 26.807032
74.88973 9.2118225 21.441036
74.61774 10.1128235 19.923035
8.982735 7.2988205 11.711037
8.468735 5.411827 10.925034
14.349731 66.902824 30.036032
14.004738 64.95982 31.359032
7.190735 0.60982513 41.13703
8.191734 66.96283 41.682034
75.593735 7.115822 3.4110336
0.488739 8.914825 3.0780334
8.775734 9.235825 67.73203
10.188736 10.704826 67.006035
7.551735 20.634827 12.136032
6.787735 21.303825 10.501038
10.638733 22.189827 0.5710373
10.784737 23.828827 71.853035
9.491737 7.2828217 28.495031
10.791733 8.84082 28.13503
15.751732 16.851822 20.99303
16.19873 14.929825 19.45103
58.625732 53.590828 61.046032
56.547733 54.216827 61.04203
51.562733 50.653828 72.311035
49.347733 51.488827 71.907036
63.71773 33.70483 59.13003
61.506733 33.751827 57.566032
52.610733 28.606829 63.55703
51.798733 30.447828 63.287033
22.610733 37.44183 10.245033
23.692734 36.70083 7.954033
29.788733 39.132828 72.55303
31.352734 38.515827 70.546036
62.846733 12.135826 12.671036
63.542732 10.420822 11.723038
67.59973 11.692825 1.9080353
69.93173 11.209824 0.9830322
52.71773 16.74482 43.81203
52.602734 18.050827 45.33103
43.410732 16.998825 53.19303
41.403732 17.889824 52.787033
17.53173 33.223827 6.855034
19.982735 32.88583 5.5920334
28.273737 36.55583 0.08203125
27.243738 37.244827 71.00103
65.70973 3.2598267 54.70303
63.63373 4.8438263 53.63803
53.651733 67.70383 57.95303
52.18373 1.3608246 56.990032
29.428736 1.0528259 26.453032
28.244738 67.30083 25.226032
23.75473 61.85983 34.64003
22.161736 60.015827 35.18503
51.938732 17.612823 62.86003
50.44773 19.429825 63.36303
47.50873 15.399826 2.9890366
45.531734 16.864822 2.8940353
59.854733 56.79083 41.767033
57.841732 57.63783 40.23403
65.160736 62.444828 31.595032
66.86573 60.35783 30.738031
0.04473877 17.041824 22.019032
1.9037323 18.182823 22.275036
6.400734 24.393822 13.958038
6.0817337 23.511826 11.653038
57.546734 36.29583 52.97803
58.130733 35.85883 50.370033
64.14173 44.88883 46.36603
63.68373 46.211826 45.210033
35.27273 15.371826 13.514038
35.59273 13.64682 12.587036
40.269733 18.171822 2.0440369
42.57173 17.482826 1.6280365
60.250732 8.214821 68.11303
62.21173 8.183823 67.11404
68.09973 11.5868225 56.622032
66.938736 12.809822 55.26203
42.298733 66.75683 14.905037
43.862732 65.247826 13.92804
46.545734 66.67383 2.1830368
48.152733 67.29483 1.9250336
0.2067337 58.21483 20.181032
0.34173584 55.86483 21.481031
66.51473 52.586826 28.87503
65.176735 54.30283 28.419031
51.868732 59.827827 37.711033
53.729733 59.04483 36.81003
56.174732 65.71883 27.39903
57.58673 67.069824 27.939032
68.48973 43.718826 46.14603
69.01573 42.47783 44.71303
73.28273 45.767826 34.613033
73.59673 44.662827 32.45803
61.993732 17.273827 15.014038
62.31573 16.405823 12.713036
65.955734 22.999825 4.192032
65.063736 24.003822 1.9060364
40.440735 7.189827 33.56303
39.472733 7.167824 31.490032
51.289734 8.116821 24.77403
50.805733 10.606827 25.02103
27.010733 0.18082428 37.76903
28.124733 66.624825 38.48503
34.880733 0.17882538 28.032032
35.693733 66.28483 27.74303
3.3357315 16.138824 65.964035
4.749733 14.264824 66.98603
73.40974 11.935822 2.5640335
73.48473 9.259827 2.1020355
7.6357346 3.4298248 60.254032
6.0387344 5.097824 60.559032
12.795738 8.034821 50.176033
11.315735 7.255821 49.06103
51.785732 46.74283 17.615036
50.985733 48.995827 17.055038
59.37173 47.67183 6.2110367
60.33673 49.385826 6.4570312
72.383736 40.833828 66.37103
73.063736 40.632828 68.01503
69.24973 35.292828 4.8360367
67.93774 36.986828 6.1320343
38.685734 38.236828 23.224031
37.777733 39.45483 24.904032
33.255733 39.38783 34.74103
31.076733 38.945827 34.97303
24.983732 29.786829 47.06803
25.788733 31.50183 48.08903
30.607733 34.11083 36.982033
32.347733 33.17783 37.19503
0.25273895 35.49883 28.282032
1.1987381 37.773827 28.71803
2.686737 40.81883 15.853031
2.8817368 42.80583 15.949032
19.596733 49.479828 11.230034
19.905731 52.20083 11.294037
26.056732 54.71383 2.0720367
24.091736 53.517826 1.2690353
38.766735 14.041824 52.63703
36.594734 15.087822 52.747032
37.920734 10.566826 65.40504
36.131733 9.342827 65.51203
28.393734 56.05483 37.91603
29.715733 55.98583 36.00103
37.180733 58.52483 28.287031
39.584732 57.96383 27.64203
48.762733 47.168827 68.004036
48.943733 45.20083 66.16203
57.04373 52.000828 59.25803
56.71773 50.78483 57.27203
68.565735 9.09182 55.61603
67.75574 10.536827 54.13703
74.93573 14.630821 44.392033
72.36073 14.544823 43.97903
12.304733 52.139828 60.655033
14.136734 51.745827 61.31303
19.123734 57.410828 52.614033
17.733734 58.82383 51.35903
60.28973 18.810822 16.325035
58.94173 21.099823 16.569038
50.576733 21.586823 25.325031
48.892735 21.781822 24.29903
32.929733 25.065828 70.102036
30.591738 24.967829 69.83503
21.072731 22.179829 2.4700317
20.564735 24.069828 3.964035
24.873734 26.53983 46.65803
25.238731 24.419828 47.56903
14.482735 25.669828 53.77103
15.1877365 25.703829 56.476032
4.676735 53.87483 39.129032
5.318733 53.74183 41.216034
71.135735 55.16483 50.22003
71.35274 53.12483 51.057034
19.627731 35.348827 27.03403
17.774734 34.139828 26.933031
13.145737 30.145828 36.191032
10.859734 29.107828 35.350033
4.464737 49.93583 40.147034
3.8127365 48.459827 41.428032
75.47573 49.13883 52.851032
1.4177322 48.188828 54.34803
39.139732 22.493828 72.590034
39.108734 24.665829 72.020035
46.283733 24.854828 62.33403
47.36473 26.536829 62.04903
55.962734 44.975826 20.015038
57.320732 46.689827 21.326035
62.15673 50.648827 13.15004
63.32373 50.973827 10.675034
28.018732 41.38083 53.02603
26.501732 42.612827 52.987034
18.224731 39.126827 59.53303
19.857735 38.53183 60.802032
45.30773 5.6558228 16.891037
46.97573 6.9878235 17.987038
52.881733 6.2118225 7.726036
54.737732 4.5238266 7.631035
44.98273 41.01183 63.10603
44.62073 39.16683 61.97403
49.964733 42.370827 51.570034
50.865734 40.646828 51.21503
69.468735 61.341827 51.79803
67.49274 62.66483 51.546032
61.14773 60.38883 63.39003
59.44173 61.59583 62.58803
44.34273 13.218826 72.19303
44.91273 11.375824 71.45803
48.646732 13.624825 59.75703
48.945732 15.556824 59.865032
0.11873627 49.54583 36.04803
75.85173 47.13083 36.231033
69.64574 50.15683 48.516033
71.70973 49.510826 49.725033
34.309734 51.58283 61.71503
35.612732 50.50583 63.267033
28.883734 50.056828 72.327034
27.882732 51.59683 0.8380356
9.2367325 20.736824 68.90203
9.566734 20.882828 71.462036
2.063736 16.969826 5.6680374
1.0557327 18.810822 6.3620377
53.084732 60.354828 21.752031
50.958733 60.69683 22.17003
43.519733 55.02483 28.92003
43.355732 55.751827 31.016031
49.916733 60.94683 19.373032
49.630733 62.57483 20.609032
41.206734 60.26683 28.088032
41.179733 60.05883 30.462032
49.414734 66.08883 35.22203
49.957733 64.30083 34.56903
55.93373 1.4978256 25.738031
55.81473 67.39283 25.341032
29.790735 42.314827 17.96803
27.608736 43.26383 17.76403
23.287735 41.049828 29.320032
22.703735 43.33183 29.905031
29.778734 45.975826 55.77203
30.075739 46.33283 57.98103
23.00473 44.280827 65.79504
21.195732 43.182827 65.94503
43.372734 19.487823 3.004036
44.374733 19.310822 0.202034
48.063732 23.422829 63.40803
47.41273 21.836823 62.080032
57.73973 25.286827 68.41603
58.394733 23.533829 66.79404
65.42274 21.618828 56.97203
67.039734 23.500824 57.15203
24.579735 28.104828 64.18404
26.29673 29.173828 65.42603
20.070732 26.922829 2.8370361
19.258736 28.606829 3.803032
62.47673 26.62683 17.735039
64.149734 28.107828 18.417038
69.261734 31.835829 6.2530365
70.509735 33.785828 6.959038
32.846733 33.521828 19.293032
32.75873 32.939827 21.45503
26.508734 31.45283 30.565031
26.020733 29.184828 29.866032
75.244736 21.148827 63.544033
73.23673 21.672829 64.060036
64.580734 17.82582 71.366035
65.13174 15.529823 70.97103
59.575733 1.2308197 5.744034
60.12873 2.4068222 8.165031
67.633736 6.990822 71.68903
66.53173 8.84182 71.91203
65.704735 8.907822 32.101032
67.26273 9.872826 32.62603
74.17173 12.782822 22.296032
74.40874 14.60582 21.984032
1.5507355 52.635826 36.81703
0.7317352 54.875828 36.421032
66.91673 51.822826 44.865032
66.27873 53.99983 46.066032
42.396732 30.491829 5.462036
41.865734 28.656828 5.7650375
38.223732 25.095829 16.628036
37.443733 26.82083 17.562035
60.964733 41.168827 5.3380356
62.15073 39.745827 4.2410355
69.62373 41.724827 66.48503
68.553734 40.21483 65.41303
1.3967361 52.383827 55.414032
0.8087387 50.535828 56.190033
73.63074 51.376827 66.548035
72.661736 53.036827 67.54203
9.290733 31.047829 3.2170334
10.929733 32.48583 3.452034
6.3107376 27.14083 13.232033
4.466736 27.80683 12.048035
34.359734 56.98983 23.206032
35.02273 57.85283 24.83703
28.039734 51.83283 33.190033
29.011734 53.542828 35.099033
38.187733 50.07583 62.84103
38.388733 51.003826 64.535034
31.925734 43.20783 71.21803
31.760733 41.271828 70.72103
71.05573 14.36982 57.98003
70.564735 12.66082 60.47803
65.18373 13.334824 69.08403
63.825733 11.85482 69.49403
45.79373 4.856827 0.014038086
47.48173 6.0238266 1.0310364
55.18373 7.689827 64.37503
54.503735 8.5488205 62.58903
52.649734 34.779827 14.265038
51.463734 34.550827 12.230034
59.16473 38.655827 4.653038
58.597733 40.99283 3.0400314
32.241734 45.051826 38.059032
31.113733 42.81683 39.313034
26.445734 40.857826 48.447033
26.789734 41.44383 50.619034
4.783737 16.388824 62.89803
6.169739 14.831825 64.13503
14.284737 16.751823 56.02103
15.765732 15.287827 55.04803
60.29673 45.32483 39.613033
60.61573 43.008827 38.66703
67.885735 45.47183 30.743032
67.855736 47.36083 28.98203
54.896732 52.621826 54.30003
57.164734 52.306828 55.29203
58.597733 54.53383 45.051033
59.73273 56.84983 44.530033
34.052734 30.20283 31.641031
35.116734 28.654829 32.11003
44.50173 31.27183 25.171032
45.952732 32.63783 24.265032
63.15073 34.42683 21.311031
62.69273 33.06183 23.247032
56.00273 31.48383 30.862032
55.555733 33.007828 32.49803
71.32373 57.37183 52.07503
72.05873 55.37283 52.78503
65.553734 51.114826 62.29203
63.271732 50.19883 60.97203
24.297733 45.38183 50.246033
24.626734 47.63883 50.163033
33.431732 51.057827 41.822033
34.437733 49.195827 40.551033
23.043732 9.233826 22.530031
24.67073 9.183823 24.117031
19.524734 9.709824 34.754032
20.277733 7.950821 35.599033
48.15473 20.851822 4.6630325
49.257732 19.044823 4.485031
57.803734 22.450829 70.09303
56.548733 22.601822 68.602036
30.552732 3.061821 41.544033
31.644733 1.1038208 42.162033
37.136734 5.911827 31.639032
38.548733 4.1058197 31.860031
36.151733 50.88183 41.78403
37.725735 51.236828 42.974033
47.16973 55.91383 35.579033
47.201733 57.98283 34.26403
40.915733 60.67883 11.179031
42.47473 59.50683 11.092033
52.597733 59.500828 3.268036
51.788734 58.12783 2.2880325
56.68973 55.44383 41.025032
57.136734 53.862827 42.82403
52.61373 49.55283 52.77703
50.10073 50.613827 52.899033
9.783737 31.104828 15.962036
10.226738 33.10083 16.808037
13.349731 40.66583 8.600037
13.516739 38.48583 8.537033
13.208733 17.708824 53.04103
14.165733 15.598824 52.918034
18.924736 15.144821 40.982033
17.932732 15.879822 38.42303
48.945732 43.078827 69.00203
49.782734 42.77683 70.825035
45.373734 45.496826 8.861038
46.00273 42.517826 9.328033
12.391739 28.463829 38.288033
11.188736 30.009829 40.02703
6.045738 24.012829 48.842033
5.926735 25.686829 50.662033
46.347733 37.30983 44.893032
48.601734 36.036827 45.20603
55.310734 39.49083 35.32503
57.462734 39.648827 34.98403
0.49973297 19.14582 64.78104
2.2817383 20.773827 65.602036
70.73473 17.440826 0.5900345
71.522736 15.121826 1.3940353
31.352734 25.141829 67.22504
31.771732 25.677828 64.76403
40.023735 29.187828 58.57503
40.908733 28.353828 56.58303
59.783733 16.75682 49.698032
61.89373 16.725822 50.525032
54.395733 16.259827 62.03303
56.531734 15.649826 62.89003
11.079735 11.283821 12.321037
10.254738 9.356827 13.193039
2.3357315 14.286827 22.712032
4.6967316 15.294823 23.637035
65.25774 22.419828 35.43803
65.18573 21.930828 32.997032
70.50373 30.234829 24.858032
71.594734 28.40383 23.98603
59.304733 14.331825 67.38603
57.94673 15.04982 65.672035
66.66773 19.320824 56.823032
68.426735 17.919823 57.75003
5.948738 48.94183 21.12803
6.9497375 48.917828 23.155031
72.16873 48.70583 31.455032
70.68073 50.132828 30.201033
53.802734 62.819828 19.377037
52.53673 65.02083 19.745033
60.255733 1.9588242 11.570038
60.83173 0.4768219 9.868034
43.505733 34.840828 61.45203
45.755733 35.54683 62.32003
52.185734 37.79483 52.525032
54.444733 38.17083 52.719032
64.60173 53.14583 9.261032
66.72173 51.71383 9.9770355
75.09773 53.029827 0.58503723
74.553734 54.090828 71.617035
11.791733 43.008827 22.150036
11.193733 41.446827 20.827034
20.402733 43.89383 11.8140335
20.808731 45.92383 11.268036
0.86273193 66.304825 20.938034
0.066734314 66.720825 19.287033
9.472733 1.3908234 11.723038
11.255737 0.42882538 11.8780365
58.50873 27.642828 33.351032
56.908733 25.95983 33.64003
53.750732 26.899828 45.48503
