63.25062 80.06301 43.46755
63.70662 81.13301 41.50055
24.080622 103.918015 39.239548
26.190622 105.847015 39.595547
24.410622 101.79501 28.210548
23.715622 99.82701 29.373549
16.072622 3.6260161 3.5335464
14.871622 5.392016 4.5595474
11.118622 10.389016 11.382545
11.143621 11.577016 13.8715515
31.345623 64.10401 29.190548
30.198622 62.052017 28.680548
20.550621 58.073017 33.010548
18.729622 59.191017 31.992548
13.983622 1.0380162 36.43955
12.676621 2.225016 37.768547
14.909621 9.139016 42.63955
15.117621 10.583016 44.936546
36.159622 40.495018 33.700546
35.62162 38.30702 32.98655
43.18562 29.432016 31.699549
42.06762 27.800016 32.25055
22.495623 24.788017 55.442547
23.636621 24.373016 53.95355
30.699623 25.036016 3.8845482
32.85062 24.166018 3.2265472
19.460623 1.8440162 5.8715477
20.499622 0.85601616 4.3615456
26.463623 9.412016 9.071548
28.241623 11.277016 9.639549
46.07762 12.649016 22.865547
47.72862 11.7790165 21.646545
40.69062 4.173016 18.963547
39.48862 5.2090163 20.799545
53.93562 15.449016 8.06955
54.874622 13.107016 6.937546
45.47362 9.700016 9.824547
45.46762 11.929016 10.163551
16.595621 65.195015 52.441547
16.022621 63.428017 51.498547
22.800621 57.80602 45.60555
25.033623 58.629017 45.964546
62.81562 70.45101 52.784546
63.513622 71.875015 54.78655
60.06662 76.24702 52.358547
60.381622 78.71301 53.343548
30.865622 41.366016 4.0055466
32.17662 43.290016 3.7715454
36.346622 43.442017 12.268547
36.59462 46.173016 12.988548
59.25062 11.5880165 47.059547
59.88762 9.648016 46.55055
54.298622 11.999016 38.902546
54.534622 10.273016 36.873547
25.923622 51.309017 26.689545
25.215622 53.123016 27.790548
32.902622 60.491016 29.411547
34.16962 60.896015 27.77355
52.21162 10.087016 20.890549
51.47962 9.565016 18.838547
51.48762 14.957016 9.470551
53.26262 14.210016 10.678551
32.722622 92.73402 0.45754623
34.137623 93.38201 55.70355
43.91062 88.21501 56.639545
42.27362 87.05201 55.998547
39.36262 50.55702 46.951546
40.13262 52.58502 47.546547
36.16362 55.643017 55.850548
38.14862 54.57102 56.387547
35.36462 49.990017 30.386549
34.567623 48.05602 28.78755
41.28862 41.907017 23.16555
42.66062 42.365017 21.313545
14.571622 20.464018 34.162548
16.083622 19.323017 32.68855
14.029622 7.696016 30.351547
13.244621 6.396016 32.38455
40.331623 77.09201 11.227547
40.228622 76.251015 13.014549
34.08762 82.180016 21.607552
34.61362 83.13301 23.86155
17.577621 31.432016 26.642548
18.952621 33.296017 27.189548
15.561622 39.33402 33.095547
15.153622 38.088017 31.222548
47.49162 68.542015 17.127548
48.31462 67.540016 15.838547
51.02862 74.946014 8.217545
49.24862 76.154015 7.9795456
65.875626 69.84301 30.249548
1.6246185 69.87302 29.508549
5.776619 65.12302 32.594547
7.2266235 63.132015 32.692547
31.004622 79.13401 51.704548
32.971622 78.778015 51.248547
28.245623 69.07401 51.428547
28.487623 66.65701 51.472546
26.970623 9.151016 24.66655
26.015623 8.085016 23.106544
33.074623 0.81101614 19.962547
34.50362 0.08301614 18.090546
50.47162 29.839018 43.311546
50.94862 28.114017 44.879547
59.70662 29.429016 46.408546
59.57562 29.828016 44.103546
44.40662 25.936016 52.86255
44.03962 27.584017 51.337547
42.87762 38.239017 52.89055
42.50062 39.846016 51.27355
22.907621 3.209016 20.698547
23.804623 4.318016 19.20755
19.754622 2.107016 9.19355
20.509623 4.2360163 9.002548
45.034622 30.034018 46.760548
46.25362 28.799017 47.931545
54.98362 30.339018 55.663548
53.75762 28.849016 56.949547
33.30762 22.438017 7.4285507
30.906622 21.889017 6.471546
38.36462 14.647016 7.1115494
40.25762 14.633016 8.881546
18.853622 81.11601 0.18554688
20.219622 82.24001 57.205547
30.031622 82.50501 52.137547
32.054623 82.19101 53.232548
5.986622 82.47801 51.00855
7.433622 80.50601 50.920547
13.019622 78.31301 42.602547
11.880622 77.65801 40.71655
17.757622 58.70202 2.3895454
19.582623 57.909016 1.3445473
27.547623 54.867016 0.1195488
27.077621 53.684017 56.040546
29.065622 70.95101 32.420547
27.565622 71.97801 31.949549
35.942623 79.263016 35.33455
37.64062 79.38201 36.72255
64.49262 75.28701 37.983547
64.92762 77.18801 39.39755
9.42262 81.208015 39.71755
10.6176195 78.82301 38.57755
63.91862 73.78601 27.516548
62.65662 75.933014 28.361547
5.868622 84.33901 28.106546
5.3966217 86.10701 26.033546
15.847622 8.2130165 14.653549
17.117622 7.345016 12.910545
21.400621 15.049016 4.9625473
20.799622 15.471016 2.862545
56.67162 96.80201 14.190552
58.59862 96.22601 14.798546
53.69562 96.930016 19.024551
54.81862 97.557014 20.494545
43.03862 40.20902 42.919548
42.01562 41.478016 44.805546
34.24762 50.185017 40.485546
32.30262 48.86902 39.748547
4.550621 103.81702 38.97955
2.814621 104.77201 40.124546
61.45762 95.61901 42.650547
63.07462 94.752014 43.663548
11.204621 77.65601 35.513546
12.120622 78.63001 33.864548
11.199622 79.557014 24.212547
10.612621 78.57401 22.393547
41.65362 96.541016 39.456547
41.04262 95.16201 40.61155
46.881622 96.402016 48.770546
46.98662 95.03801 47.351547
42.99062 5.125018 37.026546
43.34862 2.8230162 38.246548
47.53662 103.471016 33.256546
49.15562 104.168015 32.381546
64.64862 75.86801 18.283546
65.959625 77.570015 17.879547
4.272621 69.77101 26.205551
4.993622 69.030014 24.451546
60.45462 100.18501 32.732548
62.07462 100.28401 34.24555
3.8216171 106.986015 38.38955
3.2806168 1.3250122 38.652546
2.7056198 37.957016 25.536545
3.4026184 39.374016 23.964546
9.356618 43.482018 18.40255
11.745618 43.449017 17.843552
31.928623 91.13101 4.416546
33.49762 89.30302 4.7835464
41.07462 86.45301 0.7845459
39.33562 85.473015 1.8685455
60.27162 77.17802 45.395546
58.91262 77.10101 47.206547
54.19362 69.485016 51.697548
55.270622 68.04601 49.728546
24.683622 15.423016 28.087547
23.827621 13.968016 30.216549
29.856623 22.293016 32.102547
29.637623 24.003017 30.757547
58.895622 67.972015 12.715546
60.35262 66.84401 13.530548
55.85462 66.34502 24.497551
56.51762 64.71902 25.769547
3.5166168 34.62602 8.497551
4.3036194 35.476017 10.186546
5.986618 46.685017 13.684547
4.953621 48.007015 12.487549
5.6286163 19.985018 20.906548
5.500618 18.563017 18.83255
0.7946167 16.058016 27.988546
1.262619 17.962017 28.265547
64.403625 50.57002 19.107552
63.11062 49.507015 20.129547
57.71462 53.88302 28.820547
55.59162 54.21602 29.554548
34.61162 64.79601 56.05055
33.48262 63.296017 56.75255
28.602623 68.06702 9.66655
28.756622 70.05901 10.503548
56.25762 36.49402 21.524551
57.28262 38.153015 20.795547
53.51562 46.43102 17.24855
55.56762 48.173016 17.58155
25.084621 -1.0999838 31.146547
24.990622 1.0370162 32.88255
22.543621 11.734016 26.702547
23.812622 12.928016 27.587547
65.09162 15.699016 40.63455
0.43862152 16.555017 42.18255
7.972618 26.252016 45.01555
7.378624 26.971018 42.84055
23.341621 12.778016 57.052547
21.708622 13.870016 0.56554794
11.673622 12.188016 56.652546
11.926621 13.480016 54.555546
64.98562 18.895018 0.0015487671
66.25962 18.699017 2.1085472
61.11662 10.335016 4.9765472
59.24262 9.8050165 6.3565445
56.74362 59.67502 48.85655
54.444622 60.132015 47.58455
53.222622 67.40102 40.310547
53.30762 65.07802 40.70955
18.399622 96.306015 41.157547
19.790623 97.86401 41.937546
28.680622 97.81601 36.93155
29.453623 98.165016 35.44655
33.449623 30.764017 2.1945457
35.44862 29.597017 3.1235466
38.69762 21.348017 54.51555
38.040623 22.097017 52.708546
23.087622 11.136016 11.893547
24.898623 12.286016 11.715546
22.949621 14.211016 23.169548
23.348621 13.316016 24.49855
54.22962 42.033016 35.23055
55.25462 40.421017 35.47355
62.47162 34.430016 38.776546
63.624622 35.04902 36.74455
0.974617 37.694016 5.721546
66.085625 35.403015 5.3545456
66.14362 37.671017 50.602547
64.42862 37.49402 49.830547
4.6076202 26.124018 37.912548
3.3806229 27.540016 36.59055
6.5896225 34.526016 43.982548
5.213623 35.833015 42.87755
29.018621 73.24702 11.584549
27.739622 72.515015 9.908546
35.33062 79.44001 7.1465454
34.741623 80.88501 5.270546
36.91062 12.254016 23.687546
39.21262 11.090016 24.312546
42.71162 12.152016 12.271545
44.73162 12.512016 12.802551
52.88662 89.29501 37.520546
53.04662 90.49301 39.27255
48.31062 92.74702 37.25855
46.14862 92.210014 36.63955
53.03862 87.92201 51.221546
52.55462 86.12001 50.326546
52.89062 79.97701 2.058548
54.22862 81.765015 3.254547
44.52262 34.040016 46.25855
46.46462 32.996017 45.442547
57.298622 31.427017 42.838547
57.54062 33.707016 42.95355
31.239622 0.3340149 40.559547
29.507622 0.1450119 41.87555
31.661623 96.624016 37.004547
34.12962 96.74301 36.64055
16.178621 49.407017 20.078545
18.092623 49.523018 18.13755
15.870622 52.412018 8.230545
18.107622 52.783016 8.186546
46.74262 60.296017 5.6015472
44.44662 61.60502 5.008545
45.86662 66.529015 16.44255
43.79062 68.23201 16.62555
55.38062 13.3450165 12.385551
55.645622 15.203016 11.071548
53.388622 18.344017 8.656548
52.58762 19.979017 10.130547
62.87962 92.16402 53.544548
62.69162 94.71301 53.08555
64.640625 92.88702 44.91855
62.93662 92.24802 46.206547
45.14962 31.209017 32.552547
46.50362 32.777016 33.560547
57.04962 33.112015 31.784548
58.812622 34.035015 32.435547
31.716623 47.831017 42.615547
31.894623 49.788017 44.339546
36.54962 43.29302 53.84255
38.05162 43.386017 52.326546
8.102623 96.37101 10.377548
8.34462 96.540016 12.675545
6.87162 86.180016 14.022545
8.765622 84.93601 12.959549
14.244618 34.240017 31.117548
12.833615 36.547016 30.442549
2.748619 38.629017 30.017548
1.4426193 37.506016 31.825548
29.740622 7.759016 57.471546
29.626623 9.509016 1.5285454
29.504622 9.156016 11.071548
28.605623 8.505016 13.016548
53.10462 76.72501 4.2155457
51.33962 77.10201 5.6585464
51.73562 88.00401 11.030548
51.47962 89.09301 9.369545
53.78062 57.537018 14.104546
55.11762 56.611015 15.411545
60.82462 62.819016 22.08155
62.17562 64.69901 21.159546
37.98862 26.849016 17.689545
36.86962 25.491016 18.947548
39.64862 16.401016 26.695549
41.57262 16.940016 26.796547
9.903622 2.9870176 50.33455
9.990622 0.84601593 51.162548
9.530622 101.335014 41.83555
10.788622 102.92501 40.128548
42.91262 46.21702 5.286545
45.28862 47.068016 5.777546
44.52662 55.080017 5.5455475
46.55162 53.844017 4.131546
11.859616 81.221016 42.544548
9.585622 81.96101 42.297546
5.56662 91.07801 44.065548
3.3586197 91.77502 43.087547
23.830622 26.897017 6.687546
21.681622 25.459017 5.9445457
26.484623 15.602016 1.3215485
24.688622 14.781016 0.9705467
39.70962 27.624018 34.90255
38.44062 25.964018 33.78655
38.55062 15.848016 31.377548
39.999622 15.789016 29.567549
59.88762 81.12202 0.21854782
59.402622 80.529015 2.3045464
57.37162 87.958015 11.024551
55.92762 89.13001 12.757545
42.41862 34.504017 42.25855
41.63562 36.302017 42.395546
39.659622 45.367016 36.57155
38.26862 46.70202 36.35555
40.23062 53.684017 30.025549
41.04662 55.433018 28.688547
51.465622 57.365017 33.822548
50.76462 57.350018 36.525547
45.152622 57.47302 42.41855
43.71462 59.35502 41.276546
40.96862 47.83402 36.919548
42.388622 47.638016 38.312546
12.301621 94.52401 29.436548
12.277622 96.74301 28.949549
5.328622 101.06201 28.446547
3.194622 100.31702 28.93455
47.62662 81.32901 13.922546
46.55862 81.87101 11.81855
46.99462 87.02502 6.969551
48.56062 87.79601 6.9135513
23.424622 7.928016 22.16755
23.054623 6.071016 21.987549
21.351622 12.360016 29.081549
21.516623 14.789016 29.618547
17.744621 7.857016 41.366547
19.737621 7.298016 42.240547
12.761621 1.5480162 52.116547
14.433621 1.1570162 54.143547
64.753624 14.949016 0.55254745
0.4816208 16.128017 0.4055481
2.2986221 8.258017 7.4675446
1.477623 7.5650163 5.714546
24.778622 40.635017 14.936546
26.547623 40.19502 15.945549
19.213621 35.026016 23.80555
20.308622 33.090015 25.002548
29.106623 8.678017 28.876549
30.199623 9.9700165 31.010548
28.430622 7.195016 41.143547
30.651623 7.055016 42.15555
8.171621 50.43902 56.478546
9.4126215 49.927017 0.5475464
14.4716215 39.746017 53.71755
16.199621 40.37602 52.162548
47.44262 83.335014 33.97255
44.79662 83.60701 33.96055
43.22062 92.38001 27.028547
42.38062 91.249016 24.666548
40.756622 54.183018 10.428551
39.164623 55.983017 11.667549
46.99562 60.514015 13.247551
49.12562 59.894016 13.948547
63.89762 91.32501 15.215546
64.13262 89.49702 16.02555
4.949623 90.97701 23.882545
6.7426224 89.555016 23.196548
2.7846222 60.373016 36.569546
1.7996216 59.677017 35.061546
2.51062 47.268017 34.117546
4.1786194 46.68802 35.69655
0.7756195 26.375017 22.030548
0.85061646 28.387016 23.412552
56.96862 27.625017 19.184547
56.24062 25.837017 18.131546
47.65162 30.610018 18.15355
48.27262 29.207018 16.710548
41.24362 25.380016 24.72155
39.699623 23.343018 24.704552
14.289621 0.31301618 25.529549
12.698622 0.94801617 23.881546
16.150621 5.3140163 14.433548
18.289621 4.6620164 13.60955
57.79762 35.156017 5.6075478
58.87662 34.858017 7.744545
53.57862 31.490017 0.92754745
55.62862 32.281017 0.62454605
36.12562 3.589015 26.342545
35.48262 1.4070159 26.19355
45.22862 102.92201 20.05355
45.055622 103.902016 18.532547
57.40462 28.025017 42.857548
58.18962 27.262016 44.719547
50.166622 25.656017 51.826546
49.52262 27.989017 51.264545
6.1606216 86.707016 47.132545
6.393622 85.08801 48.129547
15.618622 80.34301 44.919548
17.541622 79.99201 46.23055
13.238622 22.254017 43.873547
13.778622 20.052017 43.93255
17.248621 11.665016 44.088547
18.280622 9.630016 43.434547
51.25362 74.36401 4.3475456
49.38462 73.95201 5.9245453
46.60562 66.17501 54.45355
46.22362 64.80901 56.00255
18.359621 31.350018 57.03655
19.406622 33.318016 57.067547
21.372622 36.346016 9.79055
19.731623 35.576015 11.134552
5.292618 26.511017 55.518547
6.1036224 25.632017 53.95955
2.411621 31.903017 45.56455
1.0136185 31.536016 46.711548
36.095623 66.751015 6.5765457
34.359623 66.40901 6.622551
38.067623 75.60301 9.599548
39.11262 74.195015 11.469551
35.381622 102.36401 10.674545
36.58462 102.93801 12.327545
41.17662 103.86901 2.1665459
40.10662 101.88401 1.0275459
55.51762 13.693016 45.275547
57.78162 12.951016 44.34955
53.29762 4.592016 37.95355
51.75962 2.9440162 38.64055
55.638622 22.499018 56.388546
57.48962 21.348017 57.30055
56.666622 15.535016 47.912548
56.39362 16.144016 45.978546
65.22662 24.544018 14.05555
63.33562 23.101017 14.738548
60.57362 19.744017 22.11055
59.41562 18.405018 23.76355
22.114622 19.876017 22.159546
21.247622 19.786016 24.294548
27.314623 29.106016 25.893547
27.582623 27.965017 24.271545
27.024622 84.87202 31.842548
25.548622 84.207016 30.021547
34.422623 82.599014 32.10455
36.12562 84.445015 32.58355
46.90762 40.881016 25.185547
46.00962 40.85502 23.17855
52.49362 47.62602 22.77555
51.33762 46.607018 24.747551
43.71062 36.227016 48.636547
44.25162 37.34102 50.157547
53.02262 34.13302 0.33254623
50.54362 32.670017 1.6055489
6.7526245 80.34301 53.656548
4.351616 80.93501 52.75155
6.5636215 79.460014 6.3965454
5.5186157 77.583015 6.216545
28.653622 16.171017 44.410545
28.634623 15.245016 42.367546
16.478622 17.052017 39.40355
15.612621 19.228018 38.922546
63.16162 37.683018 27.652548
62.23762 36.11202 29.32355
56.46762 33.94502 23.25055
57.28062 36.171017 23.937546
40.87062 99.15102 50.426548
41.58062 100.63101 51.808548
47.87962 96.44001 51.270546
48.40162 96.38401 53.240547
15.819622 34.96002 20.907547
16.968622 33.132015 20.297546
24.857622 38.09802 14.711548
23.927622 39.180016 12.87355
10.89462 25.272017 53.615547
8.841619 25.440018 52.762547
5.8746185 38.018017 55.205547
7.003624 38.09102 57.277546
51.85862 59.191017 26.761547
50.47362 61.294018 25.730549
49.50762 62.403015 37.36855
50.48462 59.788017 37.260548
27.843622 34.19602 44.727547
27.822622 36.308018 44.804546
23.404621 32.631016 52.977547
22.536621 30.980017 53.824547
14.040622 18.183018 24.09755
13.088622 17.191017 21.946548
7.7526217 12.398016 15.505547
8.241622 14.108016 14.99855
27.191622 95.60301 54.944546
27.890623 97.99201 54.51555
38.22662 100.18401 51.15455
37.727623 102.002014 52.040546
52.55862 4.389016 28.517548
53.21962 2.378016 27.645548
62.64662 3.391016 33.62655
62.80762 4.885016 35.060547
64.406624 98.919014 24.30655
66.19262 99.02101 25.631546
61.92562 88.60501 26.779549
64.18862 87.55901 25.229546
38.78162 40.825016 23.990547
40.151623 39.36202 24.102547
43.19662 28.905018 25.726547
41.96662 27.282017 26.76155
0.58361816 32.550014 8.565552
66.13362 31.337017 10.064545
58.03562 28.118017 16.865547
57.722622 30.134018 17.171547
35.55962 5.9260206 12.605545
37.422623 5.8100157 10.588547
35.720623 104.05901 4.2265472
34.241623 102.39201 3.1585464
11.263616 -0.116983905 21.13855
9.498616 -1.4109839 22.272545
5.804619 8.807016 26.312546
4.53862 10.032016 24.340546
59.04062 8.775016 35.78555
61.25862 8.287016 35.38955
1.1906204 16.988016 30.904549
1.9556198 17.541018 32.825546
50.03362 27.103018 12.622551
49.93962 24.735018 12.06855
53.61062 20.526016 2.270546
55.42662 20.835016 1.539547
15.328622 32.309017 29.609549
15.380622 30.529016 28.679548
5.0086217 30.153017 23.40255
4.279622 28.198017 21.839546
32.478622 50.291016 30.852549
33.10062 50.496017 28.386549
24.875622 51.59102 21.336548
23.558622 50.325016 20.285545
56.36262 77.682014 48.972546
55.07962 77.82601 47.162548
59.48862 70.42401 45.917545
58.95962 67.83801 46.80755
12.297622 40.055016 47.77955
13.902621 40.31302 49.770546
20.932621 48.648018 49.315548
20.674622 48.804016 47.275547
6.2546234 10.725016 52.838547
5.435623 9.0620165 52.00155
64.628624 1.3160162 56.442547
63.180622 0.80701613 54.454548
31.361622 99.250015 33.393547
31.784622 99.972015 31.206549
31.249622 2.7860212 29.444548
29.267622 2.0380201 28.371548
50.78362 8.235016 23.195549
48.26462 9.099016 23.406548
43.79962 2.878016 32.279545
44.65862 1.1200161 32.659546
2.4146194 50.514015 2.5295448
3.9266205 51.93202 1.4115486
8.387619 54.148018 49.50255
8.529625 55.853016 47.85555
56.43962 79.17401 33.197548
57.78062 80.73201 34.047546
57.69862 76.12101 44.969547
60.083622 74.94801 44.192547
3.2206192 87.79501 54.77955
4.062622 85.485016 54.746548
11.22862 78.85902 55.59155
8.93562 77.83601 55.180546
1.2756195 7.732016 19.029549
65.32962 7.742016 18.787552
62.38262 16.269016 26.52655
60.61762 17.030016 27.575546
12.213622 60.511017 1.1595459
12.291622 62.07802 2.5475464
11.197621 60.233017 14.089546
13.017622 59.339016 14.990547
30.183622 66.55901 39.45855
30.214622 64.35902 40.331547
25.717623 72.05101 42.372547
24.398623 73.46901 43.392548
64.73362 83.40701 30.733547
64.57862 85.06101 32.86155
58.14762 94.53601 31.146547
56.28862 93.60501 30.591549
56.520622 26.937017 32.746548
54.70462 27.484016 33.720547
45.62862 28.423018 27.081549
44.374622 29.251017 28.775547
15.960622 74.61701 20.853546
17.430622 75.63201 22.743546
16.194622 74.18601 32.862545
17.453623 75.999016 31.82955
44.10962 24.043016 25.492548
45.85362 23.041018 25.423548
56.65062 22.294018 30.255548
55.82462 20.266018 32.14855
34.826622 42.628017 30.614548
36.26062 43.631016 31.919548
25.123623 48.78602 30.150549
26.150621 47.57802 28.275547
39.944622 45.06302 53.274548
38.01062 45.762016 53.84955
44.74862 48.905018 3.9715462
45.18262 51.489017 3.3275452
23.599623 76.349014 13.54055
25.246622 75.54901 13.813545
33.151623 81.89501 18.586548
33.546623 79.361015 19.23455
3.2586212 4.2690163 38.131546
4.1646194 4.148016 40.150547
11.793622 5.695016 38.086548
14.330617 5.930016 37.582546
9.890622 37.169018 43.444546
10.152622 35.700016 42.086548
6.8896217 27.329018 36.720547
5.7206216 28.323017 35.05055
15.008621 96.00801 17.288551
15.871622 97.94901 17.530548
22.213621 103.53801 9.690552
24.235622 102.72701 9.266548
25.162622 30.015017 49.094547
27.022623 29.061016 48.36255
34.98262 23.439016 53.52355
35.98762 24.293016 54.965546
15.934622 79.80101 5.2195473
14.153622 79.14301 6.3945465
12.230621 87.626015 12.105545
13.540622 88.88001 12.17955
16.913622 88.64301 8.992546
17.438622 91.266014 9.0835495
24.799622 95.057014 0.43454742
24.762623 97.43701 2.204548
47.81862 26.745016 53.99555
46.78962 28.643017 52.670547
43.055622 38.377018 56.574547
42.381622 39.909016 54.89755
3.858622 44.870018 32.954548
5.4696217 43.380016 33.387547
16.899622 44.309017 35.686546
19.259623 44.990017 34.580547
33.484623 2.975016 57.177547
32.45262 1.0700161 56.27355
29.612623 3.517016 43.444546
31.178623 2.5270162 41.91755
63.00162 82.56201 23.44255
61.17662 81.90701 24.73555
56.02462 92.07801 28.283548
53.62062 91.820015 28.03155
21.684622 79.766014 16.240547
21.168621 81.48001 16.856544
23.660622 86.15002 27.40055
24.988623 86.85902 28.973547
9.706616 23.592016 6.99955
8.408623 21.754017 5.9345474
3.9786224 20.775017 18.04155
2.0696182 20.574017 17.744545
28.600622 69.487015 13.177551
26.737623 67.63301 11.906548
31.344622 61.43802 10.206551
33.11262 60.072018 10.579552
43.82162 26.611017 24.55555
45.798622 26.260017 24.740547
55.34362 29.834017 18.891548
56.34462 31.772017 18.756546
23.488623 82.290016 3.6635475
22.366621 83.16301 5.7415466
32.12162 89.09201 7.063545
31.487623 91.46701 7.148552
24.249622 55.87602 33.90955
23.804623 54.382015 32.568546
23.668621 44.825016 35.20855
21.660622 44.415016 34.21555
36.11862 91.71101 22.240547
37.220623 93.47501 22.44355
33.395622 103.81601 14.774551
33.756622 103.058014 13.088547
48.12862 41.621017 9.921547
47.965622 43.454018 9.078545
48.38462 47.632015 16.711548
50.916622 47.55002 16.170547
40.94662 4.260016 34.817543
42.74562 5.107016 33.401546
42.00262 4.2880163 21.797546
43.20762 5.545016 20.199547
46.201622 60.39702 38.73855
45.82062 61.228016 40.942547
48.22762 71.749016 40.645546
47.76462 72.97701 38.50755
45.15662 7.778016 44.401546
43.95262 9.596016 43.04955
34.73262 13.456016 38.179546
35.51062 15.752016 37.89055
8.579621 47.972015 32.54155
6.9226217 48.388016 34.31955
11.911622 57.579018 33.865547
10.924622 57.38302 35.77855
13.271622 106.31401 22.371552
14.1886215 105.65801 24.455551
19.066622 96.029015 24.433548
19.293621 94.249016 26.487549
31.275621 59.944016 17.423546
28.947622 60.156017 17.976547
20.243622 60.922016 21.700546
19.375622 63.200016 20.364548
32.48162 91.221016 9.928551
33.352623 92.847015 8.492546
45.71962 88.96201 9.98555
46.72362 89.80001 8.229546
17.950623 71.19202 1.4935455
20.598621 70.293015 1.9415474
26.640623 68.11401 57.364548
27.851622 67.38401 55.90455
63.00562 45.70202 6.2415466
64.472626 46.89002 5.5765457
2.8216171 40.523018 1.7905464
4.3626175 38.186016 0.87454605
57.53262 81.92701 55.666546
56.23562 80.73101 56.86255
52.91462 72.15102 52.637547
52.51162 74.472015 51.546547
44.26062 32.692017 43.213547
43.65562 32.095016 41.165546
52.88262 40.054016 39.941547
51.98662 41.912018 39.76655
7.2896194 81.20602 45.836548
7.699623 81.054016 43.840546
64.822624 77.930016 41.836548
63.63762 77.347015 43.44655
59.402622 57.726017 56.977547
61.55262 57.365017 55.159546
0.26361847 49.662018 3.8325462
66.14962 51.49402 4.4555473
43.020622 42.55602 26.564548
44.22662 40.650017 25.807549
45.96362 30.898018 26.328548
48.46462 31.468018 26.845549
55.069622 8.200016 17.160545
54.66362 8.579017 19.578545
60.80762 15.950016 23.562546
62.28762 17.713017 22.961548
8.042622 84.875015 18.242546
7.4486217 84.682014 16.199547
11.164621 76.264015 9.066551
9.826622 74.36801 10.101547
37.49562 55.485016 15.337547
35.78062 55.207016 13.626549
41.11662 53.067017 4.468548
41.67162 55.763016 5.154545
30.469622 -3.252984 14.822548
30.656622 -1.9689838 16.602547
27.901623 7.018016 19.393547
25.298622 6.591016 20.19255
57.10762 85.38501 21.15255
56.083622 84.42401 23.342545
51.96262 73.94901 21.149551
50.055622 73.49702 22.245544
20.159622 54.523018 32.15455
22.072622 56.101017 31.784548
20.436623 63.242016 24.693548
19.732622 64.554016 25.818548
35.30962 66.42001 4.025547
36.130623 68.41402 3.1895447
35.18962 76.84301 53.866547
35.444622 78.974014 52.840546
65.958626 6.134021 35.71555
1.1226196 3.9860182 36.429546
4.352623 103.69202 30.245548
6.838623 103.14501 30.598549
54.37362 11.841016 34.62555
52.749622 12.482016 36.489548
48.090622 19.097017 29.409548
47.37162 18.823017 26.997547
33.37162 26.809017 21.959549
34.874622 25.330017 22.591545
29.139622 20.666018 16.422546
29.899622 18.647017 15.342545
48.083622 28.504017 45.165546
48.87762 26.244017 46.081547
45.00862 19.966017 37.17455
43.85762 17.757017 38.19655
62.17762 59.57702 52.562546
62.46962 58.15402 51.060547
61.49662 68.60802 46.579548
61.66562 70.27401 47.75955
19.118622 106.01801 37.09155
16.862621 104.94901 37.469547
20.331621 3.3230162 41.282547
22.381622 3.9020185 40.97355
31.380623 40.886017 31.205547
31.304623 40.238018 29.047548
22.426622 32.394016 26.897549
22.552622 31.224016 25.175549
55.01162 66.55101 55.427547
55.631622 67.80201 54.151546
53.40862 74.71801 5.872547
53.68362 75.097015 7.7135468
62.97962 102.03101 9.576546
64.499626 103.02301 11.23555
66.04962 4.9660215 17.883545
64.417625 5.259021 19.15155
35.62562 16.596016 41.555546
33.811623 16.559017 42.664547
22.788622 18.607018 37.30655
21.816622 20.481016 38.41755
56.50862 47.21702 43.504547
56.29362 49.28602 42.490547
52.71762 44.17502 33.919548
51.53662 42.726017 35.408546
65.96462 61.858017 44.810547
0.5026169 61.921017 42.61155
63.26062 51.24402 42.159546
61.79062 50.220016 40.586548
47.70562 25.816017 14.087547
47.24862 24.607018 11.992546
37.95962 22.323017 7.9025497
35.73762 23.405018 7.834549
38.49662 39.590015 31.112549
37.18162 41.19502 30.823547
46.56062 47.006016 31.236547
47.67062 46.986015 33.102547
12.324622 94.238014 52.379547
11.862621 92.708015 51.074547
19.631622 84.12202 54.878548
18.134623 82.431015 55.520546
42.10162 68.56501 37.019547
41.37162 70.27401 37.22955
33.824623 69.58701 34.03055
32.23962 71.30901 33.98755
4.394623 42.593018 42.14655
3.4316177 44.012016 43.162548
61.77662 49.914017 44.832546
59.15762 50.153015 44.74455
32.289623 88.097015 12.294548
33.923622 86.613014 12.1825485
44.06062 84.599014 11.726547
45.26662 83.99802 9.834549
37.707623 103.60401 41.03055
37.46862 103.61901 43.29355
41.80862 3.564021 47.458546
43.69962 4.4750166 47.431545
21.729622 11.077016 23.726547
20.326622 13.942016 24.002548
18.611622 6.056016 18.171547
18.840622 5.390016 20.940552
10.970622 76.09502 21.175545
10.750622 74.38101 22.575546
18.016623 68.10001 24.299545
20.316622 68.77502 24.36155
17.405622 79.38602 3.412548
18.900621 80.82301 2.763546
22.762623 72.08901 2.117546
21.559622 74.041016 2.2135468
40.359623 98.70001 54.990547
42.70462 99.59201 54.191547
47.222622 2.526019 3.8515472
46.590622 2.7980146 1.5225487
50.13962 61.096016 40.63355
51.01762 59.860016 42.04355
61.89962 63.510017 43.011547
63.03162 62.427017 44.39855
30.495623 54.405018 8.919548
31.283623 52.715015 10.191551
22.706621 44.076015 9.587547
23.347622 42.752018 10.570549
21.490622 40.544018 37.27155
20.275621 41.697018 38.37655
23.369621 48.253017 45.24555
23.295622 49.25802 47.631546
15.700622 56.837017 34.338547
17.789621 57.288017 35.13355
20.096622 53.35502 40.69555
21.210623 53.70202 42.867546
54.17062 -1.8729838 35.089546
52.49662 -0.7239839 33.96755
55.56662 10.815016 32.15455
55.22962 10.3380165 30.261547
64.834625 59.277016 12.37455
65.13362 58.604015 10.40255
8.900617 59.478016 15.342545
9.232617 57.42502 16.52655
35.77862 86.15601 14.864548
38.249622 86.00401 15.41555
44.99262 88.40601 18.064545
46.49762 90.37801 17.69355
5.359619 61.09902 20.93055
3.1866226 59.625015 20.004547
9.19962 56.256016 11.37455
7.345619 57.470016 9.641548
52.25762 40.29202 35.815548
51.47162 40.297016 33.801548
56.16262 30.730017 34.87755
57.66762 33.106014 35.650547
0.30261993 88.388016 0.011547089
0.73062134 88.72801 54.90455
0.79161835 75.81401 53.787548
2.097618 75.66101 51.41855
52.44862 6.931016 29.698547
49.99362 6.998016 29.377548
56.80062 15.159016 28.513548
57.01662 17.120016 29.573547
61.78362 17.807016 44.284546
62.340622 18.145018 46.329548
5.3486176 17.414017 52.990547
4.865616 15.124016 54.083546
52.49462 59.947018 49.43855
53.60862 61.490017 50.66155
44.87862 58.880016 2.355545
44.47362 56.497017 2.7115479
44.71462 64.63001 53.618546
46.30462 63.16102 52.454548
41.13762 54.944016 1.5605469
42.895622 53.815018 2.4305458
24.125622 69.41101 56.388546
24.556622 71.44001 0.36754608
32.74562 69.64901 56.290546
31.501623 68.056015 56.46755
4.5036163 55.913017 28.402548
4.512619 57.461018 26.571548
59.26062 56.339016 29.102549
57.93862 58.266018 28.313547
28.076622 74.90901 45.38455
27.414623 77.169014 45.374546
27.250622 86.68501 40.88955
29.108622 87.49301 41.47955
26.675623 18.679016 47.919548
27.100622 20.808018 48.496548
36.123623 25.528017 51.71755
35.326622 27.238016 51.500546
58.708622 30.911016 33.193546
57.48662 29.559017 32.635548
53.03962 23.284018 23.781548
55.44262 23.065018 24.352549
30.854622 38.728016 2.3725471
29.011621 39.489017 3.6065445
23.243622 29.374018 7.9565506
23.935621 30.521017 9.538551
64.336624 3.8710203 37.837547
64.70262 2.6360197 35.631546
62.48962 99.34201 37.193546
60.562622 100.139015 36.566547
33.992622 102.957016 52.034546
34.499622 101.26001 50.645546
27.427622 100.51001 1.8595467
25.033623 100.044014 2.5575447
54.58762 81.933014 31.553549
52.72162 82.92001 29.598549
49.49462 89.780014 35.88355
47.069622 89.54601 36.005547
58.64062 38.268017 29.490547
60.86162 38.968018 30.300549
56.881622 51.118015 30.419548
59.826622 51.361015 30.792547
3.8746185 65.402016 29.474548
4.9806213 63.149017 30.669548
10.140622 59.698017 34.72255
11.304616 61.316017 35.074547
65.612625 74.638016 33.568546
65.836624 76.972015 33.037548
9.531621 74.42101 39.555546
10.675618 72.58801 38.40355
38.05262 17.990017 40.095547
39.16262 18.251017 42.352547
38.874622 7.952016 47.365547
37.23162 7.762016 48.761547
37.69862 86.92501 23.310547
39.49362 87.97601 23.437546
41.77862 82.94001 13.653549
44.069622 82.30901 12.931549
51.00562 11.181016 1.1605492
50.05262 11.526016 57.00155
46.35462 8.934016 47.746548
46.13362 11.331016 47.753548
2.7936172 91.69001 39.11155
4.3326187 92.43901 37.70355
8.648618 97.224014 29.194548
10.577619 97.277016 31.018547
65.09362 97.22601 22.064545
63.715622 95.28501 22.339546
62.35562 106.99702 21.17955
62.590622 0.03501892 23.870544
49.80362 91.97002 10.845551
50.07962 89.66402 12.298546
49.638622 100.90002 17.435547
51.94262 101.17201 18.31955
56.16462 100.38101 55.998547
54.43462 100.207016 54.443546
51.65662 89.94202 48.556545
53.42062 88.25701 48.48755
60.65062 50.995018 34.420547
61.63062 49.408016 32.103546
60.02362 39.53602 32.954548
59.47662 38.42502 34.400547
65.24662 73.056015 29.662548
66.10862 74.64801 30.879547
11.96462 75.17301 31.884548
13.015622 76.24201 29.979548
47.83162 57.84102 42.886547
48.20262 59.884018 41.93955
53.944622 64.37801 50.770546
54.46162 65.363014 52.65555
35.090622 3.1130161 2.1945457
33.62062 4.530016 2.6535454
32.485622 0.87601614 12.6215515
34.69162 -0.1989838 13.2465515
4.52462 104.93501 27.619547
3.9086227 102.83001 26.743546
10.65762 102.97002 16.850548
11.766622 104.03101 18.51355
59.88262 78.85802 42.56455
60.71262 79.960014 44.35555
60.55962 91.60001 44.692547
59.64962 93.14201 43.211548
36.45362 79.30302 44.49555
34.25062 79.46801 44.111546
31.747622 69.16101 38.935547
30.453623 69.67301 37.246548
47.07062 38.755016 41.365547
45.33862 38.68902 43.454548
47.71662 40.41802 51.822548
44.94562 40.009018 52.031548
57.98962 89.999016 40.923546
56.03562 90.38301 39.36155
50.31062 84.35701 33.538548
51.41062 82.98302 32.705547
17.832623 105.00401 51.414547
16.454622 104.362015 50.044548
13.700622 105.02301 40.019547
11.836622 105.96901 40.27155
35.220623 16.573017 33.35455
33.595623 17.925016 32.801548
40.032623 25.838017 30.840548
42.43262 25.769016 30.662548
13.290622 81.52101 25.661545
11.1036215 82.53902 24.40355
17.476622 79.10701 15.7695465
18.850622 79.847015 17.842545
42.70962 10.940016 9.747551
42.09262 9.667016 7.853546
47.12962 14.903016 0.13054657
48.472622 15.729016 2.4365463
42.35362 97.15701 11.236549
42.98162 95.097015 10.56855
44.43862 86.779015 12.76255
45.70362 85.94801 14.811546
33.53662 6.676016 39.038548
33.36362 8.162016 40.64155
31.573622 7.209016 51.020546
33.69062 9.058016 51.38355
45.72962 -3.0929837 15.629547
46.90562 -1.3849839 16.83255
52.29062 5.516016 20.90155
53.80462 6.821016 21.660545
18.089622 26.695017 10.659546
15.773622 27.036016 11.003548
13.502622 37.588017 5.7715454
13.914621 38.84902 3.7815475
36.644623 97.45001 31.064548
35.57962 97.902016 32.837547
43.99262 89.31501 35.83355
43.673622 89.28101 37.935547
28.708622 20.431017 46.01655
26.895622 19.673018 44.90555
22.087622 27.604017 42.77255
21.339622 29.289017 44.207546
42.42262 22.528017 24.496552
42.57262 22.493017 22.089546
51.80462 26.177017 15.3565445
53.84462 26.349016 17.089546
15.410622 104.73402 55.09955
13.492621 105.48001 56.426548
7.2266216 103.987015 5.5385475
5.9046216 106.30101 4.397545
26.916622 2.1940184 44.797546
24.830622 1.5170165 43.893547
22.900621 102.21401 48.040546
23.264622 100.905014 46.06455
35.19562 105.583015 14.87455
37.20562 104.68901 14.33255
42.33662 98.96401 8.714546
40.28662 99.52502 8.842545
55.53762 81.75601 46.249546
56.16162 83.20602 45.267548
47.88662 76.62801 39.532547
47.85762 75.61401 37.534546
21.005621 97.14401 46.650547
22.911621 98.12001 46.239548
26.044622 106.61401 42.548546
27.531622 107.278015 43.895546
15.394622 62.628017 44.247547
14.283622 63.477016 41.93855
4.333622 60.950016 39.718548
2.2446218 61.72402 38.733547
2.875618 69.877014 0.25454712
2.2476196 70.02502 2.2395477
3.0966187 64.028015 12.167549
0.77661896 64.33002 10.974548
24.319622 38.64702 43.872547
22.513622 37.36902 44.77355
28.626623 38.580017 42.60555
28.224623 40.970016 43.882545
53.97362 7.836016 27.643549
56.21062 8.717016 27.91955
1.4556198 9.244017 26.562546
2.139618 8.752016 24.395546
39.14862 18.837017 0.10454559
40.68362 20.379017 56.477547
52.92262 21.624018 56.427547
54.00062 19.802017 56.794548
8.443619 59.749016 27.811548
6.2146225 61.108017 28.241549
6.4486237 59.673016 25.649551
7.4946213 58.496017 24.237549
50.09162 64.90701 12.579552
50.58862 62.871017 12.73555
52.999622 56.027016 12.04155
54.90562 55.559017 12.010551
29.758623 26.099016 6.716545
29.461622 24.009018 7.1325455
21.626621 29.339018 10.506546
19.697622 28.883017 11.889549
7.7406216 15.980016 52.632545
6.893622 13.920016 52.801548
12.213622 10.462016 3.6725464
12.384622 10.130016 5.5475464
10.814622 74.89901 35.220547
11.834621 73.31001 36.01555
14.329621 62.281017 30.732548
15.442621 61.68102 32.933548
2.6606216 67.822014 15.341545
1.5226212 67.417015 17.191551
64.93562 69.10301 25.891548
64.78462 69.61801 27.587547
48.19662 13.414016 47.093548
48.513622 15.634016 45.491547
45.72762 26.611017 49.324547
43.99862 27.064016 47.968548
41.840622 103.196014 52.704548
39.95362 103.36901 51.172546
37.07862 5.256015 49.674545
35.333622 3.6250181 50.601547
43.90062 66.99401 52.054546
43.94862 68.390015 53.722546
46.26462 69.92301 5.5385475
45.37762 71.791016 5.716545
17.201622 47.906017 0.44254684
18.576622 46.032017 57.351547
13.3536215 39.512016 1.4185486
13.085622 37.443016 56.926548
55.90662 25.346018 35.058548
57.06062 23.629017 34.75155
50.63062 26.196016 42.84855
51.42662 28.071016 41.85555
27.602623 38.77902 13.826546
26.762623 41.185017 13.343552
27.696623 45.329018 3.2335472
25.803623 46.214016 2.6895447
17.767622 21.425016 12.80455
17.377623 23.680017 13.149551
23.540623 28.877016 21.354546
21.831621 30.099016 22.468552
55.03862 50.568016 2.5095482
56.60062 49.45302 3.782547
46.39662 44.538017 5.666546
44.61162 44.21602 4.0195465
17.942621 60.047016 22.74955
16.898623 58.247017 21.12555
13.933621 58.998016 32.945545
16.068623 58.21602 32.053547
56.38562 54.186016 1.0575485
55.24462 53.277016 2.770546
50.62762 55.356018 11.678551
50.17062 57.26502 12.643547
57.41562 78.752014 0.9605484
56.756622 79.958015 2.2345467
60.09362 70.82301 7.1895447
57.73362 69.750015 8.244545
30.291622 43.017017 47.57155
28.763622 41.329018 47.697548
21.604622 43.308018 57.382545
23.206621 45.003017 57.406548
50.41462 88.166016 38.26455
50.68262 89.11801 39.982548
58.51262 90.43801 46.524548
56.41162 91.182014 46.749546
52.402622 23.854017 55.045547
54.23462 24.717016 53.94655
51.256622 14.383016 50.87655
50.60262 13.502016 48.666546
15.948622 43.145016 24.172546
15.302622 45.08502 24.62555
11.383622 48.68902 16.992546
10.476622 50.249016 16.251549
1.6156158 36.109016 16.606544
3.6786194 36.289017 15.136551
6.8216248 28.207018 6.242546
7.986618 29.363016 7.5855484
55.98562 82.805016 1.2145462
57.277622 84.06501 57.08555
50.80662 95.349014 55.667545
52.77262 95.63602 56.899548
35.98862 26.585016 29.948547
35.23162 27.399017 28.127548
35.554623 37.275017 29.979548
35.692623 39.193016 30.254547
54.47862 1.2880162 39.150547
54.06462 3.163016 40.319546
61.93862 6.669016 37.387547
64.01262 7.287016 37.469547
47.96462 74.306015 41.42455
50.17762 74.932014 42.21755
45.91562 83.013016 50.970547
46.65362 85.054016 50.34155
37.062622 3.2060194 20.370544
36.87062 1.0030136 19.49955
38.71162 97.71601 24.045547
37.48062 96.904015 25.535545
46.20762 47.419018 19.313545
44.49062 47.861015 20.448547
41.36762 56.09102 25.87555
40.54962 57.82802 26.436546
41.75862 95.09401 8.071548
44.02362 95.21301 7.69355
48.12762 96.543015 56.233547
47.62962 98.625015 55.263546
10.795621 22.218018 28.100548
10.904622 24.545017 28.213549
2.014618 30.522017 29.123549
1.2186203 32.916016 29.272549
29.113623 11.558016 17.54155
31.254622 12.347016 16.183548
27.771622 13.645016 11.462547
26.458622 13.580016 9.934547
4.020622 45.582016 41.05055
4.9826217 46.970016 39.198547
16.246622 46.440018 37.60455
18.226622 45.653015 39.59055
7.5636215 102.39401 13.188545
6.5256195 104.84401 13.178551
2.7716217 5.9990187 20.204552
0.7356186 5.292018 20.460548
60.45062 3.903018 37.802547
58.43162 2.2320204 37.372547
55.90662 105.53801 29.183548
54.07462 106.402016 30.646547
6.333618 48.55602 53.48155
7.560623 46.891018 53.70255
0.5706177 45.731018 5.1895447
1.3696213 47.513016 5.3735466
63.65462 84.32901 16.351547
64.08762 85.60501 14.085548
2.5076218 93.29801 18.787552
1.1996231 95.32701 19.092545
44.05162 39.83502 8.113548
42.67262 37.886017 8.986549
33.59862 38.928017 1.544548
33.26562 37.962017 3.4645462
39.65562 45.150017 17.20655
40.039623 43.562016 15.379547
40.456623 51.856018 15.56955
40.36462 51.239017 17.520546
47.99362 20.607018 42.20155
48.81062 20.942017 39.580547
54.19862 30.208017 39.721546
52.97162 30.570017 41.43855
28.263622 19.304016 4.631546
27.453623 17.558018 5.032547
18.507622 24.059017 9.628548
18.852621 25.325018 7.6725464
48.46862 81.19801 36.36355
46.43662 81.15102 34.769547
44.35862 69.55201 33.77355
41.72162 69.34502 34.26655
55.48962 14.323016 14.798546
54.80362 12.638016 16.036545
46.46162 18.077017 23.350548
46.57262 17.116016 25.257545
13.541621 45.213017 16.731544
15.477622 46.026016 17.703545
26.682623 45.988018 13.84655
25.226622 47.783016 12.74855
5.1006165 102.57701 51.47455
2.977623 104.09101 51.367546
3.3016205 106.73402 2.2455444
5.3556213 105.457016 1.6965485
51.72462 67.042015 35.89155
53.57062 65.474014 35.55755
55.84962 56.75102 29.781548
53.89162 56.95302 28.033548
52.72062 61.912018 36.95955
53.215622 63.84102 37.62555
65.736626 63.488018 40.138546
0.46762085 64.52202 38.020546
42.07462 35.472015 56.929546
42.18862 36.79902 1.3095474
46.74262 31.518017 11.585548
47.63262 29.618017 11.695549
8.159622 26.332018 4.779545
7.022621 24.774017 5.8405457
62.22662 26.627016 5.6725464
61.076622 25.721018 7.344551
46.34962 90.472015 38.55755
48.42562 90.88101 39.690548
46.24562 90.666016 51.096546
47.56162 88.335014 51.395546
44.94362 17.256016 40.92555
46.388622 16.543016 43.138546
38.61962 25.548018 48.157547
37.33462 24.547016 47.211548
12.572621 29.974016 15.812546
12.0966215 27.627016 16.871552
9.845622 20.205017 19.76455
8.282621 20.449017 21.05455
19.763622 52.282017 21.462547
18.575623 50.303017 22.301552
18.601622 40.54302 27.002548
19.152622 40.218018 29.465548
46.29062 4.823016 52.83555
45.82262 3.233016 53.86355
44.12262 5.901016 4.5715446
42.53262 6.760016 6.2015457
56.28562 80.71301 28.765547
54.69162 80.99802 27.54255
56.86862 73.640015 18.576546
56.83862 76.056015 18.240547
61.94862 -0.4639839 56.768547
62.81362 0.54601616 1.169548
51.94762 6.673016 55.998547
50.80062 5.642016 0.33154678
2.036621 53.04302 3.0875473
3.290619 54.59802 2.329548
10.558621 55.937016 9.174545
9.078618 54.679016 8.440552
47.70062 64.555016 16.671547
49.78162 65.07702 16.954552
50.62562 57.464016 15.593552
51.04362 55.249016 16.584549
41.18262 14.280016 25.581549
41.67562 12.714016 24.440548
47.52862 9.394016 33.644547
46.73462 9.014016 35.657547
54.930622 90.55901 8.136551
54.38562 89.391014 6.714546
57.19862 90.97801 0.7125473
56.277622 90.77001 56.388546
31.124622 19.363016 45.784546
29.864622 17.885017 46.52255
37.324623 10.869016 49.503548
36.909622 9.251017 51.358547
11.664621 59.851017 19.562546
8.894622 59.331017 19.629547
7.2926216 56.659016 26.339546
7.499622 56.809017 28.631548
15.469622 69.84101 54.21655
16.935621 69.91101 56.670547
10.252622 74.87101 6.770546
8.342622 73.584015 7.6965485
8.600622 11.544016 10.868546
8.803622 12.709016 12.489548
18.648623 13.9040165 15.742546
20.921621 14.232016 14.05455
29.816622 65.10902 37.426548
30.439623 65.39801 35.43055
22.558622 69.47002 28.082548
20.229622 69.043015 28.603548
54.07562 23.733017 33.808548
55.62162 21.517017 34.45355
58.00062 17.793016 43.69555
58.60462 15.633016 44.21055
44.57262 35.715015 8.962547
43.41462 35.166016 10.552551
38.24762 27.585016 14.060547
36.200623 26.778017 14.90155
49.01962 62.491016 4.282547
47.60062 63.60502 5.8375473
46.06462 73.84401 9.130547
44.01462 71.988014 8.506546
30.971622 61.662018 56.53655
28.927622 62.073017 57.162548
33.249622 54.484016 7.8995514
32.70262 52.214016 7.048546
46.79562 87.56601 38.108547
44.35662 86.42701 37.294548
51.49762 86.62801 47.811546
51.46662 84.64301 47.935547
46.47862 39.302017 11.931549
46.48962 39.523018 9.352547
54.28962 36.233017 1.7795486
56.28262 34.766018 1.8025475
49.03662 32.550014 19.63855
48.53962 34.02202 18.156548
43.47462 40.361015 16.437546
41.18362 41.42402 16.358551
58.76262 1.2390137 45.346546
60.17862 1.6570159 43.823547
2.866623 2.6220198 45.89055
4.4806213 0.94301605 45.951546
33.35862 96.113014 33.957546
33.26862 96.32301 32.018547
21.872622 90.77101 28.838549
21.501621 90.391014 26.661549
64.58762 74.41001 54.23855
63.79262 73.18401 52.34255
3.78862 81.01701 48.686546
6.002617 79.98901 48.574547
0.9406204 6.745016 16.20655
65.07662 7.901016 16.044548
0.26062012 18.673018 16.13755
1.6216202 17.710016 17.378548
52.00862 95.34001 27.063545
53.131622 96.55302 24.947548
59.784622 99.25401 30.304548
62.12562 100.18401 30.400549
41.40662 18.946016 3.7485466
40.65062 19.463017 5.8145447
50.66562 17.714018 10.475548
50.13962 20.494017 11.51355
11.707622 51.186016 47.483547
11.178621 49.803017 45.931545
7.4226217 47.400017 43.12555
6.367622 49.343018 42.079548
38.49462 67.74201 2.131546
38.06562 65.80101 3.1015472
46.47662 62.153015 3.1755447
45.51862 64.14702 3.7675476
20.371622 47.65402 12.111549
18.607622 47.853016 10.050545
7.9696217 44.839016 15.466545
8.0706215 46.350018 17.50055
11.187622 8.689016 50.03055
12.713622 6.805016 49.903545
9.652622 2.608016 39.268547
8.687622 4.837016 39.301548
21.836622 63.525017 8.215546
19.805622 63.70902 7.0535507
19.777622 69.78902 17.04055
19.719622 72.06601 17.309547
5.0356216 22.536016 2.5835457
2.2856216 21.742018 3.4575462
1.363617 11.277016 6.077545
0.5936203 10.181016 4.334545
57.55162 63.02202 27.474548
57.58962 64.932014 29.353548
63.67562 71.61801 31.978548
63.25962 70.89201 30.074549
57.63762 105.43801 42.204548
59.48462 104.32401 40.930546
57.35862 96.263016 33.128548
55.645622 96.02001 34.811546
61.67662 87.82801 14.521545
61.07862 86.01202 15.93055
50.659622 87.97002 20.135551
49.01662 88.874016 19.02855
53.01562 91.59001 0.65454865
54.47162 89.76901 0.9095459
48.87562 87.38101 53.396545
47.069622 85.930016 53.028545
14.216621 75.98302 8.296547
15.838622 74.488014 8.997551
24.770622 74.36601 9.842545
25.005623 73.37202 11.813545
6.7256217 92.25601 35.28655
8.332622 91.11501 33.928547
14.704621 98.224014 29.989548
13.147622 99.28501 29.278547
12.941622 23.309017 29.915548
13.854622 22.914017 32.420547
21.857622 29.950018 35.046547
23.232622 28.326017 35.933548
22.117622 106.58901 9.020546
23.026623 105.85802 7.119545
29.700623 2.3260145 57.331547
31.083622 3.6580153 0.25454712
33.762623 33.336018 0.7295456
35.11862 32.184017 0.37054825
25.617622 35.57002 52.160545
25.748623 33.380016 52.192547
6.480622 69.986015 19.77855
8.5706215 71.17701 20.617546
16.493622 66.054016 23.247551
18.548622 65.960014 22.579552
43.94362 32.422016 34.775547
42.39062 33.968018 36.387547
47.86962 42.984016 31.716547
49.15362 40.443016 31.722548
37.637623 100.68701 11.395546
38.402622 98.75301 10.76355
46.79962 102.15002 14.238548
46.277622 99.42001 13.6825485
32.66162 64.20602 41.437546
32.428623 66.09201 42.65355
36.41262 65.52401 52.236546
35.916622 67.10802 53.98855
46.91462 86.082016 11.725548
47.91062 84.44101 12.863548
54.58162 76.69001 9.993546
56.71762 77.08801 9.204552
42.583622 62.09902 36.060547
41.30962 60.194016 36.190548
46.624622 50.444016 37.010548
46.23162 49.57002 34.853546
22.033623 53.87602 1.2595482
22.819622 53.79202 3.315548
31.614622 59.16802 8.677551
31.115622 57.649017 9.965546
31.648623 64.13502 9.79055
33.032623 64.22901 11.597549
38.109623 73.165016 7.7935486
39.819622 74.49802 7.8035507
17.065622 0.60801697 21.535545
16.073622 106.655014 21.05355
24.728622 102.43601 17.617546
25.673622 100.24201 17.425545
25.651623 89.45401 42.916546
26.392622 87.443016 43.823547
31.464622 92.27502 55.360546
31.629622 90.09101 55.519547
2.6096191 18.836018 36.00855
4.3486176 19.946016 35.00855
11.406621 13.285016 39.808548
10.110616 11.159016 39.940548
58.81362 66.81301 43.748547
60.73262 66.140015 42.73855
65.97662 71.99201 34.61955
64.79962 73.48302 35.914547
36.37062 74.74101 52.57855
38.408623 73.93401 52.71755
39.35662 75.76801 39.763546
39.81362 78.03501 40.23655
46.01062 92.60802 26.899551
46.51062 95.22601 26.95855
49.21662 103.35501 29.651548
51.28662 103.51102 30.055548
23.639622 71.35601 29.532547
24.944622 72.57801 31.011547
33.07962 77.846016 26.655548
33.87862 80.27101 26.405548
58.812622 52.45902 1.313549
60.16562 52.394016 3.5525475
56.42762 46.333015 57.416546
54.00562 46.613018 0.10954666
40.430622 11.4700165 32.48055
41.82862 10.473016 31.537548
48.07862 11.540016 24.670547
49.67062 10.697016 24.653547
3.877617 43.150017 47.955547
3.7986221 41.426018 46.289547
58.00162 40.42502 50.637547
57.89662 38.04902 51.697548
1.2236176 84.47002 30.204548
0.8916168 84.21701 32.621548
4.0536194 84.98901 35.63355
2.2776184 83.85902 37.36855
24.421621 28.886017 33.31255
23.667622 30.893017 31.562548
12.811622 25.669018 26.032547
12.605621 23.181017 25.772549
50.51062 22.603018 13.782547
52.30962 24.019016 13.149551
62.87862 25.192017 12.449547
62.12562 26.688017 14.206551
62.11462 95.127014 47.95355
61.14262 96.98101 48.762547
1.588623 93.347015 41.239548
3.2286224 93.97801 40.541546
26.150621 101.33001 14.95755
27.766623 103.12001 14.037552
22.507622 105.36401 22.66655
20.868622 107.14401 22.910545
27.931622 51.771015 0.3945465
28.897623 50.851017 1.8075485
23.393621 59.260017 6.8235474
24.717623 60.504017 8.535545
10.591621 49.357018 33.37655
9.177622 50.471016 35.40955
17.956621 52.429016 41.867546
19.172623 51.705017 43.00755
58.19562 53.301018 31.409548
59.86062 54.81402 31.570547
65.71262 60.412018 34.843548
0.7296219 62.28602 36.36255
33.84362 3.0430162 21.857552
33.54462 3.612016 23.686546
38.67662 12.761016 26.683548
38.48062 13.491016 29.00355
59.91462 49.101017 37.678547
58.03862 48.160015 38.288548
49.72562 46.74402 30.496548
50.03562 48.416016 28.732548
47.85962 48.658016 27.380548
46.83962 50.906017 27.017548
38.610622 47.450016 33.77255
39.048622 47.013016 31.739548
8.012622 91.98001 4.195545
9.196622 93.08001 5.4535446
10.456622 88.07401 17.009552
11.383622 85.96401 16.229546
24.485622 -3.4809837 1.7405472
23.534622 -2.424984 0.12454605
29.628622 5.520016 55.59955
30.552622 7.063016 54.719547
58.659622 70.959015 28.680548
58.888622 71.043015 26.502548
64.319626 80.24702 19.716545
63.09562 78.85201 18.24955
50.87062 104.22002 13.385551
50.55062 104.349014 11.266548
45.88262 3.05202 7.2955475
43.66962 3.8150206 5.9895477
39.485622 105.710014 38.399548
38.51762 103.95501 37.54955
41.92562 98.00801 28.269548
39.574623 98.07801 27.178549
60.66562 96.73402 30.034548
62.78062 96.90901 30.703548
6.290619 89.68701 34.149548
