3.030 4.831 5.861
4.075 6.445 4.301
4.049 6.043 3.517
3.928 6.216 3.643
4.029 6.281 4.045
3.667 5.834 4.352
3.765 5.892 4.163
3.720 6.113 3.002
3.895 6.211 3.228
3.856 6.127 3.500
3.950 6.080 3.440
3.875 6.105 3.855
3.615 6.148 4.147
3.891 5.849 4.480
3.423 6.213 2.357
3.495 6.377 2.599
3.546 5.962 2.729
3.739 5.950 2.892
3.384 5.985 3.023
3.468 6.113 3.449
3.799 6.009 3.735
3.471 5.790 3.686
3.428 5.889 3.846
3.810 5.461 4.267
3.535 5.414 4.609
3.144 5.257 4.812
3.197 5.096 5.246
3.169 5.113 5.471
3.113 4.876 5.632
3.114 5.094 5.526
3.350 4.895 5.763
3.092 4.730 6.330
3.235 5.187 4.853
3.215 4.732 5.310
3.235 4.638 5.385
3.105 4.816 5.883
3.276 4.769 6.018
3.237 4.668 6.171
3.147 4.938 5.034
3.106 4.872 5.188
2.911 4.939 5.269
2.900 4.782 5.398
2.769 4.782 5.645
3.019 4.437 5.921
2.750 4.666 6.284
4.970 6.301 5.876
5.025 6.048 6.064
5.044 6.081 6.089
4.804 6.118 6.445
4.075 6.252 3.384
4.071 5.974 3.579
4.082 6.311 3.871
4.063 6.027 2.925
3.842 6.017 3.409
4.148 6.136 3.335
4.095 5.887 3.442
4.057 6.161 3.649
3.774 6.076 2.338
3.726 6.293 2.343
3.791 6.197 2.613
3.994 6.312 3.038
3.712 6.010 3.252
3.767 6.107 3.222
3.884 5.704 3.467
3.868 5.998 3.874
3.588 6.025 1.848
3.840 5.938 2.068
3.954 6.081 2.068
3.787 6.201 2.417
3.767 6.176 2.785
3.604 5.887 2.775
3.715 5.789 3.133
3.747 5.846 3.526
3.780 5.945 3.511
3.728 6.062 1.623
3.576 5.857 1.864
3.542 5.894 2.334
3.506 5.982 2.299
3.614 5.659 2.534
3.806 5.546 2.937
3.380 4.584 5.589
3.222 4.521 5.854
3.378 4.642 6.177
3.661 6.068 1.861
3.582 5.622 2.117
3.514 4.793 5.227
3.074 4.525 5.416
3.047 4.503 5.847
3.197 4.594 5.819
3.516 4.459 6.142
3.012 4.481 5.187
3.202 4.697 5.349
3.002 4.286 5.581
3.087 4.235 6.196
3.336 4.536 6.302
5.297 6.427 5.694
4.992 6.441 6.076
5.062 6.003 6.225
5.227 6.161 5.175
4.859 6.036 5.437
4.821 6.276 5.904
4.804 6.069 5.837
5.158 5.995 6.186
4.954 5.920 5.638
4.833 5.795 6.053
4.615 5.810 5.936
4.444 6.200 3.644
4.288 5.973 3.601
4.443 6.100 2.916
4.604 5.960 3.427
4.476 6.148 3.425
4.317 5.938 3.820
3.977 6.136 2.252
4.008 6.360 2.324
4.173 6.277 2.635
4.364 5.905 2.823
4.184 6.209 2.963
4.119 5.933 3.349
4.448 6.009 3.701
3.998 6.079 1.653
3.845 6.210 2.196
4.047 6.128 2.157
3.825 6.037 2.387
4.192 5.937 2.623
4.247 6.161 2.909
3.995 5.753 3.030
4.207 5.855 3.466
3.878 5.601 3.803
3.871 6.312 1.823
4.029 6.096 2.005
3.799 6.158 2.356
3.795 6.082 2.666
3.731 5.639 2.769
4.023 5.873 2.871
3.728 5.745 3.298
3.806 6.142 1.949
3.598 5.932 2.071
3.849 5.795 2.007
3.595 5.561 2.551
3.582 5.890 2.393
3.406 4.654 5.962
3.664 4.503 6.264
3.698 5.699 1.485
3.731 5.928 2.078
3.495 5.456 2.110
3.298 4.467 5.718
3.668 4.532 5.683
3.642 4.280 5.906
3.220 4.292 6.434
3.583 5.748 1.873
3.197 5.466 2.077
3.241 4.291 5.646
3.475 4.198 5.685
3.277 4.002 6.099
3.216 4.276 6.101
5.421 6.294 5.933
5.378 6.214 5.901
5.298 6.144 6.173
5.421 6.160 5.206
5.246 6.394 5.731
5.360 5.918 5.588
5.166 5.869 6.013
5.553 5.866 6.300
4.966 6.045 5.104
5.368 5.823 5.468
5.092 5.755 5.632
5.357 5.964 6.122
5.008 5.990 5.952
4.955 6.080 5.622
5.042 6.012 5.465
5.126 5.776 5.775
4.827 5.574 6.363
4.506 6.458 3.087
4.542 6.279 3.420
4.785 6.058 3.344
4.330 6.093 2.174
4.729 6.122 2.506
4.459 6.298 2.842
4.649 6.137 2.960
4.716 6.215 3.017
4.490 5.935 3.217
4.369 6.245 2.003
4.308 6.209 2.190
4.309 5.899 2.304
4.449 6.165 2.458
4.394 5.986 2.918
4.146 5.883 3.158
4.430 5.969 3.032
4.364 5.687 3.271
4.210 6.055 1.662
4.176 6.229 1.883
4.275 6.051 2.434
4.221 5.937 2.576
4.036 6.004 2.806
4.403 5.804 2.860
4.419 5.651 3.258
4.077 6.120 1.583
4.021 5.813 2.163
4.207 5.962 2.379
4.019 5.592 2.591
3.985 5.626 2.660
3.994 5.647 2.657
3.785 5.934 1.567
3.808 5.698 2.158
3.859 5.538 2.038
4.099 5.466 2.264
3.872 5.409 2.816
3.904 4.531 6.437
3.534 5.852 1.784
3.567 5.477 1.882
3.582 5.494 2.308
3.425 4.029 6.151
3.817 4.215 6.025
3.710 5.432 1.664
3.823 5.533 2.083
3.315 4.011 5.558
3.337 4.018 6.075
3.346 3.862 6.141
3.565 5.442 1.561
5.942 6.086 5.852
5.649 6.419 5.817
5.813 6.273 6.262
5.832 6.330 5.163
5.871 6.355 5.542
5.714 6.101 5.665
5.497 5.983 6.152
5.846 5.917 6.338
5.458 6.146 5.100
5.394 6.012 5.007
5.323 6.082 5.329
5.618 6.187 5.554
5.367 5.920 5.802
5.466 6.128 6.036
5.644 5.669 6.176
5.360 6.098 4.745
5.112 6.050 4.939
5.130 6.018 5.143
5.449 6.014 5.648
5.323 5.924 5.824
5.391 5.882 5.876
5.356 5.696 5.928
5.306 5.589 5.106
5.363 5.867 5.263
5.001 5.695 5.727
4.970 5.422 6.078
5.312 5.735 6.187
4.882 5.603 5.632
5.164 5.426 5.685
4.772 5.219 5.895
4.818 6.409 2.918
5.058 6.175 3.256
4.953 6.397 2.282
4.655 6.161 2.431
4.643 6.386 2.759
4.863 6.140 3.016
5.060 5.907 3.186
4.477 6.281 1.664
4.602 6.392 2.007
4.456 6.339 2.088
4.753 5.938 2.453
4.604 5.834 2.543
4.850 5.830 3.151
4.796 5.781 3.156
4.759 6.269 1.994
4.593 5.961 1.898
4.392 5.995 2.371
4.677 5.948 2.661
4.493 6.042 2.895
4.597 5.739 2.723
4.416 5.516 3.290
4.396 5.733 1.822
4.549 5.783 2.088
4.369 5.775 2.433
4.185 5.737 2.478
4.417 5.664 2.536
4.272 5.414 2.996
4.355 5.587 1.825
4.398 5.605 1.710
4.047 5.779 1.960
4.022 5.617 2.206
4.401 5.534 2.491
3.878 5.593 1.694
3.853 5.786 1.841
3.907 5.666 2.135
3.865 5.589 2.420
4.068 5.308 1.668
4.087 5.422 2.024
3.752 5.446 2.145
3.902 3.960 6.035
3.821 5.416 1.811
3.957 5.303 1.976
3.471 4.071 6.041
3.509 3.885 6.242
3.783 5.214 1.691
5.943 6.480 5.594
6.328 6.223 5.834
6.315 6.078 6.095
6.152 6.310 5.394
5.740 6.018 5.688
5.911 5.892 5.950
5.791 5.932 5.918
5.917 5.827 6.264
5.678 6.258 5.090
5.790 5.972 5.329
5.613 5.905 5.133
5.621 6.133 5.532
5.899 5.811 5.634
5.847 5.919 6.133
5.654 5.874 6.187
5.897 6.285 4.737
5.818 6.215 5.058
5.677 5.981 4.835
5.755 5.771 5.454
5.426 6.027 5.299
5.599 5.833 5.889
5.446 5.739 5.755
5.854 5.609 6.168
5.775 6.067 5.041
5.626 6.072 4.836
5.299 5.902 5.315
5.525 5.833 5.289
5.545 5.853 5.501
5.688 5.454 5.640
5.456 5.403 6.307
5.557 5.478 4.917
5.142 5.649 4.954
5.126 5.626 5.633
5.308 5.686 5.719
5.236 5.501 6.024
5.247 5.536 6.061
5.210 6.485 3.132
5.052 5.587 5.343
5.388 5.237 5.495
4.936 5.382 5.544
5.382 5.321 5.677
5.305 5.391 5.890
5.277 6.078 2.449
5.323 6.400 2.559
5.152 6.357 2.818
5.208 6.083 2.926
5.219 5.799 3.420
5.126 5.298 5.329
5.096 5.310 5.482
5.192 5.136 5.661
4.948 4.975 5.674
5.137 6.023 1.917
4.844 5.986 1.904
4.869 6.225 2.319
5.178 6.240 2.458
5.047 5.971 2.537
5.199 5.715 2.916
5.128 5.878 2.963
5.004 5.879 1.991
5.001 6.013 2.098
4.993 6.062 2.186
4.791 5.856 2.344
4.611 5.713 2.554
4.813 5.785 2.778
4.873 5.496 3.157
4.928 5.916 1.929
4.781 5.747 2.057
4.507 5.774 2.048
4.543 5.913 2.456
4.749 5.455 2.694
4.931 5.831 2.741
4.465 5.685 1.828
4.456 5.557 2.152
4.573 5.601 2.139
4.634 5.626 2.194
4.630 5.535 2.746
4.662 5.237 2.569
4.379 5.508 1.764
4.379 5.368 1.811
4.436 5.630 2.106
4.483 5.474 2.370
4.599 5.535 2.385
4.001 5.616 1.546
4.008 5.415 1.793
4.244 5.474 1.971
4.200 5.491 1.548
3.932 5.155 1.585
4.090 4.023 6.029
4.015 5.359 1.534
3.959 5.247 1.530
3.565 3.629 5.826
3.900 3.806 6.044
3.908 4.906 1.324
6.472 6.456 5.192
6.236 6.075 5.799
6.474 6.304 5.643
6.290 6.018 6.193
6.255 6.348 4.808
6.323 6.379 5.277
6.158 5.944 5.107
6.123 5.822 5.503
6.241 5.875 5.769
5.911 5.957 6.120
6.190 6.307 5.029
5.843 5.923 4.873
6.165 5.873 4.975
6.044 6.136 5.201
6.165 5.930 5.280
5.946 5.769 5.552
6.039 5.853 5.895
6.069 5.892 6.316
5.741 6.064 5.029
5.966 6.089 4.783
5.969 5.814 5.118
5.730 6.002 5.013
5.981 5.810 5.502
5.569 5.813 5.632
5.586 5.421 5.678
5.785 5.722 6.260
5.997 6.145 4.964
5.774 5.909 4.859
5.650 5.910 4.883
5.791 5.861 5.326
5.684 5.733 5.301
5.628 5.361 5.771
5.536 5.320 6.042
5.628 5.290 6.207
5.560 5.284 6.143
5.624 6.398 2.813
5.485 5.915 4.731
5.369 5.599 4.804
5.482 5.719 5.317
5.307 5.621 5.356
5.464 5.265 5.728
5.590 5.527 5.909
5.573 5.264 6.090
5.281 6.434 2.364
5.590 6.311 2.749
5.573 6.017 2.963
5.265 5.566 4.648
5.322 5.452 5.230
5.237 5.158 5.141
5.242 5.106 5.549
5.358 5.044 5.838
5.190 5.173 6.112
5.263 6.432 1.997
5.293 5.978 2.044
5.098 6.146 2.376
5.093 6.166 2.600
5.150 5.789 2.844
5.192 5.827 2.833
5.284 5.864 2.952
5.096 5.103 5.042
4.965 5.211 5.133
5.207 4.977 5.207
5.078 4.950 5.498
5.178 4.814 5.784
5.135 6.318 1.895
5.195 5.915 1.965
5.252 5.985 2.031
5.278 5.795 2.602
5.113 5.660 2.887
5.099 5.579 2.808
5.105 4.797 4.990
4.845 5.167 5.210
5.087 4.994 5.600
5.058 6.125 1.974
4.865 5.655 2.222
4.989 5.776 2.221
4.976 5.690 2.596
4.818 5.629 2.623
5.077 5.450 2.957
4.972 5.559 1.770
4.756 5.817 1.930
4.746 5.507 2.171
4.625 5.521 2.539
5.068 5.749 2.459
4.489 5.655 1.489
4.754 5.775 1.689
4.502 5.427 1.950
4.803 5.276 2.491
4.824 5.433 2.621
4.678 5.594 1.721
4.373 5.374 1.958
4.332 5.474 2.295
4.217 5.212 1.832
4.468 5.334 1.700
4.120 5.255 1.477
4.121 3.611 6.360
4.107 5.135 1.607
4.065 3.403 6.373
6.297 6.062 5.224
6.181 5.986 5.453
6.192 5.992 5.540
6.287 6.031 5.543
6.023 6.035 4.862
5.917 5.998 5.119
6.309 5.858 5.210
5.975 5.642 5.743
6.256 5.461 5.800
5.836 5.859 4.973
6.068 5.533 5.367
5.866 5.655 5.178
6.145 5.381 5.808
6.129 5.309 5.658
5.853 5.456 5.932
5.869 6.235 2.991
5.945 5.639 5.050
5.864 5.631 5.294
5.687 5.590 5.276
5.611 5.156 5.380
6.036 5.244 5.902
5.893 5.388 5.911
5.903 6.284 2.466
5.591 6.370 2.914
5.624 6.217 3.054
5.575 5.186 5.014
5.633 5.331 5.314
5.517 5.426 5.247
5.689 4.982 5.351
5.423 5.098 5.605
5.758 4.906 6.131
5.716 6.441 1.674
5.458 6.349 2.044
5.544 6.242 2.396
5.777 5.885 2.330
5.777 6.110 2.776
5.663 5.885 2.821
5.411 5.073 4.895
5.660 4.971 4.948
5.677 5.323 5.233
5.580 5.053 5.617
5.610 4.959 5.783
5.267 5.042 6.054
5.346 6.216 2.048
5.525 5.893 2.192
5.650 5.920 2.340
5.542 5.824 2.231
5.665 5.891 2.601
5.425 5.923 2.680
5.479 5.102 4.664
5.545 5.221 4.931
5.526 5.007 5.310
5.251 4.701 5.444
5.104 4.615 5.650
5.159 4.587 6.014
5.157 5.953 1.795
5.285 5.859 2.184
5.397 5.707 2.069
5.485 5.762 2.561
5.137 5.515 2.667
5.110 5.643 2.679
5.119 5.073 4.743
5.384 4.644 4.751
5.346 4.718 5.130
4.952 4.591 5.360
5.176 4.559 5.729
4.979 5.582 1.748
5.267 5.605 1.961
5.068 5.684 2.101
5.130 5.675 2.317
5.197 5.538 2.686
5.188 4.576 4.847
4.949 4.550 4.983
5.255 4.690 5.236
4.906 4.378 5.385
5.232 5.502 1.695
5.203 5.677 2.012
4.778 5.690 2.139
4.810 5.380 2.463
4.776 4.462 4.631
4.940 4.367 4.718
4.938 4.531 4.986
4.754 5.499 1.802
4.928 5.587 1.872
4.959 5.599 2.214
4.591 4.232 4.625
4.909 5.122 1.516
4.381 4.060 4.242
4.284 4.021 3.609
4.021 4.325 3.866
4.463 4.229 4.018
4.001 4.261 3.328
4.052 4.319 3.588
3.851 4.056 3.602
4.180 4.067 4.014
6.356 5.632 5.085
6.488 5.368 5.636
6.443 5.343 5.671
6.338 6.325 3.211
6.059 5.483 5.132
5.904 5.356 5.110
5.961 5.416 5.117
6.081 5.485 5.808
5.907 5.078 5.861
6.257 6.100 2.608
6.230 6.397 2.703
6.223 6.009 3.003
6.173 5.372 4.974
6.033 5.436 4.868
6.199 5.179 5.518
6.140 5.277 5.463
6.168 5.133 5.757
5.923 5.295 5.772
6.132 6.230 2.034
5.911 6.295 2.055
5.865 6.087 2.407
6.075 5.924 2.554
5.847 6.208 2.487
6.141 6.141 2.777
6.155 5.690 3.082
5.622 5.449 4.847
5.650 5.381 4.975
5.645 5.032 5.496
5.881 5.165 5.349
5.791 5.027 5.735
5.877 5.041 5.747
5.786 6.184 1.586
5.796 6.175 2.253
5.584 6.093 2.436
5.815 5.749 2.541
5.981 5.819 2.835
5.991 5.697 3.036
5.851 5.314 4.604
5.884 5.014 4.631
5.868 4.924 5.148
5.661 4.888 5.105
5.651 4.734 5.548
5.654 4.735 5.725
5.794 4.579 5.864
5.862 4.661 6.043
5.530 5.953 1.715
5.458 5.864 1.799
5.538 5.950 2.230
5.605 5.722 2.382
5.864 5.663 2.507
5.874 5.471 2.692
5.836 5.185 4.531
5.552 5.089 4.537
5.406 4.816 4.858
5.710 4.818 5.185
5.692 4.863 5.362
5.345 4.642 5.200
5.573 4.485 5.839
5.472 4.592 6.060
5.262 5.995 1.730
5.555 5.671 1.909
5.660 5.834 2.040
5.460 5.444 2.457
5.648 5.380 2.656
5.725 4.885 4.414
5.461 5.064 4.339
5.521 4.873 4.884
5.239 4.669 4.802
5.259 4.577 5.327
5.252 4.743 5.217
5.154 4.633 5.670
5.329 4.507 5.736
5.437 5.456 1.894
5.396 5.526 2.348
5.316 5.302 2.145
5.343 4.870 4.500
5.010 4.644 4.334
5.376 4.843 4.496
5.249 4.727 4.976
5.294 4.562 4.893
5.283 4.500 5.094
4.968 4.432 5.607
5.144 4.701 4.509
5.181 4.296 4.202
4.948 4.249 4.559
5.226 4.234 4.756
4.982 4.448 4.845
5.070 4.200 5.232
5.170 4.077 5.680
5.045 4.590 3.964
5.023 4.683 4.185
4.742 4.330 4.406
5.041 4.355 4.627
4.776 4.355 4.772
5.096 4.081 5.183
5.022 4.581 4.343
4.904 4.271 4.447
4.760 4.370 4.305
4.738 4.247 4.490
4.874 4.200 4.519
4.811 4.571 4.097
4.810 4.117 4.060
4.933 4.237 4.393
4.781 4.085 4.207
4.550 4.190 4.591
4.356 4.137 3.732
4.642 4.038 3.942
4.357 3.971 4.005
4.494 4.179 4.368
4.456 3.978 4.051
4.221 3.830 4.360
4.263 4.415 3.323
4.283 4.090 3.506
4.242 4.046 3.411
4.428 4.202 4.008
4.615 3.905 4.048
4.598 3.889 4.028
4.196 3.810 4.105
4.199 3.893 3.128
4.463 3.836 3.327
4.427 3.954 3.582
4.446 3.848 3.768
4.032 3.852 4.148
4.295 3.961 4.139
6.085 5.123 4.948
6.288 5.327 5.079
6.288 6.330 2.071
6.428 6.313 2.172
6.132 6.316 2.204
6.122 5.993 2.639
6.137 6.119 2.613
6.389 6.197 2.903
6.079 5.859 3.011
6.049 5.002 4.878
6.229 4.901 5.200
6.327 5.018 5.578
5.982 4.793 5.624
6.289 5.115 5.937
6.152 6.002 1.777
5.992 6.088 2.115
6.345 5.825 2.055
5.910 5.851 2.474
6.180 5.696 2.759
6.265 5.575 2.746
5.894 5.876 3.131
6.030 5.309 4.693
5.830 4.953 4.874
5.837 4.810 5.293
5.844 4.670 5.512
5.863 4.774 5.621
5.910 4.624 5.837
5.764 6.007 1.564
5.776 5.760 2.211
5.888 5.735 2.435
5.930 5.585 2.524
5.869 5.681 2.868
5.823 5.472 2.804
5.660 5.166 4.762
5.816 5.092 5.139
5.921 4.649 4.960
5.835 4.724 5.438
5.590 4.459 5.684
5.651 4.503 5.814
5.774 4.361 6.090
5.634 5.856 2.175
5.928 5.642 2.362
5.901 5.822 2.438
6.037 5.321 2.355
5.701 5.508 2.765
5.663 4.697 4.543
5.752 5.020 4.473
5.697 4.796 4.963
5.563 4.507 4.928
5.774 4.460 5.409
5.569 4.402 5.327
5.439 4.448 5.745
5.486 4.434 6.201
5.653 5.415 1.880
5.660 5.323 2.109
5.692 5.457 2.446
5.652 5.416 2.706
5.445 4.775 4.386
5.513 4.691 4.333
5.561 4.780 4.685
5.343 4.366 4.738
5.508 4.369 5.049
5.404 4.225 5.157
5.332 4.314 5.334
5.434 4.527 5.520
5.677 4.168 5.902
5.338 4.558 4.240
5.228 4.749 4.413
5.171 4.590 4.693
5.472 4.374 4.808
5.227 4.257 5.212
5.510 4.333 5.417
5.380 4.413 5.477
5.121 4.092 5.525
5.112 4.620 4.323
5.139 4.316 4.571
4.963 4.411 4.178
5.047 4.195 4.507
4.955 4.150 4.986
5.206 4.239 5.210
5.029 3.988 5.299
5.392 3.854 5.554
5.327 4.095 5.647
5.358 4.703 3.782
5.163 4.304 4.013
5.386 4.170 4.489
4.912 4.309 4.078
5.071 4.363 4.623
4.854 3.905 4.763
5.268 4.214 5.110
5.273 3.769 5.085
5.109 3.932 5.356
5.178 4.401 3.688
5.218 4.216 4.037
5.260 4.083 4.431
4.976 3.926 4.369
5.041 3.878 4.704
5.105 3.814 4.926
5.053 4.036 4.999
4.792 4.086 3.685
4.646 4.102 3.908
4.805 4.098 4.264
4.678 3.968 4.190
4.634 3.775 4.049
4.488 3.670 4.652
4.575 3.724 4.734
4.640 4.126 3.329
4.767 4.123 3.411
4.653 4.165 3.769
4.491 3.920 3.600
4.811 3.894 4.235
4.918 4.018 4.192
4.421 3.642 4.023
4.801 3.517 4.330
4.445 3.441 4.528
4.428 4.182 2.831
4.627 4.305 2.888
4.612 4.203 3.386
4.343 3.866 3.746
4.508 4.017 3.701
4.751 4.044 3.777
4.764 3.625 4.357
4.481 3.418 4.139
4.444 3.617 4.311
4.286 3.999 2.753
4.257 3.858 3.113
4.477 3.926 3.140
4.326 3.928 3.345
4.622 3.943 3.678
4.414 3.904 3.692
4.643 3.670 3.950
6.288 4.794 0.052
6.315 4.757 0.325
6.238 4.675 0.401
6.163 4.947 0.618
5.836 5.016 0.208
6.070 4.838 0.221
6.096 4.487 0.391
6.051 4.500 0.543
5.645 4.673 0.106
6.046 4.299 0.325
5.926 4.266 0.838
5.620 4.309 0.983
6.237 4.820 0.386
6.274 4.399 0.565
6.150 4.630 0.554
6.230 4.575 0.729
5.990 4.199 1.063
6.035 4.267 -0.049
6.146 4.286 0.235
6.035 4.374 0.784
6.061 4.245 0.828
5.923 4.335 1.173
5.742 4.100 0.120
5.903 4.334 0.324
5.740 4.175 0.733
6.049 4.304 0.924
5.620 4.164 1.009
5.683 3.945 0.526
5.743 4.045 0.836
5.543 4.012 1.027
5.322 3.674 1.103
6.058 4.071 0.354
6.006 4.384 0.486
6.204 4.204 0.572
5.942 3.977 0.784
6.065 4.266 1.092
5.933 3.933 0.096
6.028 4.082 0.129
5.992 3.996 0.642
6.190 3.929 0.828
5.947 3.757 0.939
5.883 3.965 0.086
5.900 3.828 0.398
6.034 3.889 0.795
5.869 3.673 1.061
5.920 3.557 0.560
5.855 3.831 0.836
5.690 3.789 0.707
5.389 3.613 0.610
6.148 3.808 -0.176
6.159 3.796 0.040
6.309 4.075 0.377
6.137 3.881 0.496
5.926 3.977 0.669
6.202 3.997 0.143
5.840 3.526 0.279
5.862 3.465 0.415
5.961 3.531 0.820
6.071 3.481 0.433
6.023 3.573 0.702
6.012 3.384 1.019
5.476 3.306 0.403
5.629 3.233 0.872
6.043 3.723 0.389
6.065 3.709 0.531
6.098 3.298 0.572
6.201 3.628 0.813
5.946 3.233 0.349
5.854 3.463 0.340
6.118 3.469 0.859
5.936 3.206 0.724
5.788 3.138 0.593
6.157 3.340 0.466
6.148 3.408 0.699
6.286 3.035 0.935
5.801 3.008 0.688
6.090 3.071 0.592
5.980 2.693 0.513
6.075 5.940 0.315
5.885 5.763 0.160
5.962 5.601 0.226
6.296 5.550 0.063
6.080 5.279 0.151
5.663 5.429 0.190
5.560 5.305 -0.004
6.054 5.230 0.114
5.918 5.442 0.154
6.205 5.073 0.074
5.986 5.091 0.173
5.890 4.869 -0.106
5.587 4.713 0.333
5.792 4.751 -0.142
6.323 5.161 0.023
5.908 5.089 0.089
5.914 4.989 0.351
6.088 4.929 0.898
5.761 4.868 -0.061
6.178 4.887 0.072
5.761 4.599 0.412
5.854 4.494 0.494
5.790 4.807 0.029
5.678 4.426 0.357
5.614 4.635 0.670
6.021 4.445 0.725
6.166 3.548 4.551
6.328 3.758 4.730
5.985 3.338 5.224
5.959 3.469 5.285
6.241 3.279 5.430
6.321 3.532 5.856
6.062 3.489 6.081
6.054 3.465 6.078
5.904 3.332 4.596
6.165 3.388 5.002
5.760 3.527 4.828
6.083 3.354 5.223
5.867 3.459 5.212
5.886 3.133 5.417
6.160 3.056 5.937
5.935 3.030 5.841
5.773 3.591 4.070
5.974 3.125 4.754
5.926 3.353 4.745
5.714 3.178 4.734
5.890 3.076 5.288
6.026 3.193 5.456
5.997 2.932 5.461
5.721 3.200 5.998
5.651 3.072 5.877
6.056 2.960 6.240
5.413 3.783 1.060
5.478 4.116 1.654
5.425 3.623 1.739
5.379 3.787 1.700
5.515 3.501 1.950
5.451 3.661 2.124
5.537 3.544 2.660
5.692 3.489 2.693
5.724 3.308 3.041
5.552 3.585 3.081
5.687 3.523 3.462
5.394 3.196 3.481
5.407 3.242 3.653
5.315 3.958 1.264
5.409 3.784 1.575
5.367 3.403 1.866
5.150 3.452 1.913
5.578 3.390 2.205
5.288 3.667 2.615
5.359 3.279 2.516
5.287 3.180 3.009
5.261 3.441 3.256
5.527 3.130 3.126
5.166 3.281 3.526
5.180 3.619 1.229
5.322 3.701 1.592
5.315 3.312 1.632
5.331 3.513 2.098
5.111 3.150 2.109
5.443 3.059 2.363
5.006 3.333 2.484
5.268 3.323 3.046
5.234 3.010 3.151
5.181 2.867 3.327
5.218 2.898 3.625
6.314 3.054 5.073
6.021 3.071 5.208
6.361 2.974 5.285
6.243 2.876 5.528
6.127 2.979 5.990
6.088 3.095 5.913
6.370 2.831 6.126
6.146 2.798 5.064
5.833 2.748 5.190
6.033 2.900 5.668
5.862 2.798 5.682
6.052 2.987 6.056
6.014 2.812 6.081
6.113 4.071 1.478
5.836 3.895 1.667
5.922 2.774 5.892
5.853 2.822 5.858
5.878 2.633 6.059
5.956 3.872 1.245
5.837 3.843 1.404
5.660 3.639 1.402
5.912 3.686 1.695
5.634 3.557 2.050
5.683 3.703 2.132
5.487 3.869 1.031
5.566 3.589 1.172
5.548 3.659 1.779
5.761 3.528 1.699
5.691 3.563 1.862
5.633 3.535 2.443
5.889 3.358 2.383
5.596 3.226 2.805
5.859 3.387 2.702
5.413 3.630 1.031
5.326 3.481 1.539
5.388 3.414 1.745
5.541 3.249 1.606
5.408 3.261 1.970
5.331 3.333 2.276
5.720 3.320 2.245
5.456 3.138 2.715
5.414 3.160 2.744
5.492 3.137 2.973
5.589 3.650 1.046
5.560 3.588 1.334
5.209 3.587 1.285
5.572 3.276 1.927
5.352 3.312 2.033
5.541 3.190 2.051
5.499 3.032 2.464
5.469 3.087 2.343
5.503 2.973 3.009
5.461 2.753 3.074
6.285 2.966 5.607
6.347 2.776 5.646
6.381 2.814 5.904
5.942 2.717 6.258
6.266 4.129 1.193
5.933 3.710 1.426
6.189 4.031 1.500
5.883 2.692 5.895
5.874 2.610 5.902
5.926 3.644 0.969
6.128 3.843 1.577
6.037 3.941 1.448
6.034 3.493 1.853
5.965 3.639 1.803
5.993 3.460 1.007
5.797 3.687 1.358
5.739 3.570 1.681
5.701 3.383 1.561
5.716 3.426 1.900
5.940 3.216 2.228
5.702 3.154 2.608
5.545 3.469 0.952
5.571 3.308 1.236
5.773 3.416 1.648
5.599 3.370 1.596
5.756 3.460 1.722
5.772 3.068 2.320
5.459 3.300 2.366
5.453 3.085 2.816
5.525 3.129 2.603
5.455 3.505 0.869
5.365 3.096 1.114
5.442 3.278 1.371
5.569 2.948 1.675
5.315 2.992 1.695
5.345 3.243 1.960
5.432 3.115 2.257
5.646 2.921 2.641
5.633 3.041 2.598
6.097 2.262 6.050
6.281 2.120 6.079
6.041 3.702 1.279
6.218 3.491 1.447
6.338 3.343 1.560
6.144 3.669 1.557
5.980 3.482 1.844
6.050 2.088 6.271
5.788 3.355 1.291
5.857 3.257 1.110
6.068 3.493 1.414
5.828 3.137 1.721
6.001 3.058 1.914
5.841 3.109 2.257
5.750 3.182 0.826
5.908 3.161 1.167
6.035 3.231 1.278
5.880 3.252 1.668
5.878 3.318 1.987
6.002 3.245 1.902
6.080 2.906 2.420
5.603 3.350 0.820
5.622 3.286 1.254
5.919 2.924 1.346
5.490 2.834 1.814
5.860 2.835 1.972
5.481 2.942 1.851
5.519 2.971 2.147
5.758 2.892 2.260
6.289 1.955 6.414
6.051 3.161 0.849
6.319 3.239 1.319
6.039 3.048 1.290
6.022 3.375 1.489
6.289 3.314 1.722
6.082 3.205 1.124
5.955 2.950 1.052
6.127 3.186 1.450
6.209 3.094 1.509
6.219 3.026 1.962
6.068 2.890 2.122
5.611 3.242 0.820
5.828 2.794 1.132
5.640 2.856 1.501
5.769 2.951 1.782
5.881 2.903 1.961
5.863 2.677 1.780
5.625 2.641 2.442
6.348 3.176 1.066
6.117 3.166 1.130
6.184 2.901 1.228
6.072 2.861 1.629
5.951 2.991 1.876
6.176 2.978 1.887
6.123 2.875 0.875
6.028 2.959 1.035
6.150 3.016 1.472
6.221 2.530 1.389
6.046 2.863 1.545
6.016 2.738 2.182
6.250 2.893 0.775
6.196 2.677 1.023
6.268 2.552 1.474
6.025 2.723 1.578
6.286 2.567 1.840
6.133 6.113 1.700
6.434 5.893 2.094
6.394 5.791 2.093
6.334 5.580 2.256
6.105 5.516 2.483
6.062 5.833 3.078
6.480 5.751 3.172
6.035 5.102 5.131
6.180 4.814 5.183
5.969 4.994 5.422
6.116 4.635 5.449
6.019 4.706 5.667
5.949 5.935 1.859
6.193 5.910 2.379
6.032 5.432 2.541
6.029 5.629 2.724
6.137 5.416 2.572
6.147 4.638 4.850
6.022 4.556 4.962
5.822 4.513 5.287
6.031 4.767 5.354
5.961 4.613 5.622
5.884 4.454 5.561
5.978 4.604 5.851
6.167 5.473 1.921
5.754 5.517 2.389
5.756 5.532 2.597
6.027 4.498 4.324
5.892 4.550 4.666
5.586 4.744 4.953
5.942 4.581 4.944
5.831 4.598 5.223
5.891 4.250 5.539
5.870 4.271 5.894
5.651 4.029 6.056
5.596 4.849 4.278
5.882 4.687 4.581
5.546 4.447 4.444
5.748 4.557 4.785
5.620 4.357 4.850
5.889 4.194 5.075
5.672 4.397 5.666
5.838 4.051 5.688
5.663 4.239 5.843
5.658 4.310 4.322
5.275 4.296 4.564
5.292 4.411 4.723
5.633 4.485 4.742
5.725 4.108 5.078
5.675 4.102 5.367
5.699 4.304 5.586
5.642 4.025 5.602
5.284 3.873 5.816
5.711 4.531 4.208
5.268 4.515 4.215
5.298 4.148 4.132
5.468 4.322 4.518
5.433 4.226 4.571
5.413 4.201 5.073
5.412 4.093 5.281
5.161 3.727 5.418
5.529 4.004 5.835
5.146 4.431 3.663
5.530 4.259 3.988
5.503 4.013 4.444
5.416 4.190 4.235
5.028 4.027 4.664
5.282 4.022 4.728
5.242 3.906 5.075
5.075 3.846 5.073
5.003 3.534 5.232
5.321 4.308 3.669
5.345 4.141 3.701
5.215 3.967 3.889
5.298 4.297 4.491
4.807 3.787 4.070
5.065 3.907 4.537
5.219 3.743 4.794
4.885 3.896 4.928
5.197 3.627 5.157
5.236 4.314 3.365
4.972 4.063 3.711
5.097 4.157 3.888
5.100 3.971 4.152
5.159 3.977 4.021
4.910 3.827 4.078
4.828 3.493 4.553
5.003 3.859 4.496
4.982 3.812 5.062
4.974 4.037 3.123
4.967 4.028 3.341
4.657 3.814 3.482
4.834 3.768 3.816
4.850 3.871 3.966
4.706 3.950 3.994
4.488 3.379 4.332
4.496 3.499 4.527
4.675 3.497 4.654
4.917 4.086 3.022
4.636 3.989 3.087
4.705 3.764 3.170
4.525 3.682 3.374
4.490 3.717 3.655
4.738 3.451 4.054
4.760 3.687 4.227
4.529 3.347 3.886
4.609 3.218 4.477
4.493 3.790 2.524
4.609 4.044 2.791
4.354 3.697 3.169
4.506 3.825 3.203
4.557 3.736 3.307
4.553 3.722 3.751
4.640 3.394 3.868
4.530 3.561 3.947
5.977 4.694 4.661
6.098 4.611 5.177
6.103 4.643 5.149
6.076 4.508 5.742
6.189 4.340 5.504
6.079 4.130 5.901
6.026 4.428 4.386
5.782 4.318 4.778
6.199 4.209 5.155
6.034 4.397 5.218
6.102 4.097 5.516
5.974 4.108 5.697
5.926 3.968 6.112
5.796 3.957 6.282
6.050 4.510 4.506
5.682 4.515 4.508
5.644 4.459 4.572
6.031 4.069 4.956
5.763 3.923 5.437
6.025 3.910 5.440
5.904 4.257 5.793
6.020 3.908 5.986
5.893 3.691 6.130
6.035 4.563 4.442
5.616 4.306 4.395
5.711 4.179 4.427
5.761 4.133 4.961
5.783 4.022 4.863
5.671 3.782 5.110
5.565 3.989 5.200
5.714 3.835 5.610
5.547 3.828 5.973
5.553 3.894 6.128
5.637 4.374 4.246
5.684 4.044 4.342
5.376 4.191 4.489
5.450 3.984 4.295
5.355 4.101 4.635
5.379 4.089 4.778
5.741 3.714 4.923
5.331 3.667 5.245
5.645 3.671 5.395
5.697 3.429 5.929
5.590 4.175 4.006
5.287 4.115 3.821
5.693 3.991 4.502
5.249 4.080 4.052
5.272 3.687 4.676
5.167 3.854 4.561
5.364 3.622 4.885
5.312 3.729 5.209
5.262 3.483 5.199
5.411 3.665 5.683
5.140 4.170 3.461
5.297 4.109 3.960
5.369 3.919 3.829
5.169 3.969 4.301
5.245 3.620 4.319
5.127 3.643 4.319
5.391 3.476 4.608
5.054 3.356 4.771
4.965 3.704 5.007
4.987 3.393 5.387
5.091 4.234 2.945
5.353 3.874 3.444
5.197 4.039 3.415
5.083 3.767 3.623
5.086 3.875 3.772
5.327 3.824 4.261
5.029 3.694 4.000
5.077 3.536 4.308
4.804 3.595 4.649
5.276 3.472 4.705
4.806 4.000 2.913
4.968 3.762 3.070
5.227 3.734 3.471
5.205 3.937 3.400
4.917 3.572 3.833
5.114 3.525 4.107
4.867 3.652 4.059
4.751 3.526 4.174
4.808 3.286 4.135
4.868 3.386 4.617
4.751 3.992 2.593
4.692 3.719 2.975
4.950 3.607 3.071
5.090 3.581 3.444
4.660 3.652 3.310
4.852 3.683 3.763
5.023 3.358 3.675
4.903 3.637 4.331
4.556 3.333 3.926
4.818 3.084 4.315
4.937 3.739 2.276
4.875 3.724 2.738
4.550 3.880 2.951
4.693 3.819 2.963
4.961 3.404 3.017
4.880 3.559 3.609
4.935 3.275 3.377
4.572 3.179 3.783
4.882 3.298 3.965
6.298 4.546 4.602
6.148 4.195 5.008
5.962 4.449 5.125
6.090 4.347 5.125
6.266 4.274 5.380
5.988 3.899 5.648
6.331 3.801 5.767
6.227 3.711 6.287
5.757 4.221 4.552
6.207 4.073 4.930
5.840 4.028 4.893
6.174 4.056 4.998
5.866 3.819 5.190
6.094 3.895 5.532
5.924 3.581 5.922
5.976 3.769 6.122
5.879 3.520 6.026
5.774 3.965 4.213
6.041 4.176 4.638
5.819 3.931 4.636
5.822 3.678 4.774
5.936 3.816 4.938
5.744 3.724 5.535
5.743 3.534 5.775
5.884 3.519 5.669
5.667 3.629 6.062
5.708 3.448 5.983
5.596 4.324 4.407
5.715 4.073 4.223
5.807 4.010 4.431
5.707 3.749 4.685
5.637 3.587 4.716
5.751 3.915 5.077
5.467 3.449 5.495
5.465 3.383 5.676
5.848 3.483 5.682
5.847 3.289 5.846
5.503 3.166 5.947
5.642 4.141 4.012
5.699 4.059 3.846
5.774 4.112 4.257
5.419 3.605 4.099
5.384 3.644 4.158
5.470 3.470 4.546
5.547 3.761 5.006
5.710 3.362 4.988
5.628 3.294 5.023
5.325 3.417 5.389
5.685 3.260 5.509
5.705 3.972 3.352
5.699 3.938 3.551
5.738 3.795 3.861
5.678 3.978 4.167
5.298 3.652 4.252
5.247 3.666 4.316
5.233 3.596 4.418
5.303 3.616 4.785
5.186 3.539 5.009
5.532 3.299 5.181
5.200 3.817 3.248
5.484 4.025 3.426
5.568 3.591 3.618
5.341 3.806 3.806
5.444 3.501 4.053
5.316 3.743 3.953
5.325 3.449 4.000
5.134 3.421 4.479
5.324 3.258 4.448
5.419 3.457 4.741
5.221 4.120 2.751
5.293 3.671 2.564
5.092 3.902 3.126
5.391 3.531 3.238
5.068 3.471 3.356
5.035 3.454 3.599
5.336 3.390 3.721
5.238 3.363 4.153
5.082 3.072 3.972
5.253 3.209 4.142
4.837 3.056 4.333
5.227 3.979 2.234
4.875 3.971 2.273
4.973 3.667 2.457
5.263 3.725 2.670
5.135 3.712 3.011
4.845 3.365 3.050
5.028 3.735 3.440
5.153 3.376 3.741
4.836 3.398 3.818
5.163 3.085 4.258
4.989 3.223 4.234
4.797 3.699 1.874
4.822 3.842 2.463
4.892 3.659 2.640
4.730 3.730 2.616
4.981 3.359 2.873
4.924 3.379 3.369
4.981 3.454 3.387
5.018 3.504 3.461
5.047 3.002 3.829
4.770 3.083 4.079
6.013 4.157 4.505
6.285 3.992 4.943
5.983 3.785 4.937
6.242 3.871 5.137
5.970 3.735 5.502
6.198 3.584 5.884
6.178 3.784 5.997
6.130 3.480 6.175
6.158 4.014 4.222
6.096 3.666 4.726
6.107 3.524 4.961
5.751 3.853 5.007
5.947 3.839 5.401
6.158 3.524 5.297
5.766 3.304 5.549
6.068 3.227 6.081
5.840 3.340 5.997
5.800 3.769 4.117
5.725 3.794 4.556
5.600 3.755 4.850
5.627 3.443 4.734
5.665 3.475 5.161
5.986 3.356 5.275
5.797 3.418 5.584
5.735 3.431 5.831
5.768 3.387 5.937
5.825 3.167 5.996
5.885 3.903 4.117
5.598 3.485 4.348
5.878 3.447 4.371
5.652 3.363 4.478
5.680 3.434 4.717
5.648 3.387 5.010
5.683 3.210 5.321
5.843 3.042 5.482
5.705 3.358 5.551
5.705 3.126 5.771
5.853 2.907 5.926
5.868 3.656 3.903
5.685 3.454 3.706
5.710 3.671 4.119
5.549 3.478 4.008
5.430 3.334 4.282
5.387 3.173 4.761
5.595 3.316 4.836
5.445 3.459 5.125
5.363 2.926 5.235
5.568 3.264 5.385
5.295 4.010 2.602
5.299 3.913 3.182
5.587 3.719 3.337
5.531 3.836 3.271
5.444 3.521 3.713
5.303 3.355 3.794
5.568 3.699 4.055
5.177 3.318 4.247
5.128 3.352 4.459
5.294 3.138 4.389
5.219 4.065 2.286
5.436 3.803 2.387
5.302 3.877 2.321
5.370 3.751 2.844
5.591 3.469 2.775
5.325 3.433 3.135
5.162 3.560 3.519
5.448 3.563 3.659
5.311 3.354 3.983
5.201 3.236 3.843
5.167 3.317 3.915
5.303 3.971 1.808
5.332 3.936 2.141
5.296 3.566 2.089
5.412 3.442 2.569
5.037 3.356 2.760
5.442 3.387 3.044
5.223 3.636 3.332
5.357 3.121 3.444
4.981 3.237 3.391
5.189 3.086 3.580
5.415 3.032 3.903
5.078 3.821 1.938
5.003 3.527 2.166
5.212 3.622 2.310
5.185 3.605 2.614
5.118 3.484 2.848
5.140 3.180 2.981
5.222 3.350 3.028
5.155 3.239 3.260
5.243 3.206 3.757
4.921 3.021 3.569
6.147 3.842 4.517
6.363 3.743 4.967
6.001 3.331 4.994
6.030 3.607 5.035
5.992 3.270 5.358
6.135 3.150 5.672
6.223 3.488 5.930
5.973 3.098 5.961
6.086 3.563 4.744
5.997 3.215 4.820
5.806 3.345 4.795
5.826 3.180 5.129
6.139 3.436 5.587
5.941 3.140 5.560
5.920 3.271 5.900
5.831 2.963 6.102
5.974 3.422 4.389
5.862 3.241 4.493
5.791 3.219 4.726
5.624 3.238 4.865
6.024 3.282 5.235
5.936 3.200 5.268
5.792 2.976 5.619
5.991 3.151 5.678
5.687 2.750 5.903
5.623 2.792 6.070
5.540 3.966 1.291
5.574 4.080 1.447
5.601 4.086 1.526
5.696 3.584 1.797
5.460 3.777 1.880
5.601 3.864 2.301
5.669 3.783 2.278
5.395 3.483 2.513
5.566 3.349 2.772
5.452 3.521 3.073
5.734 3.225 3.450
5.672 3.259 3.437
5.485 3.314 3.816
5.415 3.911 1.146
5.339 3.832 1.496
5.474 3.422 1.974
5.579 3.559 2.025
5.495 3.557 2.193
5.427 3.280 2.366
5.220 3.596 2.501
5.273 3.387 2.857
5.247 3.365 3.067
5.151 3.096 3.179
5.479 3.107 3.711
5.331 3.616 1.305
4.973 3.303 1.673
5.229 3.524 1.953
5.041 3.611 1.744
5.413 3.424 1.975
5.255 3.308 2.431
5.410 3.304 2.394
4.989 3.354 2.799
5.044 2.992 3.004
5.330 3.026 3.374
5.188 2.890 3.247
1.000 6.072 1.349
1.069 5.948 1.707
1.098 5.642 1.225
0.926 5.358 1.601
0.778 5.152 1.062
0.432 5.445 1.456
0.336 5.038 1.110
0.474 5.206 1.324
0.446 5.037 1.022
0.042 5.286 1.119
0.457 4.920 1.113
-0.055 5.029 0.411
0.188 4.801 0.923
0.225 4.767 1.237
0.219 5.101 1.117
1.107 5.755 1.469
1.162 5.414 1.455
0.872 5.562 1.222
0.999 5.494 1.209
0.673 5.537 0.926
0.563 5.432 0.937
0.577 5.314 1.509
0.654 5.212 0.852
0.644 4.928 1.198
0.475 5.033 1.308
0.201 5.194 0.382
0.213 4.921 0.652
0.434 4.763 0.907
0.603 4.745 1.383
0.371 4.800 0.326
0.093 5.129 0.204
0.469 5.128 0.397
0.042 4.868 0.922
0.135 4.643 0.882
0.393 4.828 1.145
0.140 4.668 0.199
0.221 4.998 0.085
0.049 4.713 0.489
0.197 4.611 0.864
0.069 4.507 0.960
-0.097 4.601 1.203
1.414 5.299 1.512
1.370 5.452 1.143
0.843 5.152 0.920
0.948 5.232 1.446
0.757 5.221 0.855
0.671 5.202 1.151
1.094 5.206 1.317
0.550 5.010 0.543
0.715 4.796 0.941
0.828 4.919 0.893
0.762 5.103 1.089
0.418 4.740 0.191
0.477 5.009 0.669
0.488 4.649 0.576
0.653 5.009 1.209
0.351 4.597 1.160
0.474 4.870 -0.128
0.268 4.898 0.466
0.566 4.799 0.280
0.540 4.735 0.697
0.525 4.394 0.875
0.220 4.433 1.219
0.258 4.596 0.249
0.047 4.522 0.357
0.171 4.766 0.569
0.058 4.539 0.643
0.074 4.354 0.857
0.156 4.182 1.107
-0.005 4.684 0.189
0.148 4.600 0.221
-0.071 4.304 0.694
-0.016 4.269 0.718
-0.027 4.293 0.859
1.515 4.958 1.324
1.192 5.283 1.062
0.999 5.118 1.050
0.849 4.944 1.013
1.091 4.915 0.821
1.176 4.697 1.263
0.764 4.981 0.476
0.781 4.771 0.548
0.912 4.786 0.962
1.054 4.755 1.031
0.796 4.684 0.194
0.980 4.683 0.409
0.781 4.959 0.447
0.760 4.482 0.571
0.826 4.496 0.965
0.901 4.580 1.232
0.465 4.951 0.010
0.351 4.835 0.367
0.529 4.796 0.525
0.632 4.415 0.752
0.798 4.593 0.772
0.742 4.410 1.112
0.313 4.687 0.403
0.478 4.362 0.590
0.456 4.608 0.444
0.463 4.362 1.036
0.478 4.409 1.074
0.230 4.300 0.143
0.432 4.072 0.193
0.149 4.351 0.729
0.319 4.023 1.023
0.421 3.918 0.989
-0.002 4.386 0.244
-0.100 3.981 0.297
0.100 4.158 0.515
0.140 4.018 0.885
0.031 4.005 0.740
1.531 4.950 1.450
1.367 4.914 0.648
1.086 4.601 1.035
1.238 4.905 1.436
1.243 4.880 0.558
0.894 4.690 0.944
0.980 4.797 1.037
1.293 4.440 1.212
0.777 4.715 -0.084
0.982 4.452 0.358
0.757 4.781 0.649
0.919 4.731 0.446
1.061 4.519 0.804
0.730 4.393 0.880
0.788 4.469 0.072
0.875 4.491 0.562
0.963 4.317 0.428
0.736 4.237 0.986
0.703 4.300 0.858
0.404 4.149 0.222
0.641 4.356 0.414
0.473 4.371 0.371
0.526 4.067 0.765
0.725 3.906 0.882
0.571 4.336 0.141
0.409 4.146 0.394
0.355 3.923 0.572
0.579 3.826 0.699
0.388 3.976 0.926
0.137 4.069 -0.154
0.396 4.101 0.450
0.222 4.142 0.408
0.220 3.960 0.653
0.190 3.827 -0.014
0.268 3.693 0.161
-0.023 3.586 0.331
0.066 3.878 0.750
2.470 6.252 0.530
2.165 6.189 0.209
2.271 6.147 0.470
1.979 5.856 0.099
1.592 4.706 1.075
1.406 4.462 0.897
1.146 4.569 0.766
1.247 4.206 1.016
1.150 4.312 0.295
1.186 4.229 0.252
1.026 4.183 0.428
0.932 4.370 1.011
1.112 4.245 1.170
1.097 4.468 -0.075
1.073 4.459 0.354
0.773 4.018 0.754
0.744 4.124 0.977
0.774 3.972 0.933
0.601 4.083 0.099
0.694 4.122 0.424
0.870 4.126 0.628
0.948 4.078 0.881
0.739 4.177 1.123
0.400 4.213 -0.023
0.507 4.157 0.255
0.823 3.902 0.614
0.447 4.011 0.745
0.636 3.815 0.207
0.654 3.869 0.018
0.315 3.611 0.419
0.402 3.648 0.408
0.248 3.855 0.300
2.865 6.206 0.151
2.555 6.106 0.621
2.561 5.851 0.874
2.593 6.012 0.249
2.326 5.832 0.146
2.154 6.112 0.147
1.106 4.387 0.150
1.033 4.037 0.272
1.043 4.122 0.444
1.232 3.884 0.669
1.045 4.247 0.293
0.919 4.183 0.508
1.147 4.026 0.590
0.651 3.753 0.048
0.617 3.764 0.327
0.971 3.547 0.648
0.652 3.487 0.155
2.625 6.097 0.047
2.958 6.091 0.423
2.806 5.947 0.456
2.654 5.963 0.794
2.456 6.078 0.137
2.815 5.858 0.311
2.714 5.553 0.611
2.497 5.728 -0.112
2.484 5.449 0.103
1.279 3.921 0.252
2.951 5.770 0.198
2.886 5.629 0.364
2.817 5.898 0.699
2.898 5.656 0.940
2.935 5.875 0.958
2.983 5.839 -0.139
2.951 5.437 0.368
3.003 5.669 0.657
2.581 5.645 0.519
2.991 5.459 1.146
2.420 5.438 0.052
2.682 5.317 0.324
2.634 5.545 0.578
2.731 5.026 0.207
2.638 5.304 0.379
2.907 5.828 0.181
3.232 5.446 0.471
2.935 5.593 0.300
3.104 5.726 0.795
3.214 5.602 1.097
3.291 5.447 1.351
2.865 5.351 -0.126
2.829 5.381 0.069
2.792 5.571 0.644
2.739 5.549 0.532
2.888 5.553 0.775
3.163 5.106 1.115
2.838 5.429 0.214
2.597 5.510 0.641
2.828 5.039 0.688
2.815 5.102 1.093
2.686 4.975 0.217
2.864 5.288 0.407
3.027 4.836 0.295
2.885 4.994 0.163
2.823 5.148 0.605
-0.076 2.275 0.648
3.406 5.434 0.246
3.235 5.403 0.276
3.250 5.576 0.517
3.503 5.607 0.858
3.224 5.410 1.135
3.274 5.235 1.291
3.454 5.209 1.135
3.198 5.408 0.437
2.889 5.483 0.231
3.198 5.438 0.744
2.995 5.095 0.858
3.285 5.350 1.074
3.039 5.280 0.369
2.903 4.984 0.521
2.984 4.922 0.392
3.132 4.880 0.640
3.042 5.068 0.187
2.729 5.219 0.195
2.599 5.052 0.468
3.165 4.963 0.276
3.007 5.008 0.479
2.939 4.847 0.420
3.110 4.657 0.658
2.791 4.771 0.269
2.815 4.665 0.226
2.883 4.400 0.527
0.245 2.259 0.479
0.546 1.883 0.332
0.115 2.074 0.352
0.123 1.757 0.416
3.238 5.162 0.039
3.374 5.365 0.225
3.198 5.071 0.830
3.390 5.214 0.621
3.260 4.916 1.239
3.511 5.297 1.476
3.182 5.242 0.052
3.324 5.292 0.573
3.095 5.280 0.650
3.237 4.886 0.794
3.186 5.122 1.253
3.346 5.022 1.146
3.206 5.231 0.103
3.314 5.238 0.301
3.357 5.044 0.393
2.962 4.887 0.911
2.891 4.857 0.888
2.774 4.864 -0.023
2.950 5.044 0.242
2.931 4.847 0.527
2.839 4.493 0.761
3.307 4.621 -0.112
3.144 4.594 0.057
3.344 4.613 0.557
3.216 4.527 0.806
3.226 4.514 0.721
3.003 4.623 0.370
2.849 4.396 0.491
3.101 4.390 0.593
2.981 4.394 0.192
2.796 4.555 0.148
2.664 4.461 0.606
0.756 2.204 0.182
0.342 1.732 0.505
0.343 1.764 0.041
0.451 1.473 0.088
-0.026 1.614 0.277
0.221 1.632 0.508
0.046 1.236 -0.017
-0.209 1.561 0.302
3.376 5.186 0.161
3.613 5.251 0.565
3.751 5.210 0.510
3.615 4.834 0.900
3.636 4.788 1.102
3.373 4.748 1.269
3.231 5.258 0.331
3.483 5.208 0.391
3.657 4.897 0.629
3.326 4.856 0.627
3.422 4.962 1.214
3.256 4.591 1.149
3.250 5.134 0.265
3.424 4.656 0.490
3.268 5.002 0.701
3.060 4.825 0.957
3.092 4.831 1.135
2.911 4.524 -0.040
3.162 4.731 0.222
2.940 4.870 0.275
3.347 4.465 0.738
3.326 4.670 0.830
3.298 4.529 -0.018
3.303 4.514 0.558
3.426 4.310 0.866
3.191 4.293 0.725
3.073 4.328 0.085
2.961 4.451 0.298
2.975 4.281 0.357
3.343 4.264 0.829
3.199 4.219 -0.107
3.075 4.035 0.334
2.832 3.899 0.472
3.096 3.841 0.931
2.710 4.036 0.121
2.592 3.812 0.398
2.604 3.975 0.708
1.097 1.919 0.446
0.992 1.886 0.258
0.795 1.848 0.441
0.511 1.739 0.216
0.157 1.544 0.021
0.159 1.431 0.310
0.367 1.427 0.359
-0.020 0.961 0.368
3.822 5.185 0.048
3.620 5.170 0.315
3.607 5.151 0.669
3.560 4.988 0.594
3.839 4.820 0.836
3.805 4.719 1.315
3.524 5.001 0.283
3.640 4.721 0.156
3.635 5.013 0.422
3.541 4.763 0.507
3.389 4.749 1.088
3.807 4.719 1.349
3.233 4.690 -0.129
3.598 4.631 0.418
3.672 4.843 0.687
3.241 4.778 0.491
3.600 4.503 1.020
3.278 4.509 1.152
3.226 4.584 0.061
3.470 4.482 0.402
3.338 4.567 0.502
3.521 4.515 1.035
3.676 4.253 0.165
3.560 4.536 0.197
3.359 4.285 0.400
3.334 4.328 0.763
3.124 4.290 0.336
3.362 4.055 0.129
3.427 3.939 0.371
3.241 4.194 0.778
3.363 4.082 0.178
3.036 4.057 0.256
3.356 4.174 0.675
2.970 3.753 0.937
3.132 3.897 0.119
3.107 3.742 0.110
2.869 3.960 0.417
3.214 3.532 0.746
2.875 3.595 0.126
2.598 3.421 0.647
3.065 3.727 0.418
2.623 3.668 0.189
2.593 3.689 0.169
2.908 3.448 0.699
2.738 3.398 0.577
3.834 4.754 0.151
3.730 4.990 0.242
3.802 4.866 0.463
3.871 4.556 0.837
3.818 4.731 0.961
3.736 4.797 0.112
3.896 4.689 0.319
3.994 4.446 0.492
3.781 4.433 0.767
3.866 4.321 1.020
3.774 4.745 0.431
3.430 4.726 0.562
3.661 4.418 0.706
3.708 4.553 1.015
3.245 4.405 0.175
3.217 4.145 0.365
3.559 4.505 0.589
3.222 4.158 0.664
3.425 4.216 0.015
3.479 4.164 0.315
3.667 4.167 0.585
3.628 4.287 0.593
3.402 4.265 0.225
3.474 4.210 0.475
3.525 4.130 0.695
3.586 4.127 0.780
3.571 3.847 0.957
3.315 3.721 -0.087
3.402 3.713 0.117
3.306 4.018 0.660
3.411 3.691 0.599
3.450 3.494 0.825
3.194 3.687 -0.018
3.110 3.746 0.265
3.170 3.466 0.749
2.994 3.720 0.709
3.104 3.643 0.198
3.089 3.662 0.578
3.168 3.396 0.658
2.793 3.474 0.586
2.864 3.408 0.100
2.810 3.284 0.300
3.059 3.410 0.698
2.727 3.336 0.940
2.863 3.452 0.162
2.488 3.291 0.194
2.585 3.362 0.722
2.764 3.205 0.586
2.563 2.959 0.248
2.417 2.776 0.670
2.476 2.789 0.505
2.248 2.814 0.344
2.471 2.943 0.709
2.116 2.571 0.209
2.211 2.810 0.398
2.050 2.641 0.610
1.839 2.417 0.361
1.682 2.010 0.308
1.361 2.110 0.254
3.955 4.829 0.359
4.135 4.692 0.403
3.986 4.523 0.533
3.829 4.378 0.074
4.118 4.261 0.593
4.074 4.496 0.701
3.955 4.479 1.034
3.961 4.499 0.400
3.612 4.457 0.299
3.987 4.190 0.459
3.766 4.314 0.965
3.534 4.102 -0.113
3.733 4.177 0.556
3.592 3.911 0.695
3.432 3.976 0.696
3.566 3.996 -0.052
3.967 4.242 0.165
3.777 4.170 0.705
3.683 3.882 0.879
3.616 4.006 0.062
3.838 3.721 0.294
3.765 3.758 0.559
3.798 3.664 0.481
3.360 3.790 0.385
3.318 3.650 0.498
3.468 3.766 0.686
3.556 3.381 0.829
3.494 3.443 0.326
3.283 3.460 0.265
3.377 3.682 0.354
3.291 3.313 0.663
3.047 3.323 -0.081
2.921 3.333 0.262
3.281 3.389 0.672
2.964 3.424 0.907
2.868 3.206 -0.031
2.894 3.092 0.372
3.172 3.250 0.341
2.985 2.944 0.856
2.613 2.884 -0.082
2.872 3.282 0.309
3.062 3.117 0.482
2.721 2.746 0.477
2.805 2.807 0.100
2.776 2.604 0.547
2.661 2.804 0.865
2.457 2.741 0.301
2.577 2.537 0.403
2.323 2.441 0.725
2.137 2.718 0.174
2.300 2.439 0.200
2.357 2.572 0.677
2.215 2.152 0.212
2.215 2.523 0.728
2.217 2.095 0.263
1.891 2.115 0.227
3.973 4.482 -0.029
3.874 4.516 0.606
4.244 4.261 0.711
3.969 4.447 0.004
3.893 4.182 0.103
3.715 4.322 0.605
3.558 4.323 0.143
3.992 4.085 0.221
3.660 3.977 0.610
3.583 3.874 0.757
0.093 5.775 6.197
0.123 5.995 5.753
-0.152 6.014 5.976
0.278 5.555 6.096
0.253 5.730 6.406
0.578 5.925 5.740
0.357 5.802 5.815
0.483 5.596 5.971
0.326 6.026 5.335
0.069 5.710 5.596
0.393 5.604 5.917
0.260 5.873 5.943
0.057 5.408 5.972
0.274 5.804 5.123
-0.124 5.831 5.083
-0.011 5.868 5.406
0.157 5.372 5.720
-0.137 5.423 5.960
0.070 5.605 6.191
0.565 5.947 5.748
0.442 5.857 6.002
0.233 5.846 6.106
0.582 5.589 5.498
0.555 5.893 5.798
0.356 5.613 6.073
0.512 5.814 6.140
0.165 5.937 5.195
0.380 5.588 5.361
0.305 5.426 5.725
0.615 5.290 5.811
0.297 5.373 5.892
0.207 5.546 4.740
0.399 5.728 5.119
0.416 5.637 5.214
0.272 5.288 5.774
0.328 5.364 5.997
0.015 5.113 5.909
0.468 5.040 6.175
0.006 5.313 4.749
-0.132 5.395 4.914
0.304 5.468 5.110
-0.115 5.505 5.572
-0.020 5.059 5.782
-0.053 5.358 5.952
0.059 4.975 5.824
-0.011 4.875 6.066
0.023 5.672 4.618
0.610 5.877 5.280
0.341 5.734 5.886
0.596 5.694 5.770
0.500 5.481 6.326
0.611 5.496 5.134
0.854 5.642 5.449
0.588 5.690 5.631
0.800 5.703 5.860
0.721 5.313 6.168
0.711 5.735 5.017
0.528 5.537 5.213
0.532 5.439 5.543
0.529 5.265 5.708
0.380 5.246 6.059
0.570 5.405 5.841
0.463 5.039 6.367
0.652 6.006 2.961
0.555 5.594 4.506
0.520 5.494 5.126
0.487 5.600 4.934
0.196 5.142 5.168
0.252 5.437 5.669
0.226 5.440 5.843
0.483 5.304 5.971
0.394 4.991 6.247
0.218 5.474 4.763
0.302 5.485 4.741
0.445 5.265 4.934
0.063 5.111 5.287
0.314 5.359 5.069
0.068 5.043 5.458
0.321 5.180 5.642
0.148 5.103 5.985
0.213 4.969 6.098
0.163 5.599 4.732
0.011 5.406 4.461
0.035 5.351 4.850
0.218 5.256 5.209
0.139 5.138 5.168
-0.031 5.154 5.469
0.062 4.770 5.831
0.217 4.701 6.031
0.259 4.998 6.033
-0.068 5.359 4.445
-0.007 4.997 4.535
0.827 6.037 5.511
0.780 5.912 5.702
0.849 5.817 5.926
0.556 5.735 5.231
0.572 5.789 5.604
0.522 5.749 5.418
0.844 5.529 5.809
0.857 5.324 5.844
0.781 5.459 5.133
0.884 5.739 5.159
0.709 5.619 5.503
0.830 5.567 5.461
0.817 5.508 5.929
1.084 5.476 5.941
0.899 6.148 2.960
0.925 6.126 3.092
0.712 5.573 4.937
0.885 5.409 5.113
0.708 5.409 5.477
0.749 5.205 5.364
0.703 5.103 5.953
0.631 5.102 5.845
0.672 5.008 6.352
0.825 6.213 2.348
0.544 6.145 2.119
0.498 6.377 2.528
0.821 6.104 2.936
0.827 5.895 2.992
0.386 5.242 4.828
0.438 5.537 4.886
0.684 5.372 5.229
0.705 5.422 5.143
0.523 5.056 5.627
0.378 5.281 5.610
0.499 5.010 6.086
0.395 5.036 6.306
0.479 6.197 2.193
0.647 5.884 2.402
0.493 6.144 2.529
0.790 6.125 2.804
0.774 5.497 4.558
0.410 5.123 4.476
0.628 5.273 4.960
0.244 4.929 5.279
0.460 4.813 5.065
0.464 5.175 5.489
0.321 4.717 5.631
0.457 4.656 5.863
0.529 4.654 6.140
0.361 4.996 4.552
0.308 4.845 4.484
0.223 4.919 4.786
0.370 4.999 4.959
0.480 5.070 5.440
0.068 5.032 5.403
0.414 4.625 5.442
0.179 4.461 5.920
0.458 5.287 4.260
0.234 5.077 4.448
-0.033 4.979 4.608
0.232 4.657 4.683
-0.120 5.023 4.898
0.296 4.536 5.348
0.300 4.594 5.419
0.119 4.597 5.599
0.029 4.577 5.805
0.042 5.043 4.170
0.270 4.847 4.474
0.030 5.054 4.488
1.282 5.887 5.373
0.988 6.048 5.385
1.340 5.539 5.925
0.989 5.885 5.903
0.910 5.529 5.453
1.035 5.584 5.433
0.969 5.560 5.651
1.147 5.377 5.997
1.226 5.577 5.998
0.855 6.309 3.355
0.934 5.481 4.860
0.827 5.642 5.177
1.086 5.442 5.175
1.039 5.224 5.718
1.070 5.470 5.867
0.731 5.370 5.974
0.887 6.335 2.982
0.906 6.127 3.247
1.221 5.384 5.047
0.986 5.627 4.922
1.267 5.177 5.251
1.105 5.469 5.377
0.974 5.237 5.851
1.129 5.022 6.205
0.976 6.451 1.874
0.867 6.370 2.377
1.042 5.935 2.537
1.207 5.865 2.708
0.837 5.966 3.138
0.713 5.199 4.492
0.968 5.267 5.067
1.104 5.491 5.235
0.897 5.129 5.367
0.654 5.009 5.741
0.956 5.266 5.566
0.864 5.187 5.728
0.679 4.948 6.006
0.766 6.264 2.055
1.018 6.263 1.970
0.990 6.154 2.487
0.791 5.956 2.544
1.105 6.175 2.865
0.863 5.685 2.785
0.877 5.532 4.852
0.637 5.332 4.763
0.568 5.272 4.673
0.922 5.133 4.820
0.931 5.086 5.258
0.897 4.779 5.441
0.871 5.079 5.924
0.735 5.030 5.813
0.588 6.068 1.778
0.690 5.752 1.995
0.710 5.808 2.322
0.761 5.843 2.251
0.577 5.801 2.644
0.959 5.036 4.480
0.490 5.033 4.652
0.758 5.244 4.869
0.653 5.100 4.853
0.406 4.752 5.244
0.639 4.869 5.623
0.574 4.832 5.680
0.528 4.641 5.973
0.421 5.849 2.085
0.681 5.586 2.087
0.586 5.620 2.476
0.549 5.231 4.577
0.594 4.927 4.690
0.254 4.922 4.552
0.345 4.960 4.914
0.440 4.513 5.211
0.505 4.714 5.156
0.658 4.476 5.554
0.631 4.785 4.550
0.219 4.598 4.677
0.356 4.483 4.479
0.235 4.608 5.093
0.205 4.538 5.003
0.450 4.328 5.160
0.191 4.601 5.406
0.171 4.897 4.258
0.259 4.784 4.689
0.055 4.607 4.367
0.185 4.514 4.462
0.101 4.595 4.771
0.331 4.343 5.297
0.229 4.737 4.361
0.016 4.702 4.476
1.724 5.967 5.244
1.636 5.987 5.562
1.301 5.924 5.927
1.510 5.978 5.014
1.554 5.930 5.337
1.379 5.861 5.314
1.126 5.464 5.536
1.462 5.371 5.915
1.143 5.792 4.799
1.255 5.384 5.282
1.438 5.629 5.278
1.019 5.598 5.420
1.314 5.570 5.900
1.089 5.425 6.107
1.144 6.012 2.892
1.332 6.203 2.889
1.237 6.266 3.420
1.165 5.530 4.847
1.001 5.502 5.211
0.908 5.332 5.120
0.944 5.319 5.379
1.130 5.182 5.583
0.964 5.185 6.031
1.257 6.491 2.322
1.141 6.428 2.176
1.197 6.100 2.445
1.230 6.123 2.780
1.255 5.793 2.933
1.424 5.550 4.857
1.169 5.436 5.077
1.089 5.112 5.281
1.017 4.901 5.516
1.241 5.297 5.886
1.372 4.874 5.960
1.074 5.973 1.900
1.222 6.261 2.199
0.959 6.068 2.477
1.124 6.112 2.436
1.141 6.168 2.495
1.152 5.844 3.064
1.135 5.375 5.017
1.139 4.941 5.142
0.831 4.870 5.493
0.821 4.945 5.453
1.177 5.077 5.725
1.230 4.930 5.744
1.048 6.087 1.917
1.054 6.058 1.918
0.999 5.952 2.172
0.935 5.793 2.371
0.886 5.853 2.629
0.844 5.921 2.998
0.996 5.175 4.720
0.863 4.893 5.186
1.001 5.093 5.207
0.797 4.596 5.575
1.054 4.891 5.697
0.821 4.528 6.042
0.940 5.915 1.725
1.017 5.645 1.853
0.821 5.938 2.432
0.953 5.467 2.397
1.042 5.456 2.811
0.992 5.687 2.629
0.680 4.649 4.942
0.900 5.021 4.904
0.965 4.558 5.057
0.555 4.514 5.411
0.706 4.813 5.515
0.691 5.747 1.530
0.552 5.720 2.137
0.918 5.548 2.381
0.639 5.622 2.259
0.733 5.447 2.480
0.700 4.615 4.596
0.770 4.579 5.057
0.646 4.788 5.261
0.816 4.404 5.356
0.693 5.525 1.811
0.546 5.404 1.976
0.752 5.471 2.268
0.411 5.203 2.345
0.601 4.473 4.641
0.286 4.535 4.929
0.243 4.348 5.136
0.228 5.329 1.781
0.396 5.478 1.891
0.357 5.170 1.881
0.044 4.211 4.518
0.236 5.448 1.813
1.887 5.849 4.923
1.573 5.776 5.440
1.585 5.892 5.424
1.825 5.747 5.822
1.748 5.421 5.857
1.350 5.609 4.934
1.533 5.650 5.164
1.361 5.454 5.491
1.651 5.637 5.647
1.707 5.178 5.912
1.618 5.556 6.191
1.450 6.408 2.859
1.651 6.093 2.931
1.134 5.402 4.684
1.474 5.248 5.343
1.537 5.121 5.111
1.207 5.124 5.494
1.499 5.135 5.868
1.468 5.205 6.038
1.437 6.086 2.443
1.454 6.372 2.482
1.251 6.116 2.987
1.420 6.143 3.067
1.311 5.541 5.005
1.422 5.117 5.176
1.426 5.397 5.404
1.044 5.130 5.752
1.095 4.936 5.591
1.112 4.974 5.745
1.397 6.143 1.997
1.163 6.178 2.139
1.363 6.175 2.299
1.334 6.050 2.490
1.213 5.882 2.677
1.128 5.697 2.913
1.427 5.309 4.950
1.598 5.185 4.875
1.571 4.929 5.229
1.434 4.861 5.500
1.599 4.885 5.596
1.426 4.971 5.871
1.357 5.883 1.638
1.564 5.911 2.132
1.235 5.777 2.067
1.236 6.041 2.592
1.320 5.940 2.571
1.488 5.699 2.899
1.036 4.904 4.790
1.051 5.010 5.093
1.323 4.953 5.397
1.236 4.607 5.525
1.417 4.742 5.802
1.302 4.726 5.734
1.423 6.081 1.581
1.164 6.054 1.973
1.193 5.573 2.129
1.150 5.841 2.238
1.055 5.469 2.491
1.071 5.604 2.963
0.969 5.753 3.193
1.035 4.848 4.892
0.946 4.640 4.813
1.253 4.882 4.943
1.178 4.773 5.540
1.292 4.829 5.461
0.865 5.800 1.554
0.953 5.686 1.884
1.069 5.825 1.987
1.079 5.330 2.286
1.025 5.642 2.501
1.130 5.253 2.609
1.063 4.761 4.861
0.855 4.478 5.256
0.932 4.626 5.271
1.101 5.686 1.545
0.950 5.605 1.670
1.031 5.241 1.973
0.776 5.286 2.345
0.810 5.320 2.646
1.012 5.353 2.927
0.966 5.533 1.623
0.886 5.467 1.834
0.899 5.462 2.052
0.590 5.260 2.296
0.902 5.181 2.607
0.482 5.417 1.394
0.676 5.303 1.855
0.405 5.208 2.126
0.366 5.177 2.287
0.402 5.228 2.456
0.337 5.246 1.404
0.480 5.150 1.579
0.377 4.753 1.911
0.340 4.873 1.510
0.319 4.833 1.612
0.090 4.873 1.685
1.746 5.745 4.845
2.037 5.706 4.903
1.992 5.761 5.352
1.783 5.528 5.598
1.685 5.595 5.488
1.939 5.382 5.792
1.808 5.563 6.081
2.043 5.651 4.777
1.742 5.631 4.711
1.567 5.609 5.089
1.515 5.509 5.214
1.487 5.497 5.220
1.519 5.467 5.447
1.788 5.420 6.009
1.912 5.091 6.008
1.449 6.366 2.269
1.437 6.213 2.524
1.675 6.045 2.716
1.548 5.400 4.690
1.420 5.541 4.513
1.372 5.356 4.768
1.447 5.429 4.871
1.646 5.171 5.149
1.375 5.112 5.439
1.550 5.293 5.517
1.576 4.927 6.112
1.475 4.906 6.284
1.576 6.108 1.687
1.546 5.997 2.241
1.325 6.123 2.203
1.485 6.157 2.710
1.290 6.124 2.690
1.403 5.682 3.117
1.637 5.250 4.777
1.152 5.015 4.743
1.207 5.272 4.964
1.466 5.281 5.021
1.268 4.981 5.371
1.536 5.126 5.866
1.450 4.748 5.734
1.245 6.145 1.635
1.418 6.013 2.174
1.273 5.932 2.453
1.366 5.838 2.566
1.253 5.950 2.842
1.502 5.801 3.033
1.614 4.803 4.857
1.597 5.000 5.048
1.538 4.855 5.308
1.733 4.851 5.382
1.668 4.603 5.880
1.683 4.770 6.003
1.673 5.788 1.934
1.488 5.808 1.969
1.527 5.659 2.395
1.469 5.488 2.380
1.576 5.558 2.676
1.756 5.583 2.805
1.209 4.831 5.094
1.331 4.647 5.010
1.561 4.807 5.236
1.549 4.783 5.376
1.136 4.738 5.814
1.252 5.932 1.864
1.311 5.651 1.826
1.544 5.756 1.979
1.378 5.546 2.527
1.537 5.278 2.380
1.597 5.276 2.771
1.287 5.414 3.078
1.088 4.774 4.793
1.070 4.462 5.189
