9.801651 31.719065 64.0898
10.116653 34.162064 64.802795
2.3406525 36.353065 7.6897964
1.77565 38.625065 7.436798
22.22065 73.050064 43.783794
20.597656 72.07007 42.911797
22.572647 70.44406 32.327797
21.835648 68.47206 33.158794
48.993656 16.47506 14.976799
49.164658 18.741058 14.997803
54.042656 24.924059 5.4688034
51.938656 25.026064 4.7697983
19.605652 0.10105896 27.236795
18.09365 77.41406 27.118795
12.740654 75.14107 38.470795
12.534653 77.298065 39.907795
18.814651 67.786064 54.830795
20.084656 67.15307 56.886795
28.615654 68.11207 47.864796
30.676651 67.505066 48.299797
25.896652 32.819065 42.540794
27.472649 31.358065 43.811794
21.251648 28.129065 54.090794
22.921654 28.697065 55.231796
44.294655 8.844063 45.940796
44.224655 7.26606 47.027794
36.974655 5.998062 55.286797
34.648655 6.5150604 55.477795
68.31466 9.101059 63.639793
66.253654 8.152061 62.981796
69.86765 11.584061 62.927795
72.031654 10.394058 63.784794
44.768658 30.720064 32.994797
44.927654 30.310064 30.867796
48.456657 24.022064 35.901794
48.396656 22.298065 34.639793
34.928654 49.744064 18.749794
35.811657 50.762062 20.531796
29.20565 49.694065 28.928795
27.459648 50.931065 29.613794
47.840656 63.76306 43.801796
47.175655 62.31206 42.901794
43.547657 54.914062 50.918797
44.167656 55.906063 53.213795
58.227657 74.67107 2.1498032
58.519657 72.11307 2.0278015
66.05266 76.019066 59.019794
66.153656 77.04407 57.473793
46.703655 77.160065 28.441795
48.031654 75.077065 28.933796
54.809658 0.5150604 20.798796
53.434658 1.1910629 18.778795
58.887657 26.205065 20.715801
57.660656 26.434065 22.780796
58.921658 34.324066 16.116798
58.672657 36.267063 15.478798
53.21166 49.773064 63.872795
52.020657 48.986065 62.226795
41.142654 49.984062 1.4578018
39.756657 51.716064 0.5787964
25.07965 12.667061 34.588795
24.659653 12.895058 36.995796
19.736656 6.9020615 45.309795
21.703651 4.9240646 45.573795
26.45765 61.143063 43.860794
26.04065 61.315063 41.608795
33.589653 69.68006 38.552795
33.98665 72.22607 38.714794
9.520653 53.225063 19.804794
10.179649 54.866062 20.991795
5.794655 51.973064 29.106794
4.335655 51.988064 31.184795
30.919647 12.892059 4.0278015
29.160652 11.521057 2.8488007
33.00065 17.579063 57.867794
34.355656 19.416061 58.488796
58.87866 11.038063 55.001793
59.111656 10.138062 57.177795
58.96866 9.304062 1.9148026
60.490658 10.262062 3.0518036
67.11665 41.653065 16.294794
66.27466 43.222065 17.640795
73.738655 40.966064 24.523794
74.77466 39.641064 23.181795
67.25565 23.993065 4.9257965
66.891655 24.716064 6.5678024
62.966656 32.833065 12.816803
61.730656 33.500065 14.150803
17.348656 52.574062 41.238796
15.152649 52.998062 41.868797
15.017654 47.905064 52.735794
16.21965 46.352062 53.148796
18.311653 65.535065 60.250793
19.09665 63.035065 59.953796
10.103653 56.422062 64.832794
8.409653 57.398064 0.48880005
12.621651 17.275063 57.505795
10.925652 16.04306 56.917793
10.694656 20.546059 47.102795
10.301651 17.994057 45.537796
17.113655 1.6370621 59.658794
18.779655 2.7610626 59.447796
19.37365 10.93306 48.933796
20.78865 10.964058 50.246796
55.047657 56.884064 12.542801
53.706657 58.134064 11.415802
62.587658 60.06806 4.990799
64.49866 61.063065 4.063797
66.390656 5.5080643 13.762802
64.93866 5.4490585 12.656799
58.756657 75.87206 20.4178
57.221657 77.90607 20.554802
33.377655 27.209064 59.589794
35.179657 28.278065 58.957794
39.066654 33.107063 48.776794
38.284657 32.971066 47.012794
38.271656 76.29006 6.7738037
38.424656 74.08206 7.4797974
44.483658 71.772064 63.450794
45.676655 73.29307 62.251793
6.436653 69.550064 33.331795
8.478653 69.47507 32.830795
14.2656555 69.104065 23.973795
14.77565 71.271065 25.175795
15.562653 37.468063 1.6337967
13.87265 38.438065 65.749794
24.960648 41.826065 59.749794
23.95765 41.655064 57.542793
52.165657 32.277065 40.759796
49.997658 33.889065 40.394794
40.788654 31.584064 46.363796
40.720657 29.293064 46.353794
33.048656 77.09306 0.9578018
34.631657 0.33106232 1.790802
37.977657 3.8450623 4.792801
37.160656 5.1450653 6.714798
54.26766 75.83206 18.4188
53.990658 75.63506 16.300797
62.317657 76.79407 8.501801
64.250656 75.32107 7.623802
6.611656 16.12606 31.507795
8.394653 16.504059 30.195795
10.92865 22.330063 19.324795
12.986656 22.15306 18.299795
56.818657 74.26507 50.840797
57.724655 75.06007 52.350796
50.488655 68.76807 60.155796
52.07966 67.230064 61.054794
27.531654 56.012062 15.184795
28.667648 56.505062 16.751795
26.820648 57.066063 27.526794
28.17865 58.703064 28.384794
63.571655 24.660059 2.042801
64.43565 22.468063 1.9377975
63.863655 20.25206 57.087795
64.74265 20.57306 54.699795
22.536652 75.408066 60.869793
24.745651 76.11407 60.144794
32.270653 1.8970642 52.123795
32.67765 0.36906433 50.546795
12.743652 50.700066 18.689796
10.768654 51.027065 17.569801
16.959656 51.003063 6.6167984
18.310654 48.334064 6.969803
35.886654 72.55907 24.042795
37.629658 71.38506 25.263796
27.312653 66.213066 29.345795
27.273651 63.794064 29.959795
16.146652 53.734062 38.891796
15.741653 54.790062 36.773796
23.03965 57.51306 27.547794
24.116653 55.564064 26.632795
62.307655 27.205065 45.609795
61.338657 29.477064 45.584797
54.597656 31.493065 56.613796
53.527657 33.200066 55.738796
16.813652 27.104065 35.836796
18.92965 26.584064 36.063797
24.215652 30.899065 24.896795
23.973648 31.002064 22.908794
9.260651 50.850063 64.679794
8.063652 52.028065 65.705795
4.207649 49.645065 10.5308
5.985649 48.722065 12.207802
3.990654 77.47206 18.1978
4.2086563 0.6810608 16.824799
7.603653 4.1360626 6.476799
9.1286545 2.3620605 5.1928024
62.657658 75.368065 54.541794
64.94965 74.69006 53.862793
65.90266 74.42007 43.928795
67.863655 74.76106 44.323795
65.61966 16.372063 10.202797
62.815655 15.96106 9.399803
55.175655 12.657059 18.480797
53.23966 13.047058 18.062798
15.600655 0.8940582 62.106796
13.113655 1.0100632 60.923794
12.145653 69.51807 2.7577972
11.518654 69.977066 4.844803
4.375656 59.710064 48.626797
6.313652 60.67306 48.074795
13.967651 56.662064 38.944798
15.95665 57.428062 40.454796
59.195656 69.922066 52.519794
61.10766 69.14207 53.779797
57.11466 68.92606 65.0608
54.825657 68.14307 65.261795
25.62165 47.087063 12.223801
27.202652 48.858063 12.089798
23.995651 55.809063 22.6768
21.88665 55.793064 21.350796
67.57465 62.48606 37.804794
69.390656 63.564064 38.491795
71.84065 64.73306 26.797794
74.014656 64.29006 27.541796
76.83366 45.285065 27.513796
75.112656 45.142063 29.198795
68.26366 38.121063 34.050797
70.27766 37.411064 35.880795
57.051655 54.61706 46.801796
58.187656 52.660065 46.149796
64.959656 52.912064 36.612797
64.571655 54.963062 36.023796
53.270657 19.177063 35.854794
54.244656 21.024063 36.970795
44.712658 21.562057 44.988796
45.589657 20.33406 46.224796
54.012657 36.981064 10.622803
55.307655 39.011063 10.500801
59.036655 38.053062 65.4348
61.354656 38.080063 0.8348007
43.237656 23.017061 46.661797
44.057655 21.402061 48.370796
32.927654 20.512062 56.170795
31.622656 18.606056 55.770794
18.083656 38.888065 52.314796
19.737656 37.558064 50.742794
26.44065 37.037064 41.500797
24.738647 37.464066 40.085796
34.132656 26.282064 29.354795
33.978657 29.050064 28.944796
39.625656 25.982065 18.710794
40.864655 27.609064 18.195795
60.40666 0.5480652 6.867798
58.972656 78.283066 8.734802
54.882656 69.05206 13.317802
53.891655 70.54307 15.128799
14.579651 26.960064 54.876793
16.513649 26.957064 56.136795
4.91465 25.096066 59.244793
5.4816513 22.860065 60.519794
6.6546555 25.503061 49.150795
4.101654 24.786058 48.926796
1.0486526 15.456062 43.274796
1.3946533 17.00106 41.712795
60.685658 29.151064 64.317795
62.659657 28.395065 65.566795
55.317657 28.517065 7.6228027
56.087658 27.418064 9.387802
1.5176544 56.683064 12.069801
2.653656 58.216064 12.8647995
6.712654 54.440063 1.3797989
9.138649 55.31106 1.9148026
67.44366 52.513065 18.876795
67.72865 53.994064 20.704796
60.362656 48.932064 28.940796
59.876656 50.908062 30.019794
10.138649 36.179066 31.811794
11.848656 37.182064 32.323795
9.284653 37.306065 44.228794
7.214653 36.566063 45.502796
35.770657 76.54006 42.937798
37.03065 74.83006 42.785797
26.44065 72.199066 48.181797
26.952652 74.09706 48.617794
21.480652 55.401062 8.368797
23.52665 53.918064 8.341797
31.773651 59.33906 1.1697998
31.48365 59.031063 64.595795
38.508656 9.527061 6.0818024
39.658657 10.503059 7.5698013
45.404655 13.805061 65.4958
44.561657 15.121063 63.760796
12.63665 73.65707 23.612795
12.031654 71.77907 24.758795
3.4546509 72.35706 33.436794
5.0976562 71.97507 34.870796
21.974648 18.700058 37.112797
24.117653 18.958061 37.263794
22.770653 14.495064 29.365795
21.127647 14.598061 31.469795
20.601654 64.508064 56.802795
20.31865 62.522064 57.338795
23.507652 66.49806 47.974796
23.898651 68.382065 47.992794
48.471657 57.459064 12.7397995
49.523655 58.622063 14.209801
56.443657 54.86706 13.930801
58.032658 56.031063 14.012802
44.855656 3.361061 48.249794
44.509655 1.6270599 49.325794
42.643658 69.478065 41.526794
40.412655 70.18307 42.325794
62.398655 57.641064 51.151794
63.263657 59.192062 51.469795
69.77566 58.185062 41.683796
68.43865 58.334064 40.154797
34.65565 2.86306 50.114796
32.55365 4.427063 50.965797
31.389648 11.954063 41.057796
30.77665 10.014061 40.126797
34.184658 23.695063 60.807796
32.420654 22.277061 60.701794
25.20765 21.587059 3.0727997
25.631653 22.41806 5.1197968
22.172653 10.561058 65.16779
22.869652 10.283058 1.5627975
23.412651 1.5040588 10.9758
23.08265 78.13606 9.671799
11.518654 70.11507 40.010796
10.739655 68.26406 41.391796
2.9196548 63.399063 48.639797
2.0506516 62.081062 47.148796
63.807655 18.732063 26.669794
64.849655 20.422058 26.008795
74.89565 13.778061 20.789795
73.50866 11.763062 19.467794
30.98465 34.982063 27.763796
30.611649 35.373066 29.795795
22.555649 36.322063 37.940796
20.945656 35.255066 37.015797
16.85865 25.002062 37.416794
19.19065 23.733065 36.494797
15.67765 20.012062 46.777794
15.616653 19.464058 49.094795
66.31466 14.819061 62.852795
64.15865 14.815063 61.619793
57.523655 12.958061 2.7707977
56.22566 13.666061 4.5227966
25.616653 39.889065 9.031799
27.34665 39.896065 10.118797
24.295654 37.205063 21.471798
22.153648 38.489063 20.715801
39.748657 75.465065 60.107796
37.838657 76.756065 59.696796
32.443657 72.90307 2.2177963
30.828655 72.14007 3.7798004
69.96966 24.328058 37.261795
68.81966 22.945063 38.073795
57.618656 17.884064 35.399796
56.245655 19.232063 36.556797
42.174656 67.38406 43.409794
41.727657 68.65407 44.843796
43.443657 66.37707 56.300797
41.381657 67.06007 57.032795
28.293648 54.733063 60.567795
27.013649 55.209064 59.140793
29.849648 58.793064 48.749794
29.799652 56.481064 48.185795
72.45265 38.786064 54.939796
74.50966 39.427063 54.912796
6.7196503 41.399063 47.537796
6.2626495 39.135063 46.765797
36.980656 14.47406 26.768795
34.67066 14.7860565 25.976795
30.33265 13.749062 21.381794
28.453651 15.356056 22.548796
17.52665 13.959061 63.036797
17.586655 15.945061 62.927795
17.322655 15.190063 50.040794
19.279655 14.284058 49.623795
28.67865 61.657063 15.0998
29.172653 59.863064 13.643799
30.575653 69.605064 4.832802
32.28765 68.40006 3.7078018
56.860657 7.8050613 22.248795
54.499657 7.9160614 23.055796
47.979656 0.78606415 28.462795
48.604656 0.8190613 30.246796
24.355652 10.496063 33.706795
22.213654 11.009064 33.021793
16.56765 14.804062 33.155796
18.142654 14.546059 31.354795
65.209656 4.788063 25.653795
67.45666 5.276062 23.928795
71.09165 0.41106415 18.218796
71.81065 78.17606 16.896795
6.0336533 60.06806 31.665794
5.7726517 57.72106 32.504795
75.393654 58.697063 42.165794
73.64565 60.41606 43.069798
66.82565 59.676064 19.484795
65.115654 58.540062 20.609795
61.012657 62.635063 31.201796
60.76766 60.844063 32.500793
8.419655 69.408066 1.403801
6.990654 71.03706 1.2898026
10.724655 77.798065 56.869793
11.118652 76.52506 55.424793
28.350647 12.883057 52.541794
26.95465 13.57106 54.630795
20.571655 9.976059 59.751793
18.49665 10.632057 60.784794
32.81565 62.01406 34.212795
30.910652 61.84006 33.102795
22.974648 61.654064 40.909794
21.003654 60.518063 41.616795
40.240654 42.508064 51.191795
41.763657 41.520065 52.427795
45.650658 37.119064 56.367794
46.568657 38.415066 54.315796
47.240658 61.459064 11.384804
47.760654 60.51306 13.3218
41.907658 56.911064 20.109802
41.371655 55.133064 21.151798
50.782658 18.049057 33.383797
50.565655 15.944061 31.970795
56.252655 11.644058 24.789795
57.595657 10.398064 23.316795
32.312656 19.255058 40.724796
34.240658 17.872063 39.615795
38.528656 25.329065 33.700794
39.340656 26.849062 35.643795
27.89965 14.014061 38.337795
29.382652 13.774063 40.494797
23.516647 15.555061 48.892796
21.763649 14.798058 48.756794
60.992657 56.230064 5.8227997
61.001656 53.832066 5.804802
61.315655 58.06206 16.243797
63.282658 58.808064 17.5438
53.73266 43.408062 20.342804
55.273655 41.824062 20.922794
52.775658 39.162064 12.508797
54.505657 40.423065 12.325798
29.791649 47.170063 29.357796
27.325653 46.709064 29.553795
24.990654 40.694065 38.989796
22.931648 39.364063 38.858795
48.749657 69.87907 61.759796
48.586655 67.85107 62.095795
43.411655 65.21906 7.3578033
44.535656 64.825066 9.804802
65.92866 30.753065 51.222797
64.80566 29.763065 49.892796
56.605656 29.453064 58.326794
55.207657 31.020063 59.417793
22.72065 29.978064 4.7987976
22.416649 31.285065 3.052803
26.56765 31.091064 59.071796
28.21965 31.876064 59.646793
37.890656 3.198059 8.533798
38.791656 1.5410614 8.964798
37.299656 2.3030624 20.435799
38.990654 1.4440613 22.323795
68.820656 50.087063 49.404797
69.002655 47.762062 50.446796
68.850655 39.533062 50.318794
66.43565 39.546062 50.507797
47.966656 30.170065 21.029795
45.847656 29.710064 21.688795
41.408657 27.027065 30.113794
40.620655 25.880064 32.316795
28.742657 16.942062 54.187794
30.528656 15.313057 53.001793
38.864655 18.234062 45.391796
40.803658 19.65506 45.903797
66.51366 50.731064 35.793797
66.35465 51.779064 34.339794
71.24566 51.085064 25.004795
71.307655 49.768063 23.590796
60.980656 71.79507 19.484802
59.546658 71.52306 17.757797
67.932655 74.42107 10.341797
69.653656 74.93006 9.0028
5.377655 4.5580597 37.971794
4.30365 6.524063 38.123795
73.56666 8.644058 32.282795
71.62266 9.388062 32.060795
42.625656 15.216057 31.859795
44.138657 16.37806 32.187794
38.708656 14.075058 42.047794
38.567657 16.118057 43.603794
62.828655 5.1330643 54.350796
64.36665 6.045059 53.631794
64.945656 6.559059 42.846794
64.32966 5.2320633 40.754795
10.591652 13.277061 43.948795
11.410652 15.476059 43.561794
11.804649 22.426064 33.345795
13.587654 21.771057 32.105797
52.174656 11.326057 42.016796
53.03166 10.820061 39.558796
51.339657 2.6640625 32.601795
52.034657 4.8360596 31.535795
54.811657 71.00307 40.886795
53.085655 70.87406 41.859795
51.690655 62.419064 33.022797
53.057655 60.73606 33.009796
8.749649 72.32007 4.5118027
8.526649 69.96007 4.108803
4.05365 63.567062 11.831802
5.1686554 63.40906 13.656799
4.721649 30.503065 47.700794
3.9096527 28.364065 46.755795
71.81666 29.464064 53.334793
71.77766 29.155064 55.389793
22.418648 15.384064 15.537804
24.225647 15.296059 16.9898
28.380653 23.612062 8.373802
28.83165 24.00406 11.227798
37.120655 36.637066 15.3498
39.000656 35.446064 15.217796
45.710655 39.572063 7.0037994
44.378654 39.612064 5.0538025
23.002647 64.08106 61.716793
20.86065 63.47206 61.826794
21.922653 58.197063 7.6337967
20.305649 57.755062 8.206802
55.98266 6.9350586 3.3158035
54.564655 6.5860596 1.4468002
45.079655 4.1950607 7.123802
45.171658 4.066063 9.269798
69.41065 60.859062 10.232803
70.51366 63.372063 10.589798
66.02366 57.410065 18.173798
66.17666 55.35306 18.953804
34.424656 68.38906 6.061798
35.033657 69.37506 4.2257996
41.512657 73.46806 60.608795
43.068657 74.463066 61.505795
9.485649 50.538063 20.134794
8.115654 50.774063 18.176794
74.08366 50.471066 24.176794
74.934654 49.893063 25.848795
74.238655 36.125065 41.207794
74.753654 34.032063 41.510796
67.43066 32.325066 49.236797
66.68966 34.463066 49.193794
17.216652 44.103065 37.169796
17.340652 43.662064 39.394794
13.036652 42.406063 48.218796
15.179649 42.163063 49.465797
28.908653 28.728064 8.487801
28.63665 29.177065 10.506798
20.01165 27.745064 19.213799
19.467651 25.474064 19.703804
5.476654 48.172062 65.4928
2.8456497 48.084064 65.76479
0.30965424 46.407063 11.559799
1.1596527 43.980064 11.900803
63.561657 21.163063 52.125797
63.547657 20.389061 49.646797
60.552658 11.396057 44.396797
58.458656 10.698059 43.616795
6.181656 35.843063 31.088795
8.53965 34.726063 29.979795
14.951653 34.833065 19.999794
15.704651 35.996063 18.221794
42.770657 17.274063 15.014795
41.309654 16.053062 15.272795
41.736656 9.595062 25.951796
40.543655 8.359062 25.016794
18.549652 55.543064 8.908798
17.061653 56.130062 7.881798
6.811653 56.690063 14.192802
5.551651 56.658062 15.812798
15.815651 14.401062 65.1868
14.342651 16.367058 65.68079
8.020653 12.589058 9.915802
8.738655 10.445061 10.281799
10.688652 30.213064 3.0917969
8.074654 29.587065 2.2618027
10.909653 28.421064 0.72579956
9.368652 27.933065 64.982796
46.188656 69.425064 11.618797
45.734657 70.31606 9.726799
54.91366 68.37607 2.212799
55.741657 70.77907 1.4117966
62.029655 12.996063 42.582794
62.590656 10.7510605 42.639797
73.820656 12.15406 38.658794
74.87366 14.87706 38.629795
5.131653 21.482063 11.901802
3.7346497 19.514061 11.8038025
1.801651 12.931061 21.0368
3.5706558 12.851059 22.699795
60.562656 47.213062 63.182796
61.700657 45.821064 64.6548
67.74966 40.476063 1.8277969
68.056656 38.326065 1.2447968
59.689655 33.753063 27.480795
58.390656 33.567066 26.116795
65.69166 35.200066 15.863795
66.043655 37.197063 15.575795
57.395657 65.72507 32.590794
57.03866 67.73807 32.927795
54.526657 67.117065 45.995796
52.903656 68.88606 45.695797
46.613655 45.571064 2.1597977
43.912655 44.864063 2.0848007
49.247658 42.596066 59.087795
48.041656 42.183064 57.112793
60.354656 36.393063 26.707794
59.148655 38.258064 26.558794
50.768658 33.242065 20.798796
50.897655 30.748064 20.415794
17.672653 48.108063 56.029797
18.520653 49.757065 57.212795
10.116653 53.480064 65.4948
11.242653 53.254063 1.7628021
28.439651 76.52306 48.181797
26.231651 76.81706 48.647797
20.504654 76.798065 56.480793
19.479652 77.67107 58.506794
50.883656 63.33306 14.056801
49.198658 62.863064 13.9257965
47.253654 62.205063 27.015797
48.034657 60.296062 26.3418
23.72165 39.287064 24.429794
23.911652 37.079063 24.664795
15.196655 37.349064 33.883797
14.393654 36.841064 31.983795
35.641655 58.45106 5.8147964
37.672657 58.023064 6.712799
35.752655 54.187065 14.286797
35.522655 51.872063 15.9758
54.794655 13.467056 1.6818008
53.691658 11.207062 2.0958023
57.39966 8.51606 56.298794
55.037655 8.237061 55.194794
4.2866516 8.325058 2.8318024
2.9876556 10.317062 2.8328018
10.049652 14.362061 60.575794
9.0646515 15.082062 58.684795
37.709652 48.827065 35.747795
36.498653 48.238064 33.594795
26.339653 48.171062 39.513794
24.66565 47.028065 39.973797
74.615654 75.82007 65.162796
75.932655 74.15507 63.383793
3.7116547 78.74606 53.027794
5.7456512 78.52907 53.095795
36.838657 68.36407 54.471794
34.596653 67.39007 54.315796
31.075653 66.61006 0.3038025
32.506653 66.09706 1.8348007
26.103653 44.397064 58.732796
26.17965 43.150063 56.701794
27.47165 49.729065 45.846794
28.63765 51.119064 46.676796
58.227657 55.95106 50.670795
58.291656 54.006065 52.034794
59.88566 60.399063 53.513794
60.639656 60.22106 51.329796
16.95665 78.64007 10.871803
17.492653 1.1590652 12.255798
10.558655 4.246063 20.9948
10.254654 6.062065 21.9388
38.144657 35.688065 47.417797
36.831657 35.860065 45.154797
47.622658 33.608063 37.853794
48.386658 36.172066 37.558796
69.238655 8.857063 50.171795
68.94366 11.246063 50.910797
66.06466 15.9110565 59.896793
67.670654 16.868057 61.593796
39.308655 56.25606 52.614796
39.207657 58.011063 53.193794
44.409657 65.700066 45.289795
45.079655 64.36006 44.233795
27.264648 61.08306 46.733795
28.394653 62.90206 46.975796
26.910652 59.199062 58.970795
24.90165 60.137062 60.142796
64.545654 74.98707 22.251797
62.452656 75.26106 21.541798
71.36966 76.54207 12.271797
70.21365 77.28706 10.257797
10.187653 43.444065 14.708801
10.697655 45.238064 14.5278015
18.54065 44.501064 5.575798
18.95765 46.290062 3.2117996
19.059654 3.4920654 44.896797
21.127647 3.7430649 43.173794
23.01065 0.590065 31.902796
24.639648 1.8850632 30.856794
13.420654 6.4630585 9.562798
14.05365 5.6310654 11.521797
9.641655 77.12807 5.0698013
11.006653 75.286064 3.9197998
40.111656 45.529064 35.369797
40.374657 44.559063 36.809795
36.449657 46.431065 47.314796
34.607655 47.515064 47.549797
65.13266 5.564064 56.235794
66.056656 4.469063 57.521793
57.601658 7.0200653 0.8537979
58.511658 5.2890625 2.313797
26.22065 62.315063 61.294796
27.24765 60.441063 61.877796
24.869652 58.234062 8.840797
23.40165 59.695065 9.907799
40.335655 46.307064 32.916794
39.875656 45.745064 30.057795
38.269657 50.900063 19.025795
38.592655 49.521065 16.970795
12.217651 47.579063 2.6768036
11.805649 45.501064 2.9777985
2.9596558 41.943066 62.893795
5.466652 42.228065 62.166794
66.043655 11.80706 47.193794
63.833656 12.463058 47.302795
61.041656 20.772057 39.898796
59.863655 22.116058 41.209797
27.685654 42.394062 9.610802
29.085648 44.492065 9.165802
36.276653 46.003063 64.6468
34.47565 47.287064 64.0638
59.036655 22.677065 19.177795
57.657658 23.893064 20.903795
59.001656 30.409065 28.601795
61.043655 30.450064 29.106794
10.808655 4.9660645 43.112797
8.853653 3.9580612 43.271797
4.5836563 8.517059 54.762794
3.0086517 9.977058 53.824795
63.452656 28.512064 27.339794
66.16666 28.263065 27.590796
68.71365 23.088064 18.278795
67.55566 22.440065 17.058794
24.46865 55.448063 10.621803
23.49765 57.706062 11.339798
19.15165 59.06206 21.389797
17.212654 58.807064 22.201801
11.09565 67.591064 1.4807968
13.279655 67.33407 1.9777985
23.084648 72.41206 62.194794
22.778648 71.144066 59.918797
57.078655 1.6760635 43.582794
56.752655 1.9870605 41.414795
66.31265 3.2850647 39.862797
67.67666 3.7860641 38.200794
24.777649 64.64107 28.480795
23.897652 65.80306 30.796795
14.763649 63.081062 38.561794
14.587654 60.851063 39.830795
13.952652 22.892065 51.588795
14.41465 21.065065 51.697796
13.811653 23.491064 64.054794
13.750656 25.102064 64.2838
59.575657 61.989063 17.699799
61.120655 60.607063 17.166801
65.45666 63.285065 22.4128
64.014656 65.00307 22.437801
26.743652 55.674065 12.037804
27.884651 57.55506 12.9028015
30.556648 64.33206 2.6408005
29.439651 63.02006 1.8448029
43.272655 39.420063 51.138794
43.191658 41.522064 50.022797
47.561657 38.388065 41.508797
49.139656 36.676064 40.331795
60.046658 67.77506 32.155796
61.445656 66.534065 32.841797
67.125656 71.99706 24.550795
67.904655 74.46207 24.398794
53.869656 66.67906 14.4257965
53.26766 66.354065 12.494797
61.884655 66.758064 5.318802
62.523655 65.55106 7.2677994
44.835655 33.264065 54.235794
45.658657 34.351063 56.324795
34.980656 36.119064 59.727795
35.177654 35.389065 61.593796
45.659657 37.620064 3.3817978
46.835655 35.757065 2.3348007
58.022655 36.095066 63.555794
57.333656 37.591064 61.497795
16.72165 21.831064 33.736794
18.88765 21.905064 34.198795
26.340652 24.388065 26.109795
26.031654 23.175064 24.436794
38.295654 0.4520645 40.286797
38.160656 0.9560623 38.339794
45.843655 1.6530609 30.374796
45.463657 2.7680588 28.261795
41.660656 60.456062 41.366795
43.138657 59.265064 41.855797
34.540657 56.539062 49.411797
34.720657 55.253063 47.712795
19.003654 42.163063 2.9097977
21.044647 42.877064 2.9848022
29.422653 43.814064 62.080795
28.88665 41.744064 62.272793
63.233658 36.884064 52.111797
63.076656 38.928062 51.165794
54.565655 37.678062 58.723793
53.813656 35.539062 58.203796
41.028656 59.620064 20.055796
39.682655 58.393063 21.515795
32.151657 55.470062 30.020796
32.246655 53.218063 29.213795
31.058657 15.666061 24.459797
32.384655 18.00106 24.698795
38.074657 25.04806 16.800797
39.928658 25.205065 15.789803
27.310654 72.338066 15.2248
29.05365 73.147064 16.110802
35.592655 75.76807 7.278801
35.55865 78.38506 7.174797
0.93865204 77.42706 33.811794
2.1476517 78.814064 35.032795
74.35966 74.34706 43.211796
73.30366 74.53706 45.382797
31.335648 72.88506 32.222794
29.112648 71.314064 32.659794
23.323654 67.36307 28.439795
22.005653 68.894066 28.735796
46.218655 41.979065 40.214794
45.341656 39.920063 40.989796
43.939655 36.711063 50.370796
42.514656 36.404064 52.817795
54.101658 54.521065 64.554794
55.118656 56.52706 64.166794
48.104656 63.810062 59.287796
46.995655 63.175064 57.403793
39.186657 67.77506 23.543795
38.633656 69.72407 23.616795
43.232655 73.71007 26.196795
42.210655 75.644066 27.721794
8.212654 52.148064 31.696795
9.133652 51.847065 29.996796
14.071655 59.080063 22.037794
15.15065 60.15206 22.858795
42.490658 77.869064 12.065804
44.241657 76.28107 13.9478
38.126656 74.07307 24.9558
37.065655 76.15106 24.8988
29.883652 60.516064 46.853794
29.486649 58.22206 45.652794
34.771656 66.66707 37.249794
32.88665 66.55306 35.717796
61.116657 38.227066 49.766796
59.963657 36.974064 48.351795
51.154655 28.772064 53.183796
50.542656 30.126064 54.853794
75.34165 77.520065 18.542795
74.04765 78.356064 20.811794
1.7656555 78.02306 28.923796
0.42765045 77.59506 31.225796
59.887657 19.333061 54.883793
62.070656 19.51606 55.284794
62.047657 7.332062 55.513794
60.08666 8.301064 54.682796
68.781654 1.6420593 42.165794
69.27566 2.5970612 40.422794
2.7906494 0.7060623 43.155796
4.756653 1.9580612 43.797794
32.020653 15.051064 55.409794
29.45465 14.771057 55.568794
24.930649 11.401062 65.7698
25.949654 9.310059 0.5138016
23.05465 75.867065 29.328794
23.586647 73.730064 29.655796
19.12465 74.338066 40.819798
17.158653 76.215065 39.969795
51.640656 73.24007 63.984795
51.226658 74.66506 65.5998
43.269657 75.24706 7.3697968
43.612656 73.353065 9.251801
37.142654 12.837059 59.306793
37.598656 13.178062 61.698795
32.274654 2.177063 0.27079773
30.531656 2.7060623 65.039795
29.646652 58.933064 60.591793
29.458649 61.598064 60.872795
36.368656 59.209064 52.478794
34.500652 60.31206 51.222797
73.10866 39.031063 42.673794
72.83865 38.091064 40.441795
77.01366 43.497063 30.224794
0.7716522 42.608063 28.143795
1.5696564 49.775063 42.824795
2.1826553 48.333065 42.223797
7.1026535 48.439064 29.792795
8.450653 47.903065 31.156796
25.62465 15.596062 37.396797
27.265648 16.464058 37.191795
27.853653 19.468063 24.681795
29.30265 21.535057 24.885796
69.085655 17.609062 15.082802
67.56766 19.707062 15.969803
62.030655 20.798058 17.415802
63.474655 21.494057 16.122803
15.297653 68.408066 21.463795
14.4136505 70.380066 20.8988
21.23265 70.12707 10.094803
19.70565 72.27807 9.941803
1.365654 55.620064 58.951794
0.79465485 56.085064 56.738796
2.6936493 56.050064 47.739796
1.3976517 54.038063 47.655796
5.8456497 75.31806 50.969795
7.4276505 76.40607 52.506794
15.517654 76.14007 42.518795
17.92965 75.55607 43.249794
32.31465 31.264065 27.720795
32.339653 33.191063 29.308796
26.16565 29.144064 39.944798
25.601654 31.058064 40.412796
26.88765 17.607063 20.803799
28.520653 16.830063 19.8638
30.37365 21.341057 11.254799
32.201653 22.930063 10.956802
69.22066 35.784065 16.054802
68.03565 35.308064 14.195801
67.45666 32.583065 6.8018036
65.417656 33.947063 6.657799
5.9756546 73.52406 1.9227982
5.047653 74.714066 0.31580353
6.5336533 2.8110657 59.334793
6.3876495 1.3640594 57.396793
64.09266 74.064064 5.1567993
65.91166 73.328064 6.3807983
74.80266 71.70806 64.3708
76.364655 70.25107 65.662796
68.56566 67.352066 55.515793
68.49365 69.86307 55.499794
73.323654 67.116066 44.459797
72.09466 68.72307 44.223797
59.953655 49.137062 65.14079
61.233658 48.143063 0.80680084
55.447655 46.877064 10.123802
55.324657 46.312065 12.862801
53.980656 74.82007 41.663795
54.685658 75.30306 43.736797
56.60066 73.034065 36.669796
58.626656 72.63406 35.771793
41.273655 17.44506 62.095795
43.109657 16.226059 62.151794
48.717655 18.84806 51.553795
48.084656 20.596062 51.346794
36.012657 14.582062 43.745796
36.711655 12.548058 43.069798
41.102657 4.9120636 43.645794
41.094654 5.4210587 41.370796
50.992657 13.467056 15.811798
51.803658 11.496063 15.996803
55.834656 17.952057 5.7048035
55.229656 16.21106 4.966797
35.710655 21.407064 29.966795
33.401657 22.641064 30.255795
35.829655 25.929064 43.380795
35.030655 27.643064 43.251797
38.014656 61.67906 39.642796
39.472656 62.146065 41.200794
36.280655 64.24606 52.535797
37.802654 64.71007 53.843796
45.111656 27.866064 6.955803
43.932655 28.623064 4.8787994
40.347656 20.922064 11.0728
38.052654 20.850065 11.063797
5.924652 59.410065 50.863796
6.119652 60.227062 52.689796
72.32866 59.518063 59.088795
70.64465 60.09006 57.548794
68.31265 43.315063 35.742794
69.23266 45.088062 35.962795
68.51066 44.126064 23.503796
70.015656 45.321064 24.385796
24.087654 39.199062 6.695801
26.583649 39.782063 6.5958023
32.08365 37.216064 62.328796
31.032654 38.253063 60.760796
67.184654 65.46007 7.6408005
67.295654 62.799065 7.518799
57.813656 62.356064 15.630798
58.073658 60.00006 16.524803
41.218655 46.550064 18.299797
43.160656 46.642063 17.400803
42.265656 49.451065 5.667801
40.220657 50.435062 4.230797
4.209656 18.37606 8.427803
6.23365 16.68306 9.353798
12.05265 21.690063 64.9208
13.917656 20.234062 64.94579
15.339653 29.362064 53.289795
15.395653 29.944065 55.574795
8.119652 33.051064 61.197796
6.78965 34.536064 62.091793
61.973656 18.43306 15.856796
60.074657 20.23906 15.473801
51.893658 18.993057 15.106796
50.984657 17.014061 16.708801
17.100655 76.80707 20.615795
18.146652 76.09506 22.350796
25.95465 4.052063 16.830803
24.980652 5.7940598 16.385803
8.55265 57.309063 32.092796
10.996651 56.122063 31.214796
19.143654 57.202065 23.527794
21.030647 57.87506 22.705795
64.44466 57.931065 5.226799
63.770657 56.217064 6.1737976
69.446655 49.592064 11.3387985
71.309654 49.860065 12.898804
44.266655 0.44106293 10.597801
45.993656 2.038063 10.745804
51.898655 4.0890656 2.0968018
54.224655 3.62706 1.214798
33.790657 64.53007 33.056797
34.696655 64.32207 34.674797
43.483658 60.005062 28.029795
44.931656 62.438065 28.246796
28.223648 74.43407 32.194794
30.09465 75.243065 31.869795
30.67765 3.8830643 21.879795
29.353653 3.11306 19.886795
74.056656 49.308064 61.086796
73.19466 48.373062 59.316795
66.68565 44.805065 54.044796
64.295654 44.635063 53.664795
39.559654 50.688065 35.451794
38.424656 50.651062 33.766796
45.836655 50.734062 22.987795
46.130657 52.545063 23.142796
37.982655 53.066063 35.173794
36.484653 54.285065 35.304794
29.008652 47.632065 40.712795
27.853653 49.174065 43.217796
7.252655 60.904064 15.118797
5.468651 60.792065 13.859802
13.807655 58.746063 6.285797
15.867653 57.640064 5.631798
75.698654 78.74506 29.388796
74.87166 76.756065 29.821795
67.363655 76.11507 22.173796
66.95866 74.590065 21.144794
13.856651 29.103064 33.873795
13.681656 31.183064 32.943794
23.06865 33.383064 24.270794
22.849648 34.920063 23.106794
11.643654 66.41606 39.508797
11.793655 67.34907 37.480797
19.62165 68.53107 31.370794
21.548653 67.06706 30.535795
15.7656555 14.354057 12.365799
13.818649 14.15506 10.913803
14.021652 6.8480606 5.8647995
11.967651 7.785057 7.3988037
71.67365 17.30806 50.579796
72.84266 15.244057 50.395794
3.6616516 10.283058 42.668797
5.825653 10.299057 43.183796
69.57565 47.452065 37.306797
68.31866 45.831062 38.644794
1.1606522 43.882065 45.368797
1.1696548 43.586063 42.838795
54.067657 71.896065 46.828796
54.610657 73.64806 47.945797
51.602657 66.186066 57.203796
50.464657 64.44306 56.508793
4.221649 61.58206 64.595795
1.3876495 61.658062 64.68179
72.348656 60.511063 61.735794
72.02165 62.17306 60.256794
58.846657 14.464058 41.291794
60.346657 13.040062 40.366795
65.32666 20.449059 40.870796
67.70866 21.551064 39.871796
3.587654 17.504065 56.494793
2.8966522 19.280066 57.442795
7.228653 28.900064 52.611794
8.086655 29.292065 50.761795
4.66465 40.914062 30.693794
6.084656 38.748062 30.501795
0.48765564 38.235065 42.168797
75.643654 38.423065 40.990795
44.815655 47.255062 38.339794
43.142654 48.387062 39.099796
38.991657 40.659065 49.359795
40.745655 39.878063 49.868797
48.951656 36.770065 19.710794
48.504658 36.048065 22.070795
55.409657 43.628063 22.996796
53.141655 44.218063 23.565794
6.127655 11.987061 8.514801
6.016655 9.302063 9.751801
73.919655 7.3840637 14.735802
73.09266 9.700058 14.623802
71.96365 13.174057 16.672794
72.28365 11.240059 17.205795
67.44366 7.0270615 26.028795
65.336655 7.207062 26.682795
32.314655 32.578064 58.698795
31.285656 31.035065 56.995796
39.364655 35.576065 50.654797
40.538654 37.433064 51.161797
22.87265 19.575058 2.5347977
20.70665 18.423058 3.7738037
16.11065 17.217056 13.048798
17.867653 17.844063 13.620804
68.155655 60.106064 6.2218018
69.34766 61.067062 5.097801
69.43565 61.557064 59.517796
69.947655 63.079063 58.841793
49.589657 59.98506 10.775803
51.722656 60.323063 11.025803
55.559658 63.995064 0.124801636
57.581657 65.95506 65.6968
18.09365 53.555065 6.639801
18.42865 52.546062 4.472801
22.81765 57.34006 62.917793
23.481651 57.399063 60.639793
48.446655 40.448063 40.077797
50.368656 41.376064 39.375797
45.188656 38.319065 33.514793
44.055656 40.183064 33.262794
8.85865 56.098064 52.574795
9.584656 53.809063 52.749794
1.8556519 53.780064 61.100796
3.6226501 55.449062 61.030796
56.42066 43.335064 13.874802
56.144657 44.907063 15.204803
62.186657 42.077065 15.263802
60.985657 40.330063 14.334801
51.638657 42.010063 13.495804
53.345657 43.614063 12.1558
46.897655 36.545063 5.5658035
48.153656 34.681065 4.509804
40.491657 26.387064 47.261795
41.440655 27.604065 49.128796
37.797657 23.174065 59.220795
35.975655 21.689064 59.730793
50.34366 21.194061 49.786797
49.738655 23.10406 48.554794
55.926655 24.189058 40.868797
57.75366 23.50506 39.741795
46.218655 56.259064 38.873795
46.056656 53.787064 38.449795
48.934654 53.784065 26.517796
49.889656 51.638065 25.575794
65.94166 38.330063 2.7088013
63.941658 37.711063 2.5347977
59.238655 36.356064 12.833801
57.103657 37.448063 12.184799
56.948658 33.052063 28.400795
55.377655 33.055065 26.633795
48.788654 33.425064 35.194794
46.865658 33.958065 34.937794
73.34065 55.387062 7.980797
72.06966 54.863064 6.009804
3.337654 56.773064 65.06979
2.6166534 57.202065 62.631794
33.947655 61.579063 2.4487991
35.456657 60.598064 0.92780304
41.970657 60.192062 58.371796
40.753654 60.45806 55.951794
36.006657 34.368065 64.427795
34.859653 36.318066 64.9188
28.98465 36.579063 9.926804
31.077652 35.148064 10.4897995
53.50366 65.39207 60.042793
51.900658 64.034065 59.261795
56.658657 58.904064 62.352795
55.902657 61.080063 62.665794
46.075657 18.745064 16.916796
47.830658 17.875061 18.574795
38.152657 18.062057 26.496796
35.691654 17.52906 25.517796
75.99966 62.765064 46.036797
74.23166 63.960064 46.496796
70.23666 65.313065 57.100796
71.447655 66.43107 58.582794
17.130653 60.642063 6.254799
16.44065 62.837063 7.3287964
20.723656 64.730064 64.34879
20.299652 67.24007 64.3978
5.615654 26.538065 45.158794
2.962654 26.658064 44.805794
72.67866 22.357065 39.846794
70.293655 22.929064 40.542797
34.744656 24.523064 13.382797
35.885654 25.415064 15.274803
31.71965 24.767065 25.3158
33.826653 23.800064 26.3558
60.069656 27.029064 63.075794
59.296658 25.894064 60.697796
64.349655 26.172064 0.07879639
66.14665 26.913065 1.3708038
45.942657 5.500061 41.287796
44.783657 7.3580627 40.080795
43.992657 9.33506 31.536795
46.158657 8.351059 30.643795
9.199654 37.468063 64.2548
11.076653 36.718063 64.110794
16.006653 37.282063 52.460796
17.527649 35.639065 51.452797
76.49866 10.291061 20.700794
73.90066 9.253059 21.187796
71.363655 12.623062 30.614796
69.65066 12.066063 31.636795
5.000656 16.150063 42.630795
6.653656 15.727058 42.080795
8.520653 22.097061 33.929794
9.6636505 21.412064 32.033794
64.49366 59.565063 54.697796
65.38666 58.467064 56.006794
57.588657 57.927063 65.2688
57.41366 55.817062 0.41480255
14.932655 0.79006195 23.159796
14.83165 0.6600647 25.486795
10.148651 72.77907 34.652794
8.76165 72.366066 33.243793
35.208652 57.914062 0.05280304
34.555653 58.039062 2.1268005
34.90465 52.068066 11.709801
34.323658 50.590065 13.542801
68.66166 41.478065 4.365799
70.17666 40.478065 5.177803
63.573658 38.375065 13.848801
62.652657 37.702065 15.954803
28.129654 36.863064 59.586796
28.016647 39.226063 59.878796
23.62165 33.523064 5.1027985
25.270653 34.321064 6.8107986
52.619656 15.991058 3.1167984
54.46866 16.33506 2.0988007
61.423656 22.262062 61.104794
61.848656 21.396057 58.759796
65.28265 21.202057 30.876795
66.502655 21.928062 32.254795
72.28766 19.300056 40.912796
74.740654 18.712059 40.869797
33.348656 46.391064 61.913795
35.571655 46.674065 61.721794
41.348656 50.405064 54.573795
41.799656 51.055065 51.972797
1.8806534 29.568064 26.613794
76.904655 28.835064 27.936794
8.785652 33.344063 32.713795
10.166649 34.403065 33.735794
50.506657 72.09706 43.975796
51.276657 73.160065 41.691795
51.992657 71.88506 35.161797
53.396656 71.15407 37.136795
25.709648 66.811066 64.0088
25.051651 66.964066 0.50379944
15.129654 66.87707 6.0448
13.343651 68.75107 6.292801
41.192657 31.102064 30.962795
42.049656 29.626064 29.471796
45.299656 25.459064 20.160795
45.965656 27.640064 19.617794
40.452656 58.65906 39.105797
40.838657 57.733063 41.295795
41.604656 51.912064 48.767796
40.163654 51.179066 49.775795
50.862656 27.026064 40.322796
52.652657 28.489065 41.296795
44.098656 30.183065 49.307796
43.202656 28.970064 50.551796
35.616657 77.54407 21.922794
33.659653 78.187065 23.404795
32.950653 69.61307 20.501795
35.326656 69.591064 20.284796
72.143654 74.006065 60.486794
74.323654 74.298065 60.658794
0.7576523 3.528061 53.774796
1.9316559 5.137062 54.600796
54.576656 68.22307 31.652796
54.940655 65.812065 31.411795
59.002655 71.16506 21.808794
60.537655 69.923065 21.209795
37.732655 27.079065 28.786795
36.879658 26.064064 30.152796
31.07965 27.607065 41.297794
31.88765 29.807064 41.776794
40.899654 64.313065 40.615795
40.133656 63.20006 38.676796
46.126656 65.088066 30.615795
46.191658 66.463066 28.508795
22.59665 2.389061 61.010796
21.801651 2.026062 58.640793
30.021652 5.465065 51.629795
31.851654 6.986061 52.201797
18.69365 10.916061 63.618793
17.338654 9.30706 62.929794
14.409653 2.2530594 8.080803
14.4136505 78.479065 7.8957977
68.473656 18.579063 12.301804
68.08865 16.34806 11.906799
71.57665 14.983063 5.0298004
71.573654 13.768059 3.0457993
54.61466 55.612064 42.921795
55.39266 54.003063 42.527794
60.000656 50.001064 32.921795
62.182655 49.571064 33.292797
60.383656 10.181061 40.302795
61.914658 10.828056 38.949795
64.69266 8.2250595 30.838795
65.461655 10.069061 29.802795
55.442657 3.552063 19.482796
54.84366 5.3460617 18.068794
51.328655 8.689056 28.479795
50.784657 6.4660645 29.923796
8.627655 9.86306 43.126797
8.008652 10.124062 45.080795
6.8006516 10.077057 54.963795
7.4096527 9.531059 57.073795
4.934654 46.024063 45.278797
4.631653 45.928062 42.691795
10.630653 42.750065 32.839794
9.24765 40.987064 32.576794
73.20366 36.281063 56.256794
74.96665 34.687065 55.337795
0.6526489 34.798065 44.408794
2.7836533 35.846066 43.561794
10.60865 28.586065 29.083796
11.110649 27.321064 27.736795
18.938652 33.035065 21.061794
18.936653 35.479065 20.086796
35.382656 28.315065 13.6788025
34.486656 29.223064 11.785797
44.028656 32.532063 5.7638016
45.035656 33.931065 4.0177994
67.57665 78.675064 40.085796
68.836655 76.825066 41.140797
73.14966 78.46007 32.041794
71.60866 0.6430588 33.665794
28.459648 7.0010605 49.297794
27.575653 9.352058 48.600796
33.421654 17.245064 42.547794
31.44065 17.343063 42.460796
66.04066 24.151064 48.377796
64.27466 23.225065 47.849796
54.604656 28.345064 53.807796
52.863655 26.877064 54.077793
39.561657 5.5370636 8.004799
39.786655 7.2770615 7.274803
48.277657 6.257065 14.455803
48.393658 7.7060623 16.171799
14.854652 58.73606 53.612793
15.264656 60.765064 53.227795
22.73265 54.897064 45.574795
22.284653 55.001064 43.593796
55.317657 30.680065 24.745794
54.159657 29.045065 24.991795
55.023655 22.750065 34.875793
53.747658 21.140064 33.747795
45.258656 20.55706 31.074795
46.010654 22.208061 32.926796
39.250656 21.172058 42.774796
40.410656 22.22406 44.780796
53.33666 0.11306 35.360794
54.588657 1.590065 35.149796
57.339657 13.034058 36.686794
55.485657 13.378059 37.199795
2.1456528 74.75407 1.2547989
3.5186539 72.661064 1.8188019
1.0476532 65.62406 11.132797
2.4736557 66.90006 12.014801
51.495655 9.674057 32.403793
53.360657 10.232063 33.186794
62.151657 8.616058 27.637794
63.629658 7.1310654 28.683796
71.544655 27.916065 23.182796
72.529655 28.964064 21.3158
63.921658 32.876064 15.7948
61.921658 32.178062 17.469803
40.516655 14.2250595 60.293797
41.940655 15.670059 58.670795
50.444656 13.464058 50.494797
51.235657 14.1870575 52.443794
30.420654 5.5950623 33.678795
31.709648 5.420059 35.588795
27.102654 9.101059 45.923794
26.14965 7.818062 46.893795
37.783657 55.716064 17.693802
36.044655 56.128063 16.205803
39.640656 66.355064 10.0278015
40.735657 65.96107 7.885803
29.033653 25.000065 39.689796
28.736649 22.920065 40.113796
29.849648 29.621065 43.530796
30.45565 31.641064 44.772797
76.584656 76.72607 1.8537979
76.38165 74.90407 1.1447983
69.018654 69.159065 8.5858
66.94266 68.91206 7.9828033
0.3636551 14.003059 24.423796
75.73065 12.614059 25.327795
67.626656 16.12706 30.497795
65.69466 16.94806 30.874796
46.383656 23.799065 0.889801
46.866657 21.839064 65.58479
53.382656 22.765064 56.229794
52.605656 21.336065 54.614796
40.432655 68.883064 26.129795
40.980656 68.75307 27.894794
32.250656 69.298065 34.868793
31.800655 70.95506 35.133797
14.106651 53.164062 4.174797
11.629654 53.666065 4.3358
11.131653 47.645065 14.639801
9.48365 47.081062 16.2528
18.031654 20.04206 18.406796
18.222656 17.597061 19.114796
11.228653 16.504059 28.940796
10.4136505 18.314056 30.404795
10.961655 2.4310608 41.929794
12.832649 1.8870621 40.909794
15.395653 6.354065 41.254795
15.833656 8.070061 42.922794
27.911652 27.698065 41.138794
27.541649 28.467064 43.379795
20.419655 21.697065 50.088795
21.309654 19.301065 50.250797
73.90965 72.77406 41.156796
76.265656 73.93207 41.247795
75.99766 71.15607 28.566795
74.252655 71.715065 27.407795
31.986649 36.888065 58.436794
29.779648 37.108063 57.489796
36.107655 39.819065 47.382797
36.695652 37.896065 47.863796
75.79166 67.47607 29.335794
74.31365 68.658066 28.931795
70.42165 69.05807 41.275795
71.726654 70.839066 42.341797
66.60365 10.367058 15.0858
66.906654 11.024063 16.996803
59.380657 19.89206 19.671799
58.72566 19.832062 17.8228
13.4136505 14.826057 32.761795
13.216652 16.881058 33.616795
14.91465 11.21106 45.713795
13.407654 10.013062 44.670795
26.891647 46.748062 42.632797
24.780647 47.787064 42.764797
21.48265 50.122063 55.200794
20.530655 48.030064 55.717796
26.31765 40.707066 25.887794
28.12165 41.331062 26.812796
28.169647 37.893063 39.433796
26.979652 35.993065 38.900795
19.613655 15.248062 65.2718
20.363655 16.909058 0.4367981
26.375648 18.437057 55.836796
28.490654 19.493057 55.307796
33.171658 36.062065 44.111797
35.091656 34.973064 43.471794
44.225655 35.440063 34.012794
43.502655 32.960064 34.127796
15.80365 1.1110611 39.714794
17.626656 78.646065 39.446796
19.397652 8.299057 29.148796
21.132652 7.9140625 28.330795
31.935654 78.33106 2.8298035
32.70565 77.576065 4.8198013
23.866653 76.51607 11.970802
22.537651 74.80707 12.8267975
46.594658 7.5930634 47.906796
46.730656 5.045059 47.312798
52.522655 74.04507 45.503796
51.153656 73.133064 46.562798
63.806656 8.1610565 9.871803
63.293655 6.147064 10.272797
57.789658 6.056061 17.954803
58.535656 4.6300583 19.701805
18.425652 60.623062 43.535797
18.876656 62.595062 45.182796
21.561653 63.410065 44.726795
21.980652 61.981064 43.637794
18.737656 56.74306 41.017796
19.02665 54.419064 42.361797
10.70665 55.04106 50.040794
8.589653 55.141064 48.881794
16.537651 10.594063 29.983795
16.559654 8.258057 28.915794
9.855652 1.6700592 35.257793
8.17765 0.3990631 34.124794
6.835655 62.533062 35.004795
8.228653 61.122063 33.277794
16.420654 64.52807 25.696795
18.711655 64.95806 25.676794
35.677654 38.787064 60.854794
37.826656 39.818066 59.671795
48.324657 34.643063 58.977795
49.763657 36.889065 59.274796
64.10666 9.952057 12.1828
64.615654 8.343063 13.866798
56.185658 12.5010605 21.061802
57.532658 13.526062 22.7608
76.46766 72.64307 44.848797
1.0976562 73.15006 43.299797
8.554649 2.1600647 37.893795
7.954651 0.02306366 37.059795
71.15865 71.687065 58.518795
73.028656 71.83206 58.848793
3.551651 69.327065 52.870796
5.8196564 68.853065 53.515793
2.5976562 63.885063 30.354795
0.3586502 64.561066 30.268795
71.61966 66.675064 40.115795
72.77666 67.21906 41.682796
66.69366 7.3110657 53.458794
69.09266 6.4630585 53.524796
72.57665 6.205063 63.232796
73.66466 8.022057 64.3288
47.898655 17.090057 31.384794
47.124657 16.09806 33.434795
43.040657 18.855057 44.971794
43.215656 16.886063 46.323795
19.076653 37.477066 38.409794
20.767654 36.734066 39.956795
13.325653 37.298065 48.407795
12.550652 39.152065 49.679794
34.166653 64.76507 14.5728
31.366653 65.38706 15.264801
34.970654 73.26306 6.353798
33.767654 72.883064 4.637802
4.3246536 19.39006 60.194794
5.851654 19.29506 62.264793
5.148651 11.29406 57.199795
2.879654 12.065063 55.420795
31.981651 45.988064 47.247795
32.043648 43.727062 47.716797
30.781654 44.628063 60.000793
30.76065 46.708065 60.627796
68.879654 34.807064 50.911797
71.04865 35.861065 52.261795
0.4816513 41.095062 45.109795
0.03665161 40.985065 43.027794
25.154648 59.574062 13.256798
25.840652 60.209064 15.6418
18.347656 62.238064 21.6478
16.778656 62.587063 23.4668
33.027657 46.875065 32.024796
35.213657 47.488064 31.134794
35.374657 45.941063 19.078794
37.632656 45.584064 19.965796
32.378654 78.369064 16.930801
34.040657 78.53107 15.285797
41.600655 76.41807 9.052803
39.063656 77.353065 9.089798
26.83065 16.882057 3.790802
27.495651 17.46006 5.6558
20.847656 17.271057 14.6008
19.88765 18.399063 15.970802
25.76165 26.825064 24.559795
27.311653 28.778065 24.262798
30.792648 31.529064 13.568802
31.240654 32.790066 12.642799
64.29665 14.924057 32.222794
63.240658 17.277061 32.290794
62.500656 16.672058 25.323795
61.949657 14.759064 24.450794
35.869656 14.292061 57.613796
35.190655 16.087059 56.962795
46.744656 16.523064 49.837795
46.761658 18.732063 49.562798
61.094658 24.74306 43.795795
59.271656 23.63206 43.959797
52.633656 21.206062 50.792797
51.99666 22.593065 52.538795
9.620651 33.721066 50.835796
10.759651 32.214066 51.353794
5.4216537 29.261065 62.703796
7.49765 28.435064 62.950794
9.937653 32.512066 47.752796
12.0036545 32.744064 48.991795
14.389656 40.084064 39.986797
16.273651 40.917065 39.108795
18.19365 3.6710587 12.525803
17.201653 5.5670624 11.991798
21.063652 12.533058 1.8618011
19.828651 12.639061 0.290802
12.613655 76.797066 42.631794
12.661652 0.062065125 43.489796
1.3676529 77.715065 48.185795
76.82465 76.92107 46.654797
3.4726562 32.593063 44.971794
2.0346527 32.390064 43.351795
70.643654 30.153065 51.111797
68.77766 29.370064 49.797794
25.433647 51.237064 43.845795
24.228653 51.841064 41.997795
30.376648 53.888065 31.161795
29.807648 51.982063 30.438795
32.667656 7.5550613 2.8298035
33.277657 9.846062 2.4688034
45.042656 8.500061 0.46179962
46.634655 9.712059 1.964798
26.31665 17.414062 39.814796
27.882652 18.509064 39.464794
26.491653 20.606056 50.267796
26.660652 20.400063 52.595795
52.96166 3.151062 50.080795
55.076656 4.3690643 50.097797
46.395657 11.005058 56.989796
46.122658 8.804062 58.186794
23.287651 21.600065 6.262802
22.029648 23.104065 7.2208023
22.254654 22.880064 19.0448
22.409653 20.617065 19.456802
16.79065 32.368065 36.169796
19.044655 33.377064 35.944794
26.15065 35.608063 27.834795
27.104652 34.079063 26.402796
64.68665 26.124065 16.421799
66.21766 24.186064 15.453796
69.69166 26.341064 6.2707977
69.95165 28.194065 5.5207977
53.814655 25.599064 39.436794
52.692657 27.404064 38.421795
53.71166 30.141064 38.176796
54.292656 30.623064 40.567795
16.88565 65.68507 23.132795
16.797653 65.77306 20.854795
16.24765 71.22307 22.747795
15.147652 73.520065 22.453794
35.145657 2.2800598 3.790802
35.429653 2.1820602 5.976799
27.80265 1.2080612 15.286797
27.597649 1.9120636 17.216797
68.06566 68.45406 57.995796
66.837654 67.38906 58.898796
61.177658 64.76607 2.1498032
63.249657 63.080063 2.5578003
62.125656 27.018064 18.176804
60.083656 27.178064 18.018799
54.784657 29.988064 9.695801
