23.404724 49.040623 33.674686
23.040726 47.52962 32.732685
2.9057236 40.955624 0.024688516
2.3347244 39.997623 2.3046885
68.26872 37.41862 6.258689
67.07973 38.658623 7.548689
66.81573 18.056623 23.455688
65.68572 17.954624 21.271688
57.839725 15.680624 19.858688
56.788723 14.830624 17.692688
74.861725 41.77462 14.604689
1.5797195 41.379623 15.761689
7.196724 38.87562 25.595688
6.4617233 37.45962 27.146688
23.457726 7.534624 52.776688
24.964722 6.291626 54.188686
22.158722 3.0666275 64.20869
19.63272 3.4536285 0.65868545
72.51173 39.177624 42.040688
74.42673 38.475624 42.947685
75.14472 34.00862 54.203686
1.5637207 32.506622 55.043686
48.407726 2.916626 16.698689
48.423725 0.4076233 15.210689
48.894726 76.36662 24.56469
49.446724 78.23462 25.445688
5.4127197 25.785624 11.647689
3.545723 26.425623 10.501689
5.4837265 34.64662 10.525689
6.797722 33.349625 12.074689
34.491726 4.6316223 55.885685
33.310726 3.2246246 57.01169
41.128723 3.928627 0.5456865
41.433723 1.9966278 2.01169
10.025726 37.533623 52.079685
8.888725 35.822624 52.27569
6.026726 39.61262 63.637688
4.366722 38.983624 62.121685
10.915726 81.52562 45.613686
9.7187195 0.76462555 46.368687
5.70372 82.48262 55.97669
5.9177246 81.38162 57.697685
3.892723 9.303624 56.682686
6.13472 8.375624 57.584686
12.626724 11.895623 46.69869
14.642723 10.405623 46.875687
42.044724 57.672623 57.160686
43.356724 56.254623 56.687687
45.996723 51.027622 46.200687
44.401726 51.977623 44.659687
51.895725 5.062622 33.068687
51.711723 3.6226273 31.81169
57.401726 6.6136246 30.62369
57.343723 8.74663 30.836689
3.0367203 6.263626 56.473686
1.2427216 4.2976227 56.75469
72.82572 3.2336273 1.1826875
71.625725 2.081627 64.00869
68.72772 29.358624 39.211685
67.626724 27.670624 38.62969
63.946724 20.301624 43.012688
62.863724 19.675623 40.728687
51.265724 27.117624 52.027687
52.143726 27.968624 50.37269
62.242725 22.391623 49.905685
63.182724 21.801624 48.077686
50.650726 53.671623 17.507689
48.676723 54.171623 17.157688
49.868725 58.761623 26.89469
51.515724 60.538624 26.79069
34.505726 26.349625 46.762688
35.773724 27.200624 45.641685
42.869724 21.737623 42.489685
43.446724 20.445623 40.54569
42.967724 30.796623 5.661689
45.119724 30.608624 6.5456886
52.010723 24.185623 6.4656887
51.952724 22.560623 4.297689
10.674721 37.255623 34.777687
12.414726 36.398624 35.510685
9.834724 39.48662 33.373688
7.9477234 38.960625 32.222687
4.5137253 72.79862 36.201687
5.5307236 73.030624 33.700687
14.867722 72.111626 27.50269
16.302727 72.90862 28.454689
37.708725 55.62062 53.293686
38.203724 57.311623 55.224686
36.010723 52.670624 64.47169
34.530724 51.158623 0.37568834
6.56472 25.215624 -0.15931149
8.932724 23.854624 -0.19231148
3.9437256 21.912622 11.025689
4.6337204 22.581623 13.074689
29.736725 36.203625 49.658688
27.695724 37.761623 50.61569
24.469725 40.699623 60.862686
23.992723 38.686623 60.567688
36.204723 73.419624 57.64369
38.095722 74.73562 57.063686
42.948723 73.531624 47.863686
42.582726 73.097626 45.70569
54.783726 78.848625 37.443687
56.404724 77.45662 35.957687
67.17773 1.0996246 40.023685
66.902725 2.324623 42.217686
25.193726 32.864624 12.926689
23.387726 31.489624 12.375689
19.240723 30.730623 22.945688
18.743721 31.519625 25.146688
72.68872 59.596622 44.652687
72.180725 58.47462 42.671688
2.8897247 61.421623 32.551685
4.63472 60.64962 32.388687
34.389725 47.18362 34.08069
34.196724 45.617622 35.959686
27.647724 46.699623 46.71969
27.037724 44.776623 46.982685
3.630722 26.866623 25.633688
2.3417206 27.557623 23.79469
13.401726 34.335625 19.768688
13.82872 32.72362 17.972689
50.800724 34.052624 32.67069
52.223724 35.63362 31.59669
57.173725 42.270622 35.686687
57.383724 40.129623 35.410686
11.896721 69.22962 53.465687
11.516724 68.50862 55.556686
5.380722 71.49962 0.47168902
6.3587265 70.27062 2.2606905
29.878725 21.226624 27.115688
28.601725 20.677624 25.76969
27.128725 25.068624 15.455688
25.099724 24.185623 14.050689
68.35272 81.77162 42.167686
68.53773 80.28362 40.208687
57.959724 78.82562 42.146687
56.838726 81.11562 40.970688
30.164724 44.027622 29.98169
30.348724 42.323624 28.79069
40.626724 45.511623 22.55769
40.331722 47.469624 21.192688
24.846725 42.742622 29.576689
24.952728 45.23062 29.97869
23.863724 44.205624 41.11569
23.374725 46.124622 41.742687
57.914726 60.929623 62.435688
55.841724 59.50162 62.772686
48.645725 61.985622 62.923687
47.844723 64.39362 62.138687
9.61972 35.142624 2.0836885
8.05072 35.760624 0.27868822
12.7187195 33.093624 54.089687
14.933723 32.210625 53.216686
3.6087265 73.903625 19.77369
5.63472 74.90762 19.70069
10.024719 77.933624 9.683689
9.014725 80.26062 9.664689
74.25772 69.56562 59.926685
71.831726 69.15063 58.695686
3.1537247 70.32662 49.266685
1.0487213 71.418625 48.985687
35.788723 35.34862 17.050688
34.517723 35.579624 19.146688
31.620724 33.269623 28.62769
31.594725 35.567623 29.104689
53.771725 69.763626 37.450687
54.863724 68.52062 39.075687
45.472725 72.03262 44.048687
45.283726 72.84362 46.342686
17.549728 55.86162 40.926685
15.485725 56.61162 42.043686
14.617722 54.755623 53.759686
15.918724 53.130623 54.255688
23.728724 41.86862 10.130689
23.362724 40.581623 8.135689
33.309723 42.609623 2.0516887
34.412724 41.831623 3.9386885
9.432724 20.743624 47.891685
7.0687256 19.797623 48.40669
5.366722 17.932623 47.153687
4.557724 16.865623 45.334686
62.588726 77.94462 28.19369
62.885727 80.86062 28.61769
55.222725 1.6956253 34.71269
55.360725 0.07262421 36.67069
24.262724 25.051624 58.537685
23.647724 26.012625 55.924686
28.670725 26.424623 47.732685
30.926723 26.597624 47.67069
66.692726 21.106623 1.4806885
66.623726 22.312624 3.3186884
58.540726 20.884623 13.123689
59.906727 18.494623 13.6726885
73.53773 3.5316238 21.614689
71.50872 2.9746246 21.20369
65.46272 77.113625 24.497688
66.95473 77.00562 25.68669
73.83972 20.505623 6.219689
72.373726 18.952623 7.1196885
63.797726 16.378624 -0.07931149
62.512726 18.033623 0.08768851
16.654724 52.913624 57.444687
14.774727 53.888622 57.016685
13.652725 49.81562 4.8516865
12.517723 48.39762 6.194689
12.9837265 46.117622 49.514687
13.084724 48.165623 50.021687
22.347725 50.75762 41.978687
22.224724 49.316624 40.527687
46.618725 65.999626 24.847689
47.165726 64.293625 24.70069
51.990723 56.700623 16.94069
49.975723 56.138622 15.913689
16.834724 54.290623 11.602689
15.604721 52.922623 11.329689
8.243721 55.57862 20.246689
9.260719 54.35662 21.879688
10.877724 5.6986237 29.96769
10.667725 5.4686236 32.83769
5.98172 5.7566237 40.189686
4.904724 7.708624 41.79569
63.629726 38.406624 51.484688
62.875725 36.064625 51.503685
54.732723 37.621624 60.829685
52.817726 36.74462 60.75469
15.602722 41.034622 55.682686
16.924728 43.00762 55.175686
23.933723 40.37062 48.083687
24.582726 42.21862 46.647686
33.724724 20.165623 29.661688
32.870724 21.830624 28.062689
38.197723 22.318623 17.93269
36.595722 22.243624 16.129688
47.172726 52.14862 10.558689
49.267723 51.588623 9.755689
52.854725 50.844624 -1.8113115
50.928726 50.722622 -3.1393116
54.460724 39.21062 45.98369
55.856724 40.80762 46.50469
55.778725 51.60762 46.326687
54.933723 53.23962 45.167686
37.394726 19.420624 34.421688
37.139725 17.061623 33.995686
29.151724 14.619623 39.825687
27.997725 13.152623 39.654686
37.412724 30.151625 51.852688
37.711723 28.112623 50.493687
42.754726 19.351624 46.680687
41.144726 17.490623 46.33769
17.028725 3.1086273 14.775689
15.755722 0.97662354 13.646688
17.534721 3.8986282 2.8226886
15.463722 3.8376236 1.3156885
35.550724 74.18662 17.87769
38.036724 73.33862 17.10369
43.588726 67.13763 23.954689
42.495724 65.67963 25.011688
35.031723 43.39662 17.30469
32.929726 43.78062 16.28769
26.285725 44.27862 25.793688
24.160725 44.629623 25.152689
10.520721 33.391624 50.815685
9.14772 34.470623 49.841686
9.997726 39.59862 38.460686
11.504723 38.205624 37.237686
55.852726 25.054625 44.695686
56.578724 23.320623 42.843685
47.652725 22.527624 40.881687
46.385723 20.527624 40.964687
26.70172 49.38462 0.7426885
29.029722 49.749622 2.1806884
24.300728 54.956623 11.427689
24.044724 56.66262 12.641688
42.137726 16.474623 3.6536884
40.685722 17.958624 2.9266884
37.214725 10.264624 -3.6983116
39.652725 10.305624 -4.4683113
19.168724 61.49562 58.859688
19.492722 63.51062 57.880688
21.705727 66.49462 48.084686
24.142723 65.388626 47.843685
68.62072 64.531624 11.081689
67.13072 64.90163 9.670689
57.546726 63.09962 15.388689
57.249725 62.01762 17.715689
23.482727 65.389626 -0.8823115
22.025726 65.752625 1.0836885
17.929726 71.960625 6.694689
16.016724 72.10762 7.989689
35.837723 28.753624 17.868689
33.710724 29.486624 19.229689
27.712725 28.101624 26.754688
28.039724 26.046623 27.278688
35.426723 52.26762 37.151688
34.193726 52.77262 38.758686
27.129725 56.088623 43.562687
25.073725 54.76562 42.140686
41.092724 74.92962 8.500689
40.220722 75.85962 10.221688
33.998726 82.80462 4.1386886
34.612724 2.3076248 3.6606884
72.82973 45.49662 10.574689
73.55972 47.693623 9.769689
0.8517227 46.790623 -0.32231146
0.34072113 46.594624 -2.5453115
39.581722 71.77562 6.516689
40.599724 70.56863 5.192689
43.587723 63.77362 14.343689
43.438725 60.89062 14.181688
20.805725 47.41762 25.198689
20.377724 49.42662 24.69069
26.53372 47.67662 13.875689
25.270721 48.865623 12.346688
48.403725 18.277624 24.57869
47.715725 20.926624 23.364689
38.215725 17.649624 30.990688
37.837723 19.785624 31.58569
46.602726 61.54362 6.0716887
47.977726 63.05762 5.4276886
57.523724 60.388622 11.122688
56.889725 58.50162 11.194689
48.240723 8.066629 54.503685
47.124725 6.4196243 54.50469
49.619724 6.287628 41.995686
48.901726 3.9456253 41.62269
67.26772 72.10162 12.1326885
67.55972 73.44962 13.622688
62.094727 81.558624 18.37469
61.372726 80.89662 20.19369
26.40972 78.807625 39.083687
25.457726 80.49362 39.544685
22.541725 76.906624 45.126686
22.747726 78.02662 47.674686
13.072723 69.24162 7.4856887
11.118721 68.17462 8.162689
4.8817215 70.99762 17.92669
5.3857193 72.00762 20.452688
46.486725 61.44562 45.267685
45.976723 63.291622 44.215687
41.130726 61.42662 54.609688
39.649723 60.16962 53.854687
34.289722 76.02062 40.42069
35.404724 76.98462 38.766685
28.593723 75.04762 38.613686
29.467724 75.82762 40.241688
25.667725 31.997623 37.222687
24.378725 32.715622 38.714687
27.851725 41.41062 31.642689
30.628725 41.781624 31.376688
61.849724 30.094624 15.340689
64.15772 29.453625 14.929688
65.23172 29.965624 3.2376885
64.682724 31.897623 1.9716885
67.33872 44.66062 23.194689
66.557724 42.233624 21.930689
74.48373 44.541622 14.654689
75.12972 47.094624 13.410688
17.788727 79.43862 12.867689
19.467728 79.97662 13.883689
20.283722 2.4236221 3.6056886
21.695724 3.9296265 2.5156884
60.395725 13.657623 61.350685
60.175724 15.967624 61.467686
59.362724 20.762623 51.118687
60.796726 19.847624 49.009686
73.26173 65.62062 62.264687
74.72972 64.652626 63.311687
6.413719 64.05363 51.37969
5.6397247 62.08462 50.647686
65.01073 43.74662 39.114685
67.27072 43.54462 38.78969
71.60672 42.78062 27.462688
73.485725 44.158623 28.529688
10.975723 64.97962 36.39969
9.28672 66.45262 35.41469
11.899719 65.058624 24.383688
11.373726 63.150623 25.25269
26.966726 19.082623 8.724689
27.260725 16.804623 9.574689
23.519722 13.656624 21.32569
24.761726 11.952623 21.663689
32.672726 75.322624 62.78269
30.573725 74.10262 62.51869
25.551723 79.197624 54.634686
25.810724 82.167625 54.71969
55.160725 16.164623 51.454685
55.474724 16.620623 53.772686
62.643726 10.998624 60.278687
61.981724 8.664623 60.618687
3.7807236 52.84162 45.41369
4.4197235 55.247623 45.933685
8.73172 59.96862 35.422688
9.0937195 62.00862 35.21969
52.901726 60.87762 47.369686
54.310726 59.25262 48.90669
60.837727 53.955624 40.945686
61.935726 51.72362 41.26869
55.123726 52.212624 31.01669
54.458725 52.656624 29.18369
64.13172 53.41862 21.89469
64.12173 53.032623 19.852688
45.615723 31.825624 46.451687
43.348724 32.152622 46.668686
41.060722 25.283625 55.950687
40.400723 23.424623 54.599686
43.909725 58.68862 24.129688
44.473724 60.847622 24.633688
47.215725 56.333622 13.715689
45.806725 55.45262 12.7576885
43.342724 82.02762 40.001686
42.276726 80.78762 41.550686
32.414722 78.125626 41.555687
34.560722 78.322624 42.16369
29.46372 68.90063 13.118689
28.067724 66.70162 12.063688
20.50772 71.320625 5.701689
20.915726 70.333626 8.419689
38.067722 77.29562 55.267685
40.223724 78.168625 56.59469
45.133724 82.264626 62.720688
46.455723 80.38862 64.16269
31.397724 8.288624 8.189689
29.068724 8.535624 8.209689
23.844725 8.288624 17.612688
24.782724 7.8836236 19.642689
44.299725 44.75362 23.534689
43.732723 43.212624 25.163689
34.996723 42.39662 31.726688
34.693726 44.10562 33.124687
48.971725 13.092624 56.822685
48.786724 11.773623 55.08769
43.749725 7.853624 61.272686
42.101723 7.4376235 63.18469
72.083725 46.256622 26.716688
69.88072 45.28662 27.493689
65.512726 48.16262 37.75469
64.320724 50.123623 38.852688
56.799725 31.956623 15.306688
57.054726 32.874622 12.974689
66.03672 35.93262 7.1906886
66.848724 35.539623 5.179689
19.737724 23.687624 53.936687
20.987724 25.555624 54.334686
25.791725 30.284624 45.555687
25.638725 30.768623 43.576687
51.746723 38.03662 46.35169
49.363724 37.136623 46.980686
51.046726 35.455624 55.12269
50.696724 35.651623 57.172688
26.169724 35.384624 59.589687
26.576725 33.380623 58.140686
34.573723 30.465624 51.624687
34.334724 28.581623 53.109688
10.357719 75.46962 56.527687
8.665726 76.99862 55.702686
11.792725 78.65162 45.583687
11.365723 77.42062 43.19869
69.431725 1.2186235 42.465687
70.62872 2.6016238 41.074688
70.92673 13.090624 37.620686
71.99472 14.892624 37.623688
53.229725 73.60562 3.643686
55.614723 74.239624 2.9466875
58.407726 80.14462 59.258686
60.988724 80.28962 59.424686
11.075722 65.32562 6.5666885
11.557724 66.54662 4.4726887
18.897728 64.22163 -3.2283115
20.766724 64.42462 -2.5493114
2.0187225 52.714622 8.715689
0.3057251 53.54462 8.354689
8.575722 60.71062 5.7286887
9.101723 63.013622 5.6566887
48.588726 32.634624 48.882687
47.291725 34.942623 49.311687
47.950726 30.134624 59.290688
50.100723 30.971624 59.791687
37.164722 65.38162 51.262688
36.984722 62.99562 49.860687
42.047726 63.31462 41.764687
40.597725 64.780624 41.138687
26.671724 42.441624 12.452689
25.958725 41.11862 11.557689
34.078724 44.79462 3.8546884
36.012726 45.67462 3.3706884
16.620728 70.54762 62.11569
17.284721 71.57462 64.142685
28.849722 75.56762 1.0506837
30.967726 74.74562 0.6046846
66.57372 19.586624 39.507687
67.847725 21.880623 39.547688
0.7107239 20.378624 44.593685
3.2877197 21.302624 43.89369
27.295725 35.88362 12.161689
27.835724 37.145622 14.303689
35.385723 40.84262 6.3556886
36.768723 42.32862 8.0076885
22.907722 38.294624 9.324689
22.800728 39.754623 11.260689
16.927727 38.033623 20.639688
15.428726 36.033623 20.44369
72.375725 44.61262 56.027687
71.085724 43.117622 54.343685
4.6717224 36.129623 49.180687
4.654724 36.741623 46.439686
55.117725 50.393623 16.475689
55.537724 49.295624 14.081689
64.376724 52.76462 8.479689
63.982727 53.346622 6.6636887
5.811722 16.455624 12.452689
4.998726 14.964623 11.031689
11.416725 17.255623 1.3176885
10.749725 18.817623 0.035688516
71.444725 56.972622 11.546689
73.708725 56.755623 11.253689
2.9887238 62.581623 1.6456885
4.434723 64.125626 1.9126885
2.694725 72.53462 50.951687
0.6907196 72.126625 52.246685
6.788719 68.569626 50.64369
7.474724 70.932625 51.320686
65.11772 78.57962 26.935688
66.05972 80.58862 27.890688
67.04972 6.007622 19.350689
66.859726 4.2686234 17.86769
69.27272 29.304625 3.1986885
67.37772 29.731625 5.2246885
67.05373 18.711624 10.7646885
64.78072 18.918623 11.000689
42.728725 52.893623 29.12769
44.050724 51.91862 30.600689
44.579723 57.198624 38.74069
43.898724 59.11862 38.963688
72.04472 37.673622 38.53969
70.402725 37.186623 37.968685
67.82772 36.927624 49.049686
65.473724 36.85562 49.921688
52.491726 64.38763 15.815689
53.999725 63.54462 16.95769
47.747723 71.42562 24.86369
45.154724 71.54662 24.62769
67.595726 80.03662 29.78769
67.54472 80.56662 31.95369
66.75572 9.258631 28.63069
68.25372 10.213625 27.587688
71.67472 25.894625 8.026689
73.47872 24.708624 8.391688
72.37972 21.739624 20.878689
70.750725 22.945623 21.673689
37.259724 33.59862 18.36369
36.462723 34.232624 20.503689
36.405724 34.137623 32.130688
34.680725 32.819622 32.482685
46.365723 27.718624 59.672688
45.157726 30.182623 59.769688
39.205723 36.77262 2.8776872
38.044724 35.697624 0.9756868
2.0087204 0.72062683 54.68469
0.29972076 82.83362 55.44169
73.28672 80.07362 1.4356859
72.49272 81.53462 3.5336854
63.633724 67.49562 56.968685
65.02072 66.44163 58.810688
68.69173 71.04862 61.459686
68.02372 71.85462 59.380688
33.061726 15.7006235 42.453686
31.213724 17.573624 41.598686
28.596724 21.041624 30.500689
30.792725 21.093624 29.81169
18.196724 16.078623 51.915688
19.595726 14.960624 52.807686
14.194725 7.032624 60.951687
12.280724 8.054624 61.047688
57.403725 35.345623 45.160686
56.218723 37.010624 44.45569
61.247726 43.457623 36.632687
59.630726 43.14662 35.245686
46.681725 47.31562 58.88669
46.619724 45.78762 57.279686
54.727726 43.867622 50.516685
55.334724 41.971622 49.012688
10.937721 43.71162 51.501686
8.673721 43.595623 50.931686
14.801727 46.643623 41.685688
15.285721 49.290623 41.922688
38.923725 29.152624 18.066689
39.303722 30.769625 16.411688
37.293724 29.244623 7.5316887
36.962723 27.235624 6.416689
3.1597214 41.70362 27.19369
2.5147247 42.22462 29.414688
68.25472 38.77862 35.54569
68.360725 36.448624 35.523685
56.332726 38.373623 48.218685
57.342724 36.29362 47.711685
62.451725 30.837624 53.744686
64.39272 32.155624 53.791687
35.568726 24.644625 -0.06731148
36.659725 23.171623 2.1666884
44.066723 16.903624 -0.4233115
45.806725 15.655623 0.20468852
26.679724 13.288624 24.823689
26.321722 11.513623 26.114689
20.404724 18.720623 35.51869
19.360725 16.974623 36.208687
60.942726 14.534623 26.715689
61.033726 12.513623 28.128689
51.919724 5.4356236 28.810688
51.595726 4.326624 26.812689
33.247723 48.984623 17.11369
33.025723 50.913624 16.395689
38.201725 50.92662 5.4196887
39.047726 48.42562 5.9396887
42.112724 19.517624 51.848686
43.121723 17.842623 49.80269
51.827724 16.068623 55.013687
53.666725 14.8916235 54.468685
54.866726 25.270624 8.440689
54.703724 25.537624 10.788689
43.348724 22.758623 13.250689
43.105724 24.785624 12.347689
65.11872 23.435623 49.053688
63.697727 25.690624 48.40769
74.28873 28.812624 43.945686
74.47572 29.033625 41.723686
19.608727 24.485624 36.118687
19.220726 26.172625 35.19869
30.85272 30.778624 33.179688
29.290724 32.275623 31.396688
40.399723 16.619623 48.62969
38.356724 17.131624 48.065685
32.425724 13.603623 58.15769
30.695724 12.7006235 56.595688
51.832726 53.57162 33.21969
49.571724 52.518623 32.877686
47.670723 48.76562 39.895687
45.047726 48.23762 40.562687
30.619724 11.706624 -5.4613113
30.662724 13.420624 -3.8163116
26.670725 13.756623 6.5396886
29.170725 14.0166235 7.8816886
65.88072 44.318623 25.312689
67.359726 44.00262 26.844688
65.89272 39.86162 36.291687
65.64772 37.649624 35.72669
11.100723 47.53662 52.036686
9.374725 48.268623 52.857685
6.212723 50.82062 49.641685
7.837723 51.568623 50.550686
61.030724 1.4296265 16.79469
61.554726 1.1506271 18.71769
67.31472 8.580629 23.729689
67.40572 9.69063 21.296688
36.275723 7.7426243 62.14369
35.021725 9.654627 62.256687
31.726725 2.5986252 4.199686
29.977724 0.9076233 3.0936906
54.233723 13.673624 50.250687
55.009724 12.162623 51.515686
60.452724 4.681624 42.227688
58.843727 2.7986238 42.42069
41.102722 6.019623 19.635689
39.649723 4.400627 20.841688
45.694725 79.751625 15.282689
44.261726 78.06662 14.586689
73.083725 7.254624 39.209686
74.166725 9.262624 38.053688
7.4497223 13.740623 33.930687
9.560722 12.613624 34.544685
51.508724 76.67962 4.279689
53.122723 75.808624 5.5376887
55.447723 2.6366272 10.378689
56.523724 2.6216278 12.258689
74.28572 6.400624 21.49869
73.86772 8.147624 20.58269
3.283722 7.084624 10.936688
3.4077225 5.3856235 9.813688
56.592724 46.913624 30.980688
54.464725 47.37762 29.726688
55.109726 42.345623 39.291687
56.615723 43.55162 37.973686
71.76672 69.56462 -3.2133114
73.432724 68.211624 -2.0643115
70.83872 63.247623 8.783689
71.001724 65.29762 9.607689
20.685722 34.998623 42.757687
20.761726 32.731625 42.778687
20.518723 29.346624 54.283688
18.453728 29.902624 54.949688
69.470726 21.615623 54.426685
67.27473 21.493624 55.558685
66.17673 17.800623 64.36869
66.41473 16.127623 63.592686
27.515722 23.146624 43.640686
25.533722 24.282623 43.036686
17.211723 25.220623 49.840687
14.906723 25.195623 49.861687
44.522724 3.426628 46.458687
43.127724 3.2986221 44.78969
49.137726 0.34562683 37.273685
50.164726 81.37062 36.214687
58.863724 16.271624 15.365688
58.671726 14.272624 14.404689
55.982723 8.784624 9.761689
55.672726 8.031624 12.316689
28.892725 28.914623 47.432686
29.048723 30.013624 45.321686
39.133724 30.379623 39.060688
41.670723 29.544624 39.659687
74.78272 11.457628 8.299688
72.85372 10.316629 7.6426888
71.93472 4.4016266 17.789688
71.512726 2.5246277 18.36069
35.877724 64.71862 12.649689
35.967724 64.31763 15.345689
32.019726 64.99162 25.895689
33.391724 67.016624 25.521688
11.001724 55.740623 34.77469
10.91172 56.062622 37.33069
12.13372 45.07062 35.447685
12.810722 43.34162 33.662685
21.923725 12.331624 4.2286854
20.290724 13.569624 3.0556886
30.881723 17.930624 62.80969
32.997723 16.628624 62.005688
35.536724 38.24362 18.63069
34.819725 40.99462 19.343689
27.763723 38.203625 29.546688
26.491724 39.21062 28.490688
47.049725 15.540624 21.056688
47.053726 15.946624 23.19769
37.694725 10.9246235 29.059689
38.098724 8.6086235 27.955688
31.531725 66.389626 13.286689
30.715725 65.67062 11.271688
36.534725 62.51662 7.1106887
38.942722 63.27162 7.7366886
61.172726 61.54962 37.251686
60.926727 62.970623 35.945686
70.43472 57.470623 34.355686
72.460724 58.16162 35.055687
45.979725 56.49662 8.236689
43.712723 54.874622 7.8286886
47.757725 54.747623 -3.2243116
49.334724 54.465622 -4.7093115
23.027725 9.661624 5.8296885
20.831726 10.820623 6.034689
21.120728 9.746624 17.409689
19.775726 10.660624 19.80869
29.120724 49.63562 14.370688
28.264725 49.16062 12.579689
33.641724 49.179623 2.3936884
35.619724 49.458622 3.6226885
15.698723 73.67862 42.626686
18.048721 74.14462 42.293686
19.654724 77.72962 30.916689
18.387726 77.111626 28.93269
2.2757263 71.53962 32.346687
1.1007233 72.99562 33.892685
73.846725 71.47162 44.639687
74.763725 69.56462 46.085686
56.430725 5.935623 50.121685
58.154724 5.343628 50.661686
59.170727 82.47862 53.887688
60.413727 81.66662 52.277687
43.618725 49.177624 25.227688
42.197723 48.49662 23.43369
49.436726 49.309624 14.3826885
50.454723 51.116623 13.185689
46.119724 76.95862 18.37769
46.917725 77.057625 16.25269
57.943726 75.56562 18.87069
59.389725 77.22962 19.09269
37.707726 72.41062 13.432689
38.246723 74.46862 12.361689
31.908724 79.92662 6.4806886
30.970724 82.34462 5.600689
0.15172577 4.3876266 23.26669
1.566719 2.6606216 24.119688
72.14672 80.44262 33.960686
72.95573 80.48062 35.688686
69.430725 32.019623 24.962688
69.89973 30.175623 23.125689
1.5967255 31.650623 14.493689
1.7227249 33.23062 13.431688
69.932724 12.728623 28.869688
67.88573 13.576624 30.102688
69.012726 18.895624 21.711689
70.62072 19.608624 19.90869
4.5547256 10.736624 12.160688
5.57872 12.368624 10.432689
7.6617203 14.387624 0.9156885
9.504723 15.307624 0.6246885
31.034725 5.9446235 52.778687
31.890724 8.041624 53.439686
36.907722 12.365623 45.741688
37.903725 10.748624 46.999687
49.767723 73.85762 25.47169
51.447723 73.446625 27.32169
51.892723 64.14762 26.270689
53.335724 63.034622 24.463688
23.517723 69.40063 27.017689
24.978722 68.16463 25.56869
24.66072 77.41362 18.43269
24.595726 79.63062 18.29769
33.652725 1.7706223 35.457687
34.107723 1.9646225 32.846687
40.283726 78.55362 32.72669
39.097725 76.95162 34.308685
41.532722 2.7566223 51.404686
43.105724 2.576622 52.359688
52.332726 3.0666275 48.246685
53.282726 1.841629 46.560688
4.498726 58.867622 29.730688
3.571724 60.770622 29.34269
6.844719 57.914623 20.300688
6.4857254 60.38362 19.701689
60.420727 17.263624 11.104689
58.953724 16.109623 11.928689
52.630726 9.4506235 14.877688
51.247723 9.885624 16.843689
41.677723 21.102623 14.708689
42.383724 20.129623 16.895689
40.702724 10.014624 21.31469
42.548725 8.052624 20.88469
43.239723 59.43262 6.2776885
41.504723 60.04962 7.1186886
47.886726 67.09663 0.9186885
46.640724 69.197624 1.3436885
70.32572 41.63462 41.050686
72.194725 41.94562 41.259686
67.51173 48.86162 49.78969
67.49372 47.173622 51.05969
50.200726 72.75862 8.941689
50.394726 70.95763 7.7026887
48.305725 69.641624 -3.4513116
49.266724 67.61662 -3.7793114
51.837723 14.987624 1.5116885
52.706726 13.547624 2.3716886
61.831726 21.061623 2.0716887
60.203724 22.984623 3.3646884
47.689724 72.81662 26.987688
47.799725 73.87462 28.671688
43.223724 73.556625 38.703686
42.713726 71.42562 37.85169
18.765724 71.76062 11.079689
18.046722 70.60562 12.653688
16.210724 72.404625 24.000689
14.816727 70.638626 24.84969
26.49072 47.05862 62.942688
27.737722 48.96062 62.668686
17.402725 48.36262 55.938686
17.166725 46.70262 54.931686
36.160725 14.984624 13.326689
33.851723 13.573624 14.2976885
26.164724 14.487623 22.400688
26.856724 15.737624 23.76969
59.547726 59.643623 40.138687
58.530724 61.82262 39.31669
56.649723 64.85562 50.725685
56.151726 63.27862 52.394688
63.155724 1.480629 0.7766885
64.942726 0.7366257 1.7926885
63.656727 75.36062 1.4836885
63.674725 73.253624 2.2016885
35.096725 8.826624 46.83069
35.352722 6.4576263 46.839687
41.362724 5.819626 40.345688
43.242725 4.702629 39.778687
36.795723 51.98862 3.4256885
34.627724 52.283623 3.8836884
34.706722 62.576622 11.532689
33.398724 64.098625 11.429688
12.067726 44.46162 54.662685
12.638725 46.19562 55.755688
11.646721 39.887623 2.21969
9.55072 40.21762 2.2696855
3.7267227 5.3566284 59.02469
3.670723 3.2946243 58.05269
1.1037216 80.42262 4.1156864
2.2907257 80.529625 5.6436863
0.45672607 2.463623 20.05169
74.55872 3.102623 18.541689
2.9647217 78.96862 16.156689
5.3367233 78.88262 16.334688
21.872726 7.8246236 19.448689
19.859726 6.933624 18.64869
19.496727 10.031624 29.295689
19.152725 9.529624 31.013689
57.894726 58.053623 17.50669
59.236725 59.804623 17.47869
68.126724 61.81562 11.658689
68.112724 62.19662 9.196689
18.829727 20.667624 34.078686
18.455727 18.728622 33.19169
26.166723 20.424623 27.56469
26.567724 19.096622 29.274689
71.13673 49.48062 6.826689
69.14272 49.84162 7.2556887
61.585724 50.610622 16.399689
61.450726 48.36962 16.41269
58.663727 64.250626 57.516685
56.919724 65.83263 58.008686
61.260727 75.95262 61.588688
63.604725 77.07662 61.006687
7.2337265 9.845624 13.529689
5.8897247 9.503624 14.776689
3.6987228 4.486624 25.050688
4.0627213 2.8446238 24.348688
7.1907196 37.305622 17.907688
9.30172 38.026623 18.473688
8.752724 34.099625 28.764688
9.81572 34.941624 30.989689
16.310722 27.488625 9.730689
14.415726 26.863625 10.557689
8.67572 33.726624 16.365688
6.5447235 35.232624 16.365688
14.66272 82.37462 46.998688
14.313721 1.9346237 46.165688
18.406723 2.616623 36.128685
18.513725 1.5746231 34.297688
30.060724 18.046623 26.312689
29.576725 16.880623 24.05169
31.475725 27.739624 18.515688
33.298725 28.033625 16.81469
73.74773 68.70763 13.001689
71.96372 68.28963 11.321689
1.1107254 69.31562 -0.5223115
2.7337265 67.87162 -1.5473115
24.194725 60.85462 51.514687
23.125725 63.254623 50.308685
12.062721 66.05962 53.48369
9.841721 65.28362 53.151688
31.804724 54.06362 15.284689
30.551723 55.30862 15.249689
27.879725 60.742622 23.15169
27.601725 62.84262 23.642689
56.949726 71.35562 50.921688
55.269726 71.89562 52.304688
48.696724 71.77362 58.883686
47.780724 72.10462 60.715687
3.0657196 56.999622 28.416689
3.9977264 55.900623 29.75269
8.266724 61.64662 25.747688
9.438721 61.86462 23.69669
18.003723 42.91962 24.503689
16.944725 41.09362 24.986689
7.8257217 42.365623 32.423687
7.125725 43.94062 33.492687
4.642723 75.377625 3.7366886
6.1817245 73.85362 3.6306884
2.0987244 70.642624 14.580688
4.192726 70.95062 15.368689
65.29672 62.276623 6.3496885
67.59172 62.545624 6.2176886
2.3207245 59.665623 2.5926886
1.2947235 60.129623 0.7496885
35.835724 18.292624 46.793686
34.793724 18.752623 45.562687
36.205723 23.007624 34.548687
38.147724 22.288624 33.804688
49.736725 77.67362 0.76468825
48.428726 78.44962 63.744686
49.288723 76.96262 54.286686
50.235725 78.489624 52.597687
60.181725 75.09662 20.549688
61.107727 73.64562 21.517689
70.457726 74.46962 14.305689
70.09172 76.42362 13.305689
68.74773 49.388622 40.52469
70.26173 48.088623 40.266685
2.2997208 52.02262 32.336685
2.2377243 50.47562 30.628689
71.17272 40.351624 24.593689
72.513725 38.942623 26.02369
64.81573 35.262623 35.381687
63.024727 34.041622 35.792686
63.413727 68.31362 41.727688
65.693726 68.78863 40.435688
70.92873 67.51263 30.86069
70.93872 65.21262 31.138689
50.747723 10.041624 24.615688
49.624725 11.537623 23.05469
40.039722 4.2976236 24.094688
38.270725 5.3266234 22.94069
13.353722 28.167624 17.03369
13.667725 28.896624 19.531689
6.724724 26.863625 28.185688
7.5427246 28.014624 29.829689
28.970724 53.846622 63.610687
27.866724 55.068623 61.991688
31.492723 57.60062 52.118687
31.248724 59.67562 51.155685
9.720726 73.58762 38.808685
7.276726 72.45062 38.46969
2.8697205 77.17462 40.422688
1.3837204 78.514626 40.146687
22.518723 26.712624 26.836689
23.778725 27.170624 28.42269
16.468727 31.075624 37.343685
16.842728 28.906624 38.445686
68.49472 17.290623 38.106686
69.277725 16.660624 36.428688
61.986725 20.743624 33.94869
60.052727 22.501623 34.632687
7.7047195 51.30162 8.720689
4.944725 51.96662 8.5406885
1.5777206 53.193623 -1.8493115
2.8787231 51.48062 -2.3833115
27.052725 45.52362 12.534689
28.861725 46.68862 11.429688
30.848724 45.91862 0.37568852
28.750725 46.02962 -0.4893115
26.794724 65.63262 63.381687
28.128725 66.53963 61.395687
33.185726 65.32662 51.341686
34.691723 66.49763 52.359688
25.473724 3.279625 53.579685
23.188728 3.479622 54.777687
14.992722 4.2336273 61.710686
15.780724 5.2146225 63.459686
45.455723 15.960624 5.1326885
45.639725 13.773623 6.668689
39.949722 4.432624 3.0846884
39.044724 2.7516234 4.8746886
68.597725 12.842624 3.0176885
67.86372 13.094624 5.2346888
61.274727 10.622623 -1.7743115
62.308727 12.599624 -1.3203115
27.960724 2.6746216 37.767685
28.628725 4.7386246 38.015686
34.925724 2.727623 28.882689
34.626724 4.1586227 27.251688
49.092724 4.765625 29.54069
50.707726 2.8136292 29.069689
42.024723 78.722626 29.12069
41.767723 76.35162 29.157688
67.875725 10.427629 30.71069
66.929726 8.985628 31.069689
70.39572 1.9526291 36.444687
70.25872 2.8396225 38.25469
6.3607254 16.317623 31.118689
6.4527206 15.367624 28.885689
16.524727 14.865623 23.021688
17.200722 16.936623 22.451689
12.976723 82.84062 58.239685
13.352722 81.543625 56.908688
21.858727 3.2736282 52.479687
23.762726 1.5026245 51.375687
74.845726 66.18662 13.671689
72.818726 65.62263 13.285688
63.574726 65.48363 20.64469
63.973724 64.43462 22.82169
55.239723 17.173624 23.47469
56.774723 16.753624 25.208689
60.804726 21.592623 29.58569
59.412727 22.471622 27.63169
28.860723 34.582623 29.861689
29.076725 32.587624 28.611689
28.246725 32.516624 17.286688
29.342724 34.059624 16.253689
31.970724 66.04662 38.786686
33.081726 66.57362 40.827686
26.083725 70.307625 49.148685
25.335724 72.669624 49.673687
22.203728 2.565628 19.260689
23.296722 0.42762756 19.139688
22.990723 77.42362 29.862688
21.049728 75.48462 29.313688
33.701725 63.77262 29.704689
34.048725 63.44062 27.76669
25.411724 60.91062 23.917688
23.673723 62.173622 24.178688
16.346725 19.069624 52.294685
15.538727 16.582623 53.134686
9.848724 14.330624 62.748688
7.8717194 15.296624 61.786686
8.018723 17.365623 15.358688
10.719719 16.511623 14.710689
16.287727 24.476624 9.042688
15.928726 23.977623 6.7676888
51.849724 10.744631 56.151688
50.976723 8.528627 55.950687
62.822727 4.357628 57.52469
64.28672 3.4716263 56.225685
39.284725 4.201622 27.798689
39.508724 2.1916275 26.44669
49.232723 4.848625 32.18469
50.331726 2.503624 33.680687
5.557724 62.048622 0.60869
4.951721 62.02162 62.90669
11.186722 65.78762 57.023685
11.547722 64.03662 55.585686
22.409721 55.284622 48.824688
22.056725 57.54362 48.61569
17.407722 64.75462 56.27469
14.459724 65.24162 55.692688
65.65772 48.94062 41.079685
66.846725 47.62162 42.015686
58.062725 42.013622 49.385685
57.615723 40.27162 49.459686
41.404724 4.295624 53.784687
39.364723 3.3536236 54.700687
31.594725 10.359624 55.952686
30.839724 8.587624 56.049686
32.485725 20.268623 61.569687
29.732723 20.044624 60.771687
28.345724 32.39062 59.981686
28.825724 33.52962 62.03969
51.187725 14.706624 4.3936887
48.220726 15.635624 3.9886885
44.201725 24.735624 2.6766884
43.826725 26.743624 1.9116884
16.046722 27.623625 20.75269
17.884727 26.574623 21.800688
27.426725 30.757624 15.445689
28.773726 29.344624 15.919689
18.050728 41.450623 22.31869
15.915726 40.38562 22.253689
7.366722 39.817623 16.292688
5.7467194 40.997623 14.663689
4.32872 23.378624 59.56669
4.0897217 21.488623 58.778687
7.791725 26.673624 50.574688
8.020721 25.259624 48.783688
18.53572 52.490623 12.125689
16.341728 51.492622 13.322689
18.389725 47.14262 23.93369
17.289726 46.595623 26.216688
27.208725 76.391624 12.773688
27.381723 73.99662 12.374689
37.968723 74.06562 6.443689
38.609722 73.50962 8.496689
8.892723 62.693623 52.408688
8.350723 62.42562 50.111687
14.366722 66.63162 42.74769
14.887726 68.56262 43.134686
23.714722 24.256624 26.805689
26.009726 24.014624 27.833689
27.114721 25.348623 39.85169
26.762724 22.977623 40.926685
37.359722 79.66562 30.25269
35.022724 79.27262 29.056688
28.960724 0.1466217 38.48369
27.875725 81.45562 38.216686
36.520725 60.012623 51.32369
35.664722 61.677624 52.190685
30.578724 56.075623 62.033688
31.472725 53.92662 62.105686
75.22872 59.16262 45.828686
75.16072 58.742622 44.001686
7.13472 65.124626 36.23369
7.361725 64.46462 34.222687
42.917725 37.489624 38.617687
44.582726 35.693623 38.624687
48.459724 32.801624 29.848688
50.337723 32.61962 30.458689
60.110725 16.753624 0.1746843
59.802727 18.331623 63.616688
51.456726 12.996624 58.189686
52.363724 13.605623 56.280685
60.517727 14.931623 3.9356885
60.372726 14.688623 6.1236887
58.416725 11.278624 -1.3393115
59.681725 13.129623 -0.5083115
10.876724 19.676624 32.334686
13.227722 19.720623 32.543686
16.169724 13.260624 31.49269
17.89672 13.845624 32.266685
54.266724 58.608624 32.370686
53.267723 56.80062 32.444687
47.106724 57.44062 42.264687
47.455723 56.420624 44.091686
63.262726 45.616623 3.129686
62.471725 43.948624 1.6036851
68.28572 42.87662 55.99769
68.61572 44.282623 53.896687
40.557724 63.610622 14.464688
41.602722 62.297623 15.740688
33.564724 54.360622 18.053688
34.526726 52.47462 17.90569
4.7867203 62.665623 30.52369
6.691719 62.01662 29.74169
16.073723 61.50362 26.482689
14.560722 60.659622 24.44069
32.695724 32.61262 48.044685
31.575724 34.18862 46.721687
39.790726 32.784622 38.391685
41.253723 32.70262 39.419685
65.62173 3.1516266 45.607685
64.67372 4.522629 47.148685
71.000725 8.826624 55.695686
72.724724 7.7146244 56.102688
62.159725 5.3176236 50.503685
60.689724 7.2066236 50.190685
64.71472 18.363623 49.439686
66.51872 17.283623 49.659687
54.388725 15.589623 47.389687
51.831726 16.248623 48.715687
47.171726 23.624624 43.138687
45.327724 25.718624 43.366688
52.658726 76.197624 53.776688
53.993725 78.03462 52.911686
62.635727 69.805626 53.887688
64.64272 68.154625 54.541687
72.070724 19.344624 39.682686
71.13673 18.145624 38.060688
1.6547241 17.264624 28.785688
4.0427246 17.935623 28.890688
26.733725 64.67362 46.876686
27.939726 66.28662 45.762688
20.324722 71.71762 42.28169
18.905724 70.961624 44.030685
62.915726 81.09262 13.648688
63.387726 82.862625 11.800689
74.307724 0.056625366 13.862689
75.11572 80.61962 12.676689
37.848724 58.64662 39.085686
37.432724 56.159622 39.197685
34.219723 52.56462 50.144688
34.520725 54.450623 50.256687
5.413719 48.978622 -0.019311484
7.545723 48.367622 -0.3713115
4.753723 59.254623 1.2676885
3.6667252 60.185623 -0.4983115
21.006721 40.66862 6.713689
19.580727 40.17662 5.008689
29.999723 36.80662 -0.45731148
30.20172 38.921623 -0.6353115
55.223724 15.753624 39.563686
55.633724 14.493624 37.700687
57.280724 15.791624 28.921688
58.134724 17.602623 27.33269
41.392723 21.881624 58.003685
39.875725 23.090624 57.25469
35.322723 12.373624 60.742687
34.354725 11.426623 58.642685
49.985725 29.990623 49.473686
49.200726 28.598623 50.902687
45.282726 22.120623 43.902687
45.260723 19.847624 43.646687
0.36172485 30.696625 -4.7253113
0.20072174 28.338623 -3.6953115
73.57672 24.234623 5.771689
71.86972 22.508623 6.463689
46.435726 22.819624 26.549688
45.567726 23.827623 29.251688
40.489723 26.809624 37.662685
39.355724 25.496624 38.787685
6.682724 5.6276236 -5.1073112
6.1367264 4.668624 -3.0963116
1.644722 8.010624 4.1586885
0.43972015 9.803624 5.534689
10.656723 16.735624 33.560688
13.020721 16.886623 32.917686
7.486725 11.640624 28.305689
6.3187256 10.4506235 30.041689
7.5517197 57.34362 51.001686
6.1617203 59.16762 52.424686
75.09373 53.82862 59.458687
0.10972595 51.561623 58.250687
28.779722 28.925623 29.265688
27.42372 30.500624 29.847689
21.523727 32.839622 38.873688
22.370728 31.740623 40.75469
37.545723 41.53662 35.582687
37.582726 42.701622 34.068687
46.897724 40.941624 27.052689
46.961723 38.887623 26.727688
69.63172 60.691624 60.12269
70.375725 59.72462 58.426685
66.89172 62.594624 56.96969
65.97672 64.406624 56.882687
38.347725 26.889624 19.57269
39.820724 27.731625 21.449688
30.778725 29.690624 27.52369
30.960724 29.295624 30.424688
32.906723 15.729624 28.97869
34.188725 15.147624 27.26969
39.275723 21.898623 22.57569
40.093723 22.346622 19.889688
4.965721 2.8446274 26.836689
5.951721 2.8046265 28.458689
74.22572 4.680626 36.272686
72.86872 3.5566254 37.360687
27.135725 35.651623 31.99569
25.885727 36.921623 33.27569
14.249725 34.442623 36.21269
14.0937195 36.309624 37.505688
12.905724 54.72962 7.7696886
11.726723 52.93862 6.3476887
17.16072 53.755623 -4.2423115
19.244728 53.17662 -4.957311
61.055725 69.22962 5.1306887
62.663727 68.07562 4.9486885
58.269726 63.45262 -4.7423115
55.794724 64.17362 -4.7773113
70.849724 13.009624 4.6776886
72.28572 12.227624 5.8026886
6.3067245 13.738624 -1.3613116
5.041725 11.890624 -2.6533115
71.24072 40.96762 57.429688
69.57572 41.463623 59.215687
66.41273 42.186623 4.59569
67.793724 42.72362 6.701685
70.36872 68.98262 43.362686
70.140724 67.431625 42.016685
72.24072 74.13162 31.70369
70.81372 73.30362 30.959688
8.511726 19.514624 63.92769
7.4827194 21.645624 63.487686
15.630722 23.468624 54.089687
17.517723 22.052624 53.51169
11.420723 71.403625 3.681688
11.7187195 73.42662 2.9936845
13.080719 75.47962 57.058685
15.063728 74.654625 55.870686
1.8207245 23.860624 58.215687
0.7847214 23.911623 56.253685
5.1617203 32.116623 59.304688
3.4687195 33.406624 59.130688
49.243725 14.183623 23.42969
51.105724 13.280623 24.37769
42.191723 10.805624 30.760689
41.051723 10.5166235 33.166687
28.907724 35.80762 60.213688
30.420725 37.350624 61.488686
35.372723 37.567623 52.086685
32.912724 37.269623 51.54569
65.54972 50.270622 51.264687
65.29872 51.428623 49.53969
73.556725 56.87662 45.950687
71.500725 56.726624 44.77569
32.008724 67.20663 28.11369
30.952724 69.30363 28.38469
35.132725 77.28362 24.865688
35.553722 78.84062 23.861689
25.517725 15.315624 55.605686
27.499723 15.638624 55.431686
32.561726 21.626623 48.154686
34.534725 22.291624 48.457687
66.821724 65.92562 24.555689
65.06272 65.25862 25.336689
57.041725 65.56763 29.192688
55.938725 65.53662 30.72469
22.029724 59.02362 -2.3893116
20.528725 56.82762 -1.7713115
18.959724 55.456623 10.100689
18.264725 57.20362 10.883689
42.781723 19.251623 43.257687
43.042725 17.366623 44.188686
44.335724 7.1446238 39.093685
45.778725 6.2566237 40.39969
63.674725 55.679623 20.61069
63.186726 55.86162 18.85669
67.28973 53.970623 8.976688
67.35272 56.61462 7.9536886
69.03672 16.835623 12.152689
67.901726 17.718624 13.506689
2.8297195 20.469624 13.838689
2.7147217 19.270624 12.308689
57.126724 29.632624 35.15669
56.175724 29.984623 32.709686
66.403725 34.072624 24.753689
68.208725 34.273624 26.192688
42.393726 15.131624 0.9136903
44.300724 13.926623 1.8396852
49.979725 6.828624 58.481686
48.759724 6.636624 56.814686
70.38472 77.336624 32.777687
68.00672 77.488625 31.355688
65.28472 71.24962 41.631687
62.739727 72.01862 42.263687
59.346725 45.48762 0.21268632
57.715725 44.456623 63.244686
59.170727 48.14762 52.581688
58.633724 46.554623 50.51169
17.051727 42.158623 5.845689
17.180725 41.98762 8.063688
8.090721 41.51762 13.864689
6.6477203 42.30762 12.400689
54.385723 36.797623 11.352689
56.672726 38.170624 11.128689
62.571724 44.261623 5.240689
64.89372 44.817623 5.679689
67.06172 26.908625 21.95369
68.56573 28.546623 21.40569
75.03172 30.300623 11.495688
0.56671906 29.013624 13.510689
60.320724 81.238625 56.359688
61.272724 79.29162 56.123688
72.819725 78.07462 56.061687
74.653725 79.40262 56.077686
49.711723 70.59162 10.348689
49.829723 68.22762 11.127688
39.589725 73.45762 14.888689
41.050724 74.45862 13.151689
8.330719 78.987625 15.850689
9.174721 76.85462 16.761688
12.77272 72.25462 8.815689
13.196724 71.87062 7.1066885
6.2607193 3.3306274 44.99069
7.213722 1.4786224 45.67769
0.9387207 79.79862 53.67769
2.2637253 80.81162 55.287685
70.62173 70.05463 29.69769
68.695724 70.19163 27.911688
2.6607208 71.488625 20.49969
2.7007217 69.63562 18.78369
60.050724 40.56362 0.945688
61.501724 39.13262 1.6016862
70.751724 35.61262 56.519688
69.84473 37.419624 54.786686
61.705727 13.720624 35.881687
59.459724 13.781624 36.744686
52.009724 12.828624 36.378685
52.269726 11.245624 38.42069
63.785725 30.389624 21.673689
62.511726 31.412624 20.38769
54.595726 23.571625 24.87369
51.973724 24.650623 24.396688
13.947723 22.564623 19.084688
15.828728 22.967625 17.22469
23.174728 20.053623 10.392689
22.540726 22.689623 10.042688
69.001724 15.405623 2.5716875
68.57772 17.093624 1.2416856
3.330719 20.545624 62.267685
5.055725 19.005623 60.982685
23.389725 44.547623 56.095688
25.388723 45.073624 57.459686
34.374725 49.275623 50.377686
35.589725 50.451622 52.384686
43.265724 72.598625 41.994686
41.209724 72.29862 40.403687
34.366726 67.44062 38.536686
34.325726 67.85562 35.998688
33.619724 55.16162 22.63169
35.920723 54.96662 22.792688
38.815723 63.27262 24.90869
37.405724 62.046623 25.25969
50.959724 28.882624 45.591686
51.269726 30.293623 43.38669
57.483723 28.460625 40.422688
58.057724 30.325624 39.255688
55.694725 14.293624 44.582687
56.655724 14.525623 42.543686
66.30173 5.616624 44.849686
67.12772 4.9776235 42.895687
24.675724 26.497623 40.319687
25.495724 28.193624 41.716686
35.845722 34.490623 36.812687
37.568726 32.907623 36.517685
68.53172 82.460625 64.29969
68.41273 1.690628 1.1466844
66.182724 12.91363 61.977688
66.625725 12.978624 59.355686
48.095726 3.8756256 62.489685
47.108723 2.9116287 60.570686
35.625725 1.0086288 57.425686
34.950726 1.5876236 54.661686
18.523727 21.748623 23.95369
18.549728 23.997623 25.532688
13.93972 25.305624 35.384686
15.429726 23.601624 37.104687
73.68872 60.525623 13.436688
71.706726 58.902622 13.718689
63.129726 63.09862 19.442688
61.164726 62.546623 20.268688
21.863724 34.935623 8.469688
19.759727 35.29962 7.521689
11.28772 35.559624 17.62769
12.393723 36.82762 18.69369
3.347725 51.423622 18.854689
4.2547226 49.38562 19.841688
73.333725 41.840622 25.70369
74.88172 42.63962 26.782688
51.689724 12.811624 49.743687
50.097725 14.321624 48.891685
41.203724 6.162624 45.544685
42.850723 5.8766236 47.085686
51.506725 32.70262 52.506687
49.655724 32.850624 54.000687
45.920723 22.423624 59.338688
43.936726 22.774624 58.770687
9.077721 48.66062 19.348688
9.861725 49.595623 21.254688
6.076721 47.64862 30.76269
5.1017227 45.45362 30.733688
41.220722 66.888626 48.666687
43.180725 67.265625 48.15669
52.753723 70.79662 51.607685
51.340725 72.07362 52.296688
35.294724 24.910624 32.428688
35.342724 25.325624 29.854689
45.436726 26.588623 24.71769
45.049725 25.593624 22.743689
56.212723 7.303629 33.009686
57.694725 8.558626 34.613686
52.975723 2.8576279 43.537685
52.472725 0.59562683 43.248688
30.49172 62.242622 31.802689
28.545721 62.714622 32.17069
18.39672 64.97962 26.157688
18.463722 64.350624 24.222689
69.18872 40.366623 8.687689
69.599724 42.53062 8.700688
61.913727 44.66062 18.598688
60.358727 42.846622 18.944689
44.723724 45.46762 40.368687
42.402725 45.21862 39.813686
35.946724 47.289623 49.807686
36.447723 47.409622 51.981686
73.442726 2.977623 40.40069
73.38673 1.7676239 41.91469
74.73872 81.84162 53.017685
72.526726 81.03262 52.306686
46.309723 40.52162 56.894688
46.949726 38.332623 57.581688
43.043724 39.15562 3.5486848
41.276726 40.531624 4.5516834
45.276726 51.70962 -4.727311
47.519726 51.46162 -3.8473115
45.857723 47.71162 7.080689
45.614723 45.00062 6.839689
54.602726 60.950623 17.911688
55.189724 61.12562 16.00669
46.874725 59.52962 8.017689
44.561726 60.055622 8.670689
20.480728 23.543623 -3.1173115
21.582726 22.580624 -0.81231153
12.713722 27.151625 5.001689
10.678726 27.692623 3.7266884
38.778725 46.12562 36.791687
36.947723 45.13362 36.62269
29.069725 42.319622 46.049686
31.080725 41.400623 46.974686
40.243725 15.992624 32.334686
38.439724 15.0826235 32.475685
35.052723 13.533624 42.999687
34.437725 10.866624 42.981686
57.644726 80.28262 31.979689
59.278725 80.42262 30.032688
65.751724 80.59362 34.15669
67.24773 79.90062 35.512688
31.180725 2.0956268 39.317688
31.090725 0.099624634 40.75469
32.291725 3.6276245 51.262688
33.707726 4.704628 52.970688
2.9137192 19.008623 59.03269
1.4567261 20.733624 60.286686
73.11672 17.243624 54.495686
74.90972 16.849623 55.430687
37.012726 38.872623 4.529689
37.396725 36.82762 4.819689
28.608725 37.80762 9.891688
26.731724 37.714622 10.542688
68.181725 74.50962 29.274689
68.17172 72.084625 29.942688
59.119724 75.029625 38.60869
57.449726 73.61762 37.877686
55.820724 67.20663 36.693687
54.829723 65.44962 36.17069
50.399723 60.83662 45.974686
48.920723 62.63362 46.221687
68.096725 69.00862 11.016688
67.62173 69.642624 8.489689
0.27072144 73.34362 1.5616885
73.82872 73.639626 -0.4843115
70.68572 70.35863 12.936688
69.51772 71.31762 13.888689
65.27573 72.65962 24.903688
66.28773 70.708626 26.567688
40.123726 22.832623 51.780685
37.852722 23.942623 52.557686
28.478724 19.214622 58.211685
26.635725 19.227623 56.626686
61.554726 34.98762 49.152687
60.477726 36.703625 49.000687
59.313725 36.559624 39.53269
60.355724 37.443623 37.005688
69.96172 51.39262 27.361689
68.07572 53.12662 27.869688
60.973724 52.901623 37.175686
58.744724 52.450623 37.046688
3.0427246 6.0196238 42.982685
2.0257263 8.331624 42.556686
71.72872 14.256623 50.62269
70.57472 13.555624 52.266685
25.221725 56.268623 -1.4663115
26.28272 55.84962 -0.034311485
23.017723 59.98062 10.262689
22.765724 62.62562 10.620688
39.446724 50.136623 38.87269
37.608723 50.38562 37.77569
33.008724 45.824623 47.797688
32.154724 47.069622 49.061687
74.96772 72.767624 47.278687
74.334724 75.04062 47.96969
72.956726 80.96962 38.731686
71.514725 82.278625 38.296688
34.344723 60.48962 37.043686
36.305725 60.208622 36.890686
39.770725 59.430622 26.355688
41.760723 59.337624 25.711689
54.945724 17.978622 56.179688
56.035725 19.614624 54.739685
56.937725 21.240623 45.239685
55.216724 21.360624 43.776688
51.061726 44.20962 30.383688
49.280724 45.511623 30.980688
42.605724 42.46862 39.07369
41.256725 40.59362 39.128685
75.04572 78.654625 37.790688
0.3097229 78.98262 35.658688
6.5447235 77.70562 26.26669
6.9887238 79.25762 24.407688
59.792725 27.154623 13.249689
61.708725 25.669624 13.082688
60.634724 26.379623 2.6726885
60.247726 26.847624 -0.035311487
58.042725 31.616623 44.142685
59.987724 33.489624 43.707687
56.937725 34.01562 35.52569
58.192726 35.641624 34.185688
15.968727 10.243624 0.9056871
16.974724 12.229624 0.24168564
21.355728 15.850624 54.977688
23.030724 16.611624 54.540688
56.676723 26.590624 -0.6153115
56.245724 28.380625 -1.2263114
49.055725 33.332623 5.865689
48.776726 35.874622 5.747689
6.404724 34.81362 30.32269
7.82872 36.032623 32.335686
2.868721 36.211624 42.966686
2.6767197 36.88362 44.82369
48.206726 33.42562 24.543688
48.132725 32.319622 26.916689
