35.993065 19.252972 29.39853
52.595066 62.10997 30.764528
53.932068 61.13097 29.11953
51.861065 59.13697 18.76553
51.387066 59.32797 16.787529
30.962069 20.90797 4.837532
30.000069 23.19697 4.6895294
31.603067 19.94597 14.476536
32.755066 19.853971 12.157536
20.817068 82.11597 13.867535
21.690067 82.52697 11.467533
14.861067 90.16897 9.424534
15.895067 91.79097 10.975529
6.021067 4.3679733 57.512527
5.166067 2.564972 1.3755302
-0.897933 8.948967 4.898529
-2.688933 8.20797 4.7625313
10.706067 35.88797 22.21053
9.0560665 34.50697 22.33253
6.090067 27.555971 27.229528
5.673067 26.071972 25.735529
35.537067 56.65297 38.275528
38.071068 57.044968 37.63853
42.300064 49.07697 43.25553
41.703068 46.801968 43.53553
5.8490667 62.419968 26.812529
6.583067 64.63597 26.87653
0.5820671 69.44697 34.297527
1.177067 71.365974 34.87053
27.236069 43.66197 43.82553
27.292068 41.44897 43.928528
25.471067 33.08397 50.75953
26.171068 30.79297 49.92053
16.646069 98.61097 10.61153
16.874067 97.15097 8.003529
8.304068 94.07897 10.628529
7.499067 93.71697 12.3575325
55.080067 36.61997 53.23153
55.574066 35.043972 55.22953
44.786064 30.06397 52.44853
45.499065 27.436972 52.89153
4.368066 101.55697 48.25053
3.1760647 103.71397 48.36453
64.70907 106.84797 38.789528
64.43307 105.17797 36.54553
25.962069 70.642975 21.29253
25.543068 71.657974 19.051533
14.838067 68.49597 18.216534
14.110067 67.84897 15.840534
48.721066 40.82197 47.57353
49.683067 40.26197 45.62053
60.406067 44.16797 45.41153
61.979065 43.93697 46.83753
3.7180672 6.8189697 54.21153
5.412067 5.4459686 52.78653
-3.0149329 103.47997 49.44353
-4.096933 104.08597 47.11853
1.279067 58.829967 48.78653
1.3360671 58.12697 46.33653
3.6520672 49.62197 38.77253
4.499067 47.68797 38.38453
45.093067 34.24197 5.323532
43.985065 34.43597 7.6385307
36.208065 28.503971 8.519535
34.019066 27.831972 8.838535
61.926067 27.554972 6.929531
60.949066 26.34197 4.9705315
55.089066 28.725971 53.91553
57.262066 29.59897 53.86953
30.186068 42.579967 48.46453
29.482067 41.40797 46.74953
24.221067 36.26897 54.17753
25.393068 36.39497 56.026527
20.331068 31.127972 36.630527
19.104069 29.151972 36.36253
19.201067 32.89897 27.79353
17.029068 34.23997 28.469528
47.259068 43.91897 8.934528
49.293064 43.41897 9.252529
53.464066 42.84097 56.33453
51.754066 43.162968 54.36653
59.985065 99.85497 0.8675308
60.368065 101.83397 57.796528
1.877061 99.85597 52.31453
1.3940669 101.41597 49.95153
44.135067 73.88397 42.81353
41.037067 75.18997 42.28053
41.586067 65.66397 48.16653
42.255066 67.57097 49.664528
3.9320672 40.83397 40.14153
4.904067 38.85297 40.282528
8.497067 29.99797 34.33953
10.576067 30.41097 35.01453
47.635067 43.919968 33.74953
48.264065 41.83097 32.22153
47.593067 31.721972 29.916529
46.261066 30.609972 31.169529
46.177067 17.642971 56.63553
47.223064 16.47697 0.68653107
52.231068 15.518971 9.101536
52.230064 15.789971 11.3195305
23.602068 86.85297 0.93153
23.409067 88.811966 56.985527
26.301067 94.49697 49.956528
26.484068 96.76797 50.42453
17.302069 51.79097 20.229534
16.859068 50.44597 18.381535
24.634068 58.63697 14.103535
22.799068 58.75597 12.628529
8.0820675 21.44697 35.41853
7.4210668 21.90797 33.227528
19.476068 22.23497 29.799528
18.803068 23.96797 29.28653
41.356068 44.97897 45.38753
39.448067 45.56697 46.52153
32.706066 49.61997 41.22353
32.601067 51.36697 39.85153
18.890068 45.787968 44.393528
21.315067 45.22897 45.12353
29.598068 44.79397 42.93953
31.779068 45.32597 42.61353
49.290066 10.674971 21.729528
51.224068 9.403971 21.954529
49.300064 13.319971 31.604528
50.871067 14.001971 32.81553
30.850067 104.82497 16.408535
30.475067 103.70697 18.686535
26.179068 97.90997 18.089535
27.167068 98.74997 16.359531
60.385067 83.78697 42.39153
60.890064 81.60697 42.64553
66.133064 74.10797 34.99053
2.0460675 73.51597 36.01053
0.81106675 10.877971 16.173534
0.59706116 11.778971 18.164532
65.396065 20.766972 22.928532
0.33406067 21.30797 24.669529
49.371067 58.474968 52.88453
51.503067 58.91097 52.34453
49.969067 55.697968 0.41553116
48.407066 55.28497 56.86953
10.573067 65.63697 44.07653
11.545067 66.45297 42.96153
5.567067 75.73697 39.76453
3.8950672 75.31097 38.39653
26.296068 22.03897 23.873531
25.388067 21.21297 21.83453
27.162067 9.807971 23.58353
27.702068 8.714971 21.70853
43.884068 29.23797 15.549534
43.064068 27.496971 17.074535
31.848068 25.131971 17.539532
30.876068 22.68197 17.580532
0.1580658 34.84697 17.18153
0.54006195 32.94897 17.711529
1.1840602 24.38097 20.62453
3.9040616 24.36597 21.767529
5.726067 0.99897003 24.49453
7.7040668 1.5139694 25.226528
15.052067 8.293968 27.84953
17.103067 8.218971 28.590528
2.9270673 75.81697 0.59553146
2.8940673 77.84997 1.1615295
13.357067 82.01297 4.336529
11.990067 81.06497 6.7795296
19.928068 94.99797 49.73753
21.012068 93.47597 50.59253
23.790068 85.32297 44.12553
25.023067 87.10297 44.25553
30.054068 2.102974 36.93153
30.189068 3.1809692 35.268528
41.349068 4.520973 32.55253
42.254066 6.4549713 32.89153
3.3920605 72.09497 50.22253
2.9260647 70.45697 52.02153
60.949066 63.16497 47.38053
60.652065 64.06997 45.25253
16.406067 1.0339737 30.89053
16.397068 105.49897 30.896528
15.841067 98.50797 41.05853
13.420067 97.95997 41.49453
2.4160626 31.06697 4.0975304
2.1840603 31.884972 2.1595306
56.505066 32.626972 56.64853
57.483067 32.89697 54.61153
32.291065 83.83197 47.52753
34.399067 83.53197 47.73853
32.792065 76.95297 51.06353
32.659065 75.797966 53.08553
46.121067 4.011971 8.523533
48.786064 4.651971 8.63953
46.182068 16.290972 10.981533
44.454067 17.197971 11.524532
35.378067 89.87997 43.47753
34.557068 90.28597 45.67053
31.273067 85.05997 53.43453
29.147068 85.96297 54.31353
17.279068 105.05397 20.076534
18.236069 103.12097 18.82153
23.385067 97.70997 24.09253
22.111069 96.43497 25.89853
23.581068 63.44897 10.477535
23.623068 64.72297 9.092533
34.668064 70.85897 8.710529
33.044067 72.143974 7.655529
62.688065 11.7359705 8.227535
63.381065 10.406971 6.540531
53.304066 13.329971 7.5855293
51.815067 11.725971 8.641529
27.334068 73.95797 36.07253
26.089067 72.19697 35.15553
18.497068 71.02897 30.728529
20.573069 69.851974 30.537529
46.111065 27.050972 39.65253
44.790066 28.54697 40.76053
37.841064 33.44397 30.655529
38.411064 34.72797 29.497528
18.154068 50.99797 49.97853
16.735067 51.141968 52.21853
7.019067 50.22597 52.54053
5.572067 48.61997 53.61853
34.272064 94.58697 30.031528
33.575066 96.76897 31.11253
32.662067 102.93297 20.45953
32.304066 100.617966 20.99453
58.169067 48.37197 38.44453
58.358067 50.19197 39.37753
49.462067 49.18097 48.38453
49.291065 51.51597 49.31653
55.881065 12.170971 9.678532
55.855064 13.96697 7.7375298
56.073067 12.599971 57.949528
55.433067 11.88197 55.57353
34.819065 65.47497 37.08453
35.929066 63.21897 36.22853
33.959064 59.18497 46.06353
35.783066 59.59397 46.82153
33.140064 1.1679688 25.32553
31.730068 3.0299683 26.673529
40.155067 8.688972 32.172527
40.228065 10.393969 30.23853
46.372066 61.72597 7.5435295
46.334064 59.76797 6.66753
47.040066 50.72997 2.9445305
46.318066 49.19397 4.686531
-2.684933 46.70297 14.192532
-2.148933 46.592968 16.830532
5.697067 48.33097 24.48053
6.319067 48.31097 26.774529
41.775066 77.34897 8.197529
43.196068 79.48697 8.187534
52.429066 83.18597 8.087536
53.163067 84.58197 6.41753
28.092068 89.40597 41.05853
28.052069 89.11597 38.79453
21.538069 93.90497 44.21253
21.661068 94.45397 41.64153
13.288067 93.65697 8.287533
12.486067 91.66297 9.335529
4.833067 90.99397 56.770527
3.196067 91.894966 0.29452896
42.364067 68.93897 22.36253
42.896065 71.74597 21.923534
35.374065 71.34997 14.187534
35.130066 72.51497 12.286533
45.554066 17.863972 38.76453
45.141068 15.920971 37.296528
39.933067 9.262971 43.40653
40.878067 9.531971 45.650528
56.463066 35.52897 22.72353
55.543064 33.69797 22.00153
45.140064 28.20297 19.024532
44.559067 27.152971 20.81953
25.117067 3.149971 34.13453
26.329067 4.6869736 34.67653
30.936068 9.805969 24.653528
31.225067 7.562973 24.34953
16.394068 48.09697 15.606533
14.192067 48.27597 17.010532
16.789068 37.83597 21.183529
18.397068 36.91497 23.298534
26.369068 24.98497 41.546528
25.622068 23.34597 40.32653
26.591068 12.671971 39.00953
26.891068 10.513971 40.09953
9.609067 41.37997 46.15553
10.735067 39.16997 46.34853
19.458067 32.779972 43.671528
20.300068 31.600971 46.21853
9.803067 68.43297 1.2825317
8.402067 66.52097 1.919529
5.988067 69.239975 48.31453
7.445067 67.489975 48.50053
60.346066 101.09797 3.0885315
59.116066 99.58297 4.6075287
63.018066 89.00497 0.27753067
61.037067 88.21397 1.544529
50.830067 90.17997 4.0485306
52.347065 91.70397 3.0485306
55.463066 87.72997 52.33253
57.410065 89.11197 52.879528
19.093067 5.5359726 21.787529
19.477068 6.699974 23.57453
16.778069 103.11697 22.68953
16.857067 101.54997 24.013529
2.8550673 28.91397 8.688534
1.644067 27.024971 8.308529
7.339067 20.305971 5.4895287
8.657067 18.22997 5.488529
24.310068 70.04297 23.489529
21.778069 70.34097 24.39053
13.6880665 67.17897 26.089529
13.768067 68.50097 28.19253
11.989067 10.385971 41.90853
12.548067 12.319971 41.86453
19.227068 13.4199705 45.54453
18.465069 13.448971 47.44753
25.247068 46.28297 29.08853
27.200068 46.54397 27.909529
29.040068 35.28497 26.249529
27.292068 34.04597 24.336529
11.836067 35.58397 50.36953
12.182067 37.529972 52.02953
22.857067 39.59097 51.44853
24.392067 38.82597 49.68453
12.8390665 14.202971 8.071529
14.844067 14.471971 7.019535
20.284067 19.66397 5.79953
18.452068 20.631971 6.134533
42.577065 6.2199707 9.877529
42.457066 8.208971 11.048534
48.076065 16.50497 14.033535
49.198067 17.937971 15.095531
41.063065 25.97697 54.30153
42.595066 24.562971 54.01553
34.805065 21.55697 3.54953
33.346066 21.90797 1.9865303
10.291067 77.30597 38.19653
8.282067 75.93397 39.08453
6.660067 71.48897 47.44653
9.040067 70.11897 47.19853
47.436066 80.77697 55.39953
49.674065 81.69597 55.735527
48.789066 90.74097 50.74953
47.850067 92.83497 50.05453
17.883068 46.23997 3.6235313
19.333067 47.953968 4.006531
21.870068 55.96597 6.8525352
23.462069 56.05497 8.191532
50.958065 24.77997 45.30453
50.186066 24.041971 43.428528
51.533066 16.176971 34.776527
50.101067 15.227971 35.442528
17.265068 60.81697 20.372532
18.988068 58.76197 20.082531
27.070068 65.55697 22.233532
29.798067 65.46497 22.767529
47.097065 22.134972 10.325535
47.223064 20.07497 8.593533
44.408066 30.939972 7.983532
46.630066 32.38197 6.747532
20.183067 102.20697 4.8835297
20.705069 102.61397 2.7835312
28.380068 99.90297 55.41153
30.164068 99.43597 56.582527
31.708067 65.47497 33.99453
32.24307 64.241974 36.07353
28.669067 57.69397 44.67253
28.443068 56.29197 43.21553
20.660069 56.27697 24.781528
21.336067 57.55597 26.118528
28.519068 63.60097 24.87653
30.064068 64.48197 26.50153
9.013067 23.58597 24.583529
8.146068 22.99197 26.48453
12.220067 13.182971 28.41153
14.483067 11.910971 27.972528
27.781069 91.47697 11.553532
30.316069 91.72097 11.984531
37.674065 92.40397 10.996532
39.069065 94.03097 12.302532
1.3900671 31.031971 29.63353
2.8590672 29.83097 28.667528
10.535067 37.25297 25.38453
11.961067 38.32597 26.506529
39.551067 87.94297 19.420528
39.135067 85.70797 19.86153
46.088066 82.50197 10.02953
43.947067 81.62597 9.48653
52.110065 82.75397 28.482529
52.909065 82.23997 30.702528
57.439068 79.56297 27.83853
59.517067 80.45597 27.056528
28.021069 81.05297 46.41253
26.474068 82.02397 44.64253
16.944067 80.82197 50.53853
15.208067 82.18897 49.06353
18.308067 9.581971 23.69553
19.442068 10.332971 21.01353
28.782068 11.420971 16.313534
29.364067 10.53297 18.605534
50.956066 36.06997 44.41553
49.667065 35.95097 42.29153
47.639065 42.12297 45.30853
46.144066 39.70197 45.73153
38.435066 43.967968 49.407528
36.849068 44.03397 47.80753
32.48707 52.46597 43.47453
31.005068 51.12897 42.63153
27.258068 20.940971 19.982533
26.079067 21.829971 18.43253
22.697067 21.04397 7.3385353
22.365068 21.089972 5.20953
48.220066 42.87997 49.61953
47.751064 40.28597 50.30053
36.990067 42.46497 55.10153
38.152065 41.46597 56.86553
29.934069 30.50497 9.561535
31.174068 31.51497 8.284534
22.919067 25.27297 3.426529
23.628067 24.346972 1.3925285
15.789067 84.68297 49.303528
13.791067 84.41097 48.83953
3.913067 88.94997 43.61253
3.3660672 86.69797 43.23353
62.561066 101.94897 38.72553
61.789066 100.05097 39.02353
61.634068 91.36597 39.91353
59.825066 91.32997 41.78653
11.971066 65.005974 49.08353
10.465067 66.67797 48.33953
17.756067 69.18197 53.58453
19.192068 69.67397 51.79353
21.907068 78.16597 25.90753
19.964067 77.75997 27.87653
21.243069 81.672966 25.721529
19.474068 80.270966 26.236528
62.539066 75.464966 32.02053
64.24907 76.98597 31.308529
58.628067 85.76297 35.16753
57.441067 87.30697 35.88853
58.717068 93.14897 22.094528
59.557068 92.20697 20.062529
0.0880661 95.04197 27.365528
66.04107 93.65297 28.437529
8.125067 21.454971 1.2505302
8.6480665 22.030972 3.4965286
8.623067 33.74097 57.94553
6.610067 33.925972 56.34453
41.468067 99.895966 21.101536
42.790066 97.52697 20.622532
41.769066 91.08397 22.455532
42.081066 89.172966 23.257534
30.238068 52.22197 35.14653
30.932068 53.60897 36.64053
39.119064 59.627968 34.47153
39.669067 60.68097 36.55853
59.302067 7.5659714 40.73053
60.335068 7.180969 42.44753
64.78007 7.2659683 50.35353
64.62507 8.917969 51.622528
4.5260673 90.53697 16.732533
3.5990672 88.39197 16.093533
2.062067 81.12097 10.829533
1.2770671 81.78097 9.09853
26.468067 104.00897 45.07153
28.558067 103.03797 46.539528
37.323067 95.35097 46.78453
36.719067 92.63897 46.45953
39.406067 7.573971 25.166529
37.056065 8.656971 24.475529
38.882065 20.00797 25.97353
39.443066 19.73797 28.15753
62.630066 84.62397 12.8575325
61.570065 86.35497 13.968533
58.117065 76.28197 14.651531
57.952065 74.80697 15.539532
57.395065 6.7929688 34.720528
59.145065 7.805969 35.997528
2.6570675 3.6019669 32.75153
4.2730646 3.4459686 34.20253
-2.7769327 51.16597 20.476536
-1.327933 49.509968 19.539532
3.1290672 53.05497 20.534534
3.5060673 53.84897 23.092533
29.400068 93.33897 9.942532
27.706068 93.86097 9.495533
30.684069 95.73097 55.91153
28.728067 97.12097 55.39653
58.729065 73.46197 47.96253
59.470066 76.00597 47.27753
48.863068 81.22597 50.57353
48.304066 80.45797 52.12453
27.254068 23.93297 19.165531
26.947067 23.69197 21.561535
21.003067 32.57297 25.86253
20.649069 34.80897 24.82853
58.896065 81.47697 20.199535
56.555065 82.05897 20.157536
45.184067 79.01697 20.26553
46.894066 80.41297 22.22353
62.684067 49.697968 6.6905327
60.551067 48.88897 6.009533
55.477066 57.48397 11.752529
56.609066 58.31497 13.184528
53.884068 23.95597 15.999531
54.658066 24.39497 17.818531
61.994064 22.606972 21.045528
62.398067 22.485971 22.772533
52.898067 64.560974 18.05753
51.142067 65.00797 18.85253
49.550064 62.273968 29.67853
50.920067 60.65797 28.78353
13.447067 73.32197 2.79253
14.805067 72.81697 4.1075287
18.600067 80.77597 8.024532
20.952068 81.49397 8.826534
43.908066 50.81297 7.9165306
42.426067 52.00897 8.853535
49.102066 57.86097 17.994534
47.441067 58.61297 18.962536
16.968067 12.121971 29.96353
17.107067 11.229971 27.992529
22.671068 20.62997 26.29753
21.216068 21.527971 27.346529
7.547067 23.16397 22.194529
7.660067 21.218971 23.801529
2.367067 13.994971 30.46353
0.10006711 13.704971 30.56753
21.824068 16.836971 2.0995293
20.810068 18.66397 1.3495293
10.914067 19.242971 4.6425285
10.315067 19.79697 2.1395302
51.901066 21.329971 52.83453
51.327065 21.461971 50.58953
46.835068 11.444971 46.95553
44.395065 11.482971 47.664528
50.847065 72.17997 43.61453
48.967068 71.39197 42.31153
44.829067 74.44997 46.69353
47.164066 74.797966 45.47353
23.758068 98.79897 13.138531
22.347069 99.21797 11.877529
21.856068 96.50097 22.052532
23.641068 97.52697 21.22453
33.558067 25.207972 52.96753
34.541065 27.550972 52.77953
25.307068 29.99797 46.00753
23.680067 29.20297 44.53053
21.390068 22.412971 12.997532
20.619068 23.458971 14.850529
27.023067 31.346972 21.969532
25.756067 31.220972 23.32053
46.091064 42.61097 28.392529
47.509068 41.21197 26.771528
56.524067 37.86397 25.95953
58.179066 39.07397 25.108528
63.738068 45.76097 48.17053
63.042065 44.56197 49.24453
59.343067 52.967968 55.52253
58.115067 51.08397 56.83353
61.960068 29.949972 42.41953
60.022064 28.50797 42.48053
61.149067 34.17997 49.58053
63.097065 33.42497 48.30453
21.644068 84.33197 5.8765297
19.795069 83.21197 4.610531
13.901067 85.49497 54.81653
14.992067 87.51397 53.386528
40.481068 18.67497 21.30653
42.148067 18.878971 19.254536
42.618065 18.149971 9.601536
44.189068 19.232971 9.61253
45.146065 9.201973 44.38953
43.655067 9.268967 46.09253
42.365067 0.33396912 39.36953
44.002068 0.018966675 37.82153
35.635067 99.50797 40.48353
35.180065 101.00197 42.63053
39.943066 98.40997 51.70253
37.961067 99.87097 52.41753
36.665066 42.04697 46.04453
38.163067 43.07697 45.35653
42.852066 45.710968 41.629528
42.196068 43.74497 42.88153
15.3980665 103.94497 27.25253
16.527067 102.71297 28.715528
21.056068 97.13097 34.59653
21.665068 95.87797 36.442528
11.467067 64.42497 11.386532
10.888067 62.45097 11.9445305
8.474067 69.90997 5.57053
6.894067 69.52397 3.5665283
33.900066 58.64097 9.299534
32.048065 60.63997 10.038532
36.194065 69.84997 11.398533
38.011066 70.85797 10.078533
49.681065 21.148972 57.03153
51.233067 22.458971 56.04553
54.682068 26.383972 8.371532
54.574066 28.512972 8.955532
61.960068 100.394966 36.18153
60.579067 101.85297 35.269527
51.900066 95.46297 33.429527
50.388065 95.88097 34.94453
34.679066 44.93697 22.797535
33.111065 46.33497 22.065533
33.715065 44.211967 11.448536
31.788069 43.38897 11.453533
28.819067 53.23497 43.48553
28.178068 54.24697 45.393528
22.043068 49.76797 53.18453
22.327068 51.41597 53.66853
62.401066 100.08697 7.047535
64.241066 98.73097 7.858532
0.20306396 92.13897 16.37553
0.7310649 89.31397 16.032536
66.06606 37.06297 36.32353
65.51106 35.75097 34.38453
57.719067 35.84097 25.14153
56.209064 34.72997 25.67153
30.907068 17.18197 1.8635292
30.362068 15.315971 0.40452957
38.825066 13.050971 52.02953
38.743065 13.282971 49.657528
43.469067 87.76097 8.443531
43.351067 89.52897 7.2065315
47.039066 94.09897 13.970531
48.048065 96.57697 14.224529
48.639065 57.37497 12.08453
50.765064 58.23097 13.152531
51.869064 68.296974 5.44553
50.740067 69.71697 6.836529
28.971067 29.44597 21.204533
28.765068 30.067972 19.116535
40.831066 28.186972 21.588535
41.804066 26.312971 20.405529
4.043067 7.967972 33.04153
4.5720673 5.6959686 33.386528
6.3820667 9.549973 40.37753
7.505067 12.39097 40.36953
22.764069 57.26097 0.29452896
21.085068 56.704967 56.70353
25.472069 58.391968 46.75053
23.853067 60.17097 46.64653
-0.080932945 96.21597 29.676529
2.332067 97.28497 29.608528
1.014067 99.68297 33.74253
-1.044933 100.84897 33.94653
6.150067 37.42197 2.2015305
7.828067 36.07397 0.93653107
10.982067 32.85997 56.47253
9.158067 33.42997 54.65153
34.433067 29.80697 31.50953
36.365067 31.509972 31.624529
37.671066 20.87997 31.180529
37.674065 19.17497 32.75753
49.872066 89.40497 13.538532
50.285065 87.57397 12.002529
48.989067 84.22597 22.589535
49.086067 81.72297 22.882534
30.485067 47.829967 30.187529
31.460068 49.60197 28.92853
39.017067 58.23997 29.91453
39.923065 57.745968 27.874529
35.678066 73.27797 33.60653
34.875065 70.59197 34.22653
45.790066 71.865974 36.49453
44.514065 73.34297 38.25153
32.728065 53.70797 41.12553
32.517067 54.54397 39.414528
33.666065 62.49897 34.894527
33.801067 62.440968 32.11053
61.849068 105.34997 22.955532
62.204067 105.49897 20.46053
61.135067 94.37097 23.61853
59.430065 96.28797 24.45853
51.653065 90.38497 11.858532
51.656067 91.02497 9.210529
44.418064 85.09497 7.771534
43.235065 83.08797 7.2775307
23.180067 22.44697 17.885532
23.859068 21.49497 19.484531
14.281067 21.832972 25.954529
16.131067 22.46797 26.304531
11.518067 8.828971 56.041527
13.827067 8.93397 56.16853
12.174067 9.336971 45.18653
10.484067 11.106971 44.41953
54.553066 15.864971 55.832527
55.665066 17.878971 55.379528
51.592068 22.23697 46.91253
53.316067 23.572971 46.69653
8.511067 37.24497 23.885529
8.226068 39.05897 24.76853
0.20506707 42.18997 31.346529
0.30006707 40.46897 32.87653
21.606068 8.04097 19.756529
21.293068 7.9619675 21.986528
24.590069 10.526972 32.79953
23.391068 10.4979725 34.70953
58.414066 57.09797 51.33953
60.463066 56.96297 51.532528
61.018066 49.48097 0.2835312
60.005066 51.19597 1.5645294
33.181065 105.78297 20.684528
32.443066 0.6889725 21.99153
40.627068 3.2649689 29.083529
39.850067 5.449974 29.513529
39.344067 69.09597 57.741528
39.453068 67.70897 1.06353
47.570065 59.815968 2.6265297
47.776066 60.71397 4.443531
51.407066 93.14797 18.73753
51.217068 93.92797 16.734531
60.810066 88.63697 15.62653
62.360065 87.47997 16.312534
47.176067 68.78697 38.66853
48.923065 69.31797 37.686527
58.462067 69.41797 37.46853
60.694065 69.92397 38.01453
56.506065 43.14697 21.539532
55.720066 41.19797 21.049534
55.042065 34.74497 11.766529
56.497066 33.18097 11.477535
38.288067 36.10197 15.364529
40.134068 35.86097 17.012531
29.314068 32.74897 22.464535
30.016068 35.30197 22.524532
15.6550665 1.2329712 17.477535
16.533068 3.2469711 18.22353
18.899069 8.29097 13.930531
19.187067 10.572969 12.623531
44.490067 48.217968 3.2515297
42.992065 47.69897 5.1115303
33.921066 41.56897 6.1315346
35.108067 42.31097 7.813534
38.284065 7.0619736 22.52853
38.726067 7.5899734 20.687534
40.258064 104.89197 14.576534
41.394066 106.71597 13.16753
42.906067 35.32797 39.16753
45.223064 35.92497 39.15253
38.258064 38.73397 48.49353
38.628067 41.08497 48.24453
63.984066 98.70897 38.23753
62.918064 97.26097 39.64153
59.449066 89.30797 34.58653
59.316067 89.242966 36.83753
12.320067 28.80997 41.40153
13.896067 26.565971 40.81653
12.0300665 15.761971 42.29553
12.861067 14.286971 44.30053
38.295067 83.88697 8.079533
39.655067 83.17097 6.1455345
38.612064 71.40997 2.4875298
38.830067 72.08597 0.34952927
11.8720665 44.88297 57.416527
13.129066 44.99897 1.5055313
10.700067 41.67197 1.068531
10.984067 43.329967 2.2845306
62.323067 35.19997 51.59353
63.481068 36.98897 52.48553
55.085068 38.67097 44.04853
56.620068 36.48797 43.63853
22.522068 79.62097 6.3385353
22.712069 81.63597 6.837536
32.16007 80.45997 57.214527
34.008064 81.67797 0.017528534
38.683067 9.88797 55.06353
39.132065 8.404968 56.18153
36.442066 0.9759674 48.18453
38.542065 2.8849716 46.92353
51.850067 7.6369705 46.85753
49.568066 7.576973 46.12653
48.269066 13.445971 35.27353
49.977066 11.857973 34.248528
42.688065 35.66997 56.41253
42.726067 34.65597 54.58653
49.455067 37.61997 46.23053
47.653065 37.66797 44.72453
52.400066 34.90197 12.728535
53.580067 33.49697 14.157536
46.094067 40.60597 13.240536
47.197067 42.02597 12.4825325
9.211067 44.29897 24.857529
9.077067 41.89897 25.747528
14.348067 46.01597 32.91153
14.037066 48.54097 33.66653
16.431067 90.95697 23.24453
14.366067 89.867966 22.26653
14.277067 79.72397 26.882528
16.203068 79.43397 28.59953
46.106068 50.065968 16.271534
46.395065 50.88297 18.289532
39.969067 55.57097 11.116535
40.260067 57.51097 10.965534
33.286064 42.09097 55.72653
34.918064 40.95597 56.20253
42.181065 37.99797 57.58653
42.935066 39.38897 56.00353
56.389065 95.97697 53.303528
56.991066 93.686966 52.26653
1.104066 92.68897 56.464527
1.1990672 90.25297 57.37753
19.400068 21.013971 36.66053
19.320068 22.86897 36.644527
14.768067 23.72697 28.53253
14.256067 25.52597 26.64853
41.450066 50.29897 19.772533
40.765064 49.29097 18.007534
42.556065 46.33497 10.998531
44.739067 46.828968 11.83353
27.870068 3.9179688 46.08253
27.144068 2.2439728 47.94053
35.272064 0.034973145 54.98353
36.254066 1.8449707 53.34553
9.421067 35.06697 19.519535
7.547067 35.33997 18.243534
10.127067 47.32397 14.22253
8.796067 49.34497 14.628529
66.15507 35.33997 55.01753
64.659065 36.59097 54.88153
61.268066 46.21397 0.32653046
59.392067 48.02497 57.02953
51.297066 72.41297 28.86953
49.793064 74.19297 27.62653
43.713066 75.65597 37.38853
46.171066 76.83797 38.10753
19.767067 43.58397 42.80653
17.942068 42.23997 42.91253
21.946068 31.631971 43.71053
22.824068 31.70997 45.75253
5.720067 35.09497 20.426529
3.0640671 34.56197 20.256529
1.391067 27.770971 27.71753
-0.2609329 26.201971 27.22053
23.536068 5.118973 47.24553
25.783068 4.8769684 47.53453
31.504068 7.226967 39.55553
33.166065 6.08197 39.21253
51.196068 5.668968 21.189533
52.219067 7.238968 20.31953
61.387066 7.4319687 19.437534
62.062065 9.251968 20.205532
65.70907 6.3329697 10.041531
65.92107 5.1229706 11.276531
60.708065 103.186966 7.1965294
58.414066 101.91197 6.106533
20.421068 47.99997 15.996532
22.553068 46.84197 15.683529
29.704067 55.35197 21.66853
29.607067 57.08197 20.039532
57.271065 35.807972 6.4215355
56.460068 35.72997 8.200535
44.741066 36.16297 9.483532
44.343067 37.91597 10.481533
23.737068 17.95697 57.17453
25.400068 16.47697 57.761528
25.760067 10.809971 0.07752991
25.448069 10.608971 2.0385284
-0.42493293 7.183971 13.093533
-0.13293293 9.352971 13.1075325
5.491067 18.520971 16.560535
5.156067 19.83497 18.554531
55.220066 21.58097 30.854528
54.061066 22.89497 28.78253
53.173065 26.901972 28.42953
53.132065 29.588972 28.83253
43.899067 37.78797 1.8155289
45.128067 39.21697 2.9305305
44.923065 41.65697 10.160534
44.606068 44.11197 10.33453
65.799065 37.87197 30.615528
0.42606354 36.19097 30.830528
65.187065 41.46897 19.753529
65.631065 41.77597 17.525528
14.548067 54.00597 21.059528
13.043067 54.10997 18.983532
14.651067 62.66697 13.894535
15.413067 64.98497 13.988529
46.313065 82.84797 49.48053
48.413067 82.964966 48.41253
41.763065 77.91497 41.67953
41.694065 76.77997 39.85953
0.50006706 46.70297 56.43753
0.20606709 49.11697 55.57953
6.817067 52.62997 49.48253
7.805067 53.81497 50.84753
6.340067 7.1279707 46.86753
7.305067 9.167971 45.89653
-0.8779329 14.756971 47.70953
-1.101933 13.835971 49.86253
18.131067 104.84097 28.83553
19.684069 105.54197 29.92853
21.887068 3.8959732 22.496529
21.542068 4.5919724 20.291529
45.893066 14.798971 34.47453
47.457066 14.881971 32.706528
42.098064 14.282971 31.878529
40.083065 13.915971 33.005527
63.637066 56.398968 54.20353
62.439068 57.57597 56.06353
61.112064 57.90697 46.51553
60.768066 56.93297 48.61753
54.205067 85.94197 31.409529
55.274067 84.11397 32.35453
55.392067 80.17197 38.94353
53.499065 78.73497 39.23853
58.200066 98.66597 53.42553
58.621067 97.44197 51.99653
61.734066 93.672966 43.12553
62.770065 92.05897 42.19853
64.46207 11.922971 19.429531
63.017067 10.717971 18.09953
59.967068 21.738972 19.756535
57.742065 23.40397 19.567532
4.529067 73.96497 2.6965294
2.6210673 73.00897 1.7345314
1.8160671 65.16297 7.7825356
0.7060671 62.97597 8.368534
18.423067 66.45397 35.94053
18.218067 68.33197 34.45853
17.131067 78.94597 35.85553
15.483067 79.93197 36.78853
65.51407 100.31497 29.014528
64.270065 98.27797 29.16553
55.587067 93.38497 30.31153
53.986065 93.99797 31.277529
45.752068 50.57797 20.94653
43.811066 48.85197 20.344532
35.395065 42.48097 21.734531
36.158066 41.50397 23.539532
1.8180671 79.69997 15.785534
0.83406705 80.59997 17.31953
8.7470665 78.03497 21.366535
9.1810665 79.13397 19.468533
44.526066 38.91097 27.812529
43.648067 40.97797 27.67153
45.622066 33.98997 25.969528
45.930065 35.00697 28.048529
20.096067 51.22597 22.80053
18.352068 52.48097 22.542528
13.828067 50.81197 32.07753
14.852067 52.98097 32.48353
29.657068 62.71997 2.4065285
30.096067 60.66397 0.9995308
28.020067 50.62197 0.55553055
28.710068 49.35897 56.93853
22.906069 88.54597 3.0995293
21.825068 89.80997 1.5845299
10.709067 85.53497 5.8215294
12.045067 84.68997 3.44553
62.909065 2.613968 38.45253
62.262066 5.088974 38.151527
66.19707 14.604975 36.99453
65.313065 16.734972 35.71853
62.832066 35.008972 39.67053
64.019066 33.25097 40.50153
0.6890651 27.97697 30.596529
3.0290616 27.93897 30.702528
9.001067 104.95297 14.01553
7.332067 105.57397 12.906528
17.981068 0.85697174 9.120533
20.201067 106.92197 9.636532
10.186067 29.08497 44.80553
11.840067 27.791971 44.85653
22.709068 30.15797 50.57353
22.789068 30.78297 48.47453
1.1270671 97.894966 13.926533
2.3920672 99.07397 12.416531
11.644067 102.21697 10.067532
10.698067 102.57797 8.249531
15.977067 92.14897 51.60253
14.948067 90.54897 51.66353
14.026067 95.22297 43.43053
13.625067 94.86597 41.66053
39.782066 38.81897 54.03053
38.198067 38.73297 55.714527
26.926067 36.43697 0.0015296936
26.703068 33.87797 0.80152893
61.997066 51.926968 24.14353
60.334064 52.11197 26.07453
65.23807 48.51397 36.46553
1.502061 49.454967 36.93253
19.897068 5.1889725 48.73153
19.486069 2.9829712 47.87353
24.624067 10.695971 38.54553
23.305067 12.156969 39.17553
50.691067 97.16097 16.48653
51.149067 98.71797 14.954533
51.940067 106.65997 21.55553
53.697067 104.97297 21.205532
16.571068 88.88497 17.977535
14.693067 89.56997 18.992535
10.546067 85.57297 26.84153
11.272067 86.92097 28.14853
7.743067 28.665972 22.045528
8.241067 26.370972 22.13953
3.8590672 31.055971 12.386532
2.453067 30.15797 11.227535
12.635067 69.338974 2.601532
14.472067 70.44397 3.073532
22.477068 64.93397 6.497532
24.365068 65.95497 6.356533
45.259068 36.55397 17.991535
43.864067 35.83097 19.424534
43.939068 39.90197 16.019535
43.713066 39.00597 13.616535
20.317068 93.44597 53.52153
18.108068 93.07697 53.04153
17.205069 90.08397 46.59253
15.316067 89.34197 45.90653
22.073069 59.79397 39.00653
20.368069 58.42597 39.629528
15.661067 65.463974 31.26253
16.373068 63.42097 29.760529
29.628067 1.8019714 21.510532
28.079067 3.6299667 21.159534
24.195068 0.7199707 11.040531
22.908068 2.4509735 10.317532
31.712069 58.82797 2.073532
31.759068 60.74697 3.7175293
39.716064 60.63397 11.9185295
38.103065 59.481968 13.474529
37.978065 9.990971 20.854534
36.787067 10.6769705 22.657536
40.164066 10.570971 15.162533
41.939068 10.932971 13.84753
35.430065 66.73897 45.05053
34.917065 65.91797 42.67353
38.838066 76.29997 37.85653
36.824066 76.00397 36.86353
38.885067 18.235971 35.165527
38.547066 16.069971 34.33753
29.737068 9.864971 36.70953
29.884068 7.746971 37.387527
51.687065 68.34197 30.80753
53.853065 68.83497 30.593529
60.681065 74.50197 30.461529
61.704067 73.588974 28.732529
5.847067 106.25397 15.433529
6.978067 106.59797 17.68053
12.347067 105.74397 22.661533
13.993067 104.80597 21.82053
22.095068 72.72397 5.693531
23.503067 71.90097 6.8625298
11.767067 72.796974 14.123531
12.554067 74.85297 15.384533
37.088066 101.894966 55.734528
35.511066 102.56097 53.84153
35.342068 100.76697 2.8345299
37.916065 101.64197 2.7815285
15.357067 84.57097 52.09253
13.124067 83.35597 51.63553
14.7730665 73.490974 57.825527
12.471066 73.16997 0.43952942
55.692066 53.61297 49.09053
54.397064 52.14697 48.53853
50.119064 46.80597 57.86453
47.965065 48.01897 1.1285286
46.891068 88.71797 57.05253
45.047066 90.40097 56.74453
40.869064 79.91997 57.95353
41.260067 77.70297 56.97453
31.789068 49.99797 33.98153
32.827065 47.954967 35.34953
43.476067 48.80497 32.60653
44.958065 47.21697 32.984528
50.882065 87.98597 48.79353
52.561066 86.65797 48.72953
59.174065 79.48597 43.28553
59.036064 80.22797 45.046528
45.859066 62.33997 51.70953
45.624065 59.57797 50.27353
55.167065 64.52897 48.56353
56.952065 65.97497 47.80453
34.258064 49.82497 25.421532
35.591064 49.16597 23.204533
35.062065 57.31497 15.849529
33.120068 56.32497 16.969532
51.569065 21.83197 7.9775352
52.792065 24.15797 7.8525352
46.846066 20.26897 13.234531
46.549065 19.20597 11.241535
8.512067 86.53097 55.00953
6.751067 85.770966 55.734528
-2.0119328 86.23597 1.8115311
-1.8319329 86.72097 57.824528
24.851068 60.08497 9.983532
25.492067 58.51897 8.6335335
33.743065 66.34397 3.3215294
32.45907 68.08497 4.40353
42.057068 12.637971 9.534534
42.237064 14.348971 7.9235344
33.403065 19.590971 4.9025307
34.702065 21.458971 6.203533
49.888065 97.33197 21.156528
50.050064 95.57497 19.678532
39.669067 92.11197 21.062534
38.608067 90.65397 20.15253
17.083067 63.13297 18.537533
16.334068 63.69397 20.786533
10.843067 71.81297 17.150532
12.020067 70.51997 16.065533
25.357067 77.39297 4.5955315
23.228067 77.49397 3.2385292
30.624067 77.59597 52.75253
31.544067 79.52197 51.046528
57.457066 12.203971 36.11153
56.669067 13.632971 34.85553
64.77506 9.639971 28.577528
66.18507 9.751971 30.42253
42.870068 32.71797 31.04053
42.588066 30.25797 31.05353
34.622066 27.01197 30.718529
34.378067 28.390972 29.195528
34.156067 39.71997 18.68153
33.162067 37.93897 17.30553
31.314068 30.405972 12.451534
29.982067 29.062971 12.00153
34.125065 32.36997 40.61953
34.422066 32.91597 43.45953
35.695065 21.55697 43.83953
34.278065 21.35497 42.14453
59.357067 66.91297 44.54153
58.958065 67.33297 42.35753
57.168064 72.13997 46.37653
55.392067 73.39097 46.80253
16.409067 7.191971 33.46153
14.346066 8.615967 33.32153
14.184067 6.1819687 44.11453
12.999067 6.9759674 45.58653
18.111069 47.87497 17.429531
19.063068 49.224968 19.274532
15.654067 40.76397 26.651531
16.346067 39.93197 28.719532
52.953068 79.70997 56.887527
51.555065 81.01097 0.23252869
59.544067 85.19997 3.6285286
61.277065 84.93097 2.058529
56.219067 1.0299683 17.34653
57.053066 3.3629684 18.553532
63.243065 8.434967 8.688534
64.661064 8.8259735 10.295528
13.374067 33.48097 37.92553
11.649067 34.49097 37.26453
14.591067 38.279972 27.44953
14.934067 38.32597 25.32753
46.417065 55.38897 40.64753
45.624065 56.120968 38.900528
44.039066 54.37997 28.12653
44.092068 52.27097 27.198528
55.605064 68.80497 46.25153
56.454067 67.08297 44.935528
47.478065 63.72097 39.40653
47.929066 63.72997 37.11753
31.668068 32.54097 10.815533
33.067066 34.647972 10.914532
42.178066 33.46997 2.1355286
41.930065 34.03797 0.08652878
21.399069 50.40797 18.716534
21.828068 50.64697 20.977535
31.149069 50.68197 25.26453
31.865068 51.95797 26.954529
10.600067 102.71397 45.07853
9.096066 104.01697 44.04753
-1.3599329 98.71297 41.10753
-1.978933 96.70697 42.06253
28.963068 79.26297 31.64353
30.900068 81.06697 30.615528
21.666067 81.79497 36.393528
20.700068 79.52997 36.782528
60.817066 49.447968 33.449528
59.091064 49.84197 31.29753
49.985065 49.17497 38.26553
50.774067 49.76497 40.22453
30.621067 86.42797 3.0505295
29.436068 85.34397 4.735531
38.335068 90.48097 9.198536
39.331066 88.93097 10.082531
23.759068 98.19397 43.09453
25.409067 100.45497 42.87553
28.787067 1.8379669 39.80153
29.703068 0.26097107 41.49853
16.895067 19.502972 17.107533
16.288067 17.45597 17.90453
11.679067 21.94897 20.787533
9.998067 22.17897 22.506535
3.5540671 80.56597 13.808529
3.3370671 78.31297 13.150532
13.795067 80.24197 12.740536
15.054067 79.86997 14.227535
8.380067 82.01797 0.12453079
9.591067 81.14297 56.60453
17.108068 80.03497 5.367531
19.838068 80.56897 5.766529
40.442066 0.6479721 57.414528
42.199066 0.07697296 57.19153
42.680065 11.430971 52.95053
42.173065 12.296968 54.63853
56.552067 74.76097 40.80653
55.734066 77.04397 40.553528
47.297066 75.269966 42.78653
45.681065 76.02397 41.01053
25.551067 64.30597 2.6275291
23.695068 64.65297 3.9045296
19.778069 62.22997 10.593533
21.506067 63.05797 8.851536
15.220067 61.13297 44.47153
14.092067 58.80997 44.69053
18.530067 66.93797 41.997528
16.962069 67.392975 40.893528
7.7770667 55.65997 38.41353
6.261067 56.95097 37.67653
10.817067 59.95997 31.92553
12.849067 60.14097 31.160528
52.490067 14.361971 27.28353
51.902065 15.153971 25.23453
43.884068 20.52197 20.95053
44.267067 22.437971 21.121529
57.128067 65.26197 15.775532
55.786064 63.66897 17.035534
60.869064 52.61897 17.97453
58.749065 51.31397 17.859531
39.510067 101.46397 11.786533
40.353065 102.57397 12.97253
35.732067 101.020966 24.920528
35.024067 98.67997 24.77053
6.580067 73.20997 18.39053
5.190067 73.63697 20.369534
-0.026932925 66.15897 15.3835335
-0.71093297 64.02997 15.488529
41.381065 45.31797 30.014528
39.863068 46.56897 30.92953
40.304066 54.37997 22.344528
42.020065 52.43997 21.371529
54.316067 102.70597 46.09453
54.319065 100.45197 44.60953
51.584064 91.05197 51.35953
53.139065 88.908966 50.70353
47.478065 31.988972 26.873531
48.704067 32.07697 25.030529
46.627068 26.63297 17.109531
44.738068 24.735971 17.22453
63.367065 17.30097 44.622528
62.186066 15.957971 47.02953
58.870068 22.207972 41.43653
58.911064 23.55697 39.32653
43.017067 75.34697 56.04453
41.097065 73.66997 57.57253
48.304066 71.51197 7.948536
49.248066 72.975975 9.484531
29.281069 70.52097 50.78853
29.768068 68.41097 50.72653
33.630066 70.587975 3.8455315
34.675064 70.40297 1.2785301
18.492067 75.05097 52.67953
19.188068 74.63497 50.09553
27.624067 78.91897 49.34553
29.616068 79.29097 47.91753
57.784065 67.25097 17.811535
55.894066 67.58997 16.617535
49.134068 70.12497 25.44453
49.201065 72.73897 25.03553
15.657067 81.81997 29.48453
16.849068 83.19797 27.95353
21.876068 84.30897 36.86953
22.277067 83.87997 39.09253
20.714067 13.739971 48.70053
19.495068 15.914971 49.09553
16.080067 24.53397 44.90353
17.522068 24.24897 46.66553
45.244064 46.04197 25.996529
44.928066 43.74497 26.34953
46.991066 36.05597 24.819529
48.451065 34.34897 23.469528
15.411067 45.26497 3.839531
16.277067 45.12497 5.7255287
8.364067 46.17497 12.305531
7.083067 46.01297 10.018536
54.534065 16.222971 28.16553
54.352066 14.413973 29.152529
59.420067 4.4619675 31.84253
58.669067 1.7919693 32.28053
17.790068 4.010971 49.67053
16.971067 5.1649704 51.46453
14.058067 103.44397 57.36853
14.506067 102.13597 1.0055313
48.993065 86.02297 31.27953
50.475067 87.19297 29.50553
46.063065 96.26697 29.964529
46.930065 96.91397 27.98053
56.015064 48.849968 27.36653
55.557068 50.54897 25.76853
48.991066 58.98097 22.579529
50.637066 58.77997 21.073528
65.62707 61.085968 23.136532
63.676067 62.21597 22.220531
64.71007 64.337975 18.302532
64.82906 66.90197 17.867535
1.404067 88.53997 41.96553
0.044067055 88.73397 39.73553
2.6810672 81.61197 31.74053
3.5330672 79.66897 32.02953
30.625069 14.458971 30.28953
30.216068 16.67197 29.50553
33.052067 17.829971 40.53353
34.261066 18.80297 42.331528
31.515068 1.0049667 19.332531
30.604069 2.460968 18.892529
32.819065 103.33297 13.705532
34.491066 101.53097 13.693531
41.696068 11.1369705 50.11853
40.045067 10.705971 51.63553
34.500065 14.511971 43.90153
36.410065 15.517971 44.05053
-1.0519329 97.547966 26.656528
1.2830671 97.59097 26.97053
7.0790668 105.45597 25.06053
9.401067 106.87997 24.31053
54.539066 2.425972 19.15253
53.058067 1.1709671 17.908535
51.570065 11.853975 20.186535
53.587067 12.735971 19.790531
41.455067 101.76497 9.682529
41.714066 103.94497 9.1075325
47.119064 1.4959717 11.845531
45.513065 2.1229706 13.263531
49.436066 97.47097 2.8055305
50.353065 100.200966 3.0365295
48.097065 107.20197 55.15253
49.605064 2.0139694 54.75253
58.219067 51.45997 27.330528
57.457066 50.04197 29.221529
51.867065 59.44597 31.69553
51.677067 58.342968 29.393528
61.401066 85.33697 18.45353
61.031067 83.62297 20.253529
66.05607 82.17197 28.458529
0.08106232 82.21697 30.42953
43.257065 65.32897 37.061527
44.425064 67.03697 38.054527
44.249065 63.08397 49.14853
45.241066 65.02197 49.71853
25.698069 6.500971 11.420528
24.208067 6.019971 9.596531
23.198069 14.357971 7.624531
23.763067 16.635971 6.0655327
-0.10993293 7.9229736 24.64753
-0.28193292 7.1439667 22.587536
5.759067 3.3929672 13.5205345
5.576067 4.7859726 12.026531
46.031067 93.82797 48.15853
46.032066 95.70397 49.70353
45.856068 101.478966 41.66553
45.446068 101.16297 39.07353
13.487067 79.55797 44.10353
15.138067 80.07397 42.68953
24.553068 75.72097 40.92753
26.578068 75.92997 39.57153
32.425068 46.23597 39.93753
33.461067 47.22097 38.50753
45.457066 48.19897 39.19053
47.366066 49.28697 38.22853
50.405067 92.74497 33.574528
50.616066 92.41097 35.94753
54.069065 89.03697 44.18053
53.808067 88.63697 46.80053
9.271067 3.2719727 44.23153
10.733067 2.1539688 45.43753
8.220067 1.6999741 57.23653
6.017067 1.7049713 57.048527
32.395065 24.49097 29.64853
31.838068 26.338972 30.53653
25.217068 32.71597 25.615528
23.531069 33.79297 25.806528
8.426067 82.82497 28.06053
5.924067 83.91597 28.33153
11.631067 90.395966 20.09953
12.736067 91.85997 21.378529
34.229065 19.28897 1.3865318
35.084064 19.662971 57.428528
39.873066 23.79097 53.07053
37.520065 24.36597 54.26653
27.216068 98.81397 0.088531494
29.576067 99.81597 1.2275314
35.059067 99.97297 10.105534
35.130066 99.57797 11.939533
31.914068 20.357971 41.62453
31.183067 22.329971 42.21753
22.424068 24.385971 48.38953
20.252068 23.08597 47.67553
51.856068 6.322971 1.5865288
49.737064 7.803971 2.3905296
46.709064 16.991972 7.9235344
44.280067 16.696972 7.790531
8.888067 27.65797 54.942528
6.217067 27.42897 54.38553
7.541067 37.01297 54.80553
6.988067 38.77597 54.24453
29.795069 106.70297 29.011528
31.263067 0.4299698 27.733528
36.178066 103.89097 38.55153
34.945065 102.59697 38.76353
22.929068 25.79297 46.30453
21.563068 27.685972 46.32853
19.176067 31.758972 41.13453
19.813068 33.31097 39.21553
41.832066 36.69597 14.791531
42.426067 36.48097 12.532536
38.426067 27.102972 8.961529
38.221066 25.138971 9.322529
59.548065 19.721972 54.539528
59.333065 18.194971 56.428528
59.267067 5.6219707 53.88753
60.718067 4.440971 54.80553
14.083067 10.981974 43.89853
14.191067 9.148972 43.41553
19.331068 6.8419724 50.81853
17.899069 7.4529724 52.36553
34.502068 15.399971 13.1455345
33.796066 13.759971 13.198536
32.085068 7.775971 2.4915314
30.016068 6.636971 2.8675308
48.039066 89.07197 48.51453
48.419067 91.26497 47.82253
48.296066 84.23497 40.942528
48.958065 84.34497 38.616528
17.587069 7.107971 30.823528
18.782068 5.1679688 31.868528
19.017067 13.159975 37.04853
17.892067 14.2479725 35.48953
12.388067 66.26697 29.29053
13.388067 66.78497 30.965528
3.2870672 69.92497 36.304527
3.1030672 70.13597 39.074528
63.073067 72.91997 0.6475296
61.774067 74.42797 1.0355301
61.409065 68.62397 10.813534
61.854065 70.29097 12.474529
6.7110667 57.55697 40.442528
8.196067 59.25897 41.29053
13.151067 57.69297 32.42653
11.925067 55.981968 31.81153
55.233067 16.92597 13.946529
57.024067 17.905972 15.118534
55.847065 16.07797 24.733532
54.030067 17.120972 25.608532
33.458065 22.384972 56.796528
33.362064 23.981972 55.41353
29.490068 32.41797 52.65653
28.429068 31.015972 51.87353
4.2300673 61.76097 24.784529
2.2040672 62.85297 25.19353
9.467067 57.710968 30.87653
8.922067 56.01297 31.62253
42.388065 81.23797 17.839535
43.111065 78.71397 17.69553
44.807068 74.81897 9.97253
45.120068 72.88297 10.716534
23.867067 37.71497 57.70453
22.548067 39.439972 57.24353
15.193067 36.71997 6.075535
16.124067 35.44197 7.455532
62.511066 20.03697 55.29353
61.873066 21.40797 53.66153
63.718067 29.25097 4.4705315
64.72407 27.67497 6.4945335
0.6000671 77.72497 32.220528
0.3610671 75.42797 32.67053
2.074067 69.80097 27.357529
2.2930672 69.87797 24.733528
45.920067 72.08197 17.54353
48.482067 71.77997 17.115536
53.526066 78.99497 25.010529
52.920067 81.40297 24.832531
36.378067 22.398972 37.49253
38.054066 21.46997 39.262527
41.036064 32.60697 40.95053
41.118065 34.58197 41.70753
33.221066 104.95797 40.28453
34.689068 103.44297 41.27653
36.179066 105.25097 52.68053
37.639065 105.99797 53.97853
34.031067 71.44497 53.69753
32.853065 73.26497 54.24453
26.855068 72.58697 6.2685356
25.004068 73.31397 5.3165283
64.65407 57.45097 41.79553
65.03906 56.93297 44.10953
2.3690655 45.51597 43.30153
1.4500667 43.488968 41.88053
38.883064 36.77497 43.41153
39.076065 36.46597 41.39553
43.318066 44.759968 33.56453
44.838066 44.45997 32.58353
12.861067 46.148968 3.9675293
11.353067 46.60497 2.5595284
19.157068 54.47397 54.09153
20.273067 52.86697 54.92553
14.069067 41.58497 29.117529
13.670067 43.47097 29.837528
8.234067 49.90197 24.68253
7.486067 49.69497 22.75253
45.653065 60.620968 53.89553
45.400066 58.62597 54.85453
37.452065 57.56797 0.6705284
35.468067 56.40897 1.8365288
10.975067 60.74097 14.787533
10.008067 60.56097 16.717533
4.547067 65.52497 23.461529
6.404067 66.54997 24.913528
41.246067 64.46697 50.68953
42.096066 61.98397 50.20453
33.948067 60.044968 57.004528
31.780067 60.68697 56.985527
59.781067 87.74097 54.26753
58.070065 87.30697 56.54353
57.831066 75.60197 0.594532
56.486065 74.02897 1.8225288
15.222067 49.252968 35.78653
15.137067 51.78597 34.96153
6.1650667 52.10097 44.97053
7.656067 51.780968 46.37653
52.966064 91.28197 46.47853
50.508064 89.96897 46.40153
47.279064 96.05297 37.49553
48.991066 97.40097 39.07653
40.818066 34.13297 52.831528
41.830067 32.29097 51.66253
46.250065 30.981972 41.89553
47.111065 32.27097 39.38453
-3.1079328 57.044968 21.174534
-2.027933 55.10297 21.137531
7.815067 52.81197 14.269535
8.305067 53.64797 16.067532
62.938065 41.22397 14.434528
61.597065 41.36397 12.16753
57.508064 33.58397 9.037533
56.634068 31.38997 9.26553
46.512066 94.96797 3.436531
45.494064 96.66197 2.2095299
44.167065 105.21197 56.429527
43.141068 105.73897 54.935528
31.800068 35.10897 24.78653
33.410065 34.529972 25.74153
38.054066 43.204967 31.080528
40.427067 43.18997 31.40153
44.727066 8.899971 36.24353
46.159065 7.451973 34.66253
54.177067 12.968973 33.75353
54.202065 12.597971 36.10753
43.267067 86.94697 48.28353
43.668064 84.756966 48.93353
33.670067 84.35997 54.62453
33.684067 81.98297 55.23253
33.825066 101.94297 16.165531
33.429066 103.91297 16.048534
42.067066 103.23197 24.283531
41.186066 103.66597 26.686531
37.514065 58.86997 15.998531
35.671066 60.02697 16.79253
35.097065 66.92897 26.776531
35.893066 66.13597 28.415531
38.808067 103.26597 9.930531
37.017067 101.881966 10.110531
31.393068 3.8589706 8.704533
28.829067 3.7219696 9.63953
6.484067 24.69197 27.98453
5.475067 23.08097 28.02253
-3.4099329 26.05397 34.17553
-4.162933 23.49897 34.68853
29.444067 26.564972 16.69553
27.706068 27.794971 15.456532
21.366068 23.81097 7.021534
19.441069 24.98797 5.8315315
63.605064 56.592968 23.69953
63.268066 54.43697 24.06753
60.980064 51.50697 35.17353
58.677067 51.43297 35.116528
55.254066 2.460968 10.893536
57.535065 3.9009705 10.468533
64.161064 8.551971 14.578533
62.822067 10.008972 14.669529
55.373066 2.2439728 21.999529
54.613068 3.4039688 23.86653
49.533066 0.98596954 32.56853
50.182068 0.12097168 34.87153
63.628067 55.30797 57.09153
65.616066 56.41397 58.09853
55.513065 58.93497 6.3625298
55.059067 56.898968 7.660534
64.76607 86.29197 13.675533
63.587067 88.436966 12.993534
2.6970608 97.09697 10.672535
3.8290646 95.34597 11.041531
24.959068 37.300972 6.499531
24.043068 39.58797 7.104534
21.472069 44.17897 56.74453
20.930067 42.426968 57.46153
38.049065 71.55497 6.8855324
36.911064 69.392975 7.802532
43.459064 63.13197 7.448536
43.824066 60.79997 6.9135323
43.241066 39.88897 32.22353
41.159065 38.91997 30.65753
47.014065 30.65397 36.95153
48.036064 29.79297 35.11353
13.662066 33.82497 10.453533
15.111067 32.33097 10.957531
18.546068 24.749971 11.479534
16.200068 24.773972 11.231533
47.326065 95.40797 34.45253
48.118065 93.83697 35.86753
36.280067 90.59197 33.89653
36.435066 91.77697 31.84853
44.371067 22.21697 17.712536
45.440067 22.239971 16.11153
36.954067 21.090971 10.30653
35.173065 19.92597 9.844532
20.222069 55.98397 1.0655289
19.378067 58.02097 2.0045319
13.477067 61.13997 11.593533
15.167067 62.67297 11.446529
59.746067 17.089972 40.706528
61.147064 16.513971 42.28153
57.868065 6.564971 48.27853
57.456066 5.8579707 46.37053
50.119064 82.03697 39.63853
50.913067 80.72197 37.78853
48.781067 70.19497 34.15553
50.406067 69.35597 35.55253
55.417065 80.97197 36.40353
54.075066 79.80697 36.33053
47.029064 74.06997 39.247528
47.876064 72.03097 38.01053
32.096066 47.00797 55.94053
32.907066 47.502968 0.090530396
25.052069 38.52497 1.8125305
23.156069 40.12097 1.7315292
65.15707 48.23797 8.253529
65.09907 47.405968 6.2285347
65.852066 37.97397 0.59152985
66.22107 35.67297 1.5005302
39.419067 101.69197 39.63353
37.184067 101.40297 39.31853
29.355068 99.520966 30.729528
27.752068 100.99897 31.93853
29.914068 24.67797 40.63753
28.562067 26.41097 40.88253
31.474068 36.44497 44.17453
32.996067 36.19797 45.47053
5.512067 32.76797 19.193531
3.3000672 32.75597 18.521534
2.2570672 22.69597 18.067532
3.7570672 23.98397 18.692532
11.377067 59.39297 18.95853
9.130067 59.36697 19.37453
6.284067 52.20697 27.697529
7.095067 52.42897 25.476532
44.527065 14.916971 56.845528
45.085068 14.894971 0.9845314
39.953068 21.32797 8.268536
38.005066 21.76497 7.785534
52.015064 87.98197 31.66553
54.009068 88.76897 30.653528
49.788067 88.79297 20.214529
50.927067 90.25897 18.316528
57.336067 4.8039703 50.76453
58.470066 6.871971 51.18253
49.246067 4.994972 54.23953
