4.7985306 21.77629 9.559807
6.9455338 21.308289 8.225807
31.060534 109.35929 24.890812
31.808533 109.19329 22.711813
40.06753 108.586296 32.604813
41.420532 107.0443 31.634813
22.68753 76.962296 51.934814
23.344536 75.2883 50.528812
22.126534 71.89729 40.325813
21.68953 69.838295 41.138813
15.080536 49.630295 0.24881363
14.157532 47.826298 60.220814
6.6445312 44.614296 55.744812
8.130531 43.485294 54.726814
28.324533 93.5973 36.07881
28.658533 91.962296 34.263813
23.794533 98.66029 27.993813
23.036533 100.461296 26.583813
49.13153 105.02329 48.695812
47.905533 106.505295 49.869812
54.63653 109.80329 56.24581
53.465534 108.1103 57.276814
8.253532 55.824295 60.50981
8.095535 53.680294 59.735813
12.967529 45.823296 56.339813
15.330536 45.358295 56.652813
56.825535 15.581299 51.535812
58.569534 17.185303 51.799812
2.5045357 18.87529 41.305813
1.3655357 19.011292 39.82181
41.611534 85.3333 43.31481
41.744534 83.0943 44.90781
33.336533 88.825294 45.519814
33.212532 89.46629 43.355812
27.457533 12.658295 3.9108124
25.752533 14.068291 4.948807
31.212532 25.29129 6.2268066
31.682533 24.88829 8.410812
27.282536 77.00929 19.785812
26.564533 79.1413 19.949812
18.514534 84.477295 25.273813
18.602531 84.84229 27.390812
1.5825348 78.336296 30.469812
2.9905357 77.2073 32.12081
8.404533 89.07829 32.64381
10.907532 88.2353 33.131813
28.570532 96.572296 31.388813
30.561533 95.4453 30.754812
40.865532 98.8583 29.461813
40.681534 101.46729 30.146812
28.661533 111.38629 44.21181
28.147533 111.5303 46.08581
36.341534 101.0663 48.062813
37.472534 101.729294 50.16881
6.4655304 67.395294 14.111813
7.6245346 66.71929 15.905813
14.518532 58.898296 15.454813
16.14753 60.204296 14.402813
30.141533 42.929295 45.234814
31.520533 43.746296 43.944813
35.169533 53.283295 47.492813
34.90753 55.215298 48.417812
9.570534 102.3463 12.241813
9.692535 102.770294 14.396812
5.8805313 100.3293 17.398813
4.870529 98.9873 16.095814
44.594532 61.684296 0.64681244
46.58253 62.797295 1.6688118
54.368534 66.63329 3.0238113
52.503532 67.96729 4.10981
19.554535 67.84129 19.105812
18.505531 66.38329 18.199814
12.711533 62.237297 24.142813
13.13353 64.5853 25.133812
30.177532 37.772293 15.991814
32.064533 38.1053 15.17181
33.853535 30.296295 6.925812
33.996532 31.756302 5.434807
3.8585358 35.02829 16.618813
3.9635353 33.88829 18.983812
8.117531 30.9113 23.818813
8.864532 30.617294 25.851812
9.310532 96.8053 14.906813
10.623535 96.950294 13.589813
14.655533 102.0003 22.997812
14.608536 103.283295 21.562813
57.138535 80.143295 29.111813
57.109535 78.9733 31.077812
52.340534 71.811295 32.465813
52.287533 70.2793 31.035812
54.732533 87.6403 45.87981
54.148533 86.684296 48.503815
5.526535 91.9283 46.16281
5.936531 93.322296 48.123814
48.183533 100.4173 10.954811
47.51353 100.6643 8.876808
46.820534 105.462296 1.2008133
47.069534 106.66129 60.031815
16.116531 90.4833 2.6988106
13.894531 90.70329 1.1658134
2.8835335 87.5943 59.053814
3.764534 89.4453 0.06081009
54.509533 6.8532944 53.718815
55.28353 4.2792892 53.982815
45.197533 111.41429 52.78781
43.819534 111.672295 50.833813
24.459534 13.80529 10.716812
24.009533 11.581291 10.880814
23.02053 2.7682953 13.558807
22.057533 2.3552933 15.416813
45.229534 53.058296 42.484814
45.411533 51.928295 44.436813
56.922535 48.172295 45.095814
58.19953 49.038296 43.01181
28.138533 70.1663 51.924812
29.265533 69.5133 50.038815
31.936533 60.911297 57.011814
31.238533 63.026295 58.297813
51.732533 96.95329 14.252808
51.74153 94.576294 14.441811
55.183533 86.49429 11.354813
54.82453 84.8603 12.313812
44.65053 81.0423 44.56581
44.342533 83.43929 44.367813
52.906532 82.7663 37.01181
54.38053 83.98029 37.236813
40.180534 106.76229 8.772812
41.47153 106.062294 7.1608124
40.837532 111.879295 57.007812
43.217533 0.3272934 56.845814
6.4795303 58.884296 2.8028107
4.623535 60.241295 3.605812
12.330536 65.8493 11.548813
14.343536 65.7063 12.611809
26.654533 100.78529 14.098813
28.482533 100.5543 15.329813
22.653532 98.5693 23.028812
23.658533 96.75929 22.758812
59.305534 49.456295 6.6068115
0.9515343 50.077297 5.088806
2.7935333 56.431297 57.27981
4.542534 57.415295 57.129814
1.2295341 70.05129 56.768814
0.33553314 71.5013 57.346813
55.733532 66.26029 51.140812
53.98453 66.46629 49.282814
16.720535 82.0833 35.63581
17.99253 82.4563 37.514812
28.093533 82.5003 36.44781
29.695538 80.4463 37.514812
19.29853 70.2203 20.796812
21.292534 69.50829 20.783813
19.00653 75.6653 29.693813
17.81453 76.1903 27.710814
45.858532 96.3883 39.708813
45.420532 96.7653 41.730812
49.57453 94.1623 52.90481
50.17353 92.11829 52.581814
13.496536 104.644295 28.607813
13.905533 106.1403 27.702812
16.982536 2.911293 33.084812
17.22853 2.9322891 35.006813
40.773533 76.8493 26.598812
40.017532 75.0943 28.129812
31.100533 74.881294 21.826813
28.705532 75.3483 22.229813
4.7865295 13.455292 58.740814
6.905533 13.686295 60.049812
1.2605362 6.2232895 7.7408066
1.3485336 4.342293 6.753807
30.945532 41.583294 14.528809
29.177532 43.040295 14.174812
26.086533 47.432297 10.253807
27.680532 47.818295 8.846809
48.717533 107.77429 7.2558136
50.515533 106.21929 8.110809
51.063534 99.6953 13.542809
52.940533 99.74429 15.179813
37.305534 70.448296 41.50981
39.420532 70.66329 41.83681
44.238533 65.7213 32.44081
44.891533 63.348297 32.369812
46.079533 78.379295 7.432808
48.114532 78.53529 8.408813
45.058533 68.8893 11.170807
45.45753 66.66329 12.708809
12.75753 87.102295 24.626812
13.653534 89.5163 25.295813
19.15953 97.7093 22.290813
20.740532 96.2923 23.183813
27.709532 59.821297 24.070812
29.799532 59.233295 24.409813
38.981533 57.783295 23.910812
40.236534 56.567295 25.019812
3.7795334 56.272297 44.10681
1.8135338 55.410297 42.686813
7.835533 45.488297 41.35681
5.847534 43.868298 41.159813
3.514534 105.09229 6.6228104
3.422535 104.64929 8.411812
54.976532 110.074295 11.282806
52.514534 110.49729 10.306808
14.678535 60.950294 51.615814
16.406532 61.191296 50.423813
26.449535 68.477295 50.604813
27.842533 66.3863 51.230812
34.659534 9.610291 43.311813
32.586533 9.005295 44.86481
30.623533 21.789291 45.355812
32.566532 22.356293 43.847813
54.90853 105.715294 39.89381
55.53953 106.05329 37.998814
50.329533 2.2542953 36.80781
51.524532 3.4972916 38.50381
39.27653 18.938293 41.21081
40.876534 20.0383 41.13481
39.562534 27.611298 34.59381
38.132534 28.864288 34.123814
23.582535 71.6503 13.101807
25.224533 70.5693 11.17981
18.55053 66.643295 4.24881
17.038536 67.2913 2.8968124
38.240532 101.5413 4.339813
38.669533 101.9313 1.8968124
34.663532 0.37728882 1.7058105
33.195534 0.5792923 3.1258125
43.871532 66.3753 29.733812
45.229534 65.0993 29.946812
46.274532 54.465298 25.104813
48.17953 54.065296 23.109812
7.7375336 69.99329 3.8418121
5.7415314 70.742294 2.9088135
2.0565338 80.70329 0.83481216
0.22553635 79.6243 1.3658104
28.848534 104.52229 40.22681
30.532534 105.99629 41.43381
27.245533 3.2532883 35.23281
25.063532 2.1682892 35.520813
55.396534 106.3903 19.722813
53.398533 105.172295 20.536814
3.7925339 102.352295 24.148813
4.9445343 104.1803 23.586813
13.178535 27.170288 53.347813
13.325531 27.8573 51.444813
4.631531 30.608292 45.25281
2.7275352 29.599289 45.90481
1.7785339 78.50829 7.341812
4.1975327 79.0393 8.312813
9.364532 75.4013 3.5738068
10.89753 76.34229 2.291813
7.2985306 110.297295 36.173813
8.519531 107.92929 35.458813
59.116535 107.8743 27.254812
0.27453613 107.0283 25.737812
21.003532 108.75729 39.485813
20.565536 106.575294 39.178814
10.806534 100.1133 41.34281
10.316536 101.949295 42.834812
8.298531 64.728294 22.992813
9.005531 65.1643 25.319813
10.72953 67.281296 13.927813
12.714531 68.28529 13.184813
58.283535 85.392296 22.201813
57.186535 83.6793 22.282812
2.1805344 76.24329 18.736813
0.4465332 74.1683 19.434813
36.601532 83.087296 4.050812
38.00553 81.740295 3.6798096
42.619534 77.24429 54.103813
44.24953 77.0793 56.211815
22.044533 21.994293 44.94681
23.528534 21.710297 46.65481
24.886536 12.255295 42.556812
22.774536 12.893295 40.96781
22.682533 63.075294 53.547813
22.264532 63.027294 56.063812
29.587532 70.1543 58.053814
28.929533 72.0843 56.93981
36.049534 60.409294 8.349808
35.265533 58.337296 6.948807
36.88653 50.170296 3.5648117
35.205532 51.633297 3.006813
52.15253 90.70229 54.08581
53.70653 90.7243 52.23181
54.00453 80.144295 54.02281
55.23553 78.7183 54.902813
2.7875366 34.8403 60.715813
4.413536 34.782303 59.262814
59.066532 34.462296 51.692814
57.371532 33.4093 52.18381
5.7295303 31.697296 29.468813
4.240532 32.272293 30.927813
54.75653 31.780289 33.18381
54.54853 34.270294 32.94081
47.59553 24.783295 23.014812
47.50553 22.327301 23.984812
51.32553 20.630295 14.350813
52.844532 19.979294 14.972813
6.254532 85.254295 50.185814
5.35553 83.729294 51.063812
0.81853485 74.9543 44.945812
1.481533 74.018295 46.805813
2.8275337 62.378296 35.506813
3.8275337 64.4333 35.487812
6.9235306 64.7333 29.102812
7.603531 63.191296 28.088812
0.15253448 83.520294 0.68081284
1.8845329 83.2193 60.674812
2.6035347 77.7513 49.79381
4.639534 77.671295 51.396812
45.71453 49.671295 4.323807
45.551533 51.747295 3.9338074
42.696533 54.035297 56.496815
42.174534 56.044296 55.442814
54.77053 24.546295 60.55781
56.189533 26.170288 59.184814
1.8675346 26.272293 1.3328133
3.4625359 28.2603 0.30381012
54.62953 111.1803 58.442814
52.455532 110.4573 58.868813
42.89453 5.159294 58.79381
43.710533 6.9382935 57.64181
31.234533 2.4812927 10.747813
32.877533 3.946289 11.925813
24.951532 0.14629364 19.253813
23.253532 1.6142883 19.089813
21.398533 93.50729 57.07881
20.887533 95.034294 56.081814
28.802532 98.7073 3.4678116
30.671534 99.227295 2.612812
25.838535 87.0273 14.836813
24.746536 85.6503 13.935813
11.791534 86.3293 16.040813
12.592529 86.5013 14.128813
59.193535 100.13429 49.383812
56.716534 100.2373 48.806812
48.79153 102.6813 50.458813
47.333534 101.351295 50.491814
47.355534 38.268295 42.957813
47.930534 39.576294 45.35681
51.77053 38.6053 54.107815
52.065533 40.59829 53.30181
54.327534 4.5532913 58.070812
53.42153 5.2022934 55.972813
45.03453 111.16129 55.784813
43.14553 109.812294 55.67581
26.105534 93.657295 51.506813
27.582535 91.8173 52.020813
19.079536 84.3073 54.485813
17.861534 84.698296 56.128815
1.8055344 20.44629 12.774811
2.5865364 21.354294 11.20681
58.945534 25.82129 3.112812
57.066532 24.830292 1.5398102
54.24953 59.136295 55.320812
56.239532 58.299297 54.177814
50.278534 64.9443 46.303814
51.134533 66.448296 44.660812
42.57453 88.7083 39.832813
43.07553 89.340294 42.324814
37.286533 89.7203 52.65581
35.119534 91.1793 52.948814
45.292534 23.810303 26.065813
45.462532 21.686295 25.068813
38.927532 17.451294 17.002813
39.948532 16.955292 14.995813
15.990532 15.845291 48.959812
14.246536 17.052292 47.53781
21.954536 18.19429 41.723812
23.890533 17.889297 42.367813
1.283535 11.279289 58.402813
2.2145348 9.360291 59.200813
52.25453 5.057289 2.902813
51.58153 4.9042892 0.857811
45.829533 75.4683 59.177814
44.51953 76.0653 0.18481064
45.509533 65.5533 0.8638115
47.334534 66.225296 1.31781
54.61753 23.224289 34.632812
55.475533 25.118301 34.597813
4.101536 29.627289 31.244814
5.599533 28.845291 29.440813
1.3865356 35.908295 17.306812
58.168533 35.156296 17.863811
59.516533 33.101288 10.327812
59.579533 32.8183 12.682808
49.016533 23.532303 42.431812
46.820534 22.4413 42.574814
49.841534 23.239288 54.309814
49.586533 25.4003 55.292812
48.76153 56.974297 28.996813
49.190533 56.759296 26.097813
47.953533 65.9863 25.117813
46.15153 64.979294 24.044813
19.729532 10.66729 26.050812
19.859533 11.0372925 28.873812
28.076532 9.607292 33.64881
29.556532 7.7022934 33.449814
18.60653 83.1373 7.557808
19.78453 83.3443 5.270813
12.107536 75.3993 60.11381
12.575531 74.8613 57.797813
2.788536 76.2493 41.825813
2.8055344 75.89729 39.73281
54.896534 81.7463 34.986813
55.243534 80.70229 33.235813
52.628532 37.4373 21.962812
50.087532 37.6633 21.124813
41.170532 39.649292 27.896812
40.67853 38.3143 28.849813
17.429535 31.9133 21.962812
19.649536 31.0793 22.114813
25.667534 24.44629 23.220812
26.159534 24.600296 20.764812
33.61653 100.5563 44.174812
32.042534 102.2233 44.699814
25.044533 93.07729 48.845814
26.157532 91.4133 49.623814
38.49753 49.464294 42.15481
36.885532 51.119297 42.26181
36.862534 47.666294 53.702812
38.86653 47.636295 54.52281
30.076532 68.7903 24.033813
29.571533 70.6243 22.222813
25.768532 70.6503 14.629813
26.651533 71.8463 13.032813
13.566536 57.017296 17.271812
15.266533 57.195297 18.222813
12.100533 55.136295 25.714813
10.958534 53.694298 24.154812
56.821533 3.8072891 36.598812
58.159534 1.9462891 36.48981
0.16453552 110.961296 25.875813
2.4575348 110.643295 26.597813
30.969532 12.0492935 30.675812
31.942533 10.637291 31.540813
40.980534 5.05529 25.464813
40.286533 6.244293 23.283813
52.82553 97.4413 16.726812
54.813534 98.269295 16.958813
1.6315346 98.090294 19.833813
3.028534 98.783295 21.461813
22.392532 52.984295 29.604813
21.276533 50.934296 29.786812
27.023533 51.664295 39.515812
28.093533 52.637295 40.832813
9.635536 102.798294 56.63481
8.839531 104.451294 55.267815
2.8675346 108.82729 55.431812
0.7025337 108.670296 55.386814
51.95653 70.9573 39.89381
53.264534 72.644295 40.727814
1.5585365 74.29929 34.58081
1.9695358 76.339294 34.43981
40.705532 103.71729 36.213814
42.080532 104.603294 34.590813
52.640533 103.62029 35.577812
53.335533 103.838295 33.290813
1.2105331 80.892296 32.03681
59.675533 82.36929 31.529814
6.5765305 92.323296 32.609814
7.5225296 91.865295 34.40781
23.830536 58.041294 4.536812
21.542534 58.835297 3.871811
18.180534 47.319294 1.7748108
17.441536 48.121296 60.197815
21.84253 37.940292 35.60181
22.642532 35.84929 35.79581
19.14553 33.58429 25.256813
21.665535 33.6313 24.183813
43.20753 16.999298 41.576813
43.306534 19.218292 40.750813
40.24253 19.361298 52.605812
42.037533 18.086288 53.758812
36.794533 58.704296 21.084812
37.368534 57.087296 19.318813
35.411533 49.776295 27.501812
33.382534 50.020294 29.389812
22.582533 101.489296 40.383812
24.439533 101.1963 40.659813
27.069532 98.5013 52.556812
26.504532 96.576294 53.212814
11.448532 9.980293 44.04581
10.381531 8.942291 42.82181
9.392532 0.16429138 48.769814
10.74453 0.20529175 50.832813
23.297531 91.685295 39.10081
24.738533 92.9583 38.48981
23.03653 103.380295 38.334812
22.679535 105.5153 37.979813
4.3805313 9.57029 57.223812
6.018532 11.048294 56.94681
12.209534 18.088303 50.088814
13.606529 16.59729 50.28781
40.453533 31.414291 52.43981
38.74153 30.427292 53.64881
34.542534 37.2323 60.694813
35.384533 39.2863 60.510815
5.41053 74.66129 41.17781
7.101532 75.4273 42.21181
18.061531 72.75929 40.12981
20.05053 73.8153 39.209812
20.15953 2.5792923 20.696814
21.991531 3.5932922 20.525812
16.501534 11.309288 14.055813
15.149536 11.894295 12.966813
35.662533 43.076294 9.40181
33.815533 42.09629 7.91481
35.69353 32.087296 3.4318085
34.88753 32.5513 0.8038101
10.329536 33.1913 28.898813
10.9635315 31.333298 28.461813
19.38253 26.55429 32.44781
19.41053 28.02629 34.075813
51.897533 72.490295 43.325813
50.836533 74.5513 42.688812
46.952534 83.3043 48.876812
45.286533 83.826294 47.618813
59.617535 49.373295 45.583813
58.62953 47.458294 47.44681
2.7615356 37.160297 42.03781
2.804535 37.741295 39.653812
33.20653 102.7873 2.6378136
30.756533 102.7483 1.6098099
31.397533 94.3323 55.409813
33.006535 93.59129 54.26681
15.878532 45.831295 12.8828125
14.824532 47.956295 11.802811
21.448532 43.027294 6.23481
19.74453 41.874294 4.6138077
36.31053 72.214294 6.607811
37.605534 70.99429 7.6228104
34.204533 66.046295 9.635811
33.702534 63.943295 9.23381
14.27153 110.965294 6.9558105
14.058533 0.074295044 5.8868103
23.488533 6.6552887 4.42881
22.38253 7.1442947 2.6898117
15.992531 53.363297 50.632812
17.462532 54.639297 49.78681
23.89553 49.976295 41.250813
24.362534 51.927296 40.05881
4.054535 70.367294 55.088814
5.245529 69.46929 53.23181
55.940533 66.3053 46.75281
54.799534 68.7073 46.62081
50.334534 44.284294 18.00381
50.72053 46.742294 17.159813
0.7005348 48.511295 9.59581
1.6305351 50.327297 10.216812
39.17853 0.8712921 35.91181
40.72153 0.5922928 34.25481
33.904533 6.0702896 25.833813
33.864532 8.1622925 25.827812
59.365532 17.02629 39.16381
57.450535 16.9673 39.535812
48.753532 21.994293 39.855812
47.403534 20.387299 41.172813
0.5585365 102.4463 51.871815
0.32953644 102.6543 49.737812
12.656532 104.533295 48.623814
11.419533 105.28829 47.137814
23.952532 66.5983 17.772814
24.479532 67.2893 19.970814
30.864532 63.498295 29.765812
31.010532 64.172295 31.550814
48.822533 40.674297 42.443813
50.294533 41.649296 41.42581
42.688534 49.032295 43.46781
40.13053 48.194298 43.90581
34.987534 19.5663 2.3398132
36.160534 18.225296 1.2598114
43.17253 20.106293 58.659813
44.17253 21.9003 57.137814
43.969532 111.7913 31.666813
43.23453 0.5562897 32.602814
41.932533 12.757294 32.674812
42.15053 14.617294 30.966812
26.095533 84.98029 10.202812
23.767532 86.0933 10.972809
25.853533 98.7073 12.4058075
25.194532 98.3623 14.461807
34.962532 41.558296 55.501812
37.302532 42.305294 55.452812
36.983532 45.080296 55.570812
35.458534 43.919296 54.674812
8.637535 108.70329 53.890812
7.7635345 111.0823 54.44681
5.88253 7.26429 57.612812
4.391533 7.671295 59.987812
22.791534 0.074295044 13.541809
24.104534 110.95529 14.002808
16.17353 109.367294 9.269814
13.60453 108.697296 8.62281
31.746532 43.014297 12.361809
32.349533 42.027294 10.590813
21.152533 41.712296 8.495811
19.072533 41.249294 9.707809
54.653534 24.18129 45.278812
55.413532 26.200302 46.339813
52.224533 21.490295 55.241814
52.32553 21.673294 57.421814
19.792534 58.265297 51.263813
19.05053 60.097294 50.65481
23.49553 60.114296 40.970814
24.848534 58.207294 39.993813
0.32053375 110.52229 40.44181
2.5445366 109.797295 40.83681
10.63353 5.609291 36.57281
8.831535 7.479294 38.082813
44.055534 8.053291 10.807808
46.12453 6.8742905 10.949806
54.939533 6.2112885 13.881813
57.12253 5.201294 13.173813
27.242533 80.6933 16.991814
28.418533 78.74429 17.632812
34.426533 73.1543 8.334808
33.594532 73.41029 6.6868134
40.758533 17.481293 5.5358124
40.195534 15.573288 3.732811
43.93553 9.991295 8.412811
44.545532 12.004295 8.321808
15.426537 87.09229 42.104813
13.662537 85.8473 43.51881
15.866531 81.4963 52.670815
18.255531 80.8153 53.511814
2.9305344 2.4902878 27.320812
2.5555344 3.4782944 25.084812
2.3205338 9.185295 19.325813
4.0885353 10.073288 20.054813
10.600533 47.497295 26.571812
10.071533 45.472294 25.149813
14.919533 47.802296 15.0408125
15.09053 49.816296 14.690813
57.376534 5.340294 57.506813
55.63053 6.562294 56.520813
3.7305336 16.613297 54.388813
5.3885345 17.11229 55.006813
34.075535 10.066292 39.77281
33.627533 7.95829 41.248814
24.982533 4.6722946 34.296814
25.267532 5.58329 32.37981
23.28653 84.9863 30.696812
21.208534 84.57829 30.148813
21.863533 96.3633 27.098812
20.191536 98.0283 25.533813
30.864532 38.7433 43.944813
30.737534 40.257294 45.234814
31.797533 40.56829 52.218815
33.04653 39.0363 53.563812
17.054535 62.312294 56.104813
18.169533 61.144295 57.667812
21.24553 61.821297 58.961815
19.755531 62.465294 60.354813
28.164534 53.320297 9.940811
27.930532 51.248295 9.545807
29.548532 56.833294 59.053814
27.819532 55.582294 58.35681
1.8215332 57.864296 35.62881
1.7175331 56.468296 33.56681
8.672531 54.975296 25.576813
9.736534 54.642296 27.136812
21.088533 10.045288 38.845814
22.495533 9.593292 37.193813
28.335533 4.179291 45.993813
29.685534 4.7112885 47.55781
48.89353 104.09529 19.286814
46.82453 105.39729 19.318813
42.361534 2.2032928 15.309813
40.306534 2.7892914 13.247813
30.551533 110.3763 3.7618103
29.010532 108.66529 3.6138077
22.081533 101.9443 11.313812
23.034533 99.961296 9.816811
46.601532 4.5032883 41.29381
44.468533 4.421295 42.15681
42.021534 110.85529 33.945812
40.473534 110.2243 34.78881
30.280533 77.8163 21.927813
29.337532 78.048294 23.741812
37.180534 81.7523 19.046812
38.964535 81.461296 19.214813
6.370529 90.8773 49.285812
5.707535 88.8033 49.936813
2.9785347 81.42429 40.310814
1.8875351 79.170296 40.251812
18.95253 61.468296 7.4678116
17.449532 62.282295 6.7508087
13.185532 68.88429 4.6818085
11.043533 70.10729 5.184807
36.008533 17.81929 4.423813
34.015533 16.1893 3.7118073
40.141533 16.18129 12.251808
42.369534 16.3573 12.825813
36.78253 57.552296 29.458813
35.94353 55.915295 30.725813
29.746532 47.813297 31.027813
27.472532 48.048294 29.860813
43.488533 92.9303 13.175813
43.56753 94.062294 15.2248125
40.286533 100.561295 22.973812
38.371532 102.351295 23.144812
20.47853 94.519295 46.769814
20.63253 94.54929 44.521812
16.569534 99.1633 34.757812
16.68953 101.394295 35.60181
47.461533 45.204296 53.90581
45.427532 46.271297 53.844814
51.698532 54.356297 1.0318108
50.01153 55.997295 0.24681091
9.067535 56.387295 18.680813
6.7775345 56.818295 19.372812
56.686535 54.700294 13.197813
57.425533 52.579296 13.955812
12.986534 22.831299 9.23481
14.097534 20.450302 9.830811
23.974533 19.310303 12.04081
24.293533 17.07129 11.658813
31.396532 60.601295 30.109812
33.037533 62.440296 31.368813
31.674532 53.351295 40.360813
33.939533 52.916294 40.167812
55.01853 71.41129 27.101812
53.27753 71.6553 28.127813
50.01153 77.8603 18.226812
49.100533 75.975296 17.025812
56.994534 12.571289 50.07881
56.31053 10.642288 48.91181
1.2885361 1.5182953 47.97481
3.0775337 0.7912903 46.99581
39.216534 85.617294 42.230812
38.795532 83.5683 41.140812
30.627533 88.004295 42.921814
28.709532 87.46729 41.868813
12.274536 74.9993 54.50281
11.870529 75.6503 52.46781
5.413536 76.0103 44.171814
3.752533 74.408295 43.917812
39.049534 112.144295 8.674812
39.904533 1.0472946 9.59581
50.22853 109.4743 9.305809
50.774532 108.229294 10.573807
18.349533 38.409294 54.818813
18.88453 40.662296 54.01681
27.144535 42.338295 46.25981
28.288532 44.408295 46.546814
37.14353 13.07029 37.14881
36.802532 11.842293 39.284813
43.205532 14.589294 42.84381
43.572533 15.016289 45.21881
17.778534 54.054295 36.43281
15.886536 55.284294 35.164814
24.014534 56.304295 28.695812
23.623535 56.561295 26.678812
22.141533 108.408295 58.92681
21.700531 108.312294 56.476814
15.442535 103.3303 58.027813
13.906532 101.8633 57.285812
6.524536 69.644295 56.192814
8.473534 69.8633 54.711815
11.555534 61.885296 46.52381
11.366531 63.047295 44.290813
8.670532 41.930294 38.811813
7.3955307 42.422295 36.93481
8.186531 51.817295 28.807812
10.778534 50.928295 27.863813
16.039536 42.758297 52.68381
15.680534 43.909294 50.450813
23.783531 45.156296 43.78781
24.299534 47.681297 43.292812
53.461533 95.20329 29.823812
51.14353 93.3063 29.635813
51.24853 87.4683 21.883812
51.766533 86.6553 19.500813
13.718536 110.991295 11.338806
15.515533 111.93929 10.406807
14.264534 10.40229 8.808807
12.513535 10.785294 7.2628098
5.446533 106.976295 25.012812
7.137535 106.781296 23.436813
16.17453 2.8672943 19.972813
14.570534 4.505295 19.523813
5.2415314 35.832294 45.576813
3.177536 35.378296 46.639812
4.774536 43.345295 54.135815
4.851532 45.621296 54.262814
43.147533 71.4993 26.773813
43.191532 69.462296 27.786812
33.01153 65.671295 30.295813
32.792534 64.769295 27.750813
44.049534 85.7523 42.22481
44.410534 83.99329 41.56581
45.944534 79.5303 31.728813
46.495533 77.4683 31.736813
38.994534 11.665291 33.12181
37.383533 9.789291 33.48881
44.06153 3.1642914 33.86381
46.007534 2.599289 35.18381
22.66153 108.40129 25.416813
22.21553 107.726295 27.297813
24.252533 4.171295 21.958813
24.703533 1.6102905 21.645813
13.60553 75.2183 26.285812
14.232536 73.7093 24.651814
5.256531 74.575294 19.438812
3.5605354 73.753296 19.431812
25.526533 9.573288 22.585814
26.517532 7.9002914 20.852814
30.169533 110.19329 20.640812
31.178534 110.83129 18.056812
41.96353 4.6202927 48.324814
43.260532 5.647293 50.37781
51.67853 7.2612915 55.151814
52.335533 8.983292 53.500813
10.816536 70.590294 47.962814
9.972534 72.3603 49.329815
9.019531 74.504295 44.361813
8.862534 73.6653 46.85681
27.172533 89.2613 14.286812
29.246532 88.5003 15.745811
35.667534 96.2363 7.855812
36.374535 94.4133 5.8488083
16.713531 89.1913 28.062813
17.04953 89.629295 25.736813
14.074532 101.753296 25.676813
12.426537 102.8063 27.006813
36.750534 8.336288 45.55181
37.809532 7.116295 44.40081
45.562534 12.19429 37.58781
45.426533 12.212288 35.617813
58.27553 60.516296 10.173813
56.281532 60.507294 10.621813
57.686535 54.353294 18.265814
57.594532 51.984295 17.122812
20.54953 107.4593 0.21181107
22.17553 107.29929 1.2988129
18.56253 100.8983 8.847809
20.24453 99.3913 8.739807
46.30453 50.138294 18.535812
45.40053 51.818295 19.030813
41.418533 57.284294 16.230812
41.133533 59.535294 15.181813
55.049534 18.177292 16.530813
55.760532 19.158295 18.302813
0.08853531 9.01329 26.460814
59.369534 10.380295 28.425812
26.614532 44.730297 44.209812
27.788532 42.973297 43.354813
33.832535 50.272297 36.326813
33.101532 52.300297 35.701813
35.823532 106.533295 20.017813
36.402534 108.378296 21.452812
37.462532 109.92729 11.147813
39.729534 110.04929 10.178813
24.430532 89.6253 6.746811
23.477533 88.46729 4.4228134
24.803532 98.671295 6.779808
26.576532 98.1523 7.5128098
24.074533 28.606293 2.2508125
25.305532 30.164291 1.8458099
22.936533 38.80829 8.7578125
23.432533 40.604294 7.392807
29.681532 32.667297 16.41381
28.661533 30.606293 16.125813
29.771532 32.7433 4.434807
27.957533 31.674301 3.0848122
28.497532 94.739296 52.603813
30.231533 93.0243 52.650814
31.921534 87.366295 54.333813
32.953533 88.99429 55.694813
9.782532 61.902294 25.680813
11.11953 60.016296 25.008812
15.487534 51.878296 28.617813
13.309532 50.360294 29.019812
25.266533 25.505295 39.714813
24.101536 26.0103 37.442814
20.88453 23.340302 31.599813
18.511536 23.800293 30.504812
55.06153 53.098297 26.942812
56.790535 54.301296 26.005812
52.961533 58.792294 31.787813
51.765533 57.845295 30.026814
50.75453 40.62829 57.428814
52.022533 38.61429 57.09981
57.523533 36.06929 53.025814
55.51953 36.766296 50.961815
5.8945312 22.9393 26.941813
5.554535 24.940292 27.200813
53.14553 22.3853 27.911812
52.160534 20.7173 26.620813
42.51953 51.685295 44.338814
42.757534 50.770294 46.55881
36.430534 52.629295 54.90581
36.701534 54.319298 56.165813
31.316532 8.961288 51.450813
31.343533 9.168289 53.725815
30.178534 110.7233 57.434814
32.166534 109.38329 56.586815
47.745533 58.232296 33.290813
46.10253 57.986294 34.79581
50.28953 56.628296 38.42681
47.93553 55.962296 37.789814
48.56053 46.336296 18.926813
49.06053 45.710297 20.777813
50.25453 53.844296 27.235813
48.627533 54.061295 26.132812
13.003532 34.5963 42.13481
11.653534 33.490295 40.90681
5.420532 38.320297 39.223812
4.589531 39.631294 37.45481
9.5655365 65.213295 28.009813
11.330536 63.618294 27.363813
18.905533 62.834297 36.47581
19.666534 62.729294 38.515812
46.086533 73.086296 1.7838135
47.77553 74.9143 3.0118103
46.87453 80.6363 54.24581
47.073532 82.9423 53.513813
6.052536 2.1452942 49.348812
5.7985306 4.37529 50.116814
17.262535 2.6662903 51.318813
15.756531 1.5932922 52.25981
50.149532 45.988297 49.91281
49.211533 46.577297 52.159813
53.81753 48.269295 54.068813
54.86053 46.935295 55.494812
52.29853 84.464294 20.476812
51.015533 84.67429 21.910812
51.216534 82.797295 34.757812
52.517532 80.63229 34.325813
47.53353 85.0833 22.228813
48.493534 83.213295 21.663813
45.67253 76.99529 29.043812
45.336533 74.91129 30.183813
26.688532 78.4303 43.944813
28.276533 76.75729 43.326813
32.253532 84.6233 51.240814
32.715534 86.2093 49.716812
45.863533 9.240288 6.4578094
46.079533 7.77829 8.089813
51.90253 15.739288 15.329811
51.536533 17.710297 15.138813
35.321533 0.9452896 9.033813
36.904533 2.8892899 8.55381
38.812534 10.479294 16.01881
37.354534 12.206291 15.323811
14.22953 55.162296 45.784813
14.16053 53.146297 44.92781
21.67353 56.273296 40.33781
23.303535 57.076294 38.118813
31.865532 60.244297 45.020813
32.632534 61.753296 43.408813
27.040533 67.7333 48.00981
24.885532 67.73029 46.30281
5.606529 4.8902893 20.295813
6.9975357 4.038292 19.536814
11.628532 13.008293 20.075813
12.629532 14.193291 21.378813
53.46353 73.5153 57.27381
54.184532 72.35629 59.665813
49.827534 82.12029 4.9398117
47.41553 81.7193 3.904808
28.248533 5.968292 6.612808
27.591532 4.7192917 4.8028107
25.695532 108.0853 1.3938103
24.555532 108.6533 60.719814
42.858532 72.99429 18.45581
40.947533 71.70329 16.64981
44.188534 75.979294 6.781807
46.15153 75.657295 5.321808
59.094532 94.197296 54.637814
59.17153 92.6403 52.908813
59.801533 88.0813 44.574814
58.350533 86.7753 43.37281
24.683537 72.18929 1.3278122
24.789536 74.408295 0.29981232
16.38453 79.62029 55.195812
15.32753 79.09129 53.504814
43.280533 90.7943 37.950813
44.613533 90.324295 39.33781
53.343533 87.643295 43.41281
54.632534 86.1113 42.82181
59.635532 15.9882965 54.959812
1.370533 17.024292 56.55181
51.576534 20.011292 2.131813
50.467533 18.018295 1.7218132
58.024532 65.9723 52.334812
59.54653 67.7233 53.656815
52.140533 72.059296 55.55781
51.787533 74.0663 55.09281
25.872532 29.974289 52.589813
28.012533 30.780289 52.649815
31.843533 22.600296 52.087814
33.19953 24.412292 51.341812
39.128532 7.2212906 19.119812
39.566532 7.488289 20.883812
34.135532 13.863289 27.581812
31.640533 13.4242935 26.521812
52.58853 52.790295 37.630814
52.31853 50.774296 37.89981
58.738533 56.256294 42.27381
57.221535 57.841297 41.37081
31.928534 53.797295 43.514812
29.628532 54.100296 42.477814
20.776533 56.543297 49.506813
18.452532 57.511295 49.195812
21.585533 111.073296 58.505814
21.807533 111.479294 56.337814
28.219532 6.843292 49.219814
30.364532 6.418289 50.199814
59.713535 91.9433 20.579813
0.9045334 91.742294 18.753813
11.054535 89.4323 20.601812
10.585533 87.38429 19.998814
50.375534 61.052296 46.73381
49.931534 61.591297 48.876812
43.92253 67.1513 49.868813
42.162533 68.8183 50.16281
52.974533 103.825294 46.292812
54.45753 104.97029 47.41181
56.034534 107.462296 57.813812
58.169533 107.8743 56.922813
25.768532 108.9463 58.194813
27.970533 109.29929 58.79381
25.605532 100.1073 4.4598083
24.342533 101.39729 6.702812
54.731533 90.5653 15.558811
56.010532 92.0413 14.337807
58.714535 84.6773 8.938812
0.37953568 83.159294 7.579811
39.938534 87.5953 58.11381
40.066532 85.395294 59.566814
48.509533 88.268295 1.2648125
48.939533 87.7383 3.4378128
7.740532 16.65129 36.42781
8.332535 19.09729 37.62781
18.85653 22.083298 38.091812
18.95153 20.12529 39.241814
50.39453 42.297295 36.383812
48.74253 42.161297 34.082813
41.772533 42.816296 33.39381
39.608532 41.151295 33.180813
32.031532 51.033295 38.74781
33.462532 49.346294 38.986813
38.44353 46.408295 38.798813
38.73453 46.386295 36.486813
26.789532 89.1373 17.043814
28.107533 90.8343 16.749813
35.035534 88.6793 24.873812
35.51253 88.9433 27.236813
34.354534 46.792297 6.196808
35.320534 47.147297 7.9818115
31.860533 55.618294 12.728813
29.527533 55.405296 12.65081
6.8765335 54.353294 35.994812
5.7115326 56.198296 36.26681
3.993534 62.778294 44.24581
3.1335335 60.391296 45.13481
19.495533 36.00029 1.5108109
21.682533 36.430298 0.5778122
31.627533 42.38929 5.628807
32.621532 40.881294 5.56781
35.13753 62.614296 4.1398087
36.931534 63.959297 4.03981
36.785534 53.563297 58.942814
36.18553 53.031296 0.63381195
11.662537 18.910294 47.32881
9.875534 19.48729 48.220814
58.828533 25.5943 46.84981
57.812534 24.738297 45.38581
20.267532 111.12329 11.117813
18.735535 110.797295 9.008812
24.124535 4.392288 2.2228127
22.530533 5.203293 0.7128105
50.077534 97.1223 37.035812
49.064533 99.2763 36.05981
44.97053 101.8893 46.74781
46.538532 102.91129 48.03781
15.523529 74.520294 28.223812
17.311531 73.53629 29.281813
15.553535 67.64729 39.21181
15.072533 69.21829 40.964813
41.49853 109.34229 50.531815
42.788532 108.866295 48.506813
36.67153 110.395294 38.00381
35.891533 112.562294 38.00281
41.90053 14.379295 53.41281
43.42853 15.425293 54.38481
50.04153 20.604294 57.765812
48.356533 22.109299 56.299812
57.943535 6.427292 15.580812
59.522533 7.5072937 17.070812
4.7115326 10.415291 17.518812
4.759529 8.520294 15.866813
9.113533 94.20229 0.18581009
11.287537 95.50829 0.8068123
15.837532 86.033295 7.843811
17.414536 87.1963 5.972809
56.200535 70.241295 2.506813
55.53253 70.2493 4.5408096
58.598534 72.784294 12.198807
0.56253433 71.907295 12.04081
6.087532 67.090294 23.446812
7.6595306 66.9863 21.481813
5.6125336 69.1553 12.510813
5.7535324 69.449295 10.398813
13.305534 35.379303 13.045813
13.279533 33.070297 13.626813
18.059532 28.9953 17.949814
20.109535 28.239288 18.824814
42.266533 35.201294 46.194813
41.858532 36.105297 48.024815
41.90953 44.390297 53.180813
40.542534 45.635296 54.785812
32.87353 11.045288 35.520813
33.925533 9.635292 33.62781
36.208534 4.8252945 41.491814
36.044533 2.6362915 41.167812
5.242531 20.014297 56.798813
3.3745346 18.940292 55.593815
59.312534 29.14029 48.177814
57.13653 29.539291 48.96781
31.908533 16.162292 50.984814
29.630533 15.312302 51.274815
21.193533 12.371292 53.57181
21.785532 10.439293 55.160812
26.895533 74.7523 9.035812
26.835533 75.7333 6.696808
26.249533 77.796295 56.851814
25.341532 80.4163 57.601814
39.690533 75.351295 53.631813
39.30353 73.615295 54.025814
31.678534 83.5013 54.244812
33.51853 85.200294 53.700813
11.977531 21.977295 52.402813
10.602531 22.9543 54.019814
17.941536 18.593292 1.95681
18.99253 16.320297 3.2908096
29.855534 13.532295 53.284813
30.546534 11.544289 53.441814
25.713533 7.1362915 2.7898102
26.688532 8.540291 4.3328094
56.784534 40.743294 32.570812
54.89553 41.12529 32.64881
49.181534 41.00029 38.90481
46.71353 40.607292 38.458813
30.023533 9.245293 47.59281
30.895533 10.758293 49.110813
19.379532 10.177292 53.46081
17.819532 11.207291 52.362812
56.469532 0.11228943 42.603813
56.726532 2.0092926 43.49781
57.859535 2.9562912 55.283813
59.127533 4.508293 55.219814
58.742535 52.330296 25.676813
57.941532 50.628296 27.380812
54.06053 41.710297 21.526814
51.564533 41.643295 21.637814
17.253532 54.326298 33.23881
19.28453 53.219296 34.269814
23.818535 63.107296 37.396812
21.712532 63.830296 37.542812
7.964531 18.75029 54.899815
9.881531 19.4003 55.830814
12.073532 12.441292 2.5098114
10.543533 11.122292 3.2148132
8.25753 67.31329 32.12081
6.4565353 69.0253 32.51081
56.401535 70.795296 29.953812
56.045532 73.2763 29.877813
31.126534 27.290298 39.172813
33.073532 27.511292 38.841812
36.68653 32.86029 47.55181
36.231533 32.4093 49.697815
55.740532 29.741302 52.107815
54.62353 30.399292 50.347813
52.44253 24.484299 43.32881
51.465534 24.13829 41.62881
21.459534 3.5582886 50.965813
21.043533 5.6932907 50.360813
19.545532 111.364296 41.380814
21.505531 111.3213 40.478813
6.304535 42.130295 56.71781
4.462532 40.513294 55.93281
3.436535 40.859295 5.963806
3.3865356 43.283295 5.853813
13.82653 77.2053 24.131813
12.738533 77.7653 25.915813
13.32653 83.711296 35.21181
13.987534 82.812294 37.110813
39.527534 26.01329 52.673813
37.714535 27.841293 52.27981
32.029533 24.680298 44.75281
29.834532 24.193298 44.369812
35.576534 57.420296 57.214813
34.91553 59.138294 55.741814
37.105534 64.574295 46.666813
37.530533 66.255295 46.999813
56.950535 20.022293 14.848813
58.82453 18.614288 14.6068125
6.3575363 12.4732895 21.041813
8.804535 13.52729 20.599813
19.599533 13.346291 1.1938133
18.74553 11.621292 0.3468132
14.589531 14.711288 53.341812
16.20353 14.0982895 53.89881
44.53253 7.059288 0.07481003
43.585533 7.2302933 2.100811
33.036533 2.8182907 0.9248123
31.331533 3.522293 2.9668121
12.60453 0.6912918 33.60181
12.45153 1.4842911 31.236813
5.455536 5.5302887 23.031813
4.39653 7.3562927 23.088812
53.195534 96.64729 39.896812
52.42153 94.186295 41.151814
56.056534 91.8743 51.393814
56.56753 93.14729 53.181812
27.195532 100.992294 54.08581
28.294533 102.6263 53.679813
29.503532 105.9853 43.895813
30.332533 104.42529 45.19181
25.671535 74.215294 11.631813
24.369534 74.086296 13.481812
20.598534 81.2733 8.67881
21.378532 80.795296 6.8938065
22.339533 61.194294 2.8288116
23.435532 62.800297 1.7968102
26.496532 67.4833 10.496811
28.833532 67.85629 11.735809
31.230534 112.03929 59.542812
32.778534 110.3083 58.92681
37.566532 103.698296 6.5008087
35.892532 102.130295 6.0008087
53.848534 7.0982895 59.225815
53.628532 8.302292 56.806812
48.40053 13.377289 48.941814
46.460533 12.595291 47.962814
35.34553 70.9303 9.999809
37.147533 69.78729 10.480812
37.471535 60.186295 17.12181
35.750534 60.098297 18.809814
5.1405334 6.432289 44.174812
6.7095337 7.590294 42.848812
10.306534 110.0853 38.91381
10.058533 110.55329 36.645813
47.751534 10.978294 33.66381
48.245533 11.323288 36.181812
58.052532 5.4192886 33.85681
59.575535 7.835289 33.80081
12.752533 75.41029 50.026814
10.750534 75.156296 49.000813
4.514534 78.57829 41.499813
6.0015335 80.2183 40.555813
48.542534 92.3313 29.599813
47.41553 91.295296 28.394812
45.898533 100.25929 21.011812
44.308533 101.6693 20.968813
38.652534 33.447296 45.513813
40.44353 33.6203 44.152813
39.050533 45.301292 44.12981
40.01353 45.962288 42.326813
41.63153 49.425297 56.100815
41.857533 51.174297 55.027813
45.280533 46.443295 51.312813
44.56853 44.163296 51.164814
14.158531 73.211296 55.826813
15.449532 74.96729 55.645813
15.349533 70.437294 4.940811
13.236534 71.256294 6.270813
17.709534 49.049297 15.010813
18.164536 50.198296 16.942812
12.580536 40.239296 23.010813
13.878532 40.425297 25.266813
42.79653 33.26529 17.39281
42.244534 33.296295 15.506813
35.721535 41.11029 14.546806
34.242535 42.038292 12.510811
37.083534 90.6653 56.109814
38.253532 92.4023 57.137814
30.747532 97.421295 4.926811
28.284533 96.3023 5.579811
45.250534 105.604294 48.462814
45.739532 106.853294 46.473812
37.22053 105.40029 38.521812
35.640533 106.616295 39.84381
7.1305313 48.088295 27.531813
7.0155334 45.893295 28.731813
4.4405365 41.955296 23.213812
4.5485306 41.965298 20.812813
35.062534 39.114296 16.892813
33.26253 40.418297 15.861813
22.885532 38.473297 18.597813
21.492533 39.602295 16.875813
43.093533 27.2043 27.828812
43.218533 26.859299 29.992813
48.24153 22.130295 26.578812
49.856533 22.354294 28.175812
19.29953 1.1442947 57.665813
19.85353 0.040290833 59.296814
16.844536 104.63429 4.017807
15.989532 104.29029 6.103813
45.44953 36.269295 42.00281
44.570534 37.110294 43.667812
47.865532 44.421295 36.389812
46.809532 45.060295 34.39981
19.14553 108.7643 58.809814
18.401535 106.90029 59.72481
12.058533 109.85529 5.4888077
11.710533 108.35829 6.9088135
43.419533 19.861298 38.312813
45.300533 19.667297 38.874813
52.925533 25.234299 35.796814
54.147533 26.368301 37.02281
31.920532 13.523293 58.53781
33.632534 12.585289 56.589813
33.169533 1.4192886 59.643814
34.492535 112.451294 59.386814
13.375534 38.29329 26.595812
12.260536 37.51129 24.836813
16.07853 28.92929 20.869812
15.28653 28.930298 18.785812
2.5225334 88.603294 43.54381
3.5985336 90.032295 42.22581
12.503532 85.1493 41.17081
13.954536 83.2483 39.75481
7.0375366 1.6812897 6.0868073
6.9565353 112.42829 6.3188095
57.943535 109.809296 59.386814
56.036533 110.48029 60.79481
27.778532 86.8763 19.715813
29.040533 85.574295 17.995813
28.715532 93.423294 16.784813
28.194532 94.16129 14.652813
14.776535 19.835297 49.920815
15.93853 21.4953 50.212814
18.266533 14.053291 59.28681
20.350533 12.241295 59.331814
5.8865356 41.042297 0.60181046
7.500534 41.723297 60.229813
14.060532 46.285297 5.4368134
13.677536 48.665295 4.937813
50.097534 4.6502914 23.751812
49.30453 4.915291 22.035812
43.329533 4.790291 14.822813
41.788532 6.9712906 14.496813
24.814533 38.291294 35.664814
26.619532 39.521297 36.34481
32.89353 47.469296 31.402813
34.97753 48.117294 30.747812
19.686531 2.70829 16.285812
18.99353 1.6832886 14.105813
7.891533 1.7302933 17.191813
8.405533 1.0012894 19.409813
0.71653366 92.8303 2.534813
2.1685333 92.0403 2.758812
7.5585327 99.6103 57.220814
8.458534 100.0713 59.459812
47.76253 64.519295 59.91281
45.433533 63.873295 59.586815
41.481533 73.56329 55.566814
43.349533 74.4873 54.123814
30.585533 29.34729 32.922813
32.201534 28.970291 31.312813
27.873533 35.6913 34.685814
26.089533 34.8123 36.05281
3.8415337 38.55229 7.673813
6.0935364 38.9993 6.6448135
15.875534 38.44429 11.380814
16.233536 38.51529 9.270813
23.614532 41.77829 40.554813
24.724533 40.47329 38.562813
29.634533 34.3313 47.574814
31.925533 33.13629 47.825813
24.429533 5.198288 19.052813
26.313532 5.2492905 20.173813
35.453533 5.130295 21.979813
37.313534 5.703293 20.933813
37.812534 62.128296 30.072813
38.62253 60.050297 29.450813
39.063534 54.171295 30.554813
38.707535 56.302296 30.982813
25.516533 92.79929 19.988813
24.291534 94.561295 20.746813
14.500534 88.073296 20.163813
13.960533 90.0123 19.203814
21.264532 49.811295 52.62081
23.304533 49.592297 51.927814
27.589533 50.840298 42.80981
27.139532 48.953297 41.137814
9.589531 42.436295 43.355812
7.533531 41.982292 42.12081
6.849533 32.06929 46.008812
5.745529 31.436295 47.623814
17.679535 111.117294 11.965813
15.837532 110.143295 12.630814
8.93853 105.28929 13.561813
7.4915314 106.3083 12.58181
39.564533 16.608292 24.602812
39.31853 18.690292 24.686813
28.113533 22.800293 22.091812
27.873533 21.29329 20.645813
15.735535 72.62029 50.785812
14.13353 71.478294 50.165813
11.579536 60.221294 56.431812
13.566536 58.871296 56.164814
32.733532 9.078293 47.816814
34.69253 8.966293 48.575813
40.606533 3.8542938 56.740814
42.74853 3.4322891 55.369812
15.066536 24.308289 49.35681
13.75753 22.468292 49.480812
5.995529 21.394302 40.660812
4.6455307 20.578293 42.257812
26.806532 67.8333 15.871811
27.468533 67.7343 13.925812
22.669533 59.789295 6.1108093
20.884533 58.727295 6.8568115
13.098534 14.4242935 32.51081
12.498535 12.002289 32.348812
2.2865334 7.6552887 27.289812
1.776535 9.358292 29.330812
6.1855316 101.9823 59.79381
5.9875336 100.102295 0.6138115
2.6335335 99.7643 51.35681
2.8465347 98.6653 49.265812
34.718533 27.54329 7.4018097
34.53953 28.934296 9.578812
30.299532 25.573288 19.38581
28.755533 26.921295 21.172813
8.820534 99.9873 4.277809
8.689529 100.49329 2.1968117
12.63353 94.5573 59.473812
10.982536 95.586296 58.699814
4.2965317 105.17929 51.880814
6.696533 104.99829 52.819813
14.850533 111.642296 48.679813
17.21653 110.8213 47.927814
5.6425323 18.509293 38.402813
6.9675293 18.83229 39.971813
11.513535 10.866295 46.96881
13.554535 10.923294 46.173813
23.530533 103.0993 27.076813
21.719536 104.51229 27.174812
14.9255295 106.30429 25.212812
15.825531 103.80329 24.596813
0.99453354 32.391296 58.00981
0.37953568 32.098297 55.760815
9.151535 24.002289 55.93281
8.960533 26.121292 57.206814
11.929535 94.45229 13.6558075
13.564529 93.019295 13.676811
18.097534 89.88229 4.47081
18.892532 90.698296 2.5478134
16.914536 65.13529 11.813813
17.013535 65.034294 13.883813
15.486534 74.9593 22.405813
15.343536 76.921295 21.208813
27.690533 81.338295 57.200813
28.267532 80.5803 59.643814
31.771532 72.9193 57.875813
32.821533 72.9973 55.53081
12.070534 60.439297 51.879814
10.818535 59.545296 53.987812
59.63653 62.329296 53.848812
0.027534485 63.691296 51.962814
50.35953 42.790295 4.4958115
50.745533 44.643295 5.5928116
42.49153 44.183296 13.91581
42.175533 45.163296 16.383812
9.096535 5.092293 3.4578094
7.870529 6.435295 3.7368088
58.88653 3.20829 58.35681
57.376534 1.6522903 57.573814
6.9975357 9.961288 18.724815
8.560532 8.204292 17.340813
7.7755356 4.5152893 8.508812
8.004532 4.4852905 6.1138077
55.974533 68.034294 21.402813
53.69953 67.408295 21.397812
48.47753 64.2903 31.802813
47.864532 66.14629 29.941813
21.99553 40.266296 30.325813
23.09153 42.308296 30.699812
17.043533 40.521297 40.387814
15.798531 42.072296 39.827812
7.115532 20.432297 32.33581
5.2585297 19.587296 33.305813
7.4215317 11.196289 40.709812
8.131531 9.920288 39.32281
26.975533 84.351295 19.134813
27.072533 84.9303 21.528812
22.558533 82.9283 28.679813
21.174532 81.41029 29.627813
51.71453 19.79129 19.842813
52.865532 17.892288 20.666813
41.812534 17.333298 26.237812
41.120533 19.52629 26.709812
49.590534 97.017296 16.211813
48.586533 98.963295 17.719812
59.090534 97.4863 21.521812
0.57253647 98.4453 22.653812
24.272533 78.9423 45.54381
22.834534 79.99329 43.610813
14.616531 74.060295 48.64181
13.4635315 72.2473 47.519814
37.152534 64.56629 30.679813
38.486534 65.921295 31.991814
38.226532 65.628296 43.895813
35.814533 66.228294 44.562813
31.261532 84.1393 35.054813
32.64353 82.6353 34.21181
40.642532 79.545296 27.522812
41.288532 78.3983 28.919813
47.121532 1.8372879 28.405813
48.327534 2.5422897 26.507812
59.376534 7.8172913 29.986813
59.452534 6.698288 27.735813
26.880533 55.118298 23.260813
27.431532 56.757294 21.027813
37.215534 54.804295 28.157812
37.37253 52.473297 29.314812
58.835533 55.498295 34.80981
57.662533 53.569298 33.96781
53.215534 43.537296 32.701813
54.847534 43.185295 31.322813
47.447533 15.150291 37.500813
45.597534 14.5752945 38.28681
45.22853 6.0332947 47.153812
43.119534 6.0942917 46.21881
48.189533 79.1273 52.776814
49.301533 77.407295 53.508812
54.417534 72.340294 46.44181
56.39353 72.033295 46.570812
17.088531 89.781296 46.048813
16.607536 87.77129 44.52981
22.586533 80.3863 52.58581
20.97953 81.54929 54.080814
52.20653 103.254295 43.18381
50.562534 103.3753 44.944813
52.528534 112.34429 38.917812
52.322533 1.7052917 40.43481
37.472534 87.5123 25.888813
36.752533 87.7903 23.202812
30.155533 79.74329 29.457813
31.847532 79.909294 30.983812
19.889534 25.934296 35.75981
19.003532 25.917297 37.72681
18.287537 26.517288 47.80081
17.254532 27.779297 49.056812
12.542534 87.436295 28.702812
13.856529 85.2933 28.446812
18.68853 80.1133 29.805813
18.122536 78.6403 29.017813
35.404533 49.244297 1.133812
33.416534 48.328297 1.3368111
38.370533 37.494297 2.9188118
40.601532 37.065296 1.5798111
55.08153 112.41229 39.414814
55.684532 110.30129 40.499813
1.0645332 111.60629 33.95581
2.0815353 0.6952896 32.32981
25.303532 84.2073 32.859814
26.121532 85.7203 31.600813
36.50453 87.2663 32.14781
38.722534 88.4313 32.813812
21.165535 23.642288 42.12081
19.737534 21.824295 42.798813
14.168533 31.478302 42.146812
12.024536 32.378296 43.60181
41.99153 83.02229 50.077812
43.424534 81.116295 50.750813
42.007534 81.50929 42.852814
41.904533 82.70229 41.03881
44.146534 106.80329 0.26581192
43.576534 104.79029 60.246815
34.349533 107.673294 57.312813
33.006535 106.7803 58.477814
39.181534 61.185295 43.473812
37.801533 61.779297 45.688812
43.467533 56.186295 50.985813
42.87353 53.780296 51.90581
29.197533 6.868294 10.30481
30.273533 5.474289 8.4438095
39.918533 10.623291 13.205811
41.406532 9.758293 13.0688095
20.086533 5.706291 24.966812
20.261536 5.5252914 27.673813
18.40953 1.3112946 24.675812
16.723534 1.7442932 22.917812
56.867535 30.740295 57.355812
56.052532 28.242294 57.41881
48.065533 23.8143 58.413815
48.962532 22.081299 59.79381
37.284534 96.7373 46.318813
35.780533 97.852295 45.45381
29.627533 95.1653 37.977814
31.295532 95.4733 36.437813
43.36053 98.239296 27.378813
42.793533 98.5853 24.853813
44.913532 89.575294 27.666813
44.439533 88.1953 29.415813
36.291534 67.4883 53.560814
37.756535 66.30129 54.617813
42.37953 58.606297 56.524815
44.092533 58.147297 55.952812
14.22953 38.778297 39.048813
15.84153 39.895294 37.80281
13.477531 45.144295 28.723812
11.955536 46.372295 28.443813
32.51953 42.520294 55.30081
32.551533 40.479294 55.55181
26.260532 32.463303 0.4698105
24.201532 32.214294 59.942814
32.187534 39.690292 2.791813
33.897533 37.644302 2.4148102
29.132532 37.98929 11.449806
30.173532 37.688293 12.987808
54.87353 41.621296 26.892813
54.996532 42.866295 28.470812
3.2545357 45.640297 21.111813
2.144535 43.118298 20.547813
11.555534 80.350296 9.087807
10.748535 82.00829 8.059807
12.596535 90.88229 14.649811
12.29953 88.768295 15.128811
54.627533 23.9393 41.144814
56.49753 23.48529 43.276814
58.51853 20.113297 52.471813
56.911533 18.98729 53.357815
12.226532 3.4282913 35.81681
13.88353 2.6272888 34.847813
12.422531 105.15129 39.54481
10.252533 105.55229 39.706814
35.43653 31.12529 34.061813
33.807533 30.384293 34.709812
32.252533 35.948288 43.72581
32.993534 35.3403 45.646812
36.335533 37.1503 22.433813
34.948532 37.380295 20.874813
39.17253 29.58429 13.5738125
38.94253 27.145294 14.247813
18.59053 58.839294 8.28981
17.029533 59.111294 6.920807
14.891533 53.064297 15.896812
16.877533 52.185295 14.460808
45.232533 20.5923 0.95981216
45.836533 20.7193 59.410812
46.84553 13.078293 6.652809
47.293533 13.339294 9.04081
12.82753 101.270294 54.910812
10.405533 100.4313 55.288815
10.60453 92.9443 58.94081
12.57653 91.8983 58.91881
23.82653 14.5752945 8.340813
