3.774 1.501 1.640
3.821 1.410 1.650
3.347 4.604 4.833
3.864 0.139 0.446
4.211 0.200 0.609
4.029 0.462 0.978
4.239 0.456 1.308
3.968 0.931 1.403
4.067 1.009 1.590
3.534 4.374 4.542
3.425 4.378 4.471
3.393 4.366 4.807
4.227 0.249 0.763
4.585 0.087 0.811
4.594 0.290 1.067
4.332 0.739 1.399
4.253 0.845 1.444
3.685 3.982 4.265
3.545 4.294 4.605
3.796 4.178 5.013
3.777 4.497 5.187
4.449 0.100 0.775
4.819 -0.124 1.005
4.504 0.177 1.441
3.984 3.584 4.281
3.996 3.770 4.365
3.821 3.771 4.351
4.033 3.897 4.724
3.960 4.113 5.115
3.752 4.645 5.103
4.791 0.257 1.078
4.446 3.117 4.464
4.053 3.670 4.564
4.098 3.775 4.751
4.032 4.070 4.828
4.045 4.298 4.870
4.277 4.401 5.230
4.498 3.297 4.469
4.458 3.398 4.684
4.511 3.577 4.786
4.432 3.972 5.192
4.535 3.980 5.353
4.264 4.177 5.576
4.812 3.031 4.671
4.523 3.331 5.014
4.799 3.606 4.909
4.626 3.709 4.975
4.510 3.766 5.157
5.322 1.362 2.972
5.442 1.538 3.400
4.944 3.266 4.985
4.930 3.701 5.205
5.646 0.444 2.948
5.390 0.902 2.909
5.371 0.876 3.194
5.642 1.357 3.585
5.409 1.296 3.335
5.615 0.380 3.147
5.629 0.784 3.303
5.814 0.890 3.190
5.698 1.047 3.480
5.778 1.575 3.827
5.676 1.541 3.726
5.907 0.233 3.129
5.825 0.677 3.399
6.000 0.723 3.512
6.140 1.258 3.543
6.104 1.426 4.042
6.043 1.492 3.995
5.853 1.923 4.199
1.341 2.372 0.004
1.094 2.944 0.469
0.948 3.161 0.468
1.178 3.260 0.832
0.850 3.397 0.879
1.130 3.575 1.084
1.002 3.799 1.214
1.569 2.644 0.529
1.307 2.974 0.884
1.336 3.154 1.038
1.246 3.434 1.042
1.066 3.775 1.409
1.179 3.869 1.296
1.071 4.050 1.591
0.947 4.316 2.036
1.811 2.697 0.650
1.451 2.908 1.226
1.573 3.065 1.365
1.493 3.585 1.617
1.376 3.545 1.603
1.185 3.703 1.726
1.369 3.934 1.966
1.336 4.385 2.006
1.779 3.166 1.200
1.721 3.554 1.581
1.674 3.575 1.806
1.454 3.920 1.864
1.639 3.962 2.061
1.649 4.105 2.347
1.558 4.250 2.667
1.358 4.526 2.737
1.797 3.491 1.955
1.680 3.706 1.980
1.800 3.757 1.903
2.007 3.666 2.157
1.718 4.314 2.608
1.909 4.444 2.610
1.483 4.726 3.087
2.247 3.217 2.308
2.001 3.521 2.281
2.220 4.016 2.274
1.893 4.083 2.555
1.992 4.030 2.685
1.735 4.515 2.925
2.483 3.645 2.561
2.299 3.523 2.408
2.474 3.970 2.944
2.012 4.314 3.106
2.003 4.152 3.348
3.094 1.245 0.467
2.692 1.562 0.801
2.280 3.616 2.934
2.649 3.891 2.919
3.355 1.218 0.223
3.043 1.412 0.410
3.004 1.678 0.626
3.137 1.975 0.792
2.602 3.806 2.320
2.457 3.996 2.753
2.760 3.900 2.972
2.736 4.143 2.756
3.272 1.218 0.366
3.516 1.031 0.601
3.246 1.384 0.686
3.203 1.664 1.046
3.208 1.779 0.826
3.480 0.631 0.201
3.640 0.977 0.254
3.649 1.298 0.545
3.373 1.361 0.675
3.438 1.423 1.196
3.591 1.638 1.388
3.288 1.990 1.236
3.469 0.503 0.425
3.997 0.836 0.355
3.956 0.907 0.515
3.659 0.983 0.918
3.597 1.452 0.980
3.553 1.445 1.294
3.683 1.556 1.357
3.883 0.384 0.337
4.039 0.381 0.381
4.007 0.745 0.803
4.214 0.908 0.955
3.833 0.991 1.208
4.134 1.521 1.441
3.752 1.755 1.482
3.426 4.960 4.372
4.128 0.670 0.504
4.351 0.353 0.814
4.521 0.698 0.593
4.495 0.894 0.785
4.180 1.151 1.444
4.125 1.195 1.445
3.420 4.558 4.307
3.618 4.677 4.638
4.440 0.415 0.724
4.675 0.490 0.545
4.489 0.546 1.066
4.736 0.644 1.108
3.930 3.917 4.211
3.976 4.339 4.521
3.869 4.295 4.429
3.972 4.666 4.979
4.815 0.544 0.892
4.928 0.468 1.025
4.957 0.635 1.056
4.373 3.618 3.999
3.968 3.998 4.592
4.264 4.368 4.363
4.190 4.367 5.006
4.144 4.428 4.836
4.849 0.314 0.952
5.133 0.176 1.000
4.296 3.665 4.451
4.548 3.876 4.750
4.128 4.247 4.635
4.271 4.131 4.921
4.229 4.543 5.157
4.870 -0.041 1.184
5.233 0.282 1.157
4.833 3.584 4.114
4.806 3.507 4.360
4.515 3.704 4.922
4.583 4.161 4.912
4.648 4.277 5.002
4.670 4.463 5.500
5.288 -0.044 1.130
4.626 3.392 4.578
4.966 3.711 4.687
4.528 3.916 4.972
4.683 4.138 5.416
4.792 4.125 5.547
5.724 1.166 2.716
5.426 1.335 2.643
5.404 1.691 3.220
5.270 1.506 3.431
4.883 3.601 4.638
4.885 3.570 5.165
4.785 3.608 5.143
4.862 3.879 5.596
5.763 0.891 2.607
5.625 1.253 3.053
5.650 1.495 3.028
5.486 1.737 3.338
5.690 2.064 3.602
5.848 0.867 2.564
5.984 0.757 2.755
5.940 1.100 3.006
5.993 1.267 3.405
5.809 1.598 3.529
5.633 1.677 3.547
5.752 1.877 3.836
6.232 0.798 3.238
6.071 0.988 3.262
5.929 1.407 3.261
6.232 1.565 3.708
5.961 1.628 4.020
6.085 1.832 4.257
1.228 2.674 -0.126
1.562 2.872 0.065
1.462 3.165 0.563
1.470 3.262 0.642
1.323 3.686 0.815
1.226 3.853 0.777
1.008 3.801 1.002
1.610 2.718 0.209
1.483 3.230 0.423
1.354 3.255 0.556
1.400 3.542 0.901
1.263 3.901 1.370
1.200 4.126 1.547
1.484 4.264 1.456
1.535 3.448 1.097
1.579 3.614 0.882
1.843 3.414 1.363
1.802 3.620 1.518
1.819 3.818 1.518
1.593 4.087 1.669
1.561 4.396 2.077
1.971 3.369 1.157
2.048 3.464 1.340
1.849 3.710 1.539
2.022 3.888 1.995
1.761 4.240 1.966
1.772 4.345 2.071
1.729 4.430 2.189
2.307 3.537 1.551
1.966 3.825 1.608
2.040 3.765 1.833
2.084 4.106 2.344
1.908 4.127 2.546
2.015 4.578 2.694
2.463 3.219 1.902
2.265 3.735 1.998
2.231 3.927 2.279
2.125 4.193 2.186
2.260 3.973 2.326
2.380 4.361 2.703
1.986 4.374 2.997
2.347 3.544 1.971
2.371 3.887 2.427
2.576 3.897 2.617
2.306 4.204 2.576
2.485 4.286 2.977
2.946 1.248 0.363
3.356 1.514 0.698
3.018 1.625 0.546
3.017 2.011 0.646
2.923 3.513 2.291
2.888 3.654 2.401
2.746 3.915 2.776
2.527 4.280 3.096
3.259 1.312 0.107
3.393 1.649 0.177
3.472 1.764 0.379
3.137 2.283 0.530
2.735 3.365 2.201
2.830 3.722 2.195
2.917 4.180 2.424
2.976 4.226 2.741
2.957 4.601 2.768
3.463 1.364 0.122
3.436 1.603 0.257
3.472 1.562 0.312
3.368 1.763 0.681
3.495 1.872 1.082
3.130 3.844 2.434
3.187 3.854 2.466
2.941 3.939 2.601
3.854 1.009 0.125
3.817 1.122 0.151
3.842 1.186 0.656
3.630 1.324 0.404
3.733 1.599 0.712
3.902 1.849 1.010
3.822 0.803 -0.016
4.306 0.981 0.326
3.963 1.167 0.219
4.001 1.060 0.575
3.829 1.501 0.731
3.873 1.728 0.733
3.854 1.755 1.223
4.296 0.912 0.188
4.422 0.635 0.313
4.459 0.956 0.505
4.034 1.102 0.885
4.381 1.161 1.002
3.936 1.478 1.077
3.446 5.129 4.525
4.467 0.714 0.312
4.386 0.840 0.577
4.536 0.598 0.454
4.530 1.089 0.878
4.434 1.214 1.147
3.603 4.682 4.411
3.659 4.965 4.504
4.568 0.797 0.522
4.742 0.297 0.683
4.956 0.488 0.931
4.932 1.003 1.087
3.947 4.564 4.528
3.966 4.579 4.665
4.133 4.821 4.592
4.758 0.487 0.478
4.827 0.334 0.855
5.004 0.855 0.814
4.449 3.961 4.062
4.158 4.386 4.658
4.034 4.446 4.583
4.035 4.718 4.847
5.176 0.305 0.588
5.053 0.445 0.993
4.418 3.909 4.222
4.679 4.120 4.327
4.254 4.408 4.414
4.603 4.259 4.693
4.167 4.570 4.880
5.443 0.280 0.741
5.269 0.288 0.974
4.584 3.595 4.260
4.899 3.774 4.666
4.724 4.066 4.761
4.667 4.222 4.916
4.390 4.619 5.284
5.327 0.163 1.072
5.299 1.473 2.438
5.241 1.708 2.932
5.152 2.169 3.110
5.183 3.839 4.508
4.749 3.864 4.892
4.711 4.100 4.969
4.873 4.174 5.009
4.735 4.650 5.134
5.723 1.419 2.360
5.473 1.278 2.490
5.409 1.519 2.939
5.437 2.005 3.136
5.381 2.343 3.510
5.379 3.370 4.638
5.019 4.008 4.618
5.136 3.783 5.193
5.102 4.263 5.006
5.002 4.421 5.447
6.070 0.980 2.537
5.731 1.247 2.839
5.638 1.481 3.251
5.693 1.967 3.051
5.633 2.100 3.583
5.556 3.612 4.752
5.212 4.059 5.247
5.208 4.078 5.317
6.167 1.249 3.046
5.963 1.300 2.892
6.249 1.599 3.047
6.226 1.772 3.162
5.775 1.727 3.515
5.825 2.127 3.810
6.094 1.294 3.494
6.334 1.789 3.538
6.398 1.800 3.729
6.314 2.269 4.071
1.401 3.103 0.089
1.487 3.138 0.428
1.371 3.435 0.334
1.573 3.610 0.496
1.583 3.988 1.065
1.408 4.208 0.909
1.855 3.496 0.361
1.632 3.434 0.414
1.423 3.819 0.751
1.838 3.670 0.961
1.479 4.020 1.360
1.508 4.210 1.354
2.084 3.325 0.902
1.641 3.440 1.077
1.949 3.995 1.374
2.016 3.817 1.424
1.903 4.206 1.444
1.766 4.311 1.859
2.104 3.656 1.015
1.914 3.759 1.324
1.931 3.862 1.441
1.972 4.190 1.705
1.972 4.139 1.656
1.794 4.664 1.850
2.297 3.770 1.642
2.365 3.840 1.623
2.062 4.156 1.653
2.253 4.133 2.002
2.324 4.364 2.186
2.260 4.447 2.489
2.359 3.567 1.502
2.707 3.506 1.611
2.293 3.764 2.059
2.429 4.083 2.210
2.492 4.394 2.430
2.094 4.442 2.572
2.931 1.549 -0.038
2.815 1.877 0.576
2.703 3.725 1.905
2.804 3.860 2.039
2.576 3.849 2.438
2.639 4.403 2.410
2.415 4.687 2.532
3.191 1.521 -0.041
3.318 1.496 0.286
3.317 1.691 0.405
3.432 2.181 0.691
3.023 3.318 2.059
2.912 3.963 2.236
2.687 3.918 2.267
2.717 4.071 2.574
2.992 4.314 2.730
3.337 1.923 0.096
3.461 2.172 0.228
3.403 2.239 0.537
3.180 3.617 1.800
3.191 4.045 2.292
3.168 3.922 2.503
2.887 4.257 2.547
2.865 4.425 2.674
3.537 1.571 0.094
3.864 1.628 0.197
3.685 1.837 0.593
3.448 1.962 0.698
3.235 3.454 1.897
3.188 3.688 2.423
3.254 3.831 2.510
3.039 4.306 2.496
4.075 1.191 0.101
3.899 1.486 0.393
3.890 1.804 0.549
3.694 1.747 0.895
3.332 3.335 2.151
3.431 3.579 2.608
3.316 3.916 2.496
3.285 4.342 2.787
4.038 1.200 -0.170
4.286 1.215 0.054
4.238 1.205 0.504
3.975 1.539 0.790
3.941 1.708 1.016
3.580 3.749 2.602
4.472 1.006 -0.053
4.533 0.988 0.247
4.530 1.028 0.276
4.524 1.176 0.498
4.566 1.277 0.701
4.717 0.837 0.386
4.667 0.896 0.152
4.597 0.935 0.469
4.564 0.916 0.250
4.738 0.708 0.557
3.974 4.897 4.336
4.715 0.913 0.650
4.969 0.601 0.397
4.341 4.302 4.163
4.369 4.534 4.655
4.276 4.837 4.889
5.017 0.675 0.641
5.582 0.627 0.790
5.122 2.188 2.409
4.891 4.007 4.303
4.747 4.229 4.650
4.515 4.856 4.449
4.675 4.955 4.914
5.531 0.425 0.552
5.376 1.836 2.412
5.335 1.982 2.278
5.486 2.056 2.487
5.225 2.630 2.948
4.968 4.216 4.555
5.015 4.292 4.468
4.935 4.463 5.003
4.901 4.974 5.040
5.568 1.853 2.380
5.671 1.942 2.799
5.259 2.111 2.845
5.298 2.431 2.954
5.187 3.758 4.131
5.213 4.009 4.648
4.888 4.232 4.558
5.178 4.248 4.897
4.981 4.631 4.899
5.738 1.609 2.515
5.602 1.831 2.496
5.576 1.887 2.730
5.802 2.192 2.834
5.811 2.216 2.978
5.523 3.917 4.522
5.440 4.040 4.571
5.400 4.030 5.108
5.165 4.568 5.071
5.052 4.399 5.104
6.051 1.392 2.358
6.194 1.714 2.914
6.147 1.569 2.836
6.043 1.959 2.887
5.734 2.084 3.440
5.655 4.005 4.862
5.374 4.034 5.195
5.583 4.188 5.157
5.281 4.439 5.209
6.439 1.285 2.924
6.321 1.834 2.868
6.173 1.690 3.266
6.294 2.317 3.318
5.685 3.582 4.802
5.882 4.011 5.083
5.792 4.157 5.530
5.825 4.558 5.620
6.088 4.061 5.496
1.796 3.435 0.318
1.809 3.933 0.543
1.559 3.902 0.408
1.632 4.037 0.758
1.993 3.780 0.473
1.952 3.886 1.072
1.999 4.089 1.213
2.013 3.969 1.100
2.259 3.908 0.930
2.201 4.277 1.139
2.172 4.193 1.727
2.078 4.705 1.593
2.675 3.680 1.454
2.537 4.137 1.374
2.590 3.974 1.880
2.371 4.320 1.896
2.459 4.645 2.080
3.092 2.206 0.028
2.647 3.963 1.525
2.575 3.939 1.752
2.573 4.289 1.800
2.300 4.312 1.995
3.377 1.907 0.143
3.124 2.264 0.224
3.055 3.714 1.595
3.040 3.802 1.968
2.798 4.328 1.952
2.571 4.465 2.526
2.695 4.498 2.370
3.671 1.949 0.301
3.609 2.253 0.175
3.154 2.472 0.682
3.276 3.522 2.083
3.141 3.934 2.112
2.788 4.247 2.188
3.182 4.362 2.420
2.997 4.453 2.481
3.475 2.079 0.020
3.370 2.028 0.428
3.676 2.224 0.343
3.112 3.671 1.678
3.252 4.041 1.807
3.020 4.394 2.062
3.049 4.395 2.491
2.967 4.553 2.521
3.972 1.806 0.340
3.707 2.130 0.519
3.513 3.855 1.783
3.451 3.897 2.178
3.381 4.199 2.171
3.174 4.301 2.681
3.348 4.541 2.632
4.195 1.484 0.157
4.018 2.083 0.445
4.165 2.155 0.712
3.793 3.838 2.157
3.463 3.869 2.483
3.704 4.199 2.658
3.680 4.255 2.776
4.542 1.541 0.320
3.998 3.322 2.057
3.991 3.512 1.978
3.849 3.779 2.379
4.079 3.844 2.523
3.709 4.281 2.705
4.146 3.280 2.244
4.234 3.559 2.459
4.204 3.634 2.648
3.909 3.896 2.508
4.484 3.418 2.534
4.386 3.222 2.558
4.481 3.109 2.083
4.587 3.268 2.560
5.024 2.292 1.972
4.831 2.608 2.015
4.866 2.819 2.349
4.921 2.919 2.495
5.257 2.293 1.761
5.475 2.196 1.955
5.336 2.402 2.259
5.260 2.771 2.463
5.249 2.750 2.585
4.553 4.930 4.472
5.465 2.177 2.137
5.262 2.014 2.448
5.256 2.329 2.635
5.309 2.884 2.697
5.038 4.220 4.363
5.140 4.676 4.642
5.084 4.547 4.562
4.975 4.694 4.965
5.894 1.669 1.870
5.874 1.872 2.449
5.706 2.031 2.506
5.843 2.313 2.854
5.675 2.760 3.034
5.345 4.335 4.334
5.040 4.413 4.695
5.060 4.494 4.717
5.127 4.663 4.918
6.143 1.642 2.066
6.046 1.729 2.621
5.878 1.863 2.499
6.064 2.385 2.868
5.980 2.705 3.017
5.565 3.724 4.282
5.449 4.337 4.538
5.296 4.237 4.907
5.428 4.364 4.818
5.210 4.566 5.109
6.242 1.818 2.754
6.304 1.897 2.616
6.155 2.298 3.003
6.217 2.593 2.906
5.969 3.942 4.600
5.663 4.219 4.691
5.688 4.309 5.038
5.453 4.334 5.290
5.483 4.475 5.096
5.920 4.039 4.732
5.973 4.359 5.234
6.068 4.508 5.385
5.948 4.498 5.295
6.100 4.007 4.847
6.210 4.055 5.117
6.252 4.306 5.322
5.976 4.421 5.442
1.237 5.781 2.161
1.318 6.390 2.492
2.712 4.578 1.512
2.758 4.193 1.285
2.788 4.482 1.680
2.545 4.707 1.771
2.724 4.627 1.847
3.553 2.278 0.283
3.507 2.510 0.323
2.961 3.978 1.446
2.877 4.066 2.006
2.813 4.370 1.989
2.772 4.463 2.423
3.795 1.828 -0.022
3.736 2.307 0.043
3.598 2.310 0.221
3.490 4.095 1.584
3.030 4.093 1.956
3.086 4.372 2.118
3.322 4.580 2.205
3.074 4.605 2.547
3.822 2.590 -0.120
3.559 2.472 0.347
3.472 4.094 1.804
3.575 4.189 1.713
3.130 4.396 1.948
3.340 4.870 2.199
3.440 5.001 2.304
3.826 2.076 0.179
3.761 2.499 0.083
3.892 3.842 1.739
3.693 3.970 2.070
3.553 4.249 2.237
3.310 4.648 2.254
3.460 4.581 2.724
4.032 3.739 1.664
3.983 3.998 1.734
4.023 3.936 2.073
3.930 4.147 2.477
3.757 4.649 2.703
3.551 4.794 2.814
4.323 3.366 1.780
4.342 3.819 1.966
4.250 3.811 2.073
4.035 4.290 2.357
4.094 4.551 2.694
4.152 4.498 2.610
4.655 3.417 1.891
4.612 3.296 1.980
4.420 3.804 2.207
4.075 3.798 2.583
4.316 4.192 2.400
4.267 4.377 2.569
4.576 2.860 1.638
4.776 3.069 2.132
4.569 3.625 2.370
4.743 3.732 2.148
4.637 4.026 2.600
4.418 3.804 2.686
5.178 2.502 1.634
4.957 2.774 1.927
4.751 3.304 2.060
5.032 3.411 2.319
4.883 3.731 2.311
4.976 3.702 2.596
5.271 2.248 1.800
5.242 2.806 1.887
5.310 2.579 1.914
5.057 3.125 2.377
4.863 3.374 2.469
4.841 3.518 2.871
5.679 2.199 1.578
5.258 2.369 1.676
5.515 2.676 2.029
5.210 2.522 2.347
5.492 2.729 2.432
5.108 3.045 2.769
5.907 2.212 1.806
5.706 2.255 2.187
5.649 2.454 2.096
5.416 2.479 2.132
5.752 2.950 2.474
5.381 3.019 2.968
5.733 1.781 2.055
6.081 2.126 2.172
5.775 2.191 2.440
5.929 2.571 2.715
5.828 2.587 2.782
5.583 4.349 4.028
5.561 4.582 4.580
5.287 4.871 4.417
6.024 2.027 2.222
6.134 1.933 2.027
5.881 2.366 2.591
5.944 2.243 2.600
6.092 2.419 2.789
5.565 3.941 4.075
5.779 4.188 4.161
5.550 4.321 4.516
5.764 4.827 4.918
5.629 4.964 4.842
5.974 4.024 4.309
5.897 4.156 4.448
5.681 4.521 4.545
5.663 4.617 5.118
5.563 5.058 5.262
6.289 3.799 4.521
5.939 4.243 4.669
6.147 4.248 5.014
5.940 4.709 5.046
5.889 4.600 5.418
6.375 4.423 5.169
1.621 5.918 1.646
1.681 6.066 1.866
1.755 6.187 2.080
1.729 6.337 2.324
1.960 6.412 2.384
3.336 2.838 0.334
2.951 4.155 1.550
3.189 4.436 1.983
3.298 4.951 2.166
3.959 2.539 0.020
3.490 2.473 0.329
3.638 3.938 1.497
3.352 4.439 1.706
3.538 4.279 1.867
3.145 4.735 2.424
3.489 4.920 2.199
3.751 2.912 0.237
3.497 4.516 1.609
3.728 4.564 1.728
3.659 5.021 1.975
3.248 5.159 2.324
3.735 4.285 1.490
3.858 4.292 1.696
3.782 4.401 2.065
3.835 4.709 2.089
3.684 4.923 2.340
4.241 3.642 1.740
4.077 4.268 1.796
3.944 4.247 1.809
3.756 4.583 1.992
3.949 4.631 2.486
3.908 5.015 2.560
3.975 5.248 2.696
4.469 3.589 1.610
4.402 3.829 1.911
4.028 4.037 1.866
4.278 4.159 2.383
4.345 4.628 2.256
4.047 4.602 2.478
4.527 3.534 1.475
4.530 3.734 2.073
4.350 3.940 2.177
4.548 4.074 2.297
4.435 4.374 2.653
4.555 4.669 2.421
4.125 4.853 2.660
4.636 2.937 1.737
4.955 3.574 1.958
4.905 3.652 2.016
4.861 3.638 2.236
4.624 4.189 2.402
4.482 4.426 2.662
4.432 4.373 2.898
5.045 2.557 1.389
5.302 2.987 1.680
5.210 3.171 1.529
5.242 3.285 1.936
5.203 3.572 2.348
5.097 3.740 2.539
4.933 3.891 2.610
5.339 2.228 1.552
5.513 2.597 1.542
5.557 2.666 1.761
5.456 3.040 1.841
5.103 3.334 2.328
5.202 3.584 2.188
5.245 3.389 2.601
5.432 2.390 1.443
5.495 2.660 1.715
5.421 2.567 2.092
5.588 2.744 2.282
5.669 3.042 2.376
5.452 3.233 2.406
5.703 1.890 1.612
5.987 2.215 1.459
5.876 2.295 1.781
5.996 2.387 1.998
5.717 3.012 2.015
5.868 2.812 2.483
5.465 3.363 2.723
6.226 2.141 1.615
6.054 2.455 1.917
6.031 2.604 2.255
5.897 2.790 2.348
5.991 2.888 2.346
6.210 2.316 2.077
6.098 2.518 2.721
5.759 4.444 3.862
5.815 4.519 4.293
5.664 4.459 4.637
5.974 4.936 4.389
6.229 4.324 4.299
6.165 4.199 4.555
5.932 4.398 4.779
6.184 4.977 4.531
6.042 5.209 5.052
6.426 4.652 4.624
6.030 4.511 4.945
6.077 4.939 5.067
1.803 5.816 1.416
1.598 6.039 1.650
2.071 5.886 1.668
1.756 6.385 2.021
3.308 3.359 -0.070
3.751 2.599 0.246
3.651 4.220 1.789
3.519 4.805 1.620
3.328 5.095 1.929
3.431 4.940 2.153
3.653 4.618 1.489
3.610 4.867 1.688
4.024 4.493 1.501
3.967 4.906 1.631
3.956 5.096 2.081
3.916 5.078 2.330
3.879 5.401 2.320
4.377 4.199 1.475
4.417 4.255 1.891
3.974 4.627 2.129
4.161 4.750 2.011
4.292 4.995 2.226
3.919 5.331 2.374
4.690 3.819 1.753
4.356 4.240 1.968
4.348 4.212 1.907
4.467 4.408 2.117
4.101 4.925 2.514
4.160 5.146 2.700
4.288 5.030 2.700
4.799 3.767 1.439
4.723 3.667 1.481
4.684 3.989 1.892
4.482 4.211 2.108
4.516 4.618 2.505
4.766 4.848 2.481
4.599 4.698 2.789
4.342 5.016 2.741
4.901 3.163 1.494
4.865 3.443 1.324
5.017 3.560 1.708
4.953 3.616 1.925
4.894 3.954 2.109
5.094 4.131 2.086
5.014 4.214 2.346
4.639 4.607 2.725
5.456 2.999 1.000
5.251 3.237 1.284
5.442 3.467 1.628
5.095 3.361 2.021
5.314 3.812 2.046
5.178 4.078 2.057
5.269 4.258 2.304
5.232 4.153 2.486
5.755 2.226 0.781
5.463 2.335 1.260
5.772 2.742 1.505
5.601 2.878 1.741
5.508 3.132 1.929
5.463 3.177 1.716
5.206 3.703 1.927
5.485 3.565 2.433
5.950 2.027 1.342
5.696 2.229 1.378
5.603 2.428 1.565
5.835 2.853 1.700
5.488 2.998 1.816
5.782 3.176 2.189
5.565 3.362 2.362
6.263 2.102 1.093
6.154 2.373 1.501
6.245 2.530 1.640
5.853 2.778 1.857
5.856 2.821 2.066
5.830 2.952 2.017
6.351 2.664 1.719
6.107 2.693 2.214
6.070 2.804 2.380
6.036 4.565 3.895
6.167 4.701 4.117
6.341 4.433 4.243
6.414 4.853 4.447
6.059 4.993 4.738
2.216 6.091 0.892
1.810 6.080 1.393
2.178 6.211 1.390
3.931 3.335 -0.160
3.494 4.720 1.638
3.567 4.833 1.965
4.270 4.916 1.556
4.019 5.238 2.068
3.879 5.418 2.120
3.854 5.727 2.144
4.138 4.552 1.600
4.081 4.801 2.042
4.059 5.091 1.963
4.358 5.110 2.293
4.254 5.275 2.345
4.242 5.682 2.742
4.601 4.083 1.500
4.572 4.446 1.840
4.510 4.564 2.021
4.719 4.923 2.027
4.608 5.222 2.390
4.340 5.391 2.350
4.228 5.563 2.654
4.954 4.190 1.639
4.869 4.100 1.855
4.690 4.358 2.018
4.969 4.583 2.170
4.863 5.078 2.360
4.493 4.923 2.478
4.548 5.483 2.608
4.805 5.501 3.122
5.310 3.362 1.109
5.275 3.643 1.279
5.203 3.842 1.846
5.217 4.030 1.731
4.923 4.456 1.897
5.007 4.550 2.090
4.958 4.622 2.394
5.143 4.827 2.805
5.379 2.637 0.722
5.662 2.991 1.002
5.664 2.986 1.451
5.378 3.440 1.231
5.507 3.765 1.432
5.358 3.704 1.930
5.268 4.179 1.955
5.066 4.476 2.216
5.707 2.336 0.428
5.833 2.675 0.688
5.986 2.858 0.900
5.769 3.033 1.451
5.836 2.959 1.583
5.711 3.496 1.469
5.834 3.533 1.889
5.755 3.523 2.102
5.913 2.026 0.627
6.122 2.465 0.940
5.789 2.596 1.208
6.163 3.058 1.200
5.861 3.264 1.691
5.927 3.472 1.639
6.033 3.538 1.805
6.115 2.533 1.090
6.336 2.555 1.136
6.405 2.903 1.329
5.957 2.787 1.888
6.136 2.961 1.882
2.056 5.944 0.523
2.150 5.982 0.865
2.328 6.051 1.286
2.233 6.192 1.119
4.100 5.402 1.612
4.211 5.585 2.053
4.152 5.709 2.062
4.016 5.976 2.533
4.683 4.856 1.589
4.451 5.255 1.658
4.380 5.439 1.882
4.465 5.534 2.440
4.401 5.908 2.418
4.442 6.173 2.482
4.744 4.848 1.647
4.930 4.742 1.734
4.474 4.899 2.219
4.510 5.188 2.233
4.750 5.643 2.563
4.753 5.507 2.446
4.325 5.846 2.946
4.535 6.064 3.088
4.818 4.829 1.852
4.945 4.847 1.810
4.783 5.199 2.335
4.654 5.104 2.259
4.657 5.276 2.476
4.925 5.602 2.705
4.522 5.867 3.085
4.545 5.884 3.005
5.147 4.867 1.932
5.349 5.021 2.396
4.901 4.986 2.664
5.248 5.355 2.471
4.778 5.723 2.698
5.176 5.777 3.023
5.683 2.475 0.053
5.943 2.478 0.365
5.781 2.551 0.409
5.530 2.886 0.632
5.872 3.378 1.086
5.415 3.162 1.055
5.924 1.952 0.179
5.954 2.203 0.342
5.952 2.658 0.551
6.193 2.695 0.653
5.783 2.774 0.822
5.833 2.999 0.981
5.709 3.529 1.465
6.042 3.282 1.299
6.453 2.594 0.741
6.444 2.458 1.062
6.105 2.615 1.000
6.329 3.168 1.234
6.137 3.294 1.617
5.856 3.428 1.412
2.665 5.536 0.298
2.286 5.910 0.342
2.328 6.234 0.497
2.409 6.116 0.695
2.897 5.863 0.736
2.747 6.093 0.538
2.553 6.246 0.964
4.574 5.491 1.912
4.342 5.846 1.823
4.162 5.970 2.136
4.640 5.448 1.929
4.407 5.821 1.990
4.397 5.683 1.931
4.369 5.963 2.535
4.387 6.238 2.479
4.973 5.434 1.833
4.745 5.434 1.949
4.572 5.482 2.255
4.554 5.983 2.430
4.584 6.179 2.570
5.168 5.294 1.833
5.152 5.461 2.010
4.861 5.692 2.444
4.898 5.760 2.798
4.939 6.164 2.695
4.936 6.094 2.791
5.419 5.392 2.589
5.214 5.488 2.769
5.167 6.128 2.915
5.185 6.151 3.237
6.044 2.744 0.394
5.703 2.942 0.556
5.338 6.105 3.091
5.096 6.160 3.608
6.266 2.555 0.347
6.234 2.669 0.312
6.149 2.829 0.691
6.287 2.839 0.605
5.959 3.341 0.963
2.590 5.917 0.101
2.764 5.963 0.308
2.725 6.265 0.585
2.643 5.927 0.219
2.799 5.795 0.135
2.583 5.893 0.788
3.248 5.286 0.213
3.108 5.662 0.183
3.629 5.182 0.072
3.666 4.726 -0.179
4.697 5.664 1.801
4.267 6.251 1.593
4.544 6.401 2.092
4.534 5.881 1.817
4.873 5.954 2.148
4.422 6.121 2.167
4.802 5.801 2.006
4.873 6.078 2.015
4.759 5.873 2.427
5.149 5.435 2.157
5.348 6.011 2.088
5.069 5.970 2.396
4.881 6.330 2.527
5.458 5.757 2.589
5.423 5.934 2.787
6.204 2.793 -0.151
5.484 6.228 2.953
5.279 6.291 3.057
6.415 3.222 0.603
2.938 6.179 -0.084
3.144 5.919 0.028
3.075 5.859 0.076
3.112 5.598 0.040
3.053 5.904 0.167
3.432 5.398 -0.085
3.603 5.236 -0.060
3.898 5.054 0.086
4.635 6.270 1.738
4.731 6.001 1.694
4.644 6.268 1.868
5.233 6.278 2.180
5.139 6.486 2.169
5.345 5.764 1.870
5.081 6.286 2.312
5.648 5.961 2.599
5.238 6.444 2.631
3.202 6.065 -0.027
3.334 6.184 -0.005
4.098 5.437 -0.084
4.554 4.956 0.021
4.634 5.077 0.051
5.420 6.002 1.572
4.850 4.849 0.097
5.134 5.297 -0.177
5.662 5.214 0.099
5.860 4.791 0.004
1.693 0.670 2.212
1.446 0.906 2.588
1.747 1.303 2.643
1.370 1.182 2.655
1.655 1.651 3.090
1.330 2.962 4.437
1.257 3.031 4.639
1.210 3.269 4.717
0.905 3.687 4.799
1.098 4.023 4.979
1.921 0.765 2.523
2.053 1.004 2.629
1.949 1.104 2.886
1.825 1.264 2.891
1.647 1.640 3.356
1.321 2.901 4.835
1.418 3.452 5.044
1.394 3.725 5.140
1.128 3.663 5.429
2.033 0.621 2.765
2.183 0.778 3.091
2.227 1.193 3.040
2.028 1.264 3.126
1.565 3.150 5.040
1.734 3.384 4.877
1.428 3.622 5.388
1.505 3.434 5.498
2.178 0.842 3.136
2.038 0.997 2.950
2.351 0.890 3.311
2.176 1.135 3.470
2.359 1.541 3.816
1.795 3.469 5.240
2.276 0.610 3.248
2.386 0.976 3.531
2.311 1.074 3.480
2.493 1.297 4.014
2.845 1.110 3.604
2.494 1.111 3.806
2.724 1.168 4.019
2.549 1.356 4.137
3.253 1.286 4.302
2.792 1.459 4.447
3.024 1.633 4.468
2.936 1.678 4.968
3.367 1.271 4.572
3.098 1.263 4.606
3.265 1.674 4.574
3.322 1.632 4.953
3.110 1.965 5.031
3.373 1.361 4.742
3.238 1.125 5.036
3.344 1.568 5.306
3.390 1.725 5.369
3.509 0.860 4.804
3.799 1.228 5.035
3.830 1.516 5.350
3.340 1.473 5.247
3.357 1.825 5.805
4.127 1.047 5.185
3.815 0.985 5.029
3.815 1.156 5.447
3.919 1.528 5.406
3.801 1.860 5.891
4.081 0.971 5.122
4.071 0.939 5.206
4.085 1.302 5.567
3.985 1.485 5.749
4.427 0.625 5.548
4.288 0.813 5.410
4.506 1.038 5.563
4.161 1.436 6.055
4.605 0.803 5.895
0.410 0.367 -0.029
0.314 0.220 0.267
0.028 0.414 0.397
0.410 0.717 0.823
0.357 -0.069 -0.087
0.774 0.169 0.370
0.582 0.136 0.389
0.511 0.065 -0.000
0.449 3.789 4.276
-0.051 4.046 4.484
-0.008 4.232 4.569
0.853 1.734 2.227
0.545 3.435 4.240
0.305 3.539 4.483
0.374 3.781 4.645
0.293 4.167 4.776
0.964 0.895 2.062
1.310 1.454 2.297
1.217 1.672 2.415
1.054 1.851 2.773
0.586 3.269 4.266
0.455 3.569 4.458
0.547 3.777 4.478
0.534 3.978 4.680
1.193 0.941 2.441
1.224 1.201 2.648
1.222 1.589 2.624
1.065 1.780 2.840
0.778 3.295 4.279
1.142 3.281 4.481
0.904 3.388 4.693
0.634 3.877 4.742
1.034 3.937 4.953
1.742 0.709 2.476
1.533 0.848 2.599
1.790 1.131 2.564
1.770 1.247 2.846
1.395 1.760 2.996
1.344 3.109 4.393
0.947 3.016 4.710
1.080 3.540 4.608
0.884 3.764 4.752
1.200 4.023 5.378
1.755 0.947 1.892
1.984 0.967 2.207
1.824 1.336 2.617
1.703 1.693 2.883
1.536 1.580 2.729
1.317 3.200 4.068
1.375 3.496 4.444
1.448 3.806 4.476
1.112 3.739 5.026
1.192 3.790 4.896
2.026 0.813 2.478
1.866 1.091 2.234
1.832 1.264 2.552
1.876 1.341 2.681
1.928 1.516 3.115
1.750 3.209 4.598
1.628 3.468 4.974
1.692 3.650 5.124
2.348 0.644 2.300
2.386 1.163 2.801
2.222 1.177 2.977
2.327 1.421 2.760
1.948 1.573 2.985
2.239 1.563 3.536
2.585 0.563 2.510
2.505 0.962 2.905
2.574 1.060 3.105
2.508 1.471 3.329
2.522 1.478 3.240
2.200 1.594 3.517
2.846 0.790 3.032
2.599 0.775 3.136
2.593 1.006 3.421
2.570 1.426 3.669
2.472 1.484 3.828
2.449 1.573 3.977
2.674 0.830 3.061
2.658 1.113 3.524
2.615 1.179 3.555
2.881 1.395 4.021
2.887 1.688 4.169
2.509 1.979 4.183
3.138 0.841 3.670
3.134 1.123 3.911
3.217 1.534 3.890
2.979 1.713 4.352
3.028 1.691 4.327
3.059 2.016 4.696
3.182 0.886 3.686
3.203 1.236 4.091
3.038 1.283 4.264
3.183 1.547 4.599
3.205 1.912 4.838
3.263 1.965 4.675
3.306 1.277 4.238
3.253 1.513 4.265
3.359 1.594 4.860
3.100 1.949 4.953
3.234 2.042 4.859
3.117 2.010 5.277
3.636 1.301 4.441
3.606 1.104 4.556
3.387 1.607 4.698
3.663 1.836 4.867
3.522 2.127 5.246
3.448 1.968 5.137
3.745 1.042 4.574
3.666 1.516 4.832
3.771 1.798 5.214
3.826 1.852 5.499
3.843 2.293 5.434
4.027 1.278 4.688
4.092 1.114 5.052
4.128 1.458 5.279
3.822 1.714 5.322
4.018 1.986 5.876
4.415 1.310 5.200
3.996 1.694 5.577
4.076 1.758 5.545
0.366 0.480 0.114
0.571 0.520 0.442
0.429 1.096 0.321
0.087 1.267 0.835
0.800 0.140 -0.119
0.748 0.354 0.374
0.458 0.573 0.536
0.622 0.839 0.759
0.721 0.308 -0.018
0.978 0.175 0.099
0.749 0.449 0.515
0.801 0.576 0.407
0.161 3.959 4.117
0.047 4.422 3.926
0.045 4.347 4.248
1.092 0.221 0.308
1.095 0.214 0.309
1.215 0.396 0.663
0.255 3.696 3.890
0.373 3.819 3.977
0.141 4.022 4.276
0.295 4.335 4.223
1.320 0.265 0.486
0.674 3.413 3.817
0.839 3.513 3.817
0.833 3.885 4.011
0.774 4.216 4.435
0.771 4.521 4.366
0.858 3.138 3.803
0.726 3.542 3.966
0.748 3.958 4.346
0.966 3.879 4.331
0.829 4.182 4.802
1.451 1.056 2.124
1.632 1.302 2.262
1.653 1.711 2.583
1.187 3.095 4.177
1.020 3.274 4.259
1.261 3.667 4.283
1.220 3.709 4.540
0.955 4.081 4.744
1.963 0.974 1.958
1.907 1.067 2.335
1.902 1.544 2.665
1.566 1.392 2.498
1.608 1.559 2.676
1.153 3.063 4.102
1.557 3.158 4.420
1.466 3.562 4.530
1.094 3.994 4.977
1.271 4.035 5.079
2.059 0.861 1.830
1.893 1.236 1.924
1.955 1.350 2.461
1.642 1.717 2.491
1.646 3.164 4.230
1.313 3.689 4.159
1.604 3.711 4.374
1.624 4.078 4.557
2.408 1.120 2.057
2.185 1.341 2.462
2.339 1.186 2.649
2.240 1.624 2.827
1.848 1.873 2.751
2.653 0.613 2.238
2.678 0.747 2.168
2.603 0.918 2.260
2.309 1.470 2.584
2.363 1.687 2.658
2.369 1.895 3.090
2.420 2.030 3.012
2.727 0.587 2.505
2.516 1.069 2.485
2.380 1.010 2.847
2.590 1.371 3.087
2.733 1.497 3.051
2.395 2.015 3.369
2.972 0.769 2.771
2.956 0.723 2.681
2.789 1.123 3.054
2.859 1.535 3.268
2.884 1.391 3.473
2.915 1.987 3.501
2.729 1.950 3.828
3.256 0.973 2.816
2.873 0.912 3.302
3.232 1.139 3.505
3.012 1.445 3.512
2.820 1.646 3.878
2.658 2.039 3.692
2.630 1.946 3.974
3.452 1.219 3.517
2.966 1.412 3.806
2.994 1.428 3.822
2.986 1.716 4.102
2.937 1.840 4.088
3.176 2.284 4.571
3.050 2.458 4.552
3.387 1.310 3.610
3.367 1.398 4.096
3.125 1.763 4.278
3.253 1.938 4.193
3.456 2.303 4.356
3.254 2.345 4.783
3.380 2.534 4.872
3.606 1.274 3.918
3.496 1.474 4.093
3.573 1.759 4.559
3.473 2.002 4.895
3.325 2.217 4.807
3.248 2.277 5.132
4.061 1.516 4.061
3.778 1.417 4.435
3.811 1.572 4.412
3.723 1.840 4.941
3.772 2.052 4.833
3.465 2.166 5.180
3.379 2.492 5.338
3.894 1.481 4.741
3.886 1.753 4.611
4.155 1.968 5.112
3.749 1.896 4.981
3.901 2.008 5.285
4.366 1.457 4.704
4.346 1.523 5.117
3.981 1.881 5.333
4.248 2.067 5.465
0.685 0.917 0.254
0.650 0.975 0.464
0.573 1.497 0.490
0.542 1.680 0.576
0.928 0.839 0.261
0.968 0.591 0.417
0.819 0.808 0.457
0.525 1.111 0.739
0.287 4.449 3.641
0.082 4.556 3.802
1.009 0.275 0.136
1.077 0.668 0.134
0.833 0.860 0.376
0.336 3.867 3.773
0.533 4.095 3.704
0.525 4.313 3.823
0.203 4.482 4.201
0.909 0.313 0.257
1.148 0.127 0.221
1.427 0.494 0.510
0.453 3.580 3.499
0.780 3.910 3.757
0.416 4.187 3.749
0.299 4.159 4.164
0.465 4.706 4.351
1.339 0.085 0.398
1.387 0.158 0.241
0.880 3.858 3.515
0.719 3.884 3.830
0.781 3.929 4.038
0.515 4.286 4.356
0.770 4.261 4.329
1.578 0.325 0.281
1.848 -0.052 0.280
1.299 3.311 3.710
1.107 3.780 4.022
1.184 3.672 3.795
1.236 3.998 4.147
0.927 4.322 4.403
0.775 4.535 4.684
1.872 -0.152 0.494
1.453 3.605 3.868
1.241 3.504 3.990
1.178 4.100 4.354
1.064 3.975 4.303
0.990 4.297 4.901
1.779 1.188 1.801
2.187 1.343 2.320
1.775 1.632 2.229
1.701 1.766 2.611
1.634 3.257 4.104
1.287 3.750 4.264
1.642 3.917 4.409
1.250 3.818 4.673
2.087 1.237 1.962
1.902 1.477 2.270
1.451 3.852 4.158
1.653 4.004 4.434
2.450 0.770 1.815
2.378 1.274 2.134
2.504 1.266 2.217
2.201 1.405 2.484
2.099 1.684 2.522
2.744 0.655 2.035
2.725 1.051 2.264
2.771 1.517 2.199
2.310 1.368 2.537
2.619 1.522 2.839
2.611 1.725 3.017
2.746 0.796 2.110
2.816 0.868 2.233
2.984 1.288 2.333
2.954 1.536 2.676
2.875 1.706 2.734
2.786 1.907 3.097
2.427 1.799 3.001
3.057 0.733 2.113
2.928 0.917 2.527
3.229 1.025 2.650
2.969 1.367 2.992
2.848 1.660 3.175
2.776 1.613 2.948
2.801 1.967 3.516
3.048 2.141 3.499
3.178 0.794 2.875
3.146 1.075 2.838
2.992 1.597 3.178
3.086 1.742 3.381
3.191 1.699 3.358
3.185 2.012 3.875
3.196 2.409 3.824
3.006 2.516 4.199
3.654 1.302 3.071
3.313 1.107 3.154
3.241 1.536 3.359
3.317 1.887 3.614
3.240 1.858 3.897
3.408 1.978 3.900
3.379 2.141 4.343
3.084 2.413 4.251
3.612 1.245 3.765
3.511 1.840 3.915
3.676 1.835 3.926
3.522 1.947 4.260
3.590 2.274 4.189
3.556 2.323 4.519
3.261 2.613 4.782
3.196 2.958 4.806
3.892 1.601 3.729
3.755 1.912 3.922
3.876 1.843 4.310
3.773 2.395 4.597
3.497 2.472 4.526
3.478 2.524 4.851
3.454 2.601 4.925
3.812 1.788 4.068
3.940 1.897 4.377
3.826 2.120 4.858
3.707 2.353 5.016
3.964 2.713 4.836
3.754 2.494 5.433
4.167 1.717 4.466
4.150 1.856 4.803
3.856 2.389 5.151
4.179 2.285 5.401
4.028 2.820 5.200
4.396 2.121 5.196
4.145 2.004 5.339
4.929 0.208 3.368
4.942 -0.140 3.835
0.811 0.912 0.121
0.902 1.227 0.148
0.625 1.417 0.415
0.808 1.855 0.470
0.402 2.088 0.765
0.857 1.174 0.094
0.958 1.413 0.473
0.715 1.375 0.401
0.355 4.676 3.492
0.400 4.502 3.691
-0.008 5.066 3.994
1.000 0.694 0.019
1.010 1.060 0.145
1.260 0.893 0.718
0.608 4.378 3.460
0.413 4.483 3.694
0.304 4.685 3.976
0.624 5.006 3.851
1.572 0.162 0.196
1.438 0.509 0.032
1.001 3.783 3.125
0.986 4.056 3.497
0.572 4.278 3.618
0.521 4.165 3.891
0.567 4.421 4.126
0.713 4.870 4.020
1.596 0.300 0.123
1.694 0.420 0.198
1.038 3.542 3.231
1.064 3.596 3.684
0.766 3.983 3.617
1.030 4.242 3.787
0.782 4.269 4.219
0.678 4.530 4.269
1.575 0.287 0.366
1.116 3.348 3.680
1.492 3.791 3.560
1.018 4.100 3.699
1.183 4.233 4.128
1.302 4.198 4.006
1.232 4.649 4.368
1.427 3.642 3.547
1.659 3.730 3.838
1.507 3.949 3.784
1.371 3.972 4.363
1.444 4.480 4.361
2.321 1.697 1.972
2.260 1.581 2.184
1.903 3.964 4.360
1.798 4.175 4.393
2.527 1.183 1.585
2.598 1.408 1.837
2.518 1.466 1.989
2.598 1.718 2.346
2.683 1.008 1.512
2.968 1.036 1.660
3.004 1.246 2.072
2.664 1.494 2.361
2.551 1.887 2.280
2.723 1.926 2.730
3.300 0.894 1.922
3.224 1.027 2.031
3.016 1.318 1.950
2.996 1.588 2.428
2.885 1.772 2.515
3.066 1.919 2.464
2.721 1.846 2.674
3.440 0.434 1.704
3.246 0.982 1.899
3.027 1.207 2.233
3.275 1.100 2.240
3.008 1.498 2.532
3.204 1.483 2.738
3.145 1.818 2.862
2.851 2.302 3.086
3.669 1.092 2.351
3.205 1.027 2.795
3.554 1.179 2.655
3.116 1.673 3.151
3.429 1.655 3.325
3.104 1.891 3.229
3.087 1.982 3.512
3.044 2.329 3.537
3.431 1.405 3.084
3.327 1.607 3.259
3.376 2.093 3.599
3.283 1.992 3.707
3.312 2.384 3.748
3.434 2.422 4.075
3.109 2.929 4.334
3.084 2.773 4.583
3.688 1.804 3.874
3.616 2.228 3.856
3.821 2.459 4.015
3.670 2.282 4.033
3.726 2.529 4.469
3.408 2.837 4.460
3.399 3.044 5.026
3.535 3.505 5.057
3.859 2.118 3.759
3.731 1.945 4.071
3.664 2.502 4.182
3.957 2.470 4.450
3.802 2.666 4.983
3.890 2.976 4.919
3.440 3.377 5.162
4.123 1.941 4.285
3.971 2.216 4.420
4.139 2.339 4.623
3.916 2.765 5.128
3.980 3.075 4.921
3.970 2.900 5.299
4.262 2.088 4.574
4.431 2.179 4.879
4.393 2.641 5.176
4.336 2.608 5.110
4.868 -0.051 3.298
5.107 0.308 3.334
5.530 0.254 3.338
5.431 0.219 3.580
5.031 0.313 3.965
5.699 0.018 3.491
5.604 0.192 3.923
0.906 1.693 0.220
0.616 1.661 0.040
1.009 1.982 0.419
0.697 1.891 0.770
0.865 2.070 0.903
1.355 1.213 -0.072
1.320 1.241 0.045
0.898 1.749 0.558
1.035 1.756 0.477
0.252 5.078 3.313
0.484 4.924 3.670
1.156 0.921 0.249
0.807 4.343 3.230
0.935 4.316 3.231
0.545 4.750 3.559
0.751 4.867 3.825
0.785 4.779 3.820
0.906 3.661 2.992
1.101 3.882 3.061
1.045 4.305 3.213
1.013 4.372 3.528
0.877 4.429 3.569
0.947 4.716 3.994
0.977 4.690 3.900
1.521 3.527 3.175
1.238 3.585 3.158
1.345 3.761 3.173
1.242 4.158 3.604
1.225 4.449 3.620
0.922 4.820 4.012
1.158 4.705 3.954
1.361 3.540 3.072
1.637 3.678 3.388
1.486 3.661 3.588
1.596 4.219 3.696
1.419 4.081 3.673
1.541 4.386 3.977
1.750 3.582 3.320
1.740 3.711 3.772
1.397 3.804 3.628
1.447 4.253 3.830
2.809 0.987 1.091
2.651 1.445 1.307
2.863 1.475 1.607
2.582 1.881 1.920
3.149 0.906 1.366
3.251 0.796 1.379
2.869 1.373 1.731
2.937 1.290 2.014
2.951 1.573 1.943
2.747 1.632 2.132
3.505 0.306 1.402
3.341 0.562 1.510
3.198 0.932 1.716
3.237 0.935 1.840
3.234 1.504 2.036
3.249 1.502 2.229
3.215 1.647 2.192
2.992 2.134 2.518
3.419 0.289 1.318
3.764 0.474 1.490
3.357 0.783 1.622
3.232 0.864 2.118
3.298 1.122 2.072
3.170 1.378 2.448
3.167 1.566 2.710
3.521 1.779 2.588
3.800 0.446 1.580
3.786 0.652 1.881
3.626 1.007 2.243
3.797 1.066 2.217
3.703 1.132 2.507
3.346 1.649 2.606
3.574 2.635 4.164
3.492 2.957 4.250
3.233 3.073 4.124
3.196 3.174 4.603
3.544 3.609 4.932
3.237 3.588 4.901
4.013 2.395 3.916
3.723 2.697 4.082
3.836 2.877 4.048
3.504 2.953 4.362
3.416 3.243 4.795
3.532 3.354 4.662
3.687 3.466 5.012
3.472 3.998 5.122
3.944 2.278 3.897
3.783 2.469 4.032
4.172 2.603 4.447
4.005 2.746 4.560
3.758 3.296 4.644
3.655 3.383 5.003
3.903 3.645 5.421
3.583 3.958 5.351
4.341 2.201 4.389
4.384 2.674 4.451
4.297 2.944 4.547
4.089 2.848 5.001
4.095 3.477 5.178
3.944 3.443 5.309
4.391 2.684 4.500
4.222 2.642 4.806
4.194 2.779 5.003
4.212 3.133 5.384
5.450 0.145 2.892
5.384 0.439 3.150
5.256 0.287 3.441
5.103 0.881 3.239
5.548 -0.145 3.130
5.587 0.068 3.139
5.570 0.611 3.215
5.405 0.624 3.576
5.478 0.944 3.686
5.619 -0.072 3.164
5.545 0.247 3.429
5.756 0.507 3.592
5.554 0.614 4.004
5.593 0.712 3.918
0.799 1.755 0.145
1.143 2.131 0.098
1.123 2.417 0.354
1.025 2.646 0.886
0.749 2.684 0.759
0.892 2.689 1.214
1.477 1.557 0.060
1.281 1.959 0.058
1.152 1.845 0.406
1.353 2.097 0.675
1.123 2.231 0.903
0.959 2.414 1.010
1.217 3.561 2.380
0.775 3.956 2.471
1.158 4.115 2.631
0.698 4.242 2.765
1.085 4.331 3.110
0.651 4.944 3.116
1.425 3.255 2.136
1.252 3.490 2.474
1.072 3.715 2.637
1.410 3.847 3.073
1.125 4.465 2.951
1.078 4.276 3.221
0.899 4.495 3.388
0.927 4.840 3.592
1.725 3.458 2.298
1.541 3.506 2.443
1.494 3.732 2.653
1.286 4.141 2.941
1.530 4.111 3.276
1.162 4.131 3.552
1.135 4.340 3.814
1.298 4.658 3.946
1.720 3.656 2.959
1.812 3.590 2.944
1.424 3.630 3.105
1.804 3.845 3.543
1.636 4.410 3.593
1.479 4.354 3.641
1.690 3.658 2.971
1.688 3.806 3.063
1.950 3.808 3.408
1.923 4.239 3.807
0.363 2.299 -0.127
0.196 2.881 0.459
0.715 2.464 -0.041
0.259 2.226 0.348
0.302 2.759 0.474
0.259 2.657 0.615
0.829 1.976 0.073
0.770 2.455 0.329
0.838 2.663 0.670
0.784 2.598 0.788
0.454 3.082 0.786
0.308 2.708 0.202
0.182 3.002 0.144
0.658 2.755 -0.048
0.561 2.741 0.440
0.536 2.843 0.264
0.664 3.347 0.670
0.737 2.591 0.299
0.688 2.559 0.168
0.769 3.010 0.752
0.882 3.345 0.571
0.602 3.304 1.180
0.561 3.239 0.261
0.469 3.277 0.381
0.706 2.809 0.036
0.815 3.137 0.409
0.850 3.477 0.530
0.624 3.384 0.792
1.004 2.630 -0.118
1.032 3.041 0.017
0.825 3.039 0.249
0.905 3.406 0.634
0.672 3.509 0.861
0.999 3.768 0.826
0.376 3.603 0.083
0.127 5.536 1.715
0.222 5.838 1.679
0.513 3.697 0.037
0.494 3.981 0.259
0.658 3.516 0.352
0.630 3.517 0.495
0.829 3.997 0.502
0.943 3.761 0.600
1.321 3.051 0.100
1.242 3.120 0.437
1.069 3.299 0.332
1.198 3.884 0.727
0.887 3.997 0.764
0.305 4.329 0.144
0.421 5.619 1.404
0.173 5.891 1.388
0.370 6.150 1.599
0.001 6.203 2.085
0.675 3.806 0.207
0.839 3.864 0.242
0.590 5.770 1.531
0.356 5.953 2.138
0.222 6.269 2.134
1.192 3.566 0.009
1.085 3.932 0.448
1.106 4.001 0.676
1.270 3.432 -0.064
1.406 3.457 0.282
1.242 4.105 0.571
0.952 4.054 0.687
0.197 5.657 1.333
-0.028 6.048 1.085
0.048 6.260 1.524
0.178 5.663 1.031
0.315 6.201 1.418
0.181 6.368 1.666
0.689 4.050 0.108
0.725 5.801 1.764
0.569 6.153 1.615
1.094 3.918 0.024
1.139 4.202 0.347
0.853 5.899 1.532
0.873 6.124 1.730
0.772 6.241 2.354
1.408 4.061 0.020
1.460 4.071 0.570
1.378 4.315 0.745
0.974 5.916 2.058
0.348 6.126 1.193
0.455 6.061 1.104
0.539 6.279 1.288
0.591 5.673 1.420
0.518 5.947 1.374
0.900 6.134 1.460
1.086 4.202 0.071
1.107 5.996 1.386
0.922 5.970 1.733
1.698 3.790 0.125
0.979 6.107 1.817
1.391 6.152 1.845
0.680 6.132 1.135
0.736 6.083 0.959
0.789 6.099 1.517
1.193 5.861 1.179
1.167 6.004 1.582
1.591 5.963 1.463
1.571 5.876 1.657
1.481 6.350 1.664
0.978 6.018 0.967
1.386 5.814 1.034
1.420 5.947 1.242
1.369 5.922 1.160
1.578 6.411 1.422
1.502 5.984 0.419
1.708 6.285 0.605
1.414 6.055 1.118
1.795 5.982 0.774
1.764 6.002 1.272
1.749 6.162 0.395
1.640 6.066 0.525
1.878 5.952 0.622
1.885 6.164 0.561
2.046 6.179 0.181
2.156 6.284 0.447
2.020 5.839 0.164
2.211 5.856 0.053
2.149 5.917 0.451
2.401 6.052 0.113
-0.189 0.637 0.165
0.160 0.437 0.437
0.282 0.836 -0.041
0.363 0.810 0.546
0.070 1.235 0.739
-0.168 1.670 0.589
-0.129 1.371 -0.008
-0.031 1.477 0.056
0.314 0.946 -0.165
0.334 1.249 0.218
0.152 1.441 0.481
0.286 1.704 0.399
0.158 1.469 0.111
0.384 1.951 0.504
-0.084 2.068 0.489
0.479 1.566 -0.165
0.209 1.407 0.297
0.405 1.877 0.558
0.473 2.021 0.769
-0.017 2.216 0.076
0.217 2.133 0.164
0.508 1.950 0.322
0.082 2.388 0.484
0.080 2.272 0.445
0.597 1.923 -0.065
0.508 2.092 0.306
0.337 2.200 0.473
0.656 2.160 0.628
0.226 2.454 -0.123
0.334 2.885 0.120
0.342 2.288 0.094
0.248 2.233 0.371
0.205 2.589 0.286
0.376 2.972 0.659
0.914 2.092 0.356
0.498 2.376 0.537
0.760 2.359 0.764
0.600 2.762 0.871
0.672 2.915 0.912
0.142 0.009 5.698
-0.017 0.390 6.095
0.222 0.247 5.999
-0.019 0.042 5.092
0.324 0.082 5.547
0.053 0.243 5.842
0.232 0.565 5.970
-0.017 0.908 6.219
0.492 -0.049 5.500
0.375 0.219 5.547
0.202 0.588 6.056
0.148 0.750 6.174
0.380 0.253 5.578
0.747 0.207 5.928
0.541 0.430 5.963
0.795 0.180 5.985
0.174 0.116 5.129
0.296 0.598 5.022
0.167 0.947 5.398
0.097 0.878 5.279
0.268 -0.044 4.878
0.298 0.035 4.943
0.396 0.661 5.377
0.359 0.459 5.389
0.006 0.638 5.671
0.129 1.207 5.994
0.076 1.293 6.245
0.490 0.033 5.433
0.477 0.569 5.631
0.700 0.542 5.515
0.473 0.805 5.996
0.323 1.095 6.037
0.675 0.196 5.155
0.727 0.153 5.791
0.530 0.481 5.984
0.726 0.500 5.859
0.435 0.932 6.084
1.034 0.383 5.941
1.043 0.201 6.105
0.953 0.640 6.080
1.393 0.233 5.624
0.193 0.775 4.881
0.340 1.070 5.245
0.249 1.120 5.187
0.179 1.193 5.499
0.170 1.348 5.808
0.478 0.317 4.858
0.588 0.798 5.165
0.609 0.814 5.509
0.617 1.105 5.391
0.182 1.085 5.678
0.279 1.506 5.733
0.989 -0.062 4.835
0.537 0.419 5.231
0.935 0.589 5.241
0.676 0.941 5.253
0.454 0.787 5.864
0.705 1.120 5.732
0.475 1.212 5.943
1.141 -0.163 5.054
0.746 0.080 5.205
0.958 0.460 5.215
1.010 0.690 5.795
0.932 0.818 5.673
0.951 1.221 6.052
0.577 1.094 6.253
1.385 0.311 5.594
1.086 0.129 5.418
1.060 0.452 5.770
1.181 0.628 5.842
1.436 -0.169 5.521
1.383 0.233 5.734
1.179 0.362 5.770
0.252 1.047 4.950
0.269 1.404 5.110
0.418 1.694 5.388
0.401 1.895 5.728
0.507 0.718 5.016
0.507 0.813 5.214
0.425 1.389 5.335
0.727 1.184 5.469
0.701 1.804 5.617
0.437 1.633 5.951
1.100 0.646 5.117
0.784 0.831 5.172
0.943 1.082 5.439
0.712 0.947 5.364
0.976 1.122 5.600
0.874 1.491 5.711
0.749 1.883 6.266
1.273 0.036 4.940
1.254 0.370 4.874
1.313 0.762 5.363
1.079 0.735 5.563
0.860 1.174 5.776
1.158 1.277 6.035
0.949 1.192 5.951
0.939 1.420 6.274
1.291 0.269 5.132
1.440 0.120 5.440
1.569 0.285 5.201
1.200 0.719 5.640
1.226 0.860 5.826
1.316 0.963 6.050
1.397 0.310 5.530
1.397 0.549 5.434
0.365 1.370 5.072
0.459 1.537 5.257
0.380 1.878 5.673
0.335 2.241 5.802
0.569 1.225 4.838
0.546 1.544 5.030
0.927 1.589 5.589
0.549 1.854 5.442
0.569 1.999 5.735
0.398 2.066 6.030
1.168 1.018 4.882
1.107 0.885 4.961
1.120 1.248 5.175
0.815 1.325 5.465
0.852 1.522 5.818
0.868 1.981 5.740
0.709 1.919 6.313
1.088 0.603 5.061
1.404 1.136 5.250
1.404 1.330 5.506
1.355 1.571 5.502
0.964 1.712 5.880
1.055 1.997 6.156
0.874 1.948 6.204
1.477 0.931 5.491
1.380 1.226 5.666
1.199 1.420 5.717
1.354 1.295 6.214
1.514 1.745 6.126
0.309 0.135 3.197
0.247 0.065 3.167
0.866 2.030 5.278
0.414 2.175 5.403
0.538 2.370 5.541
0.467 2.556 5.765
0.758 1.469 4.895
0.743 1.810 5.406
0.597 2.115 5.570
0.702 2.205 5.481
0.530 2.518 5.784
0.535 2.530 5.905
1.118 1.387 5.340
1.286 1.470 5.606
1.093 1.637 5.641
1.098 2.292 5.923
0.907 2.512 5.811
1.027 2.442 6.362
1.444 1.145 5.278
1.122 1.597 5.632
1.353 1.980 5.647
1.149 1.996 6.059
1.037 2.127 6.351
1.481 1.724 5.962
1.394 1.942 5.920
1.370 2.223 6.139
3.305 0.281 6.209
0.008 0.167 2.792
-0.019 0.418 2.593
0.044 0.433 2.788
-0.074 0.593 3.120
0.253 0.165 2.561
0.123 0.057 3.129
0.479 0.251 2.975
0.021 0.470 3.464
0.745 0.049 3.069
0.423 0.196 3.075
0.991 0.184 3.256
0.759 0.525 3.037
0.536 2.346 5.151
0.383 2.685 5.401
0.656 2.224 4.798
0.824 2.424 5.031
0.652 2.503 5.315
0.842 2.674 5.410
0.588 2.904 5.901
1.098 1.963 4.874
0.840 1.958 5.233
0.982 2.196 5.256
0.802 2.539 5.559
0.844 2.673 5.702
0.871 2.950 6.029
1.223 1.931 5.030
1.215 2.126 5.652
1.236 2.390 5.478
1.239 2.254 5.813
1.295 2.661 6.058
1.200 3.027 6.380
1.262 1.681 5.500
1.513 2.002 5.801
1.551 2.386 5.854
1.313 2.380 6.157
1.482 2.722 6.310
1.798 2.119 6.011
1.751 2.378 6.216
2.057 2.046 6.198
3.365 0.720 6.123
3.353 0.842 6.259
3.332 0.470 6.097
3.475 0.388 6.386
3.932 0.024 5.751
3.582 0.224 6.058
3.908 0.045 6.144
0.340 0.240 1.983
0.075 0.338 2.261
-0.041 0.658 2.677
0.481 0.073 2.268
0.452 0.313 2.500
0.204 0.360 2.551
0.265 0.706 2.837
0.040 1.167 2.878
0.001 1.018 3.239
0.329 1.413 3.303
0.382 -0.072 2.619
0.491 -0.008 2.490
0.468 0.519 2.817
0.668 0.591 3.107
0.475 0.804 3.089
0.349 1.272 3.541
0.696 0.083 2.931
0.494 0.160 3.106
0.500 0.508 3.222
0.413 0.902 3.229
0.872 0.151 3.035
0.840 0.377 3.033
0.315 2.428 5.397
0.252 2.679 5.348
1.208 0.369 2.910
1.050 0.441 2.938
1.269 0.532 2.961
0.900 0.811 3.341
0.631 2.345 4.904
0.517 2.642 4.991
0.474 2.819 5.414
0.654 2.896 5.222
0.705 2.581 5.065
0.672 2.737 5.203
0.794 2.698 5.296
0.707 3.120 5.654
0.788 3.086 5.778
1.117 2.051 4.861
1.396 2.506 5.184
1.252 2.516 5.409
1.179 2.713 5.662
0.869 2.848 5.751
1.071 2.896 6.038
1.252 2.195 5.299
1.583 2.609 5.511
1.150 2.752 5.464
1.090 2.962 5.784
1.270 3.008 6.028
1.413 2.085 5.566
1.681 2.231 5.712
1.551 2.379 6.015
1.361 2.515 6.140
1.555 2.774 6.180
2.009 2.205 5.919
1.625 2.465 6.174
1.942 2.865 6.085
3.198 0.782 5.695
3.302 1.092 5.763
3.236 1.169 6.256
3.144 1.353 6.164
3.413 0.147 5.780
3.734 0.330 5.604
3.523 0.668 6.133
3.389 0.816 6.186
3.825 0.050 5.707
3.943 0.401 5.919
3.938 0.518 5.961
3.604 0.674 6.246
4.322 0.338 5.741
4.101 0.517 6.029
0.476 0.591 1.951
0.348 0.712 2.312
-0.067 1.016 2.322
0.251 1.079 2.904
-0.057 1.243 3.140
0.099 1.837 2.955
-0.199 1.763 3.275
0.701 0.525 2.063
0.669 0.891 2.336
0.403 1.098 2.580
0.501 0.942 2.994
0.235 1.491 3.212
0.282 1.542 3.416
0.645 0.325 2.196
0.577 0.583 2.648
0.596 0.806 2.459
0.755 0.791 2.819
0.691 1.167 2.845
0.541 1.393 3.084
0.458 1.405 3.504
0.699 0.099 2.341
1.048 0.633 2.728
0.827 0.822 3.122
0.889 0.896 3.048
0.919 0.914 3.202
1.187 0.088 2.852
1.231 0.577 2.894
1.105 0.805 3.153
0.971 0.870 3.079
0.516 2.342 4.848
0.506 2.572 4.910
0.658 2.787 5.258
0.672 3.339 5.565
1.378 0.424 2.679
1.119 0.699 2.597
1.150 0.669 3.184
1.123 0.955 2.918
0.967 1.193 3.407
0.950 2.555 4.508
0.909 2.802 4.755
0.949 2.967 5.167
0.947 3.233 5.164
0.775 3.330 5.697
1.330 0.306 2.978
1.462 0.546 3.082
1.544 0.817 3.061
1.126 2.522 4.791
1.141 2.687 4.954
0.859 3.159 5.024
0.841 3.208 5.550
1.112 3.552 5.637
1.170 2.465 4.883
1.475 2.865 5.322
1.269 2.763 5.511
1.402 3.092 5.769
1.357 3.516 5.570
1.577 2.487 5.195
1.345 2.764 5.316
1.567 2.587 5.512
1.464 2.919 5.764
1.449 3.204 5.943
1.923 2.571 5.610
1.492 2.926 5.818
1.543 3.119 5.994
1.622 3.343 6.185
2.036 2.467 5.893
1.951 2.916 5.930
1.934 3.110 6.359
1.940 2.753 6.230
3.381 1.104 5.271
3.109 0.899 5.419
3.390 1.166 5.855
3.538 0.490 5.449
3.576 0.704 5.720
3.721 1.167 5.847
3.397 1.291 5.991
3.497 1.483 6.080
4.022 0.690 5.404
3.557 0.887 5.632
3.809 0.786 6.099
3.795 1.087 6.139
3.807 1.256 6.099
4.228 0.254 5.668
4.022 0.518 5.584
3.849 0.864 5.847
3.857 0.870 6.094
3.765 1.283 6.216
4.221 0.335 5.618
4.115 0.418 5.818
4.010 0.360 6.039
3.992 0.889 6.264
-0.126 1.056 2.090
0.244 1.259 2.621
-0.146 1.837 2.817
0.610 0.877 2.035
0.426 1.076 2.480
0.353 1.574 2.382
0.237 1.732 2.793
0.208 1.963 3.130
0.093 1.773 3.333
0.733 0.650 1.901
0.527 0.910 2.438
0.764 1.045 2.664
0.662 1.063 2.856
0.341 1.268 2.932
0.589 1.529 3.072
0.861 0.373 2.164
0.915 0.617 2.409
0.840 0.983 2.489
0.907 1.413 2.707
0.664 1.182 3.083
0.653 1.793 3.278
1.157 0.701 2.257
1.099 0.470 2.657
1.049 0.766 3.021
1.035 1.213 3.216
1.016 1.150 3.128
0.494 2.767 4.617
0.766 3.293 4.744
0.427 3.293 5.153
1.107 0.232 2.512
1.410 0.463 2.783
1.117 0.830 2.926
1.197 0.972 2.948
1.254 0.996 3.134
0.680 2.686 4.899
0.719 2.871 4.995
0.658 2.903 5.299
0.825 3.493 5.273
0.699 3.557 5.275
1.510 0.681 2.411
1.608 0.864 2.405
1.409 0.960 2.787
1.388 1.212 2.865
1.275 1.328 3.068
1.250 3.015 4.439
1.197 3.164 4.928
1.009 3.329 4.789
0.858 3.435 5.266
0.763 3.839 5.386
1.798 0.670 2.672
1.661 0.738 3.057
1.657 1.309 3.072
1.431 1.510 3.265
1.152 2.691 4.787
1.043 3.073 5.111
1.120 3.300 4.982
1.276 3.436 5.210
1.297 3.654 5.552
1.991 0.412 2.939
1.915 0.751 3.084
1.644 0.807 3.132
1.871 1.324 3.484
1.226 2.895 5.219
1.649 2.969 5.078
1.299 3.067 5.178
1.259 3.606 5.678
2.131 0.848 3.537
1.810 2.785 5.277
1.634 3.031 5.549
1.381 2.952 5.656
1.470 3.157 5.639
2.065 2.908 5.370
1.766 2.862 5.929
1.898 3.282 5.792
1.843 3.375 6.192
2.799 1.160 5.056
3.104 0.784 5.054
3.221 1.152 5.092
3.053 1.456 5.446
3.197 1.554 5.430
3.734 0.980 5.065
3.303 1.277 5.322
3.529 1.259 5.637
3.365 1.490 5.708
3.672 0.992 5.282
3.526 0.864 5.261
3.448 1.273 5.381
3.818 1.624 5.757
3.487 1.446 5.863
3.894 0.864 5.285
3.847 0.969 5.294
4.116 1.288 5.721
3.709 1.508 5.758
3.749 1.641 5.884
4.410 0.639 5.627
4.329 0.773 5.616
4.009 1.032 5.865
3.863 1.240 6.042
4.652 0.462 5.231
4.544 0.487 5.811
4.165 0.501 5.792
4.449 0.973 6.026
4.461 1.304 6.293
0.335 1.980 2.476
0.287 1.942 2.569
0.545 1.260 2.417
0.332 1.633 2.313
0.295 1.718 2.778
0.582 1.994 2.767
0.776 0.957 2.388
0.860 1.340 2.529
0.874 1.435 2.683
0.707 1.848 2.809
0.637 1.980 2.792
0.256 3.938 4.586
0.964 1.035 2.095
1.117 1.378 2.520
1.051 1.194 2.810
1.017 1.693 2.750
0.566 3.030 4.435
0.420 3.324 4.552
0.393 3.531 4.749
0.292 3.956 4.893
1.491 0.855 2.486
1.257 0.692 2.557
1.061 1.096 2.692
1.117 1.281 2.944
1.124 1.368 3.099
0.904 3.327 4.524
0.855 3.573 4.843
0.860 3.641 4.995
0.682 3.984 5.132
1.363 0.464 2.233
1.647 0.741 2.730
1.611 1.128 2.576
1.269 1.061 3.173
1.348 1.430 3.062
0.940 2.877 4.499
1.073 3.170 4.648
1.029 3.116 4.749
0.969 3.447 4.904
1.026 3.827 5.268
0.844 3.441 6.174
1.110 3.123 6.215
1.202 3.324 6.053
1.253 3.080 6.103
1.327 3.485 6.174
1.266 3.381 5.883
1.580 3.305 6.226
1.240 3.323 6.274
1.594 3.282 6.221
1.535 3.365 6.225
1.542 3.478 5.798
1.478 3.731 6.106
1.861 3.569 5.883
1.595 3.303 6.206
2.122 3.559 6.039
1.831 3.603 6.240
4.082 0.309 0.646
4.151 0.283 0.616
4.111 0.253 0.126
4.361 0.139 0.397
4.564 0.186 0.517
4.765 0.156 0.584
4.899 0.070 0.835
4.313 0.431 0.110
4.604 0.308 0.300
4.403 0.597 0.077
4.927 0.179 0.214
4.793 0.199 0.243
5.267 -0.033 0.174
4.909 0.347 0.692
5.433 0.137 0.929
5.543 -0.057 0.799
5.191 0.629 0.123
5.111 0.203 0.208
5.149 0.198 0.507
5.575 0.184 0.576
5.597 0.475 0.810
5.571 0.016 0.324
5.626 0.165 0.609
5.936 0.335 0.913
5.986 0.024 1.181
5.524 0.387 0.305
5.712 0.271 0.524
5.852 0.381 0.622
6.050 0.029 0.630
5.879 0.086 0.946
6.317 0.344 0.344
1.338 -0.054 -0.187
1.630 -0.029 -0.091
2.100 0.170 0.030
1.820 5.690 5.333
1.714 5.815 5.871
1.831 5.944 6.001
1.960 6.141 6.053
2.194 5.568 5.634
2.136 5.451 5.769
2.155 5.668 5.733
1.912 6.116 6.205
1.980 6.095 6.416
2.640 5.208 5.396
2.463 5.400 5.726
2.453 5.239 5.720
2.451 5.537 6.238
2.144 5.926 6.302
2.599 5.177 5.342
2.497 4.971 5.539
2.510 5.474 5.796
2.756 5.508 6.283
2.658 4.871 6.087
