4.509 3.447 2.715
4.338 3.433 2.608
4.670 3.211 2.341
4.658 3.010 2.329
4.955 2.789 2.021
3.732 4.420 3.809
3.928 4.134 3.590
3.866 4.106 3.447
4.113 3.889 3.389
4.134 3.433 3.125
4.227 3.235 2.859
4.377 3.081 2.889
4.679 2.806 2.531
4.674 2.768 2.568
3.687 6.380 1.984
3.554 6.051 2.151
3.331 6.222 2.535
3.592 5.776 2.298
4.426 4.325 1.248
4.482 4.267 1.022
4.596 3.781 0.883
3.393 6.113 2.960
3.447 6.080 2.603
3.440 5.590 2.696
4.363 4.182 1.496
4.363 3.880 1.061
4.412 3.657 1.049
4.611 3.499 0.865
3.311 6.160 3.349
3.273 5.882 3.197
3.436 5.829 2.827
3.504 5.446 2.742
4.056 4.130 1.841
4.267 3.972 1.644
4.440 3.624 1.315
4.467 3.430 1.164
4.695 3.261 0.970
4.664 3.000 0.934
3.241 6.083 3.539
3.407 5.883 3.220
3.340 5.597 3.029
3.919 4.228 2.103
4.301 3.903 1.922
4.250 3.946 1.748
4.277 3.519 1.648
4.375 3.371 1.481
4.682 3.246 1.467
4.825 2.768 1.188
3.917 4.125 2.308
3.995 3.904 2.153
4.228 3.571 2.089
4.447 3.361 1.810
4.609 3.040 1.776
4.731 2.895 1.572
4.694 2.631 1.286
3.915 4.043 2.674
3.954 3.897 2.691
4.246 3.734 2.339
4.095 3.410 2.292
4.339 3.278 2.093
4.418 3.015 1.824
4.718 2.756 1.685
3.755 3.970 3.151
3.897 3.889 2.891
4.083 3.538 2.907
4.094 3.595 2.772
4.189 3.285 2.608
4.322 3.030 2.349
4.289 2.770 2.036
3.503 4.053 3.468
3.696 3.888 3.428
3.942 3.777 3.139
4.013 3.521 3.180
4.064 3.157 2.893
4.274 2.957 2.838
4.244 2.766 2.432
3.803 5.946 0.213
3.088 6.274 2.155
3.282 5.941 2.013
4.187 4.560 0.920
4.191 4.377 0.799
4.199 4.175 0.515
3.184 6.157 2.539
3.012 6.007 2.251
3.416 5.855 2.198
3.807 4.635 1.125
3.968 4.381 1.016
4.282 4.048 0.982
4.313 3.838 0.636
4.303 3.637 0.520
2.879 6.116 2.676
3.259 5.742 2.720
3.325 5.603 2.464
3.810 4.430 1.501
4.186 4.190 1.419
4.052 3.921 0.981
4.294 3.577 1.051
4.299 3.300 0.806
2.896 6.203 3.265
3.039 5.891 2.953
3.004 5.518 2.847
3.116 5.390 2.679
3.827 4.186 1.550
3.866 3.996 1.565
4.271 3.778 1.468
4.251 3.538 1.181
4.402 3.254 1.101
4.452 2.897 0.952
2.647 6.019 3.503
3.000 5.790 3.389
3.056 5.761 3.404
3.124 5.531 3.101
3.954 4.022 1.892
4.090 3.683 1.726
4.222 3.475 1.690
4.327 3.390 1.302
4.363 3.126 1.291
2.677 5.932 3.696
2.888 5.645 3.554
2.871 5.601 3.619
3.817 4.067 2.429
3.769 3.804 2.254
4.081 3.608 1.972
4.181 3.242 1.686
4.303 3.225 1.573
4.444 2.874 1.424
3.696 3.635 2.517
3.776 3.570 2.331
4.026 3.338 2.211
4.040 3.140 1.924
4.131 3.052 1.988
3.609 3.909 2.883
3.786 3.547 2.888
3.724 3.359 2.462
4.068 3.212 2.540
4.051 2.985 2.322
3.568 3.811 3.396
3.680 3.766 3.147
3.684 3.359 3.007
3.906 3.132 2.710
4.052 2.919 2.660
3.395 6.297 0.374
3.651 6.063 -0.021
3.482 6.014 0.414
3.674 5.751 0.348
3.807 5.451 -0.004
3.415 5.615 0.503
3.662 5.527 0.278
3.711 5.086 0.219
3.828 4.855 0.029
3.527 5.099 0.485
3.828 5.101 0.574
3.929 4.853 0.206
3.860 4.440 -0.040
3.726 4.886 0.710
3.847 4.699 0.561
3.951 4.497 0.538
3.951 4.259 0.233
4.031 4.241 0.299
2.909 6.253 2.175
3.614 4.726 0.931
3.700 4.406 0.773
3.885 4.253 0.671
4.123 3.831 0.364
3.985 3.789 0.197
2.805 6.123 2.546
3.003 5.833 2.309
3.113 5.719 2.250
3.630 4.578 1.019
3.696 4.161 0.970
3.934 4.125 0.878
3.996 3.856 0.470
4.124 3.703 0.597
2.587 6.196 2.980
2.738 6.136 2.770
2.925 5.689 2.458
2.882 5.500 2.325
3.586 4.110 1.233
3.671 4.143 1.088
3.866 3.922 0.919
3.881 3.601 0.858
4.112 3.248 0.578
2.491 6.338 3.342
2.576 5.940 2.992
2.662 5.936 2.962
2.946 5.607 2.876
2.885 5.396 2.716
3.701 4.094 1.628
3.809 3.775 1.270
3.901 3.544 1.402
4.111 3.450 1.030
3.996 3.050 0.902
2.235 6.130 3.822
2.607 5.954 3.500
2.583 5.932 3.322
2.637 5.557 3.134
2.939 5.396 2.960
2.870 5.051 2.873
3.596 3.883 1.695
3.612 3.721 1.775
3.982 3.300 1.443
3.953 3.170 1.200
3.920 2.924 1.120
2.260 6.222 3.657
2.283 6.103 3.816
2.364 5.742 3.633
2.422 5.719 3.422
2.797 5.396 3.287
2.859 5.229 3.237
3.620 3.564 2.020
3.792 3.609 1.975
3.689 3.267 1.609
3.878 2.942 1.480
2.287 6.115 4.044
2.268 5.947 4.263
2.442 5.675 3.989
2.427 5.311 3.693
2.687 5.299 3.722
3.620 3.417 2.394
3.579 3.414 2.038
3.829 3.200 1.865
2.436 5.826 4.079
2.353 5.843 4.403
2.324 5.351 4.103
2.452 5.371 4.016
3.464 3.250 2.551
2.199 6.071 4.653
2.297 5.663 4.418
2.291 5.469 4.547
2.484 5.414 4.478
4.420 1.291 1.511
2.272 5.725 4.840
2.317 5.563 4.507
3.036 6.183 0.144
3.049 6.215 0.700
3.117 6.091 0.324
3.307 5.746 0.166
3.368 5.470 0.005
3.238 5.842 0.493
3.266 5.418 0.512
3.404 5.450 0.383
3.574 5.006 0.104
3.178 5.462 0.636
3.464 5.258 0.639
3.377 4.794 0.499
3.615 4.747 0.175
3.679 4.534 0.003
3.251 5.293 0.876
3.329 4.993 0.649
3.525 4.638 0.717
3.400 4.609 0.455
3.622 4.301 0.290
3.721 4.066 0.182
3.286 4.783 1.001
3.359 4.406 0.829
3.506 4.314 0.765
3.521 4.098 0.375
3.684 3.884 0.229
3.733 3.670 0.212
2.547 6.059 2.411
2.734 6.028 2.288
3.383 4.460 1.295
3.483 4.337 1.006
3.393 4.109 0.843
3.624 4.040 0.670
3.599 3.685 0.655
3.929 3.503 0.377
3.984 3.192 0.190
2.292 5.997 2.865
2.328 5.931 2.662
2.493 5.672 2.487
2.593 5.632 2.134
3.325 4.269 1.345
3.419 3.948 1.070
3.492 3.650 1.051
3.712 3.531 0.808
3.930 3.414 0.573
3.801 3.123 0.320
2.072 6.036 3.345
2.470 6.032 2.904
2.583 5.882 2.728
2.514 5.600 2.744
2.751 5.365 2.576
3.424 3.837 1.382
3.339 3.852 1.375
3.529 3.388 1.288
3.537 3.349 1.077
3.710 3.194 0.690
2.128 6.097 3.730
2.238 6.052 3.565
2.400 5.637 3.306
2.577 5.603 3.150
2.438 5.262 2.846
2.701 5.179 2.878
3.291 3.594 1.683
3.633 3.299 1.338
3.562 3.205 1.093
1.972 6.058 3.532
2.130 5.988 3.735
2.311 5.785 3.806
2.275 5.689 3.571
2.431 5.258 3.255
2.407 5.033 3.256
2.710 4.797 3.086
2.109 6.101 3.731
1.942 5.735 3.923
2.023 5.682 3.893
2.346 5.515 3.771
2.295 5.138 3.521
2.565 4.888 3.315
1.891 6.064 4.207
2.160 5.791 4.206
2.182 5.609 4.150
2.294 5.384 4.071
2.366 5.231 3.939
2.284 5.104 3.759
4.011 1.389 1.224
1.915 5.808 4.577
2.084 5.640 4.305
1.910 5.422 4.612
2.272 5.091 4.478
2.321 4.926 4.197
4.111 1.500 1.589
4.034 1.384 1.264
1.945 5.707 4.548
2.148 5.376 4.576
2.872 6.184 -0.002
2.842 6.202 0.353
2.983 5.809 0.403
2.862 5.532 0.268
2.725 5.801 0.817
3.014 5.785 0.450
3.119 5.392 0.315
3.200 5.262 0.306
3.248 4.995 0.107
2.825 5.491 0.793
2.837 5.217 0.595
2.924 4.962 0.364
3.084 4.784 0.273
3.372 4.573 0.194
3.063 5.022 0.776
2.902 4.864 0.707
3.306 4.606 0.524
3.379 4.403 0.313
3.230 4.076 0.025
3.008 4.793 0.751
3.142 4.341 0.825
3.338 4.158 0.417
3.309 4.103 0.258
3.367 3.806 0.179
3.494 3.544 -0.018
3.046 4.391 0.916
3.112 4.104 0.693
3.476 3.792 0.674
3.427 3.533 0.471
3.410 3.334 0.424
3.734 3.108 0.097
2.049 5.981 2.637
2.346 5.844 2.496
2.338 5.730 2.318
2.274 5.552 2.198
3.153 4.073 1.279
3.340 3.801 1.056
3.185 3.530 1.000
3.483 3.518 0.675
3.593 3.359 0.493
3.728 3.063 0.469
1.959 6.043 3.096
1.922 5.805 3.032
2.030 5.719 2.638
2.170 5.588 2.732
2.531 5.361 2.395
3.215 3.559 1.198
3.182 3.334 1.079
3.389 3.211 0.762
3.655 3.110 0.716
1.926 6.271 3.531
2.029 5.999 3.271
2.176 5.738 3.268
2.053 5.568 3.083
2.248 5.295 2.851
2.429 4.970 2.709
2.400 4.739 2.379
1.938 6.180 3.613
1.736 5.799 3.732
1.766 5.805 3.483
1.889 5.514 3.486
2.221 5.157 3.171
2.304 5.074 2.933
2.300 4.986 2.901
2.366 4.777 2.604
1.681 6.053 4.055
1.764 5.976 3.658
1.925 5.671 4.013
1.790 5.646 3.759
2.042 5.407 3.732
2.043 5.029 3.378
2.320 4.731 3.246
2.413 4.628 3.010
1.555 5.850 4.002
1.808 5.711 4.125
1.709 5.646 4.313
1.774 5.451 3.887
2.082 5.086 3.891
2.034 4.982 3.591
2.280 4.835 3.446
3.901 1.239 0.951
1.616 5.654 4.505
1.720 5.698 4.197
1.589 5.255 4.524
1.995 5.125 4.291
2.001 5.090 4.125
1.994 4.866 4.037
3.636 1.597 1.597
3.851 1.458 1.471
3.850 1.288 1.161
1.637 5.737 4.600
1.831 5.343 4.513
2.463 6.246 0.272
2.325 6.149 0.439
2.464 6.161 0.479
2.697 5.797 0.177
2.822 5.531 -0.086
2.207 6.015 0.906
2.491 5.808 0.765
2.622 5.570 0.359
2.749 5.377 0.216
2.767 5.250 0.209
2.650 5.576 0.806
2.662 5.258 0.618
2.759 5.040 0.365
2.998 4.650 0.285
3.146 4.537 -0.043
2.568 5.050 0.664
2.647 4.922 0.441
2.976 4.651 0.530
3.028 4.289 0.302
3.005 4.230 -0.036
2.774 4.678 0.916
2.709 4.528 0.722
2.832 4.026 0.458
3.018 4.101 0.422
3.197 3.692 0.063
2.912 4.077 0.820
3.020 3.855 0.715
3.010 3.825 0.677
3.032 3.484 0.500
3.409 3.275 0.322
3.433 3.075 -0.108
1.990 5.630 2.331
2.010 5.707 2.261
2.876 3.805 0.787
3.048 3.588 0.885
3.227 3.483 0.596
3.303 3.215 0.503
3.371 2.916 0.370
1.526 6.022 2.898
1.696 5.879 2.995
1.763 5.564 2.693
2.065 5.350 2.442
2.205 5.190 2.317
2.367 4.786 2.227
2.904 3.250 1.029
3.036 3.111 0.777
3.370 2.921 0.574
1.599 5.836 3.226
1.615 5.747 2.994
1.979 5.353 2.836
1.848 5.254 2.732
2.246 5.086 2.667
2.274 4.761 2.523
1.620 5.936 3.600
1.532 5.784 3.585
1.871 5.323 3.272
1.905 5.216 3.263
1.856 5.021 2.851
2.177 4.716 2.657
2.257 4.604 2.511
1.455 5.811 3.709
1.400 5.539 3.886
1.608 5.547 3.860
1.820 5.250 3.619
1.804 5.025 3.355
1.951 4.796 3.174
2.163 4.467 3.091
2.149 4.488 2.923
1.490 5.872 4.190
1.583 5.525 4.039
1.593 5.337 4.002
1.589 5.227 3.869
1.607 5.064 3.661
1.793 4.896 3.760
1.955 4.711 3.473
1.945 4.504 3.204
3.372 1.511 0.992
3.762 1.209 0.997
1.393 5.564 4.373
1.629 5.357 4.174
1.392 5.337 4.209
1.706 5.049 4.029
1.570 4.934 3.967
1.842 4.552 3.856
2.031 4.421 3.637
3.160 1.770 1.706
3.504 1.700 1.423
3.427 1.481 1.410
3.684 1.072 1.205
1.429 5.408 4.652
1.564 5.220 4.297
2.275 6.099 -0.004
2.045 6.093 0.613
2.358 5.916 0.408
2.243 5.643 0.212
2.096 6.286 0.869
2.147 5.958 0.832
2.240 5.854 0.558
2.338 5.537 0.518
2.457 5.370 0.179
2.512 5.010 -0.035
2.429 5.448 0.662
2.337 5.044 0.517
2.487 4.788 0.298
2.635 4.722 0.140
2.483 4.829 0.583
2.496 4.615 0.195
2.768 4.140 0.201
2.664 4.259 0.606
2.664 4.137 0.387
2.936 4.001 0.099
2.832 3.738 0.046
2.718 3.974 0.698
2.916 3.806 0.600
2.788 3.607 0.285
3.136 3.293 0.252
2.919 3.525 0.662
2.885 3.144 0.544
3.047 3.197 0.359
3.241 2.864 0.282
3.240 2.591 0.104
1.586 5.834 2.867
1.744 5.391 2.453
1.667 5.408 2.337
1.759 5.004 2.408
1.948 4.952 1.973
1.368 5.902 3.291
1.507 5.488 2.853
1.564 5.422 2.815
1.745 5.018 2.762
1.970 4.960 2.502
2.029 4.774 2.318
1.905 4.520 2.156
1.187 5.644 3.547
1.394 5.512 3.300
1.547 5.273 3.115
1.489 5.234 3.135
1.682 4.931 2.963
1.859 4.714 2.625
2.060 4.387 2.609
2.057 4.139 2.282
1.155 5.707 3.526
1.334 5.684 3.820
1.356 5.529 3.675
1.371 5.138 3.576
1.620 4.853 3.428
1.760 4.851 2.971
1.925 4.650 2.875
1.928 4.161 2.845
1.984 4.201 2.550
1.994 3.892 2.452
1.083 5.669 4.111
1.196 5.757 3.853
1.334 5.420 3.960
1.259 5.144 3.966
1.499 4.898 3.691
1.596 4.799 3.531
1.526 4.497 3.497
1.727 4.364 3.146
1.849 4.052 3.154
2.010 3.878 2.888
3.355 1.508 0.893
3.222 1.367 0.746
1.160 5.518 4.323
1.213 5.274 3.954
1.049 5.336 4.194
1.325 4.924 3.964
1.461 4.918 3.910
1.521 4.514 3.778
1.646 4.327 3.492
3.016 1.905 1.697
2.988 1.574 1.705
3.002 1.498 1.365
3.059 1.332 1.113
3.230 1.146 0.930
1.114 5.578 4.307
1.294 5.077 4.240
1.733 6.204 0.454
1.861 5.923 0.290
1.943 5.765 0.138
1.799 5.989 0.667
1.952 5.810 0.764
2.067 5.651 0.573
2.057 5.343 0.175
2.215 5.268 0.121
2.192 4.897 0.160
2.249 4.610 -0.096
2.225 4.337 0.216
2.550 4.089 0.203
2.302 4.133 0.218
2.551 3.712 -0.000
2.358 3.595 0.308
2.751 3.506 0.268
2.795 3.192 0.026
2.549 3.327 0.441
2.751 3.137 0.369
2.924 2.803 -0.008
1.424 5.298 2.440
1.661 4.976 2.233
1.686 4.692 1.987
1.907 4.538 1.748
1.201 5.315 3.062
1.186 5.373 2.866
1.511 5.053 2.527
1.581 4.959 2.459
1.715 4.567 2.116
1.755 4.504 1.947
1.732 4.211 1.879
1.105 5.426 3.158
1.367 5.136 2.996
1.557 4.829 2.671
1.661 4.631 2.543
1.630 4.366 2.589
1.699 4.326 2.273
1.748 4.011 2.037
1.873 3.695 1.916
0.986 5.366 3.574
1.127 5.132 3.447
1.204 4.763 3.260
1.322 4.648 3.169
1.486 4.447 2.801
1.711 4.239 2.706
1.732 4.095 2.455
1.774 3.847 2.296
1.963 3.513 2.128
1.999 3.460 1.901
0.824 5.468 3.865
1.061 5.020 3.742
1.272 4.893 3.493
1.263 4.656 3.456
1.315 4.448 3.277
1.507 4.246 2.966
1.721 4.103 3.009
1.825 3.831 2.619
1.943 3.553 2.546
1.959 3.318 2.288
2.065 3.119 2.360
2.268 3.049 2.125
0.837 5.342 3.887
0.922 5.130 4.042
1.062 5.034 3.871
1.269 4.748 3.882
1.229 4.639 3.696
1.945 3.488 2.786
1.974 3.206 2.571
2.031 2.901 2.530
2.096 2.823 2.202
2.290 2.416 2.094
2.294 2.247 2.084
2.480 2.181 1.844
2.593 1.804 1.569
2.699 1.606 1.618
2.681 1.460 1.184
3.044 1.190 1.236
3.125 0.887 0.966
0.721 5.441 4.362
0.862 5.083 4.287
3.340 0.668 0.348
3.537 0.437 0.185
3.414 0.136 0.190
3.330 0.622 0.389
3.319 0.595 0.704
3.491 0.344 0.456
3.354 -0.007 0.432
3.272 0.606 0.877
3.174 0.400 0.569
1.807 0.659 0.186
1.400 0.441 -0.086
1.732 -0.033 0.245
1.472 0.217 0.425
1.709 0.183 0.230
1.432 0.157 0.080
1.159 0.157 0.286
1.300 0.040 0.099
0.801 0.193 0.129
0.627 0.083 0.041
5.246 1.536 -0.002
5.064 1.223 0.137
5.311 1.169 0.238
4.762 1.611 0.212
4.794 1.814 0.103
4.674 1.452 0.274
4.921 1.410 0.302
4.786 1.081 0.030
4.817 1.609 0.491
4.639 1.398 0.715
4.851 0.931 0.330
4.922 0.821 0.300
5.012 0.711 0.097
4.629 1.232 0.572
4.694 1.042 0.731
4.787 0.742 0.635
4.981 0.692 0.448
4.419 1.182 1.119
4.706 1.147 0.750
4.621 0.930 1.153
4.758 0.687 0.930
4.505 1.126 1.225
4.624 0.803 1.047
4.476 1.568 0.134
4.477 1.610 0.140
4.294 1.392 0.152
4.660 1.165 0.009
4.351 1.281 0.356
4.300 1.348 0.478
4.627 0.867 0.371
4.621 0.746 0.108
4.728 0.444 -0.049
4.189 1.384 0.742
4.270 1.156 0.425
4.483 1.044 0.786
4.349 0.796 0.570
4.550 0.686 0.331
4.683 0.215 0.083
4.156 1.366 0.937
4.311 1.030 0.622
4.246 0.755 0.871
4.590 0.487 0.741
4.601 0.286 0.571
4.409 0.981 1.154
4.297 0.853 1.059
4.250 1.405 0.317
4.176 1.127 0.023
3.985 1.551 0.397
4.207 1.251 0.042
3.993 1.017 0.371
4.331 0.973 0.286
4.456 0.654 0.227
4.109 1.372 0.632
4.208 1.094 0.282
3.991 0.820 0.774
4.188 0.827 0.551
4.416 0.394 0.230
4.602 0.299 0.243
4.047 1.121 0.720
4.003 0.851 0.520
4.137 0.689 1.013
4.195 0.668 0.853
4.248 0.215 0.578
4.576 -0.035 0.341
4.104 1.053 0.953
4.099 0.736 0.910
3.941 1.261 0.081
3.959 1.134 -0.017
3.905 0.997 0.239
3.974 0.894 0.179
3.643 1.209 0.375
3.782 0.987 0.297
3.710 0.939 0.591
3.923 0.514 0.269
4.205 0.452 0.325
4.179 0.225 0.189
3.845 1.169 0.675
3.976 0.849 0.465
3.690 0.712 0.719
3.936 0.510 0.515
4.008 0.102 0.362
4.075 0.124 0.422
3.774 0.913 0.872
3.910 0.702 0.948
3.517 1.242 0.040
3.754 1.035 0.158
3.626 0.933 0.243
3.838 0.638 0.126
3.378 1.077 0.315
3.606 1.051 0.326
3.705 0.846 0.425
3.595 0.727 0.393
3.873 0.412 0.287
3.308 0.884 0.507
3.621 0.698 0.356
3.516 0.620 0.562
3.747 0.246 0.604
3.770 0.322 0.265
3.429 0.924 0.953
3.608 0.485 0.668
3.304 0.655 0.343
3.549 0.548 0.081
3.570 0.295 -0.095
3.313 0.848 0.369
3.416 0.412 0.638
3.244 0.317 0.470
3.467 0.001 0.234
3.139 0.708 0.722
3.174 0.663 0.751
6.158 4.588 6.094
6.269 4.996 6.080
6.252 4.756 5.999
6.325 4.647 6.222
5.792 4.700 6.164
6.166 4.515 5.983
6.094 4.269 6.324
5.677 5.439 5.977
5.932 5.221 5.946
5.853 5.188 6.104
5.874 5.141 6.113
6.032 4.710 6.029
6.098 4.613 6.273
5.919 4.346 5.814
5.663 4.676 6.222
5.658 4.607 6.017
5.767 4.246 5.891
5.779 4.452 6.264
5.643 4.110 6.038
5.492 5.906 5.515
5.518 5.876 5.503
5.167 5.905 5.993
5.428 5.803 5.801
5.386 5.447 5.619
5.680 5.176 5.636
5.287 6.021 5.903
5.258 5.898 6.097
5.317 5.718 5.956
5.477 5.276 6.031
5.488 5.211 5.883
5.781 4.839 5.438
5.378 5.783 6.368
5.480 5.140 6.010
5.532 5.078 6.090
5.619 4.649 5.890
5.922 4.601 5.776
5.502 4.804 6.276
5.560 4.462 5.885
5.750 4.403 5.789
5.152 4.801 6.001
5.520 4.380 5.820
5.393 4.312 5.703
6.035 2.957 4.637
5.441 4.192 6.073
5.551 3.947 6.095
6.220 2.696 4.961
6.122 2.556 4.856
5.911 2.867 5.388
6.251 2.538 5.325
6.201 2.353 5.036
5.895 2.631 5.680
6.224 2.297 5.313
6.164 1.982 5.305
5.880 2.277 5.822
5.958 2.243 5.598
6.163 1.865 5.638
5.920 2.316 6.166
6.082 2.259 6.048
6.059 1.976 6.018
6.240 1.713 5.888
5.920 1.715 6.047
6.242 1.711 5.837
5.070 6.044 5.659
5.195 5.924 5.639
5.213 5.710 5.445
5.395 5.442 5.102
5.142 6.140 5.585
5.105 5.986 5.806
5.027 5.788 5.711
5.163 5.393 5.474
5.432 5.203 5.461
5.365 5.083 5.295
4.960 6.001 5.796
5.030 5.578 6.018
5.238 5.342 5.967
5.346 5.403 5.759
5.260 5.005 5.632
5.354 4.973 5.428
5.594 4.666 5.258
6.133 3.368 4.188
5.113 5.636 6.158
4.928 5.163 6.150
5.322 5.113 6.045
5.204 4.864 6.000
5.533 4.492 5.796
5.485 4.379 5.698
6.080 3.198 4.487
5.151 4.796 6.117
5.276 4.359 6.045
5.579 4.341 5.665
6.029 2.985 4.877
4.775 4.786 6.060
5.006 4.449 6.005
5.003 4.446 5.891
5.337 4.294 5.833
5.827 2.884 4.696
5.968 2.588 4.626
6.118 2.263 4.415
6.244 2.080 4.225
4.860 4.292 6.241
5.002 4.213 6.026
6.001 2.644 4.891
5.974 2.383 4.688
6.256 2.141 4.430
6.076 1.999 4.402
5.877 2.543 5.386
5.745 2.341 5.031
5.887 2.099 4.848
6.113 2.145 4.919
6.252 1.694 4.699
5.669 2.587 5.613
5.740 2.332 5.348
5.987 2.149 5.065
5.913 1.954 5.141
6.097 1.511 4.859
5.606 2.452 5.993
5.742 2.213 5.646
5.760 2.114 5.694
5.804 1.989 5.400
5.904 1.593 5.376
6.083 1.334 5.185
6.315 1.202 5.029
5.466 2.313 6.246
5.535 2.016 6.160
5.768 2.034 5.823
5.828 1.809 5.563
6.110 1.589 5.464
6.272 1.204 5.374
5.648 2.064 6.161
5.660 1.760 5.980
5.833 1.350 5.896
5.912 1.135 5.712
5.726 1.381 6.151
4.787 5.878 5.746
4.871 5.908 5.354
5.114 5.441 5.333
5.098 5.239 5.025
5.227 5.085 4.927
4.750 6.180 5.634
4.628 6.077 5.597
4.586 5.685 5.896
4.767 5.526 5.683
5.003 5.442 5.559
5.175 5.293 5.452
5.156 5.006 5.274
5.189 4.717 4.903
4.699 6.182 5.993
4.678 5.756 5.730
4.679 5.717 5.925
4.866 5.369 5.823
5.059 5.343 5.605
5.047 4.985 5.473
5.258 4.893 5.364
5.250 4.689 5.254
4.644 5.644 6.007
4.910 5.285 5.994
4.962 5.029 5.921
4.929 4.915 5.678
5.103 4.681 5.700
5.331 4.464 5.513
6.060 2.888 4.360
6.243 2.703 4.043
6.341 2.394 3.897
4.795 4.765 6.294
4.950 4.502 6.158
5.163 4.331 5.855
5.361 4.031 5.721
5.937 2.878 4.580
5.914 2.693 4.397
6.013 2.349 4.207
6.227 2.154 4.127
4.505 4.816 6.196
4.798 4.584 5.853
4.958 4.353 5.894
5.005 4.164 5.707
5.722 2.624 4.493
5.887 2.291 4.198
5.906 2.114 4.117
6.045 1.812 3.870
6.100 1.807 3.688
4.844 4.477 6.159
5.660 2.426 4.939
5.842 2.427 4.767
5.909 2.261 4.428
5.866 2.045 4.315
6.136 1.736 4.211
6.056 1.473 3.877
5.531 2.703 5.092
5.483 2.302 4.993
5.808 2.307 4.741
5.710 1.934 4.617
5.945 1.855 4.574
6.128 1.532 4.407
6.054 1.140 4.172
6.380 1.009 4.187
5.317 2.474 5.327
5.500 2.092 5.343
5.544 1.850 5.221
5.681 1.670 5.045
6.036 1.404 4.750
5.861 1.264 4.694
6.159 1.222 4.304
5.328 2.403 5.935
5.457 2.146 5.791
5.684 2.159 5.629
5.669 1.831 5.429
5.881 1.714 5.160
5.746 1.407 5.115
5.897 1.036 4.983
6.151 0.966 4.810
5.142 2.476 6.312
5.356 2.140 6.126
5.261 2.099 5.996
5.427 1.893 5.699
5.576 1.518 5.648
5.868 1.237 5.322
5.875 1.263 5.171
5.881 0.840 4.926
5.436 1.711 6.259
5.431 1.786 6.017
5.498 1.330 5.679
5.872 1.097 5.659
5.357 1.505 6.187
5.515 1.138 6.149
4.554 5.865 5.670
4.709 5.789 5.432
4.810 5.359 5.231
4.753 5.364 5.126
4.961 5.165 4.937
5.140 4.977 4.769
4.440 6.223 5.793
4.381 5.947 5.533
4.603 5.814 5.772
4.611 5.684 5.723
4.821 5.221 5.448
4.729 5.205 5.357
4.945 4.731 5.159
5.154 4.756 4.892
5.012 4.282 4.724
4.348 5.923 5.962
4.307 5.809 5.640
4.378 5.531 5.963
4.539 5.253 5.736
4.718 5.077 5.751
4.920 4.943 5.375
4.737 4.542 5.320
5.126 4.613 5.132
5.162 4.152 4.964
4.426 5.690 6.105
4.382 5.273 5.981
4.655 4.807 5.853
4.711 4.809 5.837
4.946 4.401 5.422
4.955 4.276 5.272
5.232 3.944 5.227
5.887 2.422 3.806
4.518 4.879 6.211
4.771 4.415 6.043
4.813 4.411 5.691
5.005 4.093 5.745
5.704 2.460 4.384
5.898 2.240 4.279
5.960 2.101 4.228
6.101 1.873 3.972
6.129 1.685 3.803
4.360 4.383 5.777
4.557 4.374 5.830
4.826 4.035 5.639
5.436 2.163 4.265
5.791 1.959 3.900
5.954 1.868 3.754
5.783 1.468 3.738
5.467 2.352 4.495
5.551 1.935 4.331
5.645 1.811 4.119
5.856 1.644 4.202
5.782 1.475 3.853
6.049 1.215 3.822
5.368 2.247 5.110
5.478 1.985 4.811
5.416 1.925 4.621
5.683 1.757 4.550
5.708 1.385 4.370
5.787 1.291 4.097
5.872 0.880 3.928
5.038 2.407 5.336
5.180 2.024 5.124
5.301 1.827 5.094
5.509 1.760 4.934
5.540 1.606 4.560
5.814 1.177 4.383
5.915 0.876 4.332
6.095 0.946 4.091
5.052 2.251 5.804
5.020 2.080 5.568
5.393 1.860 5.326
5.377 1.629 5.238
5.641 1.587 5.090
5.687 1.230 4.985
5.640 1.148 4.890
5.809 0.894 4.530
6.002 0.539 4.527
5.026 2.372 6.135
4.987 2.311 6.085
5.038 2.009 5.962
5.363 1.863 5.705
5.345 1.644 5.586
5.389 1.238 5.356
5.602 1.078 5.220
5.624 0.960 4.995
5.784 0.725 4.817
5.101 2.042 6.385
5.077 1.810 6.023
5.333 1.437 6.029
5.356 1.236 5.849
5.409 1.016 5.550
5.282 1.472 5.999
5.408 1.283 6.039
4.079 5.973 5.302
4.455 5.535 5.292
4.298 5.572 5.048
4.669 5.192 4.856
4.506 4.856 4.651
4.805 4.739 4.748
5.003 4.410 4.414
4.899 4.475 4.209
3.978 6.062 5.621
4.112 5.985 5.438
4.162 5.661 5.813
4.437 5.560 5.649
4.536 5.343 5.258
4.458 5.056 5.279
4.680 4.821 4.873
4.728 4.633 4.964
4.985 4.468 4.590
4.996 4.074 4.339
4.025 5.953 5.712
4.235 5.556 5.658
4.162 5.352 5.969
4.205 5.129 5.846
4.473 4.991 5.510
4.384 4.791 5.327
4.718 4.682 5.193
4.787 4.334 4.968
4.970 4.021 4.745
4.975 3.952 4.742
4.073 5.518 5.932
4.221 5.131 5.894
4.298 4.836 5.781
4.395 4.745 5.699
4.532 4.368 5.349
4.582 4.219 5.173
4.788 4.029 5.071
4.584 4.303 5.917
4.596 4.363 5.631
4.643 3.960 5.521
5.553 2.378 4.035
5.598 2.167 4.042
5.691 1.822 3.888
5.962 1.551 3.721
4.284 4.171 5.526
4.476 3.980 5.405
4.612 3.776 5.308
5.482 1.878 3.975
5.600 1.632 3.797
5.696 1.579 3.552
5.191 1.845 4.324
5.339 1.840 4.242
5.583 1.429 3.965
5.533 1.219 3.676
5.580 1.085 3.507
5.932 0.979 3.504
5.090 2.162 4.775
5.297 1.904 4.551
5.276 1.524 4.386
5.463 1.301 4.133
5.502 1.023 3.935
5.590 0.801 3.965
5.705 0.831 3.588
4.951 1.992 5.083
5.235 1.753 4.847
5.188 1.727 4.690
5.367 1.252 4.471
5.572 1.175 4.288
5.529 1.055 4.176
5.623 0.838 4.239
5.830 0.377 4.062
6.037 0.326 3.747
4.742 1.967 5.478
4.846 1.889 5.402
4.977 1.535 5.036
5.120 1.293 5.075
5.479 1.335 4.971
5.381 0.954 4.597
5.500 0.652 4.386
5.641 0.669 4.399
5.734 0.199 4.304
5.834 0.072 4.065
4.519 2.438 6.231
4.575 2.264 6.039
4.623 2.078 5.960
4.773 1.789 5.657
4.904 1.572 5.482
5.153 1.351 5.481
5.275 1.267 5.144
5.303 1.089 5.164
5.383 0.749 4.751
5.486 0.603 4.647
5.630 0.494 4.638
5.692 0.242 4.537
4.655 2.023 6.067
4.914 1.762 6.052
4.927 1.588 5.837
5.088 1.190 5.700
4.885 1.400 6.187
3.977 5.877 5.324
4.155 5.531 5.097
4.084 5.435 5.152
4.158 5.108 4.730
4.254 5.020 4.640
4.408 4.606 4.663
4.559 4.515 4.261
4.605 4.156 4.161
4.763 4.129 4.118
4.988 3.674 3.989
3.843 5.912 5.679
3.851 5.825 5.233
3.880 5.348 5.423
4.045 5.301 5.233
4.263 4.948 5.042
4.297 4.739 5.035
4.455 4.410 4.748
4.470 4.128 4.515
4.666 3.985 4.374
4.868 3.734 4.120
3.938 5.190 5.788
4.074 5.022 5.548
4.271 4.681 5.230
4.184 4.598 5.200
4.419 4.233 5.027
4.422 4.230 4.875
4.529 3.856 4.489
4.677 3.546 4.436
4.165 4.929 5.580
4.341 4.516 5.393
4.424 4.354 5.386
4.457 3.982 5.113
4.594 4.015 5.158
4.595 3.663 5.009
4.370 4.070 5.557
4.386 3.924 5.444
4.368 3.709 5.136
5.357 1.973 3.821
5.484 1.874 3.764
5.598 1.582 3.654
3.979 3.878 5.387
4.155 3.738 5.148
4.363 3.368 4.960
5.123 1.803 3.725
5.498 1.543 3.497
5.503 1.114 3.280
5.184 1.636 3.949
5.195 1.426 3.756
5.431 1.159 3.752
5.315 1.172 3.649
5.491 0.766 3.385
5.735 0.451 3.227
4.898 1.846 4.381
5.187 1.540 4.283
5.238 1.267 4.077
5.291 1.212 3.844
5.554 0.704 3.735
5.653 0.740 3.550
5.659 0.531 3.578
4.948 1.498 4.827
5.167 1.370 4.375
5.289 1.167 4.352
5.262 0.870 4.086
5.523 0.607 3.934
5.430 0.451 3.729
5.627 0.326 3.729
4.711 1.626 5.069
4.839 1.196 4.980
5.151 1.253 4.878
5.202 0.852 4.500
5.324 0.840 4.492
5.342 0.476 4.280
5.407 0.196 4.089
5.683 -0.104 3.827
4.908 0.816 4.969
5.078 0.635 4.851
5.402 0.426 4.763
5.435 0.211 4.448
5.516 -0.034 4.347
4.341 1.942 6.294
3.824 5.367 4.927
4.035 4.947 4.871
4.028 4.927 4.612
4.329 4.679 4.369
4.307 4.463 4.280
4.296 4.077 4.147
4.615 3.859 3.901
4.685 3.654 3.658
4.903 3.436 3.693
4.974 3.200 3.470
3.930 5.061 5.259
4.060 4.724 5.108
4.140 4.494 4.746
4.058 4.379 4.809
4.188 4.098 4.478
4.334 3.937 4.290
4.676 3.819 4.148
4.528 3.462 4.013
4.719 3.224 3.910
3.816 4.610 5.331
4.201 4.376 5.088
4.199 4.389 4.813
4.334 4.068 4.769
4.409 3.708 4.577
4.486 3.725 4.260
4.590 3.419 4.159
4.060 4.525 5.347
3.932 4.184 5.314
4.295 4.201 5.014
4.328 3.773 4.970
4.444 3.487 4.820
4.506 3.491 4.607
3.982 3.809 5.318
4.258 3.522 5.244
4.297 3.530 5.029
5.326 1.782 3.576
5.253 1.340 3.633
5.535 1.252 3.275
6.181 1.453 1.940
5.777 0.302 3.143
6.286 0.732 1.289
6.250 0.481 1.719
0.184 5.439 6.207
0.186 6.153 5.296
0.329 5.926 5.291
0.506 5.777 4.949
0.646 5.671 4.824
0.649 5.468 4.896
0.103 6.159 5.667
0.372 5.997 5.585
0.484 5.629 5.199
0.383 5.305 5.060
0.752 5.325 4.958
0.011 6.079 5.927
0.299 5.840 6.032
0.238 5.734 5.713
0.483 5.478 5.687
0.617 5.272 5.409
0.751 5.177 5.251
0.158 5.811 6.138
0.372 5.513 5.867
0.214 5.384 5.803
0.541 5.132 5.615
0.262 5.158 6.177
0.158 6.056 5.242
0.281 5.640 5.109
0.200 5.399 4.696
0.049 5.934 5.284
0.247 5.432 5.256
0.159 5.315 5.142
0.080 5.242 5.329
0.350 5.122 5.375
0.131 5.150 5.603
2.511 5.208 6.238
2.550 5.583 6.268
2.564 5.273 6.042
2.658 5.266 6.168
2.307 5.227 6.116
2.182 5.746 5.415
1.935 6.028 5.920
2.210 5.807 5.876
2.190 5.463 5.688
2.037 5.520 5.975
2.100 5.196 5.911
2.247 5.164 6.203
1.774 5.092 6.337
2.075 5.125 6.160
1.834 5.844 5.497
2.185 5.624 5.174
1.930 6.096 5.877
1.934 5.849 5.492
2.162 5.592 5.260
1.675 6.196 6.278
1.734 5.969 5.877
1.733 5.761 5.689
1.847 5.514 5.750
1.617 5.504 6.207
1.988 5.566 6.161
1.959 5.354 5.810
1.941 5.105 6.243
1.889 4.965 6.255
1.530 5.056 6.289
1.797 4.819 5.901
1.545 4.642 6.199
1.681 5.993 5.384
1.545 5.852 5.333
1.704 5.590 4.941
1.318 6.065 5.727
1.519 5.864 5.804
1.775 5.788 5.601
1.806 5.538 5.295
1.380 6.088 6.182
1.536 5.691 5.894
1.594 5.451 5.827
1.676 5.375 5.448
1.599 5.668 6.183
1.629 5.377 5.898
1.728 5.173 5.858
1.574 5.188 6.300
1.551 5.029 5.951
1.221 5.379 6.352
1.438 5.176 5.959
1.305 4.993 5.926
1.237 4.768 6.025
1.156 6.035 5.464
1.250 5.907 5.234
1.478 5.735 5.080
1.043 6.044 5.781
1.310 5.985 5.661
1.489 5.621 5.530
1.315 5.450 5.093
1.044 6.068 6.083
1.221 5.873 5.876
1.128 5.590 5.685
1.183 5.403 5.670
1.351 5.177 5.367
0.981 5.834 6.257
1.206 5.433 5.988
1.320 5.260 6.014
1.326 4.949 5.738
1.035 5.193 6.162
1.253 5.097 6.216
1.353 4.735 6.017
0.779 5.185 6.104
1.115 5.064 6.009
1.204 4.936 5.735
0.758 6.173 5.286
0.869 5.899 5.248
1.039 5.894 4.935
1.339 5.482 4.966
0.789 6.184 5.903
0.753 6.111 5.618
1.035 5.796 5.359
0.949 5.712 5.387
1.091 5.358 5.072
0.818 5.952 6.116
0.706 5.944 5.745
0.847 5.602 5.825
0.908 5.336 5.588
1.133 5.203 5.308
0.928 5.678 5.980
1.053 5.411 5.842
1.081 5.112 5.771
1.034 4.925 5.621
0.978 5.385 6.045
1.146 5.079 6.045
1.094 4.727 5.814
0.563 5.270 6.361
0.676 5.010 6.152
0.601 4.855 5.976
0.451 6.074 5.477
0.643 5.958 5.310
0.877 5.810 4.963
0.802 5.338 4.734
0.409 6.175 5.855
0.671 5.901 5.704
0.650 5.807 5.480
0.681 5.501 5.368
0.826 5.193 5.185
0.458 6.213 6.091
0.520 5.903 5.832
0.613 5.787 5.686
0.573 5.435 5.690
0.878 5.289 5.467
0.777 5.078 5.417
0.474 5.808 6.278
0.544 5.598 5.972
0.772 5.343 5.981
0.761 5.204 5.743
0.724 4.768 5.597
0.451 5.373 6.211
0.586 5.272 5.951
0.597 5.015 5.972
0.298 5.379 6.301
0.278 6.200 5.569
0.349 5.956 5.158
0.321 5.976 5.051
0.530 5.658 5.014
0.563 5.435 4.751
0.242 5.941 5.512
0.260 5.945 5.581
0.552 5.527 5.275
0.674 5.555 5.193
0.519 5.277 5.060
-0.067 6.100 6.038
0.178 5.930 5.823
0.401 5.689 5.681
0.372 5.613 5.510
0.557 5.266 5.305
0.471 4.901 5.306
0.212 5.740 5.989
0.172 5.649 5.893
0.300 5.191 5.772
0.628 5.011 5.739
0.161 5.220 6.179
1.338 2.990 4.582
1.559 3.001 4.326
2.516 0.866 2.875
2.526 0.551 2.495
0.962 3.392 4.935
1.072 3.062 4.831
1.364 3.060 4.765
1.306 2.655 4.439
1.663 2.469 4.488
1.587 2.326 4.151
1.122 3.477 5.471
0.951 3.232 5.294
1.344 2.927 5.230
1.190 2.642 4.912
1.530 2.620 4.874
1.464 2.145 4.706
1.652 2.070 4.367
0.755 3.357 5.938
0.913 3.236 5.609
0.976 2.941 5.446
1.081 2.865 5.479
1.340 2.491 5.081
1.442 2.193 4.961
1.414 2.106 4.787
1.755 1.796 4.683
1.814 1.660 4.594
0.802 3.378 5.956
0.866 3.151 5.885
1.198 2.871 5.858
1.291 2.651 5.601
1.275 2.245 5.381
1.247 2.142 5.295
1.555 1.932 5.195
1.486 1.695 4.828
1.672 1.500 4.809
1.829 1.154 4.468
0.890 2.791 6.086
0.903 2.623 5.901
1.020 2.366 5.730
1.125 2.104 5.664
1.456 1.992 5.514
1.380 1.695 5.422
1.506 1.534 5.093
1.799 1.434 5.034
1.894 0.934 4.876
1.818 0.799 4.669
2.049 0.526 4.577
2.258 0.461 4.144
1.704 0.901 4.913
1.911 0.790 4.808
2.004 0.406 4.727
2.243 0.109 4.619
1.953 0.582 5.246
2.096 0.386 4.895
2.222 0.094 4.681
1.929 0.052 5.241
2.001 2.639 2.691
2.342 2.177 2.257
2.398 2.237 2.071
2.432 1.957 1.978
2.626 1.788 2.014
2.669 1.551 1.591
2.738 1.213 1.575
2.763 0.939 1.274
2.994 0.882 1.208
0.719 5.169 4.645
2.279 2.042 2.548
2.380 1.899 2.537
2.373 1.811 2.135
2.452 1.352 2.120
2.743 1.272 1.968
2.791 1.133 1.749
2.790 0.830 1.691
2.956 0.708 1.478
0.829 4.844 4.847
2.407 1.740 2.603
2.537 1.591 2.635
2.585 1.203 2.420
2.630 1.051 2.320
2.612 0.962 2.075
2.854 0.583 1.773
3.024 0.282 1.568
2.327 1.570 2.970
2.404 1.366 2.808
2.549 0.948 2.522
2.545 1.002 2.404
2.594 0.651 2.348
2.822 0.565 1.961
1.416 3.136 4.409
1.555 3.027 4.466
2.398 0.990 2.864
2.469 0.742 2.783
0.924 3.323 4.793
0.974 3.178 4.482
1.020 3.067 4.497
2.230 1.192 3.025
2.213 0.854 2.676
2.379 0.703 2.467
0.694 3.541 5.194
0.756 3.434 4.964
0.805 3.190 4.790
1.152 2.992 4.730
1.309 2.530 4.500
1.208 2.341 4.406
0.465 3.531 5.653
0.608 3.468 5.428
0.708 3.169 5.146
0.785 2.858 5.135
0.964 2.745 4.777
1.153 2.353 4.808
1.163 2.220 4.489
0.416 3.633 5.889
0.677 3.316 5.863
0.542 3.098 5.732
0.870 2.894 5.549
0.980 2.759 5.412
0.987 2.505 5.018
1.267 2.342 4.826
1.110 1.978 4.718
1.257 1.816 4.655
0.485 3.619 5.800
0.539 3.254 6.120
0.505 3.250 5.980
0.755 3.030 5.701
0.644 2.626 5.660
1.021 2.545 5.453
1.111 2.186 5.396
0.975 2.123 5.271
1.080 1.945 5.093
0.576 3.316 6.241
0.616 3.006 6.240
0.553 2.701 6.172
0.619 2.612 5.975
0.821 2.351 5.608
0.882 2.061 5.649
0.975 1.864 5.278
0.698 2.233 6.056
1.473 3.018 2.841
1.815 2.699 2.785
1.951 2.408 2.332
1.830 2.290 2.308
1.978 1.914 2.176
2.303 1.776 2.055
2.173 1.665 1.914
2.431 1.408 1.598
2.535 1.029 1.541
2.778 0.900 1.330
1.577 2.442 2.900
1.690 2.220 2.782
2.028 2.005 2.410
2.036 1.957 2.234
2.110 1.689 2.329
2.253 1.532 1.893
2.363 1.104 1.859
2.617 1.000 1.628
2.734 0.704 1.647
1.779 2.233 2.939
1.891 1.978 2.841
1.885 1.623 2.486
2.068 1.375 2.337
2.401 1.294 2.142
2.371 1.069 1.975
2.378 0.697 1.818
2.520 0.511 1.854
1.870 1.699 2.971
2.064 1.392 2.898
2.195 1.107 2.731
2.194 0.922 2.386
2.269 0.690 2.455
2.508 0.598 2.025
0.985 3.344 4.675
0.985 3.195 4.629
1.069 3.114 4.298
2.228 1.027 2.983
2.251 0.946 2.638
2.387 0.488 2.683
0.457 3.504 4.949
0.528 3.455 4.532
0.645 3.177 4.403
0.752 3.015 4.352
1.673 1.405 3.208
1.769 1.263 2.862
1.679 0.875 2.824
1.800 0.634 2.555
1.945 0.512 2.366
0.244 3.661 5.131
0.434 3.564 5.025
0.597 3.109 4.973
0.687 3.129 4.690
0.833 2.829 4.465
0.812 2.695 4.314
0.287 3.737 5.733
0.412 3.441 5.577
0.360 3.355 5.421
0.461 2.882 5.060
0.804 2.697 4.899
0.901 2.702 4.913
0.921 2.437 4.473
0.111 3.610 5.499
0.154 3.480 5.812
0.323 3.316 5.694
0.522 2.910 5.428
0.539 2.929 5.483
0.726 2.468 5.186
0.701 2.268 5.120
0.806 2.210 4.704
0.159 3.842 6.077
0.101 3.544 5.836
0.282 3.302 6.045
0.130 3.154 5.883
0.322 2.966 5.783
0.468 2.626 5.700
0.696 2.454 5.279
0.607 2.227 5.271
0.989 1.855 5.172
0.136 3.374 6.153
0.165 3.267 5.956
0.099 2.876 6.110
0.423 2.670 5.926
0.382 2.471 5.945
0.670 2.355 5.704
0.651 2.079 5.348
0.209 2.364 6.299
0.461 2.212 6.176
1.071 0.310 6.228
0.975 0.084 6.156
1.343 3.010 2.973
1.452 2.808 2.561
1.451 2.476 2.558
1.719 2.336 2.526
1.793 2.275 2.244
1.673 1.992 2.161
1.971 1.646 1.862
2.159 1.595 1.608
2.203 1.381 1.584
1.402 2.512 2.806
1.671 2.067 2.474
1.779 1.884 2.530
1.805 1.639 2.380
1.874 1.559 2.047
1.983 1.306 1.858
2.130 1.019 1.807
2.275 0.947 1.565
1.599 2.058 2.821
1.721 1.849 2.625
1.610 1.617 2.601
1.903 1.452 2.339
1.918 1.216 2.043
2.210 0.921 1.952
2.067 0.823 1.938
1.623 1.817 3.061
1.728 1.587 2.763
1.776 1.267 2.719
1.899 1.260 2.497
1.971 1.091 2.388
1.951 0.655 2.360
0.347 3.761 4.952
0.581 3.332 4.623
0.673 3.257 4.332
0.716 3.096 4.399
1.724 1.349 3.162
1.570 1.192 2.856
1.741 0.911 2.918
2.083 0.655 2.663
2.026 0.653 2.533
-0.075 3.724 4.914
0.123 3.534 4.663
0.415 3.192 4.489
0.529 3.103 4.539
0.618 2.869 4.379
1.186 1.460 3.067
1.552 1.142 2.983
1.643 0.878 2.699
1.805 0.784 2.550
1.917 0.442 2.440
-0.003 3.557 5.241
0.219 3.246 5.063
0.244 3.176 4.735
0.408 2.916 4.693
0.366 2.780 4.608
0.671 2.423 4.208
1.410 1.021 3.325
1.403 1.024 3.091
1.574 0.817 2.808
-0.045 3.412 5.308
-0.003 3.128 5.060
0.291 2.905 4.937
0.389 2.737 4.865
0.424 2.573 4.701
0.451 2.388 4.533
-0.002 3.171 5.662
0.247 3.094 5.466
0.257 2.822 5.332
0.419 2.622 5.130
0.325 2.424 4.923
0.227 2.711 5.520
0.353 2.585 5.517
0.205 2.417 5.255
0.344 2.034 5.249
0.074 2.613 6.003
0.263 2.429 5.595
0.257 2.217 5.530
0.037 2.302 6.006
0.497 0.591 6.068
0.657 0.485 5.882
0.866 0.139 5.842
0.687 0.142 6.375
1.052 2.743 2.624
1.177 2.474 2.383
1.304 2.391 2.345
1.342 2.163 2.170
1.467 1.969 2.104
1.514 1.686 1.774
1.830 1.440 1.620
1.025 2.223 2.779
1.262 2.018 2.536
1.465 1.838 2.224
1.534 1.651 2.126
1.596 1.417 2.042
1.774 1.357 1.899
1.982 1.007 1.532
1.169 2.073 2.978
1.388 2.093 2.832
1.399 1.713 2.633
1.584 1.350 2.535
1.438 1.216 2.196
1.574 1.200 2.154
1.952 0.841 1.927
0.204 3.756 4.596
0.264 3.468 4.448
0.386 3.223 4.084
1.347 1.856 2.925
1.400 1.536 2.809
1.567 1.205 2.499
1.709 1.075 2.336
1.580 0.777 2.284
1.790 0.629 2.034
0.218 3.903 4.758
0.157 3.609 4.673
0.435 3.443 4.582
0.382 3.213 4.517
0.381 2.859 4.136
1.346 1.338 2.899
1.540 1.249 2.770
1.616 0.843 2.619
1.509 0.669 2.417
1.635 0.357 2.346
0.066 3.146 4.458
0.102 3.073 4.279
0.138 2.762 4.284
1.058 1.534 3.013
1.160 1.305 2.818
1.194 0.959 2.796
1.340 0.740 2.575
1.466 0.497 2.395
-0.004 3.159 4.627
0.013 2.939 4.546
0.201 2.604 4.315
0.764 1.256 3.406
1.071 0.962 3.230
1.217 0.761 3.150
1.348 0.686 2.794
1.280 0.573 2.554
0.129 2.511 4.892
0.165 2.423 4.507
0.923 0.987 3.407
1.033 0.546 3.248
1.090 0.602 3.034
0.112 2.502 4.956
0.318 2.278 4.849
-0.056 2.418 5.129
0.432 0.621 5.795
0.382 0.484 5.750
0.539 0.358 5.615
0.144 0.463 6.213
0.323 0.224 5.919
0.408 0.185 5.675
0.456 0.130 6.138
0.839 2.716 2.506
0.761 2.470 2.253
0.987 2.174 2.107
1.240 2.016 2.107
1.241 1.656 1.991
1.383 1.653 1.802
0.821 2.347 2.452
0.936 2.026 2.509
1.012 1.731 2.319
1.238 1.647 2.026
1.412 1.459 1.842
1.361 1.149 1.785
0.111 3.733 4.159
0.921 2.181 2.850
0.854 1.954 2.588
0.932 1.514 2.490
1.139 1.501 2.226
1.389 1.251 2.207
1.328 1.086 2.130
1.435 0.723 1.737
-0.066 3.541 4.383
0.157 3.155 4.122
0.805 1.595 2.859
0.938 1.595 2.744
1.045 1.172 2.550
1.166 0.929 2.406
1.491 0.667 2.167
1.484 0.709 2.136
0.141 3.214 4.475
-0.010 2.938 4.414
0.376 2.762 4.075
0.876 1.385 3.040
0.894 1.383 2.853
1.106 1.143 2.841
1.376 0.739 2.759
1.260 0.637 2.570
0.690 1.432 2.964
0.879 1.224 2.955
0.752 0.921 2.727
0.982 0.716 2.392
1.207 0.440 2.333
0.746 1.342 3.320
0.606 1.104 2.984
0.857 0.857 2.850
0.899 0.668 2.851
0.972 0.262 2.725
0.602 1.190 3.579
0.731 0.867 3.312
0.880 0.612 3.048
0.889 0.439 2.862
1.102 0.163 2.920
0.544 0.995 3.710
0.586 0.565 3.503
0.809 0.442 3.548
1.025 0.216 3.232
0.657 0.680 3.837
0.605 0.536 3.660
0.379 0.549 4.467
0.104 0.750 5.192
0.369 0.619 5.052
0.522 0.174 4.876
-0.010 0.796 5.521
0.283 0.568 5.319
0.189 0.485 5.166
0.251 0.192 4.975
0.146 0.581 5.892
0.102 0.271 5.663
0.175 0.225 5.560
0.001 0.241 5.753
0.541 2.443 2.196
0.663 2.247 2.237
0.760 1.841 2.101
0.951 1.592 1.851
0.731 2.155 2.469
0.637 2.078 2.331
0.716 1.809 2.325
1.061 1.628 1.889
1.021 1.190 1.691
0.692 1.756 2.636
0.912 1.712 2.558
0.884 1.239 2.342
0.981 1.118 1.941
1.038 0.961 1.797
0.718 1.523 2.710
0.821 1.276 2.537
1.012 1.313 2.626
1.096 1.060 2.358
1.213 0.731 2.068
0.700 1.319 3.152
0.704 1.053 3.027
0.770 1.084 2.778
0.983 0.813 2.500
0.990 0.655 2.404
0.258 1.234 3.061
0.586 1.028 2.902
0.689 0.957 2.481
0.836 0.610 2.414
0.888 0.572 2.377
0.367 1.181 3.170
0.532 1.057 2.969
0.573 0.653 2.710
0.836 0.410 2.580
0.685 0.203 2.358
0.909 0.041 2.322
0.130 1.176 3.706
0.237 0.839 3.269
0.569 0.658 3.132
0.642 0.644 2.982
0.619 0.388 2.901
0.662 0.197 2.599
0.252 1.037 3.737
0.451 0.861 3.690
0.426 0.569 3.433
0.429 0.438 3.291
0.652 0.045 3.267
0.240 0.702 4.120
0.377 0.459 3.873
0.539 0.270 3.773
0.638 -0.006 3.399
0.121 0.705 4.569
0.248 0.482 4.230
0.175 0.315 4.148
0.408 0.077 4.072
-0.100 0.637 4.539
0.279 0.498 4.490
0.308 0.325 4.302
0.038 0.422 4.932
-0.019 0.254 4.646
0.166 -0.039 4.609
0.237 -0.029 4.863
0.415 1.705 2.193
0.739 1.521 1.809
0.566 1.718 2.433
0.635 1.537 2.318
0.613 1.131 2.087
0.658 1.044 1.996
0.275 1.552 2.844
0.543 1.356 2.463
0.752 0.956 2.263
0.858 0.766 2.172
0.836 0.620 1.958
0.410 1.225 2.894
0.391 1.049 2.923
0.544 0.899 2.649
0.783 0.804 2.516
0.875 0.330 2.371
0.200 1.198 2.826
0.125 0.985 2.803
0.249 0.761 2.510
0.331 0.584 2.228
0.580 0.285 2.072
0.094 1.198 3.131
0.228 0.705 2.791
0.239 0.648 2.907
0.270 0.264 2.711
0.403 0.189 2.379
0.035 0.747 3.270
0.305 0.550 3.015
0.375 0.378 3.144
0.255 0.361 2.887
0.612 -0.136 2.610
0.011 0.826 3.537
0.130 0.351 3.328
0.277 0.293 3.294
0.252 0.161 3.202
-0.022 0.375 3.924
0.058 0.353 3.738
0.119 0.198 3.385
0.215 -0.047 4.010
1.213 0.384 0.704
0.118 1.271 2.503
0.359 1.115 2.176
0.566 0.754 2.046
0.499 0.541 1.855
0.100 1.243 2.968
0.238 1.146 2.811
0.429 0.915 2.395
0.566 0.734 2.442
0.531 0.289 2.319
-0.096 0.827 2.311
0.286 0.570 2.386
0.277 0.315 2.068
0.511 0.189 1.877
-0.103 0.627 2.761
0.021 0.466 2.394
0.266 0.235 2.360
0.134 0.305 2.823
0.006 0.172 2.678
0.681 0.256 0.594
0.073 0.708 2.030
-0.081 0.622 2.557
0.293 0.438 2.318
0.145 0.302 2.057
0.514 0.145 2.087
0.110 0.113 1.933
0.553 0.031 0.474
-0.039 0.065 1.990
3.924 3.797 5.126
4.073 3.458 5.155
4.112 3.377 5.021
4.159 3.210 4.747
4.945 1.426 3.395
5.158 1.109 3.182
5.278 1.032 3.126
4.907 1.509 3.862
5.127 1.194 3.604
5.289 1.025 3.555
5.355 0.838 3.159
5.512 0.579 3.268
4.871 1.381 4.321
4.776 1.336 4.063
5.027 1.043 3.817
5.271 0.624 3.833
5.375 0.575 3.573
5.512 0.485 3.356
4.806 1.339 4.399
4.916 0.986 4.338
5.063 0.682 4.058
5.068 0.540 3.886
5.360 0.216 3.914
5.479 0.271 3.637
4.658 0.950 4.793
4.844 0.843 4.365
5.027 0.622 4.430
5.197 0.313 4.167
5.109 0.067 3.894
4.989 0.459 4.644
5.158 0.228 4.431
3.807 4.850 4.624
3.927 4.508 4.341
4.121 4.168 4.150
4.084 4.159 4.047
4.245 3.823 3.910
4.460 3.656 3.637
4.390 3.555 3.617
4.463 3.092 3.325
4.728 2.874 3.283
3.847 4.454 4.659
3.758 4.370 4.554
4.157 4.193 4.274
4.089 3.922 4.152
4.167 3.775 4.154
4.441 3.533 4.011
4.593 3.241 3.664
4.661 3.094 3.542
3.847 4.340 4.911
3.828 4.215 4.686
3.864 3.931 4.654
4.007 3.698 4.431
4.322 3.432 4.380
4.489 3.136 4.213
4.472 3.169 4.085
3.827 4.066 5.167
3.759 4.072 4.950
3.951 3.860 4.748
4.064 3.383 4.783
4.109 3.386 4.625
4.277 2.975 4.495
3.841 3.921 5.146
4.107 3.469 5.056
4.187 3.228 4.833
4.032 3.166 4.862
5.191 1.350 3.413
5.197 1.183 3.373
5.451 0.920 3.213
3.485 3.789 5.102
3.548 3.616 4.905
3.947 3.241 4.983
3.910 2.956 4.668
4.029 2.802 4.563
4.666 1.359 3.289
5.037 1.132 3.267
5.070 0.960 2.976
5.141 0.580 2.910
2.771 5.026 6.128
3.897 3.062 5.019
4.775 1.437 3.798
4.764 0.965 3.417
4.881 0.875 3.355
5.098 0.749 3.235
5.115 0.344 3.197
4.512 1.143 4.050
4.674 1.047 3.661
4.863 0.793 3.493
4.969 0.390 3.543
5.056 0.381 3.341
4.783 0.963 4.160
4.611 0.777 4.026
4.803 0.552 3.860
5.124 0.295 3.754
4.996 0.132 3.464
4.714 0.468 4.214
4.946 0.469 4.114
4.969 0.111 4.023
4.837 0.118 4.175
4.241 -0.081 6.220
3.622 4.339 4.368
3.812 4.335 3.970
3.968 4.009 3.806
4.115 3.758 3.668
4.148 3.585 3.548
4.234 3.332 3.448
4.186 3.288 3.170
4.548 2.778 3.215
3.645 4.285 4.352
3.872 4.008 4.320
3.828 3.827 4.177
4.115 3.694 3.962
4.158 3.430 3.846
4.294 3.092 3.505
4.164 2.947 3.623
3.613 4.154 4.945
3.673 4.134 4.636
3.795 3.962 4.521
3.862 3.664 4.356
3.980 3.309 4.298
4.001 3.229 4.165
4.192 3.083 3.810
4.224 2.705 3.725
3.596 3.822 4.804
3.767 3.584 4.642
3.808 3.385 4.620
4.007 3.386 4.440
4.084 2.984 4.366
4.224 2.701 4.020
4.959 1.191 2.667
3.600 3.689 5.292
3.661 3.529 4.935
3.940 3.319 4.800
3.995 2.977 4.590
4.073 2.693 4.542
4.838 1.440 3.455
4.834 1.214 3.039
4.887 0.768 2.834
5.123 0.587 2.887
2.938 5.021 6.058
3.450 3.388 4.878
3.478 3.255 4.741
3.641 3.046 4.721
3.662 2.665 4.443
3.928 2.536 4.172
4.631 1.264 3.235
4.609 0.960 3.059
4.608 0.701 2.971
4.786 0.441 2.669
2.641 4.857 6.198
2.630 4.564 6.181
3.411 3.329 5.102
3.530 2.859 5.011
3.587 2.876 4.871
3.647 2.552 4.775
4.490 1.161 3.470
4.548 0.937 3.239
4.818 0.718 3.276
4.958 0.389 2.920
2.670 4.606 6.280
4.516 0.886 3.794
4.652 0.509 3.479
4.845 0.405 3.407
4.890 0.295 3.282
4.468 0.619 3.903
4.634 0.389 3.910
4.554 0.102 3.517
4.530 0.116 3.894
4.806 0.031 3.919
3.927 0.325 5.931
4.143 0.304 5.927
3.918 0.061 6.149
3.603 4.159 3.906
3.534 3.936 3.810
3.650 3.764 3.656
3.876 3.486 3.474
3.977 3.394 3.345
4.085 3.172 3.236
4.141 2.750 3.117
3.310 4.319 4.410
3.593 4.112 4.144
3.601 3.905 3.910
3.693 3.547 3.827
3.799 3.257 3.792
3.869 2.976 3.430
3.988 2.779 3.512
3.279 3.943 4.552
3.572 3.645 4.586
3.614 3.578 4.297
3.820 3.286 4.255
3.889 3.238 4.006
3.990 2.902 3.868
4.023 2.581 3.577
3.246 3.685 5.012
3.297 3.509 4.777
3.416 3.520 4.597
3.549 3.139 4.249
3.887 3.027 4.241
3.759 2.711 4.065
4.650 1.336 2.897
4.654 0.909 2.721
4.814 0.749 2.438
2.487 5.051 5.948
3.344 3.435 5.061
3.525 3.203 4.605
3.569 3.104 4.461
3.825 2.791 4.292
3.866 2.671 4.155
4.596 1.066 3.248
4.595 1.004 3.006
4.906 0.910 2.857
4.879 0.421 2.588
2.582 4.841 6.130
2.307 4.587 5.956
3.107 3.264 4.776
3.215 3.106 4.657
3.421 2.765 4.472
3.528 2.823 4.353
3.662 2.320 4.268
4.312 1.226 3.011
4.446 0.806 2.846
4.415 0.597 2.879
4.563 0.632 2.730
2.420 4.748 6.167
2.453 4.672 5.996
2.351 4.487 5.956
3.203 3.273 5.155
3.111 2.825 4.923
3.459 2.858 4.857
3.395 2.400 4.525
3.506 2.156 4.254
4.231 1.061 3.267
4.281 0.813 3.348
4.607 0.497 2.959
4.723 0.182 2.857
2.382 4.619 6.111
2.388 4.451 6.214
3.107 2.810 5.184
3.294 2.504 4.905
3.579 2.456 4.829
3.422 1.949 4.536
4.278 0.736 3.648
4.202 0.534 3.401
4.473 0.422 3.319
4.595 -0.004 2.991
3.317 2.402 5.308
3.331 1.978 5.177
4.271 0.495 3.774
4.460 0.068 3.564
3.550 0.571 5.822
3.748 0.352 5.368
3.781 0.010 5.197
3.638 0.639 6.189
3.623 0.343 5.923
3.655 -0.038 5.770
3.655 0.255 6.282
3.409 3.817 3.896
3.497 3.761 3.626
3.563 3.499 3.429
3.744 3.145 3.370
3.810 2.941 3.065
3.050 3.984 4.281
3.303 3.807 3.841
3.510 3.343 3.674
3.432 3.396 3.549
3.651 2.887 3.575
3.832 2.725 3.320
4.590 1.023 2.050
2.498 5.482 5.236
3.150 3.569 4.301
3.416 3.472 4.259
3.382 3.423 4.014
3.414 2.909 3.802
3.745 2.870 3.669
3.760 2.635 3.576
4.271 1.168 2.628
4.419 1.192 2.349
4.760 0.741 2.278
2.514 5.254 5.615
2.982 3.679 4.873
3.052 3.647 4.706
3.215 3.443 4.446
3.269 3.066 4.361
3.543 2.780 4.244
3.628 2.624 3.895
4.353 1.259 2.861
4.339 1.109 2.688
4.651 0.888 2.688
4.611 0.646 2.315
2.472 5.142 5.650
2.345 4.684 5.978
3.272 3.356 4.802
3.147 3.141 4.702
3.209 2.748 4.538
3.482 2.774 4.335
3.630 2.318 4.235
4.191 1.082 3.263
4.322 0.985 2.932
4.539 0.595 2.845
4.464 0.567 2.628
2.497 4.907 6.037
2.580 4.544 5.947
2.204 4.521 5.667
2.989 3.386 4.900
2.899 3.133 4.512
3.193 2.720 4.310
3.339 2.582 4.107
3.368 2.409 4.182
4.061 0.920 3.081
4.093 0.933 2.936
4.051 0.757 2.759
4.329 0.478 2.701
2.141 4.703 5.828
2.308 4.640 5.646
2.033 4.476 6.037
2.850 3.163 4.937
3.009 2.743 4.689
2.962 2.696 4.604
3.209 2.448 4.350
3.364 2.340 4.391
3.859 0.847 3.382
4.193 0.624 3.181
4.199 0.530 2.915
4.357 0.265 2.793
2.068 4.688 6.317
2.072 4.248 5.955
2.164 4.119 6.146
2.946 3.000 5.146
2.919 2.543 4.957
2.887 2.389 5.008
3.085 2.163 4.591
3.291 1.988 4.408
4.122 0.556 3.346
4.065 0.381 3.177
4.237 0.080 2.896
2.276 4.216 6.254
3.021 2.401 5.150
2.912 2.314 5.219
3.194 2.088 5.026
3.257 1.761 4.720
3.242 1.670 4.474
4.013 0.037 3.354
2.930 1.971 5.364
3.025 1.836 5.198
3.125 1.699 5.097
3.227 1.259 4.957
3.044 1.583 5.495
3.179 1.375 5.179
3.171 1.287 5.116
3.360 1.081 4.802
3.326 1.258 5.455
3.379 0.896 5.405
3.518 0.726 5.159
3.474 0.599 4.985
3.280 0.942 5.636
3.139 0.826 5.584
3.269 0.546 5.407
3.372 0.382 5.179
3.527 0.214 4.879
3.250 0.756 5.674
3.270 0.545 5.658
3.476 0.252 5.527
3.181 0.608 5.936
3.267 0.158 5.940
3.602 -0.035 5.781
3.320 0.154 6.346
3.243 -0.064 5.917
2.414 5.436 4.733
3.251 3.339 3.340
3.272 3.265 3.055
4.434 1.423 1.677
4.319 1.109 1.709
2.159 5.674 4.897
2.313 5.466 4.939
2.302 5.146 5.152
2.934 3.660 3.940
3.107 3.407 3.810
3.228 3.318 3.439
3.371 2.992 3.276
4.261 1.505 2.137
4.123 1.269 2.098
4.321 0.868 1.708
2.112 5.489 5.280
2.269 5.111 5.107
2.189 5.063 5.167
2.956 3.512 4.364
3.060 3.562 4.206
3.269 3.228 3.806
3.193 2.845 3.827
3.499 2.854 3.735
3.891 1.313 2.481
4.136 1.152 2.342
4.176 1.141 2.113
4.234 0.885 2.167
2.118 5.129 5.448
2.207 5.024 5.215
2.204 4.791 5.669
2.923 3.448 4.461
2.884 3.184 4.480
2.979 3.101 4.321
3.228 2.871 3.948
3.314 2.551 3.770
3.850 1.231 2.893
4.155 1.097 2.557
4.200 0.907 2.580
4.254 0.576 2.253
1.981 4.911 5.835
2.235 4.836 5.416
2.064 4.553 5.806
2.764 3.364 4.790
2.891 3.096 4.493
3.015 2.895 4.332
3.240 2.497 4.133
3.296 2.258 4.208
3.827 1.037 2.963
4.119 0.975 3.010
4.344 0.561 2.690
4.209 0.286 2.626
2.008 4.723 6.077
2.257 4.701 5.626
2.665 3.335 4.754
2.728 2.909 4.614
2.718 2.767 4.332
2.805 2.506 4.031
2.990 2.455 4.020
3.713 0.968 2.869
3.710 0.762 2.782
3.891 0.548 2.739
4.138 0.289 2.359
1.927 4.735 5.825
2.474 3.199 4.927
2.516 2.996 5.026
2.563 2.782 4.630
2.790 2.454 4.655
2.996 2.450 4.419
3.135 2.035 4.076
3.797 0.600 2.944
3.834 0.317 2.903
3.950 0.141 2.645
1.904 4.551 6.130
2.553 3.146 5.348
2.563 2.756 4.996
2.619 2.604 5.083
2.822 2.291 4.855
2.929 2.033 4.469
3.115 2.083 4.381
3.226 1.641 4.392
3.882 0.139 3.058
2.378 2.697 5.284
2.561 2.497 5.184
2.677 2.207 5.171
2.811 2.033 4.836
2.919 1.812 4.604
3.215 1.589 4.637
2.596 2.221 5.547
2.709 2.133 5.207
2.930 1.877 5.228
2.871 1.437 4.939
2.913 1.399 4.803
3.019 1.099 4.445
2.640 1.827 5.487
2.788 1.703 5.268
3.069 1.450 5.182
2.972 1.209 5.096
3.045 1.042 4.829
3.126 0.794 4.655
2.845 1.420 5.585
2.831 1.100 5.366
3.071 0.987 5.306
3.080 0.808 4.947
3.265 0.482 4.883
3.312 0.332 4.807
2.721 1.183 5.647
2.931 1.125 5.696
2.942 0.705 5.542
3.078 0.448 5.221
3.137 0.270 5.122
3.216 -0.005 5.044
2.819 0.791 5.942
3.103 0.496 5.737
3.013 0.503 5.613
3.141 0.009 5.320
2.699 0.530 6.112
2.872 0.484 5.816
2.990 0.108 5.700
2.847 0.353 6.287
1.930 5.284 4.764
2.055 5.074 4.451
3.798 1.521 1.939
3.931 1.201 1.628
3.989 1.169 1.497
1.897 5.566 4.968
1.926 5.254 4.816
1.976 5.104 5.103
2.185 4.812 4.793
3.703 1.586 2.365
4.022 1.360 2.049
3.867 1.152 1.868
3.996 1.028 1.881
1.954 5.395 5.300
1.920 5.176 5.117
1.842 4.949 5.287
2.778 3.203 4.036
2.720 3.159 3.803
2.846 2.938 3.731
3.741 1.260 2.561
3.760 1.078 2.404
4.021 1.004 2.268
4.022 0.857 2.129
1.972 5.218 5.241
2.026 4.993 5.265
1.851 4.714 5.478
2.511 3.427 4.532
2.638 3.175 4.394
2.768 2.944 4.135
2.944 2.825 4.019
2.918 2.513 3.781
3.850 1.032 2.660
3.904 1.100 2.478
3.837 0.688 2.558
4.174 0.371 2.236
1.839 4.937 5.736
1.790 4.837 5.305
2.707 3.207 4.587
2.835 3.058 4.347
2.659 2.659 4.177
2.834 2.548 4.103
3.029 2.395 3.958
3.660 1.003 3.103
3.738 0.779 2.688
4.007 0.506 2.716
3.914 0.186 2.383
1.923 4.675 5.994
2.099 3.441 4.821
2.313 3.078 4.612
2.276 2.790 4.345
2.378 2.650 4.283
2.557 2.374 4.183
3.537 1.014 2.794
3.531 0.799 2.707
3.616 0.415 2.666
3.740 0.224 2.299
1.468 4.604 5.737
2.164 3.095 5.029
2.433 2.888 4.842
2.318 2.554 4.668
2.560 2.573 4.475
2.514 2.304 4.281
2.727 2.123 4.025
3.543 0.363 2.909
3.530 0.366 2.635
3.592 0.023 2.525
2.176 3.026 5.210
2.111 2.726 4.908
2.248 2.514 4.859
2.398 2.370 4.610
2.707 2.184 4.392
2.828 1.815 4.409
2.731 1.507 4.190
2.190 2.886 5.393
2.206 2.564 5.203
2.476 2.312 5.036
2.571 2.186 4.852
2.671 1.801 4.778
2.717 1.667 4.507
2.908 1.441 4.294
2.316 2.206 5.511
2.466 2.193 5.281
2.396 1.856 5.069
2.503 1.719 4.921
2.617 1.567 4.830
2.679 1.221 4.787
2.909 1.112 4.444
2.156 1.829 5.508
2.329 1.725 5.351
2.483 1.434 5.303
