50.29436 53.33432 57.562153
58.020363 53.60332 47.677155
57.81736 51.69332 46.271152
39.000362 42.70032 10.749156
37.97736 42.41532 8.531151
46.000362 42.135323 72.925156
46.666363 40.365322 71.54715
21.493362 36.98032 69.54015
19.896362 35.196323 70.54715
9.917363 36.768322 4.003151
10.239363 37.237324 5.9451523
8.845363 24.556322 37.327152
9.473363 22.772316 37.747154
5.582363 20.310318 49.640156
6.424363 22.212318 51.074154
20.531363 25.054321 45.687153
21.762363 23.161322 45.283154
26.187363 24.726322 33.18915
26.038363 27.304321 32.012154
10.690363 60.490322 30.680153
9.923363 59.65232 27.912151
14.601363 63.31132 20.122152
14.056363 65.08132 18.742153
31.449364 39.82132 58.656155
30.458363 41.18732 59.244156
20.239363 34.384323 65.00215
20.214363 32.37332 64.03115
18.778362 15.285316 24.224154
20.783363 15.952316 23.241152
25.834364 13.281319 13.190153
26.981363 15.136322 12.076153
35.471363 50.510323 64.55415
37.12736 48.68532 64.43715
45.62736 48.794323 56.261154
45.05836 50.191322 54.683155
12.264363 54.920322 64.89615
14.053363 55.87432 65.508156
18.429363 60.84132 56.400154
20.389362 61.57532 56.233154
18.357363 31.663322 66.039154
17.082363 33.253323 66.32315
10.750363 32.023323 3.6191483
9.324363 30.30532 3.1481552
8.190363 35.13932 58.026154
9.765363 34.27132 56.668156
16.192362 35.56132 45.790154
17.035362 37.40932 44.638153
10.420362 12.560318 73.01915
9.367363 13.310318 1.1731491
6.489363 10.063316 12.458156
5.309363 9.294319 11.177157
42.40136 63.79532 36.135155
41.006363 61.99932 35.58515
35.90536 59.39232 45.606155
35.56536 60.07032 47.998154
60.556362 65.44432 52.980156
59.66236 63.73532 53.561153
55.40536 67.01032 63.178154
53.64236 66.14832 64.02715
56.98336 32.66532 21.493153
54.69236 33.203323 21.238153
50.02436 30.158321 32.817154
49.812363 28.038322 32.68215
4.832367 43.349323 3.2461548
4.599365 42.27032 4.925148
70.056366 38.80432 13.431155
68.42736 39.29832 11.427157
22.025364 19.774315 46.195152
21.131363 17.063316 45.894154
15.3733635 15.243317 57.914154
14.651363 13.261322 56.585155
24.192364 11.38932 44.203156
25.189363 9.331322 44.331154
33.068363 9.980316 34.892155
33.506363 11.291321 33.390152
52.846363 24.40632 51.248154
53.01536 23.100319 50.192154
60.194363 20.666313 42.214153
58.34236 18.98832 41.693153
28.501364 24.483322 18.051153
29.560364 25.903322 20.311153
19.872362 27.851322 26.591152
18.337362 26.750322 25.567152
32.484364 25.744322 16.445152
34.35136 25.051321 17.212152
36.348362 25.917322 7.235153
37.82336 27.192322 7.394153
27.141363 56.31832 44.133156
27.258364 57.04632 46.456154
26.638363 53.29032 55.402153
27.923363 51.40232 56.252155
50.521362 11.199318 9.307153
49.11536 12.221321 10.254153
46.736362 9.642319 20.327152
45.38736 7.7243195 21.630152
7.0193615 46.33232 60.261154
6.8233624 43.93132 61.384155
71.09337 42.47932 69.261154
69.01236 41.252323 69.04915
47.23236 36.58932 14.296153
46.868362 34.134323 14.5211525
43.548363 30.578321 26.072153
43.72436 32.184322 27.512152
5.702368 28.613321 53.743153
6.415365 29.852322 55.347153
71.10236 29.69732 64.71415
70.266365 27.760323 65.22015
27.765364 11.024315 64.54915
27.500362 13.664322 64.36415
32.347363 20.749313 55.378155
34.05136 19.956314 53.550156
50.72436 20.194313 35.135155
51.55436 22.083313 35.565155
44.50336 19.337318 45.682156
45.75536 19.051315 47.844154
72.66237 42.77132 53.177155
72.39937 40.266323 52.016155
10.762365 43.90932 46.776154
9.945364 43.780323 44.920155
60.87936 37.002323 24.360153
61.451363 35.24132 25.622152
56.67636 32.156322 37.017155
57.60636 34.04832 38.253155
26.080362 12.983322 45.834152
26.326363 11.034317 45.922153
33.451363 12.277321 36.420155
34.528362 13.927322 36.461155
63.45636 64.43232 54.533154
61.332363 63.96032 55.760155
57.11536 61.43632 64.62615
57.605362 59.86232 66.13715
11.957363 23.543322 21.479153
13.0053625 22.00332 20.611153
16.579363 25.15932 9.045153
18.838362 24.73932 8.848153
5.103363 47.53432 22.420153
4.8683624 48.280323 24.294153
1.5523682 45.384323 33.616154
71.724365 44.42932 33.622154
23.296364 12.372322 27.737152
21.399363 11.097321 27.476152
17.948362 11.040321 37.922153
17.975363 10.326317 39.91915
62.51036 5.966316 15.744153
64.08136 4.5543213 15.936152
70.56537 6.8193207 6.696153
71.61636 4.4793167 6.250153
49.728363 2.0263214 63.675156
50.27936 4.395317 63.865154
58.542362 7.89032 55.960155
58.30236 7.7363205 53.666153
26.048363 1.9863205 25.396152
27.205362 3.872322 26.039152
34.319363 8.230316 15.9881525
33.381363 7.935318 14.059153
4.6903687 35.71432 24.462152
4.401367 34.773323 22.681152
70.74937 32.95832 30.228151
69.196365 34.113323 30.813152
13.070363 66.33132 15.709153
13.079363 63.88732 16.756153
5.1853633 57.61832 21.408154
6.052363 57.95732 23.469152
48.83036 12.007317 46.295155
50.89236 10.921318 45.779156
57.46936 17.850319 38.997154
57.069363 18.291313 36.744152
4.8093643 65.048325 61.264153
4.8923645 65.65232 63.525154
66.98637 61.36432 69.10915
65.97137 63.28132 68.61415
30.233362 24.93032 70.969154
29.073362 26.193321 69.65915
37.840363 28.52732 60.926155
39.25536 26.574322 60.663155
17.344362 58.91432 34.382153
16.279362 60.91832 33.284153
23.225363 61.79832 24.578152
25.177362 60.17332 24.284153
40.86436 64.55132 34.133152
41.18336 66.42732 32.469154
46.94936 68.94732 23.410152
48.737362 67.55032 22.914152
23.360363 11.468315 8.2711525
25.120363 11.372322 9.633153
19.269363 5.6963196 20.626152
17.454363 5.1423187 19.780153
45.355362 19.942314 28.416153
43.69736 21.481316 27.387152
37.60036 17.784317 38.404152
39.70436 18.206314 39.840153
55.29436 50.315323 40.56415
55.15836 49.96032 38.393154
60.71236 47.72332 28.327152
62.67836 49.157322 28.679152
43.51636 40.16432 46.759155
45.02936 41.002323 47.741154
53.79736 47.58532 41.777153
54.76636 48.57532 42.840153
56.27236 31.421322 18.978153
56.395363 29.38832 18.521152
59.723362 34.468323 7.977153
58.923363 33.45132 5.369153
3.0493631 24.754322 67.63215
4.912363 24.662321 69.44615
12.888363 29.036322 62.274155
13.442363 31.214321 61.833153
37.153362 58.95632 30.234152
38.278362 60.55032 29.708153
42.89836 60.88532 18.229153
43.85136 58.86732 18.166153
56.680363 15.704315 33.908154
57.84336 16.29332 31.969152
63.54536 15.510315 22.284153
62.75836 13.894318 20.403152
51.632362 32.16032 52.860153
49.16336 31.871323 52.625153
41.445362 30.27032 62.684155
42.68236 29.984322 64.119156
8.331366 20.398315 72.95115
6.3003674 20.12632 73.80715
71.91237 17.25032 6.550148
69.934364 18.094315 5.9171524
69.35536 60.28632 54.410152
70.15137 57.81332 54.150154
1.0293655 57.07232 43.352154
0.8263626 55.40832 41.920155
25.408363 28.595322 17.912153
25.345364 31.099321 18.620153
23.934362 35.96632 15.846153
25.681364 37.765324 16.493153
22.323362 23.42032 30.419151
22.934362 21.206314 30.726152
17.333363 20.22332 40.483154
18.497362 20.999313 42.316154
23.558363 10.061317 25.935152
24.307364 7.814316 25.195152
30.699364 9.994316 13.910152
32.39136 10.506317 14.557153
47.68936 11.143318 62.827152
45.58736 10.704315 62.461155
38.77936 8.537315 72.10015
40.54336 9.086319 73.42615
24.823362 17.082321 27.129152
24.800364 14.57132 26.716152
31.682364 17.665314 17.478153
31.024363 16.703316 15.527153
47.79636 30.011322 12.5141535
47.181362 27.833323 12.643153
38.63536 29.391321 22.689152
36.381363 29.01332 21.463152
7.624363 8.991318 47.757153
7.148363 7.5403214 46.182156
12.444363 12.387321 36.577152
11.962363 11.827316 34.579155
67.445366 7.928322 22.954153
66.91236 6.947319 24.651154
60.520363 5.25132 32.833153
62.65136 5.7783203 33.379154
7.107363 39.59532 1.0081482
8.431363 38.087322 1.7541504
16.300364 37.35332 66.88215
17.780363 35.91732 66.04815
63.98336 18.163315 42.170155
65.05136 19.09932 40.197155
0.028366089 25.943316 35.004154
0.8113632 23.92232 33.514153
44.84236 67.365326 60.419155
45.91836 65.75232 61.643154
37.715363 61.54032 67.856155
35.91136 62.28732 68.92115
41.39436 17.40532 1.6351547
41.87336 16.685318 3.6181488
36.200363 11.105316 13.084155
34.33736 12.129318 12.959155
32.896362 1.8263168 67.51515
32.257362 3.6303177 66.843155
38.089363 1.421318 57.478153
39.63036 2.9423218 56.151154
11.150363 46.60232 6.649153
11.842363 45.74832 8.632153
-0.40663677 46.205322 14.024153
-0.22963671 44.25632 14.368153
56.90136 60.80232 68.52715
57.44036 63.07432 67.92215
51.12136 65.49732 5.368149
49.63036 65.103325 5.315155
6.8973675 12.642319 13.364153
5.3433685 12.14032 15.394153
1.3233643 7.652321 25.493153
2.1323624 8.189316 27.002151
37.50136 17.509315 21.500153
38.55336 17.713318 19.302153
44.89436 25.062319 14.536153
46.813362 25.314318 12.941153
11.8213625 24.978321 23.747152
9.890363 26.13532 23.254152
3.254363 28.31232 33.55115
2.695363 26.82632 34.68215
50.00836 64.57032 41.950153
50.15736 66.42732 42.346153
60.08036 69.33032 36.121155
60.42736 1.8893204 36.597153
70.01337 25.155321 48.561153
69.17536 25.591322 46.654156
0.07836914 32.876324 39.225155
1.705368 34.77632 38.920155
54.22536 3.3823166 28.703152
52.207363 2.138321 28.318151
47.089363 68.44432 39.227154
48.43636 67.54432 40.62015
29.560364 4.70932 66.453156
27.376364 4.096321 65.692154
21.516363 3.5443192 4.1151505
19.510363 3.3393173 3.164154
55.26736 14.312317 14.742153
54.492363 12.524315 14.255153
45.90036 13.314316 23.971153
45.29436 11.163315 24.210154
70.626366 45.600323 37.26615
70.75836 43.238323 37.878155
63.30236 43.63932 47.140156
63.84336 46.31232 47.082153
8.351362 35.143322 22.438152
7.0853634 34.224323 24.292152
71.600365 35.60332 31.290152
72.62237 34.301323 33.105152
60.250362 22.748314 58.735153
62.353363 22.76632 59.164154
70.84537 22.68232 49.238155
71.69137 22.065315 47.499153
70.281364 42.25632 33.726154
70.488365 41.148323 32.090153
4.011368 40.02132 22.827152
5.4373627 38.405323 24.122152
57.236362 7.550316 29.604153
55.96836 6.6113205 28.376152
63.104362 7.277321 19.150152
63.389362 5.211319 18.442152
8.020361 11.753319 71.99815
7.219366 13.575317 73.33915
3.221367 9.48732 9.499156
4.4543686 7.900322 8.14315
21.484364 8.5473175 26.803152
19.709362 9.567322 25.547152
10.188363 6.2003174 32.194153
9.277363 8.018318 32.468155
28.295362 69.519325 64.83815
27.277363 67.73732 65.275154
18.457363 67.143326 73.10215
18.562363 67.94232 1.4271545
68.50536 55.72532 18.291153
69.92436 54.745323 19.685152
65.28336 57.976322 30.896152
65.087364 56.53532 32.434155
60.42036 54.398323 29.724152
61.444363 52.37332 30.541153
55.25236 54.64732 39.968155
55.72436 54.08132 42.281155
66.211365 17.34832 24.958153
67.45136 16.116318 26.293152
58.40836 8.980316 31.434153
56.55436 9.804321 31.429152
34.945362 66.53832 14.784153
36.62736 67.14832 15.294153
42.89336 1.011322 4.967153
43.23336 68.71132 3.3381531
6.252363 32.920322 54.647156
6.201363 31.759321 52.546154
13.908363 34.56332 44.051155
11.819363 34.98532 43.059155
30.767363 25.683321 73.67015
32.179363 24.318316 1.2971497
26.651363 18.548317 10.001155
27.357363 18.977318 12.028155
54.06736 2.2153168 47.611153
55.49536 4.0173187 48.024155
58.909363 6.494316 35.588154
61.250362 7.300316 35.609154
33.52336 61.41732 46.597153
34.074364 60.83632 44.351154
40.54336 67.39832 34.91215
41.25936 68.09832 36.896152
34.07236 60.73532 12.097153
35.132362 58.64532 13.403153
28.192364 54.18532 21.670153
28.662363 55.71032 22.772152
32.16836 11.299316 50.994156
34.174362 12.939316 50.798153
37.26036 15.401321 39.72415
39.26536 15.2103195 40.94615
18.233362 69.365326 21.275152
19.283363 0.4793167 23.413153
14.306363 68.20732 34.23815
11.958363 67.69332 34.775154
68.959366 42.641323 36.215153
68.39536 44.90832 35.878155
62.82336 48.03632 45.009155
62.44036 45.954323 44.206154
13.631363 18.469315 19.026154
12.744363 16.897316 18.492153
19.682364 21.36332 9.657153
21.752363 20.70932 10.633153
52.69036 19.580315 48.028152
51.785362 18.809319 46.803154
55.28836 20.368317 37.197155
53.702362 20.216316 35.614155
12.368363 27.243322 42.354153
11.378363 29.477322 42.071156
2.626363 32.010323 49.992153
1.8063631 30.30532 51.697155
38.924362 36.09632 43.905155
41.534363 35.67832 44.082153
50.39736 42.89632 39.775154
49.23836 44.98532 39.079155
64.67836 61.73532 70.61815
63.98836 63.55432 71.79315
59.81436 57.88932 7.715149
58.549362 59.82932 8.683151
1.8003631 40.92832 16.251152
3.4573631 40.73532 17.714153
7.1653633 41.003323 4.953153
8.704363 39.53932 5.396153
3.0523632 61.99132 5.409149
4.391363 59.86132 5.3611526
12.947363 61.594322 70.15915
14.676363 60.70232 71.10415
14.876363 18.678314 2.029152
12.781363 19.645317 3.4221497
4.209363 19.618317 12.426158
4.1393633 21.744316 13.168155
62.77336 45.26332 10.981158
63.96836 47.05732 10.138156
1.5693665 49.052322 2.678154
2.4183655 47.20332 1.4181519
30.216364 24.209322 34.415154
31.737364 25.21832 36.30115
39.264362 30.300322 26.839151
37.237362 30.209322 25.651152
12.419363 69.035324 49.655155
11.461363 0.39431763 47.557156
14.881363 1.5953217 37.478153
14.9063635 0.24131775 36.102154
28.079363 36.32432 35.900154
25.535362 36.24132 35.34215
20.764362 31.210321 45.030155
18.508362 30.037321 45.084152
62.43636 36.90232 44.778152
61.327362 38.719322 45.053154
58.13736 34.210323 56.055153
60.19636 35.51932 57.137154
58.51536 48.32832 43.838154
60.46836 49.245323 44.663155
65.20336 50.17432 32.302155
66.906364 48.28932 33.268154
66.70837 30.214321 66.10015
68.53936 31.483322 66.70715
63.31736 32.73632 3.8481522
61.05936 33.53532 3.914154
58.04036 5.5873184 32.673153
58.084362 4.178322 34.070152
50.94936 3.2363205 43.542152
50.90636 1.4023209 44.459152
49.10836 38.440323 35.135155
47.70336 37.37332 36.690155
43.292362 34.43732 46.821156
42.74636 32.126324 47.156155
61.17536 58.35532 30.213152
59.66936 59.62532 29.063152
68.42936 61.29332 19.593153
67.780365 63.37832 19.169153
12.5053625 1.2173157 69.45215
13.336363 1.0773163 67.483154
15.881363 7.341316 57.695152
16.281363 9.3353195 58.099155
8.664363 15.941322 33.901154
8.246363 13.392319 33.958153
4.7833633 12.730316 47.277153
2.783363 11.954315 47.372154
38.417362 22.262314 43.176155
35.873363 21.799316 42.759155
27.316362 21.422318 49.809155
26.481363 19.23632 49.987156
13.461363 35.613323 25.125153
12.602363 37.49832 24.462152
17.171362 34.564323 12.840153
15.808363 34.758324 11.355153
66.240364 28.749321 28.850153
66.462364 26.743322 27.291153
2.1213684 33.536324 19.047153
1.8433685 31.904322 17.397152
29.127363 28.023321 0.85015106
31.238363 27.55532 1.7101517
25.673363 27.340322 12.865153
23.528362 26.122322 13.114154
24.068363 23.05732 46.480156
24.720364 20.636314 45.891155
31.602364 23.091316 38.170155
32.56536 21.713318 36.706154
65.931366 60.37832 16.532152
67.501366 61.46732 16.737152
0.8603668 60.06432 6.747153
72.54836 62.35932 6.600153
10.825363 7.0523224 70.03315
9.627363 8.340317 71.23915
4.2113633 3.2263184 6.0261536
4.893363 1.9653168 7.6321487
20.842363 59.268322 40.283154
20.580362 61.67332 40.219154
16.614363 60.62332 52.122154
16.258362 58.44232 52.388153
16.320362 31.942322 10.826152
15.768363 32.93132 8.668152
26.023363 36.47832 2.0461502
25.565363 35.82032 73.678154
0.6133632 35.508324 71.44915
2.069363 33.879322 72.06315
10.372363 35.816322 62.392155
9.463363 34.75732 60.605156
12.701363 27.036322 5.0181503
14.713363 26.32232 5.0941544
13.080363 32.95132 5.2541504
12.589363 30.744322 5.4361496
57.82236 50.81332 26.099152
57.05936 49.143322 24.704153
61.736362 51.05032 14.541153
64.237366 50.59232 14.737153
41.38336 55.17232 16.787153
42.97436 54.29732 18.482153
41.819363 54.26532 29.397152
40.73336 56.00932 30.317152
52.702362 37.96532 70.18015
54.492363 37.61032 69.02015
53.67036 36.495323 57.675156
52.69036 38.05532 56.697155
0.41236877 58.44432 22.102152
1.3173676 56.76432 22.257153
64.58836 52.636322 30.091152
63.34336 52.32532 28.510153
6.160363 65.30132 24.805153
5.664363 67.450325 25.139153
10.837363 2.499321 16.804153
11.0123625 0.23931885 14.966153
63.361362 63.386322 67.564156
64.12036 65.104324 67.73615
63.40436 2.4203186 57.603153
65.421364 3.2623215 57.477154
13.048363 40.08932 45.696156
13.017363 38.30532 46.151154
4.4423633 33.620323 51.159153
3.6313632 34.273323 53.298153
23.319363 22.71032 49.295155
21.559362 21.546318 49.790154
13.381363 20.281319 56.975155
12.0713625 18.647316 56.498154
1.3813629 61.89632 61.287155
3.4773636 61.21132 60.368153
71.30237 57.81932 71.72615
71.29936 60.17332 72.76615
43.53736 69.118324 55.883156
44.305363 1.522316 56.224155
54.26536 3.836319 50.744156
55.24136 4.4563217 52.598156
30.233362 43.31132 55.935154
30.857363 41.254322 56.430153
39.51536 39.13732 47.765156
41.388363 39.68132 48.084152
42.181362 31.667322 66.008156
42.48336 32.995323 67.218155
34.23136 35.59632 2.3221512
35.116364 34.31132 4.5041504
40.05136 23.71332 26.155151
38.250362 22.21032 26.580153
30.920362 18.539314 34.359154
30.734364 17.047318 32.89115
65.420364 34.536324 46.749153
64.22036 34.619324 44.929153
72.62137 39.62332 36.763153
0.42436218 41.24832 38.315155
37.313362 3.3253174 53.918156
37.011364 1.5393219 54.893154
28.994364 65.313324 62.064156
27.311363 66.74832 61.306152
47.15536 46.56032 16.123156
45.93336 46.06732 14.487155
51.874363 49.511322 4.128151
50.695362 50.48432 2.10215
12.757363 61.837322 14.551153
13.733363 59.94432 15.000153
8.835363 54.61932 24.392153
9.342363 55.55432 26.084152
49.39436 64.41932 24.181152
49.388363 62.205322 24.528152
44.49636 62.56832 36.121155
43.430363 60.81732 34.730152
14.698363 40.42232 47.728153
15.179363 41.90132 48.785152
6.043363 41.905323 57.099155
6.753363 39.89732 58.373154
30.150364 35.28932 0.17414856
32.28736 34.76932 0.58115387
40.584362 36.57032 66.022156
41.64336 38.809322 65.36015
53.834362 22.322319 52.674152
54.53336 22.753319 54.658154
46.737362 20.50132 62.451153
45.55236 22.123314 61.627155
8.238363 27.799322 54.669155
10.059363 26.751322 53.895153
17.929363 32.42232 46.255154
19.708363 31.489323 47.508156
20.546362 14.842316 7.9841537
21.624363 17.01532 6.9811554
29.366364 15.624321 71.982155
28.166363 16.591316 70.29815
40.339363 28.927322 43.547153
42.15436 29.542322 44.903152
49.64936 33.63232 35.329155
48.174362 32.960323 33.831154
19.804363 0.27231598 55.903152
20.230362 1.996315 54.743153
28.026363 0.72831726 45.251156
30.468363 0.0033187866 45.477154
44.09236 34.44332 31.696152
46.14436 34.54132 31.815153
48.31436 39.50532 19.498152
49.334362 38.54032 17.513153
14.377363 68.68932 53.416153
13.300363 67.616325 51.736153
7.243363 60.74832 60.448154
5.696363 62.66932 60.187153
51.08636 68.48532 7.446153
50.98136 66.226326 7.927153
43.12036 63.19732 16.124153
41.34336 62.83832 17.309153
16.310362 55.02832 32.068153
17.875362 53.497322 32.15515
23.190363 57.62632 21.910152
22.904364 56.22332 19.809153
35.965363 41.363323 25.064152
34.352364 42.69332 25.733152
28.819363 43.09532 36.159153
30.810364 42.886322 37.131153
26.763363 45.81332 3.4011536
24.143364 46.107323 2.9881516
20.292362 40.260323 13.266154
19.419363 41.559322 15.225154
40.17836 64.39832 1.3911514
41.38036 64.85032 3.003151
33.268364 63.34032 11.750155
32.020363 61.99832 10.730151
50.48436 36.95232 71.60915
48.75336 37.50032 71.32015
39.674362 33.536324 4.8491516
41.24636 32.842323 6.511154
18.936363 19.358315 62.394154
20.617363 20.645317 63.410152
26.339363 26.263315 53.135155
25.025364 27.230318 51.157154
57.43336 41.122322 5.4911532
57.35836 42.650322 7.100153
49.820362 36.393322 15.292153
49.03236 34.33932 16.002153
51.695362 40.91032 38.935154
50.98836 42.037323 37.146152
60.007362 43.55032 29.297152
61.08136 45.788322 30.378153
69.39736 0.7083206 2.650154
70.53336 68.827324 3.0111542
61.58036 65.88532 11.305156
61.25336 67.546326 12.843158
6.925363 26.304321 52.692154
5.517363 27.183321 51.210155
14.538363 27.629322 44.219154
14.629363 29.811321 43.229153
6.650363 43.95932 40.090153
8.216363 44.613323 38.723152
15.036364 47.65332 31.900152
16.457363 46.655323 32.616154
35.16336 69.713326 15.344152
34.48336 0.41031647 13.147153
40.96336 5.9723206 17.858152
41.05936 7.923317 16.887154
26.924364 55.35032 41.809155
26.469362 53.051323 41.519154
18.658363 49.94332 48.585155
16.510363 51.051323 49.467155
29.842363 38.52832 55.947155
31.383364 37.510323 57.054153
39.61536 36.61132 46.418156
40.81036 34.46332 46.238155
64.557365 30.635323 45.898155
63.174362 29.494322 44.536156
55.714363 28.090322 54.213154
55.00136 25.689322 54.229153
6.3473644 60.36232 45.884155
5.5573635 58.60432 46.416153
72.546364 56.04332 55.328156
1.0653687 54.88132 56.560154
3.4853632 54.754322 21.434153
2.4373631 54.53432 19.875153
10.445363 56.86932 11.378153
9.6633625 57.80632 9.614153
55.645363 60.19332 28.685152
57.284363 58.60932 28.286152
62.68336 65.854324 20.104153
63.95336 64.51332 18.477152
52.74636 12.326317 10.687152
54.40436 13.415321 9.525157
57.098362 18.130318 73.50815
55.430363 17.300316 72.52015
67.320366 1.7693176 19.212152
65.127365 1.0153198 18.973152
57.180363 0.534317 28.133152
58.30436 1.09832 30.094152
50.39836 10.761322 63.050156
53.05336 10.240318 64.29015
58.81036 10.483322 54.851154
60.12236 11.284317 53.005154
61.584362 20.66732 73.95715
60.33736 20.76532 72.21115
68.49336 24.762316 65.164154
70.584366 25.052317 66.078156
62.639362 10.398315 18.079153
63.73336 8.944321 16.940153
0.36736298 9.387321 9.929153
72.072365 9.670319 7.759153
43.07236 52.61732 54.286156
43.12036 52.42132 56.387154
32.832363 54.469322 64.289154
31.434362 52.705322 62.968155
37.117363 31.895323 44.237156
35.229362 32.620323 43.525154
31.282364 32.12432 56.046154
30.760363 34.69232 56.522156
1.374363 41.641323 72.80415
0.40336317 40.23632 70.564156
11.177362 39.940323 64.94615
10.795362 40.46032 62.824154
37.60136 14.30732 0.25714874
38.11436 15.299316 72.03215
45.86536 15.581322 62.761154
45.639362 18.046318 62.459152
29.046364 21.48832 33.909153
27.666363 19.052315 33.186153
20.769363 19.538315 43.580154
19.251362 18.551315 43.231155
71.07937 36.29932 69.15215
72.58836 34.939323 68.81915
8.111364 39.60932 61.898155
9.474363 38.323322 61.594154
43.66336 0.29232025 41.428154
42.30736 1.397316 39.810154
34.493362 67.327324 48.475155
32.89036 69.29432 48.380154
7.3943615 69.65432 12.076153
6.9503613 67.589325 12.507153
3.3053665 65.74932 24.491152
1.0023651 65.72332 23.749153
29.397364 19.30632 51.629154
28.656363 17.147316 51.908154
22.386364 15.629318 62.070152
24.360363 14.729317 62.865154
33.729362 62.64732 29.054152
33.91836 64.714325 28.844152
41.924362 65.005325 19.109152
43.44136 63.72532 19.037153
53.47736 19.824318 13.644153
52.79036 20.968315 12.075152
58.86336 24.662317 3.9611511
60.166363 23.206316 2.6371536
36.73236 43.212322 41.484154
36.66936 40.73032 40.994152
39.74136 35.13132 31.229153
41.38636 35.38832 32.32815
11.833363 9.774315 70.39615
12.520363 11.988319 70.80415
20.845364 16.47332 64.801155
19.577362 15.867317 62.821156
38.687363 5.9583206 55.256153
37.93636 5.7083206 52.910152
47.257362 7.6413193 45.731155
47.38436 5.9383163 44.091152
21.381363 67.05432 4.1431503
21.407362 67.52532 1.664154
31.497364 68.90232 68.25015
33.011364 69.64132 69.88815
54.416363 58.99932 7.979153
54.702362 59.38132 9.9881525
45.63736 57.71532 15.634153
44.43336 56.43932 16.818153
33.69636 56.962322 27.266151
31.516363 58.24332 25.679152
38.896362 61.32532 18.071152
37.62336 61.29732 15.661153
42.909363 40.41032 30.707151
44.47636 40.642323 32.35615
50.50236 41.79732 20.480152
52.472363 41.426323 20.820152
36.61936 16.969322 73.51915
38.138363 17.95932 72.89415
42.94736 18.597313 62.151154
43.77536 20.22332 62.204155
18.016363 68.35732 18.767153
17.388363 0.7933197 18.005152
24.861362 4.87632 10.442153
24.005363 6.718315 9.728153
7.237363 63.087322 26.986153
7.061363 62.38032 24.949152
15.756363 60.11332 16.872152
15.969363 61.84632 17.833153
58.674362 17.790314 55.745155
56.89736 17.697319 54.897156
48.964363 15.48732 63.796154
50.799362 16.770317 64.92215
57.12136 68.27332 49.118153
56.74836 67.76432 47.113155
63.34536 4.3013153 40.28615
65.13236 2.4913177 40.357155
30.458363 47.440323 5.82415
32.525364 47.282322 4.6111526
38.52636 50.85432 71.481155
40.45536 50.398323 71.15915
49.80036 39.231323 53.872154
50.74536 41.11832 54.891155
44.03736 38.184322 65.68515
43.41136 36.15332 67.18215
12.962363 38.911324 9.323153
13.8073635 38.28532 10.856153
9.030363 38.363323 22.401154
6.934363 37.66732 21.715153
4.511363 29.830322 35.555153
6.469363 31.015322 36.454155
13.594363 37.619324 28.186152
11.678363 38.34532 26.728151
47.49836 42.851322 15.924153
46.688362 41.70032 14.108153
57.097363 46.259323 7.527153
56.006363 48.099323 7.606153
68.56536 52.600323 71.09115
69.44236 54.41832 71.301155
4.1123657 56.80532 62.210155
6.1473675 54.98432 61.921154
16.821363 13.624321 41.31415
15.107363 13.27832 40.033154
10.330363 10.054321 50.085155
10.299363 12.214317 51.406155
11.540363 51.78532 27.934153
11.206363 53.13132 26.215153
16.253363 52.912323 15.593153
17.762363 51.62632 15.699153
28.861362 45.760323 57.218155
30.271362 46.877323 58.452152
35.098362 54.05532 49.534153
34.382362 53.52632 47.209152
44.05836 3.87632 40.511154
44.299362 6.0803223 40.511154
51.09236 10.41732 31.395153
50.38736 12.521317 31.486153
63.582363 56.462322 49.185154
65.268364 57.14132 50.219154
71.350365 56.865322 40.636154
70.69237 56.00732 38.850155
34.860363 23.39232 2.1341553
35.019363 23.606318 4.404152
33.382362 17.411316 14.458156
33.66136 19.882317 14.759158
10.225363 26.185322 58.321156
11.485363 25.504322 59.957153
6.069363 21.841322 69.98515
3.7033632 20.751322 69.85215
69.904366 30.445322 32.197155
70.49136 32.67832 33.17615
66.41536 29.244322 44.241154
66.84536 27.306322 45.323154
53.69936 51.71032 26.146152
51.582363 51.344322 25.293152
45.67836 49.16032 35.372154
45.99836 51.962322 35.018154
68.29036 35.08232 13.542153
66.12136 35.155323 13.290153
59.493362 33.86132 21.263153
59.096363 34.350323 23.315153
55.81836 50.68132 27.729153
54.445362 49.03332 28.091152
54.29436 44.38032 39.184155
52.50536 45.634323 40.299152
18.572363 23.724321 60.389153
16.260363 23.502321 59.087154
20.965363 27.528322 50.095154
22.823362 28.486322 50.104153
32.720364 50.46332 5.7241516
32.23836 52.53532 7.0871506
35.937363 58.44532 71.09615
35.46236 58.38132 68.98815
2.8093643 44.926323 40.43915
3.405365 43.46532 41.887154
66.81836 39.52832 48.638153
66.657364 37.586323 49.688152
27.315363 4.8963165 9.055153
29.814363 5.469322 8.738152
32.694363 8.518318 71.57515
33.208363 10.800316 70.453156
22.617363 40.74332 51.112156
21.522364 40.85432 49.202152
29.020363 41.71732 39.197155
31.190363 41.76432 40.157154
47.94736 60.50932 40.91215
46.555363 62.21632 40.326153
39.66536 63.47332 50.390156
40.34936 62.59032 52.279156
24.295362 1.272316 58.817154
24.430363 3.2873154 59.543156
32.80136 7.6773224 53.313152
32.311363 8.483322 51.113155
54.41136 49.32132 24.989153
54.910362 47.53932 25.931152
43.000362 43.794323 30.670153
43.95636 43.252323 32.507153
17.267363 47.58932 50.607155
15.572363 48.87332 50.621155
7.9293633 42.54632 58.823154
9.047363 40.73632 59.433155
59.06736 27.623316 60.283154
59.778362 25.318316 59.382153
53.45036 19.415314 67.537155
51.29336 20.672318 67.15515
29.883364 62.65232 12.032153
29.714363 61.02332 10.683153
26.134363 54.40932 19.618153
26.909363 56.51532 20.903152
25.917362 63.03832 8.969153
25.308363 61.15132 8.163153
18.673363 59.02232 16.779154
17.960363 59.41732 14.909153
29.370363 58.15232 23.913153
27.868362 59.70132 25.274153
35.37036 66.72232 17.519154
34.984364 68.73232 17.982153
7.2833614 47.169323 5.258148
7.671362 47.746323 7.454155
68.36636 45.75732 11.924151
69.754364 45.205322 13.463153
14.894363 46.95232 48.770153
12.875363 47.801323 50.062153
3.7923632 46.76432 56.258156
2.672363 45.025322 57.389153
22.527363 12.79332 62.336155
24.115364 10.93132 62.660152
30.507362 13.553322 50.824154
32.186363 14.693321 51.862156
36.923363 21.606316 57.048153
36.166363 19.552315 55.814156
43.05336 16.842316 45.980156
44.868362 16.90332 46.575153
9.584364 23.985321 55.597153
8.462362 25.35732 56.311153
0.7253647 24.715322 64.95215
0.021362305 26.71132 66.15915
41.00336 28.374321 6.2161484
41.55936 30.252321 5.819153
44.21136 32.24832 69.15215
46.09936 32.501324 68.23715
9.950361 29.54132 5.464153
11.159361 28.953321 6.7871532
72.46536 31.995321 14.155153
71.81937 29.61432 14.098153
54.64936 17.408318 50.807156
52.46836 17.231316 49.469154
44.841362 15.786316 58.923153
45.235363 14.190315 60.649155
39.42236 4.715317 73.47115
38.112362 5.8043213 72.11415
48.14936 6.207321 63.540154
47.10036 8.541321 63.991154
41.80736 11.789322 19.788153
43.264362 9.962318 19.265152
52.66236 15.392319 14.483153
52.221363 17.351318 14.210153
53.57536 59.21332 25.053152
53.57336 58.907322 27.416153
47.33136 54.302322 35.156155
48.792362 53.266323 36.996155
23.760363 29.901321 71.161156
22.321363 31.597322 70.494156
16.735363 29.618322 6.770149
16.503363 27.209322 7.0561523
37.930363 39.32832 62.387154
40.13336 38.02132 62.919155
47.69036 40.224323 52.451153
47.44236 37.982323 52.024155
57.26036 45.57532 44.652153
57.076363 47.46532 45.982155
48.69336 48.04632 53.962154
47.66936 50.148323 54.599155
64.197365 29.710321 62.391155
65.974365 28.486322 63.685154
59.59336 29.105322 73.39615
58.35836 31.215322 0.18914795
10.119368 50.99832 10.346153
9.046362 52.55032 9.630153
2.0393677 50.99232 17.113153
1.1073685 49.16132 17.509153
13.881363 54.65332 51.114155
14.967363 54.662323 52.808155
11.335362 47.81332 61.908154
9.473363 46.254322 61.626156
50.48336 16.16832 47.502155
50.11936 13.916321 47.932156
39.85236 16.714317 56.293156
38.854362 15.0093155 57.710155
26.676363 0.7553177 62.600155
26.543364 0.7703171 60.308155
36.930363 7.1273193 56.844154
37.50936 8.455322 55.075153
28.112364 35.780323 72.65415
27.693363 33.737324 71.662155
36.680363 36.426323 63.944153
36.318363 35.15332 61.920155
8.436363 40.877323 26.177153
10.212363 40.78432 27.748152
3.801363 38.01332 36.380154
1.580363 37.01432 37.181152
61.09336 15.9483185 56.118153
61.74036 18.197319 55.752155
69.128365 18.739319 46.413155
67.948364 17.164322 45.862156
37.992363 45.947323 27.527153
39.33636 47.670322 27.112152
46.56136 50.96632 18.516153
47.64236 52.731323 17.919153
38.94636 48.90932 44.254154
36.527363 49.70132 44.507153
43.42936 51.96332 36.795155
43.38036 50.52732 35.17615
10.167363 30.144321 22.494152
11.687363 31.260323 22.122152
17.254362 31.742321 14.227153
18.118362 30.050322 12.073153
38.16836 31.878323 6.504153
39.659363 32.224323 8.543153
30.664364 33.48032 17.415154
28.754364 33.55432 16.855152
51.09236 56.23632 42.980156
48.916363 56.07832 42.693153
40.798363 57.61732 51.039154
40.971363 55.53732 50.986153
2.455368 40.593323 35.568153
3.941368 40.70932 36.827152
7.520361 43.31232 26.375153
6.221365 43.32532 24.518152
7.921362 5.732315 15.034153
8.631361 4.2313156 15.960153
71.86137 4.8073196 22.532152
71.628365 2.437317 22.364153
27.902363 14.605316 66.67315
28.997364 16.254318 67.80415
33.362362 24.084322 58.047153
34.379364 22.350319 56.881153
7.965363 65.950325 29.770153
9.870363 65.64232 30.449152
15.435363 69.67932 20.324152
16.457363 1.572319 20.529152
15.075363 45.08532 30.827152
16.540363 44.49932 28.581152
21.124363 52.08232 19.091152
20.398363 50.176323 18.175152
19.303362 59.10432 1.0691528
21.278362 58.79332 73.60715
29.543364 60.16732 65.996155
29.738363 60.90132 63.880154
36.81636 54.80332 29.210152
34.993362 52.70132 28.552153
29.856363 51.46732 39.218155
29.773363 49.25832 39.268154
59.00436 41.531322 3.7621536
57.361362 41.170322 1.9801483
66.33036 40.11732 67.567154
65.70436 38.54932 67.121155
71.35236 19.268318 45.125153
70.88336 21.54232 44.475155
6.344366 23.58932 35.48115
7.2583675 22.07132 36.462154
25.898363 42.544323 55.681152
25.849363 40.732323 56.549152
17.168364 42.25132 63.969154
18.285362 42.41432 65.63715
63.39836 29.04132 27.147152
64.28536 30.690321 27.440153
58.28236 29.965322 36.872154
56.070362 29.473322 36.934155
24.129364 36.38232 30.041153
24.896362 36.87432 28.155151
28.905363 35.661324 19.831152
28.754364 33.551323 19.899153
63.00136 19.844315 59.877155
61.22636 20.785316 60.759155
52.730362 14.144318 65.48415
51.89736 13.756317 67.93715
11.638363 23.987322 57.761154
11.967363 22.570322 56.289154
19.361362 28.354322 47.915154
19.288363 26.198322 47.555153
38.49136 19.761314 41.892155
39.46736 19.275314 43.841152
33.00336 16.66832 49.626156
31.733362 17.350319 51.162155
59.20536 13.963318 0.50115204
60.42136 13.832321 1.97715
58.12236 13.429321 12.722156
55.70436 13.791321 12.1111555
41.80436 22.81232 24.526154
40.645363 22.786322 22.777153
50.94736 27.435322 15.281153
49.83036 27.451323 13.635153
37.30236 16.09732 54.969154
37.959362 13.798317 53.893154
45.667362 12.017319 46.296154
45.49536 9.921318 45.020153
60.00436 53.49232 11.029153
60.22736 53.011322 12.998153
50.09936 50.288322 19.309153
48.46036 48.843323 19.668152
31.869364 68.12732 10.764155
33.61336 69.02632 10.788157
39.74836 4.716316 2.0801544
41.01936 3.0523224 1.0711517
26.507362 35.77832 53.891155
26.111362 37.613323 52.798153
36.192364 40.68032 44.866154
35.923363 38.113323 44.788155
42.95436 49.05032 70.12815
41.271362 49.07032 68.80415
49.403362 53.05732 60.527153
50.78036 51.11932 59.823154
59.90436 44.91732 7.400154
59.91236 43.059322 6.0971527
69.44336 46.863323 0.2581482
69.96636 48.45332 72.538155
52.97636 6.2623215 9.217155
52.67836 7.364319 6.9661484
63.80336 5.925316 2.9461517
65.086365 7.7243195 1.0991516
38.237362 25.18732 23.093153
37.67636 24.45432 24.882153
28.848364 26.27032 32.621155
29.701363 27.315321 34.295155
39.014362 42.55032 66.94815
37.187363 42.31232 65.82315
27.569363 39.70232 72.39315
26.893364 42.323322 72.62815
66.21736 20.965317 27.122152
66.962364 19.428314 26.835152
60.110363 14.68132 31.514153
58.74836 14.013321 33.247154
65.03936 22.238321 6.676155
63.83736 22.372322 4.581154
1.4543686 24.398321 69.858154
0.6273651 25.578321 68.636154
6.062363 11.863319 30.807152
4.394363 11.650322 28.953152
11.143363 14.200317 19.183153
10.102363 16.08432 18.379152
41.848362 45.302322 68.98915
39.674362 46.71332 68.621155
32.895363 37.821323 2.8631516
34.85036 38.252323 4.093155
39.51136 18.479317 59.586155
42.02436 17.413315 59.531155
48.46936 23.291315 51.615154
50.22636 22.96032 50.980156
12.547363 54.04732 28.883152
14.851363 55.37632 28.409153
21.795362 61.44032 21.861153
20.541363 62.95132 20.395153
28.349363 14.280319 26.733152
27.146362 12.44632 26.063152
37.56836 11.245316 17.203154
37.296364 12.203316 15.209153
53.084362 37.09532 20.210154
51.091362 37.06232 20.794153
47.715363 37.29132 32.094154
48.40736 35.73532 33.621155
34.887363 31.953321 22.191153
34.589363 33.93032 23.879152
25.071363 32.44232 29.742151
25.035362 30.845322 31.029152
43.69136 53.04032 71.038155
44.78636 51.136322 70.66515
52.235363 56.49632 62.241154
54.08836 57.47532 62.831154
37.65736 53.97132 49.066154
37.042362 53.16732 47.381153
46.229362 59.27132 39.197155
45.03936 61.205322 38.296154
61.54736 48.093323 10.563153
59.43636 48.07132 11.669153
52.17936 46.32132 21.005152
53.97536 44.63832 21.189152
67.58337 69.033325 20.289152
67.99636 66.82832 20.790154
59.37836 65.02332 28.820152
57.90136 65.90232 29.963152
55.01836 56.72232 42.890156
56.21836 58.44332 42.724155
63.90536 60.28332 33.694153
63.36336 58.34832 33.026154
3.389363 57.68232 3.4211502
5.471363 57.82432 3.7121506
6.9423633 58.03832 65.20815
7.892363 60.67632 64.482155
48.709362 68.702324 62.149155
50.01036 67.340324 61.856155
55.049362 68.115326 51.082153
55.71136 65.992325 49.381153
0.7333679 2.8183212 47.515156
0.50836945 1.6963196 45.848156
68.018364 67.19232 54.975155
66.45236 68.23932 56.503155
55.43636 25.403322 36.603153
54.78336 23.01332 36.35615
59.88636 27.455322 28.888153
60.92136 26.643322 26.776152
42.20336 12.993317 41.509155
42.53936 14.537315 43.227154
35.74436 7.621315 51.953156
33.879364 5.9153214 51.256153
41.87036 14.816322 23.310152
43.042362 12.630318 23.581152
35.408363 9.151321 33.590153
36.71836 9.830322 35.223152
36.53836 49.65832 68.65215
36.799362 50.81932 66.98415
45.770363 53.614323 57.675156
45.91236 51.398323 57.108154
3.9223633 13.44532 50.476154
3.5873642 11.410316 49.924152
71.81136 10.694321 60.661156
0.019363403 11.827316 63.058155
20.194363 9.284317 22.977152
22.029364 9.881317 23.835154
28.661364 10.743317 12.225153
28.571363 9.052322 10.879153
25.396362 56.115322 23.120153
26.548363 54.976322 25.104153
19.823362 53.898323 34.431152
18.744362 55.23432 34.322155
22.433363 28.859322 15.320153
20.571363 28.19432 14.590153
13.059363 27.779322 22.808153
13.509363 27.001322 24.779152
71.112366 9.44632 46.551155
72.67637 8.652321 46.946156
65.08936 10.208321 55.141155
65.79036 10.423317 57.605156
31.227364 49.30032 7.375153
32.43436 49.77932 9.469153
23.005363 49.37632 17.215153
23.385363 50.405323 19.404152
52.832363 45.91832 4.7951508
51.485363 43.66732 4.013153
46.39836 39.169323 12.888156
44.71136 40.051323 13.495158
53.12636 29.471321 72.11615
53.611362 28.162321 70.48515
54.94936 34.134323 72.32515
53.854362 35.086323 70.67015
13.115363 14.851318 1.425148
15.330363 14.9483185 1.0821533
22.891363 18.744316 69.48415
24.560364 17.858315 68.15715
50.326363 0.7653198 25.119152
48.181362 0.5673218 25.297153
45.29536 68.26232 37.365154
43.931362 67.462326 37.082153
42.89136 51.09732 50.738155
44.16436 53.08332 51.767155
52.49736 54.15432 44.117153
52.374363 53.06732 42.125153
52.04336 0.07431793 46.645153
50.957363 67.73432 47.380154
44.749363 65.65032 56.979153
45.97436 64.94332 59.062153
47.19236 21.45932 30.007153
47.80436 21.804314 31.994152
41.256363 22.174316 43.243153
41.923363 20.045319 43.864155
13.467363 8.690315 0.94215393
12.992363 6.8913193 0.28915405
7.194363 2.1543198 10.216151
8.130363 2.6913223 12.044154
45.271362 4.437317 4.745153
45.33036 6.5993195 4.704153
39.99736 8.979317 14.724153
39.874363 10.967316 16.119152
47.49436 33.523323 11.953158
47.89436 35.259323 12.185153
55.04636 40.43632 3.680153
56.00236 38.72132 2.4221497
55.79436 32.11032 73.83515
54.368362 30.442322 0.19715118
51.131363 31.004322 12.813151
51.98436 28.81932 13.014155
6.631363 66.54032 60.141155
5.832363 68.438324 60.620155
13.491363 3.600319 52.041153
14.266363 1.1923218 51.856155
22.175364 62.837322 3.0591507
21.891363 64.64732 1.3111496
29.509363 64.936325 64.787155
30.057364 67.21732 64.968155
10.596363 5.187317 48.475155
8.879363 6.289322 49.561153
4.104363 4.0893173 60.253155
5.098363 2.1173172 60.423153
59.062363 0.65431976 12.472153
57.05736 2.0853195 13.678153
51.487362 68.866325 23.182152
51.75236 66.782326 24.532152
36.928364 48.32132 28.353151
36.19736 50.22332 28.404152
28.927362 45.83932 36.219154
26.660362 46.170322 35.875153
72.38737 21.001322 30.417152
72.127365 23.341322 31.388153
4.5953674 28.643322 22.217154
5.457367 30.731321 21.144154
12.922363 14.664322 55.484154
11.502363 16.52932 54.887154
19.703363 21.47332 45.197155
19.875362 22.208313 46.916153
65.781364 9.253319 18.792152
65.99336 7.159317 18.048153
5.084366 7.84832 13.630153
6.270361 9.507317 14.990153
69.85336 23.815317 11.466153
67.84536 24.203318 12.115153
67.531364 19.52832 22.754152
69.33237 18.69632 22.944153
40.61436 9.068321 36.43915
39.85136 7.0813217 36.25915
46.361362 8.926315 24.972153
47.85936 9.11232 26.837152
43.841362 47.71332 15.038153
44.33836 47.84632 17.564152
37.28036 39.80532 23.173153
38.584362 39.46632 25.335154
35.720364 11.991318 53.958153
33.91836 10.284317 53.593155
25.353363 7.7403183 60.485153
26.205362 6.3393173 62.305153
17.416363 62.46132 15.643153
16.208363 61.16032 13.767153
24.606363 64.728325 7.020153
24.805363 62.66132 5.858153
36.52236 5.2933197 34.71715
36.860363 7.483322 36.25915
28.039364 4.2973175 43.676155
26.515364 4.888321 45.180153
31.562363 34.536324 59.077152
30.621363 33.22732 60.744156
23.421364 32.523323 68.28315
21.696363 33.88832 68.93715
32.06536 49.22332 40.422153
33.782364 48.36032 39.48115
39.02336 45.42232 30.148151
38.993362 43.47032 30.871153
56.410362 46.20332 42.322155
58.70436 46.21732 42.042152
63.28336 44.510323 31.011152
64.48637 42.74832 29.843153
69.66237 10.276321 4.458153
70.24336 8.04332 4.567154
5.268364 9.602318 67.89215
3.542366 8.839317 66.07715
68.36836 30.360321 8.372154
67.849365 32.05432 8.914154
71.36137 32.781322 70.12315
0.6593628 31.981321 71.06315
65.334366 20.173317 58.172153
66.87437 19.859314 60.232155
0.48436737 22.976318 50.820152
1.242363 22.674316 48.689156
52.340363 62.233322 44.494156
52.18936 60.65832 45.579155
42.48336 59.95732 52.509155
42.64236 61.43532 54.069153
30.524363 56.22932 7.103153
28.451363 57.22232 7.370153
18.737362 54.308323 16.011152
20.823362 54.76332 17.391153
60.12236 43.39632 62.868153
60.00136 43.837322 60.430153
67.837364 43.47832 53.057156
65.681366 42.629322 52.529156
67.24636 13.643318 4.878151
68.823364 14.958321 5.6911545
2.393364 12.199318 68.928154
3.4273682 13.804321 68.204155
61.84336 53.121323 64.55815
62.52236 55.32132 65.384155
71.31837 55.78732 57.726154
69.684364 57.23632 58.614155
29.056364 44.27232 23.147152
27.298363 44.155323 21.307152
17.117363 41.002323 29.656153
16.356363 38.88832 29.081152
17.232363 44.92932 68.817154
16.881363 46.275322 70.60415
15.170363 44.761322 7.204155
13.874363 47.24132 7.652153
55.33636 63.06732 65.72515
54.236362 61.77332 67.39115
45.230362 61.18632 2.3831482
45.70336 63.47732 3.1211548
60.78736 38.941322 60.625153
59.79636 41.11832 60.131153
64.50536 42.44232 49.336155
63.99836 39.92332 48.822155
62.08836 55.48832 13.079158
62.94936 53.43632 11.724154
70.06737 61.150322 3.590149
69.559364 61.48132 1.6691513
0.43736267 61.15332 43.332153
71.91337 59.21132 43.747154
68.001366 63.89932 54.513153
66.38236 64.922325 54.259155
55.35636 13.380318 69.21315
53.71136 11.972321 68.65915
45.716362 11.277321 4.550148
46.25536 11.051315 6.496155
15.938363 1.9113159 73.63515
15.534363 2.8523178 71.36515
22.929363 2.999321 62.284153
22.991364 4.6823196 61.255154
27.782364 59.23132 43.832153
25.953363 58.44032 42.812153
17.043364 53.99832 49.100155
17.178362 53.49932 51.115154
61.05936 41.601322 44.647156
60.69936 40.91632 42.395153
66.031364 39.88732 32.09915
67.57736 37.86732 32.112152
60.777363 38.32532 8.072153
61.46036 36.31032 9.178153
54.38436 35.511322 18.148153
55.39936 35.669323 20.409153
25.383364 8.901321 8.778152
24.882362 10.058319 6.5661545
34.500362 15.022316 0.09315491
32.86936 16.662315 73.29015
56.34236 7.52932 69.01715
54.20336 7.6803207 67.955154
46.827362 1.8343201 3.013153
45.45436 0.5163193 2.7351532
38.37836 6.497322 17.186153
38.67036 8.982315 18.284153
30.678364 9.129318 26.422152
29.103363 8.29332 27.356152
20.459362 67.577324 36.197155
20.586363 65.34732 36.657154
24.698362 64.16932 25.340153
26.179363 65.49732 24.403152
36.65536 48.08432 9.022148
34.69036 48.28632 7.640152
36.67036 55.650322 71.10415
38.78836 55.94632 71.98415
49.60136 67.11032 45.035152
50.61636 65.005325 44.864155
43.21736 64.534325 54.649155
41.32136 64.09232 54.682156
15.994363 67.26432 71.47315
15.550364 69.311325 70.59715
24.872364 68.712326 63.057156
24.983362 67.88332 60.931152
15.140363 4.40432 36.906155
14.512363 2.9483185 35.137154
20.765362 2.407318 25.514153
22.833363 2.0533218 25.681152
55.25436 34.74232 3.846153
56.45536 32.267323 4.986153
53.36336 30.257322 15.384153
53.58136 30.900322 17.331152
0.8623657 50.72132 0.6061554
72.26337 50.002323 73.27815
8.38236 50.447323 64.33515
9.27136 48.89632 63.196156
9.069363 42.31132 42.488155
9.349363 42.52032 40.319153
19.688362 42.19332 33.345154
18.864363 41.47332 31.806152
55.35236 31.277323 56.060154
54.299362 31.397322 54.219154
62.62636 32.94932 46.877155
62.605362 32.09632 44.735153
1.1303635 16.465317 11.924153
72.45036 14.385315 11.872153
65.863365 13.379318 20.660152
66.44236 14.366318 22.331152
32.26636 10.593315 11.839152
30.810364 10.382317 9.9861555
35.865364 10.455322 0.061149597
37.373363 9.275322 0.46614838
69.15836 9.294319 60.777153
70.48136 9.2593155 62.665154
63.79436 6.5613174 72.36215
65.670364 5.6683197 73.27715
6.188368 61.80832 8.755153
3.9523697 61.49432 8.417153
68.47936 58.67332 17.749153
69.529366 58.91832 19.773153
44.49836 1.6383209 58.871155
43.50336 0.9313202 61.349155
32.457363 68.85632 64.90715
30.952364 1.0183182 65.20815
46.12036 60.08832 17.605152
47.57836 61.15132 18.987152
53.93936 61.88732 8.772153
55.34936 62.75332 7.679153
67.40836 56.24532 34.387154
65.93536 54.53532 34.686153
59.97436 52.84832 45.000153
59.840363 54.809322 46.039154
54.20536 57.03732 5.286148
56.611362 56.83932 5.1271515
62.05736 62.52632 69.91015
60.08736 64.395325 69.579155
57.403362 27.521322 39.809155
55.30736 28.775322 39.486153
48.58136 23.215322 48.580154
46.82936 23.677322 47.778152
35.13436 61.80932 49.930153
36.685364 63.63032 49.967155
45.64436 66.866325 41.406155
44.22736 67.77632 39.847153
19.506363 39.82032 69.37715
20.190363 40.18032 71.258156
12.381363 40.43132 7.0301514
12.277363 42.58832 7.473152
41.16436 46.981323 11.394153
41.923363 48.57532 12.870158
48.763363 55.030323 3.4171524
51.020363 55.50232 3.942154
17.067362 9.878319 3.5951538
14.962363 10.699318 4.0091553
12.493363 3.187317 14.627154
10.677362 2.7773209 13.631152
21.963364 6.3153152 4.6461487
23.666363 5.246315 4.871155
30.970364 7.2243195 70.17415
31.833363 8.907318 68.35315
9.268363 58.143322 49.009155
7.888363 56.11732 48.628155
6.016363 52.608322 58.616154
7.533363 52.82132 60.626156
47.13036 40.42932 35.350155
44.931362 39.42932 35.000153
34.980362 36.60932 40.570152
34.914364 34.79932 41.685154
53.89436 30.063322 35.281155
54.15836 32.17432 36.75915
45.861362 29.709322 46.211155
46.64336 29.712322 48.860153
34.67536 30.911322 58.244156
33.53836 30.420322 56.149155
39.53936 30.479322 46.057156
38.21036 29.231321 45.179153
10.559363 32.53332 59.322155
11.578362 34.27832 58.655155
19.720364 40.17232 51.573154
18.217363 40.733322 50.199154
10.077363 43.68132 28.054152
9.523363 45.50132 27.223152
18.239363 46.447323 17.952152
18.674362 44.391323 17.091152
69.878365 33.07732 14.647153
69.085365 33.245323 16.863153
62.67736 27.355322 24.932152
64.029366 26.309322 26.189152
66.46636 47.754322 12.780153
66.71536 49.02132 14.549153
59.730362 44.892323 24.386152
57.22436 46.231323 24.453152
34.35136 45.42132 23.418152
35.055363 43.231323 23.252153
39.853363 45.566322 12.980153
38.60836 45.45932 11.085153
9.422361 3.1443176 69.496155
9.849363 1.0803223 68.62615
0.792366 69.712326 3.2401505
0.11236572 67.44632 3.5751495
25.038363 15.143318 69.80715
24.825363 17.031319 70.982155
20.210363 20.532318 6.829155
19.200363 22.367317 7.055153
58.875362 31.402323 64.400154
60.00436 30.43732 62.836155
57.55736 27.321321 72.85415
58.37336 25.87832 0.1881485
66.793365 20.412315 45.617153
65.46536 19.344315 44.080154
54.92236 19.747314 49.287155
54.70436 20.221313 51.289154
44.93236 58.39532 34.399155
44.72636 58.73532 32.153152
47.930363 56.69532 21.209152
47.49836 57.86032 19.787153
69.139366 2.61232 23.075153
70.27036 0.7163162 23.746153
60.63536 1.0283203 33.790154
61.131363 2.9763184 34.324154
43.12736 59.74232 1.7151489
40.96936 59.64232 0.75714874
31.759363 58.47532 8.850151
33.618362 57.57032 9.412158
1.8143692 30.899323 35.896152
0.856369 28.942322 35.292152
68.31136 22.084322 44.290154
67.67836 23.054321 46.449154
22.738363 27.387321 72.33315
24.730364 27.985321 72.86615
22.729362 25.641321 8.830154
20.755363 26.178322 7.579155
35.678364 35.94532 6.738153
33.80936 36.39632 5.815153
27.685364 36.32032 15.582153
26.530363 34.309322 15.6131525
37.62836 1.5873184 51.818153
37.04536 0.35832214 49.935154
43.38736 9.2593155 42.475155
42.97736 8.535316 40.448154
55.94236 67.63532 66.03315
56.18636 67.51032 68.05615
48.58536 69.20532 2.876152
49.53236 68.61132 4.9831543
33.604362 25.042322 5.984153
34.033363 24.99232 8.2381525
24.686363 20.024315 11.056153
24.666363 18.421318 13.149153
5.862364 36.211323 3.7321527
6.6633663 37.28432 5.415153
72.155365 37.288322 15.018153
72.48337 36.433323 16.975153
58.590363 50.50032 62.567154
59.36936 50.219322 60.075153
68.59536 56.31432 56.022156
68.99536 54.81732 54.354153
42.97736 37.16732 48.754154
43.208363 39.078323 50.947155
33.832363 41.294323 59.507153
34.92536 40.204323 61.099155
53.18536 30.280321 20.502153
51.44936 29.905321 19.083153
46.39836 25.323322 28.321152
44.29436 23.943321 28.508152
70.70537 52.22832 19.476152
71.24937 52.83832 21.549152
61.903362 44.02232 25.831152
63.138363 43.691322 27.244152
61.764362 62.75832 52.264153
62.06036 61.30432 50.730156
