8.001709 21.220688 62.27407
9.435715 19.957687 62.360073
3.0327148 30.58969 44.824074
2.1097107 30.44569 42.55707
11.974709 30.58969 36.597073
11.761711 28.545689 35.687073
9.267715 70.52469 39.931072
10.967712 69.87369 41.339073
11.919708 63.42269 43.721073
11.702713 62.82769 41.445072
53.109715 51.539692 30.438072
53.132713 53.66769 30.450073
43.321712 53.75769 38.096073
44.583714 53.74969 40.119072
48.494713 5.5806885 43.466072
49.400715 3.944687 42.87707
59.537716 2.390686 37.173073
61.223713 2.9766922 38.381073
13.807709 51.57269 23.937073
15.209709 49.45569 24.326073
6.3597107 44.08969 30.958073
4.6357117 42.91669 31.685072
32.46471 31.61369 29.087072
30.950706 32.894688 30.479073
29.76471 37.61869 41.54307
32.250713 38.33669 42.37107
53.156715 47.18669 1.8010788
53.958714 48.17769 64.67908
54.467712 38.81269 2.6500778
52.595715 38.005688 1.4860764
13.867714 31.51569 63.014072
15.12471 32.22669 64.64907
23.383713 29.30369 59.229073
25.185707 30.72469 57.798073
63.176716 47.29969 21.557072
64.71671 45.97469 21.956072
71.54372 48.53669 28.865072
69.39072 50.40569 28.308073
38.796715 66.47669 40.568073
37.319714 66.06469 38.16307
36.251713 75.31569 39.53107
34.095715 74.89369 40.769073
51.570713 55.47469 17.900072
51.529713 54.97869 15.0920725
44.775715 50.70869 11.653072
42.799713 50.27169 11.777073
52.053715 55.89569 27.866072
50.375713 56.73369 27.418072
56.343716 55.00269 16.967073
58.220715 53.89069 18.455072
27.00071 59.45969 32.581074
28.27671 60.711693 31.470072
30.515709 65.58369 21.222073
31.49971 67.58069 21.566072
12.459709 7.63369 6.781079
11.497711 9.531685 7.314076
14.422714 20.850685 4.0430756
12.479713 20.02369 2.6800766
35.879715 16.32769 7.317073
37.490715 16.877686 5.216073
47.085712 14.301689 12.203073
45.885715 16.622688 11.047072
14.498711 6.791687 58.539074
16.563713 8.156685 59.214073
21.618713 12.011688 64.01308
21.66571 9.17569 64.23007
69.30371 53.19969 55.255074
71.02071 53.81969 54.506073
71.37371 58.23969 44.291073
73.27771 58.74569 44.914074
59.403713 70.55269 33.57807
59.719715 72.62369 33.999073
62.578712 80.29669 31.087072
64.016716 79.82269 29.775072
28.877708 58.66069 14.264072
27.52771 56.77669 14.718073
19.590714 59.87569 23.322073
18.239716 62.30469 22.949072
0.37570953 53.76369 12.495072
1.0487137 51.29069 12.388073
13.507713 53.90269 7.717073
15.033714 53.18569 9.323072
35.082714 23.75869 30.376072
37.029713 23.923683 29.279072
40.716713 15.686684 36.843075
43.10071 15.589684 37.70307
48.129715 42.27369 60.320072
46.337715 42.29969 59.500072
39.483715 39.60069 3.4160767
36.790714 39.53569 2.495079
2.62471 46.25769 15.705072
2.827713 45.68869 13.661073
8.20771 52.14969 7.106073
10.219711 51.05569 6.344073
51.008713 5.5966873 27.947073
50.407715 7.057686 29.297073
47.938713 6.574692 40.844074
47.158714 4.2246857 41.22507
57.862713 35.65969 8.046073
55.998714 35.19669 6.856073
55.662716 25.076689 14.2500725
53.490715 25.732689 15.009072
57.909714 13.237686 33.010075
56.928715 11.28669 33.579075
64.16271 15.655685 28.907072
66.127716 16.16169 29.390072
9.55471 76.432686 54.410072
11.49971 74.50669 54.393074
20.691711 74.641685 58.174072
18.76471 73.81769 59.269073
15.44371 55.62169 6.9220777
16.258713 57.407692 7.137074
26.051712 55.99769 65.02107
27.08171 57.58769 1.1270752
75.29871 42.00969 30.643072
74.84371 42.97569 28.696072
7.1797104 44.52569 20.942074
9.05571 44.84069 21.891073
7.88871 67.558685 37.608074
9.158714 65.77669 37.007072
4.334709 60.82569 46.55107
4.5427094 58.95669 47.806072
65.211716 46.38669 55.665073
67.02871 46.93869 57.271072
66.00172 43.96269 2.3520813
64.644714 45.93969 3.7080765
28.990707 20.346687 22.164072
26.685707 21.357689 22.373072
21.301712 18.735687 32.666073
22.30671 17.956688 34.761074
46.328712 18.900688 46.372074
46.285713 20.413689 48.066074
43.122715 24.30169 53.848072
43.018715 25.95269 55.487072
61.538715 12.086685 58.25907
62.194714 12.172684 56.601074
66.73271 8.566689 49.37107
68.02571 7.27269 50.674072
58.351715 65.13669 19.160072
57.169716 65.99269 20.344072
55.600716 61.108692 30.945072
53.773716 62.04469 31.284073
68.47071 63.09969 25.570072
65.63371 63.90169 26.359072
59.852715 63.767693 35.178074
58.535713 65.16769 34.57107
64.10871 47.77869 41.53007
65.05271 45.55969 41.928074
64.95571 43.470688 53.70407
63.165714 42.52269 53.074074
60.419716 44.18769 4.1080728
61.938713 44.79169 5.884073
59.340714 46.85169 15.948072
59.392715 46.55169 17.717073
4.2697144 68.85269 18.856073
5.732712 70.49969 20.220074
0.8147125 69.10869 29.899073
75.27571 70.57669 30.647072
50.519714 23.28669 23.138073
51.591713 24.627686 24.192072
45.667713 21.900688 29.778072
46.245712 23.192688 31.710073
33.078716 44.08969 1.7080729
31.511711 45.07469 2.935073
24.87371 43.89469 11.123073
24.421707 41.88369 12.974072
35.352715 50.53569 0.99308014
36.275715 48.16569 0.17707825
35.316715 47.67169 53.486073
33.751713 49.21669 53.22407
19.641708 51.06669 59.00907
20.294708 50.11169 60.687073
17.307709 48.03469 5.764073
16.73471 48.35969 8.280079
44.213715 67.89469 56.806072
44.046715 69.84769 55.541073
49.754715 68.77869 45.14207
51.528713 67.46169 44.402073
27.135712 10.238686 51.685074
25.600708 8.736687 51.64207
27.981712 3.1136856 63.346073
28.120712 4.9276886 64.42808
14.136711 48.08969 40.512074
14.940712 49.46269 42.192074
16.168709 49.34169 53.117073
16.101715 50.64469 54.834072
13.926712 44.46469 40.44007
11.879715 45.84869 40.727074
13.989716 47.57369 52.608074
13.044708 48.19569 54.812073
5.692711 53.41669 63.699074
6.0527115 51.85569 0.7100754
73.280716 46.75769 5.725079
73.71671 44.58769 6.534077
75.532715 21.41069 23.141073
1.0987091 22.505684 22.244072
7.5227127 21.169685 13.660072
8.391708 20.280685 11.943072
46.758713 4.6276855 0.9790802
45.063713 5.9336853 1.8940811
46.087715 74.97169 8.891079
46.870712 76.00969 10.772076
33.472713 78.82869 19.896072
33.155712 76.47869 19.718073
38.407715 79.05269 9.349072
37.579712 79.97869 7.446073
57.020714 47.57369 5.2560806
57.813713 47.56069 3.0120773
65.852715 49.12669 62.089073
64.61171 51.05369 62.859074
44.544712 3.7866898 62.71707
41.862713 3.654686 62.063072
41.499714 1.6156921 5.0760803
40.685715 4.00869 4.186081
30.741707 39.77469 44.056072
29.043709 40.86769 43.93307
28.60971 38.06169 55.680073
27.010712 38.70469 56.99607
35.258713 78.17869 5.7100797
34.183712 78.29669 3.7040787
39.009712 80.42269 58.191074
39.806713 79.25769 56.083073
22.479713 22.746689 54.01007
21.09871 22.596687 52.57107
22.286713 28.59569 42.178074
24.453712 27.295685 41.23207
54.160713 27.07069 46.472073
54.988712 28.20069 45.317074
53.352715 39.70169 46.070072
51.884716 41.24569 46.65607
69.41671 27.902689 14.366073
69.82172 25.42569 15.516072
62.292713 20.972687 6.591073
63.820713 20.805687 4.975073
6.308708 53.24169 52.98107
7.204712 53.50469 55.375072
71.018715 54.289692 57.540073
70.34671 54.83769 59.348072
69.977715 64.53669 10.566072
68.739716 63.23169 10.616073
61.555714 61.80869 17.610073
59.959713 63.93269 16.858072
11.190712 33.99069 47.577072
9.893715 34.13269 45.28607
12.761711 41.47669 36.936073
13.48671 39.14269 37.289074
33.687714 73.29569 18.877073
35.964714 73.251686 18.681072
38.133713 70.06669 8.331073
40.554714 70.76269 8.147073
74.978714 41.85569 55.57907
73.58371 43.35169 55.86307
6.959709 50.45769 52.96107
8.980713 49.83269 53.37007
70.21671 66.97269 27.634073
70.75971 68.46669 29.559072
60.851715 68.64269 35.496075
60.825714 68.91269 37.535072
51.690716 67.37469 64.74107
50.860714 67.25769 62.277073
55.053715 65.15769 52.79507
56.687714 63.92869 52.644073
48.983715 6.9636917 1.7560806
46.955715 8.143692 2.8780746
36.111713 12.806686 5.2480774
35.335712 10.687683 5.606076
27.577713 13.84169 35.027073
25.424713 14.751686 35.845074
24.328712 6.545685 45.366074
22.349709 6.987686 45.180073
28.383713 17.07869 39.59907
28.739708 17.490685 41.721073
26.412712 10.349686 48.206074
26.148712 7.73069 48.007072
30.825714 14.653687 36.252075
30.165714 14.150688 34.401073
36.595715 20.775688 27.469072
34.727715 21.556686 28.649073
35.136715 46.50869 18.351072
37.095715 46.00969 18.284073
39.601715 49.99469 9.933073
39.578712 50.907692 8.172073
9.195709 36.49569 1.1370773
11.514709 35.41169 1.457077
18.896713 41.345688 59.546074
20.232712 40.206688 58.528072
55.208714 35.70869 17.210073
56.025715 36.96869 18.635073
52.309715 37.04469 24.243073
52.825714 34.62569 24.594072
27.392708 38.62769 43.013073
25.071709 39.29369 43.389072
23.561707 37.04769 54.914074
22.31871 38.30769 56.019073
4.9607086 71.24069 3.0430756
6.5997086 71.04969 1.4170761
9.16571 73.23069 55.844074
9.975708 75.10769 57.45307
66.09371 55.38169 25.383072
65.59571 54.26269 28.151073
54.286713 56.09869 30.262072
55.162716 57.08069 32.458073
41.72571 64.10869 39.16907
42.438713 62.27069 39.027073
47.624714 60.74269 28.288073
46.698715 62.33569 27.213072
18.038712 34.054688 37.376072
18.786713 33.310688 38.935074
17.294708 31.84969 48.542072
17.77871 30.12669 49.948074
22.800713 4.18869 30.793072
24.80571 3.093689 29.611073
29.796707 5.833687 18.813072
27.905708 5.753685 17.711073
12.091713 37.12469 51.963074
12.364716 39.44869 51.965073
7.59671 40.22269 60.73907
6.490715 38.72469 61.67507
30.818714 47.76869 15.356072
31.150713 45.51769 14.720073
37.565712 49.42569 4.791073
36.96171 48.36169 2.568073
66.72372 50.99169 26.439072
66.55772 51.47269 28.485073
65.69071 43.93069 37.177074
64.59171 44.39669 38.57107
66.686714 20.96769 2.511073
67.64971 23.058685 2.053073
65.94371 28.34469 13.090073
67.23071 29.880686 13.686072
54.142715 40.59469 27.659073
52.264713 40.75469 26.562073
57.655716 38.11369 16.623074
56.640713 39.16969 14.630073
65.01171 9.802689 8.730073
63.808716 11.473686 7.9640727
68.49771 12.74469 13.995072
68.77271 10.818687 13.508073
17.240715 0.7646866 11.862073
16.22171 2.5086899 11.928073
9.419708 0.87768555 20.998074
8.431709 1.506691 23.312073
31.308708 1.5856857 39.851074
29.94271 2.678688 41.13507
30.975708 11.581688 33.893074
29.150711 10.566689 32.118073
62.642715 71.02769 22.234072
61.601715 72.20169 20.886072
68.88671 76.33669 11.311072
67.37571 76.94469 9.738072
0.20571136 22.557686 52.818073
74.77071 20.795685 52.443073
70.07172 23.143684 60.27407
68.39871 24.10569 59.070072
7.6257095 59.08469 18.320072
8.213715 61.61269 18.813072
13.309715 65.60069 10.302073
13.635712 63.27869 9.114073
37.14471 55.19969 3.9850729
35.774715 54.00769 2.745073
27.010712 56.61269 9.788073
27.922707 57.71169 11.3750725
25.785713 28.66169 7.2190747
24.190712 29.88769 5.871075
31.552711 29.590689 60.910072
32.94871 29.20369 62.48107
23.599709 74.83769 15.713073
24.289711 76.64269 17.203074
16.658714 73.54069 26.590073
15.171715 74.682686 27.543072
47.483715 58.64369 25.930073
47.184715 60.06469 24.631073
50.681713 62.52869 14.226072
49.073715 63.57569 12.846073
53.833714 69.47069 48.646072
54.201714 70.39569 46.219074
66.575714 71.23369 44.348072
66.228714 73.56569 44.048073
56.057713 76.62269 2.444073
54.303715 74.98169 1.4130731
48.869713 74.13469 10.761073
47.744713 72.96569 12.941072
31.758713 58.75669 1.1760731
30.94571 60.25169 2.589073
21.031708 59.50369 10.454073
19.816711 57.87369 9.915072
46.934715 37.22469 18.841072
44.871716 37.810688 18.985073
40.587715 46.99869 14.231072
40.219715 45.81369 16.288073
44.462715 0.9916916 29.457073
42.383713 1.954689 31.019073
42.121716 11.92569 36.38307
43.962715 13.172684 36.309074
36.063713 79.33769 23.397072
35.082714 0.22268677 23.404072
29.274714 2.4616852 32.287075
31.868713 1.5866852 33.160072
70.51471 21.808685 1.7540741
71.41772 19.875687 1.9900742
1.3937149 14.260689 4.559082
1.9897156 12.49469 3.5590744
41.891712 31.52669 49.206074
40.979713 30.055689 47.60007
47.845715 29.882689 38.23207
47.46871 29.541689 36.349075
61.298714 26.622688 59.08607
59.467712 25.597687 59.15507
53.160713 21.366684 2.3890762
51.712715 19.483688 1.2490768
21.392708 64.21569 14.417072
20.078712 66.79669 14.949073
16.479713 68.154686 25.965073
16.964714 68.37369 28.076073
23.33371 26.149689 55.512074
23.316711 23.887688 56.033073
17.491714 27.089684 0.51807404
15.619713 27.777689 1.6900787
6.601715 48.35569 36.351074
8.20771 49.59769 35.024075
10.464714 53.71669 25.569073
10.553711 52.57769 23.392073
68.69171 77.39869 24.646072
67.16772 78.53269 25.729073
62.969715 79.29969 33.736073
61.708714 78.752686 35.534073
35.197712 60.56169 40.89707
35.855713 58.28569 40.525074
37.154713 52.61269 49.31407
35.415714 52.63969 51.369072
26.350708 48.67369 47.79307
25.251709 49.97869 46.92007
17.626709 52.31969 56.338074
16.88871 54.21669 58.393074
38.986713 27.476685 18.810074
36.958714 27.945688 18.985073
30.036713 18.636688 18.824074
31.617714 17.326683 20.391073
3.3057098 41.074688 46.435074
1.6887131 39.46169 47.62807
8.043709 38.56869 57.539074
7.9747086 40.90469 57.875072
17.69571 32.658688 51.146072
19.871712 31.045689 51.748074
27.629707 32.42369 44.66807
26.683708 34.32769 44.083073
68.963715 36.11769 1.4360809
67.436714 37.52069 0.6210785
68.39072 41.30269 55.875072
70.35671 41.07969 54.80807
30.659706 75.70369 53.68307
31.315712 77.24669 54.756073
23.196709 4.6026917 58.56407
22.130707 3.4506912 60.577072
62.909714 76.02369 12.451073
61.064713 77.45969 11.730073
53.159714 77.363686 19.969072
53.367714 77.46269 22.192072
54.970715 58.08469 49.730072
57.040714 59.66269 50.21707
63.554714 65.80469 42.339073
61.869713 67.95869 41.924072
2.8347092 38.64369 28.800072
3.4317093 37.68369 26.663073
75.57971 41.74769 21.363073
73.27671 41.55469 21.664072
30.282713 68.72369 36.424072
29.902714 70.27269 34.69607
41.578712 72.38969 31.185072
42.687714 70.61169 30.188072
17.410713 28.489687 19.662073
17.539711 29.586687 21.650072
13.7387085 23.626686 32.756073
15.441711 24.672684 33.704075
11.98671 0.39369202 56.535072
12.48671 1.8346863 58.236073
17.177711 75.65969 61.492073
17.97371 77.571686 61.692074
56.571712 58.58369 1.3380733
54.691715 59.49769 2.685073
49.799713 57.44669 12.771072
50.639713 55.01769 12.632072
11.074715 5.065689 5.3020782
11.774712 3.0966873 5.7990766
21.574707 9.169685 2.0630798
21.941711 8.923691 4.2270813
22.02671 30.325686 7.394073
19.852715 29.852686 7.441073
16.731712 24.292686 15.955072
14.917709 22.896683 16.294073
33.011715 17.766685 6.690073
32.411716 16.17569 8.213073
28.386711 14.013687 17.634073
27.747711 11.767685 16.907072
64.905716 49.57869 20.689074
66.978714 50.17769 21.783073
75.11272 51.76469 14.841072
74.58371 49.68769 14.158072
2.287712 37.18769 46.27207
1.2067108 38.65969 44.24507
6.461708 39.49769 34.42507
7.922714 41.18369 36.02907
8.343712 3.8166885 56.67507
7.178711 1.9066849 56.50907
75.01371 80.42769 64.18707
73.199715 80.07269 63.761074
69.394714 10.954689 29.361073
70.488716 12.236687 27.905073
63.401714 16.685684 25.130072
62.468716 14.993683 26.705072
58.687714 42.331688 36.372074
60.867714 42.76969 36.01507
57.323715 41.62269 29.546072
55.724712 40.23269 29.944073
5.01371 33.98169 46.93907
7.4467087 34.48969 47.17607
0.64671326 38.081688 57.67607
74.02972 38.18269 57.771072
29.768707 64.00669 33.361073
29.218712 62.09869 35.052074
22.839706 64.09169 45.922073
21.17971 65.87069 45.347073
72.16872 71.01269 30.773073
73.25172 69.42569 31.942072
65.09671 67.92669 41.66307
64.113716 70.08969 41.637074
68.19271 54.63069 28.360073
68.30371 53.57869 26.051073
2.4337082 53.18469 21.044073
1.754715 53.73269 18.967073
39.534714 3.8106918 59.951073
38.738712 5.4866867 58.528072
43.823715 5.768692 47.212074
41.96171 4.343689 46.416073
74.85871 15.921684 19.034073
73.52571 16.538689 16.870073
74.69071 19.82869 7.647073
74.98371 21.667686 7.450073
37.764713 59.47869 16.951073
37.97571 59.54469 19.704073
46.029713 62.57069 12.514072
47.749714 61.56369 12.029073
7.5077133 29.951689 12.823072
7.160713 27.74969 12.3750725
73.39571 28.993689 20.573072
72.21671 31.090689 21.458073
52.886715 18.362686 57.87107
54.392715 20.28769 58.959072
50.769714 23.289688 3.4540787
48.866714 24.152687 4.066078
43.119713 11.259689 41.03107
43.304714 11.460686 42.73807
36.248714 18.913689 43.424072
36.465714 20.915688 42.369072
47.394714 55.51769 11.277073
46.450714 53.02169 11.903072
46.003716 50.68469 25.144073
43.873714 51.37269 25.295073
58.024715 1.5336914 58.80107
58.207714 80.94769 56.477074
69.378716 76.65069 58.32907
69.27871 74.516685 59.702072
9.161713 4.157692 24.271072
8.112709 2.6516876 25.582073
75.65371 3.8246918 32.233074
73.62171 2.3846893 32.39007
14.490715 50.39469 39.00907
13.418709 51.64769 37.86407
22.468712 49.39669 31.122072
23.799713 50.25469 29.543072
65.39871 36.43769 49.451073
65.77671 34.081688 49.145073
75.64571 26.173689 51.87807
1.5847092 27.22169 51.423073
20.274712 36.27869 52.292072
20.904709 35.65869 54.692074
11.55471 33.38669 62.768074
9.865715 32.60869 60.945072
44.271713 52.92069 27.414072
46.539715 52.54569 27.121073
45.555714 49.23269 38.972073
45.898712 47.07769 39.417072
50.957714 50.06769 26.834072
49.042713 49.96369 25.343073
55.599712 49.08869 16.223074
57.595715 48.93569 16.580072
72.07771 39.79369 53.438072
74.22071 39.27069 53.68907
71.656715 34.44669 43.052074
70.37271 32.380688 43.209072
28.177711 57.69869 47.430073
27.517708 56.13869 48.021072
24.963707 57.63769 59.709072
22.886711 58.74369 59.303074
54.664715 39.98669 43.805073
56.372715 39.75969 45.230072
55.194714 40.54269 37.970074
55.002716 40.00269 35.824074
20.438713 1.7366867 46.264072
21.34771 2.1026917 48.851074
16.224709 77.54069 56.840073
17.769714 76.15969 58.007072
69.975716 11.540688 18.834072
68.169716 10.642685 19.538073
70.57671 5.4376907 12.671073
69.34571 7.065689 13.260073
6.3617096 35.20869 64.72807
8.90271 34.193687 64.79907
4.0947113 30.358688 5.0550766
6.0147095 31.56769 6.1960797
19.941711 70.64769 47.75907
20.267708 69.18669 49.208073
9.711708 69.97869 54.535072
7.3287125 70.58269 54.72507
37.070713 68.46769 41.01607
37.263714 70.75869 41.87807
31.386713 73.655685 52.15507
29.755714 73.53669 51.69007
44.315712 14.727684 64.48007
42.646713 14.838684 0.5260773
48.224712 7.6846848 5.7230725
49.567715 9.476692 5.5130734
49.788715 72.32569 63.50807
50.017715 72.47169 0.27807617
45.766712 68.72169 10.113079
44.010715 67.56269 9.490078
64.142715 74.20469 42.26707
63.230713 72.73669 42.958073
54.445713 75.72069 43.23207
52.940716 75.58369 44.388073
19.886711 28.158686 3.129073
19.758713 25.902687 3.096073
12.870712 24.05169 12.554072
11.216713 23.701683 11.4670725
34.784714 71.42469 20.947073
35.674713 69.36069 20.045073
46.419712 71.56169 14.538073
46.129715 69.66569 13.701073
15.254715 32.46269 55.380074
14.224709 34.547688 54.359074
7.671715 30.76269 58.56507
7.9417114 28.71669 59.873074
26.42871 80.27169 30.637072
28.408707 79.73469 30.428072
34.400715 76.91169 22.158073
35.861713 75.62469 20.332073
45.518715 15.639687 61.373074
46.444714 15.48069 59.500072
48.144714 24.429688 52.202072
47.291714 26.558685 52.64707
19.992714 8.853691 13.721072
18.543709 7.343689 13.188073
11.306709 5.2926865 22.019073
8.595711 6.319687 21.705072
18.977715 67.07569 44.069073
20.05371 68.71169 44.937073
21.02671 73.18469 47.60707
21.427711 73.07269 49.577072
22.577713 33.970688 27.832073
22.19371 32.03169 27.962072
19.911713 30.73569 38.55707
20.881706 31.78769 40.408073
37.930714 11.788689 23.585073
36.671715 13.685684 24.825073
43.251713 19.727684 30.759073
42.636715 21.428688 29.955072
71.98271 14.876686 54.302074
71.158714 16.521683 53.548073
68.25871 21.628685 61.285072
67.90171 22.502686 63.501072
54.829716 26.511688 21.739073
55.260715 24.219688 20.546074
44.002712 24.45369 18.300074
42.046715 25.305687 17.628073
28.146713 71.68669 1.798073
29.675713 69.93969 2.207073
24.247711 72.21969 12.713073
25.232712 72.67769 15.108072
42.759712 56.33469 25.779072
43.396713 58.65369 26.683073
40.070713 58.41169 37.342075
37.590714 57.65669 38.41907
51.522713 79.626686 45.37007
53.592712 79.01969 44.702072
64.36071 1.9176865 41.549072
65.657715 1.4236908 43.764072
48.438713 4.2156906 25.706072
50.222713 3.3096848 25.619072
53.521713 11.057686 16.893072
55.644714 10.037689 16.663073
59.870712 47.16369 5.717076
60.467712 47.00269 3.4090805
57.348713 50.07669 2.5570755
55.014713 51.29769 1.7780762
43.596714 59.36169 38.86407
41.489716 59.38769 39.937073
40.391712 61.89769 51.346073
38.693714 62.70369 52.494072
27.33471 19.183685 19.616074
28.093712 17.24569 20.955072
18.854713 11.620689 24.894073
17.09671 11.076683 22.972073
23.634712 71.35069 28.969072
24.79271 73.45869 28.531073
32.453716 72.585686 21.367073
31.344711 72.27569 19.530073
9.058708 66.63869 1.8690729
10.872711 65.06769 2.114073
1.2307129 59.09269 9.4930725
1.9127121 56.77369 10.027073
31.548714 23.569687 58.783073
32.71871 23.06369 56.804073
41.410713 25.351685 50.644073
41.861713 26.587685 52.54407
57.282715 8.881691 38.796074
55.580715 9.302689 37.452072
53.712715 16.192688 44.59207
54.018715 18.524689 44.83507
65.81771 50.26569 57.712074
66.49971 49.50369 59.233074
71.29971 48.39669 4.420082
69.601715 50.00869 5.0970764
57.554714 20.822685 58.082073
57.072716 22.318687 55.853073
61.827713 25.25969 54.410072
59.484715 25.572685 55.241074
21.579712 60.372692 31.852072
20.159706 58.70669 33.162075
8.956711 57.66269 34.676075
8.532715 58.94069 36.613075
13.987709 62.81769 45.436073
13.516708 65.05469 46.42007
3.492714 66.96369 51.569073
3.6577148 68.10869 53.512074
3.4457092 17.955688 41.680073
4.8977127 19.132683 40.04307
8.267715 17.447685 28.567072
10.496712 17.858688 28.864073
15.08371 17.82869 43.854073
15.898712 18.177689 41.62707
16.23471 15.787689 32.70307
14.498711 15.999687 31.517073
49.705715 59.29269 62.78607
50.718716 60.83869 62.192074
48.244713 57.41169 50.486073
50.931713 57.98969 49.99507
66.55071 7.9556885 60.881073
64.574715 6.575691 61.200073
64.27471 7.9856873 7.1780744
63.656715 6.8286896 9.041073
33.62871 29.54769 44.894073
35.172714 29.100689 43.004074
41.084713 36.61269 35.45307
40.851715 35.80469 33.357075
42.646713 0.71669006 59.13307
43.594715 80.19369 57.53107
48.738712 80.766685 48.083073
47.766712 80.06369 45.69607
6.2057114 1.9416885 18.913073
7.270714 2.8856888 17.627073
12.871712 4.2136917 8.179073
10.614716 4.315689 8.155073
17.48671 48.79069 56.21107
19.36071 50.08069 56.354073
23.023712 48.54369 45.844074
21.316711 50.56969 46.209072
46.963715 38.69569 23.748072
46.250713 37.48269 21.774073
37.221714 37.00469 29.489073
34.992714 35.98569 30.153072
37.262714 5.3126907 54.327072
36.564713 5.7716904 56.290073
42.867714 14.236687 60.94607
42.802715 15.479683 62.435074
47.014713 69.95569 59.598072
48.152714 68.01869 60.236073
54.403713 69.07469 64.10808
55.737713 67.41569 64.69308
12.0267105 31.250689 16.404074
12.627708 29.25169 14.797072
16.328712 33.71269 5.020073
18.001709 35.23869 4.995073
51.293713 76.16569 39.395073
50.277714 77.45969 37.57207
43.708714 1.4326859 44.89207
44.503716 3.0736847 46.24607
28.668709 67.42369 -0.1759272
27.089706 68.73269 1.3310728
20.103706 67.97069 10.094072
20.94571 69.49569 11.687073
60.140713 29.797686 45.96707
59.786713 29.716692 48.216072
63.989716 25.449684 56.16207
65.19572 25.240685 58.27907
34.999714 5.0546875 46.809074
32.535713 4.642685 46.291073
31.298714 13.349686 38.443073
32.942715 14.864685 38.589073
15.98671 61.455692 7.929074
17.281715 59.59069 8.275074
24.59571 60.55469 62.86307
24.65171 58.75669 62.360073
34.704716 3.9586868 7.6940727
32.61571 4.728691 8.257072
30.23571 80.67169 18.168074
28.673714 79.20069 18.533073
4.6897125 70.90069 16.793074
4.94471 72.654686 18.306072
13.164711 72.99369 10.756073
14.926712 73.23569 9.608073
57.906715 38.51969 30.742073
56.648716 39.109688 32.30707
49.621716 32.43069 38.026073
49.342712 31.489689 39.927074
20.826714 32.01069 23.005072
19.960709 31.04669 21.366074
25.077713 34.10869 12.320073
24.524712 36.80269 11.183073
4.7387085 62.14869 65.126076
6.9237137 62.23769 0.74907684
16.312714 66.04869 63.60707
16.006714 68.15869 62.872074
64.613716 10.18869 60.042072
63.687714 9.719688 57.813072
73.004715 9.845688 52.066074
72.866714 8.154686 50.584072
63.305714 4.504692 40.861073
65.42671 5.1656876 41.30807
74.48772 4.829689 34.365074
0.23171234 5.4416885 35.854073
52.123714 17.727684 7.3650727
54.162716 17.960686 5.400073
59.814713 23.475685 11.627072
59.475716 22.330688 13.642073
16.935715 2.2436905 44.679073
17.057709 0.3616867 45.96107
6.88871 0.107688904 53.965073
8.537712 80.06469 55.740074
8.4277115 73.70169 21.603073
7.8167114 75.31369 23.020073
10.126709 65.58369 24.765072
12.22271 64.33469 24.713072
44.923714 73.91769 29.755072
44.465714 72.63369 31.625072
46.694714 73.12169 41.16807
46.087715 74.79769 41.692074
20.823708 64.66569 61.414074
19.072708 65.59669 63.369072
14.280708 65.24369 7.074078
12.7767105 64.81169 5.1310806
65.24371 74.30069 24.650072
67.69271 74.96869 24.776073
72.240715 73.15169 14.187073
72.03871 75.36869 14.553073
69.35771 51.60969 9.065073
69.17871 49.43669 8.738073
58.203712 50.65969 12.796073
58.452713 51.25069 15.110072
52.040714 57.79469 29.680073
53.895714 59.10469 29.159073
56.908714 60.25569 17.103073
56.498714 62.22969 17.476072
55.504715 22.144684 22.744072
53.439713 22.71669 23.211073
47.010715 19.470688 29.087072
45.722713 18.68869 31.000072
57.449715 27.13769 50.98907
57.320713 29.38369 49.839073
51.255714 39.73369 50.698074
50.551716 39.65769 52.456074
32.963715 29.951685 32.553074
34.598713 27.99969 32.906075
34.497715 18.64869 39.472073
36.896713 18.518684 40.290073
13.7767105 45.15569 37.917072
14.663712 43.39669 37.914074
22.383713 46.00469 28.748072
24.400711 46.04069 28.140072
36.514713 36.88269 17.529074
38.085712 38.088688 16.051073
41.064713 33.97469 6.126073
43.375713 33.49969 5.886073
63.488712 72.51769 57.179073
65.43172 73.18969 58.304073
63.584713 72.42069 5.6960797
63.062714 74.28269 6.7630734
14.559715 38.49769 40.061073
14.344711 40.80069 40.700073
14.7417145 31.760689 48.09907
15.065712 31.98469 50.275074
4.525711 33.29569 31.685072
3.4627151 31.41269 31.709072
68.87672 27.840689 34.492073
68.699715 27.37669 37.120075
45.615715 26.93869 56.553074
45.141712 28.38769 55.230072
53.602715 31.416689 61.514072
52.709713 33.484688 62.82207
73.200714 56.84969 63.152073
72.97472 58.93269 62.318073
74.35771 55.48269 49.056072
74.88971 53.46669 49.430073
51.563713 64.43969 1.598073
52.675713 62.80669 1.3650732
53.208714 62.97869 15.129072
54.702713 61.10569 15.193072
5.0687103 49.47169 22.636072
7.107712 49.73769 23.790073
74.837715 46.70869 27.714073
73.683716 45.70269 29.332073
39.048714 73.27169 26.512072
36.847713 72.01369 25.285072
28.683714 74.44469 34.841072
27.614714 72.73569 34.190075
36.093716 64.96369 54.472073
34.209713 65.30169 53.11407
25.414711 67.60969 53.19607
27.337708 66.70669 52.101074
34.397713 12.659683 56.186073
34.524715 13.273689 58.401073
42.394714 21.851685 61.213074
42.677715 20.781685 62.85007
7.879715 5.171692 4.794073
7.2817154 4.4156876 7.101073
74.004715 1.6776886 13.127072
72.35571 3.3406906 12.575073
20.733711 20.637688 19.452072
22.636711 20.64769 20.110073
20.955711 15.350685 30.424072
19.438713 17.17469 31.086073
13.981712 69.64569 40.907074
15.387711 68.60169 40.341072
26.002708 67.26269 33.105072
26.809708 68.51069 35.096073
42.481712 70.65169 58.164074
44.522713 69.84469 58.84207
38.821712 60.55369 0.33407593
38.314713 62.157692 2.2410812
31.588713 75.01769 38.853073
33.564713 75.84269 38.21107
38.817715 77.55969 29.570072
37.973713 77.862686 27.511072
69.253716 59.33369 42.353073
69.238716 57.62869 40.84907
72.394714 53.48069 30.960073
73.198715 55.48569 30.801073
36.21871 15.075684 37.816074
34.576714 16.943687 37.491074
29.625713 21.963684 40.03007
27.700714 20.765686 40.052074
35.62871 25.785688 45.428074
33.313717 26.64069 45.776073
28.266708 30.941689 56.361073
26.756706 28.85569 56.777073
19.385712 13.36969 50.03807
19.17871 11.49469 48.998074
9.973709 6.20269 57.332073
9.808708 8.113686 58.826073
2.4417114 74.60669 22.680073
3.1757126 76.76169 21.758072
69.95271 1.8486862 29.607073
69.949715 4.0126877 28.652073
73.05171 21.876686 9.825073
75.047714 22.219688 11.634072
4.654709 30.189692 9.024073
6.202713 28.948687 7.456073
27.838707 40.03869 15.582072
25.247711 40.10169 16.117073
23.080711 32.65369 25.430073
23.632713 30.76669 24.175072
26.039711 24.319687 25.631073
24.342712 25.705688 25.351072
15.492714 20.806686 30.851072
15.37571 18.391685 30.758072
53.726715 21.919685 50.720074
53.062714 20.413689 49.101074
62.742714 15.048683 45.35007
61.903713 13.232689 47.070072
27.382713 39.23269 62.123074
27.275711 40.34869 64.01208
19.13971 39.62769 6.79308
19.733711 38.817688 8.860073
27.738708 70.502686 41.348072
28.033707 73.18769 40.78707
21.718712 80.52369 45.778072
19.648712 79.50469 47.174072
69.44171 23.112686 20.105074
68.22372 21.73169 21.109074
58.860714 22.107689 25.582073
58.311714 23.962685 24.148073
38.880714 69.11069 25.755072
38.51071 66.93469 25.941072
32.748714 66.390686 35.466072
31.600714 65.28469 37.76507
17.558708 64.62169 44.79307
16.130714 62.93269 44.076073
22.035713 59.54369 35.81407
24.04071 59.32869 34.561073
74.73071 48.15169 41.214073
74.336716 46.63569 42.548073
2.9197083 45.58069 31.517073
5.067711 45.49869 33.164074
40.179714 21.311684 11.121073
43.067715 22.183685 9.952073
36.037712 28.425692 10.758073
35.625713 29.786692 12.248073
19.18071 20.227684 48.104073
17.266708 21.95369 49.068073
18.531715 22.387688 36.839073
17.772713 24.37069 36.712074
24.682709 74.79769 0.25907898
23.716713 73.238686 63.952072
31.571709 74.61669 56.034073
30.72071 72.612686 54.61407
53.997715 14.378685 18.630074
52.276714 15.851685 18.326073
43.775715 20.305687 16.069073
42.140713 18.364685 16.278072
21.07071 16.852684 15.3680725
21.515709 17.302689 17.775072
13.81971 18.852684 16.718073
15.592712 20.224686 17.084072
57.330715 2.4506912 14.926072
57.823715 3.1486893 16.959072
68.84271 2.8326874 12.817073
70.617714 2.24469 14.188072
2.7767105 76.94169 17.974073
1.1237106 76.47669 19.870073
72.09371 70.56069 27.429073
69.95371 70.34369 27.915073
64.225716 65.90669 6.354073
64.35771 67.59869 8.548073
56.097713 66.91769 17.953074
54.203712 67.335686 17.781073
6.5217133 75.20169 52.325073
6.6067123 76.95869 50.48807
6.5247116 75.88869 39.18907
4.758713 74.23069 38.26607
19.08171 19.386688 34.622074
19.93071 20.033684 36.792072
16.61071 16.811684 45.997074
17.355713 17.624687 48.549072
29.601707 75.34269 21.417072
28.97271 77.363686 20.914074
24.69571 75.67969 31.369072
23.56771 74.35769 30.737072
36.729713 50.19569 37.384075
34.559715 50.30769 36.15407
37.759712 41.449688 33.27207
39.630714 42.27669 32.82807
48.406715 64.27169 62.160072
46.787712 66.03869 61.844074
40.660713 69.78269 5.2160797
38.565712 68.168686 5.165077
59.280716 32.09269 7.791073
59.313713 34.05269 5.723073
57.515713 38.296688 9.582073
56.347713 40.824688 9.338073
33.691715 27.632685 26.808073
33.097713 25.265686 26.373072
43.112713 25.179688 21.557072
40.763714 25.038689 20.160072
30.979713 15.087685 22.345072
28.946709 16.199684 23.291073
22.31971 10.78669 31.797073
20.107712 11.005684 31.394073
48.092712 48.75869 60.980072
46.199715 49.96469 60.67007
44.098713 59.21569 59.881073
41.976715 58.47669 59.702072
40.542713 46.61669 8.799076
40.940712 45.36469 6.451077
47.098713 48.84269 63.438072
47.768715 46.25469 63.346073
18.52671 55.64269 10.187073
20.79271 54.83369 9.986073
15.102715 54.68569 21.690073
15.9917145 53.75969 23.832073
46.866714 73.98669 44.077072
45.985714 71.543686 44.220074
49.982716 77.83969 46.66107
50.112713 77.03569 44.72507
59.817715 31.61269 30.718073
58.950714 34.13369 31.922073
60.553715 31.497688 43.678074
59.425713 29.96369 43.243073
15.579712 41.387688 52.623074
16.35971 43.04769 53.59207
23.121712 42.36769 44.653072
21.622711 41.99369 43.290073
40.529713 7.2366867 60.429073
39.356712 6.006691 62.17007
31.567713 8.475685 5.2200775
32.790714 10.555687 4.7790833
67.31971 46.36169 40.597073
67.41271 44.41569 39.306072
71.22971 49.86169 31.222073
73.91171 50.39069 31.097073
52.104713 47.94269 12.328073
53.139713 46.14769 12.1250725
53.535713 37.44769 14.551072
54.694714 38.60369 16.371073
26.191711 25.241684 40.881073
27.20671 23.435684 39.744072
31.66571 25.55069 29.199072
32.826717 24.046684 28.696072
60.633713 58.98969 16.992073
59.498714 60.90869 16.037073
59.761715 65.391685 7.081073
58.631714 66.95869 5.727073
57.983715 68.40869 3.6800766
60.084713 68.21369 3.41008
62.088715 68.44369 57.91107
64.503716 67.79669 56.652073
3.1337128 9.662689 16.577072
1.225708 9.581688 17.283073
68.59371 6.650688 25.757072
68.96971 6.75869 28.107073
50.628716 36.03669 18.569073
52.657715 34.80169 18.658073
43.642715 28.92169 20.200073
43.419712 27.989689 22.067072
72.05171 24.88369 34.135075
69.71671 25.302689 34.728073
73.38871 21.374687 26.685072
74.57671 20.192688 25.287073
5.912712 25.240688 26.736073
8.267715 24.486689 26.998072
15.252708 33.47869 22.796072
14.460709 35.57769 22.702072
57.563713 20.071686 13.503073
56.852715 21.579689 12.222073
45.296715 20.460686 10.712072
44.186714 18.740685 10.954073
49.450714 62.45069 28.842073
50.701714 64.41269 29.049072
59.301716 67.67569 22.587072
61.370712 66.81569 24.101072
1.4747086 68.19869 49.956074
1.7137146 69.10569 52.07207
0.1687088 66.81369 63.32107
1.9917145 67.90869 63.569073
7.365715 32.34769 32.218075
8.984711 30.972689 33.336075
4.16671 34.30269 44.431072
5.883713 35.25769 44.539074
29.56771 35.68069 10.136074
28.97171 33.602688 10.160076
34.849712 33.852688 64.626076
34.362713 33.69469 62.098072
49.802715 29.302689 62.83607
50.428715 31.62069 63.881073
42.040714 27.56369 63.131073
43.589714 26.590689 61.831074
27.55371 74.75769 50.20407
26.72171 72.84269 50.501072
22.43071 69.26769 61.68307
20.45671 71.03569 61.395073
47.947712 4.5026855 46.64107
46.940712 6.5336914 47.53607
44.068714 3.2226868 59.611073
46.233715 3.0096893 60.589073
58.156715 56.26569 54.610073
57.304714 57.22469 56.784073
60.345715 57.60769 2.4090805
61.237713 55.19169 3.0970764
27.90171 70.03369 50.292072
26.481712 70.99769 48.452072
34.60371 67.73669 40.811073
35.294712 68.612686 38.950073
7.593712 54.92669 1.368073
7.6307144 57.20969 1.943073
74.70571 53.29669 10.176073
74.16471 55.58369 10.331073
69.66872 41.83569 27.529072
67.72971 40.79569 27.356073
60.748714 31.805689 26.539072
61.239716 30.680689 28.401073
6.1147156 59.45469 20.879072
5.426712 60.04369 22.554073
7.86071 53.78169 32.509075
7.756714 55.35669 33.874073
30.422707 27.338684 59.89907
32.89371 26.060684 60.62707
30.787712 25.993683 6.5910764
29.75071 26.514687 8.675076
2.3847122 57.37469 49.172073
2.5317154 59.04869 50.097073
3.4577103 58.59369 61.339073
1.9557114 57.31469 61.824074
54.002716 15.557686 22.756073
54.873714 13.699684 23.947073
54.607716 12.481689 30.140072
53.636715 10.401688 30.965073
6.367714 48.45269 20.564074
7.7837143 47.17469 19.749073
3.4357147 54.26969 16.858072
4.6087112 56.49369 17.599073
38.161713 15.044685 0.5000763
40.09371 15.515686 2.0770798
41.391712 20.659683 8.329075
41.709713 19.34169 9.949078
16.574715 62.60269 59.466072
15.198715 62.02269 61.292072
10.511711 59.40969 5.0440826
11.460709 57.31269 5.6290784
21.574707 18.310684 53.979073
20.669708 20.595688 54.34907
13.195709 19.53769 64.92808
14.767715 19.685684 1.0360794
10.433708 30.52569 58.747074
12.395714 30.35969 60.187073
23.260712 32.90469 57.451073
23.00071 34.12969 55.73907
49.042713 76.182686 60.602074
48.848713 73.78969 60.90507
55.363712 68.65669 53.750072
56.401714 67.38969 51.945072
59.848713 15.126686 31.709072
60.452713 16.998688 30.259073
64.94171 26.204689 34.360073
66.227715 26.60669 35.988075
10.591713 21.332687 64.212074
10.172714 19.846687 0.93807983
0.17871094 21.042686 5.0220795
74.26572 20.586685 3.7500763
75.54171 51.18969 45.55807
73.86871 49.63669 45.679073
67.96571 43.46069 54.083073
67.71571 45.20769 55.229073
63.207714 50.59169 59.27407
62.133713 49.43469 56.909073
64.73171 42.262688 56.75907
66.05772 40.31569 55.50907
58.796715 74.28269 20.628073
58.847713 72.86669 22.459072
54.791714 79.78669 32.213074
54.526714 0.14669037 30.606073
43.538715 39.64269 54.028072
41.909714 41.23169 53.873074
49.204716 43.96869 43.851074
50.531715 45.12369 45.709072
50.856712 50.76169 12.268073
50.939713 50.19169 9.942073
54.137714 44.782692 9.978073
54.603714 42.93169 9.571073
19.024712 55.02769 41.472073
19.17871 57.30169 42.23107
10.820709 60.55769 38.421074
9.670715 61.16169 36.944073
9.84771 11.609688 42.01607
11.448715 10.130692 41.91307
19.384712 9.6416855 33.989075
20.88971 8.033691 33.873074
46.220715 73.33769 61.743073
47.659714 71.13469 62.18207
43.452713 74.20169 8.088078
43.873714 71.94569 9.268078
17.65371 45.75769 9.325073
15.849709 45.88569 7.816073
10.476715 42.52769 18.140074
9.11171 43.49669 19.206074
37.540714 60.96569 54.76607
35.668713 62.330692 55.16307
33.804714 61.09069 1.3330765
35.888714 60.57869 0.1760788
49.882713 7.6676865 52.194073
47.915714 9.128685 52.066074
44.147713 11.555687 45.673073
45.279713 10.655685 44.61307
65.92871 15.956688 47.401073
67.62371 16.802689 46.986073
72.31371 17.362686 50.50807
71.80271 18.810684 52.471073
24.420708 54.91369 11.692073
25.600708 55.98069 12.704073
22.06971 53.91269 24.283073
19.952713 55.53369 24.755072
1.6027145 77.28169 46.837074
2.2367096 76.18469 45.049072
9.937714 0.46068573 38.423073
9.849709 80.69769 36.091072
33.543713 63.66269 38.89007
32.629715 64.15969 40.771072
37.477715 68.90969 51.16907
37.515713 70.72869 52.39807
14.912712 54.62869 38.567074
14.004715 54.10569 36.468075
22.261711 56.87869 28.319073
21.016708 59.02769 28.449072
56.351715 59.05569 35.730072
58.150715 60.25069 36.268074
66.99971 56.44469 42.582073
66.075714 54.92169 44.410072
20.141708 10.8426895 0.6270752
18.536713 11.3916855 64.36607
18.12571 6.5026855 9.224079
16.418709 5.517685 10.599079
27.312714 44.51069 30.117073
27.524714 44.31569 27.832073
35.466713 43.78769 18.739073
36.791714 42.01069 18.529074
69.82172 21.990685 54.813072
69.24871 22.49569 52.872074
64.24371 27.357689 44.42507
64.18871 24.754684 43.334072
36.901714 61.35669 39.188072
39.054714 61.19269 37.643074
40.815712 61.86769 25.963072
42.411713 63.97069 25.633072
30.119713 67.47169 38.622074
30.038712 68.19369 40.872074
28.38771 64.90369 49.95407
29.812714 65.45169 51.277073
64.73571 77.28969 10.461073
63.559715 79.13869 10.675073
59.502716 80.69869 2.181073
59.812714 78.53869 2.346073
13.106712 52.91069 4.9840775
14.963715 53.95569 4.389076
21.324707 56.32369 59.936073
21.20971 54.36669 59.778072
10.140709 7.8806915 24.704073
10.918709 10.053688 23.942072
18.13871 10.45269 15.313072
19.80471 11.812683 14.693072
2.586708 9.573685 2.3210754
3.7737122 7.7056885 2.7550812
4.2337112 6.8356857 57.407074
6.353714 7.5806885 57.297073
35.531715 58.20669 18.561073
37.534714 56.97269 18.905073
35.024715 52.16669 28.817072
36.85771 51.83269 30.279072
59.745712 6.635689 40.693073
58.512714 8.379692 41.21707
54.597713 1.1636887 51.720074
54.035713 2.8186874 52.477074
20.008713 75.73069 49.05107
21.599709 78.03469 49.928074
20.68071 79.71469 58.71107
20.12371 78.710686 60.11407
28.446714 63.87569 14.6510725
27.906713 62.71369 12.430073
39.070713 62.343693 8.406073
39.377712 63.13069 6.485073
11.5037155 52.06669 56.466072
9.298714 51.25369 55.764072
15.612709 43.71869 56.42007
15.940712 45.60069 55.248074
70.84771 15.186684 37.038074
69.310715 15.747688 34.770073
58.606712 16.77369 39.39207
57.345715 18.117683 37.306072
28.221714 42.63169 62.802074
29.725714 41.06169 62.374073
36.775715 44.80569 53.45307
38.169712 43.63169 52.881073
69.476715 38.59169 7.162073
70.031715 40.94669 7.058073
63.479713 40.99269 16.445072
64.94071 39.30669 17.631073
7.004715 22.496689 28.544073
6.4207153 23.587685 30.709072
73.94271 17.06569 35.955074
73.59271 15.261688 34.673073
0.6457138 42.41469 14.913073
2.5847092 43.18069 14.193072
73.30071 36.78069 7.934073
72.255714 34.866688 7.134073
22.217712 69.38169 64.67207
23.299713 70.89869 1.7310791
13.838715 67.63469 8.388073
14.228714 68.49669 10.651073
17.121712 62.93969 56.31407
19.463715 62.47369 57.27907
22.454712 70.46769 50.313072
24.243713 70.81169 50.379074
55.239716 3.6916885 26.402073
53.821712 2.35569 28.301073
61.858715 78.06469 21.958073
61.512714 75.92269 21.784073
21.782707 70.78969 13.802073
21.45771 68.91569 15.450072
13.001709 73.31169 22.570072
10.803711 72.13869 21.519073
18.768715 28.426691 38.68907
19.857712 29.078691 40.750072
15.7537155 24.10569 49.185074
16.482712 23.320686 51.42007
65.78971 59.03069 57.206074
64.12071 57.71969 58.05107
60.193714 65.293686 2.3090744
61.136715 65.11469 4.6730804
27.307709 61.98069 62.582073
27.27771 59.70769 62.115074
35.556713 60.05369 53.27907
37.36571 58.36069 52.43907
39.777714 39.27869 34.306072
38.617714 37.67569 32.537075
42.202713 45.62469 24.843073
41.802715 46.39569 22.799072
53.125713 71.73069 18.577072
54.289715 70.18069 17.354073
61.140713 69.84469 6.618073
60.668713 68.22169 6.723073
58.645714 65.84669 52.348072
59.306713 67.56069 51.955074
64.116714 68.807686 54.207073
62.126713 70.01969 53.679073
43.532715 41.29769 34.903072
41.824715 40.43169 35.873074
35.751713 36.00069 45.18307
34.71871 38.21469 45.77407
43.144714 50.19169 54.109074
43.699715 48.80869 55.729073
50.963715 41.50269 56.048073
49.533714 41.55969 57.87807
21.164711 23.118683 18.290073
21.163712 24.835686 17.104073
25.215714 24.868683 5.831073
24.00071 26.557686 6.310073
37.162712 6.2196884 18.529074
38.432713 5.1376877 19.720074
44.655712 3.9176865 26.776073
43.481712 1.8956909 26.661072
35.082714 64.81569 22.989073
37.028713 65.37169 23.699072
30.641714 61.079693 32.369072
29.693714 59.63969 33.89707
14.727715 54.42769 56.859074
15.892715 56.25469 56.109074
21.63871 57.69869 46.124073
20.925713 56.90669 44.289074
63.689713 39.03169 47.853073
61.543713 38.23169 47.351074
54.692715 42.44869 45.608074
52.948715 43.63669 45.122074
34.289715 75.69869 5.373073
33.202717 73.97169 5.177073
30.648712 73.55369 16.455072
28.766708 72.67969 17.850073
48.284714 34.88569 15.263073
49.948715 33.630688 14.332072
50.850716 30.31869 2.086073
49.114716 31.36769 1.7710731
25.628708 1.6506882 0.92007446
26.911713 3.4606857 1.16008
30.95971 3.2726898 62.67007
32.405712 4.6756897 61.332073
0.9867096 2.4386902 17.410072
75.267715 2.4766922 15.992072
64.55071 4.2716904 21.986073
64.23171 2.992691 24.192072
35.821712 8.950691 7.617073
34.175716 8.606689 6.775073
24.70971 4.5406876 15.796073
23.275711 5.5686874 14.624072
40.289715 47.62769 25.333073
37.533714 48.29769 25.599073
31.245714 50.99069 32.098072
33.199715 51.82269 33.45307
41.712715 72.52069 40.990074
43.208714 72.71769 42.66307
34.591713 77.90969 40.409073
33.523712 79.24569 41.373074
53.521713 11.643684 6.051073
51.946712 9.93869 6.955073
45.972713 3.4466858 11.419073
48.489716 3.2956848 12.190073
2.598709 63.26969 14.730073
2.1087112 63.19569 12.425073
7.4197083 68.82369 3.447073
9.629715 68.83469 4.527073
52.315716 7.200691 6.343073
53.096714 5.720688 5.264073
49.009716 80.65969 11.925073
48.034714 0.84568787 13.314073
28.871712 68.10569 32.823074
29.461708 70.57669 31.474073
27.55371 65.36069 20.334072
27.202713 66.43569 17.871073
53.113712 37.80469 28.371073
51.790714 39.70769 29.152073
48.170715 43.15969 39.220074
46.46871 41.80569 38.910072
57.019714 0.61268616 17.389072
58.847713 0.61968994 18.474073
68.90472 78.81369 12.578073
69.42571 0.18468475 12.203073
55.111713 24.66269 50.160072
57.177715 23.896683 50.983074
58.643715 19.482689 39.833073
59.231712 20.12069 37.881073
74.920715 11.617683 18.127073
0.061714172 13.132683 19.930073
68.13571 18.552689 25.360073
67.34671 19.942688 23.678072
27.894707 23.112686 42.527073
28.836708 20.701683 42.51707
27.571709 13.11969 52.276073
27.885712 13.114685 54.923073
23.225708 2.3866882 15.667072
22.586708 1.8516922 17.815073
12.807709 2.357689 25.345072
13.686714 3.2116852 26.722073
54.388714 78.94369 49.50907
51.957714 80.127686 49.080074
45.315712 72.10569 56.830074
43.781715 72.52369 55.237072
36.37171 15.818687 40.34907
34.323715 16.166687 41.090073
37.229713 9.500687 50.282074
38.89271 9.117691 51.289074
27.565712 53.60669 47.18907
27.814713 51.11069 46.44707
32.97871 60.608692 39.452072
32.554714 61.63269 37.59207
60.438713 48.96569 19.440073
61.861713 47.20169 19.210073
70.54171 49.84669 11.220073
71.922714 48.20369 11.728073
1.115715 60.03069 29.814072
1.9217148 62.19269 30.956072
6.081711 62.350693 20.872072
6.612709 63.92369 19.280073
23.24971 19.465683 17.404074
22.996712 20.143684 15.540072
31.090714 26.03569 11.449073
34.08971 26.04969 10.845073
67.794716 29.61069 1.3390808
69.756714 30.38669 0.61608124
69.54272 36.97569 57.91207
67.14771 37.54769 56.540073
9.521713 1.7226868 5.0790787
8.390709 0.027687073 3.879074
11.919708 5.14769 59.326073
12.336708 7.5446854 59.854073
74.87371 68.04769 45.012074
74.34371 65.96969 43.834072
3.7787094 65.32769 33.447075
2.7527084 64.00569 32.652073
12.591713 3.6886902 38.969074
15.05571 4.0356903 40.082073
19.906715 1.4556885 30.711073
17.539711 0.58768463 31.629072
34.048717 34.55869 15.582072
31.411713 34.81269 14.911073
28.34571 34.72269 26.674072
30.68171 33.59969 27.210073
33.280712 13.693687 5.47908
34.740715 14.830688 4.5270767
31.338713 20.472687 59.382072
29.142714 20.958687 58.90607
66.16772 35.67969 52.234074
64.72171 34.255688 53.79307
72.381714 29.60669 60.96107
73.39571 27.38669 60.23107
9.153709 74.14569 52.563072
9.24971 75.84469 51.512074
13.730713 79.49769 40.33507
15.30471 79.76369 41.861073
63.860714 74.78369 55.026073
64.45171 76.62169 54.184074
73.14671 77.50069 48.04507
75.18771 76.24869 47.05107
59.740715 74.77169 36.204075
61.849712 74.057686 34.905075
67.85671 72.33269 28.236073
67.84171 74.52369 27.220072
49.031715 47.09169 48.393074
49.361713 48.94769 49.556072
47.638714 44.87069 58.972073
47.078712 46.22869 60.81407
50.986713 77.31869 32.159073
49.423714 75.81569 32.051075
52.874714 79.58669 23.870073
52.940716 0.92269135 23.557072
50.631714 20.343689 47.02307
48.999714 19.733688 48.213074
44.571712 13.470688 40.769073
42.189713 14.767685 40.164074
36.153713 2.0926895 21.172073
35.417713 3.9346848 19.044073
30.278713 10.00769 17.717073
28.865713 8.21669 17.367073
44.523712 12.148689 60.525074
45.367714 13.31469 62.45407
50.917713 16.872688 5.25708
49.394714 15.866684 7.205075
32.42171 32.74269 16.519073
33.633717 33.26869 18.034073
30.925713 27.48069 27.513073
28.891708 26.90569 28.659073
48.412716 66.56069 31.806072
48.758713 68.06669 33.590073
43.084713 70.35369 40.362072
42.503716 68.36569 42.005074
46.615715 30.550692 4.2080765
46.963715 28.77469 6.2950788
43.325714 23.296684 63.804073
40.688713 22.764687 62.695072
0.42871094 68.81769 32.704075
1.3087082 67.030685 33.346073
72.27371 68.66269 43.68307
70.37571 67.33369 44.089073
57.882713 54.34369 15.057073
58.539715 53.72169 12.622073
67.68172 61.78469 8.498073
69.350716 60.30069 7.6740727
20.301712 47.31469 58.361073
21.852707 48.98669 57.56407
31.52771 47.67669 50.66207
34.03171 46.33369 51.594074
54.455715 62.23669 52.180073
56.003716 60.82169 52.63507
51.816715 56.41769 63.479073
52.022713 54.17569 63.268074
29.627714 56.97969 0.3730774
28.981714 58.96069 63.831074
39.776714 55.23569 57.706074
40.707714 57.60069 57.26007
15.045715 16.923683 65.03707
15.635712 14.420685 0.06707764
19.200714 13.610687 54.083073
20.367706 14.639687 52.14007
8.327713 22.765686 47.268074
8.593712 23.607689 45.08607
6.0977097 31.801691 46.55107
7.910713 31.822687 47.78807
64.156715 13.748688 6.550076
62.771713 13.873688 4.4250793
64.88671 20.998688 0.1020813
62.827713 21.935684 0.2390747
18.56971 3.5726852 12.077073
19.213715 5.5826874 11.499073
28.256706 11.057686 5.724073
30.475708 11.849686 6.128073
7.0077133 72.058685 4.465073
8.926712 72.237686 5.331073
13.630714 79.74369 9.655073
14.519714 78.62369 8.025073
56.714714 55.56169 50.382072
56.038715 57.02769 51.98207
51.800713 53.00569 60.511074
52.159714 51.24669 62.632072
44.48271 0.09668732 60.881073
46.842712 0.4446869 60.809074
51.892715 0.7816849 51.583073
50.466713 1.35569 50.173073
35.265713 61.15869 18.237074
33.618713 62.39869 18.121073
38.902714 67.53269 7.650073
40.078712 65.89969 7.961073
23.212708 11.626686 11.818072
24.132713 11.972687 13.360073
34.515713 13.886688 8.091073
36.65971 13.204689 7.6290727
75.71072 47.55269 44.955074
0.13171387 45.83069 44.726074
1.9827118 47.44569 49.89807
2.438713 44.96069 48.903072
40.285713 56.29869 14.825072
