1.482 5.746 2.705
1.403 5.800 2.511
2.016 6.001 2.694
1.633 5.721 2.756
1.799 5.445 2.416
0.568 5.983 3.142
0.566 5.807 2.742
0.920 6.215 3.156
1.075 5.940 2.967
0.798 5.680 3.064
1.379 6.087 2.990
1.415 5.898 2.975
1.297 5.501 2.825
1.584 6.139 3.062
1.441 5.721 3.094
1.584 5.507 2.883
1.721 5.785 3.120
1.617 5.683 3.120
1.817 5.437 2.884
0.566 5.699 3.433
0.502 5.656 3.233
0.995 6.291 3.395
1.017 6.004 3.560
1.047 5.877 3.091
0.879 5.334 3.279
1.409 6.061 3.625
1.466 5.759 3.292
1.265 5.653 3.301
1.301 5.407 2.931
1.502 6.191 3.593
1.664 5.702 3.278
1.541 5.764 3.394
1.387 5.178 2.893
1.906 5.941 3.489
1.985 5.667 3.510
1.847 5.612 3.195
1.559 5.137 3.117
0.582 5.929 3.796
0.810 5.738 3.425
0.626 5.563 3.410
1.064 5.994 3.649
1.120 5.749 3.779
1.011 5.721 3.657
0.980 5.346 3.393
1.342 6.250 3.988
1.215 6.015 3.677
1.477 5.739 3.736
1.195 5.598 3.302
1.296 5.201 3.316
1.664 6.111 3.858
1.643 5.874 3.775
1.520 5.529 3.609
1.482 5.443 3.450
1.330 5.235 3.439
1.777 5.942 3.734
1.997 5.593 3.650
1.862 5.522 3.595
1.589 5.124 3.097
-0.100 6.021 -0.113
0.584 6.350 0.184
0.588 6.144 0.304
1.102 5.864 -0.046
0.435 5.593 0.180
0.627 5.925 0.196
0.402 5.337 0.228
0.964 5.744 0.077
0.819 5.411 0.039
0.404 5.140 0.060
0.431 5.045 0.088
0.770 4.869 -0.066
1.039 5.105 -0.013
0.330 4.930 0.157
0.238 4.663 0.265
0.607 4.789 0.061
0.354 4.276 0.050
0.913 4.572 0.242
0.633 4.491 -0.132
1.240 4.489 0.171
0.940 4.295 -0.028
0.133 4.449 0.229
0.316 4.272 0.068
0.171 3.998 0.045
0.643 4.179 0.452
0.559 3.905 0.285
0.261 3.736 0.065
0.848 4.086 0.169
0.583 3.923 -0.010
1.114 3.976 0.415
1.098 4.083 0.032
-0.070 4.107 0.278
0.192 3.619 0.311
0.450 4.302 0.363
0.240 3.872 0.450
0.267 3.842 0.349
0.279 3.620 0.162
0.763 4.213 0.537
0.684 3.719 0.462
0.446 3.654 0.081
0.414 3.556 0.133
0.983 4.069 0.570
0.775 3.627 0.515
0.907 3.541 0.310
0.600 3.176 -0.029
1.696 5.743 1.701
-0.172 3.727 0.380
0.547 3.911 0.679
0.208 3.626 0.652
0.369 3.388 0.160
0.118 3.210 0.155
0.034 2.716 0.017
0.491 3.585 0.472
0.445 3.617 0.479
0.413 3.213 0.420
0.280 3.068 0.022
1.288 5.697 2.057
1.434 5.458 1.991
0.985 3.944 0.647
0.775 3.503 0.625
0.978 3.420 0.588
0.800 3.157 0.456
0.804 2.846 -0.009
1.690 5.624 2.036
1.690 5.455 1.811
-0.062 5.556 2.198
-0.048 5.098 1.872
-0.012 5.500 2.097
0.213 5.389 2.165
0.510 5.565 2.287
0.357 5.208 2.111
0.795 5.313 2.024
0.749 5.806 2.160
0.915 5.463 2.144
0.801 5.366 1.889
1.069 5.177 1.800
0.979 5.603 2.223
1.116 5.507 2.231
0.998 5.235 1.751
0.717 3.570 0.760
0.491 3.218 0.691
0.380 3.056 0.416
0.492 2.728 0.311
1.248 5.764 2.210
1.134 5.275 2.038
0.989 3.426 0.945
0.895 3.235 0.533
0.767 2.879 0.477
0.660 2.759 0.487
1.524 5.668 1.989
1.437 5.302 2.186
0.263 5.388 2.170
-0.038 5.091 2.242
0.386 5.781 2.462
0.315 5.433 2.459
0.098 5.204 2.215
0.342 5.283 2.413
0.322 4.836 2.067
0.152 4.762 2.044
0.643 5.691 2.530
0.332 5.587 2.246
0.193 5.303 2.167
0.550 5.104 2.250
0.560 4.943 2.209
0.923 5.613 2.525
0.672 5.332 2.531
0.481 5.031 2.183
0.907 4.889 2.276
1.266 5.595 2.447
1.077 5.460 2.273
0.989 5.233 2.122
1.364 5.130 2.243
1.533 5.334 2.351
1.236 5.062 2.403
1.188 4.882 2.175
0.775 3.231 1.000
0.968 3.046 0.857
0.653 2.698 0.661
1.777 5.386 2.388
1.502 5.068 2.271
0.042 5.309 2.566
0.163 4.880 2.226
0.412 5.471 2.963
0.267 5.383 2.559
0.129 5.151 2.646
0.546 5.229 2.381
0.231 4.779 2.297
0.148 4.526 2.358
0.396 5.689 2.874
0.422 5.198 2.653
0.465 5.066 2.654
0.716 4.998 2.274
0.473 4.948 2.142
0.645 5.312 2.698
0.826 5.179 2.536
0.785 5.133 2.541
1.003 4.792 2.293
1.086 5.528 2.778
0.881 5.169 2.383
1.028 4.838 2.538
1.083 5.001 2.510
1.453 5.432 2.814
1.223 5.189 2.674
1.184 4.802 2.304
1.570 5.021 2.662
1.721 4.973 2.417
-0.078 5.034 2.641
0.341 5.296 3.046
0.085 5.407 2.991
0.137 5.008 2.567
0.439 4.854 2.748
0.120 4.605 2.409
0.119 4.480 2.469
0.629 5.384 3.027
0.501 5.177 2.741
0.360 4.770 2.835
0.540 4.905 2.638
0.647 4.440 2.668
0.959 5.195 2.890
0.600 5.092 2.899
0.762 4.803 2.604
1.065 4.675 2.718
1.168 5.170 2.982
0.810 4.863 2.826
1.075 4.937 2.713
1.212 5.200 3.069
1.411 5.003 2.676
0.056 0.764 0.331
0.006 0.799 -0.047
1.566 5.145 3.077
0.020 4.670 2.899
0.221 5.225 3.406
-0.048 5.110 3.229
0.175 4.823 3.131
0.225 4.824 2.951
0.277 4.640 2.918
0.128 4.429 2.741
0.516 5.221 3.340
0.277 4.876 3.228
0.354 4.598 3.126
0.628 4.675 2.835
0.785 5.062 3.049
0.704 5.031 3.195
0.448 4.528 3.049
0.933 4.963 3.056
0.822 4.966 3.220
1.335 4.993 3.109
0.108 0.871 0.387
0.717 6.046 4.307
0.657 6.109 3.984
0.605 5.710 4.130
0.778 5.480 3.978
0.715 5.320 3.539
1.221 5.968 4.195
1.108 6.006 4.213
1.184 5.604 4.042
1.071 5.522 3.817
0.702 5.370 3.490
1.490 6.306 4.489
1.591 5.973 4.215
1.501 5.997 3.860
1.432 5.730 3.988
1.281 5.470 3.654
1.089 5.049 3.582
1.870 6.132 4.233
1.551 6.144 4.195
1.605 5.898 4.075
1.611 5.646 3.799
1.355 5.196 3.712
1.522 4.969 3.617
2.058 5.889 4.132
2.065 5.618 3.845
1.935 5.542 3.753
1.792 5.071 3.813
0.963 6.211 4.601
0.799 5.885 4.432
1.126 6.286 4.627
1.141 6.092 4.549
1.159 5.927 4.194
1.144 5.479 4.235
1.014 5.168 4.053
1.560 6.093 4.727
1.500 5.826 4.469
1.263 5.661 4.407
1.340 5.617 4.255
1.343 5.251 4.155
1.947 6.226 4.613
1.946 6.156 4.514
1.833 5.657 4.441
1.463 5.549 4.311
1.380 5.535 4.257
1.361 5.008 4.079
2.047 5.787 4.533
1.848 5.831 4.262
1.958 5.577 4.062
1.679 5.373 3.942
1.015 6.194 4.710
0.991 5.952 4.624
1.366 5.984 4.746
0.982 5.997 4.670
1.136 5.665 4.532
1.151 5.462 4.363
1.422 6.026 4.880
1.429 6.156 4.681
1.477 5.609 4.621
1.236 5.388 4.389
1.184 5.296 4.220
1.708 6.209 4.758
1.917 5.945 4.863
1.551 5.843 4.586
1.441 5.498 4.410
1.670 5.114 4.480
2.071 5.907 4.863
2.016 5.710 4.736
1.869 5.556 4.747
2.035 5.352 4.379
1.696 5.319 4.427
0.946 6.358 5.179
1.081 5.976 5.150
0.760 5.703 5.076
1.267 6.177 5.224
1.314 5.817 5.140
1.053 5.610 4.775
1.097 5.506 4.903
1.514 6.092 5.130
1.319 5.948 5.223
1.553 5.660 5.074
1.398 5.416 4.574
1.745 6.052 5.478
1.667 5.912 5.237
1.727 5.884 4.963
1.754 5.544 5.027
1.730 5.211 4.849
2.295 5.985 5.366
1.987 5.915 5.107
1.967 5.769 5.093
1.945 5.619 4.829
1.994 5.102 4.622
0.853 6.032 5.347
0.932 6.138 5.387
1.082 6.015 5.380
1.329 6.232 5.773
1.179 5.890 5.510
1.351 5.814 5.337
1.190 5.617 5.241
1.448 6.234 5.504
1.642 6.040 5.420
1.557 5.503 5.381
1.491 5.354 5.264
1.290 5.313 4.947
2.090 6.146 5.740
1.828 5.954 5.711
1.815 5.766 5.491
1.819 5.560 5.366
1.662 5.423 4.929
1.368 4.954 5.097
2.019 6.076 5.612
2.161 5.682 5.335
1.873 5.539 5.398
2.064 5.201 5.243
1.821 4.961 5.022
1.208 6.273 6.017
1.400 6.151 5.708
1.301 5.715 5.717
1.182 5.454 5.441
1.782 6.381 6.134
1.756 6.156 5.969
1.365 5.575 5.614
1.281 5.375 5.367
1.383 5.165 5.472
1.812 5.873 5.931
1.858 5.857 5.635
1.581 5.448 5.346
1.698 5.319 5.525
2.224 5.899 5.685
2.038 5.437 5.766
2.137 5.508 5.424
2.077 5.240 5.508
1.717 5.036 5.174
1.788 5.720 6.193
1.640 5.472 5.852
1.589 5.404 5.718
1.708 5.115 5.566
2.013 5.637 5.892
2.096 5.445 5.876
2.122 5.306 5.739
1.775 5.164 5.594
0.243 4.433 5.377
1.909 5.163 6.115
1.925 5.247 5.978
1.970 4.643 5.829
-0.147 4.750 6.056
0.365 4.483 5.795
0.203 4.065 5.723
-0.060 4.585 6.066
0.020 4.437 6.149
0.053 4.051 5.772
0.328 3.996 6.316
0.057 3.758 6.167
0.784 6.295 4.258
0.954 6.069 3.992
0.881 5.591 4.045
0.718 5.532 3.780
0.522 5.160 3.713
0.999 6.089 4.295
1.250 6.023 4.118
1.107 5.837 3.726
0.889 5.614 3.859
0.708 5.116 3.778
1.684 6.334 4.246
1.605 6.087 4.042
1.486 5.718 4.171
1.094 5.544 3.869
1.046 5.518 3.656
0.984 5.247 3.771
1.621 6.323 4.413
1.683 5.949 4.151
1.599 5.555 4.156
1.622 5.485 3.731
1.504 5.126 3.852
1.286 5.029 3.572
2.049 5.729 4.276
2.029 5.725 3.833
1.993 5.490 3.983
1.901 5.370 3.687
0.597 5.179 3.582
1.132 4.724 3.464
0.065 1.010 0.892
-0.141 0.789 0.656
0.170 1.185 1.568
0.116 0.813 1.214
0.090 0.541 1.104
0.188 0.308 0.937
-0.101 1.436 1.730
0.167 1.106 1.475
0.274 0.674 1.504
-0.089 0.479 1.375
0.153 0.202 1.002
0.297 1.570 2.030
-0.084 1.266 2.118
0.203 0.944 1.852
0.434 0.900 1.837
0.070 0.698 1.576
0.185 0.267 1.712
0.136 1.271 2.310
-0.111 0.956 2.166
1.098 3.152 3.737
0.951 2.892 3.524
1.174 2.956 3.269
0.181 1.099 2.251
0.210 0.827 1.934
-0.011 0.612 1.969
0.006 0.178 1.646
0.891 3.570 4.041
0.749 3.056 4.055
0.793 2.900 3.984
0.761 2.707 3.563
-0.061 0.991 2.454
1.301 3.176 4.171
1.022 3.209 3.810
0.987 2.812 3.843
0.789 2.536 3.658
0.428 0.760 2.349
0.130 0.381 2.369
0.102 0.308 2.264
-0.003 0.135 1.905
0.180 3.897 4.658
0.157 3.574 4.543
0.250 3.482 4.360
0.361 3.621 4.667
0.596 3.787 4.791
0.459 3.283 4.448
0.305 3.346 4.415
0.191 3.050 4.325
0.309 3.745 4.735
0.554 3.546 4.432
0.761 3.193 4.353
0.501 3.009 4.424
0.539 2.717 4.070
0.274 2.805 4.133
0.608 3.580 4.679
0.756 3.401 4.314
0.962 3.059 4.430
0.943 2.961 3.933
0.566 2.468 4.092
0.111 0.676 2.695
1.186 3.170 4.353
1.112 2.999 4.307
1.020 2.562 3.969
1.053 2.573 3.856
0.995 2.287 3.902
0.387 0.777 2.887
0.072 0.236 2.484
0.200 0.333 2.468
0.173 3.971 5.275
0.093 3.451 4.765
-0.009 3.309 4.591
0.124 3.116 4.595
0.235 4.190 5.338
0.299 3.711 4.887
0.048 3.511 4.893
0.323 3.342 4.928
0.430 3.427 4.613
0.251 2.903 4.704
0.197 2.807 4.474
0.085 2.577 4.172
0.465 3.534 4.822
0.554 3.300 4.940
0.601 3.290 5.012
0.773 3.343 4.681
0.397 3.021 4.548
0.481 2.829 4.259
0.533 2.470 4.241
0.289 2.312 3.955
0.576 3.245 4.844
1.020 3.247 4.644
0.979 3.219 4.647
0.846 2.986 4.570
0.634 2.598 4.355
0.708 2.395 4.192
0.476 2.198 3.930
1.179 3.171 4.823
1.201 3.059 4.602
1.078 2.664 4.605
0.933 2.482 4.197
1.074 2.208 4.163
0.738 2.246 4.157
0.032 0.153 2.931
0.213 0.113 2.556
0.196 3.790 5.518
0.136 3.401 4.956
0.213 3.206 5.057
0.346 3.854 5.251
0.105 3.629 5.232
0.141 3.534 5.251
0.271 3.337 5.231
0.517 3.062 4.970
0.129 3.031 4.780
0.141 2.702 4.765
0.011 2.266 4.377
0.155 2.012 4.177
0.682 3.740 5.226
0.370 3.458 4.978
0.677 3.224 5.200
0.496 2.928 5.052
0.512 2.785 4.910
0.279 2.614 4.617
0.327 2.376 4.635
0.211 1.951 4.439
0.544 3.164 5.224
0.876 3.224 4.872
0.782 2.778 4.974
0.727 2.818 4.788
0.762 2.350 4.439
0.638 2.420 4.407
0.410 2.105 4.472
0.917 3.006 5.131
1.256 2.987 4.738
1.242 2.528 4.763
0.993 2.394 4.612
0.907 2.137 4.456
1.003 1.763 4.400
0.202 3.946 5.776
0.235 3.158 5.348
-0.020 2.906 5.377
0.229 3.708 5.774
0.233 3.587 5.560
0.042 3.310 5.487
0.301 3.072 5.212
0.191 2.972 5.031
0.184 2.656 5.005
0.094 2.318 4.817
0.104 2.257 4.563
0.357 3.246 5.412
0.267 3.009 5.337
0.593 3.237 5.141
0.771 2.976 5.101
0.612 2.801 5.148
0.479 2.352 5.038
0.427 2.013 4.583
0.293 1.999 4.548
0.075 1.553 4.540
0.628 3.016 5.383
0.945 2.604 5.269
0.906 2.375 5.005
0.664 2.138 4.923
0.560 2.111 4.832
0.483 1.784 4.573
0.302 1.560 4.386
0.929 2.487 4.847
0.937 2.087 4.866
0.788 2.080 4.664
0.841 1.706 4.552
0.803 1.556 4.283
0.000 3.596 5.894
0.288 3.085 5.466
0.117 2.929 5.291
0.267 3.536 6.082
0.212 3.395 5.896
0.230 3.241 5.798
0.441 3.128 5.446
0.178 2.793 5.595
0.081 2.532 5.155
0.182 2.488 5.241
-0.122 2.279 4.904
0.496 2.947 5.584
0.432 2.792 5.502
0.671 2.669 5.363
0.275 2.112 5.144
0.302 2.175 4.871
0.164 1.675 4.778
0.158 1.678 4.709
0.261 1.456 4.605
0.915 2.378 5.128
0.711 1.996 5.062
0.660 2.085 4.750
0.592 1.641 4.701
0.369 1.679 4.674
0.217 1.250 4.450
1.035 2.159 5.207
1.032 1.980 4.999
0.694 1.515 4.732
0.885 1.313 4.465
0.053 2.499 5.460
0.292 2.283 5.348
-0.013 1.836 5.202
0.450 2.342 5.516
0.231 2.225 5.291
0.311 1.771 5.296
0.355 1.707 5.148
0.101 1.594 5.040
-0.036 1.249 4.558
0.791 1.845 5.379
0.454 1.837 5.110
0.423 1.472 4.964
0.435 1.523 4.766
0.451 1.262 4.536
0.126 0.882 4.525
0.904 1.727 5.256
0.613 1.478 4.885
0.574 1.154 4.646
0.654 1.054 4.710
-0.116 1.960 5.378
0.367 1.626 5.568
0.372 1.449 5.232
-0.049 1.397 5.124
0.076 1.015 4.845
0.388 1.826 5.360
0.518 1.354 5.100
0.272 1.158 4.951
0.272 0.872 4.945
0.237 0.587 4.989
0.021 0.348 4.609
0.688 1.506 5.369
0.643 1.229 5.007
0.732 0.758 4.742
0.427 0.521 4.950
0.284 1.168 5.430
0.288 1.189 5.247
-0.156 1.007 5.384
0.582 1.413 5.364
0.483 1.036 5.278
0.476 0.859 5.213
0.300 0.735 4.997
0.305 0.445 4.955
-0.040 0.193 4.568
0.743 1.335 5.561
0.584 1.052 5.456
0.720 0.862 5.122
0.643 0.629 4.904
0.423 0.440 4.734
0.166 1.042 5.684
0.071 0.820 5.464
0.420 0.865 5.582
0.250 0.527 5.355
0.331 0.319 5.186
-0.072 0.014 4.989
0.553 0.697 5.437
0.505 0.482 5.247
0.348 0.277 5.261
0.365 0.028 4.922
-0.021 0.684 5.863
0.265 0.797 5.984
0.138 0.452 5.863
0.239 0.252 5.568
0.257 0.206 5.199
0.510 0.723 5.668
0.622 0.237 5.509
0.287 0.125 5.608
0.213 0.374 5.911
-0.011 0.046 5.934
0.496 0.523 5.911
0.439 0.313 6.060
0.376 0.066 5.830
0.370 0.145 6.340
0.468 0.114 6.047
0.779 5.006 3.420
1.207 4.808 3.599
0.277 0.838 0.948
-0.070 0.767 0.515
5.135 6.116 0.070
5.107 6.132 0.198
5.398 6.245 0.041
5.877 6.238 0.123
5.739 5.857 0.101
6.309 6.276 0.084
6.145 5.862 0.236
5.557 6.294 0.424
5.614 6.075 0.529
5.591 5.832 0.211
5.694 6.155 0.376
5.946 6.010 0.408
5.509 5.731 0.161
6.361 6.384 0.596
5.994 6.178 0.429
6.173 5.624 0.227
5.879 5.613 0.002
6.331 5.338 0.286
3.335 6.359 0.631
3.450 6.012 0.514
5.491 6.254 1.026
5.579 5.883 0.866
5.391 5.975 0.511
5.993 6.060 1.061
5.800 5.981 0.932
5.915 5.868 0.446
5.643 5.414 0.376
6.211 6.260 0.741
6.112 5.737 0.775
6.029 5.596 0.581
5.998 5.468 0.517
6.075 5.462 0.201
2.577 6.285 0.957
3.102 6.034 0.861
3.350 6.075 1.090
3.579 6.135 0.993
3.527 6.183 0.894
5.518 6.074 1.068
5.439 5.806 1.047
6.057 6.220 1.263
5.965 6.004 1.068
5.956 5.823 0.862
5.678 5.623 0.674
6.404 6.374 1.412
6.055 5.911 1.194
6.256 5.708 0.974
6.126 5.626 0.915
6.110 5.299 0.834
2.079 6.191 1.434
2.480 6.210 1.309
2.503 6.284 1.421
2.890 6.196 1.212
2.812 6.043 1.379
3.259 5.994 1.386
3.302 5.815 1.063
3.346 5.939 1.223
3.496 5.733 1.086
5.580 6.342 1.573
5.862 6.274 1.661
5.721 5.834 1.359
5.508 5.761 1.093
5.968 5.987 1.623
6.019 6.059 1.292
5.645 5.719 1.306
6.122 6.042 1.621
6.298 5.784 1.313
6.174 5.703 1.148
2.100 6.121 1.297
2.146 6.208 1.670
2.235 6.143 1.622
2.238 5.978 1.664
2.626 6.114 1.575
2.588 5.767 1.353
2.878 6.042 1.638
2.871 5.709 1.308
3.205 6.321 1.573
3.084 6.120 1.658
3.286 5.665 1.616
3.695 5.970 1.689
3.540 5.788 1.448
5.567 6.059 1.975
5.143 5.845 1.839
5.859 6.327 1.897
5.834 6.216 1.717
5.538 5.850 1.827
6.122 6.276 2.024
5.801 5.873 1.832
5.773 5.726 1.661
6.356 5.807 1.860
6.115 5.850 1.460
2.047 6.226 1.720
2.014 6.329 1.871
2.100 5.953 1.977
2.387 6.162 1.789
2.150 5.736 1.868
2.673 6.144 1.876
2.845 5.918 1.994
2.414 5.916 1.696
3.202 6.283 2.105
2.819 5.992 1.820
3.046 5.894 1.652
3.259 5.732 1.840
3.031 5.677 1.499
3.467 5.513 1.528
4.930 5.992 2.255
5.464 6.266 2.393
5.239 6.067 1.958
5.384 5.698 1.880
5.591 6.008 2.000
5.776 5.928 1.962
5.483 5.733 1.839
6.122 6.423 2.278
5.929 5.911 2.180
5.739 5.635 1.946
5.897 5.517 1.719
6.424 5.954 1.952
6.247 5.823 1.796
6.171 5.621 1.857
2.300 6.370 1.895
2.036 5.945 1.969
2.123 6.077 2.313
1.995 6.040 2.194
1.883 5.801 1.978
2.410 6.041 2.228
2.256 5.811 2.262
2.233 5.792 2.175
2.763 5.944 2.319
2.473 5.703 1.860
2.826 5.790 2.198
2.931 5.421 2.092
3.073 5.453 1.916
4.988 6.368 2.652
4.780 5.829 2.400
5.073 6.128 2.581
5.190 5.935 2.489
5.308 5.962 2.632
5.237 5.756 2.156
5.427 5.682 2.078
5.972 6.143 2.459
5.706 6.017 2.407
5.661 5.661 2.360
5.669 5.454 2.070
6.002 6.061 2.622
6.041 5.813 2.350
5.998 5.733 2.420
6.154 5.801 2.190
6.365 5.441 2.133
2.081 6.300 2.328
2.142 6.211 2.322
1.876 5.770 2.105
2.093 6.123 2.612
2.049 5.971 2.591
2.012 5.706 2.348
2.424 5.721 2.435
2.295 5.756 2.311
2.828 5.557 2.279
2.701 5.366 2.054
4.364 6.327 2.998
4.511 6.160 2.849
4.476 5.945 2.826
5.021 5.882 2.696
4.954 5.857 2.635
5.226 6.247 2.966
5.344 5.913 2.731
4.904 5.730 2.445
5.106 5.464 2.487
5.478 6.194 2.721
5.504 5.718 2.889
5.297 5.751 2.372
5.113 5.391 2.386
5.976 6.118 3.010
5.853 6.207 2.784
5.655 5.639 2.532
5.719 5.459 2.680
6.325 6.219 2.881
6.151 5.790 2.946
6.060 5.864 2.572
5.889 5.560 2.653
2.218 6.033 2.579
2.034 5.825 2.429
1.921 5.552 2.405
2.037 6.021 2.689
2.073 5.780 2.534
1.816 5.579 2.474
2.342 5.736 2.677
2.343 5.488 2.380
4.233 6.080 3.126
4.285 6.215 3.179
4.213 5.939 2.774
4.540 6.299 3.342
4.595 5.949 3.015
4.565 5.655 3.042
4.510 5.570 2.622
4.887 6.035 3.149
4.973 5.773 3.072
4.822 5.616 2.670
4.717 5.551 2.739
5.264 5.951 3.154
4.952 5.817 2.947
4.910 5.534 2.972
4.792 5.229 2.650
5.721 6.145 3.413
5.434 5.820 3.176
5.309 5.917 3.095
5.264 5.572 2.911
5.337 5.462 2.508
5.800 6.060 3.076
5.787 5.751 2.791
5.597 5.338 2.816
2.135 5.952 2.798
2.099 5.659 2.693
2.014 5.430 2.607
1.985 5.954 3.022
1.972 5.480 2.925
1.835 5.490 2.861
4.055 6.104 3.575
3.917 5.834 3.327
3.925 5.684 3.138
4.296 6.292 3.432
4.130 6.101 3.475
4.290 5.727 3.071
3.969 5.644 2.917
4.669 6.037 3.264
4.399 5.899 3.096
4.637 5.662 3.257
4.311 5.320 2.910
4.948 6.169 3.358
5.088 5.819 3.574
4.705 5.825 3.404
4.749 5.376 3.248
4.762 5.170 2.886
5.394 6.010 3.688
5.376 5.763 3.416
5.245 5.833 3.200
4.912 5.541 2.929
4.975 5.228 2.877
5.638 5.905 3.345
5.393 5.529 3.319
5.358 5.259 3.195
5.227 5.279 3.032
2.154 5.763 2.972
2.047 5.706 2.957
2.003 5.495 2.794
2.126 5.369 2.973
2.021 5.049 3.056
3.950 6.263 3.705
4.009 5.946 3.681
3.928 5.855 3.471
4.070 5.548 3.412
4.372 6.303 3.917
4.389 5.900 3.679
4.288 5.655 3.379
4.019 5.584 3.372
4.039 5.469 3.424
3.991 4.913 2.969
4.663 6.110 3.904
4.735 5.926 3.611
4.544 5.706 3.480
4.501 5.639 3.284
4.258 5.387 3.181
4.289 5.003 3.059
5.004 6.238 3.637
4.934 6.030 3.588
4.738 5.687 3.648
4.743 5.361 3.196
4.795 5.310 3.033
4.482 4.989 3.023
5.263 5.681 3.592
5.275 5.422 3.575
5.188 5.445 3.424
4.908 5.021 3.057
4.753 5.027 2.969
5.251 5.446 3.362
5.376 5.379 3.192
2.118 5.390 3.251
1.982 5.019 2.869
3.989 6.129 4.214
3.809 6.127 3.963
4.060 6.119 4.176
3.908 5.993 4.139
3.947 5.524 3.888
4.039 5.492 3.531
3.995 5.113 3.629
4.504 5.989 3.981
4.422 5.933 3.944
4.222 5.793 3.783
4.233 5.254 3.637
3.924 5.145 3.652
3.885 5.083 3.248
3.977 4.563 3.377
4.833 6.033 4.021
4.610 5.639 3.882
4.552 5.536 3.693
4.522 5.189 3.611
4.195 5.264 3.627
4.197 4.743 3.449
4.181 4.785 3.327
4.891 5.745 3.890
4.641 5.539 3.779
4.620 5.367 3.667
4.750 4.953 3.409
4.709 4.829 3.434
4.305 4.565 3.012
5.142 5.306 3.575
4.852 4.983 3.587
5.067 4.954 3.274
4.780 4.847 3.336
5.572 5.604 0.241
6.011 5.526 -0.072
2.951 5.984 0.570
3.021 5.875 0.389
5.859 5.085 0.230
6.049 4.981 0.232
2.644 5.953 0.811
2.986 5.815 0.815
2.589 5.679 0.611
2.882 5.571 0.593
3.255 5.708 0.969
3.065 5.541 0.631
3.055 5.331 0.361
3.156 5.360 0.560
3.205 5.267 0.381
3.054 4.999 0.113
3.450 5.910 0.700
3.268 5.366 0.776
3.371 5.447 0.472
3.362 5.225 0.349
3.575 4.838 0.325
3.409 4.680 0.270
3.839 5.764 0.730
3.664 5.388 0.480
3.320 5.235 0.544
3.791 5.231 0.472
3.719 4.824 0.141
3.538 4.868 0.122
3.697 5.008 0.334
3.853 4.981 0.111
3.820 4.794 0.186
4.106 4.391 -0.101
2.264 5.832 1.261
2.470 5.745 1.018
2.604 5.582 1.116
2.550 5.417 0.782
2.915 5.843 1.258
2.742 5.499 0.816
2.648 5.291 0.627
2.964 5.239 0.795
2.733 4.922 0.727
3.266 5.648 0.897
2.873 5.628 0.817
2.759 5.166 0.883
3.200 5.056 0.573
3.170 5.082 0.512
3.065 4.776 0.531
3.544 5.582 1.072
3.131 5.500 0.782
3.306 5.293 0.622
3.295 5.132 0.581
3.441 4.690 0.402
3.233 4.506 0.552
3.223 4.453 0.256
3.051 4.021 0.254
3.731 5.468 0.999
3.395 5.473 0.973
3.469 5.114 0.519
3.879 4.822 0.602
3.490 4.751 0.454
3.442 4.369 0.197
3.655 4.489 0.110
3.316 4.120 0.163
3.766 5.120 0.971
3.712 5.131 0.633
4.173 4.869 0.770
3.829 4.650 0.668
3.739 4.603 0.227
3.707 4.176 0.265
3.555 4.179 0.011
4.013 4.805 0.667
4.200 4.516 0.430
3.969 4.473 0.218
4.055 4.307 0.277
4.014 3.970 -0.100
4.223 4.197 0.201
4.167 4.127 0.092
4.636 3.909 -0.007
1.349 4.145 0.323
1.227 3.791 -0.103
1.942 5.881 1.271
2.382 5.800 1.283
2.092 5.528 1.164
2.202 5.255 1.053
2.651 5.812 1.358
2.568 5.550 1.150
2.171 5.429 1.229
2.496 5.338 0.888
2.857 5.775 1.209
2.628 5.498 1.192
2.549 5.134 0.927
3.063 5.255 0.916
2.861 4.791 0.916
3.203 5.532 1.226
2.871 5.463 1.072
2.771 5.171 1.029
3.027 4.844 1.151
3.200 4.956 0.835
3.099 4.557 0.685
3.416 5.374 1.179
3.075 5.337 1.023
3.121 5.177 1.117
3.512 4.967 1.049
3.179 4.763 0.674
3.119 4.511 0.634
3.250 4.090 0.313
3.011 4.165 0.388
3.502 5.264 1.093
3.627 5.266 1.096
3.517 4.959 1.100
3.660 4.730 0.972
3.665 4.750 0.602
3.709 4.346 0.635
3.508 4.021 0.278
3.265 3.893 0.401
3.453 3.744 0.248
3.897 5.026 0.869
3.725 4.871 0.942
3.831 4.609 0.919
4.009 4.403 0.896
3.716 4.146 0.429
3.816 4.203 0.372
3.843 4.042 0.124
3.564 3.710 0.262
4.098 4.800 0.767
4.422 4.859 0.726
4.128 4.428 0.523
3.982 4.273 0.414
4.182 3.848 0.287
3.910 3.604 0.400
3.832 3.451 0.230
4.348 4.533 0.891
4.508 4.289 0.782
4.326 4.263 0.467
4.459 4.118 0.537
4.299 3.613 0.232
4.296 3.589 -0.120
4.581 4.195 0.496
4.637 4.020 0.153
4.617 3.784 0.147
4.414 3.498 0.157
1.402 4.018 0.384
1.182 3.996 0.212
2.070 5.765 1.570
1.447 4.039 0.482
1.023 3.695 0.340
1.177 3.532 0.168
1.152 3.211 -0.035
2.057 5.860 1.700
1.698 5.389 1.519
1.456 3.435 0.302
1.299 3.445 -0.036
2.097 5.614 1.772
2.158 5.400 1.493
2.169 5.010 1.451
2.588 5.553 1.442
2.500 5.373 1.322
2.251 5.144 1.338
2.487 5.117 1.279
2.910 5.661 1.682
2.602 5.206 1.395
2.655 4.928 1.319
2.993 4.764 1.364
2.683 4.692 1.266
2.970 5.351 1.564
2.788 5.027 1.299
2.732 5.068 1.279
3.243 4.885 1.195
2.917 4.473 1.002
2.882 4.398 1.019
3.283 5.213 1.595
3.075 5.000 1.276
3.003 4.847 1.038
3.615 4.700 1.357
3.417 4.676 1.105
3.204 4.202 0.704
3.338 4.243 0.637
3.636 5.309 1.600
3.464 5.034 1.427
3.527 4.819 1.176
3.733 4.872 1.321
3.764 4.320 1.136
3.432 4.398 0.707
3.542 3.958 0.681
3.264 3.723 0.647
3.786 4.928 1.308
3.628 4.849 1.330
3.813 4.672 1.220
3.961 4.220 0.959
3.778 4.049 0.968
3.701 4.022 0.529
3.502 3.587 0.337
3.494 3.546 0.437
4.068 4.455 1.217
4.168 4.601 1.223
4.189 4.392 0.959
4.244 4.146 0.628
4.061 3.962 0.760
3.746 3.815 0.446
3.858 3.513 0.515
4.147 4.559 1.049
4.449 4.076 1.033
4.357 3.831 0.911
4.143 3.701 0.595
4.055 3.652 0.563
4.255 3.300 0.192
4.711 4.247 0.858
4.689 3.737 0.885
4.724 3.873 0.606
4.386 3.539 0.333
4.538 3.102 0.272
4.933 3.943 0.871
4.622 3.680 0.459
4.740 3.348 0.263
1.366 4.044 0.375
1.270 3.638 0.351
0.961 3.629 0.086
1.084 3.392 0.094
1.988 5.846 1.515
1.977 5.319 1.483
1.439 3.587 0.594
1.267 3.663 0.392
0.965 3.388 0.455
1.207 3.232 0.438
1.067 3.019 0.022
1.816 5.408 2.045
1.697 5.525 1.622
1.296 3.587 0.410
1.476 3.166 0.484
1.266 3.110 0.130
1.282 2.848 0.121
2.264 5.446 2.036
2.184 5.233 1.826
1.726 3.202 0.579
1.699 3.121 0.285
1.589 2.883 0.075
1.412 2.491 -0.144
2.332 5.539 1.959
2.523 5.034 1.834
2.607 4.716 1.674
2.688 5.389 1.649
2.669 5.193 1.489
2.452 4.850 1.495
2.761 4.649 1.615
2.905 5.077 1.836
2.975 4.987 1.672
2.877 4.673 1.371
3.105 4.825 1.316
3.110 5.003 1.419
3.197 4.843 1.532
3.407 4.599 1.553
3.330 4.297 1.132
3.491 4.715 1.357
3.632 4.732 1.227
3.639 4.197 1.262
3.435 3.934 1.143
3.474 3.919 1.077
3.593 4.631 1.357
3.933 4.305 1.321
3.744 4.243 1.215
3.854 3.861 1.170
3.565 3.827 1.025
3.702 3.567 0.596
3.819 4.301 1.276
4.236 4.057 1.131
3.958 4.035 0.879
4.092 3.688 0.955
4.076 3.480 0.915
4.559 4.125 1.087
4.193 3.874 0.899
4.383 3.648 0.831
4.243 3.555 0.874
4.141 3.087 0.458
4.519 3.917 1.050
4.615 3.961 0.929
4.583 3.483 0.812
4.567 3.131 0.705
4.238 3.137 0.669
4.986 3.883 1.213
4.901 3.749 0.840
4.663 3.522 0.663
4.556 3.098 0.686
5.072 3.765 0.882
5.179 3.622 0.842
5.170 3.247 0.686
4.831 3.257 0.500
1.220 3.666 0.690
1.064 3.340 0.721
1.131 3.400 0.584
0.968 2.930 0.183
0.965 2.967 -0.028
2.122 5.490 1.865
1.821 5.451 1.786
1.205 3.449 0.901
1.125 3.185 0.789
0.983 3.180 0.809
1.133 2.759 0.595
0.991 2.530 0.363
1.988 5.458 1.976
1.784 5.181 1.916
1.701 3.683 1.073
1.559 3.313 0.766
1.524 2.873 0.683
1.414 2.947 0.364
1.086 2.690 0.386
2.218 5.200 2.103
2.196 5.159 1.923
1.705 3.108 0.578
1.477 2.792 0.698
1.360 2.877 0.329
1.557 2.634 0.303
2.447 5.309 2.138
2.402 5.059 1.758
2.150 2.974 0.737
2.018 3.033 0.671
1.920 2.753 0.532
1.634 2.417 0.374
1.472 2.110 0.058
2.299 2.715 0.620
2.083 2.776 0.222
2.099 2.487 0.337
1.897 2.176 -0.111
2.434 2.092 0.250
2.062 2.154 0.181
2.615 2.134 0.127
4.220 3.899 1.436
3.947 3.789 1.161
4.066 3.653 1.237
3.831 3.246 0.784
4.445 4.007 1.418
4.288 3.685 1.063
4.385 3.516 0.924
4.066 3.180 0.899
4.529 3.893 1.439
4.637 3.787 1.380
4.509 3.457 0.892
4.580 3.087 0.886
4.198 2.821 0.931
4.828 3.738 1.491
5.045 3.463 1.323
4.641 3.396 0.848
4.870 2.998 1.062
4.646 2.881 0.860
5.077 3.725 1.149
5.297 3.299 1.037
4.875 3.387 0.963
4.995 3.040 0.849
5.748 3.867 1.228
5.664 3.627 1.387
5.469 3.488 0.988
5.132 3.002 1.092
5.169 3.020 0.990
5.666 4.015 1.459
5.907 3.890 1.474
5.857 3.662 1.094
5.611 3.314 1.090
5.609 2.885 1.012
5.706 3.658 1.372
5.961 3.811 1.435
6.183 3.340 1.123
6.267 3.692 1.288
1.191 3.564 0.918
1.179 3.250 0.878
1.187 3.295 0.679
1.033 3.059 0.480
0.970 2.524 0.315
2.116 5.333 2.021
1.754 5.212 1.937
1.301 3.458 1.094
1.202 3.162 0.931
1.155 2.997 0.847
0.802 2.742 0.914
0.736 2.679 0.554
2.002 5.369 2.255
1.789 4.947 2.172
1.555 3.266 1.283
1.598 3.232 0.838
1.203 2.801 0.772
1.093 2.652 0.548
1.092 2.494 0.719
2.103 5.079 2.191
1.770 3.384 0.985
1.678 2.998 1.154
1.423 2.644 0.942
1.386 2.454 0.518
1.594 2.196 0.581
1.219 2.057 0.372
1.968 3.165 1.048
1.825 2.892 0.788
1.951 2.596 0.924
1.800 2.562 0.761
1.628 2.250 0.385
1.485 2.241 0.317
2.313 2.935 0.859
2.312 2.631 0.694
2.222 2.289 0.502
2.046 2.157 0.396
1.983 2.153 0.494
1.686 1.725 0.171
2.352 2.750 0.819
2.521 2.529 0.679
2.251 2.121 0.441
2.123 2.088 0.212
2.186 1.500 0.189
2.534 2.331 0.625
2.473 2.117 0.316
2.439 1.870 0.224
2.408 1.634 0.114
2.624 1.827 0.543
2.642 1.580 0.188
2.789 1.614 0.167
2.929 1.763 0.162
2.979 1.577 -0.084
3.352 1.475 0.096
3.001 1.531 -0.056
4.240 3.686 1.370
4.046 3.434 1.397
4.232 3.281 1.232
4.557 3.755 1.628
4.560 3.293 1.576
4.647 3.079 1.480
4.221 3.030 1.324
4.142 2.960 1.099
5.093 3.589 1.585
4.999 3.427 1.269
4.701 3.108 1.162
4.628 3.026 1.295
4.764 2.758 1.149
5.254 3.797 1.709
5.376 3.625 1.576
4.931 3.397 1.363
5.054 3.018 1.268
4.797 2.970 1.019
5.025 2.616 0.938
5.278 3.693 1.586
5.606 3.692 1.831
5.599 3.537 1.546
5.366 3.046 1.503
5.173 3.098 1.191
5.327 2.843 1.086
5.203 2.433 1.068
5.653 3.636 1.728
5.866 3.791 1.541
5.910 3.424 1.452
5.832 3.038 1.352
5.678 3.068 1.167
5.656 2.687 1.050
5.765 3.816 1.689
5.747 3.599 1.646
6.081 3.583 1.437
6.202 3.359 1.458
6.018 3.114 1.252
5.686 2.928 1.332
6.145 4.041 1.910
6.230 3.728 1.629
6.240 3.698 1.640
6.186 3.029 1.083
1.241 3.504 1.265
1.250 3.148 1.204
1.206 2.846 0.879
1.014 2.826 0.724
1.025 2.567 0.403
1.727 5.360 2.527
1.928 4.940 2.361
1.167 3.432 1.538
1.052 3.138 1.232
0.923 3.024 1.313
1.115 2.659 0.887
1.732 5.248 2.779
1.395 3.061 1.493
1.571 2.879 1.334
1.222 2.736 1.135
1.087 2.375 1.058
1.268 2.170 0.734
1.892 2.945 1.386
1.759 2.921 1.228
1.635 2.695 0.985
1.337 2.428 0.808
1.367 2.255 0.789
1.416 1.915 0.474
1.996 3.155 1.411
1.784 2.904 1.346
1.928 2.772 1.025
1.767 2.274 0.908
1.518 2.062 0.725
1.434 1.800 0.575
2.382 2.825 1.129
2.236 2.717 1.339
2.211 2.521 0.980
2.186 2.333 0.832
1.890 2.159 0.549
1.702 1.956 0.696
1.884 1.624 0.331
2.608 2.728 1.114
2.302 2.497 1.076
2.439 2.348 0.648
2.405 2.019 0.551
1.977 1.824 0.358
1.964 1.574 0.271
2.108 1.143 0.264
2.487 2.202 0.910
2.328 1.965 0.748
2.259 1.604 0.414
2.248 1.532 0.311
2.076 1.252 0.232
2.102 0.914 -0.056
2.826 1.833 0.646
2.662 1.612 0.409
2.582 1.429 0.313
2.395 1.057 0.165
2.378 0.897 -0.048
3.022 1.605 0.607
3.037 1.447 0.271
2.777 1.129 -0.044
3.191 1.397 0.318
2.987 1.155 0.163
3.108 0.853 0.244
3.312 1.138 0.218
3.440 0.780 -0.072
4.405 3.307 1.819
4.586 3.149 1.504
4.550 2.956 1.231
4.136 2.812 1.231
3.664 0.762 0.029
4.898 3.558 1.847
4.949 3.301 1.736
4.819 2.942 1.553
4.508 2.715 1.301
4.590 2.402 1.398
5.286 3.440 1.869
5.074 3.221 1.628
5.171 3.326 1.620
5.072 2.968 1.580
4.770 2.786 1.289
4.787 2.307 0.995
5.445 3.803 2.000
5.713 3.372 1.918
5.385 3.455 1.735
5.473 3.140 1.707
5.324 2.888 1.396
5.373 2.459 1.365
5.144 2.277 1.248
5.551 3.603 1.933
5.723 3.470 1.747
5.612 3.070 1.851
5.634 3.171 1.562
5.616 2.652 1.544
5.477 2.351 1.249
5.543 2.365 0.967
6.050 3.869 2.003
5.799 3.325 1.776
5.972 3.233 1.991
6.122 3.232 1.546
5.759 2.985 1.450
5.875 2.737 1.225
5.922 2.376 1.357
6.215 3.967 2.268
6.151 3.694 1.999
6.142 3.303 1.948
6.275 3.117 1.772
6.073 2.729 1.347
1.336 3.224 1.573
1.181 3.070 1.119
1.089 2.699 1.275
1.136 2.752 1.099
1.803 4.966 2.541
1.194 2.934 1.361
0.927 2.663 1.343
1.630 3.193 1.911
1.312 3.024 1.719
1.520 2.712 1.367
1.248 2.431 1.305
1.064 2.317 1.370
1.704 3.127 1.653
1.657 3.110 1.554
1.684 2.917 1.578
1.608 2.342 1.349
1.412 2.291 1.247
1.398 1.981 0.830
2.178 3.018 1.901
1.877 3.072 1.699
1.836 2.562 1.248
1.752 2.344 1.271
1.704 2.398 1.216
1.662 2.167 0.977
1.712 1.585 0.961
2.241 2.952 1.534
2.194 2.994 1.602
2.387 2.631 1.363
2.156 2.364 1.173
2.166 1.986 1.033
1.933 2.085 0.825
1.816 1.501 0.639
1.803 1.451 0.766
2.302 2.460 1.312
2.402 2.143 1.122
2.396 2.040 0.912
2.222 1.928 1.097
2.171 1.758 0.744
1.947 1.337 0.616
1.964 1.066 0.351
2.759 2.052 1.184
2.375 1.917 0.849
2.589 1.585 0.802
2.507 1.386 0.751
2.179 1.144 0.567
2.133 0.725 0.440
2.124 0.724 0.183
2.894 1.722 0.687
2.787 1.544 0.860
2.446 1.093 0.476
2.424 0.950 0.563
2.358 0.578 0.156
2.370 0.559 0.135
3.032 1.209 0.806
2.897 1.226 0.659
2.624 0.752 0.437
2.776 0.765 0.201
2.432 0.624 0.209
3.089 1.084 0.360
2.906 0.865 0.426
3.074 0.534 0.384
2.837 0.366 0.051
3.342 0.827 0.233
3.113 0.691 0.081
3.265 0.318 -0.055
4.419 2.894 1.909
4.397 2.838 1.797
3.584 0.570 0.161
4.778 2.988 2.028
4.626 2.960 1.867
4.471 2.453 1.758
4.588 2.349 1.489
4.485 2.082 1.167
5.312 3.400 2.195
4.987 3.135 1.884
5.140 2.960 1.553
4.732 2.451 1.616
4.906 2.387 1.367
4.877 1.962 1.346
5.624 3.397 2.314
5.509 3.152 1.935
5.434 3.112 1.802
5.133 2.574 1.741
5.155 2.608 1.598
4.940 2.222 1.525
5.002 1.877 1.056
5.615 3.382 2.077
5.882 3.452 2.039
5.653 2.942 1.978
5.709 2.688 1.989
5.378 2.550 1.482
5.286 2.295 1.630
5.266 2.265 1.340
5.247 1.990 1.257
6.024 3.497 2.372
5.770 3.309 1.928
5.962 3.109 1.931
6.048 2.804 2.073
5.854 2.621 1.728
5.689 2.583 1.637
5.577 2.458 1.532
6.372 3.507 2.437
6.160 3.482 2.196
6.107 3.351 2.116
6.198 2.953 1.742
6.267 2.497 1.635
0.943 3.104 1.430
0.889 2.751 1.551
1.378 3.311 2.140
1.397 3.100 1.886
1.254 2.647 1.684
1.106 2.505 1.467
1.900 3.316 2.022
1.648 3.030 2.012
1.912 2.953 1.962
1.740 2.579 1.762
1.589 2.500 1.735
1.605 1.988 1.389
2.218 3.057 2.302
2.147 3.066 1.896
2.048 2.885 1.733
1.759 2.544 1.787
1.673 2.339 1.535
1.824 2.038 1.517
1.557 2.020 1.158
2.510 3.031 1.950
2.382 3.016 1.826
2.398 2.687 1.917
2.270 2.603 1.486
2.078 2.346 1.494
1.850 1.875 1.183
1.982 1.786 1.106
1.847 1.563 1.006
2.520 2.666 1.869
2.597 2.298 1.514
2.326 2.099 1.291
2.407 1.817 1.208
2.215 1.487 1.224
2.129 1.600 1.104
2.213 1.132 0.702
2.060 1.043 0.588
2.390 1.939 1.260
2.431 1.623 1.264
2.455 1.340 1.155
2.202 1.173 0.793
2.155 0.767 0.667
2.197 0.710 0.660
2.048 0.286 0.390
2.097 0.095 0.202
2.637 1.129 1.123
2.537 1.183 0.820
2.488 0.822 0.697
2.249 0.732 0.444
2.392 0.540 0.303
2.313 0.156 0.045
2.838 0.858 0.890
2.602 0.726 0.602
2.750 0.380 0.314
2.559 0.274 0.159
2.462 0.208 0.273
2.869 0.509 0.578
2.984 0.463 0.379
2.800 0.143 0.260
3.115 0.199 0.565
3.031 0.071 0.315
4.718 2.718 1.996
4.597 2.521 1.963
4.412 2.262 1.622
4.387 2.170 1.525
5.242 2.973 2.206
4.819 2.586 2.068
4.767 2.555 1.683
4.846 2.088 1.564
4.892 1.912 1.460
4.469 1.645 1.346
5.266 2.929 2.394
5.281 2.676 2.260
5.248 2.388 1.898
5.312 2.506 1.868
4.929 2.051 1.784
5.175 1.726 1.551
4.943 1.719 1.516
5.893 3.308 2.406
5.552 3.090 2.206
5.548 2.735 2.120
5.666 2.527 1.994
5.466 2.154 1.762
5.289 2.002 1.698
5.359 1.929 1.336
5.116 1.598 1.349
5.616 3.103 2.222
6.081 3.106 2.178
6.065 2.990 2.155
5.897 2.706 1.876
5.750 2.563 1.899
5.647 2.309 1.847
5.446 2.029 1.704
6.199 3.677 2.598
6.109 3.432 2.463
5.956 3.102 2.140
6.222 2.718 2.023
6.302 2.484 1.921
4.032 5.450 4.122
4.078 5.261 4.006
3.762 5.116 3.705
3.767 5.021 3.767
3.703 4.520 3.487
3.416 4.473 3.211
4.500 5.657 4.135
4.081 5.629 3.946
4.098 5.110 3.779
4.006 4.975 3.733
4.066 4.734 3.645
3.730 4.509 3.441
3.657 4.233 3.218
4.542 5.648 4.108
4.647 5.530 3.850
4.589 5.097 3.917
4.174 5.004 3.619
4.337 4.568 3.630
4.257 4.328 3.376
4.169 4.129 3.153
4.780 5.156 4.090
4.867 5.060 3.799
4.513 4.855 3.594
4.550 4.516 3.375
4.524 4.449 3.304
4.529 4.259 3.170
5.070 4.976 3.713
4.866 4.764 3.702
4.744 4.622 3.543
4.892 4.187 3.267
3.630 4.594 3.850
3.673 4.441 3.572
3.364 4.354 3.433
4.334 5.075 4.006
3.956 4.959 3.973
3.878 4.625 3.961
3.706 4.541 3.543
3.801 4.004 3.520
4.381 5.024 3.949
4.363 4.720 4.017
4.121 4.474 3.804
4.124 4.279 3.525
3.965 4.195 3.625
4.515 4.977 4.036
4.512 4.800 3.961
4.578 4.481 3.587
4.586 4.092 3.437
4.327 3.949 3.425
4.981 4.454 3.835
4.613 4.531 3.724
4.798 3.991 3.534
4.668 3.776 3.267
2.446 5.777 4.746
2.228 5.537 4.571
3.791 4.286 3.852
3.409 3.938 3.888
4.102 4.561 4.275
4.023 4.450 3.902
3.728 4.441 3.764
3.758 4.176 3.940
4.477 4.789 4.141
4.253 4.282 4.113
4.320 3.992 3.880
3.881 3.849 3.663
4.483 4.640 4.260
4.367 4.512 4.032
4.443 4.044 3.814
4.406 3.739 3.873
4.760 4.331 3.945
4.588 4.367 3.886
4.608 3.888 3.853
4.434 3.784 3.527
5.901 6.185 5.192
4.845 4.055 3.706
4.853 3.625 3.549
5.966 6.056 5.438
6.006 5.970 5.095
6.199 6.007 4.963
6.097 5.752 5.015
2.224 5.818 4.574
2.397 5.564 4.738
2.465 5.861 5.016
2.164 5.405 4.951
2.058 5.395 4.781
1.985 5.181 4.476
3.604 4.255 4.014
3.583 3.908 3.959
3.955 4.361 4.214
3.690 4.142 4.088
3.809 3.790 3.858
4.209 4.358 4.087
4.265 4.108 4.185
4.144 3.677 4.109
4.434 4.273 4.416
4.334 4.131 4.018
4.165 3.596 4.043
4.868 4.022 4.328
4.494 3.953 4.065
4.421 3.574 3.923
5.679 6.159 5.481
5.869 5.735 5.230
4.909 4.014 4.229
4.793 3.852 4.115
4.772 3.576 3.954
6.098 6.246 5.728
6.024 6.001 5.611
5.900 5.702 5.338
6.012 5.344 5.219
6.076 5.663 5.321
6.079 5.615 5.114
5.900 5.060 4.932
2.304 5.667 5.095
2.237 5.553 4.783
2.239 5.265 4.762
2.109 5.113 4.619
2.470 5.946 5.602
2.314 5.589 5.267
2.444 5.468 5.299
2.198 5.081 5.069
2.047 5.024 4.850
2.724 5.642 5.368
2.420 5.296 5.087
2.460 4.990 5.128
3.438 3.806 4.272
3.916 3.974 4.224
3.901 3.747 4.434
4.030 4.005 4.660
4.079 3.760 4.226
4.175 3.592 4.127
4.402 4.210 4.417
4.439 3.841 4.180
4.416 3.707 4.165
5.728 6.363 5.894
5.509 6.090 5.900
5.432 5.578 5.580
4.553 3.889 4.415
4.629 3.737 4.213
4.570 3.441 3.997
5.820 6.130 6.032
5.602 6.019 5.755
5.633 5.797 5.526
5.634 5.519 5.613
5.195 3.832 4.491
5.082 3.770 4.331
4.985 3.231 4.146
6.083 6.053 5.801
5.898 5.698 5.685
6.029 5.434 5.612
5.834 5.549 5.333
5.095 3.361 4.304
5.082 3.238 4.140
6.227 5.494 5.727
6.109 5.295 5.484
6.162 5.125 5.201
2.583 5.898 5.452
2.443 5.486 5.462
2.294 5.352 5.178
2.121 5.039 5.147
1.993 5.106 5.039
2.427 5.631 5.804
2.287 5.467 5.518
2.337 5.204 5.331
1.989 5.084 5.181
2.044 4.637 5.301
2.828 5.807 5.550
2.540 5.333 5.477
2.548 5.339 5.466
2.549 4.883 5.253
2.961 5.627 5.804
3.055 5.278 5.500
2.965 5.050 5.289
2.686 4.794 5.244
3.600 3.438 4.640
3.920 3.895 4.593
4.058 3.577 4.281
5.171 6.298 6.162
5.131 5.982 5.983
5.043 5.780 5.741
5.146 5.512 5.590
4.432 3.634 4.705
4.394 3.403 4.393
5.397 5.918 6.141
5.582 5.725 6.110
5.265 5.465 5.808
5.420 5.267 5.721
4.596 3.665 4.526
4.775 3.683 4.587
4.700 3.418 4.503
5.711 6.098 6.294
5.870 5.825 5.968
5.521 5.667 5.770
5.510 5.338 5.796
4.826 3.690 4.850
4.776 3.363 4.638
4.852 3.170 4.446
6.074 6.267 6.310
6.188 5.909 5.957
5.893 5.558 6.045
6.055 5.384 5.954
5.907 5.237 5.833
5.120 3.424 4.545
5.208 3.225 4.273
6.026 5.362 5.848
6.075 5.082 5.610
5.373 3.434 4.432
5.359 3.178 4.362
2.432 5.648 5.880
2.149 5.627 5.582
2.238 5.245 5.599
2.329 5.222 5.344
2.189 4.960 4.965
2.521 5.595 6.056
2.273 5.369 5.811
2.374 5.184 5.513
2.277 4.843 5.673
1.965 4.747 5.565
2.502 5.658 6.145
2.649 5.141 5.666
2.500 5.214 5.795
2.488 4.750 5.370
2.328 4.625 5.216
3.044 5.264 5.783
2.784 5.312 5.963
2.913 4.877 5.562
2.691 4.556 5.350
3.278 5.678 5.943
3.287 5.476 5.743
2.968 5.102 5.562
3.132 4.826 5.522
2.957 4.574 5.322
3.400 5.654 5.840
3.650 5.092 5.968
3.432 4.975 5.827
3.266 4.892 5.524
3.849 5.529 5.981
3.737 5.200 5.932
4.387 5.643 5.991
4.046 5.362 6.001
4.610 5.876 6.240
4.517 5.349 5.914
4.565 5.385 6.115
4.680 5.635 6.034
4.899 5.527 5.993
4.837 5.335 5.774
5.196 5.634 6.075
5.186 5.251 6.125
4.205 3.575 4.795
4.284 3.296 4.680
5.564 5.485 6.102
5.144 5.102 5.827
4.496 3.598 4.613
4.362 3.077 4.799
5.634 5.459 6.095
5.631 5.427 6.212
5.722 5.330 6.122
5.147 3.695 5.014
4.951 3.470 4.946
4.763 3.094 4.445
5.946 5.427 6.253
5.975 5.450 5.899
5.899 5.221 5.972
5.318 3.364 4.736
5.098 3.166 4.667
4.965 3.010 4.650
6.223 5.463 6.063
6.191 5.354 6.205
6.257 5.172 5.783
5.522 3.092 4.545
5.378 2.963 4.411
5.656 2.954 4.630
5.643 2.833 4.709
5.972 2.607 4.654
2.333 5.582 6.103
2.404 5.541 5.783
2.255 5.260 5.524
2.272 4.843 5.449
1.965 4.506 5.423
2.388 5.454 6.339
2.146 5.033 6.106
2.259 5.145 5.802
1.997 4.724 5.637
1.867 4.401 5.612
2.841 5.273 6.166
2.439 5.242 6.000
2.676 4.731 5.714
2.463 4.786 5.665
2.148 4.290 5.537
2.821 5.385 6.300
2.774 4.995 5.873
2.632 4.645 5.945
2.700 4.426 5.590
2.739 4.284 5.516
3.015 5.282 6.115
3.071 4.958 6.090
3.215 4.798 5.740
3.117 4.561 5.756
2.911 4.290 5.481
3.479 5.222 6.074
3.390 4.951 5.953
3.448 4.829 5.790
3.370 4.707 5.809
3.102 4.367 5.497
4.018 5.194 6.238
3.692 5.049 6.038
3.809 4.742 6.096
3.517 4.442 5.710
4.116 5.081 6.031
3.856 5.051 5.886
4.096 4.592 5.958
4.521 5.051 6.206
4.258 4.916 6.133
4.588 4.880 6.185
4.825 5.003 6.160
5.078 5.019 6.166
5.325 4.899 6.347
4.480 3.391 4.982
4.459 3.148 4.713
5.438 5.119 6.203
5.033 3.519 4.964
4.989 3.272 5.173
4.909 2.993 4.821
5.228 3.315 5.069
5.202 2.919 5.096
4.883 2.853 4.905
5.560 3.313 4.948
5.550 3.124 4.762
5.378 2.761 4.631
5.767 3.282 5.012
5.710 2.773 4.826
5.570 2.583 4.596
6.096 2.783 4.701
6.004 2.437 4.687
6.333 2.677 4.858
2.258 5.285 6.219
2.270 5.230 5.973
2.322 4.844 5.889
1.946 4.800 5.950
1.975 4.585 5.709
2.344 4.681 6.045
2.212 4.529 6.083
1.943 4.295 5.885
2.365 4.584 6.150
2.228 4.543 5.958
2.223 4.210 5.665
2.875 4.849 6.293
2.653 4.706 6.219
2.738 4.322 6.038
2.462 4.150 5.722
3.102 4.631 6.261
2.899 4.431 5.900
3.053 4.248 5.749
2.764 4.055 5.750
3.182 4.595 6.245
3.156 4.506 6.238
3.376 4.302 5.813
2.958 4.069 5.894
3.571 4.547 6.099
3.436 4.399 6.138
3.336 4.318 5.977
3.925 4.492 6.212
4.184 4.782 6.241
4.781 3.203 5.282
4.853 3.158 5.301
4.710 2.963 4.952
5.235 3.293 5.396
5.043 3.123 5.332
5.164 2.750 4.901
5.663 2.950 5.292
5.422 2.826 5.321
5.151 2.447 5.186
5.942 2.944 5.424
5.526 2.936 5.048
5.616 2.728 4.863
5.852 2.775 5.412
5.898 2.537 5.109
6.020 2.326 4.785
6.161 2.469 5.149
6.214 2.326 4.960
2.059 4.778 6.057
2.262 4.601 5.920
2.055 4.232 5.972
2.058 4.375 6.105
2.211 4.188 6.398
2.147 4.323 5.911
2.276 4.017 5.983
2.690 4.119 6.185
2.473 3.977 5.956
2.410 3.663 6.025
2.877 4.089 6.249
2.884 4.106 5.864
2.705 3.883 6.054
3.022 4.028 6.067
3.175 3.861 6.102
2.858 3.634 5.911
3.517 4.337 6.079
3.639 4.002 5.941
4.921 2.772 5.584
4.719 2.479 5.180
5.215 3.085 5.586
5.260 3.085 5.793
5.032 2.878 5.540
5.134 2.456 5.360
5.733 3.328 5.839
5.644 2.876 5.667
5.440 2.554 5.483
5.354 2.613 5.087
5.741 3.109 5.562
5.916 2.743 5.354
5.662 2.766 5.315
5.633 2.313 5.288
6.226 2.970 5.833
5.936 2.629 5.664
6.054 2.426 5.396
5.827 2.412 5.220
6.365 2.432 5.487
6.036 2.371 5.130
1.974 4.583 6.404
2.266 3.801 6.264
2.473 3.828 6.207
2.495 3.461 5.826
2.978 3.712 6.297
2.673 3.553 6.075
2.592 3.244 5.936
3.031 3.765 6.091
2.824 3.475 6.197
2.881 3.222 6.048
3.307 3.803 6.289
5.081 3.204 6.086
5.200 2.761 5.874
4.999 2.455 5.830
5.046 2.391 5.712
5.441 3.373 6.235
5.397 2.907 6.094
5.419 2.932 5.979
5.228 2.457 5.699
5.184 2.313 5.473
5.741 3.198 6.117
5.961 2.998 5.977
5.725 2.649 5.686
5.725 2.526 5.660
5.644 2.192 5.535
6.107 2.978 5.917
6.076 2.896 5.826
6.024 2.706 5.653
5.885 2.326 5.694
5.725 2.045 5.499
6.322 2.681 5.547
6.362 2.283 5.712
6.027 1.984 5.432
2.037 3.451 6.281
2.215 3.184 6.068
2.149 3.056 5.960
2.553 3.118 6.114
2.547 2.963 6.244
2.865 3.173 6.258
2.631 2.987 5.949
3.019 2.999 6.004
3.043 3.000 6.033
5.426 2.880 6.203
5.217 2.771 6.126
5.037 2.308 5.801
5.595 2.961 6.031
5.359 2.634 6.185
5.197 2.417 5.724
5.274 2.132 5.601
5.770 2.913 6.286
5.758 2.486 5.845
5.614 2.174 5.713
5.518 1.969 5.689
6.002 2.539 6.053
5.845 2.630 6.117
5.998 2.363 5.711
5.630 2.065 5.713
6.110 2.226 5.868
6.015 2.265 5.832
6.254 2.121 5.501
2.795 2.738 6.115
3.241 2.852 6.285
5.189 2.437 6.193
5.765 2.532 6.119
5.420 2.339 6.016
6.074 2.317 6.264
5.783 2.259 6.231
4.012 5.411 4.166
4.027 5.475 3.943
3.958 5.218 3.725
3.799 4.916 3.561
3.702 4.756 3.498
3.622 4.541 3.161
4.215 5.585 4.047
4.343 5.357 4.120
4.193 5.132 3.892
4.044 4.877 3.735
4.174 4.734 3.541
4.021 4.638 3.594
3.726 4.502 3.442
4.488 5.669 4.003
4.352 5.512 3.951
4.379 5.000 3.751
4.306 5.058 3.846
4.263 4.678 3.433
4.153 4.652 3.368
4.229 4.180 3.245
4.772 5.367 3.809
4.529 5.148 3.860
4.600 4.820 3.852
4.620 4.625 3.489
4.289 4.354 3.370
4.413 4.177 3.166
5.156 5.076 3.830
5.022 4.784 3.620
4.911 4.582 3.374
4.808 4.273 3.231
1.578 3.149 2.435
1.450 2.906 2.384
1.457 2.724 2.105
1.449 2.518 1.909
1.816 3.237 2.360
1.748 3.183 2.231
1.721 2.886 2.083
1.573 2.651 2.088
1.738 2.422 2.059
1.530 2.272 1.621
2.466 3.547 2.549
2.369 3.211 2.546
2.183 3.202 2.439
1.960 2.792 2.338
1.821 2.463 2.091
1.730 2.372 1.757
1.924 2.089 1.948
1.863 1.878 1.426
2.727 3.291 2.716
2.662 3.073 2.459
2.591 2.912 2.227
2.335 2.763 2.191
2.304 2.701 1.939
2.034 2.185 1.701
1.957 2.014 1.606
1.977 1.771 1.728
2.862 2.949 2.342
2.534 2.745 2.232
2.622 2.764 2.258
2.440 2.579 1.845
2.443 2.332 1.978
2.358 1.972 1.666
2.040 0.698 0.733
2.205 0.217 0.550
2.117 -0.112 0.624
2.396 0.859 1.065
2.300 0.532 0.915
2.478 0.199 0.584
3.789 4.008 3.321
2.851 0.491 0.907
2.576 0.196 0.536
2.753 0.072 0.407
4.049 3.903 3.266
3.111 0.401 0.689
2.713 -0.031 0.591
4.721 2.370 1.952
4.516 2.177 2.060
4.271 1.700 1.867
4.379 1.618 1.583
5.084 2.536 2.284
4.710 2.157 2.016
4.611 2.056 2.089
4.772 1.973 1.635
4.570 1.557 1.551
4.429 1.273 1.542
5.149 2.540 2.396
5.368 2.246 2.188
5.102 2.123 1.909
5.223 1.943 1.726
5.080 1.594 1.582
5.076 1.658 1.765
4.737 1.231 1.342
4.804 1.042 1.221
5.427 2.445 2.398
5.558 2.422 2.040
5.494 2.104 2.090
5.434 2.034 1.990
5.211 1.540 1.514
5.227 1.330 1.730
4.963 0.990 1.349
5.151 0.777 1.173
5.694 2.372 2.015
5.571 2.093 1.791
5.540 1.658 1.937
5.666 1.717 1.674
5.329 1.354 1.563
5.478 1.248 1.545
1.506 3.321 2.758
1.531 3.062 2.724
1.539 2.977 2.504
1.383 2.646 2.223
1.910 3.626 2.846
2.029 3.172 2.739
1.866 3.131 2.708
1.687 2.636 2.361
1.603 2.576 2.447
1.521 2.430 2.060
2.340 3.526 2.874
2.482 3.381 3.061
2.118 3.031 2.841
2.161 2.804 2.764
2.139 2.658 2.458
2.129 2.531 2.275
2.004 2.359 2.197
2.860 3.869 3.176
2.597 3.511 3.001
2.396 3.247 2.776
2.604 2.864 2.773
2.429 2.966 2.673
2.318 2.442 2.496
2.118 2.414 2.226
2.336 2.126 2.170
2.826 3.589 3.294
2.924 3.475 3.228
2.893 3.431 3.032
2.726 3.299 2.944
2.624 2.906 2.514
2.800 2.833 2.634
2.714 2.523 2.244
3.077 4.135 3.478
3.275 3.973 3.284
2.988 3.843 3.138
3.147 3.676 2.943
3.080 3.278 3.014
3.228 3.202 2.968
3.415 4.147 3.493
3.319 3.933 3.400
3.194 3.762 3.218
3.406 3.325 3.135
2.117 0.040 0.675
3.912 4.090 3.231
3.642 3.678 3.036
3.595 3.610 3.201
4.007 4.010 3.363
3.969 3.534 3.051
4.447 3.965 3.216
4.657 2.019 2.029
4.385 1.626 2.200
4.420 1.679 1.838
4.082 1.143 1.734
5.030 1.994 2.139
4.611 1.848 2.262
4.589 1.664 2.083
4.460 1.433 1.715
4.547 1.261 1.544
4.520 0.972 1.607
5.280 1.947 2.412
5.066 1.782 2.008
4.835 1.507 1.792
4.868 1.451 1.951
4.664 1.277 1.776
4.824 0.831 1.651
4.506 0.765 1.428
5.289 2.034 2.343
5.406 1.561 2.229
5.328 1.313 1.909
5.334 1.332 1.683
5.059 0.838 1.645
5.028 0.655 1.374
4.987 0.672 1.431
4.975 0.383 1.360
5.522 1.241 1.842
5.422 1.008 1.932
5.212 1.113 1.654
5.408 0.710 1.429
4.985 0.581 1.433
5.091 0.321 1.123
4.917 -0.051 0.864
5.506 0.545 1.445
5.419 0.554 1.343
5.280 0.228 1.114
5.457 -0.004 1.197
1.377 3.320 3.186
1.141 2.882 3.062
0.579 0.862 1.538
0.524 0.494 1.337
1.887 3.549 3.107
1.530 3.276 2.871
1.467 2.865 2.755
1.517 2.776 2.608
1.291 2.428 2.509
2.206 3.606 3.204
1.937 3.114 3.224
1.854 2.926 2.911
1.848 2.935 2.861
1.661 2.605 2.763
1.672 2.477 2.586
2.333 3.767 3.490
2.359 3.608 3.281
2.412 3.363 3.161
2.375 3.042 3.159
1.973 2.714 2.758
2.207 2.630 2.692
1.811 2.415 2.720
2.279 3.751 3.438
2.812 3.686 3.550
2.557 3.234 3.294
2.712 3.118 3.296
2.434 2.958 2.783
2.448 2.848 2.796
2.226 2.419 2.704
2.122 2.366 2.442
2.958 3.819 3.380
2.902 3.430 3.297
2.992 3.617 3.530
2.867 3.108 3.370
2.715 2.896 3.038
2.694 2.707 3.048
2.507 2.749 2.803
3.169 4.089 3.732
3.237 3.749 3.454
3.154 3.574 3.194
3.368 3.444 3.516
3.048 3.273 3.277
3.177 3.024 2.934
3.541 4.044 3.689
3.196 3.481 3.668
3.104 3.591 3.179
3.488 3.469 3.251
3.407 3.204 3.252
3.793 3.620 3.753
3.612 3.671 3.486
3.719 3.348 3.503
3.996 3.140 3.214
3.817 3.749 3.555
3.955 3.341 3.452
3.670 3.281 3.116
4.128 3.633 3.532
4.260 3.502 3.394
4.369 3.477 3.620
4.197 1.397 2.101
4.057 1.101 1.866
4.516 1.954 2.528
4.511 1.405 2.188
4.189 1.370 2.275
4.385 1.053 1.879
4.150 1.027 1.917
4.659 1.735 2.281
4.645 1.599 2.055
4.637 1.206 1.959
4.546 1.115 1.978
4.281 0.860 1.683
4.489 0.649 1.679
5.183 1.659 2.172
4.946 1.438 2.256
4.927 1.044 1.901
4.905 0.791 1.848
4.797 0.748 1.768
4.761 0.496 1.511
4.571 0.116 1.571
5.387 1.499 2.457
5.192 1.465 2.243
5.223 1.187 1.924
5.000 0.989 1.921
5.071 0.566 1.646
4.753 0.583 1.704
4.786 0.066 1.474
5.303 0.861 1.825
5.257 0.826 1.795
5.381 0.608 1.833
5.312 0.309 1.371
4.932 0.200 1.579
5.556 0.517 1.489
5.377 0.070 1.629
5.261 -0.072 1.440
5.574 0.242 1.512
1.556 3.221 3.021
1.226 3.040 3.032
0.418 0.853 1.545
0.280 0.511 1.403
1.381 3.124 3.300
1.262 3.240 3.458
1.327 2.943 3.212
1.174 2.804 2.886
0.406 0.629 1.830
0.365 0.420 1.604
0.478 0.341 1.471
0.190 0.127 1.556
1.798 3.540 3.620
1.750 3.143 3.551
1.821 3.055 3.165
1.472 2.847 3.308
1.635 2.685 2.911
2.297 3.486 3.853
2.258 3.492 3.499
2.147 3.075 3.563
1.809 3.063 3.307
1.653 2.819 2.954
1.901 2.479 2.974
2.250 3.762 3.709
2.243 3.387 3.764
2.188 3.111 3.459
2.306 3.172 3.224
2.187 2.805 3.245
2.003 2.598 3.104
2.078 2.370 3.065
2.264 3.430 3.586
2.550 3.481 3.661
2.725 3.299 3.649
2.507 3.119 3.232
2.348 2.705 3.073
2.479 2.361 3.130
2.305 2.207 2.951
2.922 3.810 3.973
2.576 3.280 3.487
2.973 3.167 3.800
2.759 3.271 3.505
2.973 2.716 3.473
2.895 2.847 3.128
2.826 2.608 3.008
3.019 3.924 3.973
3.083 3.538 3.804
3.017 3.402 3.588
3.112 3.278 3.572
3.055 3.133 3.340
3.235 2.829 3.476
3.568 3.583 3.746
3.174 3.370 3.675
3.118 3.101 3.627
3.579 3.292 3.507
3.600 3.126 3.229
3.603 3.719 3.918
3.515 3.254 3.697
3.651 3.163 3.732
3.640 3.083 3.531
3.916 3.520 3.644
3.704 3.523 3.672
3.949 2.963 3.664
4.112 3.201 3.323
4.347 3.334 3.846
4.296 3.325 3.701
3.922 3.197 3.520
4.483 3.498 3.719
4.339 3.336 3.609
4.033 1.315 2.404
4.099 1.306 2.385
4.014 1.029 2.386
3.798 0.794 2.037
4.823 3.507 3.694
4.303 1.483 2.458
4.174 1.320 2.277
4.271 0.836 2.030
4.240 0.704 2.035
4.215 0.679 1.889
4.483 1.368 2.471
4.384 1.254 2.169
4.400 0.764 2.363
4.442 0.713 1.859
4.421 0.368 2.014
4.406 0.024 1.613
5.104 1.241 2.627
4.975 0.966 2.253
4.834 0.825 1.973
4.498 0.503 2.058
4.564 0.170 1.995
4.650 0.240 1.694
5.200 1.293 2.506
5.034 0.812 2.097
5.076 0.757 2.227
4.851 0.500 2.161
4.730 0.283 1.646
4.696 0.118 1.744
5.547 0.686 2.358
5.248 0.505 2.269
5.057 0.258 1.923
5.244 0.269 1.819
5.553 0.142 1.820
5.547 0.007 1.646
5.748 -0.086 1.744
1.283 3.459 3.607
1.318 3.168 3.308
1.308 2.812 2.991
1.057 2.545 2.898
0.443 0.939 2.004
0.465 0.530 1.552
0.381 0.447 1.412
0.355 0.038 1.258
1.481 3.368 3.787
1.376 3.295 3.541
1.204 2.849 3.660
1.090 2.733 3.229
1.130 2.387 3.209
0.472 0.954 2.163
0.629 0.747 2.058
0.452 0.356 1.934
0.364 0.094 1.896
1.906 3.211 3.681
1.655 3.191 3.705
1.602 2.888 3.573
1.511 2.512 3.449
1.507 2.214 3.075
0.810 0.638 2.007
