7.74601 72.1798 35.009945
18.373009 77.30681 33.006947
19.516006 78.7068 31.366945
33.81801 28.493809 15.122946
35.23401 26.43681 13.714946
46.01301 27.691809 16.092945
47.55101 28.278809 17.708946
14.8160095 62.071808 14.588945
13.451004 63.44481 15.601946
18.96801 58.96481 18.691946
17.916008 58.48481 20.495945
9.39901 28.18981 56.563946
8.890007 25.99981 54.954945
4.935005 24.66281 44.173946
4.8700104 22.986809 43.054947
32.34601 88.0818 5.4519463
30.696007 87.48881 7.042942
35.355007 91.5518 2.7629433
35.681004 93.0798 1.0329437
39.83001 -2.290191 10.094945
39.96101 -0.5371908 10.993945
36.355007 7.2628093 9.383945
35.125008 5.570809 10.320946
32.58801 64.007805 3.266945
32.11501 66.15581 2.7419434
38.61601 63.14581 7.8249397
39.305008 61.84581 5.9139442
5.5240097 61.433807 22.459946
7.6710052 61.44781 22.026945
17.402008 56.61681 18.330946
17.652008 54.488808 18.357944
7.4270096 80.8988 53.850945
9.095009 82.2068 54.556946
15.726006 84.54581 6.332943
13.850006 84.94581 7.4379463
40.13801 20.46881 15.707946
40.520008 19.076809 14.1929455
34.091007 16.824808 16.228945
32.827007 16.58981 18.288946
18.679008 77.269806 21.592945
17.110008 77.3018 22.951946
23.26101 68.41681 28.182945
21.146011 68.44481 28.842945
56.87801 80.353806 38.048946
57.334007 79.90681 35.934944
69.74701 84.1218 35.889946
69.40801 83.8298 33.480946
31.876007 11.87581 10.738945
30.320007 13.4768095 11.002946
20.795006 19.51281 10.5279455
20.168007 18.61081 12.203945
44.64101 57.33181 27.453945
45.09201 58.370808 29.349945
34.78001 59.44781 32.456944
34.35301 59.65881 34.303944
72.00901 91.0968 24.817945
70.42901 89.4008 24.593946
69.01301 84.75181 13.812945
66.93501 86.561806 13.867946
40.06701 42.25681 28.047945
40.59201 41.94281 30.714947
37.007008 34.84881 39.287945
37.62201 36.41381 40.921947
27.44001 35.05381 30.565947
25.043007 34.550808 29.443945
27.66301 38.11181 18.211945
30.55001 38.44581 18.412945
6.7480087 10.828809 44.093945
9.101006 10.866809 43.404945
10.318008 18.077808 51.052944
12.017006 19.24481 50.638947
30.451012 78.076805 31.281946
32.212013 77.26881 29.607946
25.085007 70.80581 24.323946
23.91101 69.853806 22.059946
33.31201 8.474809 56.700947
35.218006 7.704809 58.006947
29.893013 0.9858091 55.071945
28.355011 -0.827191 53.906944
39.42101 60.95281 41.931946
38.00501 62.08281 42.623947
30.22501 62.20581 48.558945
28.94501 61.981808 50.636948
47.55101 78.563805 12.099945
45.85001 80.479805 12.134946
55.627007 82.909805 13.976946
57.27301 81.814804 12.801946
73.52501 87.26481 7.1979456
72.87301 89.79381 7.3779454
3.130005 84.62581 15.086946
4.824005 83.481804 16.087946
74.55101 49.981808 10.749946
72.864006 51.26281 12.0609455
67.27401 58.13181 11.635945
65.63901 59.28281 12.4029455
66.96901 46.72981 7.0299454
65.90901 47.766808 8.620945
72.33501 50.32081 19.196945
71.44201 51.28481 20.961945
53.028008 42.43181 0.9789429
55.465008 42.72981 0.4169426
61.779007 45.335808 11.844944
60.098007 44.76981 13.140945
19.14701 74.256805 38.210945
17.194008 75.3748 37.596947
14.216011 67.370804 29.960945
13.00901 65.4128 29.797945
1.3840103 9.189809 58.115944
1.1230087 7.0328093 56.616947
7.644005 3.794809 53.678947
9.387009 3.2638092 53.959946
25.82901 93.3468 55.405945
26.88401 91.65681 56.790947
27.35601 89.963806 10.034943
26.197006 89.770805 12.236946
41.444008 23.81581 35.368946
41.48501 25.12481 37.198944
50.10301 32.45681 39.723946
51.73201 31.202808 41.288944
29.55101 44.82681 51.788944
31.629013 46.44381 51.829945
33.56501 37.19881 54.139946
34.06401 36.99281 56.580944
64.50001 1.9998016 31.136946
63.14201 1.9018021 29.606945
59.30301 3.5518072 19.618946
61.430008 4.887806 19.250946
43.736008 89.7328 26.460945
42.34201 87.7498 25.341946
42.819008 83.60081 14.002946
40.77401 83.1938 15.550945
25.643013 82.814804 25.305946
24.573013 85.0238 25.395947
28.797012 85.7188 16.083946
30.02201 84.298805 15.100945
62.99701 54.20481 16.813946
64.98001 54.71981 17.881945
64.73001 46.328808 11.520946
64.13801 44.85481 10.558946
59.69101 37.71981 55.467945
60.41301 40.04881 56.194946
69.767006 34.97681 55.906944
72.13601 34.43781 54.843945
1.326004 20.382809 9.950946
74.434006 20.71381 10.720945
7.2850113 25.98081 16.666945
8.544006 26.38481 18.348946
48.229008 70.50081 51.537945
46.58001 71.78181 50.717945
45.777008 64.105804 43.222946
44.521008 65.33181 41.400948
54.63501 20.10581 31.177946
55.217007 19.417809 33.282944
55.58601 29.094809 38.044945
55.46801 30.15881 40.092945
37.397007 27.58881 57.838947
36.218006 26.85981 56.021946
25.185013 29.86281 55.597946
26.651009 28.625809 57.415947
46.251007 78.1798 4.8439445
44.40601 76.744804 4.0209427
45.81401 70.1358 55.508945
47.32801 69.9688 53.942947
72.16501 29.670809 55.673946
72.698006 31.893808 55.769947
6.640007 30.02281 51.072945
5.838005 31.521809 49.297947
47.729008 14.77881 19.873945
45.21201 15.854809 19.321945
45.35601 24.85281 17.576946
47.37301 25.591808 19.224945
18.574005 82.578804 40.031944
20.34301 84.241806 40.356945
25.32801 91.31981 32.494946
24.265007 91.675804 30.118946
51.38401 52.565807 21.634945
53.758007 51.72181 21.098946
61.245007 42.06181 17.099945
61.07901 43.36281 15.190946
62.04701 48.51581 53.012947
60.85701 46.83681 54.731945
50.99801 53.34181 54.442947
51.645008 55.175808 55.503944
12.03701 2.276802 55.172947
11.8160095 2.2817993 52.958946
9.64901 92.93081 47.914948
7.805008 91.3878 46.302944
37.26201 2.401802 23.346945
37.166008 0.25580597 24.547945
38.88601 86.67181 29.202946
40.90601 86.258804 30.130945
70.86801 23.385809 40.881947
69.24301 24.542809 40.219944
64.10701 32.891808 44.592945
61.56101 33.07481 44.380947
14.832008 88.68281 21.837946
14.38501 88.9008 24.077946
5.1340103 89.022804 29.997946
3.8590088 90.744804 29.275946
51.53801 88.87681 21.681946
50.479008 87.49081 20.524946
55.54601 82.727806 24.257946
56.757008 81.005806 25.830946
54.548008 48.14681 12.350945
54.180008 48.19281 15.003945
46.46401 49.17281 17.900946
45.76001 50.71281 19.701946
70.08801 30.08181 50.369946
71.75101 28.81181 51.641945
1.0280075 39.07481 47.407948
2.1620102 39.32281 48.908947
17.196007 33.821808 54.467945
18.08001 34.24481 56.200947
26.484009 33.24181 48.507946
28.41301 32.689808 48.300945
39.02201 -0.45119083 3.7999458
38.70601 1.1668091 2.7399445
43.93301 8.730809 6.447941
46.07501 7.8008094 6.188946
32.061012 30.36081 12.039944
31.668007 27.89481 11.695946
36.613003 25.34981 0.8139458
35.802006 24.473808 57.373947
22.15001 46.488808 0.5779457
22.309006 48.73781 0.7279434
30.534012 52.97281 53.981945
31.117012 54.74181 53.332947
43.42901 55.51781 50.800945
42.994007 54.07281 52.554947
46.04701 52.24681 3.9059448
44.23201 51.03981 4.670944
5.3530045 45.19281 56.985947
4.345009 46.72781 58.156944
73.670006 55.72381 55.027946
73.78901 54.83381 52.599945
15.625008 63.85781 5.6549454
17.573006 64.215805 4.563946
10.622009 67.3468 56.875946
12.631004 66.26081 55.955944
3.6410065 45.07081 3.8039436
2.529007 46.87181 2.7499428
1.6560059 43.565807 0.07494354
2.293007 41.22581 57.053947
52.173008 16.754808 34.631947
53.536007 16.025808 36.090946
59.19201 22.649809 43.637947
61.98501 22.438808 43.175945
10.751007 21.233809 28.195946
8.017006 21.635809 28.453945
74.53001 18.160809 32.965946
74.00201 16.74281 34.790943
48.25401 14.486809 57.674946
46.93301 12.289809 56.985947
58.64901 10.98181 0.28094482
58.925007 9.701809 1.9109459
14.451004 37.78281 2.0589447
13.421005 38.870808 57.869946
3.3990097 38.82281 53.899944
3.2140045 36.84781 53.910946
70.961006 82.34981 29.214947
70.45001 80.311806 29.621946
62.196007 75.4148 25.092945
62.76101 74.1778 27.089947
52.99801 35.96681 18.070946
53.61001 38.12881 18.311945
47.56601 45.037807 25.445946
47.105007 46.18781 23.155945
45.76601 11.96281 9.258945
43.90801 12.116809 10.960945
49.730007 1.956809 13.829946
49.515007 0.80380917 11.6929455
21.575005 39.16681 6.006939
20.699005 39.31781 3.6919441
22.748009 43.63581 51.105946
22.506004 41.412807 50.785946
23.285011 79.3328 10.285946
24.923012 77.589806 9.927944
26.196007 84.30681 0.59794617
24.990013 83.089806 57.430946
33.77501 -1.7581908 57.391945
31.865013 -2.156191 57.959946
23.834007 6.336809 1.7249451
22.00801 6.109809 58.149944
60.86401 68.77881 49.998947
62.737007 69.536804 50.386948
63.72601 74.9838 2.1039429
61.99101 76.616806 1.8199463
0.4120102 81.75181 29.803946
1.6800079 82.769806 28.497946
2.5080109 88.23881 20.619946
3.3770065 87.4988 18.590946
14.766006 77.46281 43.994946
12.820007 76.40581 45.401947
17.374008 71.258804 54.867947
16.680008 70.507805 56.777946
68.45701 18.496809 53.983944
66.45601 19.156809 54.446945
60.01301 8.780809 53.049946
61.47601 7.632809 54.138947
74.09001 20.302809 8.029942
72.89501 19.82481 6.5509453
70.84401 19.87381 57.230946
68.33801 19.43381 57.040947
59.834007 66.8868 26.210945
58.430008 65.93281 24.927946
59.91301 68.8728 14.1859455
59.007008 68.242805 12.463945
46.26701 48.01481 4.5819435
47.79301 46.72181 3.8289452
47.264008 38.46281 5.2069435
49.028008 37.64681 5.87994
55.73501 17.327808 15.595945
56.15801 18.66881 13.647945
68.32001 21.36681 12.170945
70.29801 20.827808 11.998945
33.85501 58.83781 40.660946
32.671013 58.50881 42.902946
22.67501 55.91481 47.827946
20.87101 56.794807 46.833946
17.540009 87.40681 24.763947
17.78901 88.88981 23.405945
16.651009 82.5518 15.644945
15.230011 83.39281 17.114944
58.549007 67.30581 10.074944
57.25301 66.340805 8.336941
52.937008 59.03581 3.0449448
54.24801 57.36881 1.2709427
7.19001 18.91881 23.544945
8.242004 18.33281 25.512945
1.7380066 10.338809 31.379946
74.75501 10.077809 30.910946
18.061005 12.031809 4.0319443
20.153008 11.94881 3.0059433
19.227005 18.785809 7.556942
19.174011 20.364809 8.673943
48.63501 66.717804 42.578945
50.44001 65.94381 44.099945
59.250008 68.28081 46.050945
58.23501 69.564804 44.022945
48.25601 3.1948092 49.021946
47.65101 5.265809 47.488945
56.01101 12.091809 48.302944
57.377007 10.742809 49.366947
11.185005 14.21281 22.234945
9.545006 14.718809 23.631945
1.0630112 9.067809 17.219946
74.81101 9.634809 15.924946
11.129005 68.13981 47.184944
9.527008 68.95881 46.223946
0.67601013 75.72381 49.715946
0.38000488 76.675804 51.845947
33.36401 42.13581 37.995945
35.14201 43.53281 37.207943
45.52201 38.05581 36.619946
46.91401 37.56181 34.696945
10.154007 31.215809 26.532946
11.863007 32.850807 25.464947
3.8110046 42.66781 26.544947
2.1620102 41.22581 25.601946
49.215008 41.52081 26.563946
50.63801 41.22381 28.680946
52.08001 41.08481 38.192944
53.31701 39.64081 38.492947
28.903008 60.64681 1.2499428
28.12101 62.55681 57.664948
20.445007 68.04181 56.350945
19.334007 70.04681 56.304947
38.82101 45.04881 20.829945
40.437008 44.27581 21.367945
47.284008 38.13981 25.981945
49.444008 38.203808 25.655947
10.892006 89.798805 56.300945
12.909004 90.174805 57.051945
14.749008 90.9418 9.677944
16.526009 90.215805 10.531944
43.13801 45.28381 22.411945
42.35701 43.495808 23.723946
45.90801 44.86281 33.078945
46.93601 47.13781 32.043945
33.10101 57.891808 30.812946
34.701008 57.08381 31.017946
35.251007 59.87881 38.829945
37.31701 60.772808 40.343945
60.35701 77.36281 23.272945
60.703007 76.438805 21.445946
49.34601 76.86281 17.277945
48.736008 75.437805 15.681946
0.12300873 15.970809 53.447945
1.1970062 14.301809 51.762947
7.70401 19.10081 57.113945
9.239006 17.768808 58.180946
5.636009 64.17081 38.044945
6.4270096 66.11381 37.809944
15.474007 61.49981 29.738945
15.048004 60.04581 28.965946
25.618011 69.43281 31.692945
24.155006 70.882805 32.306946
24.21801 79.19581 32.281944
26.515007 79.1248 30.860947
57.24001 56.203808 38.507946
59.49901 56.91581 37.742947
59.493008 57.42381 26.088945
58.127007 56.37681 24.467945
58.182007 69.8448 4.797943
59.188007 67.9158 3.8789444
64.48501 64.82181 51.827946
66.74601 66.035805 52.846947
14.67701 83.452805 10.724945
16.178009 83.44881 8.563946
16.62201 74.967804 1.4599457
16.697006 72.66881 2.7419434
34.364006 51.45581 18.584946
33.060013 49.31881 18.794945
26.738007 54.14481 19.907946
27.41301 53.79581 17.751945
66.34901 11.11881 52.590946
68.94701 11.168809 52.847946
69.87501 8.838809 3.3289452
68.08501 7.8998094 3.3099442
59.522007 0.6068039 41.541946
58.958008 2.064804 39.153946
48.33201 93.2908 45.497948
47.181007 93.68581 43.838947
33.71701 12.569809 1.2489433
32.84301 10.784809 57.837944
34.794003 2.746809 6.247944
33.76201 2.883809 8.239941
69.72401 85.520805 26.920946
67.64001 85.00081 26.185946
65.48601 81.83481 13.908946
67.212006 80.743805 13.144945
11.470009 79.703804 46.127945
10.215004 81.0538 44.866947
18.05001 78.25081 36.535946
16.591011 78.76881 34.759945
59.64201 0.17280579 53.050945
60.69101 92.216805 52.485947
67.98701 84.9408 57.731945
66.837006 84.36481 1.6629448
6.243004 48.94281 53.068947
8.363007 49.83881 53.069946
9.726006 46.80481 4.8559456
9.471008 44.26781 5.0749435
27.282013 35.26081 45.779945
26.048012 37.68481 45.764946
31.030006 43.814808 41.249947
33.098007 43.78481 40.543945
49.33001 70.0108 42.601944
50.85801 68.50181 41.893948
60.620007 69.98681 42.925945
62.41401 68.7488 43.252945
15.469009 42.912807 7.2859454
14.751007 40.75381 8.0279455
2.465004 40.21881 8.484945
1.4050064 40.44581 10.922945
32.68701 80.76781 50.117947
33.46701 79.36581 49.097946
32.55001 78.5968 2.8839455
31.405006 80.13981 2.7049446
63.66201 30.05781 5.2769456
63.47001 28.687809 7.4479456
59.187008 20.774809 15.223946
60.35101 22.19081 16.242945
34.56801 39.10281 46.392944
36.34601 40.21281 45.599945
34.40001 49.21681 53.248947
34.813007 48.315807 55.003944
37.80701 30.92881 22.729946
38.813007 31.792809 24.622946
47.94101 37.071808 28.223946
46.99801 38.39481 29.852945
53.257008 63.56881 12.716946
54.84501 64.96281 12.945946
60.854008 55.72681 15.800945
59.87801 55.64481 17.947945
1.9270096 64.61081 2.8609428
4.0800095 63.69181 3.785946
0.60300446 57.08281 51.889946
74.40801 59.07281 51.540947
40.81801 8.984809 0.63794327
39.36601 9.318809 56.942947
39.20701 12.20581 48.980946
38.084007 13.02181 47.335945
39.48101 11.062809 45.756947
41.53901 10.987809 46.934944
51.65001 14.53381 42.514946
52.772007 14.070809 44.541946
25.434006 9.064809 20.000946
23.835007 7.568809 20.876945
22.53701 0.05380903 26.009945
24.228012 -0.8681909 26.998945
37.74401 76.4008 14.629946
36.83901 75.852806 12.9029455
42.59601 70.92181 5.8449454
43.68501 72.6228 5.1659455
47.96701 51.27781 16.408945
45.75501 51.06081 15.696945
42.29301 45.94381 17.295946
43.542007 45.33681 19.573946
19.89701 48.23281 1.5839462
17.957008 48.82781 0.2519455
9.74601 46.36981 51.435947
10.37001 44.60781 50.192947
68.70201 18.74881 42.862946
68.86501 19.445808 45.685947
59.562008 24.41281 45.988945
58.722008 25.896809 44.599945
34.971004 51.39681 15.987946
35.387005 50.786808 13.682945
25.66301 55.259808 13.971946
24.141006 54.037807 12.3439455
46.362007 17.316809 56.018948
47.23401 18.809809 57.529945
40.65701 11.558809 0.08194351
41.73101 10.996809 56.485947
42.37001 83.62581 1.5639458
41.29401 83.6798 57.096947
33.52501 91.0528 55.036945
33.66101 90.828804 52.307945
68.02901 42.93881 18.925945
68.37601 45.19581 17.910946
60.74601 52.16781 19.029945
60.64301 52.974808 17.443945
35.38701 76.9408 2.5069451
37.52301 76.39081 3.4329453
40.01501 79.86281 14.289946
42.15601 78.1218 14.090945
44.01901 48.27781 6.8199453
41.604008 47.82581 7.9389453
47.59901 49.95781 13.957946
49.98401 49.31181 14.939945
47.49001 70.033806 34.723946
45.62201 69.368805 33.113945
34.85101 72.23781 40.361946
34.257008 70.3868 39.756947
44.53901 62.67181 8.643946
46.555008 63.03881 10.018946
42.39101 76.062805 8.644945
42.070007 76.519806 11.321945
74.31201 38.98681 15.717945
74.45201 40.60081 17.588945
6.66201 46.26081 8.629946
7.2400055 45.238808 6.6299453
45.01901 76.619804 11.569945
47.08701 75.852806 12.609945
45.14101 66.43281 16.552946
45.80401 65.69281 14.679946
23.693008 66.50481 31.928946
25.192009 67.3588 30.009945
28.716011 61.418808 20.085945
29.880013 62.99381 20.669945
55.40601 37.95081 39.787945
56.118008 39.641808 38.598946
62.58601 31.36681 36.119946
63.65801 29.660809 34.764946
67.12701 71.758804 57.225945
67.80801 69.83681 0.75894547
71.68501 73.6658 7.8529396
73.79701 72.10081 7.688946
72.34601 89.3048 3.9479446
73.41101 87.146805 3.5409431
70.70801 87.0938 11.637943
72.81101 86.79681 12.712944
70.38701 60.99481 13.080946
71.17601 61.12681 15.329946
72.406006 66.828804 21.903946
74.30601 65.8848 23.119946
33.00201 78.213806 42.990944
35.39101 78.0408 42.594944
40.95601 86.561806 45.410946
42.69201 86.463806 46.971947
17.361008 79.52781 20.860945
17.431007 81.0668 19.664946
8.730011 87.492805 18.893946
8.265007 85.93581 17.761946
44.15401 67.3168 54.324947
42.083008 67.0548 54.726944
33.97501 64.505806 53.771946
35.681007 63.42781 54.960945
47.09501 2.7058065 43.152946
45.444008 1.1878052 42.471947
38.048008 89.44681 46.678947
40.54701 88.87681 47.119946
39.009007 24.239809 36.612946
37.60301 25.496809 37.592945
29.833008 18.00981 35.622944
30.819008 17.41281 34.052944
2.1990051 30.365808 20.084946
1.878006 29.10381 17.734945
72.74901 19.01581 21.662945
74.30401 17.661808 21.621944
17.535011 24.65481 38.548946
17.114006 26.722809 37.243946
11.099007 23.91681 26.961946
11.595009 25.74181 25.897945
41.88301 76.30981 4.347946
42.24901 78.216805 3.5769463
39.99401 88.29381 7.898945
38.22801 89.840805 9.013943
63.320007 16.89181 26.102945
60.98301 17.320808 26.892946
56.389008 19.43681 17.209946
54.78901 18.67181 18.553946
18.700005 76.93081 57.367947
16.96701 75.96281 57.062946
9.3420105 81.588806 51.733944
10.06501 83.6658 52.042946
72.60401 60.92781 46.634945
73.75001 60.95081 48.856945
8.50901 53.68481 48.662945
9.8420105 55.48381 48.554947
5.6340103 64.25081 24.554945
7.1670074 63.578808 26.148945
6.1580048 70.3028 34.256947
5.9860077 68.2738 36.112946
38.12901 12.914809 35.867947
39.069008 12.489809 33.988945
40.59501 8.018809 24.634945
39.611008 6.817809 22.571945
43.74801 58.099808 49.180946
45.75501 57.26581 49.430946
49.87801 67.743805 53.674946
47.80701 67.4408 54.909946
69.22201 79.16781 55.171947
68.88501 78.75181 57.414948
71.11901 71.57081 56.724945
72.30501 70.6218 0.20594406
29.834007 59.33481 50.106945
27.976013 58.86781 49.990944
27.76101 46.59381 47.625946
27.909012 44.61581 45.865944
64.32801 48.175808 47.063946
64.91401 50.04181 47.941944
74.83001 43.51181 49.502945
75.03301 41.33981 49.662945
62.390007 67.65281 31.003946
62.05301 65.87681 32.228947
66.685005 66.215805 41.873947
68.142006 67.798805 42.921947
60.52401 18.712809 57.817947
62.132008 18.556808 1.396946
58.229008 28.993809 3.5709457
56.383007 30.03981 2.2379456
54.59601 55.55581 21.353945
56.56701 55.91681 20.478945
49.87801 60.54581 12.497946
49.33801 61.738808 14.254946
52.46301 5.161808 31.437946
51.49101 3.03281 31.736946
49.584007 90.130806 34.659946
48.563007 88.951805 32.998943
46.47501 62.17781 55.970947
44.46301 62.64281 54.952946
42.20301 59.08981 45.002945
43.42501 59.655807 43.121944
26.001007 92.839806 43.620945
26.644012 92.9578 45.339947
37.336002 90.8468 48.791946
34.995007 89.535805 48.795944
20.27401 4.882809 30.179945
18.685005 3.9848092 30.118946
10.786011 5.2498093 26.253946
9.985008 5.792809 28.663946
46.77201 55.70181 29.284946
47.097008 53.51881 29.272945
50.17901 46.67881 35.866943
51.180008 48.307808 37.257946
64.68901 9.313809 51.301945
65.19501 6.962809 52.260944
73.17701 10.859809 50.914948
72.75501 10.537809 53.552944
5.8040085 47.52781 29.114946
7.6200104 49.11181 29.872946
3.341011 59.49081 31.135946
1.7800064 61.27181 31.976946
0.6340103 42.74781 29.310946
1.9840088 44.83881 29.142946
72.32201 40.41081 21.409945
73.80201 39.85481 23.183945
39.049007 20.917809 12.981945
40.71401 20.667809 11.596943
34.16901 20.66581 0.12494278
35.69801 19.22881 0.57094574
67.09001 69.55981 55.560947
69.01401 69.73881 56.487946
68.47401 58.19181 56.778946
69.79401 56.821808 0.40894318
45.785007 35.60981 49.092945
44.97601 34.58281 47.269947
33.05701 34.72681 52.738945
31.640009 32.657806 53.039948
25.666008 66.535805 7.757946
26.42701 69.00081 7.1789436
22.850006 69.3988 55.989944
25.044006 70.314804 54.097946
49.02601 1.5748062 37.639946
50.812008 2.0168 38.370945
58.11501 91.45981 40.629948
57.33101 90.620804 42.812946
54.515007 81.75281 46.979946
53.611008 83.547806 48.584946
48.001007 90.5248 44.641945
48.83101 89.717804 42.529945
26.99601 75.8168 1.7479439
28.42601 74.98981 0.29694366
31.34301 74.7878 49.254948
33.251007 76.188805 48.334946
27.934006 54.93081 28.715946
26.49601 56.308807 29.781946
16.334007 59.28881 25.328945
14.88401 58.83981 23.810946
56.46401 20.96481 56.735947
58.07201 21.65581 55.065945
59.63401 18.354809 45.309944
61.314007 20.247808 44.519947
38.81401 52.02081 44.403946
39.819008 54.32981 43.608944
46.96701 48.24981 36.772945
46.12101 45.66681 35.654945
35.49501 26.017809 22.469946
35.77301 27.677809 21.181946
45.973007 27.28781 22.564945
46.46901 28.233809 24.880945
33.348007 76.189804 16.589945
35.050007 74.424805 17.017946
31.41401 75.606804 8.628945
33.877007 75.52881 8.630945
64.20001 6.956809 13.010945
66.21001 8.185809 14.019945
70.01501 14.945809 12.491945
68.670006 13.814809 10.348946
37.40701 47.61281 18.666945
36.74601 50.10081 18.326946
45.424007 48.064808 24.550945
46.931007 47.46581 26.675945
22.77201 36.47681 7.992945
23.519005 34.801807 9.0609455
19.152008 27.597809 17.053946
19.173004 26.01381 15.635945
10.422005 19.37681 56.398945
10.4900055 20.26381 54.424946
18.821007 25.118809 47.981945
19.395004 27.49481 49.078945
5.090004 48.40881 9.199945
4.49601 48.66681 11.849945
71.96801 45.83981 19.985945
71.08301 44.175808 18.595945
9.029007 27.52281 14.944945
10.350006 28.93681 14.922946
10.192009 24.663809 20.286945
10.294006 26.28781 21.869946
73.28301 58.72281 26.587946
71.87201 57.60481 25.250946
74.04801 49.21481 20.878944
72.66701 47.46181 22.201946
6.1750107 92.7068 43.816944
4.392006 92.0938 43.302944
8.88401 80.27881 47.826946
7.7360077 80.6378 49.945946
62.84301 79.5938 18.357944
61.569008 80.8728 20.285946
66.05601 90.840805 13.917946
67.13201 92.61181 15.239945
5.477005 11.733809 12.7779455
5.5420074 10.56681 10.801946
7.769005 3.271809 8.471946
6.6170044 1.3768091 9.832946
59.87301 65.189804 28.544947
61.75401 64.466805 29.673946
64.43901 56.35981 37.596947
64.92801 54.529808 36.433945
72.84901 22.14881 0.9069443
73.12201 23.841808 58.046947
9.744011 20.67181 2.1749458
9.416008 18.88781 2.9689445
70.38301 59.794807 23.143946
68.52701 59.46681 23.707945
65.33101 69.44881 28.043945
63.31601 69.27881 29.306946
10.193008 -2.723191 18.282946
10.366005 -1.146191 15.693946
2.418007 6.476809 18.013945
1.341011 6.9978094 20.049946
4.807007 43.13281 29.622946
3.1650085 42.00081 29.340946
0.33900452 31.18981 30.605946
1.7640076 29.500809 31.385946
56.181007 37.72581 28.316946
54.229008 38.856808 26.947947
58.459007 45.647808 26.338945
59.94101 46.96181 25.341946
61.111008 30.33981 22.520945
60.88401 31.57581 24.265945
51.654007 37.88281 27.456945
50.03701 38.51781 28.766945
23.103004 83.9968 1.396946
22.73301 82.22581 0.2769432
14.850006 88.547806 54.863945
12.985008 89.83481 53.901947
1.3820114 93.644806 44.123947
2.7590103 92.812805 45.755947
71.29801 84.58781 45.705944
70.00901 84.9838 46.841946
34.968006 18.907808 46.054947
36.07301 16.781809 46.255947
32.738007 14.508809 57.683945
33.97901 15.498809 0.950943
42.47701 3.8628042 2.4519463
39.99001 3.5738027 1.082943
38.30901 92.7468 0.94794464
38.15001 91.283806 3.0429459
58.27301 34.73381 51.893948
59.45501 32.77081 51.549946
69.45701 30.625809 54.682945
70.91301 31.57481 52.898945
63.12901 44.26081 48.956947
63.694008 46.412807 49.723946
61.30801 42.75181 50.407948
63.466007 42.42181 51.021946
25.423012 57.85381 50.462944
23.253006 56.72681 50.143948
25.21701 45.391808 48.105946
23.478004 46.190807 47.690945
12.306007 17.267809 42.993946
13.673004 15.17281 42.907948
21.360008 23.35781 41.176945
23.573006 22.486809 40.009945
19.721008 54.35181 46.105946
21.845009 53.45981 46.767944
25.144012 52.07281 40.199944
24.891006 54.196808 38.859943
54.91401 32.50181 38.565945
54.32901 33.18881 40.737946
59.37301 28.736809 49.314945
61.46201 27.28981 49.442947
48.542007 15.821809 14.984945
50.61401 15.853809 17.308945
42.45701 21.31181 14.019945
43.368008 20.70481 11.928946
28.999008 22.06881 25.246946
28.465012 21.563808 27.547945
28.166008 20.53081 35.078945
26.534012 19.52781 34.048946
71.62501 15.638809 33.167946
72.00701 16.893808 31.567945
68.43101 19.052809 39.543945
69.51601 21.33581 39.315945
49.44701 57.13781 13.372946
47.507008 58.148808 12.547945
38.21301 48.495808 14.201945
37.29601 50.14381 15.7849455
54.09301 27.48881 29.677946
54.84501 29.73781 28.649946
60.882008 26.30081 35.576946
58.48501 25.868809 36.332943
58.27501 8.478809 25.469946
57.528008 9.242809 23.685946
56.20501 3.417809 18.212946
55.47801 1.1528091 18.726946
68.93301 32.01981 15.595945
67.059006 31.708809 14.519945
55.60201 29.993809 16.281946
55.25301 30.24481 18.354946
36.74701 22.25681 27.001945
36.49601 21.30881 29.339947
35.08601 32.64581 28.940947
37.01501 31.96381 28.592945
64.26401 29.247808 25.909946
62.92001 29.35581 24.432945
60.04701 22.43581 28.577946
58.599007 20.89581 28.456945
67.30601 71.44581 34.733944
67.41201 73.381805 33.786945
62.26601 76.32381 42.296947
60.57401 75.965805 43.642944
34.778008 9.548809 10.968945
36.08501 11.336809 11.497944
36.71301 14.923809 4.186943
35.861008 13.992809 2.5579453
3.6770096 49.58381 40.120945
4.0780106 48.68181 37.784946
68.28001 41.97181 36.113945
67.61501 43.21281 34.713943
74.21901 53.057808 48.239944
1.6570053 53.27781 48.121944
5.6230087 57.279808 56.554947
5.553009 56.558807 0.21194458
10.014008 1.854805 8.855946
11.035011 0.8797989 7.0039454
14.805008 86.47681 9.492946
16.077011 87.590805 11.679945
18.937004 13.688809 18.757946
21.112007 14.92281 18.309946
28.94001 14.75781 22.746944
28.890007 14.638809 20.516945
49.82301 21.70481 2.285946
48.62301 21.39581 3.9459457
45.76901 10.583809 5.1829453
43.67101 11.593809 5.8719444
38.08801 83.438805 29.477945
37.807003 84.425804 28.059946
26.924011 89.7348 30.201946
26.577011 87.896805 31.288946
15.741005 90.4858 26.353947
18.081009 90.31981 25.882946
10.558006 3.503803 21.330946
10.1910095 3.9318044 23.993946
10.208008 88.05881 51.384945
8.879005 86.09981 50.937946
18.73201 79.04581 48.876945
17.42701 77.97481 46.396946
20.19101 12.54781 31.596947
21.52201 12.86881 29.643946
19.031006 9.346809 30.821945
17.62101 8.092809 32.052944
44.63601 53.960808 28.223946
43.278008 52.24881 27.262945
47.041008 54.04981 22.790945
48.78801 53.46181 21.253944
9.241005 75.60081 7.8519454
11.205009 76.30881 6.9019456
17.974007 71.022804 11.745945
17.160011 69.772804 10.140945
18.519005 41.488808 52.818947
20.209007 39.68581 51.526947
28.567009 35.33181 48.778946
30.15001 34.67481 50.593945
0.8940048 2.4678092 55.562946
0.33800507 4.390809 54.869946
74.09301 9.813809 43.740944
0.99100494 9.487809 43.082947
24.568008 16.50981 54.025948
24.933006 15.329809 52.084946
25.515007 20.34281 41.243946
27.188011 21.59281 39.329945
70.97401 70.72381 27.360947
69.55401 71.7888 29.013947
1.0440063 78.897804 28.015945
3.2750092 78.97681 26.653946
48.604008 81.938805 3.1839447
51.30901 82.0548 3.2259445
54.257008 74.894806 10.336945
52.320007 75.42081 11.226944
58.44701 52.13281 45.872948
60.08601 53.627808 46.843945
59.376007 59.87981 37.931946
56.868008 60.06181 37.916946
26.433006 86.813805 16.152946
26.60701 87.3878 13.739945
19.498009 81.14181 16.964945
17.654007 79.91881 16.788946
37.29601 62.73981 10.586946
39.708008 63.07481 10.443945
39.29701 69.438805 19.348946
41.45501 70.29681 19.847946
10.852005 66.5108 51.533947
12.775009 66.519806 53.059944
20.49501 57.30681 49.760944
21.26001 57.98381 51.522945
33.86401 16.896809 25.831945
34.01701 14.86881 25.084946
44.68601 11.0358095 25.079947
43.84401 10.949809 22.489944
38.68501 57.60181 29.477945
36.67101 55.99881 28.938946
40.78301 45.00381 28.139946
42.61201 45.36281 29.788946
56.99801 94.03281 16.911945
58.49901 92.76881 16.955946
64.84101 90.6378 22.792946
66.59501 88.62681 24.072945
30.81501 93.6108 19.820946
32.486008 92.8848 21.629946
35.417004 81.076805 19.338945
34.13501 80.7048 21.593945
6.001007 31.16481 41.696945
6.7710114 32.89481 42.976944
2.3630066 42.259808 44.737946
1.6600113 41.81981 46.921947
48.59601 75.22681 10.5679455
46.29501 73.83581 10.668945
50.112007 63.06381 9.049946
49.18901 62.73981 10.895946
24.418007 18.074808 32.577946
23.02501 19.864809 33.674946
19.282005 9.606809 33.824944
18.545006 8.586809 35.615944
32.58501 44.18081 6.8529453
31.09101 45.86681 6.920945
39.58701 50.36581 7.1069455
41.43501 50.77081 7.6989455
13.531006 87.549805 43.426945
14.20401 88.9578 44.672947
19.987007 92.520805 52.276947
18.11901 93.71081 51.834946
6.7240067 71.7198 39.387943
6.418007 72.73681 41.450947
17.972008 72.231804 40.518944
16.561005 73.79581 40.128944
59.223007 89.0818 39.722946
58.910007 87.7188 37.908943
69.211006 92.64081 39.960945
70.56401 92.48681 38.705944
42.69201 43.65381 4.518944
43.22601 43.60781 6.5229454
51.688007 48.01781 7.4749413
53.40501 48.38981 8.955944
2.4930038 74.89181 3.4999428
3.8830109 75.727806 5.5209427
1.9990082 87.215805 6.3669395
0.42601013 87.10081 5.1579437
43.62901 89.076805 11.550945
43.931007 86.91781 12.767945
53.39101 81.231804 14.092945
51.62401 79.29381 13.834946
66.83201 88.44981 26.963945
65.72101 89.7758 28.552946
73.23801 91.925804 37.748943
75.07801 91.32381 36.843945
5.5680084 29.80081 27.785946
6.46801 31.79881 29.888947
10.540009 31.524809 42.174946
8.507011 30.46081 43.283947
25.87101 32.07581 29.248945
24.02501 31.28781 30.670946
19.152008 26.837809 38.870945
20.03701 25.13881 40.002945
4.095009 2.0798092 1.5739441
4.7050095 3.753809 2.9029427
8.019005 9.542809 10.399944
6.9080048 7.410809 10.478943
46.06801 17.54781 11.020943
45.99201 16.133808 9.307945
44.74801 25.372808 2.964943
42.85701 26.71381 3.0799446
60.571007 60.37381 25.769945
61.47101 58.82981 25.039946
64.60301 67.66981 20.454945
63.25901 67.83581 22.466946
26.861008 89.21281 38.322945
25.409012 88.090805 36.896946
32.948013 79.480804 31.804945
31.887009 78.8608 33.516945
45.68401 91.72381 44.479946
44.98101 90.1918 45.169945
53.78801 92.87581 50.561947
53.11701 91.3318 48.499947
44.29401 -0.15419091 36.652946
45.56501 1.2488091 38.042946
44.180008 6.155809 45.572945
45.674007 7.184809 46.592945
18.364006 61.17081 28.281946
18.067009 60.98781 30.525946
19.463005 55.44881 39.119946
18.03701 55.606808 40.460945
1.9320068 0.5328064 20.594946
0.84900665 94.0548 22.580946
4.3490067 1.3278046 32.150944
3.791008 0.80680084 34.499947
55.918007 17.879808 30.930946
56.85001 16.546808 32.135944
63.01101 13.928809 26.223946
62.97501 11.388809 26.415945
44.96201 67.6908 57.921947
43.60101 66.714806 56.804947
46.208008 60.03281 9.039944
47.31401 58.01081 9.837944
0.20900726 65.16981 18.319944
73.94201 66.480804 18.461945
69.94301 66.256805 8.585945
71.948006 64.743805 8.134946
68.03701 84.76581 49.647945
67.05401 85.59981 47.882946
55.944008 79.07181 50.370945
54.460007 80.8438 51.308945
46.09601 9.822809 21.272945
48.28001 11.305809 20.848946
53.02301 1.6958091 17.466946
53.13401 -0.36419094 18.025946
72.04601 9.473809 26.838945
73.55801 8.358809 25.067945
72.13301 -2.6491911 27.903946
69.50501 -2.6791909 28.505945
35.997005 1.9757996 29.247946
36.179005 1.0658035 31.361946
27.70301 94.0938 36.614944
28.735008 0.11780548 38.488945
27.337013 29.53381 2.6369438
26.78801 30.53781 4.2069435
30.199013 41.654808 6.39394
28.937012 43.01781 5.3929443
31.151009 13.548809 25.557945
31.062012 15.984809 25.803946
22.75801 22.35081 30.166946
22.51101 24.587809 30.993946
68.71801 64.9408 43.447945
69.97001 64.79081 41.397945
67.10701 56.62881 38.234943
66.26601 53.905807 38.645947
4.4130096 73.33381 34.707943
4.229004 74.2058 36.239944
74.70401 79.43181 43.925945
73.11201 80.7468 44.259945
44.94601 92.18381 35.037945
44.15001 89.3588 35.052944
49.60601 86.104805 34.873943
50.22501 84.90281 32.716946
33.56501 68.04381 19.596945
32.838013 68.90681 17.606945
28.27401 69.57381 19.480946
28.257011 69.7058 17.511946
22.466011 47.349808 17.750946
20.716011 47.06881 16.063946
11.446007 45.86981 18.695946
10.890007 44.87881 20.371944
22.171005 7.2218094 4.2419434
23.113007 5.404809 4.446945
34.02001 5.463809 8.076946
36.040005 5.601809 6.534939
10.414009 61.58381 22.668945
9.088005 61.76981 24.439945
10.6790085 73.0808 24.394945
8.877007 74.366806 24.414946
10.391006 87.6218 33.453945
9.920006 89.562805 34.358944
19.404007 89.5968 28.309946
19.227005 87.602806 27.641945
1.9210052 77.50081 9.749943
74.81901 76.2348 8.916943
68.76801 82.592804 1.1639442
66.38701 81.57181 1.1459427
34.41501 32.022808 40.746944
36.60201 32.335808 41.641945
35.674007 21.33681 44.261948
33.14001 20.32981 43.756947
10.847008 30.861809 29.803946
11.886009 29.358809 28.761946
16.617004 31.059809 34.016945
16.867004 32.307808 35.532944
57.77401 10.774809 8.670945
56.30101 11.195809 7.4379454
51.58801 7.573809 12.108946
50.40101 6.102809 13.907946
21.128006 10.73881 18.463945
19.128006 10.9438095 19.391945
10.372009 8.969809 24.357944
11.626007 10.266809 25.198946
29.866013 41.36281 40.578945
28.549011 40.31681 42.321945
20.530006 40.897808 48.645947
19.111008 43.14681 47.836945
15.764008 14.445809 28.573946
15.097008 16.64581 27.210945
25.16101 16.580809 23.388945
26.306007 18.250809 22.870945
27.02501 15.12081 45.410946
26.320007 12.763809 46.412945
23.354004 7.040809 54.528946
22.116005 8.056809 55.659946
29.945007 38.495808 28.697947
32.131012 36.64281 28.823946
33.492012 27.82481 22.648945
31.38301 26.86381 22.140945
23.068008 73.33681 10.773946
23.309006 73.79181 8.588945
21.352005 76.76881 9.889945
21.88601 77.87981 12.208945
22.322006 90.93081 43.676945
23.492004 93.16781 44.684944
26.966011 88.213806 53.309944
25.484009 87.9978 54.935947
27.321007 69.116806 26.416946
26.166008 68.31081 24.049946
16.35601 61.51481 23.561945
15.185005 63.01381 22.578945
61.404007 77.78081 11.654945
60.757008 76.1488 9.800945
60.160007 78.92181 5.4259453
60.270008 78.90281 3.481945
19.700005 55.37581 52.311947
18.01001 55.03281 53.008945
19.380005 43.51181 51.085945
17.195007 43.877808 50.476944
33.640007 59.97581 36.710945
31.667007 58.24481 36.964947
20.71801 59.85481 37.374947
20.861008 57.70881 38.228947
8.061005 10.479809 12.937945
9.159004 9.121809 12.962946
12.794006 1.8068091 8.907946
14.073006 1.2188091 7.873945
68.67601 65.78281 11.545945
70.420006 66.01881 12.381946
71.43701 72.19681 15.862946
69.47101 71.5548 14.429946
54.82401 28.736809 45.685947
55.688007 26.58181 44.436947
56.62101 17.59681 44.321945
55.46201 15.813809 43.122948
57.598007 86.743805 27.268946
56.19101 84.90781 25.560946
60.01101 90.61181 21.570946
59.83901 89.68381 23.976946
3.5890045 63.76081 31.176947
5.293007 64.411804 29.727945
7.8440094 75.242805 26.835945
6.3790054 76.757805 26.008945
75.07401 70.7608 26.343946
1.2720108 70.5408 24.108946
5.9760056 63.26281 20.547945
6.626007 63.654808 18.433945
62.78101 35.28981 45.855946
62.890007 35.67981 43.838947
57.04701 45.67381 39.394943
56.370007 47.81081 40.330944
9.875008 67.47581 39.646946
8.06501 66.19181 40.323944
1.803009 75.70881 46.409946
2.0340042 76.8168 44.840946
41.07801 88.9018 31.958946
41.05301 90.06081 34.425945
34.527008 89.2058 42.072945
36.21201 90.35181 42.456947
37.33901 59.35081 43.336945
37.39401 59.82281 45.727947
34.180008 51.80481 53.866947
34.632008 53.96981 55.116947
33.403008 63.17381 34.572945
34.653008 62.95881 36.623943
42.646008 57.912807 35.540943
44.44201 58.82781 34.792946
31.090012 75.311806 45.325947
29.93901 74.3298 46.917946
22.35801 69.3738 53.251945
20.855011 70.32081 54.178947
41.910007 39.286808 29.812946
40.01501 38.65981 31.296946
36.05101 28.88081 38.142944
37.26901 30.36381 40.001945
70.17701 10.623809 49.084946
69.64501 12.668809 50.243946
58.620007 14.353809 46.369946
58.20701 11.800809 46.703945
14.432007 61.00181 5.478943
13.753006 60.613808 7.556942
8.161011 53.26981 11.440945
6.5200043 51.42481 11.698944
34.67001 55.95981 3.9349442
33.67001 54.953808 2.495945
40.83701 62.71181 56.187946
41.195007 64.47481 54.879948
47.959007 64.15181 57.571945
47.68601 62.32281 0.28494263
55.04501 66.8038 6.3559456
56.132008 68.297806 5.6619453
32.82401 7.251809 49.826946
33.23901 4.5328093 49.555946
45.17601 2.7518091 52.812946
46.069008 2.3298092 54.913944
53.53301 22.969809 29.855946
53.95001 22.23781 28.035946
52.85001 28.761808 18.269945
52.92001 27.22781 16.696945
65.088005 6.8928094 10.176945
64.19101 4.741809 11.371944
71.64101 7.500809 4.5729446
70.46601 6.129809 2.830944
41.44201 8.680809 41.735947
40.09201 8.324809 39.794945
33.896008 -0.9011909 43.237946
35.07101 -2.164191 44.481945
60.953007 3.4858053 30.408945
59.48501 2.515804 31.790945
54.31701 89.605804 23.422945
52.869007 90.7898 22.905945
61.064007 6.356809 32.061943
58.791008 5.300809 31.968946
53.432007 12.034809 39.797943
53.564007 14.445809 39.613945
11.295006 13.31681 35.004944
12.378006 11.2928095 36.182945
18.53901 5.5328093 32.384945
19.34301 6.573809 33.763947
47.945007 88.2478 52.445946
47.67001 89.08581 54.705944
42.034008 89.619804 6.002941
42.056007 91.755806 5.8389397
0.5450058 65.07481 21.139946
3.192009 65.12481 21.016945
70.19601 61.175808 25.386946
68.70501 62.161808 25.846947
61.995007 22.99581 26.663946
60.508007 20.80481 26.236946
57.55101 22.38381 16.907946
56.31701 22.167809 15.075946
37.83701 34.162807 26.923946
38.57501 33.88981 29.010946
47.96301 34.24281 35.466946
47.72701 32.43181 37.510944
51.78301 53.59881 39.331944
51.55201 54.22381 41.742947
47.15801 65.15481 41.161945
47.313007 66.826805 39.520947
35.304005 4.983809 36.342945
35.169003 3.598809 34.020947
31.38401 8.794809 39.015945
30.500008 10.301809 39.993946
54.710007 72.547806 11.946945
52.08101 72.64281 12.217945
44.02601 68.98981 19.081945
43.09301 68.3438 20.870945
21.09201 5.1508093 9.936945
20.680008 6.399809 11.537946
22.783005 15.296809 16.549946
20.89701 15.873809 14.848946
26.271011 28.149809 9.818945
28.695007 28.30881 10.0349455
34.97801 20.37081 15.363946
36.507008 19.243809 14.304946
62.17101 88.04281 9.587944
61.243008 88.80781 7.4089394
55.97801 85.73981 1.8249435
55.862007 85.771805 57.646946
56.481007 15.748809 46.601944
54.37901 14.095809 47.079945
57.69901 16.11781 57.873947
60.06501 16.067808 0.33094406
34.24501 64.2738 8.158939
32.67501 65.05281 9.038944
28.764008 75.034805 3.8989449
29.652008 76.76381 4.5249443
33.61901 84.617805 42.852947
32.350006 82.45881 42.351944
30.281006 82.1088 48.860947
30.40001 83.9128 50.588947
71.74801 52.523808 2.4119453
70.84001 53.50081 0.71894455
64.89101 47.42181 53.550945
65.94501 46.36581 51.588947
53.611008 4.307804 28.793945
51.31001 3.718807 29.153946
47.72501 90.0248 23.251945
49.223007 88.3588 22.832945
40.049007 5.424809 27.933947
39.646008 5.772809 25.157946
33.10001 12.694809 27.255945
31.98201 13.220809 29.357946
43.60201 41.34081 7.7959456
41.80201 41.93181 8.264945
47.73301 41.64281 17.729946
47.46401 39.99381 19.138945
26.93901 22.045809 23.193945
29.317009 23.028809 22.409945
22.917007 26.104809 14.109945
24.000008 24.823809 12.896946
6.8700104 48.03381 26.389946
8.71801 46.98981 25.809946
12.113007 36.88981 27.569946
13.185005 34.99781 26.673946
5.312004 23.694809 11.277943
5.3530045 21.36081 9.769943
8.358009 26.65281 0.3789444
6.696007 25.208809 56.963947
19.59401 37.780807 13.8439455
20.363007 36.022808 15.389946
27.581009 43.551807 19.109945
28.476013 44.071808 20.905945
40.51901 70.62981 22.433945
39.132008 69.7628 23.865946
32.19601 79.05981 25.483946
33.37901 79.31981 23.920946
4.1370087 75.367805 39.301945
4.404007 73.11181 39.209946
67.48501 72.5538 39.650944
67.44301 71.481804 37.556946
19.283005 20.49181 35.233944
17.034004 21.667809 35.019943
13.0920105 18.16281 31.079947
12.582008 18.680809 29.311945
42.26101 88.437805 40.869946
41.60301 89.0808 43.334946
41.30901 4.371807 35.125946
38.72101 4.682804 34.782944
62.153008 63.50081 50.596947
61.82901 61.86581 48.373947
60.91201 60.46981 55.477947
59.36501 59.01281 55.547947
8.975006 74.32081 5.4619446
7.192009 75.40581 4.4079437
11.604004 73.11581 6.691944
13.531006 72.548805 7.988941
47.68501 35.86981 47.000946
48.44301 34.76081 49.127945
60.035007 36.36981 48.742947
60.757008 34.16781 49.076946
58.076008 14.044809 8.645946
57.312008 14.464809 6.3269453
49.21101 17.40981 11.331945
48.62401 15.49381 10.201945
60.70701 68.8588 8.966946
61.292007 69.46081 10.842945
65.26501 79.0958 12.372946
63.37201 80.0238 12.106945
28.862007 32.93781 31.878946
30.39901 33.22881 33.940945
25.478012 23.78981 38.901943
23.499008 23.431808 37.302944
15.51001 57.08181 49.432945
14.721008 59.22781 48.418945
6.930008 65.338806 46.009945
5.267006 64.69381 44.855946
10.845009 61.73981 7.7989388
9.515007 60.00481 7.9969444
6.586006 55.40381 11.341946
4.6570053 53.37881 11.506943
39.62001 57.97581 43.628944
41.05101 58.76981 41.741947
44.75901 51.49281 32.350945
46.611008 50.68481 31.581945
11.94001 57.07481 26.909946
13.199005 57.09181 25.001945
10.326004 48.30581 17.423944
8.917007 47.39681 18.938946
45.472008 29.952808 0.051944733
46.40401 29.340809 2.1859436
47.903008 33.038807 51.532948
47.173008 35.419807 52.398945
59.98901 86.4278 30.034946
59.077007 88.2888 28.779945
60.230007 2.8238027 36.937946
62.173008 2.4048004 35.876945
71.84101 86.32181 38.842945
70.22401 85.008804 40.527946
63.159008 0.059799194 39.714947
62.113007 0.94680023 38.269943
51.39101 21.44781 28.489946
52.33201 19.56181 27.635946
50.21901 25.38081 18.760946
51.01201 25.098808 16.624945
50.382008 84.44481 1.7989426
51.17601 85.43381 3.6759453
49.32901 92.0518 14.596943
51.361008 93.4438 13.791943
21.581009 23.739809 15.591946
21.547005 25.96481 16.636946
22.574005 24.83181 28.170946
24.31501 26.29381 29.061945
35.633007 73.15481 44.924946
34.24901 73.591805 42.841946
22.297005 71.116806 42.242947
22.561005 69.3878 43.707947
64.51201 70.286804 42.447945
65.84401 71.54681 41.710945
71.337006 75.55581 49.110947
73.24701 75.910805 48.077946
54.326008 53.67881 38.493946
53.014008 51.551807 37.281944
48.65601 47.17781 46.503944
46.93301 45.66381 46.982944
4.313011 43.70281 0.54894257
6.0850067 44.19981 2.035946
16.208008 39.18081 4.085945
17.734009 39.98381 4.627945
33.19001 61.74781 55.073944
32.07301 61.95981 53.428947
38.889008 57.35781 46.265945
41.299007 55.551807 46.568947
45.61001 26.417809 42.528946
46.403008 28.719809 43.984947
50.36501 31.83581 37.199944
50.64901 32.161808 35.199944
52.979008 1.0888062 13.205946
54.56701 2.9128072 12.7519455
63.72101 90.3578 12.461946
65.29401 88.68581 11.973946
43.160007 27.643808 43.780945
40.88701 27.746809 43.372948
36.06001 37.36881 44.422947
37.95701 38.050808 43.554947
4.8460083 14.21081 14.259946
5.633011 14.431809 12.077946
17.424011 13.58781 13.416945
18.336006 13.131809 11.407946
43.153008 18.12481 34.084946
41.910007 20.174809 33.348946
49.792007 26.858809 27.242947
49.05101 28.65281 28.099945
29.94001 6.712809 19.950945
28.143013 5.343809 18.256945
26.115013 16.997808 18.391945
26.324013 15.5098095 20.505945
24.207008 28.69981 44.865944
25.64701 28.64581 43.606945
25.472008 36.092808 34.626945
24.99601 36.83781 32.463943
6.640007 56.842808 3.1439438
7.0260086 54.19881 2.4799461
17.825005 53.516808 2.3979454
17.73301 51.37581 1.3399429
46.07301 32.22981 4.3859444
48.09501 31.38181 3.4759445
55.590008 37.82281 3.646946
54.73201 39.30481 5.231945
55.215008 51.13081 34.598946
55.460007 53.46481 33.849945
61.681007 53.18681 24.446945
61.237007 52.80581 22.257946
7.8110046 65.73381 54.845947
8.852005 67.82181 54.882946
4.4720078 78.326805 56.520947
4.4920044 76.58481 57.978947
48.563007 18.175808 43.370945
50.701008 17.102808 42.122948
54.424007 23.55081 51.222946
54.785007 22.930809 53.607944
48.37101 32.18181 33.497944
49.57301 30.135809 33.622944
52.17001 19.07581 32.190945
51.534008 18.705809 30.168945
7.644005 4.443809 50.923946
8.577011 2.6628091 49.810947
19.366005 7.0788093 46.460945
19.223007 9.624809 45.870945
33.92801 56.04981 43.408947
34.71701 53.38881 43.441944
26.418007 54.45281 36.406944
24.549011 53.93681 35.405945
24.873009 47.530807 16.936945
24.916008 47.97881 14.252946
21.811005 44.69981 5.7649455
21.20401 42.25481 5.9899454
54.745007 74.35181 54.992947
56.777008 72.7068 55.755947
61.39901 69.881805 45.751945
62.40101 68.894806 47.229946
27.629013 5.217808 20.997946
25.96901 5.7948036 20.092945
16.456009 92.6348 20.041945
15.636009 90.5108 19.161945
0.6200104 38.63181 6.844944
2.4620056 37.61081 7.5159416
70.46701 26.555809 6.738941
68.85901 28.12081 8.175945
8.57901 77.65481 27.755945
8.943008 79.881805 28.694946
2.9000092 86.894806 24.197945
5.2560043 87.01781 24.825945
6.081009 12.077809 3.9589462
6.241005 14.365809 5.370945
71.71601 11.965809 55.936947
74.16501 13.248809 55.546947
14.671005 71.5798 46.240944
14.10601 69.3598 46.246944
21.929008 66.16781 51.658947
21.679008 66.852806 53.770947
60.826008 12.529809 0.7619438
61.17901 10.664809 2.3559456
72.114006 8.562809 1.5899429
73.65301 7.6948094 0.19094467
41.070007 16.236809 33.682945
39.05901 16.41981 33.937946
39.88601 23.90881 43.901947
40.86601 25.32481 41.734947
33.531006 41.99381 3.6769447
35.517002 40.940807 3.370945
30.988007 45.54781 54.523945
31.938011 47.599808 54.497948
18.985008 57.65381 52.627945
17.303009 58.21381 54.408947
8.325005 65.034805 52.097946
9.382011 64.563805 49.742947
51.140007 14.69181 38.380943
52.05401 16.633808 38.830944
43.09901 24.379808 39.358944
42.23501 22.746809 38.780945
34.53601 9.129809 54.278946
33.09201 10.76481 54.913944
27.863007 10.299809 44.581947
29.419006 10.355809 42.631947
6.4670105 63.22881 56.575947
4.8320084 62.75681 58.179947
69.00901 64.256805 52.008945
68.10201 63.32281 53.946945
30.99401 74.991806 2.233944
33.01001 75.98881 3.757946
34.979008 66.729805 11.786945
33.986008 66.76581 13.869946
51.584007 13.84281 35.756947
50.91401 12.222809 36.631947
55.70701 6.448809 27.483946
58.29601 6.2428093 27.398945
4.0160065 48.04081 31.837946
3.4360046 45.54281 32.187946
68.40101 41.70181 29.873945
66.48401 43.15281 29.824945
5.295006 17.198809 7.8619423
4.562004 19.21781 8.165943
72.46401 28.135809 2.2239456
73.78401 28.528809 0.19594574
5.4220047 32.622807 36.565945
4.9900055 32.157806 39.161945
8.597008 40.70581 37.961945
10.883011 40.50781 38.513947
59.30101 79.6508 14.289946
60.160007 81.159805 12.678946
55.58001 91.757805 17.728945
53.82201 90.33681 18.327946
5.493004 71.9718 8.433946
3.7120056 73.5108 9.590945
3.2970047 82.77781 13.146946
1.3980103 83.54581 12.547945
69.06401 53.391808 3.2939453
68.10701 55.35081 4.2609444
63.58201 47.967808 3.7159462
65.84301 48.99681 4.0469437
13.735008 30.86081 13.241945
13.382011 31.55081 10.970945
21.404007 23.13881 5.1329455
23.207008 24.222809 5.5309453
67.15401 42.41781 22.250946
65.84701 40.84581 20.968945
61.439007 38.05681 17.888945
60.73901 36.71881 15.977945
3.341011 26.31581 27.487946
1.8080063 24.716808 27.967945
74.24401 17.925808 29.591946
72.43601 16.522808 29.026945
68.30601 88.271805 4.618946
68.58301 89.86481 2.8599434
61.20601 4.474804 56.396946
61.210007 6.8298073 56.694946
49.35001 74.52781 32.275944
50.890007 74.4688 33.926945
57.66901 68.6248 26.672945
55.861008 67.65381 24.671946
27.74601 71.04581 30.574945
27.459007 71.243805 28.334946
22.917007 79.356804 25.313946
23.591011 81.1368 26.408945
22.928009 0.80080414 9.011944
21.098007 0.7338028 7.0939445
21.486008 0.041801453 55.403946
23.32801 93.729805 54.092945
21.113007 57.46181 18.021946
20.076004 55.84581 18.472946
11.400009 50.50581 25.408945
10.521011 53.22281 25.578945
3.027008 63.96881 16.974945
4.41201 63.59481 15.4099455
12.910011 68.54181 12.639946
14.803009 69.97481 11.862946
55.60701 83.1628 30.458946
57.335007 82.980804 32.228947
62.03801 88.147804 30.754946
61.39301 90.25081 31.273945
62.147007 21.37781 30.381947
62.057007 20.656809 28.846947
67.80601 11.222809 25.788946
65.58001 11.09981 25.937946
16.740005 20.05881 32.768944
19.487007 20.75681 32.549946
21.721008 28.774809 21.925945
23.485008 28.657808 22.895945
2.6720047 18.083809 11.332946
4.6810074 18.73081 11.074945
11.581009 16.230808 20.205946
12.514008 17.126808 22.154945
31.043007 20.94681 0.2859459
32.005013 19.38881 56.641945
38.51801 25.20081 52.641945
36.744007 26.62781 53.258945
45.23101 64.96981 38.318943
