19.440035 100.92123 16.335098
21.178034 100.44423 14.518105
26.904036 111.910225 10.0401
28.504034 110.90123 8.481102
9.030037 102.842224 25.596104
11.385033 102.97623 25.808104
6.518036 100.52523 35.776104
6.6990356 102.48222 37.020103
59.212036 59.63623 2.257103
0.61003494 60.79823 2.316105
0.1340332 67.34423 14.072105
0.9800339 68.95723 13.198105
7.129036 45.26023 26.071104
7.6160355 44.20423 27.657104
57.777035 40.25523 30.774105
55.963036 40.81523 30.259104
12.162033 52.57523 54.806107
13.105034 53.619232 53.202106
6.869034 62.27323 46.425102
8.460037 62.126232 45.033104
29.438036 76.325226 6.084099
31.425035 76.30423 5.3431015
27.956036 78.98623 58.352104
26.872034 80.86523 58.937103
8.053032 53.793232 2.038105
6.0210342 53.383232 1.8301048
58.456036 59.35923 58.025105
59.118034 61.56523 58.507103
34.117035 69.11123 44.553104
34.580036 68.660225 46.462105
31.886036 56.35923 49.520103
34.027035 55.584232 48.992104
15.588036 79.25223 24.364105
14.926033 80.29123 25.971104
20.900032 76.62823 35.130104
19.532036 75.60123 36.600105
45.468037 15.19323 52.875103
47.226036 15.8602295 54.066105
45.416035 26.737228 53.483105
45.410034 27.544228 56.077106
25.760035 29.141228 1.9871025
27.369036 29.153229 0.5301018
34.511036 35.79623 2.5711021
36.475037 36.245228 2.1161041
44.256035 53.56323 20.179104
45.119034 53.25323 18.025105
56.656036 55.87123 17.860106
57.457035 53.45223 16.940105
29.802034 39.36623 21.921104
29.697035 41.60323 23.022104
36.888035 45.81523 27.596104
38.300037 47.53423 28.299105
32.308037 77.72423 7.5651016
30.084036 78.37823 8.0681
37.517036 87.39922 3.611103
39.152035 86.020226 4.354103
18.617035 26.618229 5.6831055
17.541039 27.182228 7.6571045
14.126038 30.51023 13.589104
14.014038 32.24723 14.590103
19.675034 72.45422 23.611105
18.586037 71.79623 25.758104
18.845032 61.59723 21.221104
18.616035 59.03823 21.023104
52.288036 18.86423 2.6431046
52.830036 20.94023 2.8531036
0.32403183 24.629229 58.429104
60.536034 22.950228 56.996105
53.248035 43.20323 53.141106
55.401035 42.93123 53.334106
55.846035 38.65923 58.606106
54.343033 36.90823 59.455105
16.604034 41.20323 43.605103
15.828033 38.48423 44.579105
18.232033 36.22123 54.441105
19.911034 37.39023 55.594105
28.389034 30.86723 37.974102
27.988035 31.42323 35.894104
26.997034 22.846228 28.755104
26.326035 21.097229 27.860104
35.121037 71.465225 29.170105
35.560036 69.48322 29.311104
33.971035 68.91523 40.996105
35.408035 67.630226 42.393105
56.625034 78.51723 35.200104
57.665035 78.57423 37.054104
5.775032 81.53123 37.846104
7.846039 82.270226 38.247105
24.954035 48.65923 38.895103
24.549034 49.42323 36.773106
26.895035 38.69723 33.950104
28.252035 37.29823 35.286102
52.550037 86.47623 59.091106
50.419037 87.648224 59.309105
43.990036 91.56923 8.643105
43.926037 93.21822 6.6971054
33.261036 7.6592293 20.287102
31.391035 6.812229 18.666103
23.696035 13.66723 13.344101
24.423035 13.343229 11.642105
37.250034 69.22623 18.097103
39.727036 69.44723 17.065105
34.751034 74.57123 6.0980988
34.538036 73.83123 4.219105
41.115036 30.31923 21.747105
38.981037 29.692228 21.137104
31.884035 31.160229 29.110104
32.410034 31.45423 31.183104
49.213036 52.83223 9.240105
47.139034 52.47223 8.062103
38.401035 46.28223 11.069099
37.925037 44.25623 10.6521
55.010036 44.05823 22.686104
54.681034 45.93323 24.078104
1.6010323 51.26723 20.926105
2.1630325 53.22023 21.914104
29.394035 27.396229 41.323105
28.025034 25.474228 41.939102
29.512035 14.560229 35.744102
32.373035 14.256229 35.833103
19.443039 14.84423 46.148106
18.489037 15.015229 48.063103
14.252037 6.9952292 45.722103
12.929039 9.09423 44.727104
7.818039 81.742226 8.812103
8.820038 80.04623 9.810104
0.26503372 83.771225 6.2341003
60.251034 83.92622 4.6511
15.017036 52.39523 54.583103
14.153038 50.65623 55.276104
19.328033 40.598232 57.276104
18.399033 38.80823 57.846104
29.443035 86.367226 57.488106
30.657036 86.27422 55.902103
34.593037 84.74923 45.938103
33.166035 85.563225 44.070103
35.387035 96.90423 39.238106
33.912037 95.14023 39.496105
39.371037 86.81622 37.691105
39.288036 85.22023 36.271103
29.880035 3.7962265 49.426105
31.104034 2.2322235 48.937103
36.039036 3.5932236 41.532104
37.220036 1.8002243 40.708103
0.45803452 41.91223 22.132105
0.8710327 39.60923 22.574104
8.555038 31.715229 21.899105
8.811035 30.140228 20.942104
31.110035 86.95723 59.308105
33.817036 86.86223 59.609104
35.488033 79.077225 6.177101
37.449036 77.631226 5.1051025
40.902035 25.251228 32.020103
41.761036 23.38523 31.047104
45.654037 15.91323 27.516104
44.179035 14.296229 28.528105
60.290035 44.69423 52.885105
58.898033 43.23323 52.415104
56.535034 41.01023 50.525105
54.569035 41.67823 51.088104
4.2270355 77.23222 42.531105
4.556038 75.13723 44.034103
4.0210342 68.53723 38.674103
2.2700348 66.826225 38.902103
53.806034 77.09422 17.849104
53.183033 77.57922 20.166105
57.848034 86.23823 19.048105
55.893036 87.826225 19.044106
8.013039 7.007228 44.648106
8.333038 4.444229 44.387104
10.408035 1.9292297 33.936104
10.257034 4.172226 33.494102
17.909035 49.48123 4.7041016
15.708038 48.890232 4.854103
11.647034 38.86423 1.2061043
11.603035 37.98323 58.863106
60.068035 83.617226 13.732104
59.497036 82.880226 16.072105
52.223034 79.33823 22.180105
49.459034 79.54423 22.527105
4.431038 55.98223 29.587105
3.6610336 57.59623 30.416105
6.1990356 65.14923 32.390106
5.4340363 66.99923 31.335104
14.344032 29.01323 28.392105
13.061035 30.977228 28.307104
21.115032 37.58623 27.148104
21.245033 39.22523 29.238104
3.7070389 42.52823 10.884105
2.0640335 41.61423 11.976105
7.7980347 41.95723 22.692104
7.204033 44.56723 23.416105
49.321037 47.58723 1.3951035
50.262035 49.87323 1.3181038
49.967037 50.68223 50.128105
51.652035 52.69923 51.220104
31.482035 92.60023 43.145103
30.490036 93.105225 41.236103
36.853035 86.951225 34.346104
36.575035 87.216225 31.889105
24.975035 26.02723 1.163105
26.837034 26.634228 59.143105
20.061035 34.863228 56.784103
21.272036 34.22523 58.615105
42.100037 1.8072293 57.640106
44.266037 1.3582294 58.628105
48.092037 13.43823 54.953106
49.677036 13.902229 53.814106
51.704037 51.543232 48.195103
50.516037 53.55123 48.526104
42.185036 52.92423 44.166103
41.881035 51.72023 42.965103
58.641033 9.74023 54.464104
58.349033 8.935229 52.391106
60.201035 113.048225 0.7611046
59.609035 110.80823 0.030101776
17.993034 0.7032242 21.928104
20.044037 0.12522888 21.043104
18.720032 2.000229 32.508102
16.840034 1.3332291 34.038105
0.99703217 0.39822388 22.144104
1.5060349 1.684227 20.922104
1.1850319 106.382225 17.882105
1.1460342 107.34523 20.124105
13.476036 51.91423 50.805103
14.130035 50.01023 52.432106
13.283035 41.29523 54.407104
14.353035 39.48923 55.906105
9.563034 31.269228 38.450104
9.391037 33.54023 38.354103
1.4350319 27.89223 29.733105
0.92103195 27.059229 31.794104
54.761036 41.43823 46.364105
54.391033 39.39223 45.085102
51.417034 33.939228 54.799107
51.465034 31.60023 55.019104
33.262035 3.9412293 1.1791039
34.864037 5.2182293 0.57510376
40.071037 12.16723 57.807106
42.030037 11.404229 57.027103
56.918034 102.40623 51.696106
56.470036 101.36223 49.528107
2.8630333 99.922226 45.711105
4.718033 100.868225 47.144104
40.623035 93.28123 7.4351044
41.588036 93.15723 9.328102
46.570034 90.58223 9.575104
46.429035 92.202225 9.616104
24.514034 68.16123 4.491104
23.589035 66.79023 2.941105
13.401039 65.55623 58.222103
12.022034 66.04123 0.2331047
14.751035 64.06823 54.460106
16.499035 62.75423 55.181107
25.486034 68.49123 48.086105
27.232035 66.91723 49.127106
17.62304 48.62123 16.312103
19.339035 48.04023 15.288101
13.932037 42.20123 12.1241
14.046036 41.55123 9.309105
52.640034 58.94523 37.677105
51.669037 60.91223 36.429104
45.648037 68.29123 40.968105
48.202034 68.839226 40.732105
49.773037 17.01623 56.900105
49.133034 14.57523 57.255104
39.966034 11.980229 0.9041023
38.369034 10.779229 1.4071045
47.162037 103.898224 3.7421036
45.200035 102.633224 2.967102
38.945034 95.33223 8.6091
40.368034 95.12423 10.758102
18.669037 40.05523 2.1941032
20.291039 41.08523 3.913105
23.027035 50.508232 55.245106
21.089035 51.98323 54.809105
57.468033 111.047226 2.2701035
59.343033 109.16623 2.6921043
56.650036 97.784225 2.684105
54.985035 96.51523 1.3501053
45.223034 25.854229 1.7461052
46.830036 23.60023 0.27810287
54.189034 25.425228 50.959106
55.181034 24.441229 49.317104
9.668037 66.60223 36.957104
10.736038 65.39223 38.139103
17.944038 56.63423 38.712105
15.938034 55.480232 39.453102
37.203037 101.14123 5.0221024
39.230034 101.868225 5.3601
40.315037 108.604225 15.121101
41.546036 110.44623 14.086105
5.6700363 106.908226 35.438103
6.5030365 107.00323 37.807102
60.027035 99.16423 40.630104
57.627033 98.82323 41.840103
47.635036 94.78923 47.701103
48.776035 93.924225 48.802105
44.244034 90.46123 57.147106
42.868034 88.95422 57.769104
39.718037 38.16423 54.232105
40.800037 38.79823 56.051105
46.040035 29.90923 55.106106
47.010036 29.460228 52.802105
47.859035 102.19122 17.729105
48.627037 101.33823 15.463104
59.793034 103.44923 17.260105
60.210033 102.48322 15.658105
50.224037 2.4212265 9.149101
49.398037 3.9882278 7.866104
57.080036 112.79523 5.167099
58.814034 1.2992249 5.424103
52.900036 99.840225 48.576103
52.908035 100.55723 51.175106
48.760036 109.12523 57.485104
50.471035 110.12823 58.863106
56.121037 38.834232 32.303104
54.610035 37.38023 31.164104
54.679035 28.71823 22.704105
52.627037 29.956228 22.860106
31.845036 105.18023 43.200104
31.746035 104.99622 41.092102
24.432035 98.06622 34.921104
25.706036 99.39223 33.407104
10.834038 52.52023 24.557104
10.486038 54.50423 24.907104
11.3780365 44.09423 25.273104
12.302032 46.02723 23.594105
53.050034 54.47923 26.878105
52.176037 53.66923 28.964104
56.957035 58.90323 34.571102
56.567036 60.81923 34.669106
45.325035 16.11423 23.481104
46.112034 14.18123 22.562105
54.488033 11.581229 29.692104
56.554035 11.651229 29.161104
35.123035 104.35722 26.717104
35.998035 105.605225 24.742104
45.649036 102.61423 30.151104
46.520035 103.58623 32.118103
20.112038 52.37423 52.355106
20.457039 51.21923 50.438107
19.615036 56.42823 40.663105
20.836033 54.81823 39.453102
29.546036 11.83923 51.749104
29.143036 9.88423 53.572105
23.598034 8.446229 3.3321037
23.534035 6.852229 4.753105
29.677034 23.300228 28.339104
29.006035 23.373228 26.374104
20.877035 30.686228 21.143105
21.459034 33.25423 21.468105
26.049034 10.124229 29.940104
27.639034 10.29223 31.002104
34.732037 9.890229 37.071102
33.274036 11.264229 36.172104
48.282036 87.71822 31.897104
50.171036 88.30323 33.109104
54.193035 82.062225 24.029104
55.925034 79.91823 24.690104
44.587036 104.521225 41.333103
45.183037 103.30523 39.366104
50.741035 98.81923 32.896103
52.021034 97.49123 31.505104
37.609035 68.04323 11.797104
35.733036 66.51423 13.022102
45.463036 63.04723 19.647102
47.662037 63.77423 18.872105
16.848038 20.94623 42.550102
16.096039 22.450228 44.327103
16.864037 27.081228 34.393105
15.573036 25.86723 32.832104
1.0830345 67.65223 49.432106
60.533035 66.62223 48.138103
51.574036 71.50023 45.321102
50.444035 69.31923 46.210102
51.103035 40.54723 30.867104
53.433033 40.74023 31.001104
60.218033 48.44723 36.603104
0.8630333 46.591232 38.131104
48.541035 73.86423 41.641106
48.753036 71.745224 41.425102
50.474037 68.73323 33.658104
49.155037 70.10923 34.494102
7.8850327 65.644226 35.162106
9.557037 64.66623 35.373104
2.9890327 57.86123 43.165104
1.438034 57.605232 41.953102
21.192032 8.58723 2.2981033
19.240036 8.640229 2.1591034
17.020035 16.160229 10.084099
19.108032 16.79723 11.427101
22.749035 101.617226 34.745106
22.838032 100.70723 32.481102
13.879036 93.51323 29.944105
14.106033 92.759224 27.422104
52.200035 112.45522 36.746105
51.357037 110.08123 37.637104
47.394035 111.578224 47.463104
48.900036 110.411224 47.623104
29.290035 0.58322906 18.795105
29.693035 112.90723 16.836105
34.977036 6.763232 17.685104
35.646034 8.493228 19.118103
26.003033 70.937225 43.286102
23.622032 71.37623 43.769104
16.52604 74.92722 45.529102
15.468033 73.42722 43.580105
7.1540375 90.08623 44.373104
7.276039 90.36223 46.536102
3.6330338 82.08323 54.223106
3.315033 81.83723 56.189106
21.168036 58.918232 52.274105
23.338036 58.355232 51.467106
25.313034 61.23423 40.903103
26.164036 61.21923 39.149105
8.057037 63.71223 41.176105
8.730034 64.88423 39.543102
13.199036 74.786224 44.564102
11.293037 76.633224 44.240105
53.757034 7.0922294 4.6240997
53.476036 5.4082294 5.892105
42.232037 5.4262295 2.8111038
41.096035 6.6772294 3.377102
2.2710342 25.882229 55.733105
2.860035 27.287228 54.736103
6.619034 32.83623 49.888103
7.8260345 34.70223 48.528107
13.473038 77.43123 23.161104
13.1890335 76.009224 20.990105
12.155037 79.59923 12.333104
13.669037 80.01223 11.076104
31.900036 110.91923 16.897104
31.336035 110.21822 19.149105
22.627035 103.506226 17.134104
22.707035 101.243225 18.099104
25.536036 100.520226 28.057104
24.155035 101.814224 29.038105
15.953034 108.923225 23.956104
16.674034 109.689224 22.025105
30.609035 51.161232 26.750105
28.542034 51.21023 28.093103
33.694035 55.82123 36.084103
32.137035 57.78123 37.192104
59.740036 113.147224 36.414104
57.793034 113.39223 38.269104
55.572033 7.149234 44.929104
54.633034 7.783229 46.542103
27.903034 59.37323 50.920105
26.140036 58.72623 50.084106
18.120035 59.95623 49.594105
18.511034 61.13623 52.079105
4.137039 7.8402295 11.069099
4.9090347 5.9022293 11.1311035
11.258034 14.888229 10.727104
12.029037 14.59223 12.5411
33.355034 31.431229 9.698105
34.738033 30.604229 8.935104
33.146034 26.828228 57.954105
35.277035 25.872229 59.271107
13.165039 73.144226 20.390102
14.428032 73.07223 18.408104
11.363037 78.53023 9.486099
12.572037 77.797226 7.6641006
9.8520355 17.414228 56.664104
11.585037 16.09323 55.761105
17.030037 20.859228 46.778103
18.616035 22.122229 48.198105
59.795036 42.04123 41.971104
1.2330322 41.848232 43.006104
9.405037 36.83223 41.308105
11.236038 36.75023 39.868103
43.023037 12.715229 24.142105
43.488037 14.20523 21.957104
40.543037 23.870228 21.728104
39.881035 25.918228 23.496105
37.011036 95.90523 36.277103
36.793034 96.23523 34.245106
46.202034 88.44723 33.438103
45.949036 87.522224 35.518105
1.0160332 94.87222 34.513103
2.8700333 96.45522 35.054104
60.152035 102.243225 25.354105
59.876034 101.19323 22.668104
55.557034 61.286232 51.864105
54.973034 60.67323 49.958103
47.514034 60.82623 43.942104
46.811035 62.15723 42.185104
30.216036 35.98223 10.588104
28.872036 35.141228 11.839104
21.296034 31.667229 16.572105
21.103035 30.235228 18.258102
46.028034 6.140229 44.061104
44.351036 7.2512293 45.736103
49.923035 16.994228 41.354103
48.646034 16.15123 39.464104
41.175037 101.51823 57.062103
43.191036 102.88723 56.602104
52.000034 98.05222 51.575104
51.099037 96.868225 50.079105
38.948036 88.69623 33.323105
39.254036 87.82922 35.173103
42.266037 99.33623 38.505104
41.059036 99.78023 36.821102
26.115034 65.28623 16.641102
26.472034 62.70623 16.380104
36.849037 60.55523 12.4040985
38.032036 62.90923 12.370102
38.590034 108.217224 50.693104
36.967037 107.785225 49.444103
28.710035 1.0622253 50.088104
28.001036 1.7272263 52.249104
53.216034 79.46922 4.6331024
54.661034 77.96123 2.9261055
59.346035 71.90123 58.330105
0.28103256 73.34723 57.157104
20.421036 75.881226 10.736099
20.939034 75.81522 12.760101
12.599037 70.216225 11.667099
12.448036 68.15623 11.336105
27.855036 105.019226 4.149105
25.545034 104.547226 5.2490997
19.416035 112.73923 4.7351
17.358034 111.950226 4.3811035
58.229034 109.214226 37.144104
56.314034 108.46922 37.299103
54.305035 98.46223 43.894104
53.636036 99.44022 45.913105
16.774033 23.015228 5.2251053
17.531036 21.713228 2.913105
9.898033 19.16923 0.45610428
11.988037 20.29423 59.411106
10.697037 85.77523 34.484104
9.573036 86.40323 32.841103
10.289032 86.22023 23.979105
12.469032 85.537224 23.432104
55.286034 80.589226 6.239105
55.638035 82.88522 5.5391006
1.8910332 87.12823 0.8141022
2.6920319 86.033226 2.4361038
17.644035 46.13223 16.739105
15.712036 46.13023 18.224104
22.267033 39.42323 25.073105
23.228035 41.64823 26.346104
45.413036 95.33823 12.191101
44.825035 96.10822 13.742104
36.620033 86.98322 14.350105
34.142036 87.19323 13.239105
8.201035 51.03023 44.606102
10.445038 50.27123 45.780106
14.474037 62.82323 46.800102
16.716034 61.47023 46.233105
6.068039 89.15523 23.590105
6.171036 87.30523 25.147104
1.9430351 77.758224 27.164104
0.112033844 77.773224 29.001104
2.450035 112.16623 24.005104
3.6870346 110.01523 25.066105
8.928032 3.186226 20.392105
10.760033 3.73423 19.325104
57.475033 90.12423 59.279106
56.687035 92.11323 58.186104
1.2780342 96.55723 49.595104
3.6450348 94.94823 48.325104
29.724035 85.76723 31.601105
28.884035 87.548225 31.781105
37.049034 90.076225 31.854105
38.780037 89.063225 30.136105
27.080034 48.88823 27.633104
25.730036 49.80823 26.363104
21.181034 58.97623 23.860106
19.655035 59.94023 23.269104
13.649033 100.162224 38.719105
15.119034 102.117226 38.225105
23.422035 105.90323 44.942104
24.676037 105.172226 42.728104
18.091034 28.942228 53.374104
20.297035 28.067228 52.992104
21.191032 29.456228 3.0181046
22.961033 30.43323 1.7681046
19.344032 14.97423 13.543098
21.245033 13.6692295 12.1241
18.381035 4.7372293 7.6031036
16.549034 4.8502293 6.7351
12.233032 18.77623 43.335102
12.006035 17.10323 45.345104
2.5070343 20.438229 38.640102
3.2720337 21.873228 40.354103
26.061035 96.89023 32.656105
26.068035 95.25023 34.781105
28.024035 91.45522 44.337105
29.206036 93.47123 44.145103
50.571037 75.813225 27.398104
51.675037 77.12323 28.882105
52.396034 83.35822 38.571102
51.176037 84.521225 37.787106
16.979034 73.439224 18.678104
18.607033 71.74023 19.982105
13.372032 60.67423 18.505104
11.048035 60.76423 17.262104
30.550035 89.48923 46.144104
29.123035 88.884224 44.506104
30.779036 81.270226 36.348103
31.470036 82.03123 34.411102
30.085035 39.52123 10.274101
28.278034 37.59723 10.148102
31.051035 44.28123 17.549103
32.359035 45.82923 17.601105
5.643036 48.75923 45.081104
5.2010345 48.30823 47.258102
59.662033 47.14123 52.194103
58.613033 47.32723 54.277103
19.936035 26.295229 15.596105
20.372032 28.18023 16.326105
11.044037 27.31523 15.041104
9.449036 28.946228 14.828105
35.710033 94.617226 10.714104
34.097034 93.742226 8.673103
38.865036 85.47523 11.7061
39.810036 85.83223 13.620102
31.850035 12.67423 33.612103
31.177034 14.75023 33.000103
19.199036 11.684229 33.509106
19.484035 13.770229 32.365105
32.527035 70.09322 16.818104
30.999035 69.44423 15.719105
33.310036 68.952225 24.572104
34.035034 69.257225 26.737104
16.435036 55.32423 34.746105
17.972038 55.19023 36.416103
19.865036 65.00223 35.217102
20.116035 66.09623 36.805103
48.996037 29.31923 55.607105
47.884037 29.247229 57.288105
46.669037 34.95423 6.4491043
45.201035 34.22923 8.126099
54.259033 28.269228 20.186104
51.663036 28.83323 20.518105
47.213036 32.29023 11.423103
45.362034 33.55323 10.752098
23.654036 99.73222 15.194099
24.857035 97.80222 16.089104
18.535034 88.703224 13.538101
19.514034 89.17923 11.591103
34.551037 11.149229 39.559105
36.474033 10.284229 39.417103
42.541035 19.20023 38.557102
42.987034 19.750229 35.649105
51.142036 49.404232 19.112103
49.208035 48.55923 17.062103
41.237034 47.88123 11.307098
40.682037 45.76423 12.565102
11.649033 87.50123 42.292103
13.794037 86.798225 41.045105
16.912033 75.882225 42.841103
18.777039 75.78023 41.511105
17.025032 51.161232 47.897102
18.025032 51.06123 45.277103
23.221035 47.24723 50.337105
25.356037 46.99923 51.191105
54.159035 56.43223 45.887104
56.062035 56.85323 46.292103
52.640034 54.244232 39.186104
51.624035 53.73823 37.108105
44.427036 73.535225 2.8051033
45.317036 70.854225 3.750103
43.508034 74.436226 57.345104
44.007034 75.18223 55.117104
19.869034 1.9672241 5.755104
20.996035 3.9052277 6.406105
25.928036 3.1672287 54.355106
27.963036 3.2322235 54.497105
35.561035 110.855225 42.016106
36.753036 112.95723 41.655106
36.461037 111.49023 33.008102
36.020035 0.34423065 33.051105
7.233032 22.38123 27.433104
6.938034 20.26723 27.849104
58.442036 24.321228 36.078102
60.080036 25.745228 34.917103
10.296036 69.23523 56.891106
10.151039 67.48423 55.420105
59.834034 69.187225 56.707104
60.552036 68.60523 58.653107
6.331032 37.46523 52.753105
4.7310333 38.69423 53.755104
59.277035 39.89923 45.415104
0.6240349 41.21223 46.017105
7.6580353 6.5062294 31.351105
8.611038 6.2562294 33.211105
19.04004 8.998229 32.170105
19.557037 10.514229 30.603104
5.4490356 8.869229 55.897106
4.2880325 8.2022295 57.628105
14.274033 5.5522294 4.814102
15.520035 4.0372295 4.1031036
51.146034 65.61023 7.1431046
53.138035 64.271225 7.578102
56.050034 61.11123 16.190102
57.074036 62.56223 17.949104
59.957035 89.72123 21.554104
60.576035 90.07423 19.209105
6.7770386 90.437225 15.0581045
7.7840347 89.423225 13.1241045
46.350037 65.45823 7.8350983
48.502037 64.75123 8.227104
54.721035 74.01723 9.7561035
56.440033 73.61523 11.660103
52.039036 15.123229 8.375099
51.950035 17.74623 8.505104
51.968037 25.429228 7.2351
49.891037 25.240229 8.893105
29.493034 36.33223 32.611103
30.538034 35.127228 31.483105
23.136034 37.55523 30.184105
24.491035 37.09123 31.998104
28.771034 49.89523 30.539104
30.355036 48.52423 29.075104
38.385036 53.48223 24.617104
39.619034 54.31023 26.791105
41.005035 100.98222 31.725105
41.175037 99.590225 34.047104
50.647034 96.52623 28.977104
51.807037 95.561226 27.196104
13.750038 66.28623 33.326103
14.605034 67.285225 31.703104
23.524033 72.97323 31.802105
22.455032 73.81622 29.867104
11.122032 48.751232 37.358105
11.685036 48.18723 35.022102
18.217033 42.00523 29.663105
17.566032 41.28823 27.758104
18.062035 75.38923 23.089104
20.174034 75.689224 23.134104
25.249035 75.48823 28.211103
24.095036 77.24123 29.537104
51.460037 89.27623 56.124104
50.312035 88.23923 54.243103
55.245033 98.43023 50.960106
57.150036 98.48322 50.805103
6.412033 25.23223 58.286106
4.318039 25.773228 59.165104
60.616035 34.99823 58.084106
60.080036 37.314228 57.997105
11.045036 54.77423 21.297104
12.718033 55.15823 23.353104
21.458035 47.74323 19.822105
20.627037 49.27623 17.817104
53.706036 75.368225 36.989105
53.508034 74.32423 38.720104
55.780033 63.66623 35.669106
54.221035 63.37323 34.277103
20.613037 87.08022 50.575104
19.083038 84.80923 51.761105
18.769035 94.19423 59.516106
20.703033 94.80122 58.726105
45.775036 20.313229 12.173104
46.984035 21.754229 11.609104
48.076035 29.806229 21.334105
46.653034 29.064228 22.872105
14.932037 70.52923 7.4460983
16.01204 70.355225 9.409103
23.730034 76.188225 3.2911034
25.878033 75.61423 2.9491043
38.955036 24.596228 14.208099
40.274036 25.345228 12.841103
33.201035 24.872229 6.9011
32.106033 22.515228 7.936104
60.111034 108.45723 5.7761
0.95903397 109.76623 4.794098
5.337036 101.091225 11.960098
7.079033 100.58423 12.303101
21.057035 25.83623 40.843105
23.854034 25.24623 40.888103
23.225035 16.678228 43.828102
23.575035 14.248229 44.580105
33.084034 81.17923 32.259106
33.613033 80.96123 30.570105
42.829037 87.244225 27.379105
43.750034 85.16423 26.590105
21.721035 48.91623 4.330101
22.713032 49.209232 2.5201035
20.976032 57.60823 55.020103
19.050034 58.55723 54.472103
29.345036 110.755226 59.606106
27.452034 111.46123 59.205105
18.185036 111.27523 57.426105
17.629034 108.93523 57.856106
29.788034 111.674225 12.504105
31.307035 110.40123 11.793098
26.923035 100.58423 10.635101
29.150036 100.25023 10.008102
27.997034 55.84923 52.305103
26.345036 55.91523 50.213104
27.970036 53.59623 39.208103
29.977036 53.21923 39.199104
0.27303314 32.67023 36.656105
1.4320335 30.556229 35.283104
10.596039 29.467228 36.383102
12.782036 27.943228 36.675102
16.587036 101.13622 21.750105
17.374039 100.97523 24.035105
24.058033 96.133224 30.996105
22.457035 94.83823 31.580105
39.412037 24.945229 51.537106
41.269035 25.411228 50.077106
42.130035 28.404228 40.066105
44.522034 28.389229 41.177105
56.808033 18.95023 58.125103
55.216034 17.227228 58.307106
2.9940338 12.585229 7.4371033
1.9130325 14.116229 9.385101
52.292034 1.9652252 24.826105
53.297035 3.9992294 24.739105
56.911034 5.7402296 35.429104
58.508034 4.663231 35.331104
38.259037 14.234229 58.696106
37.574036 13.668229 1.0461044
29.663034 8.52323 56.004105
29.164036 6.5802293 57.045105
24.686035 70.87423 0.37610245
24.728035 68.603226 0.8651047
24.467035 62.72423 5.021103
27.081036 62.48123 5.127098
42.376034 16.05523 45.597103
44.225037 17.108229 46.722103
50.313034 20.441229 48.893105
50.353035 21.85023 50.205105
48.077034 30.066229 26.701105
50.039036 29.994228 25.598104
49.376034 27.198229 37.464104
51.269035 27.721228 39.091103
58.171036 109.547226 34.315105
60.146034 110.826225 35.125103
54.416035 1.5272293 30.460104
55.126034 0.32222748 28.565104
0.7590332 23.281229 40.842102
59.922035 23.452229 38.973103
59.716034 35.03523 40.894104
0.17203522 37.01023 42.096104
43.482037 40.18023 58.758106
45.426037 41.42023 59.385105
45.131035 52.64423 58.489105
43.200035 53.37023 58.316105
4.787033 91.85023 46.855103
3.065033 90.59923 46.085102
1.0260353 81.40523 50.625103
0.2040329 79.661224 52.115105
53.180035 10.791229 47.597103
55.632034 11.701229 48.873104
53.435036 16.45723 55.840103
51.668037 15.579229 55.178104
35.692036 31.797228 31.427105
35.558037 34.34023 32.326103
34.414036 38.26923 22.913105
33.533035 36.30823 22.179104
48.151035 40.28723 30.718103
46.464035 40.42023 31.972105
39.838036 36.60423 24.540104
37.389034 36.72823 24.031105
37.613037 55.17123 47.418102
36.701035 53.50223 48.687103
33.346035 47.48323 53.518105
31.617035 48.43023 52.613106
0.096035 85.51223 15.893105
58.606033 85.45823 16.616104
51.984035 92.662224 15.174103
52.087036 94.939224 15.1800995
34.393036 84.47723 14.325104
36.576035 84.43223 13.1521
41.486034 78.83623 6.7701035
43.136036 77.51623 6.252098
15.8400345 13.150229 52.858105
16.496033 14.92723 50.718105
17.596039 23.06923 0.52210236
15.699036 21.816229 0.8241043
22.566034 32.13723 50.807106
22.736034 31.023228 48.812103
27.610035 33.96823 37.934105
26.935036 35.56123 36.864105
6.7630386 84.85223 14.264105
8.179039 83.21323 14.188105
13.241035 82.80723 23.256105
12.700035 81.76523 25.191105
53.675034 49.76423 6.0511017
51.254036 50.37823 6.656105
48.217037 61.03223 10.628105
49.100037 60.72723 8.352104
28.287035 84.29123 59.294106
28.212034 85.89023 0.6491051
18.866035 81.24923 3.1081047
18.565035 80.39323 5.092102
38.111034 45.77723 13.806105
38.419037 43.43023 13.258104
41.952034 37.02223 22.305105
44.826035 36.89723 22.106104
45.816036 48.57723 44.943104
47.237034 50.01923 45.203102
45.598034 60.04923 49.429104
45.333035 59.29523 47.783104
9.395035 37.55823 56.873104
9.426033 39.49623 56.078106
9.705032 35.67723 45.925102
8.958038 36.11523 44.068104
41.921036 55.17223 25.461103
42.528034 54.67423 23.286104
51.239037 49.13423 29.715105
50.628036 47.09923 30.728104
0.721035 89.47123 42.560104
58.846035 89.29623 42.266106
52.325035 87.12122 52.774105
53.528034 87.686226 54.969105
48.481037 51.11323 42.583103
49.950035 49.98123 44.336105
58.762035 43.04923 44.490105
57.846035 41.60923 44.131104
23.326035 99.16423 52.771107
24.885035 99.662224 54.185104
36.487034 103.22323 49.380104
37.877037 103.13522 50.766106
38.718037 92.244225 23.176105
37.412037 92.894226 25.117104
46.055035 86.83423 29.132105
43.880035 85.660225 29.874104
56.623035 28.272228 51.027103
56.193035 26.911228 49.078106
59.082035 23.901228 43.061104
58.741035 22.345228 45.194103
29.505035 14.46223 50.978104
29.518036 15.44323 52.854103
28.323034 20.15923 57.936104
29.719034 19.501228 55.839104
20.447035 79.94323 55.162106
19.670034 78.61523 52.830105
26.692036 71.75423 48.811104
27.944035 69.86623 49.493103
58.629036 42.81523 13.0321045
0.14703369 42.66023 14.1381
1.1350327 53.51323 15.838104
60.231033 54.38223 17.479103
33.207035 48.44223 46.358105
35.279034 49.01723 45.751102
40.501034 43.265232 55.644104
40.801037 43.86023 58.058105
43.751034 46.80123 34.968105
44.423035 48.57423 36.737103
36.697037 54.779232 39.925102
34.440037 54.98123 39.381104
21.517035 78.077225 8.246101
23.304035 77.80222 9.743103
21.015034 80.19923 2.3121033
19.464035 78.38723 3.597103
48.630035 61.61023 20.997105
49.505035 61.87723 18.607105
57.224033 56.13823 15.076103
57.175034 54.26623 14.386101
43.945034 59.58323 57.964104
43.647034 59.57123 55.330105
42.686035 58.42123 47.994102
43.580036 57.85223 46.052105
5.986038 99.825226 38.411102
3.5950317 98.23222 38.473103
54.247036 99.16923 33.489105
54.320034 100.87723 35.318104
42.864037 0.6052292 27.762104
41.600037 1.9442294 28.676104
44.283035 12.0772295 26.645103
46.676037 13.539229 26.963104
37.910034 35.33123 40.474102
39.506035 33.77623 41.648106
45.793037 26.570229 38.963104
46.052036 25.641228 37.052105
25.315035 54.11123 38.816105
24.758036 52.800232 36.676105
31.434034 61.73623 32.116104
30.532036 63.69323 33.530106
27.051035 14.230229 7.9040985
28.602036 15.88023 7.337105
36.896034 18.406229 2.3061028
34.970036 18.675228 1.5561028
54.964035 24.776228 37.123104
54.872036 25.99623 34.656105
57.386036 35.39223 39.711105
55.372036 36.64723 39.771103
14.556038 103.855225 11.667099
15.835037 102.46323 10.177101
24.75703 99.172226 10.608101
24.004032 101.39023 10.202103
37.177036 25.466228 57.524105
36.773037 26.368229 55.577106
36.667034 20.25323 0.13910294
38.149036 21.928228 0.76210403
5.0880356 93.05523 44.365105
7.7460327 92.62323 45.052105
9.809036 101.54023 41.347103
10.936035 101.69523 39.743103
13.829033 84.21323 8.535103
15.612038 83.78023 7.7510986
13.157036 76.92722 57.162106
10.882034 77.96223 57.604103
40.681034 70.314224 44.594105
40.518036 68.31823 43.163105
42.330036 60.06923 35.289104
41.112034 61.83223 33.832104
19.832035 30.382229 25.951105
21.701035 31.785229 26.347105
29.654036 30.946228 32.305103
29.963036 32.48623 30.382105
17.453035 76.16623 55.189106
19.644035 77.12723 55.588104
29.437035 70.661224 55.578106
31.400036 71.82323 55.930103
45.519035 94.659225 57.996105
44.721035 92.76323 59.678104
35.219036 89.453224 4.4331055
34.046036 89.022224 2.5111046
59.896034 96.82423 12.646105
57.920036 96.61323 13.9991045
58.220036 91.65423 22.280104
60.158035 92.21323 23.655104
11.597038 59.81123 10.778099
10.430038 58.06823 11.009102
7.6520386 51.73423 6.189102
7.353035 53.57723 4.948105
51.178036 55.93523 56.989105
52.365036 54.61623 57.794106
58.782036 46.70523 0.22010422
56.287033 46.36323 0.20710373
56.317036 47.42123 5.6940994
56.310036 46.74923 3.597103
57.291035 36.71623 0.94410324
58.734035 35.446228 0.020103455
33.471035 103.618225 23.796104
32.338036 105.15423 24.274105
22.218035 104.86223 20.388105
20.435034 105.32123 21.179104
50.844036 112.12823 49.950104
52.146034 113.58123 49.466106
45.741035 4.3342285 50.906105
44.518036 6.1252317 50.047104
37.902035 99.15523 33.993103
35.842033 99.06522 34.385105
39.736034 104.71223 42.887104
42.284035 104.94323 42.739105
3.4160385 106.814224 54.916103
5.4950333 107.02923 54.836105
6.4890366 3.2162247 52.940105
7.030037 5.65623 52.415104
22.180035 81.577225 0.15810394
24.196035 82.326225 59.027103
22.746035 92.049225 52.271107
21.447035 93.18323 51.224106
32.142036 39.55423 4.913101
32.520035 37.88523 3.4401054
23.660034 30.07223 4.628105
22.458035 30.647228 6.038101
36.790035 47.37023 56.742104
36.617035 44.83823 55.982105
29.070036 41.03923 50.117104
29.339035 42.723232 48.421104
4.8330383 97.438225 44.639103
4.369034 97.87623 46.641106
10.432037 96.521225 55.078106
12.709038 96.95823 53.260105
5.9550323 88.88622 7.017105
7.1580353 90.466225 5.8880997
7.1210327 95.882225 10.098099
7.558037 96.94623 11.951103
9.804039 10.178229 45.283104
8.869034 12.505229 44.570103
9.7910385 14.00723 31.938105
8.980034 12.18823 30.576105
13.738037 103.85822 50.447105
11.443039 103.86423 51.777103
10.597038 92.29323 47.652103
12.145035 90.92722 47.600105
51.312035 75.50123 38.304104
49.376034 75.62723 39.589104
45.659035 75.21123 47.067104
43.845036 75.13823 48.014103
51.890034 20.955229 39.144104
53.388035 21.94023 39.744102
54.103035 13.954229 32.892105
54.838036 14.16323 30.585104
6.3190384 18.928228 44.811104
8.302032 19.868229 45.907104
6.236038 29.736229 48.243103
7.9730377 30.64923 49.002106
21.688034 104.51323 6.2821045
21.825035 102.07023 7.6991043
13.409035 104.22623 0.7291031
12.909035 103.94923 57.944103
0.49903488 35.40823 38.705105
2.1700325 36.96623 40.153103
6.460037 45.543232 34.475105
8.760033 45.668232 34.937103
25.706036 107.85722 42.776104
23.485035 108.673225 43.719105
31.450035 108.32123 42.251102
33.142036 109.561226 42.592102
54.983036 110.55623 50.427105
53.851036 110.29423 48.128105
52.569035 108.72723 41.481102
53.464035 109.55423 39.488106
4.770035 78.42823 57.152103
6.660034 78.13823 56.385105
12.015038 85.394226 50.081104
11.023033 87.04123 49.567104
57.607033 9.522227 49.814106
56.289036 8.395228 48.717106
55.599033 112.005226 52.768105
56.853035 111.17622 54.075104
24.312035 49.00723 24.056105
24.309034 46.54523 25.076105
20.405035 41.99823 31.409105
21.403034 40.35923 31.931105
27.944035 102.75123 43.538105
28.723036 100.94923 43.522102
23.382034 95.05423 51.559105
24.527035 96.548225 52.985104
24.830034 12.508229 50.297104
23.453035 13.307229 48.529106
32.245033 19.84623 46.125103
32.336037 21.861229 45.585102
55.467033 108.22623 9.649101
57.134033 107.648224 8.176102
0.15503311 101.54023 13.049103
1.8850327 102.51122 14.371101
4.2670364 99.214226 42.444103
5.990036 100.05623 41.810104
10.551033 106.07922 49.253105
10.205032 105.80723 51.082104
40.375034 81.72323 4.731102
39.416035 79.72323 5.5511017
29.445036 80.44923 10.940102
30.708035 79.07123 11.353104
59.256035 59.33223 33.427105
60.628036 60.73623 32.383106
0.30003357 62.63423 21.441105
59.889034 63.70223 19.844105
29.885035 57.24523 53.258106
31.409035 58.07923 52.132103
42.695034 62.01823 50.463104
43.449036 62.147232 52.797104
30.618034 60.86423 54.394104
31.244036 60.88223 51.985104
30.684034 70.38723 47.227104
28.246035 71.19223 46.665104
19.469032 36.07323 20.520105
18.839035 37.19723 22.281105
9.899033 44.66523 19.157104
11.983032 45.64123 18.293104
14.554039 20.156229 17.757105
13.334038 18.78723 19.677105
8.460037 30.133228 23.994104
10.093033 32.14423 24.350105
27.973036 68.60723 3.0061035
25.992035 69.92622 3.519104
31.805035 76.686226 10.299103
32.666035 76.36223 11.812103
35.036034 89.54423 58.581104
34.014034 89.58223 56.832104
41.252037 87.57423 46.856102
40.060036 85.40023 46.883102
34.975037 28.446228 21.841105
33.465034 29.019228 19.734104
25.656034 19.689228 21.699104
24.751036 20.90223 23.209105
6.1100388 78.13723 40.811104
7.3480377 79.31723 39.315105
9.943039 70.30723 38.781105
8.254036 68.94723 37.494102
57.140034 90.43423 40.068104
58.645035 89.00323 38.796104
50.298035 89.18123 30.371105
52.328037 89.49722 28.795105
7.3700333 40.53123 54.375103
7.206032 40.00323 52.102104
11.456032 49.66923 52.594105
10.690033 50.33023 54.676105
49.084034 74.32922 17.105103
47.926037 72.65623 16.874104
50.973034 76.132225 15.868103
50.953037 77.57922 17.937103
39.733036 15.072229 44.279102
39.049034 16.75323 43.645103
29.134035 12.017229 42.864105
29.355036 9.734229 43.588104
56.305035 7.8462296 42.433105
57.803036 9.39123 44.240105
54.240036 20.189228 41.570103
54.630035 22.06223 43.248104
8.490036 52.61323 55.838104
7.9440384 49.90323 54.940105
4.6440353 41.40323 55.216106
4.5380325 39.65823 56.151104
11.233032 15.63223 30.212105
10.829033 14.39823 28.657104
22.348034 12.783229 25.136105
23.384033 10.928229 24.769104
37.144035 10.906229 23.579105
36.732037 8.88223 24.970104
24.723034 7.8422294 25.827105
23.373035 5.4592295 25.525105
28.089035 59.25923 53.554104
28.752035 58.87923 55.428104
25.108034 57.53123 6.2490997
23.552034 56.07823 6.9600983
33.663036 62.62423 53.092106
35.643036 62.44823 54.812103
38.018036 67.02723 43.819103
36.819035 68.700226 44.800102
9.005035 2.632225 27.083105
6.657036 2.0262299 26.840105
58.045036 2.9142303 23.823105
56.127033 3.9152298 24.850105
37.705036 6.0002317 30.817104
37.531036 3.7582245 30.457104
30.265036 4.043228 23.047104
30.119036 1.8342285 22.032104
48.816036 112.717224 20.150105
50.640034 112.83123 18.570105
59.505035 103.77422 21.738104
0.03603363 104.757225 23.512104
9.513039 91.79223 10.486099
11.547035 90.80222 10.614105
10.285034 83.85822 9.793098
8.224037 85.009224 9.629105
44.707035 31.72523 41.920105
46.004036 32.807228 43.908104
43.284035 23.908228 49.047104
44.924034 23.50623 50.914104
4.8820343 65.394226 5.3190994
3.7230377 64.92723 3.4381027
9.4650345 74.96323 1.8881035
9.257034 76.897224 0.125103
54.765034 97.12523 27.906105
54.669033 98.43023 29.845104
53.958035 109.01323 36.078102
55.509033 110.050224 35.103104
32.777035 90.54123 59.670105
31.678036 89.38723 1.0541039
20.651035 91.53923 2.4921036
21.092035 89.94923 4.3361053
17.682037 4.3882294 31.659105
15.668037 3.7372284 30.435104
15.856033 2.6612244 18.304104
14.244034 2.9012299 17.356104
53.784035 52.30323 45.342102
54.934036 54.11523 45.991104
1.2790337 45.14123 43.947105
59.995033 44.73823 42.870106
1.0260353 81.84923 58.226105
1.9270325 80.24023 0.18310547
59.998035 76.14323 8.7821045
58.137035 77.006226 9.289101
48.550037 45.93723 16.698105
46.812035 45.21823 17.569103
37.359035 48.79423 13.4561
38.842037 49.74323 11.737099
15.544037 89.30323 33.295105
15.941032 90.22323 35.160103
19.922035 95.717224 37.287106
22.069035 97.370224 36.393105
5.035034 14.66223 10.389099
5.596039 13.883229 8.203102
14.761032 14.41523 8.861099
14.343033 14.3532295 11.229103
44.831036 99.31622 17.590105
44.808037 97.33323 16.081104
43.897034 88.51623 23.059105
43.031036 89.104225 25.389105
28.604034 20.623228 52.911106
28.190035 19.35023 50.941105
20.336035 25.35723 44.615105
19.350035 26.89223 45.966103
9.171036 87.01523 20.949104
10.249039 84.69323 21.741104
2.485035 75.55423 24.801104
2.466034 74.020226 23.312105
48.988037 46.82723 47.719105
49.173035 44.966232 47.674103
54.069035 53.10623 48.203102
53.535034 54.27723 49.973106
29.778034 40.34023 3.3691025
31.475035 41.348232 2.290104
27.629034 42.89923 51.405106
28.331036 44.67823 52.458103
27.376036 109.77923 34.773106
27.780035 111.368225 33.285103
37.640034 4.5482254 38.080105
38.509037 2.3052292 38.364105
11.257034 104.30423 10.323105
11.290039 104.661224 8.097099
10.538033 108.424225 0.85510254
13.028038 107.478226 59.327106
35.173035 0.6422272 38.285103
32.934036 1.1812286 39.105103
26.235035 0.38422394 47.276104
26.637035 2.7462234 47.427105
17.529036 80.23423 18.400105
20.182035 81.12523 19.151104
23.923035 81.41423 30.115105
23.686035 83.243225 31.480104
48.746037 33.30823 22.339104
50.013035 35.06923 23.013105
40.568035 35.78623 31.052105
39.125034 34.42023 29.498104
7.617035 66.62623 28.971104
5.942032 65.17123 28.931105
5.997032 54.52023 31.747105
7.605034 55.67623 30.059105
14.084038 9.981229 58.956104
16.316032 9.82023 59.699104
24.490032 11.001229 3.0951042
24.071033 10.62023 5.1331024
7.865036 110.562225 44.239105
8.419037 109.65323 42.274105
1.3620338 1.7532272 35.565105
0.51903534 4.1292267 35.159103
15.479034 82.606224 30.893105
13.059036 82.812225 32.201103
6.577034 74.756226 27.504105
6.4810333 73.464226 25.366104
26.028034 101.533226 31.213104
25.320034 103.67123 30.727104
28.912035 110.81023 24.932104
30.659035 111.259224 23.839104
5.332039 31.38123 45.970104
6.4300385 33.53523 45.878105
2.103035 43.97423 46.402103
4.054039 45.59323 47.500103
29.255035 80.32123 1.656105
30.161036 78.33523 0.9941025
35.684036 74.11223 52.913105
34.652035 72.325226 52.523106
56.130035 105.26723 27.195105
55.414036 107.69723 25.784105
53.558033 96.40123 25.099104
54.434036 95.18523 26.105104
5.299034 21.603228 24.600105
6.4850388 23.299229 23.903105
0.81703186 25.120228 18.054104
0.3040352 25.900229 16.074104
56.257034 90.11123 23.245104
56.402035 87.839226 23.013105
45.215034 86.106224 24.446104
46.112034 87.74823 25.814104
54.702034 59.14223 53.711105
55.131035 61.18323 54.417107
54.928036 68.59823 49.404106
56.487034 67.90423 51.171104
26.206036 1.2752304 11.3431015
24.559034 113.35923 11.064102
29.125034 111.61223 19.609104
29.089035 112.952225 21.309101
11.304039 64.40523 57.483105
9.474037 64.53023 56.410107
1.2620354 64.58023 49.344105
1.0950317 63.59023 47.579105
54.955036 77.73423 37.406105
55.617035 76.15223 39.240105
52.615036 71.787224 48.441105
54.322033 71.535225 50.608105
13.894035 97.03023 25.169104
15.355034 98.81622 25.557104
13.872032 104.48923 32.599102
15.614037 106.22523 32.369102
1.4090347 66.16923 16.158104
3.2980347 66.01123 15.204104
7.0310364 70.43223 24.563105
8.171036 70.939224 26.361105
7.764038 105.65723 56.236103
8.420036 105.33823 54.453106
0.001033783 99.10223 49.415104
58.873035 100.229225 49.712105
8.659035 57.37923 6.0881042
9.408035 55.96823 3.599102
18.788033 54.34323 7.6621017
20.564034 55.33923 7.6331024
0.4030342 28.691229 18.037106
1.0870323 27.894228 20.318104
3.0330353 26.077229 27.656105
2.926033 24.182228 28.805105
24.513035 34.43423 10.505104
24.562035 36.65023 10.4701
23.492035 40.140232 1.6941032
24.273035 42.494232 1.8141022
0.3520317 27.386229 59.333103
1.5340347 28.016228 57.208103
57.120033 33.95023 57.787106
54.846035 34.662228 57.882103
40.617035 26.015228 0.39510345
41.052036 25.512228 2.8761024
40.802036 22.716228 12.764099
41.069035 20.653229 12.712105
1.6280327 77.96922 58.203106
1.0480347 79.59723 56.565105
60.473034 74.58123 49.161106
59.744034 72.87623 47.166103
6.6770325 92.75423 12.547104
6.681038 90.896225 10.891098
9.612038 95.29223 1.7981033
11.101036 94.01022 2.6081047
48.445034 39.52823 33.797104
47.410034 38.64223 35.827103
39.902035 36.55023 42.722103
41.825035 35.09723 42.467102
20.066034 112.564224 39.143105
20.565035 1.1012268 40.033104
30.675035 4.757225 43.822105
30.306036 6.9832335 43.057102
14.9770355 99.564224 22.985106
13.9650345 97.55623 22.529104
10.178032 88.757225 22.697105
8.850037 89.04323 24.591105
28.269035 53.60123 10.492104
29.051035 52.22823 12.5961
24.789034 46.46023 19.038105
24.042034 49.001232 19.271103
36.049034 103.061226 20.849104
36.019035 102.73423 23.314104
39.759037 98.72623 30.299105
38.302036 96.286224 30.449104
39.541035 73.42123 20.541105
40.471035 71.46922 20.720104
49.586037 75.72223 19.164104
50.565037 74.19823 19.695105
13.367035 35.48323 46.868103
14.657036 33.47723 45.514103
25.185032 37.48423 49.057106
25.223034 37.10323 51.325104
36.009037 46.42123 38.841103
36.243034 44.13523 38.031105
39.250034 38.27023 31.162104
37.811035 35.71523 31.734104
27.221035 41.76123 24.247105
27.433035 43.57123 22.601105
20.488035 35.64523 18.006105
21.556034 34.85723 19.317104
55.550034 93.46223 27.661104
57.025036 91.72423 26.822104
56.403034 83.68223 36.848103
57.074036 85.967224 38.184105
30.322035 16.15923 17.685104
28.669035 16.855228 18.165104
21.582035 20.78423 17.097105
21.166035 21.884228 18.963104
57.195034 22.594229 48.950104
57.836033 24.067228 50.575104
53.582035 19.775229 0.3241043
52.731037 18.00623 59.328106
47.494034 100.99622 46.175102
49.615036 100.521225 46.331104
51.424034 100.82323 35.547104
50.820034 101.49722 33.561104
41.762035 32.71423 33.044106
42.102036 34.74423 33.310104
42.055035 43.29423 30.928104
42.840034 44.87723 31.659105
17.931038 65.21723 33.732105
17.29004 62.59423 33.584103
12.634033 54.13123 29.947104
13.773033 54.40223 28.441105
32.824036 71.62122 49.956104
32.182034 72.93223 51.736103
28.437035 82.39922 56.978104
30.384035 83.47323 57.864105
33.336037 37.730232 11.238098
33.421036 34.90923 10.723099
24.944035 34.06823 14.133102
26.184034 35.27923 12.587105
10.880035 109.731224 40.297104
11.043037 109.106224 42.056103
10.619034 0.44922638 46.624104
9.297035 1.920227 45.237103
16.194035 53.33223 32.818104
17.940035 52.11323 33.530106
25.974035 58.85423 26.159105
28.067036 57.86123 26.277103
40.662037 4.4792295 58.096104
41.079037 4.0592294 55.892105
30.769035 8.37723 51.680103
29.555035 7.2812295 52.479103
6.212036 92.021225 25.280104
5.5010376 94.30723 25.704103
3.1590347 93.57223 14.059105
0.80903244 92.842224 12.844105
26.194035 61.28923 44.137104
28.168036 62.24023 45.043102
36.746037 55.69323 43.996105
35.327034 56.17823 46.171104
13.612038 107.44723 24.629105
14.107033 107.58723 26.891104
8.872032 106.99123 36.045105
7.834038 107.825226 34.436104
43.845036 46.83123 43.886105
43.128036 47.27723 45.918102
38.175037 40.42723 47.197105
37.389034 38.779232 45.894104
41.136036 76.01122 54.978104
40.295036 73.87523 53.480106
42.994034 66.73223 1.6501045
40.740036 67.58423 1.6431046
25.264034 27.758228 40.844105
23.866035 27.665228 42.853104
33.359035 31.354229 43.506104
34.698036 30.10023 44.951103
33.175034 77.411224 14.241105
30.970036 78.47723 15.271105
27.224035 85.79623 21.063105
27.690035 86.98523 22.630104
15.764038 78.050224 34.067104
14.502037 76.80523 35.618103
11.175034 67.23723 32.326103
10.659035 65.533226 32.948105
32.241035 2.382225 58.835106
33.864037 3.6472244 58.355106
43.890034 112.370224 0.17010498
45.483036 112.605225 58.168106
25.103035 69.71023 40.859104
26.739035 68.69723 41.926105
28.989035 61.81023 39.804104
28.954035 59.85223 38.270103
46.743034 75.50223 29.746105
44.719036 75.05823 29.887104
45.920036 66.658226 21.237104
44.819035 64.28123 21.953104
36.578033 24.286228 43.967102
36.944035 22.678228 45.963104
31.337034 21.81223 55.837105
32.462036 22.946228 56.800106
6.6460342 16.557228 46.402103
6.332039 17.157228 48.558105
16.337036 23.636229 49.404106
17.232033 24.509228 47.607105
26.856035 1.6772308 8.575104
27.565035 113.66723 7.618103
19.744034 109.049225 0.23410416
17.901035 110.38522 1.9511032
20.857035 0.09022522 8.063103
22.884035 0.6082306 9.426102
21.871035 3.9092255 20.047104
20.884035 2.6732254 21.2401
48.773037 18.602228 36.872105
50.497036 18.35723 38.664104
59.509033 10.402229 37.324104
59.570034 10.826229 40.223103
10.995033 49.50623 5.491104
10.376038 47.43923 5.906105
8.048035 39.55323 9.380104
8.708038 41.07623 7.9711
60.321033 96.675224 37.769104
58.816036 96.93223 39.030106
51.083035 93.103226 44.372105
48.738037 92.327225 44.459103
59.454033 78.06723 44.324104
0.7570343 76.340225 44.393105
1.5720329 68.26023 46.752106
3.9210358 67.09223 46.195103
30.279036 8.182229 48.075104
29.035034 6.5832295 49.977104
26.604034 11.684229 41.299103
27.436035 9.456229 40.741104
24.427034 112.70422 19.256104
22.729034 0.92222595 19.134102
30.152035 8.978229 10.778099
28.715034 10.566234 10.608101
15.346039 12.668229 15.220104
14.480034 11.585229 17.129105
22.145035 5.7622294 23.290104
23.219032 6.009229 21.288105
47.535034 89.56923 59.251106
46.251034 88.67722 57.588104
42.055035 77.57323 57.305103
43.523037 76.77823 58.503105
12.354034 53.12723 32.591103
10.190033 53.60023 33.493103
11.262039 63.65223 41.241104
10.553032 62.24223 43.137104
19.233034 92.92722 10.4431
21.022036 93.13522 8.267105
29.386036 87.41523 15.312103
31.524035 87.62823 14.391098
8.642036 49.88523 22.249105
7.549034 47.654232 21.880104
57.919033 43.97923 20.238104
57.485035 43.09423 22.136105
41.035034 95.88522 54.936104
40.636036 95.912224 52.729103
46.530037 87.71822 47.498104
46.306034 87.90523 45.220104
3.6460342 94.39223 27.686104
1.4050331 94.95422 27.222105
0.44603348 102.22523 20.135105
0.6680336 103.97623 19.490105
23.558035 113.58022 52.607105
23.770035 112.44122 50.515106
24.486034 103.979225 57.751106
25.659035 102.59923 57.801105
18.006035 73.41823 4.8190994
15.721039 71.96023 4.217102
22.111034 76.84923 1.0281029
22.145035 78.83323 0.3261032
1.1870346 9.016231 37.358105
60.523033 6.8742323 37.706104
5.236038 0.3642273 45.864105
7.0600357 1.2402267 46.370106
0.22803497 20.74923 15.534103
60.390034 19.383228 14.182098
10.024033 23.870228 12.327103
9.359039 26.081228 11.050102
37.377037 108.520226 41.509106
35.279034 106.967224 41.886105
34.844036 110.034225 35.941105
33.422035 111.30222 34.241104
50.170036 71.70422 50.215103
51.391037 70.24923 50.628105
46.112034 62.13923 46.532104
46.337036 63.36423 44.675102
38.399036 52.81123 43.736103
39.990036 51.81423 44.957104
37.391037 50.15223 56.827106
38.721035 50.105232 58.393105
55.287033 109.592224 7.118103
55.636036 110.519226 4.9180984
53.807034 113.17123 53.942104
52.031036 0.2392273 54.704105
56.721035 41.21823 23.710104
57.994034 40.67323 24.882105
53.869034 49.425232 25.724104
53.003036 51.79523 26.826105
31.216036 53.57123 50.698105
33.005035 52.01823 49.895103
35.281036 47.543232 41.823105
33.669037 46.33523 40.316105
