42.142635 94.57232 13.251007
36.371635 91.97832 23.676006
37.570633 94.27932 24.037006
23.734636 80.71532 2.2700043
24.521635 82.18332 3.6390076
27.122635 88.55232 5.5400085
25.353636 87.76932 3.3570023
10.840633 113.58032 56.414005
11.799633 112.54532 58.372005
8.509636 107.08332 3.9590073
6.804634 107.44332 5.411003
43.085636 42.94632 20.176008
44.117634 40.80832 20.098007
1.3596344 41.24132 16.184008
2.7546349 40.18832 14.654007
11.23164 19.88832 20.225008
10.730633 18.359314 18.83301
7.389633 23.559326 12.652008
8.975636 22.533325 11.197006
45.856636 6.660324 58.668007
46.353634 7.632324 61.114006
0.601635 14.288315 1.0460052
0.79063416 15.836319 62.802006
14.803638 31.725319 23.267008
15.696636 33.81432 23.594007
18.277637 42.24232 20.809008
20.533636 41.96032 23.012007
16.075634 69.92332 2.8370056
13.927639 69.69032 2.876007
21.498636 78.33832 4.8720093
21.195635 79.97532 3.3790054
12.1526375 98.84932 37.231007
13.724636 98.64832 39.144005
18.546635 109.41132 39.869007
20.329638 108.966324 38.820007
50.504635 3.6573257 10.315002
52.051632 4.6563187 10.418007
51.754635 11.232315 18.121004
50.398636 13.433319 18.563005
27.093636 44.28132 28.698008
27.849636 42.79332 30.021008
18.107635 42.29232 31.093006
17.782635 44.47532 31.180006
15.646633 79.17232 25.324007
13.585636 79.11832 26.393007
11.07864 69.495316 28.653008
9.219635 69.95132 27.491007
35.287636 111.52432 12.693008
33.711636 111.89432 14.3390045
26.441635 103.118324 16.704002
24.670635 105.06832 15.64901
50.267635 25.48532 55.204006
49.843636 27.23332 53.057007
47.164635 32.96132 57.949005
47.879635 31.30232 59.561005
25.859636 5.678322 36.272007
23.819635 5.3283234 35.916008
13.583637 11.897324 35.106007
13.419636 13.307312 37.620007
45.623634 56.24532 27.473007
46.679634 54.28932 26.736008
41.500633 51.636322 18.949007
42.434635 53.63532 19.757008
2.4406357 31.15432 63.146004
2.5266342 32.13332 2.4480057
9.233635 33.02132 2.4680023
11.061634 33.99332 1.8290024
20.428637 51.55732 33.208008
19.605633 49.36032 34.203007
11.803638 49.53732 41.413006
9.537636 51.32532 41.373005
2.6366348 6.7413177 49.383007
2.910633 8.947311 48.359005
53.142635 15.079315 57.912006
0.11663437 12.412323 58.859005
11.222637 90.63132 28.503006
11.70364 89.00332 27.116007
19.28864 95.69432 26.686007
17.216633 95.48532 27.368008
20.903635 113.75832 24.243008
21.849636 111.73332 25.494007
28.295635 116.20332 31.593006
27.841635 118.063324 32.831005
43.251637 34.60632 50.287006
44.084633 35.31232 52.903004
46.526634 22.74432 54.173004
48.519634 21.46032 55.028004
26.050636 85.14232 62.904007
24.377636 86.02032 0.9090042
15.694635 88.22332 56.941006
14.961636 89.772316 55.491005
22.944635 13.745316 29.589006
24.577635 12.053314 29.404007
25.392635 5.1413193 20.664007
27.291636 4.018326 20.634007
24.971636 70.68832 24.217007
27.007635 70.91832 22.670008
34.457634 73.06632 20.686007
36.383636 71.370316 20.931007
0.5056343 71.12932 55.320007
51.781635 71.96132 54.797005
43.279636 66.26832 52.674004
42.207634 67.94132 53.369007
20.380636 16.768326 2.5910034
19.839636 17.776321 1.0060043
18.672636 18.993317 54.583004
17.978636 20.454315 53.237007
44.523636 101.58732 38.25601
45.529636 103.32532 37.182007
45.351635 95.02932 29.269007
47.547634 94.840324 29.216007
37.219635 100.58832 27.924007
35.605637 102.395325 28.471006
27.431635 105.97532 34.068005
29.082636 105.60632 34.838005
35.360634 70.86232 1.916008
35.666634 73.08232 2.027008
31.503635 71.81832 11.074005
29.812635 71.94132 12.936005
5.6566353 89.84532 11.689003
4.4116325 89.70032 9.650009
52.278633 93.11232 3.2160034
50.809635 93.97632 2.0520096
30.547636 51.94232 16.305008
29.555635 49.92832 15.563004
32.684635 54.53532 14.083008
30.777636 55.85132 14.925003
26.339636 70.54932 35.805008
24.699635 71.04532 34.330006
27.815636 60.48132 29.327007
29.033634 60.51332 27.666006
50.284634 24.211319 46.324005
51.804634 23.255325 47.807007
1.9986343 12.782318 44.842007
4.733635 12.923325 45.211006
53.128635 51.42832 55.164005
51.081635 51.25032 53.223007
52.06563 60.75532 52.130005
51.558636 61.02632 50.263004
30.899635 112.43932 21.337008
32.169636 110.86432 22.257008
25.327635 112.14732 32.198006
24.605635 110.68432 30.050007
10.015633 49.90232 9.219009
10.496635 52.34532 10.318008
8.883633 56.83832 0.69000244
8.055634 55.55432 62.303005
20.910635 113.23932 27.841007
19.194637 113.32032 26.486008
20.440638 115.56932 20.434008
22.200636 116.22132 19.606007
4.070633 90.744316 13.981003
2.7226334 90.82732 11.603004
50.421635 90.730316 4.9550095
49.320633 91.89632 3.1650085
12.043636 34.164318 12.825007
11.809635 32.21632 12.479007
8.480633 32.13832 23.946007
9.602634 34.47632 24.579008
35.433636 53.39532 41.180008
35.590633 54.10032 39.272007
38.621635 46.16432 38.416008
37.790634 45.92132 35.572006
42.784634 30.79032 2.767006
42.027634 32.61532 3.8350067
42.575634 38.17332 11.198006
42.652634 38.85332 13.0510025
45.413635 119.87532 50.908005
43.875633 118.64432 50.738007
34.182636 2.624321 53.985004
33.119637 1.2673187 52.207005
22.597635 92.95832 14.257004
20.959635 92.41532 13.021004
13.145634 86.16632 10.509003
11.730633 86.37832 8.326004
51.053635 58.44232 33.350006
48.876637 57.87532 34.045006
43.113636 51.81032 39.843006
41.972633 50.28332 39.531006
36.370636 90.20132 61.672005
37.810635 90.58232 0.05500412
39.791634 84.60732 6.3020096
39.091633 83.52832 8.093002
25.032635 3.5933228 11.511009
24.714636 2.6613235 13.368004
25.609636 114.07832 17.051003
25.096636 113.20632 15.341003
52.199635 61.44932 47.794006
51.566635 63.572323 47.63801
46.437634 64.70432 38.495007
45.027634 63.16732 39.850006
14.292637 48.66932 17.318007
15.003635 48.05332 19.742008
12.017635 38.01532 24.393007
9.936634 38.456318 23.937008
39.679634 76.52532 61.735004
41.176636 76.54532 0.1700058
43.659634 78.64932 10.660004
44.026634 76.58032 11.891006
34.021637 106.13032 48.808006
31.600636 105.57932 49.293007
24.661634 98.74932 52.063007
25.001635 100.00832 54.723007
21.197638 120.19832 8.8040085
21.243635 121.41132 10.275009
9.151634 121.78132 7.484009
8.912636 122.21332 9.931007
36.871635 25.233322 39.761005
35.801636 23.344315 40.780006
44.972633 21.803314 43.981007
47.126637 21.756317 45.727005
44.659634 110.923325 22.892008
46.579636 112.26832 23.194008
52.118633 106.92232 26.713007
52.278633 105.11532 27.481007
47.711636 61.72832 42.86001
45.648636 60.24332 43.557007
34.931637 62.64132 40.784008
34.122635 63.38732 38.622005
24.545635 9.229324 15.461006
23.271635 9.032318 17.457008
19.156635 17.208313 11.050003
18.954636 15.949326 8.907005
35.007637 110.202324 45.207005
34.907635 107.48632 45.642006
33.617634 101.44832 39.326008
32.836636 101.68232 42.136005
34.092636 0.15932465 24.482008
35.768635 1.5043259 25.561007
45.149635 0.2743225 21.525007
47.119637 1.0413208 22.102007
16.153637 38.71232 24.102007
14.947636 40.01532 25.197006
16.769634 29.80632 33.135006
16.508633 29.92832 35.623005
43.531635 13.941315 7.298004
44.917633 12.183319 9.207008
46.288635 16.555313 3.5940094
46.452633 14.410324 2.4920044
12.307636 77.01032 45.789005
14.234638 78.68832 45.463005
15.367634 86.69432 52.027004
15.163639 85.731316 54.258007
26.997635 19.893326 1.2230072
28.065636 22.035324 2.300003
29.086636 31.256323 61.050007
27.528635 31.117323 60.261005
41.938633 92.53032 11.450005
41.787636 94.16532 9.837006
46.758636 98.54132 8.469009
46.026634 95.89132 9.623009
24.305635 22.589325 18.664007
23.969635 20.822311 18.100004
17.771635 19.266312 8.0770035
15.557635 19.373322 9.678009
18.391636 73.13132 8.162003
18.627636 74.86632 8.303009
14.262638 67.73232 11.8160095
15.041637 68.50332 10.005005
48.063633 115.39432 41.543007
49.746635 114.50532 42.974007
1.4266357 109.868324 38.425007
2.8486328 111.57832 38.774006
51.206635 88.88832 63.160004
52.661633 87.64132 1.4620056
6.0866356 85.34132 10.0770035
4.681633 86.20532 11.484009
30.958635 89.675316 22.255007
29.438635 87.55732 21.639008
25.451635 84.09032 31.989006
26.823635 83.51532 33.548008
39.837635 75.10232 18.777008
40.807636 76.21932 21.036007
37.473633 66.76932 25.085007
37.642635 68.06832 23.035007
22.956636 52.73632 40.636005
21.582636 51.48632 41.647007
22.308636 60.09332 42.62401
22.259636 62.85532 42.726006
9.223633 109.160324 5.4360046
12.034634 108.49432 4.621002
10.711636 101.50132 15.758003
12.6266365 102.43432 17.008003
43.078636 34.28532 34.936005
44.465633 36.428318 34.461006
51.165634 37.039318 26.068007
51.108635 37.66032 23.504007
36.147636 1.1063232 7.814003
38.867634 0.5563202 7.447006
41.143635 116.965324 61.875004
42.669636 116.26532 60.506004
5.059635 110.64732 37.144005
3.2436333 109.549324 36.608006
47.578636 112.65832 31.438007
46.585636 110.85232 30.120007
24.292635 36.78132 9.938004
26.280636 36.81932 11.564003
21.204636 31.34132 19.949007
18.895636 32.04232 20.775003
8.606636 119.25132 10.556007
7.6316338 117.77732 9.398003
49.710636 115.15132 9.372009
49.549633 116.841324 8.205009
19.831635 91.67032 38.678005
21.420635 93.13032 39.548008
32.992634 96.26832 37.270008
33.758636 95.06432 35.269005
6.485634 8.1953125 48.976006
8.639633 8.053314 49.955006
9.854633 119.16932 45.552006
9.779633 118.32432 43.488007
16.126637 10.951324 43.125008
17.53764 12.33432 43.112007
19.811636 8.753311 52.493004
21.955637 8.41832 53.694004
3.3216362 55.36132 22.086008
1.5796356 56.36332 21.657007
51.840633 45.46932 16.394007
1.0146332 44.28632 16.313007
32.736633 29.847319 16.359007
34.643635 28.330322 15.010007
28.552635 18.211319 21.001007
27.039635 20.228317 21.227007
46.274635 118.36932 9.367004
47.644634 117.00432 10.438004
38.982635 119.452324 13.443008
37.014633 119.01132 14.619003
40.629635 87.48732 34.887005
38.892635 86.19132 35.695007
28.944635 90.94632 31.878006
28.073635 92.63532 33.10901
18.035635 10.919312 40.895008
18.565636 9.087326 43.288006
28.484634 6.1673126 47.96401
26.514635 5.065323 49.438007
29.320635 115.62632 34.10301
31.257635 116.22332 34.384007
34.278637 0.85432434 42.134007
35.069633 121.85032 43.683006
6.120636 56.44232 38.379005
7.8506355 57.12632 39.048008
4.7566338 66.03132 45.543007
4.9306335 66.19832 48.385006
27.947636 56.23132 44.718006
28.293634 54.96432 42.864006
22.771635 50.25832 34.023006
23.039635 48.23032 35.425007
5.9896355 32.93032 23.377007
6.749634 34.51332 24.523006
1.7206345 28.40332 32.949005
2.2796326 28.211319 35.023006
5.377636 82.53432 48.955006
4.6336327 84.50432 50.122005
3.2626343 94.216324 46.482006
2.9266357 94.38832 48.315006
41.755634 95.729324 47.928005
41.201633 93.78232 49.665005
40.981636 85.72732 41.573006
39.890636 85.06332 43.420006
46.041634 39.59032 53.986004
47.649635 40.15932 54.753006
4.037636 42.37432 55.579006
2.8836327 43.12132 53.944004
52.603634 27.588318 32.213005
0.40463257 25.503311 32.157005
48.409634 27.544312 38.665005
47.898636 28.556318 36.47101
19.138636 95.92832 45.644005
19.160635 98.42132 45.332005
22.006636 107.53232 37.175007
20.721636 106.85632 35.392006
13.026638 121.20932 54.811005
14.149639 120.089325 57.111004
7.092636 3.9913254 60.211006
7.398636 5.707321 61.846004
52.289635 14.087326 38.47101
1.1236343 12.383316 38.419006
9.942635 17.643326 41.373005
11.529636 16.745316 40.669006
47.151634 91.59332 50.931007
45.639633 90.73432 52.511005
42.648636 83.62832 58.150005
43.168636 83.93332 60.515007
24.881636 9.8993225 19.404009
26.118635 11.4483185 17.757004
36.855633 9.810318 14.592003
38.483635 9.302322 15.730003
8.248634 84.633316 1.2820053
7.8086357 83.01732 2.7040024
10.033634 78.703316 7.267006
8.926636 78.10232 9.226006
43.132633 114.952324 22.474007
42.483635 112.69632 22.392008
35.759636 113.45932 15.496007
35.203636 114.13032 13.333007
39.660633 41.27832 48.86701
41.372635 41.43132 49.940006
40.292633 47.98832 39.598007
40.169636 49.71632 41.373005
29.517635 110.55432 5.293007
31.505634 111.25832 4.3300095
41.854633 107.05032 4.9620056
40.987633 105.007324 5.319008
23.057636 120.03132 59.621006
23.700636 118.65632 61.633007
34.378635 116.33432 60.858006
36.459633 115.52332 59.699005
38.220634 76.82132 50.550007
39.613636 75.06032 49.185005
47.488636 81.64232 48.474007
49.032635 79.58332 47.489006
29.036634 2.2763214 53.849007
30.784636 2.924324 53.138004
33.217636 6.564316 60.940006
34.448635 6.9213257 62.810005
43.387634 119.327324 45.605007
41.908634 120.54232 44.752007
36.472633 114.05832 36.057007
37.906635 112.82032 34.164005
32.413635 42.23632 29.849007
33.523636 43.17932 31.577007
31.880634 40.79532 39.025005
32.283634 38.46632 39.365005
51.472633 76.78432 0.03900528
49.429634 77.50032 0.26700592
46.308636 87.51832 60.445007
47.255634 88.31232 62.481007
23.113636 63.89432 1.727005
24.025635 64.884315 0.1550026
19.428635 75.633316 63.119007
20.010635 76.35932 61.163006
12.702633 6.5163116 45.192005
12.711636 5.164322 43.868008
18.851635 3.825325 36.532005
20.382635 4.257324 38.981007
13.851635 29.27132 36.276005
13.4026375 31.319319 36.673008
13.581638 39.62432 34.398006
14.278637 41.31232 33.557007
47.963634 55.94332 4.786003
45.395634 54.41932 5.067009
50.372635 61.70232 8.898003
50.239635 63.62732 9.696007
8.111633 27.33832 24.110006
8.716633 29.621319 24.505007
7.542633 27.75432 37.489006
6.2656326 30.07432 38.021008
17.485638 52.38532 50.504005
15.863636 51.29632 49.772007
10.179634 52.19532 56.325005
8.833633 50.61032 58.012005
5.6906357 80.78032 13.193008
3.5076332 80.47932 14.238007
52.528633 84.23632 3.965004
0.15563583 84.20932 1.6740036
7.4136353 108.201324 36.358006
7.667633 110.03632 37.965008
14.483639 104.492325 47.301006
15.994633 105.21732 46.670006
10.342636 53.11832 14.606003
8.359634 52.629322 12.965004
2.2036362 51.79732 2.8850098
4.2366333 52.21232 1.0940094
12.5656395 18.236313 13.178009
12.748638 19.82132 11.63501
16.44064 22.913315 22.910006
15.614635 20.870316 22.964006
49.474636 90.75332 55.843006
51.807632 89.58132 56.724007
5.335636 90.33832 57.978004
6.900635 90.76232 56.730007
44.744637 115.42032 29.697006
42.844635 115.36032 29.587008
35.549637 106.40032 31.407007
35.160637 106.61532 28.644007
50.275635 82.05632 45.070007
50.844635 83.90032 45.653008
0.8026352 87.21932 35.400005
52.926632 85.43632 36.209007
49.835636 112.70532 8.53801
51.686634 112.27532 7.621002
4.6686325 104.44632 7.3650055
4.9326324 104.63732 4.8130035
28.696634 45.10832 13.537003
30.207636 42.97732 14.223007
33.894634 44.49432 8.646004
33.959637 43.60232 6.640007
50.478634 117.05032 40.067005
51.240635 119.20532 39.660007
48.513634 5.402321 45.825005
48.606636 7.260315 45.613007
19.745636 114.771324 52.283005
20.877636 114.54432 54.724007
29.117636 121.978325 54.609005
31.075636 121.27632 53.819004
46.651634 99.03932 37.387005
47.614635 99.10832 39.189007
2.2806358 102.51732 31.008007
0.72963333 104.00832 30.804007
49.831635 3.0053253 7.1670074
48.853634 1.162323 7.0470047
2.2826347 120.72632 15.934006
4.8266335 119.48932 15.640007
2.0536346 28.821318 11.958008
1.9106331 28.350311 9.9640045
3.4096336 18.874313 3.1710052
5.8296356 19.576324 3.729004
28.532635 4.7673187 10.489006
27.970634 4.5643234 8.142006
29.758635 16.428314 7.9050064
30.246635 15.629318 5.7660065
43.693634 92.29432 17.875008
43.829636 92.38032 19.841007
46.796635 81.74632 21.843008
46.764633 80.18232 23.271008
21.347635 75.39632 56.004005
22.482635 76.53232 58.261005
30.102634 82.17632 61.129005
29.099636 84.22932 61.067005
3.9866333 96.25332 43.724007
3.7306328 97.96132 41.975006
4.0956345 99.21732 51.305004
3.4706345 97.52632 50.739006
29.081635 107.90732 8.651009
29.338634 107.87132 6.368004
21.197636 102.14132 0.25600433
23.545635 100.63432 63.105007
12.855633 7.1303253 23.052008
13.209637 4.5783234 22.276007
9.789635 0.55332184 27.415007
8.814636 0.70532227 29.386007
11.422634 26.340317 35.35301
12.561634 24.457321 34.362007
13.385639 18.251312 26.765007
15.651638 18.714325 27.473007
43.215633 111.20532 25.245007
43.083633 109.29232 25.546007
48.748634 101.26632 25.696007
49.991634 99.80332 26.018007
8.167633 84.07332 6.261009
6.6146355 83.68332 4.9340057
10.801636 94.74132 1.6650085
11.808636 92.840324 2.0160065
31.645636 38.37932 42.937008
32.979633 37.546318 41.926006
34.697636 39.51632 40.080006
35.732635 40.80632 38.904007
36.740635 71.17732 17.963007
38.827633 72.66732 16.781008
42.571636 67.75632 22.849007
40.101635 67.59432 21.449007
52.945633 69.54032 6.947006
51.434635 67.59732 6.197006
42.936634 67.43032 6.383003
41.174633 67.29432 5.595009
35.708633 100.31832 33.38801
36.632633 101.87532 32.777008
41.185635 110.22332 38.370007
40.714634 111.01132 40.147007
20.175634 50.08432 37.068005
21.543634 48.29332 38.017006
10.997639 42.41832 36.539005
10.660633 39.70832 36.72101
47.416634 120.78832 20.337008
48.379635 121.11132 18.430008
44.468636 6.160324 23.239008
43.769634 8.099319 22.525007
8.902634 20.122314 4.9760056
8.406635 22.381317 5.822006
0.57063293 26.45932 62.107006
0.38563538 28.415314 62.869007
46.297634 37.78532 51.761005
48.357635 38.97132 51.726006
52.084633 29.25432 47.758007
51.737633 27.329319 46.637005
34.504635 111.62432 21.102007
33.311634 113.57932 20.822008
38.175636 121.47132 15.474008
40.241634 121.784325 15.231008
6.651634 57.25132 59.969006
9.011635 58.40632 61.127007
17.581638 61.82532 54.436005
19.898638 63.11332 54.935005
42.464634 32.43632 29.198008
40.755634 30.968319 29.307007
36.777634 41.81332 33.560005
34.715633 41.34932 33.051006
18.186634 62.24932 42.959007
16.067638 62.53932 42.147007
7.853634 66.07332 47.805008
7.6116333 67.94132 48.917007
4.5886345 37.44032 55.796005
3.3096352 38.89432 54.708004
45.264633 37.27832 57.167004
44.259636 35.37432 55.678005
8.903633 104.49932 3.5470047
7.198635 102.96032 4.3750076
11.757633 94.423325 6.1080093
11.46764 94.63532 4.2380066
19.249638 112.28132 42.052006
17.56464 111.77832 40.494007
6.0626335 107.827324 44.491005
5.759636 110.08532 45.730007
12.947636 103.26232 49.323006
14.35664 101.01632 50.259007
7.4876328 99.21132 42.084007
6.6316338 97.60732 40.431007
44.631634 51.75132 53.925007
42.324635 51.78432 53.312004
37.281635 56.27932 43.442005
38.787636 58.33232 42.410007
27.301636 41.78132 49.716007
27.899635 41.79532 47.829006
23.999636 50.61832 49.666008
24.163635 48.72232 50.896004
48.232635 107.937325 47.333008
46.209633 106.90832 47.923008
36.925636 99.91932 45.875008
36.317635 98.16232 44.573006
37.880634 23.207321 10.461006
35.745636 21.581314 9.771004
38.492634 20.861313 21.852007
37.967636 18.559326 23.192003
6.8196335 51.89732 59.972004
7.427635 50.17232 60.368004
13.243633 51.15832 6.2560043
14.200634 52.72332 5.4450073
25.097635 7.6443176 34.413006
25.202635 10.229324 34.601006
15.861635 16.289322 30.001007
14.996635 14.349319 29.013006
22.456636 99.11332 53.519005
22.580637 100.81432 52.110004
16.583637 100.80632 61.720005
14.316639 101.73832 62.393005
14.813633 69.203316 32.23501
13.59264 67.619316 33.814007
19.303638 68.00032 42.887005
18.84364 70.245316 42.34601
30.984634 39.46732 47.494007
28.507635 39.42032 46.98501
25.647635 31.357319 43.211006
25.825636 31.39832 40.894005
5.0436325 102.63032 31.512007
4.330635 104.160324 29.900007
13.003635 100.22132 22.753008
14.701633 101.771324 22.921007
47.990635 92.73932 13.313004
46.634636 94.23532 12.872009
48.195633 105.24432 13.704002
46.854633 106.43432 14.759003
6.905636 35.46732 1.4850082
6.499634 33.44332 2.3570023
1.988636 32.33032 14.081009
3.837635 30.798319 14.809006
49.480633 102.33232 48.178005
50.240635 104.41932 47.766006
42.683636 106.99132 41.588005
42.457634 106.716324 39.394005
1.6326332 45.70932 53.946007
3.7516327 45.76432 54.347004
12.158634 49.42032 50.640007
12.781635 47.42532 50.068005
32.556637 76.31532 34.233006
33.181637 78.18432 34.998005
30.266636 84.78532 41.977005
31.236635 86.71832 43.798008
22.035635 84.97232 6.1860046
19.749638 84.35132 6.5660095
11.366634 78.65132 9.940002
10.966633 76.29532 11.162003
51.222633 96.07832 29.576008
52.412632 94.42032 29.156008
52.211636 85.86732 33.060005
1.0466347 87.26632 32.548008
31.072636 64.47332 45.083008
31.565636 66.39032 46.380005
21.121635 63.42932 45.84601
21.812635 61.90832 45.432007
40.703636 33.14932 55.885006
42.126637 34.91332 56.830006
39.483635 37.10232 5.2880096
40.560635 37.14132 7.1340027
34.243633 2.9583206 8.160004
32.677635 4.504326 7.965004
31.812635 12.953323 6.0470047
32.789635 15.271317 6.757004
6.9866333 110.63732 30.933006
7.651634 108.31532 30.108007
13.28764 108.98232 25.306007
11.617634 107.410324 26.261007
5.365635 107.46232 38.192005
6.016636 105.64232 38.065006
53.048634 106.966324 30.916006
2.285633 106.26232 30.350006
15.196636 39.19632 7.5280075
15.059635 41.02932 6.269005
19.555637 49.27432 7.0470047
21.017637 50.33332 5.6710052
30.609634 74.62732 41.057007
29.506636 73.26932 42.522007
22.192635 66.00032 44.840008
21.485636 65.69632 42.454006
32.930634 119.91232 29.462008
33.601635 119.42732 27.040007
40.485634 116.39232 21.178007
41.144634 116.36532 19.457006
44.376637 111.285324 48.001007
43.442635 109.05232 48.203007
35.591637 102.10832 47.546005
34.877636 100.83532 49.088005
39.346634 120.88432 33.719006
39.644634 0.59532166 32.654007
43.350636 118.104324 22.883007
42.233635 118.40832 20.911007
33.363636 19.505325 30.610006
32.785637 17.12532 30.402006
26.218636 9.598312 27.649008
27.125635 8.618317 26.126007
34.375633 59.75732 18.047007
32.915634 60.71332 19.884005
29.910635 70.93632 15.384003
31.801636 72.22632 16.071007
32.233635 32.18132 14.461006
32.078636 30.19632 13.6760025
43.442635 27.85332 10.674004
44.324635 27.24232 12.928009
50.056633 90.88732 16.752007
50.287636 92.67032 15.409007
0.8936348 93.57932 27.012007
1.8106346 95.92132 27.552008
26.139635 7.6963196 13.113007
24.569635 6.279312 13.036003
13.600636 7.480316 13.242004
13.406635 6.254318 15.467003
41.348633 40.11432 39.72101
43.251637 41.02932 38.479008
46.727634 31.80332 39.736008
45.444633 31.96932 37.88101
24.668634 18.702316 43.578007
24.666636 20.395325 42.284008
21.459635 22.538315 30.839006
23.154636 23.158325 29.458008
0.5476341 22.726318 56.560005
0.707634 22.605316 58.925007
43.099636 17.812317 57.255005
41.782635 16.846313 59.171005
6.5556335 71.94432 26.432007
7.1906357 72.94232 28.295008
1.4926338 76.02832 30.396008
0.46863556 75.18232 31.552008
19.457638 26.499313 1.8560028
20.003637 27.036316 63.013004
13.854633 26.317322 53.053005
16.42664 26.592316 52.356007
44.301636 82.50432 45.647007
42.009636 83.01532 44.685005
41.921635 80.92032 54.948006
41.102634 78.85832 55.684006
30.496635 64.56832 41.305008
31.262634 63.87632 39.135006
39.331635 63.69532 33.155006
41.153633 63.34232 34.204006
31.625635 117.714325 45.00601
31.400635 115.78632 42.781006
21.022635 115.83332 40.96401
20.249636 113.57032 39.997005
47.903633 111.82032 27.482006
48.254635 113.396324 28.684008
3.6356354 117.368324 25.695007
4.9286346 118.05232 23.628008
35.461636 86.856316 56.570007
35.419636 85.84032 54.149006
34.619637 94.71332 46.312008
36.612633 95.39832 45.019005
31.933636 109.08732 47.564007
34.526634 108.743324 48.044006
42.939636 109.38732 52.649006
44.279636 111.60632 52.496006
29.609634 43.36432 49.422005
31.955635 42.02332 49.462006
32.572636 31.65332 54.783005
34.164635 30.475319 53.771004
41.011635 35.25032 52.981007
40.701633 35.83032 54.794006
32.480637 44.46332 52.978004
30.265635 44.25632 54.343006
6.716633 0.26232147 44.627007
7.162636 1.3553238 47.037006
47.642635 121.368324 48.307007
47.650635 120.85132 50.334007
22.110636 33.66632 34.84601
19.911634 32.08932 35.753006
9.433636 37.43332 37.451008
9.026634 38.22332 39.420006
1.0646362 52.25332 30.040007
0.07963562 53.69832 28.600006
42.668636 48.157322 27.345007
40.542633 47.122322 28.136007
18.614635 12.026321 4.8440094
17.058636 10.920319 4.3980026
13.528637 15.824326 13.330009
15.67664 16.43132 13.546005
48.388634 24.19632 51.228004
48.591633 24.693314 48.504005
38.797634 30.283323 48.036007
38.154636 32.643326 48.229008
25.270636 34.02232 60.216007
25.275635 35.33932 58.668007
23.176636 41.26832 51.280006
24.136635 39.17232 51.145004
0.17663574 58.98632 48.802006
1.5866356 60.787323 48.11701
10.901638 55.60332 43.466007
11.99564 54.95632 45.661007
42.211636 51.58032 16.113007
41.104633 53.50232 16.723007
51.216633 58.94232 17.931007
51.948635 61.11232 18.822008
38.188633 33.269318 2.0200043
39.513634 31.76232 2.9700089
35.651634 24.54032 9.037003
34.085636 24.30332 10.777008
22.034636 71.45932 56.935005
22.027636 71.27532 58.940006
22.511635 59.21532 60.238007
23.886635 59.92732 58.102005
49.819633 81.31732 19.218008
50.910633 83.26232 18.022007
7.1286354 84.71632 21.756008
9.577633 83.91232 21.150007
2.1446342 59.29732 61.069004
1.502636 58.91632 0.25400543
50.139633 60.66132 4.548004
51.176636 62.18632 5.473007
26.566635 53.43532 27.023006
23.942635 53.76232 26.119007
25.492636 44.55732 18.136007
24.829636 42.30432 19.498007
25.611635 110.62432 16.265007
25.265635 107.813324 15.954007
28.622635 102.92732 19.104008
28.723635 100.83732 19.547007
3.7616348 55.81032 54.783005
2.4736328 54.72532 53.563007
3.2706337 56.47732 42.829006
3.5716362 58.04132 42.13101
27.482635 69.62832 14.349007
26.562635 67.79032 13.652008
16.758635 62.01932 16.02401
15.252635 61.657322 14.514008
27.519636 15.8993225 42.789005
26.663635 13.533325 42.382008
37.343636 12.869324 37.858006
38.154636 13.751312 35.904007
46.616634 45.08032 41.056007
48.371635 45.08132 39.558006
52.624634 56.07232 38.260006
52.425632 57.20832 40.449005
32.808636 72.40132 35.730007
32.335636 72.46632 37.732006
44.639633 76.05432 36.324005
45.193634 76.61532 38.349007
2.5886345 100.63432 13.908005
4.4546356 100.13532 12.117004
8.709633 92.90732 7.3110046
9.758633 92.992325 5.383003
30.374636 27.281319 13.111008
29.609634 29.687319 12.828003
33.549637 33.12032 2.251007
33.394634 35.52232 2.0400085
30.081635 46.02432 15.881007
29.933636 44.03032 16.903008
28.467634 43.00132 26.900007
29.481636 41.07732 28.131006
16.372639 88.07432 18.294004
16.295635 88.16532 16.172005
20.148638 79.54032 13.206009
22.066637 79.42632 14.753006
47.849636 27.43332 17.154007
49.020634 29.388319 17.675007
6.490635 35.23332 20.047007
7.1166344 35.75632 18.184008
15.272633 111.75132 60.279007
17.255634 110.27632 60.638004
8.165634 102.69032 59.611004
7.5606346 102.34932 56.998005
52.612633 59.73032 5.5870056
1.7756348 60.91032 5.001007
1.4106331 61.25932 9.569008
0.870636 63.19332 11.121002
30.547636 82.04832 31.056007
29.627636 80.34832 32.112007
25.684635 81.02932 19.602007
24.713634 78.77132 18.179007
40.945633 49.29532 44.562008
39.025635 50.372322 44.408005
33.116634 47.15632 52.057007
34.948635 46.27132 52.932007
1.8206329 7.990326 58.987007
4.0366325 8.243317 59.162006
1.3076324 9.256317 5.8950043
1.4546356 11.810318 5.6010056
19.630636 33.09232 23.052008
21.632635 32.18932 22.577007
31.683636 28.05332 23.634007
32.355637 29.07732 21.499008
41.618633 19.445312 59.903004
39.416634 20.480316 59.620007
36.458633 20.462326 7.2000046
38.920635 20.963318 7.904007
21.579636 28.34932 21.355007
23.918634 29.148321 22.192007
25.873636 23.968323 15.102007
25.462635 21.243317 15.524007
2.8556328 99.55832 4.3430023
0.7976341 99.68232 4.859009
1.5196342 93.98432 13.095009
2.577633 93.27832 10.818008
41.377636 66.13932 30.585007
41.089634 68.40532 29.962008
45.578636 78.97132 33.099007
46.010635 78.17032 35.198006
8.136635 99.52732 30.544006
10.648636 99.00032 30.154007
12.923634 96.11132 39.044006
12.360638 96.84732 40.909008
24.614637 6.5753174 17.330008
23.513636 6.3683167 15.501007
15.502636 6.440323 21.474007
15.572636 5.6073227 23.400007
36.133636 61.95832 18.736008
37.602634 60.90832 18.228006
44.995636 56.21132 22.421007
43.381634 54.68432 22.834007
29.373634 74.84632 38.171005
28.153635 73.43632 39.968006
16.615635 75.30532 42.288006
15.880635 75.98832 40.230007
40.971634 101.034325 32.997005
41.307636 102.326324 35.025005
49.442635 107.68032 31.440006
50.436634 107.33832 28.722008
26.833635 32.30032 11.138008
29.369635 32.65532 11.282005
39.373634 35.12932 8.492004
41.416634 35.80932 10.16301
51.922634 80.38132 57.770004
52.688633 78.96232 56.078007
6.292633 85.008316 52.298004
7.860634 86.54732 53.483006
25.309635 93.38732 54.680004
24.797636 93.12232 56.757004
32.178635 86.30432 58.325005
32.395634 84.95132 60.227005
19.721638 103.01632 2.2730026
20.637636 101.75532 4.039009
17.196636 103.78232 1.7420044
14.677639 103.28732 1.4010086
42.233635 69.26732 48.458008
42.279636 71.31032 49.632008
46.400635 64.27632 49.419006
47.482635 62.59632 47.997005
29.807634 15.837326 60.752007
31.488636 17.161316 59.752007
33.882637 28.532324 55.523006
33.041634 29.311323 57.624004
37.058636 95.97132 13.084007
35.943634 95.10132 14.998009
36.236633 82.83432 12.231003
35.145634 83.34432 10.200005
18.944637 8.224319 55.051006
18.24564 7.786316 57.262005
16.116634 120.07232 58.820007
18.488636 119.62332 59.442005
25.838634 68.83832 26.091007
26.640635 68.50432 24.220007
21.366636 59.893322 19.603008
20.007635 60.54932 18.514008
38.316635 73.13632 3.0680084
38.114635 71.34132 1.739006
46.014633 75.18032 61.725006
47.863636 74.99232 60.463005
51.215633 78.33732 16.829008
50.208633 78.98632 18.414007
52.457634 74.70532 28.854008
51.011635 74.46532 31.184008
23.970634 93.03032 11.540009
25.165636 94.841324 12.0280075
33.805634 90.37732 8.258003
35.345634 88.63132 8.462006
12.068638 8.955322 49.836006
13.655636 8.076324 49.551006
7.6356354 120.715324 47.738007
7.7506332 118.16432 47.362007
12.34264 89.71332 6.6880035
12.3156395 91.40232 5.307007
16.20464 81.91732 62.563007
15.351635 81.79532 60.378006
24.825636 75.45432 52.074005
25.642635 73.95932 50.787006
16.491636 77.20832 43.994007
15.148635 78.77432 42.765007
48.492634 82.75632 17.067007
47.143635 82.02132 18.757008
37.198635 86.13932 23.465008
36.241634 88.03532 23.841007
3.7936325 106.33832 42.961006
3.0046349 107.702324 44.571007
47.439636 113.22232 47.633007
46.581635 111.83032 45.726006
26.312635 114.83032 52.703007
27.681635 113.36332 52.706005
30.577635 111.13632 0.85700226
29.941635 109.799324 2.7600098
11.619633 122.19132 31.847008
13.16264 1.6823196 32.32501
7.2566338 10.847321 31.672007
4.9076347 10.61232 32.197006
28.662636 76.28432 48.391006
29.482635 75.92832 50.789005
34.837635 83.54532 55.679005
35.934635 84.43132 57.197006
2.964634 21.120316 58.617004
3.9076347 20.368317 56.101006
4.4986343 9.555313 50.580006
3.653633 7.8423157 51.472004
48.897636 5.2783203 59.219006
49.822636 6.8523254 60.130005
50.759636 6.0003204 8.572006
51.051636 8.256317 8.706009
28.074635 43.970318 19.099007
29.410635 45.39932 20.477007
31.469635 51.23432 28.792007
32.281635 52.79232 28.395006
4.9256325 121.04032 19.313007
2.2946358 121.56532 19.237007
47.116634 1.2833252 25.075006
47.530636 3.461319 24.550007
21.494635 48.275322 32.683006
20.871635 49.52632 30.681007
25.163635 40.213318 25.254007
27.111635 41.36532 24.734007
3.8266335 72.37732 59.780006
4.705635 70.58432 58.798004
51.989635 73.99932 0.1400032
49.802635 73.883316 1.3670044
38.959633 6.007324 54.118004
40.498634 7.1943207 53.231007
45.183636 4.5803223 47.979008
45.908634 2.4053192 47.385006
19.494633 63.52232 6.374008
20.028635 61.56932 7.0930023
14.610638 59.71332 10.641006
13.436634 60.885323 12.614006
42.089634 55.22232 4.0380096
42.720634 57.44232 5.5990067
39.394634 59.48332 57.920006
39.309635 59.65932 55.722004
26.596636 56.98132 47.586006
28.924635 56.44132 47.307007
36.458633 53.71832 55.974007
36.500633 54.69332 58.188007
29.296635 33.317318 15.264008
29.987635 34.45032 13.533005
28.320635 44.64632 6.767006
31.046635 44.782322 6.3060074
48.388634 97.270325 33.778008
50.218636 97.77632 32.13101
45.140636 105.91132 37.86701
44.915634 107.75132 39.244007
24.109636 53.20432 49.974007
22.170635 53.400322 50.536007
18.972635 64.29432 52.490005
20.593636 66.00632 52.654007
4.5746346 3.8263245 56.309006
3.0366325 3.575325 54.672005
52.710632 120.216324 54.861004
52.769634 117.86332 55.388004
11.0276375 88.17632 42.11701
11.850636 87.95832 39.987007
6.795635 90.80732 31.149008
5.294636 91.88232 30.799007
38.312634 119.99532 10.847008
39.589634 120.937325 9.460007
48.973633 116.10932 5.3180084
49.760635 113.98432 5.888008
30.229635 6.364319 5.578003
28.399635 6.411316 5.489006
21.759636 121.56832 62.696007
20.914635 122.05032 60.413006
21.288635 9.633316 1.3820038
18.734636 9.263321 1.2870026
22.741636 121.54632 6.475006
23.135635 119.64732 6.3430023
22.085638 74.48732 11.029007
20.520636 73.21932 9.860008
15.095638 67.11132 18.795008
13.417637 67.51332 16.992004
40.835636 19.004318 20.909006
41.517635 16.455322 20.564005
39.806633 20.746323 10.466003
40.775635 22.154312 9.751007
17.00964 39.11832 59.151005
18.042637 36.831318 59.847004
9.136635 34.20432 52.797005
6.983635 34.52532 53.019005
34.113636 121.72432 7.7470093
35.895634 120.67832 8.245003
36.970634 114.65032 61.998005
39.443634 114.82532 61.854004
33.703636 98.48432 45.775005
32.943634 99.29132 47.896008
22.267635 96.61232 48.716007
22.282635 96.77832 51.095005
17.281635 69.87532 46.052006
17.013636 71.63232 47.205006
22.854635 73.96132 53.371006
24.588634 72.68532 52.890007
36.555634 20.202316 27.510008
36.138634 19.114319 26.011007
36.556633 9.776321 30.050007
37.728634 10.866318 31.636007
17.302639 25.428314 25.488007
15.718639 23.518326 25.394007
4.7846336 24.798325 27.386007
3.8936348 22.670319 27.182007
40.130634 78.42632 58.429005
38.579636 79.89332 58.844006
39.883636 91.244316 59.518005
39.702633 90.55232 61.448006
33.645634 52.80032 60.477005
32.604633 50.76932 61.383007
39.036636 45.90932 5.1830063
40.872635 45.240322 3.6230087
24.311636 81.88732 16.236008
22.738636 80.52832 17.040009
23.604635 88.14632 20.249002
23.469635 90.41332 20.301004
15.670635 110.11632 32.416008
17.444637 110.631325 31.075006
9.261635 120.36232 28.598007
8.192635 118.60232 29.861008
31.275635 97.51332 41.222008
29.426636 98.03332 42.412006
20.601635 100.94532 47.141006
18.960636 102.31532 48.482006
26.118635 120.79332 36.568005
25.395636 120.31532 34.931007
26.282635 109.27632 33.99201
25.394636 107.62732 33.73501
40.594635 116.71832 59.147007
38.913635 117.84632 60.501007
46.085636 119.00432 53.580006
47.760635 120.02932 54.743004
14.667637 49.10732 7.798004
14.031635 47.39032 6.661003
6.344635 44.48832 7.150009
4.867634 44.86732 8.433006
42.189636 40.76632 25.122007
43.000633 40.25432 27.507008
37.101635 35.63932 20.527008
37.781635 34.20332 18.973007
52.918633 102.41832 28.708008
2.6126328 102.29632 28.453007
11.011639 95.19032 25.972008
13.21764 95.96132 25.442007
17.248638 4.499321 51.346004
16.562634 4.3423233 53.886005
6.835636 1.5343246 56.671005
5.259636 1.6023254 54.537006
38.314636 33.45332 16.184006
36.337635 34.79232 16.05201
33.870636 40.85832 7.0230026
32.286636 40.54432 5.534004
27.179636 81.83932 17.238007
26.361635 80.06032 15.793007
24.418634 72.88732 15.920006
23.141636 73.75532 17.333008
28.329636 105.19532 52.092007
26.401636 106.576324 53.048004
21.758635 100.72232 61.060005
20.711636 98.51932 60.155006
10.777634 23.11932 24.285007
11.392635 23.32532 21.652008
13.282635 34.82832 25.127007
11.699635 35.79132 26.302008
38.050636 63.30532 57.647007
37.260635 64.65832 55.781006
27.373636 61.59932 60.756004
25.578636 62.837322 61.095005
36.851635 59.58032 3.5540085
35.146637 61.365322 4.083008
31.221636 69.34732 2.8270035
29.458635 69.36132 2.6440048
1.0836334 6.6453247 11.632004
2.820633 8.213318 10.979004
5.3386345 13.419312 20.122004
4.3876343 15.436325 19.670008
52.640633 75.79832 57.028004
0.90063477 73.71632 56.328007
2.9026337 75.55232 46.018005
4.749634 75.33932 46.620007
18.514637 17.678314 3.977005
19.836637 17.869324 5.8870087
18.183636 28.695318 3.1560059
16.327633 29.445318 1.7320023
30.719635 70.85132 0.5600052
28.734634 71.96232 0.916008
26.609636 83.15132 1.5600052
28.646635 83.85332 3.0080032
43.810635 81.244316 29.193007
44.500633 79.31032 30.454006
36.230633 76.550316 36.064007
35.667637 78.244316 34.400005
11.45364 4.997322 17.060005
11.222637 2.8323212 16.341003
18.89964 116.714325 15.076004
20.053637 115.79532 17.530006
42.141636 43.42932 38.018005
41.217636 44.92132 36.925007
50.007633 46.57432 31.698008
52.32963 46.83832 32.12401
9.411633 24.622314 14.104004
11.229633 23.880325 12.668007
20.187635 31.09332 12.348007
19.502636 33.372322 11.782005
25.558636 75.08132 20.548008
23.878635 74.10432 20.484007
22.870636 76.94232 31.619007
23.053635 79.20632 32.671005
20.555635 102.09432 27.467007
20.812635 104.51832 27.263006
17.063633 104.77632 19.193007
15.074635 105.47132 17.763008
24.820635 31.93632 31.360006
27.082636 32.25132 31.470007
36.666634 31.77332 22.302008
35.864635 33.45232 21.598007
21.013636 107.87032 28.893007
23.020636 108.47432 29.293007
25.392635 112.22132 19.683008
24.693636 114.67632 19.998007
3.4656334 31.923319 38.578007
1.2086334 33.32732 38.363007
47.958633 39.91632 44.426006
48.451633 40.83732 46.772007
45.470634 44.78132 0.6060028
43.600636 45.82932 1.628006
38.038635 52.13932 57.739006
36.689636 50.78532 55.697006
0.9656334 60.594322 43.825005
1.3166351 58.51032 43.130005
48.488636 48.18932 43.442005
46.525635 47.61832 42.420006
34.767635 75.68232 13.708008
36.807636 77.26532 13.074005
38.732635 81.75532 11.957008
40.140636 79.56832 11.216003
18.32964 50.57632 4.9980087
19.052639 47.78032 4.1220093
13.434635 42.09032 61.291004
14.672634 40.50032 60.611004
8.505634 13.68132 48.470005
7.9356346 13.164322 50.532005
50.204636 19.859314 53.449005
49.900635 19.651321 51.340004
49.196636 16.480316 39.258007
47.204636 15.205322 39.201008
40.501637 13.588318 38.114006
40.416634 13.846313 40.286007
21.042635 112.86032 21.701006
22.001635 113.33632 19.801004
12.958637 108.97132 14.1790085
12.375637 106.728325 13.765007
47.288635 77.41532 43.932007
48.664635 78.72232 44.576008
0.031635284 83.83532 34.205006
1.9546356 83.04432 32.989006
33.458633 39.04132 21.114008
34.175636 40.72932 21.811007
32.156635 39.65632 30.992006
29.432634 40.36432 30.720007
3.8006325 114.36132 5.1830063
1.7496338 113.73332 6.513008
7.295635 0.83732605 6.045006
7.6336327 3.0903244 6.1050034
51.190636 39.71232 26.993008
52.278633 39.98732 24.713007
5.8316345 37.845318 19.588007
8.156635 39.00032 20.131008
51.012634 77.92232 58.511005
50.129635 76.06632 57.718006
49.155636 75.22432 45.514008
50.671635 74.33732 44.495007
46.281635 109.56532 49.417007
45.529636 111.02632 50.343006
45.682636 112.77832 54.401005
45.953636 115.090324 52.795006
32.517635 108.188324 3.2710037
32.506634 106.44532 1.8010025
29.024635 103.44732 63.123005
27.264635 102.54332 1.2110062
9.493633 111.64832 30.022007
8.234634 111.67132 28.119007
15.411633 120.71332 26.504007
14.603634 121.80532 28.434008
46.864635 109.82432 14.696007
49.101635 110.33632 14.056007
46.407635 120.25032 11.123009
46.711636 122.05532 10.771004
42.856636 66.29932 40.885006
43.752636 68.22232 41.127007
35.144634 72.02932 44.908005
33.397636 70.48432 44.699005
1.1896362 69.20232 29.086006
2.8096352 69.20132 30.797007
47.078636 71.08232 35.126007
45.778633 71.90132 37.354008
29.910635 11.151321 5.1980057
29.428635 8.905319 5.2040024
19.557636 12.683319 60.853004
18.309635 10.408325 61.723007
33.952637 69.39932 20.309008
34.626637 67.869316 21.535007
27.041636 58.49132 25.507008
25.138636 59.72432 25.111008
26.731636 98.96332 19.375008
28.805635 97.51732 19.258007
36.747635 98.84932 16.765007
37.914635 97.590324 15.606008
40.300636 90.661316 33.778008
40.165634 90.828316 31.700006
34.208633 88.50132 26.542007
31.912636 87.71532 26.081007
1.5736351 115.62632 57.470005
3.9286346 114.60632 57.079006
6.502636 0.9463196 61.844006
4.2276344 0.17732239 60.964005
37.804634 4.900322 18.767008
37.204636 2.7463226 18.258005
32.308636 1.3383255 8.946007
31.055635 2.336319 6.923004
3.738636 111.58832 21.871008
4.0516357 113.72732 20.319008
47.086636 118.50532 18.892008
44.722633 118.30632 19.917007
42.920635 20.448318 55.970005
42.243633 21.497314 57.763004
51.624634 25.087326 60.551006
51.256634 26.738312 61.393005
8.147633 62.16732 62.019005
8.772633 63.43732 0.8280029
14.950634 67.56832 4.8370056
16.097637 69.58232 5.8430023
34.208633 121.28932 13.124008
33.860634 120.52732 15.309006
30.545635 115.29332 20.409006
28.699635 113.81632 19.869005
17.282635 83.703316 32.60301
18.560635 84.62732 31.074007
21.215635 96.69232 31.489006
20.190638 97.19132 29.326008
39.525635 101.353325 12.664009
38.448635 99.562325 13.692009
31.141636 108.13732 12.16301
31.544636 108.18532 10.006004
33.536636 50.56732 27.091007
32.456635 48.886322 26.893007
27.012636 56.37132 23.027008
28.621635 57.73232 21.992006
4.7586327 94.73432 55.403004
6.443634 93.65832 54.287006
13.894634 103.32032 53.969006
12.915638 105.31432 53.771004
29.319635 16.476318 56.530006
29.169636 15.281311 54.725006
30.178635 14.090317 50.376007
29.137634 12.281311 49.946007
11.994633 35.637318 53.183006
11.131634 36.41832 51.013004
13.470638 37.51832 42.36701
13.7896385 38.91632 40.326008
7.929634 21.088318 0.27700424
6.6286354 19.247314 0.92800903
18.555637 14.328323 1.1710052
18.298634 11.882324 2.0770035
7.129635 77.22932 44.154007
5.1096344 76.70032 42.740005
14.016636 75.95032 42.709007
12.205639 75.10432 44.023006
35.900635 112.035324 60.915005
37.460636 110.742325 60.071007
38.338634 102.39032 59.398006
39.494637 102.94132 58.041004
3.077633 117.284325 38.695007
1.1476326 117.56932 39.173008
46.345634 111.05532 37.773006
46.931633 110.63932 34.935005
11.17664 14.915314 15.845009
10.743633 15.58432 13.919006
51.995632 11.072311 9.4260025
52.298634 13.096313 9.643005
27.313635 16.97432 29.679007
25.248636 17.111313 28.492006
19.294636 21.150314 29.521008
17.381636 22.256317 28.571007
51.308636 7.033325 28.958008
50.952633 5.1073227 28.592007
6.599636 2.3963242 18.575006
5.636635 0.49132538 17.640007
35.144634 23.891312 36.983006
37.394634 23.073318 37.722008
34.819633 16.480316 45.406006
33.608635 17.858322 46.132008
18.168636 90.46232 17.229004
16.932636 91.06632 15.514008
8.425632 98.51732 14.409004
8.458633 100.32532 13.259003
24.722635 60.81132 44.778008
25.455635 59.19732 43.119007
28.527636 71.550316 37.940006
30.432634 70.77032 36.494007
50.161636 101.67532 0.8120041
52.106632 102.37832 0.13400269
2.3336334 109.71232 0.85700226
1.6156349 110.58832 3.3020096
37.840633 121.34332 35.97101
36.089634 0.18231964 35.011005
35.598637 8.69632 33.614006
37.131634 7.4513245 32.176006
3.7066345 1.4913254 12.752007
3.8266335 3.7173233 13.42701
0.0736351 10.380325 21.198008
1.2246361 12.072311 21.886003
38.988636 54.60132 55.031006
37.802635 56.58932 55.162006
34.976635 54.59332 43.548008
32.619637 54.74632 42.961006
11.072636 66.79932 34.897007
10.539635 69.245316 35.210007
5.8406334 74.32432 43.998005
7.405636 74.94732 45.817005
38.140636 39.79732 12.875008
39.415634 39.06932 11.147003
35.473637 40.54832 4.706009
35.178635 38.02132 5.333008
41.773636 26.023315 9.718002
42.456635 24.687317 12.160004
36.131634 28.006317 19.404009
37.532635 29.418318 21.532007
20.365637 4.4233246 58.093006
20.065638 5.4253235 59.471004
13.158634 5.0813217 3.5090027
15.067638 5.831314 3.7980042
14.256634 40.40532 54.191006
14.679638 38.06332 53.710007
24.367636 32.13232 55.006004
23.075636 30.45932 54.363007
1.5436325 15.853317 29.922007
1.1366348 17.439316 31.930006
12.627636 14.458313 34.552006
14.840633 14.866318 33.935005
41.511635 95.43532 52.805004
42.087635 96.59832 55.086006
47.879635 91.09032 0.6850052
45.714634 90.508316 62.415005
17.228634 115.94032 41.432007
17.432636 114.23832 39.799007
20.234636 109.76932 31.160007
21.559637 111.56132 29.963007
42.847633 94.757324 25.332006
44.825634 96.08532 25.886007
41.447636 103.72632 19.079008
40.724636 102.68132 17.007008
34.536636 61.580322 30.292007
34.100636 59.75232 29.334007
39.096634 65.58932 23.436007
40.661636 66.51532 24.368008
15.598637 72.78032 37.655006
13.6876335 71.74332 38.657005
6.747635 78.59932 35.633007
6.6186333 80.65832 34.10301
5.009636 52.18632 27.379007
2.6916351 53.04632 27.711006
10.896633 61.28332 30.518007
12.432636 60.01632 31.628006
21.009636 36.03532 12.27401
19.837635 35.748318 10.405006
20.085636 30.194319 4.0870056
22.525635 31.23432 4.2320023
52.363632 106.69332 22.023006
49.697636 107.61532 21.116007
45.379635 107.62332 17.854008
46.311634 105.97532 19.068007
15.508633 82.23432 21.537004
16.139637 82.96532 19.44401
7.372635 88.12432 13.579002
7.4186325 87.41032 11.098007
49.132633 29.63632 61.335007
50.513634 30.99932 60.049004
4.365635 29.40532 54.506004
2.5726357 29.78732 53.743004
48.568634 99.86432 55.097004
48.550636 100.58732 57.409004
37.288635 99.67932 60.443005
36.360634 97.54132 61.442005
19.967636 91.83432 44.017006
21.627636 92.08132 42.181007
29.254635 89.49632 36.910007
27.217636 89.40032 36.134007
46.307636 14.438324 62.358006
44.280636 15.391312 1.3060074
33.488636 11.54332 4.2140045
32.331635 13.126312 3.4120026
20.565636 80.70832 61.600006
22.234636 80.10832 60.655006
26.817635 71.44832 2.5090027
26.985636 69.28132 1.6710052
19.931635 117.06632 43.141006
19.066635 114.98132 43.055008
28.395636 112.58732 48.455006
30.314634 113.41432 47.62401
34.772636 100.16732 20.517008
32.757637 101.11232 20.859007
40.874634 106.063324 17.941008
42.987633 106.39132 18.697008
32.805634 56.37132 33.87401
32.254635 54.81232 32.223007
21.834635 52.25832 30.667007
21.207636 54.35432 32.184006
32.631634 17.156311 50.982006
32.012634 15.632324 48.97101
40.827633 12.662323 43.296005
41.099636 10.12532 44.177006
2.1446342 33.19132 26.684008
0.9226341 31.54232 27.045008
51.263634 25.66232 28.674007
0.18563461 27.15332 29.345007
47.738636 55.21532 29.276007
46.352634 56.42732 30.339006
47.439636 66.20532 23.426006
45.413635 66.55932 22.137007
43.617634 63.53532 49.107006
44.447636 64.28332 46.784008
36.085636 71.19232 49.307007
36.189636 71.39232 51.430004
47.824635 31.92432 17.318008
47.543636 32.102318 15.242004
39.232635 38.99832 17.409004
37.662636 38.09832 17.962006
31.221636 89.34632 44.918007
32.913635 89.26332 46.527008
29.785635 86.34032 56.235004
31.121635 84.37532 56.199005
11.758633 87.81132 48.661007
12.050632 89.87832 48.053005
16.605633 94.576324 45.586006
15.610638 92.98832 44.414005
0.34763336 104.20732 22.138006
51.525635 103.45732 22.997007
45.167633 94.64732 19.430008
44.135635 95.18232 21.641006
7.3176346 89.88232 15.883007
7.4966354 90.15132 17.865007
11.253635 92.49532 26.966007
13.278637 93.53732 27.134007
25.533636 55.275322 45.955006
25.414635 57.32232 45.056007
15.567636 63.63832 47.519005
16.770636 64.60932 49.059006
25.501635 90.480316 52.686005
23.597635 91.15832 54.050007
21.892635 85.06732 47.859005
21.367636 82.48832 48.365005
14.853636 81.62532 57.319004
15.782636 83.18232 55.323006
24.825636 88.34932 55.213005
23.151636 88.50132 57.681007
25.174635 101.69732 3.9310074
26.481636 100.75432 5.786003
37.299633 102.28332 10.480003
39.063633 102.965324 8.833008
52.361633 46.05832 13.643005
0.6286354 44.38132 13.356003
48.803635 36.76732 5.850006
50.618633 36.02232 5.3790054
0.69963455 55.91232 14.175003
0.08763504 54.17532 15.855003
46.711636 48.11832 20.217005
48.166634 47.622322 18.837008
39.680634 6.8733215 61.602005
38.721634 9.186325 61.179005
39.389633 18.733322 57.528004
40.801636 18.781311 55.868004
11.950634 20.621323 38.041008
11.895634 18.804321 38.653008
7.6076355 12.256317 34.13101
8.938633 12.718323 33.13701
38.684635 64.11532 30.623007
37.057636 64.65532 31.717007
43.120636 70.27732 35.698006
42.929634 68.04232 36.507008
42.610634 28.34832 61.667004
44.301636 28.05332 0.5550041
49.210636 34.13232 3.6910095
47.192635 33.54232 2.9940033
24.333635 60.32132 15.5280075
24.194635 58.59032 17.064003
20.234636 48.70932 14.16301
19.135635 48.55832 12.362007
49.233635 78.80532 29.146008
51.580635 79.57332 29.189007
2.5886345 78.65032 18.856007
2.278633 80.53032 17.568007
0.66763306 65.20932 13.423004
0.6196327 66.98532 15.270004
10.622635 69.68232 17.996004
11.929638 69.61632 15.779007
13.925632 106.86432 50.623005
14.105633 107.37832 53.381004
16.714634 112.88732 57.849007
18.661633 114.03932 56.467007
36.504635 18.239319 47.890007
37.755634 19.787323 48.389008
46.263634 18.603317 46.753006
46.637634 19.031311 44.799007
28.310635 109.41232 11.478004
27.286634 110.91732 11.966003
15.5086355 109.82132 12.430008
15.481635 108.47432 10.420006
43.958633 105.88932 3.4430084
43.269634 103.91932 4.008003
49.140636 99.895325 61.211006
49.361633 97.05632 60.444004
15.150639 97.57932 28.066008
14.701633 95.45832 28.216007
