70.178535 21.86779 1.4689102
69.07053 23.549797 0.626915
22.032534 40.00079 39.94091
22.476532 37.87779 40.07791
28.707533 35.489788 30.061913
31.018534 36.45079 30.30291
24.654533 8.376793 36.37391
23.002533 9.263794 36.55491
14.876533 9.027794 46.23491
16.220533 10.456795 47.391907
35.44253 45.01179 72.57691
36.07553 46.83179 73.55891
27.407534 46.16979 7.55291
25.434532 45.79779 8.21991
33.548534 53.74979 34.995907
33.653534 52.93679 36.94191
23.161533 52.39379 41.487907
23.087532 51.17279 43.22591
34.091534 48.42079 71.01791
36.399532 48.10979 71.23091
42.40153 53.65579 61.87291
43.299534 55.50479 62.59391
63.008533 3.6427917 46.355907
64.416534 5.3517914 47.105907
69.99554 5.773796 36.162907
71.928535 4.369789 36.035908
29.045532 34.719788 27.51191
29.345533 36.77979 26.740913
39.15853 31.67779 19.45391
39.204533 34.08579 18.763916
24.551533 0.56679535 51.82991
24.385532 68.193794 51.75291
16.295534 66.45879 59.93091
16.890533 66.57479 62.03791
7.7655334 59.17479 16.57891
7.393533 57.78779 14.995911
14.120533 60.12079 4.590912
15.005533 58.01379 4.741913
16.419533 23.601791 32.83191
15.610533 24.646797 35.02091
7.046533 21.709793 43.92691
4.8275332 21.768791 43.091908
16.450533 8.389793 13.55191
14.780533 9.015793 12.317917
7.6205335 5.884796 21.156914
5.7055335 6.6237946 21.422913
5.0695333 22.67279 7.461914
6.9835334 22.04779 8.252914
2.6075332 17.612793 19.026917
2.2945333 19.527794 20.198914
21.747532 68.11679 10.919914
20.507532 69.18879 9.252914
25.163532 69.28879 72.76291
26.598534 1.449791 72.26291
1.1265333 38.82679 42.46991
3.1375332 38.03979 42.586906
7.2725334 45.50679 34.827908
6.698533 46.92579 33.32391
63.823532 44.58779 37.155914
62.084534 43.70679 36.543915
65.63454 45.23879 25.448914
65.540535 43.92579 23.561913
42.517532 46.98779 58.72791
39.793533 47.593792 58.590908
32.177532 46.96979 67.58591
31.594532 44.91879 68.27091
62.202534 29.608791 70.86391
63.83953 28.237793 71.10491
55.76253 25.06179 4.4729156
54.524532 25.224792 6.453911
32.019535 59.66879 15.789917
34.25553 58.58879 15.808914
41.835533 62.52279 8.972916
42.881535 61.20479 7.5759125
32.188534 61.21379 56.59991
33.830532 59.36179 55.918907
27.145533 57.44079 66.98091
24.936533 57.65979 67.88191
-1.1504667 61.47179 67.30091
0.86453325 60.94779 67.62391
5.749533 59.83479 56.84991
6.7865334 62.34779 56.05391
70.972534 56.21679 10.111916
69.83654 54.52779 10.111916
63.835533 53.76779 20.255913
62.538532 52.88579 21.602913
64.039536 18.622795 68.55091
65.58754 18.92279 67.20591
70.10354 12.538795 57.53191
68.818535 12.720795 55.57991
53.330532 24.641792 24.98391
53.698532 26.191795 25.851913
47.702534 28.842796 19.277916
46.073532 28.654793 17.835915
67.484535 39.677788 38.85691
66.138535 40.87579 37.434914
70.458534 46.03679 27.10691
69.39354 47.33379 26.03991
34.691532 48.81979 55.78391
35.256535 50.83279 56.57691
30.031532 46.14579 65.82791
28.021532 45.89979 66.03591
6.4365335 32.22579 26.51091
4.9845333 31.94979 23.98391
14.051533 31.842789 16.720917
16.078533 31.651789 16.46991
21.004532 47.69379 62.64891
21.489532 49.98279 61.68091
27.409533 51.01279 49.57691
25.575533 52.11179 48.966908
31.322533 18.259796 45.250908
32.812534 18.13179 46.41491
26.049532 17.293793 56.48891
27.421534 16.441795 58.29791
55.211533 6.4467926 38.23991
53.115532 4.7287903 37.85191
49.197533 2.2837906 49.00591
46.862534 2.475792 48.68691
31.384533 67.85379 18.486916
33.652534 68.25779 18.332916
32.069534 2.412796 7.961914
33.017532 1.6587906 6.0829163
28.996532 5.612793 56.64891
29.002533 7.893791 56.140907
33.953533 11.025795 47.06891
33.925533 10.098793 44.993908
46.45053 47.87979 10.449913
45.124535 47.55279 8.698914
41.654533 49.11879 18.373917
42.995533 49.91379 19.46891
42.711533 60.08479 44.500908
43.108532 58.14879 43.06691
54.641533 61.107788 37.120907
53.710533 61.93579 35.354908
26.807533 37.27679 26.88591
27.095533 38.82179 28.117912
17.862534 41.87079 35.45591
18.170532 42.41479 37.407913
9.172533 25.839798 45.743908
11.332533 26.935791 45.175907
14.7325325 28.969791 36.16591
15.4235325 27.575798 34.473907
69.610535 0.9657898 31.012909
68.20354 0.32678986 32.934914
59.126534 1.0337906 38.69091
58.33153 68.35279 38.25791
2.1135333 53.31879 47.793907
2.1235332 51.71579 46.26891
9.878532 58.64979 39.954906
8.635533 59.04379 38.39991
17.938532 64.79679 6.3079147
18.600533 66.94079 6.7249146
24.217533 66.60779 72.55491
25.560534 65.76479 70.55891
4.1815333 61.66679 19.341911
5.7655334 63.11779 20.661911
0.9875333 57.66979 28.89991
-0.87146676 59.02779 29.322914
2.185536 59.00679 30.966908
2.832539 58.04879 33.314907
66.72854 57.40479 41.875908
67.51653 55.90279 43.696907
25.285532 35.89179 45.870907
27.470533 36.16879 46.36691
21.022533 29.50479 55.93091
21.756533 29.98979 58.28291
24.403532 24.054794 57.618908
23.368532 23.99179 55.52791
29.916533 27.237793 46.780907
29.137533 26.046791 44.56091
12.167533 24.719795 68.49191
10.002533 24.177795 68.66191
6.1595335 22.862793 4.923912
4.8455334 24.340797 5.221916
36.626534 25.169792 29.33191
36.347534 27.253792 28.976913
45.04053 31.162792 21.66291
44.444534 30.271793 19.363914
16.878532 24.300797 13.268913
15.634533 26.433792 12.7389145
20.179533 28.525795 1.7819138
22.494534 29.648792 1.6989136
16.078533 4.098793 10.970917
16.414534 6.0637894 12.134911
9.386533 3.8457947 20.461914
7.8905334 2.0757904 21.81491
57.888535 66.01179 39.750908
56.765533 64.03379 39.68491
53.510532 63.11079 50.98491
51.549534 62.02179 50.14591
61.280533 38.62079 18.785912
62.118534 40.86579 18.430916
54.002533 38.79179 27.820915
54.10253 40.29379 29.16291
45.92953 47.52579 59.653908
47.708534 46.59279 59.23191
53.31853 48.77679 51.43391
54.892532 47.10979 49.896908
26.128532 9.177795 58.46291
27.003532 7.0637894 57.91391
22.223534 9.009796 68.85291
20.458532 9.194794 68.04191
5.821533 60.67279 72.73491
6.5435333 61.004787 0.19391632
-4.446467 56.89379 6.779915
-4.3314667 54.80079 5.7719116
53.95753 39.96679 66.78591
53.986534 37.83779 68.16291
46.50553 35.33979 1.0319138
45.259533 36.90279 2.5669098
70.30054 23.446793 37.647907
69.74554 24.062798 39.80991
61.795532 22.56379 47.473907
61.499535 24.232796 49.502907
43.940533 44.86579 4.5899124
41.899532 46.28179 4.596916
35.24853 44.74579 14.60891
35.787533 45.93279 16.545914
55.166534 35.23779 11.229912
53.53253 36.53779 9.972916
61.278534 38.99279 74.27691
60.210533 41.15179 73.26891
15.153533 53.24879 21.757912
17.345533 53.05379 22.174911
23.173532 57.83579 14.132912
24.480534 57.04779 12.564911
54.923534 9.07579 20.355911
56.732533 10.496796 19.855911
60.632534 8.744789 9.146912
60.863533 6.758789 8.826912
37.725533 12.652794 47.57491
38.75453 12.940796 49.361908
33.653534 8.10479 59.53391
35.452534 6.38179 59.22591
14.317533 53.23779 3.3259125
14.909533 50.99079 2.0129166
22.531532 56.40779 68.81091
22.453533 54.88579 67.02991
46.659534 32.63479 59.758907
49.086533 32.107788 59.65891
52.760532 33.75779 47.618908
54.28953 35.23679 48.13891
0.71753323 63.65479 66.97491
0.85553324 65.42279 66.71091
12.062532 66.67679 61.445908
14.284533 66.24079 62.63791
40.529533 29.00779 34.995907
38.330532 29.970789 35.18491
28.510532 30.67479 42.81291
28.578533 32.26579 44.30491
50.009533 4.81279 35.24791
49.08953 5.84079 33.098915
56.412533 6.366791 22.70491
56.184532 5.7557907 20.435913
28.010532 66.66179 36.840908
27.543533 64.49779 37.188908
20.597532 67.08779 44.794907
21.396532 66.91079 46.91591
55.133533 63.671787 37.27491
53.91553 64.60579 35.700912
60.787533 66.96579 25.799911
60.615532 65.443794 24.528908
0.075538635 35.47179 39.862907
71.23154 35.983788 41.57391
65.60154 34.09779 51.94391
66.23054 32.16779 53.00291
68.081535 10.100792 32.99991
67.49254 8.056793 33.74991
59.738533 5.5047913 40.69291
59.72053 4.1137924 41.95791
36.272533 59.10179 54.87991
38.101532 59.79279 55.09991
49.51253 59.85779 50.134907
49.18553 60.11979 47.577908
58.06853 40.11879 15.055916
56.946533 40.68879 13.443916
62.697533 39.40879 3.5469131
62.785534 40.78479 1.3279114
60.868534 17.583794 30.309908
58.62353 18.16079 29.652908
51.328533 18.612793 38.92891
50.816532 16.954796 40.509907
44.988533 30.14279 60.43691
43.410534 29.00379 59.633907
35.82553 27.92779 66.74791
33.996532 27.30879 66.05391
17.196533 36.65479 72.37491
19.035532 37.010788 73.27191
26.361532 43.89479 67.69991
25.491533 44.48079 65.60391
34.80453 34.02879 17.241913
33.31753 33.753788 15.658913
28.618532 31.401789 25.99591
27.980534 29.25779 27.216911
2.249539 5.197792 73.99191
1.9025388 3.162796 74.08291
71.791534 65.50579 9.641914
72.06554 67.08979 11.553917
58.256535 8.209793 5.322914
57.16453 5.9607925 5.5289154
50.242535 6.230789 15.378914
50.19253 7.2177887 17.337914
12.532533 61.77779 38.80491
11.024533 60.60879 37.597908
22.128532 58.04179 29.52591
22.755533 60.475792 29.545914
22.441532 68.26779 30.74591
23.890533 67.12179 31.501915
33.134533 67.65779 24.950912
33.32453 68.75879 23.034912
40.757534 9.672791 47.35191
39.940533 11.432793 46.45591
48.702534 11.734795 38.315907
50.827534 13.005791 38.259907
13.667533 9.286789 62.45091
12.899533 7.675789 61.44291
20.567533 7.884796 52.31791
21.285532 9.352791 51.21091
53.124535 23.669792 44.95491
52.827534 25.142792 46.044907
42.544533 18.925789 52.09691
42.719532 18.49479 54.56091
9.467533 24.638794 11.235916
10.368533 26.069794 12.544914
6.6995335 21.110794 24.534912
4.521533 21.999794 24.23191
4.363533 20.273796 6.9319153
5.2725334 18.106789 7.4669113
-3.3724666 15.8617935 13.346916
-2.2234666 14.251793 14.55191
24.483532 40.03779 46.73491
24.848534 38.25079 46.799908
16.912533 40.69279 55.24691
16.314533 41.53079 57.070908
33.374535 13.949791 8.763916
34.243534 15.583794 10.485916
29.172533 11.602791 20.73191
28.768534 9.384796 20.78791
45.557533 65.74079 48.182907
44.343533 67.56479 47.661907
35.980534 63.19779 54.715908
36.03353 61.39479 53.382908
55.988533 36.03079 66.99391
57.884533 37.61579 67.84491
63.76253 44.04679 60.03391
63.857533 44.70379 57.41291
48.132534 33.281788 23.789917
48.851532 32.50779 21.548912
58.923534 36.76679 16.474915
59.09653 38.90879 17.241913
66.706535 32.44379 20.77391
66.04353 34.57579 22.124916
57.38653 30.984789 29.883911
57.670532 30.182789 31.822914
11.961533 51.42079 55.62991
10.606533 49.83079 55.35791
2.7045333 49.30479 64.13191
0.33453324 48.88779 64.12091
13.746532 42.51379 36.15791
15.852532 40.934788 37.210907
10.984532 38.65579 48.79691
10.571533 39.17179 51.02391
32.794533 46.92679 12.505913
31.713533 47.92779 10.407913
40.33253 48.17979 1.4509125
41.277534 45.89679 1.9549103
0.9025388 57.225792 13.185913
71.86754 58.16079 11.748917
62.251534 55.24679 17.78791
62.653534 56.82779 19.491913
37.280533 35.448788 16.31591
40.02553 35.26679 16.549911
48.006535 36.93079 8.142914
47.48453 38.60179 6.5799103
66.914536 5.96579 12.207916
68.15654 6.378792 13.784912
68.67554 3.6427917 25.917908
66.51854 3.3967896 25.867912
23.684532 43.24379 60.35991
24.519533 41.27079 60.87091
35.01253 41.96079 54.69891
34.25453 40.56779 53.022907
48.101532 29.783787 22.186913
46.53353 27.733795 22.201912
42.661533 25.940796 33.10591
41.990532 27.839798 32.365913
65.72754 4.6037903 28.10891
65.42654 6.914795 29.23491
55.38653 3.4697952 35.73191
56.923534 4.564789 37.33091
10.478533 66.39079 2.989914
8.570533 67.46579 3.348915
1.2685332 62.47779 11.459915
1.9045333 63.61679 13.606911
12.183533 7.983795 25.666908
12.031533 6.810791 27.883911
13.769533 13.490791 31.88491
13.225533 13.834793 29.685913
15.859532 68.595795 29.590908
16.478533 66.61279 30.068909
9.731533 65.84279 39.362907
10.430532 66.59979 41.447906
17.622532 8.209793 68.30891
17.645533 9.874794 70.02091
17.130533 15.221794 69.26991
15.753532 16.738792 69.22091
62.51853 13.333794 29.463913
61.62953 15.00779 30.322914
54.632534 14.452789 39.77391
56.57553 14.030792 40.83291
18.120533 3.3707886 66.42691
19.911533 3.9487915 67.14391
22.634533 8.092789 56.07491
24.878532 6.5477905 56.13591
49.677532 43.44279 11.785912
49.02553 41.18779 11.771912
53.80453 40.42679 13.528915
52.67953 39.58779 12.011917
4.6555333 3.5067902 1.1099167
5.1155334 5.291794 0.36091614
8.951532 5.070793 61.81291
10.721533 3.7647934 62.799908
17.381533 8.38179 30.707909
18.576532 6.5477905 29.443909
27.466534 9.717789 22.973915
28.747532 7.195793 22.603912
67.84953 11.380791 52.257908
66.85654 9.14679 51.34991
58.041534 4.608795 57.52491
57.792534 4.8237915 60.03891
64.56153 57.22679 5.112915
66.61854 56.45879 3.8279114
1.5545316 59.01979 69.30791
1.8195386 60.94079 70.26391
57.117535 23.412796 46.480907
55.12353 23.995796 46.965908
51.66453 23.939796 56.868908
52.23453 22.274796 58.01291
11.674533 19.295792 68.10291
12.990533 20.197792 69.99891
8.081533 13.89679 3.9799118
8.153533 11.172791 3.7839127
29.981533 19.675789 24.241913
31.960533 19.536789 25.56691
39.49753 19.393791 16.161911
41.577534 19.032791 16.834915
10.875533 30.98679 51.59991
10.378532 33.10079 51.65691
1.2075332 36.00579 59.15691
-0.5234667 34.705788 58.147907
0.43154144 69.24779 33.036907
71.22554 67.95179 32.69391
65.20154 66.52279 44.89591
66.48254 64.72679 45.70091
70.84054 60.07479 49.495907
70.15954 58.02979 49.590908
64.23753 55.59879 58.92891
63.563534 56.65679 60.95691
36.521534 4.558792 25.13691
38.763535 3.7347946 25.932915
43.500534 8.509796 14.553917
43.591534 10.429794 15.478912
18.885532 1.8657913 48.83791
18.884533 4.0057907 48.23391
23.270533 2.5937958 35.925907
25.113533 3.4067917 36.52791
29.972532 35.219788 45.46291
28.862534 34.91779 43.488907
38.792534 33.48579 36.72891
37.80353 32.84179 34.97891
17.434532 47.24579 4.2549133
15.307533 47.76979 3.9829102
9.914533 43.30179 14.709915
9.333532 44.07579 17.085915
65.57554 26.398796 54.50291
63.711533 27.067795 54.126907
58.724533 23.508797 65.56391
57.55453 25.314796 65.11391
2.638533 14.905792 2.0039139
3.8475332 13.247795 0.8189163
10.348533 14.156792 64.906906
11.200533 16.240791 64.76291
41.083534 51.83479 19.780914
40.645535 53.57979 20.974915
31.693533 49.76379 28.909912
31.471533 48.30179 30.879913
65.60154 45.89179 5.414917
63.219532 46.74379 5.4229126
65.89354 40.89679 5.1089096
67.69054 41.274788 6.7669144
31.947533 32.406788 11.849915
31.788532 33.90979 13.291916
23.449533 33.69279 21.140915
21.270533 34.57679 21.615913
37.95653 50.79979 55.882908
40.14353 50.78979 55.46991
44.961533 50.04079 45.61691
44.189533 51.17479 43.75491
24.202534 20.011795 20.75991
22.248533 21.468796 21.838913
16.127533 20.599792 31.661911
16.461533 18.692795 32.24591
52.347534 58.35279 51.71491
52.15053 56.27179 52.12191
48.445534 55.67479 63.45191
46.126534 54.22979 62.74191
64.92654 62.83979 6.402916
63.89453 64.10079 8.129913
55.40853 64.457794 17.558914
53.245533 63.29079 16.952911
40.534534 21.596794 69.99691
40.821533 20.217789 67.98291
49.284534 24.313797 59.841908
51.225533 25.327797 59.369907
60.527534 5.7347946 5.3099136
60.638535 7.678795 6.2309113
65.89254 11.1607895 70.52391
64.75854 12.388794 69.37791
21.175533 61.34779 27.389908
20.225533 62.82279 25.492912
30.172533 62.65479 17.595917
32.199535 63.976788 18.806915
31.359533 11.4747925 22.30291
30.998533 9.180794 23.570915
25.659533 4.9417953 34.587914
26.815533 5.652794 35.88291
59.287533 33.49579 69.04791
59.60953 35.371788 67.27991
68.02254 35.94979 59.87091
67.79654 34.93879 57.89391
9.933533 59.29879 18.504913
10.346533 58.56979 16.694916
16.580534 63.50879 8.895912
17.465532 62.39179 7.6569138
33.940533 60.76079 36.849915
36.194534 60.31079 36.56491
46.041534 63.83579 33.39991
46.606533 61.49279 32.571915
42.969532 48.35179 2.3219147
44.486534 47.17279 2.8519135
50.27653 50.80879 67.99091
51.945534 49.15579 67.38291
18.897533 50.85179 61.556908
18.553534 48.76079 63.30891
12.741533 51.24679 72.23991
11.023533 49.69979 72.53691
1.2035336 26.683792 4.404915
3.0015378 26.292793 5.7249146
71.49554 20.179794 17.048912
70.28754 19.595795 14.869911
20.767532 65.06479 28.48191
20.104532 65.65379 26.187912
30.492533 0.22379303 21.738914
31.729532 67.81979 21.111916
64.16154 24.225792 50.47191
63.764534 22.523796 49.481907
0.34153748 24.231796 41.19491
1.343533 25.830795 40.01191
30.384533 65.50079 73.88691
30.229532 64.62579 1.4279099
21.185534 65.50379 10.225914
22.161533 63.72779 11.748917
55.951534 59.99579 18.299911
57.381535 59.98479 20.053917
53.870533 54.41779 29.62091
52.139534 54.55779 31.198914
34.912533 20.523796 11.154915
33.70653 19.11879 11.308914
29.421534 20.84079 21.667915
27.386534 21.569794 22.650917
56.604534 14.394791 7.9249115
55.945534 14.313789 6.0409164
64.40453 15.383789 71.27591
62.955532 14.04879 69.98391
48.02553 46.77679 27.667908
49.889534 46.13579 27.498909
55.798534 51.66979 18.060913
56.99753 50.093792 18.471916
69.124535 4.176796 34.099907
69.72754 1.8877945 34.757908
62.06753 66.68279 41.926907
59.660534 67.42479 42.50391
62.107533 47.15579 56.69991
61.246532 48.68079 55.32891
71.54454 50.14979 48.737907
0.26354218 49.74479 46.834908
33.960533 30.31279 66.281906
32.117535 31.42079 67.49191
28.300533 29.44979 3.5789108
26.830532 27.974789 3.2939148
57.148533 30.54279 48.563908
56.954533 32.49579 47.613907
67.581535 33.045788 39.210907
66.59853 34.78279 37.868908
52.54653 47.36379 13.059914
53.118534 45.47779 14.31691
44.771534 45.60579 22.998917
45.531532 47.69379 22.818916
40.973534 63.879787 26.086914
43.113533 63.88879 26.39891
47.972534 68.47979 16.768913
47.559532 0.6177902 15.508911
25.148533 63.212788 67.55091
26.847532 63.88179 69.09691
34.132534 69.40479 60.12291
35.225533 68.17179 58.611908
6.9895334 14.820793 22.777916
6.684533 16.791794 22.21791
9.536532 20.363792 9.737915
9.319532 17.903793 9.059914
56.47153 2.3037949 59.85791
54.242535 1.6457901 59.06091
48.676533 69.45179 69.80491
47.08253 68.39379 68.54291
62.524532 48.59879 2.76091
64.00954 46.51779 2.5559158
71.29353 51.75379 68.07391
1.1685376 51.17179 67.59691
27.348534 56.35579 69.61391
27.238533 57.84179 71.13491
17.890533 57.62779 3.0729141
17.357533 56.49979 5.0959167
62.02553 2.3847961 24.59491
60.855534 69.624794 25.73391
56.454533 0.0027923584 36.683914
55.20753 68.30079 36.962914
30.190533 0.5297928 54.95691
29.893534 2.624794 54.38491
33.40753 2.626793 43.356907
35.119534 2.0497894 42.11491
38.140533 41.08879 37.43491
38.844532 41.74379 39.208908
30.101532 39.51179 47.141907
28.545532 38.97579 45.361908
25.841534 64.35779 50.162907
25.919533 63.31379 52.25991
19.090532 62.44579 62.49691
17.114532 62.90879 62.09591
20.932533 23.89479 57.01191
21.991533 22.71679 58.570908
13.082533 19.844795 65.38291
11.825533 21.203789 65.976906
29.331533 46.60879 10.411911
26.554533 46.12279 11.173912
21.515533 45.00879 21.901917
19.302532 45.58379 22.118912
0.21853638 34.66579 61.12391
1.6305356 34.719788 62.563908
66.41853 29.231789 70.37091
66.46454 29.27879 72.50591
63.990532 42.79379 73.88891
63.70053 42.62479 71.33991
0.24453735 42.67979 65.61491
72.163536 41.25279 63.94091
10.086533 14.514793 44.46291
11.986533 14.537796 44.44291
19.045532 20.690796 37.79191
18.610533 19.471794 35.81091
33.955532 64.75279 20.601913
32.069534 65.110794 21.671913
23.633533 65.36679 28.99591
23.108532 63.705788 29.103912
56.159534 29.68079 64.50391
56.608532 29.08079 62.23491
63.434532 32.34279 53.69891
62.559532 33.69979 52.286907
25.062532 19.998795 57.175907
23.813532 20.39579 55.05191
34.705532 25.275795 48.05291
34.26953 24.391792 46.113907
25.615532 39.50179 7.310913
22.851532 39.920788 6.9409103
18.213533 36.02979 17.114914
18.538532 36.68779 19.772911
42.536533 57.59979 24.715912
44.62953 58.26579 25.722908
49.117535 63.86879 15.519913
49.245533 66.19579 16.015915
32.348534 48.82879 34.390907
33.131535 47.03879 35.252907
25.013533 46.16179 44.035908
25.761534 47.32879 45.45691
53.15853 37.60079 48.320908
54.980534 38.19079 49.626907
51.676533 35.962788 61.52591
50.87353 34.28379 61.57191
0.42453766 69.54579 53.30591
71.88454 67.92379 52.369907
65.58754 62.11879 62.500908
66.17354 62.226788 64.28891
60.08853 58.99279 19.724915
59.663532 60.54879 18.46891
68.29554 63.90979 10.110916
70.152534 64.40079 11.360916
13.426533 68.46379 24.601913
12.697533 68.21779 22.46891
21.250532 1.1257935 13.880913
22.114532 3.18779 14.442917
44.701534 13.93779 34.361908
45.979534 14.338791 35.57991
39.224533 9.855789 44.313908
39.04753 8.183792 46.132908
3.6685376 15.674789 41.597908
4.5545316 15.460793 43.65091
65.89654 13.758789 48.30291
66.84853 12.693794 49.660908
53.638535 66.040794 72.63991
52.667534 66.46179 70.27791
59.634533 68.02279 62.82291
58.440533 69.07479 61.12891
29.075533 60.05979 14.842911
27.634533 58.66579 15.559914
21.921534 57.96479 26.897911
20.489532 59.02879 26.257912
4.3925333 68.58479 58.029907
2.8625333 69.25479 56.618908
0.43753326 67.90979 67.87691
-1.5044668 69.00279 68.30891
19.468533 57.79579 60.49791
21.349533 56.55679 61.320908
29.189533 59.80579 53.688908
28.902533 61.72779 52.972908
66.649536 24.642792 70.29191
66.94054 26.424797 69.95491
66.59054 24.306793 57.86091
68.86654 23.10479 57.15891
70.929535 31.03479 3.9339142
71.899536 28.96479 4.4979095
62.69953 30.31279 12.351913
60.771534 30.78079 12.63591
54.87253 19.050789 7.157913
53.932533 20.732796 6.944916
45.895535 14.356789 15.326912
45.67953 12.330795 15.971916
53.666534 67.98379 56.94291
51.615532 67.04279 56.924908
44.966534 68.152794 66.90891
44.67253 0.73979187 66.66691
33.580532 40.656788 50.18091
35.531532 41.614788 50.51191
42.91553 47.23779 42.501907
42.29653 46.01079 40.99191
9.692533 46.08979 52.82591
11.225533 45.38379 54.58891
2.0105333 44.94379 64.83491
2.9905334 43.15379 65.71491
67.15754 21.141792 55.72591
65.07454 22.263794 56.472908
62.530533 11.750793 64.94191
63.438534 13.456795 66.420906
41.938534 31.30879 18.55291
43.16453 32.60479 18.775917
48.911533 30.37179 7.350914
47.551533 30.41679 5.9989166
8.931533 42.51879 33.458908
9.519533 44.08979 35.50491
6.9095335 35.98079 45.806908
4.6695333 36.29079 45.952908
1.8565335 10.806793 1.1459122
72.40453 9.582794 0.9629135
68.28554 4.058792 10.387917
69.039536 4.1277924 12.665916
29.500532 42.61679 48.994907
27.440533 42.43979 49.32591
22.789534 37.57279 59.222908
22.199533 40.21779 59.73591
11.243533 63.68679 57.29591
9.111533 61.83279 57.32591
5.1725335 62.622787 68.82391
4.868533 61.073788 70.33491
4.768533 59.63979 12.893913
3.7745333 61.23879 10.700912
8.013533 65.09379 2.076912
7.7005334 64.06179 0.1729126
30.513533 51.60179 69.13391
30.113533 50.97379 67.36091
39.139534 53.40079 59.74791
39.779533 51.74879 58.31091
55.815533 22.878792 25.353912
57.133533 24.71379 25.52391
62.090534 26.413795 14.500916
62.801533 28.372795 14.554916
48.375534 15.947792 2.3239136
49.43653 13.90979 2.402916
56.37353 14.606789 66.20891
57.11653 15.483795 64.43291
58.744534 5.3337936 23.061913
60.594532 4.763794 23.491913
66.70454 3.152794 12.325912
66.400536 2.2687912 10.623917
33.70053 4.794792 45.480907
35.378532 3.289795 46.620907
33.938534 68.06479 56.278908
32.689533 66.623795 55.46291
65.38254 11.332794 66.53891
65.122536 10.70079 64.34191
1.110539 11.02179 57.59291
3.0175366 11.023796 57.92291
18.001534 24.012794 36.196915
18.672533 22.901794 34.378914
28.874533 24.46379 30.334915
28.432533 24.631798 28.185913
33.052532 6.968796 40.669907
30.478533 7.675789 40.97191
27.596533 3.1937943 50.99891
25.214533 3.39579 51.47691
25.577534 1.3127899 38.65991
27.730534 0.9687958 39.654907
25.419533 68.15579 48.37291
26.450533 67.27179 50.424908
37.800533 13.822792 10.267914
36.357533 13.487793 8.391914
46.229534 19.375793 1.3969116
46.45653 18.109795 73.86791
68.53354 15.938789 72.97291
68.10754 17.649796 0.027915955
61.26853 18.29779 8.98291
60.007534 20.310791 10.155914
64.15853 53.05479 42.118908
64.53454 54.76679 43.52791
57.413532 49.01179 52.14591
55.673534 50.54279 51.112907
10.480533 53.65079 74.28291
9.901533 55.24179 73.02391
21.180532 56.79879 65.29791
19.721533 55.82079 63.361908
7.900533 52.76879 15.984917
6.631533 50.73379 16.62191
2.661533 53.14579 28.12091
0.22853324 53.25279 27.888908
5.684533 11.93679 41.743908
6.4895334 14.213791 42.19491
16.119534 17.108795 34.362907
17.304533 15.315796 33.16691
7.3665333 26.269789 59.98291
6.2985334 27.53779 61.76791
14.337533 34.96879 57.46991
17.006533 34.49379 57.112907
62.052532 30.91679 52.20591
59.758533 30.795788 52.65591
56.59553 24.216797 62.34691
55.233532 25.419792 63.43691
31.490532 55.68079 15.193916
29.125532 55.86979 15.333916
22.270533 52.97179 24.638908
19.984533 53.83379 25.168915
10.424533 27.225792 28.348915
10.238533 29.100788 27.030914
20.505533 29.671787 21.145912
20.137533 29.174793 19.146912
71.64354 44.47879 46.160908
72.372536 44.684788 47.89391
66.55954 42.84479 57.58991
66.830536 40.92879 57.54191
1.8525357 66.82179 70.39291
3.2755322 66.74479 72.30491
69.46754 60.91079 5.3679123
67.65854 62.323788 5.241913
44.733532 34.87079 19.432915
45.945534 33.34779 19.710915
56.590534 31.66979 13.771912
55.066532 32.15879 12.147911
58.15153 34.41779 14.494911
59.92853 33.08979 13.7129135
64.90854 34.55879 2.7159119
63.779533 35.68679 0.55290985
71.60154 25.46379 22.264915
0.46553802 24.17279 23.77391
68.62954 23.940796 34.48391
68.09254 21.430794 35.31991
36.406532 39.47179 54.472908
35.492535 36.73579 54.74591
30.476532 37.739788 66.03391
29.546534 39.77979 66.48791
20.392532 23.093796 37.39291
19.853533 24.983795 38.369907
16.241533 21.319794 48.806908
15.094533 22.346794 50.592907
69.71554 24.67279 72.67291
69.14454 25.681793 71.21591
2.4655347 29.561787 60.54091
4.7525373 29.800793 60.97591
22.370533 54.86379 43.89291
21.570534 54.54279 41.945908
28.668533 54.41279 32.69491
30.330532 56.24379 32.50391
28.072533 10.348793 39.08091
29.278532 8.800789 37.55091
35.222534 8.1607895 26.671913
34.801533 7.8287888 24.588913
25.182533 18.50779 38.94291
25.355534 17.129791 37.07991
30.576532 19.54979 27.894913
31.527533 21.776794 28.307915
8.162533 28.354797 46.73491
6.348533 26.988792 46.89991
4.3325334 26.903793 59.750908
3.1145332 24.993797 59.72491
39.125534 9.3237915 68.93291
38.323532 7.9867935 67.22591
26.985533 7.1377945 71.63791
26.615532 7.7767944 74.00391
45.777534 23.07779 55.88691
47.508533 24.205795 56.189907
54.04053 30.476788 48.383907
54.882534 28.46379 48.77691
25.540533 68.08579 69.83891
25.176533 68.18579 67.62291
30.551533 6.8027954 61.79891
30.933533 7.8307953 59.925907
8.263533 18.59079 63.02091
8.854533 17.092789 61.28991
17.063532 21.79879 54.292908
17.398533 20.676796 51.882908
42.688534 4.404793 12.58091
43.092533 1.8047943 13.03891
40.224533 68.68279 24.87191
38.628532 66.97679 24.09291
48.562534 48.96579 66.61791
49.66453 47.17979 67.11091
42.003532 42.07879 0.7979126
43.33953 41.54279 2.6689148
7.440533 31.165789 45.57291
6.0965333 30.908789 43.264908
12.219533 35.40079 34.639908
10.9235325 33.205788 34.50491
2.2485332 28.41979 23.341911
1.7095332 28.21879 21.323914
8.121533 33.08279 13.465912
10.463532 34.066788 12.775917
59.795532 58.17779 5.1209106
61.74153 57.75879 6.029915
55.65053 56.36579 12.967911
53.009533 55.62879 12.428917
9.503532 13.013794 6.2669144
9.073533 15.139793 7.386917
0.88753325 13.557793 16.252914
0.9955333 15.954796 15.88591
42.737534 6.6377945 32.834908
42.412533 4.794792 31.805908
38.913532 68.290794 42.86691
36.829533 67.85879 41.97191
5.5815334 62.46379 16.138916
4.900533 64.33079 17.174911
10.119533 0.5937958 6.5949097
12.304533 0.35979462 6.145912
44.906532 44.08579 25.603912
45.954533 44.81679 27.044914
39.63053 50.19479 36.51391
39.937534 48.88179 38.31991
40.597534 37.22879 58.53191
38.876534 38.34079 58.41391
32.555534 34.996788 67.78791
31.753532 33.67179 66.15191
53.920532 66.22879 59.00691
53.559532 63.79879 58.736908
44.49853 57.67479 63.619907
42.823532 58.56779 63.077908
70.60454 35.80479 22.99791
68.414536 35.990788 23.588913
60.03353 35.08979 31.471909
60.17953 37.10979 32.644913
55.718533 55.84979 16.056915
54.431534 55.45479 18.003914
47.189533 50.33079 26.521912
47.92953 51.66579 27.513908
32.37253 28.843796 64.726906
31.089533 26.960793 65.87491
24.333532 25.109795 1.4509125
22.497532 24.720795 0.53391266
53.487534 37.11179 45.00691
55.066532 34.82479 45.508907
61.723534 38.545788 36.18791
60.67853 37.20979 35.59491
15.062532 10.859795 31.97091
15.8315325 8.711792 32.98591
9.117533 4.09079 42.74791
6.9825335 4.1797943 42.26791
43.550533 48.67679 4.902916
43.579533 48.70179 6.967911
35.06853 48.98079 13.919914
35.085533 50.53279 15.280914
64.27953 18.056793 12.459915
64.32353 20.498795 13.743912
61.510532 18.376793 26.659912
59.805534 17.342789 27.14991
54.62953 23.00779 64.52891
52.260532 22.207794 63.85291
49.654533 21.441795 2.3969116
47.729534 21.871796 2.0499115
5.775533 52.46679 14.117912
5.236533 50.23079 13.67791
14.093533 51.65779 5.320915
16.030533 51.28979 5.140915
27.140533 11.734795 57.78891
28.687532 10.835793 57.272907
33.54753 15.753792 47.640907
35.40753 16.56279 47.771908
51.253532 30.53179 26.34491
49.92953 31.61479 27.889908
47.013535 26.151789 36.977913
49.166534 26.099789 37.268913
35.620533 56.59779 73.50291
35.104534 55.41579 0.98591614
27.964533 55.62479 9.797913
26.131533 54.85979 9.778915
34.923534 44.88779 53.38691
36.59553 43.55579 53.37391
44.54753 47.62179 44.89391
46.726532 46.85879 44.918907
27.128532 2.2807922 53.95191
27.689533 0.43978882 55.48491
23.011534 1.9597931 66.07891
22.669533 69.34979 67.09691
13.1735325 34.40479 15.66391
15.883533 33.76279 14.794914
19.481533 40.04479 4.444916
21.104532 40.74979 5.409912
27.369534 29.10679 45.738907
26.989532 31.42379 46.340908
16.437532 27.80979 53.06891
15.847533 26.21879 51.44291
53.680534 53.72379 72.21991
53.821533 54.98179 74.29991
47.953533 49.63079 8.862915
45.751534 50.95379 9.7769165
62.617535 59.57779 62.81191
63.642532 60.93979 63.81291
55.65153 57.56679 73.37391
54.70653 59.39679 72.13791
18.273533 56.13879 25.668915
17.860533 58.35679 26.39991
7.7745333 59.03079 35.80491
6.268533 57.76979 34.361908
66.429535 45.28679 42.120907
64.97954 46.38879 42.120907
55.452534 45.10879 47.09491
56.967533 46.39579 48.64391
9.403533 56.586792 18.94091
7.1265335 56.48679 17.590912
-1.1464667 53.02979 25.017914
-0.15146676 55.19979 23.570915
7.3515334 16.703789 5.5239105
9.368533 17.682793 6.3399124
16.784533 23.337791 72.59091
15.519533 23.771797 70.92391
42.100533 2.086792 8.92691
42.634533 4.2697906 9.325912
51.278534 12.13279 5.6609116
50.954533 11.764793 3.7179108
61.002533 64.40379 42.33991
62.793533 62.865788 43.15291
58.736534 59.79079 54.46891
56.51253 59.51479 53.96091
51.538532 2.6187897 17.31491
50.767532 3.2367935 15.347916
59.45653 1.8147888 7.48291
60.023533 3.8997955 7.3189163
11.947533 6.7247925 9.870911
12.039533 8.684792 10.584915
3.0745332 7.67379 17.46991
1.6975332 9.3877945 17.757912
68.14153 51.00779 5.03891
66.95254 52.86979 4.261917
4.110539 55.47679 71.27491
4.4395337 54.07279 69.93691
12.321533 57.02679 58.47491
11.198533 55.33179 57.278908
3.7305334 52.49879 67.88091
5.243533 50.90779 68.86791
52.330532 9.57579 19.618912
52.605534 8.797791 21.808914
46.198532 5.600792 32.12291
44.933533 3.9887924 31.488914
5.848533 36.36379 65.08691
4.7805333 36.68279 63.24791
12.481533 40.677788 54.44691
11.535533 41.40179 52.73191
36.355534 26.315796 69.03991
34.036533 25.980797 68.38491
26.803534 24.562798 4.2909164
26.663532 22.38379 4.6099167
11.744533 7.473793 7.326912
10.729533 7.7607956 5.395912
19.089533 14.928795 72.17691
20.855534 13.341789 72.32191
67.75354 62.78079 66.33691
67.22654 60.45579 66.62291
59.51253 59.92579 0.71990967
60.485535 58.75679 2.1979141
37.313534 22.526794 29.058908
36.986534 22.721794 31.628908
31.210533 20.462791 40.509907
28.877533 20.066795 40.265907
50.236534 51.32279 29.306908
50.58953 52.43279 27.627914
57.538532 55.21579 18.73191
57.856533 53.41379 17.825912
61.419533 2.183792 62.771908
63.424534 0.7857895 62.46491
69.193535 10.130791 54.19491
71.19054 9.424789 53.750908
37.50453 13.141792 29.114914
37.007534 12.570793 27.364914
46.445534 12.787796 20.114914
48.770535 12.627792 20.655914
8.6595335 36.989788 50.97791
9.976533 35.80879 52.43591
9.168532 35.45479 65.15491
8.535533 33.42279 66.00791
36.524532 15.850792 12.254913
38.65053 15.553795 13.590912
29.710533 15.532791 22.257912
30.416533 17.223793 23.07991
67.818535 68.12079 8.943916
68.06254 66.53279 10.376915
58.240532 66.96079 18.466911
58.89353 69.22279 19.549911
6.5485334 45.17379 51.556908
8.080533 46.14479 50.383907
12.491533 49.33579 40.183907
12.637533 51.66679 39.070908
47.513535 49.86979 11.977913
48.008533 47.93979 12.758911
43.245533 51.93379 21.324913
44.131535 52.86279 23.355911
23.748533 39.86179 63.06091
21.939533 41.66179 64.45991
21.855534 37.781788 61.93391
23.689533 36.712788 62.87391
66.80653 37.83379 18.636917
65.720535 36.16079 17.541916
5.124539 38.95879 10.95491
4.7385373 37.51279 9.601913
37.885532 35.88379 55.85091
38.478535 34.81579 53.897907
47.382534 40.37079 47.460907
47.210533 42.36079 46.106907
40.465534 20.211792 53.81191
39.938534 22.178795 54.65791
31.754532 15.772789 61.50991
29.711533 14.570793 60.91291
38.403534 32.11979 52.508907
36.572533 32.46979 51.05991
44.097534 37.24579 43.26291
46.079533 36.43679 42.52091
48.001534 55.55079 11.28791
48.231533 53.48679 11.359917
38.83153 51.38779 15.91291
37.54053 49.47079 16.340912
59.19253 63.19279 3.2089157
59.79053 64.63279 4.4959106
52.45053 64.02179 14.267914
51.343533 62.191788 14.6519165
28.173532 9.74379 1.0579147
26.638533 11.418793 74.36991
34.571533 14.390793 67.18591
34.724533 16.96479 67.23091
67.399536 57.45979 46.120907
68.415535 55.35579 46.383907
63.788532 49.41579 56.028908
63.077534 50.26679 58.59691
59.13053 31.02579 70.36791
59.79753 29.040789 70.53291
49.534534 27.18579 2.2389145
47.895535 28.49279 3.0149155
34.085533 56.41379 34.38691
33.305534 55.27479 32.68891
41.990532 54.68279 23.95591
43.308533 54.11679 25.699913
63.381535 69.32079 24.16291
62.319534 0.36479187 22.629913
72.153534 2.8807907 15.920914
72.11954 4.610794 17.077911
5.0875335 41.371788 66.824905
5.5545335 43.010788 67.76391
13.910533 43.86579 58.403908
15.947533 43.67679 58.931908
10.040533 69.41079 42.10291
12.035533 1.0717926 42.40091
15.139533 2.3177948 30.049908
13.980533 1.1707916 28.435907
15.992533 55.82079 22.994911
15.502533 56.42979 20.752914
23.751534 60.51079 13.78891
23.820534 59.600792 11.55191
9.806533 28.175797 67.84691
8.736533 30.357792 68.72891
-1.3054667 25.625793 0.18991089
-0.50946677 23.412796 0.7559128
9.905533 54.00579 17.654915
10.915533 52.06779 16.716911
20.137533 57.36779 11.446915
22.031532 56.55279 11.283913
43.048534 31.300789 37.39691
43.730534 33.62079 38.029915
53.174534 38.64579 31.739914
55.467533 37.74579 31.126915
20.137533 15.466789 69.53391
21.349533 13.152794 69.46791
24.424532 11.61879 58.09991
24.239532 12.807793 56.60691
3.4115338 60.13879 52.15891
3.2775388 62.107788 53.24091
68.36754 61.50279 62.73891
68.90453 60.17979 64.34091
61.607533 49.17479 16.738914
62.156532 47.18979 16.46891
65.97353 49.26979 4.8729095
65.07754 51.06679 3.8599167
45.541534 29.849789 3.923912
45.16453 28.91779 5.4699097
34.735535 25.905792 10.159912
36.184532 26.788795 11.9889145
70.39654 61.886787 30.09591
68.88454 63.525787 30.991909
64.00654 60.93279 40.711906
63.95053 59.100792 41.47791
4.8435335 27.37079 44.439907
4.3325334 26.43779 42.53291
10.320533 30.047789 33.56891
10.1665325 29.99379 31.61291
1.2185333 7.9907913 35.31891
2.9035332 9.628792 34.795914
7.7465334 6.5757904 23.629913
6.301533 8.163795 24.68991
49.309532 69.33679 50.56591
47.013535 68.19079 51.17091
42.177532 63.413788 62.42391
40.854534 65.15879 62.41991
15.690533 61.48479 44.563908
17.518534 61.28079 45.80891
11.815533 58.95979 56.521908
10.953533 60.60379 56.05291
22.327534 44.21879 64.35791
20.628532 45.36079 64.060905
12.901533 42.246788 70.21991
10.744533 41.92379 69.67191
19.398533 48.28079 22.768913
19.148533 48.28679 20.30091
27.909533 52.53479 13.425911
27.914534 51.95879 11.49691
2.9445333 68.56179 33.28891
4.072533 66.46079 32.69291
11.593533 64.06679 22.71891
10.551533 64.70879 20.673912
48.092533 66.58379 47.31891
46.024532 66.36279 45.49291
49.670532 2.8297958 37.28291
50.180534 1.7827911 35.54091
15.180532 66.56079 27.707909
13.072533 68.37879 27.651909
4.506533 68.554794 36.375908
3.8965333 66.89879 35.38591
2.8845332 69.54479 72.76491
4.509533 1.2557907 73.17991
7.6605334 0.5477905 59.883907
9.448533 68.28379 60.00591
28.849533 42.31379 67.72891
30.326532 41.35279 69.01891
21.159533 41.90379 3.03891
19.975533 42.37779 1.0479126
45.33853 7.99279 33.49091
44.919533 6.525795 34.626907
37.390533 2.6427917 43.598907
37.659534 4.8027954 45.42391
17.542532 24.337791 15.9889145
18.472532 26.117798 15.460915
26.755533 28.732796 7.3119125
25.921534 29.38779 5.4489136
27.348534 27.59479 58.16291
28.874533 29.23079 59.57891
39.717533 29.37479 56.00591
41.30453 30.07679 57.500908
12.444532 36.010788 17.597916
11.930532 34.21679 19.012917
1.4495332 39.72579 23.113914
2.5435333 39.63179 24.735909
66.875534 5.796791 48.79591
65.17554 4.400795 49.54091
60.842533 0.9177933 60.181908
59.64353 2.5127945 60.715908
20.154533 57.53379 6.6589127
20.144533 55.62379 7.1449127
10.436533 55.90279 15.46991
8.733533 54.81979 14.197914
4.562535 21.626793 3.0239105
3.2295346 20.371796 4.4549103
68.01653 19.767792 13.544914
66.873535 21.695793 13.23391
7.3715334 64.29479 18.423912
9.305532 65.29479 18.569916
14.596533 65.05779 8.350914
14.382533 63.59779 6.467911
37.973534 54.66079 57.60691
38.404533 53.54579 55.42991
44.43653 58.15379 46.76291
42.281532 57.63179 45.661907
26.421534 55.45779 47.93791
26.761534 53.98379 46.154907
32.585533 58.42179 35.94791
31.428534 59.96279 35.648907
6.3445334 10.888794 57.72791
5.6395335 10.399796 55.50291
13.1405325 13.303795 46.97691
14.271533 12.856789 44.89391
46.483532 35.86179 23.590912
45.166534 37.52279 24.110916
37.050533 35.52779 32.711914
36.85253 33.37779 32.311913
48.802532 57.56179 29.027908
48.257534 55.52579 28.073914
50.62953 59.75979 16.243912
51.17853 58.45379 14.98291
33.81853 53.75079 71.52791
35.766533 54.65379 71.80491
43.92853 60.73179 66.49891
44.245533 62.587788 67.40791
49.349533 6.6307907 72.65291
48.10253 6.1797943 70.92591
56.138535 7.454796 61.925907
55.503532 8.537796 59.91391
17.554533 48.16479 59.54891
17.256533 46.99579 61.68691
8.688533 46.24279 70.49491
7.1995335 47.47779 69.70791
67.540535 37.78579 37.044914
68.11954 35.72879 36.02691
2.5905347 35.469788 29.281914
3.7035336 36.48779 27.82991
40.099533 43.58379 37.266914
40.26153 41.031788 35.972908
44.548534 39.51479 25.84591
46.83853 40.21679 25.18991
33.576534 22.196793 62.257908
33.294533 23.702797 60.08791
39.126534 27.972794 51.95591
38.219532 29.426792 53.09391
29.383533 64.027794 15.16391
28.706533 62.60379 13.264915
35.53353 66.471794 4.866913
36.476532 64.49579 4.017914
20.873533 61.128788 66.43291
23.178534 62.41679 65.89091
31.467533 64.791794 56.99891
30.581533 63.372787 55.543907
28.556532 39.35979 12.018913
26.863533 38.99479 10.32991
18.190533 32.26179 14.711914
19.021532 32.12579 16.78891
19.528532 63.79779 65.574905
19.329533 64.89579 63.38191
31.286533 69.345795 59.439907
31.736532 69.10379 57.049908
11.894533 15.540794 7.7129135
12.086533 13.485794 6.428917
18.767532 21.739792 74.08191
20.461533 21.279793 0.42991638
13.350533 15.889793 66.12891
12.925532 13.61779 64.781906
14.286532 3.8237915 63.876907
13.2985325 2.9587936 61.847908
15.063533 10.315796 29.406914
15.960533 8.468796 28.278908
23.176533 14.455795 21.433914
22.821533 14.416794 19.160912
12.478533 28.90379 52.40191
13.841533 28.97279 54.27091
7.3785334 24.18679 61.72891
7.769533 23.040794 63.33191
20.653532 3.1437912 70.68491
19.866533 5.265793 70.23491
11.971533 3.3637924 6.1069107
11.080533 5.015793 5.661911
12.252533 31.149792 14.786911
12.394533 28.514793 14.364914
4.058533 26.373795 24.640915
2.3725333 25.951797 23.127914
35.33853 62.05379 57.20491
34.043533 63.719788 58.93491
27.648533 60.86179 68.18091
28.224533 59.12679 68.88991
21.072533 49.77279 41.49891
22.878532 48.14179 41.40691
30.251534 49.76979 32.84391
31.878532 50.80579 32.05991
60.452534 45.09079 17.771912
60.486534 44.66979 15.813911
68.277534 44.16479 6.9019165
70.55753 43.55079 7.279915
31.308533 49.95579 12.244911
29.227533 49.95379 12.999916
22.699533 47.468792 22.55291
23.897533 47.53979 24.303917
9.750533 61.427788 20.418915
11.1735325 59.95479 21.993912
1.7095332 62.68679 29.38491
-0.15946677 63.89479 29.743912
56.855534 18.36679 25.507912
57.287533 16.65879 23.539917
60.396534 23.758797 13.45591
58.898533 23.58879 12.130913
4.220532 29.409794 6.4989166
3.6915326 27.623795 8.245911
68.194534 23.807793 13.805916
69.399536 22.262794 14.7129135
18.705532 16.96679 17.991913
19.077534 17.624794 19.96891
14.433533 18.017792 30.709915
15.502533 15.588791 30.95691
48.052532 10.607796 34.49891
50.223534 10.886795 34.70491
55.284534 9.766792 23.249916
56.18553 11.6987915 22.048912
43.612534 65.46979 44.870907
43.051533 66.15879 43.01891
48.728535 67.04879 34.112907
48.848534 69.12179 34.973907
24.401533 62.34579 10.990913
25.310534 63.74379 11.930916
33.174534 65.37779 3.050911
32.508533 66.40879 1.3399124
13.430532 61.09579 21.750916
12.215533 62.43579 20.465912
22.748533 65.68779 13.611916
21.962532 68.13979 13.846916
3.6575332 55.13779 52.125908
4.190533 54.51279 49.65091
11.308533 62.90879 44.91591
10.983533 64.42679 43.06991
62.507534 22.79979 32.72691
61.028534 22.14579 34.175907
63.742535 24.657791 34.49191
65.84254 23.388794 34.007908
32.633533 31.45879 9.378914
34.417534 30.58979 10.856911
41.37253 31.39979 0.106910706
43.24753 30.42779 1.0339127
-1.4644668 56.336792 46.78291
-1.0984668 58.62679 46.50491
4.369533 59.73779 35.320908
5.7005334 61.61079 34.79691
5.6405377 36.90579 48.611908
4.9745374 38.64379 47.90191
66.54654 34.58879 54.54891
65.692535 35.81479 56.06991
37.333534 7.1067886 25.144913
38.863533 6.690796 26.890915
46.585533 8.905792 17.777916
47.514534 11.055794 18.308914
41.02653 19.609795 31.855907
41.791534 19.295792 33.99991
33.83953 21.192795 42.738907
35.048534 22.039795 44.58791
53.903534 32.295788 45.743908
51.881535 32.03379 44.537907
60.190533 33.52979 34.66591
61.184532 31.922789 33.85091
61.90153 68.37779 61.44991
60.835533 67.80979 59.85191
68.36454 1.4547958 50.40891
66.04554 1.4867935 49.285908
34.295532 23.705795 11.23391
32.841534 21.942795 11.883911
23.191532 25.905792 18.006912
22.353533 23.946793 18.559914
35.298534 7.13179 62.994907
34.858532 8.998795 61.71291
42.835533 12.954796 53.111908
41.108532 12.7367935 50.94291
37.113533 55.04979 38.89491
34.70653 55.17679 38.85991
33.37953 53.49779 50.57991
31.847532 53.64479 51.50991
29.122532 5.386795 1.7999115
29.331533 3.5577927 2.7699127
19.306532 2.0057907 9.416916
20.077534 1.862793 11.207916
60.237534 56.461792 0.8739166
59.53953 55.58079 3.1979141
49.871532 53.75879 8.930916
49.45053 51.56179 9.904915
40.104534 26.63079 33.716908
39.590534 24.600792 33.82591
30.129532 23.250793 41.461906
31.557533 23.189789 43.251907
42.780533 38.40479 2.4839096
43.295532 36.96779 0.89391327
51.454533 42.53979 67.43691
52.432533 42.10079 69.64591
47.078533 28.512794 40.88191
46.226532 29.008793 42.90691
37.611534 25.206795 48.43591
38.73453 27.454796 49.307907
14.615533 53.70479 58.30891
15.998533 53.99779 59.508907
8.181533 52.07179 68.74191
7.848533 52.20979 71.06791
37.00553 43.51979 38.39491
35.715534 45.95779 38.48391
28.451532 43.60479 46.63791
27.235533 45.10379 46.01991
53.205532 20.218796 25.059914
52.236534 21.234795 26.574913
43.66553 17.502792 32.488914
44.205532 16.356789 34.10791
47.981533 25.809792 41.14991
46.133533 24.782791 42.347908
39.799534 19.52079 47.10091
39.10253 19.803795 49.29691
65.76954 40.13679 1.9689102
67.277534 38.97479 3.0789108
3.5145383 41.96479 69.39091
3.0545316 44.06879 68.26491
2.8395352 32.705788 25.661911
2.2385373 33.75579 27.363914
65.886536 32.48879 34.62491
63.701534 32.83279 34.78791
39.78353 58.80579 20.139915
38.746532 57.69279 18.098915
44.579533 66.75079 13.292915
43.77553 68.90979 14.194916
29.381533 45.28179 29.88691
29.936533 43.16079 28.73291
37.333534 50.343792 19.46791
38.781532 48.66979 18.500916
0.80853325 45.03179 25.824913
-0.3944668 46.11879 24.80191
7.810533 46.37379 16.70591
7.526533 45.80079 14.414917
14.952533 38.87579 54.689907
14.103533 39.86379 56.55491
9.680532 37.20479 67.19191
10.741533 38.20279 68.79591
46.14353 59.29279 8.226913
44.57553 59.56079 6.444916
51.462532 63.62479 73.25991
52.888535 62.80879 71.31791
34.388535 47.53979 32.77391
35.246532 49.49579 31.529915
43.153534 48.26579 24.38491
43.37353 50.36779 24.465912
14.314533 42.84679 19.234917
14.527533 44.04879 21.127914
3.5775332 40.31579 27.238914
2.8535333 42.53979 26.876915
8.0675335 29.55179 65.85591
6.5305333 30.57379 66.93291
-1.1144667 28.418789 1.513916
-2.8134668 28.12279 0.78391266
18.466534 33.97179 72.47191
17.257532 32.18979 72.30491
21.470533 32.86679 59.27491
19.420532 32.26179 58.264908
6.9955335 68.80779 57.60291
6.0695333 68.402794 55.82991
16.476534 0.28779602 48.661907
14.718533 69.317795 47.056908
21.782534 46.19679 6.3799133
22.088533 44.97379 8.703911
13.675532 41.34179 17.05091
14.967533 39.78579 17.999916
12.217533 18.39679 47.03391
14.426533 18.749794 47.884907
18.699533 14.39679 37.45791
18.026533 16.782791 36.10091
27.386534 49.69079 8.976913
29.393534 48.73379 8.657913
37.152534 56.26479 2.5519104
38.027534 57.55079 3.664917
11.198533 68.76579 20.294914
12.211533 66.83579 19.95391
18.409533 65.46879 10.181915
18.845533 67.109795 9.471916
14.264533 37.64779 19.571915
14.047533 39.30379 20.652916
6.6925335 38.81379 29.411911
5.309533 36.63479 29.756912
2.8885334 42.82779 7.6039124
4.6825333 42.39079 8.418915
8.266533 42.46779 71.06591
6.6465335 40.78079 70.61791
4.606533 24.731796 26.639908
5.1465335 22.453789 26.736908
1.0705333 20.925789 38.92691
-1.1214668 20.948792 38.018913
39.132534 67.23279 61.507908
37.910534 65.64979 61.639908
32.918533 64.52279 71.02791
30.739532 63.35579 72.30391
56.156532 68.29879 0.38391113
56.210533 66.10179 1.4709167
49.843533 67.39679 12.640915
49.279533 68.91879 13.977913
51.078533 37.50079 46.31191
51.44953 36.059788 46.78391
44.29053 37.621788 57.33791
46.446533 37.91179 58.29791
71.802536 50.42579 26.792908
70.86454 48.86979 27.94091
67.26754 46.32079 39.20591
68.860535 44.91679 40.73191
19.229532 26.123795 0.6749115
19.957533 24.050797 1.112915
14.552533 23.606796 12.13591
14.413533 21.291794 12.666916
15.090533 18.217789 66.16591
16.077534 15.8497925 66.49591
24.340532 16.705795 59.83091
25.297533 14.580795 58.72091
46.548534 28.025795 0.6139145
45.983532 25.431793 74.13991
56.516533 28.697792 67.08291
57.974533 26.984795 67.31491
23.221533 34.68379 40.83791
23.507532 33.24279 42.51291
19.259533 31.99379 53.640907
17.354532 33.09779 54.37791
26.718533 28.45279 42.17791
28.728533 27.984789 42.96291
33.91453 31.731789 32.68491
34.101532 34.10979 31.424908
31.160532 57.69479 72.63691
30.429533 60.07379 72.97091
19.253532 59.31179 4.8569107
18.256533 61.70679 5.1749115
41.54053 16.38379 34.690907
42.065533 17.876793 36.42891
35.591534 12.20179 45.29191
35.038532 13.71579 46.45791
0.025535583 51.21579 10.173912
70.500534 50.18679 9.194916
65.65754 46.41779 20.502914
66.123535 48.92479 21.153915
44.53353 41.23079 41.84691
42.844532 42.74479 42.286907
37.733532 37.23479 52.58891
34.993534 37.03079 51.695908
68.88454 37.19379 3.900917
66.99254 36.56079 4.3379135
62.897533 32.02879 14.459915
65.05054 31.453789 15.431915
22.976532 11.126793 15.165916
23.479532 12.165794 16.936913
24.077534 18.254791 6.291916
25.353533 19.691795 5.194916
48.44253 29.891788 61.49691
46.710533 28.428795 61.64191
44.75453 24.301796 71.95891
42.54053 23.455795 72.91891
70.18354 47.53179 7.2289124
70.01854 45.89679 5.2739105
5.1625333 49.05479 70.90491
6.584538 50.23179 72.46991
57.079533 39.65079 51.188908
57.819534 40.90079 52.55891
51.404533 40.434788 63.56891
51.055534 42.496788 64.56891
16.881533 19.90979 70.97091
16.722534 19.435791 68.77491
28.400534 19.75579 63.12791
29.697533 17.845795 62.73891
60.674534 67.88179 5.3239136
61.010532 65.803795 6.562912
51.59653 66.78479 14.74691
52.34653 65.98179 16.250916
11.313533 30.231789 48.92291
11.067533 29.07779 46.87391
15.410533 31.48379 35.88091
14.422533 33.65879 35.25691
71.73054 52.78179 48.27491
72.387535 54.58779 48.77691
66.73753 54.16779 59.30291
65.33854 51.69079 59.15791
20.122532 14.318794 51.590908
19.142532 16.098793 52.43591
