26.0073 103.56215 34.809914
27.0383 105.77315 33.731915
35.8033 106.459145 40.901913
37.6393 107.861145 39.124912
38.6003 6.855149 7.003914
40.7603 6.289149 8.252914
41.7883 3.547149 16.095917
42.5023 1.4901489 15.492912
38.7203 41.65915 58.796913
39.0273 39.925148 57.853912
33.8613 41.662148 49.201916
34.3373 39.63915 48.780914
19.2813 85.80715 48.172913
18.4843 86.80715 49.859913
27.0653 86.626144 47.035915
27.2953 86.55115 44.572914
49.2933 16.577148 56.205914
49.7993 17.60315 58.276913
3.6592987 18.749147 61.105915
5.0192995 19.223148 62.707912
5.9533014 26.233149 1.4579163
5.740301 28.043148 2.8019104
-3.6136992 30.333149 0.93691254
-5.122699 31.903149 0.76691437
11.137301 59.927147 31.859915
13.216301 58.252148 31.660913
12.104301 65.84015 38.429913
11.295301 64.46615 37.18891
11.402301 97.45615 24.866913
13.113301 98.666145 26.730913
12.102302 90.29915 34.58391
12.075301 91.97515 36.433914
16.7243 54.273148 13.441917
15.302301 56.52015 14.107918
8.818301 58.689148 6.3709106
8.448301 56.720146 7.6849136
5.9623013 37.43815 34.774914
5.963301 36.02815 32.86891
11.956302 36.767147 24.804914
11.362301 35.31215 22.798914
18.5023 82.77315 63.300915
18.9803 80.86315 64.277916
13.889301 74.832146 63.965916
13.181301 72.32315 63.906914
41.1803 26.028149 59.796913
41.8043 24.087149 58.476913
31.7553 19.265148 58.896915
31.1803 17.907148 60.908913
38.9893 57.039146 3.8549118
37.9863 58.37615 5.5739136
38.0813 70.485146 3.7049103
39.2413 71.41415 5.7429123
10.195301 71.07515 35.828915
11.454301 73.140144 37.158913
4.561301 80.99115 40.857914
3.045301 80.069145 39.555912
36.7683 119.388145 63.562916
35.2053 119.74615 61.237915
24.247301 116.028145 64.57891
23.4163 116.00615 62.585915
9.997301 19.086147 64.502914
8.660301 20.375149 1.5909119
6.575301 31.185148 62.685913
8.931301 31.790148 61.951916
48.957302 114.90615 3.9649124
48.492302 112.876144 3.3329163
46.9123 103.18415 8.117912
45.3993 102.00715 7.7169113
47.2703 27.204147 12.667913
45.8723 28.516148 13.649914
0.82930064 34.37215 17.049913
51.7713 35.192146 18.579914
23.924301 62.817146 53.400913
23.9363 60.497147 53.878914
21.6313 60.363148 42.990913
19.2083 59.20215 42.835915
49.4393 54.99915 12.4699135
47.4793 54.58315 11.331914
40.6423 50.61615 16.328915
39.6503 48.934147 17.636913
26.5653 12.868149 41.650913
24.9483 14.507149 42.344913
14.080301 17.488148 43.550915
12.5643015 18.948149 42.98691
21.7453 42.705147 16.430916
21.1583 44.844147 15.981918
26.466301 50.788147 7.334915
26.320301 53.398148 7.098915
27.3363 80.06515 16.608913
24.931301 81.38015 16.209913
30.7573 81.81215 13.750914
31.8443 83.56415 12.024914
23.1073 57.864147 57.545914
21.4493 58.76415 58.907913
23.1473 61.793148 2.461914
22.8233 63.09815 4.5829163
29.3043 13.974149 28.723913
29.1483 11.891149 26.874914
24.2903 4.283149 31.342915
26.1853 2.7231488 32.13991
0.0013009956 47.275146 53.079914
2.178301 46.704147 54.620914
7.015301 43.93615 45.990913
6.890301 45.774147 45.440914
11.253302 99.12715 28.711914
10.424301 99.42715 26.549913
7.8413014 107.22515 19.496914
9.728301 108.74615 19.140913
31.6823 43.210148 48.163914
32.7163 44.496147 46.495914
26.261301 51.928146 48.285915
24.2653 52.761147 48.625916
42.4363 109.27515 18.388916
44.5373 108.319145 18.655914
43.6773 115.51615 10.379913
42.9483 115.96915 8.187912
20.3553 103.304146 42.559914
21.9863 104.389145 44.02891
26.6123 115.50415 41.338913
26.4403 117.20015 42.22291
45.2013 100.499146 57.457912
46.7783 101.86715 57.804913
51.2913 106.36415 46.459915
50.1473 105.80715 44.68191
10.632301 18.797148 2.8079147
11.871302 18.156149 1.1659164
19.2193 23.542149 59.448914
20.063301 25.327148 60.473915
9.780301 23.062147 37.376915
8.970302 22.447147 35.262913
4.6583014 29.080149 31.006914
3.303301 30.563148 31.815914
41.2413 25.818148 21.188913
42.4603 24.232147 20.061914
45.3403 15.005149 16.003914
46.1873 14.445149 13.748914
5.7103014 60.13815 13.034912
4.000301 59.316147 11.740913
-1.7296991 55.128147 10.014915
0.31130096 53.960148 10.507912
37.2153 104.60515 24.109913
38.485302 106.68615 23.002914
46.4753 111.02415 21.433914
48.5743 112.00915 21.861914
25.6753 98.73215 54.144913
26.3943 96.47915 54.486916
27.2533 88.03315 51.144913
28.1333 87.96615 53.098915
40.9203 78.30015 47.382915
38.8733 77.46015 45.517914
38.2643 75.70315 36.06391
40.2203 77.39215 35.319912
16.260302 114.71015 5.128914
18.6213 115.860146 4.6609116
11.220302 118.99315 62.238914
9.882301 120.359146 63.556915
33.5573 24.015148 12.018913
31.9923 26.302149 12.993919
42.1153 24.188148 13.722916
41.9723 23.485147 15.983917
43.6303 9.704148 46.019913
41.6143 10.755149 46.749912
34.5303 14.184149 53.578915
35.4523 15.587149 52.546913
27.5133 53.55515 11.351913
27.9063 55.63215 10.691917
18.5873 53.718147 15.603912
19.4363 52.37515 17.194916
30.0673 78.37815 7.6429143
28.3883 78.098145 9.438914
28.466301 78.60115 18.579914
29.4793 77.72815 20.349915
-0.40969896 108.87015 47.749912
0.26330099 107.52215 49.434914
8.129301 102.93715 48.486916
6.8823013 102.082146 46.782913
26.716301 84.37115 50.552914
26.9323 83.52015 52.912914
22.1003 94.81015 52.809914
21.6113 94.74515 55.419914
21.6003 6.872149 46.826916
20.3223 7.5201488 48.392914
28.6643 13.677149 55.217915
28.6473 12.940149 57.199913
51.9203 44.03315 55.625916
50.1223 44.89515 56.018913
39.2843 44.808147 54.638912
36.7253 44.634148 55.109913
38.1503 111.78115 52.831913
37.0253 113.26115 51.785915
44.096302 112.609146 44.927914
45.7393 112.791145 42.733913
46.1453 5.584149 26.910913
44.0443 5.999149 27.624914
46.2563 7.592149 37.123913
47.7883 7.068149 38.179913
33.6843 40.413147 46.105915
31.4863 41.448147 45.669914
24.2953 44.25115 52.347916
22.7663 42.65815 52.917915
26.5513 116.110146 13.857918
24.7113 114.903145 13.210915
28.8833 112.33715 3.0959167
30.6713 114.78415 3.439911
43.6343 4.063149 54.959915
41.8853 3.6181488 53.192913
32.268303 8.896149 50.123913
32.9163 9.801148 47.946915
26.5733 9.138148 20.981915
25.6413 7.538149 20.259914
28.1413 -0.6798511 27.756914
26.9673 -2.3228512 29.111914
22.8713 50.28315 59.379913
23.3813 49.724148 61.071915
32.5413 56.510147 63.450912
32.9233 57.677147 61.469913
39.6313 79.043144 31.082914
37.4683 80.248146 31.361914
33.6513 83.249146 25.011913
35.4153 82.84415 23.958914
11.330301 4.680149 33.004913
9.516301 5.730149 32.790913
8.699301 9.942149 40.038914
8.844301 11.556149 41.286915
11.324301 46.620148 32.319912
10.413301 48.88115 32.129913
10.752301 43.61715 41.890915
12.270301 42.13015 42.321915
41.0693 100.013145 42.041912
42.1303 99.39315 39.427914
34.3083 104.22715 31.130915
32.5483 105.39915 31.872913
40.3433 108.68515 20.985914
40.1663 110.63115 19.732914
40.7633 120.07915 26.798914
42.8303 121.027145 26.963913
6.331301 111.18315 27.368914
7.8083014 109.23215 27.259914
0.34830096 101.75815 33.494915
-0.836699 103.71815 34.434914
7.445301 119.35615 60.943913
7.1313014 116.65815 61.143913
7.813301 113.19215 6.2149124
8.915301 112.626144 8.013916
5.162301 113.49115 7.244911
6.3683014 111.970146 8.419914
4.472301 110.93915 17.992912
3.0763009 110.49615 19.448914
4.321301 27.766148 28.523914
5.023301 26.174149 30.490913
12.105301 24.695148 36.184914
11.916301 22.559149 35.545914
2.0723011 33.662148 57.549915
2.4443011 31.427149 57.665913
2.1053011 20.538149 57.868916
1.323301 19.444147 55.897915
2.8713005 24.472149 29.785913
2.120301 26.000149 28.433914
46.4673 31.900148 25.048914
43.9893 30.688148 23.818914
3.627301 33.71215 33.643913
4.0273013 33.03815 36.06391
0.598301 43.84715 35.249912
2.472301 44.642147 35.787914
23.4863 92.208145 23.132914
21.3333 91.87815 23.807913
29.4053 100.93515 25.066914
28.7933 103.06015 24.832914
44.2303 16.966148 29.402914
42.8853 18.088148 30.508915
45.971302 24.788149 36.828915
44.4483 22.942148 38.338913
32.1413 84.50815 22.434914
30.5993 84.791145 20.633913
39.0373 92.30315 18.298914
39.3103 94.49415 17.555914
25.7643 12.999149 21.016914
27.7303 14.265149 22.320913
28.5973 22.023148 13.681913
27.0813 21.981148 11.696914
28.6713 95.76815 36.714912
28.1703 93.972145 34.534912
40.1063 94.80915 35.142914
41.9163 93.987144 33.690914
40.3913 50.76915 55.281914
39.6593 52.30415 54.039913
40.3653 61.61615 51.677914
38.2063 60.642147 52.230915
4.715301 66.13415 10.650917
6.326301 64.09215 10.062912
13.510302 62.66715 2.1099167
13.894301 60.06315 2.7449112
1.306301 118.31015 39.540913
3.133301 119.23015 38.449913
1.323301 3.1411448 28.900913
-0.47969902 0.9801483 29.651915
26.9283 91.85315 13.213913
27.6253 92.83515 10.881912
33.2333 85.53115 4.392914
33.0123 86.348145 2.6049118
48.1853 12.6551485 44.950912
46.0573 13.805149 44.91091
51.4053 22.506147 44.165913
51.1113 23.544147 45.738914
5.859301 52.357147 14.746914
6.1513014 52.316147 17.708914
0.681301 52.912148 24.246914
1.216301 54.078148 26.543913
3.548301 96.41115 27.944914
4.372301 95.26815 29.294914
6.168301 83.91415 27.490913
8.089301 83.10015 27.869913
9.565301 12.104149 31.491915
10.945301 12.822149 29.927914
10.935301 6.648149 24.147913
10.880301 5.457149 21.988914
29.2523 101.02315 37.978912
29.7513 99.20515 36.816914
31.0233 101.46415 28.690914
32.269302 102.23315 30.221914
42.6273 92.66215 18.908915
43.4523 94.16315 20.450914
40.4193 99.22915 13.926914
41.2843 98.09015 11.985914
1.009301 34.706146 1.1959152
0.04529953 32.94315 64.68691
43.6213 33.717148 57.907913
42.1733 34.93815 56.530914
9.937302 20.181149 13.698914
11.424301 22.014149 14.108913
10.999301 30.671148 22.007914
12.055302 32.99215 20.985914
13.938301 25.596148 58.646915
12.086301 24.628147 58.289913
6.0853014 17.861149 56.560913
5.9603014 15.825149 57.205914
2.8522995 81.05815 3.2329102
0.65129924 80.10415 4.189911
48.2973 72.17015 61.331913
45.7473 71.86815 61.432915
0.1413002 56.726147 26.237913
50.3993 58.474148 26.890913
50.5663 67.05215 28.495914
51.7563 67.76815 30.668915
32.4483 36.156147 36.99391
31.6683 37.668148 35.016914
20.5223 40.83915 38.09891
19.8073 41.614147 40.38991
45.4373 7.585149 56.500916
45.2093 5.5151486 56.489914
34.9963 1.2161489 59.202915
33.9163 2.6671488 59.361916
38.1713 75.74615 64.349915
36.450302 75.08115 0.8529129
32.9813 77.16115 8.513916
31.0963 75.82315 7.7129135
34.2613 109.03015 53.955914
36.5923 109.44115 52.372913
44.7843 107.69015 54.371914
44.2563 105.30215 54.079914
35.1773 72.71215 31.663914
33.3643 71.10215 31.675915
30.233301 67.04615 36.712914
32.0033 65.92515 37.734913
42.0843 35.46515 10.577911
43.1553 35.38915 8.375916
33.3003 37.83215 4.7079163
33.4583 39.691147 3.8639145
36.4943 37.73515 62.152916
38.7033 38.288147 61.670914
34.4733 28.841148 58.982914
34.2473 26.425148 58.922913
30.8683 35.01915 20.286913
32.6293 36.82015 20.230913
37.1703 38.13215 29.083914
38.693302 37.32715 30.684914
38.0333 39.50115 26.754913
37.5993 41.46415 26.222914
43.2253 48.48615 19.215914
41.0993 49.36015 19.969913
2.385301 73.87015 20.684914
2.4013011 73.054146 18.756914
7.4283013 65.36315 12.881914
8.627301 64.27415 11.703914
1.8533009 68.67515 62.545914
0.942301 67.18215 62.975914
0.824301 63.09015 52.644913
-1.278699 61.997147 52.909916
43.8693 76.75915 23.273914
43.5993 74.890144 22.669914
35.7413 67.430145 20.861914
33.9523 65.83815 21.657913
45.4293 118.21215 29.492914
44.8373 120.64715 30.285913
37.2553 117.81715 39.360912
37.1293 118.71215 41.47291
44.5993 72.78615 52.610912
43.0813 74.39915 53.277916
40.5513 75.17015 63.292915
42.0373 74.10615 64.69391
42.0953 12.912149 64.84191
42.714302 10.9971485 1.4199142
36.0023 3.712149 3.1429138
34.589302 5.511149 4.267914
47.0033 109.21415 41.147915
45.5393 110.50915 40.289913
36.9803 112.069145 47.951916
35.5643 111.860146 46.505913
51.6783 113.11315 20.325914
51.1233 112.36815 22.514914
46.957302 108.91415 27.334913
45.6233 106.903145 26.527914
17.5473 22.077148 50.525913
19.4443 22.745148 50.883915
12.388301 33.73315 52.014915
12.580301 32.60815 53.668915
19.9683 22.507149 64.570915
19.9883 21.135147 1.8329163
16.4223 24.861149 8.124916
16.4183 26.731148 9.571915
21.7843 105.445145 12.693913
22.101301 103.03915 11.617914
28.9283 103.00615 16.636913
30.7883 101.890144 16.427914
49.6323 52.49415 12.067917
51.2103 51.518147 10.6489105
0.44529724 52.99915 63.982914
50.2623 52.018147 63.460915
-2.459699 92.12815 33.636913
-1.295699 91.06015 32.00791
3.059301 97.83115 38.185913
3.835301 96.03415 39.197914
35.2693 67.69015 26.964914
33.7243 68.376144 27.813913
26.9633 60.143147 34.721912
28.5143 60.44515 36.102913
45.0873 26.869148 18.825914
43.3063 27.728148 20.363914
36.9933 36.52815 15.056914
36.5943 34.98015 13.542913
13.855301 120.06415 30.315914
14.277301 0.83514404 30.050915
14.687302 120.029144 19.687914
16.111301 120.74215 18.045914
42.5863 2.6841488 23.401913
41.5843 1.0571488 24.532913
31.7843 2.5231488 30.130915
30.3153 4.511149 30.871914
14.929301 118.248146 17.169914
14.027301 117.291145 19.090914
4.7173014 1.3361435 22.823914
4.9603014 2.1821442 20.582914
32.5223 92.92815 27.416914
31.3153 91.14615 26.939913
33.1323 84.09015 35.115913
31.6213 82.764145 35.013912
4.482301 34.15215 55.523914
2.465301 35.50515 54.932915
4.8833013 34.51115 48.344913
6.7833014 34.574146 46.896915
39.1223 79.46115 33.657913
37.7313 80.59415 35.21591
43.9893 78.82715 43.934914
44.5483 80.18615 46.066914
10.063301 117.50415 60.101913
9.740301 115.42715 61.923916
9.241302 104.66215 56.751915
10.538301 103.35015 58.097916
32.3543 56.58415 34.85591
32.8073 58.706146 33.592915
28.9043 59.350147 23.383913
26.327301 60.58315 22.775913
16.9233 7.420149 52.962914
16.1473 9.182149 53.602913
15.060301 1.4871489 60.358913
15.435301 1.6201489 57.893913
5.615301 0.43214417 45.526913
7.163301 120.805145 44.03591
19.8213 119.681145 46.548916
19.6943 0.6581421 47.201916
25.9223 110.043144 31.700914
25.1343 109.13615 33.742912
18.3023 104.72715 38.755913
18.6713 102.41915 39.390915
19.3753 55.67215 17.542913
19.8803 58.191147 18.232914
14.021301 65.45315 12.933914
14.286302 65.09215 10.688914
1.061301 115.665146 38.376915
3.625301 116.153145 39.78591
11.278301 109.33715 36.580914
11.603301 107.43215 35.454914
2.256301 88.888145 46.800915
1.622301 90.095146 48.150913
3.351301 94.44215 48.039913
1.740301 95.24215 46.612915
38.6563 10.654149 44.109913
36.860302 10.043149 44.928913
35.3033 0.112148926 46.299915
37.9693 -0.786851 46.187916
44.3853 75.34315 40.064915
45.7273 77.43715 39.954914
49.8213 82.39815 40.934914
51.7733 81.012146 41.235912
19.5153 43.27015 35.121914
18.0933 41.446148 36.468914
10.230301 41.217148 29.458914
11.913301 43.219147 28.528913
40.4623 117.96215 15.82692
40.6753 116.53615 14.07692
39.0983 117.82415 2.6159134
41.110302 116.06215 3.1159134
17.9503 51.517147 5.9089127
17.2143 53.84115 5.5289154
16.9463 53.34615 58.767914
14.871302 52.517147 59.722916
20.9563 96.63115 64.38291
19.7553 94.653145 0.98991394
29.115301 94.69015 6.751915
29.4553 96.10715 8.039917
35.1923 60.15415 11.543914
36.6663 61.885147 12.020914
30.5953 58.698147 17.291914
31.2783 56.585148 15.782914
49.7193 80.35415 7.2889175
50.707302 79.693146 5.793915
44.5713 69.51915 8.275917
42.6893 68.22615 8.041916
22.8923 20.184149 31.090914
23.6593 18.464148 32.636913
25.4643 9.191149 31.744915
23.6203 8.994148 30.900913
27.1943 48.240147 4.636917
26.0583 48.329147 6.567917
22.2063 40.350147 9.7129135
21.3703 40.073147 12.063911
0.7852981 6.4361486 12.575913
1.1722991 5.558149 14.407914
43.2513 5.749149 21.921913
42.4723 4.195149 21.137915
25.2773 92.79815 36.378914
23.2233 92.13215 35.530914
17.1203 90.02115 33.710915
16.9893 90.86515 36.171913
22.6473 48.400146 63.434914
22.7863 46.727146 61.770912
16.608301 43.843147 53.143913
16.775301 41.58315 53.148914
48.8993 71.86715 50.097916
47.6293 72.902145 52.061913
5.471299 75.888145 54.551914
4.523301 74.99015 56.804913
24.865301 24.540148 9.824913
23.7463 24.139149 7.5389175
25.966301 26.148148 63.707912
28.3873 26.226149 63.054913
40.8423 120.10815 2.6289139
43.1553 121.17415 2.1519165
51.8053 120.82615 4.421913
51.9733 119.22415 6.6869125
29.3753 103.89215 58.773914
28.0443 102.39415 57.104916
17.7233 102.251144 60.147915
16.688301 101.20515 61.156914
31.9853 13.638149 4.9489136
34.3943 13.194149 3.9599152
30.5743 21.523148 12.097916
30.3533 19.286148 12.82692
48.5033 45.704147 7.168915
47.5793 46.01415 5.041916
3.1682975 51.406147 63.554913
2.1642997 50.691147 61.471912
0.40329742 88.50615 42.407913
50.6733 87.459145 41.157913
0.1602974 93.60115 39.291912
2.2263 92.569145 38.272915
7.371301 110.248146 10.34391
7.035301 111.901146 12.646919
16.7593 119.80715 9.992912
17.3683 119.37115 7.975914
7.998301 15.381149 19.635914
8.041301 16.002148 17.441914
-0.98769903 19.490149 16.766914
-1.7916989 18.354149 14.516913
6.056301 35.01315 35.898914
8.434301 36.162148 37.315914
8.244301 29.099148 45.21591
6.5123014 27.728148 45.491913
18.6573 85.070145 12.434914
20.4153 84.17015 12.5909195
22.976301 92.514145 8.062912
21.976301 92.44915 5.7609177
47.3273 -1.0798513 56.400913
46.1693 0.47614902 58.103912
1.1483009 5.329149 57.866913
51.9563 5.1731486 56.071915
2.9852989 102.26615 35.691914
3.9422996 104.41215 34.107914
46.8133 107.39515 31.334913
47.5913 109.49415 29.830914
22.216301 16.289148 32.647915
20.6113 18.481148 32.476913
19.0093 8.539148 31.093914
19.2843 9.317149 29.252914
17.4213 6.232148 61.963913
16.4753 5.232148 63.811913
20.4893 114.68915 62.745914
20.5383 114.63015 60.578915
2.287301 17.158148 43.74391
1.698301 14.844149 44.86191
0.569301 23.874147 49.977913
2.455301 24.128147 51.970913
25.2893 103.93215 61.988914
26.3103 105.20615 63.552914
24.4923 105.47715 10.633911
25.6863 105.07115 12.476913
41.603302 67.58015 14.571914
42.610302 69.64515 14.754914
1.0803001 69.28715 11.180914
2.9022987 68.32615 11.9369135
20.247301 91.33115 20.186914
19.9943 93.376144 21.870914
13.294301 95.764145 14.703914
11.224301 95.28415 14.522914
19.6973 6.266149 53.030914
19.1393 7.326149 55.447914
19.122301 7.697149 63.738914
20.733301 8.282148 64.85391
2.5042999 59.432148 42.526913
0.49129868 60.260147 40.84791
49.0913 49.788147 47.834915
49.1253 52.710148 48.200912
41.2583 95.96215 23.388914
41.2703 97.88115 24.552914
48.5023 104.49315 27.513914
50.8593 105.168144 27.860914
14.413301 46.47915 63.557915
12.339301 45.82715 62.971912
11.277301 54.803146 55.211914
11.466301 57.064148 55.303913
39.978302 38.76915 53.219913
39.1343 36.86815 52.779915
35.207302 35.61015 59.480915
34.3103 36.808147 61.045914
0.90729976 104.96515 40.589912
0.06029892 103.54615 39.117912
44.1053 107.749146 32.09791
43.6093 110.015144 32.346912
14.529302 63.58915 26.455914
15.804301 61.969147 26.626913
23.8743 59.93715 33.717915
25.2903 58.046146 33.85491
9.634301 82.14415 18.722914
10.103301 79.90715 18.288914
14.414301 70.35515 19.507914
15.326302 69.25515 20.850914
31.0363 59.52015 14.816917
31.8783 60.97115 13.038918
26.8823 65.35215 4.858917
28.1483 66.220146 3.0959167
23.8903 73.93215 63.171913
22.952301 73.484146 0.4039154
26.799301 76.04715 5.600914
29.129301 77.237144 4.9579163
9.147302 33.67915 19.305916
7.2563014 32.328148 18.404915
11.193301 34.196148 7.8379135
11.750301 34.683147 5.749916
22.136301 47.934147 30.412914
20.2283 47.192146 30.637915
9.959301 54.267147 28.092913
8.901301 51.73015 29.161913
21.3093 117.81215 22.579914
21.7533 117.971146 24.663914
25.3543 116.86315 29.063913
24.3213 117.860146 27.489914
38.4283 18.181149 1.1289139
38.7703 20.915148 0.789917
34.6123 30.260147 61.640915
32.8903 29.013147 61.110912
0.464301 102.20615 9.565914
1.976301 104.00915 10.126914
5.352301 106.32615 20.157913
3.5103009 106.89515 19.509914
48.0713 39.27615 12.747917
48.2993 36.796146 12.797913
45.9623 44.851147 7.564911
46.2153 43.78315 5.2689133
19.202301 85.56015 63.713913
20.3753 87.709145 63.350914
32.359303 90.06415 61.785915
33.7053 88.234146 60.310913
32.8483 68.84315 6.122917
32.5643 67.943146 4.1469116
34.992302 58.113148 63.132915
35.7893 57.261147 64.61091
19.6403 0.23814392 60.019913
20.7533 119.31015 59.958916
30.1723 3.411149 61.979916
31.358301 2.085144 64.071915
28.476301 27.138147 27.321913
26.108301 26.697147 28.009914
20.136301 21.680147 23.561914
18.0543 22.658148 22.006914
28.5653 23.253147 9.981911
29.8533 24.097149 7.9329147
37.4203 19.425148 3.600914
39.5993 20.484148 3.3079147
7.7493014 93.126144 36.985912
7.3483014 95.014145 38.696915
16.281301 101.98215 32.657913
17.8363 102.139145 31.205914
47.5363 72.03015 13.343918
46.846302 70.985146 11.625916
43.5103 60.71615 12.478912
42.5903 60.134148 14.668915
35.4323 44.288147 49.813915
35.3293 43.738148 48.003914
43.1063 51.21615 43.17491
42.9163 53.947147 42.293915
16.8033 73.90015 61.198914
18.8983 72.943146 62.286915
14.343301 71.60815 8.306915
14.797301 71.77315 10.49691
-0.8866991 90.972145 13.931913
-1.596699 91.41315 15.900914
1.526301 91.64815 22.800913
-0.13169903 91.873146 24.185913
31.5953 35.69515 40.311913
30.799301 33.89615 41.46591
37.0853 38.56315 50.105915
39.3643 37.49415 48.508915
50.2763 21.016148 24.021914
50.4983 21.834148 26.303913
49.3703 33.23415 22.658913
46.9013 34.148148 22.114914
23.6523 64.32915 1.1049118
25.1593 62.713146 0.9509125
22.9733 57.36715 1.4949112
24.1493 56.38815 3.5269165
12.702301 67.596146 40.42491
10.949301 68.08815 39.647915
11.290301 76.84315 47.327915
10.249301 76.47415 49.650913
7.443301 96.60415 14.669914
8.739302 95.485146 12.909912
10.232301 97.09015 2.5669174
7.8883014 96.76715 2.5999146
29.2503 115.49415 41.116913
27.827301 117.85515 39.990913
36.2503 116.80215 33.269913
36.4313 115.00615 31.318914
13.990301 99.81115 24.558914
16.0753 100.77415 24.127914
20.195301 107.07115 18.871914
19.209301 107.54815 17.320913
15.653301 34.745148 25.418913
15.838302 35.532146 23.161913
11.969301 46.23515 25.717913
9.929301 44.65815 24.966913
38.7443 103.388145 3.6549149
38.9813 104.28915 1.9659119
46.2863 114.74215 2.166916
44.707302 116.14415 3.3159103
23.3373 73.931145 34.02191
22.5473 76.055145 33.83391
11.331302 74.554146 34.629913
9.678301 72.818146 33.721912
20.8333 93.05215 15.465914
23.2843 93.12215 16.326914
28.7183 102.98215 21.318914
30.3243 104.23815 20.949913
45.4273 0.78414917 27.663914
45.7323 120.041145 27.712914
6.0503016 121.235146 25.954914
5.0692987 2.012146 27.126913
9.515301 108.528145 6.9989166
9.175302 109.83515 5.2349167
7.7573013 108.25315 59.038914
6.925301 109.987144 58.155914
4.377301 48.27115 50.932915
5.9483013 47.921146 49.833916
2.012301 42.79015 56.082912
1.196301 41.509148 58.240913
44.3303 118.53815 57.404915
45.7883 116.64115 57.330914
1.7842987 4.7821436 61.957912
3.7053 3.474145 62.741913
20.2823 83.32815 0.5569153
20.334301 84.95215 1.4889145
16.049301 80.62015 9.4889145
16.306301 77.98215 10.698914
2.4463012 0.65714264 13.216919
1.3283012 120.25915 14.753914
46.9013 116.10815 6.8449173
46.7363 116.418144 4.775917
47.6123 55.34715 24.387913
49.3233 54.19415 23.224913
42.3953 55.06315 18.409914
41.2253 53.76315 17.528913
34.1813 88.35515 45.141914
33.6143 90.487144 46.454914
31.4943 101.57215 44.985912
30.4413 102.94715 46.778915
38.5233 56.33915 61.202915
37.8883 57.559147 62.658913
46.4233 63.65815 60.350914
45.4653 64.96615 61.617912
16.9883 72.57215 17.346914
16.9703 70.65015 18.885914
15.571301 68.27115 26.846914
15.860301 67.45315 28.739914
24.1633 43.740147 26.353914
23.0363 45.335148 27.891914
20.608301 44.017147 20.383913
20.2663 43.481148 18.329914
15.166301 22.490149 45.850914
14.3403015 20.505148 44.16091
14.235301 20.481148 35.199913
12.660301 18.221148 35.649914
38.7163 78.13615 14.932914
39.5863 79.348145 12.942914
50.6303 74.90015 12.978914
49.9413 74.32315 15.248914
13.119301 15.543149 33.025913
11.602302 15.409149 34.713913
1.593301 13.535149 38.89691
2.331301 15.577149 40.345913
18.4443 100.748146 56.347916
16.9673 100.611145 58.240913
18.4083 93.53115 63.718914
19.1403 91.277145 64.725914
25.4153 72.35115 48.813915
27.3303 73.80015 48.445915
24.3803 83.77315 45.094913
23.2213 84.99115 46.980915
49.3173 2.5911493 1.2329102
48.499302 4.861146 0.60591125
38.978302 117.97415 63.120914
40.0643 116.749146 64.60491
18.5193 89.583145 27.572914
19.910301 89.96815 25.445913
29.6783 88.77215 23.189913
30.5813 89.69615 21.367914
1.196301 56.731148 31.036915
0.875301 57.52715 29.033913
3.179301 64.72815 20.518913
5.2843013 66.32415 20.283915
2.957299 96.79415 50.784916
3.8223007 98.30915 48.837914
49.6633 102.61615 44.319912
49.964302 104.25515 42.551914
49.2723 102.015144 6.98291
49.8663 104.33915 6.7199173
48.4893 106.471146 60.361916
46.4393 106.03315 59.417915
31.4543 13.175149 54.493916
30.1543 11.212149 55.771915
42.6443 11.069149 59.635914
42.5223 8.468149 59.708916
38.4283 1.0041428 14.389915
40.0223 2.3811493 13.989914
35.3713 0.25014496 3.4419174
37.2603 0.63414764 1.4889145
43.5533 84.85315 8.378914
43.6143 87.32615 8.257912
39.3863 96.62015 13.535919
40.5263 95.63315 15.204918
37.325302 61.82015 40.96691
35.8163 61.02915 42.872913
26.1193 54.539146 40.039913
25.8833 54.684147 38.02191
12.107301 102.52315 61.461914
12.839301 103.750145 63.378914
18.8543 102.123146 3.386917
20.4623 101.52415 1.8599167
18.9743 80.707146 24.861914
21.3763 79.67515 25.689913
17.6993 81.53315 27.228914
16.5683 82.07715 25.513914
32.6393 27.406149 26.546913
32.477303 26.195148 28.509914
40.9083 34.48415 34.182915
41.6983 33.446148 32.330914
21.8453 34.53515 36.608913
20.490301 33.523148 35.10491
27.1123 28.396149 37.927914
25.4993 26.953148 38.483913
29.2233 5.452149 15.632919
28.2453 4.528149 13.732918
31.4233 10.935149 8.388916
33.3333 12.557149 8.155914
1.4413002 60.449146 38.22391
51.0953 61.38215 38.704914
44.6923 62.836147 34.79291
42.8813 63.828148 33.044914
34.5223 57.83315 59.153915
35.5843 55.864147 58.572914
27.7143 51.934147 50.566914
29.3403 50.531147 50.110912
12.088302 27.628147 59.129913
13.795301 28.747149 57.047913
11.074301 34.39015 1.2649155
12.818301 33.71415 3.0209122
27.7463 121.19215 45.205914
27.9783 119.67515 43.290913
29.3243 1.4271469 31.815914
29.8463 0.3111496 30.503914
0.2682991 81.49215 32.819912
50.9183 80.027145 33.548912
51.9043 69.50615 28.152914
1.5933006 68.847145 29.228914
38.9233 102.707146 7.0689163
40.2653 101.16115 6.1489105
34.4103 96.859146 12.918915
35.4163 99.00815 12.703918
29.7243 95.83915 56.452915
30.4463 95.65615 58.598915
22.952301 94.84915 58.836914
24.5313 95.89615 57.709915
47.0523 72.470146 40.457912
46.3983 70.53615 39.32791
37.3103 63.905148 43.002914
35.3003 64.79015 43.469913
17.1403 108.665146 16.347914
15.985301 106.91015 17.932915
7.805301 109.67115 13.923914
7.0783014 110.71115 15.727914
28.7483 61.371147 61.131912
30.6943 62.65215 60.133915
31.9203 71.915146 3.239914
31.3293 71.12015 5.7859116
49.2413 72.776146 11.217911
50.4533 74.26915 10.382912
3.0342987 77.234146 3.8599167
4.7323008 77.985146 5.2649155
10.384301 13.7801485 40.252914
11.766301 13.054149 38.84791
21.6403 8.436149 44.748913
19.7983 8.977149 46.271915
31.1003 83.07115 1.3599167
29.0653 84.25415 2.9059143
23.3013 80.39615 12.937912
23.8563 78.24315 12.719917
16.7373 86.53215 37.686913
18.5403 86.31115 39.03591
8.305301 82.195145 43.705914
8.940301 80.63215 41.607914
49.3553 45.22315 51.946915
48.2043 46.92315 52.997913
38.9443 42.81115 49.269913
37.1613 41.86215 50.303913
17.5373 105.82115 57.838913
17.0103 103.73215 56.880913
19.8973 103.595146 45.484913
18.150301 103.471146 43.893913
16.7453 103.11515 35.47991
15.984302 103.20315 37.317913
14.5313015 90.347145 37.123913
14.349301 88.53615 38.839912
8.671301 28.719149 24.870914
6.6463013 28.396149 24.951914
0.23730099 18.852148 26.416914
0.454301 19.594149 24.522913
42.4943 42.83315 64.348915
43.7743 44.81115 0.045913696
51.7683 51.58315 61.320915
50.2253 52.969147 59.696915
6.265301 32.52115 58.576916
6.6573014 32.75415 56.662914
14.237301 39.211147 52.409916
15.694302 37.106148 52.542915
38.4843 90.67015 44.644913
39.8793 91.74615 43.245914
48.4133 84.901146 44.082912
49.9323 82.529144 43.70891
5.258298 8.861149 32.613914
3.398301 7.064149 32.540913
45.9563 8.009149 28.213913
44.4773 7.820149 29.500914
20.150301 27.236149 23.106915
19.5433 26.622149 20.888914
14.124301 34.40615 16.055914
13.529302 33.523148 14.180914
31.5803 12.903149 47.592915
33.603302 12.571149 48.963913
44.2183 18.333149 50.783913
45.5413 17.118149 52.580914
31.1183 5.149149 0.286911
29.0483 3.889149 0.66791534
22.2863 3.5491488 59.218914
23.0743 5.011149 57.472916
42.3983 57.293148 9.777914
42.7303 57.77015 11.723914
38.2263 52.169147 17.558914
36.3353 50.574146 18.649914
18.1773 63.60315 44.593914
18.4413 66.15015 44.402912
29.4503 64.95515 38.555912
28.1243 63.47315 37.110912
33.9333 48.38315 51.553913
32.088303 48.71515 51.182915
39.2013 57.933147 48.689915
37.7203 59.57015 48.342915
47.9273 5.3771486 10.197914
48.1903 6.510149 8.21891
37.9153 9.7801485 8.011917
37.492302 9.086148 5.602913
43.7923 51.331146 48.571915
45.3713 49.94515 49.762913
42.999302 48.10315 38.610912
42.4093 50.19515 40.18891
34.0633 80.38615 31.793915
32.4343 81.88615 32.339912
24.4143 82.26615 38.704914
26.1113 81.06315 39.768913
24.9373 61.17215 35.84791
22.7643 61.427147 36.152912
22.7803 63.44415 27.753914
23.150301 64.08715 25.770914
45.3573 81.514145 18.412914
43.3803 82.60115 19.176914
35.6333 85.50315 23.330914
37.6953 85.403145 24.280914
20.660301 15.577149 9.931915
18.8873 14.698149 8.706917
11.788301 20.426147 8.701912
10.8473015 21.688148 10.999916
17.1283 91.846146 51.482914
15.822301 90.472145 53.204914
21.3783 92.862144 61.244915
23.7843 93.56715 61.250916
12.111301 84.43615 51.225914
11.629301 82.99515 49.972916
14.269301 88.31015 43.887913
15.315301 89.873146 42.44591
36.2853 78.876144 33.408913
34.0463 78.78415 33.719913
25.7423 74.25315 35.997913
26.2693 75.66315 37.400913
31.0923 97.66315 12.173912
28.5943 97.20415 10.700912
33.2863 101.29915 15.3409195
34.617302 103.514145 15.597916
20.7173 117.00615 2.461914
22.2713 115.45415 3.9039154
13.278301 112.82815 61.946915
12.207301 114.43215 63.598915
2.722301 109.81215 44.925915
3.780301 111.19615 45.532913
5.280301 109.444145 56.159916
5.3353014 111.526146 56.841915
24.7173 65.23115 19.257914
26.5123 64.04715 20.910913
33.728302 63.260147 21.874914
32.2523 62.935146 23.361914
11.942301 39.795147 50.399914
10.612301 39.69315 48.795914
12.852302 50.129147 43.983913
14.701302 50.83215 44.201912
45.367302 58.66615 32.794914
44.943302 60.37315 34.051914
39.6953 61.88115 42.397915
38.0153 61.712147 44.303913
15.323301 91.10815 49.751915
13.786302 91.62215 51.515915
5.022301 84.82815 53.672913
2.630301 84.13315 53.030914
37.5833 111.42115 16.558914
39.2363 112.804146 16.628914
40.5493 104.873146 8.502914
41.1313 102.39215 8.882912
34.6893 116.66015 29.485914
36.0663 115.55115 27.253914
34.6213 116.181145 16.772915
36.6803 116.61315 16.014914
38.9313 82.89515 27.511913
37.999302 83.458145 29.978914
48.2983 88.568146 30.261913
49.5223 87.51115 32.142914
49.5623 65.74515 63.216915
48.0233 66.02115 61.559914
50.3203 64.43815 52.150913
48.3483 63.824146 52.448914
22.7283 -2.6648512 45.279915
22.4433 -1.3698512 47.404915
28.9743 7.466149 47.156914
31.101301 8.283149 46.446915
9.226301 58.510147 3.3579102
10.856301 58.108147 1.4769135
1.7843009 55.106148 60.385914
0.52230096 53.984146 61.575912
23.827301 44.90815 57.317913
23.9223 43.321148 55.434914
19.5163 34.26515 51.299915
19.1463 32.15815 51.314915
17.306301 92.55915 32.00091
19.136301 93.818146 32.128914
30.0853 94.83715 27.056913
29.7943 92.97715 25.747913
6.8103013 28.922148 17.672915
7.255301 29.069147 19.367914
6.673301 17.196148 22.575914
5.680301 15.514149 21.269915
18.8993 114.97415 19.262915
16.8023 113.793144 20.168913
18.0873 106.28915 22.971914
20.0273 107.60715 21.770914
24.1443 12.477149 1.4949112
23.8633 11.455149 64.57991
25.0363 2.576149 59.035915
25.3443 4.055149 56.831913
38.3613 3.3701487 52.163914
36.6393 1.8541489 52.619915
42.0903 114.693146 54.824913
41.9043 112.46315 55.578915
8.069301 94.249146 16.765913
10.029302 93.32415 15.759914
18.365301 91.08115 22.954914
18.8173 88.92815 23.180914
48.5113 19.706148 40.127914
47.9483 18.561148 42.706913
38.3613 15.556149 45.075912
38.3573 15.561149 42.50791
5.064301 1.2521489 49.542915
3.298301 1.3911488 48.187916
9.114302 9.025148 42.82091
9.434301 6.5351486 41.857914
3.523301 31.851149 54.703915
1.1802986 32.90215 54.787914
46.6633 34.75515 48.920914
44.7523 35.706146 49.760914
31.1543 13.246149 50.326916
31.2603 11.594149 50.230915
32.4403 4.320149 57.393913
34.0233 5.320149 58.497913
43.2323 70.17515 2.8439102
45.0573 70.595146 0.5879135
47.9203 81.43815 5.2459106
46.5493 82.653145 4.312912
41.5503 80.99415 46.870914
39.5563 80.57315 47.217915
32.6543 82.86715 37.578915
33.1493 80.83615 36.022915
-4.6056986 72.25515 43.983913
-3.316699 74.11715 42.595913
5.7173014 76.14115 45.891914
5.6193013 75.721146 48.303913
4.207301 24.667149 50.146915
2.814301 24.517147 48.622913
-0.9706991 23.926147 39.015915
-2.885699 23.864147 37.34091
15.011301 30.523148 55.236916
16.3973 31.879148 54.271915
25.5803 35.760147 54.829914
26.9153 37.18015 56.384914
25.7693 87.75715 40.11191
26.233301 89.05015 38.772915
28.7953 88.584145 47.930916
29.785301 86.666145 46.235912
1.188301 97.33915 56.616913
-0.28969902 96.82915 57.968914
8.493301 95.42515 0.012916565
10.306301 97.860146 64.88491
3.993301 18.772148 54.164913
5.2843013 20.151148 55.061913
7.773301 30.071148 58.144913
5.123301 30.583149 56.781914
33.5293 114.92215 3.0299149
33.4293 112.262146 3.5879135
29.8523 110.06415 13.226913
29.4263 111.57715 15.583916
41.4773 73.763145 49.886913
43.5943 74.25315 50.628914
39.2263 67.444145 50.886913
39.8643 66.46015 52.898914
44.8923 35.745148 32.045914
44.5853 35.14715 34.922913
50.7683 41.84115 29.945913
0.011299133 43.61115 29.881914
8.498301 5.419149 27.821913
8.204301 6.613149 26.114914
6.595301 15.582149 25.531914
7.5913014 17.623148 24.903913
39.5083 96.71615 26.622913
38.9303 95.80915 24.859913
33.3583 89.49715 25.947914
31.7673 88.751144 24.711914
15.014301 65.35515 6.6569138
15.595302 63.845146 8.253914
23.900301 67.221146 7.6359177
23.306301 66.04115 5.574913
23.5813 19.119148 10.689911
26.1893 19.274149 10.642914
31.2603 18.811148 64.95591
30.615301 20.589148 64.55291
24.9323 78.859146 40.927914
24.4693 76.53415 40.767914
16.097301 73.02115 46.356915
16.4393 71.25815 45.839912
25.268301 19.826147 52.381912
27.1763 21.197147 52.139915
33.0413 24.907148 43.84091
33.0263 26.771149 45.955914
20.7203 58.41715 39.02891
19.8643 60.363148 40.244915
23.4273 68.42015 34.451912
25.2713 67.89615 35.844913
40.6803 48.58215 37.818913
42.0283 50.14415 36.221912
48.8503 44.52615 28.395914
48.1043 45.39615 25.931913
39.9093 51.254147 23.284914
38.1843 51.52215 24.096914
30.2963 55.189148 17.698914
27.5743 55.342148 17.029915
0.11829758 28.002148 48.360912
50.9353 25.597149 48.206913
48.0483 24.109148 57.740913
50.1743 24.258148 56.729916
19.5163 18.179148 1.376915
20.8283 18.328148 64.98391
22.1383 13.434149 8.428917
23.2003 14.559149 9.8989105
2.212301 102.42015 7.5219116
3.294301 104.27415 7.5799103
8.533301 101.444145 62.249912
9.819302 103.70215 61.192913
0.392301 71.15615 14.915916
1.502301 70.76015 13.626915
8.398301 78.41415 8.612915
7.220301 77.222145 7.467911
-0.525699 87.03515 34.09791
0.888301 88.02115 31.986914
9.188301 78.86815 29.151913
9.892302 81.21215 30.041914
1.832301 13.067149 10.866913
1.0193009 12.150149 8.601913
8.108301 5.805149 1.6919174
10.149302 6.577149 0.24591064
48.6983 23.204147 43.992912
47.7863 24.649149 45.904915
2.1753013 33.13015 46.401913
3.8752983 31.747149 46.970913
21.202301 104.88115 26.931913
19.9213 104.61915 24.735914
18.709301 100.57715 23.450914
18.1573 102.25815 22.601913
22.7013 78.02315 61.332912
24.6443 78.50415 60.804913
27.6783 79.72615 53.157913
28.775301 79.81215 55.711914
30.6873 97.60715 26.041914
31.2143 95.79515 24.909914
24.5213 91.90915 18.294914
24.827301 89.292145 17.173914
33.8103 82.58015 29.626915
32.4113 84.03515 28.593914
39.9213 92.16315 30.952913
40.075302 94.65815 31.099915
14.955301 48.168148 4.7409134
16.6453 49.56315 3.6349106
8.111301 52.470146 1.362915
8.618301 50.35515 1.2019119
6.1513014 19.191149 2.3819122
5.517301 17.766148 0.54491425
0.53130096 15.570149 58.467915
0.519301 17.873148 57.880913
47.3843 49.025146 24.402914
46.4373 51.26415 22.862913
51.8433 54.787148 13.591914
1.8083007 53.697147 12.910913
47.5203 89.55115 9.359917
46.1843 88.90615 11.807915
47.2993 98.290146 9.019913
47.089302 100.000145 7.916916
16.6343 8.186149 29.925915
15.235301 8.315148 32.274914
15.445301 3.8741488 42.256912
16.8083 5.3631487 43.427914
37.742302 4.070149 14.895912
36.0533 3.459149 16.631912
32.5153 6.840149 8.326912
33.6863 5.714149 6.987915
33.8063 103.709145 64.29691
35.1813 102.40815 64.95791
38.0633 105.33015 9.726913
38.5483 107.25415 7.5719147
33.0433 32.44915 31.334913
31.8193 31.052149 32.762913
25.9983 35.63015 26.456913
24.2243 36.703148 25.213913
3.996301 3.110149 54.096912
2.0163012 4.166149 53.251915
0.30830097 12.740149 45.596912
-1.0856991 12.168149 43.96591
20.8463 43.89015 47.498913
20.3593 45.587147 46.426914
25.2223 45.24215 35.29291
25.5683 47.732147 35.170914
18.9293 43.56915 38.859913
19.8233 45.12615 39.520912
19.3323 46.036148 44.030914
18.1373 44.44415 41.893913
11.274302 77.01915 33.393913
9.885302 78.63015 33.91091
13.141301 87.54915 41.060913
11.917301 89.07715 39.755913
20.5863 113.36715 24.076914
21.7273 114.16915 22.645914
31.5063 110.13515 20.774914
30.4223 107.57715 21.426914
24.6073 51.87615 57.052914
25.240301 53.51315 55.681915
29.2343 62.54815 57.323914
31.0553 62.614147 56.728912
16.229301 99.89615 15.492914
17.8673 98.819145 14.246914
23.9873 105.013145 14.494914
23.1583 106.97915 14.794914
7.9413013 11.906149 53.331913
7.261301 12.1881485 51.182915
9.132301 21.229149 46.210915
11.547301 21.202148 44.922913
21.2383 13.782149 35.163914
21.9623 12.918149 37.09891
23.7373 3.428149 35.415913
23.2783 0.72514886 35.719913
20.150301 94.57615 50.723915
19.8363 96.472145 49.390915
15.147302 94.10015 49.670914
17.2893 95.18815 49.914913
49.1663 4.9741488 31.401915
49.5253 7.358149 32.359913
51.1593 2.4341488 33.178913
50.0533 0.8081489 31.803913
36.5203 17.473148 44.955914
38.5583 19.134148 45.946915
33.3963 28.250149 40.09891
31.5653 27.323149 39.498913
44.1263 101.220146 3.9249115
45.8543 102.721146 2.9419174
50.9033 96.00915 5.8969116
50.5313 94.00515 5.546913
32.4373 0.08214569 29.663914
31.5263 119.624146 29.951914
35.3493 121.012146 41.372913
36.4763 1.4061432 41.482914
15.351301 13.076149 10.780914
16.6943 13.735149 9.49691
8.894301 20.619148 7.987915
9.592301 23.097149 7.1139145
41.2703 33.75115 54.012913
40.1133 34.38915 52.848915
35.3333 23.333149 56.315914
33.7303 24.738148 56.659916
26.3643 28.463148 30.804914
24.4543 27.558147 30.346914
28.1343 17.076149 35.39691
30.5333 17.394148 35.071915
12.675302 -0.04785116 18.870914
13.758301 0.7331489 16.850914
15.734302 10.7211485 13.506914
14.018301 12.619149 13.183914
13.984302 45.231148 2.5909119
16.0393 44.29815 2.4229126
20.4883 35.70815 8.876915
19.4463 34.02215 10.234917
39.0513 49.61115 26.032913
38.124302 47.607147 26.779913
41.4613 36.61915 29.607914
43.3763 37.135147 27.865913
27.3613 45.38115 53.837914
26.6803 44.545147 55.783913
29.7903 34.13115 63.234913
27.2113 34.911148 64.28691
11.263301 27.200148 1.6449127
12.144301 25.045149 0.39191437
5.010301 21.106148 57.368916
4.7233014 19.646149 58.767914
5.062301 79.17715 2.810913
4.3693013 77.47615 1.3339157
11.100301 70.53315 63.880913
10.288301 72.498146 63.272915
20.4993 19.699148 49.639915
22.5303 18.405148 48.594913
29.4063 15.541149 57.746914
29.3263 16.660149 59.548916
2.2073011 38.197147 17.261913
3.261301 40.38215 17.417913
7.5413013 47.809147 25.619913
6.320301 49.523148 25.640913
8.064301 94.248146 23.609913
9.052301 96.14115 22.466913
3.780301 96.82715 11.276914
2.962301 94.776146 11.182914
35.2503 34.87315 36.39691
36.5363 33.773148 35.89691
40.2873 22.526148 36.154915
38.7703 20.954147 36.233913
23.6523 57.377148 28.474913
25.820301 57.634148 27.747913
23.6493 50.22115 31.623915
24.2033 50.525146 33.587914
44.6433 69.28715 60.952915
43.7513 70.07715 62.565914
34.8353 73.80315 64.267914
33.1443 75.32915 63.860912
8.775301 100.85715 53.186913
7.465301 102.486145 52.737915
4.905301 100.72915 62.058914
6.655301 99.60815 63.338913
1.528301 24.465149 7.49691
3.309301 23.672148 5.647911
12.884301 27.466148 11.647911
13.062302 29.225147 9.643913
5.090301 44.960148 16.081913
3.833301 46.76215 16.587914
-1.091699 37.41015 21.117914
-1.922699 35.912148 22.335913
25.0013 8.100149 17.691917
23.174301 7.180149 17.346916
20.9993 11.169149 8.838913
18.9053 11.873149 7.8539124
19.4283 75.22915 42.567913
20.3523 75.50615 40.289913
13.599301 74.19215 45.633915
13.6233015 72.30715 46.835915
37.7573 33.411148 10.976913
35.7293 34.66015 10.375916
43.874302 32.15915 2.4389114
43.700302 30.901148 0.56191254
16.6283 51.455147 16.814915
15.450301 52.36115 14.973914
12.363301 61.53315 22.849913
12.731301 61.52215 24.936914
17.174301 15.326149 53.643913
15.606301 13.640149 52.791916
13.294301 14.744149 43.851913
12.8403015 15.704149 45.394913
31.7143 101.96215 42.046913
30.3893 100.31315 41.658913
38.5013 93.74315 45.352913
37.6293 92.30815 46.701916
50.1793 16.601149 10.7739105
47.839302 16.526148 11.071915
0.17329788 23.434149 5.404915
1.7492988 24.403149 3.4709167
20.0663 104.361145 10.154915
18.851301 104.89815 8.362915
12.397302 111.33515 5.763916
10.995301 110.74715 7.479912
4.1533012 16.648148 8.512917
4.213301 14.857149 7.328911
12.977302 10.593149 11.7999115
14.986301 10.044148 11.013916
28.3053 75.165146 19.924913
28.372301 72.68615 19.960915
25.0543 69.92715 9.543914
26.8103 70.35415 7.927914
24.570301 42.267147 23.990913
24.2833 40.80515 25.457914
27.9683 43.86815 23.099913
26.4543 44.309147 24.567913
30.160301 82.33515 37.619915
30.4293 80.02415 36.726913
32.6593 70.93715 36.245914
34.339302 70.59015 34.18891
7.610301 79.14815 25.934914
7.215301 81.40015 25.643913
0.20830098 80.30015 19.173914
-1.8346989 78.32715 18.586914
23.9653 38.328148 7.8759155
22.3223 37.594147 9.017914
20.674301 29.347149 16.659912
22.2803 28.705149 18.138916
10.534301 38.31115 46.156914
8.633301 39.046146 46.829914
3.302301 40.80415 37.772915
5.176301 41.39615 37.630913
23.4573 63.89415 23.236914
25.1923 65.01715 23.504913
20.9163 69.681145 14.575913
19.3893 68.32715 15.243914
4.411301 114.945145 42.062912
3.278301 116.096146 43.892914
14.350301 115.89515 49.087914
14.720302 117.04515 47.285915
2.860301 43.546146 64.95191
3.620301 45.25015 62.718914
4.7253013 35.093147 58.168915
2.512301 36.495148 57.870914
10.052301 61.72215 52.783913
10.516301 63.337147 54.796913
-0.34069902 65.23915 49.807915
-1.2256991 63.54715 48.784916
4.0033007 82.554146 49.280914
2.4533012 83.61315 48.530914
44.0343 79.18315 50.612915
43.2483 78.847145 48.425915
34.1513 37.324146 39.319912
32.3363 38.052147 38.897915
30.6733 47.99815 39.936913
30.1253 48.49415 42.35591
16.9703 120.78015 59.195915
15.196301 119.930145 58.918915
16.8693 108.70015 57.998913
15.445301 107.29815 57.092915
24.1623 59.600147 26.649914
22.8803 58.72115 25.048914
13.547301 67.14715 24.248913
11.592301 65.86815 24.125914
1.0612991 74.96515 61.613914
2.0392997 74.751144 59.368916
45.4963 78.221146 53.276913
43.2013 77.78515 52.770912
19.7053 52.432148 19.969913
18.7573 54.411148 20.121914
11.874301 52.38915 22.108913
10.523301 54.05515 21.880913
32.5983 38.34615 62.221912
34.6333 39.946148 62.748913
35.0153 45.42215 53.235912
33.2813 45.48615 51.364914
35.9523 38.46615 16.986914
38.0163 38.74415 16.489914
44.3483 33.63315 23.321913
42.8913 33.197147 25.178913
28.1833 75.18915 8.268913
27.5283 72.73915 8.524918
17.8753 71.15015 14.272919
15.303301 71.66915 13.294914
42.2273 81.00515 49.639915
43.9493 81.87715 47.933914
51.6703 88.012146 47.192913
1.0772979 86.124146 47.186913
26.872301 51.11015 4.3519135
28.8773 50.93115 5.263916
37.1513 54.608147 0.34791565
39.450302 53.793148 0.5589142
12.298301 59.58215 54.702915
11.802301 59.70715 51.892914
22.445301 55.75815 49.901913
23.3503 53.83415 51.363914
31.4863 45.75015 21.119913
31.8233 48.094147 20.622913
32.6343 46.018147 9.188914
31.716301 43.935146 10.241914
30.3363 86.27515 48.825912
29.8103 86.61315 50.573914
30.6823 93.03115 59.240913
31.9183 92.87015 61.101913
10.646301 86.46115 60.793915
10.558301 84.58915 59.020912
10.104301 75.999146 52.976913
8.388301 76.859146 52.174915
48.4813 101.24215 34.491913
48.7333 103.334145 33.430912
41.582302 96.96015 29.537914
39.4153 98.278145 28.897913
25.4023 56.23015 7.515915
27.9783 56.446148 7.9059143
36.610302 59.89415 7.581917
38.4623 58.496147 8.152916
42.2893 105.00715 50.391914
41.8233 104.63315 52.485912
35.4163 96.10715 56.591915
33.0503 95.320145 56.628914
28.9043 103.00315 61.989914
28.7343 104.112144 63.970913
28.5323 108.84415 0.58291626
27.5503 108.52215 63.909916
10.948301 3.225149 8.936913
12.607301 3.6081488 10.630913
20.4943 7.791149 17.562912
19.8733 9.639149 17.07692
18.8623 109.33815 19.606915
18.5153 111.015144 17.752914
27.5163 109.06415 20.020914
29.4123 109.528145 18.350914
2.5402992 23.190147 10.075912
1.8972976 22.040148 8.597916
48.9803 21.900148 14.567917
48.200302 20.051147 13.622917
41.7383 44.731148 40.45891
43.3943 43.546146 41.357914
42.8733 38.044147 49.487915
40.9443 37.767147 50.390915
24.160301 108.05015 47.125916
22.1923 108.945145 48.276913
21.7463 99.31615 52.590916
21.3543 97.36415 53.657913
42.6023 49.82015 8.764915
41.6693 50.57515 6.453911
42.1893 43.017147 12.229912
41.4133 41.247147 11.591911
26.0473 46.77215 63.992912
24.4093 47.629147 0.37691498
23.2193 35.199146 0.9299164
24.6943 33.210148 1.3549118
5.851301 29.965149 46.967915
7.509301 31.754148 47.002914
13.401301 26.317148 56.252914
15.4723015 26.023148 56.267914
11.815301 8.299149 13.041916
10.800302 9.693149 14.437912
4.426301 2.8321488 12.8639145
3.736301 1.6721488 11.222916
46.4003 75.00815 22.502914
45.7963 72.89715 23.318914
38.5503 67.69115 28.504913
37.7463 66.33315 26.527914
26.1163 48.26415 54.666916
28.2153 49.17915 54.059914
39.0983 53.175148 57.028915
39.9343 51.85515 58.217915
50.4973 95.02515 61.431915
48.5693 95.72515 59.702915
47.0323 90.71215 63.916916
47.9363 88.750145 64.77591
51.221302 55.211147 35.483913
50.5733 57.48015 35.550915
44.9733 53.232147 47.013912
46.6383 53.949146 48.279915
13.666301 93.21515 14.155914
12.745301 94.68415 11.915916
15.059301 95.001144 2.7689133
14.091301 95.51115 0.8699112
50.3923 91.72615 60.817913
48.0293 90.83115 61.331913
51.5093 80.291145 59.153915
1.6322982 81.18415 59.957912
39.3453 91.99315 1.0169144
40.9843 90.527145 1.1629105
44.9413 85.45515 6.0249176
47.0123 84.290146 6.317917
42.7163 54.31815 7.828911
44.2513 55.83415 8.34391
50.8583 56.87615 64.25891
50.7883 58.080147 62.386913
14.862301 96.459145 12.37191
14.883301 97.85115 13.915916
17.813301 101.125145 12.920914
17.8503 101.94115 10.793915
7.4683013 25.500149 46.740913
9.265301 24.842148 44.724915
13.474301 21.835148 53.046913
13.891301 19.054148 52.642914
18.5473 94.556145 53.035915
16.5963 94.29715 52.266914
10.383301 88.96615 59.636913
8.681301 89.76015 61.126915
11.558301 61.63315 29.343914
10.901301 62.678146 31.074915
13.444302 71.139145 36.864914
12.148301 69.50915 37.72991
6.7183013 43.87415 43.110912
4.682301 44.14715 42.267914
-0.736699 42.525146 40.511913
1.334301 42.580147 40.954914
49.1983 112.73815 8.6749115
49.2083 115.16415 8.415916
43.0453 120.38415 15.322914
42.1623 119.54615 17.36892
46.6223 115.75815 40.887913
47.7833 116.10615 39.201912
46.8383 117.819145 31.945913
48.6273 118.35815 30.401915
23.209301 59.55615 38.242912
22.2983 61.51515 39.496914
31.8993 65.96815 40.474915
33.8123 64.40015 40.568913
28.334301 27.002148 60.435913
26.2383 26.629148 60.912914
23.3453 30.855148 49.893913
21.7433 32.447147 49.840916
5.2953014 56.886147 9.873917
5.733301 57.004147 8.056915
2.821301 66.27615 6.8119125
2.484301 65.51015 8.909912
10.348301 88.44715 37.131912
9.360301 90.861145 36.45291
0.82730097 92.07815 26.722914
-0.98369896 90.69615 27.224913
6.318301 81.74715 38.703915
8.779302 82.78215 39.460915
5.584301 84.50915 44.918915
5.305301 83.903145 46.975914
13.464301 79.361145 25.846914
12.663301 81.33815 26.787914
5.959301 88.88515 22.236914
5.707301 91.16415 21.313913
20.3943 88.69715 0.7109146
21.5963 87.55315 1.9229126
16.1133 85.58015 11.262917
13.659301 85.55315 11.939911
46.7783 11.052149 56.999912
47.8713 9.017149 57.276913
