1.664 5.323 3.891
1.532 5.053 3.471
1.565 4.713 3.908
2.207 5.468 4.032
2.110 5.127 3.930
1.946 5.205 3.926
1.632 4.818 3.630
1.662 4.763 3.552
1.395 4.313 4.054
1.495 4.207 3.772
2.471 5.180 4.309
2.255 5.146 4.102
2.032 4.988 3.972
1.626 4.634 4.000
1.612 4.608 3.745
1.473 4.494 3.865
1.312 4.182 3.943
1.226 3.910 3.689
0.999 3.897 3.797
2.514 4.997 4.204
2.249 4.838 4.135
1.920 4.780 4.296
1.849 4.449 4.050
1.467 4.305 4.152
0.196 5.813 2.431
0.247 5.273 2.849
0.139 5.100 2.674
0.044 4.956 2.919
1.745 6.044 4.016
1.975 5.941 4.001
1.640 5.576 3.917
1.314 5.531 3.852
2.021 5.563 3.982
1.910 5.426 4.206
1.695 5.280 3.919
1.242 4.950 3.950
1.988 5.455 4.262
2.020 5.391 4.209
1.820 5.155 4.070
1.395 4.863 3.838
1.278 4.742 3.941
1.052 4.441 4.032
2.073 5.217 4.620
2.060 5.041 4.164
1.641 4.763 4.459
1.736 4.941 4.206
1.295 4.724 4.151
1.312 4.456 4.233
1.426 4.197 4.184
0.937 3.937 4.266
2.330 4.969 4.614
2.106 4.704 4.287
1.693 4.548 4.361
1.630 4.548 4.457
1.678 4.552 4.149
0.159 6.371 2.695
0.211 6.087 2.808
0.316 5.848 3.178
0.108 5.673 2.797
0.042 5.486 3.037
-0.119 5.650 2.764
0.318 5.135 3.076
0.117 5.007 3.350
1.664 5.701 4.057
1.857 5.778 4.303
1.779 5.647 4.392
1.723 5.487 4.669
1.652 5.140 4.403
1.628 5.000 4.506
1.876 5.447 4.745
1.869 5.240 4.412
1.808 4.952 4.609
1.514 4.773 4.558
1.523 4.519 4.561
2.045 4.919 4.830
1.818 4.881 4.838
1.704 4.828 4.759
1.568 4.818 4.518
1.462 4.495 4.522
0.165 6.465 3.105
0.301 5.971 3.286
0.529 6.282 3.295
0.158 5.952 3.412
-0.092 5.916 3.182
0.336 5.779 3.416
0.054 5.562 3.479
0.353 5.198 3.638
-0.086 5.119 3.432
1.645 6.108 4.425
1.499 5.601 4.513
1.724 5.605 4.607
1.441 5.539 4.752
1.883 5.514 4.805
1.851 5.152 4.723
2.034 5.022 4.925
0.095 6.127 3.754
-0.055 6.058 3.463
0.441 6.199 3.435
0.234 5.713 3.593
0.206 5.414 4.026
0.254 5.417 3.609
1.686 5.831 4.671
-0.070 6.217 3.693
0.206 6.097 3.663
0.018 6.204 4.160
0.170 5.889 3.802
0.287 6.001 4.022
0.035 5.652 3.852
0.087 5.330 3.899
0.181 6.201 3.955
0.002 6.151 4.322
0.173 6.079 4.370
0.092 5.934 4.361
-0.059 5.460 4.525
0.121 5.259 4.709
-0.122 6.065 4.622
-0.028 5.951 4.605
0.169 5.788 4.597
0.138 5.737 4.836
0.010 5.648 4.885
0.178 5.196 5.008
0.016 5.067 5.088
0.033 5.584 5.041
0.200 5.917 4.894
0.124 5.430 5.247
-0.065 5.492 5.077
0.131 5.332 5.189
0.060 5.225 5.196
0.147 5.298 5.212
0.337 4.938 5.512
-0.051 4.906 5.282
0.384 5.237 5.655
0.422 4.766 5.653
0.121 4.927 5.520
-0.104 4.434 5.546
0.443 5.018 5.519
0.137 5.216 5.507
0.041 5.456 5.418
0.323 5.293 5.500
0.360 5.463 5.846
0.304 5.083 5.474
0.260 5.192 5.829
0.107 4.812 5.873
0.699 5.155 6.122
0.615 5.215 5.969
0.289 4.923 5.746
0.182 5.715 5.755
-0.006 5.436 5.861
0.407 5.338 5.940
-0.122 5.448 6.004
0.186 4.937 6.121
0.548 5.235 6.268
0.245 5.403 6.289
0.281 5.063 5.802
0.161 5.674 6.062
0.046 5.690 5.992
3.617 5.520 0.737
2.586 3.913 0.682
2.353 3.515 0.604
2.247 3.695 0.515
2.010 3.208 0.524
3.102 3.894 1.088
2.752 3.729 1.125
2.483 3.488 0.957
2.401 3.479 0.556
2.242 3.253 0.582
1.969 2.973 0.457
1.955 2.864 0.419
3.219 3.940 1.096
2.671 3.407 1.068
2.645 3.634 0.818
2.543 3.323 0.860
2.449 3.197 0.701
2.263 2.792 0.726
2.093 2.599 0.688
3.407 3.755 1.586
3.012 3.414 1.117
3.016 3.313 1.088
2.844 3.152 1.022
2.502 2.944 0.951
2.344 2.832 0.872
2.029 2.884 0.875
1.930 2.581 1.009
1.651 2.614 0.737
3.491 3.736 1.373
3.574 3.592 1.373
3.191 3.315 1.278
3.175 3.277 1.507
2.741 3.032 1.156
2.695 2.946 1.033
2.544 2.871 1.072
2.261 2.488 0.977
2.150 2.239 0.937
3.784 3.828 1.829
3.361 3.415 1.752
3.374 3.145 1.662
3.430 3.302 1.528
3.225 3.122 1.715
2.954 2.974 1.441
2.587 2.718 1.244
2.751 2.668 1.359
2.169 2.418 1.185
2.192 2.363 1.036
4.102 3.766 1.891
3.777 3.726 2.061
3.711 3.650 1.803
3.350 3.479 1.814
3.201 6.043 0.552
3.205 5.577 0.765
2.978 5.726 0.964
3.525 5.739 0.918
3.055 5.473 0.952
3.548 5.265 1.122
3.484 5.298 1.440
2.323 3.623 0.905
1.744 3.485 0.898
1.627 3.542 0.817
2.582 4.067 1.095
2.223 3.788 1.189
2.049 3.555 0.950
1.976 3.393 0.974
1.948 3.177 0.761
1.579 2.881 0.741
1.255 2.707 0.694
3.014 3.690 1.490
2.837 3.571 1.085
2.660 3.549 1.148
2.186 3.513 1.155
2.098 3.378 1.062
1.737 3.152 0.759
1.604 2.877 0.712
1.714 2.828 0.925
3.007 3.775 1.414
2.602 3.417 1.425
2.504 3.443 1.305
2.526 3.284 1.205
2.398 2.999 1.076
1.907 2.866 1.288
1.840 2.666 1.070
1.522 2.655 0.902
1.278 2.225 1.000
3.397 3.819 1.701
2.904 3.448 1.535
2.717 3.213 1.387
2.793 3.099 1.393
2.533 2.811 1.340
2.422 2.756 1.429
2.024 2.506 1.216
1.992 2.638 1.084
1.764 2.149 1.032
1.366 2.100 1.104
3.587 3.763 1.731
3.193 3.670 1.906
3.384 3.627 2.010
3.089 3.287 1.632
2.774 3.230 1.612
2.809 3.132 1.545
2.706 2.602 1.738
2.458 2.628 1.294
2.265 2.349 1.312
1.940 2.375 1.500
1.775 2.199 1.360
3.663 3.914 1.907
3.669 3.504 2.141
3.375 3.413 1.963
1.928 5.913 -0.100
2.190 5.856 0.415
1.887 5.783 0.121
1.725 5.619 0.068
1.528 5.419 -0.121
1.879 5.907 0.365
2.032 5.696 0.287
2.110 5.289 0.341
1.806 5.470 0.045
1.539 5.103 0.184
1.411 4.759 0.039
2.833 6.325 0.566
2.874 6.056 0.788
2.688 5.780 0.376
2.504 5.633 0.437
1.991 5.613 0.572
2.163 5.519 0.642
2.916 5.923 0.802
2.740 5.724 0.823
2.431 5.826 0.662
2.644 5.512 0.732
2.335 5.211 0.709
3.270 5.723 0.958
2.861 5.557 0.968
2.720 5.446 0.700
2.425 5.215 0.672
3.049 5.752 1.339
3.126 5.316 1.043
2.928 5.219 1.041
3.226 5.679 1.393
3.231 5.463 1.166
3.429 5.364 1.450
1.783 3.850 1.077
1.632 3.357 0.649
1.596 3.199 0.906
2.197 3.601 1.195
1.694 3.447 1.075
1.598 3.192 0.819
1.377 3.310 0.988
1.244 3.039 0.778
2.412 3.622 1.417
2.002 3.516 1.319
1.763 3.429 1.282
1.815 3.138 1.120
1.452 2.796 1.194
1.338 2.724 0.881
1.191 2.810 0.981
2.551 3.485 1.664
2.492 3.518 1.499
2.287 3.341 1.524
2.023 2.962 1.351
2.071 2.802 1.380
1.655 2.824 1.052
1.602 2.574 1.311
1.492 2.444 1.074
0.989 2.284 1.130
2.940 3.380 1.679
2.700 3.366 1.625
2.468 3.098 1.750
2.371 3.047 1.440
2.315 2.865 1.439
1.970 2.646 1.249
1.672 2.708 1.563
1.653 2.362 1.345
1.483 2.181 1.062
1.072 2.060 1.012
1.076 1.822 0.852
3.211 3.449 1.905
2.936 3.225 1.982
2.645 3.050 2.030
2.515 3.074 1.751
2.254 2.871 1.615
2.206 2.665 1.690
2.156 2.400 1.760
1.948 2.323 1.599
1.748 2.227 1.349
1.328 2.210 1.238
1.426 2.046 1.441
1.251 1.663 1.033
1.037 1.748 0.908
3.285 3.307 2.004
6.131 3.207 -0.052
6.219 3.297 0.261
6.101 3.148 0.120
5.931 3.433 0.704
6.294 3.576 0.783
6.250 2.307 1.719
6.119 4.026 1.314
6.139 2.345 1.782
6.276 2.657 2.202
6.247 2.257 2.111
6.033 2.069 2.146
6.415 1.872 2.507
6.216 4.242 1.238
5.746 2.454 1.658
6.242 2.398 2.169
6.163 2.197 1.910
5.971 2.576 2.415
5.696 2.564 2.345
6.300 2.552 2.312
5.817 2.194 2.504
6.108 2.277 2.441
6.094 1.841 2.673
6.183 1.763 2.824
6.346 1.802 3.006
6.333 4.498 1.859
5.544 2.721 2.092
5.658 2.440 1.926
5.945 2.776 2.448
5.824 2.352 2.389
6.085 2.524 2.474
5.922 2.375 2.454
6.021 2.273 2.575
5.979 2.105 2.550
5.919 2.117 2.670
5.653 2.711 1.948
6.030 2.923 2.532
5.485 2.889 2.139
5.931 2.518 2.502
5.878 2.623 2.230
5.830 2.668 2.805
5.441 2.647 2.559
5.610 2.325 2.936
5.752 2.019 3.047
5.038 3.180 2.026
5.191 3.294 2.316
5.431 3.211 2.335
5.359 2.762 2.117
5.492 3.095 2.401
5.621 2.926 2.413
5.853 2.576 2.649
5.675 2.607 2.512
5.635 2.923 2.813
5.323 2.472 2.834
5.492 2.496 2.874
4.989 3.553 2.002
5.127 3.535 2.000
5.235 3.251 2.404
5.203 3.038 2.160
5.321 3.167 2.713
5.421 2.966 2.491
5.560 2.989 2.726
5.451 2.644 2.577
5.647 2.919 2.736
5.540 2.612 2.977
5.566 2.746 3.224
5.200 2.616 2.822
6.382 1.410 4.228
6.311 0.934 4.223
6.074 0.962 4.463
4.594 3.548 2.073
5.128 3.572 2.258
5.035 3.686 2.520
5.425 3.499 2.509
5.351 3.502 2.559
4.891 3.266 2.484
5.473 3.570 2.944
5.272 3.442 2.870
4.879 3.175 2.713
5.468 3.261 2.834
5.288 2.909 2.674
5.544 2.921 3.225
5.189 2.750 2.873
6.072 0.636 -0.003
6.114 0.433 0.039
6.066 -0.164 -0.112
5.920 0.606 0.002
5.541 0.402 0.214
5.566 0.260 -0.056
5.826 0.527 0.079
5.558 0.741 0.236
5.399 0.409 -0.099
4.903 0.116 0.055
5.824 1.202 0.141
5.726 1.104 0.006
5.727 1.057 -0.094
5.541 0.749 0.106
5.590 0.528 0.061
5.402 0.601 -0.017
5.048 0.378 0.207
5.026 0.691 0.255
5.028 0.285 0.220
4.727 0.151 -0.050
6.007 2.841 -0.026
5.923 2.225 -0.137
5.424 2.047 -0.062
5.738 1.869 0.249
5.369 1.749 -0.136
5.569 1.433 0.135
5.305 1.503 0.209
5.170 1.097 0.199
5.206 0.874 -0.125
5.432 0.971 0.277
5.219 0.782 0.388
4.985 0.841 0.306
4.834 0.409 0.085
5.298 0.351 0.102
4.940 0.181 0.054
4.626 0.215 -0.054
4.908 0.431 0.282
4.677 0.087 0.329
4.225 0.123 0.335
6.392 0.093 1.414
6.031 0.343 1.432
6.012 3.024 0.055
5.753 2.861 0.100
5.724 2.755 0.059
5.382 2.310 -0.050
5.246 2.023 -0.092
5.176 1.821 0.130
5.130 1.611 0.033
5.088 1.645 0.334
4.858 1.213 0.011
4.730 1.165 0.014
5.119 0.953 0.198
4.864 1.128 0.036
4.387 0.829 0.215
4.264 0.492 0.004
5.030 0.765 0.265
4.490 0.617 0.238
4.358 0.540 0.173
4.431 0.318 0.259
4.876 0.368 0.191
4.464 0.448 0.121
4.370 0.074 0.092
4.462 0.482 0.608
4.269 0.154 0.427
3.859 -0.187 0.277
6.070 1.510 1.509
6.236 1.436 1.391
5.977 1.133 1.642
6.008 0.943 1.508
6.206 0.973 1.554
6.009 0.772 1.564
5.870 0.416 1.737
5.707 0.562 1.417
5.947 0.728 1.898
5.754 0.367 1.443
6.199 0.511 1.687
5.672 0.126 1.555
5.644 -0.141 1.524
6.227 0.475 2.019
5.930 0.320 1.616
6.310 0.194 1.979
5.965 -0.050 1.846
4.598 1.446 0.109
4.415 1.559 0.032
4.678 1.568 0.138
4.622 1.216 0.182
4.416 0.954 0.015
4.347 1.064 -0.153
4.798 1.164 0.222
4.272 0.697 0.428
4.373 0.864 0.058
3.992 0.438 0.295
3.709 0.426 -0.030
4.589 0.975 0.326
4.343 0.579 0.497
4.234 0.655 0.319
3.973 0.495 0.173
3.759 0.124 0.276
3.933 0.143 -0.028
4.509 0.469 0.434
4.170 0.003 0.565
4.242 0.069 0.145
4.136 0.480 0.714
3.966 0.087 0.482
3.878 -0.008 0.372
6.220 2.133 1.685
6.036 2.040 1.305
6.191 1.716 1.816
5.938 1.838 1.639
5.906 1.355 1.573
5.829 1.368 1.504
6.268 1.555 1.786
5.880 1.250 1.676
5.960 1.306 1.693
5.540 0.662 1.611
6.450 1.262 2.012
6.247 1.250 1.714
6.068 1.014 1.894
5.774 0.855 1.854
5.623 0.580 1.890
5.446 0.342 1.554
6.017 0.759 2.062
5.958 0.716 1.750
5.681 0.599 1.836
5.725 0.529 1.826
5.704 0.409 2.082
5.316 -0.034 1.691
6.079 0.656 2.200
5.870 0.623 1.946
6.035 0.299 2.072
6.117 0.121 2.112
5.677 0.108 1.854
6.040 0.204 2.126
6.156 0.272 2.008
5.907 0.109 2.471
6.260 0.116 2.417
5.943 -0.118 2.207
3.831 1.701 0.103
3.923 1.170 0.303
3.727 0.987 0.207
3.606 0.883 -0.086
4.254 1.251 0.244
4.314 1.138 0.381
3.796 1.157 0.080
3.950 0.701 0.277
3.517 0.749 0.277
4.212 0.779 0.570
4.267 0.954 0.556
3.885 0.815 0.489
3.903 0.556 0.267
3.604 0.327 0.180
3.164 0.240 0.134
4.225 0.779 0.517
4.375 0.474 0.366
3.826 0.264 0.349
3.667 0.251 0.295
3.485 0.238 0.457
4.463 0.370 0.890
4.099 0.087 0.734
3.890 0.224 0.502
6.128 1.873 1.543
6.012 1.764 1.323
3.918 0.679 0.851
4.072 0.277 0.954
3.946 0.132 0.546
3.608 0.083 0.696
5.974 2.235 1.594
5.708 1.807 1.650
5.640 1.892 1.401
6.010 2.034 2.040
5.777 1.834 1.707
5.715 1.446 1.917
5.355 1.313 1.637
5.502 0.919 1.741
6.221 1.599 2.157
6.168 1.714 2.099
5.914 1.432 2.072
5.618 1.231 1.827
5.593 1.199 1.782
5.612 0.879 1.932
5.320 0.652 1.822
6.236 1.382 2.037
6.040 1.026 1.852
5.673 1.035 1.894
5.554 0.800 2.036
5.645 0.839 1.846
5.402 0.537 1.753
5.151 0.565 2.050
6.177 1.130 2.453
6.185 1.121 2.330
5.794 1.039 2.292
5.438 0.697 2.151
5.839 0.410 2.201
5.582 0.136 2.031
5.149 0.013 2.203
5.296 0.080 1.855
6.177 0.680 2.258
5.722 0.521 2.304
5.793 0.658 2.223
6.020 0.117 2.184
5.454 0.261 2.202
6.068 0.595 2.370
5.972 0.377 2.493
5.872 0.364 2.174
6.068 -0.021 2.395
6.118 0.179 2.602
6.094 -0.010 2.493
6.160 -0.055 2.536
3.558 1.353 -0.067
3.936 1.115 0.283
3.726 0.888 0.082
3.322 0.871 0.299
3.128 0.836 0.077
4.001 1.262 0.506
3.746 1.211 0.498
3.526 0.700 0.226
3.621 0.793 0.217
3.247 0.664 0.321
3.092 0.338 0.037
2.691 0.239 -0.087
4.158 0.957 0.653
3.890 1.045 0.695
3.626 0.801 0.393
3.680 0.663 0.568
3.267 0.482 0.345
3.061 0.350 0.155
3.122 0.242 0.099
3.964 0.704 0.896
3.988 0.406 0.613
3.678 0.424 0.409
3.608 0.103 0.502
3.290 0.107 0.467
6.012 2.356 1.420
5.730 2.051 1.433
3.969 0.533 0.721
3.917 0.156 0.995
3.675 0.078 0.740
3.622 -0.164 0.792
6.153 1.956 1.574
5.913 1.892 1.814
5.439 1.894 1.767
4.031 0.613 1.135
3.852 0.315 0.912
3.515 0.384 1.108
3.595 0.247 0.663
5.873 2.362 1.813
5.679 1.983 2.047
5.598 2.050 1.588
5.350 1.754 1.825
5.297 1.531 1.813
3.776 0.071 1.025
3.575 -0.136 1.097
6.056 1.919 2.220
5.727 1.646 1.997
5.524 1.703 2.113
5.242 1.431 1.992
5.120 1.231 1.632
5.429 0.956 1.875
5.890 1.607 2.415
5.969 1.561 2.136
5.755 1.674 1.937
5.584 1.339 1.817
5.209 1.009 1.792
5.211 0.757 2.031
5.279 0.684 1.973
6.300 1.517 2.512
5.852 1.620 2.388
5.958 1.473 2.408
5.377 1.067 2.254
5.404 1.159 2.060
5.641 0.934 2.348
5.477 0.414 2.034
6.285 1.264 2.381
6.077 1.304 2.359
5.969 1.007 2.465
5.772 1.121 2.174
5.470 0.960 2.172
5.721 0.745 2.443
5.569 0.444 2.116
5.149 0.368 2.392
6.221 1.029 2.740
6.121 0.771 2.462
5.667 0.575 2.272
5.592 0.564 2.284
5.678 0.346 2.426
5.523 0.197 2.514
5.492 0.148 2.552
6.350 1.066 2.667
5.949 0.586 2.710
5.850 0.634 2.668
5.861 0.244 2.487
5.697 0.256 2.745
5.463 -0.023 2.709
5.983 0.694 2.730
6.032 0.195 2.730
5.670 0.282 2.685
6.026 -0.182 2.881
5.891 0.160 2.817
5.822 -0.034 2.866
3.329 1.292 0.353
3.154 1.103 0.223
2.954 1.046 0.123
2.565 1.078 -0.066
3.542 1.004 0.403
3.037 0.897 0.488
2.932 0.733 0.313
2.710 0.610 0.048
2.689 0.614 0.164
3.505 1.311 0.782
3.547 1.028 0.353
3.221 0.847 0.454
3.206 0.647 0.486
2.832 0.547 0.304
2.631 0.513 0.209
2.609 0.001 0.111
2.399 0.136 -0.072
3.971 0.895 0.645
3.743 0.809 0.872
3.507 0.482 0.794
3.021 0.283 0.372
3.119 0.414 0.587
2.997 0.202 0.190
5.560 2.465 1.359
3.757 0.598 0.859
3.707 0.643 0.897
3.421 0.229 0.937
3.281 0.142 0.667
3.189 0.001 0.649
5.655 2.527 1.590
5.489 2.310 1.840
5.576 2.162 1.468
5.241 1.948 1.676
3.945 0.439 1.045
3.923 0.565 1.196
3.646 0.208 1.016
3.597 0.289 1.033
6.054 1.973 1.805
5.801 1.912 1.814
5.361 1.883 1.915
5.167 1.600 1.631
5.006 1.800 1.625
3.746 0.533 1.386
3.745 0.325 1.078
3.352 0.458 0.981
3.216 0.273 0.983
3.058 -0.123 0.967
5.589 2.144 2.027
5.495 2.057 1.983
5.439 1.917 1.834
5.101 1.698 1.972
5.118 1.482 1.904
5.206 1.611 1.827
3.552 0.223 1.170
3.490 0.122 1.405
5.938 2.194 2.168
5.493 1.995 2.007
5.215 1.725 1.907
5.297 1.689 1.983
5.226 1.300 1.933
5.119 1.222 2.101
3.915 0.047 1.447
5.851 2.001 2.372
5.567 1.898 2.183
5.686 1.554 2.178
5.423 1.315 2.018
5.171 1.418 2.170
5.432 0.994 2.453
5.830 1.703 2.412
5.709 1.625 2.431
5.444 1.189 2.370
5.421 1.345 2.364
5.090 1.145 2.288
5.513 0.669 2.267
5.306 0.551 2.480
6.276 1.388 2.585
5.926 1.161 2.499
5.871 1.067 2.487
5.473 1.020 2.560
5.275 0.845 2.562
5.583 0.543 2.740
5.142 0.573 2.315
4.979 0.463 2.349
5.982 1.445 2.933
5.901 1.329 2.706
5.960 0.990 2.852
5.488 0.940 2.614
5.339 0.590 2.426
5.545 0.643 2.561
5.133 0.274 2.829
5.233 -0.039 2.689
5.950 0.874 3.072
5.571 0.470 2.991
5.416 0.526 2.747
5.554 0.230 2.732
5.471 0.256 2.856
6.159 0.552 3.132
5.872 0.330 2.944
5.433 0.358 2.913
5.583 -0.035 2.893
5.727 0.166 2.942
5.816 0.085 2.830
2.391 1.215 -0.001
2.925 1.428 0.443
2.878 1.189 0.097
2.385 1.147 0.099
2.189 0.665 0.008
2.318 0.618 0.097
3.323 1.158 0.771
2.980 0.913 0.331
2.690 1.121 0.631
2.506 0.601 0.237
2.335 0.681 0.420
2.374 0.458 0.132
2.079 0.359 0.213
3.438 0.941 0.957
3.147 0.903 0.526
2.892 0.866 0.514
2.969 0.743 0.490
2.518 0.346 0.404
2.357 0.108 0.182
5.132 2.676 1.703
5.207 2.582 1.588
3.425 0.933 0.971
3.318 0.670 0.890
3.144 0.531 0.716
3.130 0.546 0.899
2.711 0.178 0.592
2.806 0.355 0.602
2.579 -0.129 0.684
5.436 2.669 1.833
5.359 2.672 1.533
5.114 2.420 1.588
4.882 2.022 1.490
3.548 0.702 1.145
3.691 0.811 0.960
3.512 0.415 0.918
2.946 0.242 0.806
2.987 0.139 0.628
2.767 0.125 0.913
5.482 2.500 2.012
5.235 2.157 1.715
5.061 2.154 1.973
5.175 1.868 1.549
4.778 1.707 1.921
3.621 0.602 1.229
3.640 0.365 1.214
3.441 0.474 1.027
3.073 -0.001 1.231
2.934 0.055 0.966
5.583 2.199 2.068
5.703 2.124 1.996
5.183 1.810 2.114
4.970 1.789 1.874
4.810 1.573 1.864
4.915 1.862 1.832
3.781 0.898 1.552
3.302 0.515 1.603
3.308 0.606 1.194
3.097 0.064 1.204
2.902 0.229 1.313
5.440 2.194 2.396
5.279 2.145 2.383
5.130 1.834 2.126
5.083 1.887 2.056
4.759 1.598 1.917
4.766 1.518 1.980
3.548 0.601 1.740
3.712 0.239 1.375
3.577 0.255 1.597
3.000 0.256 1.205
5.442 2.079 2.412
5.505 2.038 2.505
5.303 1.728 2.164
5.237 1.737 2.423
4.784 1.707 1.947
4.999 1.233 2.315
3.808 0.360 1.620
3.305 0.143 1.532
5.663 2.113 2.718
5.388 1.840 2.726
5.535 1.683 2.308
5.348 1.312 2.368
4.963 1.197 2.486
5.192 1.053 2.331
5.689 1.695 2.770
5.779 1.491 2.536
5.545 1.571 2.524
5.060 1.331 2.484
5.143 1.099 2.329
5.253 0.735 2.540
5.875 1.536 3.019
5.531 1.378 2.717
5.274 1.236 2.542
5.266 1.105 2.455
5.411 0.670 2.677
5.528 1.015 2.993
5.520 0.911 2.901
5.253 0.759 2.832
5.451 0.537 2.778
5.204 0.317 3.019
5.491 0.843 2.881
5.424 0.373 3.011
5.592 0.447 3.087
5.123 0.014 3.018
5.033 0.089 2.696
5.311 0.346 3.171
5.408 0.172 3.173
5.344 0.043 3.091
5.407 0.203 3.117
4.132 2.640 1.158
4.197 2.645 1.174
2.195 0.903 0.023
1.773 0.772 -0.097
4.222 2.798 1.324
4.229 2.920 0.992
4.273 2.585 1.418
2.242 1.148 0.190
2.309 0.768 0.218
2.210 0.548 0.145
4.829 3.007 1.345
4.381 2.624 1.351
4.339 2.574 1.192
4.295 2.332 1.385
2.609 0.823 0.813
2.648 0.799 0.569
2.329 0.656 0.292
2.209 0.571 0.259
4.799 3.119 1.485
4.980 2.631 1.633
4.442 2.818 1.443
4.274 2.541 1.513
4.359 2.122 1.588
3.009 1.154 1.050
3.007 0.694 0.979
2.429 0.676 0.905
2.378 0.381 0.517
2.274 0.221 0.727
5.069 2.920 1.660
4.981 2.577 1.944
4.951 2.464 1.693
4.638 2.600 1.616
4.398 2.409 1.583
4.621 2.020 1.866
3.171 1.125 1.182
2.927 0.930 1.058
3.078 0.725 1.097
2.732 0.366 0.900
2.418 0.461 0.970
2.219 0.090 0.892
5.208 2.852 1.903
5.156 2.579 2.052
4.997 2.241 1.745
4.698 2.271 1.830
4.697 1.984 1.642
4.822 1.943 1.754
3.713 0.944 1.235
3.341 0.773 1.154
3.347 0.596 1.251
2.920 0.306 1.133
2.821 0.125 0.977
2.561 -0.006 1.071
5.601 2.673 2.214
5.192 2.432 2.184
5.002 2.107 1.818
4.704 2.091 1.777
4.749 1.993 1.998
4.867 1.703 2.116
3.742 0.606 1.662
3.352 0.699 1.507
3.220 0.482 1.514
2.978 0.046 1.114
2.914 0.060 1.145
5.399 2.487 2.451
5.489 2.265 2.435
5.277 2.065 2.194
4.845 1.703 2.137
4.683 1.777 2.185
4.543 1.918 1.994
3.437 0.606 1.720
3.474 0.845 1.446
2.998 0.468 1.657
2.794 0.217 1.413
2.616 0.310 1.247
2.499 0.002 1.447
5.481 2.468 2.502
5.072 2.073 2.484
4.847 2.236 2.472
4.774 2.094 2.074
4.470 1.688 2.031
3.558 0.684 2.037
3.305 0.303 1.941
3.101 0.194 1.706
2.938 0.176 1.591
5.672 2.154 2.544
5.439 2.161 2.698
4.912 1.706 2.548
4.855 1.553 2.211
3.747 0.270 1.802
3.552 0.448 1.904
3.488 0.087 1.654
5.553 2.013 2.926
5.554 1.878 2.888
5.367 1.635 2.498
4.856 1.543 2.521
3.618 0.166 2.158
5.534 1.680 2.865
5.158 1.694 2.853
4.026 3.039 1.273
4.015 2.718 1.004
3.610 2.403 0.959
4.458 3.303 1.310
4.285 3.256 1.515
4.121 2.993 1.167
4.279 2.863 1.381
4.150 2.659 1.440
3.617 2.370 1.249
4.847 3.362 1.721
4.738 3.005 1.729
4.601 2.866 1.392
4.538 2.768 1.489
3.979 2.577 1.468
4.190 2.505 1.647
4.077 2.570 1.469
4.941 3.047 2.064
4.689 2.889 1.860
4.720 2.718 1.618
4.628 2.696 1.626
4.093 2.670 1.634
4.231 2.165 1.624
2.525 0.996 0.960
2.577 0.705 0.712
5.248 3.090 2.118
4.780 2.686 1.995
4.677 2.469 1.737
4.380 2.697 1.677
4.340 2.532 1.855
4.582 2.294 1.690
3.086 1.209 1.482
2.854 0.826 1.373
2.678 0.841 1.075
2.567 0.340 1.010
2.543 0.421 0.967
5.181 2.834 2.234
4.845 2.554 2.241
4.692 2.438 2.191
4.705 2.195 2.089
4.532 2.342 1.950
4.579 2.068 1.970
3.057 0.898 1.258
3.232 0.563 1.255
2.957 0.477 1.266
2.677 0.481 1.227
2.427 0.030 0.995
5.100 2.650 2.436
5.182 2.497 2.233
4.723 2.396 2.323
4.750 2.306 1.933
4.494 2.010 2.223
4.485 1.735 2.228
3.473 0.811 1.810
3.448 0.719 1.480
3.270 0.629 1.522
3.030 0.499 1.613
2.819 0.017 1.208
2.499 0.188 1.076
5.234 2.578 2.542
5.158 2.355 2.575
4.880 1.959 2.403
4.835 1.908 2.264
4.788 1.767 2.218
3.280 0.947 1.739
3.072 0.592 1.980
2.851 0.371 1.628
2.895 0.337 1.438
2.702 0.271 1.343
2.560 -0.037 1.297
5.126 2.355 2.731
5.250 2.518 2.700
4.883 2.301 2.692
4.753 1.848 2.508
3.432 0.836 2.049
3.109 0.356 2.020
2.966 0.562 1.892
3.005 0.405 1.841
2.614 -0.053 1.597
5.148 2.322 3.038
4.976 2.254 2.893
5.046 1.993 2.599
4.798 1.990 2.809
3.668 0.532 2.231
3.188 0.265 2.060
3.338 0.066 1.969
3.096 -0.019 1.894
5.440 2.073 2.985
3.680 0.454 2.141
3.540 0.167 2.226
4.074 3.106 1.539
3.521 2.665 1.379
3.613 2.713 1.166
3.453 2.588 1.341
4.482 3.660 1.689
4.461 3.440 1.570
4.079 3.305 1.747
3.920 3.123 1.415
4.010 2.834 1.597
3.784 2.834 1.457
3.425 2.375 1.392
4.732 3.305 2.139
4.672 3.347 2.012
4.557 3.123 1.847
4.079 2.809 1.742
3.945 2.924 1.519
4.015 2.780 1.672
4.045 2.641 1.531
4.835 3.281 2.063
4.835 3.030 2.144
4.331 2.920 1.997
4.340 2.707 1.913
4.082 2.628 1.767
4.257 2.297 2.061
3.858 2.354 1.759
5.065 3.236 2.294
4.737 2.869 2.030
4.685 2.883 2.038
4.421 2.641 1.820
4.059 2.402 2.108
4.237 2.033 1.982
2.672 0.803 1.220
4.900 2.945 2.271
4.790 2.742 2.442
4.855 2.703 2.333
4.584 2.500 2.124
4.301 2.108 2.161
4.476 2.139 2.360
2.993 0.777 1.496
2.891 0.948 1.668
2.625 0.682 1.292
2.552 0.307 1.211
2.207 0.210 1.212
5.118 2.658 2.439
4.791 2.687 2.294
4.776 2.188 2.196
4.743 2.017 2.116
4.556 1.980 2.385
3.163 1.004 1.946
3.227 0.555 1.923
3.098 0.371 1.858
2.969 0.438 1.720
2.522 0.294 1.619
2.509 0.192 1.279
5.088 2.688 2.688
5.090 2.424 2.538
4.879 2.249 2.601
4.572 2.173 2.309
3.367 1.039 1.911
2.964 0.768 2.157
2.880 0.714 1.864
2.497 0.502 1.696
2.300 0.477 1.589
5.116 2.706 2.820
4.843 2.578 2.906
4.799 2.103 2.802
3.272 0.716 2.053
3.244 0.735 2.154
3.010 0.425 2.163
2.569 0.354 2.127
2.620 0.237 1.710
5.325 2.183 2.918
5.087 2.092 2.785
3.742 0.646 2.402
3.446 0.579 2.471
3.348 0.423 2.314
3.100 0.408 2.180
2.756 0.251 2.064
3.479 0.406 2.498
3.515 0.504 2.695
3.478 0.422 2.290
3.299 0.136 2.273
3.633 0.250 2.768
3.269 -0.093 2.741
3.949 3.088 1.545
3.753 2.798 1.473
3.391 2.753 1.631
3.047 2.678 1.592
2.989 2.536 1.247
4.460 3.848 1.827
4.482 3.601 1.825
4.181 3.576 1.818
4.111 3.114 1.578
3.881 3.034 1.611
3.760 3.026 1.988
3.834 2.800 1.657
3.578 2.489 1.754
3.169 2.284 1.553
4.770 3.550 2.034
4.284 3.264 2.017
4.209 3.080 1.942
4.063 2.980 1.777
3.827 2.836 1.911
3.903 2.791 1.914
3.738 2.541 1.905
3.770 2.217 1.987
4.594 3.458 2.421
4.611 2.997 2.114
4.197 3.089 2.261
4.169 2.700 2.216
3.781 2.631 1.963
4.102 2.615 2.149
3.743 2.290 2.006
4.936 3.119 2.446
4.781 2.802 2.158
4.427 2.875 2.379
4.205 2.679 2.120
3.865 2.625 2.235
4.050 2.285 2.129
5.041 3.017 2.615
4.874 2.885 2.621
4.416 2.643 2.530
4.255 2.408 2.404
4.338 2.510 2.259
2.646 0.793 1.760
2.426 0.492 1.766
4.919 2.935 2.952
5.003 2.763 2.664
4.440 2.279 2.569
4.235 2.321 2.330
3.139 1.160 1.897
3.009 0.839 2.157
2.752 0.509 1.712
2.515 0.297 1.801
2.584 0.516 1.639
5.100 2.674 3.071
4.704 2.563 2.688
4.612 2.342 2.891
5.080 3.508 3.681
5.197 3.038 3.710
4.627 2.998 3.386
6.274 2.315 4.693
6.010 2.523 4.590
5.751 2.130 4.453
5.417 2.175 4.736
5.178 1.846 4.311
6.139 2.217 5.094
6.046 2.041 4.947
5.808 1.789 4.820
5.558 1.709 4.590
5.500 1.655 4.735
6.210 1.956 5.048
6.052 1.708 5.087
5.715 1.501 4.793
5.703 1.549 4.714
6.050 1.776 5.203
6.044 1.537 4.938
5.838 1.301 5.159
5.650 1.364 5.105
6.126 1.351 5.278
6.154 1.079 5.230
5.767 1.118 5.085
6.239 1.187 5.611
5.897 0.947 5.141
6.041 0.974 5.338
6.273 0.878 5.584
6.054 0.887 5.276
6.294 5.671 3.448
6.057 5.413 3.378
5.867 5.266 3.212
5.740 5.415 3.041
5.578 5.215 3.183
5.201 4.977 2.978
4.993 4.666 3.142
4.784 4.538 3.021
4.795 4.278 2.937
4.514 4.204 2.772
4.204 4.240 2.580
5.486 5.071 3.410
5.646 4.948 3.354
5.100 4.754 3.404
5.136 4.451 3.133
4.833 4.611 3.011
4.700 4.064 3.021
4.422 3.946 3.007
4.261 4.040 2.857
5.657 4.904 3.354
5.343 4.695 3.535
5.113 4.363 3.182
5.024 4.173 3.276
4.810 4.215 3.329
4.457 3.722 2.965
4.272 3.566 3.150
5.634 4.400 3.659
5.185 4.032 3.481
5.131 4.041 3.513
5.054 3.966 3.444
4.607 3.647 3.007
4.422 3.667 2.972
5.225 3.853 3.423
5.385 3.945 3.602
5.033 3.526 3.549
4.924 3.650 3.503
4.738 3.341 3.261
5.475 3.760 3.530
4.967 3.355 3.498
4.839 3.342 3.560
4.619 3.122 3.439
5.164 3.106 3.596
5.195 3.316 3.844
4.668 2.926 3.777
5.329 3.695 3.879
5.207 3.419 3.856
4.815 3.098 3.801
5.412 2.231 4.974
5.431 1.950 4.663
6.056 2.384 4.910
5.583 2.225 4.972
5.691 2.068 4.932
5.355 1.629 4.853
6.064 2.096 5.233
5.848 2.160 5.102
5.878 1.791 5.107
5.638 1.741 5.102
5.319 1.606 5.068
6.390 2.015 5.413
6.075 1.632 5.511
5.858 1.854 5.346
5.878 1.389 5.228
5.326 1.424 4.992
6.077 1.818 5.496
5.945 1.416 5.367
5.844 1.272 5.466
5.805 1.258 5.209
6.364 1.607 5.622
6.190 1.449 5.503
5.692 1.241 5.481
5.576 1.068 5.656
5.820 1.095 5.588
5.727 0.948 5.442
6.091 5.889 3.716
6.143 5.935 3.602
5.976 5.497 3.634
5.581 5.654 3.594
5.437 5.306 3.441
5.226 5.079 3.474
4.961 4.864 3.376
4.675 4.886 3.098
4.664 4.530 3.037
4.321 4.484 3.098
4.251 4.557 2.808
6.049 5.608 3.727
5.638 5.338 3.865
5.310 5.194 3.575
5.266 5.003 3.434
5.296 4.918 3.603
4.875 4.795 3.291
4.709 4.344 3.357
4.692 4.432 3.053
4.274 4.231 3.292
4.165 4.047 2.890
5.941 5.172 3.931
5.477 4.837 3.904
5.307 4.747 3.762
5.293 4.685 3.567
4.849 4.470 3.327
4.932 4.346 3.229
4.488 4.156 3.343
4.324 3.942 3.405
4.437 3.782 3.181
5.629 4.492 3.708
5.430 4.454 3.686
5.121 4.088 3.581
5.001 4.203 3.623
4.834 3.971 3.434
4.702 3.963 3.305
4.424 3.512 3.371
5.613 4.478 3.959
5.431 4.408 3.824
5.389 4.033 3.723
4.856 4.061 3.587
4.950 3.860 3.765
4.806 3.712 3.347
4.478 3.587 3.521
5.507 4.182 4.164
5.501 3.855 3.987
5.271 3.617 3.897
4.817 3.551 3.771
4.745 3.469 3.536
4.711 3.229 3.412
5.349 3.667 4.066
4.987 3.507 3.799
4.738 3.309 3.759
5.416 3.772 4.232
4.896 3.818 4.288
4.692 3.363 4.095
4.613 3.255 4.229
5.162 2.055 5.005
5.644 2.083 5.014
5.551 2.155 4.999
5.052 1.680 4.893
5.686 2.100 5.314
5.618 1.778 5.260
5.127 1.553 5.070
5.968 2.103 5.457
5.667 1.947 5.600
5.723 1.686 5.503
5.456 1.263 5.298
5.658 1.620 5.464
5.648 1.430 5.457
5.364 1.262 5.502
5.735 1.329 5.881
5.813 1.117 5.884
5.610 1.242 5.491
5.773 1.083 6.042
5.652 0.702 5.822
6.217 6.189 4.235
5.898 5.932 3.768
5.740 5.820 3.695
5.817 5.731 3.650
5.326 5.567 3.796
5.281 5.475 3.702
4.971 5.214 3.529
4.792 5.186 3.522
4.536 5.004 3.209
4.430 4.895 3.190
4.231 4.435 3.095
6.072 5.568 4.177
5.919 5.438 4.112
5.611 5.396 3.712
5.294 5.079 3.798
5.316 4.912 3.840
5.062 4.890 3.667
4.928 4.564 3.695
4.773 4.398 3.602
4.254 4.236 3.472
4.071 4.245 3.135
4.124 4.184 3.366
5.664 5.245 3.877
5.418 5.224 3.784
5.154 4.734 3.784
4.897 4.719 3.696
5.070 4.461 3.857
4.737 4.519 3.639
4.439 4.254 3.528
4.266 4.175 3.512
3.985 3.793 3.302
5.551 4.858 4.258
5.490 4.592 3.969
5.329 4.453 3.799
4.926 4.206 3.802
4.702 4.216 3.670
4.691 4.126 3.777
4.259 3.679 3.425
4.127 3.744 3.578
5.565 4.567 4.307
5.232 4.179 4.125
4.983 3.973 3.945
5.002 3.958 3.935
4.676 3.825 3.691
4.309 3.532 3.582
4.440 3.416 3.533
5.699 4.242 4.369
5.555 4.303 4.215
5.201 4.082 4.084
5.003 4.000 4.192
4.583 3.534 3.973
4.441 3.634 3.990
4.426 3.191 3.843
5.201 3.635 4.297
5.185 3.489 4.254
5.070 3.482 4.107
4.590 3.306 3.942
5.229 4.145 4.559
5.078 3.989 4.646
5.068 3.847 4.255
4.754 3.440 4.503
4.440 3.238 4.296
5.270 3.623 4.534
5.002 3.684 4.650
5.034 2.090 5.168
5.468 1.781 5.411
5.304 1.557 5.218
5.622 1.860 5.866
5.343 1.868 5.416
5.050 1.496 5.505
5.675 1.849 5.772
5.412 1.414 5.891
5.234 1.346 5.844
5.487 1.095 5.966
5.500 0.935 5.770
5.474 1.239 6.232
5.461 0.916 6.065
5.697 6.307 4.140
5.719 6.001 3.871
5.313 5.755 4.083
5.300 5.544 3.858
5.132 5.577 3.762
4.840 5.530 3.786
4.783 5.243 3.483
4.361 5.035 3.626
4.479 4.781 3.615
5.961 5.606 4.164
5.592 5.627 4.190
5.532 5.367 3.895
5.088 5.407 3.833
4.878 5.205 3.872
4.744 5.013 3.926
4.481 4.720 3.877
4.603 4.776 3.661
4.442 4.536 3.734
5.667 5.352 4.278
5.308 5.212 4.326
5.251 5.265 3.938
4.946 4.784 4.009
5.107 4.852 4.139
4.562 4.580 3.872
4.621 4.451 3.599
4.416 4.151 3.751
4.285 4.097 3.460
5.581 4.974 4.295
5.568 5.063 4.225
5.253 4.761 4.331
4.840 4.651 3.989
4.830 4.436 4.082
4.756 4.395 4.101
4.540 4.051 3.711
4.207 3.957 3.712
4.090 3.678 3.584
5.677 4.844 4.467
5.148 4.556 4.304
5.054 4.384 4.144
4.727 4.253 4.175
4.743 3.974 4.224
4.628 4.012 4.201
4.333 3.942 3.891
3.992 3.587 4.016
5.197 4.321 4.432
5.251 4.411 4.251
5.143 4.114 4.382
4.918 3.817 4.152
4.454 3.652 4.167
4.614 3.441 3.960
5.280 4.046 4.760
5.204 3.962 4.487
5.024 3.845 4.419
4.572 3.440 4.186
4.705 3.260 4.415
5.136 4.385 4.903
5.066 4.215 4.975
4.757 3.759 4.664
4.759 3.767 4.446
4.490 3.545 4.402
4.387 3.613 4.603
5.508 3.885 4.978
5.030 3.947 5.091
4.867 3.887 5.021
4.750 3.742 4.816
4.794 3.375 4.692
4.944 3.553 5.034
5.002 1.908 5.605
4.981 1.951 5.781
5.096 1.839 5.685
4.991 1.633 5.752
5.216 1.518 5.973
5.189 1.507 5.838
5.450 1.265 5.917
5.044 1.090 6.021
5.668 1.169 6.286
5.204 1.120 6.289
5.412 5.907 4.380
5.505 5.939 4.339
5.035 5.712 4.159
5.001 5.498 3.858
4.603 5.481 3.950
4.592 5.210 3.799
4.385 5.011 3.620
5.470 5.700 4.306
5.422 5.401 4.271
5.187 5.377 4.342
4.907 5.109 4.125
4.464 5.116 4.131
4.488 4.749 3.763
4.368 4.567 4.007
4.115 4.520 3.940
5.399 5.220 4.407
5.128 5.251 4.195
4.861 4.886 4.290
4.908 4.919 4.137
4.588 4.747 4.226
4.370 4.656 4.042
4.390 4.250 3.742
5.344 5.139 4.579
5.039 5.027 4.607
4.959 4.687 4.493
4.846 4.814 4.181
4.867 4.718 4.115
4.322 4.326 4.186
4.228 4.056 4.228
4.163 4.076 3.797
5.234 4.902 4.509
5.128 4.770 4.726
5.098 4.402 4.357
4.739 4.267 4.514
4.537 4.200 4.411
4.198 3.828 4.143
4.028 3.904 4.283
5.492 4.685 4.841
5.426 4.658 4.773
4.907 4.274 4.678
4.791 4.188 4.504
4.477 4.043 4.381
4.544 3.779 4.406
4.122 3.727 4.487
5.527 4.360 4.781
5.095 4.057 4.764
4.900 4.118 4.849
4.629 3.699 4.544
4.592 3.539 4.708
4.328 3.481 4.559
5.287 4.612 5.171
5.148 4.432 5.072
5.169 4.065 4.907
4.703 4.076 4.804
4.779 3.784 4.772
4.485 3.680 4.887
4.296 3.705 4.655
5.220 4.221 5.125
5.053 4.074 4.976
4.873 3.751 5.225
4.719 3.533 4.753
4.348 3.586 5.004
5.197 3.905 5.424
5.013 3.810 5.073
4.946 3.613 5.107
4.896 3.590 5.079
4.608 3.519 4.977
5.389 3.514 5.259
4.926 3.510 5.268
4.919 1.769 5.898
5.052 1.708 6.089
5.021 1.580 6.334
5.113 1.555 5.982
5.052 1.143 6.169
5.195 5.993 4.481
5.010 5.670 4.202
4.638 5.657 4.390
4.788 5.286 4.038
4.473 5.473 3.854
5.437 5.896 4.733
5.066 5.543 4.295
4.714 5.445 4.284
4.528 5.120 4.091
4.708 5.161 4.275
4.344 4.928 4.323
4.143 4.619 3.951
5.373 5.302 4.655
4.925 5.275 4.620
4.700 5.282 4.608
4.452 4.750 4.347
4.388 4.771 4.433
4.219 4.506 4.067
4.152 4.530 4.172
4.986 5.234 4.703
4.874 4.793 4.620
4.525 4.933 4.602
4.329 4.430 4.394
4.388 4.603 4.241
4.093 4.229 4.461
5.031 5.018 4.649
4.844 4.731 4.691
4.694 4.441 4.457
4.601 4.325 4.441
4.297 4.202 4.482
4.402 4.119 4.322
4.229 3.726 4.154
5.119 4.796 4.815
4.966 4.470 5.080
4.998 4.433 4.719
4.661 4.167 4.812
4.685 4.011 4.668
4.306 3.823 4.542
4.038 3.536 4.662
5.329 4.519 5.188
5.011 4.505 5.111
4.977 4.322 4.866
4.969 4.201 4.746
4.500 4.009 4.894
4.246 3.580 4.807
4.178 3.337 4.840
5.370 4.721 5.341
5.141 4.497 5.282
4.719 4.210 5.033
4.486 3.963 5.151
4.337 3.842 4.992
4.328 3.935 4.967
4.257 3.691 4.789
5.312 4.445 5.362
4.985 4.229 5.470
4.986 3.952 5.183
4.941 3.854 5.307
4.368 3.838 5.165
4.470 3.581 5.206
4.054 3.440 4.883
5.308 4.152 5.533
5.019 4.115 5.651
5.129 3.755 5.617
4.848 3.665 5.200
4.838 3.708 5.299
4.617 3.386 5.023
5.415 4.115 5.819
5.097 4.030 5.547
5.007 3.557 5.797
4.991 3.552 5.706
4.726 3.431 5.428
5.403 3.983 5.758
5.264 3.725 6.040
5.350 3.599 5.583
4.981 3.345 5.623
5.760 3.729 5.988
5.684 3.478 6.200
5.330 3.217 5.768
5.963 3.264 6.108
5.680 3.189 6.224
4.668 1.720 6.158
4.953 5.904 4.651
4.689 5.784 4.313
4.481 5.522 4.436
4.810 5.716 4.752
4.724 5.257 4.610
4.440 5.097 4.561
4.998 5.272 4.542
4.730 5.324 4.440
4.315 5.037 4.711
4.083 4.826 4.405
5.054 5.317 4.886
4.659 5.169 4.708
4.601 4.718 4.705
4.150 4.699 4.473
4.120 4.550 4.355
5.153 5.161 4.917
4.820 4.821 5.099
4.750 4.545 4.847
4.482 4.528 4.883
4.124 4.130 4.839
3.961 4.330 4.686
6.378 5.586 5.608
4.996 4.753 5.265
4.981 4.693 4.965
4.861 4.587 5.185
4.646 4.421 5.065
4.340 4.047 4.843
3.998 3.901 4.650
4.037 3.747 4.649
5.319 4.419 5.279
4.897 4.351 5.218
4.683 4.265 5.142
4.483 4.108 5.228
4.246 4.047 5.046
4.433 3.946 4.754
3.929 3.602 4.646
6.135 5.581 6.128
5.050 4.857 5.469
4.740 4.376 5.319
4.844 4.177 5.537
4.306 4.031 5.194
4.156 4.228 5.293
3.918 3.761 5.172
4.125 3.708 4.933
5.019 4.297 5.676
4.794 4.349 5.630
4.918 4.198 5.476
4.583 4.079 5.279
4.493 3.961 5.187
4.201 3.532 5.071
3.943 3.654 5.256
5.050 4.324 5.903
4.927 4.317 5.807
4.754 4.155 5.711
4.687 3.708 5.515
4.665 3.683 5.455
4.476 3.553 5.622
4.237 3.256 5.441
5.401 4.241 6.142
5.234 3.859 5.978
5.089 3.977 6.023
4.831 3.736 5.560
4.746 3.263 5.671
4.599 3.422 5.472
5.490 4.030 6.352
5.545 4.109 6.308
5.346 3.549 5.956
5.241 3.397 6.125
4.677 3.592 5.740
4.809 3.162 5.712
4.433 2.912 5.706
5.394 3.613 6.286
5.343 3.313 5.939
5.127 3.349 6.217
4.915 2.948 6.007
5.166 3.413 6.335
4.593 4.938 5.074
4.013 4.732 4.965
6.175 6.374 5.721
5.840 5.928 5.809
4.613 4.993 5.133
4.290 4.604 5.159
4.277 4.478 4.848
4.214 4.337 5.037
3.860 4.161 4.798
6.139 5.862 6.068
6.082 5.889 5.855
4.922 4.830 5.090
4.751 4.618 5.321
4.401 4.376 5.070
3.999 4.295 5.196
3.967 4.035 4.859
5.991 5.592 6.100
5.137 4.554 5.487
4.851 4.368 5.461
4.523 4.335 5.229
4.443 4.013 5.087
4.127 4.065 5.337
4.158 3.944 5.173
4.004 3.782 4.965
6.203 5.721 6.199
4.720 4.481 5.748
4.399 4.461 5.592
4.288 4.175 5.635
4.295 4.303 5.581
4.064 3.936 5.266
3.767 3.741 5.221
5.114 4.438 5.952
4.714 4.426 5.788
4.659 4.372 5.820
4.495 3.948 5.622
4.221 3.775 5.531
4.038 3.917 5.428
3.891 3.767 5.421
5.232 4.309 5.958
5.053 4.244 5.860
4.513 4.193 5.957
4.545 4.074 5.604
4.382 3.892 5.789
4.063 3.376 5.614
3.985 3.325 5.716
5.208 4.314 6.401
5.106 4.187 6.028
5.086 3.829 6.229
4.756 3.767 6.016
4.721 3.690 5.925
4.292 3.343 5.782
4.404 3.296 5.775
3.941 3.054 5.676
5.250 3.791 6.179
5.067 3.675 6.345
4.773 3.486 6.233
4.578 3.510 5.815
4.424 3.360 5.855
4.758 3.269 6.117
4.501 2.997 6.095
4.595 3.126 6.243
5.866 6.195 6.035
5.778 5.904 5.839
4.032 4.578 5.000
6.316 5.875 6.197
5.816 5.724 6.166
4.538 4.871 5.665
4.512 4.580 5.310
4.326 4.592 5.314
4.152 4.437 5.090
3.742 4.137 5.162
6.061 5.531 6.279
4.555 4.608 5.830
4.354 4.617 5.542
4.434 4.319 5.545
4.162 4.018 5.421
3.886 3.763 5.439
3.926 3.948 5.212
4.450 4.526 5.904
4.370 4.421 5.725
4.032 4.324 5.513
3.991 4.100 5.607
3.710 4.019 5.224
4.461 4.422 5.940
4.383 4.459 5.760
4.356 4.271 6.005
4.143 3.837 5.743
3.827 3.861 5.646
3.585 3.734 5.596
4.937 4.438 6.362
4.635 4.265 5.984
4.490 4.083 5.864
4.177 4.034 5.927
4.344 3.740 5.706
3.958 3.461 5.821
3.873 3.449 5.853
3.549 3.230 5.686
4.762 3.848 6.224
4.309 3.754 6.050
4.425 3.630 5.999
4.059 3.363 5.862
3.780 3.165 5.987
3.567 3.002 5.644
4.586 3.503 6.474
4.388 3.476 6.295
3.982 3.088 5.920
3.821 2.956 5.901
4.429 2.995 6.366
5.545 6.230 5.998
5.552 6.031 5.981
5.349 6.013 6.157
5.674 5.802 6.451
3.885 4.442 5.400
3.885 4.391 5.361
4.558 4.660 5.735
4.378 4.159 5.536
3.946 4.295 5.600
3.979 4.055 5.323
3.504 4.047 5.341
4.112 4.296 5.723
3.759 4.067 5.795
3.597 4.251 5.884
3.611 3.788 5.627
4.650 4.601 6.151
4.261 4.350 6.124
3.937 4.067 5.818
3.916 4.263 5.997
3.821 4.059 5.974
3.694 3.597 5.694
3.209 3.754 5.846
4.449 4.413 6.395
4.309 4.199 6.328
4.024 3.990 6.089
3.930 3.878 5.959
3.738 3.436 6.064
3.627 3.532 5.644
4.125 3.604 6.360
3.953 3.676 6.135
3.839 3.270 6.248
3.712 3.347 5.826
4.035 3.294 6.307
3.589 3.079 6.017
2.875 4.972 4.557
4.971 5.932 5.988
5.224 5.932 6.196
4.006 4.432 5.851
3.724 4.280 5.820
3.522 4.047 5.492
3.252 3.903 5.816
3.858 4.497 6.028
3.475 4.195 5.764
3.211 3.913 5.815
3.786 4.150 6.101
3.632 4.360 6.275
3.779 4.006 6.040
3.264 3.924 6.002
3.016 3.572 5.920
4.035 3.916 6.394
3.854 3.715 6.300
3.348 3.835 5.962
3.215 3.368 5.864
3.707 3.644 6.254
3.200 3.386 6.279
2.735 5.097 4.728
2.470 5.175 4.933
4.624 6.058 5.894
5.052 6.401 6.180
4.636 6.238 6.201
3.669 4.500 5.773
3.512 4.292 5.751
3.341 4.131 5.791
3.200 4.103 6.240
3.184 4.020 5.923
2.945 3.888 5.862
3.547 4.246 6.208
3.254 3.768 6.013
3.111 3.595 6.274
3.134 3.392 6.384
3.844 6.180 5.532
3.601 6.231 5.358
3.527 5.847 5.439
3.156 5.888 5.224
3.160 5.687 5.152
2.661 5.434 5.299
2.654 5.160 5.153
2.392 4.930 5.077
4.104 6.097 5.947
3.872 6.034 5.616
4.410 5.951 5.934
3.994 6.048 5.818
4.237 5.817 6.322
3.223 4.423 5.907
3.179 4.071 6.141
2.997 3.904 6.040
2.917 4.006 6.208
2.657 4.009 6.274
3.096 3.989 6.335
3.548 6.229 5.564
3.151 6.171 5.718
2.797 5.664 5.714
2.813 5.798 5.649
2.532 5.691 5.478
2.580 5.290 5.190
4.042 6.359 6.111
3.674 6.201 5.928
3.391 5.901 5.994
3.357 5.677 5.810
4.274 6.366 6.293
3.920 5.995 6.118
3.664 5.978 5.937
3.676 5.707 6.176
2.974 4.014 6.041
2.936 3.839 6.247
3.381 6.054 5.959
2.929 6.240 5.882
2.654 5.935 5.680
2.774 5.734 5.587
2.393 5.748 5.530
3.576 6.035 5.967
3.421 6.130 5.902
3.092 5.830 6.059
2.813 5.654 5.832
3.385 5.662 6.340
2.854 6.197 6.004
2.710 6.061 5.735
2.302 5.673 6.045
2.952 6.093 6.288
3.002 6.051 6.142
2.926 5.824 6.262
2.919 6.221 6.335
2.329 6.189 6.086
5.222 3.052 3.367
5.055 2.760 3.314
6.403 1.990 4.399
5.914 1.800 4.447
6.195 1.664 4.531
6.176 1.773 4.181
5.803 1.358 4.100
6.438 1.515 4.424
5.918 1.657 4.692
5.682 1.260 4.602
6.322 1.449 4.475
5.994 1.254 4.562
6.149 1.012 4.644
6.045 0.811 4.615
6.132 0.882 5.026
4.710 3.907 2.472
5.192 4.271 2.409
4.724 3.935 2.425
4.487 3.760 2.259
4.929 3.955 2.648
4.813 3.636 2.545
4.873 3.619 2.686
5.259 3.910 3.047
5.134 3.533 2.881
5.185 3.516 2.707
4.783 3.357 2.680
5.162 3.433 3.232
4.934 3.269 2.824
5.025 3.155 2.878
5.600 3.532 3.227
5.049 3.132 3.103
4.818 3.109 2.982
5.226 3.070 3.141
5.056 2.706 3.015
5.173 2.880 3.293
5.141 2.721 3.413
5.965 2.419 4.599
5.846 2.043 4.423
5.832 1.884 4.296
6.204 1.941 4.713
5.949 1.693 4.452
6.013 1.570 4.439
5.448 1.525 4.633
6.286 1.724 4.811
5.782 1.465 4.558
5.575 1.361 4.716
6.052 1.580 4.899
5.915 1.218 4.929
5.958 1.363 4.712
6.259 0.960 4.822
5.770 1.026 5.047
6.003 1.050 5.030
5.923 0.699 5.145
4.618 4.110 2.655
4.426 4.149 2.427
5.244 4.532 2.830
4.938 4.247 2.700
4.832 3.851 2.760
4.317 3.911 2.756
5.528 4.437 3.191
5.073 4.038 3.154
4.756 3.962 2.954
4.755 3.723 2.924
4.400 3.627 2.839
5.331 4.206 3.248
5.177 3.779 3.329
5.042 3.655 2.917
4.737 3.692 3.162
4.566 3.295 2.786
5.197 3.706 3.250
5.132 3.519 3.347
4.987 3.637 2.982
4.921 3.334 3.139
5.286 3.514 3.277
5.174 3.243 3.449
4.970 3.404 3.352
4.856 2.934 3.362
5.309 3.193 3.448
5.097 2.917 3.248
5.260 3.444 3.584
4.915 3.199 3.525
4.796 3.002 3.438
6.080 2.615 4.967
6.033 2.221 4.916
5.573 2.141 4.602
5.373 1.805 4.552
5.377 1.724 4.475
6.246 2.276 4.939
5.966 2.073 4.693
5.978 1.894 4.875
5.617 1.677 4.905
5.544 1.501 4.498
6.193 1.943 4.881
6.052 1.724 4.933
5.639 1.661 4.828
5.514 1.428 4.693
6.125 1.736 5.345
5.965 1.792 4.974
5.924 1.415 5.121
5.520 1.407 4.937
6.266 1.533 5.302
6.065 1.384 5.307
5.693 1.198 5.026
6.031 1.400 5.391
5.892 1.122 5.363
5.708 0.974 5.372
6.235 1.035 5.410
6.081 0.688 5.608
5.944 5.608 3.614
5.911 5.590 3.225
5.896 5.442 3.201
5.499 5.320 3.396
5.266 5.155 3.256
5.292 4.728 2.994
5.128 4.786 2.833
4.841 4.649 2.978
4.548 4.509 2.818
4.241 4.104 2.845
4.406 4.321 2.744
5.627 5.078 3.520
5.530 5.074 3.201
5.224 4.784 3.244
5.071 4.674 3.058
4.710 4.433 3.058
4.795 4.369 2.850
4.386 4.225 2.975
4.466 3.837 2.771
5.658 4.830 3.279
5.300 4.395 3.488
4.989 4.432 3.501
5.028 4.374 3.216
4.687 4.264 3.044
4.808 3.876 3.225
4.379 3.726 2.929
5.577 4.392 3.481
5.322 4.261 3.523
5.297 4.084 3.300
4.856 4.045 3.213
4.784 3.686 3.135
4.689 3.469 2.912
5.224 3.816 3.453
5.293 3.831 3.490
4.840 3.630 3.292
4.774 3.599 3.250
4.597 3.330 3.446
5.165 3.512 3.561
5.137 3.431 3.790
5.104 3.511 3.532
4.696 3.006 3.240
5.133 3.152 3.636
5.043 3.149 3.575
4.854 2.916 3.661
3.083 1.375 2.706
2.780 1.351 2.755
2.368 1.212 2.478
3.156 1.157 2.867
3.196 1.019 3.071
2.713 0.832 2.817
2.571 0.793 2.789
2.428 0.817 2.838
3.307 1.135 3.225
3.263 1.029 3.053
3.090 0.860 3.138
3.123 0.738 3.139
2.561 0.850 2.711
2.361 0.622 2.777
2.461 0.259 2.697
3.661 1.272 3.576
3.685 1.065 3.389
3.310 0.983 3.270
3.178 0.800 3.216
2.930 0.674 3.322
2.819 0.641 3.112
2.566 0.359 2.867
2.262 0.222 2.876
4.056 1.102 3.695
3.763 0.974 3.414
3.819 1.051 3.442
3.327 0.670 3.444
3.215 0.492 3.441
3.167 0.566 3.216
3.000 0.413 3.072
2.529 -0.050 3.152
4.415 1.216 3.817
4.221 0.965 3.712
4.000 0.911 3.605
3.591 0.858 3.691
3.697 0.600 3.732
3.367 0.492 3.649
3.147 0.134 3.588
3.062 0.104 3.254
4.461 1.323 4.058
4.495 1.115 4.131
4.105 0.827 4.103
4.069 0.533 3.901
4.019 0.379 3.763
3.563 0.563 3.554
3.548 0.088 3.729
3.494 -0.115 3.606
5.006 1.587 4.503
5.092 1.471 4.437
4.852 1.461 4.249
4.778 1.301 4.063
4.234 1.175 4.210
4.520 0.660 4.128
5.132 1.578 4.679
5.158 1.454 4.342
4.978 1.023 4.573
4.628 1.116 4.390
4.604 0.783 4.355
5.343 1.361 4.585
5.245 1.067 4.534
5.074 0.807 4.566
4.935 0.940 4.265
5.334 1.100 4.703
5.438 0.934 4.754
5.211 0.806 4.845
5.767 1.035 4.996
5.223 0.846 4.769
5.730 0.530 5.137
3.109 3.265 2.244
3.039 3.089 2.220
3.024 3.001 2.135
2.689 2.992 1.816
2.561 2.524 1.918
2.465 2.369 1.785
2.156 2.194 1.556
2.149 2.222 1.509
1.654 2.142 1.499
1.692 1.884 1.627
1.593 1.571 1.378
1.017 1.505 1.464
0.943 1.358 1.364
0.728 1.216 0.995
0.593 1.129 0.997
0.521 0.793 0.908
0.224 0.584 0.736
-0.064 0.564 0.739
4.113 3.854 2.523
3.938 3.734 2.568
3.557 3.837 2.239
3.555 3.507 2.391
3.388 3.324 2.082
3.434 3.072 2.322
1.219 1.261 1.370
1.057 1.094 1.204
0.864 0.881 1.221
0.632 0.686 1.289
0.448 0.451 1.244
0.262 0.250 1.145
4.048 3.952 2.548
3.984 3.427 2.689
3.739 3.608 2.499
3.734 3.107 2.607
3.301 3.189 2.524
0.858 0.885 1.469
0.654 0.713 1.207
0.555 0.667 1.201
0.406 0.282 1.420
0.249 0.231 0.938
0.193 -0.006 0.890
4.356 3.669 2.703
4.007 3.515 2.957
3.939 3.222 2.548
3.836 3.218 2.567
1.042 0.418 1.499
0.581 0.384 1.574
0.434 0.146 1.558
0.564 0.176 1.263
4.157 3.522 2.989
3.962 3.227 2.821
3.764 3.064 3.031
1.029 0.135 1.429
4.548 3.350 3.000
4.417 2.870 3.258
4.718 2.942 3.420
3.069 1.276 2.806
2.622 1.154 2.662
2.533 1.104 2.731
2.890 1.541 2.980
2.940 1.640 2.758
2.716 1.324 2.823
3.403 1.820 3.184
3.273 1.476 3.105
2.919 1.425 2.990
2.797 1.404 2.918
2.567 0.983 3.163
2.478 0.943 2.996
2.386 0.625 2.921
3.763 1.522 3.490
3.726 1.565 3.446
3.454 1.347 3.547
3.027 1.093 3.484
3.026 0.877 3.143
2.591 0.708 3.351
2.507 0.585 3.283
2.477 0.395 3.066
3.702 1.488 3.911
3.445 1.174 3.767
3.285 1.015 3.581
3.369 1.016 3.306
3.249 0.681 3.411
3.024 0.917 3.373
2.841 0.454 3.248
2.488 0.205 3.008
2.408 0.101 2.977
4.045 1.586 4.026
3.740 1.145 3.720
3.534 1.156 3.948
3.478 1.164 3.856
3.437 0.859 3.640
3.342 0.500 3.385
2.937 0.598 3.380
2.682 0.499 3.343
2.701 0.156 3.234
2.364 -0.059 3.397
4.392 1.474 3.989
4.171 1.341 3.810
4.325 1.469 4.012
4.024 1.043 3.953
3.682 1.077 3.930
3.730 0.754 3.968
3.417 0.661 3.922
3.224 0.390 3.700
3.022 0.537 3.798
2.893 0.237 3.611
2.739 -0.166 3.259
4.613 1.610 4.285
4.439 1.627 4.024
4.307 1.288 3.950
4.236 1.164 4.292
3.890 1.080 4.022
3.746 0.801 4.225
3.658 0.434 4.082
3.679 0.314 3.834
3.341 0.440 3.872
3.261 0.183 3.635
5.071 1.928 4.550
4.708 1.658 4.362
4.637 1.631 4.516
4.470 1.450 4.307
4.474 1.214 4.104
4.372 0.918 4.632
4.064 0.644 4.234
3.980 0.405 4.242
5.086 1.577 4.652
5.047 1.443 4.503
4.865 1.397 4.624
4.379 0.895 4.623
4.175 1.052 4.518
4.282 0.929 4.538
4.360 0.742 4.690
5.042 1.492 4.903
5.113 1.211 4.805
4.931 1.141 4.827
4.830 0.979 4.481
4.539 0.700 4.516
5.297 1.301 5.086
4.974 0.838 5.134
4.847 0.747 4.957
4.908 0.719 4.634
5.436 0.917 5.129
5.342 0.779 4.958
4.862 0.879 4.983
4.914 0.667 5.045
5.421 0.710 5.283
5.439 0.450 5.398
4.946 0.383 5.194
5.692 0.570 5.558
2.204 2.338 1.968
1.696 2.186 1.850
1.726 2.209 1.602
1.433 1.819 1.798
1.308 1.640 1.614
1.178 1.431 1.382
1.026 1.619 1.550
0.521 1.275 1.488
0.372 1.176 1.225
0.113 1.008 1.052
-0.082 0.664 1.062
1.365 1.492 1.815
1.047 1.547 1.592
1.026 1.320 1.640
0.602 1.132 1.642
0.482 0.799 1.430
0.479 0.878 1.272
0.277 0.705 1.381
0.086 0.471 1.356
4.066 3.992 2.833
1.272 1.350 1.700
0.935 0.898 1.621
0.785 0.995 1.850
0.756 0.623 1.405
0.369 0.503 1.308
0.441 0.515 1.427
-0.072 0.195 1.512
4.262 3.559 3.092
3.762 3.604 3.130
1.078 0.649 1.732
0.751 0.554 1.543
0.618 0.407 1.574
0.390 0.203 1.681
0.085 0.290 1.574
4.232 3.422 3.219
3.930 3.491 3.275
1.168 0.721 1.798
1.042 0.330 1.909
0.525 0.256 1.887
0.299 -0.069 1.722
4.078 3.194 3.534
0.997 0.335 2.222
0.640 -0.078 1.810
4.391 3.024 3.661
3.114 1.653 3.002
2.882 1.381 2.813
2.372 1.393 3.036
2.897 2.032 3.294
2.635 1.655 3.130
2.411 1.505 2.985
2.449 1.464 3.196
3.299 1.786 3.610
3.316 1.755 3.480
3.012 1.591 3.455
2.704 1.346 3.536
2.854 1.493 3.449
2.648 1.236 3.046
2.424 0.976 3.151
3.524 1.744 3.599
3.269 1.668 3.618
3.213 1.429 3.762
3.129 1.330 3.377
2.678 0.999 3.264
2.630 1.043 3.560
2.244 0.861 3.374
4.008 1.820 4.023
3.637 1.709 3.772
3.640 1.632 3.812
3.097 1.177 3.832
3.175 1.266 3.683
2.845 1.067 3.626
2.896 0.749 3.508
2.497 0.758 3.444
2.307 0.467 3.210
3.910 1.814 3.976
4.083 1.588 4.241
3.749 1.354 3.936
3.603 1.379 3.861
3.470 0.902 3.844
3.053 0.727 3.706
2.945 0.636 3.927
3.000 0.627 3.585
2.679 0.395 3.550
3.967 1.649 4.445
3.754 1.444 4.360
4.202 1.583 4.230
3.929 1.044 4.128
3.859 0.867 4.265
3.489 0.915 4.023
3.106 0.751 4.029
2.902 0.559 4.006
3.088 0.603 3.747
2.528 0.449 3.665
4.530 1.964 4.742
4.464 1.899 4.290
4.053 1.603 4.311
3.875 1.481 4.255
4.157 1.314 4.595
3.925 0.860 4.402
3.811 0.790 4.448
3.354 0.857 4.137
3.461 0.429 3.989
3.287 0.222 3.894
4.806 1.778 4.910
4.620 1.725 4.567
4.525 1.440 4.784
4.205 1.321 4.457
4.254 1.107 4.277
4.049 0.873 4.512
3.891 0.934 4.697
3.888 0.842 4.447
3.800 0.324 4.497
4.946 1.789 4.885
4.660 1.667 4.962
4.749 1.481 4.595
4.562 1.042 4.835
4.267 0.838 4.527
4.173 0.901 4.965
3.994 0.703 4.787
5.095 1.619 5.068
4.901 1.395 5.142
4.559 1.004 4.808
4.668 1.036 4.759
4.401 0.640 4.673
4.394 0.507 4.939
5.349 1.170 5.209
5.060 1.117 5.054
4.666 0.743 5.246
4.729 0.910 5.148
4.293 0.622 4.965
5.454 1.189 5.589
5.007 1.090 5.175
4.745 0.724 5.141
4.595 0.406 5.100
5.227 0.999 5.458
4.998 0.700 5.476
4.948 0.553 5.193
4.782 0.408 5.214
5.437 0.529 5.589
5.138 0.610 5.575
1.772 2.432 1.899
1.367 2.248 1.902
1.481 1.950 1.845
1.034 2.071 1.731
0.759 1.563 1.785
0.875 1.678 1.742
0.666 1.235 1.538
0.304 1.128 1.353
0.031 1.152 1.211
1.201 1.968 2.061
1.166 1.673 1.925
1.022 1.437 1.771
0.956 1.488 1.987
0.533 1.030 1.633
0.568 1.079 1.722
0.405 0.768 1.720
0.220 0.766 1.360
1.290 1.383 2.059
1.044 1.340 1.856
0.628 1.023 2.029
0.370 0.782 1.901
0.444 0.834 1.646
-0.029 0.403 1.512
1.149 1.056 1.984
0.820 0.855 2.206
0.566 0.466 1.957
0.368 0.294 1.676
0.351 0.394 1.907
0.182 0.053 1.600
4.106 3.752 3.569
0.774 0.469 2.345
0.776 0.518 1.916
0.463 0.173 2.048
0.282 -0.007 2.036
1.041 0.262 2.400
0.991 0.141 2.270
0.629 0.289 1.982
3.042 1.856 3.200
2.899 1.841 3.310
2.427 1.700 2.939
2.228 1.426 3.120
3.192 2.287 3.500
2.866 1.913 3.602
2.571 1.740 3.336
2.544 1.552 3.462
2.254 1.502 3.428
0.730 0.101 2.475
3.243 2.074 3.942
3.058 1.849 3.640
2.973 1.799 3.853
2.587 1.424 3.551
2.734 1.470 3.666
2.290 1.358 3.550
3.713 2.050 3.930
3.249 1.829 3.864
3.196 1.677 3.806
2.908 1.417 3.709
2.728 1.197 3.702
2.476 1.378 3.821
2.524 1.043 3.755
2.149 1.055 3.441
3.688 1.917 3.874
3.567 1.907 4.046
3.645 1.623 4.076
3.259 1.440 4.141
3.142 1.448 3.896
3.011 1.190 3.839
2.673 1.124 3.882
2.417 0.765 3.915
2.566 0.778 3.647
3.846 1.946 4.200
3.691 1.940 4.387
3.913 1.496 4.379
3.495 1.683 4.466
3.243 1.338 4.389
3.044 1.257 4.250
3.177 1.164 3.896
2.845 0.707 3.952
2.506 0.834 3.723
4.205 1.805 4.709
3.923 1.878 4.301
3.624 1.464 4.413
3.712 1.589 4.354
3.770 1.277 4.274
3.440 1.323 4.369
3.372 1.046 4.338
2.916 0.989 4.055
2.946 0.608 3.938
4.559 1.927 4.730
4.414 1.787 4.628
3.898 1.539 4.464
3.712 1.453 4.389
3.965 1.120 4.461
3.861 1.127 4.645
3.652 0.899 4.666
3.206 0.843 4.613
3.369 0.464 4.393
