3.398 4.544 0.308
4.406 3.049 0.667
4.271 3.203 0.668
4.137 3.491 0.574
4.041 3.746 0.544
3.888 3.919 0.606
3.731 4.148 0.560
3.571 4.355 0.513
3.404 4.604 0.495
4.541 3.039 0.918
4.358 3.247 0.872
4.235 3.538 0.928
4.029 3.769 0.902
3.930 3.964 0.788
3.728 4.212 0.796
3.586 4.485 0.857
4.524 3.124 1.141
4.378 3.290 1.165
4.279 3.608 1.192
4.176 3.776 1.160
4.590 3.120 1.446
4.448 3.392 1.369
4.690 3.241 1.678
4.155 4.606 2.631
3.956 4.855 2.629
3.852 5.086 2.615
3.658 5.224 2.564
4.327 4.384 2.943
4.240 4.604 2.898
4.043 4.838 2.888
3.938 5.097 2.907
3.719 5.361 2.894
3.564 5.582 2.904
3.440 5.741 2.820
4.382 4.414 3.228
4.284 4.639 3.135
4.105 4.878 3.225
3.993 5.140 3.102
3.829 5.423 3.104
3.632 5.624 3.108
3.517 5.827 3.094
3.444 6.090 3.369
4.488 4.461 3.512
4.265 4.750 3.400
4.109 4.998 3.379
3.980 5.209 3.406
3.842 5.464 3.413
3.669 5.681 3.330
3.611 5.896 3.375
3.456 6.078 3.337
3.430 6.124 3.591
4.470 4.581 3.713
4.352 4.812 3.718
4.229 5.032 3.743
4.095 5.216 3.644
3.903 5.521 3.651
3.787 5.667 3.610
3.662 5.975 3.602
3.447 6.170 3.610
3.548 6.258 3.868
4.296 5.120 3.911
4.069 5.264 3.897
3.950 5.551 3.907
3.865 5.718 3.881
3.626 5.947 3.836
3.511 6.169 3.856
3.570 6.303 4.135
4.032 5.585 4.195
3.881 5.841 4.164
3.740 6.018 4.121
3.526 6.225 4.118
3.808 6.051 4.446
4.257 3.444 0.032
4.534 3.265 0.336
4.305 3.573 0.305
4.151 3.744 0.284
3.997 3.986 0.239
3.931 4.228 0.177
3.766 4.445 0.231
3.647 4.737 0.156
3.412 4.928 0.164
4.719 3.163 0.602
4.494 3.381 0.569
4.382 3.617 0.583
4.290 3.835 0.498
4.083 4.007 0.511
3.936 4.266 0.458
3.835 4.567 0.497
3.627 4.721 0.456
3.519 4.970 0.402
3.370 5.240 0.450
4.735 3.182 0.789
4.542 3.407 0.794
4.429 3.702 0.815
4.259 3.899 0.814
4.159 4.149 0.801
4.013 4.326 0.797
3.894 4.606 0.696
3.729 4.829 0.720
3.581 5.035 0.725
4.792 3.205 1.075
4.645 3.449 1.123
4.491 3.761 1.055
4.392 3.905 1.047
4.869 3.262 1.336
4.479 4.443 2.660
4.394 4.756 2.615
4.239 4.941 2.540
4.027 5.229 2.520
4.750 4.277 2.926
4.621 4.591 2.852
4.440 4.818 2.845
4.274 5.053 2.865
4.093 5.263 2.772
3.961 5.417 2.787
4.947 4.101 3.215
4.725 4.356 3.194
4.618 4.639 3.120
4.472 4.798 3.074
4.304 5.000 3.142
4.212 5.243 3.061
4.037 5.523 3.063
3.838 5.712 2.991
4.922 4.137 3.478
4.834 4.374 3.429
4.673 4.687 3.428
4.524 4.890 3.363
4.416 5.061 3.374
4.210 5.385 3.295
4.090 5.519 3.356
3.900 5.789 3.255
3.756 6.022 3.258
5.003 4.272 3.685
4.902 4.486 3.653
4.731 4.683 3.699
4.630 4.877 3.666
4.456 5.199 3.572
4.237 5.402 3.606
4.165 5.604 3.539
3.952 5.877 3.575
3.894 6.038 3.595
4.830 4.756 3.889
4.579 5.015 3.867
4.523 5.179 3.935
4.368 5.417 3.818
4.224 5.715 3.826
4.076 5.860 3.841
3.935 6.167 3.838
3.985 6.165 4.104
4.565 3.738 0.163
4.412 3.936 0.141
4.312 4.150 0.193
4.076 4.365 0.130
3.935 4.564 0.163
3.801 4.864 0.128
3.666 5.040 0.071
3.529 5.269 0.094
3.421 5.555 0.077
3.255 5.820 0.293
4.570 3.766 0.424
4.413 4.006 0.430
4.315 4.244 0.475
4.222 4.397 0.396
4.076 4.606 0.390
3.864 4.878 0.414
3.699 5.064 0.386
3.524 5.354 0.386
3.412 5.554 0.361
3.255 5.833 0.312
3.346 5.904 0.590
3.172 6.109 0.524
4.609 3.834 0.720
4.484 4.040 0.687
4.314 4.207 0.719
4.197 4.427 0.659
4.085 4.733 0.684
3.894 4.970 0.640
3.724 5.195 0.603
3.640 5.377 0.651
3.488 5.651 0.647
3.318 5.803 0.611
3.370 5.893 0.798
3.220 6.196 0.786
3.837 5.198 0.898
3.730 5.429 0.834
3.537 5.687 0.800
3.413 5.950 0.859
3.426 6.009 1.148
3.318 6.234 1.102
3.474 5.932 1.053
3.331 6.261 1.370
4.927 4.426 2.498
4.758 4.577 2.524
4.567 4.848 2.554
4.477 5.105 2.532
5.106 4.238 2.840
4.912 4.489 2.776
4.799 4.690 2.743
4.615 4.932 2.762
4.462 5.088 2.740
4.380 5.331 2.789
5.254 3.999 3.156
5.173 4.272 3.113
4.955 4.545 3.065
4.817 4.719 3.012
4.708 4.976 3.043
4.499 5.149 3.008
4.379 5.405 3.035
4.229 5.689 2.972
5.524 3.819 3.356
5.286 4.049 3.343
5.200 4.360 3.311
5.025 4.521 3.388
4.894 4.828 3.367
4.759 4.963 3.296
4.598 5.299 3.240
4.482 5.473 3.266
4.256 5.740 3.271
4.192 5.898 3.216
5.487 3.953 3.675
5.391 4.173 3.670
5.209 4.418 3.644
5.115 4.628 3.611
5.003 4.865 3.635
4.802 5.034 3.534
4.606 5.276 3.552
4.483 5.547 3.582
4.345 5.738 3.555
5.594 3.977 3.922
5.493 4.234 3.857
5.286 4.426 3.893
5.174 4.709 3.868
5.039 4.935 3.808
4.872 5.099 3.794
4.729 5.314 3.844
5.638 4.051 4.176
5.517 4.271 4.142
4.589 4.040 0.094
4.494 4.286 0.080
4.330 4.503 0.109
4.173 4.714 0.037
4.094 4.968 0.087
3.886 5.188 0.011
3.737 5.482 0.040
3.505 5.940 0.265
3.367 6.196 0.244
4.489 4.360 0.396
4.420 4.620 0.351
4.287 4.801 0.348
4.109 5.038 0.325
3.911 5.299 0.270
3.800 5.475 0.251
3.636 5.747 0.232
3.479 5.979 0.276
3.592 5.990 0.522
3.361 6.246 0.490
4.412 4.576 0.630
4.310 4.798 0.542
4.127 5.071 0.532
4.048 5.274 0.570
3.833 5.576 0.574
3.712 5.793 0.524
3.562 6.017 0.518
3.626 5.995 0.742
3.436 6.276 0.725
4.257 5.103 0.884
4.053 5.332 0.794
3.954 5.628 0.763
3.811 5.768 0.825
3.650 6.078 0.759
3.709 6.104 1.030
3.967 5.658 1.082
3.779 5.907 1.010
3.718 6.130 0.990
3.715 6.151 1.338
3.711 6.188 1.263
5.221 4.316 2.498
5.130 4.543 2.478
5.013 4.754 2.461
4.808 5.040 2.411
4.663 5.211 2.442
5.475 4.120 2.778
5.271 4.363 2.740
5.140 4.537 2.758
5.036 4.838 2.705
4.896 5.099 2.751
4.735 5.313 2.735
4.621 5.493 2.710
5.689 3.970 3.048
5.551 4.166 3.076
5.380 4.462 2.981
5.219 4.698 3.003
5.071 4.862 3.033
4.970 5.066 3.000
4.788 5.327 2.933
4.666 5.615 2.959
5.744 4.021 3.371
5.597 4.195 3.279
5.376 4.480 3.336
5.225 4.649 3.302
5.139 4.948 3.279
5.008 5.134 3.271
4.787 5.395 3.162
4.665 5.573 3.201
5.760 4.086 3.551
5.606 4.325 3.538
5.426 4.565 3.557
5.357 4.719 3.532
5.130 4.957 3.485
5.010 5.194 3.458
4.898 5.423 3.434
5.776 4.069 3.806
5.628 4.363 3.798
5.553 4.612 3.801
5.326 4.834 3.785
5.177 4.983 3.795
5.104 5.306 3.783
5.913 4.169 4.073
5.673 4.368 4.075
5.551 4.650 4.031
5.897 4.176 4.365
5.806 4.482 4.327
4.756 4.385 -0.025
4.617 4.684 0.009
3.757 6.034 0.195
4.594 4.670 0.275
4.511 4.889 0.230
4.291 5.218 0.195
4.150 5.435 0.198
4.040 5.654 0.147
3.911 5.865 0.237
3.773 6.048 0.185
3.763 6.113 0.448
4.550 5.030 0.513
4.333 5.246 0.535
4.241 5.474 0.501
4.070 5.636 0.516
3.965 5.883 0.418
3.736 6.155 0.468
3.881 6.186 0.639
4.479 5.294 0.720
4.230 5.511 0.767
4.136 5.745 0.688
3.997 5.932 0.708
3.852 6.199 0.638
3.855 6.296 0.914
4.156 5.814 1.021
4.051 6.064 0.949
3.883 6.194 1.001
4.045 6.056 1.260
5.451 4.439 2.172
5.330 4.595 2.098
5.163 4.842 2.171
5.575 4.170 2.458
5.506 4.457 2.374
5.298 4.677 2.395
5.136 4.857 2.426
5.031 5.123 2.424
5.851 4.041 2.704
5.629 4.293 2.685
5.572 4.529 2.661
5.373 4.690 2.711
5.236 4.906 2.704
5.144 5.236 2.679
4.924 5.371 2.630
5.858 4.070 2.969
5.766 4.349 3.005
5.550 4.505 2.995
5.413 4.769 2.889
5.342 5.043 2.938
5.123 5.283 2.921
5.023 5.424 2.920
5.899 4.131 3.274
5.841 4.361 3.177
5.608 4.551 3.185
5.467 4.815 3.147
5.308 5.100 3.200
5.236 5.333 3.190
5.058 5.514 3.167
6.030 4.185 3.478
5.841 4.382 3.519
5.708 4.680 3.434
5.510 4.908 3.497
5.383 5.084 3.394
5.253 5.364 3.428
6.050 4.287 3.811
5.929 4.519 3.701
5.770 4.722 3.785
5.609 4.895 3.764
5.451 5.117 3.675
6.040 4.289 4.081
5.922 4.557 4.015
5.773 4.800 3.986
6.124 4.342 4.300
5.977 4.536 4.318
0.700 1.156 3.754
0.463 1.351 3.808
0.340 1.577 3.724
0.237 1.851 3.720
0.850 0.991 4.041
0.702 1.141 4.018
0.585 1.351 4.002
0.460 1.572 4.044
0.309 1.826 4.022
0.155 2.128 3.992
0.907 1.014 4.303
0.771 1.227 4.260
0.646 1.444 4.345
0.496 1.694 4.300
0.273 1.887 4.252
0.206 2.182 4.223
0.928 1.077 4.643
0.844 1.291 4.545
0.651 1.483 4.590
0.553 1.730 4.503
0.359 1.995 4.567
0.260 2.142 4.510
0.989 1.097 4.869
0.849 1.327 4.837
0.697 1.605 4.802
0.563 1.760 4.826
0.396 2.068 4.759
0.277 2.256 4.812
1.118 1.199 5.110
0.933 1.400 5.085
0.772 1.583 5.135
0.613 1.830 5.014
0.465 2.031 5.059
1.129 1.192 5.399
0.944 1.434 5.384
0.784 1.609 5.332
0.670 1.927 5.294
1.148 1.225 5.665
1.049 1.438 5.662
0.823 1.713 5.592
1.188 1.325 5.869
1.024 1.585 5.897
0.052 0.133 0.090
0.129 0.183 0.380
0.594 1.354 3.195
0.782 1.201 3.441
0.713 1.446 3.389
0.565 1.603 3.398
0.404 1.841 3.430
1.029 0.975 3.757
0.926 1.223 3.733
0.716 1.445 3.689
0.616 1.691 3.656
0.406 1.964 3.613
0.250 2.127 3.658
1.110 1.056 4.009
0.970 1.346 3.951
0.800 1.537 3.986
0.684 1.808 3.961
0.445 1.946 3.885
0.387 2.207 3.941
1.164 1.171 4.237
1.038 1.395 4.281
0.842 1.552 4.251
0.673 1.839 4.252
0.533 2.035 4.193
0.377 2.244 4.185
1.219 1.221 4.497
1.048 1.399 4.553
0.931 1.694 4.510
0.732 1.913 4.440
0.571 2.133 4.460
0.422 2.278 4.444
1.214 1.263 4.741
1.064 1.484 4.717
0.909 1.740 4.724
0.837 1.937 4.749
0.630 2.123 4.660
1.307 1.338 5.081
1.125 1.546 5.072
1.020 1.696 5.062
0.822 2.000 4.970
1.312 1.354 5.357
1.143 1.611 5.243
1.065 1.820 5.323
1.404 1.346 5.547
1.277 1.626 5.582
1.472 1.443 5.847
0.258 0.224 0.083
1.126 0.965 2.843
0.940 1.183 2.887
0.753 1.479 2.864
1.099 1.087 3.084
0.941 1.320 3.067
0.854 1.551 3.132
0.712 1.712 3.049
0.599 2.018 3.067
1.238 1.072 3.357
1.014 1.371 3.428
0.885 1.567 3.309
0.730 1.796 3.290
0.551 2.072 3.354
1.219 1.170 3.603
1.066 1.437 3.601
0.921 1.638 3.633
0.784 1.897 3.618
0.686 2.057 3.598
0.540 2.297 3.545
1.346 1.227 3.898
1.110 1.408 3.859
1.002 1.704 3.937
0.811 1.933 3.820
0.737 2.092 3.827
0.580 2.416 3.791
1.330 1.312 4.152
1.171 1.549 4.156
1.018 1.698 4.185
0.881 1.981 4.179
0.810 2.227 4.152
0.666 2.393 4.128
1.445 1.305 4.451
1.228 1.547 4.421
1.072 1.761 4.438
0.967 2.019 4.442
0.840 2.239 4.413
1.442 1.351 4.677
1.358 1.615 4.658
1.181 1.851 4.684
1.018 2.108 4.644
1.482 1.377 5.019
1.314 1.699 4.972
1.267 1.859 4.981
1.579 1.428 5.215
1.429 1.679 5.185
1.652 1.538 5.499
0.326 3.677 5.603
0.164 3.934 5.558
0.054 2.065 0.545
0.021 2.152 0.801
1.000 0.860 1.427
1.048 0.930 1.797
1.153 1.005 1.978
1.011 1.249 1.994
1.210 1.064 2.219
1.027 1.216 2.304
0.945 1.520 2.208
1.301 1.108 2.486
1.147 1.337 2.464
0.936 1.559 2.467
0.856 1.731 2.446
1.336 1.094 2.757
1.186 1.331 2.776
1.053 1.612 2.769
0.838 1.804 2.763
0.715 2.108 2.714
1.422 1.228 3.002
1.194 1.412 3.043
1.087 1.609 3.047
0.954 1.900 3.022
0.826 2.087 2.967
1.380 1.243 3.374
1.299 1.514 3.290
1.162 1.695 3.285
0.985 1.977 3.228
0.852 2.205 3.289
0.710 2.385 3.246
1.480 1.322 3.540
1.296 1.579 3.606
1.221 1.712 3.516
1.046 2.037 3.580
0.874 2.269 3.466
0.691 2.395 3.536
1.556 1.347 3.807
1.379 1.618 3.797
1.258 1.857 3.755
1.133 1.997 3.752
0.939 2.221 3.778
0.737 2.501 3.788
1.562 1.424 4.130
1.435 1.618 4.048
1.245 1.883 4.061
1.165 2.058 4.065
0.935 2.284 4.079
0.056 3.973 4.206
1.451 1.708 4.405
1.283 1.935 4.324
1.139 2.116 4.281
0.018 4.002 4.211
0.061 4.035 4.466
0.092 3.985 4.394
0.111 4.102 4.733
0.271 3.808 4.724
0.157 4.083 4.662
0.196 4.139 4.919
-0.030 4.330 4.913
0.463 3.641 5.041
0.321 3.874 4.993
0.179 4.124 4.960
0.237 4.211 5.220
0.018 4.434 5.223
0.666 3.516 5.331
0.474 3.708 5.219
0.361 3.926 5.276
0.213 4.163 5.213
0.264 4.253 5.482
0.121 4.459 5.448
0.810 3.281 5.523
0.659 3.556 5.574
0.582 3.813 5.495
0.366 4.048 5.470
0.306 4.297 5.444
0.051 2.142 0.634
0.259 2.179 0.503
0.126 2.478 0.455
0.334 2.255 0.784
0.154 2.468 0.773
1.205 1.009 1.137
1.275 1.053 1.393
1.273 1.109 1.629
1.208 1.240 1.603
1.382 1.104 1.890
1.182 1.384 1.904
1.050 1.599 1.902
1.471 1.119 2.177
1.260 1.368 2.180
1.153 1.676 2.120
1.042 1.850 2.186
1.510 1.246 2.469
1.314 1.399 2.411
1.136 1.677 2.435
1.045 1.966 2.369
0.933 2.188 2.349
1.527 1.326 2.753
1.338 1.453 2.751
1.297 1.699 2.727
1.060 1.983 2.680
0.900 2.163 2.696
0.780 2.378 2.654
1.592 1.283 2.939
1.444 1.558 2.986
1.310 1.793 3.000
1.144 2.067 2.925
1.037 2.219 2.932
0.813 2.508 2.861
1.670 1.357 3.274
1.491 1.576 3.190
1.368 1.818 3.191
1.225 2.116 3.149
1.003 2.298 3.197
0.945 2.491 3.191
1.662 1.448 3.511
1.554 1.646 3.467
1.421 1.904 3.507
1.276 2.139 3.433
1.066 2.341 3.397
0.959 2.553 3.410
1.620 1.676 3.787
1.426 1.931 3.755
1.264 2.204 3.748
1.162 2.358 3.750
0.214 4.043 3.797
0.062 4.318 3.881
1.603 1.748 3.995
1.525 2.057 3.966
1.400 2.246 3.971
0.171 4.101 3.817
0.254 4.173 4.162
0.054 4.312 4.118
0.281 4.082 4.120
0.330 4.173 4.375
0.183 4.458 4.359
0.447 3.963 4.397
0.326 4.176 4.388
0.363 4.266 4.662
0.173 4.448 4.659
0.032 4.724 4.586
0.581 3.779 4.684
0.435 4.005 4.631
0.385 4.231 4.668
0.434 4.315 4.848
0.227 4.481 4.838
0.042 4.792 4.905
0.877 3.562 4.898
0.707 3.867 4.978
0.571 4.046 4.943
0.419 4.285 4.913
0.486 4.355 5.173
0.320 4.548 5.097
0.159 4.782 5.121
1.003 3.434 5.234
0.844 3.614 5.253
0.711 3.856 5.171
0.561 4.059 5.191
0.426 4.298 5.210
0.531 4.378 5.467
0.291 4.653 5.418
1.183 3.224 5.549
1.062 3.497 5.490
0.968 3.694 5.489
0.767 3.982 5.433
0.654 4.159 5.471
0.539 4.338 5.430
0.276 1.916 0.030
0.380 1.994 0.252
0.185 2.215 0.306
0.033 2.380 0.236
0.276 2.274 0.557
0.040 2.483 0.549
0.499 2.378 0.467
0.315 2.641 0.448
0.163 2.869 0.412
-0.012 3.044 0.391
0.390 2.678 0.741
0.243 2.857 0.674
1.451 1.188 1.372
1.553 1.169 1.610
1.401 1.470 1.575
1.608 1.225 1.856
1.432 1.500 1.864
1.272 1.765 1.830
1.662 1.338 2.084
1.514 1.577 2.155
1.327 1.747 2.068
1.176 2.045 2.113
1.691 1.319 2.356
1.554 1.636 2.379
1.435 1.794 2.302
1.278 2.080 2.375
1.152 2.252 2.332
0.971 2.545 2.352
1.796 1.394 2.596
1.650 1.694 2.591
1.510 1.882 2.584
1.374 2.101 2.616
1.204 2.351 2.567
1.058 2.518 2.528
1.790 1.503 2.932
1.685 1.709 2.844
1.509 1.908 2.872
1.391 2.127 2.805
1.217 2.344 2.868
1.049 2.566 2.786
0.936 2.825 2.798
1.918 1.490 3.177
1.670 1.807 3.194
1.600 1.938 3.165
1.475 2.236 3.083
1.293 2.445 3.067
1.092 2.645 3.054
1.007 2.850 3.086
0.031 4.607 3.183
1.818 1.803 3.453
1.633 1.991 3.359
1.447 2.270 3.381
1.339 2.453 3.337
1.234 2.689 3.371
0.198 4.358 3.510
0.006 4.586 3.512
1.660 2.078 3.718
1.505 2.365 3.650
1.337 2.536 3.612
0.377 4.229 3.732
0.298 4.473 3.781
0.086 4.614 3.753
0.386 4.183 3.827
0.499 4.255 4.065
0.341 4.540 4.057
0.200 4.754 3.975
-0.042 4.952 3.956
0.467 4.242 4.039
0.559 4.281 4.353
0.343 4.554 4.275
0.219 4.793 4.241
0.010 5.018 4.280
0.706 4.054 4.332
0.475 4.366 4.318
0.606 4.399 4.557
0.384 4.573 4.505
0.257 4.839 4.511
0.062 5.027 4.499
0.799 3.875 4.636
0.718 4.130 4.566
0.507 4.345 4.560
0.596 4.468 4.874
0.490 4.687 4.801
0.372 4.915 4.762
0.164 5.076 4.827
-0.011 5.300 4.762
1.011 3.691 4.871
0.894 3.954 4.852
0.725 4.148 4.867
0.641 4.439 4.856
0.673 4.445 5.075
0.568 4.734 5.040
0.359 4.908 5.061
0.233 5.183 5.086
1.441 3.373 5.143
1.279 3.583 5.107
1.145 3.765 5.167
0.942 3.976 5.160
0.783 4.295 5.073
0.680 4.434 5.107
0.721 4.498 5.301
0.574 4.797 5.280
1.654 3.145 5.489
1.450 3.430 5.432
1.303 3.622 5.460
1.151 3.867 5.421
1.043 4.111 5.355
0.902 4.304 5.346
0.679 4.554 5.300
0.499 2.073 0.235
0.430 2.364 0.206
0.267 2.519 0.142
0.100 2.796 0.201
0.465 2.378 0.455
0.329 2.646 0.395
0.152 2.819 0.437
-0.024 3.087 0.409
0.729 2.464 0.413
0.556 2.745 0.398
0.425 2.912 0.301
1.767 1.313 1.274
1.807 1.317 1.531
1.580 1.615 1.487
1.821 1.435 1.774
1.652 1.619 1.786
1.499 1.822 1.730
1.844 1.453 2.026
1.697 1.707 1.987
1.532 1.901 2.044
1.476 2.128 2.038
1.260 2.408 2.034
1.922 1.505 2.284
1.778 1.723 2.349
1.664 1.928 2.254
1.446 2.206 2.250
1.326 2.370 2.281
1.227 2.681 2.271
1.050 2.916 2.233
1.969 1.590 2.570
1.812 1.835 2.547
1.637 2.011 2.553
1.587 2.237 2.557
1.434 2.421 2.454
1.294 2.684 2.513
1.106 2.975 2.465
2.044 1.621 2.869
1.889 1.808 2.768
1.746 2.046 2.766
1.542 2.260 2.821
1.482 2.544 2.762
1.297 2.717 2.697
1.177 3.034 2.707
1.994 1.929 3.065
1.752 2.165 3.120
1.606 2.381 3.089
1.506 2.536 2.998
1.333 2.777 2.972
1.252 3.047 2.946
1.877 2.168 3.331
1.752 2.458 3.265
1.565 2.599 3.299
1.418 2.900 3.267
0.256 4.772 3.395
0.165 4.935 3.347
1.740 2.490 3.551
0.519 4.627 3.699
0.348 4.832 3.698
0.208 5.056 3.647
0.040 5.255 3.622
0.658 4.373 3.931
0.525 4.683 3.940
0.371 4.835 3.952
0.225 5.140 3.885
0.073 5.272 3.901
0.720 4.371 4.009
0.778 4.461 4.266
0.638 4.692 4.231
0.409 4.860 4.147
0.309 5.091 4.214
0.106 5.344 4.205
0.831 4.244 4.202
0.746 4.455 4.222
0.791 4.509 4.484
0.617 4.760 4.511
0.514 5.017 4.409
0.349 5.167 4.447
0.245 5.460 4.379
0.031 5.674 4.355
1.094 4.087 4.577
0.981 4.331 4.496
0.775 4.459 4.530
0.789 4.518 4.763
0.666 4.821 4.695
0.570 5.001 4.703
0.410 5.276 4.717
0.255 5.462 4.695
0.072 5.656 4.631
1.386 3.623 4.828
1.328 3.861 4.782
1.096 4.103 4.795
1.004 4.370 4.812
0.814 4.611 4.751
0.918 4.594 5.042
0.721 4.824 4.994
0.570 5.118 4.947
0.462 5.320 4.984
1.795 3.192 5.120
1.644 3.424 5.066
1.484 3.670 5.032
1.361 3.915 5.011
1.205 4.158 5.000
1.063 4.390 5.069
0.941 4.640 5.037
0.912 4.706 5.262
0.833 4.902 5.314
2.010 3.030 5.353
1.778 3.244 5.360
1.692 3.508 5.384
1.493 3.760 5.398
1.353 3.971 5.305
1.252 4.260 5.360
1.099 4.423 5.272
0.912 4.618 5.283
0.794 2.240 0.178
0.615 2.495 0.091
0.514 2.675 0.059
0.311 2.875 0.058
0.159 3.133 0.098
0.645 2.457 0.342
0.526 2.720 0.342
0.395 2.988 0.318
0.858 2.667 0.246
0.758 2.883 0.313
2.038 1.472 1.434
2.060 1.554 1.723
1.855 1.807 1.697
1.721 2.025 1.700
2.112 1.618 1.998
1.903 1.811 1.966
1.834 2.015 1.898
1.659 2.244 1.922
1.550 2.496 1.918
1.338 2.707 1.909
2.174 1.660 2.282
1.993 1.897 2.265
1.818 2.089 2.197
1.745 2.283 2.183
1.524 2.560 2.156
1.431 2.752 2.192
1.293 3.031 2.119
1.080 3.209 2.149
2.163 1.661 2.539
2.068 1.940 2.434
1.938 2.147 2.476
1.712 2.411 2.453
1.654 2.617 2.442
1.472 2.886 2.470
1.350 3.086 2.373
1.124 3.259 2.339
1.028 3.567 2.347
2.071 1.973 2.742
1.936 2.246 2.780
1.772 2.439 2.709
1.646 2.627 2.698
1.523 2.947 2.732
1.361 3.131 2.681
1.236 3.300 2.671
2.167 2.026 3.005
1.981 2.232 2.944
1.843 2.531 2.971
1.729 2.756 2.929
1.546 2.916 2.918
1.479 3.128 2.942
1.241 3.379 2.946
1.883 2.539 3.217
1.740 2.778 3.251
1.593 2.994 3.181
1.445 3.219 3.242
0.363 5.109 3.262
0.219 5.318 3.287
0.111 5.567 3.312
0.601 4.991 3.649
0.430 5.174 3.538
0.278 5.453 3.615
0.067 5.602 3.574
0.809 4.811 3.822
0.622 4.946 3.873
0.500 5.195 3.802
0.343 5.433 3.812
0.168 5.663 3.798
-0.033 5.960 3.789
0.990 4.595 4.200
0.850 4.831 4.146
0.690 5.020 4.124
0.513 5.273 4.061
0.405 5.485 4.114
0.210 5.698 4.088
0.106 5.992 4.009
1.009 4.638 4.178
0.960 4.626 4.381
0.908 4.864 4.448
0.752 5.107 4.333
0.548 5.329 4.356
0.441 5.561 4.377
0.312 5.834 4.297
0.128 6.013 4.353
1.102 4.428 4.458
1.051 4.607 4.374
1.105 4.751 4.705
0.897 4.889 4.621
0.747 5.188 4.597
0.652 5.331 4.578
0.484 5.564 4.614
0.321 5.887 4.539
0.189 6.116 4.618
1.692 3.801 4.696
1.476 3.969 4.676
1.370 4.257 4.747
1.190 4.438 4.729
1.026 4.713 4.683
1.127 4.736 4.969
1.013 4.964 4.885
0.835 5.210 4.905
2.103 3.159 5.026
2.026 3.326 5.003
1.798 3.551 5.007
1.684 3.868 5.029
1.522 4.102 4.941
1.367 4.278 5.004
1.311 4.521 5.004
1.082 4.771 4.985
1.127 4.775 5.222
2.333 2.965 5.292
2.159 3.242 5.279
2.064 3.428 5.312
1.929 3.611 5.278
1.736 3.857 5.260
1.662 4.150 5.208
1.492 4.327 5.186
1.271 4.534 5.237
1.161 4.785 5.155
1.152 2.115 0.015
1.032 2.381 0.054
0.894 2.582 0.017
0.702 2.823 0.070
0.566 3.038 0.045
0.888 2.682 0.333
0.738 2.820 0.298
1.231 2.532 0.216
0.014 4.769 0.669
0.230 4.579 0.848
0.080 4.773 0.887
0.398 4.359 1.122
0.320 4.605 1.187
0.114 4.870 1.137
0.041 5.051 1.128
0.449 4.419 1.476
0.363 4.657 1.378
0.168 4.888 1.352
0.068 5.094 1.367
0.750 4.227 1.676
2.345 1.751 1.919
2.172 2.010 1.915
1.999 2.162 1.876
1.902 2.419 1.812
1.769 2.596 1.782
1.541 2.887 1.840
1.432 3.137 1.773
1.305 3.357 1.834
1.199 3.595 1.806
1.020 3.734 1.717
0.880 3.981 1.703
0.683 4.248 1.683
2.227 2.061 2.139
2.107 2.245 2.170
1.939 2.459 2.099
1.822 2.677 2.054
1.681 2.886 2.063
1.545 3.123 2.060
1.368 3.434 2.071
1.156 3.640 2.015
1.049 3.791 2.020
0.958 4.113 2.020
2.301 2.013 2.368
2.110 2.238 2.439
1.947 2.466 2.382
1.837 2.743 2.379
1.650 3.026 2.304
1.538 3.223 2.318
1.385 3.421 2.350
1.296 3.637 2.245
1.065 3.919 2.281
2.189 2.343 2.676
2.085 2.542 2.644
1.888 2.826 2.631
1.698 2.992 2.551
1.624 3.310 2.622
1.460 3.462 2.622
1.270 3.670 2.539
1.181 3.923 2.591
2.139 2.601 2.854
1.979 2.849 2.909
1.820 3.132 2.922
1.697 3.321 2.808
1.464 3.584 2.814
1.301 3.726 2.860
2.048 2.936 3.151
1.840 3.123 3.076
1.677 3.331 3.119
1.531 3.604 3.130
0.438 5.481 3.278
0.237 5.753 3.177
0.121 5.941 3.190
0.672 5.314 3.497
0.475 5.499 3.490
0.326 5.817 3.464
0.134 6.030 3.402
0.057 6.173 3.435
0.831 5.176 3.731
0.722 5.315 3.773
0.490 5.594 3.705
0.339 5.862 3.700
0.285 6.020 3.675
0.116 6.243 3.705
0.852 5.184 4.026
0.763 5.370 3.987
0.636 5.631 4.063
0.463 5.915 3.968
0.306 6.086 4.019
1.083 5.016 4.290
0.973 5.269 4.254
0.759 5.425 4.245
0.666 5.672 4.304
0.541 5.938 4.226
0.312 6.108 4.246
1.242 4.787 4.638
1.147 5.065 4.639
0.965 5.301 4.623
0.809 5.561 4.573
0.667 5.754 4.545
0.515 5.978 4.484
0.428 6.239 4.491
1.283 4.817 4.647
2.989 2.358 5.110
2.841 2.556 5.036
2.630 2.814 5.041
2.546 3.042 4.963
2.392 3.311 4.985
2.242 3.569 4.971
2.027 3.770 4.914
1.896 3.932 4.974
1.783 4.171 4.883
1.585 4.486 4.897
1.493 4.622 4.881
2.826 2.615 5.316
2.717 2.835 5.285
2.599 3.108 5.259
2.432 3.316 5.231
2.302 3.587 5.213
2.138 3.827 5.180
1.959 4.049 5.232
1.878 4.275 5.152
1.698 4.506 5.140
1.545 4.728 5.120
1.475 2.028 0.034
1.238 2.559 0.221
0.683 0.018 5.967
0.825 0.118 6.222
0.594 0.497 5.392
0.860 0.071 5.596
0.699 0.332 5.585
0.635 0.507 5.662
0.949 0.196 5.940
0.807 0.362 5.838
0.636 0.639 5.847
0.969 0.196 6.220
0.817 0.458 6.171
0.677 0.705 6.143
0.704 0.577 4.980
0.960 0.468 5.315
0.815 0.683 5.255
1.315 -0.018 5.616
1.061 0.204 5.558
1.000 0.438 5.541
0.769 0.646 5.569
1.359 0.037 5.829
1.117 0.302 5.809
1.067 0.559 5.793
0.870 0.765 5.855
1.395 0.145 6.116
1.259 0.337 6.059
1.044 0.557 6.105
0.931 0.843 6.071
0.905 0.641 4.655
0.982 0.679 4.978
1.309 0.271 5.214
1.143 0.551 5.212
0.982 0.743 5.168
1.507 0.120 5.491
1.338 0.418 5.534
1.203 0.562 5.511
1.018 0.838 5.499
1.525 0.148 5.731
1.362 0.437 5.778
1.292 0.671 5.801
1.046 0.917 5.728
1.722 -0.008 6.077
1.599 0.281 6.003
1.474 0.468 5.977
1.259 0.769 5.977
1.153 0.964 5.992
0.121 0.813 4.782
0.378 0.702 5.121
0.193 0.944 5.050
0.084 1.134 5.078
0.388 0.780 5.321
0.275 0.988 5.314
0.119 1.244 5.337
0.455 0.782 5.547
0.336 1.066 5.549
0.171 1.195 5.586
0.047 1.515 5.588
0.550 0.830 5.890
0.323 1.110 5.871
0.083 1.107 4.149
0.329 0.974 4.409
0.139 1.176 4.390
-0.003 1.379 4.429
0.495 0.771 4.742
0.370 0.973 4.731
0.258 1.202 4.727
0.026 1.496 4.658
0.598 0.774 5.024
0.435 1.000 5.012
0.261 1.244 5.005
0.113 1.500 4.950
0.635 0.886 5.303
0.524 1.081 5.296
0.317 1.318 5.250
0.158 1.511 5.201
0.013 1.797 5.171
0.618 0.940 5.564
0.502 1.178 5.528
0.341 1.351 5.448
0.279 1.621 5.500
0.045 1.835 5.417
0.776 0.938 5.751
0.628 1.248 5.748
0.409 1.491 5.714
0.812 1.045 6.026
0.602 1.284 6.008
0.229 1.194 3.840
0.110 1.398 3.827
0.477 1.061 4.141
0.360 1.307 4.155
0.202 1.455 4.052
0.058 1.681 4.115
0.690 0.867 4.403
0.483 1.083 4.347
0.410 1.352 4.415
0.267 1.524 4.343
0.144 1.788 4.367
0.693 0.879 4.630
0.540 1.183 4.657
0.422 1.393 4.628
0.323 1.627 4.603
0.099 1.823 4.647
0.810 0.968 4.944
0.673 1.243 4.857
0.515 1.392 4.927
0.389 1.606 4.826
0.252 1.883 4.888
0.034 2.120 4.888
0.868 0.998 5.213
0.735 1.203 5.165
0.597 1.476 5.158
0.358 1.655 5.131
0.300 1.878 5.149
0.105 2.125 5.119
0.903 1.023 5.432
0.725 1.256 5.428
0.633 1.574 5.418
0.439 1.776 5.358
0.356 2.013 5.425
0.932 1.134 5.722
0.821 1.346 5.647
0.631 1.581 5.634
0.964 1.132 5.970
0.883 1.397 6.007
2.929 0.020 0.402
2.955 0.062 0.642
2.747 0.316 0.709
2.676 0.531 0.706
2.976 0.117 0.995
2.850 0.365 0.989
2.653 0.565 0.895
2.550 0.813 0.901
3.074 0.193 1.195
2.880 0.451 1.244
2.709 0.638 1.129
2.645 0.877 1.205
2.442 1.134 1.179
3.221 0.002 1.497
3.113 0.245 1.469
2.952 0.463 1.462
2.798 0.691 1.446
2.658 0.943 1.455
2.474 1.195 1.461
3.252 0.081 1.745
3.194 0.341 1.699
2.972 0.579 1.675
2.919 0.715 1.724
2.724 0.944 1.703
2.582 1.208 1.701
2.460 1.479 1.628
3.795 0.219 3.565
3.695 0.401 3.602
3.495 0.647 3.541
3.436 0.919 3.596
4.044 0.087 3.946
3.877 0.232 3.867
3.722 0.514 3.862
3.629 0.709 3.838
3.421 0.981 3.780
3.242 1.132 3.812
4.098 0.095 4.192
3.898 0.366 4.141
3.762 0.578 4.104
3.641 0.757 4.148
3.499 0.960 4.041
3.304 1.263 4.053
3.203 1.484 4.025
4.101 0.167 4.423
4.033 0.357 4.386
3.843 0.641 4.417
3.724 0.785 4.389
3.523 1.049 4.392
3.347 1.324 4.295
3.233 1.532 4.363
3.044 1.750 4.323
4.168 0.249 4.691
4.058 0.381 4.653
3.877 0.699 4.641
3.720 0.908 4.630
3.592 1.163 4.605
3.455 1.321 4.630
3.317 1.572 4.527
3.098 1.769 4.529
4.385 -0.010 4.940
4.211 0.281 4.985
4.061 0.494 4.943
3.973 0.715 4.924
3.766 0.969 4.844
3.655 1.146 4.828
3.532 1.354 4.832
3.393 1.667 4.822
3.193 1.870 4.822
3.085 2.042 4.863
2.904 0.063 0.425
3.142 0.259 0.665
2.978 0.455 0.555
3.394 0.091 0.935
3.184 0.229 0.833
3.059 0.553 0.816
2.980 0.694 0.884
3.446 0.141 1.147
3.231 0.382 1.176
3.105 0.606 1.135
2.973 0.738 1.087
3.448 0.103 1.471
3.294 0.406 1.434
3.173 0.601 1.415
3.004 0.867 1.415
3.522 0.229 1.726
3.365 0.427 1.723
3.242 0.720 1.697
3.760 0.023 1.946
3.875 0.601 3.481
3.719 0.793 3.493
3.565 0.994 3.532
3.461 1.234 3.450
4.070 0.457 3.828
3.922 0.635 3.829
3.826 0.871 3.825
3.627 1.144 3.730
3.496 1.322 3.779
3.397 1.527 3.737
3.223 1.774 3.733
4.168 0.436 4.040
4.007 0.713 4.096
3.885 0.930 4.033
3.764 1.185 4.053
3.554 1.424 4.019
3.370 1.651 4.002
3.310 1.846 3.970
4.396 0.252 4.373
4.204 0.496 4.378
4.088 0.787 4.283
3.955 0.938 4.307
3.814 1.149 4.268
3.644 1.390 4.230
3.422 1.681 4.241
3.304 1.915 4.225
3.117 2.139 4.248
4.294 0.613 4.589
4.142 0.762 4.622
3.933 1.024 4.585
3.792 1.223 4.567
3.692 1.447 4.550
3.540 1.759 4.487
3.406 1.941 4.514
3.248 2.147 4.439
3.984 1.088 4.875
3.821 1.333 4.760
3.714 1.576 4.744
3.543 1.758 4.809
3.462 2.023 4.748
3.309 2.237 4.733
3.575 1.765 5.003
3.530 1.994 4.970
3.289 2.232 4.948
3.367 2.316 5.270
3.540 0.072 0.336
3.559 0.110 0.514
3.371 0.306 0.567
3.565 0.151 0.780
3.492 0.404 0.780
3.287 0.697 0.791
3.807 0.055 1.147
3.676 0.282 1.067
3.544 0.448 1.125
3.317 0.648 1.023
3.871 0.089 1.323
3.727 0.335 1.301
3.522 0.534 1.280
3.432 0.737 1.284
3.863 0.125 1.652
3.789 0.295 1.578
3.639 0.537 1.547
4.008 0.196 1.858
3.675 1.389 3.090
3.982 0.986 3.450
3.832 1.219 3.417
3.729 1.372 3.446
3.528 1.654 3.427
4.136 0.784 3.711
4.075 1.020 3.717
3.859 1.226 3.683
3.788 1.508 3.637
3.543 1.742 3.679
3.432 1.964 3.680
4.193 0.808 3.969
4.048 1.076 3.974
3.963 1.236 3.915
3.761 1.494 3.921
3.591 1.706 3.876
3.499 2.007 3.930
3.377 2.234 3.846
4.241 0.913 4.279
4.132 1.054 4.222
3.968 1.309 4.208
3.796 1.600 4.139
3.656 1.800 4.202
3.550 2.076 4.170
3.343 2.290 4.151
4.311 0.920 4.505
4.157 1.122 4.473
4.067 1.366 4.442
3.873 1.666 4.496
3.708 1.816 4.409
3.638 2.062 4.370
3.405 2.339 4.363
4.110 1.483 4.712
3.970 1.645 4.672
3.833 1.862 4.668
3.630 2.151 4.697
3.513 2.397 4.645
3.817 2.011 4.964
3.658 2.231 4.933
3.579 2.468 4.947
3.746 2.195 5.168
3.654 2.514 5.229
3.529 0.061 0.305
3.744 0.216 0.206
3.917 0.016 0.522
3.753 0.324 0.522
3.612 0.525 0.510
3.972 0.066 0.786
3.805 0.349 0.790
3.660 0.607 0.741
4.026 0.155 1.086
3.921 0.352 1.062
3.764 0.618 1.049
4.090 0.235 1.313
3.918 0.420 1.304
3.755 0.688 1.260
4.235 0.009 1.571
4.163 0.224 1.583
3.972 0.445 1.523
4.298 0.107 1.825
4.026 1.211 3.051
3.904 1.472 3.026
3.739 1.712 3.031
4.253 1.033 3.344
4.000 1.309 3.294
3.923 1.526 3.278
3.712 1.825 3.304
3.650 1.954 3.238
4.428 0.889 3.661
4.308 1.164 3.592
4.105 1.394 3.658
3.926 1.644 3.645
3.766 1.830 3.608
3.671 2.041 3.514
3.464 2.260 3.548
4.476 0.987 3.885
4.347 1.183 3.855
4.159 1.422 3.882
3.976 1.654 3.896
3.911 1.857 3.853
3.723 2.062 3.824
3.601 2.307 3.786
4.405 1.292 4.119
4.234 1.529 4.160
4.101 1.684 4.112
3.916 1.947 4.089
3.725 2.110 4.120
3.672 2.431 4.019
4.378 1.300 4.410
4.311 1.567 4.403
4.086 1.798 4.392
3.921 1.983 4.405
3.832 2.171 4.388
3.662 2.408 4.355
4.160 1.780 4.646
3.999 2.000 4.610
3.903 2.257 4.581
3.685 2.516 4.558
4.115 2.042 4.882
3.965 2.345 4.832
3.755 2.539 4.816
3.943 2.354 5.126
3.794 2.600 5.063
3.708 0.221 0.281
4.096 0.143 0.174
3.955 0.354 0.208
4.186 0.132 0.444
3.972 0.400 0.378
3.801 0.687 0.375
4.342 0.017 0.703
4.204 0.251 0.683
4.012 0.464 0.695
3.887 0.699 0.667
4.406 0.023 0.942
4.277 0.247 0.950
4.108 0.524 0.919
4.406 0.060 1.251
4.272 0.364 1.251
4.101 0.550 1.169
4.448 0.201 1.456
4.313 0.351 1.472
4.510 0.168 1.767
4.776 0.011 2.064
4.062 1.594 2.784
3.892 1.779 2.747
3.718 2.075 2.749
4.233 1.366 3.056
4.055 1.592 2.966
3.953 1.856 3.030
3.786 2.132 2.962
4.434 1.266 3.304
4.330 1.497 3.284
4.123 1.658 3.262
3.980 1.860 3.289
3.869 2.197 3.232
3.657 2.338 3.162
4.484 1.268 3.520
4.303 1.556 3.513
4.157 1.724 3.514
3.993 1.949 3.458
3.885 2.188 3.529
3.702 2.428 3.504
4.580 1.368 3.828
4.336 1.564 3.825
4.249 1.740 3.760
4.122 2.049 3.778
3.951 2.286 3.759
3.823 2.504 3.774
4.551 1.407 4.038
4.385 1.584 4.085
4.309 1.809 4.030
4.183 2.074 4.075
3.947 2.327 4.042
3.839 2.564 3.973
4.535 1.686 4.296
4.337 1.874 4.317
4.150 2.136 4.310
4.001 2.338 4.306
3.946 2.620 4.209
4.363 1.977 4.545
4.196 2.203 4.518
4.092 2.382 4.480
3.970 2.645 4.472
4.339 2.183 4.795
4.190 2.511 4.830
3.961 2.741 4.759
4.247 2.549 5.050
4.025 2.766 5.065
4.038 0.121 0.117
3.950 0.380 0.107
4.433 -0.019 0.110
4.261 0.299 0.110
4.165 0.469 0.110
4.473 0.036 0.394
4.352 0.311 0.379
4.188 0.581 0.313
4.510 0.153 0.589
4.448 0.362 0.631
4.318 0.632 0.655
4.573 0.172 0.869
4.492 0.405 0.831
4.364 0.666 0.852
4.849 -0.000 1.147
4.617 0.213 1.190
4.495 0.434 1.137
4.844 0.073 1.465
4.769 0.254 1.472
4.871 0.138 1.709
4.234 1.636 2.367
4.047 1.841 2.415
3.920 2.174 2.393
4.420 1.502 2.648
4.260 1.691 2.622
4.129 1.950 2.602
3.995 2.136 2.615
3.778 2.394 2.595
4.643 1.301 2.941
4.398 1.486 2.882
4.261 1.716 2.965
4.097 2.013 2.927
3.961 2.214 2.916
3.810 2.428 2.857
4.653 1.417 3.226
4.450 1.637 3.192
4.297 1.861 3.235
4.243 2.066 3.207
4.014 2.306 3.096
3.901 2.565 3.085
4.723 1.447 3.440
4.562 1.668 3.418
4.446 1.881 3.396
4.246 2.086 3.450
4.094 2.382 3.453
3.995 2.585 3.430
4.585 1.681 3.679
4.510 1.879 3.757
4.279 2.130 3.699
4.132 2.347 3.646
3.989 2.571 3.706
4.705 1.737 3.950
4.509 2.004 3.989
4.346 2.258 3.977
4.214 2.445 3.918
4.097 2.682 3.915
4.608 2.090 4.248
4.464 2.222 4.266
4.279 2.548 4.224
4.091 2.683 4.139
4.419 2.272 4.528
4.336 2.495 4.443
4.227 2.759 4.450
4.391 2.589 4.703
4.260 2.807 4.729
4.312 2.850 4.941
4.460 0.039 0.132
4.359 0.281 0.048
4.142 0.485 0.038
4.730 0.185 0.090
4.500 0.443 0.069
4.334 0.680 -0.029
4.687 0.235 0.285
4.534 0.420 0.336
4.447 0.699 0.254
4.927 0.036 0.621
4.791 0.264 0.549
4.677 0.549 0.530
4.449 0.741 0.522
5.007 0.086 0.846
4.807 0.320 0.838
4.674 0.520 0.786
4.988 0.152 1.147
3.790 2.275 1.231
3.954 2.135 1.531
3.822 2.302 1.521
4.209 1.895 1.769
4.031 2.146 1.797
3.842 2.356 1.709
4.395 1.778 2.065
4.210 1.992 2.079
4.073 2.217 2.067
3.908 2.434 2.010
4.565 1.622 2.374
4.443 1.857 2.318
4.316 2.019 2.325
4.071 2.292 2.341
4.025 2.480 2.299
4.754 1.422 2.596
4.625 1.678 2.569
4.459 1.823 2.549
4.358 2.138 2.517
4.175 2.284 2.546
3.980 2.573 2.540
4.812 1.503 2.880
4.669 1.627 2.882
4.549 1.902 2.815
4.367 2.111 2.808
4.205 2.405 2.796
4.126 2.584 2.833
5.755 0.109 3.190
4.921 1.493 3.183
4.709 1.737 3.110
4.591 1.933 3.148
4.444 2.144 3.037
4.333 2.443 3.021
4.130 2.602 3.073
5.731 0.143 3.221
5.755 0.137 3.522
4.778 1.778 3.429
4.618 2.004 3.384
4.530 2.270 3.344
4.325 2.515 3.343
4.185 2.659 3.300
5.808 0.201 3.542
5.843 0.188 3.724
4.844 1.845 3.645
4.714 2.021 3.632
4.483 2.260 3.624
4.414 2.576 3.629
4.220 2.751 3.569
5.962 0.057 3.797
5.905 0.255 3.783
5.890 0.258 4.013
4.582 2.388 3.894
4.433 2.602 3.815
4.329 2.756 3.885
6.048 0.063 4.044
5.887 0.332 3.998
5.948 0.337 4.288
6.088 0.157 4.332
5.943 0.386 4.316
6.030 0.450 4.549
5.904 0.632 4.542
6.164 0.137 4.544
6.025 0.419 4.547
6.031 0.430 4.797
5.921 0.698 4.799
5.824 0.911 4.743
6.041 0.400 4.770
6.162 0.462 5.039
6.021 0.740 5.070
5.886 0.987 5.094
5.726 1.245 4.999
6.127 0.454 5.042
4.680 0.229 0.038
4.572 0.352 0.032
4.430 0.670 -0.023
5.113 0.119 0.236
4.963 0.372 0.222
4.852 0.648 0.239
4.700 0.794 0.193
5.175 0.138 0.499
5.011 0.467 0.481
4.880 0.646 0.427
3.848 2.351 0.581
3.940 2.328 0.855
4.160 2.170 1.143
4.011 2.450 1.118
4.343 2.045 1.446
4.190 2.187 1.384
4.094 2.473 1.372
4.522 1.836 1.682
4.362 2.040 1.681
4.202 2.340 1.666
4.081 2.515 1.678
4.712 1.694 1.968
4.625 1.917 1.960
4.426 2.151 1.929
4.246 2.304 1.914
4.152 2.615 1.978
4.968 1.527 2.227
4.805 1.663 2.221
4.635 1.886 2.199
4.498 2.208 2.257
4.377 2.446 2.185
4.175 2.653 2.167
5.036 1.507 2.524
4.878 1.731 2.508
4.690 1.940 2.559
4.545 2.184 2.522
4.404 2.460 2.436
4.298 2.709 2.501
5.021 1.545 2.809
4.859 1.768 2.791
4.708 2.071 2.803
4.588 2.232 2.749
4.419 2.504 2.687
4.340 2.753 2.694
5.130 1.609 3.019
4.952 1.897 3.076
4.843 2.097 3.060
4.598 2.333 2.970
4.526 2.510 2.949
4.396 2.824 3.006
6.111 0.073 3.220
5.987 0.359 3.469
5.050 1.972 3.340
4.826 2.139 3.272
4.680 2.424 3.249
4.542 2.652 3.209
6.176 0.044 3.489
6.066 0.275 3.379
6.130 0.358 3.642
4.722 2.452 3.534
6.231 0.184 3.660
6.073 0.352 3.672
6.130 0.422 3.992
5.975 0.671 3.917
6.150 0.446 3.905
6.204 0.440 4.235
6.090 0.722 4.165
6.213 0.512 4.223
6.218 0.549 4.522
6.061 0.778 4.473
5.965 1.022 4.495
6.193 0.558 4.479
6.157 0.782 4.683
6.019 0.997 4.666
5.860 1.242 4.713
6.241 0.920 4.971
6.101 1.084 4.966
5.873 1.361 4.973
5.732 1.549 4.988
5.278 0.310 0.125
5.185 0.501 0.138
5.035 0.780 0.174
4.097 2.403 0.269
4.153 2.483 0.541
4.304 2.224 0.878
4.197 2.509 0.788
4.531 2.082 1.088
4.341 2.314 1.035
4.184 2.547 1.097
4.678 1.901 1.370
4.545 2.165 1.359
4.416 2.368 1.391
4.213 2.554 1.284
4.925 1.797 1.713
4.729 1.969 1.662
4.559 2.230 1.579
4.435 2.448 1.669
4.280 2.651 1.595
5.083 1.520 1.909
5.006 1.810 1.936
4.827 2.077 1.902
4.683 2.299 1.856
4.537 2.473 1.904
4.374 2.708 1.849
5.160 1.575 2.242
5.043 1.812 2.155
4.898 2.104 2.202
4.733 2.303 2.154
4.620 2.502 2.156
4.457 2.711 2.122
5.252 1.623 2.427
5.031 1.870 2.422
4.953 2.160 2.478
4.752 2.323 2.446
4.575 2.545 2.416
4.455 2.799 2.349
5.321 1.766 2.683
5.166 1.947 2.685
4.948 2.163 2.705
4.861 2.457 2.733
4.663 2.604 2.656
4.521 2.843 2.684
5.196 2.021 2.954
5.068 2.200 3.011
4.896 2.486 2.946
4.727 2.700 2.895
6.293 0.412 3.345
6.296 0.510 3.324
6.265 0.840 3.896
6.262 0.839 4.146
6.149 1.053 4.113
6.141 1.110 4.358
5.981 1.323 4.372
6.224 1.165 4.677
6.128 1.430 4.646
5.883 1.635 4.562
6.254 1.239 4.926
6.110 1.497 4.899
5.945 1.706 4.877
5.820 1.933 4.860
4.358 2.594 0.427
4.523 2.393 0.710
4.385 2.667 0.702
4.727 2.241 1.048
4.583 2.413 0.990
4.488 2.702 1.027
5.077 1.851 1.278
4.905 2.043 1.281
4.836 2.269 1.245
4.582 2.557 1.246
4.481 2.750 1.209
5.243 1.635 1.602
5.155 1.842 1.578
5.027 2.148 1.540
4.851 2.385 1.564
4.649 2.544 1.530
4.538 2.777 1.550
5.525 1.506 1.862
5.350 1.742 1.859
5.142 1.887 1.880
4.989 2.127 1.794
4.853 2.390 1.831
4.724 2.580 1.817
4.637 2.810 1.833
5.492 1.583 2.154
5.331 1.731 2.178
5.273 2.038 2.129
5.072 2.215 2.125
4.890 2.423 2.044
4.846 2.627 2.080
4.700 2.901 2.050
5.570 1.554 2.468
5.386 1.836 2.448
5.247 2.032 2.419
5.177 2.228 2.406
5.036 2.507 2.385
4.847 2.765 2.307
4.726 2.955 2.362
5.512 1.916 2.626
5.394 2.106 2.624
5.154 2.297 2.645
5.075 2.608 2.612
4.896 2.833 2.571
5.423 2.105 2.857
5.253 2.403 2.842
5.128 2.570 2.876
6.238 1.490 4.305
6.131 1.685 4.232
6.176 1.736 4.521
6.036 1.965 4.470
6.226 1.884 4.775
6.027 2.088 4.726
5.962 2.283 4.719
4.808 2.513 0.662
4.560 2.816 0.664
4.991 2.393 0.989
4.846 2.586 0.994
4.678 2.786 0.972
5.471 1.753 1.271
5.275 1.931 1.234
5.157 2.199 1.227
4.953 2.449 1.255
4.843 2.632 1.245
4.699 2.844 1.226
5.629 1.542 1.534
5.503 1.756 1.532
5.387 1.968 1.562
5.247 2.239 1.455
5.059 2.511 1.527
4.914 2.712 1.460
4.737 2.975 1.451
5.889 1.436 1.788
5.747 1.581 1.845
5.569 1.868 1.804
5.447 2.029 1.778
5.212 2.267 1.804
5.127 2.501 1.701
4.996 2.814 1.784
4.821 3.006 1.693
5.899 1.461 2.139
5.773 1.676 2.036
5.619 1.899 2.024
5.501 2.100 2.091
5.329 2.328 2.009
5.176 2.590 2.043
4.969 2.848 2.025
4.903 3.018 1.949
5.986 1.503 2.396
5.793 1.718 2.348
5.606 1.909 2.290
5.489 2.210 2.261
5.390 2.461 2.321
5.247 2.591 2.222
5.038 2.859 2.285
5.878 1.764 2.621
5.717 1.979 2.586
5.540 2.272 2.571
5.370 2.460 2.583
5.270 2.716 2.535
6.271 2.202 4.475
6.114 2.335 4.427
6.295 2.165 4.657
6.105 2.445 4.714
6.036 2.629 4.651
5.045 2.783 0.846
4.896 2.936 0.862
5.779 1.677 1.223
5.707 1.873 1.150
5.517 2.050 1.175
5.420 2.345 1.206
5.247 2.541 1.148
5.067 2.823 1.087
4.953 2.999 1.153
6.158 1.296 1.544
6.008 1.519 1.506
5.842 1.701 1.440
5.759 1.953 1.457
5.627 2.169 1.407
5.473 2.355 1.472
5.335 2.621 1.437
5.114 2.800 1.342
4.969 3.040 1.404
6.199 1.273 1.735
6.060 1.514 1.755
5.965 1.789 1.775
5.765 1.955 1.770
5.654 2.198 1.760
5.457 2.445 1.656
5.282 2.625 1.632
5.171 2.923 1.692
5.008 3.085 1.696
6.298 1.351 2.053
6.097 1.588 2.059
6.003 1.765 2.045
5.832 2.071 1.973
5.706 2.266 2.003
5.508 2.545 1.969
5.387 2.762 1.900
5.212 2.976 1.866
6.173 1.635 2.301
6.005 1.890 2.317
5.934 2.091 2.199
5.788 2.326 2.260
5.608 2.521 2.258
5.410 2.781 2.208
6.039 1.878 2.585
5.941 2.102 2.548
5.798 2.369 2.483
5.676 2.567 2.533
6.161 2.769 4.349
6.036 3.002 4.365
5.914 3.231 4.306
6.177 2.754 4.587
6.068 2.998 4.552
5.914 3.260 4.555
6.169 1.505 1.177
6.027 1.788 1.120
5.885 2.062 1.129
5.785 2.195 1.097
6.290 1.555 1.415
6.133 1.852 1.363
5.991 2.027 1.397
5.786 2.288 1.416
5.619 2.489 1.336
5.519 2.715 1.341
6.096 1.939 1.646
6.037 2.081 1.660
5.804 2.404 1.631
5.658 2.568 1.620
5.594 2.770 1.570
6.181 1.965 1.900
6.082 2.216 1.937
5.929 2.438 1.942
5.812 2.610 1.876
5.558 2.907 1.854
6.202 2.053 2.217
6.117 2.214 2.167
5.969 2.462 2.114
5.780 2.696 2.184
6.123 2.323 2.434
6.012 2.476 2.444
5.668 3.706 3.629
6.189 3.017 3.943
6.024 3.260 4.015
5.861 3.487 3.914
5.699 3.778 3.962
6.271 3.121 4.286
6.137 3.340 4.246
5.890 3.619 4.170
5.845 3.787 4.172
6.148 3.428 4.448
5.986 3.634 4.499
5.889 3.906 4.442
6.217 1.912 1.039
6.163 2.244 1.281
6.032 2.414 1.245
6.269 2.261 1.564
6.080 2.515 1.607
6.231 2.359 1.840
6.167 2.496 1.827
6.161 2.575 2.117
5.838 3.770 3.382
6.094 3.623 3.585
5.944 3.853 3.633
6.289 3.428 3.911
6.093 3.656 3.870
5.915 3.900 3.910
6.131 3.725 4.112
6.058 3.888 4.083
6.226 3.797 4.386
6.115 3.939 4.329
6.000 3.811 2.964
6.071 3.864 3.259
6.313 3.761 3.534
6.164 3.920 3.472
6.206 4.072 3.739
6.191 4.039 4.074
1.119 0.801 4.631
1.104 0.829 4.869
1.400 0.673 5.135
1.204 0.899 5.140
1.590 0.546 5.418
1.379 0.705 5.447
1.319 0.951 5.348
1.955 0.148 5.743
1.751 0.319 5.676
1.617 0.555 5.736
1.415 0.853 5.670
1.311 1.067 5.632
2.006 0.159 5.943
1.767 0.399 5.931
1.628 0.603 5.991
1.556 0.887 5.905
1.397 1.036 5.945
0.371 -0.012 0.637
0.541 0.242 0.911
0.758 0.013 1.188
0.855 0.130 1.373
1.311 0.942 4.481
1.410 1.056 4.824
1.627 0.844 5.106
1.412 1.112 5.077
1.781 0.649 5.395
1.660 0.890 5.346
1.471 1.147 5.324
1.976 0.532 5.665
1.846 0.725 5.595
1.685 0.886 5.554
1.533 1.197 5.601
2.165 0.282 5.872
2.006 0.493 5.926
1.941 0.717 5.826
1.742 1.017 5.847
1.641 1.269 5.833
0.393 -0.000 0.013
0.476 0.085 0.350
0.505 0.200 0.593
0.647 0.153 0.855
0.932 0.170 0.787
0.770 0.352 0.779
0.995 0.224 1.062
0.850 0.434 1.096
1.047 0.242 1.335
0.975 0.424 1.363
1.254 0.017 1.600
1.086 0.300 1.558
0.926 0.477 1.614
1.330 0.146 1.854
1.126 0.368 1.826
1.626 1.223 5.033
1.674 1.227 5.224
1.860 1.105 5.490
1.791 1.280 5.481
2.259 0.618 5.827
2.106 0.901 5.811
1.954 1.174 5.737
1.763 1.359 5.786
0.818 0.036 0.286
0.657 0.202 0.290
0.879 0.019 0.535
0.713 0.284 0.467
0.946 0.147 0.785
0.865 0.294 0.814
1.335 0.068 0.690
1.221 0.228 0.688
1.086 0.470 0.764
1.432 0.119 0.971
1.246 0.286 1.030
1.106 0.488 1.000
1.409 0.155 1.319
1.253 0.347 1.212
1.168 0.597 1.203
1.524 0.176 1.498
1.349 0.381 1.485
1.176 0.628 1.553
1.688 -0.018 1.829
1.532 0.199 1.811
1.365 0.442 1.779
1.227 0.646 1.814
1.587 0.278 2.076
1.486 0.515 2.059
1.286 0.754 2.036
1.499 0.533 2.328
1.364 0.760 2.265
1.457 0.847 2.563
1.480 0.944 2.794
1.494 0.974 3.124
1.131 0.111 0.160
1.145 0.246 0.458
0.988 0.419 0.412
1.360 0.014 0.788
1.216 0.236 0.699
0.998 0.471 0.658
1.514 0.207 0.649
1.426 0.419 0.656
1.213 0.639 0.691
1.618 0.181 0.908
1.490 0.442 0.907
1.340 0.647 0.891
1.770 0.076 1.215
1.697 0.315 1.215
1.544 0.548 1.153
1.345 0.713 1.173
1.819 0.139 1.438
1.757 0.323 1.498
1.527 0.553 1.417
1.463 0.795 1.400
1.947 0.109 1.744
1.744 0.398 1.768
1.577 0.633 1.748
1.500 0.786 1.714
2.017 0.183 1.954
1.774 0.428 1.987
1.692 0.665 1.963
1.569 0.867 1.964
1.823 0.449 2.207
1.683 0.742 2.256
1.573 0.956 2.212
1.743 0.796 2.520
1.626 1.044 2.502
1.642 1.008 2.756
1.708 1.125 3.009
2.635 0.189 4.182
2.771 0.228 4.432
2.904 0.098 4.726
1.493 0.082 0.411
1.354 0.317 0.392
1.570 0.204 0.654
1.407 0.374 0.707
1.255 0.623 0.611
1.957 0.037 0.600
1.782 0.285 0.599
1.628 0.534 0.545
1.994 0.097 0.864
1.887 0.380 0.891
1.695 0.569 0.801
1.562 0.864 0.817
2.058 0.213 1.157
1.845 0.426 1.142
1.785 0.631 1.139
1.629 0.830 1.101
2.255 -0.016 1.417
2.139 0.219 1.401
1.973 0.408 1.354
1.793 0.704 1.388
1.602 0.937 1.393
2.308 0.002 1.727
2.120 0.242 1.685
1.944 0.567 1.641
1.880 0.785 1.611
1.743 1.013 1.612
2.394 0.108 1.997
2.214 0.313 1.935
2.055 0.584 1.861
1.894 0.849 1.884
1.729 1.001 1.894
2.194 0.347 2.144
2.093 0.649 2.182
2.000 0.904 2.154
1.804 1.069 2.092
2.114 0.720 2.454
1.970 0.929 2.444
1.897 1.110 2.409
2.003 1.001 2.736
1.958 1.167 2.644
1.953 1.256 2.915
3.034 0.010 3.790
2.877 0.209 3.794
3.083 0.063 4.030
2.932 0.280 4.026
3.081 0.162 4.386
2.979 0.348 4.322
3.208 0.200 4.592
3.030 0.362 4.620
3.400 -0.005 4.929
3.251 0.210 4.827
3.390 0.057 5.181
1.891 0.061 0.405
1.965 0.078 0.669
1.789 0.298 0.651
1.602 0.478 0.600
2.181 0.166 0.560
1.963 0.397 0.501
2.310 0.048 0.801
2.165 0.306 0.823
2.087 0.497 0.833
1.936 0.755 0.808
2.368 0.073 1.068
2.227 0.367 1.094
2.142 0.589 1.063
1.953 0.761 1.018
1.815 1.005 1.013
2.465 0.155 1.396
2.306 0.406 1.310
2.200 0.625 1.261
2.027 0.879 1.297
1.865 1.102 1.231
2.465 0.237 1.646
2.409 0.410 1.606
2.177 0.683 1.594
2.072 0.877 1.558
1.928 1.109 1.553
2.765 0.027 1.846
2.600 0.222 1.926
2.394 0.456 1.850
2.258 0.709 1.819
2.123 0.942 1.777
1.972 1.221 1.766
2.465 0.542 2.109
2.339 0.795 2.125
2.198 0.969 2.127
1.982 1.254 2.087
2.429 0.825 2.315
2.237 1.076 2.373
2.113 1.265 2.297
2.170 1.356 2.647
3.195 0.166 3.768
3.059 0.358 3.752
3.235 0.213 3.957
3.127 0.462 3.956
2.958 0.704 3.918
3.441 -0.005 4.299
3.369 0.290 4.261
3.188 0.545 4.296
3.000 0.778 4.249
3.498 0.115 4.574
3.438 0.364 4.497
3.196 0.516 4.531
3.038 0.832 4.491
3.562 0.138 4.848
3.387 0.324 4.743
3.315 0.613 4.790
3.601 0.196 5.064
3.443 0.436 5.107
3.894 0.010 5.396
2.150 0.192 0.537
2.045 0.444 0.489
2.531 0.157 0.439
2.626 0.177 0.753
2.452 0.400 0.780
2.272 0.647 0.769
2.675 0.227 0.994
2.467 0.490 0.952
2.285 0.723 0.953
2.173 0.970 0.913
2.834 0.085 1.290
2.729 0.236 1.294
2.523 0.505 1.210
2.355 0.723 1.245
2.225 0.935 1.276
2.071 1.167 1.221
2.870 0.059 1.542
2.766 0.322 1.519
2.573 0.600 1.511
2.449 0.834 1.451
2.289 0.994 1.487
2.200 1.283 1.512
2.982 0.190 1.792
2.832 0.363 1.823
2.674 0.565 1.766
2.498 0.849 1.818
2.346 1.072 1.708
2.178 1.290 1.774
2.716 0.696 2.018
2.520 0.857 2.014
2.389 1.074 1.985
2.214 1.400 1.986
2.477 1.131 2.261
2.263 1.387 2.257
3.626 0.070 3.740
3.442 0.336 3.620
3.289 0.503 3.703
3.651 0.153 3.910
3.468 0.349 3.903
3.370 0.536 3.865
3.228 0.845 3.865
3.652 0.154 4.187
3.557 0.452 4.213
3.427 0.673 4.136
3.274 0.828 4.174
3.088 1.056 4.148
3.955 0.035 4.463
3.706 0.215 4.464
3.624 0.430 4.417
3.508 0.711 4.434
3.308 0.946 4.476
3.170 1.149 4.461
3.934 0.092 4.731
3.798 0.237 4.754
3.636 0.490 4.761
3.543 0.733 4.731
3.377 0.922 4.674
3.186 1.238 4.648
4.020 0.163 4.974
3.917 0.340 4.975
3.723 0.615 5.010
3.575 0.840 4.946
2.519 0.082 0.432
2.925 -0.021 0.447
2.937 0.113 0.664
2.805 0.279 0.647
2.649 0.557 0.658
2.988 0.123 1.005
2.845 0.327 0.967
2.683 0.548 0.921
2.513 0.878 0.911
3.094 0.239 1.180
2.872 0.407 1.166
2.720 0.623 1.186
2.656 0.859 1.158
2.502 1.102 1.187
3.202 0.009 1.481
3.119 0.290 1.452
2.939 0.479 1.502
2.838 0.726 1.409
2.664 0.942 1.469
2.503 1.189 1.465
3.335 0.027 1.736
3.183 0.255 1.712
3.029 0.501 1.680
2.859 0.719 1.735
2.702 0.980 1.638
2.602 1.226 1.675
2.444 1.409 1.627
3.844 0.171 3.637
3.628 0.443 3.639
3.514 0.655 3.591
3.363 0.864 3.607
3.991 -0.007 3.888
3.864 0.258 3.836
3.703 0.444 3.820
3.556 0.704 3.810
3.425 0.995 3.852
3.319 1.211 3.833
4.109 0.123 4.110
3.897 0.267 4.118
3.735 0.599 4.151
3.647 0.820 4.074
3.453 1.033 4.088
3.296 1.212 4.055
3.150 1.487 4.051
4.096 0.176 4.405
4.014 0.333 4.435
3.806 0.593 4.361
3.722 0.850 4.388
3.562 1.052 4.365
3.351 1.320 4.306
3.222 1.569 4.290
3.050 1.695 4.319
4.187 0.249 4.644
4.070 0.451 4.639
3.910 0.710 4.652
3.741 0.882 4.620
3.601 1.112 4.602
3.404 1.293 4.632
3.305 1.568 4.627
3.180 1.774 4.605
4.379 0.005 4.941
4.261 0.198 4.964
4.073 0.518 4.899
3.917 0.729 4.960
3.795 0.918 4.887
3.606 1.215 4.924
3.527 1.421 4.844
3.365 1.586 4.859
3.241 1.895 4.784
3.064 2.034 4.845
2.844 0.050 0.399
6.303 4.021 2.870
3.904 6.204 0.109
4.716 5.041 0.154
4.496 5.284 0.145
4.347 5.572 0.159
4.299 5.807 0.105
4.114 6.039 0.119
3.929 6.225 0.090
4.024 6.226 0.388
4.631 5.309 0.439
4.494 5.628 0.361
4.304 5.865 0.401
4.207 6.061 0.395
4.013 6.326 0.317
4.529 5.660 0.711
4.319 5.881 0.665
4.173 6.143 0.608
4.446 5.945 0.950
4.285 6.178 0.855
4.299 6.172 1.129
5.767 4.356 2.085
5.642 4.535 2.062
5.552 4.726 2.101
5.359 4.976 2.020
6.016 4.111 2.414
5.884 4.358 2.379
5.707 4.585 2.384
5.506 4.856 2.289
5.357 5.072 2.324
5.244 5.231 2.280
6.021 4.230 2.675
5.866 4.359 2.664
5.757 4.677 2.655
5.654 4.820 2.570
5.437 5.141 2.599
5.337 5.331 2.522
6.114 4.201 2.907
5.965 4.447 2.881
5.858 4.702 2.878
5.648 4.866 2.813
5.476 5.113 2.790
5.384 5.385 2.782
6.109 4.281 3.153
6.033 4.471 3.098
5.858 4.760 3.128
5.659 4.933 3.172
5.568 5.251 3.089
5.424 5.474 3.081
6.181 4.350 3.381
6.076 4.576 3.435
5.875 4.846 3.343
5.817 4.990 3.356
5.608 5.307 3.319
6.263 4.439 3.708
6.101 4.653 3.711
5.918 4.890 3.689
5.865 5.114 3.679
6.148 4.684 3.992
6.049 4.953 3.952
6.239 4.679 4.194
4.761 5.428 0.123
4.648 5.703 0.097
4.495 5.922 0.109
4.311 6.113 0.084
4.678 5.758 0.280
4.552 5.967 0.298
4.406 6.197 0.301
4.614 6.001 0.606
4.481 6.290 0.543
5.820 4.581 1.462
5.936 4.382 1.729
5.796 4.670 1.785
5.629 4.882 1.684
5.554 5.043 1.683
6.116 4.230 2.020
5.992 4.475 1.993
5.909 4.705 1.999
5.716 4.915 1.989
5.561 5.170 1.974
5.435 5.341 2.002
6.248 4.239 2.333
6.076 4.526 2.285
5.915 4.699 2.249
5.738 4.987 2.224
5.658 5.203 2.285
5.485 5.385 2.246
6.328 4.346 2.613
6.146 4.509 2.553
5.944 4.824 2.532
5.862 5.055 2.546
5.654 5.203 2.459
5.540 5.438 2.441
6.207 4.579 2.780
6.017 4.788 2.771
5.863 5.020 2.756
5.758 5.326 2.719
5.594 5.472 2.738
6.193 4.647 3.034
6.060 4.870 3.094
5.917 5.131 3.094
5.756 5.397 2.979
6.167 4.903 3.352
5.949 5.180 3.357
6.205 4.989 3.634
4.728 6.040 0.194
6.184 4.173 1.136
6.082 4.391 1.127
5.955 4.618 1.127
6.144 4.478 1.484
5.981 4.722 1.439
5.799 4.890 1.415
5.743 5.190 1.363
6.158 4.505 1.728
6.011 4.731 1.659
5.926 4.977 1.653
5.795 5.167 1.621
6.228 4.525 1.919
6.091 4.782 1.924
5.971 5.088 1.965
5.755 5.214 1.882
5.625 5.509 1.918
6.120 4.906 2.226
6.054 5.121 2.131
5.893 5.300 2.165
5.657 5.571 2.150
6.150 4.861 2.447
6.035 5.112 2.485
5.907 5.387 2.454
5.805 5.593 2.435
6.217 5.002 2.776
6.140 5.160 2.731
5.963 5.374 2.736
6.172 5.241 2.989
6.291 4.089 0.012
6.115 4.358 0.361
6.222 4.457 0.620
6.104 4.703 0.550
6.222 4.539 0.830
6.085 4.728 0.863
5.926 4.928 0.763
6.110 4.748 1.099
5.964 4.988 1.111
5.895 5.282 1.054
6.212 4.862 1.322
6.103 5.059 1.309
5.912 5.246 1.345
6.278 4.903 1.588
6.156 5.113 1.634
5.981 5.331 1.597
5.880 5.544 1.591
6.200 5.177 1.840
6.076 5.390 1.781
5.915 5.670 1.845
6.278 5.228 2.071
6.067 5.475 2.040
5.979 5.678 2.034
6.325 5.302 2.429
6.180 5.492 2.380
6.246 4.761 0.239
6.235 4.816 0.492
6.128 4.998 0.514
6.239 5.153 0.681
6.076 5.353 0.741
6.188 5.194 1.001
6.065 5.359 0.975
5.983 5.649 0.907
6.093 5.421 1.253
5.998 5.715 1.269
6.250 5.486 1.465
6.100 5.713 1.448
6.232 5.595 1.711
6.142 5.735 1.720
6.314 5.429 0.665
6.125 5.682 0.584
6.130 5.732 0.866
6.267 5.837 1.137
6.118 5.981 1.117
