1.148 3.323 0.264
3.804 3.984 3.654
3.614 3.932 3.666
3.527 4.274 3.329
3.221 4.127 2.760
3.350 3.792 2.818
3.354 4.213 2.574
3.155 3.519 2.755
2.130 3.231 1.300
2.192 3.173 1.037
2.016 3.021 0.971
1.964 3.214 0.520
1.531 3.297 0.083
1.180 3.357 0.199
4.270 3.878 3.332
4.027 3.734 3.539
3.588 4.098 3.001
3.395 4.017 3.037
3.539 3.920 2.847
3.259 3.518 2.631
3.564 3.279 2.474
2.759 3.090 1.419
2.598 2.972 1.021
2.032 3.198 1.047
2.184 3.257 0.341
1.697 2.818 0.502
1.869 2.735 0.411
1.808 2.917 -0.027
4.408 3.947 3.852
4.090 3.763 3.648
4.123 3.617 3.263
4.016 3.711 3.287
3.802 3.712 2.945
3.346 3.549 2.635
3.720 3.653 2.209
3.872 3.364 2.439
2.525 3.020 1.123
2.511 2.774 0.645
2.125 2.833 0.449
1.815 3.017 0.327
1.739 2.949 0.272
4.629 3.498 3.632
4.434 3.817 3.017
3.874 3.352 3.166
4.022 3.713 2.760
3.642 3.167 2.457
3.443 3.532 2.289
4.013 2.987 2.575
2.811 2.852 0.912
2.482 2.589 0.919
2.133 2.511 0.193
2.477 2.696 0.194
1.994 2.374 0.195
4.270 3.443 3.045
4.599 3.600 2.930
4.297 3.395 2.780
4.207 3.122 2.976
3.707 3.092 2.724
3.819 3.400 2.113
3.780 3.176 2.390
2.935 2.575 0.404
2.456 2.384 0.510
2.396 2.199 0.352
4.575 3.346 3.055
4.227 3.050 3.027
4.377 3.223 2.564
3.863 2.857 2.620
3.668 3.236 2.111
0.970 6.032 3.271
0.584 5.919 3.141
0.288 5.889 3.275
0.514 5.912 2.616
0.913 6.395 3.791
0.907 6.190 3.242
0.658 5.768 3.098
0.699 5.700 2.786
0.268 6.189 3.027
0.334 5.700 2.345
1.179 5.842 3.735
0.984 5.804 3.579
0.849 5.868 3.168
1.102 5.782 3.207
0.895 5.786 2.915
0.777 5.748 2.640
0.630 5.711 2.369
1.211 5.952 3.365
1.644 5.474 3.669
1.027 5.741 3.226
1.374 5.602 3.231
1.063 5.367 2.564
0.762 5.580 2.694
0.436 5.520 2.257
0.457 5.307 2.210
2.044 5.859 4.378
1.150 5.880 3.149
0.957 5.350 3.111
0.825 5.245 3.370
0.982 5.346 3.206
0.451 5.285 2.506
0.562 5.108 2.587
0.580 5.155 2.167
2.375 6.051 4.542
1.049 5.207 3.353
1.184 5.318 3.338
1.214 5.352 2.674
0.767 4.891 2.576
0.479 5.009 2.719
2.232 5.650 4.526
1.514 5.311 3.023
1.406 5.370 3.049
1.008 5.084 2.771
0.884 4.784 2.503
2.488 5.401 4.913
1.369 5.071 2.849
1.193 4.969 2.573
0.532 4.433 1.044
0.141 4.280 1.028
0.630 3.794 1.173
0.030 4.262 0.478
-0.053 3.877 0.249
0.839 3.938 0.923
0.699 4.074 0.946
0.622 3.857 0.831
0.471 3.583 0.489
-0.026 3.506 -0.019
1.226 3.839 0.911
1.167 3.854 0.919
0.990 3.493 0.878
0.714 3.831 0.447
0.315 3.600 0.459
1.654 3.942 1.245
1.123 3.770 1.221
1.199 3.659 1.121
1.027 3.696 0.530
1.032 3.742 0.683
0.364 3.229 0.100
1.587 3.293 1.235
1.817 3.778 1.095
1.352 3.726 1.265
1.485 3.308 0.763
1.291 3.335 0.518
1.122 3.536 0.301
3.174 3.962 3.261
2.923 3.869 3.427
1.807 3.480 1.503
1.839 3.220 1.224
1.842 3.432 1.307
1.849 3.069 1.064
1.384 3.374 0.840
1.329 3.110 0.775
1.238 2.989 0.237
3.786 3.710 3.758
3.529 3.918 3.379
3.311 4.028 3.429
3.174 4.013 3.117
2.061 3.167 1.324
2.346 3.336 1.265
1.705 2.942 0.837
2.027 3.330 0.595
1.743 3.179 0.759
1.355 2.945 0.578
1.185 2.652 0.056
3.709 4.078 3.683
3.815 3.946 3.499
3.782 3.502 3.058
3.438 3.520 3.176
3.576 3.602 3.106
2.387 3.070 1.234
2.500 2.908 1.077
2.086 2.991 1.168
2.094 2.731 0.540
1.560 3.057 0.442
1.580 2.765 0.154
4.106 3.734 3.619
4.366 3.657 3.502
3.648 3.606 3.567
3.742 3.673 3.225
3.700 3.569 3.070
3.368 3.333 2.937
3.292 3.453 2.610
2.247 2.662 1.174
2.374 2.590 1.022
2.217 2.599 0.830
1.830 2.908 0.684
2.056 2.521 0.503
4.350 3.403 3.684
4.494 3.237 3.459
4.284 3.526 3.354
3.997 3.601 3.277
3.622 3.229 2.993
3.826 3.417 2.601
3.228 2.972 2.511
3.767 3.030 2.684
2.282 2.550 0.859
2.329 2.435 0.638
2.263 2.361 0.502
1.799 2.493 0.200
4.832 3.512 3.871
4.672 3.369 3.374
4.161 3.477 3.481
4.398 3.270 3.130
4.169 2.982 2.932
3.535 3.358 2.571
3.701 3.108 2.509
3.824 2.803 2.322
2.414 2.451 0.717
2.275 2.429 0.437
4.571 3.070 3.149
4.325 2.941 3.215
4.388 2.902 2.789
4.367 2.713 2.838
3.743 3.019 2.397
4.021 3.066 2.138
0.287 6.353 3.647
0.169 6.273 3.473
0.257 6.356 3.361
0.756 6.336 3.941
0.640 5.877 3.805
0.394 6.208 3.618
0.484 6.091 3.397
0.018 5.969 3.188
1.019 6.147 4.094
0.789 6.005 4.005
0.611 5.783 3.595
0.692 5.893 3.112
0.476 5.854 3.003
0.256 5.649 2.823
-0.100 5.426 2.954
-0.239 5.788 2.408
1.141 5.804 3.741
1.178 5.847 3.479
0.674 5.474 3.233
0.973 5.924 3.082
0.666 5.517 2.983
0.754 5.273 2.621
0.547 5.446 2.512
-0.094 5.505 2.663
1.151 5.865 3.507
1.231 5.787 3.135
0.782 5.195 3.367
0.677 5.607 2.738
0.877 5.573 2.547
0.542 5.140 2.821
0.197 5.045 2.109
2.088 5.915 4.803
1.176 5.588 3.676
0.686 5.405 3.165
0.437 5.334 3.154
0.791 5.444 2.727
0.447 4.925 2.467
0.458 5.341 2.254
1.813 5.670 4.774
0.730 5.026 2.966
1.010 4.924 2.739
0.508 4.993 2.980
0.670 4.947 2.363
2.236 5.260 5.037
2.604 5.072 4.803
2.314 5.121 4.470
0.338 4.145 1.199
0.577 4.051 1.394
0.196 3.875 1.165
0.023 3.554 0.927
0.796 3.790 1.520
0.846 3.862 1.299
0.374 3.878 1.003
0.361 3.787 0.704
-0.118 3.426 0.418
0.072 3.545 0.148
1.381 3.515 1.341
1.062 3.736 1.242
0.726 3.863 0.847
0.417 3.806 0.720
0.678 3.640 0.790
0.245 3.300 0.209
0.040 3.184 0.555
1.291 3.701 1.840
1.520 3.224 1.371
0.934 3.482 1.128
0.764 3.339 0.953
0.941 3.566 0.804
0.463 3.265 0.403
0.703 3.234 0.155
1.760 3.604 1.818
1.653 3.107 1.463
1.445 3.574 1.454
1.092 3.322 0.963
0.853 3.023 0.922
0.988 3.367 0.466
0.593 2.851 0.618
0.673 3.201 0.182
2.048 3.094 1.633
1.946 3.032 1.505
1.722 3.400 1.487
1.428 3.316 1.165
1.274 3.310 1.056
0.963 2.919 0.444
0.877 3.175 0.739
1.829 2.896 1.713
2.133 3.162 1.118
1.992 2.690 1.271
1.772 2.757 0.927
1.673 2.570 0.974
1.182 2.751 0.652
1.079 2.537 0.610
3.726 3.410 4.079
3.450 3.649 3.645
3.426 3.372 3.358
3.590 3.663 3.410
2.352 3.090 1.714
2.289 2.544 1.464
2.176 2.566 0.885
1.682 2.720 0.821
1.360 2.774 0.901
1.219 2.816 0.729
4.164 3.294 4.097
3.932 3.577 3.986
3.754 3.366 3.825
3.670 3.541 3.156
3.224 3.370 2.920
3.220 3.040 3.011
3.205 2.763 2.734
2.038 2.530 0.973
1.872 2.328 1.271
1.827 2.490 0.789
1.542 2.711 0.622
4.430 3.590 4.098
3.991 3.427 3.483
4.242 3.419 3.616
3.952 3.366 3.198
3.655 3.415 3.088
3.629 2.918 3.089
3.643 3.176 2.714
3.344 2.899 2.521
4.410 3.320 3.998
4.559 3.162 3.649
4.018 3.335 3.272
3.994 3.032 3.469
4.036 2.959 2.987
3.556 2.934 3.050
3.713 2.888 2.823
3.903 2.916 2.393
3.663 2.676 2.194
4.822 3.097 3.616
4.293 3.001 3.788
4.190 2.629 3.572
4.136 2.708 3.010
4.175 2.608 3.098
3.944 2.803 2.884
3.806 2.582 2.732
0.074 6.011 3.954
0.278 6.198 4.129
0.089 5.842 3.585
0.440 6.050 3.416
0.047 5.864 3.547
0.708 5.982 3.974
0.713 5.952 4.205
0.854 6.138 3.843
0.599 5.961 3.870
0.618 6.045 3.680
0.332 5.902 3.135
0.240 5.506 2.906
0.940 5.831 4.119
0.547 5.911 4.048
0.829 5.619 4.116
0.803 5.987 3.920
0.693 5.821 3.258
0.444 5.875 3.281
0.011 5.661 3.005
-0.054 5.399 2.569
0.747 5.851 3.657
0.789 5.416 3.599
0.745 5.599 3.359
0.817 5.647 3.490
0.238 5.165 3.165
0.503 5.595 2.885
0.406 5.505 2.781
0.275 5.202 2.839
1.077 5.642 3.705
0.780 5.434 3.695
0.920 5.489 3.465
0.910 5.072 3.161
0.547 4.959 2.946
0.297 5.354 2.486
0.423 4.927 2.363
2.147 5.958 4.780
0.449 5.030 3.635
0.536 5.302 3.117
0.501 5.035 2.957
0.379 4.708 2.607
0.084 5.069 2.552
1.713 5.592 4.802
0.702 4.748 3.338
0.644 4.622 2.930
1.889 5.072 5.191
2.199 5.029 4.874
2.069 4.857 4.936
2.243 5.135 4.640
2.163 4.780 4.859
-0.032 4.177 1.111
2.780 5.082 4.857
0.422 3.748 1.709
0.052 3.509 1.281
-0.109 3.455 1.099
0.247 3.605 0.830
0.696 3.636 1.840
0.402 3.615 1.527
0.524 3.519 1.196
0.323 3.334 1.103
0.115 3.758 0.855
-0.166 3.491 0.908
1.339 3.573 1.664
0.939 3.555 1.446
0.921 3.199 1.361
0.812 3.167 1.352
0.433 3.115 0.762
0.497 3.050 0.577
-0.075 3.213 0.772
-0.094 2.903 0.179
1.263 3.498 2.106
1.572 3.398 1.524
1.353 3.235 1.738
0.954 3.405 1.261
0.891 2.980 1.059
0.864 3.133 1.236
0.414 2.926 0.731
0.104 3.233 0.427
1.616 3.047 2.017
1.459 3.082 1.673
1.386 3.279 1.808
1.573 3.033 1.521
1.379 2.948 1.218
1.154 2.865 1.006
0.949 2.877 0.629
0.644 2.864 0.721
0.278 2.656 0.550
1.700 3.286 1.779
1.613 3.229 1.702
1.784 3.174 1.748
1.430 2.703 1.437
1.529 2.966 1.457
1.032 2.675 0.796
0.751 2.685 0.968
0.697 2.731 0.598
1.737 3.124 1.840
1.763 2.894 1.363
1.399 2.516 1.620
1.274 2.940 0.983
1.261 2.450 1.131
0.938 2.332 0.674
3.369 3.465 3.979
3.633 3.110 3.744
2.178 2.566 1.597
1.776 2.480 1.600
1.573 2.763 1.383
1.778 2.593 0.927
1.248 2.506 0.807
3.826 3.094 4.123
3.625 3.514 3.992
3.822 3.004 3.989
3.614 3.415 3.606
3.423 2.957 3.260
2.153 2.296 1.169
2.040 2.110 1.168
3.942 2.889 4.127
3.927 3.131 3.910
3.611 3.108 3.658
3.850 3.157 3.610
3.558 2.865 3.153
3.336 2.977 2.773
3.576 2.506 2.550
4.147 3.062 4.142
4.430 3.061 3.841
3.827 2.784 3.547
3.678 3.064 3.498
3.981 2.826 3.148
3.329 2.710 2.682
3.466 2.796 2.698
3.378 2.481 2.402
3.422 2.650 2.389
4.754 2.625 3.832
4.321 2.596 3.915
3.973 2.709 3.201
4.166 2.898 3.052
3.688 2.698 3.228
3.635 2.715 2.701
3.820 2.244 2.813
0.277 5.982 4.188
-0.009 6.149 4.251
0.334 6.239 4.654
0.612 6.412 4.346
0.435 5.909 4.272
0.256 5.838 3.966
0.378 5.964 3.886
-0.058 5.801 3.935
0.386 5.920 4.320
0.202 5.825 4.108
0.237 5.856 4.368
0.592 5.799 3.710
0.269 5.581 3.873
0.140 5.475 3.483
0.804 5.748 4.583
0.461 5.579 3.862
0.820 5.372 4.152
0.551 5.487 3.720
0.318 5.567 3.584
-0.053 5.261 3.382
0.002 5.332 3.381
0.689 5.370 4.287
0.579 5.294 3.791
0.634 5.038 3.683
0.502 5.317 3.046
0.368 5.316 3.109
0.031 5.235 2.781
0.897 4.849 3.426
0.641 4.977 3.484
0.276 4.759 2.767
0.539 4.671 3.096
-0.177 4.802 2.613
2.211 5.751 5.082
0.258 5.116 3.194
0.544 4.954 2.971
0.163 4.524 3.005
2.112 5.531 5.401
1.726 5.391 4.911
1.575 4.952 5.003
2.426 4.836 5.196
1.842 4.734 4.652
2.073 5.050 5.091
2.212 4.826 4.991
2.254 4.710 5.184
2.149 4.516 4.821
0.606 3.726 1.853
0.195 3.672 1.331
-0.123 3.510 1.613
2.858 4.262 4.555
0.629 3.794 2.311
0.518 3.468 1.738
0.642 3.731 1.666
0.291 3.619 1.537
0.458 3.075 1.386
0.045 3.448 0.814
1.028 3.698 2.153
1.222 3.640 1.720
0.657 3.146 1.918
0.893 3.514 1.803
0.615 3.461 1.287
0.146 3.307 1.236
0.205 2.876 1.003
0.345 3.204 0.792
1.769 3.128 2.092
1.591 3.326 2.295
1.000 3.341 1.657
0.785 3.421 1.490
0.776 3.356 1.523
0.913 2.964 1.089
0.568 2.855 1.280
0.604 3.201 0.665
0.525 2.901 0.604
1.780 2.845 2.520
1.672 2.858 1.881
1.587 3.185 1.735
0.966 2.957 1.679
0.899 2.775 1.515
0.992 2.647 1.344
0.810 2.689 1.113
0.382 2.641 0.684
2.048 3.007 2.247
1.715 2.924 2.095
1.287 3.093 1.767
1.493 2.719 1.680
1.240 2.736 1.619
1.321 2.446 1.147
0.848 2.419 0.861
1.947 2.719 1.963
2.038 2.727 1.614
1.472 2.880 1.640
1.647 2.495 1.654
1.449 2.360 1.362
1.084 2.552 1.167
1.837 2.484 1.632
1.663 2.682 1.870
1.779 2.157 1.166
1.550 2.091 1.330
3.751 3.351 4.221
3.816 3.313 4.056
3.357 3.095 3.722
3.510 2.874 3.719
3.837 2.772 3.989
4.017 2.968 4.049
3.789 2.652 3.890
3.298 2.996 3.526
3.467 2.929 3.127
4.191 3.007 4.278
3.931 2.649 3.961
3.706 2.839 3.570
3.491 2.927 3.316
3.478 2.613 3.484
3.342 2.428 3.095
3.443 2.416 2.764
4.138 2.653 3.796
4.104 2.440 4.013
4.331 2.616 3.410
3.922 2.253 3.424
3.684 2.155 3.202
3.379 2.498 3.106
3.471 2.361 2.753
-0.022 6.131 4.892
-0.028 6.292 4.566
0.338 5.707 4.150
0.697 5.823 4.770
0.228 6.052 5.076
0.336 6.139 4.590
0.281 5.713 4.320
0.212 5.871 4.587
-0.194 5.680 3.881
0.166 5.802 4.801
-0.003 5.513 4.114
0.657 5.479 3.976
0.074 5.446 3.793
-0.167 5.552 3.827
0.305 5.596 4.236
0.572 5.319 3.850
0.281 5.514 3.662
-0.066 5.107 3.287
0.558 4.857 3.651
0.552 4.785 3.714
0.032 5.073 3.314
0.295 5.033 3.162
0.058 4.556 3.034
0.016 4.870 2.912
1.713 5.553 5.483
0.304 4.821 3.540
-0.000 4.343 3.307
1.428 5.266 5.515
1.993 4.860 5.128
1.996 5.078 4.872
1.834 4.931 5.370
2.078 4.650 5.153
1.765 4.770 4.898
2.207 4.712 5.391
2.334 4.546 4.925
2.103 4.759 4.617
1.617 4.549 4.704
2.645 4.567 5.114
2.354 4.203 4.870
2.070 4.456 4.423
1.952 4.023 4.210
0.306 3.608 1.723
2.718 4.431 5.140
2.478 4.148 4.627
2.307 3.902 4.469
0.808 3.399 2.377
0.826 3.508 2.230
0.376 3.153 2.095
0.123 3.070 1.386
0.336 3.335 1.262
1.567 3.099 2.696
0.912 3.237 2.829
1.115 3.186 2.590
0.644 3.455 2.347
0.988 2.912 1.667
0.490 2.868 2.014
0.391 2.769 1.767
-0.006 3.071 1.183
0.051 2.932 0.943
1.861 3.296 2.927
1.703 3.044 2.516
1.509 2.880 2.598
1.171 2.893 2.218
1.214 3.263 2.044
0.668 2.716 2.135
0.635 2.863 1.705
0.836 3.113 1.590
0.527 2.952 1.024
0.414 2.583 1.057
1.729 2.763 2.865
1.527 3.123 2.470
1.599 2.749 2.509
1.509 2.666 2.398
1.419 3.004 1.835
0.927 2.744 1.803
0.896 2.757 1.322
0.873 2.821 1.298
0.814 2.869 0.977
1.809 3.083 2.264
1.850 2.994 2.263
1.668 2.861 1.855
1.243 2.653 1.647
0.991 2.836 1.834
0.903 2.810 1.330
0.956 2.623 1.537
1.620 2.756 1.963
1.684 2.514 2.276
1.510 2.756 1.621
1.190 2.241 1.798
1.186 2.271 1.659
1.610 2.352 2.216
1.684 2.423 2.004
1.712 2.023 1.713
3.597 2.911 4.373
3.348 3.002 4.166
3.694 2.996 4.074
4.035 2.732 4.283
3.595 2.888 4.378
3.713 2.504 4.199
3.595 2.850 3.608
4.011 2.577 3.986
3.906 2.332 4.248
3.856 2.780 3.695
3.459 2.431 3.639
3.312 2.568 3.370
4.076 2.520 4.431
4.014 2.417 3.714
4.066 2.061 3.810
3.687 2.133 3.794
3.619 2.452 3.421
3.207 2.059 3.367
0.285 6.001 5.399
0.450 6.427 5.442
-0.035 6.077 5.397
-0.086 6.251 4.804
0.197 5.844 5.062
0.341 5.638 4.813
0.176 5.491 4.536
0.251 5.664 4.220
0.315 5.473 4.447
0.278 5.140 3.609
0.063 4.694 3.593
0.180 4.549 3.248
-0.095 4.823 3.280
1.517 5.079 5.566
1.770 4.831 5.404
1.612 4.892 5.549
1.709 4.483 5.476
1.236 4.457 4.770
2.196 4.632 5.472
1.988 4.320 5.026
1.351 4.660 4.854
1.704 4.484 5.019
2.345 4.166 5.213
1.836 4.295 5.335
1.999 4.168 5.011
1.584 4.371 4.586
1.720 4.399 4.371
2.513 4.158 5.154
2.123 4.366 4.871
1.946 4.384 4.661
1.576 4.120 4.763
1.615 4.103 4.354
1.435 4.256 3.884
2.511 4.000 5.352
2.071 4.160 4.886
2.198 4.096 4.774
2.020 3.939 4.514
2.086 4.070 4.297
1.744 3.622 4.010
1.899 3.644 4.086
1.357 3.318 3.400
1.329 3.744 3.629
1.202 3.342 3.159
1.055 3.318 3.148
1.017 3.375 2.905
0.950 3.243 2.790
0.372 3.351 2.400
0.443 3.077 1.937
0.036 3.375 1.881
0.056 3.265 1.670
2.483 3.770 4.829
2.273 4.108 4.564
2.350 4.062 4.739
2.408 3.610 4.579
2.106 3.482 4.312
2.025 3.752 3.899
1.599 3.519 3.913
1.563 3.407 3.682
1.392 3.342 3.119
1.451 3.413 3.203
1.273 2.979 3.116
1.178 3.220 2.855
1.090 3.209 2.765
0.959 3.105 2.313
0.777 2.857 2.128
0.612 2.634 1.712
0.295 2.792 1.833
0.269 2.624 1.404
1.929 3.081 3.345
1.768 3.255 3.311
1.752 3.255 3.029
1.667 3.092 2.895
1.106 2.946 2.631
1.256 2.719 2.306
0.843 2.865 2.238
0.578 2.906 2.183
0.562 2.722 1.719
0.213 2.624 1.848
0.297 2.341 1.280
1.644 2.658 3.285
1.564 3.089 2.962
1.687 2.865 2.640
1.643 2.490 2.808
1.330 2.500 2.516
1.035 2.626 2.192
1.170 2.774 1.899
0.940 2.594 1.524
0.791 2.235 1.616
1.785 2.822 2.623
1.880 2.488 2.670
1.579 2.299 2.288
1.588 2.569 2.327
1.423 2.598 1.847
1.190 2.349 1.722
0.958 2.112 1.369
1.995 2.543 2.463
1.547 2.338 2.654
1.478 2.170 1.962
1.651 2.198 2.101
1.047 1.956 1.785
1.531 2.018 2.330
3.398 2.954 4.511
4.061 2.525 4.235
3.661 2.324 4.385
3.726 2.413 4.108
0.683 1.351 -0.115
4.049 2.302 4.550
3.522 2.557 4.115
3.387 2.203 3.851
3.683 2.121 3.512
0.833 1.053 0.418
0.633 1.056 -0.169
4.215 2.358 4.219
3.724 2.184 3.920
4.006 1.939 3.677
3.852 1.870 3.768
3.489 2.086 3.676
0.398 6.358 6.253
-0.045 6.481 5.906
-0.080 5.916 5.702
0.720 6.176 6.147
0.590 6.297 5.579
0.478 6.171 5.824
0.195 5.644 5.399
1.450 5.052 5.348
1.278 4.650 5.907
1.555 4.807 5.633
1.051 4.603 5.046
1.777 4.743 5.505
1.405 4.457 5.348
1.100 4.802 5.240
0.934 4.605 4.711
1.613 4.436 5.472
1.631 4.495 5.180
1.230 4.100 5.131
1.320 4.113 4.684
1.108 4.502 4.790
2.145 4.111 5.365
2.057 4.492 5.400
1.884 4.098 5.036
1.641 4.062 4.716
1.337 4.007 4.697
1.220 3.732 4.480
1.178 3.894 3.974
1.966 3.944 5.338
2.199 3.951 5.010
1.536 3.730 4.816
1.614 3.714 4.856
1.708 3.607 4.775
1.308 3.738 4.043
1.083 3.640 4.150
1.620 3.392 3.960
1.225 3.704 3.852
1.125 3.385 3.824
2.104 3.902 5.401
1.894 4.009 5.213
1.788 4.035 5.100
1.818 3.479 4.576
1.910 3.976 4.640
1.795 3.720 4.413
1.443 3.637 4.307
1.520 3.668 3.994
1.604 3.250 3.687
1.104 3.286 3.784
1.117 3.226 3.256
0.748 3.187 2.870
0.831 2.946 2.914
2.247 3.738 5.153
2.005 3.512 5.036
2.110 3.291 4.783
1.888 3.750 4.596
1.475 3.424 4.222
1.273 3.190 3.864
1.462 2.953 3.801
1.758 2.882 3.668
1.388 2.861 3.506
1.344 2.936 2.989
0.841 2.754 3.191
0.654 2.730 3.123
0.965 3.010 2.532
0.389 2.690 2.236
0.314 2.896 2.212
1.966 3.286 4.167
1.588 3.181 3.883
1.825 3.417 3.660
2.164 2.782 3.951
1.605 2.857 3.416
1.735 2.750 3.433
1.188 2.821 3.106
1.480 2.547 2.732
0.832 2.622 2.955
1.190 2.822 2.369
0.717 2.771 2.112
0.874 2.735 2.085
0.298 2.798 1.736
1.852 3.116 4.036
2.124 2.939 3.705
1.972 2.692 3.373
1.392 2.621 2.964
1.278 2.468 2.608
1.094 2.615 2.534
0.915 2.523 2.756
0.846 2.276 2.468
0.915 2.272 2.038
0.470 2.150 2.142
1.856 2.500 3.273
1.590 2.656 3.023
1.829 2.210 2.856
1.697 2.602 2.768
1.473 2.567 2.166
0.898 2.402 1.952
0.979 2.443 1.888
1.998 2.249 3.190
1.523 2.549 2.816
1.346 1.988 2.396
1.592 2.003 2.401
1.275 2.272 2.167
1.748 1.850 2.752
1.599 2.262 2.715
1.528 1.721 2.176
0.171 1.244 0.202
3.272 2.635 4.655
0.388 1.127 0.492
0.502 1.266 -0.019
3.411 2.637 4.369
3.787 2.412 4.172
0.924 1.416 0.268
0.599 1.052 0.369
0.483 1.118 -0.253
3.618 2.400 4.453
3.812 1.956 4.091
3.552 2.380 4.065
1.235 1.298 0.763
1.062 0.952 0.148
0.682 0.838 0.084
4.011 1.842 4.384
4.053 2.003 4.153
3.946 1.960 4.088
3.366 2.034 3.751
0.130 6.377 6.025
-0.169 6.294 6.062
1.669 5.049 5.436
1.430 4.819 5.479
1.346 4.473 5.264
1.459 4.436 5.674
1.421 4.646 5.537
0.829 4.694 5.529
0.851 4.291 5.140
1.720 4.288 5.618
1.368 4.337 5.599
1.336 4.101 5.224
1.255 4.013 5.252
0.936 3.986 4.684
1.536 4.402 5.547
1.628 4.247 5.711
1.105 4.007 5.320
1.373 4.095 5.227
1.324 4.071 4.571
0.672 3.769 4.730
0.716 3.770 4.160
1.907 4.160 5.497
1.543 3.931 5.161
1.278 4.053 5.088
1.388 3.953 4.789
1.427 3.674 4.730
1.243 3.875 4.657
0.715 4.027 4.425
1.121 3.754 4.255
0.705 3.617 4.051
1.889 3.735 5.625
1.859 3.871 5.397
1.864 3.640 4.867
1.581 3.726 4.855
1.579 3.488 4.890
1.291 3.884 4.731
0.854 3.826 4.148
1.506 3.476 4.367
1.352 3.216 3.778
0.893 3.433 3.551
0.570 3.303 3.396
1.902 3.444 5.183
1.817 3.853 4.913
1.826 3.485 4.719
1.433 3.508 4.626
1.437 3.756 4.599
1.245 3.310 4.281
1.428 3.184 4.260
1.472 2.956 3.879
1.540 3.166 3.965
0.837 3.218 3.627
0.672 3.032 3.208
0.541 3.072 3.365
0.547 3.111 3.277
1.902 3.220 5.138
2.109 3.346 4.945
1.608 3.179 4.777
1.794 3.523 4.285
1.297 3.195 4.523
1.490 2.952 4.363
1.350 2.889 4.247
1.698 2.878 3.707
1.424 3.096 3.583
1.139 2.795 3.135
1.054 2.550 3.408
0.807 2.839 2.778
0.731 2.610 2.987
2.226 3.235 4.750
1.686 3.410 4.183
1.855 3.259 4.247
1.622 3.029 4.037
1.648 3.094 4.077
1.418 2.721 3.724
1.706 2.523 3.505
1.187 2.521 3.131
0.927 2.773 3.394
1.102 2.616 3.102
0.775 2.619 2.950
0.820 2.620 2.756
2.013 2.728 4.280
1.808 2.859 3.761
2.068 2.749 3.559
1.978 2.861 3.355
1.438 2.637 3.265
1.392 2.263 3.103
1.343 2.373 2.840
1.349 2.493 3.038
1.047 2.586 2.703
0.572 2.041 2.172
1.930 2.456 4.076
1.928 2.363 3.704
1.913 2.329 3.142
1.351 2.121 3.403
1.351 2.249 3.081
1.221 2.506 2.457
1.423 2.343 2.438
1.260 2.126 2.178
1.766 2.317 2.993
1.885 2.152 3.058
1.486 2.174 2.712
1.330 2.219 2.699
1.096 1.814 2.588
1.065 2.204 2.443
1.771 1.778 3.066
1.599 1.790 2.655
1.896 1.719 2.683
1.579 1.781 2.203
0.111 1.492 0.806
3.357 2.406 4.802
0.446 1.150 0.880
0.437 0.861 0.549
0.195 1.059 0.056
3.803 2.405 4.491
3.162 2.118 4.503
0.532 0.970 0.543
0.585 0.877 0.303
0.710 0.694 0.182
0.541 0.985 0.230
3.745 2.041 4.499
3.747 1.811 4.379
1.360 1.209 0.975
1.221 1.062 0.718
0.844 1.041 0.578
0.720 0.920 0.419
0.673 0.730 -0.172
3.584 1.971 4.629
3.611 2.103 4.312
1.601 4.390 5.775
1.441 4.434 5.643
1.214 4.760 5.660
1.068 4.492 5.275
0.996 4.204 5.883
0.796 4.320 6.004
0.702 4.281 5.493
0.806 4.215 5.610
0.570 4.437 5.371
1.621 4.366 6.120
1.067 3.968 5.437
0.858 3.956 5.395
1.146 4.019 5.327
0.886 3.936 4.987
0.812 4.145 5.001
0.497 3.968 4.309
1.517 4.368 5.724
1.349 3.889 5.718
1.378 3.827 5.305
1.082 4.114 5.107
0.958 3.978 5.245
0.750 4.087 4.526
0.736 4.014 4.490
0.609 3.535 4.315
0.684 3.607 4.500
1.518 3.863 5.533
1.787 3.922 5.341
1.329 4.026 5.537
1.500 4.024 5.176
0.820 3.511 5.097
0.956 3.604 4.651
0.909 3.646 4.433
0.949 3.664 4.576
0.941 3.416 4.172
1.918 3.734 5.444
1.945 3.903 5.407
1.544 3.529 5.286
1.657 3.376 5.164
1.279 3.342 5.015
1.153 3.741 4.784
1.045 3.386 4.564
1.259 2.997 4.449
0.901 3.384 4.145
0.924 2.956 3.858
0.687 3.081 3.735
1.749 3.750 5.152
1.846 3.595 4.865
1.493 3.319 4.832
1.293 3.555 4.784
1.105 3.406 4.241
1.335 3.447 4.297
1.520 2.989 4.502
1.377 3.123 3.886
0.820 2.874 4.101
0.682 2.904 3.875
0.487 3.109 3.613
2.172 3.217 4.860
1.708 3.403 4.720
1.445 3.376 4.632
1.389 3.169 4.165
1.184 3.175 4.132
1.225 2.894 4.081
1.362 2.707 3.959
1.038 2.770 3.852
0.865 2.655 3.399
1.019 2.544 3.183
0.488 2.515 2.970
1.880 2.909 5.015
1.613 3.153 4.331
1.750 3.138 4.398
1.341 2.767 4.175
1.581 2.390 3.976
1.674 2.638 3.787
1.481 2.741 3.494
1.140 2.283 3.670
0.917 2.661 3.219
0.998 2.522 3.195
0.766 2.364 2.687
1.905 2.687 4.152
1.444 2.850 4.162
1.849 2.717 3.983
1.646 2.445 3.610
1.235 2.122 3.688
1.489 2.388 3.644
1.155 2.155 3.304
0.980 2.098 3.006
1.098 2.117 2.887
0.681 1.865 2.750
1.805 2.470 4.279
1.979 2.402 4.231
2.108 2.097 3.918
1.666 2.415 3.708
1.569 1.999 3.537
1.454 2.061 3.215
1.459 2.313 3.235
1.483 1.890 3.059
0.991 1.971 2.495
0.694 1.802 2.206
1.707 2.550 3.936
2.119 2.304 3.508
1.551 1.803 3.522
1.445 2.197 2.995
1.535 2.086 2.948
1.624 1.825 2.716
1.254 1.645 2.392
2.114 1.940 3.383
1.757 1.811 3.407
1.759 1.568 3.104
1.313 1.818 2.528
1.651 1.552 2.624
0.379 0.974 1.016
3.227 2.309 5.061
2.014 1.428 3.312
2.051 1.447 2.636
0.329 1.218 1.093
0.230 0.762 0.754
0.308 0.851 0.646
-0.017 1.008 0.612
3.402 2.342 4.881
0.613 0.970 0.985
0.451 1.134 0.865
0.471 1.028 0.511
0.603 0.664 0.298
0.029 0.466 0.069
-0.264 0.616 -0.098
3.431 1.671 5.034
3.252 2.069 4.713
1.086 0.909 1.470
0.836 0.636 1.137
0.622 0.730 0.837
0.851 0.709 0.678
0.516 0.863 0.183
0.536 0.592 0.221
0.238 0.476 0.143
3.496 1.477 4.931
3.323 1.953 4.757
0.454 4.571 5.861
0.303 4.321 5.645
0.959 4.297 5.765
0.834 4.567 6.014
1.070 4.551 5.663
1.014 4.231 5.037
0.427 4.377 5.371
0.858 4.346 5.911
1.082 3.986 5.739
0.694 4.109 5.482
0.796 3.972 5.274
0.526 4.281 4.982
0.028 4.083 4.821
0.480 3.555 4.723
1.432 4.079 6.251
0.820 4.127 5.603
0.751 3.790 5.687
0.534 3.732 5.247
0.552 3.916 5.160
0.270 3.629 5.212
0.149 3.973 4.622
0.367 3.680 4.519
1.628 3.733 5.935
1.521 3.697 5.460
1.199 4.014 5.324
1.223 3.951 5.507
1.059 3.505 5.378
0.676 3.586 4.616
0.596 3.807 4.767
0.841 3.645 4.798
0.531 3.078 4.683
1.380 3.841 5.864
1.415 3.615 5.603
1.524 3.466 5.286
1.241 3.815 5.466
1.104 3.235 5.281
0.601 3.319 4.806
0.543 3.542 4.534
0.662 3.142 4.371
0.592 3.301 4.536
1.605 3.433 5.796
1.257 3.491 5.592
1.565 3.407 5.259
0.944 3.110 5.024
0.863 3.004 4.548
0.795 2.992 4.782
1.202 3.217 4.696
1.017 3.144 4.105
0.504 2.752 3.943
1.468 3.375 5.023
1.416 3.295 4.946
1.426 3.314 5.009
1.425 3.024 4.830
0.960 3.266 4.446
1.146 3.107 4.425
1.242 2.691 4.155
0.873 2.873 3.878
0.841 2.862 3.971
1.897 3.122 5.119
1.298 2.873 4.991
1.152 3.015 4.854
0.895 2.816 4.194
1.370 2.412 4.457
1.465 2.808 4.129
1.270 2.573 3.810
0.810 2.493 3.454
0.662 2.357 3.373
1.671 2.699 4.708
1.305 2.626 4.724
1.512 2.861 4.037
1.543 2.400 4.087
1.492 2.478 3.829
1.186 2.393 3.599
0.776 2.080 3.338
0.623 2.090 3.222
0.668 2.198 3.274
1.556 2.678 4.284
1.665 2.751 3.954
1.804 2.388 3.877
1.603 2.380 4.054
1.571 1.985 3.961
1.103 2.092 3.757
1.101 1.972 3.533
0.976 2.271 2.941
0.612 1.882 2.663
1.906 2.082 4.304
1.679 2.264 4.319
1.609 1.911 3.965
1.447 2.306 4.097
1.722 1.823 3.789
1.492 2.223 3.725
1.073 1.943 3.498
1.227 1.837 2.912
0.968 1.839 2.859
1.976 2.276 3.997
1.811 2.090 3.788
2.080 1.974 3.900
1.949 1.592 3.841
1.609 2.058 3.292
1.423 1.564 2.871
1.274 1.731 3.066
1.153 1.553 2.627
2.106 1.705 3.718
1.929 1.498 3.451
1.632 1.642 3.303
1.893 1.813 3.154
1.607 1.651 2.989
1.287 1.351 2.876
1.209 1.520 2.938
0.366 0.788 1.396
-0.032 0.766 0.927
2.970 1.977 5.320
2.070 1.238 3.139
1.606 1.564 3.375
1.468 1.393 3.166
1.313 1.152 2.620
0.323 0.878 1.524
0.300 0.919 1.209
0.153 0.604 0.767
0.025 0.761 0.608
3.473 2.049 5.321
0.933 1.002 1.423
0.545 0.701 1.273
0.276 0.457 0.980
0.335 0.776 0.824
-0.119 0.809 0.640
3.214 1.531 5.063
0.970 0.791 1.315
0.988 0.636 0.994
0.629 0.680 1.154
0.431 0.206 0.787
0.227 0.415 0.467
0.410 0.339 0.602
0.195 0.303 -0.025
3.557 1.418 4.996
0.790 4.358 6.046
0.722 4.560 5.717
0.634 4.035 5.349
0.198 3.993 5.428
1.222 4.253 6.288
0.926 4.054 5.665
0.543 4.219 5.425
0.873 4.249 5.688
0.336 3.890 5.125
0.552 4.277 5.247
3.700 6.225 -0.250
4.997 6.096 0.807
4.358 6.028 0.357
4.147 6.088 0.563
4.320 6.344 0.405
4.891 6.326 1.028
4.910 6.256 0.513
4.746 6.206 0.355
4.518 5.981 0.031
4.700 5.780 -0.082
4.915 5.929 0.661
4.788 5.905 0.528
4.505 5.543 0.309
5.770 6.107 1.833
4.923 5.402 0.436
4.814 5.387 -0.033
6.107 5.770 1.500
5.176 5.397 0.457
4.905 5.656 -0.189
4.222 6.109 0.798
4.125 6.302 0.739
4.205 6.113 0.484
3.738 6.274 0.578
4.073 6.303 0.217
4.620 6.014 1.189
4.860 6.255 1.176
4.404 5.988 0.635
4.516 6.206 0.347
4.218 6.150 0.118
3.749 5.771 -0.061
4.777 6.166 1.037
4.502 5.953 0.641
4.409 5.842 0.831
4.593 6.069 0.319
4.350 5.671 0.433
4.383 5.807 0.098
4.571 5.746 0.621
4.997 5.880 0.976
5.016 5.545 0.323
4.816 5.574 0.264
4.473 5.698 -0.117
5.901 6.209 1.868
5.113 5.840 0.681
5.079 5.563 0.537
4.834 5.568 0.743
4.788 5.269 0.113
4.530 5.213 -0.138
4.849 5.548 0.648
5.376 5.581 0.680
5.238 5.189 0.299
5.215 5.026 0.444
5.033 5.480 0.486
5.331 5.234 0.798
5.381 5.099 0.214
5.130 4.897 0.266
5.305 5.199 0.724
3.765 5.934 0.935
4.001 6.205 0.663
4.169 5.717 0.939
4.348 5.630 0.791
4.126 5.735 0.709
3.585 5.931 0.164
5.654 6.437 2.173
4.474 5.540 1.022
4.306 5.696 0.477
3.981 5.771 0.269
4.244 5.588 -0.061
5.627 5.927 1.995
4.834 5.415 0.956
4.461 5.659 0.214
4.328 5.606 0.279
3.952 5.043 0.093
5.531 5.741 2.373
4.956 5.567 1.102
4.971 5.318 0.805
4.857 5.212 0.357
4.264 5.385 0.208
5.090 5.492 0.951
5.026 5.297 0.872
4.759 5.080 0.305
5.119 5.334 0.169
4.911 4.777 0.209
5.103 4.947 0.762
5.314 4.933 0.594
5.077 5.217 0.171
5.241 5.114 0.423
4.697 4.798 -0.221
5.416 5.116 0.624
5.017 6.292 2.488
5.342 6.295 2.473
4.455 5.290 0.835
3.980 5.113 0.274
3.969 5.215 0.303
3.493 5.204 0.190
5.695 5.722 2.225
4.694 5.097 0.879
4.566 5.276 0.829
3.997 4.973 0.227
4.140 4.908 0.207
3.831 4.973 -0.118
5.591 5.546 2.451
5.044 5.152 1.202
4.490 4.879 0.895
4.537 5.239 0.265
4.428 5.299 0.359
4.523 5.011 0.389
5.029 5.025 1.027
4.894 4.790 0.803
4.648 5.115 0.500
4.864 4.732 0.391
4.787 5.052 0.246
4.499 4.714 -0.059
4.796 4.978 0.867
5.439 4.659 1.070
4.862 4.730 0.762
4.888 4.590 0.519
5.004 4.495 0.315
5.639 4.590 1.224
4.993 5.009 0.551
2.061 6.139 0.456
1.788 6.498 0.343
2.148 6.267 0.203
2.194 6.120 -0.146
2.174 5.774 0.220
4.606 6.252 2.576
4.848 6.332 2.532
4.557 5.902 2.618
5.138 5.867 2.728
4.971 5.608 2.430
4.054 5.130 0.845
3.677 5.240 0.728
5.461 5.533 2.460
4.380 5.223 0.655
4.123 4.831 0.660
3.788 5.085 0.457
4.054 5.148 0.007
5.605 5.324 2.481
4.710 5.061 0.734
4.560 4.842 0.545
4.490 5.118 0.619
3.876 4.588 0.473
3.953 4.606 0.300
5.070 4.728 1.038
4.879 4.882 1.024
4.663 4.566 0.326
4.278 4.911 0.559
4.419 4.555 0.451
5.035 4.954 0.766
4.912 4.895 0.733
5.212 4.665 0.459
4.794 4.458 0.788
4.413 4.258 0.233
4.199 4.264 0.073
5.242 4.478 1.099
5.254 4.484 0.713
1.795 6.223 0.791
1.610 6.423 0.583
1.591 5.947 0.422
1.179 6.199 -0.129
2.587 6.233 0.936
2.103 6.042 0.949
1.731 6.002 0.287
1.644 6.288 0.201
1.603 6.132 0.328
2.050 6.012 0.730
1.946 5.840 0.539
2.134 6.125 0.059
2.129 5.985 0.110
2.279 5.628 0.430
2.442 5.531 0.003
4.542 6.447 3.168
4.569 6.248 2.759
4.795 5.793 2.456
4.630 6.057 2.766
4.782 6.030 2.304
4.975 5.784 2.677
4.798 5.645 2.660
5.387 5.527 2.696
5.071 5.352 2.336
4.244 4.821 0.963
3.773 4.770 0.702
3.711 4.691 0.378
3.338 4.847 0.148
5.390 5.243 2.836
4.398 4.712 0.580
4.389 4.548 0.818
4.029 4.844 0.403
3.920 4.706 0.207
3.623 4.297 -0.129
4.523 4.624 0.801
4.454 4.528 0.742
4.348 4.501 0.350
4.358 4.670 0.484
4.025 4.238 0.237
4.931 4.536 1.252
4.675 4.166 0.919
4.625 4.067 0.852
4.465 4.231 0.538
4.245 4.305 0.062
4.240 4.137 0.042
5.201 4.227 0.952
1.554 6.162 0.608
1.260 6.169 0.464
1.335 5.894 0.520
1.134 6.222 0.427
2.177 5.972 1.197
2.123 6.320 1.200
1.853 6.420 0.774
1.894 6.253 0.864
1.353 6.204 0.519
1.244 5.776 0.091
1.334 6.013 0.095
2.464 6.279 1.530
2.363 5.969 1.577
2.159 6.130 1.217
2.315 5.795 0.751
1.894 6.094 0.822
1.592 5.953 0.542
1.289 5.556 0.420
1.221 5.733 0.060
2.479 5.603 1.496
2.501 5.663 0.911
2.030 5.605 0.849
2.055 5.628 0.809
1.645 5.754 0.386
1.515 5.644 0.257
2.064 5.344 0.567
1.795 5.586 0.554
2.114 5.364 -0.107
4.370 6.033 2.921
4.275 6.218 2.624
3.911 6.071 2.677
4.472 5.651 3.238
4.664 5.982 2.780
4.249 5.607 2.648
3.873 5.797 2.281
4.535 5.555 3.204
4.668 5.449 2.681
4.362 5.526 2.559
4.173 5.394 2.345
5.195 5.548 2.928
4.682 5.186 2.797
4.715 5.626 2.310
4.955 5.284 2.569
5.139 5.094 2.436
3.815 4.451 0.495
3.740 4.450 0.642
3.179 4.378 0.303
5.183 5.254 2.490
3.948 4.304 0.509
4.130 4.294 0.327
3.673 4.170 0.266
3.310 4.576 0.028
4.425 4.380 0.704
4.252 4.046 0.640
4.015 4.282 0.555
4.076 4.154 0.134
3.543 4.348 -0.073
4.883 4.422 0.809
4.569 4.240 0.825
4.141 3.915 0.579
4.339 4.323 0.691
3.920 4.115 0.101
4.025 3.679 0.199
1.086 6.088 1.147
1.276 6.160 0.938
1.875 6.438 1.433
1.804 6.424 1.518
1.803 6.140 0.918
1.231 6.361 1.247
1.017 6.286 0.749
1.291 5.696 0.425
2.526 6.189 1.811
2.125 5.913 1.439
2.234 5.880 1.244
1.830 6.207 1.224
1.581 5.981 0.894
1.616 6.106 1.149
1.186 5.639 0.461
0.996 5.879 0.241
0.896 5.510 0.101
2.605 6.051 1.821
2.787 5.937 2.025
2.512 5.984 1.587
2.127 6.148 1.570
2.153 5.742 1.094
1.753 6.033 1.194
1.687 5.760 0.748
1.331 5.604 0.751
1.176 5.856 0.513
1.546 5.499 0.305
0.873 5.738 0.061
2.749 5.921 2.135
2.542 5.612 1.548
2.323 5.705 1.448
2.366 5.675 1.603
2.510 5.492 1.290
2.209 5.492 1.044
2.161 5.632 0.559
1.991 5.284 0.818
1.748 5.576 0.533
1.441 5.201 0.246
3.230 5.627 2.129
2.949 5.466 2.134
2.688 5.532 1.529
2.599 5.376 1.527
2.748 5.610 1.220
2.424 5.332 0.918
2.419 5.169 1.114
2.141 5.499 0.419
2.174 5.090 0.534
1.957 5.327 0.118
1.837 5.213 -0.180
4.109 6.096 3.362
4.186 5.873 2.850
3.922 6.069 2.637
3.478 5.802 2.789
3.719 5.897 2.566
3.252 5.653 2.526
3.321 5.962 1.823
4.533 6.167 3.093
4.167 5.732 2.746
3.801 5.818 2.798
3.761 5.665 2.908
3.864 5.411 2.295
3.658 5.714 1.940
4.689 5.895 3.433
4.221 5.740 2.986
4.129 5.848 2.975
3.944 5.769 2.723
3.588 5.607 2.546
3.910 5.223 1.898
4.588 5.579 3.077
4.173 5.348 2.943
4.306 5.529 2.874
4.027 5.516 2.503
4.262 5.145 2.467
4.841 5.314 3.263
4.489 5.296 3.006
4.743 5.511 2.683
4.039 5.330 2.480
4.695 4.894 3.158
4.999 4.887 2.862
4.815 4.896 2.324
3.338 4.361 0.213
5.135 4.718 2.557
3.722 4.491 0.624
3.838 4.298 0.603
3.546 3.934 0.345
3.397 3.881 0.253
4.044 4.044 0.940
3.928 4.284 0.884
3.554 3.999 0.435
3.885 3.765 0.232
3.194 3.700 0.064
4.169 3.865 0.696
4.466 4.056 0.872
4.123 4.065 0.447
3.909 3.582 0.285
3.644 3.671 0.116
2.792 2.843 6.024
3.198 2.318 6.417
3.273 2.160 6.306
3.027 2.457 5.844
3.551 2.459 5.903
3.410 2.381 6.072
2.895 2.175 5.618
2.742 2.189 5.343
3.554 2.339 6.071
3.526 2.043 5.802
3.176 1.985 5.917
3.212 2.044 5.668
2.919 2.063 5.367
3.774 2.192 6.266
3.886 1.896 6.123
3.763 2.056 5.819
3.456 1.804 5.637
3.478 1.645 5.369
3.954 1.809 6.211
3.946 1.689 6.112
3.688 1.835 5.523
3.651 1.755 5.674
3.581 1.790 5.031
4.699 1.962 5.971
4.307 1.386 5.932
4.006 1.422 5.673
3.671 1.288 5.896
3.825 1.507 5.302
3.528 1.252 5.293
3.009 2.669 6.492
2.428 2.602 6.064
3.259 2.032 6.083
2.882 1.944 5.993
2.900 1.972 5.767
3.105 2.145 6.181
3.138 2.290 5.979
3.023 1.811 5.851
3.707 1.760 6.373
3.219 2.082 5.808
3.069 1.706 5.618
3.198 1.897 5.375
3.523 2.034 6.237
3.732 1.657 5.969
3.161 1.693 5.635
3.255 1.594 5.655
3.749 1.681 6.245
3.944 1.479 6.242
3.735 1.604 5.822
3.570 1.526 5.658
3.083 1.539 5.166
4.417 1.527 6.350
3.833 1.344 5.873
4.095 1.068 5.738
3.656 1.187 5.289
2.375 2.260 6.474
2.358 2.129 6.125
2.113 2.383 6.202
2.578 1.863 6.183
2.571 1.885 5.921
3.125 1.689 6.500
2.923 1.600 5.846
2.664 1.959 5.736
3.414 1.613 6.132
2.793 1.397 5.829
3.168 1.855 5.680
3.385 1.826 6.327
3.349 1.793 6.032
3.461 1.745 5.847
2.806 1.548 5.685
3.751 1.143 6.262
3.254 1.383 5.714
3.492 1.577 5.978
3.880 1.451 6.065
3.880 1.208 5.707
1.823 2.431 6.092
2.111 2.142 6.409
2.790 1.675 6.349
2.434 1.574 6.035
2.716 1.699 6.458
2.853 1.593 5.942
2.819 1.222 6.163
2.817 1.452 5.994
3.093 1.137 6.186
2.991 1.502 5.821
3.035 0.978 5.840
2.245 1.973 6.162
2.494 1.845 6.051
2.745 1.318 6.115
2.635 1.295 6.271
2.623 1.291 6.197
2.799 0.984 6.098
2.398 1.340 6.277
2.307 1.111 5.987
0.109 1.268 5.493
0.268 1.588 5.129
0.775 1.807 6.052
0.210 1.644 5.846
0.539 1.395 5.810
0.417 1.303 5.474
0.977 1.684 6.161
1.029 1.130 6.034
0.462 1.303 5.702
0.381 1.520 5.621
0.983 1.109 6.262
0.931 0.940 6.102
0.595 0.901 6.027
0.369 1.337 5.757
1.177 1.121 6.196
0.963 1.063 5.802
1.142 0.970 5.866
1.693 0.979 6.135
1.684 1.192 6.221
1.425 1.073 6.016
1.542 0.504 6.177
1.775 0.714 5.854
0.070 0.228 3.568
2.340 0.886 6.416
0.383 1.313 5.880
-0.070 1.449 6.158
-0.229 1.180 5.792
0.285 1.654 6.387
0.457 1.102 5.937
0.152 1.175 5.965
0.179 1.242 5.662
0.070 1.175 5.702
-0.009 1.194 5.281
0.620 0.987 6.128
0.767 1.017 5.715
0.488 1.369 5.962
0.274 1.032 5.606
0.556 0.872 5.656
0.819 1.236 5.983
0.726 0.936 5.714
0.775 0.880 5.468
0.575 0.849 5.481
1.329 1.041 6.145
0.973 0.951 6.215
1.126 0.515 5.551
0.620 0.597 5.621
1.044 0.486 6.135
1.380 0.605 6.230
1.149 0.747 5.903
1.406 0.370 6.510
1.235 0.499 5.818
1.248 0.209 5.925
1.657 0.596 6.127
1.743 0.605 6.174
0.322 1.307 5.997
-0.137 1.015 5.738
0.146 0.724 5.444
0.219 1.220 6.042
0.371 0.915 5.679
-0.111 0.621 5.677
0.361 0.890 5.501
0.073 0.438 5.564
0.841 0.740 6.200
0.536 0.798 6.088
0.558 0.634 5.710
-0.033 0.750 5.698
0.612 0.503 5.700
0.807 0.603 6.075
0.605 0.535 6.022
0.483 0.789 5.704
0.234 0.752 5.723
1.282 0.392 5.938
0.751 0.380 6.008
0.912 0.548 5.673
1.582 0.225 6.021
1.325 0.131 5.805
0.849 0.186 5.894
1.389 0.408 5.950
1.395 -0.113 6.158
0.452 0.682 6.514
-0.160 1.025 6.029
0.183 0.751 5.600
0.675 0.848 5.912
0.321 0.490 6.073
0.123 0.360 5.879
0.436 0.199 5.957
-0.138 0.206 5.266
0.696 0.416 6.050
0.682 0.116 5.951
0.491 0.581 5.679
0.368 0.058 5.836
0.803 0.329 6.092
0.811 0.141 6.247
0.870 -0.028 5.787
0.511 0.402 5.837
1.280 0.311 6.233
0.804 0.104 5.748
0.882 0.219 5.572
1.324 -0.226 6.040
0.065 0.631 6.260
0.121 0.012 5.650
0.223 -0.018 5.456
0.546 0.470 6.062
0.291 0.488 5.907
0.175 -0.079 5.693
0.482 0.046 6.234
0.710 -0.245 5.708
-0.004 0.364 6.236
0.287 0.181 6.072
1.131 4.107 6.317
0.552 4.149 6.034
0.769 4.192 6.051
0.304 4.181 5.742
0.273 3.810 5.596
0.004 3.636 5.203
0.275 3.728 4.740
0.939 4.098 6.050
1.016 3.780 6.182
0.612 3.921 5.613
0.726 3.811 5.397
0.486 3.515 5.099
0.406 3.847 5.273
0.192 3.715 4.738
0.109 3.568 4.741
1.331 3.687 6.024
1.387 3.798 5.822
0.742 3.495 5.833
0.808 3.775 5.395
0.950 3.558 5.449
0.613 3.608 5.079
0.291 3.661 4.868
0.363 3.264 4.572
1.084 3.289 6.054
1.087 3.411 5.809
1.059 3.494 5.094
0.901 3.615 5.128
0.595 3.104 5.000
0.654 3.323 4.482
0.411 2.962 4.619
0.354 3.231 4.473
1.042 3.357 5.431
1.130 3.155 5.162
0.835 3.181 4.915
1.138 3.253 5.134
0.499 3.042 4.557
0.629 2.830 4.314
0.686 2.843 4.251
1.358 3.123 4.926
0.935 2.906 5.064
1.137 2.773 4.813
0.800 3.099 4.768
1.177 2.795 4.491
1.169 2.736 4.046
0.862 2.344 4.053
1.149 2.807 4.959
1.379 2.722 4.519
1.055 2.698 4.590
0.983 2.615 4.511
0.782 2.556 4.509
0.914 2.450 3.938
0.926 2.397 3.805
1.441 2.586 4.733
0.927 2.691 4.163
1.281 2.208 4.293
1.232 1.985 4.251
1.176 2.094 3.837
1.067 2.110 3.967
0.808 2.285 3.658
1.332 2.268 4.318
1.135 2.307 4.337
1.467 2.001 4.403
1.617 1.907 4.140
1.471 1.743 3.580
1.304 1.683 3.748
0.872 1.937 3.204
0.625 2.141 3.530
1.578 2.017 4.513
1.743 1.702 4.088
1.803 2.080 3.875
1.398 1.584 3.554
1.207 1.506 3.855
0.844 1.491 3.619
0.754 1.852 2.884
0.881 1.489 2.793
1.845 2.126 4.290
2.103 1.921 4.103
2.000 1.568 3.987
1.849 1.437 3.475
1.443 1.741 3.644
1.292 1.778 3.260
1.304 1.693 3.048
1.134 1.712 2.640
1.713 1.900 4.349
2.037 1.482 3.857
1.934 1.209 3.431
1.529 1.372 3.569
1.327 1.224 3.108
1.015 1.353 2.826
1.243 1.221 3.026
0.252 0.753 1.306
3.211 1.954 5.009
2.197 1.488 3.975
2.143 1.175 3.544
1.723 0.998 3.404
1.533 1.434 3.022
1.449 1.253 3.056
0.492 0.729 1.678
0.284 0.540 1.283
-0.035 0.574 1.271
3.007 1.467 4.941
2.358 0.930 3.666
2.083 1.192 3.542
1.873 0.824 3.182
1.831 1.169 3.104
0.485 0.545 1.192
0.168 0.367 1.380
0.180 0.180 0.890
0.340 0.687 0.735
3.274 1.289 5.080
2.182 0.999 3.259
2.100 0.695 2.971
0.427 0.317 1.156
0.565 0.310 0.999
0.254 0.484 0.694
0.321 0.030 0.606
-0.079 0.025 0.551
0.513 4.488 5.836
0.278 4.476 5.823
0.807 3.999 6.330
0.486 4.385 5.612
0.077 4.269 5.720
0.316 4.200 5.629
-0.214 4.223 5.233
1.012 4.210 6.500
0.680 3.856 6.146
0.665 3.908 5.811
0.737 3.885 5.381
0.402 3.906 5.459
0.334 3.612 4.921
0.409 3.867 6.243
0.755 3.842 6.045
0.070 3.760 5.947
0.174 3.933 5.376
-0.182 3.391 5.144
-0.048 3.683 5.290
1.121 3.889 5.943
0.828 3.565 6.117
0.536 3.478 5.392
0.554 3.580 5.280
0.070 3.522 5.362
-0.091 3.384 4.919
0.266 3.441 4.705
0.883 3.360 5.887
0.613 3.419 6.063
0.477 3.159 5.353
0.550 3.438 5.258
0.167 3.391 5.032
0.394 3.456 5.214
0.409 3.054 4.759
0.830 3.276 5.455
0.890 3.201 5.698
0.479 3.046 5.236
0.828 3.120 5.202
0.168 2.817 4.996
0.835 2.769 4.703
0.764 2.945 5.200
1.099 2.834 5.307
0.869 2.781 4.789
0.443 2.618 4.868
0.749 2.700 4.945
1.078 2.901 5.304
0.668 2.965 4.914
0.664 2.728 4.543
0.774 2.450 4.468
1.162 2.350 4.371
0.882 2.470 4.730
0.732 1.981 4.143
0.822 2.092 4.144
1.290 2.083 4.413
1.353 2.004 4.652
0.988 2.314 4.147
1.208 1.794 4.147
0.538 2.141 3.849
1.042 2.092 4.761
1.393 1.823 4.285
1.330 1.676 4.275
0.987 1.713 3.794
0.682 1.820 4.022
0.615 1.990 3.551
1.484 1.828 4.160
1.319 1.953 4.465
1.239 1.730 4.085
1.100 1.663 3.703
1.403 1.327 3.567
1.095 1.552 3.625
0.608 1.617 3.526
1.607 1.783 4.541
1.736 1.814 4.409
1.331 1.359 4.302
1.621 1.666 3.627
1.132 1.443 3.417
1.344 1.394 3.552
1.017 1.165 3.162
1.742 1.866 4.039
1.827 1.339 3.923
1.892 1.349 4.249
1.376 1.579 3.711
1.607 1.505 3.702
1.341 1.138 3.370
1.011 1.407 3.154
0.841 0.829 2.884
-0.040 0.659 1.955
2.991 1.983 5.174
2.012 1.548 4.433
1.877 1.178 4.001
2.226 0.882 3.640
1.735 1.258 3.410
1.403 1.020 3.470
1.272 1.153 3.273
1.259 0.914 2.957
0.103 0.411 1.592
0.299 0.383 1.278
2.221 1.220 4.126
2.058 1.324 4.218
2.239 1.227 3.725
2.033 0.916 3.638
1.816 0.854 3.643
1.509 0.679 3.355
1.688 0.765 2.948
0.609 0.488 1.427
0.190 0.403 1.375
-0.102 0.491 1.236
2.427 1.034 3.933
2.514 0.912 3.704
2.508 0.733 3.555
1.937 0.493 3.598
2.129 0.864 3.604
1.609 0.668 2.994
0.723 0.376 1.557
0.620 0.263 1.514
0.187 0.159 1.144
0.030 -0.049 1.056
2.413 0.606 3.779
0.075 4.084 6.218
0.352 4.234 6.052
-0.157 3.992 5.866
0.534 4.070 6.025
0.447 4.172 6.170
-0.077 4.216 6.090
-0.006 3.658 5.757
0.838 3.924 6.294
0.438 3.657 5.715
0.212 3.560 6.038
0.485 3.948 5.685
-0.034 3.619 5.449
0.269 3.343 5.974
0.073 3.725 5.748
-0.117 3.512 5.439
0.472 3.271 6.249
0.374 3.249 5.848
0.381 3.490 5.901
-0.007 3.392 5.837
-0.003 3.494 5.651
0.547 3.008 6.115
0.415 3.117 5.698
0.499 3.435 5.458
0.020 3.138 5.067
0.980 3.220 5.612
0.405 2.967 5.546
0.909 1.926 4.014
0.859 1.456 3.702
1.318 1.529 4.067
1.171 1.423 4.322
0.897 1.623 3.631
1.065 1.570 3.846
2.127 1.816 5.510
1.556 1.489 4.370
1.342 1.057 3.907
1.028 1.078 3.828
1.159 1.217 3.734
0.638 1.239 3.220
2.463 1.793 5.625
1.858 1.132 4.102
1.774 0.906 4.066
1.247 0.940 3.552
1.217 0.885 3.770
1.260 1.238 3.349
0.880 0.802 3.075
2.749 1.378 5.604
2.105 0.781 4.258
1.856 0.931 3.879
1.713 0.673 3.817
1.687 0.603 3.671
1.473 1.097 3.648
1.132 0.661 3.059
1.083 0.434 3.225
1.992 1.174 3.965
2.232 0.870 3.943
1.985 0.726 4.090
2.079 0.617 3.660
1.707 0.688 3.664
1.733 0.481 3.449
1.198 0.774 3.085
1.191 0.266 2.811
0.423 0.108 1.369
2.111 0.875 4.003
2.473 0.877 4.293
2.095 0.911 3.693
2.077 0.296 3.472
2.020 0.581 3.285
1.850 0.692 3.457
1.662 0.200 3.288
2.163 0.570 3.995
0.154 4.277 6.479
0.042 3.730 6.125
-0.087 3.878 5.912
0.413 3.382 6.260
0.399 3.306 6.131
-0.096 3.258 5.726
0.369 3.282 6.079
0.272 3.585 6.000
0.433 3.521 6.012
0.359 3.332 5.699
-0.053 3.374 6.021
2.039 1.918 6.017
2.495 1.847 5.729
1.400 1.083 4.055
0.984 1.080 3.865
1.018 1.062 3.694
0.833 0.830 3.248
2.701 1.522 5.601
1.546 0.791 4.288
1.332 0.772 3.797
1.234 0.797 4.126
1.025 0.883 3.413
1.143 0.522 3.709
1.004 0.446 3.270
2.537 1.103 5.680
1.942 1.047 4.339
1.658 1.011 4.187
1.444 1.034 4.189
1.364 0.835 3.618
1.261 0.369 3.691
1.088 0.365 3.575
0.791 0.435 3.323
2.008 0.626 4.284
2.204 0.468 4.459
1.971 0.757 4.174
1.787 0.570 3.839
1.762 0.264 3.842
1.281 0.308 3.366
1.411 0.135 3.090
1.067 0.138 3.072
2.151 0.440 4.033
2.129 0.775 4.067
2.237 0.492 4.029
1.910 0.272 3.896
1.853 0.139 3.872
1.426 0.108 3.241
1.236 0.442 3.022
1.003 0.429 3.170
2.620 0.401 4.304
1.966 0.681 4.197
0.134 3.479 6.402
0.119 3.214 5.922
-0.053 3.300 6.096
1.658 1.924 6.110
1.905 1.594 6.324
1.914 1.427 5.608
1.862 1.695 5.741
2.250 1.231 5.876
0.790 0.697 4.161
0.574 0.647 3.982
2.248 1.104 5.659
1.453 0.931 4.455
1.035 0.950 3.966
1.070 0.868 4.046
0.666 0.825 3.667
0.696 0.510 3.329
2.665 1.259 5.939
1.602 0.420 4.398
1.318 0.302 4.281
1.369 0.657 3.941
1.348 0.639 3.599
1.096 0.468 3.618
0.603 0.253 3.052
2.117 0.269 4.402
1.802 0.613 4.312
1.625 0.266 4.189
1.472 0.616 3.975
1.484 0.148 3.800
1.174 0.290 3.392
1.212 0.351 3.023
0.863 0.143 2.871
2.004 0.433 4.393
2.194 0.511 4.492
1.959 0.533 4.246
2.005 -0.074 4.107
1.811 0.175 3.901
1.387 0.017 3.521
1.036 0.212 3.112
2.361 0.538 4.760
1.928 0.551 4.213
1.663 1.718 6.018
1.981 1.646 5.967
1.932 1.732 6.176
2.102 1.496 6.201
2.002 1.274 6.149
2.359 1.110 6.116
1.794 1.246 5.878
0.976 0.356 4.341
0.923 0.207 3.790
0.871 0.390 3.491
0.629 0.399 3.296
2.267 1.296 6.110
1.384 0.423 4.363
1.023 0.592 3.973
0.841 0.101 4.053
0.895 0.047 3.866
0.736 -0.081 3.222
0.528 0.362 3.279
1.652 0.288 4.274
1.709 -0.061 4.307
1.081 0.236 3.858
1.132 0.281 3.700
0.859 0.321 3.555
2.097 -0.096 4.405
1.984 0.028 4.124
1.342 -0.098 3.924
1.946 0.051 4.351
1.002 1.716 6.282
1.146 1.231 6.165
1.300 1.433 5.925
1.128 1.237 5.886
1.585 1.204 6.257
1.427 1.390 5.970
1.103 1.347 5.905
1.647 1.405 6.096
1.942 1.130 6.268
1.607 1.010 6.120
2.143 1.099 6.167
1.887 1.144 6.031
0.476 0.160 4.300
0.677 0.340 3.976
0.453 0.193 3.818
2.454 0.924 6.289
1.033 0.381 4.138
0.993 0.276 3.933
0.842 0.202 3.701
1.296 -0.247 4.056
0.201 1.204 5.686
-0.058 1.377 5.372
0.349 1.448 6.282
0.750 1.535 5.890
0.031 1.452 5.967
-0.116 1.299 5.691
1.066 1.633 5.976
0.813 1.469 5.980
0.791 1.425 5.852
0.492 1.061 5.746
0.999 1.404 6.104
1.069 1.130 6.145
0.596 1.391 5.807
0.693 1.392 5.522
1.502 0.971 6.006
1.358 1.138 5.874
0.835 1.020 5.429
1.859 0.833 5.988
1.193 0.992 5.726
1.309 0.980 5.609
1.695 0.863 5.930
1.664 0.634 5.694
0.290 -0.070 3.631
2.043 0.680 6.071
6.432 3.603 2.771
6.232 3.638 3.525
6.077 3.570 3.054
6.310 3.505 2.601
6.144 3.505 2.928
6.403 4.057 3.816
6.004 3.682 3.789
5.800 3.616 3.667
6.137 3.626 3.390
5.787 3.398 3.024
6.528 3.217 3.367
6.242 3.298 3.124
6.184 2.743 2.688
6.216 4.049 4.531
6.127 3.801 3.949
6.128 3.876 4.196
6.024 3.371 3.875
6.037 3.469 3.835
6.146 3.279 3.508
6.367 3.147 3.594
6.298 3.234 3.485
6.347 2.788 2.727
5.973 3.493 4.667
6.020 3.842 4.397
5.801 3.881 4.356
6.086 3.367 4.590
5.942 3.173 4.388
6.122 3.453 4.083
6.123 2.666 3.717
5.903 2.733 3.391
6.369 2.357 2.785
6.160 3.437 4.945
6.097 3.423 4.503
5.869 3.038 4.319
6.401 2.601 4.032
6.034 2.772 3.781
6.440 2.201 3.359
6.159 2.266 3.252
6.482 2.133 3.996
6.078 1.822 3.499
6.047 1.840 3.068
6.331 1.767 3.420
6.351 1.437 3.161
6.218 1.614 3.818
6.265 0.959 3.104
6.125 1.304 3.939
5.948 0.847 3.711
6.497 0.886 3.142
4.756 2.348 4.143
6.306 0.888 3.964
5.810 1.233 3.730
5.938 1.116 4.005
5.723 0.761 3.831
6.058 0.810 3.909
6.114 0.718 3.281
6.154 0.402 3.223
4.873 2.547 4.613
4.707 2.496 4.729
4.313 2.075 4.561
4.633 2.277 4.198
4.821 2.372 4.324
6.204 0.859 3.679
6.181 1.035 3.381
6.309 0.382 3.874
5.948 0.595 3.758
6.027 0.470 3.570
4.808 2.402 4.982
4.921 2.016 4.897
4.903 2.516 4.777
4.459 1.986 4.803
4.204 2.106 4.698
5.088 2.411 5.126
5.281 2.282 4.967
4.659 2.010 4.714
4.919 2.289 4.774
4.626 1.967 4.432
6.326 2.054 5.842
6.289 2.129 6.151
5.817 2.009 5.908
5.802 2.235 5.468
5.778 2.238 5.413
5.133 1.802 4.856
5.238 1.833 5.020
4.861 1.997 4.539
5.226 1.678 4.299
4.969 1.775 4.077
6.045 1.894 6.090
6.068 1.793 5.873
6.070 2.041 5.675
6.420 1.824 5.710
6.205 1.752 5.524
6.031 0.069 3.960
5.919 0.289 4.229
6.086 0.185 3.990
4.883 1.991 5.615
5.002 2.136 5.209
4.858 2.098 5.289
4.685 2.195 4.818
4.536 1.916 4.662
4.101 1.778 4.473
5.415 2.096 6.073
5.598 1.996 5.813
5.030 2.057 5.684
5.027 1.783 5.362
4.938 1.792 5.231
4.535 1.787 5.053
4.839 1.778 4.651
4.266 1.917 4.278
6.020 1.904 6.209
5.862 2.010 6.012
5.709 2.161 6.026
5.777 2.125 5.599
5.407 2.060 5.538
5.256 1.937 5.233
4.856 1.821 5.024
5.109 1.945 4.641
5.031 1.565 4.734
4.942 1.306 4.586
5.975 2.036 6.239
6.144 2.085 6.069
6.121 1.708 5.719
5.639 1.879 5.556
5.820 1.742 5.315
5.271 1.610 5.147
5.442 1.285 4.688
6.382 1.762 5.658
6.243 1.363 5.681
5.849 1.492 5.340
5.874 1.526 5.171
6.432 1.418 5.574
6.331 1.621 5.466
5.538 -0.072 4.271
5.175 1.823 5.830
4.989 1.763 5.905
4.534 1.991 5.687
4.431 1.712 5.305
4.352 1.772 4.860
4.171 1.620 5.189
4.062 1.522 4.711
5.574 2.215 6.363
5.225 1.923 6.050
5.229 1.688 6.000
5.031 1.619 5.799
5.081 1.633 5.173
4.748 1.611 5.451
4.768 1.818 5.321
4.529 1.359 4.667
4.098 1.379 4.635
5.595 1.849 6.319
5.660 1.991 5.728
5.310 1.820 5.670
5.229 1.626 5.814
5.184 1.834 5.657
4.718 1.303 5.149
4.891 1.231 4.984
4.731 1.337 4.888
4.613 1.532 4.634
6.001 1.636 5.898
5.551 1.408 5.627
5.634 1.757 5.547
5.581 1.752 5.371
5.386 1.343 5.548
5.060 1.584 4.812
4.832 1.274 4.914
6.371 1.576 6.148
6.369 1.193 6.204
6.041 1.199 5.675
5.639 1.616 5.437
5.489 1.528 5.328
5.643 1.297 5.035
6.441 1.317 5.976
5.869 1.245 5.748
5.880 1.451 5.336
5.639 1.087 5.368
6.263 1.249 5.197
4.973 1.788 5.826
4.637 1.867 5.750
4.781 1.630 5.723
4.523 1.841 5.592
4.493 1.549 5.348
3.943 1.757 4.881
3.849 1.573 4.914
5.472 1.640 5.986
5.101 1.818 5.983
4.729 1.727 6.056
4.914 1.464 5.806
4.480 1.349 5.624
4.657 1.783 5.445
4.180 1.581 5.035
4.290 1.431 4.776
5.210 1.504 5.892
5.095 1.424 5.874
4.918 1.315 5.829
5.100 1.246 5.366
4.820 1.306 5.474
4.893 1.524 4.848
4.410 1.071 4.698
5.877 1.572 6.478
5.881 1.562 5.804
5.648 1.522 5.980
5.389 1.398 5.522
5.083 1.213 5.508
5.093 1.163 5.272
5.025 1.373 5.055
6.124 1.498 6.036
5.630 1.183 6.064
5.855 1.426 5.627
5.383 1.170 5.336
5.088 0.849 5.442
6.200 0.957 5.827
5.778 0.773 5.933
5.739 1.078 5.448
5.602 0.716 5.471
5.355 1.114 5.508
6.427 0.645 5.819
6.045 0.698 5.683
6.035 0.942 5.112
6.051 0.427 5.296
6.470 0.056 5.542
4.774 1.584 5.939
4.968 1.396 6.108
4.766 1.621 6.087
4.344 1.707 5.527
4.092 1.450 5.645
3.960 1.356 5.250
4.138 1.160 4.912
5.082 1.554 6.335
5.125 1.751 5.692
4.580 1.699 5.479
4.683 1.507 5.782
4.459 1.294 5.085
4.319 1.027 5.163
5.588 1.493 6.544
5.175 1.530 5.885
4.815 1.394 5.980
4.717 1.506 5.630
4.735 1.127 5.373
4.600 0.884 5.041
5.809 1.425 6.240
5.194 1.226 5.855
5.161 1.341 5.619
5.102 1.092 5.526
5.093 1.205 5.208
5.977 1.253 6.383
5.537 0.888 5.864
5.627 1.193 5.710
5.157 0.636 5.644
6.040 1.122 6.520
5.688 0.930 5.841
5.575 0.913 6.013
5.495 0.982 5.661
5.151 0.582 5.466
5.950 0.603 6.272
5.891 0.536 6.087
5.925 0.360 5.698
5.572 0.687 5.777
6.356 0.555 5.773
6.098 0.421 5.589
6.159 0.136 5.226
6.169 0.532 5.788
4.822 3.747 1.182
4.564 3.744 0.696
4.495 3.573 0.960
4.263 3.730 0.319
3.955 3.464 0.043
3.888 3.609 0.251
4.750 3.877 1.210
4.746 3.543 0.563
