4.591 2.956 4.280
4.640 2.915 4.405
4.314 3.198 3.731
4.327 3.169 4.040
4.518 3.273 4.157
4.542 3.262 4.538
3.189 3.006 1.341
4.077 3.441 3.530
4.224 3.502 3.723
4.215 3.517 3.916
4.433 3.420 4.314
4.535 3.518 4.467
2.881 3.188 0.866
2.999 3.174 1.137
3.117 3.223 1.434
3.855 3.743 3.285
4.006 3.761 3.464
4.131 3.759 3.709
4.258 3.689 3.923
4.252 3.830 4.241
4.392 3.724 4.570
2.723 3.457 0.565
2.842 3.418 0.813
3.013 3.508 1.075
3.025 3.595 1.412
3.087 3.793 1.608
3.843 3.930 3.210
3.932 4.039 3.517
4.038 3.955 3.811
4.185 4.008 3.945
4.278 4.025 4.251
4.397 4.062 4.508
2.533 3.682 0.411
2.577 3.761 0.640
2.783 3.766 0.893
2.907 3.785 1.182
3.028 3.842 1.396
3.026 3.811 1.645
3.002 4.162 1.680
3.690 4.259 3.187
3.873 4.232 3.492
3.889 4.270 3.730
4.111 4.348 3.964
4.188 4.264 4.210
4.297 4.267 4.484
2.471 4.030 0.304
2.523 3.995 0.587
2.670 4.022 0.910
2.755 4.091 1.186
2.961 4.044 1.382
3.028 4.169 1.619
2.882 4.389 1.738
3.579 4.530 3.208
3.766 4.541 3.544
3.830 4.555 3.735
3.972 4.592 4.055
4.082 4.589 4.237
4.204 4.566 4.489
2.438 4.241 0.378
2.541 4.342 0.632
2.664 4.317 0.942
2.649 4.308 1.172
2.753 4.335 1.442
2.897 4.359 1.719
2.821 4.603 1.649
3.688 4.754 3.595
3.728 4.806 3.751
3.847 4.812 3.982
3.997 4.810 4.340
2.258 4.545 0.407
2.435 4.489 0.703
2.462 4.513 0.972
2.554 4.673 1.239
2.795 4.556 1.489
2.804 4.575 1.689
2.723 4.856 1.759
3.675 5.137 3.757
3.759 5.088 4.096
3.923 5.064 4.291
2.303 4.863 0.646
2.422 4.876 0.866
2.588 4.921 1.154
2.690 4.833 1.471
2.750 4.875 1.686
2.682 5.142 1.798
2.822 5.269 1.954
3.817 5.396 4.389
2.337 5.133 0.879
2.435 5.162 1.252
2.611 5.228 1.463
2.759 5.139 1.662
2.582 5.422 1.787
2.725 5.485 2.025
2.371 5.355 1.156
2.457 5.511 1.450
2.576 5.495 1.671
2.520 5.671 1.824
2.663 5.820 2.062
2.723 5.738 2.276
2.396 5.681 1.460
2.474 5.756 1.717
2.468 5.987 1.780
2.529 6.061 2.093
2.626 6.013 2.288
2.816 6.134 2.599
2.288 6.035 1.530
2.506 6.057 1.830
3.972 1.071 1.561
4.015 1.180 1.728
4.102 1.107 1.999
4.233 1.168 2.269
4.338 1.165 2.631
4.524 1.189 2.868
5.168 1.282 4.417
3.850 1.144 1.591
3.771 1.104 1.959
3.948 1.053 2.146
4.051 1.039 2.435
4.074 1.099 2.715
4.208 1.095 2.917
2.987 0.843 0.130
3.712 1.303 1.936
3.876 1.314 2.162
3.888 1.389 2.438
4.040 1.425 2.749
4.216 1.337 2.976
4.866 1.512 4.566
2.895 1.169 0.135
2.985 1.114 0.400
3.676 1.630 2.236
3.829 1.554 2.380
4.694 1.747 4.580
2.879 1.374 0.092
4.506 2.112 4.219
4.640 1.988 4.518
2.752 1.752 0.164
4.454 2.300 4.337
4.513 2.332 4.590
4.235 2.559 4.114
4.432 2.580 4.291
4.498 2.649 4.561
4.100 2.760 3.797
4.187 2.912 4.096
4.362 2.862 4.338
4.445 2.948 4.622
3.856 3.068 3.630
3.957 3.080 3.843
4.073 3.091 4.042
4.288 3.141 4.416
4.375 3.098 4.665
3.679 3.283 3.309
3.805 3.413 3.595
3.992 3.311 3.851
4.095 3.313 4.076
4.132 3.453 4.420
4.244 3.459 4.594
3.620 3.661 3.293
3.787 3.548 3.623
3.871 3.680 3.850
4.003 3.680 4.083
4.108 3.639 4.359
4.182 3.707 4.656
2.660 3.341 0.935
2.698 3.458 1.295
3.406 3.853 3.037
3.540 3.831 3.360
3.655 3.934 3.571
3.802 3.916 3.869
3.881 3.955 4.127
3.918 3.981 4.416
4.062 3.955 4.660
2.249 3.631 0.451
2.404 3.609 0.709
2.526 3.688 1.058
2.658 3.760 1.311
2.701 3.666 1.567
3.472 4.214 3.306
3.580 4.098 3.616
3.710 4.168 3.857
3.816 4.186 4.205
3.941 4.247 4.394
2.219 3.856 0.428
2.367 3.944 0.671
2.381 3.887 1.030
2.553 4.050 1.202
2.648 3.939 1.543
2.644 4.278 1.765
3.301 4.382 3.317
3.550 4.437 3.631
3.545 4.479 3.893
3.667 4.493 4.176
3.834 4.538 4.390
2.034 4.230 0.176
2.163 4.128 0.438
2.233 4.196 0.829
2.300 4.249 0.982
2.405 4.305 1.275
2.625 4.216 1.473
2.757 4.319 1.805
2.603 4.512 1.740
3.478 4.803 3.856
3.664 4.820 4.159
1.997 4.424 0.465
2.089 4.542 0.812
2.292 4.516 0.993
2.402 4.542 1.271
2.499 4.599 1.610
2.611 4.529 1.871
2.460 4.874 1.819
2.635 4.798 2.120
2.015 4.748 0.508
2.102 4.793 0.856
2.225 4.774 1.035
2.340 4.837 1.280
2.417 4.819 1.619
2.533 4.856 1.815
2.486 5.123 1.873
2.598 5.080 2.157
1.946 5.097 0.811
2.036 5.003 1.118
2.253 5.108 1.315
2.339 5.139 1.651
2.462 5.091 1.894
2.359 5.402 1.825
2.433 5.371 2.136
2.662 5.484 2.325
2.076 5.352 1.054
2.116 5.337 1.275
2.300 5.357 1.569
2.325 5.419 1.898
2.282 5.708 1.884
2.408 5.709 2.125
2.483 5.733 2.385
2.590 5.735 2.587
2.098 5.687 1.274
2.226 5.711 1.576
2.347 5.688 1.812
2.226 5.925 1.866
2.302 5.909 2.178
2.360 6.019 2.398
2.588 5.996 2.616
2.706 5.979 2.983
2.020 5.877 1.662
2.236 5.990 1.907
2.176 6.249 1.946
2.251 6.158 2.185
2.359 6.311 2.480
2.432 6.332 2.706
1.998 6.189 1.691
2.174 6.176 1.889
3.702 1.055 1.864
3.914 1.006 2.111
4.061 1.104 2.485
4.040 1.024 2.636
4.262 1.116 2.908
2.987 0.859 0.090
3.542 0.966 2.075
3.707 0.906 2.301
3.694 1.038 2.559
3.802 1.016 2.835
4.028 0.967 3.052
2.786 0.818 0.217
3.581 1.262 2.232
3.701 1.316 2.554
3.823 1.326 2.830
4.554 1.426 4.601
2.587 1.058 0.195
2.727 1.067 0.427
4.537 1.751 4.608
2.570 1.294 0.267
2.623 1.365 0.461
4.341 2.030 4.344
4.405 1.957 4.631
2.550 1.573 0.236
2.562 1.700 0.496
4.063 2.228 4.148
4.257 2.233 4.447
4.304 2.298 4.692
2.378 1.864 0.195
3.863 2.451 3.903
4.077 2.462 4.143
4.175 2.453 4.377
4.287 2.474 4.622
3.742 2.721 3.656
3.798 2.703 3.887
3.970 2.710 4.203
4.003 2.823 4.375
4.144 2.795 4.636
3.587 2.955 3.376
3.659 2.953 3.726
3.688 3.003 3.879
3.894 3.001 4.180
4.009 3.011 4.430
4.027 3.066 4.703
3.263 3.214 3.226
3.439 3.279 3.440
3.519 3.264 3.668
3.670 3.230 3.925
3.732 3.331 4.167
3.841 3.348 4.483
3.940 3.350 4.780
3.277 3.500 3.133
3.332 3.544 3.369
3.456 3.560 3.657
3.566 3.585 4.033
3.737 3.608 4.288
3.746 3.618 4.530
3.916 3.622 4.673
3.155 3.719 3.142
3.330 3.824 3.494
3.452 3.868 3.777
3.550 3.802 3.907
3.636 3.886 4.197
3.722 3.870 4.454
3.879 3.943 4.827
2.167 3.553 0.893
2.259 3.602 1.100
2.360 3.569 1.370
3.217 4.115 3.415
3.333 4.084 3.756
3.436 4.166 3.988
3.569 4.094 4.267
3.665 4.088 4.534
1.882 3.895 0.586
2.040 3.873 0.863
2.108 3.916 1.142
2.355 3.943 1.330
2.366 3.978 1.682
2.406 4.175 1.881
3.289 4.346 3.679
3.285 4.393 3.996
3.448 4.466 4.296
1.696 4.126 0.378
1.901 4.082 0.552
1.964 4.061 0.838
2.126 4.208 1.187
2.175 4.145 1.368
2.387 4.249 1.681
2.399 4.205 1.954
2.306 4.446 1.958
1.687 4.290 0.384
1.792 4.342 0.696
1.964 4.412 0.820
2.076 4.456 1.157
2.143 4.404 1.457
2.212 4.512 1.689
2.383 4.510 1.982
2.236 4.725 1.956
2.407 4.740 2.220
1.629 4.632 0.365
1.634 4.588 0.675
1.770 4.742 0.919
1.971 4.751 1.162
2.075 4.747 1.468
2.115 4.800 1.750
2.223 4.755 2.005
2.149 4.979 1.885
2.351 5.013 2.197
2.428 5.030 2.450
1.630 4.885 0.598
1.777 4.941 0.839
1.911 5.005 1.199
1.892 5.041 1.450
2.136 4.952 1.633
2.122 4.980 1.925
2.070 5.257 2.021
2.270 5.351 2.224
2.373 5.360 2.447
2.381 5.356 2.739
1.721 5.216 0.865
1.701 5.204 1.154
1.883 5.265 1.419
2.053 5.270 1.774
2.166 5.369 1.955
2.098 5.534 2.031
2.211 5.641 2.233
2.288 5.664 2.527
2.428 5.631 2.716
2.554 5.638 3.063
1.739 5.509 1.249
1.778 5.533 1.469
1.900 5.564 1.651
2.075 5.540 2.024
1.950 5.921 2.005
2.117 5.919 2.217
2.178 5.898 2.508
2.357 5.871 2.792
2.409 5.920 3.002
2.506 5.998 3.316
1.736 5.863 1.549
1.816 5.877 1.797
1.878 5.854 1.995
1.829 6.106 2.016
2.046 6.103 2.276
2.166 6.196 2.573
2.236 6.134 2.833
2.392 6.203 3.103
2.366 6.203 3.314
2.620 6.249 3.576
1.685 6.067 1.774
1.936 6.107 1.957
3.505 0.922 2.065
3.639 1.023 2.299
3.794 1.002 2.480
3.840 0.972 2.831
4.004 0.995 3.038
2.680 0.801 0.183
3.409 0.883 2.432
3.481 0.869 2.628
3.587 1.000 2.929
3.779 0.970 3.128
2.397 0.773 0.078
2.458 0.752 0.279
2.244 0.982 0.009
2.422 1.009 0.243
2.577 0.987 0.523
4.254 1.645 4.840
2.142 1.288 -0.001
2.287 1.206 0.376
2.367 1.332 0.534
2.558 1.376 0.839
3.986 1.834 4.518
4.113 1.883 4.752
2.183 1.508 0.077
2.191 1.555 0.409
2.338 1.545 0.533
2.416 1.626 0.800
3.788 2.153 4.240
3.932 2.189 4.524
4.067 2.230 4.797
2.074 1.780 0.118
2.152 1.793 0.366
2.200 1.785 0.601
3.687 2.406 4.044
3.734 2.432 4.351
3.834 2.465 4.561
3.957 2.390 4.811
2.017 2.096 0.094
2.079 2.056 0.399
3.324 2.544 3.533
3.488 2.669 3.712
3.530 2.725 4.099
3.717 2.706 4.357
3.786 2.732 4.498
3.873 2.785 4.858
3.152 2.834 3.297
3.306 2.938 3.571
3.421 2.866 3.725
3.451 2.948 4.109
3.551 2.995 4.331
3.678 2.903 4.537
3.789 2.965 4.870
2.927 3.132 2.951
3.123 3.194 3.302
3.199 3.168 3.578
3.267 3.252 3.863
3.414 3.203 4.045
3.568 3.288 4.350
3.603 3.294 4.613
3.730 3.282 4.899
2.881 3.325 3.073
3.023 3.375 3.257
3.083 3.446 3.532
3.266 3.445 3.876
3.299 3.550 4.150
3.526 3.561 4.341
3.524 3.495 4.577
3.649 3.476 4.903
2.933 3.668 3.296
2.962 3.743 3.544
3.104 3.766 3.905
3.186 3.706 4.138
3.311 3.752 4.401
3.459 3.768 4.569
2.968 3.956 3.564
3.114 4.069 3.774
3.138 4.074 4.045
3.365 4.031 4.312
1.713 3.737 0.695
1.851 3.729 1.033
1.969 3.754 1.253
1.984 3.797 1.460
1.539 3.952 0.462
1.578 4.009 0.697
1.801 4.074 1.009
1.775 4.111 1.179
1.987 4.146 1.437
2.110 4.094 1.759
2.163 4.370 2.007
1.309 4.225 0.262
1.496 4.265 0.530
1.565 4.249 0.736
1.588 4.271 0.987
1.762 4.293 1.305
1.835 4.414 1.488
1.958 4.460 1.719
2.117 4.342 2.041
2.056 4.725 2.072
2.199 4.704 2.339
1.273 4.492 0.245
1.331 4.590 0.476
1.411 4.571 0.819
1.568 4.530 1.053
1.641 4.637 1.298
1.809 4.622 1.572
1.973 4.662 1.838
2.041 4.732 2.028
1.898 4.906 2.140
2.101 4.958 2.382
2.176 5.068 2.647
1.288 4.814 0.439
1.334 4.828 0.787
1.512 4.858 1.098
1.627 4.927 1.267
1.708 4.972 1.598
1.796 4.926 1.833
2.002 4.937 2.005
1.927 5.244 2.058
1.992 5.293 2.298
2.124 5.305 2.612
2.187 5.347 2.925
1.343 5.171 0.739
1.408 5.130 0.972
1.480 5.234 1.299
1.705 5.156 1.636
1.721 5.133 1.824
1.893 5.212 2.061
1.752 5.481 2.052
1.878 5.581 2.313
1.936 5.484 2.654
2.099 5.575 2.921
2.187 5.535 3.159
2.307 5.562 3.416
1.429 5.468 1.242
1.613 5.501 1.576
1.611 5.465 1.879
1.745 5.505 2.092
1.731 5.788 2.160
1.810 5.804 2.355
1.864 5.811 2.619
2.096 5.877 2.843
2.163 5.836 3.088
2.293 5.915 3.376
2.336 5.894 3.614
1.499 5.776 1.564
1.576 5.792 1.886
1.640 5.725 2.060
1.691 6.053 2.176
1.694 6.127 2.433
1.884 6.100 2.582
2.022 6.075 2.887
2.103 6.182 3.215
2.228 6.170 3.378
2.288 6.123 3.643
2.469 6.137 3.912
1.489 5.988 1.806
1.548 6.029 2.133
3.318 0.869 2.361
3.549 0.885 2.580
3.656 0.986 2.859
3.736 0.882 3.245
2.390 0.697 0.051
2.501 0.759 0.324
3.186 0.877 2.780
3.374 0.886 3.046
3.471 0.930 3.246
3.591 0.884 3.608
2.073 0.656 0.206
2.158 0.656 0.488
2.336 0.616 0.643
2.090 0.884 0.182
2.191 0.922 0.403
2.227 0.897 0.629
2.396 1.006 1.018
2.008 1.166 0.203
2.042 1.147 0.462
2.202 1.218 0.751
2.294 1.223 0.945
2.391 1.197 1.157
3.911 1.748 4.952
1.825 1.389 0.132
1.981 1.462 0.431
2.081 1.530 0.725
2.222 1.451 0.954
2.266 1.523 1.266
3.747 2.054 4.591
3.849 2.075 4.964
1.824 1.736 0.163
1.955 1.707 0.402
2.042 1.746 0.788
2.086 1.720 1.034
2.176 1.798 1.248
3.292 2.235 3.924
3.382 2.369 4.204
3.578 2.363 4.457
3.702 2.327 4.711
3.688 2.354 4.908
1.687 1.989 0.218
1.872 2.052 0.424
1.866 2.052 0.745
2.058 2.052 1.030
2.905 2.545 3.052
3.023 2.587 3.441
3.181 2.598 3.639
3.176 2.592 3.938
3.330 2.614 4.224
3.495 2.665 4.356
3.523 2.669 4.698
3.637 2.613 4.899
1.556 2.239 0.261
2.757 2.796 2.801
2.872 2.795 3.193
2.961 2.756 3.416
3.092 2.745 3.667
3.193 2.824 3.858
3.268 2.894 4.194
3.386 2.907 4.409
3.453 2.945 4.654
3.555 2.880 4.897
2.557 3.019 2.851
2.713 3.018 3.090
2.803 3.110 3.403
2.988 3.155 3.608
3.044 3.081 3.850
3.182 3.160 4.152
3.285 3.093 4.422
3.436 3.166 4.711
3.495 3.257 5.032
2.449 3.316 2.832
2.672 3.270 3.139
2.709 3.301 3.366
2.929 3.349 3.677
2.997 3.376 4.003
3.138 3.463 4.172
3.163 3.392 4.439
3.263 3.429 4.761
2.597 3.581 3.102
2.695 3.676 3.373
2.791 3.667 3.737
2.924 3.699 3.967
3.069 3.722 4.191
3.175 3.665 4.399
2.605 3.868 3.391
2.775 3.882 3.720
2.790 3.885 3.985
2.914 3.985 4.203
1.323 3.729 0.556
1.448 3.699 0.784
1.567 3.746 1.027
1.609 3.745 1.297
1.176 3.956 0.370
1.263 3.973 0.637
1.382 3.936 0.843
1.531 4.001 1.036
1.551 3.971 1.379
1.694 4.017 1.560
0.959 4.125 0.084
1.130 4.122 0.391
1.246 4.220 0.634
1.213 4.285 0.820
1.343 4.238 1.114
1.456 4.311 1.347
1.648 4.359 1.689
1.776 4.312 1.896
1.708 4.544 2.218
0.848 4.362 0.125
0.951 4.401 0.276
1.087 4.496 0.649
1.280 4.461 0.823
1.280 4.502 1.140
1.429 4.468 1.443
1.505 4.598 1.608
1.728 4.638 1.937
1.767 4.590 2.237
1.651 4.947 2.121
1.760 4.884 2.427
0.759 4.641 0.149
0.847 4.691 0.411
1.058 4.685 0.675
1.125 4.793 0.935
1.217 4.820 1.127
1.364 4.812 1.398
1.448 4.816 1.638
1.654 4.795 1.872
1.750 4.814 2.231
1.662 5.083 2.198
1.696 5.181 2.426
1.891 5.171 2.759
2.012 5.163 3.012
2.072 5.279 3.181
0.780 5.040 0.315
0.914 4.968 0.624
1.117 5.013 0.891
1.203 5.065 1.084
1.318 5.068 1.440
1.401 5.103 1.674
1.548 5.103 1.948
1.655 5.200 2.156
1.501 5.413 2.194
1.644 5.465 2.409
1.828 5.420 2.699
1.891 5.414 3.045
1.971 5.480 3.192
2.172 5.474 3.544
2.254 5.505 3.736
2.359 5.527 4.037
1.037 5.323 1.210
1.226 5.375 1.454
1.258 5.377 1.710
1.353 5.390 1.917
1.605 5.445 2.200
1.407 5.653 2.251
1.586 5.769 2.554
1.701 5.718 2.692
1.806 5.752 2.948
1.926 5.796 3.285
2.025 5.854 3.536
2.097 5.809 3.862
2.272 5.900 4.072
2.402 5.824 4.304
1.381 5.646 1.986
1.390 5.743 2.236
1.379 6.016 2.251
1.441 5.956 2.553
1.540 5.963 2.793
1.715 6.046 2.979
1.831 6.072 3.254
1.875 6.129 3.560
2.088 6.114 3.833
2.101 6.087 4.064
2.229 6.137 4.392
1.321 6.026 2.180
1.375 6.278 2.472
3.252 0.844 2.739
3.398 0.923 3.096
3.507 0.904 3.271
3.661 0.852 3.579
2.043 0.575 0.083
2.168 0.587 0.377
2.327 0.730 0.624
3.222 0.836 3.389
3.392 0.839 3.624
2.007 0.554 0.542
2.109 0.607 0.806
1.648 0.818 -0.048
1.765 0.828 0.328
1.939 0.819 0.492
2.068 0.821 0.838
2.189 0.933 1.100
2.189 0.944 1.309
1.588 1.102 0.046
1.739 1.086 0.293
1.826 1.188 0.597
1.942 1.180 0.748
2.085 1.101 1.099
2.087 1.188 1.410
2.287 1.191 1.538
1.566 1.288 -0.002
1.591 1.341 0.329
1.807 1.323 0.510
1.850 1.437 0.849
2.018 1.361 1.106
2.075 1.525 1.311
2.218 1.419 1.687
2.307 1.428 1.858
1.427 1.581 -0.009
1.521 1.619 0.265
1.591 1.697 0.628
1.724 1.676 0.836
1.850 1.747 1.052
1.994 1.654 1.439
2.134 1.701 1.595
2.293 1.782 1.887
2.266 2.091 2.182
2.381 2.032 2.435
3.444 2.219 4.816
3.461 2.275 5.103
1.412 1.909 0.068
1.524 1.859 0.390
1.592 1.919 0.558
1.628 1.912 0.853
1.770 2.040 1.118
1.868 1.945 1.313
2.006 1.983 1.583
2.186 2.057 1.936
2.286 2.064 2.122
2.243 2.268 2.183
2.306 2.363 2.481
2.350 2.336 2.730
2.500 2.412 2.975
2.606 2.402 3.269
2.767 2.491 3.466
2.923 2.444 3.797
2.987 2.517 3.983
3.038 2.502 4.202
3.178 2.543 4.466
3.346 2.486 4.736
3.474 2.518 4.995
2.079 2.330 1.878
2.238 2.271 2.154
2.246 2.565 2.448
2.278 2.715 2.656
2.383 2.613 2.962
2.522 2.691 3.273
2.725 2.648 3.571
2.850 2.674 3.784
2.860 2.818 4.016
2.931 2.834 4.321
3.095 2.826 4.615
3.167 2.752 4.868
2.129 2.861 2.404
2.289 2.907 2.662
2.387 2.901 2.980
2.397 2.961 3.205
2.633 3.017 3.547
2.770 2.974 3.718
2.772 2.957 3.978
2.888 3.011 4.231
3.017 3.015 4.505
3.139 3.155 4.777
2.114 3.266 2.705
2.245 3.193 3.006
2.328 3.303 3.202
2.452 3.189 3.520
2.611 3.270 3.812
2.770 3.310 4.019
2.769 3.253 4.351
2.929 3.349 4.498
2.198 3.517 3.053
2.350 3.509 3.261
2.378 3.504 3.505
2.520 3.602 3.734
2.644 3.576 4.013
2.710 3.627 4.262
2.269 3.791 3.500
2.458 3.771 3.843
1.111 3.602 0.632
1.156 3.561 0.881
0.797 3.862 0.151
0.822 3.871 0.478
0.957 3.883 0.631
1.175 3.933 0.928
1.183 3.885 1.186
1.417 3.839 1.464
0.655 4.141 0.155
0.774 4.072 0.381
0.877 4.093 0.722
1.080 4.183 0.917
1.084 4.237 1.259
1.317 4.120 1.447
1.424 4.222 1.758
0.555 4.368 0.244
0.690 4.382 0.442
0.839 4.386 0.715
0.917 4.374 0.980
1.020 4.425 1.295
1.169 4.412 1.446
1.332 4.409 1.820
1.369 4.431 2.010
0.505 4.595 0.238
0.668 4.702 0.463
0.774 4.743 0.678
0.921 4.627 0.967
0.931 4.767 1.207
1.050 4.748 1.456
1.204 4.803 1.735
1.352 4.820 2.105
1.315 5.036 2.318
1.517 5.151 2.505
2.432 5.322 4.901
2.560 5.369 5.191
0.525 4.930 0.246
0.571 4.880 0.528
0.730 4.951 0.771
0.842 4.932 0.972
0.976 4.928 1.295
1.044 4.958 1.526
1.084 5.014 1.841
1.220 5.122 2.067
1.322 5.093 2.296
1.258 5.394 2.398
1.462 5.291 2.641
1.580 5.319 2.833
1.576 5.475 3.103
1.781 5.497 3.320
1.913 5.456 3.677
1.990 5.525 3.897
2.027 5.501 4.104
2.190 5.512 4.470
2.355 5.597 4.697
2.451 5.583 5.003
2.538 5.619 5.200
1.214 5.378 2.040
1.294 5.273 2.353
1.330 5.674 2.617
1.439 5.642 2.937
1.537 5.728 3.082
1.663 5.729 3.405
1.772 5.711 3.632
1.870 5.749 3.836
2.000 5.831 4.165
2.118 5.857 4.468
2.223 5.812 4.762
2.296 5.886 4.937
1.200 5.962 2.676
1.283 5.864 2.859
1.475 5.958 3.195
1.580 5.997 3.350
1.734 5.944 3.634
1.735 6.044 3.862
1.970 5.976 4.197
2.098 6.034 4.424
2.157 6.130 4.641
2.198 6.145 4.958
1.218 6.258 2.881
1.347 6.215 3.153
1.500 6.177 3.431
1.629 6.299 3.744
3.248 0.828 3.344
3.372 0.855 3.706
2.004 0.593 0.502
2.042 0.577 0.852
2.954 0.700 3.510
3.032 0.686 3.819
3.149 0.827 3.973
3.350 0.749 4.334
1.708 0.541 0.718
1.877 0.538 0.888
1.887 0.508 1.219
2.127 0.521 1.444
1.482 0.696 0.371
1.670 0.724 0.599
1.807 0.775 0.926
1.825 0.790 1.192
2.051 0.871 1.423
2.086 0.830 1.739
1.411 1.035 0.089
1.521 1.021 0.377
1.639 1.078 0.631
1.711 1.016 0.920
1.805 1.003 1.209
1.906 1.167 1.439
2.002 1.109 1.685
2.137 1.184 2.005
2.193 1.370 2.240
1.224 1.333 0.097
1.411 1.250 0.440
1.519 1.260 0.681
1.623 1.360 0.929
1.654 1.288 1.163
1.798 1.435 1.466
2.004 1.390 1.732
2.058 1.381 1.972
2.183 1.496 2.230
2.101 1.716 2.271
2.217 1.758 2.584
1.128 1.524 0.139
1.352 1.593 0.415
1.339 1.655 0.752
1.571 1.546 0.940
1.577 1.592 1.214
1.735 1.671 1.419
1.845 1.674 1.676
2.038 1.690 2.034
2.070 1.708 2.285
2.044 1.977 2.316
2.055 2.010 2.531
2.264 2.009 2.742
2.374 2.070 3.071
2.426 1.995 3.306
1.255 1.825 0.406
1.308 1.883 0.658
1.418 1.911 0.991
1.613 1.877 1.235
1.738 1.980 1.471
1.743 1.999 1.764
1.869 2.004 1.992
1.999 1.927 2.248
1.930 2.209 2.339
2.027 2.280 2.521
2.110 2.275 2.773
2.310 2.335 3.080
2.312 2.295 3.334
2.513 2.384 3.628
2.596 2.326 3.871
2.792 2.441 4.130
1.422 2.140 1.178
1.617 2.142 1.503
1.699 2.250 1.828
1.751 2.178 2.019
1.994 2.253 2.267
1.774 2.564 2.372
1.891 2.566 2.609
2.128 2.582 2.846
2.248 2.648 3.078
2.237 2.660 3.342
2.480 2.605 3.652
2.577 2.661 3.912
2.659 2.665 4.210
2.820 2.656 4.416
1.747 2.482 2.099
1.779 2.497 2.367
1.836 2.731 2.272
1.899 2.815 2.608
1.977 2.784 2.803
2.125 2.890 3.149
2.256 2.827 3.410
2.360 2.970 3.584
2.479 2.901 3.852
2.508 2.973 4.117
2.681 2.985 4.483
1.807 2.733 2.366
1.734 3.135 2.669
1.876 3.059 2.926
2.066 3.063 3.149
2.068 3.088 3.404
2.291 3.184 3.583
2.310 3.182 3.888
2.513 3.166 4.231
2.650 3.282 4.465
1.857 3.375 2.900
1.989 3.436 3.184
2.122 3.489 3.345
2.155 3.478 3.666
2.251 3.450 3.941
2.395 3.540 4.142
1.894 3.628 3.212
1.960 3.650 3.439
2.028 3.756 3.602
2.132 3.706 3.927
0.555 3.512 0.218
0.675 3.498 0.582
0.815 3.540 0.732
0.890 3.569 1.031
0.410 3.719 -0.003
0.477 3.671 0.318
0.590 3.721 0.579
0.796 3.813 0.796
0.931 3.832 1.062
0.997 3.854 1.351
0.391 3.976 -0.020
0.490 4.040 0.293
0.520 4.096 0.595
0.652 3.984 0.887
0.846 4.045 1.061
0.977 4.091 1.323
1.080 4.147 1.649
2.470 4.599 5.264
0.223 4.316 -0.006
0.367 4.307 0.370
0.485 4.237 0.611
0.557 4.317 0.910
0.705 4.281 1.051
0.888 4.360 1.290
0.969 4.396 1.612
2.270 4.935 5.031
2.497 4.911 5.354
0.110 4.458 0.091
0.336 4.543 0.259
0.407 4.557 0.589
0.541 4.552 0.847
0.586 4.669 1.106
0.716 4.643 1.367
0.870 4.703 1.654
1.891 5.194 4.329
2.031 5.174 4.584
2.145 5.191 4.709
2.230 5.198 5.109
2.419 5.191 5.301
0.020 4.770 0.146
0.179 4.842 0.350
0.392 4.838 0.602
0.430 4.849 0.876
0.490 4.956 1.195
0.603 4.876 1.448
1.528 5.324 3.466
1.611 5.370 3.818
1.710 5.433 3.994
1.764 5.473 4.276
1.907 5.445 4.595
2.113 5.454 4.812
2.222 5.438 5.107
2.323 5.489 5.288
0.021 5.023 0.141
0.145 5.071 0.425
0.218 5.053 0.672
1.229 5.529 3.200
1.445 5.680 3.547
1.529 5.608 3.697
1.618 5.615 3.976
1.801 5.737 4.324
1.817 5.687 4.496
2.016 5.709 4.830
2.075 5.777 5.053
2.244 5.801 5.382
1.152 5.937 3.285
1.329 5.933 3.472
1.436 5.954 3.752
1.513 5.885 4.008
1.672 5.953 4.307
1.813 5.938 4.497
1.932 5.952 4.797
2.042 6.024 5.113
2.132 6.036 5.368
1.173 6.166 3.196
1.258 6.146 3.553
1.369 6.156 3.825
1.541 6.254 4.113
1.533 6.265 4.292
1.667 6.285 4.524
1.787 6.338 4.797
2.944 0.671 3.515
3.079 0.699 3.832
3.172 0.766 4.057
3.313 0.740 4.234
1.722 0.467 0.641
1.877 0.437 0.949
1.961 0.543 1.169
2.030 0.483 1.445
2.816 0.663 3.948
2.997 0.635 4.169
3.037 0.739 4.409
3.255 0.762 4.633
1.521 0.467 1.061
1.753 0.481 1.236
1.884 0.461 1.619
1.951 0.557 1.800
1.427 0.708 0.809
1.545 0.662 0.997
1.598 0.694 1.251
1.674 0.719 1.551
1.868 0.749 1.845
1.959 0.801 2.119
2.057 1.112 2.286
1.173 0.991 0.545
1.314 0.893 0.851
1.431 0.919 1.092
1.525 1.071 1.332
1.634 0.977 1.615
1.702 1.000 1.841
1.873 1.077 2.067
1.966 1.019 2.378
1.958 1.401 2.406
2.063 1.444 2.589
1.068 1.281 0.501
1.239 1.229 0.764
1.291 1.290 1.131
1.396 1.338 1.330
1.586 1.320 1.608
1.678 1.303 1.783
1.760 1.309 2.060
1.857 1.353 2.302
1.845 1.581 2.456
1.923 1.574 2.669
2.125 1.598 2.832
1.121 1.563 0.815
1.263 1.469 1.059
1.329 1.544 1.404
1.517 1.622 1.637
1.544 1.570 1.897
1.744 1.668 2.189
1.821 1.596 2.401
1.744 1.869 2.378
1.815 1.938 2.619
1.936 1.881 2.876
2.084 1.944 3.239
1.235 1.828 1.065
1.274 1.759 1.297
1.448 1.779 1.620
1.487 1.848 1.840
1.599 1.810 2.186
1.804 1.884 2.350
1.690 2.158 2.465
1.755 2.149 2.703
1.851 2.246 2.990
2.004 2.186 3.206
2.119 2.185 3.398
2.185 2.246 3.698
1.364 2.091 1.658
1.491 2.168 1.818
1.570 2.129 2.117
1.631 2.246 2.388
1.523 2.385 2.359
1.641 2.432 2.754
1.776 2.466 2.944
2.009 2.488 3.197
2.035 2.569 3.498
2.139 2.488 3.716
2.337 2.519 4.024
1.429 2.367 1.923
1.508 2.477 2.147
1.570 2.402 2.355
1.559 2.679 2.495
1.571 2.706 2.633
1.749 2.727 2.955
1.833 2.838 3.260
1.907 2.771 3.447
2.119 2.804 3.683
2.234 2.788 4.015
2.303 2.853 4.226
1.387 2.695 2.247
1.444 2.660 2.407
1.508 3.064 2.419
1.613 2.958 2.638
1.640 2.992 3.020
1.780 3.073 3.182
1.841 3.051 3.520
2.002 3.156 3.740
2.127 3.085 4.038
2.280 3.074 4.322
1.367 2.964 2.486
1.536 3.355 2.731
1.619 3.361 2.933
1.660 3.268 3.209
1.875 3.386 3.548
1.901 3.388 3.768
2.106 3.392 4.081
1.446 3.587 3.000
1.577 3.568 3.243
1.706 3.605 3.483
1.839 3.685 3.844
0.283 3.364 0.143
0.367 3.394 0.407
0.416 3.328 0.669
0.535 3.462 0.975
0.203 3.587 0.125
0.221 3.710 0.406
0.358 3.722 0.616
0.513 3.633 0.975
0.671 3.657 1.236
2.389 4.325 5.336
0.044 3.884 0.091
0.156 3.926 0.383
0.300 3.990 0.750
0.386 3.941 0.890
0.571 3.948 1.167
0.619 3.989 1.486
2.220 4.534 5.126
2.208 4.563 5.416
0.007 4.123 0.157
0.084 4.236 0.392
0.267 4.250 0.743
0.313 4.230 1.014
0.473 4.313 1.146
0.601 4.214 1.482
2.021 4.820 4.948
2.053 4.873 5.146
2.189 4.920 5.454
0.106 4.485 0.388
0.210 4.429 0.633
0.326 4.549 0.917
0.318 4.571 1.225
1.849 5.036 4.563
1.885 5.106 4.923
1.935 5.141 5.154
2.074 5.107 5.435
0.070 4.818 0.694
0.123 4.854 0.939
1.401 5.304 4.106
1.521 5.335 4.352
1.685 5.353 4.585
1.787 5.302 4.982
1.997 5.367 5.101
2.051 5.392 5.388
1.278 5.546 3.888
1.456 5.534 4.186
1.521 5.549 4.417
1.657 5.659 4.613
1.687 5.575 4.939
1.844 5.650 5.196
1.969 5.759 5.393
1.021 5.776 3.580
1.159 5.901 3.883
1.244 5.842 4.192
1.470 5.931 4.480
1.604 5.958 4.626
1.590 5.985 4.996
1.817 5.937 5.177
1.881 5.913 5.484
1.027 6.051 3.679
1.177 6.047 3.943
1.241 6.157 4.123
1.272 6.223 4.427
1.494 6.113 4.618
1.527 6.202 4.975
1.645 6.183 5.230
1.786 6.243 5.417
2.882 0.647 3.838
3.002 0.642 4.110
3.099 0.770 4.446
3.164 0.778 4.647
1.632 0.367 1.081
1.779 0.467 1.294
1.892 0.406 1.490
2.004 0.420 1.769
2.574 0.511 3.994
2.779 0.665 4.288
2.876 0.607 4.492
2.975 0.570 4.794
3.016 0.642 5.088
1.348 0.320 1.134
1.501 0.375 1.337
1.637 0.389 1.616
1.636 0.465 1.985
1.793 0.443 2.190
1.873 0.724 2.494
2.567 0.901 4.234
2.744 0.852 4.555
2.867 0.974 4.790
1.131 0.656 0.848
1.294 0.638 1.095
1.404 0.585 1.480
1.499 0.668 1.614
1.581 0.678 1.891
1.736 0.759 2.129
1.862 0.707 2.407
1.801 0.986 2.533
1.100 0.874 0.872
1.250 0.933 1.097
1.336 0.916 1.418
1.432 1.013 1.638
1.587 0.972 1.965
1.650 1.047 2.196
1.745 0.938 2.472
1.678 1.258 2.512
1.844 1.364 2.783
0.996 1.111 0.865
1.127 1.131 1.213
1.268 1.262 1.462
1.394 1.234 1.721
1.446 1.187 2.034
1.577 1.220 2.252
1.607 1.271 2.476
1.555 1.550 2.513
1.756 1.565 2.732
1.867 1.663 3.058
1.023 1.417 1.247
1.177 1.459 1.381
1.292 1.553 1.703
1.353 1.548 1.999
1.428 1.541 2.222
1.571 1.514 2.459
1.491 1.869 2.526
1.614 1.821 2.746
1.716 1.922 3.098
1.841 1.827 3.270
1.095 1.724 1.432
1.094 1.754 1.786
1.252 1.777 1.925
1.438 1.823 2.288
1.487 1.830 2.487
1.362 2.077 2.581
1.608 2.051 2.785
1.702 2.178 3.069
1.763 2.133 3.366
1.834 2.175 3.603
1.036 2.045 1.699
1.237 2.106 1.983
1.249 2.013 2.284
1.500 2.105 2.479
1.373 2.361 2.494
1.474 2.354 2.764
1.629 2.452 3.058
1.676 2.387 3.306
1.733 2.503 3.613
1.972 2.424 3.771
1.063 2.270 1.975
1.172 2.291 2.230
1.378 2.392 2.494
1.269 2.578 2.482
1.360 2.657 2.748
1.506 2.641 3.110
1.572 2.655 3.270
1.715 2.782 3.581
1.823 2.759 3.807
1.919 2.703 4.131
1.119 2.585 2.263
1.334 2.663 2.535
1.218 2.898 2.525
1.249 2.951 2.786
1.385 2.941 3.018
1.459 2.973 3.297
1.599 2.946 3.588
1.796 2.997 3.881
1.858 3.053 4.168
1.184 2.868 2.537
1.147 3.135 2.508
1.147 3.260 2.856
1.360 3.197 3.037
1.459 3.312 3.411
1.568 3.260 3.634
1.726 3.333 3.836
1.797 3.324 4.182
0.141 2.955 0.197
0.241 3.064 0.548
0.248 3.035 0.748
1.038 3.193 2.632
1.132 3.495 2.889
1.263 3.437 3.048
1.338 3.500 3.308
1.428 3.495 3.625
1.597 3.561 3.837
0.054 3.228 0.445
0.164 3.348 0.702
0.287 3.412 1.083
1.216 3.763 3.086
1.356 3.867 3.418
1.433 3.804 3.645
2.155 4.020 5.520
-0.027 3.578 0.471
0.188 3.563 0.839
0.242 3.608 1.103
0.335 3.656 1.363
2.086 4.268 5.564
0.103 3.819 0.784
0.162 3.924 1.099
0.361 3.961 1.378
1.875 4.563 5.269
2.010 4.529 5.547
0.138 4.095 1.075
0.153 4.173 1.370
1.724 4.684 4.930
1.823 4.813 5.304
1.936 4.797 5.525
0.030 4.455 1.090
1.592 5.055 4.754
1.651 5.061 5.079
1.826 5.104 5.213
1.896 5.076 5.489
1.260 5.319 4.427
1.489 5.331 4.763
1.634 5.266 4.983
1.730 5.282 5.244
1.837 5.314 5.508
1.151 5.469 4.189
1.210 5.541 4.581
1.436 5.616 4.726
1.425 5.580 4.973
1.600 5.617 5.347
1.731 5.668 5.611
0.937 5.688 4.016
1.023 5.780 4.323
1.168 5.749 4.585
1.215 5.890 4.748
1.411 5.813 5.040
1.513 5.799 5.323
1.695 5.812 5.605
0.805 6.066 4.040
0.960 6.117 4.280
1.026 6.125 4.553
1.249 6.047 4.863
1.328 6.119 5.046
1.489 6.173 5.388
1.559 6.136 5.631
2.533 0.602 3.974
2.677 0.570 4.254
2.764 0.596 4.472
2.952 0.626 4.809
3.007 0.616 4.981
1.296 0.330 1.124
1.484 0.433 1.441
1.601 0.415 1.690
1.665 0.457 1.980
1.833 0.400 2.241
2.406 0.452 4.113
2.496 0.519 4.397
2.641 0.588 4.715
2.749 0.628 4.932
2.789 0.592 5.235
1.035 0.307 1.212
1.197 0.338 1.562
1.340 0.277 1.840
1.444 0.321 1.989
1.589 0.315 2.360
1.639 0.708 2.499
2.290 0.832 4.103
2.433 0.758 4.421
2.465 0.879 4.603
2.669 0.885 4.864
2.770 0.921 5.149
0.835 0.542 0.978
0.955 0.594 1.271
1.184 0.589 1.473
1.285 0.520 1.789
1.342 0.581 1.990
1.436 0.677 2.248
1.648 0.697 2.597
1.564 0.965 2.553
2.440 1.155 4.669
2.472 1.169 4.910
1.003 0.830 1.305
1.014 0.860 1.491
1.206 0.799 1.754
1.318 0.941 2.023
1.424 0.915 2.388
1.541 0.927 2.576
1.472 1.128 2.636
1.547 1.225 2.858
0.895 1.032 1.291
0.987 1.171 1.541
1.069 1.194 1.771
1.259 1.134 2.142
1.342 1.103 2.273
1.445 1.244 2.601
1.289 1.490 2.555
1.386 1.436 2.897
0.914 1.366 1.600
0.956 1.375 1.820
1.140 1.386 2.124
1.288 1.426 2.286
1.360 1.509 2.609
1.310 1.674 2.555
1.423 1.708 2.853
1.468 1.746 3.220
0.864 1.747 1.884
1.063 1.766 2.137
1.104 1.736 2.373
1.257 1.808 2.579
1.188 1.951 2.625
1.348 2.073 2.859
1.416 2.077 3.108
1.520 2.028 3.459
0.920 2.031 2.116
1.122 2.053 2.324
1.168 2.038 2.626
1.028 2.250 2.696
1.252 2.327 2.949
1.363 2.343 3.208
1.399 2.322 3.365
1.559 2.302 3.644
0.935 2.300 2.378
1.095 2.304 2.586
1.060 2.556 2.739
1.178 2.545 2.968
1.316 2.676 3.255
1.429 2.648 3.379
1.453 2.572 3.654
1.590 2.711 3.989
0.963 2.591 2.382
0.962 2.547 2.669
0.927 2.866 2.618
1.077 2.865 2.967
1.224 2.866 3.149
1.351 2.844 3.436
1.405 2.910 3.736
1.515 2.920 3.922
0.047 2.636 0.630
0.961 2.840 2.737
0.816 3.091 2.657
1.006 3.156 2.919
1.083 3.113 3.245
1.209 3.188 3.522
1.262 3.166 3.699
1.405 3.281 4.042
1.519 3.184 4.246
0.066 3.029 0.803
0.236 2.948 1.074
0.860 3.090 2.736
0.831 3.461 2.989
1.036 3.355 3.175
1.163 3.485 3.545
1.292 3.468 3.796
1.347 3.447 4.006
0.060 3.255 1.135
0.758 3.719 2.990
0.879 3.639 3.236
1.094 3.765 3.455
1.129 3.798 3.763
1.240 3.718 3.959
1.962 3.867 5.551
0.061 3.467 1.159
0.078 3.540 1.354
0.796 4.038 3.294
0.961 3.954 3.506
1.791 4.130 5.649
1.697 4.369 5.336
1.739 4.484 5.609
1.642 4.656 5.310
1.756 4.757 5.589
1.376 4.934 5.092
1.459 5.011 5.416
1.689 4.967 5.616
1.228 5.244 4.850
1.379 5.258 5.121
1.380 5.248 5.352
1.556 5.201 5.660
0.940 5.449 4.610
1.072 5.410 4.846
1.299 5.460 5.198
1.353 5.540 5.392
1.441 5.470 5.623
0.851 5.749 4.410
0.899 5.703 4.587
1.098 5.799 4.947
1.128 5.685 5.099
1.240 5.785 5.468
1.435 5.745 5.666
0.757 5.989 4.423
0.831 6.030 4.724
1.013 6.012 4.959
1.133 6.052 5.152
1.117 5.990 5.453
1.270 6.109 5.706
0.524 6.186 4.116
0.634 6.294 4.460
0.802 6.244 4.707
2.305 0.530 4.152
2.432 0.509 4.403
2.641 0.493 4.720
2.745 0.618 4.909
2.769 0.569 5.127
1.150 0.328 1.181
1.241 0.220 1.472
1.346 0.315 1.808
1.448 0.340 2.076
1.612 0.388 2.324
1.360 0.362 2.661
2.062 0.421 4.252
2.182 0.507 4.550
2.298 0.493 4.692
2.413 0.496 5.025
2.503 0.516 5.251
2.725 0.497 5.565
0.782 0.234 1.321
0.907 0.166 1.657
1.111 0.203 1.858
1.173 0.319 2.176
1.292 0.231 2.474
1.388 0.307 2.635
1.401 0.614 2.757
1.998 0.712 4.201
2.192 0.739 4.562
2.220 0.749 4.835
2.310 0.764 5.077
2.495 0.752 5.286
2.539 0.847 5.530
0.717 0.453 1.325
0.820 0.503 1.661
0.978 0.540 1.842
1.146 0.517 2.221
1.179 0.614 2.454
1.270 0.531 2.715
1.233 0.802 2.755
1.982 0.970 4.529
2.188 1.068 4.757
2.314 0.980 5.004
2.380 1.012 5.238
0.711 0.709 1.393
0.750 0.689 1.719
0.922 0.780 1.972
0.989 0.814 2.124
1.147 0.818 2.449
1.280 0.902 2.628
1.235 1.053 2.655
2.068 1.215 4.781
2.210 1.336 4.990
2.286 1.297 5.362
0.667 1.095 1.671
0.895 1.007 1.861
1.004 1.062 2.148
1.116 1.114 2.431
1.121 1.145 2.648
1.137 1.433 2.778
1.247 1.356 2.924
2.177 1.618 5.288
0.766 1.321 1.938
0.937 1.420 2.207
0.908 1.341 2.402
1.119 1.346 2.784
1.019 1.685 2.704
1.197 1.641 3.004
0.749 1.679 2.149
0.852 1.653 2.485
0.964 1.639 2.738
0.929 1.930 2.718
1.063 1.904 2.970
1.167 2.040 3.260
0.858 1.884 2.567
0.881 1.872 2.827
0.896 2.231 2.704
0.890 2.239 3.032
1.019 2.210 3.325
1.239 2.339 3.566
0.683 2.178 2.507
0.808 2.197 2.774
0.770 2.427 2.838
0.935 2.468 2.982
1.031 2.534 3.257
1.064 2.608 3.492
1.160 2.497 3.828
0.755 2.512 2.734
0.632 2.770 2.858
0.853 2.707 3.108
0.983 2.738 3.311
1.017 2.799 3.508
1.168 2.906 3.840
1.240 2.811 4.136
0.618 2.803 2.746
0.567 3.003 2.872
0.725 3.023 3.142
0.882 2.998 3.288
0.936 3.028 3.663
1.097 3.116 3.836
1.126 3.116 4.045
1.851 3.196 5.637
0.630 3.060 2.815
0.582 3.260 2.806
0.581 3.287 3.061
0.709 3.332 3.336
0.806 3.378 3.644
0.934 3.428 3.869
1.024 3.367 4.169
1.750 3.499 5.664
0.453 3.372 2.796
0.377 3.548 2.764
0.524 3.563 3.073
0.702 3.585 3.305
0.783 3.615 3.668
0.935 3.669 3.934
1.047 3.704 4.158
1.744 3.810 5.709
0.389 3.590 2.881
0.482 3.880 3.040
0.557 3.888 3.432
0.704 3.941 3.569
0.864 4.000 3.915
1.670 4.094 5.669
0.344 4.133 3.097
0.573 4.184 3.323
0.650 4.160 3.606
1.581 4.297 5.696
0.344 4.346 3.105
1.370 4.676 5.549
1.410 4.643 5.710
1.260 4.911 5.529
1.379 4.826 5.770
1.052 5.066 5.275
1.220 5.130 5.448
1.276 5.215 5.754
0.931 5.392 5.079
0.981 5.386 5.312
1.131 5.420 5.518
1.184 5.514 5.803
0.605 5.636 4.685
0.835 5.600 5.011
0.907 5.721 5.271
0.984 5.658 5.596
1.066 5.663 5.803
0.473 5.916 4.457
0.628 5.916 4.705
0.680 5.880 5.099
0.815 5.927 5.305
0.911 5.922 5.588
1.082 5.948 5.845
0.346 6.140 4.489
0.533 6.193 4.735
0.680 6.267 5.030
0.691 6.269 5.299
0.893 6.221 5.588
0.899 6.256 5.774
1.467 0.329 2.746
2.032 0.385 4.289
2.249 0.474 4.472
2.284 0.407 4.797
2.385 0.494 5.000
2.526 0.465 5.230
2.730 0.525 5.504
0.820 0.215 1.340
0.956 0.188 1.618
1.125 0.284 1.961
1.119 0.260 2.171
1.333 0.236 2.345
1.380 0.266 2.672
6.259 3.043 0.068
6.156 3.850 0.679
6.068 4.118 0.636
6.220 4.189 0.881
5.992 4.509 0.663
6.132 4.423 0.832
6.306 4.447 1.137
5.905 4.764 0.462
5.901 4.719 0.662
6.091 4.809 0.909
6.179 4.824 1.238
5.881 4.627 0.342
5.805 5.043 0.448
5.836 4.953 0.706
5.973 5.041 0.876
6.030 5.109 1.252
6.275 5.071 1.405
5.718 4.958 0.399
5.609 5.242 0.385
5.796 5.318 0.712
5.950 5.357 0.958
6.001 5.282 1.137
6.093 5.279 1.527
6.243 5.368 1.734
5.682 5.225 0.406
5.664 5.467 0.393
5.681 5.503 0.756
5.853 5.567 0.980
5.890 5.526 1.172
6.019 5.575 1.538
6.195 5.665 1.787
5.579 5.521 0.481
5.577 5.767 0.432
5.602 5.886 0.664
5.683 5.784 0.915
5.851 5.874 1.231
6.001 5.868 1.532
5.505 5.856 0.481
5.363 6.084 0.469
5.475 6.115 0.767
5.662 6.090 0.994
5.805 6.151 1.196
5.296 6.100 0.162
5.371 6.105 0.447
6.233 2.065 0.168
5.959 4.408 0.970
6.066 4.480 1.268
5.694 4.615 0.839
5.745 4.696 0.967
5.863 4.654 1.245
6.026 4.760 1.582
6.158 4.652 1.800
5.674 4.926 0.811
5.660 4.862 1.095
5.789 5.015 1.273
5.974 4.914 1.556
6.041 5.003 1.891
5.432 5.217 0.584
5.501 5.207 0.781
5.607 5.191 1.039
5.738 5.286 1.293
5.832 5.313 1.634
6.005 5.297 1.832
6.141 5.322 2.031
5.377 5.181 0.528
5.400 5.434 0.567
5.438 5.468 0.884
5.560 5.511 1.112
5.732 5.555 1.278
5.754 5.590 1.522
5.853 5.529 1.807
5.306 5.468 0.485
5.209 5.705 0.509
5.367 5.709 0.754
5.496 5.827 1.064
5.634 5.778 1.334
5.766 5.852 1.614
5.758 5.787 1.882
5.190 5.716 0.343
5.230 5.780 0.552
5.171 5.933 0.506
5.299 6.065 0.881
5.476 6.061 1.137
5.586 6.026 1.397
5.588 6.000 1.686
5.099 6.009 0.302
5.121 5.949 0.509
5.053 6.335 0.584
5.148 6.351 0.882
4.817 6.200 0.114
5.016 6.314 0.403
5.151 6.271 0.584
6.030 1.850 0.187
5.613 4.554 1.167
5.651 4.563 1.435
5.861 4.558 1.669
5.406 4.798 0.942
5.472 4.835 1.174
5.544 4.875 1.351
5.763 4.950 1.718
5.844 4.899 1.979
5.117 5.028 0.710
5.263 5.066 0.867
5.443 5.104 1.219
5.491 5.169 1.444
5.564 5.210 1.642
5.779 5.130 1.919
5.930 5.172 2.221
5.132 5.135 0.712
5.074 5.315 0.641
5.257 5.431 0.928
5.394 5.458 1.223
5.407 5.382 1.480
5.617 5.434 1.765
5.728 5.504 1.970
5.848 5.523 2.264
5.037 5.342 0.629
5.044 5.605 0.643
5.144 5.629 0.946
5.187 5.719 1.184
5.388 5.701 1.391
5.453 5.734 1.723
5.592 5.779 1.915
5.764 5.785 2.281
4.969 5.594 0.480
4.986 5.567 0.674
4.979 5.866 0.764
5.043 5.968 0.924
5.205 5.942 1.286
5.330 5.950 1.507
5.384 6.018 1.748
5.552 6.080 1.987
4.711 5.870 0.228
4.794 5.906 0.478
4.905 5.948 0.731
4.902 6.151 0.743
4.984 6.195 0.979
5.091 6.187 1.282
5.156 6.250 1.482
5.323 6.289 1.693
4.575 6.194 0.245
4.668 6.193 0.500
4.877 6.113 0.695
5.989 1.806 0.294
5.731 1.642 0.125
6.159 2.304 1.710
6.172 2.562 1.664
6.179 2.692 1.947
6.150 2.943 2.032
6.326 2.994 2.198
6.121 3.253 2.310
5.161 4.708 1.317
5.318 4.833 1.483
5.425 4.779 1.835
5.527 4.909 2.130
5.100 5.041 1.063
5.199 5.077 1.258
5.262 5.013 1.492
5.337 5.124 1.880
5.551 5.168 2.031
5.677 5.115 2.365
4.863 5.301 0.733
4.984 5.332 0.981
5.098 5.309 1.247
5.143 5.332 1.575
5.270 5.339 1.793
5.415 5.446 2.104
5.484 5.464 2.320
5.574 5.460 2.563
4.773 5.301 0.718
4.750 5.545 0.790
4.908 5.577 1.082
4.925 5.667 1.263
5.174 5.585 1.513
5.257 5.579 1.840
5.390 5.609 2.096
5.489 5.672 2.373
5.497 5.708 2.610
4.634 5.575 0.482
4.764 5.616 0.746
4.694 5.892 0.810
4.766 5.857 1.119
4.948 5.871 1.353
5.082 5.855 1.548
5.190 5.965 1.807
5.267 5.948 2.090
5.425 6.019 2.321
4.476 5.763 0.333
4.521 5.808 0.502
4.735 5.755 0.761
4.624 6.070 0.821
4.747 6.186 1.065
4.898 6.167 1.284
4.918 6.193 1.668
5.036 6.235 1.922
5.198 6.223 2.103
4.317 5.979 0.079
4.398 6.043 0.264
4.528 6.026 0.517
4.673 6.040 0.888
5.711 1.734 0.076
6.250 1.705 1.962
5.979 1.968 1.749
6.186 2.078 1.972
6.256 1.993 2.313
5.770 2.234 1.529
5.999 2.317 1.839
6.079 2.238 2.088
6.181 2.370 2.312
5.700 2.491 1.531
5.875 2.556 1.787
5.908 2.616 2.068
6.094 2.539 2.277
6.263 2.593 2.592
5.662 2.813 1.625
5.735 2.888 1.884
5.859 2.777 2.150
5.988 2.928 2.308
6.125 2.817 2.573
6.262 2.962 2.819
5.747 3.078 1.891
5.799 3.116 2.124
5.858 3.198 2.375
5.985 3.174 2.681
6.112 3.186 2.829
6.261 3.135 3.150
6.031 3.372 2.634
6.044 3.498 2.896
6.157 3.542 3.113
6.162 3.793 3.476
4.688 3.534 -0.038
6.280 4.045 3.711
4.648 3.775 -0.023
4.578 4.087 0.026
5.075 4.713 1.579
5.188 4.769 1.977
5.359 4.695 2.224
5.411 4.773 2.447
4.874 5.031 1.459
5.007 4.980 1.680
5.201 5.007 1.901
5.296 5.094 2.180
5.315 5.020 2.391
5.470 5.097 2.762
4.769 5.245 1.196
4.859 5.225 1.488
4.912 5.191 1.632
4.981 5.243 1.904
5.148 5.372 2.225
5.286 5.350 2.484
5.429 5.302 2.692
5.556 5.417 2.970
4.571 5.476 0.891
4.582 5.545 1.191
4.684 5.502 1.452
4.840 5.604 1.752
4.925 5.615 1.918
5.082 5.640 2.168
5.264 5.560 2.506
5.282 5.548 2.710
5.392 5.619 2.948
4.572 5.405 0.898
4.375 5.730 0.980
4.587 5.763 1.121
4.687 5.770 1.390
4.785 5.758 1.687
4.892 5.847 1.956
4.982 5.904 2.279
5.078 5.873 2.542
5.206 5.838 2.812
5.310 5.905 2.938
4.287 5.780 0.630
4.437 5.744 0.928
4.381 6.087 1.009
4.427 6.036 1.191
4.547 6.124 1.408
4.665 6.141 1.680
4.757 6.079 1.976
4.904 6.097 2.249
5.096 6.100 2.428
5.108 6.139 2.769
3.996 5.978 0.159
4.153 5.923 0.435
4.252 6.030 0.710
4.318 6.012 0.928
3.914 6.213 0.156
4.038 6.299 0.375
4.120 6.248 0.657
6.171 1.814 2.063
6.044 1.679 2.130
6.135 1.700 2.368
5.600 1.842 1.630
5.710 1.987 1.954
5.845 1.917 2.085
5.987 1.900 2.369
6.144 1.969 2.692
6.200 2.000 2.988
5.416 2.139 1.349
5.649 2.118 1.578
5.669 2.224 1.911
5.743 2.155 2.184
5.986 2.171 2.490
6.069 2.308 2.631
6.137 2.296 3.006
6.308 2.319 3.186
5.293 2.357 1.136
5.423 2.411 1.444
5.470 2.428 1.671
5.580 2.450 1.950
5.749 2.467 2.221
5.798 2.466 2.428
5.934 2.547 2.681
6.117 2.592 2.895
6.185 2.613 3.227
5.239 2.634 1.110
5.242 2.676 1.376
5.466 2.655 1.719
5.497 2.736 1.961
5.642 2.734 2.251
5.811 2.787 2.449
5.825 2.859 2.732
6.056 2.805 3.006
6.033 2.809 3.278
6.165 2.796 3.462
4.934 2.981 0.835
5.170 2.904 1.124
5.271 3.008 1.395
5.290 2.930 1.626
5.514 2.996 1.954
5.575 3.048 2.238
5.632 3.009 2.539
5.725 3.043 2.734
5.957 3.079 3.041
6.029 3.051 3.259
6.097 3.132 3.540
6.254 3.230 3.845
4.915 2.915 0.616
4.969 2.906 0.959
4.900 3.148 0.910
5.077 3.203 1.172
6.038 3.350 3.478
6.156 3.434 3.844
4.630 3.184 0.135
4.709 3.225 0.463
4.741 3.128 0.709
4.911 3.195 0.918
4.561 3.439 0.086
4.594 3.415 0.405
4.767 3.516 0.601
4.439 3.659 0.118
4.464 3.713 0.466
4.649 3.720 0.706
4.284 3.955 0.113
4.468 4.045 0.382
4.271 4.217 0.238
5.051 4.719 2.275
5.179 4.727 2.616
4.729 4.883 1.829
4.823 4.968 2.010
5.048 4.985 2.349
5.081 4.907 2.493
5.259 5.024 2.881
5.275 5.008 3.154
4.639 5.091 1.561
4.687 5.224 1.725
4.792 5.220 2.015
4.847 5.210 2.313
4.994 5.305 2.546
5.186 5.271 2.858
5.282 5.231 3.052
5.363 5.321 3.414
4.425 5.470 1.246
4.465 5.415 1.481
4.579 5.462 1.800
4.741 5.449 2.108
4.874 5.460 2.382
4.972 5.528 2.555
5.006 5.599 2.899
5.130 5.510 3.077
5.220 5.635 3.330
5.438 5.660 3.561
4.338 5.744 1.336
4.435 5.774 1.610
4.471 5.706 1.821
4.674 5.745 2.081
4.820 5.779 2.400
4.915 5.730 2.651
4.993 5.880 2.868
5.033 5.892 3.097
5.155 5.930 3.404
5.325 5.930 3.648
4.162 5.948 1.099
4.176 5.903 1.326
4.356 6.041 1.579
4.514 6.053 1.885
4.605 6.027 2.030
4.720 6.010 2.381
4.791 6.095 2.639
4.893 6.023 2.831
5.059 6.094 3.196
5.119 6.107 3.401
5.192 6.192 3.709
5.379 6.217 3.919
3.992 5.872 0.725
4.071 5.925 1.043
4.091 6.274 1.067
4.186 6.246 1.348
3.552 6.119 -0.002
3.732 6.185 0.221
3.813 6.153 0.552
3.841 6.255 0.862
4.048 6.225 1.088
5.922 1.744 2.191
6.135 1.706 2.429
6.287 3.459 3.980
6.206 3.801 4.102
6.078 4.050 4.116
6.252 4.018 4.359
6.219 4.268 4.321
6.236 4.355 4.562
6.229 4.641 4.591
5.499 6.132 4.155
6.134 3.656 4.734
6.074 3.909 4.657
6.271 3.982 5.017
6.031 4.241 4.652
6.160 4.237 5.037
6.218 4.233 5.216
6.001 4.594 4.981
6.177 4.604 5.244
6.319 4.515 5.560
6.027 4.831 5.247
6.130 4.826 5.463
5.263 5.909 4.265
5.280 6.064 4.288
5.266 6.167 4.525
5.445 6.095 4.763
5.591 6.201 5.126
6.223 3.630 5.358
6.289 3.684 5.634
5.984 3.964 5.057
6.119 3.933 5.421
6.252 3.951 5.661
5.838 4.169 5.153
5.978 4.149 5.375
6.069 4.217 5.631
6.232 4.192 5.905
5.949 4.522 5.325
5.960 4.570 5.612
6.113 4.486 5.888
6.306 4.593 6.097
5.897 4.830 5.668
6.017 4.819 5.910
6.216 4.781 6.185
5.128 5.554 4.425
5.099 5.716 4.455
5.240 5.785 4.628
5.036 6.104 4.455
5.033 6.100 4.602
5.219 6.075 4.935
6.025 1.620 4.336
6.141 1.595 4.588
6.217 1.557 4.796
6.010 1.910 4.577
6.235 1.946 4.807
6.281 1.848 5.102
6.259 3.376 5.988
5.992 3.577 5.678
6.071 3.667 6.022
6.290 3.649 6.225
5.865 3.826 5.503
5.982 3.873 5.782
5.983 3.818 5.967
6.102 3.909 6.305
5.749 4.051 5.476
5.868 4.187 5.724
6.017 4.234 5.968
6.017 4.230 6.239
5.734 4.396 5.554
5.755 4.438 5.768
5.898 4.404 5.965
6.042 4.483 6.330
5.672 4.665 5.777
5.809 4.744 5.960
5.802 5.010 6.110
4.838 5.393 4.481
4.762 5.744 4.577
4.956 5.739 4.739
4.763 5.929 4.471
4.884 5.932 4.728
4.956 5.966 5.036
4.685 6.221 4.468
4.744 6.217 4.750
4.897 6.330 5.081
5.969 1.553 4.329
6.177 1.599 4.620
6.303 1.654 4.804
5.806 1.445 4.453
5.818 1.465 4.753
5.985 1.562 4.904
6.077 1.568 5.193
6.158 1.547 5.471
5.751 1.833 4.391
5.763 1.823 4.732
5.909 1.868 4.987
6.012 1.793 5.230
6.210 1.911 5.527
5.747 2.042 4.696
5.774 2.157 4.917
5.814 3.555 6.069
5.714 3.834 5.836
5.828 3.802 6.162
5.647 4.118 5.904
5.723 4.107 6.092
5.479 4.290 5.539
5.547 4.337 5.908
5.686 4.415 6.117
5.481 4.586 5.913
5.635 4.599 6.208
5.316 4.850 5.935
5.555 4.949 6.109
4.596 5.374 4.669
4.566 5.620 4.698
4.519 5.938 4.581
4.567 5.876 4.881
4.467 6.109 4.639
4.479 6.237 4.896
4.653 6.151 5.191
5.844 1.465 4.404
5.825 1.467 4.659
5.990 1.502 4.999
6.113 1.496 5.158
6.270 1.568 5.460
5.583 1.469 4.529
5.596 1.471 4.848
5.818 1.456 5.106
5.932 1.498 5.301
5.918 1.537 5.652
5.450 1.748 4.516
5.627 1.649 4.869
5.657 1.711 5.009
5.833 1.783 5.400
5.868 1.773 5.572
5.294 1.897 4.594
5.407 1.930 4.775
5.600 1.938 5.077
5.764 1.994 5.403
5.352 2.214 4.532
5.442 2.331 4.897
5.547 2.355 5.098
5.176 2.507 4.557
5.489 3.699 6.279
5.375 3.916 5.953
5.489 4.017 6.282
5.325 4.197 5.956
5.402 4.290 6.177
5.187 4.512 5.962
5.278 4.584 6.296
5.109 4.776 5.950
5.303 4.776 6.217
4.365 5.569 4.678
4.297 5.828 4.757
4.148 6.043 4.767
4.195 6.147 5.046
5.515 1.352 4.540
5.636 1.435 4.783
5.797 1.446 5.074
5.835 1.472 5.297
5.981 1.520 5.611
5.282 1.410 4.600
5.380 1.380 4.897
5.526 1.314 5.224
5.627 1.352 5.414
5.794 1.354 5.698
5.225 1.668 4.686
5.301 1.653 4.892
5.399 1.593 5.164
5.469 1.626 5.433
5.720 1.724 5.701
5.150 1.860 4.665
5.289 1.873 4.975
5.333 1.874 5.164
5.502 1.937 5.503
5.584 1.906 5.718
5.003 2.217 4.623
5.181 2.119 4.989
5.318 2.182 5.214
5.415 2.235 5.543
4.994 2.373 4.752
5.020 2.505 4.913
5.202 2.491 5.304
4.832 2.723 4.667
4.982 2.754 4.998
4.749 2.998 4.756
4.637 3.276 4.824
5.061 4.231 6.112
4.950 4.381 6.101
4.921 4.677 6.184
4.760 4.943 6.093
3.748 6.262 4.949
5.309 1.369 4.638
5.354 1.420 4.936
5.559 1.391 5.186
5.594 1.373 5.489
5.700 1.406 5.636
4.980 1.261 4.772
5.125 1.268 5.095
5.202 1.252 5.228
5.306 1.323 5.612
5.524 1.327 5.846
4.938 1.463 4.824
5.117 1.484 5.031
5.187 1.511 5.244
5.252 1.621 5.639
5.445 1.630 5.806
5.540 1.573 6.062
4.915 1.736 4.748
4.999 1.801 4.999
5.057 1.812 5.389
5.221 1.828 5.652
5.370 1.844 5.908
4.752 2.045 4.852
4.939 2.131 5.068
4.941 2.164 5.389
5.098 2.131 5.574
5.204 2.225 5.800
4.705 2.295 4.856
4.820 2.312 5.037
4.956 2.324 5.300
5.083 2.479 5.604
4.557 2.572 4.793
4.728 2.590 5.051
4.874 2.715 5.426
4.521 2.879 4.920
4.705 2.948 5.089
4.396 3.214 4.922
4.425 3.509 4.899
4.836 4.151 6.220
4.643 4.365 6.244
4.482 4.649 5.906
4.668 4.586 6.194
4.540 4.892 6.267
4.466 5.125 6.241
5.022 1.263 4.843
5.091 1.302 5.085
5.179 1.277 5.321
5.315 1.278 5.527
5.426 1.374 5.806
4.847 1.162 4.944
4.868 1.171 5.116
5.003 1.296 5.460
5.178 1.197 5.645
5.304 1.250 5.897
4.741 1.390 4.879
4.820 1.525 5.199
4.918 1.561 5.409
5.021 1.480 5.751
5.104 1.490 5.875
5.297 1.586 6.200
4.594 1.669 4.894
4.781 1.822 5.146
4.877 1.825 5.486
4.917 1.782 5.727
5.064 1.851 5.951
5.250 1.896 6.221
4.529 1.975 4.956
4.668 1.989 5.256
4.704 2.009 5.508
4.905 1.995 5.768
4.931 2.149 5.998
5.170 2.127 6.262
4.468 2.304 4.925
4.587 2.244 5.150
4.637 2.344 5.444
4.739 2.312 5.779
4.868 2.343 5.927
4.419 2.486 4.899
4.429 2.588 5.172
4.635 2.592 5.434
4.690 2.625 5.804
4.296 2.818 4.958
4.415 2.781 5.191
4.579 2.813 5.553
4.186 3.114 4.969
4.289 3.146 5.176
4.071 3.342 5.065
4.218 4.476 6.063
4.203 4.848 6.120
4.089 5.049 6.112
4.708 1.221 4.829
4.847 1.230 5.100
4.970 1.214 5.389
5.087 1.297 5.650
5.180 1.229 5.880
4.696 1.085 5.322
4.720 1.177 5.540
4.935 1.125 5.771
4.968 1.241 6.004
4.467 1.416 5.028
4.591 1.360 5.260
4.726 1.351 5.498
4.807 1.482 5.857
4.881 1.424 6.127
4.359 1.715 5.033
4.493 1.601 5.328
4.602 1.685 5.516
4.690 1.648 5.765
4.749 1.706 6.059
4.338 1.866 5.039
4.423 1.998 5.301
4.564 1.977 5.543
4.660 2.034 5.819
4.779 2.050 6.041
4.201 2.191 5.055
4.372 2.277 5.376
4.414 2.222 5.532
4.589 2.313 5.882
4.730 2.241 6.086
4.135 2.486 5.036
4.211 2.503 5.326
4.294 2.449 5.589
4.482 2.525 5.865
4.554 2.554 6.072
4.053 2.696 5.094
4.145 2.754 5.270
4.315 2.830 5.534
3.950 3.036 5.025
4.117 3.088 5.285
3.805 3.261 5.038
4.051 4.423 6.201
3.783 4.732 6.009
3.908 4.672 6.260
3.737 5.013 5.954
3.783 5.058 6.272
3.813 5.279 6.309
4.620 1.156 5.309
4.732 1.206 5.507
4.869 1.121 5.782
4.943 1.227 6.033
4.459 1.053 5.593
4.563 1.147 5.964
4.724 1.134 6.116
4.293 1.249 5.402
4.376 1.342 5.633
4.568 1.362 5.909
4.659 1.391 6.241
4.114 1.554 5.074
4.298 1.518 5.423
4.285 1.666 5.724
4.507 1.618 5.898
4.524 1.590 6.188
4.017 1.848 5.211
4.076 1.798 5.480
4.247 1.906 5.611
4.346 1.965 5.965
4.514 1.988 6.249
3.977 2.062 5.191
4.017 2.113 5.401
4.144 2.159 5.715
4.250 2.154 5.986
4.470 2.153 6.199
3.805 2.426 5.173
3.953 2.438 5.464
4.100 2.503 5.776
4.154 2.437 6.031
4.374 2.521 6.256
3.803 2.674 5.207
3.842 2.628 5.453
3.953 2.687 5.692
4.071 2.705 6.047
3.694 2.960 5.258
3.706 4.351 6.097
3.484 4.592 5.802
3.592 4.649 6.034
3.359 4.869 5.896
3.537 4.841 6.157
3.251 5.237 5.784
3.333 5.228 6.146
3.376 5.529 6.087
4.476 1.024 5.592
4.655 1.120 5.849
4.724 1.042 6.140
4.435 1.070 6.343
4.176 1.283 5.803
4.321 1.235 6.083
3.954 1.496 5.579
4.033 1.497 5.783
4.153 1.515 6.006
3.754 1.773 5.287
3.972 1.718 5.504
3.984 1.790 5.815
4.090 1.757 6.000
3.764 2.091 5.212
3.852 2.086 5.562
3.940 2.133 5.877
3.980 2.135 6.066
3.693 2.312 5.297
3.710 2.368 5.561
3.790 2.387 5.847
4.001 2.367 6.014
3.517 2.638 5.306
3.262 4.220 5.842
3.437 4.217 6.174
3.100 4.565 5.707
3.238 4.531 5.993
3.376 4.570 6.208
2.900 4.707 5.429
3.052 4.841 5.703
3.089 4.855 5.956
3.168 4.841 6.146
2.782 4.973 5.383
2.955 5.091 5.734
3.090 5.125 5.941
3.134 5.107 6.199
2.743 5.271 5.480
2.903 5.399 5.716
2.896 5.325 5.955
3.033 5.434 6.278
2.668 5.593 5.519
4.467 0.998 6.256
4.090 1.137 6.181
3.858 1.425 5.965
3.974 1.422 6.116
3.746 1.748 5.919
3.829 1.673 6.220
3.632 1.980 5.866
3.722 2.061 6.188
3.741 2.257 6.132
3.059 3.844 6.004
3.212 3.942 6.216
2.856 4.168 5.837
3.059 4.173 6.064
2.776 4.397 5.516
2.840 4.426 5.834
2.988 4.456 6.029
2.590 4.751 5.535
2.823 4.747 5.767
2.909 4.664 6.109
2.591 4.901 5.542
2.750 4.959 5.796
2.849 5.064 6.100
2.535 5.217 5.544
2.590 5.259 5.761
2.690 5.319 6.090
2.471 5.439 5.506
2.523 5.586 5.886
2.577 5.516 6.030
2.323 5.754 5.596
3.779 1.333 6.284
2.814 3.851 5.864
2.807 3.783 6.177
2.600 4.063 5.661
2.598 4.102 5.951
2.772 4.040 6.114
2.475 4.288 5.584
2.615 4.350 5.882
2.683 4.310 6.174
2.443 4.672 5.647
2.477 4.695 5.864
2.689 4.644 6.170
2.387 4.836 5.684
2.421 4.857 5.904
2.548 4.991 6.202
2.265 5.102 5.701
2.352 5.200 5.994
2.489 5.179 6.180
2.200 5.418 5.643
2.216 5.405 5.937
2.311 5.417 6.173
2.014 5.756 5.713
2.184 5.790 5.993
1.948 5.981 5.718
2.564 3.460 5.905
2.739 3.493 6.297
2.439 3.780 5.665
2.470 3.677 6.047
2.593 3.725 6.266
2.344 4.011 5.753
2.352 4.030 6.019
2.568 3.983 6.224
2.248 4.284 5.761
2.297 4.244 6.061
2.446 4.231 6.229
2.098 4.510 5.745
2.224 4.621 5.959
2.046 4.750 5.810
2.230 4.796 5.968
1.989 5.017 5.724
2.032 5.108 6.100
1.919 5.377 5.820
1.965 5.314 6.121
1.814 5.568 5.875
1.886 5.646 6.145
