2.756 2.654 3.956
2.273 2.500 3.951
2.307 2.173 4.021
2.382 2.134 3.785
2.155 1.994 3.537
0.275 3.662 6.177
0.159 3.389 6.015
0.196 3.217 6.108
0.420 3.895 6.159
0.246 3.454 6.187
0.128 3.367 5.876
0.254 1.897 4.904
-0.048 1.699 4.580
0.187 1.704 4.787
0.386 1.533 4.349
0.132 1.399 4.238
0.131 1.233 4.234
0.216 1.632 4.829
0.431 1.864 4.498
0.336 1.672 4.357
0.453 1.323 4.040
0.230 1.112 3.902
0.010 1.067 4.168
0.140 0.882 3.648
0.424 1.953 4.621
0.389 1.980 4.312
0.919 1.774 4.523
0.511 1.767 4.361
0.647 1.506 3.927
0.662 1.394 4.079
0.335 0.973 3.753
0.397 0.863 3.756
0.986 2.168 4.741
0.747 2.015 4.592
0.598 1.614 4.421
1.014 1.906 4.206
1.048 1.615 4.120
0.891 1.271 3.772
0.757 1.148 3.859
0.454 0.880 3.535
1.375 2.736 4.767
1.136 2.544 4.672
1.073 2.183 4.322
0.984 1.828 4.252
1.040 1.704 4.133
1.293 1.795 4.297
1.080 1.393 3.784
1.153 1.273 4.023
1.903 2.784 4.739
1.787 2.491 4.821
1.332 2.539 4.416
1.602 2.164 4.345
1.435 1.745 4.316
1.257 1.796 4.129
1.608 1.672 3.819
1.346 1.558 3.711
2.180 2.968 4.582
1.907 2.758 4.557
1.724 2.443 4.642
1.863 2.299 4.240
1.687 1.892 4.266
1.443 1.975 4.198
1.659 1.570 3.893
1.765 1.821 3.802
2.163 2.911 4.577
2.351 2.879 4.563
2.108 2.304 4.454
1.890 2.481 4.230
2.041 1.949 4.170
1.801 2.063 3.952
1.525 1.597 3.987
1.871 1.829 3.953
2.358 2.638 4.379
2.240 2.447 4.207
2.519 2.496 4.470
2.092 2.317 4.116
2.124 2.221 3.874
1.794 1.673 3.904
2.013 1.532 3.690
2.913 2.818 4.573
2.648 2.749 4.354
2.546 2.255 4.141
2.603 2.054 4.087
2.138 2.142 3.945
2.406 1.859 3.785
0.226 3.427 6.256
0.199 2.912 5.999
0.384 3.442 6.149
0.379 3.014 6.062
-0.109 1.521 4.693
0.266 1.793 4.965
0.414 1.273 4.847
-0.017 1.293 4.489
-0.084 1.049 4.381
0.440 1.870 4.684
0.758 1.845 4.542
0.557 1.668 4.547
0.430 1.373 4.260
0.308 1.083 4.289
0.009 1.007 4.012
0.238 0.519 3.952
0.017 0.498 4.030
0.894 2.062 4.850
0.591 1.622 4.508
0.978 1.406 4.760
0.723 1.217 4.577
0.840 1.151 4.366
0.443 1.098 4.293
0.515 0.932 4.019
0.122 0.566 3.881
0.022 0.338 3.825
1.089 2.146 4.894
0.940 1.764 4.807
1.058 1.838 4.729
1.185 1.571 4.374
0.994 1.560 4.219
0.968 1.199 4.110
0.877 1.199 4.042
0.711 0.665 4.126
1.463 2.286 4.953
1.393 2.028 4.763
1.327 2.197 4.895
1.047 1.758 4.714
1.131 1.508 4.315
1.314 1.599 4.154
1.217 1.195 4.023
0.935 0.994 4.005
1.898 2.685 5.321
1.916 2.693 5.021
1.641 2.325 4.975
1.649 2.110 4.656
1.492 1.948 4.775
1.523 1.801 4.543
1.309 1.397 4.519
1.529 1.611 4.144
1.518 1.290 4.179
2.232 3.115 5.079
2.098 2.564 5.170
2.197 2.599 4.924
1.798 2.559 4.615
1.614 2.070 4.453
1.708 1.855 4.604
1.611 1.533 4.305
1.722 1.330 4.133
1.799 1.377 4.047
2.310 2.780 4.988
2.208 2.521 4.902
2.061 2.337 4.791
1.944 2.161 4.617
2.002 2.019 4.292
2.117 1.914 4.325
2.007 1.553 4.195
1.551 1.483 3.880
2.786 2.751 4.654
2.747 2.642 4.712
2.291 2.564 4.753
2.471 2.094 4.257
2.407 2.164 4.531
2.166 2.066 4.236
2.125 1.492 4.161
3.004 2.550 4.813
2.555 2.365 4.642
2.795 2.321 4.320
2.435 1.851 4.121
2.265 1.788 4.059
0.237 2.765 6.150
0.204 1.125 4.920
0.571 1.306 4.949
0.166 1.245 4.593
0.094 0.769 4.646
0.107 0.569 4.636
0.628 1.336 4.951
0.775 1.442 4.887
0.477 0.972 4.701
0.291 0.764 4.478
0.498 0.510 4.360
0.333 0.417 4.223
0.141 0.230 4.215
0.789 1.346 4.973
1.052 1.430 4.809
0.679 1.473 4.530
0.860 1.249 4.292
0.616 0.934 4.350
0.322 0.663 4.212
0.622 0.646 4.184
0.364 0.349 3.857
0.364 0.160 3.896
0.851 1.509 5.083
0.861 1.570 4.610
0.997 1.345 4.519
0.966 1.256 4.420
0.880 1.114 4.275
0.987 0.676 4.457
0.820 0.644 4.024
1.515 2.288 5.203
1.558 1.932 5.171
1.360 1.669 4.848
1.315 1.606 4.912
1.035 1.236 4.630
1.362 1.480 4.584
1.299 1.257 4.230
1.871 2.720 5.378
2.184 2.674 5.490
1.885 2.536 5.131
1.772 2.141 5.089
1.545 2.176 4.709
1.603 1.827 4.880
1.325 1.629 4.741
1.245 1.334 4.293
1.795 1.522 4.306
2.508 3.091 5.599
2.264 2.600 5.491
2.372 2.419 5.356
2.258 2.547 4.941
1.984 2.385 4.854
1.796 1.901 4.581
1.891 1.848 4.495
1.873 1.605 4.422
1.463 1.171 4.240
2.642 2.864 5.247
2.630 2.586 5.072
2.333 2.387 5.022
2.130 2.461 5.007
2.113 1.980 4.815
2.077 1.955 4.538
2.064 1.679 4.457
1.881 1.541 4.496
2.755 2.845 5.239
2.856 2.653 4.912
2.526 2.494 4.970
2.712 2.356 4.648
2.427 2.124 4.549
2.294 1.989 4.437
2.235 1.588 4.187
2.980 2.852 5.082
2.900 2.584 4.587
2.953 2.373 4.489
2.907 1.942 4.731
2.632 1.670 4.366
0.143 2.123 6.283
-0.044 0.644 4.815
0.269 0.802 4.774
0.152 0.708 4.641
0.242 0.537 4.656
0.261 0.211 4.381
0.371 0.764 4.589
0.686 0.626 4.787
0.339 0.476 4.507
0.137 0.370 4.633
0.301 0.080 4.337
0.768 0.875 4.701
0.804 0.588 4.689
0.526 0.425 4.362
0.462 0.258 4.287
0.466 -0.008 4.003
2.219 3.055 6.022
2.326 3.025 5.789
2.135 2.601 5.544
2.040 2.631 5.672
1.776 2.449 5.302
2.070 2.165 5.150
1.850 2.036 5.085
1.683 1.712 4.844
2.390 2.863 5.657
2.295 2.719 5.511
2.423 2.429 5.376
2.287 2.290 5.145
2.219 2.299 5.347
1.949 2.033 4.986
1.798 1.934 4.761
1.771 1.784 4.934
2.799 3.170 5.562
2.657 2.700 5.311
2.428 2.415 5.164
2.668 2.458 5.136
2.362 2.256 5.111
2.330 2.156 4.820
2.421 1.943 4.727
1.930 1.687 4.842
3.061 3.028 5.411
3.125 2.749 5.226
3.032 2.666 5.146
2.663 2.549 4.917
2.597 2.079 5.006
2.581 1.766 4.964
2.503 1.860 4.559
2.975 2.606 5.208
3.200 2.709 5.107
2.881 2.327 4.779
3.085 2.017 4.862
2.931 1.742 4.722
1.920 6.123 1.588
2.492 6.170 1.550
2.350 6.308 1.385
5.242 6.019 0.187
5.484 6.235 0.216
6.081 6.244 0.201
5.959 6.153 0.146
6.302 6.401 0.276
2.270 6.053 1.629
2.147 6.186 2.063
2.174 6.136 1.875
2.615 6.066 2.064
2.445 5.971 1.708
2.851 5.968 2.054
2.750 5.780 1.715
2.927 6.043 1.681
2.766 5.993 1.788
3.212 6.118 1.428
3.220 6.002 1.343
4.922 6.321 1.146
5.194 6.256 0.949
5.440 6.287 0.759
5.434 6.036 0.591
5.988 6.096 0.285
6.291 6.313 0.528
2.410 6.162 1.969
1.938 6.075 2.017
2.233 5.870 2.155
2.389 5.956 2.272
2.747 6.249 2.155
2.521 5.643 2.105
3.035 6.243 2.174
2.904 5.818 2.245
2.575 5.914 1.872
3.177 6.114 1.915
3.031 5.803 1.758
2.750 5.684 1.752
3.349 6.358 2.072
3.347 6.087 2.012
2.937 5.763 1.837
3.766 6.219 1.886
3.458 5.817 1.751
3.493 5.809 1.588
3.826 6.471 1.786
3.602 5.939 1.810
3.619 5.834 1.638
3.400 5.465 1.249
4.231 6.337 1.652
3.983 5.937 1.340
3.846 5.936 1.246
4.152 6.389 1.732
4.066 5.935 1.331
4.391 6.059 1.606
4.335 6.124 1.227
4.665 6.002 1.482
4.656 6.114 1.288
4.911 5.992 1.031
5.398 6.257 0.937
5.514 6.116 0.907
5.343 5.841 0.723
5.725 6.312 0.866
2.524 5.942 2.299
2.347 5.940 2.249
2.451 5.916 2.567
2.434 5.812 2.197
2.836 5.857 2.531
2.510 5.494 2.069
2.897 5.908 2.455
2.829 5.764 2.227
2.815 5.540 1.936
3.304 5.877 2.381
3.033 5.874 1.942
3.142 5.787 1.862
3.518 6.261 2.387
3.346 6.103 2.024
3.111 5.766 1.888
3.117 5.744 1.779
3.762 5.985 2.058
3.506 6.138 2.150
3.442 5.850 1.744
3.454 5.568 1.888
4.007 6.143 1.848
3.805 6.067 1.898
3.832 5.654 1.921
3.786 5.444 1.510
4.294 6.054 2.015
3.933 6.079 1.609
4.018 5.679 1.642
3.866 5.553 1.428
4.547 6.049 1.966
4.408 6.061 1.700
4.214 5.908 1.818
4.435 5.503 1.568
4.643 6.323 1.543
4.544 6.186 1.817
4.430 5.951 1.605
5.170 6.218 1.479
4.846 5.870 1.716
4.807 5.965 1.393
5.430 6.294 1.291
4.964 6.047 1.199
5.630 5.982 1.241
5.421 5.995 1.049
5.893 6.101 1.315
2.472 6.116 2.397
2.384 5.778 2.581
2.515 5.340 2.411
2.824 5.790 2.456
2.568 5.543 2.498
3.206 6.025 2.679
2.776 5.582 2.276
2.748 5.653 2.166
3.218 5.854 2.439
3.275 5.801 2.482
3.233 5.262 2.039
3.673 6.233 2.230
3.504 5.623 2.180
3.253 5.765 2.393
3.250 5.513 2.231
3.831 6.018 2.521
3.676 5.866 2.189
3.927 5.758 2.089
3.552 5.699 1.951
3.515 5.455 1.871
4.021 6.062 2.161
3.982 6.012 2.311
3.956 5.833 1.858
4.050 5.598 1.955
3.932 5.490 1.937
4.283 5.955 2.266
4.492 5.789 2.022
4.100 5.785 1.931
4.281 5.299 1.764
3.939 5.205 1.466
4.486 5.974 2.252
4.661 6.024 1.843
4.483 5.696 1.847
4.200 5.378 1.493
5.036 6.116 1.915
4.671 6.082 1.953
4.808 5.902 2.039
4.456 5.472 1.492
5.273 6.266 1.914
4.957 6.187 1.650
5.129 5.952 1.793
4.824 5.441 1.618
5.384 6.382 1.844
5.272 5.932 1.674
5.188 5.627 1.644
5.750 6.083 1.715
5.618 5.772 1.712
2.407 5.320 2.648
2.904 5.315 2.662
3.066 5.429 2.628
2.979 5.196 2.563
3.151 5.633 2.481
3.063 5.683 2.532
3.153 5.236 2.302
3.535 5.810 2.760
3.596 5.837 2.355
3.372 5.253 2.153
3.461 5.167 2.421
3.982 5.945 2.542
4.039 5.716 2.561
3.836 5.626 2.347
3.915 5.246 2.275
3.773 5.321 2.043
4.356 6.158 2.600
4.387 6.152 2.570
4.304 5.883 2.508
4.151 5.528 2.263
3.992 5.306 2.175
3.710 5.180 2.144
4.584 6.339 2.562
4.493 6.044 2.536
4.306 5.644 2.390
4.272 5.419 1.974
4.035 5.454 1.891
3.932 5.098 1.752
4.906 6.316 2.361
4.579 6.014 2.078
4.436 5.752 2.052
4.588 5.425 2.033
4.593 5.488 2.044
5.139 5.886 2.448
4.885 6.059 2.147
4.809 5.771 1.913
4.917 5.424 1.675
5.237 6.292 2.140
5.298 6.034 2.138
5.233 5.793 1.929
5.186 5.519 2.080
5.507 6.330 1.992
5.267 5.994 2.146
5.450 5.671 1.988
5.649 6.275 1.931
5.912 6.211 2.050
2.908 4.933 2.855
3.167 5.238 2.725
3.081 5.305 2.493
3.831 5.593 2.828
3.472 5.225 2.342
3.286 5.119 2.489
3.936 5.578 2.491
3.997 5.635 2.667
3.777 5.202 2.605
3.526 4.855 2.396
4.687 6.065 2.948
4.243 6.183 2.951
4.170 5.720 2.905
4.115 5.518 2.602
4.008 5.412 2.227
4.243 5.377 2.205
3.870 5.005 2.038
4.929 6.053 2.979
4.438 6.099 2.848
4.652 5.809 2.592
4.240 5.451 2.393
4.210 5.601 2.236
4.210 5.129 2.189
4.856 6.263 2.810
4.747 5.886 2.756
4.749 5.588 2.246
4.803 5.442 2.155
4.749 5.277 2.133
5.290 5.972 2.669
5.320 5.854 2.649
5.109 5.709 2.385
5.028 5.645 2.333
5.571 6.154 2.271
5.197 5.882 2.432
5.071 5.730 2.213
5.863 6.440 2.315
5.521 6.109 2.254
5.441 5.704 2.029
3.390 4.985 2.797
3.591 4.741 2.669
3.566 4.680 2.390
4.830 6.123 3.162
4.635 6.128 3.123
4.880 5.885 2.692
4.699 5.478 2.876
5.250 6.005 3.015
5.127 5.881 3.092
4.885 5.990 2.684
4.839 5.709 2.586
5.270 6.356 2.705
5.235 6.136 2.577
5.367 5.667 2.762
5.242 5.375 2.445
5.700 6.306 2.796
5.619 6.080 2.727
5.435 5.775 2.491
6.065 5.904 2.831
5.872 5.995 2.575
5.915 4.405 1.241
6.330 4.376 0.969
1.718 6.144 0.885
1.311 5.937 0.707
1.672 6.252 1.180
1.545 5.895 1.051
1.860 6.324 1.066
1.559 6.116 1.004
1.837 6.096 1.208
1.621 5.837 0.901
1.087 4.288 0.261
1.001 4.032 0.185
2.064 6.178 1.506
1.677 5.954 1.501
1.745 5.848 1.199
1.215 4.276 0.174
2.272 5.945 1.461
2.067 6.095 1.208
1.328 4.346 -0.128
1.361 4.349 0.153
0.824 4.243 0.277
0.739 3.709 0.181
1.906 6.320 1.271
1.913 6.070 1.417
1.527 5.781 1.047
1.031 3.991 0.273
0.644 3.798 0.209
0.600 3.750 0.075
2.132 5.944 1.641
1.830 5.684 1.408
1.672 5.513 1.222
1.183 3.822 0.224
0.884 3.897 -0.069
2.023 5.768 1.411
2.026 5.834 1.247
1.886 5.535 1.176
1.582 4.192 0.241
1.392 4.040 0.092
2.320 5.974 1.235
2.431 5.555 1.121
1.581 4.085 0.201
1.808 4.252 0.088
1.594 3.888 -0.088
2.838 4.499 0.088
3.298 4.674 -0.001
3.519 5.024 0.127
0.912 3.894 0.429
0.877 3.594 0.033
0.568 3.670 0.101
1.826 6.105 1.849
1.953 5.681 1.400
1.756 5.520 1.540
0.874 3.653 0.425
0.870 3.461 0.620
0.900 3.181 0.287
0.559 3.087 0.248
0.638 2.823 0.162
1.887 5.838 2.064
1.931 5.478 1.780
1.697 5.455 1.402
1.119 3.595 0.351
1.264 3.644 0.153
1.125 3.366 0.245
1.033 3.066 0.190
2.190 5.792 1.547
2.222 5.786 1.525
2.269 5.373 1.655
1.633 3.850 0.389
1.343 3.445 0.140
1.394 3.503 0.028
2.706 5.744 1.689
2.586 5.716 1.527
2.359 5.439 1.173
1.542 3.490 0.331
1.689 3.593 0.133
2.701 5.592 1.658
2.710 5.593 1.430
2.155 3.471 0.231
2.759 5.612 1.424
3.327 4.532 0.004
3.472 4.664 0.206
3.909 4.906 0.099
1.064 3.774 0.446
1.095 3.610 0.410
1.051 3.318 0.154
0.952 3.265 0.064
0.537 2.839 0.147
2.206 5.938 1.882
2.013 5.731 1.550
1.810 5.362 1.705
1.088 3.557 0.855
1.044 3.372 0.636
1.023 3.069 0.426
0.975 3.124 0.292
0.546 2.733 0.097
2.279 5.676 2.203
1.978 5.456 1.778
2.142 5.337 1.836
1.392 3.737 0.582
1.341 3.431 0.426
0.937 3.262 0.334
1.108 2.953 0.130
0.805 3.007 -0.122
2.513 5.546 1.843
2.305 5.376 1.748
2.206 5.411 1.556
1.378 3.204 0.461
1.292 3.323 0.422
1.202 2.825 0.164
2.704 5.756 1.584
2.300 5.361 1.634
2.426 5.301 1.422
2.657 5.415 1.877
2.739 5.154 1.410
2.640 4.968 1.411
3.202 5.333 1.439
2.793 5.403 1.533
3.479 5.398 1.266
4.112 4.168 0.140
3.891 4.168 -0.100
4.420 4.416 0.164
4.064 4.234 -0.067
4.666 4.593 0.090
1.243 3.828 0.692
1.040 3.489 0.532
1.085 3.245 0.572
1.030 3.106 0.421
0.528 2.909 0.103
2.081 5.612 2.005
2.138 5.263 1.912
1.968 5.089 1.628
1.288 3.270 0.803
1.251 3.464 0.899
1.092 2.919 0.486
0.760 2.912 0.415
0.874 2.699 0.548
2.328 5.613 2.236
1.955 5.223 2.068
1.797 4.948 2.116
1.384 3.122 0.625
1.180 3.185 0.723
0.969 2.815 0.613
2.636 5.575 2.169
2.368 5.047 2.045
2.198 5.098 1.840
2.053 4.870 1.916
2.840 5.472 2.094
2.761 5.364 1.822
2.291 5.155 1.779
2.510 4.798 1.507
2.806 5.445 1.741
2.677 5.295 1.609
2.886 5.048 1.477
2.400 4.994 1.529
3.247 5.565 1.639
3.170 5.176 1.621
2.955 5.054 1.399
3.255 5.511 1.640
3.053 5.246 1.271
3.421 5.361 1.700
4.317 4.269 0.331
4.225 4.026 0.003
4.426 4.123 0.230
4.281 4.174 0.076
4.722 4.531 0.241
4.672 4.258 0.247
5.271 4.541 0.246
1.339 3.294 0.855
1.114 3.361 0.812
1.038 3.175 0.593
0.855 2.863 0.306
0.880 2.750 0.249
2.270 5.637 2.092
1.999 5.143 2.241
1.979 4.899 2.098
1.341 3.070 0.969
0.878 2.901 0.994
0.950 2.613 0.831
0.759 2.408 0.737
2.364 5.190 2.257
2.322 5.290 2.146
2.160 4.720 2.135
2.617 5.088 2.308
2.590 5.190 2.141
2.239 4.862 1.844
2.021 4.712 2.017
2.868 5.197 2.289
2.565 5.243 1.818
2.371 4.952 1.761
2.368 4.832 1.922
2.917 5.045 1.901
2.776 4.927 1.806
2.795 4.894 1.677
2.689 4.850 1.597
3.112 5.424 1.747
2.979 4.966 1.988
3.097 4.762 1.491
2.808 4.492 1.475
3.392 5.165 1.942
3.274 4.965 1.840
3.314 4.837 1.354
3.575 5.089 1.570
3.408 5.152 1.445
4.597 4.023 0.607
4.638 4.139 0.327
4.566 3.609 0.096
5.044 4.299 0.418
4.936 3.909 0.162
4.553 3.881 0.201
4.603 3.785 0.089
5.038 4.417 0.190
4.923 4.056 0.217
4.872 3.730 0.198
5.320 4.165 0.069
5.454 4.235 0.117
5.438 4.136 0.041
1.139 2.951 1.055
1.062 2.905 0.809
0.796 2.864 0.603
1.024 2.539 0.390
2.405 5.449 2.507
2.114 5.194 2.487
2.153 4.907 2.127
1.271 2.745 1.056
0.850 2.632 0.728
0.951 2.389 0.839
2.441 5.392 2.648
2.424 5.004 2.543
2.234 4.622 2.391
2.446 5.309 2.531
2.534 4.983 2.526
2.508 4.670 2.273
2.137 4.323 1.883
2.961 5.050 2.183
2.906 4.961 2.157
2.462 4.526 2.310
2.562 4.498 1.793
2.584 4.173 1.747
2.945 5.005 2.157
2.981 4.831 1.888
2.900 4.634 2.151
2.710 4.679 1.648
2.632 4.062 1.773
3.111 5.024 2.164
3.370 5.002 1.886
3.037 4.538 1.806
2.994 4.413 1.822
2.951 4.399 1.616
3.410 5.079 1.863
3.208 4.750 1.681
3.209 4.394 1.518
3.326 4.212 1.467
3.760 5.178 1.679
3.748 4.625 1.867
4.555 4.179 0.504
4.429 3.661 0.485
4.646 3.742 0.332
4.834 4.054 0.454
5.139 3.929 0.515
4.798 3.689 0.173
4.750 3.601 0.298
4.521 3.439 -0.012
5.371 4.276 0.393
5.435 4.322 0.363
5.288 4.087 0.490
4.936 3.656 -0.001
4.848 3.348 -0.137
5.694 4.074 0.282
5.580 3.961 0.480
5.188 3.765 0.218
5.191 3.840 0.276
5.851 4.100 0.350
5.524 4.263 0.357
5.532 3.731 0.266
5.895 3.896 0.074
0.946 2.920 1.148
1.116 2.330 0.773
1.094 2.271 0.786
2.546 5.238 2.661
2.319 4.984 2.322
1.984 4.581 2.332
2.670 5.095 2.677
2.572 4.729 2.744
2.692 4.515 2.588
2.179 4.301 2.151
2.325 4.214 2.166
2.840 4.840 2.716
2.706 4.695 2.513
2.560 4.560 2.486
2.469 4.431 2.196
2.695 4.067 2.080
2.193 4.011 2.084
2.950 4.908 2.616
3.146 4.606 2.471
2.914 4.388 2.234
2.788 4.462 1.851
2.550 3.972 2.065
2.722 3.921 1.904
3.498 4.836 2.158
3.353 4.794 2.118
2.983 4.640 1.819
3.095 4.390 1.872
3.165 4.176 1.752
2.927 3.706 1.811
3.569 4.819 2.034
3.687 4.681 2.188
3.397 4.440 1.698
3.100 4.080 1.968
3.255 4.188 1.802
3.837 5.006 1.902
3.635 4.643 1.698
2.817 1.780 0.006
3.007 2.204 0.040
5.428 4.349 0.967
5.152 4.192 0.570
5.094 3.723 0.805
4.909 3.794 0.697
5.019 3.292 0.430
5.396 4.205 0.962
5.481 4.227 0.874
5.529 4.172 0.664
5.310 3.778 0.345
5.089 3.692 0.486
4.983 3.191 0.053
4.939 3.039 0.296
5.767 4.263 0.940
5.842 4.224 0.705
5.483 4.117 0.655
5.485 3.626 0.592
5.434 3.526 0.240
5.200 3.312 -0.059
5.026 2.902 -0.061
5.882 4.491 0.852
5.811 3.917 0.425
5.716 4.019 0.504
5.697 3.688 0.291
5.634 3.678 -0.019
5.444 3.334 0.027
6.062 3.940 0.383
6.016 3.680 0.489
5.705 3.457 0.273
5.777 3.398 0.103
2.765 4.582 2.876
2.729 4.210 2.811
2.497 4.072 2.342
2.429 3.862 2.547
2.467 3.731 2.201
3.084 4.971 2.915
2.749 4.772 2.798
2.636 4.456 2.370
2.530 4.055 2.242
2.517 4.033 1.995
2.617 3.572 2.090
2.518 3.656 1.805
3.122 4.920 2.770
3.142 4.765 2.688
3.004 4.411 2.236
2.956 4.131 2.382
2.625 4.033 1.865
2.910 3.696 1.957
2.780 3.656 1.976
2.451 3.360 1.762
3.413 4.674 2.405
3.553 4.424 2.162
3.030 4.243 2.073
3.142 4.138 1.872
3.126 3.798 1.805
3.007 3.719 1.812
2.875 3.501 1.800
2.933 3.473 1.454
3.809 4.713 2.192
3.759 4.575 2.434
3.445 4.342 2.159
3.523 4.210 2.032
3.464 4.057 1.929
3.123 3.652 1.623
3.118 3.310 1.714
2.954 3.348 1.585
3.040 2.235 0.780
2.953 2.257 0.384
2.864 1.855 0.590
2.804 1.846 0.347
2.597 1.650 0.247
2.438 1.445 0.013
3.141 2.281 0.369
3.056 2.306 0.466
3.050 1.745 0.428
2.952 1.721 0.141
2.630 1.768 0.224
3.467 2.366 0.345
3.271 1.912 0.391
3.294 2.012 0.180
3.159 1.847 0.218
3.390 1.929 0.051
3.707 1.936 -0.064
5.571 4.041 1.225
5.393 3.962 0.973
5.154 3.888 1.087
5.042 3.656 1.004
5.096 3.298 0.496
5.849 4.451 1.380
5.753 4.394 1.114
5.533 4.015 0.757
5.479 3.710 0.632
5.461 3.607 0.747
5.380 3.354 0.473
5.243 3.067 0.326
5.746 4.490 1.064
5.666 4.192 1.160
5.866 4.085 0.875
5.591 3.899 0.612
5.498 3.517 0.638
5.580 3.242 0.237
5.494 3.008 0.427
5.264 3.067 0.361
6.292 4.361 0.998
6.029 4.096 0.662
6.151 3.754 0.720
5.976 3.799 0.418
5.987 3.610 0.610
5.713 3.324 0.476
5.403 3.287 0.370
5.363 2.897 -0.086
6.053 3.878 0.608
6.013 3.782 0.552
5.912 3.523 0.346
6.089 3.363 0.189
5.922 3.160 0.070
4.637 4.597 6.086
4.355 4.117 5.859
4.977 4.860 6.001
4.951 4.671 6.108
4.469 4.434 6.024
4.642 4.198 5.949
5.043 4.660 6.259
5.033 4.410 6.065
5.134 4.607 6.048
4.985 4.118 5.578
4.693 4.167 5.782
4.739 3.738 5.382
5.687 5.199 6.396
5.535 4.932 6.203
5.108 4.515 5.795
5.269 4.541 5.691
5.009 4.175 5.727
5.213 3.878 5.634
4.793 3.647 5.255
6.069 4.990 6.018
5.858 4.820 6.183
5.584 4.552 6.093
5.368 4.463 5.938
5.614 4.310 5.587
5.289 4.369 5.428
5.192 3.764 5.574
5.093 3.893 5.219
5.125 2.721 4.301
5.595 2.856 4.600
5.586 2.624 4.379
4.671 4.084 6.137
4.807 4.095 5.939
5.176 4.314 6.160
5.081 4.249 6.095
4.939 3.990 6.109
5.373 4.562 6.381
5.510 4.456 6.114
5.143 4.248 5.884
5.129 4.087 5.965
5.689 4.643 6.410
5.797 4.434 6.142
5.622 4.261 6.187
5.359 3.992 5.929
6.083 5.196 6.416
6.167 4.885 5.986
5.412 4.072 6.222
5.784 4.055 6.382
4.050 2.576 5.856
3.716 2.591 5.802
4.166 2.474 6.393
4.024 2.372 6.161
4.133 2.430 6.228
4.026 2.833 6.379
3.829 2.480 6.132
4.225 2.143 6.241
4.446 2.157 6.174
4.703 2.075 6.258
4.873 2.241 6.458
4.746 1.848 6.212
5.074 2.251 6.271
4.882 2.050 5.849
6.052 2.395 5.858
5.014 1.816 6.336
5.396 1.957 6.255
5.401 1.590 6.268
5.523 2.312 6.262
5.484 1.768 6.267
5.558 1.567 6.078
6.010 2.309 6.169
5.825 2.159 6.297
5.977 2.080 5.832
6.387 2.332 5.957
5.303 1.479 6.174
5.858 1.757 6.314
5.736 1.488 5.958
6.139 1.983 6.389
6.023 1.923 5.934
5.929 1.598 6.173
6.142 2.038 5.941
6.034 1.784 6.153
6.027 1.519 6.065
6.374 1.803 6.266
5.166 6.281 3.512
5.522 6.079 3.308
5.236 6.054 3.365
5.247 5.829 3.078
5.716 6.005 3.177
5.330 6.002 2.958
5.464 5.676 3.055
5.714 6.083 3.200
5.493 5.922 2.901
5.555 5.935 3.013
6.232 6.002 2.793
6.052 5.850 2.637
5.902 4.595 1.341
6.041 4.734 1.363
6.202 4.253 1.297
3.346 6.292 4.315
3.609 5.984 4.177
3.193 5.783 4.293
5.045 5.941 3.650
5.279 6.088 3.357
5.428 5.910 3.463
5.912 6.279 3.408
5.599 6.042 3.397
5.681 6.022 3.180
6.068 6.207 3.639
6.039 6.123 3.432
5.583 5.678 3.183
6.326 6.015 3.256
5.895 5.794 3.293
5.704 4.169 2.026
6.049 4.680 1.782
5.928 4.178 1.780
6.013 4.390 1.402
3.536 5.973 4.341
3.193 5.935 4.500
3.244 5.600 3.935
3.518 5.963 4.757
3.299 5.874 4.568
3.209 5.749 4.235
3.490 5.308 3.996
5.315 6.254 4.155
5.543 6.215 3.705
5.619 5.749 3.535
5.880 6.203 3.573
5.519 6.005 3.782
6.357 6.266 3.832
6.160 6.136 3.544
6.103 5.931 3.447
6.248 5.706 3.502
5.612 4.252 2.058
6.025 4.521 2.304
5.717 4.015 1.912
6.231 4.412 2.374
6.213 4.149 2.188
6.222 4.096 1.936
3.513 6.177 4.744
3.474 5.579 4.493
3.380 5.359 4.540
3.174 5.302 4.154
3.512 5.768 4.579
3.493 5.798 4.536
3.550 5.292 4.586
3.328 5.101 4.427
3.068 4.891 4.440
3.761 5.656 4.706
3.502 5.557 4.467
3.402 5.228 4.452
5.653 6.234 4.265
5.647 6.171 4.099
5.840 5.919 3.875
6.123 6.086 4.187
6.048 5.734 4.092
5.738 5.745 4.000
6.363 6.315 4.028
6.231 6.065 3.801
5.984 5.701 3.876
6.229 5.643 3.379
5.673 4.019 2.380
5.893 4.306 2.327
5.520 4.074 2.158
6.022 4.360 2.182
5.812 4.038 2.165
6.134 4.046 2.379
6.154 3.950 2.142
3.489 5.696 4.924
3.470 5.840 4.624
3.434 5.297 4.378
3.525 5.020 4.345
3.350 4.796 4.456
3.793 5.485 4.869
3.803 5.346 4.746
3.349 5.252 4.670
3.582 5.262 4.778
3.335 4.830 4.389
3.914 5.781 4.745
3.923 5.628 4.720
3.680 5.416 4.633
3.548 4.850 4.253
3.569 4.668 4.458
4.119 5.537 4.699
3.810 5.022 4.335
3.770 4.944 4.477
5.898 6.171 4.563
5.983 6.185 4.322
5.930 5.902 4.193
6.224 6.222 4.234
6.070 6.102 4.267
5.990 5.712 3.967
6.112 5.806 3.847
5.390 3.807 2.787
5.669 4.080 2.698
5.546 3.829 2.541
5.853 3.933 2.733
5.879 3.842 2.417
6.016 3.813 2.647
6.116 4.010 2.653
6.355 3.709 2.347
3.789 5.617 5.089
3.578 5.421 4.659
3.417 5.065 4.714
3.412 5.145 4.663
3.523 4.643 4.505
3.787 5.326 4.973
3.682 5.131 4.991
3.448 5.084 4.735
3.333 5.067 4.785
3.421 4.662 4.863
3.986 5.267 4.833
3.793 5.450 4.915
3.843 5.251 4.767
3.580 4.703 4.540
3.722 4.822 4.696
4.489 5.281 4.765
4.312 5.414 4.630
4.287 4.860 4.640
4.166 4.640 4.653
3.859 4.752 4.322
4.249 5.080 4.680
4.463 5.053 4.748
4.264 4.605 4.361
3.954 4.661 4.089
4.536 5.183 4.454
4.245 4.551 4.171
4.453 4.758 4.159
6.280 6.079 4.634
6.245 6.008 4.609
4.935 4.227 3.443
4.972 3.768 3.352
6.444 6.014 4.666
6.006 5.973 4.451
5.314 3.864 3.441
4.960 3.917 3.034
5.702 3.922 3.326
5.323 3.973 2.849
5.825 3.961 3.177
5.626 3.692 2.860
5.889 3.855 2.992
5.876 3.486 2.794
6.163 3.662 2.654
6.133 3.613 2.522
3.900 5.414 5.378
3.885 5.316 5.214
3.446 4.895 4.762
3.632 5.002 4.804
3.639 4.681 4.551
4.038 5.166 5.478
3.631 5.221 5.153
3.718 4.831 5.133
3.666 4.874 4.872
3.535 4.735 4.943
4.242 5.409 5.351
4.145 4.929 4.967
3.719 4.707 4.849
4.004 4.829 4.934
3.751 4.622 4.803
4.497 5.277 4.961
4.454 4.966 4.757
4.130 4.711 5.000
4.271 4.855 4.711
3.921 4.327 4.460
3.765 4.138 4.553
4.406 5.106 4.867
4.505 5.072 4.849
4.275 4.660 4.607
4.073 4.468 4.456
4.256 4.371 4.369
4.255 4.304 4.305
4.717 5.164 4.744
4.771 4.934 4.535
4.322 4.526 4.380
4.598 4.230 4.204
4.131 4.219 4.413
4.711 4.874 4.614
4.577 4.540 4.260
4.679 4.173 4.123
4.537 4.212 4.180
4.293 3.748 4.140
4.835 4.572 4.029
5.075 4.225 3.971
4.783 4.223 3.957
4.538 4.045 3.762
4.560 3.681 3.893
5.272 4.397 3.844
4.924 3.967 4.016
4.825 3.851 3.873
4.672 3.881 3.361
5.395 3.978 3.805
4.950 3.700 3.489
5.013 3.499 3.322
5.668 4.211 3.588
5.487 4.006 3.656
5.117 3.417 3.507
5.836 3.931 3.567
5.662 3.783 3.402
5.502 3.724 3.351
5.982 3.951 3.307
5.908 3.372 2.913
6.043 3.647 3.012
5.761 3.358 2.768
6.102 3.652 2.745
5.946 3.592 2.960
4.107 5.411 5.387
3.885 5.312 5.334
3.593 5.062 5.021
3.423 4.917 4.934
3.606 4.490 4.730
3.880 5.238 5.512
3.801 5.122 5.196
3.754 4.857 5.483
3.492 4.546 4.999
3.601 4.159 5.122
4.438 5.542 5.342
4.081 5.129 5.492
4.317 5.043 5.226
3.991 4.770 5.370
3.894 4.429 5.196
3.728 4.373 4.692
4.505 5.270 5.507
4.271 5.290 5.138
4.178 5.013 5.201
4.427 4.739 4.852
4.069 4.374 4.988
4.072 4.117 4.730
3.759 4.268 4.715
4.685 5.323 5.146
4.466 5.276 5.311
4.542 4.824 5.100
4.532 4.555 4.827
4.561 4.424 4.865
4.077 4.210 4.800
4.279 4.181 4.414
5.011 5.131 5.076
4.600 5.001 4.789
4.784 4.834 4.900
4.623 4.479 4.676
4.364 4.090 4.570
4.380 3.967 4.430
4.173 3.836 4.100
4.976 4.730 4.762
4.930 4.423 4.701
4.634 4.220 4.545
4.908 4.075 4.260
4.686 3.989 4.316
4.325 3.983 4.161
4.636 3.715 3.877
5.346 4.404 4.747
5.060 4.292 4.226
4.859 4.154 4.071
4.647 4.149 4.221
4.914 3.667 4.220
4.490 3.409 3.981
5.460 4.204 4.332
5.274 3.919 4.203
5.280 4.106 4.120
5.085 3.596 3.694
4.760 3.515 3.877
5.217 4.235 4.031
5.501 4.016 3.875
5.409 3.666 3.681
5.181 3.433 3.732
5.531 3.913 3.629
5.394 3.744 3.562
5.246 3.605 3.613
5.849 3.718 3.630
5.829 3.755 3.711
5.738 3.566 3.173
5.681 3.749 3.366
5.626 3.549 3.223
6.009 3.671 3.430
6.209 3.399 3.035
6.353 3.291 3.062
4.189 5.037 5.475
3.795 4.946 5.276
3.653 4.597 5.441
3.578 4.423 5.028
3.745 4.340 5.152
4.254 4.919 5.603
4.070 4.652 5.431
4.065 4.756 5.276
3.895 4.361 5.293
4.607 5.354 5.601
4.078 5.044 5.823
3.991 4.905 5.541
3.966 4.586 5.411
4.131 4.172 5.300
3.871 4.228 5.073
4.785 4.994 5.723
4.317 5.059 5.319
4.638 4.544 5.310
4.201 4.755 5.143
4.386 4.131 5.079
3.964 4.268 5.092
4.092 3.918 4.752
4.905 5.084 5.435
4.703 5.117 5.240
4.479 4.763 5.068
4.631 4.314 5.133
4.320 4.094 4.962
4.231 4.318 4.981
4.096 3.914 4.886
5.274 5.107 5.260
5.151 4.750 5.198
4.899 4.769 4.907
4.957 4.676 4.993
4.548 4.305 4.923
4.565 4.060 4.907
4.287 3.760 4.639
4.316 3.827 4.257
5.230 4.965 5.159
5.222 4.508 5.192
5.043 4.280 4.681
5.029 4.180 4.507
4.820 3.920 4.448
4.834 3.960 4.321
4.510 3.424 4.396
4.299 3.354 4.320
5.541 4.723 4.912
5.039 4.553 4.732
5.031 4.262 4.533
5.230 4.048 4.278
4.779 3.693 4.361
5.029 3.721 4.207
4.622 3.556 3.847
5.505 4.112 4.566
5.169 3.917 4.296
5.217 3.939 4.159
5.079 3.607 3.949
4.805 3.263 4.084
5.504 3.746 4.051
5.429 3.869 4.166
5.293 3.748 3.871
5.036 3.225 3.704
5.640 3.708 4.111
5.579 3.709 3.863
5.348 3.388 3.615
5.726 3.723 3.731
5.840 3.414 3.549
5.550 3.471 3.730
5.761 3.510 3.486
5.890 3.216 3.607
6.107 3.164 3.498
4.094 4.943 5.684
4.182 4.830 5.649
3.822 4.584 5.693
3.584 4.455 5.361
4.219 4.929 6.053
4.059 4.686 5.623
4.073 4.294 5.744
4.319 4.958 6.063
4.298 4.641 5.595
4.218 4.447 5.547
3.990 4.266 5.352
4.054 4.054 5.192
4.761 5.112 5.717
4.511 4.805 5.879
4.783 4.952 5.789
4.334 4.767 5.425
4.212 4.427 5.620
4.228 4.250 5.414
4.192 3.981 5.327
5.108 5.354 5.593
4.771 5.051 5.760
4.841 4.579 5.484
4.616 4.403 5.232
4.503 4.511 5.436
4.396 4.057 4.944
4.605 3.871 5.018
4.387 3.892 5.079
5.330 5.262 5.612
5.242 4.966 5.594
4.971 4.694 5.229
4.884 4.403 5.262
4.791 4.504 5.003
4.716 4.035 5.249
4.725 3.745 4.840
4.388 3.786 4.743
4.596 3.580 4.491
5.480 4.835 5.443
5.212 4.548 5.160
5.290 4.476 5.043
5.212 4.316 5.239
5.173 4.247 5.111
5.037 3.662 4.584
4.663 3.557 4.797
4.717 3.462 4.330
4.492 3.130 4.194
5.512 4.528 5.080
5.164 4.034 4.694
5.371 4.056 4.777
5.275 3.932 4.624
4.804 3.702 4.332
5.107 3.239 4.359
4.967 3.199 4.308
5.312 4.209 4.568
5.182 4.002 4.594
5.288 3.544 4.293
5.207 3.603 4.163
5.234 3.119 4.154
5.409 3.763 4.480
5.288 3.450 4.104
5.485 3.399 4.332
5.397 2.998 3.919
5.822 3.719 4.046
5.549 3.440 3.870
5.598 3.120 3.978
6.006 3.487 3.753
5.737 2.997 3.768
6.116 3.265 3.545
4.231 4.712 5.849
4.047 4.495 5.971
3.882 4.495 5.634
4.703 4.920 6.468
4.684 4.838 5.939
4.293 4.651 6.175
4.153 4.279 5.760
4.108 4.127 5.736
5.022 5.399 6.362
4.754 4.894 6.090
4.573 4.926 5.931
4.469 4.526 5.680
4.444 4.432 5.827
4.565 4.200 5.595
4.170 4.163 5.426
5.416 5.400 6.345
5.001 4.920 5.817
5.025 4.845 6.008
5.006 4.515 5.520
4.743 4.216 5.733
4.802 4.311 5.562
4.470 4.194 5.152
4.694 3.858 5.077
5.522 5.134 5.807
5.269 4.940 5.999
5.405 4.946 5.669
5.285 4.430 5.785
5.076 4.451 5.307
4.727 4.149 5.412
4.871 4.104 5.353
4.934 3.780 4.898
4.842 3.401 4.794
5.614 5.066 5.685
5.611 4.549 5.560
5.296 4.654 5.561
5.452 4.346 5.436
5.035 4.110 5.342
5.153 4.054 5.184
5.138 3.638 5.054
4.746 3.644 4.881
4.570 3.287 4.560
5.291 4.133 5.316
5.379 3.887 5.137
5.383 4.082 5.026
5.401 3.537 4.955
5.023 3.310 4.870
5.002 3.350 4.604
4.729 2.952 4.533
5.434 3.654 4.543
5.185 3.518 4.636
5.288 3.417 4.378
4.987 2.863 4.451
5.667 3.440 4.376
5.315 3.057 4.258
5.357 3.149 4.147
5.540 3.007 4.175
5.785 3.032 3.904
5.602 2.840 3.842
4.391 4.301 6.167
4.291 4.253 6.224
4.823 4.499 6.008
4.621 4.324 6.094
4.664 4.331 5.873
4.529 4.043 5.999
5.236 4.672 6.269
5.165 4.822 5.919
5.080 4.539 5.974
4.826 4.408 5.957
4.706 4.169 5.476
4.800 3.713 5.632
5.682 4.940 6.011
5.297 4.745 6.171
5.343 4.694 5.843
5.120 4.322 5.716
5.239 4.293 5.803
4.968 4.198 5.494
5.107 3.814 5.282
5.710 4.964 6.268
5.876 5.120 6.242
5.437 4.929 5.749
5.534 4.667 5.818
5.496 4.460 5.811
5.326 4.281 5.611
5.102 4.108 5.622
4.937 3.831 5.221
5.079 2.730 4.505
5.235 2.732 4.249
5.543 2.597 4.459
2.429 0.421 3.224
2.149 0.166 3.288
2.577 0.352 3.438
2.437 0.033 3.443
2.988 0.637 3.444
3.075 0.385 3.270
2.758 -0.035 2.997
3.255 0.377 3.205
3.333 0.492 2.975
2.937 -0.006 3.184
3.538 0.576 2.984
3.421 0.237 3.012
3.218 0.317 2.828
5.247 2.494 4.462
5.033 2.361 4.071
4.700 2.221 4.254
4.923 2.137 3.997
4.701 1.922 3.863
4.809 1.500 3.683
4.649 1.541 3.383
4.447 1.081 3.441
5.513 2.762 4.261
5.195 2.605 3.976
5.213 2.201 4.162
5.154 1.855 3.854
4.864 2.003 3.815
4.975 1.695 3.504
4.845 1.598 3.333
4.476 1.063 3.172
5.763 2.666 4.140
5.467 2.349 4.173
5.352 2.087 3.704
5.035 2.016 3.861
5.318 1.742 3.477
5.185 1.696 3.302
4.916 1.191 3.267
4.836 1.042 3.052
5.954 2.657 3.989
5.796 2.176 3.863
5.389 2.288 3.833
5.336 1.944 3.458
5.308 1.773 3.398
5.404 1.542 3.276
5.380 1.485 3.345
5.792 2.175 3.794
5.862 2.239 3.418
5.734 2.118 3.353
5.554 1.624 3.200
5.698 1.631 3.233
5.639 0.188 2.015
5.595 0.294 1.943
5.885 0.173 1.731
6.434 0.108 1.784
2.625 0.179 3.934
2.450 -0.018 3.772
3.153 0.292 3.748
2.829 0.076 3.550
2.714 0.204 3.382
3.304 0.790 3.779
2.985 0.200 3.525
3.057 0.384 3.608
3.159 -0.133 3.547
3.477 0.994 3.619
3.645 0.439 3.650
3.394 0.220 3.406
3.319 -0.004 3.196
3.617 0.940 3.878
4.011 0.747 3.696
3.884 0.424 3.535
3.478 0.300 3.384
3.455 0.065 3.194
4.002 1.056 3.889
3.980 0.605 3.530
4.215 0.900 3.569
4.063 0.355 3.416
3.983 0.414 3.145
3.891 0.164 3.067
4.631 1.494 4.103
4.322 1.328 3.687
4.205 1.093 3.945
4.203 0.873 3.457
3.886 0.586 3.606
4.203 0.778 3.548
4.330 0.534 3.179
4.841 2.085 4.423
4.778 1.956 4.218
4.748 1.582 3.880
4.714 1.655 3.960
4.769 1.282 3.987
4.289 1.286 3.629
4.228 0.671 3.424
4.243 0.871 3.389
4.564 0.599 3.363
5.254 2.354 4.511
5.421 2.079 4.210
5.062 1.984 4.063
5.223 1.600 3.831
4.723 1.275 3.688
4.731 1.112 3.532
4.693 1.033 3.478
4.568 0.733 3.576
4.306 0.863 3.221
5.568 2.205 4.249
5.536 2.181 4.117
5.201 2.008 3.876
5.445 1.644 3.912
4.930 1.392 3.538
5.105 1.099 3.567
5.142 1.203 3.337
4.747 0.666 3.345
5.768 2.376 4.022
5.784 1.856 4.050
5.507 1.858 3.979
5.668 1.775 3.860
5.205 1.476 3.391
5.355 1.303 3.417
5.245 0.950 3.438
5.729 1.965 3.648
5.571 1.640 3.623
5.784 1.550 3.575
5.579 1.393 3.336
5.381 1.008 3.234
2.365 0.334 3.858
3.655 2.629 5.621
3.635 2.523 5.525
3.392 2.295 5.529
2.908 0.101 3.952
2.780 -0.022 3.764
3.034 0.445 3.876
3.199 0.261 3.791
3.096 0.153 3.854
3.507 0.723 4.226
3.399 0.419 4.046
3.305 0.095 3.734
3.355 0.248 3.868
3.289 0.874 4.011
3.563 0.587 3.905
3.758 0.292 3.790
3.456 0.373 3.839
3.208 -0.027 3.611
3.631 0.637 3.968
3.735 0.778 4.042
3.852 0.631 3.703
3.910 0.432 3.728
3.630 0.087 3.731
4.254 0.952 4.023
3.894 0.797 3.915
3.975 0.751 3.774
4.248 0.338 3.857
4.221 0.304 3.538
4.131 0.078 3.424
4.504 1.553 4.269
4.222 1.022 4.284
4.450 1.010 4.032
4.094 0.724 3.827
3.958 0.632 3.815
4.242 0.567 3.372
4.101 0.484 3.536
4.102 0.104 3.259
4.989 1.739 4.483
5.064 1.570 4.427
4.657 1.250 4.049
4.871 0.990 3.757
4.663 1.116 3.798
4.468 0.928 3.841
4.417 0.415 3.428
4.406 0.443 3.429
4.597 0.474 3.319
5.464 2.020 4.344
5.052 1.897 4.044
4.974 1.540 4.317
5.031 1.311 3.945
4.849 1.061 3.663
4.854 0.785 3.819
4.676 0.535 3.652
4.376 0.574 3.247
4.953 0.533 3.155
5.368 1.970 4.447
5.252 1.514 3.890
5.375 1.397 4.186
5.218 1.397 3.633
5.118 0.916 3.648
5.086 0.820 3.411
5.038 0.468 3.318
4.798 0.315 3.126
5.671 1.959 4.196
5.797 1.838 3.892
5.487 1.422 3.634
5.610 1.386 3.872
5.513 0.874 3.707
5.108 0.802 3.277
5.358 0.717 3.347
5.755 1.829 3.972
5.570 1.326 3.749
5.638 1.051 3.496
5.650 1.178 3.608
5.272 0.767 3.128
5.853 1.237 3.539
5.765 1.226 3.645
5.636 1.112 3.207
2.341 0.360 4.179
3.657 2.459 5.660
3.555 2.196 5.501
3.276 2.076 5.452
2.765 0.382 4.375
3.752 2.203 5.861
3.535 2.072 5.558
3.541 2.087 5.583
2.965 0.214 4.417
2.664 -0.030 4.105
3.390 0.688 4.297
3.193 0.144 4.242
2.915 0.123 4.204
3.445 0.400 4.600
3.379 0.516 4.313
3.588 0.224 4.339
3.471 -0.074 4.069
3.715 0.481 4.058
3.754 0.426 3.998
3.565 0.225 4.223
3.533 -0.119 3.910
3.920 0.667 4.155
3.580 0.572 4.019
3.921 0.554 3.992
3.998 0.047 3.954
3.807 0.071 3.918
4.214 0.712 4.066
3.918 0.461 4.192
4.031 0.597 4.082
4.382 0.463 4.047
4.156 0.273 3.733
4.722 1.365 4.545
4.633 1.025 4.191
4.359 0.936 3.991
4.424 0.474 4.157
4.017 0.505 4.034
4.257 0.384 3.960
4.139 0.017 3.602
4.749 1.335 4.558
4.937 1.360 4.472
4.688 0.873 4.335
4.631 0.923 3.823
4.401 0.361 3.767
4.642 0.157 3.818
4.762 0.272 3.551
4.583 0.006 3.450
5.252 1.696 4.526
5.355 1.439 4.233
5.168 1.308 4.345
4.751 0.848 4.193
4.664 0.530 3.680
4.727 0.524 3.876
4.736 0.514 3.694
4.778 0.486 3.549
5.667 1.531 4.130
5.335 1.203 4.038
5.483 1.142 4.056
5.398 1.039 3.874
5.126 0.675 3.941
5.145 0.520 3.748
5.038 0.417 3.385
5.227 0.094 3.175
5.866 1.460 4.014
5.407 1.307 3.897
5.471 0.877 3.770
5.223 0.942 3.723
5.434 0.793 3.811
5.180 0.533 3.394
5.004 0.339 3.589
6.044 1.444 4.143
5.712 1.228 4.046
5.770 1.247 3.846
5.845 0.985 3.735
5.413 0.623 3.467
5.576 0.554 3.605
5.878 1.385 4.012
6.119 0.834 3.559
5.731 0.762 3.630
5.592 0.658 3.576
2.457 0.160 4.431
3.625 2.226 5.945
3.534 2.039 5.782
3.479 2.003 5.632
2.713 0.327 4.822
2.552 -0.143 4.419
3.787 2.451 6.076
3.719 1.999 6.088
3.529 1.838 5.834
3.227 0.337 4.738
3.922 2.409 5.843
4.038 2.045 5.567
3.369 0.158 4.615
3.473 0.294 4.307
3.186 0.493 4.435
3.405 0.334 4.269
3.499 0.295 4.183
3.655 0.474 4.459
4.010 0.271 4.324
3.923 0.212 4.286
3.794 0.566 4.488
3.982 0.229 4.312
4.195 0.155 4.114
4.026 0.093 3.905
4.173 0.885 4.367
4.273 0.585 4.532
4.278 0.093 4.252
4.185 0.013 4.274
4.043 -0.103 3.825
4.519 0.825 4.263
4.532 0.857 4.216
4.399 0.497 4.144
4.166 0.121 4.030
4.393 0.320 3.820
4.941 1.132 4.401
4.614 0.795 4.158
4.598 0.631 4.353
4.477 0.537 3.870
4.358 0.066 3.902
4.874 0.311 3.968
5.317 1.114 4.459
5.139 0.951 4.253
5.071 0.591 4.156
4.978 0.441 4.159
4.793 0.235 3.892
4.744 0.263 3.647
4.962 -0.015 3.842
5.775 1.449 4.575
5.417 1.208 4.400
5.453 0.860 4.399
5.472 0.769 4.001
5.098 0.711 3.803
5.172 0.503 3.628
4.972 0.222 3.557
5.162 0.135 3.573
5.912 1.508 4.577
5.744 1.063 4.131
5.774 0.804 3.930
5.463 0.912 3.925
5.475 0.302 3.912
5.184 0.289 3.774
5.265 0.020 3.789
6.183 1.242 4.457
6.150 1.244 3.961
5.633 0.914 3.846
5.744 0.548 3.806
5.797 0.646 3.499
5.678 0.069 3.599
6.089 0.892 4.001
6.178 0.805 4.011
6.120 0.724 3.684
5.915 0.535 3.665
5.916 0.202 3.589
5.968 0.462 3.517
6.298 0.292 3.488
2.728 0.363 4.846
2.730 0.189 4.594
3.879 2.464 6.147
3.512 2.182 5.700
3.816 1.808 5.839
3.059 0.121 5.074
4.069 2.043 6.282
3.951 1.933 5.884
3.743 1.800 6.070
3.009 -0.136 4.653
3.930 1.899 6.232
4.152 1.663 5.984
3.866 1.852 5.628
3.676 0.250 4.611
4.233 2.225 5.883
4.210 1.794 5.870
3.630 0.243 4.974
3.884 0.356 4.686
3.548 0.103 4.580
3.863 0.133 4.296
4.023 0.180 4.565
4.272 -0.097 4.364
4.426 0.489 4.613
4.001 0.117 4.417
4.523 -0.082 4.107
4.686 0.379 4.656
4.686 0.477 4.558
4.567 0.136 4.365
4.411 -0.115 4.102
4.990 0.853 4.499
4.812 0.653 4.513
4.820 0.060 4.328
4.382 0.244 4.236
4.622 -0.202 4.212
5.090 0.917 4.471
4.992 0.434 4.607
5.002 0.361 4.481
5.072 0.303 4.189
4.641 -0.058 3.840
5.688 0.855 4.561
5.451 0.775 4.272
5.172 0.509 4.211
5.314 0.249 4.369
5.250 0.296 3.910
5.618 1.108 4.422
5.641 0.897 4.398
5.761 0.429 4.173
5.607 0.345 4.060
5.586 0.316 3.900
6.116 1.095 4.311
5.967 0.653 4.279
5.861 0.569 4.073
5.670 0.406 3.906
5.539 0.166 3.610
6.366 1.079 4.238
5.995 0.492 3.944
6.188 0.529 3.899
5.988 0.425 3.563
5.683 0.030 3.646
6.218 0.253 3.714
6.093 0.288 3.835
6.123 0.007 3.541
2.898 0.229 5.088
4.112 2.233 6.025
4.022 1.968 6.216
3.878 1.660 6.084
3.748 1.558 6.294
3.572 1.533 6.040
4.076 2.090 6.173
3.915 1.825 5.974
4.200 1.403 6.076
4.272 1.839 6.183
4.382 1.699 5.989
4.363 1.613 5.947
4.740 2.050 6.042
4.594 1.528 5.691
4.907 1.715 5.835
5.129 0.343 4.423
5.156 0.446 4.646
5.165 -0.106 4.277
5.586 0.736 4.587
5.580 0.629 4.623
5.489 0.160 4.158
5.403 0.041 4.254
6.074 0.646 4.657
5.905 0.495 4.557
5.836 0.535 4.138
5.639 0.283 4.173
5.947 0.972 4.510
5.819 0.565 4.539
5.807 0.439 4.219
6.000 0.115 4.301
6.066 0.347 4.086
5.902 0.513 3.996
6.110 0.205 4.059
6.296 -0.059 3.979
4.103 1.654 6.293
3.891 1.399 6.001
4.120 1.144 6.405
4.452 1.708 6.298
4.408 1.495 6.074
4.770 1.459 6.161
4.846 1.642 5.979
4.539 1.058 5.959
4.803 1.642 6.267
4.966 1.372 5.851
5.087 1.471 5.821
5.685 0.582 4.735
5.780 0.199 4.416
5.710 -0.088 4.190
6.346 0.670 4.483
6.148 0.414 4.590
6.087 0.399 4.271
6.104 0.091 4.319
3.923 1.100 6.389
4.354 1.317 6.159
4.444 0.830 6.031
4.941 1.138 6.047
4.752 1.201 6.004
4.558 0.761 5.972
4.960 1.262 6.369
4.825 1.184 6.222
4.996 1.254 5.877
5.084 1.308 6.019
5.089 1.187 5.839
5.672 1.382 5.934
6.014 0.267 4.748
6.179 0.232 4.588
4.625 0.564 6.154
4.788 0.950 6.348
4.784 0.603 5.930
5.347 1.055 6.005
5.006 0.880 6.087
5.769 1.446 6.067
5.367 0.952 5.903
4.512 0.589 6.210
4.915 0.474 6.146
4.901 0.366 6.010
5.458 0.779 6.411
5.150 0.491 6.258
5.766 0.793 6.301
5.241 0.032 6.283
2.792 4.132 2.652
2.358 4.074 2.684
2.642 3.943 2.645
2.367 3.827 2.387
2.061 3.449 2.439
3.166 4.356 2.597
2.983 4.244 2.841
2.786 4.103 2.489
2.534 3.792 2.345
2.687 3.620 2.453
2.399 3.349 1.969
2.422 2.998 2.096
3.309 4.584 2.578
3.299 4.190 2.603
3.141 3.881 2.600
2.772 3.960 2.300
2.930 3.572 2.075
2.804 3.526 2.206
2.395 2.968 1.929
2.492 2.939 1.840
2.479 2.704 1.402
3.475 4.553 2.524
3.384 4.339 2.375
3.247 3.971 2.303
3.224 3.821 2.130
3.070 3.517 2.206
3.089 3.405 2.088
2.628 3.051 1.750
2.898 3.137 1.715
2.707 2.589 1.601
3.003 2.705 1.148
2.570 2.454 1.124
3.353 4.219 2.257
3.657 3.866 2.168
3.516 3.514 1.908
3.179 3.371 1.678
3.164 3.525 1.753
3.083 3.083 1.576
2.857 2.939 1.347
2.651 2.813 1.165
2.902 2.718 1.200
2.889 2.659 0.982
2.949 2.043 0.838
2.827 2.229 0.725
2.534 1.795 0.832
3.484 3.518 1.907
3.347 3.294 1.423
3.369 3.060 1.428
2.998 2.725 1.339
2.940 2.734 1.314
3.246 2.477 1.044
3.379 2.299 1.184
2.939 2.035 0.770
3.155 2.134 0.507
2.708 1.787 0.688
2.796 1.822 0.409
2.642 1.361 0.330
2.649 1.069 0.227
3.195 2.942 1.080
3.369 2.618 0.984
3.391 2.764 0.903
3.347 2.305 0.654
3.344 2.313 0.611
3.350 1.955 0.562
2.934 1.726 0.498
2.963 1.791 0.364
3.002 1.212 0.381
2.744 1.010 0.085
3.704 2.402 0.999
3.630 2.546 0.706
3.535 2.034 0.600
3.544 1.943 0.683
3.314 1.598 0.377
3.288 1.366 0.215
2.950 1.413 0.158
3.998 2.021 0.341
3.838 1.781 0.562
3.690 1.633 0.234
3.324 1.738 0.205
3.852 2.000 0.004
3.711 1.795 0.202
5.711 4.411 1.656
5.589 3.993 1.402
5.485 3.881 1.152
5.276 3.555 0.937
5.152 3.449 1.044
5.678 4.100 1.358
5.631 4.141 1.087
5.693 3.649 1.298
5.295 3.540 0.914
5.572 3.429 0.920
5.124 3.068 0.576
6.026 4.215 1.309
5.931 4.135 1.010
5.770 3.903 1.021
5.914 3.665 0.866
5.513 3.386 0.888
5.663 3.355 0.779
6.184 4.001 1.161
6.088 3.875 1.180
6.243 3.932 0.925
5.976 3.489 0.773
5.688 3.358 0.848
5.596 3.258 0.733
6.336 3.606 0.499
6.069 3.174 0.634
0.927 1.296 1.200
1.061 1.180 1.241
0.690 0.957 1.054
2.411 3.843 2.776
2.159 3.631 2.818
2.208 3.233 2.368
2.500 3.745 2.652
2.583 3.791 2.690
2.460 3.356 2.640
2.189 3.429 2.454
2.164 2.983 2.265
3.100 4.037 2.641
2.924 3.876 2.748
2.955 3.442 2.399
2.852 3.330 2.459
2.534 3.333 2.120
2.424 2.824 2.287
2.222 3.057 2.239
2.685 2.666 1.822
3.150 4.002 2.925
3.072 3.647 2.541
2.879 3.517 2.541
2.952 3.244 2.331
2.739 3.291 2.396
2.570 2.844 1.929
2.753 2.967 1.730
2.387 2.511 1.996
2.487 2.756 1.527
2.393 2.255 1.381
3.478 3.901 2.791
3.389 3.961 2.446
3.105 3.777 2.425
2.953 3.510 2.048
3.090 3.207 2.109
2.826 2.856 1.967
2.609 2.583 2.002
2.671 2.757 1.692
2.884 2.749 1.535
2.678 2.411 1.274
2.751 2.244 1.491
3.555 3.793 2.518
3.488 3.664 2.069
3.389 3.315 2.286
3.090 3.161 1.998
2.932 2.939 1.643
3.145 2.726 1.891
2.843 2.521 1.415
3.251 2.547 1.508
2.890 2.295 1.121
2.898 1.932 1.186
2.848 1.771 0.932
2.547 1.644 0.836
3.760 3.451 1.913
3.361 3.251 2.022
3.446 3.021 1.520
3.301 2.700 1.715
3.053 2.486 1.403
3.383 2.428 1.121
3.269 2.454 1.329
3.266 2.099 1.126
3.136 1.901 0.880
3.029 1.742 0.727
2.974 1.592 0.823
2.737 1.189 0.359
3.480 3.047 1.475
3.291 2.566 1.440
3.399 2.692 1.271
3.606 2.600 1.304
3.411 2.141 1.050
3.287 1.971 0.963
3.336 1.899 0.691
3.386 1.748 0.778
3.293 1.612 0.650
3.170 1.026 0.207
2.829 0.846 0.286
3.698 2.536 1.373
3.762 2.314 1.329
3.675 2.253 1.005
3.884 2.110 0.879
3.656 2.002 0.715
3.461 1.848 0.669
3.524 1.378 0.497
3.137 1.507 0.303
3.075 1.367 0.365
2.990 1.010 0.350
3.732 2.277 1.084
3.801 2.309 0.912
3.875 1.921 0.520
3.831 1.611 0.624
3.584 1.557 0.480
3.653 1.342 0.416
3.307 1.291 0.131
3.553 1.155 -0.056
4.231 1.774 0.392
3.934 1.810 0.210
3.817 1.372 0.239
3.897 1.220 0.118
3.901 1.186 0.083
4.269 1.860 0.427
4.052 1.511 0.179
3.975 1.424 0.212
5.490 4.142 1.847
5.364 4.068 1.643
5.417 3.934 1.739
5.635 4.099 1.940
5.695 4.006 1.400
5.261 3.550 1.512
5.228 3.382 1.290
5.878 3.877 1.671
5.719 3.728 1.565
5.616 3.583 1.502
5.365 3.278 1.307
5.498 3.408 1.144
6.183 4.068 1.624
5.967 3.886 1.441
6.090 3.489 1.059
5.819 3.624 1.238
5.520 3.078 1.094
6.206 3.761 1.081
6.076 3.469 1.310
6.003 3.307 1.148
6.070 3.372 1.045
6.054 3.360 0.702
1.250 1.472 1.235
0.781 0.998 1.080
1.034 1.015 1.204
2.336 3.536 2.920
2.413 3.380 2.753
2.198 3.321 2.660
1.296 1.069 1.241
0.988 0.969 1.157
0.879 0.521 1.372
0.691 0.290 0.976
2.542 3.565 2.902
2.310 3.482 3.090
2.343 3.283 2.929
1.958 3.153 2.702
2.507 3.726 3.054
2.386 3.487 3.026
2.349 3.243 2.938
2.423 3.004 2.583
2.406 2.839 2.514
2.058 2.897 2.489
2.463 2.661 1.996
3.114 3.552 3.097
2.769 3.396 2.780
2.734 3.150 2.854
2.433 3.104 2.610
2.543 2.893 2.295
2.479 2.628 2.049
2.378 2.456 2.063
2.691 2.567 2.151
3.338 3.518 2.783
3.111 3.469 2.771
2.802 3.371 2.516
3.033 3.121 2.538
2.802 3.042 2.174
2.584 2.543 2.058
2.696 2.395 2.001
2.672 2.432 1.923
2.807 2.344 1.770
3.517 3.717 2.714
3.209 3.262 2.718
3.126 3.267 2.477
3.042 3.078 2.274
2.938 2.750 1.969
2.740 2.705 1.826
2.715 2.587 1.948
3.042 2.457 1.938
2.955 2.119 1.674
2.800 2.099 1.426
3.522 3.490 2.453
3.435 3.210 2.373
3.112 2.899 2.338
3.032 3.001 1.861
2.913 2.397 1.954
3.062 2.566 1.760
3.276 2.356 1.819
3.210 2.281 1.686
2.892 1.725 1.352
2.879 1.516 1.096
2.752 1.495 1.040
3.663 3.356 2.296
3.695 2.925 2.069
3.565 2.732 1.665
3.141 2.375 1.932
3.349 2.513 1.455
3.570 2.163 1.428
3.368 1.959 1.415
3.181 2.071 1.072
3.078 1.879 1.257
2.868 1.358 1.176
3.136 1.311 0.899
3.540 2.781 1.592
3.570 2.569 1.448
3.272 2.498 1.448
3.526 2.326 1.575
3.501 1.970 1.149
3.648 1.710 1.252
3.527 1.654 0.769
3.452 1.369 0.673
3.130 1.140 0.524
3.199 0.988 0.701
3.756 2.585 1.684
3.674 2.257 1.177
3.952 2.299 1.336
3.852 2.250 1.244
3.912 1.717 0.792
3.602 1.546 0.697
3.576 1.633 0.682
3.465 1.245 0.463
3.474 0.950 0.369
3.723 2.391 1.053
3.933 2.123 1.229
4.065 1.929 0.922
4.121 1.850 0.761
3.839 1.402 0.624
3.666 1.402 0.674
3.821 1.110 0.426
3.687 0.867 0.322
4.268 2.412 1.024
4.349 2.091 1.034
4.347 1.986 0.920
4.196 1.482 0.480
3.786 1.312 0.372
3.808 1.042 0.485
3.939 1.096 0.417
4.349 1.585 0.815
4.419 1.380 0.266
4.100 1.152 0.318
4.287 1.257 0.338
5.388 4.110 1.958
5.474 3.724 1.907
5.297 3.389 1.693
5.583 3.818 1.856
5.645 3.955 1.782
5.595 3.437 1.801
5.298 3.378 1.351
6.083 3.708 2.015
5.677 3.841 1.790
5.861 3.684 1.684
5.483 3.431 1.421
6.382 3.943 1.761
6.061 3.479 1.740
6.075 3.445 1.325
5.964 3.292 1.467
6.294 3.369 1.399
6.290 3.140 0.958
1.176 1.156 1.635
1.137 0.961 1.230
1.013 0.680 1.244
0.882 0.380 1.270
2.507 3.562 3.052
2.209 3.294 3.087
2.093 3.164 2.848
2.160 2.876 2.735
1.447 1.073 1.647
1.332 0.723 1.601
0.859 0.478 1.406
0.750 0.405 1.288
0.916 0.235 0.928
2.325 3.191 3.255
2.170 3.398 2.942
2.330 2.841 2.975
2.205 2.623 3.003
1.847 2.654 2.628
1.548 0.637 1.199
1.376 0.318 1.206
1.339 0.184 1.329
2.939 3.586 3.031
2.527 3.406 3.246
2.684 3.324 3.160
2.505 3.006 2.678
2.283 2.600 2.545
2.325 2.623 2.409
2.407 2.310 2.456
2.970 3.592 3.254
2.859 3.515 3.005
2.663 3.252 2.793
2.854 3.128 2.731
2.552 2.568 2.480
2.531 2.357 2.463
2.600 2.235 2.415
2.797 2.217 2.197
3.214 3.275 2.798
2.973 3.244 2.845
2.977 3.297 2.862
2.780 3.105 2.725
2.632 2.535 2.408
2.878 2.589 2.148
2.832 2.491 2.013
2.897 2.032 1.948
2.555 2.161 1.720
3.235 3.333 2.641
3.158 3.085 2.789
3.108 2.806 2.468
3.216 2.685 2.307
3.123 2.281 2.319
2.857 2.232 2.182
3.240 2.331 2.030
2.945 1.926 1.907
2.853 1.829 1.596
3.458 2.966 2.291
3.318 2.700 2.180
3.176 2.446 2.333
3.192 2.596 2.006
3.003 2.230 1.873
3.235 1.976 1.709
3.200 1.901 1.846
3.105 1.781 1.407
3.059 1.393 1.539
3.502 2.825 2.108
3.523 2.492 2.186
3.406 2.554 1.756
3.410 2.348 1.888
3.749 2.172 1.734
3.233 1.870 1.547
3.384 1.750 1.298
3.034 1.631 1.502
3.278 1.237 0.994
3.765 2.545 1.887
3.731 2.258 1.746
3.363 2.336 1.892
3.716 1.974 1.692
3.695 1.894 1.218
3.768 1.773 1.139
3.651 1.637 0.991
3.387 1.303 0.837
3.177 0.922 0.889
3.837 2.164 1.865
3.928 2.244 1.561
4.027 2.017 1.581
3.883 1.993 1.316
3.907 1.656 1.028
3.526 1.315 1.223
3.529 1.462 0.749
3.586 0.984 0.858
3.357 1.008 0.751
4.218 1.919 1.231
4.251 1.857 1.416
3.970 1.995 1.178
3.871 1.476 0.857
3.959 1.439 0.877
3.761 1.352 0.938
3.712 0.936 0.697
3.716 0.925 0.537
4.157 2.038 1.120
4.347 1.939 0.938
4.246 1.762 0.899
4.004 1.444 0.628
4.258 1.321 0.556
3.995 0.947 0.685
3.873 0.895 0.546
5.577 3.834 2.502
5.232 3.725 2.138
4.651 1.951 0.722
4.334 1.418 0.612
4.191 1.217 0.681
4.122 1.109 0.554
4.247 1.077 0.480
5.390 3.610 2.108
5.433 3.718 2.202
5.591 3.494 2.030
4.700 1.330 0.500
4.629 1.204 0.681
4.691 0.928 0.277
5.829 3.755 2.164
5.698 3.434 2.158
5.520 3.500 1.736
5.343 3.238 1.891
6.165 3.582 2.139
6.025 3.567 1.958
5.711 3.225 1.725
5.718 3.019 1.706
6.391 3.935 1.982
6.245 3.580 1.683
6.161 3.426 1.538
6.039 3.237 1.379
1.216 0.767 1.650
1.343 0.672 1.425
1.026 0.698 1.527
0.913 0.523 1.066
0.673 -0.035 1.200
2.292 3.239 3.388
2.259 3.254 3.209
2.306 3.035 2.842
2.024 2.652 2.858
1.880 2.661 2.485
1.427 0.803 1.860
1.084 0.634 1.866
0.993 0.373 1.536
1.044 0.325 1.216
2.343 3.189 3.374
2.496 3.177 3.222
2.181 2.685 3.147
2.364 2.408 3.138
1.998 2.547 2.921
1.619 0.947 1.621
1.609 0.558 1.587
1.146 0.488 1.354
1.137 0.153 1.335
2.568 3.131 3.426
2.615 2.792 3.125
2.545 2.987 3.064
2.453 2.462 2.872
2.198 2.489 2.766
2.591 2.092 2.435
1.708 0.312 1.609
1.736 0.355 1.487
1.458 0.275 1.120
2.838 3.072 3.295
2.904 2.864 2.938
2.820 2.549 2.877
2.810 2.770 2.839
2.476 2.436 2.833
2.669 2.086 2.281
2.907 1.945 2.329
3.164 3.312 2.882
3.327 2.968 3.006
3.075 2.695 2.852
2.981 2.545 2.578
2.752 2.290 2.289
2.787 1.910 2.384
2.975 1.998 2.099
3.511 2.990 2.909
3.391 2.894 2.757
3.276 2.337 2.533
3.172 2.325 2.572
2.763 1.867 2.307
3.343 1.903 2.226
3.081 1.770 1.840
3.453 2.838 2.543
3.432 2.368 2.323
3.447 2.078 2.112
3.391 2.127 2.073
3.524 2.087 2.140
3.481 1.945 1.872
3.390 1.614 1.769
3.402 2.438 2.318
3.614 2.146 2.244
3.363 1.981 2.006
3.619 2.143 1.760
3.515 1.758 1.630
3.226 1.546 1.801
3.278 1.597 1.394
3.712 2.028 1.889
3.575 2.097 2.078
3.900 2.105 1.765
3.584 1.813 1.597
3.544 1.738 1.633
3.699 1.449 1.476
3.400 1.218 1.074
3.920 1.833 1.824
4.022 1.779 1.671
3.920 1.671 1.427
3.680 1.349 1.359
3.737 1.162 1.313
3.581 0.938 1.157
3.690 0.870 1.121
4.064 1.979 1.553
4.400 1.923 1.522
4.133 1.810 1.400
3.953 1.703 1.289
3.939 1.480 1.114
4.020 1.238 0.774
3.677 0.868 0.796
5.255 3.785 2.806
5.298 3.407 2.545
4.409 2.037 1.391
4.286 1.825 1.218
4.546 1.580 0.913
4.425 1.114 0.849
4.253 0.941 0.691
3.848 0.870 0.888
5.228 3.588 2.761
5.409 3.539 2.523
5.416 3.249 2.351
4.857 1.840 1.147
4.344 1.452 0.886
4.677 1.398 0.724
4.212 1.068 0.795
4.386 0.646 0.802
5.709 3.858 2.553
5.778 3.569 2.258
5.558 3.145 2.074
4.771 1.771 0.973
4.656 1.536 1.034
4.665 1.022 0.552
4.781 1.184 0.780
4.410 0.890 0.398
