2.302 0.313 2.851
2.343 0.740 3.166
2.300 0.870 3.341
2.313 0.856 3.138
2.709 0.814 3.296
2.562 1.037 3.410
3.193 1.507 3.442
2.952 1.376 3.169
3.223 1.746 3.425
2.016 -0.243 2.860
2.269 -0.036 3.092
2.219 0.408 3.052
2.535 0.488 3.231
2.529 0.585 3.375
2.439 0.711 3.619
2.347 0.954 3.760
2.939 1.273 3.374
2.883 1.294 3.695
1.707 -0.178 3.103
2.248 -0.019 3.560
2.388 0.668 3.441
2.442 0.879 3.330
2.196 0.870 3.556
2.174 0.950 3.772
2.598 0.874 3.897
1.779 0.121 3.543
1.835 0.489 3.422
2.054 0.308 3.552
2.151 0.892 3.809
1.887 0.737 3.736
2.172 0.870 4.078
1.592 0.064 3.831
1.713 0.239 3.956
2.197 0.323 3.941
2.326 0.585 3.650
2.002 0.610 4.072
1.646 0.052 4.092
1.914 0.088 3.752
1.768 0.297 3.916
1.931 0.435 4.007
1.646 0.229 4.357
1.776 0.248 4.292
1.655 0.707 4.439
1.336 -0.079 4.606
1.638 0.304 4.287
2.528 1.955 5.071
2.616 2.194 5.061
3.166 2.595 5.284
2.694 1.974 5.397
2.582 2.036 5.481
2.470 2.459 5.218
2.802 2.557 5.269
3.004 2.887 5.588
3.025 2.946 5.319
2.152 1.749 5.143
2.229 1.722 5.344
2.356 2.282 5.525
2.719 2.169 5.660
2.716 2.737 5.571
2.916 2.688 5.585
3.017 2.870 5.598
3.264 2.922 5.870
2.371 1.985 5.792
2.470 2.153 5.811
2.216 1.904 5.954
2.460 2.525 5.956
2.686 2.626 5.599
2.721 2.793 5.980
3.135 3.155 5.756
3.042 2.970 5.730
3.000 3.204 6.165
2.093 1.613 5.924
1.990 1.715 5.904
2.145 2.042 6.050
2.387 2.215 5.952
2.559 2.415 5.903
2.709 2.899 5.807
2.641 2.996 5.904
2.897 3.119 5.994
2.828 3.135 6.222
2.998 3.337 6.166
1.888 1.994 6.079
2.288 2.078 6.230
2.407 2.394 5.959
2.713 2.850 6.070
2.635 2.581 6.142
4.880 3.335 1.764
5.083 3.614 1.857
5.391 3.739 2.224
4.850 3.396 2.493
5.239 3.814 2.531
3.581 1.207 2.138
3.754 1.771 1.972
3.738 1.611 2.212
3.341 1.009 2.176
3.609 1.058 2.140
3.515 1.235 2.270
3.642 1.194 2.295
3.921 1.577 2.206
4.979 3.313 2.591
5.011 3.601 2.806
3.135 0.398 2.005
3.388 0.665 2.296
3.600 1.096 2.279
3.571 1.185 2.510
3.676 1.336 2.591
3.669 1.329 2.522
3.714 1.934 2.516
2.953 0.422 2.240
3.276 0.843 2.710
3.101 0.957 2.331
3.653 1.344 2.564
3.818 1.551 2.709
3.925 1.732 2.500
4.016 2.052 2.615
3.134 0.550 2.425
3.172 0.437 2.723
3.339 0.685 2.822
3.048 1.037 2.780
3.534 1.450 3.020
3.446 1.584 2.590
3.536 1.762 2.958
3.820 1.854 3.059
2.772 0.424 2.622
2.996 0.431 3.048
2.649 0.481 2.806
3.155 1.054 2.944
3.203 1.217 2.732
3.363 1.273 2.857
3.180 1.601 2.960
3.722 1.507 3.003
3.920 1.972 3.391
2.731 0.388 2.607
2.912 0.446 3.104
2.843 0.674 3.169
3.054 0.642 3.119
3.070 1.059 3.167
2.905 1.223 3.363
3.407 1.470 3.404
3.177 1.264 3.180
3.520 1.572 3.349
2.603 0.044 3.190
2.352 0.078 3.045
2.742 0.270 2.812
2.432 0.678 3.120
2.557 0.843 3.548
2.923 0.653 3.591
3.035 1.207 3.200
3.155 1.431 3.431
3.307 1.673 3.658
2.278 -0.180 3.219
2.612 0.362 3.296
2.840 0.280 3.440
2.515 0.573 3.698
2.521 0.695 3.712
2.590 0.821 3.787
2.924 1.173 3.612
2.184 -0.088 3.548
2.621 0.094 3.672
2.746 0.669 3.502
2.520 0.381 3.765
2.433 0.591 3.998
2.499 0.707 3.644
2.288 -0.142 3.836
2.167 0.379 3.645
2.160 0.605 3.548
2.326 0.331 3.694
2.527 0.910 3.949
2.232 0.236 3.621
2.212 0.420 4.063
2.330 0.343 3.853
2.291 0.395 4.327
1.907 0.300 4.144
2.261 0.087 4.396
2.411 0.791 4.080
2.084 0.122 4.377
2.058 0.605 4.596
1.826 0.414 4.572
1.956 0.504 4.383
3.079 2.177 5.204
2.883 2.085 5.430
3.289 2.267 5.003
3.065 2.320 4.997
3.277 2.972 5.494
1.790 0.029 4.869
2.513 1.767 5.517
2.842 1.784 5.189
2.978 2.217 5.349
3.016 2.366 5.605
3.409 2.682 5.205
3.177 2.642 5.465
3.380 3.016 5.473
2.373 2.013 5.507
2.843 1.919 5.460
2.733 2.080 5.398
3.160 2.393 5.633
3.134 2.569 5.825
3.205 2.635 5.662
3.471 3.120 5.570
2.363 1.812 5.905
2.392 1.768 5.862
2.786 2.223 5.980
2.705 2.321 5.970
3.214 2.827 6.052
3.227 2.845 5.811
3.103 3.136 5.788
3.397 3.043 6.049
2.148 1.814 5.888
2.321 2.200 5.905
2.836 2.304 6.314
2.528 2.672 5.981
2.881 2.661 6.089
3.012 2.771 6.051
3.245 2.888 5.992
3.175 3.039 6.067
2.392 2.150 6.320
2.336 2.382 6.111
5.160 3.177 2.034
5.200 3.146 1.987
5.193 3.736 2.147
5.297 3.318 2.424
5.191 3.380 2.097
5.415 3.387 2.213
3.222 0.931 1.980
3.688 1.086 2.053
3.855 1.413 2.046
3.992 1.146 1.931
4.068 1.407 2.406
5.173 3.203 2.691
5.470 3.598 2.450
3.623 0.682 2.330
3.579 0.813 2.340
3.869 0.917 2.235
3.874 0.959 2.011
3.832 1.120 2.506
4.076 1.560 2.216
4.952 2.960 2.752
5.461 3.395 2.666
5.549 3.232 2.672
3.424 0.589 2.538
3.591 0.656 2.447
3.702 0.767 2.436
3.619 1.165 2.545
4.012 1.408 2.379
4.119 1.508 2.324
5.140 3.504 2.828
5.082 3.672 2.793
3.366 0.371 2.284
3.434 0.531 2.537
3.520 0.828 2.389
3.293 0.859 2.662
3.479 1.328 2.663
3.782 1.096 2.921
3.973 1.332 2.790
4.033 1.837 2.879
2.917 0.249 2.508
3.213 0.094 2.892
3.184 0.404 2.958
3.161 0.677 2.629
3.616 0.982 2.590
3.392 1.114 2.659
3.785 1.023 2.691
3.806 1.538 2.720
3.241 0.318 2.758
2.841 0.048 3.180
2.920 0.564 2.948
3.058 0.793 3.253
3.154 1.035 3.312
3.748 1.063 3.115
3.564 1.133 3.028
3.967 1.606 3.056
2.681 0.063 2.825
3.075 0.483 2.881
3.018 0.161 2.917
2.943 0.576 3.243
3.323 0.772 3.185
3.063 0.806 3.113
3.213 0.937 3.151
3.431 1.513 3.360
2.513 -0.027 2.913
2.893 0.430 3.143
2.784 0.211 3.513
3.104 0.751 3.176
3.301 0.632 3.236
3.059 1.035 3.275
3.399 1.221 3.797
2.465 0.348 3.257
3.019 0.389 3.110
2.535 0.140 3.594
3.047 0.630 3.455
2.911 0.975 3.545
3.134 1.125 3.655
2.683 0.233 3.642
2.791 0.550 3.775
2.521 0.221 3.791
2.510 0.829 3.791
2.889 0.607 4.094
2.505 -0.054 3.987
2.648 0.334 4.029
2.253 0.459 3.962
2.480 0.726 4.073
2.317 0.015 4.254
2.468 0.580 4.169
2.248 0.608 4.506
2.201 -0.022 3.949
2.482 0.067 4.434
2.533 0.575 4.500
2.151 0.271 4.313
2.289 0.102 4.232
2.356 0.137 4.601
2.505 0.638 4.561
3.267 1.849 5.109
3.535 1.978 5.144
3.331 2.288 4.856
3.659 2.453 5.337
2.139 0.069 4.637
1.873 0.279 4.528
3.162 2.064 5.346
3.349 2.144 5.266
3.052 2.018 5.297
3.668 2.318 5.107
3.332 2.722 5.438
3.692 2.787 5.641
1.602 0.210 5.055
2.236 0.351 5.155
2.917 1.937 5.651
3.058 2.138 5.631
3.106 2.090 5.545
3.213 2.380 5.327
3.214 2.808 5.398
3.571 2.826 5.821
1.933 0.143 4.963
2.639 1.497 5.548
2.618 2.008 5.558
3.221 1.957 5.923
2.900 2.096 5.952
3.132 2.469 5.931
3.607 2.596 5.751
3.534 3.041 5.809
3.651 2.818 5.719
2.942 1.823 5.763
3.112 1.876 5.908
2.998 2.242 5.809
3.319 2.578 5.750
3.282 2.682 6.212
3.258 2.898 6.322
3.282 3.088 6.237
2.758 1.966 6.131
2.704 2.104 5.919
2.919 2.466 6.345
3.246 2.392 6.235
3.228 2.874 6.340
5.185 3.005 2.194
5.105 3.218 1.953
5.606 2.957 2.169
5.511 3.373 2.224
3.932 0.769 1.743
3.704 1.059 1.712
4.004 1.212 1.973
3.939 1.237 2.034
5.404 2.797 2.626
5.465 3.320 2.201
5.297 3.541 2.234
3.620 0.292 2.068
3.795 0.723 1.950
3.924 1.087 2.132
3.832 1.200 2.215
4.150 1.171 2.182
3.955 1.661 2.078
4.913 3.282 2.532
5.424 3.141 2.495
5.375 3.389 2.686
3.517 0.364 2.121
3.865 0.264 2.119
3.877 0.811 2.496
4.129 0.762 2.139
4.001 1.038 2.243
4.071 1.359 2.294
5.440 2.670 2.623
5.579 3.008 2.967
5.499 3.466 2.954
3.794 0.163 2.280
3.763 0.472 2.268
3.757 0.706 2.326
3.705 0.964 2.362
4.340 1.381 2.591
3.961 1.561 2.487
5.285 2.882 2.667
5.115 3.369 3.154
5.484 3.076 2.891
3.330 -0.070 2.542
3.371 0.439 2.519
3.577 0.663 2.637
3.667 0.619 2.613
4.017 1.035 2.669
3.999 1.132 2.544
4.375 1.348 2.607
5.276 2.919 3.231
5.372 3.108 3.023
3.188 0.186 2.634
2.980 -0.009 2.647
3.188 0.281 2.767
3.568 0.524 3.101
3.641 0.619 2.873
3.774 1.001 3.012
3.822 1.360 3.090
3.888 1.596 3.122
3.243 0.414 2.851
3.340 0.308 3.171
3.184 0.616 2.812
3.390 0.432 3.184
3.662 0.648 3.380
3.705 0.733 2.929
3.633 1.093 3.248
3.161 0.040 3.267
2.827 0.001 3.158
3.029 0.332 3.333
3.220 0.822 3.148
3.436 0.766 3.345
3.460 1.198 3.329
3.080 0.047 3.214
2.731 0.182 3.247
2.879 0.646 3.600
3.351 0.514 3.476
3.455 0.558 3.732
2.951 -0.246 3.519
2.991 0.224 3.229
2.906 -0.018 3.681
2.728 0.153 3.687
3.150 0.392 3.877
2.492 0.122 3.798
2.685 0.275 3.626
2.570 0.376 4.120
2.776 0.272 4.090
2.509 -0.219 3.917
2.660 0.274 4.006
2.918 0.174 4.136
2.908 0.290 4.376
2.627 -0.008 3.874
2.470 0.409 3.899
2.490 0.231 4.286
2.475 -0.088 4.559
2.674 0.329 4.541
2.246 0.532 4.673
3.780 2.233 4.780
3.628 2.076 5.049
3.989 2.298 5.140
2.122 0.216 4.754
2.691 0.523 4.607
3.501 1.818 5.335
3.769 1.914 5.287
3.462 2.561 5.063
3.695 2.577 5.219
3.758 2.710 5.324
2.072 -0.100 4.709
2.989 1.509 5.118
3.492 1.754 5.509
3.463 1.960 5.623
3.851 2.549 5.274
3.503 2.400 5.470
3.990 2.855 5.750
2.097 0.057 5.169
3.367 1.652 5.269
3.422 2.070 5.823
3.495 2.110 5.738
3.490 2.376 5.891
3.450 2.444 5.480
3.727 2.793 5.973
2.035 0.097 5.381
2.900 1.591 5.914
3.146 1.694 5.773
3.138 2.366 5.859
3.400 2.504 6.047
3.309 2.734 5.655
3.414 2.847 6.074
3.561 3.141 6.125
2.870 1.706 6.084
2.949 2.114 5.960
3.304 2.007 6.210
3.429 2.510 5.970
3.458 2.421 6.208
3.726 2.981 6.329
3.834 2.703 6.217
2.748 2.085 6.151
3.082 2.328 6.516
3.900 0.406 1.940
4.107 0.611 1.967
4.189 1.083 1.985
5.551 2.420 2.335
5.524 2.940 2.466
5.631 3.229 2.438
5.963 3.338 2.073
3.781 0.249 2.191
3.611 0.518 1.832
3.791 0.548 1.951
4.170 0.958 2.287
4.199 0.956 2.154
5.661 2.863 2.387
5.599 3.289 2.511
5.424 3.068 2.380
3.736 0.490 2.028
3.790 0.498 2.065
4.130 0.635 2.208
4.251 0.713 2.456
4.309 0.984 2.444
4.551 1.570 2.449
5.388 2.784 2.576
5.258 3.220 2.525
5.520 3.282 2.794
3.749 0.142 2.129
4.067 0.209 2.422
3.858 0.312 2.390
4.418 0.925 2.164
4.263 0.850 2.356
4.299 1.266 2.359
5.286 2.829 2.517
5.621 2.724 2.978
5.861 3.178 2.620
3.693 0.059 2.489
3.806 0.462 2.536
4.252 0.764 2.340
3.890 0.537 2.626
4.387 0.924 2.711
4.141 1.429 2.813
5.546 2.801 2.791
5.714 3.129 2.957
5.700 3.439 3.282
3.440 0.138 2.815
3.820 0.029 2.938
3.729 0.491 2.884
3.782 0.370 2.876
3.769 0.694 2.850
4.321 0.804 2.621
4.346 1.023 3.005
5.346 2.947 3.419
5.613 3.117 3.210
5.846 3.273 3.430
3.395 0.096 2.704
3.635 0.007 3.014
3.459 0.312 2.871
3.867 0.449 2.889
3.962 0.617 2.913
4.057 0.961 2.793
3.946 1.087 3.127
5.316 3.073 3.355
5.488 2.916 3.710
5.320 2.959 3.435
3.240 0.054 2.968
3.241 -0.185 3.139
3.233 0.258 3.280
3.434 0.202 3.183
3.822 0.819 3.350
3.968 0.891 3.352
5.536 3.191 3.633
3.474 0.073 2.936
3.168 0.077 3.585
3.615 0.120 3.310
3.293 0.432 3.208
3.793 0.756 3.690
3.196 -0.153 3.064
3.173 -0.054 3.696
3.035 0.029 3.535
3.488 0.399 3.395
3.215 0.217 3.497
2.802 -0.052 3.616
3.416 0.084 4.038
3.051 0.301 3.801
2.746 0.231 4.109
3.039 -0.051 4.219
2.859 0.184 4.016
4.182 2.296 4.904
2.951 0.342 4.067
2.639 0.220 4.175
3.710 1.772 4.584
4.023 2.092 5.042
4.016 2.194 4.766
4.411 2.698 4.679
2.556 0.307 4.499
2.635 0.229 4.758
3.484 1.997 5.091
3.843 1.720 4.962
4.002 2.182 4.908
4.142 2.391 5.121
4.101 2.670 4.965
2.617 0.002 4.669
2.450 -0.030 4.847
3.620 1.541 5.135
3.549 1.943 5.040
3.828 2.137 5.156
3.851 1.984 5.163
4.085 2.433 5.097
3.876 2.392 5.234
2.538 0.411 4.899
3.167 1.797 5.229
3.324 1.855 5.193
3.876 1.794 5.480
3.693 2.420 5.365
3.773 2.407 5.419
4.122 2.518 5.360
3.138 1.364 5.351
3.313 1.707 5.570
3.300 1.888 5.580
3.744 2.438 5.968
3.581 2.202 5.739
4.010 2.623 5.959
3.959 2.912 5.884
3.288 1.717 6.076
3.354 1.668 5.707
3.516 1.790 6.105
3.571 2.106 6.016
3.713 2.480 5.870
4.090 2.786 6.253
3.952 3.046 5.835
2.334 0.246 5.596
3.486 1.673 6.155
3.533 2.185 5.917
3.350 2.050 6.349
3.783 2.593 5.964
3.798 2.851 6.103
2.272 0.000 5.941
4.135 -0.063 1.800
3.995 0.455 1.883
4.045 0.365 2.028
4.282 0.850 2.030
4.435 0.808 1.704
5.735 2.702 2.036
5.707 2.593 2.457
5.964 3.052 2.502
5.755 3.360 2.405
4.049 0.322 2.069
3.910 0.419 2.235
4.087 0.747 2.007
4.338 0.676 2.329
4.269 0.970 2.206
4.772 1.307 2.203
5.557 2.332 2.318
5.618 2.927 2.715
5.590 2.976 2.660
5.899 3.156 2.864
3.914 -0.007 2.166
4.200 0.169 2.105
4.251 0.505 2.426
4.410 0.999 2.313
4.312 1.184 2.431
4.547 1.259 2.321
5.694 2.596 2.975
5.708 2.715 2.766
5.972 2.940 2.810
4.187 -0.062 2.343
3.988 0.366 2.560
4.082 0.328 2.312
4.578 0.551 2.726
4.652 1.044 2.342
4.704 1.230 2.334
5.557 2.627 2.653
5.970 2.730 2.742
5.810 3.242 3.082
3.890 0.153 2.803
3.874 0.329 2.532
4.244 0.304 2.606
4.442 0.617 2.783
4.462 0.795 2.777
4.485 0.948 2.571
5.209 2.344 2.838
5.514 2.481 3.299
5.486 2.801 2.942
5.882 3.281 3.183
3.770 0.022 2.527
3.817 0.379 3.039
3.909 0.665 2.889
3.971 0.484 2.860
4.317 1.057 2.802
5.249 2.361 3.469
5.396 2.829 3.500
5.446 3.049 3.529
5.916 3.242 3.122
3.877 -0.025 3.219
3.750 0.450 3.200
4.095 0.643 2.856
3.899 0.923 3.235
5.310 2.585 3.727
5.389 2.647 3.385
5.765 2.966 3.780
5.495 2.828 3.451
3.680 0.081 3.427
5.263 2.762 3.887
5.561 2.502 3.649
5.323 2.818 3.690
5.467 2.881 3.956
4.849 2.590 3.706
4.996 2.966 4.129
5.101 2.969 4.160
5.612 3.003 4.141
4.629 2.136 4.024
4.745 2.380 4.035
5.335 2.620 4.406
5.426 2.743 4.001
4.416 1.903 4.148
4.763 2.081 4.076
4.723 2.687 4.564
4.912 2.645 4.448
4.197 1.954 4.431
4.423 2.334 4.514
4.799 2.208 4.719
4.784 2.790 4.503
4.072 1.813 4.762
4.438 1.886 4.739
4.404 2.184 4.614
4.365 2.462 4.714
4.614 2.729 4.572
4.249 1.798 4.769
4.160 1.578 4.997
4.479 2.248 4.911
4.277 2.102 4.748
4.501 2.357 5.016
4.756 2.333 4.834
3.719 1.303 5.023
3.851 1.429 4.820
3.800 2.051 5.074
4.222 2.264 5.141
4.160 2.286 5.313
4.374 2.451 5.378
4.733 2.553 5.133
3.840 1.335 5.328
4.011 1.596 5.122
3.718 1.889 5.515
4.102 1.771 5.595
4.114 2.338 5.614
4.254 2.225 5.420
4.510 2.799 5.552
3.795 1.509 5.402
3.857 1.401 5.402
3.951 1.747 5.302
4.138 2.205 5.701
4.323 2.462 5.729
4.053 2.626 5.838
2.746 0.304 5.260
3.404 1.403 5.668
3.469 1.608 5.591
3.551 1.704 5.670
3.957 1.912 5.697
4.206 2.261 5.725
3.898 2.365 5.957
2.339 0.298 5.571
2.515 -0.056 5.659
3.636 1.939 5.999
3.431 1.754 5.928
3.901 2.193 6.294
3.782 2.158 5.897
3.896 2.587 6.365
2.274 0.163 5.880
2.633 -0.084 5.784
3.367 1.792 6.235
3.862 1.911 6.263
2.500 0.008 5.866
2.517 0.313 6.012
2.216 0.193 5.976
4.101 0.173 1.752
4.123 0.444 1.855
4.384 0.345 2.199
4.414 0.684 1.813
4.811 0.686 2.311
4.781 1.226 2.182
5.798 2.836 2.635
5.961 2.905 2.552
5.964 3.138 2.413
3.981 -0.221 2.375
4.015 0.014 2.332
4.510 0.492 2.409
4.427 0.513 2.393
4.529 0.842 2.264
4.514 0.884 2.188
5.793 2.789 2.388
5.691 2.663 2.488
5.880 2.820 2.467
4.041 0.255 2.508
4.002 0.341 2.549
4.466 0.209 2.181
4.383 0.370 2.646
4.725 0.955 2.313
4.533 1.276 2.490
5.783 2.487 2.793
6.012 2.744 3.138
5.751 2.868 3.118
4.385 0.118 2.504
4.362 0.036 2.548
4.387 0.331 2.468
4.772 0.897 2.504
5.048 0.677 2.848
5.760 2.424 2.970
5.754 2.679 2.850
6.237 2.971 2.978
4.418 -0.030 2.773
4.231 0.129 2.946
4.679 0.694 2.806
4.427 0.617 2.839
5.796 2.547 3.214
5.704 2.875 3.031
6.175 2.729 3.517
3.937 0.340 2.696
4.516 0.341 3.061
4.517 0.624 2.738
5.813 2.585 3.307
5.519 2.498 3.155
5.979 2.869 3.292
6.047 2.937 3.266
5.375 2.087 3.505
5.534 2.406 3.881
5.824 2.849 3.402
5.913 2.827 3.706
5.207 1.994 3.525
5.190 2.249 3.707
5.381 2.419 3.726
5.428 2.547 3.922
5.612 2.891 3.902
5.146 2.323 3.887
5.276 2.434 3.879
5.531 2.615 4.004
5.490 2.870 4.030
5.528 2.872 4.231
4.791 2.044 3.971
5.194 2.334 4.035
5.303 2.192 4.179
5.274 2.564 4.113
5.187 2.605 4.551
5.499 3.088 4.255
4.584 1.698 4.080
5.067 2.022 4.492
4.837 2.171 4.482
5.143 2.161 4.458
5.206 2.585 4.587
5.328 2.839 4.292
4.594 1.365 4.448
4.797 1.646 4.475
5.000 2.115 4.845
4.689 1.990 4.475
5.133 2.269 4.582
4.885 2.678 4.810
4.045 1.394 4.496
4.398 1.667 4.767
4.306 1.933 4.621
4.912 2.076 4.769
4.577 2.308 4.802
4.938 2.209 4.670
4.976 2.700 4.733
4.291 1.149 4.791
4.182 1.222 5.042
4.128 1.708 4.726
4.262 1.631 4.760
4.355 1.868 4.965
4.785 2.304 5.329
4.845 2.301 5.306
3.844 1.144 5.190
4.057 1.686 5.195
4.430 1.651 5.232
4.419 1.802 5.216
4.584 2.087 5.287
4.810 2.514 5.049
4.500 2.476 5.180
3.782 1.217 5.319
3.823 1.341 5.384
4.180 1.719 5.244
4.343 1.816 5.587
4.172 1.862 5.662
4.279 2.247 5.371
3.902 1.234 5.535
3.845 1.349 5.785
4.120 1.930 5.727
4.056 1.879 5.905
4.358 2.084 5.925
4.399 2.471 5.996
3.699 1.483 6.039
4.166 1.716 5.636
4.199 1.937 5.914
4.211 2.099 5.813
4.334 2.327 6.026
3.652 1.666 5.968
3.852 1.789 6.383
4.061 2.398 6.237
2.528 0.343 6.084
4.734 0.062 2.219
4.550 0.488 2.228
4.883 0.643 2.333
4.693 0.667 1.950
5.196 1.067 2.101
6.092 2.883 2.413
4.660 -0.036 2.026
4.356 0.110 2.471
4.725 0.243 2.578
4.545 0.623 2.460
5.032 1.060 2.277
5.789 2.413 2.909
6.233 2.497 2.907
6.467 2.760 2.804
4.165 -0.155 2.512
4.353 0.458 2.605
4.522 0.474 2.622
4.638 0.763 2.683
4.772 1.009 2.574
6.130 2.735 2.985
6.142 2.893 2.895
5.966 2.977 3.051
4.627 -0.083 2.368
4.708 0.110 2.426
4.872 0.720 2.624
5.015 0.996 2.728
5.885 2.231 3.113
6.070 2.452 3.100
4.458 0.202 2.776
4.933 0.623 3.073
4.959 0.350 3.150
5.821 2.630 3.393
6.346 2.482 3.521
6.081 2.934 3.525
5.869 2.307 3.698
5.638 2.618 3.567
5.777 2.581 3.575
6.284 2.771 3.373
5.801 2.382 3.490
5.698 2.191 3.955
6.077 2.689 3.791
5.850 2.683 4.036
5.252 2.225 3.766
5.465 2.110 4.038
5.767 2.406 4.048
6.028 2.550 3.856
6.196 2.967 3.892
5.193 1.814 3.975
5.385 1.952 4.194
5.493 2.097 4.149
5.690 2.377 4.338
5.651 2.881 3.945
5.905 2.927 4.249
5.113 1.470 4.311
5.222 2.047 4.046
5.420 2.233 4.177
5.264 2.451 4.581
5.336 2.240 4.383
5.732 2.661 4.393
5.551 3.049 4.230
4.950 1.418 4.168
4.770 1.817 4.300
5.114 2.078 4.467
5.392 2.167 4.427
5.411 2.037 4.458
5.415 2.584 4.854
5.272 2.758 4.689
5.432 2.970 4.614
4.281 1.378 4.472
4.833 1.429 4.625
4.891 1.948 4.857
5.130 1.926 4.498
5.041 2.278 4.986
5.222 2.205 4.671
5.477 2.531 4.783
5.388 2.495 4.593
4.546 1.277 4.585
4.435 1.342 4.844
4.761 1.428 4.995
4.869 1.696 4.700
4.799 1.956 5.079
5.088 2.253 4.848
5.308 2.451 4.765
5.019 2.766 5.209
4.094 1.326 4.933
4.462 1.500 4.885
4.668 1.454 5.090
4.733 1.830 5.081
4.886 2.103 4.947
4.845 2.194 4.984
5.224 2.166 5.406
4.154 1.194 5.151
4.331 1.009 5.059
4.328 1.171 5.297
4.611 1.295 5.537
4.692 1.602 5.325
4.472 1.691 5.198
4.950 1.893 5.538
4.751 2.285 5.322
4.236 1.359 5.663
3.978 1.115 5.507
4.390 1.666 5.417
4.418 1.637 5.304
4.371 2.045 5.801
4.487 1.928 5.557
4.030 1.016 5.739
3.896 1.379 5.730
4.294 1.719 5.892
4.065 1.587 5.829
4.533 1.861 5.922
4.541 2.120 5.742
4.024 1.644 5.863
4.087 1.351 6.028
3.970 1.970 6.149
4.350 2.146 5.853
4.591 0.103 2.095
4.886 0.124 2.142
5.297 0.536 2.031
5.286 0.737 2.114
5.360 0.764 2.176
4.779 -0.011 2.445
5.071 0.367 2.526
4.848 0.418 2.284
5.120 0.962 2.514
4.642 -0.072 2.578
4.848 0.177 2.804
4.939 0.739 2.748
5.286 0.572 2.917
5.898 2.208 2.933
6.019 2.778 3.017
4.905 -0.027 2.708
4.854 0.158 2.842
5.185 0.312 2.974
5.052 0.872 2.703
5.948 2.248 3.390
6.523 2.530 3.634
5.950 2.396 3.763
6.085 2.563 3.377
5.899 1.949 3.591
5.818 2.090 3.750
6.283 2.324 3.791
6.384 2.503 3.995
5.540 2.003 4.179
5.957 2.133 3.950
5.950 2.134 3.930
6.056 2.389 3.971
6.069 2.486 4.148
5.358 1.586 4.207
5.561 1.880 4.386
5.845 2.184 4.364
5.577 2.309 4.046
5.895 2.633 4.036
5.953 2.789 4.482
4.968 1.707 4.203
5.131 1.558 4.286
5.409 1.755 4.286
5.543 2.012 4.309
5.860 2.201 4.299
6.001 2.265 4.425
6.067 2.478 4.798
4.655 0.969 4.504
4.784 1.178 4.442
5.329 1.611 4.666
5.454 1.549 4.592
5.268 1.995 4.491
5.211 2.334 4.812
5.389 2.463 4.908
5.545 2.531 4.792
5.738 2.959 4.732
4.649 1.011 4.371
4.490 1.173 4.623
4.940 1.112 4.941
5.013 1.616 4.970
4.845 1.738 4.653
5.120 1.727 4.742
5.132 2.227 4.947
5.413 2.332 4.683
5.744 2.510 4.882
4.598 0.996 4.597
4.334 0.768 4.789
4.582 0.986 4.873
4.546 1.286 4.951
5.127 1.348 5.025
4.998 1.746 5.117
5.086 1.968 5.037
5.214 2.294 4.933
5.199 2.421 5.163
4.517 0.681 5.025
4.561 1.090 5.205
4.265 1.109 5.160
4.731 1.349 5.109
4.947 1.359 5.436
4.968 2.024 5.113
4.782 1.925 5.272
5.106 2.258 5.416
4.007 1.037 5.419
4.507 1.073 5.448
4.397 1.193 5.135
4.770 1.379 5.586
4.496 1.400 5.551
4.806 1.710 5.212
4.690 1.968 5.442
4.138 0.575 5.356
3.988 0.765 5.367
4.148 1.289 5.656
4.670 1.301 5.714
4.511 1.587 5.682
4.669 1.597 5.672
4.862 1.964 5.463
4.365 0.960 5.797
4.131 1.166 5.605
4.454 1.487 5.633
4.771 1.663 5.801
4.649 1.929 5.762
5.182 0.327 2.319
5.243 0.425 2.497
5.299 0.660 2.613
5.610 0.733 2.162
5.059 0.040 2.611
5.120 0.380 2.683
5.002 0.458 2.615
5.196 0.803 2.730
5.286 0.926 2.529
4.817 0.289 2.759
5.198 0.266 2.743
4.935 0.657 2.628
5.084 0.515 2.866
4.907 -0.142 2.957
5.038 0.125 2.890
5.296 0.500 3.043
6.423 2.015 3.534
5.862 2.024 4.057
6.252 2.177 3.732
6.119 2.317 3.916
5.678 1.740 4.050
6.181 1.872 4.015
5.890 2.165 4.341
6.279 2.139 4.145
5.350 1.443 4.170
5.881 1.665 4.079
5.688 2.177 4.216
5.785 2.208 4.528
6.350 2.596 4.619
6.144 2.361 4.593
5.270 1.185 4.304
5.147 1.309 4.194
5.411 1.468 4.565
5.472 2.022 4.630
5.652 2.080 4.617
5.823 2.118 4.617
6.255 2.294 4.599
5.980 2.666 4.595
4.597 0.860 4.472
4.976 0.860 4.309
5.326 1.242 4.573
5.297 1.162 4.418
5.573 1.608 4.662
5.532 1.918 4.503
5.402 1.929 4.894
5.788 2.096 4.856
5.801 2.513 4.993
6.120 2.384 4.615
4.522 0.503 4.575
4.863 0.588 4.590
4.730 0.794 4.780
5.203 1.080 4.634
4.923 1.261 4.565
5.308 1.600 4.899
5.613 1.914 4.836
5.671 2.164 5.108
5.607 2.140 5.247
5.815 2.162 4.931
4.548 0.685 4.985
4.567 0.805 4.810
4.931 1.017 5.099
4.693 1.020 4.968
5.031 1.440 5.254
4.813 1.461 4.898
5.215 1.538 4.847
5.157 1.650 5.239
5.693 2.045 5.181
5.496 2.101 5.198
4.562 0.650 5.137
4.190 0.626 5.204
4.536 0.818 5.354
4.783 1.280 5.092
5.071 1.107 4.999
4.865 1.363 5.109
5.134 1.442 5.405
5.247 1.865 5.089
5.144 2.021 5.294
4.483 0.450 5.104
4.207 0.439 5.197
4.660 0.771 5.526
4.545 0.977 5.207
4.961 1.070 5.235
4.832 1.698 5.418
4.880 1.517 5.642
5.144 1.846 5.525
4.349 0.788 5.596
4.405 0.886 5.547
4.562 0.874 5.576
4.619 1.361 5.414
4.692 1.295 5.785
4.688 1.695 5.659
4.458 0.725 5.810
4.366 1.283 5.668
4.690 1.307 5.691
5.218 0.008 2.504
5.596 0.366 2.456
5.368 0.701 2.449
5.800 0.435 2.320
5.756 0.998 2.709
5.345 -0.131 2.797
5.581 0.213 2.669
5.568 0.263 2.927
5.554 0.467 2.886
5.037 0.157 2.548
5.520 0.083 2.645
5.254 0.416 2.813
5.591 0.144 3.185
5.843 2.074 4.386
5.984 2.024 3.982
6.104 1.818 4.316
6.138 2.019 4.595
6.147 1.972 4.360
6.249 2.016 4.630
5.394 1.418 4.479
5.617 1.431 4.370
5.652 1.756 4.370
5.741 1.680 4.624
5.950 1.832 4.865
5.991 2.496 4.781
4.958 0.428 4.373
5.037 0.640 4.815
5.172 0.888 4.425
5.115 1.284 4.882
5.250 1.326 4.936
5.664 1.440 4.604
5.911 1.665 5.006
5.909 1.664 4.605
5.987 1.877 4.729
5.940 2.052 4.893
6.216 2.209 4.760
4.533 0.184 4.559
4.748 0.447 4.849
4.940 0.432 4.990
4.782 0.881 4.923
4.886 1.153 4.706
5.160 0.933 4.691
5.346 1.040 4.653
5.716 1.303 5.056
5.754 1.794 4.777
5.978 1.894 5.089
6.068 2.130 5.324
4.406 0.191 4.747
4.721 0.146 5.028
4.878 0.387 5.125
4.758 0.543 4.896
4.954 1.005 5.036
4.920 1.172 5.203
5.106 1.365 5.186
5.262 1.381 4.968
5.698 1.903 5.272
5.853 2.160 5.350
4.580 0.312 4.847
4.727 0.393 5.112
4.377 0.339 5.362
4.724 0.788 5.080
4.693 1.124 5.059
4.796 0.892 5.175
4.985 1.424 5.198
5.041 1.413 5.413
5.436 1.785 5.222
4.284 0.281 5.343
4.433 0.515 5.378
4.600 0.711 5.398
4.737 0.830 5.624
4.849 0.718 5.467
4.959 0.904 5.627
4.909 1.074 5.841
5.076 1.496 5.476
4.149 0.257 5.450
4.298 0.322 5.582
4.699 0.897 5.566
4.545 0.963 5.460
4.787 1.377 5.593
4.943 1.473 5.959
4.511 1.027 5.981
5.786 -0.115 2.293
5.914 0.419 2.730
6.112 0.350 2.500
5.984 0.845 2.636
5.964 0.786 2.891
5.288 0.383 2.649
5.443 0.307 2.828
5.834 0.362 2.798
5.722 0.508 2.738
5.640 0.588 3.101
5.995 1.825 4.522
4.823 -0.015 4.493
5.229 0.456 4.445
5.003 0.615 4.453
5.548 0.646 4.644
5.709 0.870 4.828
5.814 1.387 4.733
5.770 1.497 4.810
5.907 1.420 4.659
4.837 -0.087 4.642
5.127 0.317 4.786
5.000 0.416 4.619
5.198 0.913 5.151
5.156 0.699 4.804
5.627 1.257 4.921
5.561 1.215 5.213
4.547 0.430 4.878
4.846 0.253 5.233
4.795 0.304 5.127
5.337 0.518 4.983
5.206 1.187 4.959
5.563 1.111 5.046
5.411 1.274 5.236
4.708 0.122 5.330
4.916 0.354 5.115
5.123 0.687 5.145
5.120 0.816 5.427
5.377 1.191 5.488
5.441 1.075 5.676
4.455 -0.008 5.540
4.492 -0.003 5.493
4.908 0.172 5.479
4.588 0.757 5.732
5.014 0.696 5.594
5.042 1.187 5.793
5.330 1.434 5.785
4.530 -0.180 5.386
4.396 0.279 5.865
4.756 0.235 5.479
4.676 0.423 5.910
5.069 0.816 5.798
4.989 1.026 5.883
5.958 0.243 2.385
6.097 0.652 2.561
6.040 0.743 2.446
5.579 0.087 2.757
6.023 0.394 2.716
6.216 0.559 2.663
6.253 0.513 2.871
6.129 0.600 2.736
6.149 0.478 3.339
5.025 -0.148 4.921
5.073 0.041 4.678
5.230 0.363 4.568
5.089 0.013 4.807
5.227 0.079 5.031
5.331 0.586 5.219
5.240 0.354 4.983
5.810 1.051 5.064
4.866 0.297 4.983
5.159 -0.006 5.187
5.277 0.459 5.403
5.433 0.783 5.338
5.370 0.998 5.259
4.710 0.301 5.397
4.836 0.321 5.405
5.003 0.645 5.218
5.450 0.548 5.657
5.348 0.927 5.374
4.907 -0.080 5.298
5.094 0.320 5.356
4.958 0.580 5.888
5.045 0.813 5.592
5.343 1.103 5.618
4.808 0.127 5.736
4.565 0.182 5.686
4.895 0.259 5.868
4.963 0.881 5.751
4.490 0.522 5.915
6.029 0.233 2.829
6.168 0.109 2.473
5.927 -0.129 3.133
6.381 0.522 2.772
6.343 0.573 3.121
6.186 0.540 3.098
6.285 0.363 3.070
5.237 -0.172 4.902
5.499 0.239 5.196
5.686 0.373 4.976
5.479 0.064 5.303
5.533 0.499 5.206
5.526 0.270 5.172
4.920 0.235 5.333
5.444 0.314 5.413
5.244 0.323 5.274
5.041 -0.036 5.537
5.415 0.441 5.979
5.580 0.319 5.928
5.196 0.349 5.991
5.357 0.173 6.035
4.844 0.260 6.135
6.312 0.007 3.490
5.696 0.159 5.284
5.308 0.044 5.320
5.379 0.287 5.944
5.207 -0.099 5.914
5.555 -0.051 6.025
5.224 -0.199 6.069
5.668 -0.146 6.005
2.210 3.390 1.183
2.302 3.482 1.152
2.231 3.834 1.508
2.594 4.058 1.411
2.362 3.948 1.514
2.811 4.431 1.728
0.407 0.865 0.753
0.303 0.804 0.558
0.866 1.162 1.039
0.700 1.262 1.027
0.915 1.236 1.087
1.132 1.599 0.871
1.927 3.362 1.537
2.048 3.919 1.682
2.511 3.980 1.796
2.264 4.215 1.430
2.576 4.091 1.502
0.350 0.589 0.869
0.215 0.839 0.765
0.764 1.113 0.867
0.550 1.469 1.313
0.694 1.577 1.273
1.174 1.896 1.094
1.065 1.849 1.265
2.334 3.536 1.913
2.339 3.665 1.888
2.210 3.965 2.014
0.171 0.956 1.444
0.460 0.951 1.197
0.502 1.254 1.542
0.343 1.111 1.527
0.981 1.667 1.325
0.681 1.519 1.638
1.032 1.966 1.301
1.128 1.979 1.572
-0.111 0.901 1.579
0.470 1.151 1.287
0.442 0.990 1.570
0.536 1.415 1.749
0.366 1.680 1.357
0.956 1.962 1.463
0.787 2.040 1.574
0.535 2.122 1.953
0.957 2.191 1.829
0.020 0.958 1.844
0.497 1.167 1.848
0.550 1.249 1.601
0.331 1.471 1.672
0.477 1.908 1.859
0.731 1.737 2.063
0.514 2.111 2.012
0.740 2.255 2.058
0.373 1.124 1.908
0.477 1.219 2.007
0.176 1.709 1.840
0.340 1.725 2.296
0.888 1.961 1.926
0.764 2.061 2.098
0.548 1.933 2.574
0.826 2.116 2.501
0.050 1.250 2.071
0.092 1.494 2.477
0.581 1.722 2.445
0.467 1.804 2.448
0.678 1.958 2.471
0.476 2.352 2.349
0.753 2.583 2.652
0.959 2.561 2.755
0.288 1.338 2.408
0.431 1.551 2.688
0.432 2.212 2.541
0.231 2.224 2.817
0.582 2.067 2.696
0.416 2.484 3.041
0.909 2.836 2.755
0.748 2.641 2.879
0.334 1.574 2.528
0.354 2.072 3.032
0.532 2.097 2.951
0.230 2.033 3.175
0.636 2.148 3.216
0.705 2.846 3.012
1.069 2.770 2.917
1.034 2.821 3.126
0.114 2.013 3.160
0.271 1.830 2.873
0.484 1.975 3.025
0.275 2.100 3.518
0.238 2.608 3.145
0.785 2.476 3.139
0.858 2.719 3.572
1.026 3.232 3.316
0.976 3.255 3.214
0.287 2.243 3.205
0.040 2.058 3.713
0.223 2.087 3.746
0.497 2.511 3.668
0.263 2.755 3.364
0.588 2.828 3.695
0.799 2.833 3.492
0.696 3.115 3.637
2.220 5.081 4.145
2.259 5.040 4.116
-0.104 2.137 3.248
0.005 2.190 3.645
0.533 2.478 3.752
0.618 2.852 3.865
0.699 2.824 3.838
0.678 3.038 3.970
0.726 3.454 3.809
1.787 4.815 4.160
1.962 5.068 4.085
2.145 5.174 4.077
0.255 2.229 3.921
0.448 2.544 4.137
0.348 2.545 4.265
0.696 2.889 3.879
0.834 3.132 4.230
0.934 3.216 4.287
1.877 4.946 4.557
1.932 4.979 4.292
1.987 5.309 4.627
-0.088 2.277 4.057
0.432 2.554 4.104
0.540 3.046 4.146
0.288 3.338 4.078
1.888 5.063 4.782
1.906 4.881 4.901
2.146 5.069 4.952
-0.101 2.284 4.199
0.169 2.941 4.233
0.348 3.076 4.608
1.234 4.591 4.821
1.616 5.000 5.061
1.479 4.902 5.018
1.645 5.243 4.897
1.511 4.650 5.171
1.310 4.892 4.950
1.838 5.347 4.976
1.718 5.439 5.238
0.923 4.633 5.521
1.526 4.554 5.049
1.600 5.096 5.569
1.254 5.214 5.430
1.625 5.490 5.623
0.927 4.368 5.285
1.287 4.630 5.554
1.143 4.803 5.414
1.478 4.994 5.765
1.702 5.420 5.829
0.882 4.309 5.739
1.025 4.480 5.888
1.316 4.900 5.570
1.456 4.849 5.914
1.499 5.080 5.710
1.457 5.147 5.700
0.655 4.343 5.707
0.656 4.484 5.791
1.103 4.690 5.895
0.745 4.809 5.726
0.980 4.713 6.119
1.044 5.086 6.037
0.334 3.794 5.934
0.335 4.177 5.978
0.734 4.497 5.896
0.687 4.726 5.973
0.855 4.982 6.075
0.909 4.728 6.197
0.389 4.064 6.308
0.059 3.957 6.278
2.092 3.075 0.968
2.462 3.318 0.977
2.365 3.549 0.898
2.606 4.026 1.086
2.740 3.899 1.259
2.718 4.422 0.986
3.277 4.468 1.205
0.767 0.808 0.615
0.981 1.003 0.574
1.254 1.281 0.494
2.343 3.197 1.277
2.257 3.703 1.056
2.459 3.541 0.990
2.302 3.939 1.401
2.754 4.142 1.445
2.920 4.184 1.120
0.465 1.050 0.479
0.990 1.027 0.737
0.786 0.994 0.601
0.862 1.359 0.677
1.227 1.900 0.669
2.170 2.999 1.468
1.970 3.673 1.142
2.357 3.752 1.177
2.600 3.679 1.559
2.738 3.926 1.265
2.754 4.293 1.729
0.342 0.584 0.914
0.644 0.846 1.067
0.430 1.288 0.808
1.015 1.147 0.701
0.842 1.552 0.952
0.832 1.515 1.098
2.001 3.325 1.414
2.188 3.385 1.345
2.390 3.289 1.365
2.506 3.504 1.345
2.663 3.979 1.683
2.914 4.277 1.584
0.762 0.324 1.000
0.785 0.921 0.676
0.909 0.803 0.815
1.059 1.259 0.921
1.101 1.269 0.754
1.394 1.492 1.110
1.138 1.708 1.389
2.237 3.006 1.394
2.227 3.209 1.598
2.445 3.738 1.421
2.466 3.871 1.894
2.714 3.815 1.863
2.993 4.304 1.659
0.530 0.741 1.330
0.452 0.607 1.335
0.966 1.035 0.951
1.024 0.928 1.441
0.993 1.399 1.284
0.869 1.622 1.454
1.387 1.759 1.557
1.066 1.575 1.702
2.089 3.349 1.798
2.261 3.641 1.843
2.445 3.791 1.985
2.646 3.951 2.020
2.777 4.021 1.968
0.434 0.485 1.234
0.509 0.613 1.535
0.869 1.027 1.561
0.919 1.410 1.313
1.150 1.312 1.701
0.866 1.504 1.445
1.417 1.574 1.588
0.970 1.640 1.678
2.293 3.780 2.329
2.112 3.939 2.079
2.633 4.040 2.142
2.807 3.916 2.127
0.452 0.820 1.409
0.315 0.899 1.383
0.589 1.064 1.466
0.850 1.583 1.576
1.097 1.737 1.943
0.825 1.847 2.022
0.767 1.969 1.828
2.450 3.838 2.443
0.531 0.821 1.980
0.657 1.048 1.821
0.956 1.455 1.922
0.659 1.793 2.177
0.745 1.695 1.772
0.962 1.594 2.031
0.709 1.021 2.294
0.568 1.448 1.942
1.010 1.601 2.195
0.805 2.020 1.992
0.985 1.843 2.227
0.849 1.860 2.681
0.304 1.414 2.231
0.892 1.835 2.442
0.914 1.875 2.662
0.585 1.880 2.531
0.898 1.879 2.553
1.192 2.118 2.942
0.805 1.439 2.624
0.895 1.727 2.704
0.600 2.000 2.761
0.586 1.876 3.086
1.121 2.466 2.984
0.795 2.531 2.989
0.729 1.625 2.948
0.261 1.999 3.012
0.584 1.886 3.119
0.647 2.347 3.084
0.964 2.453 3.402
0.919 2.722 3.101
2.709 5.022 3.742
0.337 1.935 3.060
0.155 2.050 3.432
0.653 2.222 3.609
0.558 2.486 3.596
0.671 2.422 3.426
1.170 2.515 3.589
1.175 2.819 3.361
2.029 4.797 3.948
2.299 5.004 3.829
2.567 4.877 4.005
0.533 1.658 3.576
0.477 1.646 3.803
0.634 1.857 3.667
0.630 2.222 3.571
0.493 2.273 3.738
0.912 2.750 3.443
0.960 2.825 3.672
0.912 3.323 3.598
2.357 4.458 4.072
2.511 4.811 4.295
2.375 5.171 4.036
0.169 1.737 3.576
0.289 1.828 3.521
0.402 2.231 3.916
0.263 2.467 3.743
0.701 2.300 3.664
0.887 2.822 4.095
0.916 2.658 4.153
0.855 3.119 3.789
2.248 4.893 4.372
1.971 5.125 4.629
2.390 5.110 4.518
0.108 1.831 3.754
0.292 1.868 4.280
0.530 2.240 3.890
0.317 2.278 4.231
0.665 2.983 4.284
0.634 3.014 4.060
1.120 3.147 3.991
1.685 4.483 4.670
1.915 4.778 4.422
2.175 5.027 4.598
-0.020 2.313 4.505
0.513 2.471 4.124
0.404 2.575 4.250
0.704 2.949 4.529
0.603 3.144 4.162
0.697 2.892 4.300
1.916 4.324 4.912
1.794 4.735 4.932
2.143 5.180 4.679
2.221 4.943 4.676
-0.098 2.315 4.319
0.081 2.305 4.619
0.262 2.625 4.613
0.203 2.946 4.458
0.758 3.169 4.517
1.808 4.751 4.934
1.788 5.005 5.051
1.826 5.134 5.211
2.261 4.987 5.016
-0.083 2.582 4.962
0.446 2.471 4.556
0.464 2.841 4.600
1.475 4.778 4.934
1.734 4.579 5.192
1.752 4.895 5.099
1.954 5.205 5.441
0.198 2.482 5.154
1.598 4.661 5.660
1.490 4.747 5.671
1.762 4.899 5.721
1.841 5.334 5.681
1.291 4.866 5.671
1.535 4.784 5.502
1.743 4.943 5.568
1.967 5.059 5.603
1.220 4.437 5.585
1.470 4.549 5.605
1.366 4.777 6.030
1.387 5.106 5.984
1.071 4.293 6.120
1.290 4.214 5.891
0.897 4.591 6.123
1.080 4.893 6.052
0.584 4.038 6.189
0.609 4.283 6.153
1.036 4.640 6.084
2.198 3.287 0.750
2.384 3.446 1.101
2.966 3.267 0.820
2.940 3.626 1.247
2.802 3.885 1.222
2.910 4.200 1.248
3.177 4.394 0.998
0.938 0.661 0.574
1.150 0.937 0.228
1.309 1.340 0.364
1.152 1.408 0.478
1.255 1.515 0.544
2.373 2.932 1.016
2.715 3.409 1.239
2.375 3.528 1.328
2.700 3.442 1.310
3.026 3.897 1.559
3.127 3.962 1.252
2.933 4.184 1.656
0.687 0.311 0.658
0.972 0.869 0.819
0.776 0.745 0.771
1.295 0.845 0.769
1.376 1.175 1.011
1.158 1.638 0.573
2.290 3.013 1.484
2.573 3.269 1.469
2.735 3.745 1.564
2.421 3.936 1.577
2.741 4.180 1.540
3.123 4.042 1.315
0.826 0.271 0.815
0.564 0.545 0.708
1.014 1.041 1.090
1.190 1.186 0.714
1.191 1.572 0.963
1.420 1.788 0.991
2.683 2.817 1.545
2.487 3.435 1.415
2.468 3.370 1.605
2.829 3.540 1.480
2.998 3.920 1.630
3.184 3.760 1.658
0.597 0.330 1.015
0.647 0.687 1.142
0.990 0.989 0.925
1.349 0.943 1.161
1.160 1.249 0.896
1.391 1.169 0.876
2.088 2.953 1.510
2.588 3.444 1.549
2.605 3.238 1.794
2.734 3.666 1.580
2.863 3.571 1.670
2.738 4.008 1.710
2.935 4.347 1.682
0.567 0.190 1.332
0.896 0.730 1.409
0.887 0.712 1.025
0.869 0.960 1.022
0.928 1.036 1.405
1.460 1.161 1.501
2.155 3.101 1.813
2.589 3.037 1.778
2.680 3.428 1.843
2.685 3.480 1.866
3.006 4.044 2.135
2.653 3.871 2.162
3.262 4.434 2.184
0.614 0.642 1.374
0.708 0.868 1.306
0.711 0.880 1.653
1.150 0.994 1.545
1.150 1.646 1.545
2.545 3.175 1.986
2.650 3.223 2.223
2.754 3.639 2.516
2.889 4.014 2.506
2.593 4.106 2.277
3.009 3.986 2.133
0.668 0.868 1.558
0.950 0.988 1.968
0.984 1.048 2.019
0.995 1.295 1.906
2.097 3.474 2.421
2.572 3.815 2.717
2.580 3.711 2.369
2.852 4.086 2.634
2.898 4.356 2.728
0.996 1.134 2.221
2.208 3.411 2.856
2.752 4.089 2.819
2.796 4.260 2.921
2.990 4.448 3.056
2.529 4.147 2.915
2.671 4.219 3.149
2.500 4.248 2.870
2.883 4.349 3.096
2.579 4.272 3.096
2.489 4.241 3.308
2.625 4.316 3.079
2.596 4.734 3.109
2.209 4.545 3.701
2.715 4.772 3.353
2.943 4.472 3.426
2.781 5.151 3.751
1.181 2.192 3.304
2.491 4.197 3.941
2.449 4.490 3.484
2.607 4.656 3.662
2.801 5.090 3.721
0.614 2.065 3.616
0.693 2.202 3.537
0.819 2.459 3.498
1.084 2.791 3.706
2.507 4.279 3.769
2.665 4.337 4.151
2.758 4.498 3.742
2.429 5.124 4.057
0.703 1.896 3.598
0.981 2.044 3.796
0.700 2.383 3.553
1.159 2.778 3.616
0.959 2.508 3.639
2.379 4.470 4.222
2.451 4.696 4.007
2.655 4.975 4.364
2.751 4.724 4.293
0.532 1.979 3.730
0.503 2.239 3.832
0.967 2.444 3.829
1.149 2.836 4.195
1.172 2.522 3.935
1.435 2.825 4.291
2.188 4.317 4.343
2.120 4.317 4.169
2.090 4.828 4.508
2.413 4.897 4.561
0.668 2.071 4.288
0.775 2.091 3.944
0.782 2.252 4.021
0.825 2.389 4.160
1.090 2.847 4.150
0.920 2.883 4.384
2.382 4.456 4.776
2.293 4.559 4.431
2.151 5.018 4.873
0.463 2.001 4.165
0.349 2.069 4.074
0.586 2.294 4.427
0.372 2.172 4.284
0.927 2.524 4.217
1.054 2.801 4.683
1.039 2.754 4.546
2.081 4.634 4.941
1.995 4.552 5.152
2.235 4.884 4.976
-0.028 1.573 4.072
0.017 1.692 4.599
-0.003 1.778 4.767
0.551 2.018 4.568
0.373 2.279 4.798
0.425 2.864 4.900
0.977 2.991 4.931
0.845 3.139 4.653
1.840 4.863 5.087
2.326 4.851 5.195
2.030 5.246 5.228
0.241 1.651 4.773
0.192 1.628 4.960
0.290 1.926 4.618
0.085 1.986 5.013
0.413 2.706 4.680
0.559 2.694 4.822
0.464 2.972 4.785
2.022 4.894 5.362
1.785 4.974 5.124
1.951 4.836 5.142
0.250 1.600 4.685
0.180 2.089 4.791
0.210 2.089 5.227
0.114 2.318 5.155
0.702 2.692 5.073
1.682 5.103 5.789
0.281 2.041 5.171
0.194 2.528 5.411
-0.050 2.504 5.504
1.449 1.455 0.536
2.788 3.125 0.794
2.734 3.120 0.891
2.982 3.766 1.331
3.039 3.685 1.056
3.467 4.094 1.187
0.877 0.353 0.606
0.814 0.813 0.382
1.112 0.643 0.575
1.119 0.826 0.407
1.548 1.320 0.749
1.710 1.226 0.692
1.597 1.808 0.617
1.359 1.650 0.784
2.774 3.036 1.313
2.789 3.244 1.164
2.766 3.243 1.351
2.780 3.413 1.575
2.892 3.773 1.352
3.387 3.707 1.639
0.811 0.264 0.590
1.027 0.649 0.621
1.052 0.941 0.612
1.066 1.178 0.581
1.546 1.256 0.950
1.737 1.136 0.683
1.637 1.606 0.965
2.639 3.185 1.489
2.346 3.038 1.684
2.492 3.364 1.312
2.823 3.563 1.436
3.205 4.000 1.642
2.837 4.151 1.577
0.589 0.298 1.177
0.619 0.383 0.796
1.197 0.803 1.223
1.131 1.175 1.238
1.013 1.222 1.183
1.553 1.168 1.377
2.470 3.015 1.337
2.906 2.957 1.356
2.636 3.363 1.568
3.210 3.409 1.712
3.116 3.679 1.566
3.248 4.101 1.789
0.735 0.029 0.962
1.128 0.694 0.884
1.331 0.468 1.037
1.305 1.096 0.952
1.496 0.901 0.967
1.575 1.195 1.377
2.506 2.766 1.824
2.694 3.123 1.717
2.742 3.298 1.911
2.996 3.379 2.043
2.995 3.476 2.000
3.249 3.977 2.223
0.962 0.292 1.297
1.097 0.525 1.126
1.125 0.890 1.617
1.119 1.039 1.290
1.744 1.120 1.597
2.331 3.101 2.111
2.434 3.019 2.012
2.654 3.233 2.216
2.555 3.424 2.089
2.970 3.820 2.134
2.910 4.087 2.412
3.096 3.906 2.014
0.754 0.736 1.609
0.870 1.011 1.392
1.362 0.976 1.780
2.321 2.964 2.024
2.312 3.113 2.352
2.727 3.359 2.068
2.942 3.287 2.578
2.666 3.536 2.243
2.881 3.695 2.462
3.018 4.171 2.488
2.377 3.288 2.222
2.462 3.414 2.761
2.535 3.375 2.758
2.960 3.651 2.451
3.124 4.029 2.415
2.825 4.347 2.604
3.155 4.083 2.485
2.286 3.490 2.722
2.768 3.795 2.902
2.432 3.648 2.823
2.934 3.959 2.732
2.795 4.168 2.817
3.211 4.266 2.715
2.274 3.352 3.142
2.396 3.586 3.149
2.468 4.141 3.065
3.005 4.278 2.938
2.958 4.390 3.169
3.114 4.649 3.006
2.267 3.895 3.170
2.828 3.802 3.567
2.739 4.412 3.441
2.979 4.263 3.316
3.150 4.545 3.440
3.394 4.612 3.521
2.444 3.877 3.314
2.865 4.089 3.824
2.734 4.234 3.444
2.978 4.710 3.575
3.253 4.896 3.748
2.648 4.111 3.599
2.553 4.176 3.975
2.666 4.580 3.596
2.611 4.563 3.835
3.136 4.757 3.860
2.506 4.443 3.975
2.852 4.644 4.094
2.605 4.875 3.984
2.830 4.730 4.003
1.192 1.804 4.024
1.307 1.975 4.068
1.020 2.200 3.757
2.405 4.131 4.300
2.732 4.384 4.460
2.415 4.792 4.063
2.723 4.744 4.138
0.550 1.679 3.901
1.007 2.157 4.245
1.168 2.507 3.791
0.978 2.670 4.252
1.267 2.542 4.235
2.170 4.312 4.401
2.664 4.796 4.332
2.807 4.831 4.511
0.471 2.082 4.068
0.576 1.944 4.186
0.657 2.129 4.347
1.036 2.692 4.068
1.056 2.879 4.467
1.124 2.606 4.592
2.208 4.539 4.859
2.348 4.512 4.858
2.331 4.865 4.939
0.792 2.032 4.260
0.409 2.337 4.245
0.921 2.531 4.272
0.833 2.645 4.689
1.054 2.678 4.822
0.914 2.647 4.659
2.179 4.425 5.055
2.359 4.515 5.115
2.387 4.611 5.259
0.117 1.778 4.416
0.323 1.948 4.436
0.681 2.328 4.631
0.603 2.197 4.565
0.679 2.319 4.838
0.893 2.882 4.902
1.206 2.792 4.758
2.469 4.522 5.186
2.356 4.735 5.350
0.311 1.669 4.711
0.334 1.868 4.667
0.456 1.950 4.650
0.460 2.300 4.968
0.621 2.101 5.028
0.649 2.263 4.766
0.906 2.620 4.960
1.131 2.749 5.006
0.357 1.905 4.681
0.308 1.586 4.978
0.267 2.058 5.325
0.355 2.010 4.933
0.382 2.146 4.985
0.643 2.656 5.357
0.553 2.956 5.505
0.112 1.585 4.997
-0.157 1.525 5.396
0.052 1.840 5.434
0.228 2.105 5.322
0.575 2.404 5.372
0.460 2.590 5.198
0.127 1.553 5.029
0.139 1.949 5.720
0.438 2.009 5.579
0.448 2.523 5.794
-0.151 2.333 5.719
1.752 1.239 0.845
3.054 3.354 1.179
3.147 3.515 1.236
3.251 3.697 1.108
1.159 0.080 0.416
1.082 0.213 0.551
1.304 0.762 0.419
1.590 0.759 0.777
1.897 1.061 0.478
1.503 1.359 0.861
1.703 1.360 0.722
2.781 3.208 1.388
2.844 3.421 1.160
2.881 3.325 1.700
3.181 3.807 1.749
3.248 3.640 1.781
1.151 0.015 0.600
1.240 0.614 0.929
1.105 0.604 1.031
1.494 0.780 1.050
1.292 1.000 1.125
1.836 1.048 1.236
2.381 2.611 1.614
2.551 3.075 1.659
3.082 3.298 1.602
2.846 3.200 1.486
2.959 3.597 1.881
3.034 3.668 1.494
1.113 0.379 0.887
1.253 0.454 1.069
1.201 0.557 1.347
1.363 0.879 1.088
1.638 0.890 1.053
1.819 1.017 1.098
2.732 2.837 1.814
3.120 3.164 1.538
3.184 2.918 1.921
3.313 3.067 1.898
3.118 3.588 1.629
3.460 3.888 1.909
0.936 0.095 0.849
1.386 0.382 1.281
1.473 0.588 1.219
1.631 0.720 1.134
1.889 1.063 1.197
1.635 1.365 1.262
2.684 2.486 1.628
2.918 3.110 1.815
3.109 3.330 2.077
2.928 3.227 1.730
3.318 3.333 2.123
3.254 3.522 2.263
1.304 0.459 1.634
1.247 0.517 1.439
1.487 0.821 1.278
1.771 1.086 1.558
2.429 2.524 2.061
2.812 2.965 1.894
2.835 2.720 2.098
2.673 3.259 2.276
2.980 3.161 2.214
3.366 3.610 2.021
3.281 3.684 2.404
3.456 4.201 2.510
2.360 2.973 2.551
2.728 2.849 2.424
2.713 3.307 2.637
2.905 3.509 2.188
3.157 3.758 2.251
3.325 3.911 2.348
3.418 4.182 2.340
2.473 2.658 2.676
2.789 3.020 2.792
2.480 3.233 2.521
2.910 3.217 2.733
3.053 3.333 2.592
3.055 3.573 2.518
3.072 4.027 2.737
3.099 4.249 2.680
2.267 3.255 2.861
2.816 3.079 2.743
2.875 3.539 2.799
2.785 3.808 3.087
3.190 3.692 3.058
2.971 3.954 2.938
3.189 4.250 2.999
3.424 4.222 2.946
2.748 3.161 2.877
2.830 3.525 3.284
3.009 3.413 2.973
2.809 3.652 2.980
3.065 4.145 3.368
3.024 3.968 3.025
3.505 4.648 3.448
3.211 4.427 3.585
2.746 3.409 3.395
2.478 3.689 3.570
2.848 3.652 3.631
2.738 3.966 3.478
2.827 4.093 3.306
2.920 4.235 3.321
3.095 4.553 3.769
2.693 3.872 3.680
2.441 4.041 3.811
2.563 3.915 3.782
2.818 4.375 3.613
3.012 4.209 3.992
2.988 4.818 3.571
2.589 3.976 3.722
2.534 4.044 3.947
2.846 4.290 3.833
2.938 4.669 4.107
3.072 4.536 4.214
0.260 0.275 3.169
2.479 3.973 3.914
2.554 4.360 4.260
3.031 4.734 4.233
2.800 4.638 4.340
-0.022 0.309 3.292
2.738 4.185 4.347
2.427 4.227 4.288
2.726 4.550 4.468
2.864 4.549 4.489
0.231 0.452 3.651
1.016 2.077 4.297
1.227 2.281 4.200
1.043 2.455 4.314
1.426 2.682 4.401
2.717 4.344 4.581
2.883 4.602 4.445
2.750 4.702 4.821
0.578 1.531 4.211
0.863 1.748 4.312
0.835 2.367 4.141
1.452 2.481 4.398
1.512 2.394 4.531
1.506 2.622 4.688
2.645 4.126 4.733
2.443 4.353 5.078
2.636 4.646 4.682
0.489 1.720 4.608
0.906 2.141 4.474
1.173 2.396 4.512
0.909 2.090 4.438
1.276 2.370 4.738
1.596 2.591 4.716
2.734 4.637 5.119
2.758 4.491 5.092
0.640 1.782 4.895
0.716 1.916 4.660
0.944 2.016 4.817
0.867 2.093 4.572
0.804 2.216 4.851
1.037 2.453 5.028
1.291 2.662 4.857
1.178 2.924 4.714
0.421 1.507 4.546
0.415 1.588 4.794
0.336 2.030 5.175
0.413 1.822 4.921
0.799 2.387 5.042
0.823 2.518 5.241
0.957 2.706 5.356
1.318 3.016 5.029
0.127 1.365 4.684
0.317 1.460 5.216
0.612 1.931 5.393
0.707 2.047 5.038
0.632 2.298 5.279
0.689 2.173 5.376
0.762 2.346 5.286
1.212 3.036 5.517
0.237 1.619 4.905
0.203 1.690 5.134
0.012 1.738 5.229
0.097 1.773 5.380
0.307 1.835 5.547
0.538 1.994 5.461
0.534 2.219 5.253
1.105 2.569 5.314
0.212 1.615 5.354
0.319 1.529 5.228
0.275 1.794 5.641
0.406 1.986 5.415
0.105 2.270 5.809
0.406 2.132 5.533
0.461 2.315 5.510
0.257 1.682 5.813
0.117 1.737 5.714
0.124 1.787 5.582
0.143 2.158 5.784
0.586 2.034 5.679
-0.132 1.604 5.937
0.188 1.840 6.021
0.149 1.988 6.345
2.271 1.398 0.980
1.084 0.093 0.564
1.393 0.338 0.962
1.371 0.359 0.490
1.852 0.659 0.580
1.834 1.011 1.070
1.833 1.303 0.779
1.965 1.394 0.923
2.986 3.132 1.230
2.958 3.073 1.725
3.372 3.309 1.527
3.513 3.654 1.350
1.454 0.089 0.916
1.379 0.342 0.747
1.696 0.268 1.079
1.819 0.896 0.878
1.610 0.913 0.877
1.709 1.012 1.242
2.909 2.665 1.789
3.136 2.831 1.868
3.218 3.226 1.965
3.089 3.281 1.788
3.363 3.564 2.057
3.248 3.618 1.969
1.153 0.090 0.848
1.295 0.299 1.059
1.255 0.342 1.289
1.341 0.971 1.132
1.770 0.942 1.056
1.747 1.280 1.172
2.948 2.470 1.809
3.247 2.885 1.634
3.354 3.030 1.833
3.296 3.278 2.094
3.249 3.120 1.630
1.321 0.380 1.151
1.749 0.649 1.514
1.566 0.330 1.173
1.945 0.609 1.579
2.791 2.213 2.107
3.126 2.568 1.968
2.914 2.689 1.993
3.223 3.188 2.054
3.153 3.212 1.911
3.308 3.365 2.208
3.524 3.748 1.978
2.683 2.582 2.073
2.857 2.523 2.049
2.968 2.969 2.153
3.114 2.986 2.446
3.125 3.105 2.261
3.362 3.280 2.236
3.282 3.466 2.323
2.500 2.313 2.535
2.681 2.663 2.179
3.086 2.795 2.169
2.830 3.205 2.280
3.002 3.321 2.414
3.271 3.448 2.299
3.554 3.723 2.490
3.725 3.987 2.450
2.393 2.371 2.392
2.525 2.814 2.750
2.637 3.053 2.849
3.036 2.887 2.929
2.987 3.252 2.654
3.381 3.363 2.769
2.991 3.401 3.069
3.352 3.672 2.908
3.417 4.005 3.111
2.555 2.781 2.862
2.465 2.999 2.913
2.846 3.053 2.774
2.891 3.028 2.760
2.807 3.274 2.748
3.219 3.915 3.188
3.151 3.973 3.289
3.315 4.055 2.887
3.609 4.290 3.285
2.369 2.680 3.055
2.623 2.947 3.336
2.889 3.434 2.939
2.765 3.364 3.364
2.891 3.499 3.353
3.298 3.811 3.264
3.355 4.249 3.356
3.464 4.164 3.130
3.579 4.561 3.459
2.842 3.369 3.639
2.987 3.298 3.469
2.998 3.893 3.445
3.191 4.152 3.756
3.470 4.019 3.339
3.142 4.178 3.573
3.633 4.641 3.732
2.845 3.773 3.575
2.700 3.509 3.773
2.765 3.948 3.578
3.297 4.263 3.790
3.291 4.563 3.979
3.517 4.384 4.098
2.892 3.613 4.023
3.181 4.135 4.031
3.142 4.310 4.036
3.333 4.587 4.101
3.117 4.557 4.244
0.426 0.238 3.057
3.058 3.680 4.007
3.167 4.061 4.259
3.179 4.251 4.117
3.363 4.639 4.348
0.286 0.341 3.156
2.826 4.208 4.468
2.729 4.117 4.487
3.347 4.785 4.371
0.128 -0.018 3.479
2.638 4.262 4.618
2.711 4.395 4.522
3.287 4.623 4.827
0.090 -0.043 3.641
1.085 1.798 4.234
1.195 1.916 4.350
1.623 2.129 4.647
1.277 2.482 4.649
1.788 2.834 4.487
2.884 4.473 5.176
2.822 4.786 4.890
0.946 1.788 4.327
1.168 1.822 4.530
1.360 2.089 4.817
1.247 2.023 4.795
1.612 2.305 4.623
1.315 2.521 5.035
1.818 2.839 4.776
1.040 1.466 4.777
0.926 1.789 5.001
1.026 1.836 5.119
1.371 2.340 5.182
1.342 2.234 4.786
1.584 2.776 5.114
1.500 2.830 4.895
0.449 1.273 5.175
0.572 1.568 5.108
1.088 1.773 5.161
0.957 2.056 5.147
1.357 2.155 4.963
0.964 2.247 5.166
1.599 2.560 5.155
1.440 2.936 5.039
0.324 1.176 5.046
0.481 1.513 5.284
0.682 1.490 5.014
1.004 1.997 5.344
0.868 2.162 5.535
0.840 2.489 5.542
1.156 2.590 5.505
1.423 2.580 5.452
1.496 2.969 5.592
0.488 1.446 5.278
0.442 1.408 5.278
0.576 1.713 5.181
0.718 1.929 5.430
0.542 2.026 5.403
0.937 1.931 5.303
1.023 2.144 5.427
0.777 2.643 5.769
0.910 2.933 5.866
0.202 0.918 5.302
0.257 1.307 5.246
0.436 1.511 5.589
0.484 1.513 5.910
0.645 1.526 5.852
0.758 2.077 5.797
0.900 2.048 5.670
0.825 2.426 5.748
1.161 2.508 6.092
0.111 1.026 5.699
0.154 1.194 5.404
0.190 1.625 5.701
0.122 1.383 5.910
0.496 1.676 5.963
0.621 1.801 6.015
0.505 1.859 5.789
0.279 1.185 6.072
0.044 1.248 5.724
0.011 1.737 6.181
0.310 1.830 6.177
0.311 1.954 6.211
-0.005 1.368 5.958
1.478 0.225 0.803
1.968 0.421 0.926
1.691 0.745 1.019
2.013 0.562 1.165
2.363 0.868 1.069
1.332 0.281 0.880
1.903 0.522 1.312
1.561 0.712 1.136
1.871 0.618 1.009
2.130 0.705 1.294
2.904 2.349 1.826
3.315 2.615 1.769
3.224 2.888 1.919
3.335 2.982 1.821
3.250 3.353 1.867
1.498 0.408 1.424
1.813 0.144 1.315
1.777 0.833 1.533
2.076 0.761 1.385
3.010 2.572 1.745
3.346 2.460 1.981
3.685 2.827 1.935
1.405 0.138 1.296
1.648 0.377 1.225
3.070 2.040 1.990
3.244 2.418 1.842
3.413 2.492 2.289
3.436 3.127 2.369
3.525 3.133 2.373
3.407 3.001 2.302
2.471 2.221 2.031
2.725 2.262 2.149
2.980 2.666 2.121
3.238 2.741 2.394
3.046 2.953 2.080
3.447 3.306 2.518
3.425 3.529 2.619
3.575 3.499 2.677
2.712 2.340 2.355
2.890 2.381 2.594
3.036 2.456 2.615
3.182 2.553 2.592
3.378 3.028 2.469
3.522 2.997 2.735
3.659 3.170 2.432
3.318 3.423 2.740
3.537 3.678 2.875
2.548 2.315 2.801
2.672 2.065 2.447
2.874 2.423 2.546
3.098 2.606 2.831
2.886 2.793 2.729
3.034 2.972 2.734
3.132 3.541 2.767
3.616 3.596 2.868
3.484 3.523 2.987
3.583 3.732 2.910
2.635 2.406 3.072
2.661 2.720 3.002
2.983 2.689 3.097
3.180 3.082 2.983
3.246 3.065 3.053
3.367 3.373 2.959
3.580 3.705 3.048
3.728 3.970 3.296
3.442 3.953 3.073
3.758 4.294 3.248
2.352 2.531 2.946
2.665 2.919 3.401
3.055 2.729 3.137
3.191 3.340 3.199
3.098 3.226 3.308
3.237 3.486 3.096
3.365 3.926 3.379
3.505 3.809 3.307
3.496 4.249 3.576
3.677 4.232 3.327
2.578 2.890 3.426
2.728 2.949 3.678
3.094 3.346 3.372
3.261 3.412 3.451
3.180 3.609 3.589
3.225 3.897 3.576
3.599 3.928 3.486
3.585 4.190 3.921
2.996 3.135 3.728
3.108 3.650 3.798
3.325 3.611 3.953
3.363 3.871 3.763
3.552 4.382 3.782
3.705 4.378 3.886
2.715 3.674 3.922
3.289 3.554 4.163
2.962 3.840 3.892
3.191 4.261 4.268
3.483 4.339 4.239
0.559 0.057 3.201
3.237 3.556 4.277
2.889 3.841 4.313
3.314 4.106 4.372
3.423 4.596 4.344
0.745 0.262 3.471
0.906 0.076 3.498
2.780 4.010 4.780
2.935 4.111 4.369
3.077 4.196 4.777
0.259 -0.104 3.752
0.661 0.376 3.790
3.069 4.146 4.797
3.035 4.228 4.638
0.521 0.038 3.686
1.434 2.154 4.584
1.420 2.055 4.676
1.783 2.619 4.396
1.409 1.552 4.913
1.569 2.122 4.837
1.406 1.904 5.058
1.665 2.010 5.075
1.454 2.382 4.647
1.967 2.713 5.171
0.933 1.295 5.130
1.070 1.461 4.731
1.105 2.011 4.792
1.260 2.265 5.267
1.754 2.389 5.005
1.676 2.412 5.101
1.865 2.532 5.207
1.659 2.937 5.363
0.994 1.334 4.834
0.756 1.640 5.308
1.227 1.842 5.291
1.289 1.896 5.403
1.124 1.992 5.374
1.294 2.373 5.029
1.721 2.543 5.384
1.509 2.573 5.274
1.648 2.942 5.484
0.672 1.382 5.172
0.889 1.353 5.555
0.817 1.547 5.293
1.100 1.536 5.130
1.134 1.820 5.374
1.250 1.939 5.575
