69.040985 39.598934 41.653652
71.59998 38.999935 42.962654
24.65998 52.040936 45.560654
26.34498 51.471935 46.82965
16.72998 48.558933 53.19165
15.798981 50.656933 53.028652
56.84998 50.842934 48.083652
56.19198 52.177933 46.499653
61.03598 49.696934 39.297653
60.65498 51.541935 37.71065
7.2989807 2.1499329 7.4966507
5.540985 2.5039368 6.070656
74.59298 68.076935 12.370651
75.26798 68.42693 14.545655
16.83098 55.570934 23.722654
18.73398 55.03393 23.688654
26.06998 57.355934 15.310654
24.21698 58.833935 15.3266535
22.13698 4.748932 13.599655
21.55698 3.423935 12.374649
26.54198 5.470932 3.8646545
27.79198 3.484932 4.587654
21.755981 33.104935 4.2776566
22.315979 31.186928 4.5386505
12.691978 29.815933 14.102654
11.467979 31.311928 12.981651
8.696983 53.668934 15.102654
7.8429794 56.398933 15.684655
12.669983 56.819935 5.0366516
14.023979 59.133934 4.5646515
49.34098 38.466934 40.060654
48.37498 40.016933 38.66865
52.73898 39.06193 27.195654
53.89098 36.96493 27.597654
22.65698 13.480934 50.430653
23.481981 15.017937 52.00865
31.93498 15.08493 43.513653
30.02098 14.898933 42.569653
44.143982 42.229935 37.89865
45.02198 42.70793 39.698654
35.989983 46.51993 47.117653
34.344982 44.764935 48.76565
4.724983 54.821934 48.51565
2.441986 55.727932 48.96265
71.250984 52.633934 59.64265
71.777985 53.538933 61.58565
72.44998 63.287933 47.75965
74.73098 63.546932 47.276653
4.5559845 62.953934 37.39865
5.613983 63.912933 36.575653
11.010979 39.246933 70.33266
11.18998 39.90893 1.9026566
4.315979 40.878933 10.680649
3.5629807 43.085934 11.465652
2.419983 15.76593 39.909653
2.0789795 18.248932 40.603653
68.84298 13.659935 48.340652
67.012985 13.683937 47.694653
62.24398 52.635933 39.902653
61.70998 54.371933 40.638653
58.68298 51.149933 50.463654
58.43598 49.009933 49.48065
67.581985 69.87393 27.014654
68.58798 68.51694 27.845654
0.2589798 71.69293 19.025654
1.3909836 70.51093 18.305653
23.356981 18.963936 1.8316498
24.554981 17.534935 1.1056519
29.62698 20.96093 61.511654
30.94098 18.901932 61.38565
21.580978 34.815933 38.75965
21.695984 32.871933 40.240654
15.346977 28.920929 47.845654
14.070984 27.715935 48.831654
52.93798 39.893932 45.364655
51.83698 41.184933 47.12765
44.184982 37.801933 53.556652
43.69798 36.616932 55.428654
21.679981 47.381935 23.369654
23.19598 46.474934 23.625654
32.06898 46.288933 16.838654
33.53898 47.166935 14.941653
7.2939835 44.892933 32.340652
8.121979 46.821934 33.448654
12.47998 48.466934 22.255653
12.79998 50.458935 21.223654
39.33898 40.863934 2.0866547
39.20898 39.078934 1.1366501
29.82198 39.870934 11.415649
32.20798 40.370934 12.33165
39.95098 38.710934 50.62665
40.261982 38.945934 48.111652
51.37398 37.41593 44.472652
52.22198 36.038933 43.16865
5.8579865 2.7269363 18.117653
8.030983 3.1799316 19.444653
17.266983 4.100937 11.556653
16.691978 1.7649307 11.531653
23.06498 14.964935 1.3306503
23.094978 16.332932 3.4076538
14.623978 11.009933 10.048653
13.178978 12.180931 10.766655
41.427982 73.21094 47.209652
40.11798 72.047935 46.354652
33.50898 3.034935 56.68465
34.13598 4.2949295 57.838654
29.09198 51.567932 14.45865
31.20898 51.429935 15.642655
35.84298 50.200935 4.218651
37.490982 51.842934 3.7356567
19.905981 49.209934 3.8466568
20.67198 50.037933 2.2336502
28.30298 48.37393 65.28966
30.27798 49.856934 65.84265
34.802982 44.191933 13.981652
36.92498 43.180935 13.354652
28.41398 42.235935 11.418648
26.63098 41.999935 10.41465
72.470985 66.26493 29.095654
74.57898 66.894936 30.210653
4.1069794 65.36093 19.726654
5.9189835 67.01794 19.157654
53.11198 73.27493 20.629654
53.63298 71.060936 21.476654
50.10998 67.602936 31.105654
47.80198 66.61494 30.451654
65.193985 54.31893 3.290657
65.34498 52.244934 1.2936554
70.80898 57.014935 64.24165
72.818985 55.779934 63.00265
14.245979 73.25093 27.903654
15.789978 71.66493 28.897654
9.720978 68.674934 37.34865
9.431984 66.82193 39.151653
15.178981 12.545937 27.879654
16.429981 11.493935 28.910654
25.53298 13.739937 20.847652
26.15798 13.674934 18.795652
71.13298 8.096931 69.17365
69.83798 9.500931 67.77165
2.3229828 9.356934 57.959652
4.1099854 10.70993 57.54565
19.014984 59.379932 43.750652
19.797981 57.97893 45.337654
11.561981 53.93693 51.164654
9.752983 54.53393 50.368652
35.38898 40.183933 49.72465
33.33498 41.539932 48.46165
26.92098 41.664932 59.21265
27.68298 39.675934 59.91165
20.486984 1.1169357 67.629654
21.079979 2.9799347 68.23065
11.635979 71.67693 4.1666565
9.542984 72.18394 3.3496552
58.73798 15.03093 60.547653
60.29798 13.009933 60.379654
65.51798 16.673935 49.803654
67.97398 15.5479355 49.94865
46.21698 54.51393 61.19065
48.14198 55.308933 60.209652
51.032978 56.946934 49.222652
49.22398 58.517933 49.346653
49.16698 53.319935 61.952652
47.75198 52.031933 63.09865
43.53698 48.750935 3.212654
45.73198 48.581932 3.9546509
52.60598 36.05593 25.600653
51.76398 34.08793 26.651653
44.49198 29.684929 35.676655
42.48698 31.03093 35.00965
3.0079803 46.661934 49.671654
2.82798 46.899933 47.541653
11.93998 50.320934 39.725655
10.996979 48.853935 38.333652
47.510983 10.383934 56.624653
48.00798 11.912933 58.902653
43.77198 7.350937 66.76965
45.740982 5.402931 66.39965
58.29098 57.527935 14.3616495
59.72398 58.752934 15.54165
70.013985 60.496933 9.777649
70.318985 60.75693 7.1896515
27.64598 2.222931 20.093653
26.89698 3.9109344 21.203653
18.27898 3.685936 29.197653
18.502981 2.0639343 29.869654
66.651985 10.711937 30.314653
66.24198 8.920937 32.169655
56.46498 8.034935 39.74565
55.16898 7.0929337 37.804653
26.21898 54.327934 48.21765
27.839981 55.241932 50.05965
24.19598 50.437935 60.180653
23.96598 47.863934 60.935654
49.82598 49.461933 7.990654
49.12598 51.583935 6.9496536
50.03998 47.870934 66.017654
50.58698 49.124935 64.28565
71.59998 39.150932 59.73165
69.29798 39.02793 59.77365
63.40898 35.93293 68.34666
62.98098 33.90493 68.615654
25.86198 46.471935 61.949654
27.18198 46.513935 60.667652
32.73898 46.371933 50.65665
34.20198 46.178932 52.14165
40.92398 23.505936 14.032655
39.58298 24.040932 12.351654
46.21598 27.242935 2.7186508
45.17698 25.462936 1.6126556
56.58398 41.111935 46.754654
58.80498 41.995934 46.875652
64.68798 41.008934 37.54365
66.85498 41.135933 37.601654
37.03398 18.43193 61.35865
35.81398 18.011932 59.92565
39.34898 15.746933 49.306652
40.31998 13.539932 49.194653
59.69998 43.655933 32.137653
60.35298 45.407932 31.712654
66.45598 48.333935 21.250652
68.94798 47.855934 21.865654
29.14598 5.5849304 57.02965
27.14998 6.57193 57.05765
22.34898 5.236931 67.309654
21.37298 6.65493 68.93565
60.74598 7.661934 11.633654
61.82098 6.32193 13.487654
55.428978 0.7169342 21.003653
56.68298 72.43294 20.224653
25.83198 72.81493 32.839653
26.44598 1.461937 33.53665
36.66198 3.7839355 27.683653
37.531982 2.260933 26.619654
48.88998 54.931934 28.742653
49.73698 54.125935 30.358654
40.56898 49.328934 35.341652
38.47998 49.24893 35.07165
41.78398 57.838932 5.327652
42.80198 57.680935 7.2136536
36.20298 55.31193 15.933656
38.03698 55.99893 16.912653
52.33198 6.629936 0.8506546
51.81098 8.397934 2.151657
45.511982 4.4179306 10.916649
44.628983 2.4859314 11.726654
66.91898 42.597935 4.103653
64.998985 43.727932 3.6436539
57.04898 38.91593 10.819649
56.47398 41.753933 11.99865
37.32698 40.350933 68.58865
37.864983 38.341934 67.501656
43.47098 39.594933 58.591652
44.70098 37.608932 58.19765
74.03098 49.90893 11.651653
74.61298 48.076935 11.905653
65.345985 46.506935 19.362654
66.14498 44.177933 20.312653
67.41098 54.149933 42.951653
66.750984 52.179935 41.70365
73.64598 57.864933 33.97365
73.82298 55.590935 32.954655
8.72998 6.0139313 6.60865
6.4209824 5.4739304 6.971657
0.955986 4.439934 16.060656
2.1569824 4.2499313 18.115656
21.912981 39.747932 55.84265
21.422981 41.261932 53.55265
28.70398 46.38793 47.26765
29.70198 44.025932 46.893654
27.70398 71.17793 51.12665
27.46998 68.99094 50.443653
34.018982 68.67893 41.341652
35.851982 67.10893 40.98765
60.59398 19.882935 15.520654
61.11198 19.513931 17.327654
53.21798 12.4579315 21.590652
54.046978 11.746933 23.286654
39.10398 62.035934 43.721653
37.31198 63.244934 43.944653
30.53998 66.729935 52.915653
30.891981 68.80493 52.952652
37.747982 47.090935 55.422653
39.45998 47.596935 56.651653
47.01998 52.008934 47.056652
46.712982 54.29793 46.17765
5.200981 38.940933 49.03165
5.4999847 39.920933 51.049652
73.71798 42.050934 57.617653
72.81398 41.862934 60.202652
24.96698 71.574936 51.602654
23.43098 73.37393 51.93265
18.48798 68.94093 60.57865
18.051981 70.41994 61.937653
9.838982 68.23293 19.886654
8.42598 67.408936 17.951653
15.31498 69.925934 10.054653
15.912979 71.65293 9.405653
68.02198 7.663933 30.455654
69.972984 7.143936 30.594654
72.84898 7.010933 19.456654
73.74398 7.9149323 17.619654
65.12198 15.947937 14.265649
64.16198 17.68193 13.19265
72.53198 21.605934 3.5866547
74.39398 20.690933 5.1996536
5.762985 12.828934 28.118654
4.242981 13.801933 29.895655
69.873985 10.5219345 31.794655
68.860985 12.576935 32.388653
65.361984 19.298935 66.891655
65.87898 21.01493 65.93965
72.89798 20.441933 56.596653
74.37298 19.007935 55.55765
73.55398 36.133934 6.1736526
74.123985 34.065933 4.728653
2.865982 40.292934 65.27165
4.4689865 39.08293 65.528656
5.641983 22.79293 24.573654
4.462982 23.886932 22.888653
9.830978 23.415932 13.360654
11.61998 21.643936 13.926654
53.59198 63.048935 55.757652
53.34798 65.46194 55.52365
45.143982 63.487934 62.040653
44.52398 65.33393 63.55265
52.59198 43.480934 48.89865
53.17998 45.331932 50.13565
44.23798 41.353935 56.353653
44.01998 39.49893 55.657654
14.484978 52.187935 68.79765
13.871979 53.952934 69.81565
20.325981 57.83993 62.13565
20.544983 58.930935 59.94765
57.37198 21.941933 8.716652
58.30998 23.09893 10.482651
67.79498 27.01693 4.401657
66.92098 27.495934 1.8096542
45.288982 30.346931 38.136654
43.38498 29.218933 38.55065
36.00698 22.04493 44.927654
34.30398 23.783936 45.64165
12.497978 40.681934 68.38766
12.676979 40.098934 65.84065
17.31298 46.045933 55.35565
16.754982 47.812935 56.09365
57.54598 15.311935 40.734653
56.57198 17.479935 41.96765
48.996983 13.539932 50.799652
46.719982 14.687935 51.73065
22.047981 5.0479355 16.851654
20.751984 6.5479355 15.861653
9.4309845 3.994934 21.557653
9.840981 1.5239334 21.692654
45.75798 30.866928 54.577652
43.91998 29.94593 55.403652
38.677982 25.761932 63.666653
40.34998 26.380936 64.79865
48.97498 72.47594 33.968655
51.29598 0.10193634 33.96065
57.38498 7.7809296 27.799654
56.73698 7.777931 25.850653
68.18298 31.123932 16.477655
69.89798 32.66693 16.085657
73.56298 32.353928 7.1096497
0.39098358 32.69893 7.4696503
46.03298 50.969933 44.50965
47.21398 53.351933 43.854652
55.75298 52.027935 34.983654
56.82898 54.208935 35.146652
28.15398 27.36293 7.26165
29.27698 25.608932 6.309654
33.49498 29.810928 66.67265
31.76398 29.955933 65.27566
51.27498 15.746933 54.443653
52.31798 17.607933 55.785652
60.53098 22.864937 48.31465
60.83998 21.204933 46.757652
29.74398 11.743935 6.625656
29.56998 11.0479355 4.5556564
39.41998 13.639931 67.37366
40.32798 12.308937 65.918655
68.653984 73.47093 14.037653
68.10298 2.1029358 14.506654
64.831985 70.50194 24.225653
66.27198 68.53893 25.208654
39.100983 3.9509354 29.128653
41.06798 3.1019363 28.051653
49.36198 9.66893 21.768654
49.12698 10.464935 19.815653
59.64498 53.939934 34.032654
59.28398 56.828934 34.103653
62.88898 60.870934 21.561653
61.60198 62.920933 21.649652
49.76298 33.44693 3.2106552
48.71498 31.39193 2.8106537
57.36198 36.04693 66.60765
56.78598 34.26693 64.57965
33.51298 22.57193 27.154654
34.08698 20.607933 27.089653
43.56298 19.539932 19.232653
43.15898 19.548935 16.883654
20.26398 6.647934 31.785654
19.665981 8.402931 30.043653
27.48398 6.47493 21.947653
28.082981 8.96093 21.495653
69.57298 31.757935 55.104652
70.695984 30.035934 56.35065
61.19298 30.519928 64.11865
61.76498 29.147934 65.62265
72.222984 15.248932 52.324654
72.01598 13.87693 50.657654
5.492981 17.621933 43.61965
5.162979 20.120934 44.45365
46.02598 66.30793 9.138649
48.27598 66.13893 9.40065
53.85498 65.55593 69.95866
55.11598 63.496933 69.25565
63.14298 50.635933 56.568653
61.046978 50.817932 58.25165
55.42598 53.529934 66.68066
55.06298 55.737934 66.58065
31.42398 57.671932 17.890654
32.46798 57.01293 19.843653
24.41198 55.64493 28.088654
25.16498 57.59693 28.677654
20.860981 39.646935 39.301655
21.675982 38.53393 37.820652
25.74798 46.290936 29.347654
23.44098 47.662933 29.267654
67.292984 51.339935 21.723654
68.80998 50.417934 20.382652
3.5389862 49.911934 13.785653
3.0699844 48.889935 11.726653
9.70298 67.65593 5.419655
11.393982 66.29293 4.48365
13.590981 1.5109329 65.83865
15.997978 1.9339371 66.42265
31.51998 23.617935 45.406654
31.49498 25.226936 46.86265
23.76898 22.32093 54.782654
22.56798 21.37793 56.526653
16.52298 71.72494 26.420654
18.43498 70.771935 27.633654
29.65298 70.63993 21.250652
28.41398 70.782936 19.402653
43.10998 55.261932 59.035652
44.684982 57.02693 57.845654
50.49398 60.767933 51.67765
51.546978 62.497932 53.077652
56.95098 29.759933 43.913654
58.73998 29.686928 44.378654
65.79898 28.622932 35.569653
65.77098 26.965935 33.617653
11.822983 63.989933 54.171654
11.310982 65.756935 53.68465
12.851982 72.909935 46.24465
14.992981 71.37493 45.624653
47.108982 34.19993 4.290657
48.00898 32.68493 6.0946503
39.75198 34.97693 14.298654
39.43798 33.29593 16.077654
25.481981 34.120934 59.880653
26.044981 35.02693 61.89265
15.99598 35.91593 68.254654
15.129981 33.966934 67.74165
16.96798 41.476933 39.067654
15.191978 42.340935 40.417652
7.4849777 37.029934 47.250652
7.712982 38.116932 49.532654
61.81998 70.69694 25.142654
62.67298 69.854935 26.676653
58.38698 66.200935 36.574654
56.49798 66.27393 37.74565
9.627983 48.287933 18.452654
9.955978 46.438934 19.305653
74.44698 44.140934 21.203653
73.89598 44.779934 23.150654
74.83598 64.922935 32.07865
73.651985 66.505936 33.479652
63.72698 67.72393 40.996655
64.93798 67.90694 42.588654
28.14598 33.47593 59.82965
28.13198 35.257935 57.839653
37.24498 37.784935 50.450653
38.42298 35.69893 50.57865
52.72598 62.989933 12.572655
51.56698 61.81193 10.991653
59.171978 67.67793 2.377655
57.41398 68.965935 1.0506516
11.440979 57.281933 41.624653
14.1779785 56.822933 41.387653
11.124977 56.299934 52.660652
11.52298 56.848934 54.512653
36.80198 13.845932 11.744652
36.70698 14.921936 9.426651
45.14698 17.676933 0.6706543
46.385983 19.540932 0.7296524
36.309982 53.188934 54.34465
37.323982 51.431934 52.74465
42.83398 59.312935 46.910652
43.57598 58.507935 44.986652
60.12798 9.943932 43.247654
59.65198 11.116936 45.034653
52.83698 4.192932 52.088654
53.56598 4.371933 54.16365
32.92298 20.82093 61.901653
34.81898 20.47393 61.090652
40.87398 24.697937 50.25265
43.32298 24.130936 50.757652
70.513985 68.99693 30.881655
71.71798 67.07993 31.647654
61.01198 65.38893 36.602654
59.65598 64.381935 38.100655
29.68198 65.104935 54.89065
28.714981 64.436935 53.556652
26.44998 59.898933 63.137653
25.551981 58.491932 64.584656
2.9379807 35.926933 63.257652
2.8869858 33.859932 63.826653
71.14098 33.911934 2.8936539
69.35298 32.22293 2.1866531
45.573982 5.456932 13.363653
44.41098 3.6569366 14.214653
34.48598 6.5689316 20.686653
34.018982 4.609932 19.621653
39.13498 7.2999344 12.159654
38.66498 5.338936 10.830653
30.70898 2.208931 16.188654
29.568981 1.9089355 18.234653
40.504982 9.052933 30.255653
39.52998 10.801933 29.559654
46.566982 12.190933 18.783653
46.06598 9.801933 18.251654
18.84098 58.490932 9.379654
17.193977 57.927933 7.360649
10.977982 57.510933 17.613657
10.152985 55.911934 18.674654
22.21698 62.916935 48.570652
22.985977 61.227932 49.50365
15.704979 53.695934 54.632652
14.11898 52.273933 53.632652
38.40098 29.561928 67.37466
36.69398 30.427933 65.28265
44.09698 31.470932 57.48065
45.32298 32.785934 57.250652
51.67798 34.49893 57.75165
51.51598 31.942932 57.783653
58.59298 31.678932 48.450653
58.13698 31.249931 46.57365
24.290981 41.815933 62.37265
23.92898 42.094933 60.22465
15.628981 33.46493 64.682655
13.437981 33.939934 65.01366
52.41298 38.841934 8.258652
52.55298 41.021935 7.2196503
62.05498 39.779934 69.76965
62.02798 41.335934 68.28265
28.54298 49.115932 13.663653
27.55398 48.937935 15.768654
17.76398 45.921932 21.564653
17.735981 44.201935 23.564653
65.57798 32.692932 52.311653
64.26898 33.83893 53.62165
59.02898 27.43393 61.04465
60.02098 25.763931 61.87665
50.95498 14.698936 3.5606537
52.31198 16.36393 2.3806534
56.62898 16.86293 62.136654
55.59498 15.440933 60.33065
59.99098 25.513931 28.849653
60.58498 23.859932 27.462654
67.06198 21.961937 17.846653
68.75698 22.937935 17.772654
65.75898 68.07893 28.866653
64.958984 70.12293 27.879654
58.77498 71.979935 36.34865
58.57698 70.30293 37.419655
33.483982 47.004932 2.0336533
32.19498 48.824932 2.2326508
23.31298 44.933933 8.322655
22.623981 46.501934 9.94165
53.11098 53.56193 65.766655
53.69598 55.169933 64.44266
60.01398 54.197933 56.32365
61.33198 56.81893 56.332653
69.91298 67.729935 46.116653
70.75998 65.69293 46.87165
67.470985 67.64193 58.30165
66.444984 68.855934 59.768654
1.8549805 45.305935 65.01366
2.9129791 43.586933 65.57565
73.096985 44.112934 5.7886505
70.582985 42.437935 5.7376556
22.93498 70.26594 16.143654
24.25798 70.77793 18.049654
18.043982 65.992935 27.113653
19.57298 66.672935 28.935654
32.011982 59.296932 54.282654
33.47098 58.336933 56.01765
25.64398 54.067932 63.325653
25.00098 52.131935 62.35665
63.33798 24.749931 47.423653
63.18898 22.885933 48.956654
58.05098 23.475937 60.088654
57.64098 25.461937 59.860653
38.81598 20.558937 64.45065
41.17898 21.086937 64.32565
45.12398 20.651932 54.729652
45.70898 22.316933 54.14065
46.15798 55.37493 8.546654
45.03798 55.216934 6.7866516
52.32598 55.780933 67.83965
51.47098 56.682934 65.139656
23.748981 59.517933 30.733654
23.63198 58.111935 32.541653
18.10798 54.178932 39.270653
17.439981 54.14493 41.146652
6.3359833 24.421936 59.542652
4.6129837 23.354935 58.735653
8.4049835 27.521935 47.400654
7.829979 28.943932 45.461655
48.489983 56.558933 26.094654
50.85798 56.972935 25.990654
58.17098 57.059933 17.085653
60.03598 57.495934 18.435654
47.00698 67.296936 48.409653
47.46598 65.19193 47.339653
51.56398 67.24693 36.409653
52.86598 69.59994 36.584652
22.08098 40.45793 23.861654
24.14598 40.442932 22.454653
32.16398 43.792934 15.620653
31.48098 43.345932 13.344653
51.76798 46.435932 10.337653
52.63598 47.113934 12.147654
46.91998 44.265934 21.773653
48.05498 43.566933 23.567654
59.49098 71.021935 41.72365
59.73698 69.10993 43.837654
58.31498 70.39194 55.49665
57.23798 68.38793 56.05165
16.57298 60.372932 42.789654
18.06298 61.72893 42.365654
26.42898 62.253933 34.824654
28.00098 62.539932 35.413654
21.012978 22.326935 20.131653
19.782982 20.539932 19.312653
9.543983 22.268936 25.093653
9.589981 21.395935 27.671654
39.968983 38.04393 69.252655
39.809982 36.54193 68.41666
49.490982 34.331932 59.84365
49.42698 36.422928 58.743652
21.262981 15.331932 34.85665
20.77798 16.025932 32.705654
27.37498 14.096931 22.677654
28.023981 11.289932 22.498653
25.92898 68.38493 33.176655
25.90998 69.369934 31.202654
35.27198 71.173935 22.735653
36.64198 70.075935 24.253653
32.69198 3.0919342 4.912651
33.01598 1.1549301 4.2846527
38.56398 8.452934 65.91566
39.857983 6.0529327 65.126656
50.59898 73.02893 36.559654
51.58698 73.37393 38.157654
46.39098 72.270935 46.916653
45.50298 70.59293 45.79365
71.62698 53.109932 7.742653
72.74598 54.531933 7.1046524
2.0179825 49.107933 67.49866
2.6749802 50.787933 66.224655
5.7499847 28.532928 43.027653
7.348984 27.136932 43.149654
13.487984 28.123932 33.651653
12.343979 29.341934 31.835653
42.79198 61.473934 62.77365
42.42398 63.330933 62.93465
36.80098 60.237934 3.5476532
38.69698 60.225933 4.49765
0.26298523 41.398933 29.701653
74.46698 42.680935 31.492655
68.93898 45.468933 38.517654
71.11498 45.863934 39.785652
35.97498 47.072933 31.730654
37.11298 45.706932 29.729654
46.32498 51.822933 26.879654
47.86698 54.10393 26.384653
70.77298 33.219933 59.69865
69.89998 33.619934 57.14265
59.56998 33.08293 63.352654
59.23598 33.451935 65.432655
24.130981 38.616932 56.77965
24.10898 37.994934 54.28765
28.66698 40.821934 46.139652
27.43998 42.447933 46.083652
53.15298 32.32393 40.94665
52.85598 30.493935 42.563652
51.47598 27.867935 54.16165
49.71398 29.802933 54.493652
7.289978 25.462936 10.932648
5.67498 23.76493 10.23465
71.61698 18.312935 15.558656
68.88298 18.272934 14.616654
55.71698 37.799934 25.943653
55.83998 36.411934 23.788654
60.72698 35.536934 15.002653
62.69698 35.759933 14.691653
52.33298 21.593933 57.187653
54.83898 22.118935 57.754654
58.29398 25.90393 46.958652
60.41698 25.839935 48.19665
72.13498 68.47093 13.145654
71.10898 69.13493 14.757653
61.803978 67.43193 19.685654
61.85698 67.425934 21.917654
41.71098 8.26593 12.063652
43.42998 8.992935 12.565651
54.06398 10.497932 7.5226517
52.58398 11.561935 5.0726547
35.83198 46.960934 50.299652
37.886982 46.305935 49.95365
41.46798 53.058933 41.623653
41.69498 55.22893 42.24465
64.75298 62.968933 2.6056519
63.31198 64.994934 3.5796509
66.96898 69.52593 63.625652
65.09398 71.10693 61.89965
1.7539825 56.160934 13.651649
2.804985 55.680935 11.60865
9.571983 61.76293 3.9556503
11.664978 61.910934 4.204651
69.31198 7.617935 14.084649
68.58898 9.482933 13.277649
0.15398407 8.931931 2.3006516
2.5889816 9.340935 2.3786545
51.64598 43.862934 26.759653
51.22698 41.80493 28.078653
42.75598 35.129932 31.507654
42.03398 35.177933 34.01565
53.54298 51.87393 68.06265
55.08498 52.717934 69.49165
49.89698 53.224934 9.167648
50.13898 51.320934 10.23365
9.422981 31.466934 32.91165
7.6949844 29.651932 33.241653
74.23798 25.219933 36.959652
74.57398 27.284935 38.094654
2.3969803 38.22293 7.787651
2.815979 36.467934 6.966652
6.2899857 36.340935 66.42665
7.0699844 34.008934 65.86665
13.403984 27.484932 29.991653
13.97998 25.694931 28.989653
20.834984 29.817932 21.079653
22.934982 29.79393 20.191652
57.32398 46.963932 68.002655
57.32298 44.646935 67.59465
56.20598 46.125935 9.616653
54.34098 46.977932 9.369652
53.10898 27.75293 56.63465
53.91198 25.457932 56.71265
63.32098 31.344933 51.28665
61.01298 32.700928 51.06665
22.88398 1.395935 32.87065
22.12898 1.996933 30.904654
31.33198 4.5779343 23.885653
33.95198 4.5499344 23.720654
37.53398 22.768936 30.391653
38.73698 21.894936 28.773653
45.50898 30.117935 22.113653
44.15798 31.411934 20.533653
65.73898 54.473934 24.197653
64.49498 55.812935 25.573654
64.26698 53.51293 38.319653
63.79998 50.853935 38.347652
45.87598 47.052933 24.600653
47.08498 44.840935 26.003653
39.70398 46.311935 33.586655
39.30498 46.766933 36.095654
64.429985 69.42793 7.820648
66.138985 68.68993 5.6826553
69.32998 70.66593 65.61865
71.123985 69.576935 65.02566
55.22298 57.662933 47.491653
55.33198 60.007935 47.659653
59.59598 67.98593 40.902653
58.52898 68.171936 38.999653
4.794983 57.454933 17.034653
4.7259827 58.487934 18.867653
72.55298 63.847935 26.758654
72.36898 63.218933 29.081654
7.176979 10.813934 24.781654
5.084984 12.3329315 25.282654
73.79998 5.1659317 31.833654
72.47998 7.0289307 32.143654
65.03098 70.56893 42.14065
67.23298 70.34293 42.660652
0.40398407 70.811935 35.09965
1.5289841 68.74693 34.615654
16.310982 1.0849304 8.576653
16.61898 3.744934 8.785652
20.726982 8.50293 0.32265472
20.261978 10.623932 70.30265
67.13198 72.090935 60.75265
67.570984 1.2199326 60.749653
71.21198 6.678932 50.659653
69.431984 6.76593 49.146652
10.8029785 7.958931 43.991653
9.528984 6.3749313 43.416653
2.214981 8.2339325 53.430653
3.454979 8.842934 55.389652
67.38198 36.324932 36.26565
68.12898 36.678932 34.01665
74.45398 41.68693 25.221653
74.03398 44.17993 25.689653
56.40198 25.080933 42.99465
54.63298 24.051933 41.920654
45.93598 24.048935 51.61365
47.52698 24.050934 52.94065
58.11598 22.37593 27.805653
58.29798 23.101936 29.740654
49.21598 19.922935 37.049652
50.27598 21.455933 38.795654
47.58398 1.8279343 66.28765
46.39198 2.2509308 64.20565
56.13498 2.572937 56.85665
56.04798 1.7979355 54.754654
15.851982 28.092934 50.98265
14.803978 30.11193 52.117653
11.667984 26.602936 62.46265
11.152985 24.57093 63.291653
25.366982 26.57093 21.261654
26.06298 24.592934 20.315653
33.69098 30.73693 10.959653
32.67198 29.305931 9.658653
40.91498 70.29193 26.898653
39.08598 69.99993 25.974653
30.74198 69.42094 34.591652
30.62898 71.66793 35.830654
33.44098 41.442932 16.589653
33.29198 40.386932 18.820654
27.86298 45.900932 27.260653
26.46798 44.836933 26.589653
10.584984 19.902931 48.346653
11.39798 18.163933 49.25265
6.7489853 17.75293 59.60765
6.9919815 17.632935 61.73365
39.482983 73.339935 10.088654
39.100983 71.38893 9.827653
34.43898 73.17893 19.866653
32.19298 72.20893 20.992653
66.29698 55.04793 5.672653
67.35898 54.531933 7.740654
61.96698 51.39493 18.232653
59.97298 51.796932 18.323656
72.53798 48.866932 7.5836487
71.89598 46.785934 7.1476517
65.18798 47.377934 0.19165039
63.84698 45.521935 70.09065
26.15998 37.979935 7.9706497
27.45298 36.035934 8.134651
34.47898 39.35393 68.29765
35.420982 37.009933 67.43665
59.82798 14.82193 27.743654
60.09998 12.533936 29.140654
56.88998 10.366936 38.61965
54.93998 9.620934 37.815655
52.60498 65.30994 50.709652
53.85098 63.732933 49.886654
62.09998 65.700935 44.75965
62.12898 67.73293 43.406654
67.35098 11.978935 49.526653
68.306984 10.248932 50.20365
60.30698 9.213936 59.36365
61.44898 10.330933 61.14865
59.08898 33.594933 30.727654
57.78498 35.68093 29.375654
53.45298 35.72693 40.573654
52.48998 33.925934 38.878654
18.487984 21.26693 70.23065
18.138977 18.745934 70.36965
14.124977 17.433937 12.243652
13.11998 19.511932 12.562653
63.02898 25.175934 14.3856535
63.24598 23.225937 14.236653
55.18498 21.401932 23.640654
55.47498 20.09793 25.667654
62.65598 54.229935 18.566652
64.59198 53.157932 18.841654
72.499985 52.440933 12.028653
74.79898 53.000935 12.105654
69.64698 52.221935 8.879654
69.34998 50.110935 8.091652
59.70098 48.294933 14.802651
59.55498 46.619934 16.467653
17.35598 13.46093 66.822655
19.39598 14.399933 65.64565
20.839981 16.229935 53.89065
23.005981 15.872932 54.48765
31.759981 5.8929367 5.2986526
34.17698 6.0529327 5.5716553
43.36898 9.01693 69.40166
45.28998 7.690933 69.78765
16.955978 16.09893 51.206654
15.293983 17.046936 52.74665
10.506981 14.611931 61.20465
11.2799835 13.219933 63.03065
74.51898 14.574936 18.804653
74.568985 12.916931 19.781652
66.78398 6.454933 25.860653
64.48198 7.716934 27.477654
50.24198 60.465935 31.584654
49.25198 58.522934 32.43965
40.718983 55.786934 39.371655
40.44698 53.445934 37.568653
12.736984 40.868935 37.61365
12.387978 41.473934 35.037655
19.249977 45.064934 25.737654
21.418983 44.665936 24.333654
24.73498 31.43193 58.186653
23.242981 31.033928 57.07965
30.81698 34.47393 47.137653
33.01798 33.74893 47.56665
1.068985 20.194931 19.258654
2.9019852 18.438934 19.043653
13.701981 17.679932 14.964653
14.645981 15.928932 14.721653
14.097984 37.533928 19.800653
13.856979 35.36293 20.642653
2.5329819 35.827934 26.009653
4.186981 34.567932 27.625654
57.65998 20.060936 40.917652
55.73698 19.186935 39.276653
62.86098 16.704933 31.130653
63.76598 18.64193 30.588654
58.64298 54.314934 17.130653
59.64898 54.342934 19.787653
54.79798 54.04793 31.391653
52.44798 54.102932 30.565655
51.61398 24.985931 55.727654
49.95098 23.393936 56.57965
41.71698 24.067932 64.600655
41.240982 23.854935 66.75565
30.89098 7.2929306 21.960653
32.37898 8.177933 20.383654
34.46198 7.5639343 10.561653
34.54798 5.227936 9.048654
44.65898 16.062935 34.57165
45.67698 14.606934 36.524654
39.73098 15.9579315 46.84465
38.77898 13.541931 47.04565
42.00198 52.910934 61.500652
40.13998 52.194935 63.241653
33.62798 50.606934 0.72865295
35.01398 49.321934 1.8376541
43.43898 67.09293 46.512653
45.08598 65.49693 45.55065
50.47298 70.52893 36.958652
50.198982 69.83193 34.68965
74.99398 64.98293 49.478653
1.1999817 66.355934 50.131653
8.9049835 69.241936 40.427654
7.6519775 69.98193 38.555653
3.9109802 24.82093 5.92865
5.9899826 25.312935 7.5886536
14.781982 26.568932 0.5646515
13.447983 27.478928 69.60265
9.086983 45.536934 14.629655
10.051979 47.652935 13.13665
20.319984 50.711933 9.966652
21.78598 52.265934 9.475655
8.704979 22.108932 61.82165
9.403984 23.47293 59.709652
10.281982 25.43293 48.442654
12.148979 24.76493 48.44165
63.39898 72.61193 43.185654
61.98798 0.5849304 43.58565
58.83398 2.0599365 55.011654
58.73398 0.99993134 57.50365
45.10598 71.549934 11.376654
42.90998 72.84593 12.159654
36.84298 73.143936 21.522654
36.490982 0.46593475 23.441654
72.971985 63.399933 58.81665
74.264984 61.994934 60.03665
1.2349854 60.09693 49.52265
0.4539795 58.247932 49.24065
5.148979 27.819931 6.2586517
4.3129807 27.379929 4.7936554
10.558983 31.714928 65.15765
12.92498 31.300934 65.31265
4.6789856 62.439934 67.95565
6.56398 61.709934 66.88465
13.135979 66.522934 59.49765
15.248978 66.20893 60.430653
42.83598 57.101933 24.663654
43.61898 55.088932 24.579653
34.23798 50.591934 32.573654
33.55898 52.777935 32.366653
34.15498 57.160934 1.2276535
32.21898 55.510933 1.5946503
25.242981 55.391933 9.551651
22.99398 54.550934 8.091652
65.694984 7.685936 65.89565
64.291985 5.8429337 65.28465
56.39598 2.836937 2.0786514
56.51998 4.2599335 3.478653
68.25498 56.271935 57.574654
67.27198 53.896935 57.82365
72.692986 56.02693 47.30165
73.44198 57.993935 47.769653
1.9019852 67.993935 16.971651
3.8409805 67.51193 16.934656
9.6809845 69.76393 7.1326523
8.246979 71.716934 7.103653
12.830978 2.6509323 44.25165
13.888977 2.0249329 46.194653
7.46698 6.5379333 54.276653
7.1099777 5.5239334 56.528652
70.85398 24.36293 1.3586502
68.70498 23.572937 0.5056534
62.80898 21.142937 12.65065
61.12798 22.129936 12.348648
29.04998 14.054932 5.2226562
28.78298 13.239937 2.8286514
38.34698 16.05793 66.76166
37.55498 15.558937 64.92465
42.70098 64.39893 44.12065
42.24298 64.62994 46.22465
33.89898 61.284935 53.48065
31.94498 61.41593 52.90665
0.9049835 52.984932 47.96765
2.3479843 53.093933 46.110653
7.0529785 52.184933 35.866653
5.4899826 53.647934 35.66865
4.886986 54.403934 16.867653
3.9259796 54.655933 14.985654
70.04798 54.327934 25.061653
68.63698 55.523933 23.000654
45.38898 24.72393 16.51465
44.27398 22.628937 16.074656
48.54498 23.414932 4.9116516
49.69098 21.657936 6.058655
68.23898 4.3329315 70.29066
69.39098 6.7719345 0.5566559
61.58598 3.9399338 7.933655
60.00898 4.2819366 9.238655
49.83898 25.19593 27.145653
49.88098 22.963936 25.748653
38.01998 17.69593 28.377653
38.927982 15.617935 27.825653
32.77398 5.268936 40.57165
31.106981 6.472931 39.306652
33.85098 12.094933 29.360653
31.63998 12.976936 28.338654
57.20898 60.440933 16.108652
56.32798 62.30493 15.743653
60.671978 63.15193 3.6386566
62.48598 61.347935 3.8486557
65.01798 8.472931 45.652653
65.694984 7.288933 47.34365
56.05598 5.166931 55.025654
56.61698 6.949936 56.061653
24.05998 73.19894 65.25765
23.42898 1.5789337 66.55265
31.70298 1.5969315 57.78165
31.617981 1.4809341 55.78665
32.60998 12.076935 41.64165
30.61698 12.038933 40.070652
38.04798 12.978935 29.888655
40.13398 13.846931 30.002653
72.21898 43.657932 8.506653
70.749985 44.33993 7.7536545
64.457985 40.223934 16.91765
63.83198 42.12393 17.715654
13.53698 63.12393 7.450653
14.46698 61.84693 5.3366547
20.38198 66.51593 66.60265
22.269981 66.05593 65.33266
20.484982 61.258934 45.00965
21.10498 61.973934 42.734653
32.00198 59.319935 37.23865
32.17998 60.169933 35.017654
65.35098 48.49893 54.158653
63.21298 48.746933 52.998653
73.04598 51.633934 47.306652
73.87298 53.343933 46.51765
12.276978 25.458931 12.256654
13.17498 27.11393 14.429653
4.2489853 26.827934 21.887653
2.0979843 26.406937 20.571653
45.23798 14.762932 16.616655
47.365982 16.157936 16.713655
50.45198 23.268936 8.016655
49.698982 25.304932 7.145653
3.1349792 17.981934 60.11565
4.155983 16.506935 60.903652
75.34498 13.187935 1.0376511
73.28498 12.339935 70.21565
12.090981 2.7599335 6.8406525
9.962982 3.4199295 7.3976517
7.0019836 70.28194 17.846651
5.653984 72.046936 18.04365
51.546978 19.07093 57.775654
50.93898 16.396935 58.282654
43.66898 13.468933 66.06365
43.615982 15.121933 67.56165
56.45698 3.9459305 22.839653
58.37098 3.1469345 21.825653
67.14998 4.7859344 14.916654
67.12798 6.9149323 15.957653
4.417984 72.522934 36.513653
3.405983 0.7869339 37.274654
69.68498 2.9489365 45.482655
70.82298 0.9539337 46.93265
69.06398 66.43293 10.139648
68.17198 68.06593 9.05365
3.8969803 71.73793 3.827652
6.0139847 71.14294 3.8816528
72.45098 45.358932 49.24765
72.45498 44.615932 46.82165
64.208984 37.031933 51.35865
64.24398 36.64493 53.554653
42.18098 11.1959305 50.681652
44.17398 10.231934 50.575653
50.59998 11.986931 40.559654
52.50998 12.518936 39.50965
34.621983 64.90393 4.8546524
36.267982 64.93193 6.1826553
30.30798 61.585934 15.858651
30.98098 63.337933 17.281656
59.44598 67.216934 18.282656
60.53198 65.77493 16.29165
66.03098 66.98893 7.728653
65.81298 65.907936 6.2556534
26.94098 19.637932 7.1166534
24.58498 20.483932 6.193657
16.91798 13.150932 13.334648
16.65698 13.938934 15.30565
38.99498 21.233932 13.264648
38.06898 20.412933 11.601654
39.837982 26.30693 2.042656
37.74198 26.956932 1.653656
24.72598 5.5669327 53.687653
23.58898 3.458931 53.34365
17.68598 1.0399323 64.54865
16.08798 0.4249344 63.458652
62.20298 46.224934 35.827652
60.70098 47.664932 37.615654
53.91898 44.515934 46.838654
52.79398 43.037933 45.365654
65.569984 49.918934 40.086655
65.88298 47.621933 40.679653
57.84798 44.952934 48.789654
55.97498 45.238934 49.43965
49.01298 49.02693 57.04565
47.50198 50.76293 57.708652
50.68498 45.843933 47.74465
52.83198 47.029934 47.36265
30.78398 40.66593 63.21065
28.94698 41.326935 62.22465
34.656982 51.242935 54.347652
36.080982 49.688934 54.459652
29.76298 65.160934 34.590652
29.72398 63.57593 33.645653
35.35698 68.00394 23.099653
35.69098 67.633934 25.298653
13.326981 47.65893 20.033653
12.485977 45.489933 19.408653
2.506981 42.451935 24.395653
1.57798 40.368935 25.533653
10.595978 64.20993 24.874653
11.207977 62.246933 24.593653
1.9859848 55.945934 29.101654
0.629982 55.923935 31.061653
46.49198 61.515934 26.650654
47.05498 63.573933 25.759653
52.74398 61.018932 15.082653
53.21098 63.03393 15.7866535
19.295982 14.365936 0.804657
18.50998 15.935936 69.88766
10.184982 13.851936 7.0346527
10.024979 13.326935 8.960655
41.97798 28.71093 1.8996506
39.44998 29.413933 1.7196503
33.56698 33.06893 10.334648
31.68198 32.746933 9.284653
0.48698425 43.205933 62.504654
75.15898 43.698933 64.81565
67.67398 44.766933 68.66466
67.52198 46.221935 70.43665
5.1999817 35.382935 48.470654
3.4519806 33.928932 47.555653
74.30398 33.16693 56.971653
72.277985 34.164932 56.421654
52.93698 71.58193 34.559654
54.23498 71.66393 32.145653
58.44798 1.4059296 25.194653
56.96398 1.0539322 23.610653
6.544983 6.661934 24.145653
7.639984 4.966934 22.959654
4.615982 1.819931 34.756653
3.3909836 73.437935 34.024654
53.90698 4.2649307 3.591652
53.39998 5.7379303 4.9756546
49.69098 7.508934 16.05765
47.51998 6.9369354 14.394654
13.948982 36.44893 36.313652
13.856979 34.297928 35.135654
10.138977 30.156929 45.64165
11.527985 27.940933 45.82865
34.80798 44.508934 1.9106522
33.087982 44.438934 0.9946518
22.69498 41.787933 4.655655
22.64798 40.88093 7.002655
48.350983 55.405933 10.773653
47.82098 53.147934 10.770654
43.25198 48.273933 20.600653
43.79998 46.182934 21.240654
49.22998 21.94693 53.69165
50.46598 23.581932 53.50365
55.19998 19.801933 43.457653
55.73498 21.527931 42.72465
71.04398 1.4289322 69.543655
71.38498 3.4919357 69.878654
65.63398 1.4039307 9.408653
63.79298 3.1639328 10.089653
48.62098 38.002934 6.8546524
49.52698 39.876934 7.860649
42.99998 37.437935 19.489656
41.18998 35.546932 19.540651
21.50698 58.295933 11.1356535
22.079979 57.670933 13.447654
15.376984 53.641933 22.345654
15.420982 51.338932 22.129654
2.2009811 67.76693 67.95165
1.0089798 68.72694 66.05466
10.877983 72.09793 59.257652
10.63298 70.950935 57.63565
60.26598 50.804935 54.714653
59.23398 51.684933 56.42065
57.36498 47.536934 64.79865
57.99498 49.165936 65.905655
63.16798 44.301933 19.890654
60.89498 45.118935 18.558653
54.75398 44.429935 29.551653
54.38298 42.299934 29.015654
6.66098 62.236935 19.685654
6.488983 63.161934 21.727654
74.778984 59.23593 30.552654
75.39898 59.409935 32.794655
1.3369827 73.034935 50.048653
2.9219818 72.32093 50.213654
6.4049835 72.50294 38.04365
7.978981 72.547935 38.801655
5.954979 28.273933 61.034653
5.497986 30.161934 60.296654
14.337982 34.648933 51.631653
13.474983 33.29293 49.62265
10.039978 18.83593 43.872654
10.359978 21.202934 43.942654
15.081978 24.423935 33.427654
13.934982 25.539932 32.144653
20.56398 13.284935 19.403654
19.260979 12.342934 17.943653
10.681984 13.576935 26.393654
10.263977 11.243935 25.488653
19.10498 39.18293 56.081654
17.322983 38.09793 55.692654
11.476982 32.344933 62.90665
9.782982 31.559929 61.720654
28.016981 15.216934 60.681652
27.23998 15.619934 62.971653
18.745981 11.262932 67.81165
18.290981 8.87793 68.07665
22.635979 19.763931 52.99765
22.083984 18.64093 55.026653
13.721977 16.747932 64.54965
11.6429825 17.758934 64.016655
64.51598 31.818932 14.998651
63.11998 33.07393 14.044656
68.58998 40.771935 5.6636505
68.25898 39.025932 3.9986496
24.32698 72.10194 68.01965
25.040981 71.298935 70.073654
18.73998 0.24293518 8.022652
19.11598 1.7569351 9.572655
26.15498 22.697937 22.167654
24.985981 24.29493 22.648653
16.661982 19.880936 28.963654
15.523981 21.180931 31.138655
43.91798 16.839935 18.024652
42.29898 14.89093 18.572653
36.21198 15.048935 27.152653
35.85698 13.288933 28.015654
16.606981 40.958935 19.836653
17.15498 39.229935 18.787653
25.59198 45.404934 12.386653
27.83698 45.149933 12.455653
16.04998 5.550934 30.573654
15.77198 3.706932 31.102654
8.073982 0.08493042 35.30065
6.4349823 71.366936 34.569653
73.78698 66.158936 15.345654
74.68298 64.022934 16.053654
66.695984 61.419933 23.285654
64.834984 63.003933 23.782654
9.606979 51.723934 36.101654
10.9049835 50.172935 35.707653
15.044983 52.062935 24.636654
17.419983 53.072933 24.979654
5.148979 28.258934 27.112654
4.492981 30.160934 26.969654
12.379982 33.843933 17.807653
11.818977 32.858932 15.505653
3.0489807 16.955933 21.629654
0.94298553 18.239937 21.115654
71.21098 15.330933 31.439653
69.819984 17.020935 32.325653
23.55298 69.09293 68.17866
21.436981 68.41393 68.09365
18.27298 71.17094 8.093651
18.169981 69.44093 10.107651
74.14898 38.837933 7.054657
73.74498 39.510933 9.030655
67.40598 36.157932 17.560656
65.78098 37.284935 18.953653
51.24598 26.037933 40.25265
48.93698 25.852936 39.069653
41.31898 26.804932 48.62165
39.42198 25.609932 48.110653
20.72998 25.896935 53.207653
23.415981 25.211937 54.268654
29.43398 32.60093 45.96265
28.134981 34.358932 44.896652
66.722984 61.980934 59.71765
64.90998 61.383934 61.53765
66.35298 57.805935 1.2476501
63.94098 57.205933 1.5016556
44.885983 46.369934 40.98165
46.44398 45.701935 39.25265
48.06398 52.306934 29.277653
48.92998 51.001934 27.707653
36.44298 44.793934 53.69665
38.39198 43.438934 54.672653
28.863981 36.239933 60.151653
28.266981 36.883934 62.227654
60.400978 6.157936 58.699654
60.59098 5.2699356 60.992653
55.25898 71.50993 69.01266
55.92398 69.730934 68.02666
54.20498 40.312935 31.376654
55.75698 42.687935 31.564653
47.59298 41.810932 40.728653
46.45298 43.384933 42.088654
71.75298 2.6389313 29.917654
71.85698 0.82993317 28.749653
3.9979858 3.3529358 20.155653
6.113983 4.6629333 20.581654
32.73998 33.036934 31.112654
34.73598 33.19393 30.412655
37.94598 31.355934 18.898653
40.68198 31.68393 18.626654
71.22998 42.472935 21.601654
70.75898 40.897934 23.663654
62.275978 39.233932 30.385654
63.45998 40.154934 32.49465
69.07898 27.037933 53.139652
67.27498 27.409935 52.13465
60.71698 22.560936 60.866653
61.49098 23.131935 63.088654
54.26998 18.36293 2.9776535
55.54298 19.772934 3.7956543
59.96598 19.66793 63.82165
58.62798 21.143936 62.096653
13.823982 5.6349335 62.123653
15.246979 4.2599335 62.629654
22.097984 6.0969315 52.25365
20.85698 5.996933 50.631653
30.39598 56.517933 0.13365173
30.40998 58.765934 0.68265533
18.85098 55.359932 4.7536545
19.117981 54.174934 6.7196503
36.468983 46.168934 18.343653
36.63798 48.792934 17.790653
31.24898 50.514935 27.948654
31.745981 48.200935 28.625654
33.06198 62.924934 35.86965
32.99398 65.26794 34.284653
40.462982 63.449932 25.068653
41.61898 65.23693 25.002653
18.05198 72.72293 29.830654
19.707977 71.69393 30.060654
12.651978 72.34893 39.664654
10.402985 71.37994 39.110653
42.38298 2.2219315 64.27465
43.77598 3.933937 64.31465
48.68598 8.4579315 54.95565
50.27198 9.136932 56.43265
21.066978 20.93293 36.194653
21.56498 18.534935 36.09965
15.608978 15.512932 46.30165
14.080978 16.798935 46.27965
42.09298 72.54494 28.733654
43.57798 71.35893 27.387653
49.795982 72.215935 17.903654
51.94698 72.43394 17.874653
5.125984 55.878933 19.243652
6.042984 54.25693 19.644653
74.20598 51.913933 27.859653
74.17498 53.983932 28.635653
39.85498 39.816933 36.212654
40.51598 38.680935 37.916653
34.975983 38.067932 47.581654
33.18098 38.834934 47.945652
20.859978 38.855934 3.9356537
19.949982 39.970932 5.7846527
13.35598 37.458935 13.517654
12.656982 35.634933 15.437654
44.476982 22.73793 32.114655
43.857983 20.286934 31.255653
53.15398 19.01693 24.841654
53.46598 17.351936 23.603653
72.39898 60.300934 12.499654
73.55398 61.240932 14.398653
68.67898 59.229935 23.932653
69.66998 59.984932 25.905653
17.567978 31.963928 20.374653
16.07898 31.913933 22.234653
11.547981 32.134933 31.397654
11.385979 34.03293 32.240654
28.78898 31.768929 24.431654
27.59198 32.062935 26.191654
21.845982 34.43393 35.041653
22.90098 36.60293 36.794655
59.95498 29.34793 47.54565
61.40998 28.269928 45.82365
68.85798 35.233932 40.643654
67.82598 37.36493 40.285652
16.03498 5.87693 45.642654
16.231981 7.76593 44.500652
25.707981 9.952934 42.067654
26.27198 10.186935 39.977654
40.31498 19.817932 30.533653
39.11198 20.93293 31.893654
31.589981 18.572937 40.622654
32.02898 16.651932 41.145653
5.78598 47.994934 12.341654
5.5839844 45.292934 12.606653
70.78298 44.712933 19.452654
71.57398 45.407932 21.399652
70.08898 11.837936 51.44765
71.55298 11.389931 52.44765
64.34898 4.9009323 61.549652
62.73598 4.01593 59.756653
70.45198 44.527935 41.938652
68.709984 45.388935 41.345654
62.38398 38.886932 50.62265
61.25398 36.97893 50.532654
67.98098 24.027931 33.187653
69.32498 23.284935 31.549654
2.2379837 29.068932 24.034653
4.0019836 27.699928 24.552654
55.73298 28.179932 61.436653
54.91998 29.536934 59.17765
62.35698 37.30493 55.624653
61.82798 37.96093 53.31565
6.46698 20.129936 61.32365
6.098984 22.477936 61.290653
72.930984 16.08493 68.99866
70.984985 16.609932 69.947655
67.930984 26.631935 16.323656
67.31098 28.589928 15.813653
69.46898 29.706932 4.6826553
70.57198 27.729935 4.520653
73.34198 42.807934 43.39865
73.85198 40.739933 42.30765
5.145981 45.702934 33.927654
4.4309845 44.234932 31.470654
50.46398 12.753937 19.768654
49.392982 14.329933 18.401653
57.82498 17.197937 10.367653
59.35098 18.838936 10.516653
55.80898 56.371933 49.942654
57.28098 56.031933 48.74765
58.49798 65.19793 54.61265
57.26098 65.633934 56.59265
3.7469864 47.088932 9.448654
6.301979 46.324932 9.935654
11.942978 51.834934 70.30466
13.062981 49.65893 70.473656
33.55298 36.062935 12.965653
32.17198 33.88793 12.659654
24.03298 31.648933 18.481653
22.99098 29.326935 17.825653
21.67198 34.15493 55.55165
22.91098 34.313934 57.63465
19.89998 28.323929 67.96965
18.467981 29.896935 69.573654
37.40398 4.611931 8.48365
38.691982 3.199936 7.529648
48.462982 3.548935 0.5216522
47.82998 1.694931 69.49866
40.93798 17.761932 64.557655
42.99998 16.479935 65.33965
49.73698 13.86293 55.838654
48.16698 13.496933 53.964653
42.115982 66.66493 61.90465
42.913982 68.74094 62.07865
48.58398 73.06693 51.87165
49.92198 0.40893555 52.69065
51.03198 3.5689316 16.698656
52.81298 2.536934 16.15265
54.87898 7.8019333 5.8056564
57.01198 6.6129303 5.184654
9.628983 28.314934 63.99665
9.437981 26.425934 64.21465
1.3809814 26.478935 3.8286514
74.51798 26.520935 2.264656
9.199982 38.307934 35.73065
11.848984 38.383934 35.11265
16.948982 39.178932 23.973654
19.03598 40.016933 23.049654
8.111984 60.205933 18.671656
6.6619797 59.792934 16.906656
14.385979 60.467934 7.7036514
16.602982 60.407932 7.7196503
67.777985 17.997932 48.775654
67.28598 20.249931 48.73965
71.859985 24.554932 39.070652
73.63698 23.344933 39.00865
74.903984 22.705933 56.164654
0.2339859 21.116936 54.644653
4.2609863 26.374931 44.38465
2.5969849 25.228935 43.98765
35.136982 60.055935 37.77965
33.01098 61.67993 38.465652
26.28698 59.538933 46.96265
24.84098 61.34693 47.172653
62.02298 7.2529297 26.119654
59.89398 6.9529343 25.467653
67.763985 11.254936 15.910653
65.85798 11.825935 14.846653
5.8479843 48.703934 33.910652
8.173981 49.082935 34.909653
2.6359863 43.264935 44.033653
3.7019806 42.886932 46.25865
47.98098 64.08093 50.32365
46.35398 65.93393 50.57165
36.08998 59.534935 53.985653
36.87098 61.027935 55.28065
22.759981 2.6709366 49.222652
24.08398 3.3559341 47.567654
32.05698 2.574936 40.38365
30.05998 1.4119339 40.081654
28.155981 16.943932 6.912651
29.18398 18.188934 7.815651
23.10198 15.911934 17.866655
21.29598 16.048935 17.13965
45.03798 0.11893463 63.16865
43.56798 72.77493 62.86265
46.01998 5.2639313 52.818653
46.77398 3.6489334 51.791653
64.94098 16.03093 46.867653
66.98198 16.258934 46.847652
71.81598 17.328934 36.392654
71.43498 16.119934 34.728653
38.27198 59.300934 22.188654
40.76698 60.368935 21.580654
45.50198 60.189934 9.972653
46.441982 57.856934 10.255653
63.39098 19.367935 15.072654
63.85998 17.314934 16.562653
58.95898 16.433937 25.376654
59.74198 17.465935 27.546654
51.68298 29.10093 58.389652
52.27398 30.44693 60.165653
44.93998 26.57093 69.04965
45.371983 28.14093 0.5216522
2.5539856 12.812935 55.292652
3.3119812 10.997932 53.938652
12.86898 11.456932 45.746655
14.041985 9.699936 46.438652
6.421982 34.289932 9.244654
6.214981 35.98893 11.564653
73.54698 31.647934 19.136654
71.97398 33.147934 19.281652
2.5019836 52.515934 33.672653
3.4879837 51.173935 35.116653
1.7309799 45.643932 45.653652
75.152985 45.086933 46.367653
30.58198 24.90393 8.804649
28.64098 26.387932 9.735649
22.700981 18.374931 16.646654
21.64098 20.226936 17.29165
38.54498 61.516933 8.431648
37.13298 61.264935 6.5606537
29.72798 56.997932 15.587655
28.56998 58.49993 14.988656
47.82198 31.867935 24.310654
45.77198 33.728928 24.945654
36.725983 31.18193 27.270653
35.43298 30.295929 29.303654
17.380981 17.119934 47.852654
15.631981 17.93293 49.82865
20.099983 29.101929 50.070652
18.39798 28.87693 51.74765
24.224983 16.57193 20.394653
22.612984 15.579933 21.031652
11.863983 16.747932 28.388653
10.16198 17.937935 26.887653
26.82798 27.29293 23.529654
27.29298 25.188934 24.322653
19.37898 25.646935 34.998653
20.37698 26.003937 36.63465
59.04198 1.8549347 7.26165
58.09598 1.5559311 9.147652
48.67198 71.74893 14.234651
50.31398 72.76193 15.352654
10.325981 11.769936 43.021652
7.723984 12.98793 42.499653
75.09098 11.506935 53.083652
74.26798 13.498932 52.51765
27.294981 34.84693 24.212654
26.02798 34.45793 26.431654
21.97698 31.370934 34.817654
20.59098 30.11193 36.246655
65.458984 27.60093 67.641655
66.99098 26.579933 69.36166
71.817986 30.94593 58.999653
73.35898 30.11293 57.63465
11.455978 16.465935 11.480652
11.48098 15.491936 9.745651
15.331978 19.84893 0.7886505
14.519981 19.03093 69.32865
34.01698 64.38993 20.087656
32.70698 65.44593 18.983652
37.60598 66.574936 7.835655
38.975983 64.81893 7.0766525
26.48998 15.153931 4.9916534
26.62498 13.866936 6.9536514
21.26098 10.369934 16.13965
18.76798 9.713936 16.522654
72.18798 33.36593 21.846653
73.51598 32.618935 23.770653
67.02498 29.22593 32.350655
65.84898 30.670929 33.73865
66.34198 58.713932 23.053654
65.17498 59.771935 21.786654
70.93498 62.166935 14.205653
71.17298 64.18393 15.071653
75.262985 6.079933 51.757652
74.21198 6.89093 49.39965
3.7279816 8.402931 40.531654
4.7819824 10.385933 39.853653
18.40998 23.052933 33.360653
16.55098 22.332932 33.318653
10.423981 14.103935 41.607655
9.057983 15.792931 41.712654
8.217979 3.5999298 41.81465
7.363983 5.060936 42.854652
2.0109863 1.6069336 51.963654
3.815979 1.7659302 53.577652
39.03698 29.107933 48.097652
41.254982 29.513931 49.11565
43.31998 31.75293 52.92065
43.03698 29.812935 52.55765
74.46898 30.69593 3.4816513
0.57798004 32.25093 4.3366547
