3.167 4.537 3.776
3.475 4.639 3.813
3.565 4.888 3.335
3.536 5.131 3.363
3.793 5.183 3.212
3.946 5.545 2.749
3.945 5.503 2.511
4.158 5.644 2.597
4.114 5.887 2.187
4.313 6.031 1.908
4.608 6.250 1.708
3.130 4.579 4.060
3.133 4.339 3.723
3.323 4.549 3.688
3.201 4.672 3.325
4.070 6.147 1.923
4.208 6.109 1.483
2.652 3.895 4.577
2.633 4.039 4.025
2.823 4.221 4.097
2.869 4.519 3.691
4.807 6.390 5.903
4.477 5.882 6.145
4.641 6.015 6.022
4.418 5.948 5.977
4.581 6.098 5.462
4.195 5.633 6.260
4.306 5.912 5.847
4.499 5.931 5.676
4.257 5.977 5.430
4.565 6.236 5.375
3.938 5.393 6.326
4.125 5.414 6.050
4.255 5.910 5.965
4.536 5.885 5.600
3.675 5.135 6.196
4.124 5.303 5.979
4.010 5.774 5.751
3.722 5.294 5.745
3.825 5.489 5.791
3.924 5.306 5.226
3.571 5.062 5.740
4.092 6.207 3.961
4.433 6.253 3.650
3.968 6.029 3.551
4.313 6.172 3.363
4.074 6.422 3.110
3.591 5.611 3.802
3.761 5.798 3.538
4.011 5.961 3.388
4.110 6.022 3.003
4.114 6.360 2.977
3.570 5.323 3.723
3.563 5.762 3.314
3.800 5.650 3.205
3.990 5.898 2.745
4.130 5.968 2.569
3.610 5.420 2.937
3.511 5.860 2.961
3.885 5.962 2.665
3.748 6.188 2.524
3.991 6.033 2.076
3.798 5.791 2.161
3.972 6.192 1.944
3.826 6.258 1.970
4.510 6.374 6.152
4.232 6.238 6.027
4.243 6.005 6.204
4.199 6.187 6.066
4.187 6.382 5.997
4.106 6.286 5.433
3.963 5.926 5.917
3.912 5.820 5.928
4.364 6.163 5.798
3.882 5.939 5.589
3.806 5.587 6.274
3.662 5.727 5.920
3.801 5.903 5.561
4.063 6.140 5.478
3.546 5.188 6.053
3.487 5.549 5.691
3.563 5.588 5.392
3.151 5.170 5.718
3.378 5.259 5.479
3.476 5.688 5.270
3.114 5.194 5.515
3.858 6.167 3.890
3.723 5.969 3.648
3.792 6.088 3.233
3.308 6.010 3.281
3.727 6.153 2.938
3.601 6.089 2.999
3.278 5.961 2.750
3.408 6.184 2.718
3.589 6.278 2.411
3.438 6.246 2.312
3.766 6.228 2.179
3.889 6.039 6.066
4.026 6.111 6.025
3.861 6.227 5.596
3.362 5.626 5.980
3.409 5.820 5.969
3.733 6.237 5.646
3.951 6.251 5.592
3.477 6.238 5.145
3.111 5.536 6.057
3.252 5.679 5.714
3.500 5.782 5.303
3.651 6.176 5.392
2.905 5.378 5.909
3.028 5.511 5.446
3.178 5.668 5.347
2.994 5.460 5.528
3.158 5.379 5.314
3.247 6.093 3.332
3.431 6.283 2.581
3.058 6.417 2.242
3.364 6.326 6.237
3.167 5.804 6.363
3.220 6.118 6.083
3.517 6.416 5.820
2.860 5.893 5.971
3.002 5.939 5.675
3.194 6.204 5.489
3.265 6.056 5.259
2.790 5.567 5.955
3.133 5.799 5.426
3.144 5.853 5.196
3.313 6.132 4.956
2.863 5.339 5.632
2.946 5.820 5.315
2.897 5.784 5.155
2.324 5.328 5.440
2.624 5.393 5.018
2.895 5.653 5.096
3.154 6.253 6.194
2.849 5.855 6.105
3.077 6.032 5.692
2.726 5.712 5.610
2.910 6.008 5.478
2.903 6.266 5.338
2.699 6.323 4.861
2.354 5.547 5.616
2.547 6.080 5.283
2.800 6.023 5.100
3.002 6.182 4.830
2.866 6.164 4.720
2.332 5.684 5.384
2.622 5.579 5.064
2.536 5.981 4.860
2.736 5.986 4.872
2.217 5.484 5.059
2.344 5.611 5.166
2.559 5.848 4.720
2.133 5.265 5.178
2.246 5.406 4.847
2.395 5.520 4.435
2.548 6.380 5.921
2.505 6.073 5.726
2.665 6.306 5.624
2.320 6.016 5.739
2.594 6.123 5.272
2.352 6.451 5.147
1.982 5.737 5.572
2.192 5.988 5.079
2.456 6.159 5.118
2.309 6.101 4.455
1.997 5.676 5.415
2.141 5.744 5.080
2.217 5.865 4.863
2.306 6.223 4.496
2.176 6.030 4.325
2.186 6.131 4.055
1.563 5.625 5.215
1.744 5.880 4.751
1.798 5.698 4.744
2.184 6.215 4.479
1.798 6.039 4.311
2.240 6.246 3.920
1.583 5.326 5.020
1.748 5.571 4.668
1.726 5.922 4.475
1.846 6.069 4.122
1.860 5.882 4.129
2.029 5.729 3.612
1.820 6.017 3.625
1.362 5.484 4.302
1.634 5.490 4.023
1.761 5.599 3.863
2.235 6.114 5.507
1.942 6.146 5.374
2.211 6.017 5.223
1.545 6.041 5.384
1.956 5.894 5.241
2.096 6.305 4.778
1.940 6.198 4.337
1.401 5.653 5.131
1.573 6.034 5.005
1.904 6.084 4.841
2.035 6.304 4.517
1.712 5.937 4.180
1.824 6.176 3.909
1.520 5.440 5.078
1.321 5.692 4.726
1.607 5.860 4.631
1.672 6.206 4.383
1.596 5.856 3.987
1.712 6.291 3.941
1.309 5.595 4.779
1.193 5.806 4.660
1.308 5.826 4.346
1.488 6.013 4.145
1.626 6.238 5.422
1.669 6.088 5.523
1.504 6.322 4.913
1.194 5.899 5.187
1.493 6.174 5.012
1.116 5.863 4.925
1.363 5.987 4.775
1.498 6.075 4.469
1.493 6.060 3.978
1.023 5.829 4.533
1.204 5.743 4.409
1.137 6.196 4.425
1.532 6.008 4.047
1.055 6.140 5.332
0.994 6.001 4.849
1.024 6.393 4.776
0.585 5.739 4.868
0.786 6.025 4.601
1.045 6.280 4.483
0.770 6.138 4.912
0.422 6.235 4.828
0.720 6.199 4.729
5.984 4.850 5.981
5.861 4.771 4.998
5.815 4.972 4.762
6.007 5.198 4.689
5.626 4.877 4.886
5.603 4.686 4.579
5.828 4.870 4.634
5.900 5.352 4.349
5.166 4.474 5.017
5.393 4.573 4.768
5.500 4.902 4.654
5.476 4.911 4.096
5.958 5.014 4.109
5.348 4.485 5.092
5.072 4.296 4.813
5.193 4.246 4.709
5.232 4.725 4.210
5.309 4.769 4.000
5.689 5.040 3.720
5.589 4.952 3.633
4.977 4.287 4.900
4.826 4.035 4.515
4.869 4.291 4.433
5.029 4.560 4.032
5.134 4.463 4.015
5.554 4.707 3.526
5.676 5.024 3.417
5.080 3.994 4.607
4.785 3.850 4.359
5.034 3.971 4.031
4.841 4.239 3.815
5.113 4.631 3.498
5.395 4.582 3.525
5.400 4.756 3.427
6.062 5.807 1.769
6.305 5.996 1.586
4.655 3.819 4.440
4.619 3.918 4.329
4.595 3.940 3.966
4.921 4.272 3.884
4.940 4.244 3.346
5.183 4.335 3.255
5.886 5.780 1.699
5.939 5.969 1.468
6.310 6.089 1.369
4.536 3.814 4.136
4.567 3.870 3.849
4.728 3.800 3.670
4.808 3.914 3.503
4.739 4.184 3.212
5.870 5.413 1.398
5.737 5.759 1.486
5.934 5.992 1.133
4.235 3.662 3.766
4.272 3.609 3.704
4.274 3.648 3.621
4.471 3.741 3.341
3.980 3.258 3.964
4.198 3.629 3.641
4.173 3.328 3.338
4.107 3.651 3.449
4.132 3.440 3.804
3.870 3.318 3.401
5.039 4.599 4.777
5.416 4.885 4.423
5.538 5.171 4.462
5.448 5.160 3.959
5.184 4.530 4.731
4.995 4.937 4.439
5.088 5.131 4.219
5.231 4.946 3.862
5.481 5.165 3.711
6.355 6.428 2.518
4.811 4.404 4.395
5.032 4.549 4.506
4.877 4.727 4.287
5.215 4.794 3.786
5.387 5.159 3.550
5.517 5.276 3.677
6.094 6.338 2.000
4.585 4.435 4.605
4.532 4.388 4.466
4.589 4.446 4.150
4.640 4.471 4.086
5.075 4.812 3.638
5.193 4.691 3.540
5.214 4.984 3.291
5.849 6.271 1.875
4.416 4.260 4.382
4.347 4.142 4.034
4.540 4.059 3.875
4.569 4.421 3.597
4.786 4.751 3.439
4.933 4.736 3.404
4.837 4.878 3.129
4.452 4.096 4.162
4.322 3.918 3.930
4.390 3.998 3.721
4.298 4.082 3.364
4.537 4.318 3.259
4.622 4.575 3.151
3.899 3.622 4.362
4.300 3.930 3.817
4.120 3.696 3.865
4.177 4.068 3.456
4.113 4.090 3.465
4.584 4.161 3.214
3.834 3.585 4.121
3.988 3.541 4.181
3.982 3.970 3.893
3.783 3.577 3.391
4.062 3.874 3.302
4.128 3.792 3.262
3.354 3.020 4.053
3.712 3.462 4.009
3.736 3.350 3.848
3.683 3.475 3.544
5.013 5.163 4.443
5.166 5.134 4.001
5.184 5.445 4.145
5.121 5.349 3.692
4.577 4.863 4.540
4.806 4.854 4.193
4.891 5.141 3.782
5.136 5.007 3.847
5.316 5.388 3.438
4.510 4.522 4.511
4.436 4.427 4.397
4.425 4.624 4.032
4.599 4.876 3.885
4.884 5.252 3.411
4.824 5.111 3.515
5.136 5.589 3.117
4.295 4.377 4.603
4.253 4.362 4.310
4.476 4.243 3.944
4.611 4.622 3.889
4.581 4.885 3.656
4.549 4.905 3.434
4.720 5.193 3.248
4.871 5.384 2.871
3.905 4.055 4.592
4.135 4.300 4.380
3.911 3.992 3.969
4.149 4.117 3.707
4.222 4.547 3.653
4.348 4.515 3.231
4.601 4.886 3.114
4.457 4.840 2.795
3.999 4.052 4.052
4.051 4.158 3.877
3.863 3.865 3.856
3.956 4.307 3.470
3.959 4.476 3.372
4.242 4.621 3.182
4.262 4.517 3.098
3.538 3.608 4.306
3.851 3.838 3.975
3.806 3.827 3.986
3.582 4.030 3.453
3.840 3.965 3.453
3.733 4.118 3.254
4.012 4.306 3.000
3.299 3.251 4.342
3.514 3.737 4.228
3.551 3.866 3.915
3.673 3.759 3.468
4.944 5.499 4.105
4.989 5.672 3.845
4.591 5.064 4.366
4.473 5.254 4.415
4.872 5.224 3.872
4.724 5.368 3.901
5.041 5.491 3.663
4.990 5.620 3.380
4.204 4.932 4.328
4.406 5.036 4.165
4.654 5.120 3.638
4.531 5.417 3.568
4.659 5.395 3.483
4.846 5.692 3.201
4.070 4.447 4.417
3.954 4.640 4.193
4.074 4.772 3.837
4.359 5.079 3.504
4.477 5.053 3.366
4.619 5.206 3.242
4.830 5.433 3.095
3.983 4.307 4.307
3.757 4.259 4.191
3.989 4.669 3.903
4.046 4.794 3.759
4.021 4.731 3.355
4.321 4.861 3.018
4.360 5.252 3.028
4.581 5.282 2.687
3.638 3.997 4.123
3.644 4.286 3.980
3.452 4.297 3.938
3.597 4.264 3.530
3.847 4.485 3.574
4.004 4.875 3.210
3.951 4.745 2.902
4.257 5.200 2.780
3.429 3.916 4.358
3.184 3.883 4.229
3.400 4.067 4.199
3.590 4.118 3.748
3.278 3.952 3.669
3.426 4.257 3.403
3.500 4.225 3.082
3.986 4.413 2.865
3.982 4.664 2.741
2.958 3.721 4.477
3.037 3.887 4.091
3.161 3.803 3.898
3.471 4.088 3.525
4.299 4.827 6.091
4.236 4.692 6.019
4.422 5.632 3.914
4.455 5.753 3.999
4.914 5.690 3.583
4.883 5.918 3.441
3.874 5.113 4.135
4.025 5.181 4.197
4.201 5.439 3.830
4.484 5.418 3.569
4.583 5.766 3.256
4.654 5.990 3.141
4.910 6.064 2.796
3.784 4.931 4.073
3.970 5.195 3.746
3.982 5.341 3.720
4.068 5.341 3.577
4.215 5.519 3.118
4.335 5.664 2.915
4.594 5.902 2.587
3.612 4.747 4.090
3.572 4.609 3.851
3.987 5.050 3.571
3.775 5.217 3.529
4.022 5.318 3.193
4.032 5.332 3.192
4.186 5.659 2.736
4.484 5.600 2.756
4.443 5.870 2.460
3.451 4.233 4.466
3.441 4.566 4.115
3.265 4.247 3.914
3.718 4.648 3.577
3.518 4.628 3.406
3.734 4.981 3.159
3.833 4.893 2.947
4.049 5.282 2.921
4.150 5.489 2.644
4.381 5.469 2.178
2.979 4.191 4.504
3.226 4.268 4.280
3.593 4.592 3.808
3.062 4.139 3.783
3.273 4.484 3.589
3.422 4.583 3.119
3.424 4.707 2.891
3.554 5.085 2.880
2.686 3.982 4.483
2.879 4.014 4.228
3.141 3.964 3.801
3.348 4.418 3.715
5.047 6.135 5.930
4.957 6.283 5.741
4.763 5.711 6.117
4.872 5.841 5.889
4.823 5.735 5.754
4.450 5.628 6.329
4.538 5.536 5.826
4.764 5.995 5.799
4.276 5.138 6.222
4.297 5.442 5.938
4.401 5.645 5.795
4.232 5.281 6.096
4.146 5.305 5.607
3.936 5.091 5.751
4.306 5.960 3.949
4.582 5.825 3.602
4.661 6.231 3.311
4.228 5.430 4.078
4.087 5.824 3.696
4.380 5.693 3.431
4.413 6.211 3.210
4.498 6.101 2.878
3.857 5.310 3.769
3.787 5.543 3.870
3.970 5.539 3.459
4.027 5.820 3.387
4.112 5.740 3.064
4.464 5.914 2.669
4.552 6.413 2.407
3.667 5.121 4.048
3.477 5.062 3.749
3.633 5.375 3.297
3.922 5.253 3.168
3.846 5.520 2.909
3.997 5.877 2.643
4.095 5.891 2.754
4.443 6.001 2.560
4.448 6.376 2.332
3.262 4.634 4.049
3.508 4.855 3.833
3.362 4.888 3.321
3.678 5.090 3.383
3.730 5.386 3.038
3.845 5.488 2.770
4.011 5.745 2.610
4.049 5.908 2.445
4.045 5.890 2.222
4.101 6.221 1.909
4.609 6.104 1.804
3.298 4.478 3.861
3.177 4.584 3.847
3.032 4.550 3.603
3.412 4.764 3.226
4.155 5.872 1.851
4.194 6.306 1.626
2.806 4.134 4.388
2.892 4.242 4.133
2.891 4.414 3.955
3.080 4.455 3.917
4.694 -0.039 3.667
4.176 0.131 3.360
3.904 0.280 2.913
4.141 -0.119 4.043
4.116 0.191 3.426
3.708 -0.034 3.958
4.058 0.255 3.709
3.963 0.407 3.207
3.797 0.176 3.639
3.668 0.093 3.158
3.943 0.196 2.980
3.821 0.439 3.000
3.650 -0.041 3.023
3.730 0.384 2.804
3.699 0.378 2.623
3.572 0.024 2.542
3.737 0.255 2.602
3.355 0.081 2.138
3.619 0.270 3.573
4.007 0.137 3.421
3.898 0.510 3.304
3.852 0.367 3.559
3.710 0.569 3.241
3.152 -0.035 3.920
3.386 0.327 3.424
3.719 0.310 3.278
3.474 0.591 3.151
3.745 0.835 2.981
3.272 0.044 3.424
3.481 0.426 3.249
3.419 0.237 2.928
3.681 0.460 2.743
3.291 0.145 3.036
3.416 0.256 2.949
3.392 0.418 2.423
3.071 0.267 2.507
3.278 0.188 2.258
2.898 -0.094 2.391
3.189 0.152 2.264
3.729 0.613 3.758
3.893 0.558 3.314
3.712 0.999 3.510
3.687 1.194 3.262
3.228 0.592 3.833
3.127 0.664 3.286
3.464 0.789 3.159
3.599 0.941 3.152
2.825 0.057 3.774
3.126 0.172 3.290
3.122 0.557 3.150
3.409 0.463 2.855
3.214 0.823 2.751
2.636 -0.038 3.529
2.862 0.240 3.351
3.087 0.431 2.933
3.195 0.549 2.901
3.126 0.746 2.622
2.676 0.106 2.886
2.762 0.232 2.838
3.065 0.452 2.672
3.031 0.422 2.275
2.765 -0.053 2.651
2.540 0.337 2.219
2.896 0.247 2.039
3.242 0.285 6.068
3.313 0.376 5.880
3.546 0.607 5.479
3.585 0.665 5.418
3.145 0.106 5.520
3.454 0.277 5.294
3.039 -0.075 5.178
3.629 1.030 3.379
3.920 1.228 3.355
3.266 1.304 3.333
3.418 1.153 3.116
2.974 0.676 3.577
3.385 0.878 3.254
3.286 1.308 3.126
2.660 0.631 3.664
2.832 0.751 3.121
2.964 0.710 3.235
2.999 0.866 2.744
2.549 0.361 3.392
2.808 0.600 2.890
2.796 0.897 2.656
2.868 0.899 2.446
2.523 0.270 2.789
2.615 0.739 2.537
2.637 0.598 2.526
2.499 0.279 2.641
2.525 0.749 2.106
2.961 0.154 6.147
3.089 0.400 6.046
3.230 0.640 5.767
3.239 0.820 5.475
3.546 0.743 5.225
3.614 1.059 4.975
2.853 0.013 5.862
2.908 0.087 5.641
3.033 0.380 5.752
3.136 0.489 5.326
3.436 0.865 5.015
2.885 -0.059 5.665
3.066 0.156 5.507
3.078 0.549 5.034
2.806 0.157 5.165
3.549 1.217 3.282
3.639 1.369 3.194
2.099 0.078 5.155
2.491 0.212 4.915
3.216 1.211 3.455
3.445 1.422 3.333
3.018 0.935 3.333
2.998 1.224 3.428
3.099 1.390 3.212
2.600 1.022 3.199
2.762 1.138 3.092
3.160 1.219 2.832
2.721 0.925 3.082
2.662 1.018 3.084
2.672 1.169 2.871
2.687 0.767 2.773
2.608 1.050 2.488
2.313 0.684 2.277
2.769 0.303 6.155
3.024 0.620 5.866
2.968 0.820 5.831
3.036 0.880 5.545
3.211 1.187 5.476
3.305 1.311 5.047
2.462 0.132 6.458
2.446 0.376 6.231
2.617 0.336 5.743
2.881 0.541 5.569
3.166 0.918 5.572
3.066 0.956 5.277
2.367 0.225 5.789
2.575 0.189 5.637
2.740 0.348 5.407
2.631 0.758 5.059
2.897 0.742 4.824
2.580 0.052 5.449
2.599 0.241 5.231
2.474 0.412 5.185
2.406 0.083 5.105
2.237 0.177 5.158
3.328 1.365 3.328
3.371 1.457 3.328
2.072 0.198 5.318
1.841 0.349 5.338
2.256 0.508 5.250
2.119 0.456 4.824
2.976 1.559 3.565
3.187 1.517 3.371
1.765 -0.117 5.234
2.070 0.381 4.820
2.674 1.396 3.293
2.888 1.584 3.036
2.653 1.327 3.202
2.948 1.281 2.887
2.320 1.158 2.873
2.448 1.351 2.703
2.307 1.241 2.374
0.989 0.197 1.941
1.221 0.095 1.225
2.656 0.573 6.188
2.943 1.065 5.704
2.982 0.937 5.789
3.263 1.152 5.455
3.100 1.490 5.024
2.516 0.420 6.168
2.685 0.518 6.053
2.779 0.817 5.763
2.969 0.930 5.493
2.745 1.152 5.107
1.946 0.353 6.275
2.383 0.429 5.799
2.407 0.464 5.724
2.318 0.677 5.495
2.636 0.731 5.130
2.758 0.830 5.027
2.041 0.011 5.804
1.876 0.111 5.778
2.033 0.218 5.566
2.483 0.397 5.269
2.545 0.672 5.037
3.285 1.983 3.510
1.786 -0.121 5.507
2.004 0.347 5.374
2.073 0.537 5.089
2.407 0.354 4.724
2.830 1.431 3.475
3.188 1.799 3.428
1.526 0.159 5.808
1.815 0.207 5.370
1.784 0.251 5.397
1.879 0.702 5.290
2.102 0.816 4.866
2.809 1.812 3.479
2.738 1.760 3.556
1.323 0.174 5.367
1.648 0.147 4.981
1.593 0.553 4.862
1.982 0.804 4.815
2.583 1.720 3.539
2.912 1.596 3.317
1.516 0.316 4.756
1.663 0.170 4.852
1.773 0.596 4.647
2.315 1.467 3.312
2.379 1.740 3.045
1.222 0.204 4.602
1.370 0.039 4.409
2.188 1.504 2.793
0.884 0.107 3.027
1.104 0.093 2.629
0.955 0.193 2.443
0.668 -0.008 2.588
0.875 0.359 2.110
1.210 0.384 2.108
0.973 0.218 2.074
1.053 0.213 1.735
0.637 -0.029 1.678
2.615 1.011 5.999
2.793 1.128 5.815
2.767 1.273 5.676
3.037 1.377 5.326
2.183 0.692 6.210
2.160 0.777 5.787
2.322 1.109 5.637
2.558 1.118 5.428
2.791 1.417 5.095
1.748 0.276 6.244
2.057 0.366 5.825
2.010 0.599 5.710
2.167 0.948 5.313
2.367 1.156 5.464
2.504 1.223 4.998
3.389 2.345 3.687
1.633 0.179 5.856
1.994 0.583 5.713
1.994 0.620 5.611
2.270 0.552 5.218
2.038 0.778 4.917
2.802 2.024 3.607
3.018 1.990 3.662
1.377 0.192 5.876
1.558 0.330 5.664
1.625 0.254 5.186
2.114 0.592 4.970
2.232 0.561 5.047
2.698 1.874 3.435
2.782 1.985 3.415
6.196 0.123 1.304
6.226 0.098 0.723
6.326 0.269 0.547
6.214 -0.063 0.415
6.084 0.299 0.142
5.859 0.252 0.062
6.048 0.177 1.767
6.336 0.210 1.619
6.145 0.687 1.293
5.809 0.193 1.662
6.125 0.262 1.537
6.070 0.563 1.253
6.151 0.594 0.768
5.806 -0.010 1.346
6.072 0.123 1.116
6.185 0.235 0.692
6.043 0.509 0.516
6.180 0.929 0.438
5.728 0.277 0.798
5.815 0.407 0.347
6.113 0.384 0.215
5.746 0.019 0.364
5.941 0.174 0.010
5.538 0.009 0.160
6.172 0.382 1.677
6.229 0.252 1.698
6.407 0.378 1.336
5.963 0.386 1.956
5.791 0.715 1.756
5.921 0.873 1.420
6.202 0.747 1.024
5.520 0.085 1.696
5.491 0.248 1.539
5.814 0.591 1.301
5.776 0.665 1.165
5.953 0.801 1.143
6.088 0.992 0.579
5.693 -0.039 1.691
5.511 0.026 1.255
5.707 0.308 1.223
5.685 0.487 0.962
5.853 0.700 0.750
5.932 0.882 0.543
5.378 -0.165 1.059
5.586 0.249 1.066
5.580 0.296 0.809
5.723 0.378 0.407
5.650 0.623 0.493
5.404 -0.144 0.660
5.280 0.327 0.485
5.601 0.454 0.511
5.170 -0.117 0.182
6.128 0.395 2.170
6.212 0.652 1.916
6.338 0.745 1.429
5.616 0.468 1.729
5.873 0.738 1.533
6.249 0.756 1.199
6.216 0.964 1.119
5.468 0.577 2.184
5.637 0.467 1.844
5.755 0.919 1.582
5.941 0.813 1.543
6.048 1.091 1.395
6.075 1.247 0.883
5.519 0.268 1.942
5.427 0.220 2.071
5.287 0.589 1.695
5.648 0.626 1.447
5.497 0.848 1.042
5.810 0.820 1.168
5.976 1.275 0.928
5.195 0.421 1.812
5.145 0.224 1.673
5.386 0.178 1.383
5.508 0.582 1.069
5.436 0.744 0.949
5.523 0.757 0.975
5.312 0.041 1.614
5.001 0.097 1.366
4.981 0.312 1.382
5.296 0.538 1.066
5.363 0.361 0.630
5.532 0.842 0.772
5.128 0.119 1.511
4.765 0.273 1.099
5.211 0.342 1.012
5.222 0.241 0.692
6.235 1.070 2.470
6.448 1.051 2.266
6.009 0.756 2.302
5.963 0.707 2.227
6.042 1.109 2.036
6.179 1.291 1.996
5.915 0.622 2.344
5.797 0.414 2.363
5.866 0.857 1.994
5.957 0.814 1.902
6.133 1.267 1.524
6.198 1.318 1.294
6.235 1.371 1.112
5.736 0.597 2.401
5.439 0.622 1.945
5.486 0.627 1.754
5.909 0.958 1.785
5.763 1.065 1.425
5.911 1.132 1.289
6.159 1.438 0.950
5.664 0.440 1.939
5.359 0.633 2.044
5.529 0.718 2.033
5.574 1.069 1.632
5.832 1.208 1.500
5.867 1.351 1.243
5.880 1.400 0.865
5.407 0.495 2.236
5.321 0.672 1.603
5.220 0.833 1.640
5.403 1.185 1.345
5.481 1.326 0.901
5.582 1.361 0.724
5.071 0.738 1.445
5.271 0.630 1.253
5.462 0.821 0.879
5.370 1.229 0.833
4.931 0.677 1.095
5.958 1.164 2.913
6.094 1.280 2.628
6.312 1.659 2.528
5.986 1.152 3.276
5.907 1.212 3.077
5.620 1.043 2.794
6.030 1.333 2.582
6.220 1.414 2.287
5.997 1.564 2.061
5.781 1.170 2.757
5.729 1.059 2.599
5.868 1.123 2.294
5.925 1.282 1.960
6.006 1.324 1.981
6.062 1.615 1.663
6.070 1.683 1.245
5.508 0.898 2.388
5.276 0.651 2.136
5.671 0.951 2.042
5.830 1.151 1.850
5.997 1.318 1.613
6.011 1.474 1.539
6.090 1.563 1.185
5.516 0.881 2.221
5.227 0.708 2.306
5.207 0.717 1.878
5.371 0.807 1.664
5.749 1.018 1.642
5.702 1.328 1.112
5.798 1.500 1.208
5.242 0.687 2.186
5.288 1.123 1.776
5.390 1.035 1.853
5.408 1.534 1.555
5.567 1.426 1.454
5.681 1.795 1.208
4.977 0.953 1.897
5.136 1.170 1.658
5.350 1.043 1.414
5.548 1.483 0.923
5.851 1.490 2.949
5.793 1.455 2.690
6.003 1.636 2.568
5.946 1.882 2.283
6.397 2.073 2.228
5.646 0.897 3.230
5.515 1.354 3.105
5.912 1.382 2.831
5.515 1.427 2.783
5.540 1.517 2.580
5.779 1.748 2.160
6.083 1.854 2.171
5.904 1.984 1.725
6.163 2.183 1.594
5.482 1.205 2.937
5.535 1.227 2.818
5.528 1.293 2.445
5.701 1.464 2.273
5.517 1.642 1.943
5.820 1.589 2.044
6.086 1.812 1.713
6.104 1.943 1.634
5.234 1.084 2.606
5.277 1.074 2.167
5.178 1.336 2.207
5.411 1.450 1.940
5.502 1.616 1.636
5.626 1.505 1.345
5.852 1.662 1.143
5.191 0.829 2.262
5.314 0.862 2.136
5.318 1.189 1.726
5.479 1.386 1.410
5.746 1.393 1.325
5.818 1.645 0.877
5.196 1.565 1.623
5.120 1.515 1.609
5.351 1.584 1.318
5.405 1.876 0.947
5.020 1.372 1.351
5.465 1.451 3.072
5.656 1.620 2.856
5.731 1.987 2.502
5.885 1.995 2.439
6.157 2.400 2.036
6.197 2.427 1.870
5.385 1.143 3.548
5.416 1.638 3.408
5.398 1.599 3.151
5.195 1.314 2.862
5.348 1.619 2.627
5.643 1.731 2.227
5.879 1.908 2.276
5.877 2.120 1.946
6.180 2.409 1.716
6.052 2.382 1.666
5.408 1.471 3.018
5.310 1.565 2.707
5.189 1.232 2.668
5.316 1.333 2.506
5.377 1.642 2.228
5.528 1.767 1.834
5.837 1.962 1.780
5.938 2.160 1.433
5.777 2.244 1.317
5.211 1.450 2.452
5.045 1.346 2.025
5.339 1.527 1.878
5.555 1.759 1.590
5.513 1.865 1.605
5.567 2.232 1.116
5.831 2.196 1.246
5.288 1.282 1.597
5.069 1.664 1.700
5.317 1.561 1.387
5.338 1.902 0.997
4.842 1.647 1.676
5.012 1.965 1.417
5.290 2.205 1.004
5.226 2.005 3.119
5.400 2.198 2.710
5.698 2.363 2.459
5.689 2.394 2.202
5.874 2.685 2.248
5.855 2.647 2.136
5.978 2.686 1.896
5.018 1.356 3.568
5.393 1.836 3.247
5.478 1.754 2.937
5.306 1.743 2.753
5.347 1.876 2.511
5.251 1.933 2.272
5.384 2.294 2.382
5.651 2.362 1.794
5.914 2.656 1.621
6.057 2.887 1.474
5.892 2.743 1.189
5.213 1.619 2.747
4.969 1.629 2.397
5.159 1.891 2.309
5.400 2.059 2.028
5.361 2.047 1.810
5.496 2.572 1.646
5.553 2.429 1.439
5.788 2.898 1.250
4.941 1.500 2.392
5.124 1.824 2.161
5.015 1.805 1.895
5.114 2.224 1.691
5.351 2.365 1.379
5.698 2.435 1.024
4.913 1.826 1.757
5.162 2.035 1.275
5.185 2.003 0.991
5.114 1.993 1.479
4.876 2.473 1.206
3.710 0.745 2.432
3.484 0.709 2.214
3.711 0.949 2.132
3.439 0.543 2.112
3.502 0.729 1.913
3.232 0.306 1.818
3.486 1.207 0.694
3.918 1.022 0.295
3.721 1.302 0.295
3.303 1.046 0.256
3.632 1.087 0.238
3.856 1.095 0.155
3.161 0.818 0.327
3.243 0.947 -0.068
4.969 2.124 3.021
5.272 2.204 2.810
5.360 2.238 2.720
5.614 2.378 2.621
5.746 2.735 2.324
5.746 3.018 1.976
5.999 3.051 1.585
6.178 3.017 1.611
6.238 3.361 1.250
5.011 1.794 3.128
5.148 2.112 3.169
5.093 2.223 2.818
5.214 2.290 2.304
5.467 2.602 2.181
5.515 2.626 2.159
5.610 2.797 1.861
5.614 3.078 1.674
5.864 3.094 1.333
6.015 3.290 1.265
4.934 2.066 2.195
4.995 2.336 1.917
5.149 2.567 1.931
5.524 2.675 1.455
5.449 2.721 1.183
5.794 2.753 1.048
5.617 3.048 0.867
4.933 2.095 2.039
4.910 2.144 1.687
5.294 2.417 1.598
5.108 2.350 1.437
5.424 2.721 1.060
5.431 2.674 1.143
4.891 2.096 1.326
5.053 2.224 1.264
4.721 2.457 1.385
5.020 2.679 0.895
3.623 0.903 2.810
3.635 1.199 2.411
3.517 1.018 2.439
3.714 1.183 2.291
3.513 0.770 2.383
3.517 1.123 2.191
3.560 1.322 1.846
3.362 1.026 1.639
3.716 1.384 1.307
3.308 0.826 2.242
3.280 0.700 2.049
3.216 1.019 1.820
3.469 1.264 1.659
3.435 1.177 1.504
3.475 1.325 0.976
3.658 1.210 0.907
3.809 1.389 0.621
3.892 1.556 0.545
3.159 0.449 1.866
3.285 0.832 1.577
3.101 0.689 1.437
3.200 0.876 1.336
3.148 1.097 1.101
3.178 1.116 1.067
3.453 1.257 0.708
3.388 1.458 0.527
3.597 1.546 0.232
3.865 1.588 0.210
2.771 0.755 1.698
3.055 0.588 1.218
3.325 0.760 0.981
2.989 0.939 0.855
3.002 0.887 0.642
3.314 1.291 0.487
3.418 1.357 0.440
3.325 1.426 -0.009
2.850 0.755 0.752
3.023 0.752 0.618
2.973 0.927 0.173
3.371 0.986 0.096
3.051 0.861 0.183
5.036 2.463 2.744
5.152 2.783 2.404
5.270 2.940 2.311
5.550 3.254 2.128
5.854 3.395 1.699
5.634 3.586 1.406
5.881 3.725 1.369
5.934 3.809 1.263
6.116 4.022 1.043
6.243 3.964 0.683
5.107 2.355 2.361
5.097 2.551 2.200
5.213 2.970 1.913
5.502 2.864 1.649
5.477 3.241 1.519
5.444 3.247 1.262
5.806 3.265 1.348
5.844 3.568 0.991
6.059 3.750 0.672
5.018 2.357 1.937
5.005 2.836 1.980
5.093 2.645 1.467
5.493 3.171 1.243
5.253 3.297 1.312
5.703 3.408 0.852
5.721 3.564 0.741
4.956 2.429 1.483
4.954 2.849 1.427
4.969 2.899 1.035
5.370 2.999 1.172
5.567 3.248 0.821
4.679 2.354 1.344
5.132 2.732 0.873
4.549 2.779 1.460
4.646 2.953 1.168
5.012 2.992 0.657
5.169 3.374 0.642
3.592 1.404 2.914
3.294 1.428 2.890
3.773 1.589 2.710
3.823 1.710 2.400
3.470 1.320 2.663
3.550 1.252 2.260
3.496 1.635 2.046
3.561 1.399 1.634
3.211 1.015 2.554
3.412 1.234 2.293
3.400 1.543 1.969
3.627 1.341 1.647
3.131 1.290 1.550
3.598 1.697 1.400
3.533 1.797 1.055
3.118 1.081 2.385
2.974 1.226 1.858
3.165 1.273 1.737
3.155 1.407 1.405
3.333 1.442 1.487
3.068 1.529 1.014
3.195 1.624 1.107
3.504 1.643 0.821
3.629 2.045 0.334
2.611 0.771 2.182
2.710 1.121 1.630
3.018 0.984 1.402
3.173 1.137 1.369
2.949 1.251 1.347
3.120 1.181 0.913
3.303 1.294 0.718
3.191 1.633 0.420
3.529 1.814 0.417
3.611 1.996 0.115
2.567 0.542 1.838
2.764 0.597 1.547
2.929 0.919 1.188
3.140 0.989 1.117
2.887 0.915 0.811
2.910 1.230 0.702
3.112 1.258 0.427
3.131 1.286 0.139
3.173 1.522 0.018
2.724 0.943 1.063
2.637 1.165 1.029
2.581 0.896 0.836
2.910 0.905 0.421
2.968 1.045 0.429
3.006 1.309 0.117
2.806 0.958 0.738
2.685 0.753 0.522
2.675 1.171 0.072
5.296 2.989 2.231
5.157 3.141 2.207
5.409 3.333 1.822
5.740 3.500 1.686
5.514 3.781 1.315
5.964 3.868 1.383
5.926 4.251 1.011
5.920 4.478 0.728
6.001 4.541 0.404
4.887 3.178 2.236
5.262 3.356 2.042
5.085 3.283 1.795
5.555 3.505 1.300
5.404 3.459 1.260
5.788 3.724 0.913
5.901 4.032 0.602
5.834 4.147 0.401
5.031 2.944 1.702
4.793 3.203 1.668
4.953 3.246 1.510
5.332 3.423 1.136
5.390 3.437 1.131
5.342 3.779 0.690
5.432 3.711 0.685
4.757 2.763 1.870
4.766 2.865 1.292
5.082 3.132 1.325
5.106 3.330 1.120
5.196 3.482 0.999
5.413 3.355 0.768
4.712 2.924 1.203
4.918 2.862 1.039
4.696 2.956 1.006
4.814 3.430 0.648
3.696 1.496 3.184
4.422 3.119 1.168
4.614 3.332 0.772
4.946 3.483 0.506
4.997 3.759 0.472
3.611 1.640 3.029
3.423 1.818 2.813
4.333 3.078 0.780
3.096 1.328 3.019
3.415 1.827 2.697
3.679 1.729 2.404
3.448 1.993 1.865
3.115 1.549 2.714
3.343 1.508 2.307
3.290 1.877 2.111
3.498 1.755 2.078
3.432 1.647 1.871
3.356 1.847 1.411
2.781 1.342 2.571
3.175 1.536 2.269
3.070 1.562 1.949
3.164 1.696 1.755
2.963 1.529 1.700
3.150 1.769 1.275
3.427 2.097 1.037
2.668 0.918 2.216
2.958 1.377 2.214
3.134 1.601 1.854
3.245 1.791 1.785
2.793 1.578 1.534
3.148 1.534 1.014
3.362 1.803 0.969
3.189 2.013 0.639
2.746 1.044 2.179
2.584 1.045 1.846
2.746 1.147 1.597
2.830 1.547 1.293
2.851 1.140 1.391
3.063 1.446 1.143
3.000 1.498 0.726
3.068 1.770 0.504
3.435 2.139 0.373
3.234 2.269 0.048
2.491 0.661 1.919
2.406 0.854 1.795
2.557 1.224 1.473
2.838 1.448 1.338
2.426 1.021 1.193
2.770 1.293 0.594
2.819 1.506 0.524
2.931 1.839 0.230
3.097 1.799 0.114
2.358 1.081 1.182
2.432 1.273 1.067
2.361 1.045 0.794
2.502 1.336 0.758
2.635 1.290 0.212
2.882 1.387 0.112
2.474 1.066 0.890
2.421 0.774 0.600
2.354 0.900 0.549
2.446 1.238 0.200
2.216 0.881 0.450
2.140 0.760 0.220
5.203 3.701 2.139
5.424 3.610 1.745
5.464 3.732 1.814
5.374 3.908 1.628
5.806 4.255 1.335
5.673 4.282 1.014
5.934 4.393 0.718
6.136 4.503 0.477
4.895 3.218 2.087
4.994 3.641 1.654
5.204 3.805 1.530
5.337 3.737 1.282
5.382 4.046 1.067
5.499 4.207 1.015
5.826 4.549 0.473
4.946 3.308 1.791
5.021 3.463 1.560
5.166 3.614 1.323
4.952 3.606 0.947
5.379 3.698 1.001
5.198 4.059 0.444
5.537 4.271 0.332
4.520 3.122 1.459
4.564 3.401 1.318
4.845 3.461 1.222
4.771 3.690 0.736
5.159 3.784 0.778
5.100 4.116 0.389
3.474 1.730 3.118
4.523 3.082 0.904
4.564 3.446 0.769
4.935 3.579 0.671
4.858 3.626 0.630
3.291 1.455 3.192
3.592 2.009 2.832
4.324 3.295 0.989
4.318 3.408 0.972
4.716 3.702 0.598
4.643 3.877 0.558
4.942 4.144 0.138
3.153 1.781 3.083
3.163 2.052 2.759
3.586 2.126 2.579
3.575 2.390 2.135
4.037 3.198 0.748
4.295 3.230 0.801
4.255 3.438 0.450
4.722 3.762 0.188
3.059 1.627 2.726
3.057 1.896 2.874
3.371 2.101 2.445
3.386 2.268 2.278
3.415 2.104 1.857
2.999 1.572 2.607
2.960 1.910 2.507
3.227 1.798 2.354
3.420 2.240 2.048
3.178 1.774 1.759
3.085 2.103 1.750
2.678 1.624 2.425
2.963 1.681 2.102
2.866 1.784 2.000
2.974 1.759 1.769
2.796 1.684 1.468
3.088 1.863 1.296
3.179 2.337 1.170
2.409 1.428 2.190
2.484 1.444 1.885
2.621 1.807 1.907
2.748 1.664 1.458
2.741 1.739 1.447
2.956 1.997 1.284
3.108 2.135 0.901
2.920 2.276 0.820
2.443 1.146 2.258
2.319 1.159 1.811
2.683 1.505 1.573
2.842 1.763 1.586
2.421 1.557 1.217
2.711 1.867 0.985
2.916 1.803 0.768
2.803 2.057 0.703
2.896 2.182 0.459
2.445 1.362 1.652
2.412 1.191 1.451
2.536 1.692 1.275
2.342 1.561 0.954
2.563 1.707 0.981
2.672 1.588 0.659
2.538 1.991 0.547
2.832 2.253 0.162
2.257 1.045 1.266
2.438 1.508 1.198
2.068 1.091 0.904
2.330 1.432 0.446
2.309 1.734 0.527
2.703 1.815 0.323
1.979 0.924 0.865
2.118 1.322 0.862
1.921 0.954 0.780
2.235 1.309 0.390
2.181 1.403 0.085
1.944 1.027 0.700
2.001 1.105 0.126
2.086 1.307 -0.039
1.705 0.932 0.044
5.122 3.762 1.752
5.346 3.996 1.859
5.457 4.093 1.473
5.445 4.279 1.267
5.447 4.727 1.023
5.478 4.514 0.888
5.725 5.050 0.813
4.880 3.576 2.094
4.868 3.649 1.852
4.930 3.855 1.667
5.050 4.089 1.345
5.393 4.430 0.926
5.340 4.549 0.721
5.325 4.641 0.754
4.741 3.313 1.912
4.747 3.778 1.399
4.839 3.751 1.150
4.997 3.974 0.960
5.159 3.996 0.953
5.269 4.190 0.509
5.188 4.256 0.504
4.330 3.163 1.691
4.644 3.546 1.342
4.482 3.564 0.967
4.945 3.864 0.818
5.019 3.835 0.801
4.875 4.249 0.545
3.542 1.959 3.216
3.470 2.104 3.165
3.526 2.476 2.732
4.516 3.146 1.301
4.264 3.331 1.046
4.749 3.761 0.723
4.835 4.024 0.417
4.834 3.828 0.240
3.352 2.016 3.077
3.513 1.862 3.066
3.615 2.308 2.699
3.355 2.629 2.596
3.981 3.490 1.290
4.242 3.590 0.873
4.504 3.747 0.681
4.418 4.165 0.643
4.661 4.305 0.127
2.941 2.015 3.045
3.220 2.276 3.095
3.368 2.437 2.534
3.522 2.457 2.578
3.025 2.289 2.422
3.818 3.469 0.955
3.939 3.747 0.733
4.034 3.734 0.687
4.348 3.745 0.377
4.304 3.971 -0.070
2.791 1.962 2.950
2.780 2.118 2.808
3.229 2.077 2.374
3.195 2.412 2.392
2.996 2.441 2.127
3.763 3.290 0.475
4.164 3.448 0.398
4.085 3.704 0.300
2.649 1.715 2.916
2.843 2.043 2.546
2.953 2.087 2.279
2.990 2.218 1.936
2.764 2.261 1.749
3.943 3.578 0.214
2.588 1.722 2.559
2.600 1.776 2.275
2.644 2.165 2.110
2.936 2.292 1.694
2.611 1.908 1.821
3.003 2.317 1.276
2.360 1.587 2.333
2.513 1.705 2.318
2.707 2.014 1.997
2.655 2.036 1.703
2.551 1.696 1.609
2.682 2.006 1.461
2.926 2.202 1.017
2.075 1.552 1.891
2.248 1.907 1.693
2.601 1.803 1.363
2.244 1.836 1.482
2.273 1.892 0.909
2.399 1.950 0.699
2.655 2.147 0.824
2.149 1.742 1.455
2.158 1.904 1.363
2.222 1.741 1.242
2.147 1.965 0.758
2.272 2.116 0.764
2.355 2.166 0.467
2.789 2.233 0.077
2.235 1.580 1.206
2.167 1.488 1.026
1.795 1.312 1.063
2.293 1.584 0.544
2.228 1.700 0.513
2.539 1.911 0.075
2.341 1.963 0.043
2.019 1.648 1.002
1.792 1.451 0.760
2.042 1.661 0.552
2.212 1.660 0.179
2.353 1.880 -0.083
1.828 1.474 0.581
1.610 1.406 0.659
1.813 1.422 0.145
1.978 1.679 0.175
1.675 1.357 0.562
1.439 1.085 0.107
4.844 4.388 1.651
5.254 4.394 1.519
5.055 4.739 1.190
5.421 4.554 1.164
5.540 4.758 0.991
4.847 3.920 1.708
4.691 4.248 1.387
4.715 4.333 1.476
4.984 4.513 1.198
5.048 4.686 1.036
5.254 4.941 0.620
3.558 2.665 3.390
4.643 3.636 1.442
4.581 4.103 1.497
4.685 3.976 1.244
5.023 4.458 0.930
4.932 4.435 0.759
5.003 4.735 0.347
3.325 2.385 3.592
3.560 2.349 3.504
3.679 2.828 3.107
4.127 3.559 1.343
4.295 3.744 1.360
4.624 4.062 0.892
4.647 4.030 0.660
4.865 4.495 0.414
3.300 2.343 3.453
3.340 2.560 3.252
3.536 2.638 2.798
3.343 2.637 2.602
3.967 3.447 1.083
4.302 3.582 0.784
4.285 3.764 0.847
4.295 3.860 0.422
4.451 4.248 0.131
3.208 2.123 3.042
3.249 2.261 3.098
3.349 2.401 2.864
3.211 2.460 2.480
0.266 1.362 6.297
0.471 1.403 5.880
1.457 2.992 3.943
1.429 3.151 3.691
0.003 1.042 6.105
0.110 1.315 5.945
0.240 1.223 5.713
-0.078 1.125 5.289
0.377 1.510 5.038
0.128 1.321 5.056
-0.005 1.438 4.791
0.234 1.334 4.345
-0.153 1.436 3.908
0.273 1.844 3.792
-0.073 1.773 3.258
0.095 1.993 2.992
0.397 1.880 2.987
0.317 2.374 2.815
0.499 2.411 2.538
0.071 1.912 3.038
0.228 1.833 2.496
0.372 2.165 2.263
0.334 2.037 2.317
0.035 1.847 2.376
0.093 2.240 2.043
-0.120 1.943 1.655
1.522 2.878 5.713
1.618 2.889 5.552
1.956 3.242 5.261
1.972 3.365 5.022
2.303 3.412 4.779
2.043 3.616 4.685
2.541 3.826 4.568
1.503 2.615 5.370
1.603 3.063 4.921
1.855 3.123 4.998
1.882 3.130 4.515
2.154 3.388 4.420
2.314 3.710 4.041
1.443 2.874 5.070
1.707 3.106 4.818
1.751 2.921 4.316
1.692 3.096 4.150
1.866 3.403 4.028
1.332 2.957 4.374
1.716 3.143 4.215
1.709 3.209 3.918
2.017 3.109 3.893
0.133 1.357 6.141
0.341 1.233 5.865
1.436 2.793 4.184
1.553 2.977 3.917
1.204 2.998 4.418
1.299 2.922 3.970
1.159 3.269 3.951
0.012 1.658 5.654
0.623 2.765 2.465
0.174 2.246 2.971
0.240 2.286 3.035
0.314 2.375 2.719
0.196 2.595 2.339
0.283 2.421 2.372
0.166 2.296 2.225
0.224 2.099 2.213
1.217 2.473 6.280
1.164 2.737 6.096
1.411 3.097 5.922
1.478 3.031 5.405
1.565 3.166 5.252
1.748 3.283 5.194
1.919 3.473 5.017
2.155 3.635 4.659
2.285 4.053 4.287
1.227 2.602 5.631
1.431 3.149 5.171
1.518 3.321 5.168
1.753 3.202 4.749
1.611 3.363 4.502
1.815 3.629 4.468
2.077 3.650 4.278
1.003 2.645 5.280
1.152 2.753 5.062
1.273 3.142 4.742
1.471 3.156 4.825
1.522 3.489 4.407
1.831 3.604 4.276
1.684 3.589 4.039
0.935 2.860 4.765
1.286 2.985 4.787
1.077 3.191 4.673
1.370 3.025 4.388
1.625 3.351 4.168
1.430 3.465 3.823
0.958 2.705 4.486
1.354 2.937 4.001
1.471 3.106 3.837
0.599 2.978 4.740
1.033 3.008 4.508
0.814 3.271 4.082
1.052 3.488 3.795
0.338 3.060 2.514
0.063 2.705 2.841
0.304 2.899 2.508
0.175 2.503 2.179
1.015 2.987 6.408
1.222 2.967 6.175
1.308 3.263 5.840
1.288 3.323 5.623
1.313 3.540 5.330
1.705 3.700 5.312
1.804 3.706 4.768
1.953 3.945 4.551
0.769 2.726 6.008
1.039 3.051 5.718
1.186 3.082 5.350
1.235 3.520 5.105
1.540 3.493 4.758
1.483 3.492 4.926
1.635 4.025 4.408
1.589 3.867 4.391
0.986 2.925 5.397
1.107 3.020 5.357
1.174 3.217 5.141
1.247 3.178 4.673
1.217 3.564 4.691
1.524 3.627 4.492
1.652 3.757 4.138
0.739 2.912 4.873
0.921 2.988 4.587
0.878 3.367 4.410
1.157 3.513 4.361
1.131 3.411 3.971
0.722 2.732 4.748
0.898 3.032 4.316
0.970 3.105 4.319
1.103 3.499 4.096
0.336 3.122 4.776
0.569 3.107 4.538
0.696 3.168 4.532
0.869 3.653 4.028
0.393 2.986 4.452
0.477 3.181 4.052
0.639 2.877 6.182
0.909 3.073 6.020
0.816 3.450 5.693
1.139 3.533 5.795
1.111 3.488 5.439
1.164 3.710 5.172
1.550 4.044 4.911
0.592 3.232 5.883
0.669 3.336 5.823
0.883 3.510 5.529
0.887 3.732 5.185
1.074 3.766 5.128
1.384 3.709 4.879
1.557 4.092 4.733
0.498 3.026 5.607
0.573 2.920 5.436
0.747 3.333 5.182
0.691 3.528 5.137
1.140 3.554 4.783
1.146 3.851 4.497
1.325 3.754 4.433
0.364 2.858 5.415
0.526 3.230 5.051
0.713 3.424 4.771
0.770 3.477 4.617
0.776 3.535 4.312
0.908 3.585 4.200
0.398 2.822 4.758
0.693 3.115 4.563
0.826 3.313 4.397
0.746 3.302 4.125
0.038 3.073 5.001
0.048 3.068 4.846
0.201 3.357 4.484
0.455 3.446 4.625
0.582 3.781 4.350
0.039 3.016 4.803
0.339 3.357 4.613
0.378 3.473 4.168
0.421 3.402 3.989
0.171 3.336 4.049
0.689 3.425 5.928
0.726 3.716 6.044
0.993 3.565 5.597
1.026 4.003 5.264
1.182 3.925 5.343
0.411 3.422 5.971
0.475 3.591 5.636
0.680 3.438 5.525
0.975 3.566 5.178
0.781 3.982 4.835
1.260 4.269 4.813
0.205 2.976 5.744
0.329 3.226 5.554
0.364 3.605 5.247
0.694 3.529 4.985
0.691 3.637 4.641
0.990 3.947 4.477
0.987 4.215 4.352
0.138 3.193 5.294
0.212 3.237 4.961
0.626 3.392 5.042
0.641 3.677 4.581
0.712 3.722 4.509
0.727 4.022 4.384
0.182 2.847 4.997
0.259 3.285 4.996
0.261 3.433 4.597
0.474 3.404 4.459
0.394 3.612 4.133
0.281 3.509 4.615
0.262 3.549 4.623
0.348 3.882 4.102
0.223 3.724 4.382
0.376 3.616 3.994
0.163 3.690 3.944
0.348 3.521 6.146
0.747 3.696 6.120
0.699 3.990 5.738
0.839 4.046 5.362
0.324 3.647 6.098
0.261 3.785 5.639
0.428 3.627 5.636
0.777 3.988 5.389
0.641 4.008 4.971
0.128 3.667 5.548
0.190 3.522 5.364
0.272 3.817 4.912
0.749 3.898 4.958
0.640 4.300 4.663
-0.097 3.240 5.156
0.353 3.717 5.183
0.179 3.699 4.861
0.443 3.739 4.817
0.368 4.019 4.324
-0.028 3.625 4.645
0.070 3.690 4.373
0.445 3.949 4.344
-0.014 3.871 4.353
-0.023 4.122 4.461
0.292 3.978 5.693
0.423 4.194 5.410
0.155 3.885 5.765
0.232 4.011 5.461
0.319 4.057 5.041
0.495 4.175 4.853
-0.098 4.030 5.086
0.316 4.025 4.645
0.301 4.114 4.620
0.062 3.999 4.421
0.190 3.925 4.328
0.113 4.350 4.352
1.401 0.459 5.701
1.495 0.302 5.631
1.592 0.756 5.221
1.531 0.648 5.331
1.780 0.946 4.786
2.517 1.879 3.505
2.623 1.949 3.305
1.275 0.221 5.682
1.340 0.382 5.189
1.251 0.515 5.194
1.731 0.682 5.133
1.647 0.669 4.552
2.460 1.769 3.400
2.636 1.927 3.349
0.963 0.231 5.397
1.309 0.137 5.348
1.070 0.212 5.131
1.492 0.373 4.674
1.652 0.880 4.494
2.536 1.979 3.180
0.959 0.061 5.151
0.974 0.318 4.824
1.158 0.460 4.622
1.412 0.579 4.474
1.589 0.660 3.914
0.802 0.037 4.378
0.847 0.261 4.525
1.173 0.329 3.945
1.186 0.413 3.834
0.758 -0.021 4.223
1.101 0.274 4.022
1.050 0.605 3.522
0.772 0.201 3.811
0.908 0.492 3.573
0.902 0.570 3.391
0.953 0.496 3.044
0.461 0.072 3.679
0.908 0.161 3.249
0.880 0.352 3.039
1.019 0.491 2.970
1.187 0.698 2.503
0.635 -0.030 3.264
0.549 0.081 3.010
0.719 0.415 2.726
1.030 0.412 2.469
0.983 0.646 2.350
0.618 -0.033 2.748
0.809 0.403 2.652
0.671 0.528 2.175
0.947 0.496 1.852
0.549 -0.067 2.173
0.464 0.333 1.946
0.884 0.282 1.968
0.301 0.169 1.859
0.557 0.141 1.469
0.232 0.182 1.610
2.259 1.302 5.873
2.387 1.429 5.548
2.097 0.883 6.223
2.111 0.980 6.012
2.257 1.252 5.789
2.542 1.426 5.574
3.418 2.695 4.034
1.669 0.421 6.063
1.727 0.810 6.117
2.112 1.042 5.862
1.925 1.020 5.410
2.303 1.193 5.429
3.035 2.321 3.758
1.329 0.434 6.062
1.828 0.555 5.926
1.744 0.747 5.413
1.855 0.872 5.285
2.076 1.210 4.991
2.575 2.206 3.909
2.992 2.214 3.438
1.320 0.187 5.873
1.502 0.415 5.690
1.480 0.737 5.469
1.639 0.614 5.051
1.950 1.028 4.839
2.754 2.005 3.464
2.817 2.119 3.518
1.119 0.679 5.994
1.342 0.866 5.712
1.441 0.711 5.390
1.402 1.074 5.161
1.523 1.215 5.035
2.529 2.217 3.771
2.651 2.274 3.427
0.697 0.218 5.876
0.912 0.296 5.533
0.934 0.455 5.579
1.028 0.770 5.165
1.346 0.905 5.017
1.605 1.135 4.929
2.236 2.286 3.233
0.831 0.148 5.542
0.650 0.171 5.334
0.956 0.463 5.352
0.886 0.509 5.007
1.194 0.680 4.951
1.372 1.022 4.487
1.523 0.898 4.211
0.765 0.162 5.090
0.687 0.391 4.921
0.812 0.517 5.000
0.876 0.615 4.513
0.987 0.601 4.222
1.102 0.777 4.174
0.472 0.223 4.835
0.764 0.493 4.630
0.903 0.307 4.343
0.903 0.642 4.221
1.031 0.656 4.059
1.314 1.056 3.722
0.681 0.012 4.250
0.587 0.505 4.071
0.878 0.352 3.947
0.780 0.659 3.689
1.008 0.917 3.408
1.028 1.068 3.322
0.443 0.117 4.085
0.719 0.221 3.823
0.595 0.673 3.465
0.819 0.535 3.526
1.075 0.925 3.227
1.077 0.883 2.975
0.530 0.345 3.443
0.479 0.371 3.482
0.470 0.638 2.945
0.641 0.616 2.833
0.865 1.049 2.516
0.984 1.051 2.649
0.033 0.018 3.185
0.500 0.320 3.018
0.500 0.616 2.829
0.620 0.444 2.752
0.851 0.830 2.463
0.816 0.801 2.360
0.113 0.016 3.058
0.321 0.161 2.736
0.306 0.614 2.516
0.371 0.541 2.444
0.828 0.680 2.077
0.837 0.961 1.827
0.121 0.011 2.661
0.187 0.185 2.196
0.356 0.318 2.256
0.298 0.657 1.816
0.560 0.642 1.520
0.057 0.188 2.012
0.076 0.348 1.940
0.284 0.575 1.567
0.069 0.384 1.559
3.001 2.959 4.076
2.909 2.490 4.271
2.989 2.731 4.029
1.517 0.972 6.222
1.910 1.256 5.801
1.681 1.173 5.670
2.742 2.582 4.128
2.877 2.590 3.859
1.319 0.476 6.082
1.252 0.740 5.897
1.478 0.800 5.451
1.768 0.952 5.503
1.866 1.495 5.197
2.583 2.289 3.950
2.647 2.486 3.467
1.135 0.597 5.840
1.369 0.609 5.804
1.314 0.754 5.314
1.676 0.932 5.305
1.689 1.301 4.979
2.509 2.087 3.475
2.517 2.410 3.429
0.880 0.711 5.845
1.108 1.021 5.688
1.329 1.017 5.294
1.363 1.395 5.340
2.283 2.342 3.697
2.094 2.509 3.647
0.634 0.311 6.006
0.881 0.595 5.760
0.821 0.805 5.409
0.851 1.019 5.437
0.970 1.085 4.992
1.201 1.325 4.945
2.195 2.323 3.193
0.412 0.397 5.548
0.736 0.478 5.400
0.585 0.688 5.224
0.930 0.896 5.051
0.929 0.935 4.942
1.129 0.964 4.790
1.267 1.108 4.526
0.392 -0.007 5.449
0.301 0.309 5.466
0.581 0.506 4.888
0.779 0.841 4.989
0.959 0.850 4.629
1.050 1.100 4.290
1.130 1.220 4.098
0.056 0.142 4.956
0.310 0.455 4.746
0.657 0.710 4.475
0.569 0.667 4.443
0.706 1.040 4.105
0.862 1.128 3.844
1.045 1.250 3.859
0.094 0.188 4.703
0.232 0.266 4.312
0.370 0.678 4.079
0.384 0.636 4.008
0.508 0.754 3.644
0.666 0.960 3.534
0.842 1.322 3.522
0.905 1.504 3.145
0.135 0.193 4.377
0.125 0.536 4.050
0.533 0.439 3.859
0.516 0.592 3.628
0.458 0.764 3.477
0.698 0.896 3.121
1.008 1.241 3.095
1.153 1.302 2.802
-0.057 0.457 3.678
0.077 0.617 3.523
0.419 0.476 3.519
0.482 0.959 3.264
0.673 1.078 3.130
0.613 1.225 2.723
0.977 1.246 2.571
0.941 1.447 2.191
-0.154 0.290 3.317
0.263 0.418 3.110
0.409 0.648 2.934
0.383 0.784 2.902
0.537 1.062 2.677
0.769 1.289 2.500
0.713 1.341 2.227
-0.067 0.469 2.803
0.190 0.786 2.727
0.315 0.948 2.225
0.318 0.883 1.930
0.475 1.200 1.848
0.219 0.560 2.425
0.077 0.711 1.939
0.422 0.786 1.816
0.455 1.135 1.783
-0.093 0.593 1.670
2.914 3.010 4.699
3.127 3.049 4.243
2.713 2.939 4.202
2.904 2.794 4.206
2.192 2.309 4.279
2.579 2.588 4.278
2.476 2.702 3.969
1.315 0.934 5.849
1.537 1.107 5.482
2.527 2.574 3.742
2.520 2.835 3.701
0.940 0.829 5.934
0.947 0.800 5.605
1.067 1.049 5.327
1.278 1.264 5.145
2.101 2.331 3.845
2.327 2.465 3.343
0.778 0.828 5.958
0.525 0.930 5.994
0.812 0.935 5.812
1.154 1.217 5.564
1.892 2.561 3.614
2.112 2.930 3.417
0.398 0.798 5.919
0.560 0.836 5.620
0.843 1.130 5.529
0.918 0.935 5.164
0.968 1.285 5.027
0.303 0.208 6.061
0.442 0.363 5.871
0.366 0.761 5.527
0.367 0.698 5.346
0.477 1.032 5.034
0.588 1.157 5.006
0.984 1.267 4.786
-0.061 0.304 5.683
0.366 0.483 5.466
0.195 0.890 5.045
0.443 0.763 4.915
0.638 1.013 4.655
0.766 1.329 4.354
0.667 1.184 4.187
0.085 0.366 5.108
0.073 0.436 4.709
0.222 0.838 4.517
0.192 1.047 4.473
0.689 1.061 4.299
0.685 1.185 3.935
0.601 1.483 3.641
0.063 0.719 4.670
0.126 0.616 4.203
0.284 1.056 4.159
0.391 1.042 3.956
0.755 1.299 3.594
0.707 1.305 3.387
0.630 1.693 3.035
0.117 0.547 3.943
0.349 0.599 3.774
0.198 0.910 3.545
0.494 1.086 3.567
0.527 1.153 3.118
0.580 1.329 2.790
0.921 1.484 2.630
0.828 1.804 2.509
-0.011 0.616 3.393
0.128 1.088 3.096
0.494 1.095 2.884
0.388 1.261 2.773
0.634 1.513 2.692
0.580 1.455 2.183
0.857 1.992 2.160
0.226 1.001 2.965
0.210 1.001 2.793
0.308 1.296 2.401
0.497 1.343 2.195
0.618 1.583 2.128
0.596 1.749 1.745
0.111 1.077 2.508
0.286 1.350 2.121
0.263 1.284 2.009
0.490 1.451 1.685
0.007 1.229 2.089
0.139 1.306 1.826
2.464 3.000 4.777
2.823 3.268 4.618
2.643 3.408 4.168
2.458 2.799 4.633
2.349 2.986 4.197
2.513 3.264 4.258
1.996 2.613 4.181
2.472 3.013 4.274
2.429 3.196 3.968
2.051 2.747 4.135
2.229 2.553 3.926
2.420 2.711 3.669
0.448 0.609 6.100
0.826 0.820 5.794
0.700 1.083 5.645
1.105 1.404 5.356
1.754 2.581 3.689
1.887 2.795 3.497
0.301 0.917 6.177
0.477 1.105 5.815
0.691 1.280 5.906
1.720 2.676 3.937
1.758 2.883 3.568
0.254 0.593 6.394
0.284 0.830 6.105
0.230 0.845 5.605
0.374 1.101 5.639
0.680 1.304 5.257
0.639 1.652 5.138
0.003 0.801 5.830
0.239 0.685 5.491
0.146 0.906 5.523
0.213 1.206 4.998
0.360 1.269 4.927
0.756 1.354 4.716
0.046 0.917 5.226
0.193 0.956 4.894
0.517 1.371 4.632
0.470 1.485 4.627
0.111 0.961 4.539
0.295 1.236 4.696
0.247 1.217 4.206
0.296 1.335 3.934
0.430 1.746 3.851
0.088 0.833 4.463
0.289 1.127 4.108
0.296 1.196 3.940
0.345 1.380 3.634
0.610 1.488 3.471
0.534 1.804 3.138
0.047 1.088 3.554
0.363 1.231 3.519
0.474 1.307 3.160
0.522 1.531 2.916
0.727 1.688 2.905
0.582 1.921 2.516
0.925 1.998 2.487
-0.135 1.154 3.296
0.014 1.329 2.959
0.284 1.356 2.816
0.318 1.733 2.553
0.382 1.926 2.358
0.608 1.969 1.981
-0.085 1.277 2.772
0.174 1.584 2.272
0.370 1.698 2.173
0.518 1.771 1.871
-0.100 1.553 2.281
0.147 1.752 1.998
0.354 1.839 1.838
0.104 1.503 1.693
2.101 2.980 4.966
2.167 3.135 4.865
2.371 3.190 4.651
2.750 3.642 4.430
2.030 2.578 4.873
2.014 2.712 4.875
2.108 3.175 4.802
2.449 3.007 4.285
2.398 3.252 4.017
1.994 2.688 4.478
1.877 2.872 4.534
2.138 3.226 4.302
2.022 3.042 3.788
1.536 2.530 4.227
1.919 2.911 4.143
1.861 3.001 3.803
2.224 2.992 3.715
0.512 1.090 6.069
0.471 1.262 5.966
0.610 1.133 5.769
1.905 2.970 3.744
2.054 2.851 3.703
0.158 1.267 6.370
0.173 1.283 6.150
1.299 2.715 3.934
1.607 3.086 3.814
-0.021 1.122 5.863
0.258 1.389 5.760
0.243 1.465 5.452
0.110 1.414 5.220
0.348 1.530 5.307
0.205 1.377 4.917
0.001 1.434 4.861
0.074 1.557 4.252
0.039 1.353 3.982
0.043 1.653 3.808
0.074 1.797 3.193
0.371 1.818 3.099
0.162 1.976 2.951
0.575 2.052 2.618
0.583 2.453 2.378
0.152 1.605 2.876
0.017 1.821 2.625
0.367 2.028 2.239
0.377 2.324 2.271
-0.061 1.982 2.049
0.301 2.157 2.009
0.059 1.923 1.986
1.776 2.735 5.590
1.853 2.976 5.543
1.765 2.864 5.411
2.118 3.372 4.977
2.146 3.483 4.655
2.360 3.565 4.691
2.346 3.720 4.295
1.605 2.754 5.340
1.862 2.754 5.199
1.894 2.967 4.971
1.817 3.398 4.813
2.025 3.510 4.627
2.060 3.713 4.166
1.650 2.785 4.742
1.472 2.823 4.564
1.918 3.134 4.467
1.840 3.156 4.378
2.023 3.373 3.992
1.392 2.951 4.382
1.421 2.890 4.294
1.569 2.948 4.025
1.904 3.379 3.719
0.001 1.368 6.159
0.159 1.486 5.950
1.506 2.831 3.938
1.632 3.084 4.001
2.619 4.508 1.589
2.952 4.764 1.488
2.176 4.072 1.838
2.611 4.346 1.851
2.684 4.543 1.389
2.796 4.824 1.298
2.820 4.955 0.908
2.100 3.858 2.049
1.999 4.127 1.832
2.195 4.289 1.401
2.442 4.249 1.181
2.629 4.563 0.892
2.795 4.810 0.626
2.729 5.025 0.588
1.840 3.588 1.817
1.840 3.667 1.702
2.120 4.103 1.292
2.092 4.224 1.414
2.215 4.386 1.139
2.464 4.348 0.801
2.426 4.733 0.465
2.656 4.662 0.329
2.754 5.018 0.142
1.448 3.452 1.594
1.623 3.659 1.509
1.820 3.620 1.471
2.077 3.953 1.106
2.011 4.252 0.732
1.972 4.329 0.621
2.422 4.426 0.214
2.478 4.790 0.365
1.356 3.328 1.898
1.251 3.182 1.662
1.546 3.549 1.359
1.787 3.647 0.974
1.803 3.709 0.691
1.771 3.878 0.718
2.159 4.106 0.478
2.084 4.137 0.126
1.182 2.956 2.222
1.327 2.955 1.780
1.066 3.115 1.634
0.983 3.202 1.654
0.667 2.402 2.125
0.691 2.728 1.897
1.002 2.848 1.895
1.183 3.070 1.342
0.574 2.411 1.932
0.589 2.742 1.807
0.604 2.746 1.748
0.345 2.305 1.751
0.297 2.276 1.376
0.284 2.049 1.594
4.287 6.341 1.128
2.431 4.068 4.171
2.757 4.024 3.911
2.789 4.104 3.653
3.943 6.040 0.887
2.142 3.555 4.151
2.339 3.827 3.789
2.492 3.957 3.576
4.260 6.120 0.280
1.996 3.536 3.989
2.214 3.588 3.735
2.104 3.651 3.666
2.706 4.450 1.520
2.931 5.007 1.351
2.419 4.365 2.247
2.322 4.638 2.022
2.646 4.938 1.699
1.919 4.413 2.297
2.002 4.292 2.030
2.238 4.526 1.828
2.387 4.590 1.675
2.657 4.715 1.163
2.777 4.859 1.204
1.770 3.808 2.188
1.913 4.215 1.966
1.827 4.247 1.852
1.998 4.387 1.509
2.036 4.443 1.264
2.471 4.628 1.126
2.243 4.878 1.042
1.563 3.466 2.238
1.547 3.600 1.887
1.751 3.995 1.598
1.579 4.258 1.619
2.038 4.251 1.281
2.060 4.489 1.141
2.178 4.597 0.796
2.074 4.656 0.607
2.298 4.791 0.369
1.539 3.445 2.225
1.410 3.484 1.962
1.539 3.778 1.874
1.456 3.942 1.731
1.782 3.898 1.407
1.842 4.236 1.273
1.952 4.435 1.023
1.781 4.300 0.533
2.279 4.547 0.382
1.252 3.365 2.315
1.223 3.546 1.808
1.230 3.259 1.887
1.093 3.510 1.730
1.242 3.737 1.475
1.327 3.852 0.925
1.505 3.849 0.972
1.546 4.343 0.850
1.757 4.161 0.602
0.632 2.691 2.585
0.942 3.053 2.377
0.935 3.382 2.051
1.011 3.386 1.718
0.803 3.345 1.454
1.018 3.313 1.271
1.145 3.528 1.127
0.311 2.851 2.135
0.774 2.747 2.021
0.636 3.174 1.974
1.031 3.229 1.716
0.699 3.091 1.220
0.789 3.383 1.344
0.430 2.496 1.891
0.407 2.863 1.774
0.403 3.061 1.680
0.634 3.069 1.568
0.119 2.505 1.801
0.109 2.646 1.510
0.293 2.746 1.395
0.154 2.637 1.270
0.410 2.480 0.995
3.750 6.243 1.815
3.847 6.269 1.282
2.413 4.277 4.149
3.667 6.238 1.095
2.070 3.930 4.108
3.671 6.165 0.616
3.742 6.363 0.670
1.810 3.686 3.715
3.595 6.115 0.355
2.349 4.716 2.130
2.577 4.509 1.773
2.658 5.028 1.886
2.108 4.730 2.270
2.009 4.776 2.207
2.274 5.093 1.944
2.290 5.207 1.629
1.669 4.282 2.337
1.818 4.464 2.128
2.068 4.533 2.058
2.088 4.928 1.749
2.139 4.800 1.421
2.244 4.902 1.293
1.198 3.847 2.561
1.680 4.182 2.259
1.620 4.385 1.864
1.788 4.547 1.695
2.002 4.559 1.520
1.822 4.816 1.493
2.036 4.911 1.019
1.504 3.867 2.531
1.008 3.760 2.358
1.305 3.849 2.030
1.620 4.242 1.948
1.414 4.525 1.553
1.603 4.537 1.241
1.896 4.837 1.321
1.799 4.965 1.063
1.266 3.502 2.612
1.271 3.654 2.073
1.183 3.616 1.854
1.334 3.804 1.855
1.401 4.104 1.448
1.288 4.037 1.333
1.597 4.523 1.185
1.808 4.459 0.965
1.728 4.677 0.774
0.707 3.228 2.368
0.964 3.505 2.357
0.880 3.817 2.049
0.788 3.475 1.996
0.894 3.807 1.771
1.034 3.873 1.289
1.242 4.002 1.325
1.300 4.079 1.133
0.456 2.936 2.537
0.464 3.407 2.227
0.884 3.388 2.042
0.669 3.450 1.984
0.549 3.583 1.704
0.680 3.487 1.404
0.943 3.700 1.048
1.100 4.056 0.978
0.252 3.032 2.179
0.258 3.075 2.235
0.648 3.458 1.872
0.798 3.338 1.650
0.444 3.368 1.406
0.695 3.398 1.036
0.009 2.675 1.960
0.115 2.844 1.675
0.370 2.948 1.525
0.490 3.448 1.400
0.197 2.995 1.146
0.219 2.732 1.556
0.266 3.119 1.316
0.472 2.986 1.111
-0.139 2.878 1.288
3.672 6.326 1.785
1.849 4.763 2.555
1.982 4.766 2.166
2.186 4.894 1.915
2.174 5.151 1.702
1.718 4.461 2.705
1.701 4.862 2.462
1.789 4.900 2.101
1.844 5.000 1.855
2.036 5.160 1.908
1.461 4.339 2.794
1.514 4.531 2.357
1.516 4.549 2.336
1.833 4.675 1.980
1.753 5.114 1.759
2.030 5.228 1.730
1.236 4.286 2.731
1.030 4.027 2.276
1.181 4.229 2.256
1.478 4.420 2.197
1.406 4.854 1.731
1.490 5.002 1.424
1.613 5.158 1.340
1.812 5.155 1.027
1.123 4.060 2.268
1.063 3.954 2.297
1.261 4.242 1.960
1.330 4.362 1.947
1.445 4.653 1.595
1.462 4.694 1.537
1.533 4.828 1.239
0.835 3.990 2.657
0.875 4.235 2.358
0.823 4.109 1.919
0.984 4.207 1.672
0.935 4.418 1.620
1.281 4.364 1.364
1.397 4.665 1.023
1.608 4.856 1.065
0.378 3.569 2.361
0.667 3.630 2.181
0.966 3.727 1.902
0.806 3.811 1.949
0.863 4.079 1.699
0.839 3.936 1.476
1.082 4.277 1.297
1.157 4.364 1.177
0.279 3.270 2.487
0.549 3.520 2.269
0.397 3.630 2.110
0.641 3.622 1.763
0.611 3.464 1.693
0.731 3.712 1.304
0.853 3.816 1.342
0.050 3.298 2.461
0.285 3.372 1.910
0.485 3.393 1.720
0.610 3.499 1.818
0.450 3.443 1.364
0.366 3.537 1.060
0.069 3.230 1.981
0.315 3.526 1.551
0.325 3.668 1.594
0.230 3.396 1.063
0.296 3.482 0.881
0.216 3.463 1.349
1.987 4.867 2.453
2.014 5.067 2.500
2.366 5.146 2.169
1.701 4.601 2.725
1.724 4.961 2.514
1.979 5.022 2.195
2.114 5.037 1.874
2.124 5.268 1.932
1.346 4.690 2.781
1.712 5.124 2.602
1.750 5.280 2.424
1.921 5.201 1.940
1.867 5.621 1.914
1.168 4.480 2.534
1.256 4.769 2.672
1.430 4.770 2.181
1.643 4.959 1.977
1.752 5.230 1.662
1.669 5.511 1.801
1.008 4.620 2.691
0.966 4.392 2.465
0.969 4.581 2.400
