32.416023 92.13684 44.356316
32.753025 93.83784 43.024315
47.536022 76.28884 32.286316
45.734024 76.21884 31.716316
40.230022 73.34184 25.868315
40.755024 71.00984 25.975315
49.23102 65.58984 59.593315
50.428024 65.77784 0.9823189
60.88402 64.68284 3.9863129
62.208023 64.49284 5.484314
10.4620285 61.548843 9.7973175
11.9470215 61.411842 8.260315
17.179026 52.42384 2.59832
15.787025 51.620842 4.36232
68.34003 24.20284 21.979317
68.04402 22.74884 20.489319
4.1720276 31.09284 15.151314
5.9500275 29.07884 15.289314
20.253025 39.424843 11.3583145
22.676023 38.08984 11.096313
25.345024 49.80284 9.23732
23.355024 51.250843 9.175316
18.598024 76.32784 17.247314
17.752024 75.27984 15.985313
24.700024 81.63684 8.558319
23.712025 81.61884 6.504318
20.456024 66.65984 9.913315
19.386024 64.47284 9.997314
25.524025 57.840843 6.6223145
24.252024 57.297844 4.2383194
6.602028 56.369843 21.339317
5.149025 57.40084 20.180313
1.8340225 64.29884 18.013313
0.60502625 66.03084 18.41732
10.967026 85.42984 27.054316
10.089027 86.00784 24.760317
17.325022 87.825836 16.982315
15.768021 87.46184 15.374313
63.571022 62.74084 3.8003159
65.11703 64.46984 3.75132
1.847023 56.14984 6.6343155
69.34802 54.69384 5.923317
51.071022 54.92184 56.486317
52.285023 52.40584 56.909317
39.866024 50.54584 58.577316
40.399025 52.258842 57.717316
51.12102 37.47884 39.236317
50.25902 36.26284 41.205315
44.535023 39.19884 49.873318
44.733025 39.01884 52.067314
18.405024 21.58184 15.288315
20.130024 20.17884 15.221313
25.071024 28.448841 21.143318
23.902023 30.08984 21.575317
65.67203 46.688843 13.674316
66.383026 48.50484 12.991318
60.230022 58.14284 10.038315
58.425022 57.307842 10.949318
53.30202 21.694841 35.307316
52.03702 20.15584 36.894314
46.751022 27.74084 31.981316
44.501022 28.65084 32.838314
34.986023 72.75984 42.451317
36.438023 74.17384 42.645317
42.948025 76.67384 50.525314
45.613026 77.11884 51.520317
27.205025 23.026842 32.549316
28.076025 21.897842 34.041317
24.018024 11.500839 39.173317
22.297024 10.843842 37.835316
64.03503 49.65584 32.339314
62.505024 49.716843 33.660316
66.095024 38.52084 36.927315
64.04002 38.11884 35.263317
3.9830246 93.24984 12.401314
4.4810257 94.92684 11.461319
3.2940292 5.7988358 20.402313
3.5150223 7.74984 21.204315
12.532021 17.556839 18.114319
11.808022 18.084839 20.364319
3.2570267 11.616837 13.787315
3.2890244 8.987839 14.771317
33.595024 89.659836 14.1983185
34.232025 91.74784 15.41732
40.920025 2.4408417 9.881317
39.612022 3.9548416 10.438316
46.448025 6.367836 27.223314
48.058025 7.757843 26.074316
39.730022 15.199837 27.170315
38.390022 17.080841 27.518314
67.51803 86.66884 52.631317
66.74902 88.147835 53.944317
4.6200256 93.93384 58.743317
6.6150284 93.57284 59.303318
42.050022 49.10284 8.142319
41.819023 50.30984 5.867317
45.742023 44.42984 58.355316
48.185024 45.03884 57.887318
48.928024 42.619843 27.900316
46.905025 43.76784 28.07532
45.541023 45.20484 17.079315
43.481026 44.20784 16.197319
31.353024 92.40784 40.089317
33.630024 93.87784 39.856316
38.502026 92.37084 30.193316
38.055023 90.44284 29.273315
49.403023 71.00384 49.469315
49.181023 71.10584 46.743317
45.858025 70.05984 38.637314
45.343025 70.83984 36.775314
30.607025 54.043842 32.884315
32.582024 52.521843 33.350315
44.324024 49.27384 30.586315
44.534023 51.091843 29.691315
23.398024 70.50984 9.77932
22.808023 71.41284 12.221313
12.781024 71.63684 4.768318
12.008024 72.44484 3.3233185
14.656021 8.74984 19.062317
12.390022 9.093842 19.873314
8.538025 12.4448395 20.253319
9.750023 13.147842 18.146317
48.942024 1.4418411 23.116316
47.252026 0.55384064 23.038315
49.28102 86.37984 19.955315
47.033024 85.74184 19.565315
49.902023 18.177841 46.220314
50.75202 20.035841 47.519318
52.137024 27.31484 46.570316
53.296024 29.29684 47.057316
3.4710236 35.50584 30.693316
2.8790283 33.51984 29.853315
10.417023 31.71784 20.038315
10.085022 29.58584 21.145315
41.199024 85.93084 2.2393188
39.988026 84.70784 4.553314
41.405025 73.96984 7.996315
43.859024 73.28884 8.072319
54.466022 45.55284 9.377319
53.612022 45.230843 7.2753143
44.119022 43.25484 8.694313
42.910023 41.22284 9.194313
61.05802 34.43784 43.090317
59.776024 34.95884 40.870316
64.84902 47.58084 41.112316
67.189026 47.15684 41.100315
24.732023 81.84584 1.5363197
24.535025 79.73384 2.2053185
14.354024 78.91384 3.0543175
12.019024 79.311844 3.5213165
7.2210236 50.55184 51.536316
6.4590225 53.147842 51.821316
11.012024 61.92684 54.201317
12.992027 62.540844 52.042316
3.3860245 68.82484 40.984314
3.4300232 67.89784 39.134315
63.827023 61.842842 38.654316
64.97603 59.81584 38.000317
47.482025 57.784843 48.247314
46.240025 59.397842 47.700317
48.256023 55.05984 38.223316
45.913025 54.89584 38.934315
10.195023 10.370842 7.5453186
9.734024 11.131836 10.290314
14.856026 4.0108414 13.477318
16.896029 2.8348389 13.970314
34.938023 65.93484 36.622314
36.233025 68.46084 36.433315
44.971024 62.24784 43.942314
43.896023 62.619843 45.646317
64.48902 15.481842 23.290316
64.78203 17.44384 21.495316
58.30202 11.347839 13.401314
59.339024 11.852837 10.990318
33.477024 67.90684 38.005314
31.829025 69.11384 39.268314
20.509024 67.20284 38.752316
19.292025 65.81984 39.892315
9.308029 59.486843 57.096317
8.554024 60.884842 58.173317
16.417023 65.90584 50.086315
14.407021 65.71784 49.386314
47.552025 84.96884 39.621315
46.488026 84.64684 37.756317
36.815025 90.425835 35.237316
38.048023 91.57084 33.302315
45.634026 41.285843 21.818314
45.581024 42.33784 20.425316
44.464024 44.370842 12.214317
45.067024 45.60384 14.072319
49.46102 96.479836 10.414314
48.567024 1.4128418 8.420319
59.89202 1.2838364 11.192314
61.714024 1.7088394 10.532318
64.344025 1.0668411 49.127316
63.771023 3.2238388 48.628315
67.23702 6.2208405 37.263317
66.441025 4.148842 36.063316
36.412025 68.18284 45.569317
35.241024 70.00784 47.094315
45.897022 72.10484 51.373318
46.154022 74.35784 51.686317
55.735023 84.20684 3.7793198
55.423023 86.00184 5.760315
52.668022 95.35084 0.26431656
54.408024 95.980835 59.339317
12.914024 94.23984 25.001316
10.987022 95.37984 24.650314
3.852028 7.0618362 24.709314
5.6050262 7.8018417 23.383316
8.763023 63.367844 47.253315
10.617027 63.76784 45.895317
9.232025 65.89784 35.603317
10.288025 67.48284 34.085316
38.447025 41.39484 32.742317
38.147022 41.432842 30.330315
36.468025 37.22684 21.724316
36.897022 38.93084 21.455315
26.628025 36.16384 5.708313
28.755024 35.73684 6.5373154
39.316025 39.224842 7.6983185
40.103024 40.667843 9.087318
4.154022 19.05584 6.324318
6.153023 20.682838 6.864319
15.169022 24.32184 10.620316
16.262024 22.73484 11.599319
27.925024 96.51484 40.663315
30.235023 0.33983612 39.387318
34.806023 0.117836 47.387318
34.879025 94.39384 47.174316
53.78102 21.384842 49.617317
55.213024 23.139841 50.837315
55.811024 21.352837 0.2633171
56.09302 20.08184 2.468319
43.116024 40.243843 21.670315
40.302025 40.44284 21.841314
36.160023 34.682842 30.907314
35.309025 32.61584 29.891315
12.376022 77.41584 1.4743195
10.310028 77.09384 0.37431717
5.0650253 69.32384 58.280315
2.2320251 68.75684 57.208317
24.050024 62.034843 4.857315
24.365025 63.910843 3.4193192
24.614023 56.113842 59.583317
26.377024 57.710842 59.93432
59.373024 88.92784 2.079319
58.341022 89.78184 60.522316
53.876022 90.383835 52.456314
55.03702 91.425835 53.324314
65.09003 75.04584 28.459314
63.967022 73.79884 27.299318
68.10203 70.38184 17.552315
0.36802673 70.87184 17.248314
23.187023 89.90784 13.250313
23.479025 90.27684 10.847313
23.294024 90.425835 5.3213196
23.511024 91.36584 3.3653183
37.529022 43.84584 35.425316
38.066025 44.16984 33.148315
45.289024 52.29884 39.154316
44.782024 50.050842 39.971317
38.151024 68.63684 55.832317
36.633022 69.88284 56.988316
31.084024 67.45884 0.32831955
29.790024 67.15184 1.8803177
28.290024 58.805843 0.54631805
27.927025 61.19784 60.33732
39.374023 61.856842 57.806316
39.138023 64.033844 58.725315
20.176023 91.15484 23.933317
21.945024 92.63484 23.545317
30.635025 88.14284 15.80632
32.540024 89.29184 16.492317
51.88502 72.20584 10.157318
50.166023 70.94584 9.674316
48.540024 59.91284 6.770317
48.799023 60.723843 4.520317
16.046024 47.495842 13.208313
16.650024 45.667843 14.013313
17.861025 43.32384 4.095314
19.492023 42.97284 2.5073166
23.057024 30.77784 12.48732
24.383024 31.882841 11.228317
25.887024 31.851841 4.84832
26.282024 33.56984 6.8823166
51.165024 30.84184 37.551315
51.17602 30.79984 39.945316
49.48102 27.87384 46.268314
50.263023 28.531841 48.402317
32.988026 5.0438385 23.07032
32.544025 3.4268417 24.919317
32.002026 95.826836 15.536316
31.969025 95.479836 13.295319
19.269024 62.931843 25.233315
19.759024 61.124844 27.366316
29.815023 58.76184 23.493315
30.858025 59.50384 21.621315
4.8410263 55.735844 24.107315
4.453026 57.409843 25.695314
0.38202667 57.30984 35.924316
68.67403 55.735844 36.905315
42.900024 32.883842 59.125317
42.390022 34.134842 60.590317
35.812023 40.209843 59.06632
33.710022 39.14284 57.838318
22.346024 76.20884 24.617315
24.269024 77.22984 22.349316
34.122025 73.29884 23.370316
35.416023 71.69784 24.457315
25.344025 40.307842 3.7543182
23.274025 42.13784 4.5773163
18.475025 44.08084 15.283318
18.444025 41.95184 16.091316
17.585024 11.773842 27.435316
18.995024 10.911842 26.396315
26.672024 12.128838 31.200315
26.154024 13.0058365 33.648315
51.667023 56.23984 17.851318
49.65502 56.604843 18.451317
53.983025 61.27484 25.266317
56.055023 61.689842 26.608316
9.627022 9.459839 15.938316
7.218025 10.038841 15.256317
7.764023 96.11484 18.28032
6.824028 94.26584 18.206314
53.619022 77.38784 24.266315
53.146023 75.11984 24.904316
44.640022 72.30284 32.060314
44.980022 71.20884 34.256317
5.364029 90.049835 46.726315
5.1520233 88.66584 49.039314
1.2070236 1.8088379 51.623318
3.3050232 2.382843 50.555317
5.0610275 89.30984 28.769316
7.2590256 90.25284 29.180315
10.722023 93.09684 39.221317
8.379028 94.133835 40.455315
27.781025 63.60284 19.685318
26.653025 63.258842 17.665314
21.043024 62.133842 16.743317
22.692024 61.86484 15.409317
52.103024 90.66484 13.910316
52.887024 88.257835 14.466316
51.922024 81.87984 21.090317
51.66202 79.76884 21.995316
62.13402 95.18084 46.744316
60.101025 94.04684 47.849316
62.424023 93.340836 40.605316
63.054024 93.19084 38.443314
46.379025 67.28984 34.608315
45.701023 65.73984 33.033314
56.872025 62.001842 29.206316
58.956024 62.95584 29.611315
41.403023 7.3438416 11.489319
41.066025 9.064842 11.257317
46.372025 3.0158386 12.260315
46.920025 2.3288422 14.106316
38.593025 32.32384 21.907318
38.929024 29.86984 21.326317
36.848022 20.80684 21.969315
34.565025 19.95284 22.14132
54.08602 4.810837 22.763313
56.630024 4.507843 22.41932
63.57902 6.4948425 20.481316
65.39202 6.964836 21.545319
26.031025 12.700836 12.664314
24.901024 11.727837 10.649315
14.3130245 8.551842 6.046318
15.185024 6.9168396 6.5713196
56.730022 15.225838 53.695316
56.109024 15.047836 51.244316
57.691025 26.371843 47.018314
56.297024 25.902842 49.116318
36.743023 86.66784 30.756315
39.034023 85.73884 30.729315
37.814022 87.049835 17.320314
38.100025 84.26384 17.492315
25.767025 29.618841 15.077316
26.934025 30.524841 13.330315
34.962025 36.98484 18.218315
34.295025 37.64484 20.485313
16.08702 15.895836 48.672318
13.972023 16.218842 50.534317
7.544029 21.968842 56.111317
6.9500275 23.55984 55.53132
66.508026 52.42684 38.909317
66.07002 54.252842 37.231316
57.462025 59.14284 32.178314
57.360023 57.166843 30.791315
63.049023 42.703842 53.606316
63.852024 43.85184 51.758316
59.46102 50.286842 47.983315
58.89902 50.43784 45.605316
34.165024 89.050835 19.724316
31.958025 89.37284 21.255316
36.275024 0.8598404 26.903315
36.988026 3.0058365 25.747314
26.903025 54.634842 59.811317
29.324024 54.01684 58.313316
34.210022 50.70884 48.393314
35.251022 52.18084 47.333317
0.45002747 3.8378372 56.717316
1.9330292 2.6758423 54.390316
11.217026 95.21384 57.436317
9.530029 94.98584 59.19132
10.8370285 64.91284 6.449318
9.420029 67.00484 6.9483185
1.649025 61.40584 6.3023148
2.576027 59.633842 5.0193176
57.317024 75.67884 54.269318
56.441025 77.77084 53.722317
65.45702 85.93184 50.195316
67.12903 84.60484 49.753315
10.292023 26.51684 46.300316
10.345024 27.81784 44.271317
17.490023 30.22384 39.572315
19.13103 30.413841 38.113316
36.708023 76.88684 54.877316
35.151024 76.32184 56.697315
24.399025 81.01184 59.239315
22.767025 80.41084 57.776318
51.708023 25.65484 23.421314
50.125023 24.74484 23.735315
40.457024 20.45784 24.713316
42.986023 19.80084 24.910315
10.793022 71.09384 0.78831863
9.794029 70.56684 2.574318
0.97302246 62.943844 58.251316
68.94903 63.99784 56.389317
49.755024 63.09484 0.11831665
48.938023 61.082844 0.76431656
55.806023 57.383842 9.791313
54.832024 56.745842 11.44532
47.297024 72.46484 39.324314
48.069023 70.84284 40.533318
49.568024 73.84584 51.135315
48.658024 74.92484 52.596317
32.834023 51.65884 6.7213135
30.890024 49.73284 6.3183136
36.319023 52.625843 11.226318
38.101025 53.521843 12.229317
17.765024 93.42984 24.153315
18.10303 95.18584 25.073315
12.691025 93.465836 35.788315
13.71302 94.812836 37.095314
22.898024 12.932838 55.871315
24.764025 13.469841 55.961315
32.616024 19.575836 55.89932
31.248024 20.238838 56.943317
33.706024 81.65284 51.750317
32.897022 79.96284 52.532314
25.719025 74.71784 49.087315
25.690023 74.69784 46.941315
6.375023 0.5858383 0.39031982
4.4260254 1.0978394 60.687317
4.8250275 11.771843 59.192318
5.5110245 13.502838 60.438316
53.443024 34.83984 41.029316
55.455025 35.49384 40.075317
49.304024 38.89484 34.006317
49.61402 38.85184 36.309315
37.516026 70.04984 53.730316
35.052025 68.26384 53.955315
28.453024 73.43984 47.269318
27.411024 73.51284 45.072315
32.943024 31.292841 4.5773163
33.431023 30.340841 6.847313
38.396023 34.45984 16.365318
39.394024 32.758842 17.402313
65.36603 70.14884 30.586315
64.649025 71.98684 29.180315
55.366024 72.01084 34.487316
53.222023 72.00984 34.698315
59.30902 65.71884 30.269316
57.382023 65.55084 30.194315
52.397022 68.43184 36.206314
50.466022 68.00384 37.770317
15.068024 38.82084 5.659317
13.051025 39.738842 6.175316
9.246025 40.25384 17.676315
11.774025 40.76084 18.536316
49.710022 82.46184 14.201317
51.373024 83.02284 12.143318
53.06502 74.93884 14.632317
50.351025 74.22984 15.510315
17.141024 49.98584 46.937317
17.402025 52.01184 47.948315
17.512024 47.44284 54.361317
18.315023 45.75684 55.10832
8.518028 1.4768372 4.5093155
8.314026 4.094841 4.4273148
0.43402863 9.156837 10.808319
67.68402 10.394836 10.535316
22.154024 16.171837 9.7973175
23.876024 16.298836 10.856316
25.949024 27.079844 4.998314
26.075024 26.26684 3.2313194
22.071024 33.19184 59.641315
23.905024 31.329842 59.898315
17.441025 35.67084 1.9133186
16.534025 35.08484 4.3803177
23.073025 80.01684 27.468315
23.311024 80.25384 29.767315
23.082024 84.85384 22.642315
21.278025 83.90184 22.243315
12.156021 77.27184 41.103317
13.4470215 76.13784 43.084316
4.7610245 71.11184 41.912315
2.6840286 70.65184 42.641315
37.993023 50.738842 9.47332
35.751022 50.271843 9.178314
35.144024 41.084843 3.5683136
35.970024 39.39984 5.0773163
41.617023 58.89384 56.228317
39.153023 58.568844 56.437317
38.799023 50.717842 3.8743134
39.260025 51.70884 6.003319
0.9940262 51.40884 24.671316
2.975029 51.96884 25.626316
10.607025 46.78484 32.118317
12.048027 45.45784 30.911316
27.738024 1.9978409 38.222317
26.989025 3.5598373 40.146317
25.680025 0.5658417 31.151316
27.076025 2.0248413 30.358315
56.803024 41.00384 26.710316
55.14802 40.369843 27.803314
47.355022 43.74884 31.967316
46.911022 45.20484 30.456316
30.844025 74.18484 31.688314
30.707024 71.63684 30.761314
29.356024 66.44084 21.186316
30.373024 64.15784 20.697315
13.041023 35.35784 28.627316
11.18502 35.29184 27.683315
11.988022 38.22584 32.763317
11.823021 40.10284 33.703316
63.747025 30.951841 8.595314
64.59802 30.23784 6.727318
57.21102 24.08884 1.3343201
56.344025 22.81584 3.2143173
6.078026 61.89484 24.165316
5.3840256 59.679844 24.320318
64.20802 60.97784 19.375313
65.940025 60.85884 17.245316
59.896023 37.70984 37.338314
60.362022 37.31084 35.358315
62.713024 40.771843 26.129314
62.784023 39.81084 24.083315
57.93302 74.20984 33.252316
58.888023 76.14284 32.325314
51.458023 81.89184 25.635315
49.758022 81.13184 23.560316
62.66302 5.4918365 2.1893196
61.768024 3.4408417 0.99731827
63.696022 3.3768387 51.753315
64.454025 1.0458374 52.102314
18.487024 24.46784 34.777317
16.78202 23.77684 33.293316
6.661026 28.63884 32.633316
7.4900284 26.555841 32.707314
47.318024 31.760841 25.694315
46.855022 32.69384 27.940315
49.352024 36.32384 36.855316
48.414024 35.14184 37.721313
40.415024 82.07484 40.999317
41.003025 84.09784 41.788315
35.068024 85.90784 33.022316
36.293022 83.84084 31.650316
41.391026 51.64884 9.495316
43.198025 51.237843 10.391319
53.55102 53.46584 13.934319
53.903023 55.464844 14.122314
45.192024 93.633835 41.388317
45.790024 92.229836 39.834316
44.251022 91.11184 31.903315
46.846024 91.20484 32.267315
67.53503 25.510841 24.328316
67.78403 28.059841 25.152315
60.660023 20.906841 29.249315
58.964024 19.90884 30.534315
69.189026 72.87984 57.39332
0.7420273 71.78084 55.569317
2.736023 78.44584 46.728317
5.0270233 78.00184 46.010315
37.842022 65.05084 29.427315
35.980022 64.61084 30.468315
29.815023 66.73184 32.252316
30.896025 68.68584 31.945316
46.812023 52.82384 30.093315
48.463024 54.60884 28.921314
49.45402 55.724842 34.707314
51.339024 55.299843 34.301315
57.89102 93.48584 11.958313
57.85002 96.03984 11.132317
55.728024 4.2838364 17.952316
54.27402 6.532837 16.897316
49.799023 28.295841 0.62231827
47.857025 26.892841 1.7463188
50.99502 31.83884 11.777313
50.138023 34.18684 11.798317
14.498024 47.17184 5.276314
15.7280245 48.96184 4.730316
21.401024 44.863842 1.6573181
23.304024 44.752842 1.0813179
9.8340225 11.307838 13.014313
7.2590256 11.208839 12.875313
6.3820267 22.022842 17.124313
5.3030243 22.022842 19.065315
46.838024 62.973843 0.18031693
45.784023 63.945843 2.2623177
50.060024 55.492844 6.0923157
51.213024 53.40884 5.651314
22.089024 43.67084 54.958317
21.423023 45.807842 55.964317
26.757025 54.32284 49.522316
25.748024 55.680843 48.389317
15.320023 68.37784 5.355316
14.831024 68.14484 2.8533173
16.980028 60.492844 55.575317
15.188026 59.346844 56.661316
11.064026 47.924843 6.713318
11.929024 48.86184 5.2413177
0.4740219 49.06084 0.24631882
68.189026 49.196842 1.5103188
5.308029 90.69484 16.257317
5.6030273 89.61584 17.892319
10.580025 80.32184 20.026314
10.556023 78.50184 18.66732
24.242023 59.03284 56.87932
25.831024 57.49084 56.97632
32.002026 57.41284 48.262318
30.060024 56.584843 48.505318
34.645023 54.028843 43.787315
36.192024 52.848843 44.535316
31.208025 42.81784 46.183315
28.513023 42.328842 46.359314
3.9260254 35.35484 35.244316
2.227028 33.12484 35.638317
4.4540253 25.83684 45.382317
6.489029 27.170841 46.195316
41.706024 30.67284 49.109314
42.147022 30.982841 51.415318
34.193024 32.02184 46.710316
33.820023 30.23084 46.145317
43.918022 68.66784 34.068314
42.540024 69.83084 33.005314
33.219025 73.21684 33.990314
32.842026 71.72084 32.439316
29.675024 46.18084 35.065315
28.526024 44.41584 33.484314
28.106024 37.63884 41.444317
25.976025 38.17084 42.472317
42.444023 37.25484 59.723316
41.994022 35.20684 57.52532
37.652023 44.18484 53.484314
37.564022 44.26784 55.815315
57.49502 56.10184 19.240314
58.24602 57.02584 21.061316
64.441025 50.24084 29.617315
63.832024 48.05384 29.953316
1.088028 22.64784 43.008316
1.8080292 24.785841 43.642315
4.413025 27.34384 48.230316
5.321022 28.99784 49.302315
38.480022 43.605843 50.205315
38.777023 43.99784 47.782314
35.482025 39.05384 38.939316
33.866024 38.043842 38.109314
61.015022 86.80884 2.8773193
59.567024 87.71984 4.7353134
0.33202362 85.39684 11.090317
1.5150223 87.08384 10.312317
14.2960205 38.279842 29.065315
11.953026 37.68184 29.066315
7.653023 45.85484 21.847315
6.2730255 46.03884 19.808315
6.411026 73.77984 19.082314
4.951027 75.43884 18.333313
2.4100266 84.77884 13.8583145
0.015022278 84.12384 13.555313
60.151024 81.83484 59.717316
59.37802 81.80384 57.164318
63.089024 88.44884 50.086315
64.16702 89.69984 51.125317
59.193024 19.190842 25.311316
60.702023 18.159836 27.110315
57.702023 7.889839 28.677315
55.852024 7.677841 29.533316
59.157024 27.98784 33.802315
60.118023 27.99684 31.999315
0.8450241 31.489841 28.557316
0.77602386 33.84384 27.977316
13.6970215 50.84384 7.600319
11.431023 50.95584 7.5823135
8.793022 60.869843 12.27932
6.703026 61.903843 11.447319
10.506027 23.85084 35.885315
12.678024 23.24584 34.445316
17.282022 20.59884 45.726315
16.00402 22.98784 45.639317
2.125023 16.339836 34.812317
2.7930222 14.811836 35.836315
7.5350266 6.058838 35.777317
7.119026 4.143837 34.117317
67.273026 7.2208405 4.8633194
65.33502 6.1528397 3.5093155
67.762024 9.995842 56.040318
69.46002 8.807838 55.431316
67.483025 44.653843 52.573315
66.136024 43.134842 53.004314
2.4360275 35.05984 49.768314
2.8040237 32.92784 51.375317
33.798023 55.62884 46.987316
36.130024 54.72784 46.530315
46.211025 57.57484 50.668316
47.010025 56.01884 51.505318
67.134026 15.309837 33.507317
65.872025 17.242836 33.032314
68.03102 8.245842 33.587315
67.59003 6.0858383 34.511314
21.410025 54.67084 1.5593185
19.646025 54.80184 2.8663177
15.013024 63.703842 7.034317
12.868024 63.008842 6.4173203
44.959023 27.09284 47.173317
47.031025 26.63384 47.857315
45.243023 27.47484 58.375317
44.285023 29.49584 58.67032
11.9590225 35.84884 7.0353165
11.814026 37.41484 5.52932
3.196022 34.90784 5.2853165
1.0800247 34.42084 3.930313
47.515022 3.3248367 45.700317
49.451023 3.5998383 46.859314
48.865025 6.0748367 53.358315
48.671024 7.8498383 53.005318
30.713024 3.8258362 32.291317
31.911024 5.5418396 33.534317
38.314022 13.406837 35.922314
38.375023 12.910843 38.458317
44.871025 84.14184 53.591316
45.251022 85.11184 51.907314
53.578022 81.79484 55.993317
52.310024 80.13184 55.320316
11.56002 92.188835 25.991316
10.940025 90.29384 24.786316
21.420023 89.493835 29.636314
22.219027 91.47384 28.977316
23.390024 80.07284 23.517315
25.361025 80.37484 21.442316
23.609024 76.02484 29.885315
24.222025 77.53184 31.442316
12.768021 87.772835 1.2803192
11.734024 89.508835 2.2573166
8.475029 82.05784 56.324318
7.756027 82.77784 54.501316
20.740025 43.792843 17.697319
22.654024 42.376842 17.759315
16.499023 38.72684 27.070314
14.247025 37.88184 25.738317
26.531025 68.94384 0.5373192
28.839024 68.97584 0.3843193
30.395025 76.67184 8.002319
31.715025 78.58584 8.447319
25.853024 41.28284 55.523315
25.563025 41.28784 53.209316
27.716024 29.18584 51.652317
26.909025 28.44984 53.427315
20.458025 22.66784 33.065315
21.602024 22.843842 34.706314
21.272024 20.201836 43.094315
21.989023 20.509842 45.400314
58.80202 69.63084 16.41732
59.186024 70.82284 14.354317
56.06502 59.03884 12.694313
53.973022 58.33084 13.541313
29.643024 13.691841 36.770317
29.527025 13.433838 34.334316
29.984024 6.1738358 28.871315
28.687025 4.2678375 29.654316
68.496025 38.00584 40.980316
67.04803 36.35484 41.201317
62.39802 32.20284 48.187317
60.35702 32.112843 48.530315
43.086025 59.340843 23.062317
42.556023 61.257843 22.229317
46.488026 59.277843 11.915314
46.925022 61.078842 10.953316
62.36302 13.851837 5.8133163
61.227024 11.835838 4.826317
58.952023 12.169838 56.064316
59.86402 12.548836 54.106316
64.06802 88.75284 13.802315
64.65903 91.01584 13.035316
2.0910263 93.64184 10.000313
2.1880264 95.66684 9.034317
33.749023 13.147842 59.735317
33.694023 13.976837 1.2673187
33.174023 13.897842 7.784317
35.378025 13.379837 7.0943146
22.018024 54.19284 20.94532
23.020023 54.45184 19.157318
32.060024 52.34484 18.702316
33.746025 52.11084 18.41732
60.24502 1.0278397 14.373314
59.826023 95.814835 13.553314
62.671024 91.175835 22.453316
62.189022 89.62184 24.507315
30.671024 24.416842 47.921314
28.660025 23.58784 48.904316
28.597025 14.939842 42.172318
27.092024 14.323837 40.669315
58.094025 16.465836 23.396315
55.75902 17.01184 22.256315
54.01002 19.330841 34.273315
56.198025 18.662842 35.095314
44.115025 43.89984 52.236317
44.551025 42.08284 51.155315
45.864025 50.52484 43.706314
45.917023 48.640842 42.173317
8.250023 40.521843 50.416317
7.653023 38.71184 48.756317
67.98003 42.81584 45.255318
66.289024 41.848843 44.491318
54.776024 26.368841 14.186317
52.50202 27.14784 13.05632
61.782024 23.344841 16.159317
63.27302 24.628841 14.839317
26.736025 34.80184 17.562317
26.382025 35.752842 19.647316
33.535023 41.66484 16.824318
34.536022 43.835842 15.801315
58.720024 80.34184 41.096317
58.435024 80.75084 39.204315
52.626022 86.30984 33.713314
54.783024 86.63384 32.397316
6.2810287 6.174843 40.320316
4.996025 7.5368423 39.351315
69.75102 16.38984 42.043316
69.07202 16.794838 44.103317
35.176025 17.254837 22.75132
34.016026 16.835838 24.545317
28.204025 13.752838 16.087318
26.011024 14.673836 16.733315
15.685024 40.18784 2.461319
17.145025 41.90884 1.7403183
16.215025 36.40584 53.116318
17.714024 36.237843 51.705315
23.595024 71.58784 49.151318
24.490025 72.12484 47.143314
19.561024 81.87984 42.835316
21.218023 82.40284 41.630318
29.453024 27.281841 50.770317
30.884024 28.83184 51.253315
40.281025 29.847841 56.46932
41.714024 28.927841 57.605316
27.800024 40.36584 51.655315
28.454025 40.04884 49.349316
30.536024 32.51684 42.927315
29.826025 34.43784 41.935314
35.577023 84.53984 16.222313
35.691025 82.67984 17.259315
31.847025 80.47184 27.724314
33.421024 81.72884 29.425318
51.653023 19.19484 21.866318
53.03802 18.246841 20.651314
44.443024 11.199837 22.299316
44.746025 9.764839 24.154318
50.091022 12.066841 9.68232
48.819023 12.636841 7.560318
38.478024 16.838837 9.553314
37.198025 15.092842 8.701317
13.336024 33.13984 60.584316
15.194024 33.626842 1.4693184
24.482023 28.69384 0.4923172
26.243025 28.95784 2.2833176
39.839024 10.187836 38.492317
37.818024 8.775841 38.214314
41.274025 10.308838 45.879314
41.630024 12.9448395 45.165318
11.225021 16.148842 47.746315
11.556023 17.955841 45.986317
3.2160263 20.016838 39.796314
1.0470276 19.834839 40.386314
64.97502 40.31184 59.012318
66.98902 40.674843 59.584316
65.44702 42.57684 9.089317
63.971024 44.37284 9.722313
67.29002 42.876842 42.182316
0.011024475 43.29584 42.859314
6.109024 47.536842 40.565315
5.5370255 47.21484 38.439316
64.800026 76.71984 43.638317
63.703022 75.00184 44.234314
67.44302 66.25484 43.768314
66.662025 67.10684 45.926315
57.869022 3.3998413 4.5313187
59.047024 4.2678375 2.3533173
55.436024 92.98284 55.78832
56.443024 94.96384 54.646317
21.333025 93.81684 56.329315
20.255024 95.55384 55.284317
13.878024 5.365837 2.9203186
14.660025 6.4498367 3.9913177
22.774025 86.75284 32.996315
21.604025 88.49984 34.065315
13.619024 81.37384 30.831316
12.961024 82.93284 33.004314
9.950027 66.37784 47.480316
12.0490265 66.96284 48.653316
15.06002 66.98484 36.223316
15.979027 69.28584 36.755314
62.720024 19.46784 26.043316
61.470024 19.06884 24.555315
57.555023 26.72184 28.058315
57.331024 28.816841 28.228315
52.28802 91.37384 41.141315
53.65602 92.90184 41.388317
53.23202 93.979836 54.041317
52.407024 91.618835 54.619316
61.93302 13.284836 48.101315
63.042023 14.079842 46.019318
63.96802 25.673838 47.838314
63.76702 27.538843 49.125317
65.135025 12.533836 14.215317
64.356026 10.044838 14.202316
55.854023 6.0698395 20.08532
53.978024 6.99984 21.00132
13.503021 36.59784 53.351315
13.848022 33.83484 53.973316
11.553024 29.24284 1.8243179
13.045021 31.652842 1.8973198
4.817024 60.138844 8.332314
5.0700226 61.222843 6.0523148
14.289024 58.276844 59.527317
16.565025 59.408844 59.299316
24.293024 27.97584 29.950315
26.436024 27.17384 31.139315
32.669025 34.36784 31.572315
33.788025 36.14984 31.223316
54.487022 41.22084 46.771317
52.324024 42.59584 47.159317
54.974022 42.58884 55.666317
53.479023 41.035843 54.801315
20.830025 70.83084 57.938316
22.497025 72.31884 56.60832
26.293024 71.91784 49.613316
27.416025 70.95884 47.688316
55.507023 23.587841 35.010315
57.05202 25.038841 34.485317
60.115025 30.660841 32.685314
59.721024 30.53284 30.026316
64.651024 37.90584 60.050316
64.04202 36.995842 1.0253181
65.31103 27.65084 57.417316
66.89403 25.70984 58.165318
2.3040237 35.97784 37.920315
0.8150253 37.613842 39.143314
67.176025 44.99184 29.505316
66.428024 46.69484 30.526316
67.22302 90.925835 36.029316
68.345024 91.98884 34.176315
4.826027 91.410835 44.500317
6.2330246 93.03284 44.972317
1.312027 21.758842 3.1533165
1.8160248 18.945839 4.6603165
12.142021 16.310837 4.3543167
14.037025 17.159836 4.3133163
65.13802 90.813835 24.488316
67.17203 89.60284 24.043316
5.210022 86.50684 27.828316
5.026024 84.36984 27.644316
36.666023 20.23684 36.464314
34.683025 20.572838 36.120316
36.369022 15.723839 26.544315
37.460022 13.731842 25.362316
17.713024 72.87384 58.010315
18.223024 74.17884 59.826317
18.103024 68.27084 10.005318
16.224024 67.19684 10.184319
19.359026 84.49684 46.116318
18.314028 83.65784 44.140316
8.357025 79.64284 50.068317
6.739029 80.45884 51.745316
61.055023 36.91784 28.711315
59.88402 36.76484 30.829315
49.39202 32.606842 27.291315
49.042023 31.76184 29.452314
37.360023 3.3878403 13.257317
35.629025 4.0278397 14.679314
43.947025 6.9008408 24.574316
46.203022 5.9948425 24.471315
40.521023 61.89984 60.454315
42.694023 62.56684 60.371315
48.999023 59.353844 53.413315
48.686024 58.222843 51.746315
28.933023 22.83584 36.974316
26.364025 22.32984 36.703316
20.134024 28.28284 40.513317
18.121025 28.47584 41.886314
9.655029 93.03084 27.722315
7.7630234 93.09584 29.225315
0.6670227 2.7938385 31.700315
69.40302 4.629837 32.605316
48.264023 0.90483856 44.328316
50.25902 2.506836 44.427315
58.257023 1.8418427 38.396317
60.159023 0.39684296 37.577316
50.887024 58.089844 57.439316
51.90502 60.119843 56.68432
56.578022 68.50684 55.078316
55.643024 70.408844 54.232315
4.3980255 90.425835 8.947319
1.9030228 90.62084 9.16732
61.900024 90.40784 2.7583199
62.57902 92.15184 3.6503143
6.381027 96.38884 43.148315
8.228027 0.2878418 45.094315
16.760025 4.589836 51.076317
16.472023 2.4478378 51.921314
14.261024 84.21284 4.026314
14.522024 84.38884 6.472313
24.893024 84.25884 2.9063187
25.211025 86.46284 3.5033188
27.907024 77.12684 39.654316
28.832024 77.01484 41.498318
31.126024 82.48484 51.480316
32.495026 83.43484 49.726315
28.210024 85.45284 57.426315
28.958025 87.80384 57.748318
23.578024 88.395836 2.8653183
26.011024 88.022835 1.1103172
11.150024 36.53284 42.344315
12.633026 38.321842 43.283318
16.406021 47.868843 45.684315
18.171022 48.25384 44.895317
41.273026 42.49184 18.033318
43.160023 41.890842 17.371315
41.803024 32.564842 13.651314
40.020023 31.10384 14.730316
50.152023 77.38884 16.18332
52.349022 76.76284 16.644318
61.953022 78.43884 15.302315
62.591022 76.75784 14.825317
21.484024 74.91084 20.857315
22.333025 77.32684 19.832314
25.637024 72.033844 12.225319
26.938025 70.72584 10.781319
61.144024 79.65384 18.825317
62.278023 80.41284 17.357315
56.597023 86.88184 10.315315
55.03002 85.95484 9.060318
11.124024 14.525841 14.815315
11.928024 14.98584 17.366318
22.862024 16.88984 19.504318
24.589024 17.837837 18.510315
31.317024 52.17684 43.440315
29.673025 53.21984 42.242317
29.805025 41.99284 42.001316
30.100025 40.021843 40.842316
26.458025 42.94284 32.234314
27.211025 41.13584 32.998314
25.244024 33.70484 25.226315
24.060024 31.795841 25.071316
18.259027 24.867838 6.5893173
17.581026 24.284838 8.201317
11.67202 13.279839 5.2433167
13.202026 14.038841 3.9523163
30.275024 16.980843 38.985317
30.328024 18.412842 37.684315
31.304024 18.979836 47.087315
31.515024 16.72184 47.657314
18.884024 21.74984 12.522316
20.815023 20.021841 12.480316
26.580025 30.90284 10.18132
28.751024 29.462841 10.451317
53.44002 16.714836 35.412315
54.123024 14.70784 36.806316
49.268024 22.20684 44.671314
47.387024 23.318842 44.715317
28.377024 9.222839 14.372314
27.928024 7.945839 15.990318
23.708025 4.143837 25.441317
21.948025 3.8618393 26.530313
1.3830261 94.924835 28.861315
0.21702576 95.036835 31.316315
10.046028 95.326836 35.258316
9.350029 1.0808411 34.981316
27.560024 50.06284 35.847317
29.255024 50.68084 34.361317
40.110023 45.65284 41.038315
41.764023 45.81884 38.591316
10.678024 36.51084 44.978317
9.429024 37.133842 46.383316
16.42102 46.30184 50.818317
16.945024 43.59584 50.676315
21.596024 74.94784 57.417316
20.351025 76.31584 58.85832
26.457024 76.44284 9.008316
28.316025 77.94984 9.089317
8.012024 13.018837 54.324314
7.669029 12.420837 52.244316
14.882027 2.9478378 54.131317
16.725021 3.879837 54.082317
34.307022 85.50984 28.642315
34.513023 87.77984 29.399315
23.933023 91.26184 31.007315
23.114023 90.75484 33.115314
56.214024 20.37984 22.885315
58.735023 20.91284 22.977318
52.62102 25.14784 17.229317
50.874023 26.52684 15.657318
19.424028 53.03384 21.902313
19.732027 51.26884 20.281319
8.606026 48.20884 17.758316
7.9050293 50.09684 17.162315
50.28002 24.77284 18.687317
49.29502 24.51884 16.628319
39.673023 25.67184 17.72332
39.592022 26.22084 15.577316
28.231024 31.77684 7.9433136
30.496025 31.34984 8.714317
37.080025 40.41484 14.804314
37.745026 39.36584 15.95932
21.606028 8.442841 41.219315
20.580027 7.33284 42.333317
11.32502 3.417839 34.677315
10.125023 5.2538376 34.736317
2.364029 12.466843 57.517315
0.5270233 10.88884 57.394318
0.89502716 1.9588394 2.10532
3.3130264 1.7848358 2.9923172
55.060024 60.256844 22.160316
56.953022 60.877842 23.868315
61.928024 64.18484 14.100319
63.140022 62.78084 14.774315
23.565023 30.031841 54.684315
21.931025 29.792841 56.562317
19.712025 19.22184 54.453316
17.814024 19.21884 52.963314
11.423027 19.48484 48.280315
9.593025 19.816841 47.939316
10.449028 22.820839 38.596313
10.329025 20.83384 36.639317
31.701025 58.01784 36.948315
29.363024 57.495842 35.841316
25.005024 66.18384 30.877316
23.172024 65.48084 32.563316
62.52402 35.33884 24.937315
64.52103 35.93684 23.820314
0.3430252 44.62984 29.826315
0.39502716 45.91484 28.206316
64.45702 63.708843 45.039314
64.83302 64.88784 47.127316
60.845024 53.47584 48.243317
60.67702 53.62384 50.857315
57.854023 38.84184 7.2753143
55.987022 38.76784 8.096313
52.26602 47.35384 6.492317
51.997025 49.46484 5.614319
58.695023 51.605843 35.647316
57.423023 50.94784 33.898315
63.557022 44.904842 26.297316
64.23802 45.03184 28.773315
23.958025 3.4708405 42.773315
23.300024 1.9168396 41.917316
24.906025 95.88484 34.918316
26.179024 93.73984 34.502316
66.772026 88.85284 57.880318
68.08502 90.49984 58.354317
68.04202 4.757843 54.981316
69.05602 4.5888367 52.916317
69.189026 50.45484 44.506317
69.59902 48.56084 45.080315
60.126022 42.97284 44.902317
58.304024 42.210842 46.506317
3.5180283 4.8668365 47.089317
3.8270264 2.8898392 48.013317
11.306023 1.1078415 56.135315
9.936028 1.1128387 58.35832
29.751024 86.23584 60.708317
27.828024 85.88784 1.185318
38.425022 86.87784 3.5283127
38.924023 87.54784 1.4133186
0.3430252 9.056839 31.744316
1.6580276 10.827843 31.820316
11.681023 13.386841 32.118317
13.43602 14.766838 32.560314
34.174023 60.215843 16.372314
33.132023 58.76284 17.631317
25.522024 51.39484 11.635315
24.447023 52.92184 11.743317
34.991024 42.362843 13.683319
33.247025 40.89884 14.114319
24.959024 34.571842 15.316315
23.105024 33.377842 14.096313
39.456024 7.9208374 13.490318
41.054024 10.320839 13.519318
36.395023 12.973839 20.597313
35.118023 13.122841 22.782318
6.2870255 46.36084 53.469315
7.227028 48.10284 55.496315
3.625023 53.488842 52.046314
3.9730225 51.34384 51.808315
4.6790237 73.26084 16.588318
2.3900223 72.52484 15.898315
2.4540253 73.88584 3.8993149
1.236023 74.99184 4.9433136
47.794025 72.02584 8.051315
47.429024 71.74184 10.106316
48.153023 62.89384 13.644318
49.609024 61.14484 14.030319
37.911022 78.14684 10.716316
37.949024 79.12284 8.82132
36.866024 76.58084 58.939316
36.393024 74.63384 58.292316
65.037025 94.68484 40.031315
65.776024 94.77384 37.687317
60.479023 5.660843 32.385315
59.874023 7.992836 32.089314
26.184025 46.848843 30.579315
24.947023 48.04084 28.699316
29.022024 54.890842 24.520315
30.042025 55.158844 22.494316
34.611023 15.710838 5.369316
32.467026 16.424843 6.760315
24.561024 21.496841 60.273315
23.455025 20.184837 58.787315
41.934025 12.981842 11.385315
41.101025 14.367836 12.789314
42.198025 18.607841 12.742317
39.944023 17.645836 12.333313
41.023026 44.015842 44.927315
39.620026 45.000843 43.763317
33.221024 43.56684 51.339317
34.029022 44.210842 52.959316
18.470024 10.431839 29.843315
18.637024 11.118843 32.081314
28.717024 10.5818405 34.908314
29.262024 10.403839 37.564316
5.2690277 25.232841 34.786316
7.540024 25.361841 35.078316
8.935028 35.22084 41.944317
8.374023 36.42084 43.801315
20.515024 6.646843 13.245316
20.454027 6.2868423 15.481316
11.5720215 0.43283844 21.856316
10.022026 0.19084167 19.911316
49.256023 95.07384 13.534317
50.394024 94.313835 11.582314
51.73102 82.40684 7.9483185
49.022022 82.98084 8.222313
44.904022 77.87884 9.968315
45.344025 79.38684 12.005318
39.688023 88.536835 8.365318
37.149025 88.41284 8.606316
3.8660278 76.78484 28.941315
6.288025 76.63184 29.045315
13.484024 70.31284 34.080315
13.146027 69.82384 36.405315
26.853024 72.91784 9.110313
29.041025 73.283844 9.607315
38.862022 71.00884 8.836319
40.149025 72.93884 10.205315
26.673025 40.495842 7.86232
28.632025 39.61784 7.6963196
34.960022 47.83984 10.382317
36.874023 48.45484 11.930313
31.415024 28.076841 30.250315
34.224026 27.27684 30.512316
36.594025 33.85184 21.944315
35.869022 35.19284 20.339315
17.841024 50.015842 3.4683151
18.939024 48.93084 1.4083176
24.371023 55.111843 56.623318
22.409023 56.207844 56.72632
61.727024 27.54984 14.406319
60.566025 26.750841 16.628319
62.458023 32.58784 26.143316
64.56303 32.47984 26.036318
29.681025 57.61584 38.850315
28.243025 56.557842 38.982315
26.563025 65.29884 47.532314
27.361025 67.43184 48.185314
67.21403 21.696838 41.312317
67.54002 23.830843 40.061317
63.533024 18.412842 31.064316
62.88402 16.945839 29.417315
10.376022 50.86084 53.278316
10.234024 49.94084 51.683315
2.7540283 51.23284 47.860317
1.6670227 50.03784 46.358315
9.661026 79.08984 27.777315
8.958023 76.658844 27.855314
18.706026 75.61884 20.934315
19.630022 77.57084 19.682316
49.216022 57.096844 14.803314
48.966022 59.05384 15.961319
38.742023 56.244843 11.988319
40.243023 58.31784 10.864319
39.986023 77.25884 51.314316
38.287025 76.52984 52.308315
34.899025 83.13384 46.715317
36.719025 83.17984 45.195316
42.339024 3.990837 11.648315
44.053024 2.0778427 12.055313
47.568024 3.2778397 17.369316
47.032024 1.0248413 16.648315
39.883022 49.06184 16.828316
39.299023 50.508842 14.905319
52.325024 47.307842 17.892319
53.117023 49.49884 18.447319
37.136024 46.77584 53.846317
36.331024 48.53384 54.282314
40.962025 53.438843 45.149315
38.827023 53.007843 45.092316
60.159023 40.99884 51.863316
61.326023 40.42784 49.590317
60.73902 32.543842 51.203316
59.990025 29.85784 51.782314
13.112022 78.58284 16.886314
13.591026 77.23484 15.912315
15.139023 67.29684 12.706314
17.302027 68.06784 12.631317
19.065023 51.889843 25.258316
21.371023 52.94784 24.890316
22.821024 62.158844 20.930315
24.558023 63.258842 21.462315
46.654022 6.2798386 55.12932
45.051025 5.1238403 56.258316
41.052025 4.917839 57.779316
39.846024 2.6858368 58.013317
7.2050247 23.091845 31.985315
5.8550262 22.754837 33.775314
67.45902 20.22184 24.732315
67.369026 21.746841 23.321316
66.621025 45.863842 27.021315
68.67902 47.30984 26.628315
65.56902 56.95584 21.561316
64.746025 56.390842 19.531315
49.667023 17.808838 49.244316
50.080025 15.63784 50.737316
57.36302 12.726837 40.631317
56.844025 13.341843 38.613316
48.734024 41.189842 37.015316
48.690025 41.18684 38.907314
53.193024 39.55884 39.942314
54.348022 39.74184 42.549316
11.85202 82.99084 57.682316
12.467026 84.41884 59.475315
3.4240265 80.98984 3.661316
2.9780273 79.74684 6.1983185
29.965025 28.753841 21.382317
27.960024 26.976841 20.86332
31.395025 26.10984 14.872314
33.600025 26.25584 13.141319
21.120024 32.03884 52.392315
21.870024 31.770842 54.665318
21.359024 42.61184 52.136314
19.856024 43.79884 53.502316
35.727024 66.46284 12.941315
34.093025 65.62884 13.921318
30.867023 75.23284 10.29232
30.809025 77.08184 11.228317
6.604027 74.47984 27.451315
4.7420273 75.63984 26.581316
67.45902 80.13184 20.111315
67.69602 82.19684 20.764315
22.281025 41.23284 2.086319
24.310024 41.94084 1.8943176
33.962025 39.16284 1.9723167
34.230022 38.22084 0.055316925
9.200027 22.187841 58.718315
8.703026 24.16884 57.804317
1.3810272 28.111841 57.216316
69.786026 29.663841 56.451317
53.76002 89.75184 11.991318
55.085022 91.411835 11.224319
58.26602 90.813835 9.925316
59.460022 89.452835 11.623314
12.720024 88.01684 13.784317
13.031021 89.58184 14.857315
13.294022 94.90784 21.856316
15.347023 95.340836 23.816317
26.541025 26.708841 60.14332
27.883024 28.98584 0.07231903
29.719025 40.002842 57.051315
29.994024 40.188843 54.724316
61.983025 71.10084 12.408318
61.153023 72.24484 10.461319
54.041023 68.12784 2.4603195
53.067024 69.29584 0.79031754
68.14503 51.87184 1.8283195
67.523026 50.89184 3.7263184
57.417023 48.88684 59.509315
56.151024 51.03284 58.666317
64.94502 72.39984 7.887314
63.474022 70.62984 7.9643173
3.8430252 63.737843 7.402313
5.6010284 62.980843 8.866318
21.073025 17.26984 21.876316
22.443024 18.64484 21.287315
25.077024 28.99484 24.586315
24.859024 28.04384 27.120316
56.764023 12.145836 34.811314
55.883022 11.580841 32.673317
62.696022 16.436836 25.174314
60.847023 16.20684 23.798315
67.80702 51.45484 13.173317
66.261024 51.35484 14.810318
64.648026 47.89484 21.229317
63.956024 45.884842 22.288315
59.771023 59.22084 21.961315
61.533024 60.528843 21.909315
61.404022 64.54184 31.250315
61.890022 64.95684 33.054314
36.493023 62.133842 35.052315
37.573025 60.32984 35.569317
46.169025 67.75484 37.182316
47.714024 67.22384 39.123318
57.355022 59.54684 28.568316
59.63502 59.950844 29.034315
65.42203 51.45884 33.801315
64.635025 52.12184 35.661316
37.612022 29.406841 14.965317
37.451023 28.23984 17.48832
30.517025 25.607841 24.937315
29.688025 23.309841 26.307318
43.274025 80.88884 57.276318
45.576023 81.49484 56.496315
50.991024 89.13984 53.094315
49.137024 90.22784 52.071316
62.230022 93.05884 49.247314
60.84302 94.44984 50.343315
62.636024 87.909836 0.1873169
62.992023 86.09884 59.986317
68.68603 10.36084 12.976318
67.54703 11.814842 12.998314
3.4240265 21.045837 15.467316
2.6810226 22.274841 17.299316
61.833023 80.55084 35.666317
63.96802 81.17784 35.036316
62.865025 93.271835 35.645317
65.050026 92.49184 36.081314
52.61302 8.700836 32.205315
53.13502 7.3548355 34.192314
41.332024 8.822838 36.449314
40.841022 6.242836 37.100315
32.385025 0.84783936 48.208317
34.462025 2.2208405 49.447315
27.327024 5.3038406 42.458317
25.264025 5.9258423 42.520317
48.790024 22.55784 48.405315
48.977024 20.538841 49.288315
42.485023 28.04684 50.669315
43.851025 28.46784 52.789314
54.928024 41.49784 22.162315
54.242023 40.424843 23.694315
54.761024 34.91484 14.211319
52.994022 34.53784 13.003319
2.2920227 25.00584 24.073315
0.2900238 25.847841 25.568316
66.04002 20.00884 27.936316
63.418022 19.78384 28.727316
12.511024 35.52584 25.185316
13.003021 33.842842 23.539316
6.673027 39.31184 16.32132
5.100029 38.44984 17.175316
23.110025 76.88984 48.915318
21.866022 77.88484 50.792316
11.844025 81.64484 54.838314
10.789024 79.93884 56.030315
49.483025 82.74984 20.482315
47.763023 80.84184 19.957314
37.284023 80.26884 14.402313
35.869022 82.12184 14.490318
44.598022 60.161842 45.597317
43.304024 58.959843 47.282314
34.104023 58.592842 39.834316
35.067024 57.932842 37.621315
34.724026 46.81084 19.229315
32.369026 46.278843 19.382315
27.544024 45.10784 29.392315
28.534025 43.660843 30.755316
48.493023 59.918842 58.144318
50.074024 61.68384 58.12932
45.096024 65.94784 48.208317
46.353024 65.07384 46.323315
48.622025 29.66984 32.426315
47.722023 29.54984 34.615314
39.121025 35.19384 38.673317
37.102024 35.37984 38.315315
19.268024 11.182838 37.302315
19.916023 10.821838 39.506317
17.632025 6.476837 44.712315
18.981024 5.0318375 44.516315
5.2910233 50.07984 49.919315
4.197029 48.49084 51.098316
4.232025 37.07584 50.816315
3.1640244 37.40284 52.686317
65.369026 90.21084 18.282318
62.888023 90.57384 18.692314
58.805023 85.69684 9.212318
58.20402 83.58984 8.013313
26.998024 52.35784 30.061316
26.786024 51.78884 32.127316
20.157024 47.146843 38.912315
20.270023 44.49084 38.202316
22.527023 83.65384 38.616314
24.625025 83.34884 38.014317
31.275024 85.63684 47.698315
30.849024 86.22584 50.022316
27.874023 3.3438416 26.319315
29.203024 5.419838 25.834314
23.434025 14.337837 23.093315
21.977024 14.44384 20.822315
22.241024 54.27484 10.205315
23.260025 55.54584 12.12632
17.761024 65.32684 12.123314
16.659025 64.67684 10.267319
6.6660233 61.05984 51.356316
6.941025 62.127842 49.535316
2.500023 56.46384 39.128315
1.4240265 58.33084 38.160316
26.842024 90.41784 8.711319
26.945024 91.19084 10.761314
34.562023 85.97584 14.143318
35.934025 87.021835 15.094315
44.220024 52.81084 8.169319
43.621025 52.16684 6.09832
53.117023 50.627842 60.092316
54.04402 49.125843 0.047317505
48.361023 11.923836 58.763317
46.476025 10.95784 57.356316
34.827023 15.52684 59.787315
34.009026 16.446838 57.791317
15.507027 13.2328415 30.649315
15.833023 11.3578415 29.900314
11.169022 12.362839 38.797314
9.011024 11.52684 40.130318
59.462025 74.11684 12.283318
59.58602 74.561844 10.353317
52.108025 71.46584 6.7263184
50.528023 71.40984 5.2933197
14.037025 50.26884 10.624313
12.056023 48.59684 9.933319
5.350029 55.48984 8.148315
3.461029 56.54584 9.470314
2.9140244 86.55984 15.725319
0.5930252 86.58284 15.053314
4.736023 96.00584 19.634315
6.1220245 1.7148361 18.97432
16.497025 75.11384 19.156319
18.399027 72.93184 18.948318
13.8340225 63.613842 17.385315
12.590027 62.632843 15.285316
0.46102905 82.90384 5.340317
0.98202515 81.936844 7.121315
61.719025 78.69484 6.9903183
59.439022 78.08784 7.484314
52.78102 92.06084 27.646318
51.03702 91.83484 26.912317
53.043022 92.86184 14.929314
54.10702 92.87284 13.165314
44.430023 34.168842 1.5023193
46.225025 35.10084 0.12231827
54.768024 38.81784 55.056316
55.54402 39.54684 56.935318
31.639025 64.59684 16.912315
32.225025 62.617844 16.58432
21.893024 59.172844 19.153313
22.796024 61.15084 18.454315
19.995024 36.51884 50.203316
19.143024 38.29784 51.059315
22.388023 44.460842 42.400314
21.743025 46.44784 40.911316
44.737022 3.5848389 37.943314
42.907024 4.1128387 39.393314
46.267025 7.912842 48.841316
46.743023 7.2028427 50.869316
16.499023 22.02784 31.126316
16.438025 19.94484 30.586315
26.077024 17.16684 24.924314
25.648024 15.214836 24.886314
44.988026 20.47484 13.504318
47.267025 20.54984 13.684319
44.120026 29.69384 11.69632
44.283024 31.38084 13.119316
3.9830246 31.53684 18.009315
5.0230255 32.988842 17.367317
6.491028 39.43684 20.013313
8.138023 40.72884 20.27932
53.557022 95.646835 56.945316
51.734024 96.30284 57.598316
44.086025 89.13484 56.37932
44.243023 87.910835 58.356316
36.884026 4.685837 1.8493195
35.525024 3.445839 2.08432
27.701025 5.6708374 11.371315
28.715025 7.2868423 12.628319
39.674023 2.6858368 26.257315
39.511024 2.1018372 28.411316
49.243023 93.89284 28.055315
48.778023 93.77684 25.514315
39.154022 59.62984 53.796314
40.579025 61.25484 55.142315
42.618023 69.42084 47.542316
44.415024 69.11184 46.689316
69.57703 35.75084 6.0233154
1.7140274 34.97784 7.268318
67.759026 24.52284 6.397316
67.40703 24.33684 4.121315
40.938023 51.578842 23.335318
42.803024 52.682842 22.290314
51.833023 53.81684 19.022316
52.477024 53.160843 20.643318
54.48802 54.59784 32.768314
56.838024 54.95784 32.367317
55.366024 56.486843 20.761314
53.358025 56.26184 20.032314
63.007023 14.560837 54.257317
65.07403 14.684837 55.285316
0.5610275 19.209839 59.166317
0.41602325 19.353836 57.279316
36.647022 79.58884 24.656317
35.811024 80.38284 23.093317
30.057024 78.43384 15.356316
30.738024 75.99084 15.29232
56.154022 69.49884 17.094315
56.50902 69.10984 19.600319
47.706024 67.37984 23.232317
45.585022 67.17184 23.458315
47.196022 14.292839 47.153316
47.182022 15.766838 44.792316
52.78002 13.371841 34.634315
52.00202 12.011841 33.008316
65.36002 5.15184 50.444317
64.400024 6.078842 48.700317
57.717022 1.0788422 53.298317
55.194023 2.0518417 52.929317
20.773024 53.02584 15.07032
21.450024 50.79784 16.491318
31.128025 49.51084 18.347313
32.525024 50.856842 16.190315
42.016026 70.28684 5.899315
41.695023 70.87784 7.6383133
