0.301 6.161 0.039
-0.099 6.368 0.192
0.260 6.180 0.135
0.485 5.956 0.429
0.032 5.555 -0.161
0.288 5.473 0.033
-0.172 5.898 -0.009
0.067 5.746 0.159
0.313 5.918 0.392
0.063 6.077 0.440
0.415 5.822 0.448
0.313 6.318 0.474
0.438 5.945 0.659
-0.003 5.306 0.227
0.559 5.448 0.426
0.018 5.507 0.230
0.210 5.840 0.356
0.337 5.752 0.336
0.560 5.756 0.333
-0.060 5.865 0.583
0.384 6.062 0.835
-0.092 6.260 0.734
0.250 6.289 1.024
0.245 5.356 0.513
0.128 5.567 0.556
-0.065 5.785 0.428
0.310 5.541 0.619
-0.053 5.714 0.831
0.142 5.870 0.912
0.074 5.834 1.200
3.847 3.899 0.143
3.387 4.025 0.264
3.878 4.112 0.428
4.032 3.859 0.330
3.946 3.961 0.572
4.212 3.817 0.424
3.306 4.259 0.192
3.333 4.317 0.239
3.872 4.031 0.643
3.724 4.266 0.727
4.139 4.144 0.492
4.478 4.345 0.492
4.450 4.266 0.509
3.418 4.234 0.548
3.598 4.354 0.719
3.886 4.483 0.798
4.111 4.266 0.517
4.142 4.446 0.553
4.526 4.362 0.686
4.387 4.060 0.960
3.420 4.382 0.527
3.502 4.675 0.923
3.695 4.332 0.897
3.983 4.289 0.682
3.937 4.451 0.889
4.379 4.453 0.786
4.535 4.254 0.900
3.918 4.485 1.034
0.970 5.516 0.435
6.003 4.773 2.245
0.695 5.431 0.579
0.548 5.345 0.813
1.136 5.636 0.868
1.341 5.388 0.647
1.270 5.310 0.650
6.344 5.123 2.325
0.530 5.833 0.783
0.622 5.535 0.962
1.110 5.455 0.739
1.336 5.555 1.070
1.208 5.609 0.806
6.008 5.210 2.298
0.530 5.805 1.025
0.537 5.632 0.869
0.799 5.870 1.175
1.215 5.681 0.938
1.528 5.732 0.929
0.634 6.022 1.216
0.902 5.795 1.228
1.090 5.771 1.375
1.265 5.945 1.294
0.558 6.238 1.160
3.642 6.334 2.576
4.072 6.372 2.486
3.525 3.712 0.509
3.449 3.953 0.299
3.335 3.904 0.313
3.544 3.686 0.305
3.810 3.940 0.698
4.122 3.897 0.578
3.141 4.155 0.635
3.245 3.998 0.742
3.598 4.124 0.599
3.591 4.089 0.474
3.869 4.184 0.912
4.247 3.997 0.714
4.330 4.030 0.929
2.683 4.278 0.444
2.941 4.146 0.647
3.124 4.085 0.564
3.513 4.167 0.587
3.647 4.003 1.016
4.052 4.030 0.994
3.991 4.367 1.031
4.405 4.285 0.954
2.825 4.253 0.645
3.098 4.236 0.714
3.169 4.323 0.924
3.559 4.207 0.898
3.716 4.296 1.060
3.852 4.324 1.212
4.231 4.407 0.920
2.358 4.468 0.615
2.782 4.788 0.883
2.719 4.548 1.110
2.961 4.729 1.038
3.401 4.474 1.115
3.424 4.736 1.212
2.241 4.748 0.796
2.071 4.809 0.852
0.972 5.269 0.879
0.975 4.953 0.647
1.433 5.189 0.877
1.581 4.930 0.929
1.712 5.229 0.989
1.858 4.927 0.906
0.526 5.345 0.737
0.903 5.503 0.894
0.892 5.456 0.913
1.204 5.129 1.040
1.331 5.055 1.033
1.591 5.157 0.872
1.666 5.175 1.198
0.631 5.558 0.842
0.783 5.436 0.797
1.014 5.517 0.879
1.087 5.648 1.256
1.416 5.224 1.326
1.614 5.184 1.044
1.599 5.525 1.441
6.391 5.237 2.645
0.614 5.545 0.890
0.558 5.558 0.970
0.826 5.534 1.381
1.036 5.640 1.209
1.320 5.634 1.486
1.422 5.425 1.525
0.488 5.653 1.258
0.490 5.800 1.475
0.851 5.877 1.258
1.016 5.562 1.567
1.426 5.812 1.252
0.973 5.819 1.282
3.974 5.838 2.691
3.158 6.260 2.776
3.517 6.276 2.593
3.791 5.969 2.871
4.155 6.218 2.571
4.331 6.115 2.941
3.821 6.373 2.756
4.276 6.403 2.873
4.230 6.397 3.024
5.934 2.471 -0.022
6.156 2.328 -0.077
5.963 2.484 0.038
6.135 2.474 0.277
6.016 2.900 0.485
3.386 3.582 0.602
3.468 3.412 0.233
3.727 3.582 0.533
2.971 3.717 0.271
3.361 3.856 0.550
3.393 3.550 0.564
3.621 3.793 0.847
3.820 3.711 0.886
2.744 4.137 0.458
2.805 4.007 0.628
3.334 3.773 0.673
3.162 3.896 0.896
3.468 3.800 1.014
3.708 3.804 0.886
3.965 3.881 0.880
2.357 4.297 0.637
2.918 4.171 0.600
3.037 4.181 0.620
3.043 4.244 0.805
3.305 4.175 0.709
3.553 4.070 1.004
3.834 4.091 1.188
4.137 3.842 0.962
2.064 4.515 0.689
2.361 4.345 0.975
2.816 4.408 1.067
2.742 4.228 1.047
3.276 4.163 1.149
3.431 4.059 0.996
3.399 4.313 1.300
3.802 4.196 0.996
2.284 4.230 0.979
2.168 4.461 0.972
2.355 4.426 1.031
2.829 4.395 0.912
2.738 4.666 1.070
2.963 4.522 1.051
3.117 4.588 1.007
2.061 4.349 0.650
2.075 4.332 1.025
2.310 4.587 0.948
2.334 4.824 1.058
2.689 4.454 1.009
2.859 4.502 1.048
1.608 4.934 0.775
1.926 4.865 0.909
1.790 4.781 0.849
2.251 4.815 1.062
2.235 5.014 1.336
2.193 5.013 1.183
0.913 5.015 0.746
1.112 4.910 0.825
1.348 5.049 1.025
1.593 4.868 1.173
1.760 4.974 1.040
2.172 5.051 1.296
2.155 4.923 1.275
0.490 5.363 0.913
0.775 5.147 1.075
1.207 5.105 0.936
1.281 5.190 1.089
1.477 5.253 1.173
1.927 5.245 1.237
1.784 5.015 1.173
2.321 5.185 1.490
0.379 5.381 1.137
0.636 5.487 1.305
1.034 5.133 1.026
0.984 5.337 1.349
1.067 5.112 1.481
1.341 5.094 1.516
1.649 5.416 1.451
1.863 5.076 1.354
0.225 5.444 1.330
0.495 5.404 1.095
0.941 5.373 1.466
0.853 5.467 1.442
1.186 5.605 1.272
1.609 5.430 1.305
1.797 5.348 1.536
0.574 5.554 1.481
0.795 5.674 1.354
1.144 5.546 1.741
1.269 5.801 1.615
1.591 5.759 1.828
0.962 5.783 1.697
1.192 5.586 1.563
1.262 5.940 1.746
3.763 5.644 2.709
3.767 5.751 2.938
4.130 5.663 2.721
3.546 5.803 2.795
3.533 5.904 2.694
3.729 5.969 2.902
4.270 5.753 3.112
4.323 6.137 3.170
3.187 6.407 2.811
3.577 6.020 3.033
3.897 6.136 2.837
3.847 6.000 3.238
4.239 5.928 3.168
4.166 5.878 3.064
4.571 5.948 3.385
5.908 2.225 -0.069
6.159 2.158 0.096
5.623 2.509 -0.093
5.848 2.307 -0.097
6.112 2.522 0.123
6.167 2.257 0.095
5.590 2.526 0.318
6.071 2.644 0.143
6.318 2.374 0.439
6.099 2.489 0.432
5.929 2.797 0.668
6.266 2.936 0.474
6.345 3.017 0.883
2.865 3.305 0.486
3.309 3.527 0.401
3.374 3.319 0.805
3.450 3.381 0.821
2.748 3.657 0.727
2.823 3.471 0.438
3.080 3.522 0.860
3.266 3.502 0.801
3.576 3.375 0.812
3.850 3.768 1.051
2.501 3.736 0.880
2.724 3.635 0.665
3.019 3.663 0.736
3.009 3.783 0.873
3.146 3.821 0.867
3.426 3.594 0.984
3.915 3.765 1.033
2.246 3.856 0.983
2.432 4.043 0.981
2.463 4.002 1.024
2.809 4.186 1.057
2.899 4.102 0.881
3.306 3.984 1.120
3.535 3.881 0.944
3.807 3.975 1.098
2.423 3.887 0.680
2.122 4.409 0.941
2.273 4.375 0.880
2.812 4.282 1.038
2.911 4.319 0.885
2.845 3.966 0.947
3.084 4.184 1.097
3.296 3.935 1.439
1.948 4.241 1.035
2.073 4.398 1.006
2.088 4.425 1.022
2.214 4.397 1.061
2.760 4.439 1.277
2.785 4.225 1.258
3.138 4.100 1.165
3.273 4.142 1.272
1.840 4.423 0.932
2.126 4.433 1.130
2.243 4.341 1.015
1.976 4.326 1.422
2.315 4.387 1.141
2.566 4.615 1.205
2.734 4.326 1.415
1.685 4.560 1.122
1.585 4.451 1.296
2.147 4.757 1.352
2.137 4.515 1.217
2.264 4.888 1.238
2.525 4.660 1.411
2.588 4.720 1.652
1.255 4.771 1.268
1.411 4.854 0.988
1.338 4.814 1.303
1.525 4.839 1.268
1.722 4.919 1.111
2.000 4.530 1.587
2.151 4.665 1.708
2.289 5.035 1.651
0.672 5.166 1.100
0.980 4.977 1.363
1.409 4.752 1.509
1.311 4.771 1.563
1.722 4.813 1.440
1.900 4.700 1.262
2.034 5.030 1.397
2.118 5.003 1.807
0.689 5.160 1.150
0.938 5.324 1.373
1.134 5.306 1.580
1.165 5.040 1.359
1.363 5.087 1.296
1.457 5.163 1.501
1.916 4.895 1.752
2.234 4.984 1.762
0.460 5.308 1.268
0.831 5.277 1.458
0.947 5.137 1.594
1.261 5.350 1.572
1.620 5.094 1.687
1.512 5.168 1.851
2.007 5.409 1.918
0.575 5.379 1.456
0.670 5.610 1.591
0.796 5.671 1.732
1.377 5.255 1.712
1.541 5.492 1.871
1.765 5.455 1.898
0.827 5.853 1.833
0.761 5.720 1.638
1.349 5.401 1.897
1.218 5.590 1.989
3.620 5.837 2.860
3.957 5.510 3.114
4.033 5.618 2.838
4.205 5.446 2.858
3.495 6.045 3.033
3.844 5.831 2.915
3.995 6.003 3.164
4.089 5.933 3.148
4.232 5.632 3.159
4.624 5.559 3.342
3.267 6.131 3.311
3.811 5.838 3.179
3.843 5.887 3.345
4.117 5.861 3.100
4.353 5.882 3.222
4.449 5.788 3.568
4.711 5.988 3.366
5.809 1.692 0.044
6.306 1.909 0.024
5.385 2.152 0.074
5.400 2.114 -0.117
5.818 2.252 0.289
5.939 1.838 0.039
6.159 1.858 0.441
5.232 2.380 -0.039
5.298 2.180 0.360
5.788 2.207 0.303
6.039 2.401 0.282
6.078 2.091 0.172
5.601 2.488 0.239
5.475 2.536 0.276
5.766 2.319 0.577
6.034 2.326 0.479
5.566 2.697 0.611
5.996 2.334 0.814
5.978 2.352 0.877
6.192 2.682 0.735
6.023 2.786 0.808
6.112 2.867 0.692
6.050 2.501 1.095
5.970 2.733 0.844
6.169 2.648 0.879
2.848 3.220 0.311
3.238 2.977 0.529
3.213 3.052 0.786
6.133 2.922 1.389
6.115 2.721 1.475
2.620 3.515 0.570
2.992 3.392 0.501
3.124 3.498 0.608
3.451 3.121 0.550
3.372 3.135 0.767
2.236 3.697 0.623
2.466 3.564 0.545
2.996 3.408 0.726
3.025 3.683 0.783
3.374 3.397 0.779
3.517 3.381 0.939
2.605 3.886 0.675
2.467 3.730 1.077
2.957 3.764 1.027
2.995 3.790 1.124
3.141 3.447 0.877
3.483 3.740 1.202
2.278 3.769 1.117
2.519 3.848 0.902
2.442 3.915 0.941
2.952 3.815 1.140
3.104 3.790 1.076
3.401 3.610 1.297
3.288 3.949 1.293
1.982 4.069 1.106
2.000 4.087 1.235
2.304 4.217 1.054
2.725 3.809 1.339
2.937 4.003 1.439
2.881 4.047 1.278
3.368 4.052 1.426
1.741 3.867 1.005
2.041 4.073 1.257
2.168 4.103 1.028
2.181 4.385 1.319
2.744 4.256 1.441
2.666 4.134 1.344
3.075 3.969 1.417
1.727 4.288 1.096
1.869 4.320 1.127
1.969 4.064 1.410
2.234 4.283 1.193
2.232 4.506 1.352
2.601 4.540 1.518
2.841 4.386 1.383
1.488 4.566 1.274
1.551 4.580 1.371
1.952 4.263 1.334
2.254 4.395 1.552
2.192 4.727 1.625
2.379 4.514 1.558
2.375 4.596 1.647
1.221 4.525 1.285
1.522 4.656 1.322
1.736 4.617 1.298
1.719 4.703 1.673
2.192 4.461 1.705
2.162 4.584 1.856
2.441 4.627 1.759
0.833 5.025 1.469
1.094 4.646 1.343
1.535 4.694 1.450
1.448 4.585 1.355
1.647 4.523 1.714
1.977 4.628 1.816
1.817 4.770 1.639
0.880 5.039 1.290
1.152 4.803 1.376
1.151 4.981 1.575
1.299 4.745 1.606
1.661 4.862 1.655
1.822 4.774 1.896
1.917 4.883 1.618
0.592 5.057 1.854
0.756 5.174 1.734
1.314 5.117 1.712
1.475 4.929 1.913
1.466 5.262 1.690
1.957 5.007 1.749
0.552 5.372 1.913
1.035 5.495 1.847
0.993 5.388 2.071
1.182 5.291 2.083
1.530 5.055 1.816
1.731 5.012 2.269
0.527 5.374 2.016
0.817 5.362 2.034
0.907 5.492 1.867
1.325 5.513 2.129
1.345 5.282 2.181
3.721 5.439 2.867
4.102 5.128 3.038
4.425 5.168 3.252
0.888 5.434 2.210
1.065 5.501 2.036
1.172 5.583 2.362
3.841 5.510 2.877
3.879 5.521 2.945
4.100 5.647 2.951
4.121 5.581 3.136
4.586 5.482 3.449
3.763 5.686 3.151
3.711 5.629 3.173
4.227 5.543 3.420
4.432 5.410 3.191
4.267 5.748 3.377
4.870 5.480 3.576
3.787 5.884 3.343
3.981 5.837 3.367
3.854 5.617 3.628
4.437 5.870 3.540
4.522 5.671 3.495
4.691 5.901 3.540
5.894 1.737 -0.054
5.382 1.907 0.114
5.498 1.578 -0.127
5.554 1.905 0.190
5.752 1.877 -0.013
6.094 1.645 0.372
5.120 1.956 0.108
5.190 1.829 0.064
5.250 2.001 0.082
5.659 1.739 0.382
5.924 2.018 0.536
6.030 1.930 0.319
6.344 1.730 0.293
5.174 2.319 0.461
5.306 2.213 0.364
5.512 1.929 0.494
5.935 2.087 0.521
5.950 1.827 0.604
6.296 1.802 0.578
5.485 2.373 0.456
5.723 2.436 0.461
5.910 2.088 0.595
6.149 2.099 0.890
6.448 2.056 0.925
5.777 2.351 0.591
5.675 2.253 0.656
6.157 2.207 0.808
6.126 2.154 0.785
5.574 2.399 0.832
5.625 2.723 1.092
6.186 2.554 1.091
6.375 2.426 0.989
5.816 2.629 1.244
5.749 2.596 1.058
6.322 2.544 1.192
2.913 3.369 0.568
3.323 3.229 0.456
3.388 3.288 0.684
5.905 2.768 1.339
6.102 2.704 1.424
2.790 3.087 0.625
2.831 2.801 0.541
3.207 2.915 0.736
3.475 2.926 0.699
5.472 2.728 1.413
5.864 2.828 1.470
6.133 2.586 1.307
2.486 3.414 0.847
2.652 3.240 0.888
2.911 3.290 0.875
3.244 2.955 0.861
3.349 3.211 1.055
5.635 2.857 1.409
6.193 2.900 1.654
2.578 3.489 0.801
2.721 3.243 1.096
2.932 3.367 0.767
2.927 3.333 1.008
3.243 3.419 1.084
3.573 3.352 1.229
2.198 3.413 1.018
2.769 3.668 0.872
2.899 3.595 1.138
2.873 3.690 1.237
3.046 3.591 1.370
3.604 3.587 1.091
2.008 3.746 1.040
2.453 3.513 1.172
2.569 3.550 1.251
2.542 3.796 1.442
2.845 3.662 1.495
3.194 3.586 1.376
1.902 3.822 1.064
2.223 3.717 1.173
2.128 3.874 1.098
2.651 3.653 1.433
2.875 3.656 1.415
2.760 3.733 1.510
2.095 3.940 1.347
2.135 4.190 1.521
2.443 4.069 1.633
2.623 4.200 1.505
2.697 4.084 1.666
1.898 3.896 1.348
1.916 4.122 1.263
2.123 4.175 1.481
2.428 4.303 1.620
2.629 4.213 1.563
1.492 4.339 1.367
1.697 4.149 1.340
2.144 4.330 1.401
2.189 4.451 1.692
2.336 4.290 1.559
1.307 4.385 1.325
1.378 4.434 1.618
2.009 4.403 1.694
2.065 4.270 1.654
1.992 4.378 1.822
1.338 4.555 1.570
1.229 4.635 1.726
1.513 4.688 1.508
1.909 4.480 1.984
2.153 4.352 1.754
1.780 4.794 1.810
1.011 4.643 1.807
1.231 4.840 1.907
1.383 4.780 1.960
1.382 4.741 1.950
1.728 4.921 1.894
2.036 4.753 2.182
0.704 5.117 1.771
0.830 5.080 2.067
0.950 5.119 1.712
1.085 5.122 2.168
1.595 4.855 2.178
1.768 5.003 2.276
0.823 5.306 1.840
0.953 5.227 1.946
0.886 5.001 2.222
1.197 5.105 2.140
1.313 5.120 2.106
1.511 5.280 2.103
4.201 4.932 2.985
4.284 5.101 3.228
0.431 5.453 2.124
0.633 5.157 2.048
1.183 5.168 2.140
1.133 5.342 2.136
1.411 5.146 2.254
3.631 5.381 3.229
4.066 5.005 3.114
4.379 5.105 3.226
4.497 5.259 3.116
0.800 5.624 2.224
1.036 5.297 2.531
1.184 5.604 2.545
1.563 5.238 2.320
3.515 5.500 2.997
3.720 5.267 3.397
3.997 5.480 3.267
4.091 5.479 3.240
4.240 5.489 3.525
0.785 5.584 2.587
1.215 5.786 2.710
3.760 5.397 3.395
3.727 5.309 3.317
3.922 5.485 3.623
3.993 5.315 3.403
4.525 5.537 3.710
4.835 5.336 3.422
3.517 5.819 3.387
3.728 5.471 3.735
3.889 5.691 3.426
3.996 5.513 3.539
4.531 5.454 3.796
4.667 5.722 3.593
5.144 1.675 -0.166
5.401 1.535 0.004
5.462 1.298 0.051
4.862 1.529 0.177
5.287 1.710 0.064
5.567 1.554 0.069
5.553 1.615 0.365
5.636 1.575 0.314
4.975 1.871 0.101
5.330 1.945 0.237
5.537 1.811 0.616
5.998 1.573 0.697
5.975 1.787 0.570
5.419 1.971 0.663
5.444 2.113 0.766
5.971 1.936 0.433
6.020 2.011 0.739
6.196 1.673 0.870
5.444 2.142 0.659
5.639 2.279 0.803
5.803 2.169 0.930
5.922 2.052 0.642
6.105 1.899 0.719
5.428 2.146 0.987
5.927 2.142 1.077
5.746 2.246 0.968
5.972 2.148 1.012
5.539 2.559 0.920
5.502 2.348 1.268
5.720 2.237 1.239
5.952 2.506 1.194
3.082 2.883 0.437
3.026 2.820 0.601
5.710 2.498 1.047
5.956 2.685 1.484
6.072 2.320 1.231
2.576 2.856 0.790
2.974 3.167 0.740
3.146 2.979 0.610
3.315 2.889 0.786
5.439 2.733 1.325
5.760 2.854 1.294
6.120 2.546 1.562
2.758 2.893 0.880
2.621 2.937 0.894
2.914 2.777 0.750
3.143 2.996 0.796
5.646 2.519 1.528
5.786 2.771 1.741
6.084 2.498 1.592
6.382 2.606 1.661
2.288 3.176 0.859
2.508 3.049 0.709
2.762 2.854 0.993
2.899 3.108 1.082
3.227 3.030 1.081
3.493 3.058 1.095
5.701 2.698 1.675
5.936 2.603 1.964
6.156 2.676 1.883
6.059 2.563 1.830
2.174 3.423 1.159
2.642 3.209 1.160
2.746 3.357 1.294
3.161 3.093 0.960
3.329 3.186 1.227
5.604 2.775 2.018
5.894 2.926 2.095
2.483 3.486 0.974
2.504 3.437 1.413
2.583 3.459 1.171
3.016 3.290 1.173
3.071 3.171 1.489
2.166 3.737 1.204
2.655 3.378 1.241
2.598 3.353 1.229
2.891 3.528 1.476
2.088 3.578 1.552
2.370 3.847 1.512
2.695 3.807 1.757
2.020 3.990 1.442
2.017 3.959 1.862
2.161 4.051 1.871
1.800 4.443 1.999
1.202 4.430 1.853
1.491 4.370 1.703
1.813 4.248 2.011
1.195 4.722 2.119
1.131 4.617 1.788
1.518 4.815 1.981
1.793 4.745 2.195
0.621 4.721 2.136
0.898 4.632 1.914
1.177 4.688 2.051
1.654 4.865 2.266
1.679 4.711 2.352
4.216 4.868 2.940
4.069 4.851 3.011
0.936 4.881 2.284
0.872 5.003 2.410
1.240 4.953 2.133
1.303 4.995 2.166
1.551 4.795 2.501
3.618 4.676 3.048
4.051 4.969 2.983
4.092 5.019 3.323
4.532 4.646 3.174
0.738 5.033 2.113
0.843 5.334 2.233
0.924 4.962 2.270
1.150 4.928 2.336
1.333 5.230 2.446
1.554 4.910 2.712
3.678 4.865 3.400
4.062 4.976 3.236
4.332 4.774 3.333
4.395 4.910 3.574
0.764 5.179 2.257
1.007 5.522 2.471
1.305 5.146 2.508
1.445 5.070 2.605
3.428 5.088 3.391
3.850 5.042 3.345
4.055 4.972 3.663
4.337 4.999 3.646
4.239 5.221 3.489
4.773 5.058 3.616
0.732 5.447 2.589
0.811 5.596 2.884
1.064 5.556 2.789
1.473 5.369 2.629
3.564 5.477 3.444
4.107 5.462 3.644
4.263 5.455 3.804
4.149 5.368 3.922
4.589 5.301 3.740
0.810 5.449 3.007
1.194 5.694 2.945
3.496 5.340 3.608
3.830 5.580 3.800
4.202 5.455 3.683
4.256 5.327 3.718
4.614 5.344 3.995
4.999 1.034 0.131
5.085 1.392 0.113
5.207 1.565 0.490
5.500 1.760 0.493
5.369 1.861 0.838
5.865 1.695 0.837
5.727 1.902 0.738
5.259 1.910 0.951
5.886 1.784 1.093
5.909 1.765 0.939
6.121 1.832 0.956
5.402 2.066 0.903
5.501 2.249 1.259
5.714 2.154 1.273
6.118 2.061 1.006
3.000 2.525 0.484
2.935 2.533 0.422
5.361 2.189 1.306
5.636 2.163 1.141
5.933 2.384 1.338
6.160 2.370 1.470
2.551 2.734 0.509
2.841 2.772 0.574
3.039 2.626 0.808
3.362 2.544 0.592
5.281 2.421 1.478
5.634 2.247 1.505
5.813 2.391 1.355
6.050 2.255 1.469
6.198 2.176 1.534
0.459 3.123 0.095
2.683 2.743 0.852
2.650 2.688 0.829
3.216 2.885 0.735
3.283 2.930 0.821
5.728 2.767 1.367
5.665 2.752 1.575
6.066 2.489 1.600
6.150 2.429 1.741
2.142 2.703 0.735
2.384 2.585 1.090
2.667 2.889 1.079
2.862 2.681 0.855
3.164 2.861 1.039
3.520 2.663 1.182
5.171 2.320 1.447
5.346 2.279 1.733
5.862 2.293 1.739
6.124 2.194 1.660
6.261 2.258 1.830
0.185 3.029 0.319
2.531 2.887 0.879
2.533 2.960 1.162
2.733 2.706 1.361
3.111 2.827 1.426
5.551 2.804 1.749
5.779 2.689 1.970
5.776 2.668 2.106
6.106 2.353 2.230
2.529 2.848 1.303
2.736 3.187 1.376
3.022 2.933 1.155
3.001 2.842 1.533
5.314 2.907 2.212
5.633 2.575 2.242
6.130 2.576 1.911
6.345 2.727 2.140
2.592 3.431 1.309
2.615 3.168 1.470
2.719 3.260 1.422
5.602 2.710 2.313
5.661 2.731 2.095
5.764 2.963 2.152
3.784 4.384 2.932
4.162 4.463 2.925
4.255 4.360 3.156
0.881 4.738 2.197
1.192 4.546 2.356
1.236 4.504 2.457
3.603 4.680 3.241
3.849 4.712 3.266
4.202 4.327 3.353
4.567 4.420 3.127
0.529 5.015 2.382
0.860 4.969 2.382
1.092 4.725 2.454
1.467 4.778 2.346
3.846 4.640 3.330
3.738 4.533 3.110
4.162 4.681 3.282
4.366 4.585 3.422
0.833 5.113 2.573
0.835 4.905 2.389
1.259 4.763 2.561
1.543 5.009 2.780
3.511 5.073 3.249
3.659 5.091 3.431
4.055 4.996 3.475
4.004 5.045 3.351
4.303 4.909 3.673
4.354 4.648 3.570
0.352 5.390 2.385
0.622 5.295 2.605
0.817 5.288 2.480
1.040 5.346 2.619
1.292 4.939 2.698
1.349 5.278 2.843
3.732 4.944 3.759
3.711 4.874 3.659
4.241 5.173 3.594
4.318 5.013 3.853
0.570 5.333 2.700
1.005 5.506 3.014
1.097 5.464 2.669
1.198 5.490 3.099
3.468 5.008 3.577
3.790 5.312 3.901
4.298 5.049 3.700
4.359 5.032 3.697
0.610 5.566 2.805
0.832 5.300 3.095
1.007 5.284 2.857
1.140 5.418 3.065
3.987 5.426 3.923
3.970 5.345 4.045
4.168 5.286 4.089
0.696 5.496 3.204
0.945 5.520 3.336
1.165 5.402 3.054
2.596 2.358 0.562
2.954 2.115 0.466
3.225 2.329 0.672
5.661 1.915 1.070
5.847 1.728 1.191
5.947 1.865 1.253
2.643 2.565 0.618
2.987 2.435 0.684
2.790 2.269 0.569
3.359 2.197 0.936
5.799 2.231 1.451
5.983 1.921 1.312
6.098 1.906 1.658
6.082 2.049 1.435
2.446 2.572 0.647
2.599 2.414 0.676
2.845 2.508 0.664
3.324 2.535 1.131
5.429 2.326 1.508
5.772 2.181 1.748
6.062 2.311 1.585
6.099 2.035 1.707
2.217 2.792 0.801
2.450 2.566 0.869
2.706 2.762 0.928
2.957 2.717 0.977
3.210 2.498 1.015
3.456 2.635 0.945
5.240 2.625 1.698
5.539 2.560 1.577
5.639 2.594 1.882
6.153 2.544 1.985
6.312 2.446 1.938
0.527 2.829 0.188
2.506 2.755 1.159
2.745 2.652 0.955
2.996 2.489 1.034
3.165 2.329 1.046
5.694 2.229 1.707
5.492 2.328 1.838
5.889 2.071 1.872
6.287 2.201 2.087
2.522 2.898 1.079
2.462 2.824 1.403
2.796 2.487 1.221
2.890 2.714 1.520
5.316 2.287 1.861
5.615 2.414 2.126
5.858 2.335 2.269
5.765 2.337 2.261
6.302 2.463 2.082
0.423 2.802 0.472
2.585 3.065 1.456
2.677 2.830 1.329
5.316 2.707 2.093
5.626 2.549 2.098
5.549 2.609 2.275
5.719 2.442 2.317
5.942 2.750 2.367
5.320 2.602 2.240
5.510 2.750 2.189
5.558 2.883 2.534
5.883 2.906 2.234
5.894 2.919 2.375
5.330 2.889 2.539
5.462 2.884 2.631
5.484 2.705 2.321
5.623 3.026 2.542
5.191 3.166 2.569
5.200 3.155 2.417
5.760 3.117 2.559
4.933 3.172 2.492
4.872 3.434 2.667
4.548 3.737 2.936
4.403 3.714 3.029
4.395 3.674 3.102
4.679 3.740 2.856
4.131 4.020 3.025
4.301 3.849 2.933
4.504 3.931 2.932
4.675 4.154 3.146
3.570 4.068 3.141
4.111 4.408 3.274
4.071 4.201 3.251
4.503 4.340 3.108
4.712 4.003 3.316
3.744 4.387 3.168
4.052 4.464 3.302
3.952 4.486 3.264
4.369 4.163 3.393
4.687 4.341 3.303
1.077 4.609 2.459
1.076 4.768 2.444
3.665 4.719 3.155
3.775 4.382 3.473
4.054 4.582 3.598
3.993 4.529 3.399
4.227 4.536 3.384
4.386 4.463 3.480
0.514 4.801 2.610
0.979 4.983 2.808
1.035 4.979 2.690
1.251 4.749 2.585
3.769 4.898 3.553
3.912 4.901 3.658
3.867 4.762 3.795
4.246 4.655 3.558
0.462 4.977 2.610
0.873 5.173 2.972
1.256 5.020 3.060
1.159 4.791 2.912
3.803 4.900 3.846
3.911 4.676 3.920
4.046 4.833 3.740
4.178 4.937 3.825
0.314 5.388 2.828
0.478 5.040 3.036
1.029 5.103 3.006
1.213 4.953 3.144
1.084 4.947 2.934
1.435 4.927 3.066
3.993 4.892 3.863
4.204 4.875 3.882
0.512 5.483 3.086
0.901 5.302 3.039
0.889 5.458 3.404
1.340 5.408 3.063
1.569 5.374 3.133
0.742 5.343 3.368
0.683 5.534 3.285
0.823 5.483 3.129
1.082 5.553 3.499
1.486 5.556 3.484
2.392 1.430 -0.088
2.523 1.865 0.270
2.623 1.733 0.285
2.763 1.771 0.198
2.485 2.092 0.501
2.441 1.855 0.476
2.891 2.079 0.712
3.175 1.735 0.681
2.420 1.963 0.623
2.350 2.068 0.652
2.665 1.905 0.653
3.000 2.211 0.830
2.989 2.217 0.733
2.207 2.310 0.547
2.443 2.240 0.896
2.778 2.254 0.667
3.078 2.195 0.749
3.056 2.075 0.825
5.773 2.139 1.554
5.792 1.975 1.767
2.357 2.337 0.834
2.416 2.323 1.016
2.767 2.450 1.059
3.116 2.380 1.207
3.343 2.501 0.937
3.528 2.523 0.934
5.299 1.950 1.845
5.635 2.207 1.846
6.113 1.862 1.853
6.204 2.177 1.813
2.595 2.445 1.274
2.681 2.534 1.292
2.812 2.400 1.023
2.932 2.420 1.385
5.318 2.224 1.701
5.597 2.223 2.110
5.800 2.211 1.904
6.171 2.071 1.849
2.483 2.382 1.092
2.600 2.583 1.125
2.735 2.338 1.512
3.015 2.522 1.379
5.381 1.946 2.043
5.659 2.019 2.047
5.687 2.196 2.329
5.930 2.002 2.325
2.669 2.422 1.479
3.019 2.401 1.299
5.209 2.081 2.164
5.519 2.349 2.175
5.812 2.295 2.466
6.086 2.432 2.532
0.210 2.737 0.848
5.226 2.557 2.142
5.456 2.452 2.354
5.719 2.241 2.216
5.609 2.500 2.453
5.878 2.346 2.402
0.296 2.866 1.086
5.036 2.713 2.461
5.249 2.738 2.377
5.786 2.614 2.621
5.637 2.416 2.488
6.147 2.673 2.834
0.032 3.105 1.150
4.914 2.612 2.630
5.124 2.861 2.521
5.281 2.900 2.728
5.582 2.813 2.604
5.810 2.759 2.839
6.042 2.577 2.844
4.991 3.023 2.799
4.965 3.035 2.758
5.233 3.042 2.824
5.418 2.717 2.931
5.688 2.984 2.992
4.649 3.284 2.730
5.018 3.293 2.765
5.256 3.226 2.659
5.330 3.001 2.864
5.402 3.287 2.959
4.574 3.235 2.838
4.422 3.544 3.065
4.881 3.486 2.914
5.020 3.139 2.866
5.478 3.155 2.906
3.988 3.470 3.047
4.575 3.553 2.841
4.381 3.713 3.014
4.799 3.634 3.068
5.210 3.249 3.374
4.123 3.811 3.060
3.928 3.675 3.201
4.503 3.544 3.078
4.361 3.688 3.342
4.866 3.441 3.256
3.526 4.046 2.957
4.002 3.825 3.280
3.955 3.974 3.116
4.515 3.774 3.390
4.506 3.620 3.168
4.756 3.937 3.607
3.370 4.146 3.411
3.471 4.280 3.299
4.066 3.984 3.515
3.971 3.895 3.388
4.097 4.122 3.558
4.315 4.144 3.519
3.507 4.377 3.371
3.428 4.229 3.422
3.646 4.394 3.625
4.234 4.067 3.491
4.376 4.180 3.505
4.417 4.357 3.478
3.326 4.235 3.419
3.550 4.401 3.454
4.018 4.547 3.802
4.135 4.327 3.720
4.323 4.482 3.742
0.946 4.882 2.629
1.095 4.845 2.946
3.407 4.602 3.943
3.951 4.660 3.741
4.125 4.381 3.929
4.081 4.459 3.995
0.427 5.010 3.017
0.954 4.777 2.859
0.872 5.025 2.833
1.155 4.971 3.114
3.577 4.861 4.067
4.023 4.623 4.147
0.374 5.163 3.145
0.510 4.838 3.088
0.842 4.951 3.202
0.917 4.804 3.162
1.172 5.005 3.235
0.345 5.096 2.986
0.712 5.016 3.227
0.677 5.151 3.376
0.874 5.060 3.453
1.035 5.060 3.294
1.328 5.300 3.662
0.271 5.533 3.280
0.369 5.522 3.276
0.772 5.526 3.577
1.039 5.419 3.602
0.971 5.439 3.421
1.470 5.125 3.584
2.131 1.328 -0.043
2.510 1.374 0.068
2.657 1.293 -0.040
1.991 1.141 -0.027
2.304 1.569 0.300
2.512 1.562 0.364
2.436 1.501 0.136
2.928 1.440 0.206
1.922 1.662 0.312
2.059 1.613 0.166
1.906 1.564 0.413
2.309 1.616 0.540
2.482 1.707 0.264
2.813 1.642 0.619
3.109 1.364 0.518
1.997 1.628 0.299
2.013 1.887 0.661
2.107 1.736 0.440
2.687 1.799 0.726
2.925 1.868 0.787
2.978 1.834 0.767
3.036 1.702 0.712
2.251 1.795 0.610
2.355 2.148 0.645
2.563 1.845 0.592
2.745 1.947 0.879
2.779 1.789 0.877
2.930 1.772 1.105
3.173 1.744 0.958
2.176 2.183 0.725
2.556 2.258 0.943
2.528 2.165 1.124
3.092 2.125 1.058
3.133 2.141 1.052
3.166 2.137 1.248
2.226 2.254 0.882
2.533 2.411 1.003
2.911 2.238 1.261
3.106 2.133 1.248
3.502 2.114 1.131
5.572 2.154 1.910
5.753 1.856 1.887
2.231 2.353 1.052
2.814 2.300 1.218
2.805 2.534 1.120
3.138 2.562 1.536
5.355 2.193 2.157
5.752 2.185 2.240
5.938 2.035 2.136
6.056 2.165 2.304
2.761 2.160 1.300
2.850 2.293 1.337
2.946 2.364 1.601
5.626 2.063 2.380
5.708 2.056 2.478
5.806 2.043 2.348
5.408 2.110 2.170
5.722 1.988 2.523
5.827 1.973 2.223
6.160 2.091 2.689
0.131 2.728 1.133
5.254 2.426 2.567
5.510 2.260 2.383
5.693 2.416 2.509
5.909 2.252 2.608
5.949 2.248 2.628
0.088 2.973 1.003
5.282 2.605 2.648
5.255 2.299 2.716
5.516 2.637 2.634
5.739 2.514 2.630
5.980 2.414 2.601
0.245 3.044 1.172
4.856 2.562 2.733
5.217 2.637 2.718
5.271 2.649 2.585
5.612 2.600 3.029
5.523 2.741 2.993
6.083 2.408 2.876
-0.095 3.001 1.577
4.612 2.693 2.623
4.775 2.912 2.916
4.867 2.810 2.909
5.339 2.983 3.135
5.506 2.849 2.951
5.542 2.912 3.137
5.702 2.898 2.910
4.499 3.126 2.903
4.510 3.129 2.959
4.668 2.957 3.099
4.960 2.925 3.115
5.202 2.841 3.117
5.653 2.951 3.212
5.699 3.024 3.267
4.277 3.265 3.101
4.281 3.268 2.785
4.711 3.190 2.915
4.564 2.956 3.283
5.180 3.129 3.248
5.079 3.056 3.074
5.618 3.135 3.080
3.992 3.318 2.941
4.117 3.474 3.049
4.402 3.242 3.243
4.589 3.219 3.226
4.588 3.214 3.195
5.039 3.295 3.138
5.025 3.389 3.254
3.695 3.717 3.112
3.852 3.627 3.105
4.171 3.604 3.297
4.167 3.518 3.440
4.700 3.655 3.483
4.859 3.510 3.405
5.001 3.667 3.478
3.317 3.975 3.341
3.607 3.719 3.455
3.754 3.771 3.527
3.948 3.909 3.229
4.202 3.576 3.331
4.698 3.649 3.621
4.571 3.852 3.590
3.414 4.159 3.198
3.811 3.945 3.565
3.810 4.109 3.524
4.113 3.725 3.589
4.345 3.824 3.645
4.286 3.758 3.607
3.235 4.097 3.465
3.676 4.275 3.422
3.710 4.292 3.575
3.908 4.197 3.681
4.431 4.057 3.734
4.426 3.876 3.603
3.367 4.497 3.646
3.704 4.077 3.658
3.904 4.091 3.721
4.203 4.021 3.891
4.168 4.268 3.740
3.652 4.529 3.874
3.764 4.305 3.728
3.868 4.549 4.077
0.515 4.888 2.925
0.810 4.699 3.272
0.761 4.887 3.413
0.323 5.116 3.274
0.328 4.682 3.438
0.905 4.781 3.369
1.025 5.014 3.378
0.995 4.757 3.503
0.234 5.257 3.472
0.555 5.005 3.296
0.794 4.835 3.428
1.069 5.062 3.417
1.179 5.110 3.733
1.516 4.837 3.793
0.190 5.208 3.500
0.424 5.233 3.738
0.705 5.239 3.509
1.086 5.051 3.858
1.250 5.343 3.835
1.340 5.252 3.721
2.216 0.954 -0.095
2.212 0.971 0.306
2.496 1.121 0.100
2.136 0.964 -0.004
2.011 1.370 0.054
2.294 1.292 0.233
2.405 1.220 0.149
2.669 0.989 0.370
1.245 1.313 -0.029
1.693 1.286 0.007
1.864 1.080 0.109
2.020 0.983 0.267
2.169 1.129 0.192
2.231 1.221 0.523
2.381 1.378 0.458
2.741 1.432 0.416
2.787 1.337 0.371
1.580 1.354 0.242
1.954 1.149 0.106
2.047 1.504 0.232
1.994 1.514 0.342
2.259 1.635 0.582
2.503 1.381 0.631
2.557 1.441 0.694
2.930 1.298 0.821
2.923 1.429 0.777
1.878 1.467 0.254
2.153 1.644 0.679
2.031 1.774 0.494
2.030 1.648 0.780
2.647 1.639 0.617
2.797 1.388 0.800
2.920 1.558 0.952
2.921 1.495 0.789
3.433 1.378 0.949
2.127 1.728 0.670
2.375 1.603 0.762
2.610 1.666 0.762
2.703 1.949 1.047
2.931 1.737 1.173
3.091 1.781 1.270
3.107 1.728 1.202
2.355 2.130 1.118
2.312 2.111 1.073
2.650 2.006 1.100
2.861 1.892 1.176
3.186 1.904 1.421
3.472 1.924 1.498
2.293 2.284 1.221
2.739 1.933 1.067
2.751 2.271 1.460
2.804 1.949 1.442
3.038 1.972 1.318
2.733 2.163 1.266
2.567 2.027 1.540
2.839 2.068 1.594
5.490 2.114 2.417
5.925 1.777 2.397
5.948 2.093 2.258
5.440 2.064 2.422
5.894 2.136 2.448
5.896 2.120 2.667
0.225 2.502 1.103
5.188 2.240 2.770
5.319 2.073 2.651
5.880 1.922 2.771
5.880 2.113 2.898
-0.120 2.782 1.061
0.154 2.566 1.157
5.186 2.537 2.575
5.132 2.376 2.989
5.282 2.205 3.045
5.801 2.453 2.875
5.909 2.237 3.151
-0.131 2.974 1.233
0.420 2.717 1.491
4.840 2.396 2.655
5.088 2.459 2.765
5.309 2.269 3.143
5.524 2.532 2.784
5.567 2.629 2.983
5.660 2.416 2.897
0.130 2.966 1.574
0.446 2.998 1.573
4.649 2.708 3.115
4.873 2.514 3.017
5.124 2.645 2.839
5.162 2.638 2.887
5.468 2.695 3.351
5.536 2.644 3.159
5.645 2.691 3.302
0.063 3.190 1.670
4.163 2.890 2.925
4.404 2.813 3.220
4.897 2.834 2.951
5.123 2.750 3.278
5.313 2.955 3.351
5.206 2.942 3.276
5.789 2.736 3.262
5.701 2.802 3.530
4.085 3.014 3.129
4.192 3.268 3.238
4.345 3.086 3.003
4.507 2.900 3.309
4.995 2.791 3.324
5.292 3.050 3.308
5.559 3.003 3.563
3.758 3.387 3.176
3.870 3.287 3.349
4.157 3.252 3.386
4.172 3.408 3.237
4.379 3.165 3.248
4.630 2.980 3.205
4.907 3.021 3.328
5.307 3.092 3.540
3.586 3.614 3.379
3.600 3.439 3.480
3.776 3.240 3.478
3.985 3.493 3.244
4.434 3.576 3.607
4.597 3.358 3.641
4.742 3.335 3.570
5.043 3.428 3.627
3.274 3.551 3.430
3.528 3.468 3.566
3.480 3.781 3.350
3.791 3.431 3.581
4.214 3.705 3.725
4.274 3.740 3.419
4.224 3.362 3.497
4.861 3.602 3.597
3.178 3.887 3.352
3.165 3.868 3.492
3.668 3.632 3.498
3.925 3.796 3.466
3.978 3.677 3.636
4.134 3.790 3.874
4.332 3.562 3.816
3.034 4.089 3.462
3.407 3.959 3.728
3.424 3.952 3.681
3.750 4.072 3.765
3.778 3.788 3.800
4.063 3.959 3.899
3.343 4.253 3.882
3.424 4.013 3.909
3.534 4.028 3.830
3.913 4.154 3.824
0.265 4.605 3.349
0.376 4.635 3.378
0.562 4.739 3.505
0.804 4.657 3.459
0.177 4.915 3.409
0.439 5.112 3.713
0.662 4.783 3.782
0.973 4.709 3.765
1.039 4.744 3.512
0.162 5.218 3.754
0.474 5.068 3.780
0.690 5.194 3.723
0.982 4.946 3.935
1.197 5.106 3.770
1.338 4.824 3.996
2.205 0.520 0.001
2.330 0.703 0.278
1.932 0.649 -0.068
2.110 0.655 0.168
2.243 0.719 0.067
2.583 0.824 0.362
1.205 1.045 -0.074
1.765 0.921 0.273
1.926 0.818 -0.047
1.896 0.823 0.278
1.937 1.071 0.464
2.200 0.961 0.628
2.586 1.035 0.257
2.477 0.789 0.493
1.480 1.276 0.004
1.602 0.952 0.193
1.989 1.004 0.139
2.084 0.920 0.543
1.868 1.079 0.640
2.312 1.191 0.372
2.636 1.195 0.833
2.478 0.944 0.772
2.976 1.140 0.573
3.088 1.056 0.907
1.591 1.177 0.445
1.702 1.414 0.604
1.991 1.337 0.598
1.830 1.243 0.766
2.186 1.270 0.698
2.350 1.200 0.687
2.810 1.427 0.820
2.671 1.118 0.932
2.967 1.128 1.078
3.461 1.175 0.903
1.866 1.168 0.459
1.907 1.244 0.583
1.962 1.700 0.627
2.223 1.473 1.005
2.201 1.640 0.952
2.718 1.538 1.178
2.890 1.595 0.984
3.043 1.500 1.236
3.417 1.492 1.320
3.489 1.257 1.100
2.148 1.435 0.865
2.083 1.717 1.229
2.152 1.602 0.895
2.716 1.679 1.033
2.593 1.392 1.013
3.207 1.439 1.257
3.391 1.603 1.250
3.433 1.633 1.424
2.217 1.926 1.229
2.532 1.644 1.349
2.942 1.890 1.400
3.039 1.655 1.349
3.317 1.735 1.515
3.451 1.669 1.598
2.365 1.917 1.234
2.639 2.024 1.573
2.771 1.753 1.705
3.366 1.922 1.664
5.774 1.694 2.688
6.064 1.839 2.590
-0.029 2.557 1.104
5.601 1.808 2.720
5.668 2.037 2.793
6.066 1.821 2.847
0.070 2.735 1.389
0.204 2.605 1.680
5.134 2.159 2.761
5.618 2.055 2.917
5.777 2.098 3.025
5.767 2.104 3.044
-0.006 2.591 1.625
0.416 2.736 1.619
0.371 2.595 1.879
4.877 2.372 2.935
5.202 2.467 3.020
5.360 2.444 2.982
5.547 2.343 3.058
5.746 2.172 3.436
0.304 2.757 1.869
0.385 2.961 2.001
4.638 2.611 3.250
4.829 2.409 3.340
4.999 2.656 3.296
5.517 2.373 3.228
5.568 2.357 3.425
5.621 2.473 3.536
-0.010 2.969 1.771
4.430 2.556 3.030
4.864 2.592 3.463
4.687 2.615 3.507
5.151 2.610 3.274
5.436 2.737 3.518
5.702 2.697 3.391
5.764 2.555 3.444
4.169 3.023 3.121
4.020 3.060 3.266
4.316 2.680 3.222
4.468 3.059 3.616
4.753 2.835 3.594
4.989 2.738 3.516
5.141 2.771 3.658
3.413 3.334 3.121
3.617 3.165 3.236
4.108 3.046 3.505
4.179 2.940 3.497
4.281 3.156 3.447
4.627 3.145 3.609
4.646 2.908 3.682
3.280 3.293 3.275
3.364 3.211 3.548
3.712 3.419 3.485
3.707 3.271 3.519
4.033 3.264 3.677
4.350 3.101 3.692
4.236 3.343 3.607
4.828 3.086 3.729
2.867 3.548 3.486
3.296 3.315 3.315
3.166 3.507 3.726
3.668 3.498 3.747
3.659 3.476 3.776
3.795 3.232 3.591
4.154 3.467 3.806
4.538 3.237 4.036
3.004 3.638 3.748
2.908 3.561 3.430
3.224 3.733 3.711
3.326 3.839 3.600
3.713 3.824 3.826
3.998 3.558 3.957
4.129 3.466 4.128
2.930 3.759 3.860
3.242 3.924 3.703
3.382 3.658 3.993
3.806 3.768 3.872
3.896 3.783 3.861
3.297 4.162 3.970
3.462 4.160 3.851
3.754 4.116 3.984
0.225 4.726 3.575
0.305 4.657 3.465
0.678 4.550 3.457
0.342 4.767 3.434
0.191 4.807 3.785
0.776 4.945 3.881
0.640 4.688 3.759
-0.098 4.806 3.722
0.175 4.807 3.832
0.347 4.971 3.695
0.725 4.693 4.076
1.181 4.805 4.006
1.945 0.303 0.064
2.132 0.397 0.059
1.151 0.660 -0.144
1.469 0.735 0.084
1.747 0.604 0.245
1.866 0.392 0.163
2.073 0.578 0.192
2.348 0.756 0.483
0.964 0.804 0.067
1.164 0.945 0.174
1.293 0.563 -0.020
1.751 0.867 0.108
1.805 0.908 0.414
2.075 0.643 0.500
2.156 0.919 0.305
2.363 0.974 0.634
2.558 0.891 0.835
2.426 0.606 0.558
1.381 1.014 0.257
1.390 0.835 0.299
1.910 0.992 0.454
2.122 0.753 0.492
1.842 1.125 0.839
2.050 0.905 0.888
2.410 0.845 0.891
2.755 1.099 0.771
2.977 1.107 1.001
3.122 0.861 0.877
1.611 1.055 0.504
1.972 1.018 0.799
1.879 1.383 0.620
2.202 1.045 0.902
2.565 1.111 0.829
2.465 1.298 0.792
2.765 0.907 1.255
3.139 0.899 0.922
3.147 0.953 1.356
3.502 1.090 1.261
1.767 0.993 0.717
2.139 1.541 1.111
2.525 1.351 0.866
2.556 1.298 1.088
2.695 1.481 1.368
2.932 1.043 1.121
3.228 1.127 1.269
3.222 1.038 1.504
3.482 1.006 1.406
2.199 1.419 1.118
2.319 1.614 1.205
2.756 1.606 1.397
2.884 1.343 1.479
3.231 1.512 1.401
3.546 1.496 1.394
3.562 1.370 1.493
2.624 1.495 1.650
2.898 1.400 1.696
3.030 1.577 1.667
3.140 1.641 1.649
3.505 1.580 1.709
2.691 1.618 1.594
2.732 1.912 1.521
2.984 1.584 1.726
5.565 2.017 2.989
5.903 1.859 3.250
0.383 2.303 1.433
0.443 2.492 1.821
5.430 2.204 3.264
5.602 1.841 3.312
5.865 1.943 3.179
0.368 2.511 1.934
0.564 2.370 1.918
0.410 2.478 1.713
4.977 2.342 3.215
5.459 2.294 3.388
5.507 2.067 3.526
5.929 2.290 3.481
-0.060 2.613 1.833
0.549 2.646 1.966
0.785 2.617 2.015
4.946 2.406 3.269
5.113 2.443 3.376
5.482 2.443 3.596
5.905 2.123 3.650
0.238 3.031 1.935
0.231 3.000 1.925
4.947 2.368 3.404
4.991 2.576 3.559
5.129 2.649 3.597
5.697 2.513 3.735
5.799 2.403 3.546
4.651 2.827 3.444
3.456 3.225 3.501
3.374 2.858 3.361
3.765 2.893 3.542
3.736 2.781 3.386
4.137 2.986 3.444
4.559 2.843 3.819
2.908 3.220 3.454
3.198 3.265 3.524
3.314 3.223 3.362
3.379 3.255 3.594
3.588 3.176 3.503
3.722 3.266 3.547
4.326 3.028 3.751
2.571 3.193 3.564
2.752 3.404 3.761
3.104 3.514 3.564
3.315 3.456 3.813
3.631 3.196 3.963
3.763 3.267 3.660
3.688 3.280 4.037
3.965 3.305 3.892
2.573 3.626 3.513
2.952 3.687 3.698
2.879 3.403 3.798
3.385 3.575 3.849
3.432 3.536 3.732
3.717 3.531 3.939
3.930 3.530 4.222
2.784 3.787 4.024
3.168 3.502 4.035
3.124 3.537 3.884
3.256 3.431 4.031
3.678 3.450 4.235
3.044 3.930 3.933
-0.091 4.597 3.753
0.011 4.430 3.667
0.485 4.803 3.714
0.624 4.612 3.953
5.272 4.036 5.545
0.139 4.654 3.780
0.438 4.668 4.187
0.433 4.964 4.025
0.595 4.609 4.067
1.478 0.117 -0.080
1.591 0.231 0.222
0.620 0.336 -0.075
1.055 0.316 0.015
1.216 0.368 0.270
1.519 0.394 0.148
1.670 0.647 0.314
0.490 0.505 0.174
0.681 0.664 0.172
1.196 0.441 0.185
1.436 0.424 0.189
1.383 0.620 0.361
1.508 0.417 0.474
1.867 0.830 0.585
2.087 0.926 0.580
2.246 1.033 0.859
2.474 1.016 0.968
2.453 0.671 1.084
2.678 0.618 0.920
2.995 0.876 1.203
3.328 0.750 1.197
2.305 1.083 1.020
2.624 1.040 1.271
2.914 1.114 1.149
2.768 1.056 1.096
3.310 1.022 1.250
3.401 0.731 1.524
3.722 0.683 1.555
2.249 1.086 1.166
2.426 0.990 1.350
2.905 1.227 1.203
2.875 1.219 1.523
3.026 1.137 1.512
3.481 0.908 1.342
3.778 0.866 1.653
3.738 0.988 1.757
2.594 1.447 1.232
2.634 1.169 1.556
3.071 1.252 1.576
3.150 1.243 1.573
3.170 1.269 1.708
3.611 1.247 1.777
3.789 1.259 1.731
2.504 1.514 1.552
3.053 1.269 1.770
3.302 1.203 1.576
3.508 1.185 1.952
3.529 1.579 1.692
3.016 1.662 1.907
-0.053 2.138 1.429
5.884 1.728 3.219
0.092 2.277 1.596
0.557 2.023 1.889
0.495 1.977 1.913
5.698 1.624 3.404
5.661 1.973 3.341
0.219 2.213 1.789
0.214 2.459 2.001
0.388 2.345 2.064
0.553 2.192 1.985
5.562 2.122 3.577
5.486 2.152 3.370
0.120 2.660 2.057
0.322 2.529 2.085
0.672 2.544 2.115
0.721 2.255 2.176
5.319 2.046 3.643
5.766 2.077 3.590
-0.114 2.808 2.176
0.157 2.533 2.502
0.402 2.682 2.194
0.922 2.675 2.327
-0.121 2.989 2.343
3.061 3.084 3.375
2.160 3.144 3.578
2.499 3.178 3.683
2.929 3.095 3.658
2.814 3.162 3.602
3.208 3.171 3.630
3.537 3.184 3.706
3.437 2.959 3.804
2.433 3.106 3.783
2.453 3.039 3.703
2.587 3.016 3.855
2.809 2.994 3.858
3.351 3.284 3.674
3.402 2.987 3.856
3.831 3.187 3.805
2.083 3.359 3.848
2.601 3.453 3.668
2.725 3.273 3.794
2.939 3.349 4.140
3.169 3.329 4.068
3.231 3.313 3.982
3.796 3.509 4.241
2.399 3.695 3.763
2.504 3.633 4.113
2.999 3.406 4.268
3.236 3.632 4.072
3.528 3.702 4.378
3.053 3.511 4.119
5.537 3.877 5.232
-0.070 4.630 4.067
0.377 4.410 3.952
5.168 4.099 5.598
5.468 4.085 5.703
0.215 4.487 4.066
0.530 4.460 4.401
0.523 -0.006 0.082
0.818 0.203 0.270
0.933 -0.027 0.222
0.147 0.606 -0.108
0.252 0.355 -0.070
0.819 0.358 0.316
0.804 0.280 0.252
0.847 0.474 0.307
0.330 0.703 0.149
3.495 0.465 1.358
2.883 0.885 1.436
2.849 0.806 1.432
3.248 0.625 1.346
3.131 0.947 1.454
3.468 0.801 1.794
3.712 0.795 1.580
4.123 0.848 1.547
2.728 0.847 1.305
2.755 0.985 1.683
2.960 0.816 1.700
3.353 0.710 1.762
3.491 1.098 1.598
3.531 0.724 1.769
4.083 0.764 1.699
2.431 1.039 1.546
2.854 1.303 1.677
3.226 0.961 1.820
3.465 1.205 1.980
3.386 1.000 1.673
3.876 0.843 1.813
3.993 0.908 1.850
2.942 1.440 2.043
3.094 1.133 1.995
3.185 1.066 1.962
3.624 1.411 2.146
3.605 1.323 2.084
3.168 1.256 2.289
0.344 1.855 1.758
0.189 2.113 2.113
0.372 2.118 1.999
0.509 2.081 2.101
0.897 1.778 2.023
5.456 1.848 3.787
0.260 2.215 2.080
0.211 2.343 2.006
0.278 2.340 2.350
0.909 2.109 2.138
0.885 2.285 2.439
5.594 1.783 3.654
0.194 2.467 2.358
0.229 2.375 2.252
0.578 2.347 2.387
0.734 2.304 2.438
1.067 2.439 2.503
1.073 2.287 2.555
-0.092 2.573 2.233
0.026 2.404 2.638
0.408 2.649 2.298
0.708 2.548 2.761
0.711 2.308 2.766
1.044 2.238 2.688
0.397 2.714 2.755
0.440 2.533 2.473
0.756 2.432 2.589
0.672 2.468 2.671
0.933 2.515 3.037
1.462 2.417 3.041
1.665 2.921 2.882
1.463 2.857 3.219
1.539 2.730 3.457
1.872 2.875 3.165
2.005 2.831 3.554
2.192 2.630 3.484
2.441 2.582 3.647
2.646 2.737 3.429
1.974 2.834 3.344
2.192 2.956 3.736
2.235 2.885 3.500
2.577 2.843 3.599
2.570 2.951 3.531
2.723 2.686 3.771
2.972 2.721 3.700
1.906 3.239 3.630
2.249 2.980 3.524
2.334 2.926 3.957
2.407 3.275 3.677
2.803 3.177 3.707
2.847 3.074 3.957
3.335 3.218 4.184
3.174 2.840 3.866
1.864 3.372 3.930
2.223 3.159 3.885
2.421 3.349 3.985
2.492 3.398 4.021
2.997 3.082 3.944
3.042 3.067 4.084
3.419 3.035 4.355
2.255 3.317 4.018
2.530 3.441 4.267
2.603 3.449 4.109
2.764 3.323 4.362
3.228 3.158 4.212
2.623 3.443 4.289
4.962 3.652 5.375
5.300 3.575 5.624
4.991 3.901 5.730
5.127 4.159 5.756
5.472 4.146 5.695
0.366 4.342 4.367
0.294 0.203 0.243
0.321 0.271 0.006
0.585 0.001 0.037
0.697 -0.175 0.151
0.263 0.296 0.115
0.118 0.125 0.367
0.671 0.105 0.429
0.056 0.244 0.185
4.735 0.013 1.655
3.688 0.594 1.781
3.906 0.553 1.599
3.732 0.404 1.651
3.955 0.393 1.846
4.557 0.300 1.669
4.436 0.246 1.775
2.842 0.541 1.532
3.066 0.684 1.815
3.533 0.759 1.876
3.842 0.469 2.004
4.011 0.530 1.725
4.267 0.582 2.041
4.253 0.441 1.838
2.897 0.783 1.506
3.213 0.932 1.912
3.355 0.801 1.638
3.528 0.648 1.724
3.860 0.750 1.836
3.680 0.494 2.130
3.921 0.784 1.898
4.402 0.840 2.110
2.908 0.772 1.983
2.946 0.938 1.898
3.094 0.747 2.027
3.264 0.954 2.003
3.851 0.760 1.923
3.964 0.758 2.330
4.188 0.867 2.238
2.800 1.185 2.269
3.294 1.004 2.074
3.402 0.959 2.228
3.570 1.181 2.237
3.933 1.140 2.365
3.206 1.185 2.266
5.115 5.118 -0.129
5.439 5.217 0.148
4.889 5.232 0.255
5.084 5.248 0.046
5.369 5.191 0.256
5.281 5.327 0.429
5.833 5.518 0.502
5.679 5.901 0.656
5.782 5.954 1.056
6.248 5.804 1.086
6.262 6.010 1.148
5.905 6.017 1.019
6.060 6.091 1.106
6.285 6.198 1.371
5.605 6.138 1.390
5.989 6.278 1.202
6.126 6.270 1.277
5.483 4.915 0.016
5.517 4.634 0.132
4.495 5.062 -0.040
4.623 5.198 -0.049
4.895 5.014 0.253
5.334 4.805 0.345
5.554 4.988 0.448
5.604 5.153 0.125
5.004 5.107 0.428
4.854 5.247 0.389
5.233 5.233 0.187
5.373 5.159 0.615
5.598 4.915 0.613
5.209 5.520 0.517
5.421 5.161 0.594
5.365 5.492 0.674
5.628 5.340 0.667
5.729 5.103 0.858
5.114 5.593 0.582
5.593 5.442 0.863
5.769 5.272 0.889
5.852 5.525 0.967
6.030 5.463 0.852
5.507 5.791 0.741
5.772 5.605 0.911
5.871 5.426 1.167
5.988 5.550 0.995
6.332 5.414 1.187
5.596 5.814 0.920
5.583 5.788 1.247
6.027 5.537 1.118
6.259 5.785 1.361
5.695 6.061 1.308
5.963 5.872 1.071
6.108 5.916 1.172
6.190 5.723 1.381
5.657 6.253 1.584
5.870 5.912 1.548
6.284 6.200 1.459
5.814 6.268 1.746
6.137 6.425 1.502
6.197 6.061 1.687
4.894 4.625 -0.122
5.240 4.388 -0.079
5.445 4.304 0.125
4.681 4.703 0.213
4.831 4.556 -0.104
5.112 4.574 0.240
5.041 4.738 0.378
5.411 4.571 0.453
4.164 4.747 0.100
4.552 4.915 0.050
4.733 5.080 0.284
4.884 4.965 0.457
5.099 4.650 0.202
5.453 4.892 0.280
5.638 4.887 0.664
4.353 5.240 0.329
4.696 5.115 0.461
5.124 5.026 0.298
5.111 4.889 0.546
5.321 5.097 0.435
5.735 4.970 0.641
5.927 4.725 0.897
4.874 5.110 0.685
4.778 5.179 0.469
5.298 5.337 0.762
5.500 5.351 0.871
5.666 5.236 0.959
5.894 5.058 0.993
5.890 5.156 0.944
4.931 5.158 0.664
5.244 5.222 0.684
5.422 5.205 1.080
5.436 5.200 1.007
5.889 5.305 1.163
6.076 5.050 0.911
6.156 5.074 1.271
5.186 5.679 1.134
5.375 5.346 1.058
5.372 5.626 1.119
5.716 5.236 1.178
6.143 5.602 1.243
6.351 5.560 1.063
5.108 5.493 1.002
5.516 5.471 1.143
5.762 5.667 1.494
6.027 5.725 1.297
6.253 5.704 1.221
5.337 5.800 1.591
5.594 5.743 1.615
5.765 5.927 1.634
5.928 5.532 1.656
0.608 6.124 0.030
5.847 5.885 1.500
5.979 5.899 1.530
6.144 5.682 1.716
5.582 5.914 1.770
5.944 5.908 1.938
5.978 5.859 1.895
5.798 6.203 2.120
6.230 6.375 2.159
5.208 4.314 -0.084
4.707 4.301 0.069
4.930 4.264 0.086
5.176 4.242 0.232
5.026 4.508 0.103
4.208 4.709 -0.025
4.195 4.636 0.127
4.541 4.506 0.393
4.683 4.760 0.302
5.012 4.396 0.288
5.077 4.322 0.208
5.327 4.429 0.568
4.160 4.994 0.395
4.402 4.752 0.210
4.618 4.747 0.559
4.860 4.635 0.532
4.862 4.499 0.392
5.027 4.848 0.672
5.412 4.540 0.491
5.399 4.513 0.709
4.374 4.960 0.527
4.397 4.724 0.315
4.575 4.846 0.468
4.865 5.030 0.435
4.925 4.703 0.852
5.533 4.822 0.913
5.397 4.646 0.656
5.836 4.746 0.799
4.249 5.103 0.781
4.663 4.865 0.531
4.937 5.071 0.660
5.245 5.112 0.972
5.137 5.131 0.839
5.711 4.806 1.033
5.541 5.150 1.098
6.088 4.790 1.060
4.866 5.413 1.100
5.047 5.376 0.956
5.211 5.321 1.075
5.377 5.020 0.938
5.879 5.294 1.266
5.888 5.075 1.355
6.210 5.216 1.258
4.941 5.427 1.316
5.288 5.525 1.144
5.309 5.292 1.247
5.552 5.161 1.084
5.756 5.292 1.548
6.177 5.201 1.585
5.041 5.272 1.204
5.443 5.614 1.435
5.834 5.310 1.655
5.869 5.222 1.425
5.936 5.220 1.458
0.656 5.853 0.230
5.236 5.447 1.425
5.644 5.694 1.560
5.876 5.468 1.478
6.027 5.472 1.624
0.547 6.176 0.171
0.935 6.212 0.447
5.778 5.592 1.684
6.061 5.591 1.705
6.099 5.526 1.961
6.071 5.721 2.048
0.631 6.485 0.385
0.916 6.191 0.405
5.619 5.770 1.854
6.213 5.911 2.066
6.142 5.850 1.870
6.088 6.126 2.131
6.249 6.079 2.415
4.456 3.924 -0.135
4.707 4.265 0.202
4.265 4.353 -0.113
4.240 4.135 0.048
4.275 4.336 0.075
4.509 4.092 0.363
4.872 4.374 0.104
3.712 4.515 0.391
4.193 4.294 0.292
4.269 4.286 0.331
4.324 4.466 0.228
4.642 4.536 0.383
5.083 4.187 0.405
5.285 4.233 0.708
3.630 4.460 0.185
4.054 4.453 0.503
4.272 4.406 0.445
4.597 4.580 0.492
4.668 4.585 0.643
4.981 4.553 0.471
5.069 4.599 0.714
5.377 4.412 0.859
3.862 4.655 0.652
4.297 4.903 0.728
4.625 4.911 0.752
4.459 4.795 0.670
4.663 4.623 0.950
5.217 4.646 0.714
5.425 4.610 0.916
5.496 4.483 0.786
4.357 5.122 1.001
4.549 4.808 1.069
4.693 4.810 0.898
5.028 4.733 1.096
5.193 4.726 0.959
5.328 4.742 1.047
5.738 4.672 1.268
4.637 4.898 1.168
4.830 4.934 0.958
5.072 4.870 1.107
5.424 5.079 1.063
5.804 5.111 1.233
6.035 4.945 1.208
6.296 4.824 1.226
5.385 5.213 1.419
5.413 5.172 1.360
5.609 5.009 1.389
5.812 5.026 1.556
6.197 5.082 1.738
5.550 5.189 1.554
5.748 5.337 1.779
5.645 5.290 1.661
6.145 5.299 1.891
6.087 5.020 1.827
0.559 5.646 0.474
0.656 5.627 0.372
5.516 5.607 1.561
5.870 5.523 1.773
6.153 5.492 1.723
6.165 5.389 2.009
0.762 5.904 0.408
0.939 5.802 0.498
1.063 5.791 0.446
5.750 5.753 2.124
6.052 5.748 2.231
6.042 5.489 1.906
0.543 5.932 0.467
0.628 6.108 0.442
1.245 6.078 0.774
6.070 5.664 1.983
6.225 5.608 2.016
0.611 6.190 0.746
0.880 6.057 0.828
6.271 5.991 2.340
4.109 4.181 0.011
3.682 4.175 0.293
3.896 4.012 0.452
4.238 4.181 0.462
4.423 3.957 0.151
4.463 3.928 0.435
3.554 4.462 0.127
3.649 4.364 0.263
3.797 4.251 0.394
4.214 4.283 0.271
4.284 4.291 0.686
4.737 4.476 0.753
4.801 4.079 0.790
3.541 4.732 0.331
3.835 4.674 0.412
4.157 4.665 0.630
4.005 4.542 0.401
4.559 4.589 0.462
4.508 4.463 0.619
4.821 4.524 0.866
5.209 4.572 0.900
3.746 4.499 0.549
3.994 4.541 0.839
4.021 4.471 0.956
4.456 4.492 0.934
4.709 4.517 1.058
4.891 4.495 1.105
5.087 4.357 1.089
4.054 4.881 0.895
4.522 4.797 1.012
4.652 4.652 0.857
4.950 4.524 1.126
4.869 4.540 1.137
5.212 4.598 1.288
5.301 4.869 1.537
5.767 4.823 1.393
5.640 4.935 1.742
5.897 5.098 1.745
6.112 4.910 1.762
0.426 5.615 0.088
5.658 5.172 1.922
5.831 4.972 2.070
6.098 5.140 2.047
0.531 5.629 0.619
0.684 5.770 0.683
0.835 5.746 0.737
5.855 5.119 1.859
5.771 5.369 1.859
6.318 5.027 1.867
0.679 5.743 0.520
0.677 5.860 0.739
1.165 5.791 0.883
1.383 5.795 0.553
6.090 5.338 2.009
6.201 5.396 2.326
0.494 5.987 0.553
0.699 5.843 0.894
0.963 5.969 0.733
1.381 5.746 0.986
6.155 5.355 2.524
0.595 5.928 0.929
0.601 6.036 0.975
0.860 6.265 1.074
4.113 3.701 0.456
3.420 3.946 0.115
3.608 4.015 0.239
3.930 4.129 0.590
4.075 4.070 0.634
4.408 4.168 0.393
3.227 4.196 0.399
3.346 4.427 0.474
3.628 4.382 0.550
4.125 4.009 0.750
4.212 4.352 0.504
4.494 4.334 0.546
4.629 3.932 0.734
3.279 4.570 0.538
3.527 4.597 0.663
3.700 4.483 0.447
4.091 4.237 0.555
4.322 4.313 0.788
4.495 4.197 0.678
4.597 4.398 0.780
3.343 4.399 0.568
3.372 4.609 0.803
3.473 4.502 0.712
4.053 4.481 0.763
4.274 4.307 0.770
4.409 4.362 1.072
4.482 4.587 1.131
3.945 4.522 0.918
0.919 5.502 0.649
6.052 4.779 2.180
0.545 5.568 0.807
0.857 5.515 0.566
0.797 5.297 0.817
1.083 5.351 0.592
1.406 5.459 0.931
6.065 5.073 2.395
0.457 5.814 0.841
0.811 5.803 0.622
1.098 5.413 0.812
1.025 5.450 1.068
1.474 5.403 0.999
6.121 5.082 2.351
0.531 5.775 0.985
0.809 5.605 0.992
1.010 5.840 0.969
1.014 5.960 1.022
1.481 5.635 1.035
0.537 6.179 1.163
0.722 6.102 1.119
0.976 6.020 1.292
1.130 6.091 1.053
0.787 5.979 1.460
3.613 6.249 2.558
3.960 6.119 2.841
6.193 2.250 2.312
6.323 2.335 2.599
6.051 2.343 2.850
6.095 2.060 2.758
6.155 2.290 2.517
6.254 2.444 2.860
6.188 2.720 3.147
6.313 4.490 4.982
6.166 2.062 2.553
6.180 2.125 2.710
5.941 2.405 3.072
6.119 2.466 2.960
5.974 2.606 3.176
6.191 4.294 4.980
6.011 4.173 4.832
6.126 4.299 5.146
6.073 4.634 5.254
6.063 4.575 5.262
6.141 1.955 2.696
6.244 1.943 3.072
6.023 1.899 2.976
6.346 2.011 3.273
6.007 2.322 3.294
6.172 2.277 3.527
5.826 2.479 3.385
6.298 2.325 3.522
6.393 3.828 5.101
6.103 4.173 5.034
6.065 4.148 5.151
5.578 4.276 5.195
5.953 4.256 5.352
6.142 4.529 5.301
6.202 1.470 3.027
5.971 1.741 3.310
6.270 1.613 3.121
6.122 1.737 3.164
6.414 1.829 3.527
6.107 1.966 3.676
6.306 2.082 3.321
5.882 2.283 3.578
6.368 2.361 3.754
6.088 2.311 3.708
6.255 4.064 5.347
5.694 4.214 5.387
5.846 3.861 5.324
5.991 3.828 5.303
5.538 4.187 5.442
5.685 4.346 5.438
6.224 4.357 5.711
6.162 1.489 3.185
6.017 1.396 3.197
6.251 1.499 3.419
6.105 1.951 3.282
6.134 1.715 3.729
6.017 2.145 3.452
5.987 1.868 3.754
5.831 2.135 3.786
6.050 2.062 3.746
6.181 2.445 3.879
5.743 3.792 5.381
5.631 3.882 5.453
5.948 3.758 5.423
6.026 3.892 5.628
5.476 3.927 5.597
5.992 4.095 5.848
6.162 4.197 5.845
6.368 3.955 5.773
6.073 1.646 3.611
6.285 1.565 3.459
5.937 1.676 3.585
6.081 1.571 3.687
6.061 1.952 3.903
6.170 1.923 3.991
6.024 1.957 3.750
6.155 2.120 4.125
6.419 2.007 3.949
6.114 2.161 4.357
5.413 3.524 5.386
5.778 3.570 5.511
5.895 3.729 5.608
5.905 3.923 5.867
5.413 3.834 5.797
5.718 4.045 5.873
5.937 3.993 5.903
6.020 3.904 6.083
5.889 1.115 3.656
6.341 1.397 3.787
5.869 1.590 3.816
6.013 1.390 3.762
6.467 1.252 3.834
5.692 1.695 3.920
5.889 1.417 3.931
6.383 1.449 4.046
5.832 1.859 4.277
6.026 1.629 4.096
5.488 3.424 5.421
5.718 3.798 5.840
5.821 3.417 5.614
5.290 3.827 5.983
5.929 3.629 5.873
5.901 3.930 6.040
6.195 1.156 3.851
6.105 1.029 3.810
6.120 1.307 4.082
6.168 1.232 3.846
6.302 1.070 4.048
6.081 1.535 4.091
6.356 1.233 4.032
6.034 1.467 4.506
5.559 3.410 5.904
5.671 3.481 5.920
5.562 3.468 6.025
5.249 3.799 5.993
5.619 3.536 6.146
6.004 0.825 4.037
6.358 1.118 4.085
6.150 1.167 4.317
6.160 1.490 4.291
5.309 2.944 6.112
5.401 3.282 6.121
5.394 3.539 6.235
6.095 0.607 4.039
6.302 0.944 4.433
6.012 0.800 4.312
6.244 1.327 4.680
5.383 3.110 5.908
5.528 3.204 6.355
6.210 0.515 4.132
6.189 0.507 4.346
6.154 1.013 4.716
5.469 2.829 6.171
6.110 0.125 4.236
6.340 -0.053 4.329
6.152 0.421 4.255
6.272 0.411 4.575
5.117 2.549 6.297
6.065 0.013 4.176
6.178 0.206 4.315
5.999 -0.195 4.562
6.013 0.043 4.713
5.443 2.363 6.364
6.316 0.004 4.471
5.448 1.624 6.126
5.010 1.882 6.323
5.420 1.342 6.118
5.129 1.406 6.362
5.336 0.985 6.043
5.279 1.101 6.200
5.250 0.764 6.106
5.123 0.812 6.434
4.114 6.169 3.088
4.135 6.257 3.500
4.600 6.266 3.229
4.540 6.046 3.518
3.379 6.136 3.316
3.480 6.176 3.447
3.866 6.240 3.316
3.921 5.925 3.417
4.105 6.210 3.343
