3.274 3.807 5.020
3.216 3.701 4.643
3.024 4.141 4.649
3.180 4.237 4.682
3.318 3.209 4.929
3.634 3.446 5.054
3.570 4.200 5.143
2.995 4.283 4.917
3.168 6.109 4.614
-0.102 1.122 4.283
0.290 0.786 4.262
0.487 1.288 3.810
0.266 1.537 3.828
-0.068 1.640 3.809
0.202 1.844 3.734
0.595 1.197 4.323
0.297 1.137 3.923
0.303 1.725 3.995
0.487 1.710 4.190
0.233 1.977 4.108
0.704 1.427 4.218
0.964 1.255 3.952
0.557 1.754 4.211
0.452 2.128 4.372
0.652 2.418 3.875
0.118 4.214 3.628
0.328 4.726 3.844
-0.275 4.590 3.613
0.951 1.369 4.474
1.017 1.232 4.308
0.727 1.490 4.450
0.749 1.864 4.488
0.320 3.819 3.624
0.131 4.131 3.380
0.245 4.254 3.418
0.251 4.443 3.592
0.080 5.021 3.177
1.323 1.502 4.175
1.260 1.539 3.886
1.193 1.978 3.884
1.115 2.047 3.986
0.350 3.826 3.505
0.600 4.017 3.411
0.217 4.688 3.322
0.532 4.765 3.444
0.454 4.755 3.698
0.270 5.404 3.249
1.590 1.235 4.365
1.508 1.710 4.426
1.093 1.974 4.063
0.585 3.683 4.020
0.828 3.945 3.501
0.442 4.239 3.570
0.921 4.606 3.674
0.715 4.886 3.737
0.367 5.336 3.736
0.508 5.602 3.754
1.070 3.795 3.577
1.049 4.152 3.913
1.016 4.281 4.013
1.209 4.219 3.817
1.068 4.850 4.001
0.660 5.034 3.720
0.958 5.111 3.614
0.801 5.431 3.426
1.094 4.211 3.729
1.366 4.044 3.881
1.391 4.042 3.848
1.051 4.391 3.760
1.249 4.564 3.987
0.833 5.169 3.556
1.042 5.196 3.469
1.227 3.898 3.748
1.522 3.933 4.101
1.626 4.213 4.334
1.443 4.448 3.814
1.522 4.731 4.085
1.319 4.838 3.680
1.444 4.969 3.916
1.462 3.554 3.968
1.361 3.943 4.296
1.354 3.929 3.856
2.010 4.047 4.341
1.445 4.542 3.904
1.619 4.816 4.268
1.506 5.164 4.031
2.124 3.608 4.463
2.018 3.718 3.964
1.817 3.829 4.215
1.782 3.912 4.421
1.923 4.497 4.124
1.997 4.600 3.934
1.839 4.505 3.973
2.565 3.336 4.171
2.471 3.779 4.088
2.027 3.860 4.486
1.937 3.864 4.538
2.085 4.554 4.480
2.251 4.552 4.492
2.396 4.358 4.402
2.383 3.081 4.265
2.299 3.101 4.555
2.361 3.630 4.241
2.210 3.596 4.664
2.539 4.261 4.364
2.500 4.112 4.529
2.250 4.304 4.170
2.796 2.688 4.536
3.072 3.292 4.495
2.658 3.527 4.525
2.946 3.502 4.666
2.725 3.756 4.739
2.374 4.406 4.163
2.568 4.266 4.461
2.977 4.574 4.297
3.040 3.206 4.576
2.944 3.334 4.676
3.226 3.667 4.394
2.812 3.714 4.559
3.113 3.888 4.446
2.774 4.195 4.312
2.827 4.340 4.582
3.376 2.974 4.989
3.578 3.390 4.847
3.271 3.448 4.849
3.115 3.765 4.469
3.079 4.005 4.686
3.139 4.513 4.495
3.459 3.664 5.106
3.262 3.573 4.731
3.357 4.219 4.553
3.442 4.216 4.727
3.380 4.380 4.541
2.996 6.382 4.316
3.478 3.492 5.082
3.443 3.816 4.659
3.719 4.136 4.954
0.246 0.798 3.636
0.286 1.260 3.552
0.291 1.660 3.434
0.543 0.898 3.786
0.262 1.344 3.724
0.130 1.596 3.786
0.407 1.951 3.741
0.305 2.046 3.496
0.536 1.009 3.754
0.402 1.327 3.865
0.740 1.820 4.135
0.271 1.729 3.673
0.592 1.793 3.558
-0.146 4.280 3.201
0.790 0.909 4.148
1.052 1.465 3.804
0.984 1.886 4.059
0.454 2.162 3.691
0.826 1.874 3.785
0.506 3.671 3.741
0.014 3.908 3.411
0.418 4.696 3.433
-0.057 4.834 3.622
0.284 5.027 3.583
1.065 1.256 4.289
0.786 1.277 4.154
0.978 1.974 4.290
1.092 1.790 3.821
0.437 3.691 3.512
0.265 4.077 3.582
0.409 4.196 3.180
-0.000 4.708 3.059
0.008 5.022 2.956
1.144 1.347 3.604
0.955 1.338 3.923
1.224 1.881 3.556
0.744 2.193 3.471
0.679 3.963 3.633
0.748 4.320 3.256
0.721 4.559 3.531
0.166 4.926 3.335
0.326 4.735 2.983
1.628 1.369 3.901
1.367 1.600 3.857
1.295 1.895 3.793
1.204 2.072 3.668
0.959 3.745 3.729
1.014 4.348 3.497
0.844 4.139 3.372
0.973 4.735 3.588
0.759 4.610 3.533
0.822 5.060 3.235
1.607 1.615 4.170
1.439 1.845 3.806
1.456 1.912 3.943
1.000 3.977 3.454
1.049 3.851 3.726
0.873 4.334 3.760
1.078 4.214 3.508
1.137 4.404 3.414
0.861 5.108 3.282
0.581 4.888 3.619
1.115 3.778 3.445
1.278 3.853 3.707
1.413 4.172 3.447
1.231 4.320 3.888
0.965 4.885 3.403
1.180 4.887 3.528
1.285 4.182 3.952
1.811 4.230 4.014
1.536 4.131 3.892
1.729 4.825 3.601
1.355 4.692 3.628
1.591 3.904 4.028
1.473 3.889 3.539
1.869 4.393 4.046
1.577 4.216 3.705
1.469 4.843 3.864
1.812 3.715 3.988
1.879 4.013 4.165
2.021 4.425 3.875
2.353 4.489 4.132
2.212 4.493 3.789
2.074 3.694 3.858
2.198 3.716 4.274
2.257 3.840 3.779
1.877 3.975 4.063
2.388 4.593 4.141
2.667 3.503 4.358
2.600 3.333 4.385
2.465 3.900 4.200
2.555 4.160 4.377
2.104 4.237 4.159
2.518 4.392 3.937
2.854 2.912 4.484
3.087 3.482 4.075
2.903 3.632 4.086
2.902 3.756 4.242
2.606 4.359 4.455
2.824 4.446 4.000
2.671 4.272 4.143
3.369 3.546 4.503
3.216 3.737 4.392
3.121 3.691 4.516
3.149 4.252 4.088
3.026 4.197 4.151
2.833 4.641 4.070
3.422 3.194 4.595
3.475 3.567 4.432
3.478 3.565 4.650
3.309 4.065 4.611
3.169 4.140 4.071
3.634 3.637 4.590
3.311 3.942 4.372
3.249 3.938 4.255
3.616 4.432 4.638
3.454 4.191 4.470
3.662 3.700 4.594
4.076 4.021 4.809
3.777 3.861 4.814
3.434 4.203 4.564
3.720 4.753 4.653
-0.061 1.010 3.480
0.257 1.028 3.454
0.327 1.344 3.643
0.279 1.292 3.208
0.530 0.744 3.867
0.253 1.327 3.369
0.593 1.332 3.479
0.459 1.836 3.257
0.576 1.211 3.593
0.662 1.043 3.555
0.293 1.557 3.837
0.704 1.649 3.375
-0.106 4.014 3.549
0.020 4.327 3.312
0.170 4.055 3.243
1.195 1.141 3.599
1.068 1.239 3.849
0.601 1.362 3.480
0.826 1.679 3.530
0.552 3.998 3.611
0.228 4.309 3.556
0.057 4.328 3.254
0.219 4.578 3.087
-0.105 5.187 2.958
1.411 1.387 4.028
0.938 1.514 3.809
0.986 1.429 3.671
0.857 1.718 3.694
0.230 4.033 3.306
0.472 4.020 3.239
0.602 4.132 3.022
0.520 4.536 2.748
0.300 4.953 3.150
1.411 1.453 3.458
1.344 1.615 3.481
0.976 1.534 3.693
0.834 1.789 3.270
0.697 4.134 2.942
0.735 4.443 3.038
0.620 4.637 3.357
0.491 4.562 3.146
0.694 5.051 3.301
1.364 0.993 3.513
1.286 1.761 3.618
1.584 1.604 3.650
1.053 1.980 3.478
1.147 4.244 3.278
0.898 4.062 3.449
1.039 4.523 3.105
0.859 4.596 3.003
0.682 5.222 2.852
1.826 1.388 3.597
1.674 1.689 3.780
1.496 1.764 3.792
1.583 1.976 3.383
1.228 3.944 3.200
0.850 4.253 3.330
1.208 4.471 3.527
1.138 5.148 3.483
1.892 1.244 4.023
1.861 1.461 3.618
1.888 1.916 3.876
1.226 4.410 3.340
1.083 4.415 3.609
1.439 4.501 3.444
2.401 1.676 3.696
2.077 1.622 3.848
2.380 3.545 4.005
2.426 3.873 3.655
2.393 4.325 3.811
2.809 3.184 3.815
2.764 3.773 4.131
2.751 3.822 4.160
2.643 4.178 3.787
2.653 6.451 3.911
3.496 3.156 4.137
3.382 3.370 3.912
2.949 3.961 4.124
2.870 3.928 3.790
3.118 4.087 3.772
3.356 3.527 4.465
3.638 3.429 4.369
3.231 3.684 4.256
3.491 3.799 4.166
3.360 4.237 4.289
3.826 3.426 4.144
3.787 3.829 4.340
3.369 3.703 4.047
3.508 4.254 4.488
3.670 4.482 4.041
3.692 3.261 4.345
3.793 3.611 4.518
3.974 3.782 4.160
3.618 4.489 4.203
3.802 4.763 3.984
0.545 1.126 3.239
0.421 1.214 3.318
0.480 0.840 3.190
0.503 0.931 3.350
0.286 1.576 3.562
-0.173 3.887 3.222
0.645 0.768 3.567
0.684 1.070 3.293
0.623 1.456 3.386
0.764 2.020 3.577
0.188 3.911 3.278
0.022 3.879 3.264
-0.145 4.341 2.915
0.137 4.310 2.882
1.315 0.903 3.606
0.747 1.463 3.416
1.113 1.687 3.231
0.670 1.620 3.276
0.679 4.004 3.102
0.162 4.325 3.327
0.259 4.305 2.969
0.474 4.587 2.903
0.031 5.019 2.659
1.457 0.940 3.374
1.381 1.506 3.680
1.085 1.616 3.794
0.918 1.908 3.351
0.431 3.804 2.690
0.464 4.019 2.586
0.291 4.122 2.550
0.364 4.868 2.734
0.212 4.980 2.898
1.150 1.418 3.308
1.335 1.286 3.427
1.459 1.800 3.099
1.360 2.178 3.326
0.912 4.069 3.115
0.599 3.979 3.192
0.445 4.307 3.058
0.341 4.736 3.064
0.288 4.888 2.893
1.398 1.318 3.459
1.638 1.264 3.590
1.610 1.860 3.192
1.491 2.087 3.310
1.074 4.409 2.801
0.682 4.307 2.676
1.036 4.757 2.755
1.605 1.195 3.645
1.933 1.565 3.251
1.699 1.820 3.198
1.355 2.072 3.409
2.284 1.645 3.892
2.182 1.438 3.383
1.683 1.683 3.518
1.938 2.434 3.553
2.398 1.622 3.600
2.077 1.557 3.835
2.205 2.259 3.583
2.576 1.547 4.060
2.424 1.539 3.671
2.880 1.434 3.952
2.123 6.424 3.125
2.029 6.211 3.501
2.505 6.254 3.150
3.375 3.676 3.858
2.978 3.919 3.613
2.984 3.693 3.828
2.489 6.473 3.341
3.581 3.135 4.112
3.780 3.287 3.946
3.423 3.571 3.681
3.580 3.908 4.165
3.333 4.545 3.663
4.028 3.229 4.180
3.691 3.908 3.951
3.454 3.615 3.939
3.383 4.216 4.219
3.330 4.274 4.145
3.920 3.429 4.095
4.083 3.800 4.155
3.951 3.920 4.018
3.620 4.453 3.828
3.903 4.389 4.260
0.414 3.317 2.998
-0.075 3.495 2.779
-0.032 4.181 2.538
1.174 0.862 3.270
0.910 1.115 2.893
0.490 1.344 3.069
0.410 3.644 2.657
0.628 4.075 2.879
-0.002 3.933 2.559
0.412 4.066 2.625
0.070 4.768 2.659
-0.080 4.603 2.844
0.890 0.988 3.561
1.256 1.475 3.203
1.266 1.461 3.089
0.694 1.972 3.442
0.755 3.788 2.906
0.300 3.861 3.070
0.498 4.498 2.935
0.197 4.499 2.762
0.192 4.909 2.804
1.486 1.294 3.258
1.565 1.198 3.135
1.387 1.727 3.544
0.989 1.937 3.264
0.747 3.613 2.395
0.566 3.992 2.496
0.569 4.265 2.383
0.513 4.362 2.751
0.607 5.088 2.554
1.437 1.034 2.871
1.118 1.509 3.042
1.326 1.752 3.180
1.319 2.097 3.127
0.856 4.371 2.399
0.593 4.468 2.833
0.837 4.753 2.591
1.815 1.198 3.066
1.513 1.191 3.316
1.741 1.964 2.844
1.618 1.746 3.098
1.327 2.059 3.234
2.076 1.428 3.252
1.576 1.575 3.514
1.823 1.832 3.044
1.954 2.122 3.439
1.760 2.434 3.365
2.240 1.126 3.228
2.219 1.675 3.583
1.839 1.623 3.404
1.808 2.076 3.416
1.687 2.469 3.420
2.564 1.245 3.645
2.274 1.817 3.623
1.973 1.775 3.196
2.225 2.043 3.532
2.907 1.715 3.592
2.466 1.549 3.761
2.577 2.203 3.194
2.947 1.765 3.658
2.982 2.120 3.450
1.633 6.337 3.156
3.155 1.613 3.778
2.130 5.963 2.972
2.095 6.459 2.749
2.412 5.984 3.217
2.092 6.359 3.256
2.696 5.780 2.971
2.601 6.347 3.405
2.763 5.748 3.327
2.850 6.105 3.187
3.638 3.331 3.550
3.552 3.526 3.516
3.644 3.841 3.526
4.068 3.487 4.092
3.779 3.821 3.654
3.793 4.009 3.695
3.518 4.117 3.743
3.852 4.557 3.623
4.225 3.141 3.840
4.348 3.280 3.937
3.977 3.870 3.731
4.270 3.923 3.870
3.787 4.088 3.978
4.018 4.648 3.901
0.089 3.144 2.266
0.194 3.221 2.183
0.539 3.561 2.242
0.312 3.708 2.413
-0.019 4.058 2.696
0.087 4.083 2.541
0.322 3.200 2.324
0.343 3.543 2.536
0.098 4.248 2.441
0.513 4.548 2.175
-0.018 4.664 2.566
0.338 4.931 2.096
-0.007 5.064 2.218
1.008 0.976 3.251
0.992 1.226 2.866
0.992 1.611 2.715
0.539 3.902 2.528
0.419 3.905 2.757
0.543 4.400 2.719
0.420 4.893 2.344
0.572 4.651 2.618
1.311 1.269 2.934
1.136 1.517 3.286
1.281 1.407 3.220
1.493 1.771 3.162
0.736 4.378 2.307
0.510 4.204 2.365
0.414 4.382 2.274
0.631 5.040 2.405
1.288 1.379 2.815
1.247 1.307 2.922
1.184 1.794 2.876
1.606 1.684 2.640
1.791 1.421 3.240
1.956 1.386 2.986
1.751 1.479 2.945
1.597 2.170 2.639
1.625 1.959 2.538
1.990 1.090 3.138
2.101 1.743 2.954
1.890 1.885 3.169
1.750 2.284 2.697
1.583 2.125 2.641
2.223 1.276 3.347
1.930 1.447 3.092
2.241 1.677 3.106
1.923 2.147 3.061
1.740 2.298 3.004
2.707 1.596 3.483
2.675 1.747 3.443
2.435 1.862 2.878
2.172 1.972 2.834
2.027 2.326 3.057
2.851 1.353 3.289
2.814 2.055 3.238
2.438 1.855 3.383
2.562 2.316 3.295
1.878 6.156 2.409
3.229 1.524 3.236
2.621 1.854 3.435
3.026 2.080 3.377
2.092 5.797 2.931
1.716 6.060 2.741
2.954 1.600 3.330
2.525 5.523 3.042
2.330 5.727 2.524
1.928 6.065 2.447
2.634 5.670 2.908
2.273 5.914 2.775
3.006 5.657 2.991
2.865 6.356 3.005
2.990 6.065 2.925
2.832 6.074 2.913
3.921 3.308 3.470
3.865 3.780 3.495
4.101 3.946 3.357
3.766 4.195 3.457
4.256 3.347 3.713
4.371 3.437 3.434
4.169 3.562 3.447
4.127 4.046 3.379
3.970 4.323 3.669
4.199 4.598 3.266
0.227 3.217 2.213
-0.093 3.523 2.026
0.301 3.126 1.961
0.185 3.584 2.053
0.048 3.497 2.299
0.333 3.932 2.004
0.010 3.936 1.933
0.105 4.450 2.143
-0.158 4.736 2.012
0.105 3.388 2.357
0.727 3.566 2.042
0.221 3.830 2.281
0.193 4.509 2.228
0.444 4.418 1.899
0.022 4.702 1.928
0.319 5.243 2.121
0.465 3.884 2.321
0.797 4.474 2.445
0.337 4.656 2.503
0.478 4.925 2.308
1.776 1.291 3.041
1.750 1.162 2.668
1.565 1.536 2.640
1.606 1.656 2.505
0.946 4.298 1.878
0.630 4.400 1.909
0.782 4.576 1.973
1.349 1.067 2.571
1.665 1.466 2.428
1.604 1.708 2.625
1.824 1.410 2.692
2.043 1.425 2.872
1.934 1.504 2.428
1.668 1.850 2.737
1.752 2.086 2.414
2.042 1.220 2.845
2.226 1.601 2.979
1.756 1.913 2.673
1.958 1.759 2.719
1.767 2.435 2.522
1.592 2.233 2.513
2.293 1.407 3.099
2.430 1.376 3.084
2.361 1.840 2.993
2.406 1.849 2.679
2.227 2.356 2.746
2.120 2.826 2.865
2.401 1.356 2.971
2.451 1.719 2.920
2.316 1.912 2.844
2.179 2.408 2.798
2.455 2.568 2.584
2.321 2.895 2.730
2.954 1.661 2.768
2.554 1.910 3.014
2.826 1.854 2.683
2.689 2.255 2.651
2.555 2.308 2.607
1.966 6.185 2.031
2.787 1.387 3.281
2.817 1.757 3.334
2.984 1.851 2.887
1.884 5.675 2.537
2.242 6.090 2.434
1.941 6.074 2.173
3.337 1.863 3.283
2.424 5.619 2.437
2.105 5.658 2.795
2.556 6.226 2.779
1.967 6.195 2.474
2.823 5.379 2.851
2.823 5.541 2.674
2.323 5.859 2.436
3.117 5.406 2.687
3.012 5.783 2.876
2.606 6.049 2.677
3.352 6.015 2.850
2.998 6.076 2.869
4.332 3.277 3.546
4.255 3.368 3.565
3.810 3.800 3.219
4.455 3.148 3.265
4.189 3.663 3.491
4.360 3.817 3.284
4.442 4.110 3.190
3.927 4.008 3.306
0.168 3.051 1.772
0.418 3.537 1.666
0.212 3.859 1.929
0.002 3.564 1.624
0.183 3.899 1.533
0.345 3.488 1.819
0.115 3.399 1.829
0.204 4.100 1.861
0.278 3.993 1.710
-0.061 4.246 1.752
0.043 4.881 1.739
0.128 4.681 1.778
0.351 4.209 2.247
0.201 4.121 1.824
0.347 4.701 1.931
0.079 4.713 1.813
0.063 4.723 2.093
0.471 4.527 2.077
0.568 4.536 1.807
0.521 4.895 2.229
1.746 1.141 2.658
1.635 1.772 2.769
1.689 1.591 2.267
1.913 1.484 2.251
1.787 1.934 2.547
1.945 1.632 2.248
1.522 2.186 2.527
1.793 2.359 2.458
2.131 1.247 2.587
2.222 1.401 2.762
2.011 1.544 2.628
1.737 2.217 2.361
2.150 2.474 2.177
1.983 2.576 2.129
2.056 2.807 2.259
2.352 1.370 2.773
2.393 1.342 2.334
2.328 1.642 2.557
2.276 1.883 2.664
2.250 2.091 2.240
1.952 2.825 2.462
1.933 2.534 2.650
2.441 1.336 2.530
2.357 1.423 2.712
2.649 1.790 2.738
2.373 2.376 2.383
2.444 2.172 2.641
2.581 2.731 2.399
2.473 2.699 2.596
3.035 1.543 3.001
2.564 1.520 2.668
2.989 1.707 2.704
2.677 2.078 2.746
2.662 2.465 2.814
2.626 2.870 2.747
1.944 5.803 2.220
3.270 1.384 2.987
3.268 1.971 2.856
2.940 2.179 2.814
2.473 5.173 2.404
2.174 5.823 2.218
1.965 5.655 1.957
2.010 6.323 2.192
2.379 5.007 2.347
2.759 5.319 2.228
2.220 5.834 2.155
2.258 6.009 2.025
2.243 5.981 1.948
2.607 5.572 2.524
2.787 5.611 2.201
2.868 5.514 2.195
2.621 6.167 2.517
3.249 5.333 2.635
3.279 5.383 2.643
2.825 5.677 2.743
2.657 6.169 2.287
3.272 5.986 2.881
2.970 5.886 2.717
2.829 6.093 2.616
4.783 2.735 3.327
4.509 3.334 3.363
4.356 3.340 2.936
4.593 3.742 2.894
4.258 4.144 3.352
0.133 3.382 1.627
-0.009 3.222 1.564
0.242 3.117 1.786
0.395 3.339 1.471
-0.008 3.680 1.467
-0.123 4.036 1.490
-0.023 4.353 1.397
0.122 3.662 1.716
0.578 4.314 1.889
0.246 4.392 1.390
0.025 4.506 1.365
0.296 4.691 1.421
-0.074 5.373 1.254
0.492 3.937 1.622
0.534 4.696 1.698
0.140 4.688 1.913
0.119 5.167 1.652
0.265 5.193 1.359
1.992 1.565 1.999
1.590 2.117 2.327
2.031 2.251 1.937
1.701 2.269 2.278
1.450 2.870 2.082
2.058 1.237 2.196
2.068 1.727 2.305
2.159 2.039 2.355
1.870 2.245 2.199
1.740 2.339 2.303
1.906 2.717 2.079
1.802 2.678 2.276
2.397 1.394 2.298
2.285 1.667 2.200
2.594 2.073 2.584
2.371 2.162 2.374
2.085 2.035 2.445
2.398 2.773 2.095
2.067 2.666 2.056
2.236 3.033 2.239
1.949 3.215 2.097
2.986 1.391 2.659
2.843 1.548 2.641
2.721 1.664 2.555
2.407 2.210 2.260
2.696 2.396 2.579
2.602 2.606 2.239
2.508 2.647 2.126
2.195 3.282 2.192
2.359 3.520 2.058
3.249 1.338 2.515
2.966 1.941 2.628
2.632 1.975 2.317
3.025 2.092 2.644
2.565 2.606 2.212
2.915 2.912 2.056
2.591 2.865 2.518
2.538 3.213 2.382
2.325 3.522 2.237
2.511 4.407 2.010
2.405 4.865 2.090
2.561 5.205 2.275
2.244 5.072 2.317
2.513 5.745 1.815
2.435 6.136 1.736
2.143 6.331 1.853
2.729 4.942 2.299
2.777 4.957 2.266
2.451 5.213 2.260
2.469 5.518 2.007
2.744 5.685 2.266
2.752 5.882 2.204
2.700 5.927 1.873
3.223 4.646 2.536
3.099 5.116 2.188
2.730 5.255 2.041
2.740 5.497 2.258
3.035 5.907 2.205
2.592 5.760 2.344
2.421 6.347 1.892
3.172 4.824 2.297
2.927 5.399 2.313
2.886 5.800 2.057
3.224 5.975 2.154
2.711 6.071 2.378
3.400 5.245 2.310
3.423 5.965 2.553
3.046 5.810 2.042
2.953 5.953 2.343
4.461 2.916 2.942
4.938 2.990 3.234
4.623 3.379 2.855
4.716 3.168 2.892
4.311 3.373 2.913
0.226 0.297 1.809
-0.014 0.811 1.751
-0.089 0.704 1.315
0.146 3.783 1.498
0.056 3.510 1.568
-0.068 3.751 1.045
0.301 4.303 1.185
0.096 4.691 1.062
0.265 3.848 1.169
0.256 4.422 1.487
0.400 4.709 1.289
0.415 4.687 1.277
-0.134 5.053 1.014
-0.045 5.380 1.148
0.757 4.709 1.539
0.413 4.921 1.421
0.161 5.146 1.326
0.202 5.286 1.301
0.140 5.506 0.969
1.689 2.033 2.097
1.848 1.944 1.887
1.586 2.310 1.620
1.633 2.639 1.777
1.898 2.657 1.855
2.310 1.728 1.734
1.984 1.871 1.928
2.077 2.142 1.824
1.955 2.221 1.679
1.705 2.663 1.887
1.898 2.923 1.952
1.763 3.299 1.428
2.415 1.943 1.893
2.394 2.154 2.039
2.394 2.027 2.224
2.039 2.809 2.088
2.412 2.730 1.938
2.048 3.244 1.726
2.278 3.013 1.509
2.063 3.394 1.784
2.169 4.043 1.572
2.497 1.939 1.953
2.511 2.154 2.020
2.414 2.221 1.867
2.394 2.888 2.164
2.506 3.022 1.906
2.437 3.214 1.975
2.312 3.298 1.635
2.490 3.816 2.098
2.126 3.942 1.611
2.539 4.101 1.881
2.171 4.115 1.564
2.706 2.245 2.236
3.032 2.286 2.191
2.476 2.979 2.095
2.888 3.211 2.008
2.318 3.259 2.109
2.268 3.213 1.866
2.707 3.567 2.085
2.314 3.912 1.931
2.765 4.078 2.113
2.491 4.107 1.723
2.355 4.328 1.799
2.181 4.576 1.665
2.600 4.735 1.982
2.823 3.261 2.153
2.594 3.485 2.121
2.795 3.781 2.272
2.727 3.575 1.709
2.468 4.213 1.665
2.615 3.838 2.152
2.520 4.149 2.191
2.609 4.610 1.797
2.634 4.897 1.874
2.338 5.248 1.744
2.559 5.622 1.833
2.200 5.522 1.545
2.160 5.556 1.871
2.982 4.015 2.008
2.959 3.862 2.213
3.245 4.295 2.067
3.178 4.219 1.866
3.076 4.697 1.738
3.122 4.783 2.115
2.841 5.372 2.108
2.935 5.687 1.851
2.806 5.517 1.673
2.687 5.729 1.791
2.478 6.270 1.476
3.156 4.108 1.844
3.357 4.793 2.238
3.115 4.823 2.271
3.266 5.089 2.073
2.780 5.049 2.252
3.238 5.476 1.950
3.030 5.580 1.687
2.986 5.975 1.996
2.539 6.033 1.675
3.587 5.092 2.345
3.211 5.155 2.218
3.066 5.385 2.023
3.082 5.340 2.058
3.158 5.720 1.947
3.099 5.965 2.068
3.389 4.961 2.190
3.284 5.444 1.920
3.203 5.760 1.863
3.548 6.108 2.346
3.567 6.090 2.164
4.827 2.408 2.799
4.915 2.522 2.815
5.023 2.889 3.039
4.953 3.171 2.972
4.334 3.576 2.556
-0.019 0.386 1.237
0.141 0.404 1.092
-0.079 0.621 1.086
0.011 0.900 1.481
0.017 1.221 1.446
0.589 0.736 1.384
0.661 0.797 1.367
0.641 1.234 1.164
0.186 4.490 0.784
0.413 4.602 0.913
-0.116 4.737 1.055
0.160 4.428 1.324
0.262 4.436 0.990
0.401 4.621 0.820
-0.046 5.036 1.123
0.365 5.075 1.087
0.273 5.538 1.155
-0.170 5.698 1.084
0.361 4.808 1.066
0.792 4.738 1.011
0.296 5.052 1.229
0.671 5.332 0.944
0.098 5.601 0.725
1.036 5.216 0.868
0.587 5.212 0.671
0.559 5.789 0.689
1.400 2.154 1.547
1.377 2.245 1.380
1.383 2.898 1.233
2.216 2.079 1.375
1.858 2.136 1.721
1.995 2.718 1.651
1.626 2.833 1.696
1.446 3.083 1.300
2.141 2.080 1.846
2.107 2.145 1.726
2.292 2.223 1.579
2.205 2.631 1.544
1.780 2.731 1.779
2.077 2.940 1.720
1.649 3.220 1.231
2.203 3.801 1.194
2.499 2.299 1.855
2.136 2.400 1.718
2.486 2.385 1.883
2.202 2.956 1.546
2.100 3.121 1.861
2.065 3.064 1.762
1.951 3.328 1.675
1.916 3.586 1.482
2.382 3.601 1.408
2.315 4.268 1.653
2.594 2.335 2.071
2.758 2.467 1.531
2.535 2.674 1.519
2.773 2.961 1.718
2.629 3.358 1.927
2.645 3.428 1.666
2.340 3.449 1.482
2.118 4.061 1.350
2.305 3.665 1.761
2.546 3.970 1.395
2.493 4.288 1.436
2.753 2.490 2.046
2.956 2.559 1.999
2.661 2.999 1.967
2.398 2.969 1.617
2.575 3.503 1.967
2.412 3.483 1.763
2.694 3.631 1.371
2.912 3.747 1.589
2.406 3.960 1.512
2.749 4.747 1.664
2.273 4.696 1.754
2.484 5.234 1.233
3.213 2.967 1.792
2.981 3.226 2.064
2.577 3.463 2.007
2.753 3.563 1.534
2.654 4.058 1.806
2.739 4.013 1.685
2.604 4.116 1.510
2.902 4.587 1.525
2.527 5.045 1.628
2.611 4.964 1.774
2.397 5.053 1.454
2.291 5.600 1.277
2.967 3.732 2.010
3.140 3.781 1.712
3.134 4.050 1.563
3.253 4.040 1.995
3.284 4.529 1.818
3.167 4.427 1.921
2.735 5.066 1.911
2.654 5.107 1.418
2.551 5.594 1.875
2.999 5.555 1.681
2.410 5.689 1.666
3.107 4.118 1.703
3.049 4.211 1.919
3.583 4.194 1.969
3.417 4.563 1.749
3.434 4.877 1.814
3.391 5.214 1.998
2.996 5.220 1.771
3.097 5.686 1.834
2.815 5.939 1.908
2.721 5.695 1.859
3.476 3.981 1.974
3.732 4.491 2.239
3.315 4.658 2.084
3.381 5.307 1.629
3.614 5.449 1.671
3.387 5.367 2.031
3.356 5.545 1.774
3.419 6.255 1.784
3.568 4.791 2.192
3.815 4.876 1.835
3.626 5.280 2.169
3.282 5.392 1.974
3.715 5.899 1.915
3.875 5.251 2.082
3.754 5.534 1.926
3.529 5.801 2.134
5.026 2.138 2.872
4.836 2.408 2.498
4.402 2.737 2.526
4.945 2.275 2.981
5.127 2.521 2.826
4.868 2.700 2.650
4.745 2.803 2.446
4.999 3.302 2.366
-0.024 0.168 0.934
0.081 0.639 1.176
0.354 0.354 1.002
0.416 0.450 0.853
0.291 1.219 1.036
0.345 1.436 0.837
0.064 1.583 1.068
0.819 0.641 1.368
0.387 0.554 1.021
0.203 0.983 1.151
0.665 0.348 1.456
0.409 4.472 0.772
0.390 4.652 0.571
-0.191 4.873 0.449
0.213 5.275 0.512
0.584 4.647 1.101
0.319 4.909 0.762
0.092 5.151 1.005
0.250 5.566 0.865
0.025 5.451 0.418
-0.158 5.775 0.699
0.075 5.839 0.763
0.685 4.765 1.080
0.398 5.165 0.815
0.374 5.201 0.598
0.599 5.660 0.865
0.188 5.690 0.388
0.570 5.446 0.745
0.550 5.686 1.003
0.889 5.890 0.920
1.610 2.183 1.587
1.497 2.447 1.586
1.377 2.917 1.112
0.825 5.381 0.521
0.794 5.463 0.466
0.749 5.824 0.369
0.591 6.096 0.716
1.812 2.207 0.985
1.802 2.628 1.071
1.435 2.766 0.949
1.380 3.004 1.051
2.220 2.083 1.166
2.095 2.460 1.392
1.984 2.318 1.477
1.776 2.906 1.181
1.477 3.154 1.229
1.642 3.416 1.124
1.895 3.904 1.118
2.219 2.074 1.459
2.469 2.365 1.505
2.414 2.896 1.521
2.082 3.001 1.522
2.225 2.940 1.272
1.642 3.335 1.431
1.603 3.865 1.174
2.032 3.819 0.938
2.534 2.181 1.643
2.671 2.446 1.156
2.472 2.722 1.168
2.288 2.915 1.426
2.161 3.057 1.325
2.085 3.325 0.973
2.172 3.707 1.167
2.369 4.009 1.219
2.335 4.167 1.079
2.793 2.300 1.456
2.411 2.473 1.414
2.405 3.075 1.291
2.585 3.116 1.334
2.394 3.281 1.662
2.129 3.551 1.132
2.592 3.815 1.038
2.527 3.759 1.445
2.711 4.139 1.434
2.688 4.533 1.452
3.003 2.790 1.757
3.028 2.808 1.341
2.654 3.130 1.786
2.667 3.260 1.475
2.557 3.861 1.266
2.766 3.972 1.257
2.599 3.797 1.642
2.979 4.017 1.256
2.798 4.372 1.631
2.841 4.571 1.338
2.546 4.793 1.361
3.079 2.779 1.881
3.033 2.996 1.715
3.096 3.554 1.665
2.837 3.914 1.603
2.633 4.152 1.267
3.132 4.325 1.336
2.872 4.260 1.703
3.154 4.431 1.320
2.736 4.835 1.201
2.588 5.083 1.570
2.687 5.125 1.175
3.432 3.343 1.739
3.372 3.793 1.538
2.853 3.872 1.540
3.137 4.173 1.888
2.946 4.545 1.821
3.095 4.866 1.656
3.062 4.850 1.543
2.879 5.070 1.675
2.928 5.548 1.603
2.911 5.488 1.578
3.331 3.789 1.446
3.250 4.051 1.758
3.778 3.970 1.884
3.388 4.698 1.580
3.516 4.704 1.844
3.430 5.026 1.539
3.316 5.497 1.780
3.417 5.633 1.349
3.112 5.479 1.421
3.641 4.130 1.681
3.677 4.170 1.551
3.394 4.707 1.753
3.331 4.778 1.502
3.370 5.009 1.728
3.603 5.260 1.775
3.485 5.371 1.275
3.293 5.745 1.536
3.905 4.401 1.719
3.979 4.772 2.056
3.710 4.683 1.566
3.533 5.193 1.613
3.797 5.506 1.663
3.828 5.790 1.564
3.593 5.612 1.738
3.807 4.761 1.845
4.185 5.102 1.822
3.893 5.643 1.530
3.833 5.715 1.918
5.053 2.093 2.327
4.602 2.124 2.091
4.897 2.660 2.496
4.780 2.960 2.154
5.144 2.266 2.626
4.941 2.374 2.386
5.191 2.429 2.607
4.963 2.965 2.479
4.615 3.223 2.232
0.039 0.596 0.657
0.171 0.618 0.563
0.240 0.748 0.526
0.686 0.555 0.747
0.633 0.790 0.744
0.326 0.846 1.049
0.366 1.427 0.627
0.961 0.486 0.677
0.873 0.924 1.034
0.357 0.984 0.840
0.876 0.807 0.915
-0.239 4.612 0.319
0.360 4.602 0.440
0.332 4.936 0.669
0.174 4.986 0.601
0.243 5.522 0.563
0.254 4.969 0.475
0.210 5.001 0.197
0.524 5.248 0.421
0.533 5.553 0.160
-0.086 5.755 0.135
-0.125 6.002 0.168
0.556 4.794 0.835
0.513 5.319 0.610
0.660 5.264 0.560
0.689 5.703 0.690
0.219 5.842 0.693
0.452 5.909 0.316
0.792 5.395 0.886
0.685 5.531 0.793
1.018 5.839 0.461
0.948 6.075 0.430
1.506 2.154 1.340
1.826 2.456 1.012
1.457 3.016 1.022
1.421 2.889 0.777
0.987 5.330 0.500
1.077 5.257 0.476
1.015 5.799 0.463
0.815 5.855 0.123
0.967 6.266 0.260
1.995 2.205 0.800
1.717 2.587 0.969
1.770 2.911 0.885
1.606 3.021 0.536
1.625 3.489 0.826
1.161 5.764 0.402
1.020 5.949 0.106
0.875 5.928 0.487
2.343 2.202 1.206
2.200 2.415 0.898
2.194 2.707 0.912
2.139 3.069 0.846
1.658 3.199 0.967
1.722 3.409 0.659
2.181 3.423 0.644
2.621 1.942 1.345
2.532 2.467 1.337
2.212 2.391 1.170
2.015 3.091 1.105
2.237 3.142 0.872
2.119 3.158 1.097
2.119 3.361 0.672
2.392 3.510 1.214
2.459 2.431 0.976
2.656 2.477 1.411
2.322 2.831 0.888
2.523 2.758 1.307
2.569 2.960 1.178
2.467 3.460 0.855
2.249 3.581 0.898
2.544 3.942 1.216
2.068 3.835 0.758
2.850 2.598 1.116
2.693 2.520 1.015
2.460 3.169 1.334
2.835 3.457 1.031
2.734 3.795 1.309
2.192 4.035 0.835
2.909 3.755 1.342
2.372 4.252 0.917
2.653 4.178 1.105
3.185 2.728 1.197
2.846 3.381 1.033
3.034 3.579 1.433
2.871 3.461 1.024
2.852 3.864 1.283
2.732 4.155 1.374
2.935 4.049 1.425
2.829 4.498 1.021
2.833 4.762 1.275
3.225 3.237 1.091
3.282 3.596 1.044
3.225 3.494 1.359
2.998 4.225 1.465
2.829 3.857 1.348
2.827 4.406 1.269
2.837 4.500 1.442
2.834 4.894 1.410
3.036 4.844 1.380
3.199 3.707 1.175
3.270 3.943 1.562
3.369 3.871 1.161
3.556 4.401 1.175
3.559 4.210 1.546
3.123 4.691 1.087
3.093 4.601 1.246
3.271 4.855 1.171
2.766 5.396 1.076
3.640 3.704 1.472
3.579 4.085 1.282
3.825 4.037 1.285
3.272 4.465 1.115
3.267 4.900 1.323
3.538 4.880 1.088
3.224 5.007 1.330
3.348 5.682 0.999
3.209 5.415 1.205
3.665 4.391 1.249
3.926 4.420 1.442
3.464 4.455 1.630
3.907 4.791 1.548
3.351 5.210 1.379
3.310 5.377 1.402
3.239 5.706 1.508
3.389 6.013 1.196
4.061 4.522 1.757
3.765 4.814 1.363
4.063 4.810 1.405
4.062 5.305 1.459
4.014 5.394 1.416
3.871 5.886 1.289
3.884 5.601 1.050
4.903 1.988 2.172
4.539 2.382 2.003
4.738 2.535 2.132
3.980 4.421 1.501
4.291 4.741 1.630
3.916 5.124 1.487
3.823 5.435 1.366
4.009 5.566 1.177
4.838 2.064 2.307
4.954 2.418 2.143
4.685 2.751 1.826
4.787 2.673 1.880
4.367 4.837 1.823
4.080 4.996 1.448
4.125 5.595 1.327
5.185 2.246 2.409
4.925 2.178 1.913
5.244 2.666 2.313
4.913 2.772 2.301
4.790 2.835 2.187
-0.031 0.152 0.275
0.050 0.373 0.313
0.182 0.329 0.439
-0.088 1.043 0.644
0.315 1.193 0.591
0.446 0.537 0.671
0.474 0.860 0.604
0.559 0.891 0.413
0.721 0.269 0.730
0.805 0.898 0.865
1.191 0.575 0.713
0.070 4.904 0.342
0.576 4.913 -0.031
0.302 5.121 0.425
0.279 5.331 0.331
-0.024 5.649 -0.176
0.034 5.552 -0.214
0.693 4.878 0.168
0.529 4.975 0.331
0.450 5.086 -0.064
0.342 5.397 0.012
0.501 5.787 -0.003
0.027 6.305 -0.006
-0.070 6.421 0.046
0.749 5.051 0.537
0.981 5.177 0.522
0.484 5.213 0.232
0.808 5.585 0.403
0.661 5.756 0.330
0.655 5.864 0.348
1.633 2.164 1.106
1.673 2.471 0.712
1.538 3.150 0.591
0.814 5.349 0.611
1.174 5.693 0.196
0.548 5.639 0.573
1.013 6.191 0.269
0.705 6.168 0.061
1.705 2.317 0.957
1.701 2.553 0.830
1.751 2.900 0.739
1.424 2.758 0.606
1.763 3.282 0.549
0.992 5.261 0.095
1.184 5.199 -0.047
0.952 5.590 0.016
0.875 5.926 -0.074
1.741 2.357 0.934
1.562 2.421 0.876
2.010 2.719 0.478
1.903 2.694 0.643
1.364 3.090 0.521
1.452 5.429 0.135
1.445 5.290 0.320
1.049 5.808 0.275
1.248 5.766 0.128
1.050 6.307 0.260
2.198 2.427 0.644
2.192 2.356 0.948
2.142 2.842 0.677
1.864 3.210 0.767
1.707 3.175 0.382
2.078 3.842 0.569
1.662 5.744 0.468
1.310 5.665 0.159
1.419 5.897 0.232
2.396 2.247 0.798
2.555 2.641 0.564
2.096 2.957 0.786
2.361 3.053 0.480
1.973 3.414 0.774
2.150 3.403 0.509
1.991 3.490 0.443
2.890 2.596 1.143
2.471 2.824 0.696
2.284 3.141 0.969
2.310 2.993 1.092
2.060 3.318 0.815
2.095 3.856 0.711
2.558 3.973 0.871
3.025 2.541 1.013
2.817 2.946 0.868
2.611 3.480 0.646
2.483 3.808 0.775
2.500 3.647 0.707
2.907 3.909 0.937
2.915 4.190 0.795
3.189 3.184 0.818
3.115 3.366 0.934
3.040 3.593 0.981
2.459 3.771 1.152
2.778 4.189 0.727
3.113 4.401 1.088
2.612 4.497 0.918
3.127 3.643 1.195
3.157 3.678 0.854
2.795 4.150 0.734
3.435 4.159 1.112
3.293 4.320 1.236
3.065 4.666 0.777
3.233 4.932 1.090
3.052 3.981 0.907
3.404 4.293 1.196
3.222 4.343 1.205
3.152 4.597 1.053
3.343 4.761 0.856
3.124 4.738 0.923
3.244 5.029 1.165
3.500 4.338 0.901
3.847 4.149 1.129
3.437 4.282 1.201
3.289 4.784 1.000
3.416 5.148 1.279
3.481 5.043 1.019
3.365 5.442 0.743
3.483 4.056 1.371
3.853 4.484 1.170
3.881 4.380 1.067
3.543 4.562 1.161
3.431 5.170 1.018
3.774 5.017 1.196
3.437 5.349 0.824
4.499 1.770 1.660
4.395 1.896 1.717
4.374 2.209 1.526
3.632 4.511 1.449
3.881 4.488 1.280
3.819 4.892 1.254
3.781 4.963 0.951
3.757 5.132 1.165
3.576 5.686 1.383
4.861 2.011 1.856
4.544 2.049 1.864
4.546 2.220 1.684
4.612 2.534 1.399
4.540 4.400 1.510
4.402 4.822 1.286
3.976 5.015 1.427
3.889 5.681 0.975
4.145 5.718 1.337
4.921 1.673 1.845
4.874 2.174 1.706
5.222 2.299 1.694
5.148 2.777 1.519
4.529 5.030 1.236
4.598 4.891 1.619
4.211 5.072 1.436
4.182 5.790 1.464
4.345 5.540 1.418
5.454 2.213 1.962
5.026 2.413 1.848
5.275 2.652 1.845
4.904 3.046 2.111
0.223 0.405 0.359
-0.147 0.687 0.436
-0.058 0.597 -0.004
0.259 0.211 0.039
0.533 0.438 0.366
0.137 1.035 0.480
0.832 0.433 0.381
0.532 0.795 0.443
1.068 0.583 0.476
1.314 2.270 0.462
1.376 2.583 0.316
1.239 2.568 0.500
0.634 5.266 0.317
0.510 5.419 0.214
1.891 2.390 0.611
1.887 2.620 0.463
1.691 2.454 0.650
1.662 3.104 0.279
1.122 3.344 0.386
0.958 5.397 -0.005
0.929 5.542 0.194
0.663 5.551 0.239
0.845 5.659 -0.011
2.126 2.348 0.500
1.859 2.364 0.451
1.710 2.770 0.536
1.693 2.709 0.385
1.435 3.142 0.251
-0.051 2.567 6.235
0.198 2.918 5.992
-0.101 3.431 5.905
0.380 3.274 6.074
0.475 3.425 6.374
-0.006 3.785 6.004
0.230 2.421 5.744
-0.025 2.725 5.694
0.170 3.401 5.655
-0.241 3.534 5.866
-0.117 5.927 5.764
-0.069 5.951 5.591
0.019 6.494 5.679
-0.172 2.465 5.593
0.087 2.412 5.662
0.181 2.585 5.430
0.054 5.717 5.371
0.005 5.650 5.334
0.387 5.723 5.610
-0.131 6.412 5.438
0.537 5.898 5.418
0.276 5.990 5.636
1.855 1.716 6.223
1.653 1.883 6.411
1.842 2.311 6.365
1.992 2.479 6.401
2.180 5.601 6.353
2.076 5.457 6.361
2.141 5.669 6.236
1.999 6.010 6.057
2.404 5.481 6.257
2.663 5.932 5.985
2.654 6.068 6.005
-0.156 2.786 5.828
-0.143 2.882 5.753
0.186 2.389 5.289
0.309 2.634 5.225
0.088 2.998 5.135
0.181 5.300 4.992
0.122 5.777 4.842
0.180 5.641 5.241
0.402 5.632 5.434
0.219 5.460 5.022
0.454 5.777 4.863
-0.041 5.965 5.302
0.365 5.610 5.057
0.657 6.089 5.435
0.325 6.050 5.021
1.525 1.641 6.118
1.748 1.851 6.247
2.133 2.330 5.989
1.694 2.456 5.761
1.960 1.786 6.102
2.345 1.907 5.827
2.058 2.244 6.048
2.011 2.703 6.280
2.126 3.031 6.240
2.236 2.139 5.974
2.510 2.192 6.018
2.359 2.217 6.090
2.041 2.636 6.297
2.321 2.910 6.006
2.128 3.340 5.967
2.493 2.314 6.377
2.288 2.643 6.147
2.324 2.760 6.177
2.664 3.156 6.208
2.455 3.078 6.215
2.892 2.618 6.211
2.662 3.213 6.002
2.295 3.492 6.284
2.522 5.797 6.168
2.485 5.590 5.673
2.170 6.070 5.805
2.837 5.411 6.269
2.873 5.597 6.208
2.533 6.098 5.948
2.553 6.204 5.715
0.298 2.344 5.275
0.118 2.514 5.329
-0.103 2.635 5.328
-0.165 3.256 5.350
0.303 4.989 4.611
0.061 4.912 4.970
0.319 5.052 4.749
0.253 5.421 5.144
0.191 5.690 4.862
0.159 5.544 4.802
0.204 6.097 4.671
0.485 5.092 5.208
0.749 5.562 4.977
0.487 5.400 4.911
0.586 5.775 4.597
0.298 6.374 4.652
0.711 5.575 4.943
0.454 5.707 4.838
0.410 6.148 4.685
0.328 6.453 4.639
0.783 6.156 4.968
2.212 1.561 5.656
1.931 1.811 6.041
1.697 2.107 5.599
2.143 1.837 5.954
2.102 1.866 5.583
2.147 2.204 5.872
1.791 2.413 5.649
1.763 2.683 5.919
1.823 3.207 5.520
2.270 1.717 5.701
2.672 2.080 5.959
2.131 2.521 6.027
2.252 2.823 5.793
2.132 2.755 5.588
2.420 3.433 6.013
1.968 3.400 5.545
2.594 1.815 6.269
2.569 2.054 6.090
2.842 2.680 5.753
2.264 2.736 5.962
2.570 2.821 5.699
2.219 3.378 5.834
2.069 3.570 6.006
3.270 2.182 6.008
2.966 2.462 5.870
2.933 2.515 6.022
2.846 2.625 5.925
2.874 2.846 6.223
2.423 3.220 5.849
2.322 3.626 5.783
3.426 2.340 5.974
2.969 2.910 5.874
2.843 2.889 5.951
3.221 3.357 6.262
2.718 3.354 5.963
2.755 5.780 5.939
2.761 5.806 5.774
2.409 6.189 5.736
-0.020 1.759 4.876
0.063 2.220 5.003
0.235 2.158 5.043
0.066 2.688 5.219
0.085 4.941 4.886
0.125 4.934 4.515
0.319 5.122 4.693
0.084 5.675 4.272
0.414 4.676 4.936
0.647 5.037 5.026
0.610 5.049 4.980
0.132 5.050 4.930
0.054 5.363 4.616
0.471 6.034 4.485
0.081 5.808 4.584
-0.128 6.192 4.230
1.081 4.808 4.646
0.519 5.085 4.551
0.474 5.321 5.014
0.400 5.187 4.504
0.320 5.437 4.566
0.628 5.910 4.601
0.594 6.301 4.661
0.848 4.457 4.995
0.986 4.740 4.884
1.153 5.343 4.796
0.700 5.189 5.091
0.702 5.684 4.706
0.556 5.669 4.624
0.509 6.325 4.588
2.266 2.129 5.380
2.099 2.354 5.439
2.133 2.209 5.446
2.103 2.427 5.262
2.125 2.899 5.402
2.100 3.123 5.426
2.004 3.382 5.560
1.752 3.612 5.131
2.008 3.964 5.248
2.581 1.795 5.625
2.800 2.191 5.661
2.615 2.607 5.619
2.351 2.781 5.791
2.150 2.682 5.308
2.030 3.022 5.587
2.138 3.179 5.313
1.887 3.602 5.549
2.055 3.838 5.253
2.667 1.792 5.660
2.955 2.180 5.592
2.695 2.411 5.626
2.526 2.925 5.965
2.485 3.117 5.601
2.335 3.060 5.343
2.533 3.491 5.795
2.510 3.934 5.569
2.185 3.906 5.369
3.077 2.463 5.942
2.950 2.669 5.651
2.963 3.126 5.949
2.668 3.011 5.886
2.844 3.546 5.503
2.906 3.423 5.792
2.426 3.597 5.465
3.181 2.729 5.654
2.996 3.065 5.856
3.256 2.938 5.587
2.916 3.524 5.898
2.747 3.599 5.518
2.539 5.866 5.712
2.743 6.144 5.597
-0.133 0.968 4.906
0.285 1.144 4.620
0.076 1.510 4.790
0.020 1.809 5.074
0.327 1.578 5.032
0.117 1.935 4.994
0.484 2.402 5.014
-0.051 2.725 4.721
0.283 2.906 4.593
2.728 0.010 0.983
2.756 0.307 1.057
2.652 0.294 1.177
3.269 0.134 0.856
2.941 0.582 0.967
3.201 0.027 1.246
3.530 0.726 1.079
3.851 0.148 1.191
3.690 0.561 1.013
3.250 0.521 1.423
4.129 1.403 1.382
4.326 1.272 1.671
4.668 1.786 1.770
4.763 1.813 1.779
5.317 1.610 1.697
5.687 1.584 1.670
0.730 -0.062 -0.182
2.114 -0.063 0.453
2.061 -0.049 0.921
2.718 0.127 0.948
2.828 0.050 0.829
3.153 -0.017 0.659
2.704 0.198 0.675
3.231 0.153 0.543
3.068 0.123 0.958
2.819 0.874 0.793
3.477 0.426 1.049
3.546 0.659 1.049
3.173 0.639 0.936
3.724 0.041 1.209
3.396 0.091 0.959
3.421 0.499 0.691
3.605 0.885 0.951
3.974 0.067 1.139
4.044 0.558 1.216
3.607 0.804 1.258
3.789 1.127 1.151
3.541 1.186 1.008
4.225 0.396 1.232
4.268 0.613 0.919
4.000 0.881 1.118
3.659 0.906 0.743
4.046 0.977 1.082
4.226 1.237 0.834
3.990 1.332 1.137
4.400 1.139 0.986
4.437 1.452 1.278
4.439 1.276 1.103
4.521 1.208 1.041
4.885 1.245 1.422
4.738 1.236 1.290
5.317 1.488 1.279
5.614 1.605 1.216
5.640 2.010 1.440
2.599 0.339 0.424
2.539 0.080 0.763
2.901 0.067 0.489
2.882 -0.161 0.634
3.212 0.346 0.321
3.442 -0.015 0.767
3.453 0.611 0.333
3.297 0.405 0.411
3.537 0.105 0.462
3.427 0.561 0.540
3.586 0.736 0.697
4.048 -0.213 0.818
3.778 0.327 0.746
3.546 0.606 0.493
3.774 0.783 0.872
3.530 1.004 0.536
4.277 0.366 0.672
4.039 0.210 0.882
3.809 0.671 0.501
4.110 0.617 0.677
3.517 0.833 0.381
4.506 -0.069 1.067
3.960 0.464 1.136
4.167 0.377 0.743
3.883 1.127 1.055
4.103 1.263 0.695
4.478 0.672 0.765
4.274 0.682 0.653
4.095 0.802 0.972
4.281 0.971 0.889
4.688 0.931 1.125
4.291 1.356 1.188
4.403 1.571 1.004
4.763 1.220 0.906
4.609 1.158 0.999
5.133 1.107 0.850
5.029 1.429 0.894
5.323 1.851 0.915
5.264 1.419 1.142
6.424 0.235 1.415
2.496 0.208 0.466
3.326 0.155 0.030
3.222 0.208 0.186
3.380 0.273 0.262
3.024 0.439 0.048
3.758 0.405 0.296
3.809 0.222 0.160
3.392 0.895 0.463
4.013 0.420 0.352
3.909 0.618 0.519
3.502 0.830 0.365
3.484 0.702 0.137
4.340 0.153 0.762
3.828 0.419 0.431
4.243 0.336 0.698
3.728 0.680 0.496
3.886 1.177 0.125
4.153 0.411 0.442
4.154 0.414 0.900
4.072 0.718 0.688
4.064 0.973 0.573
4.069 1.306 0.469
4.762 0.658 0.445
4.387 0.456 0.575
4.451 0.907 0.509
4.623 1.154 0.759
4.574 1.047 0.930
4.867 1.207 0.947
4.769 1.042 0.827
4.788 1.200 0.763
4.565 1.636 0.443
4.865 1.295 0.982
5.014 1.728 0.878
5.231 1.649 0.925
3.223 0.192 -0.115
3.489 0.228 0.019
3.534 0.210 0.156
3.923 0.599 0.003
3.804 0.444 -0.114
3.705 0.458 0.402
3.674 0.725 0.022
3.951 0.778 0.262
3.823 1.134 0.043
4.069 -0.086 0.223
4.357 0.037 0.575
3.914 0.804 0.217
4.049 0.588 0.392
4.142 0.796 0.057
4.406 0.312 0.694
4.657 0.380 0.266
4.067 0.535 0.452
4.088 0.984 0.273
4.392 1.096 0.284
4.765 0.355 0.352
4.795 0.627 0.459
4.240 0.828 0.132
4.430 1.064 0.323
4.894 0.662 0.376
4.612 1.076 0.593
4.818 1.268 0.680
5.105 1.078 0.369
4.752 1.182 0.458
5.107 1.260 0.604
4.606 -0.149 -0.101
4.269 0.504 0.308
3.978 0.292 -0.136
4.493 0.207 -0.100
4.382 0.271 0.417
4.629 0.629 0.291
4.365 0.944 -0.012
4.406 0.864 0.168
4.359 1.185 0.329
4.429 0.951 -0.022
4.659 0.928 0.152
4.639 1.523 -0.051
5.049 1.316 0.385
4.638 1.110 6.087
4.495 1.228 6.062
4.178 1.333 6.326
4.374 1.349 6.051
4.504 1.592 6.091
4.816 1.965 6.507
4.777 2.056 6.010
4.640 2.257 6.532
5.096 0.033 6.079
4.556 0.668 6.019
4.559 0.587 6.036
4.801 0.663 6.196
4.537 1.287 6.151
4.447 1.172 6.120
4.271 1.625 5.913
5.103 0.464 5.991
4.814 0.610 6.451
5.059 0.972 5.963
4.914 0.728 6.331
4.888 1.238 5.964
4.771 1.667 6.092
4.658 1.485 5.992
4.317 1.751 6.052
4.979 0.767 6.180
5.274 0.574 5.934
5.030 1.216 6.094
4.923 1.417 5.892
5.033 1.809 5.868
5.016 1.625 6.083
4.896 2.094 6.256
4.698 2.588 5.793
5.405 1.189 5.978
5.022 1.334 6.470
5.089 1.954 6.053
5.095 1.749 6.397
4.804 2.163 5.821
4.795 2.649 5.785
5.589 1.738 6.288
5.423 2.238 6.351
5.025 2.114 5.988
5.394 2.307 5.879
5.836 2.031 6.519
5.298 2.278 6.456
5.343 2.294 6.098
5.658 2.486 6.277
4.651 0.465 5.859
4.691 0.881 5.753
4.564 0.641 5.684
4.526 1.067 5.788
4.339 1.551 5.699
4.410 1.603 5.813
4.662 1.714 5.353
5.131 0.651 6.010
4.762 0.786 5.818
4.991 1.188 5.780
4.823 0.974 6.025
4.978 1.271 5.625
4.488 1.589 5.819
4.394 1.762 5.680
5.055 0.660 6.217
5.500 0.584 6.065
4.992 1.277 5.902
4.994 1.537 5.944
5.090 1.664 5.957
4.928 1.723 5.824
4.938 2.225 5.721
4.958 2.080 5.489
5.421 0.821 5.835
5.318 1.357 6.202
5.078 1.294 5.757
5.334 1.527 5.765
5.433 1.759 5.935
4.988 2.055 5.986
4.835 2.539 5.514
5.451 1.180 6.125
5.613 1.416 6.145
5.424 1.777 6.046
5.617 1.951 6.159
5.501 2.456 6.175
5.295 2.403 5.581
5.646 1.901 6.215
5.520 1.957 6.051
5.794 2.508 6.216
5.485 2.602 6.003
5.652 1.985 6.292
5.849 2.611 6.256
5.738 2.414 5.784
6.148 2.381 6.283
5.921 2.508 6.250
6.434 2.851 5.995
4.928 0.628 5.481
4.862 0.480 5.493
5.029 0.921 5.327
4.812 0.899 5.226
4.733 1.430 5.455
4.539 1.407 5.315
4.359 1.814 5.468
5.167 0.546 5.418
5.261 0.519 5.911
5.150 0.937 5.604
5.163 1.484 5.643
4.693 1.714 5.640
4.669 1.863 5.728
4.814 1.879 5.654
5.625 0.559 5.666
5.309 1.196 5.609
5.258 1.525 5.721
4.914 1.806 5.743
5.032 1.867 5.615
5.066 2.100 5.579
5.175 2.294 5.696
5.397 0.967 5.983
5.405 1.266 5.920
5.265 1.474 5.928
5.050 1.653 5.698
4.979 2.246 5.595
5.076 2.532 5.643
5.540 1.401 5.804
5.709 1.883 5.970
5.364 2.227 5.646
5.411 1.938 5.694
5.146 2.203 5.498
5.593 1.955 6.012
5.574 2.270 5.846
5.867 2.319 5.568
5.672 2.583 5.686
5.829 2.190 6.088
6.166 2.361 5.910
5.714 2.560 5.835
6.430 2.487 6.088
5.891 2.548 5.711
5.105 0.757 5.175
4.873 0.656 5.521
4.694 1.019 5.173
4.483 1.257 5.175
4.863 1.849 4.919
4.553 1.724 4.899
5.145 0.925 5.268
5.161 0.685 5.124
5.128 1.218 5.279
4.758 1.532 5.153
5.197 1.545 5.188
4.598 2.182 5.289
5.290 1.012 5.223
5.564 1.097 5.198
5.240 1.477 5.521
5.282 1.929 5.309
4.842 1.895 4.983
5.548 1.196 5.308
5.186 1.352 5.313
5.186 2.118 5.218
5.546 2.168 5.577
5.323 2.512 5.468
5.734 1.472 5.700
5.489 1.719 5.385
5.627 2.310 5.510
5.340 2.152 5.360
5.636 1.986 5.676
5.529 2.016 5.239
5.715 2.675 5.485
6.236 2.358 5.361
5.825 2.415 5.350
6.143 2.154 5.391
6.356 2.866 5.415
4.832 0.505 5.049
4.732 0.862 5.119
4.789 1.010 5.042
4.858 1.129 4.700
4.674 1.384 5.058
5.167 0.991 5.234
4.933 1.337 5.349
4.865 1.173 4.883
5.223 1.511 4.782
5.655 1.165 5.097
5.556 1.675 5.129
5.303 1.611 4.942
6.274 2.808 5.491
6.563 2.515 5.451
4.831 0.901 4.913
5.242 1.097 4.518
4.694 1.075 4.445
5.751 2.248 3.012
5.538 2.025 3.508
5.738 1.983 3.108
6.242 1.556 3.701
6.262 2.196 3.379
5.976 2.459 3.246
6.154 1.768 3.220
6.464 2.537 3.643
5.273 1.732 2.733
5.946 2.050 2.815
5.538 1.803 3.068
5.874 1.888 2.890
5.621 1.853 2.871
5.974 2.318 2.772
6.001 1.652 3.328
6.387 1.545 2.957
6.348 1.968 3.235
6.302 2.155 3.366
5.510 1.520 2.369
5.566 1.769 2.654
5.772 1.875 2.617
5.859 1.948 2.763
6.111 1.500 2.971
6.254 1.970 3.030
6.015 2.000 2.560
6.001 1.685 2.928
6.039 2.408 2.789
5.481 1.609 2.305
5.680 1.937 2.404
5.990 1.936 2.240
5.767 1.937 2.207
6.088 1.722 2.865
6.241 2.037 2.564
5.800 1.850 2.701
6.219 2.086 2.646
5.504 1.513 1.906
5.500 2.094 2.315
5.915 1.677 2.379
5.810 1.885 2.235
6.100 1.654 2.549
6.121 2.325 2.212
3.351 5.784 5.693
2.828 5.735 5.372
2.847 6.424 5.289
3.557 5.587 5.919
3.141 5.980 5.655
3.481 5.737 5.576
3.040 6.134 5.758
3.614 5.615 5.868
3.741 5.978 6.041
3.600 5.999 5.656
4.140 5.872 5.839
3.730 6.120 5.681
3.458 6.254 6.072
4.780 4.567 6.037
3.286 5.779 5.180
2.985 6.171 5.161
3.084 5.813 5.548
3.225 6.237 5.214
3.299 6.135 5.248
4.819 3.132 6.507
4.702 3.395 6.137
5.349 3.391 6.134
5.265 3.775 6.439
5.194 4.292 6.054
5.115 4.025 6.110
5.308 4.177 6.068
5.200 4.417 6.309
5.344 4.752 6.478
6.411 5.993 6.291
3.257 6.178 4.872
3.385 6.439 4.899
4.866 2.787 5.831
5.316 2.482 6.187
4.953 2.781 6.266
5.065 3.363 5.779
5.467 2.969 6.367
5.060 2.933 6.016
5.119 3.526 6.103
5.208 3.563 5.896
5.201 3.797 5.718
5.752 2.641 6.077
5.713 3.183 6.433
5.632 3.517 5.871
5.168 3.679 5.912
5.385 3.853 5.964
5.341 4.336 6.263
5.864 3.070 6.166
5.719 3.731 6.023
5.374 3.818 6.163
5.518 3.742 6.217
5.392 4.161 5.970
5.907 4.013 6.149
6.061 4.051 6.048
5.700 4.341 6.322
5.982 4.265 6.050
5.987 6.475 5.613
5.899 6.263 5.623
6.296 6.541 5.749
5.153 2.552 5.876
4.998 2.466 6.032
4.889 2.779 5.504
5.321 3.229 5.592
5.420 3.011 6.164
5.356 3.096 5.682
5.044 3.211 5.732
5.529 3.559 5.626
5.804 3.154 5.791
5.711 3.107 5.714
5.667 3.158 5.919
5.509 3.579 5.805
5.182 3.788 5.884
5.994 2.819 6.219
5.623 3.087 5.909
5.814 3.705 5.953
5.725 3.565 5.993
5.743 3.830 5.857
5.973 2.958 6.228
6.371 3.318 5.888
5.756 3.553 6.092
5.883 3.553 5.779
6.161 3.789 6.183
6.315 3.350 6.172
5.958 3.985 6.287
6.262 4.053 5.957
5.802 6.197 5.903
6.095 6.145 5.343
5.751 6.372 5.610
5.977 6.260 5.844
5.932 5.993 5.407
4.874 2.727 5.473
5.433 2.855 5.410
5.112 3.225 5.693
5.390 2.686 5.396
5.380 3.172 5.330
5.576 3.567 5.455
5.805 2.726 5.594
5.711 3.190 5.866
5.424 3.607 5.406
5.813 3.777 5.334
6.175 2.684 5.753
5.726 3.264 5.688
5.855 3.235 5.739
5.785 3.551 5.463
5.508 3.679 5.663
6.110 2.888 6.023
6.408 3.470 5.830
5.946 3.483 5.714
5.887 3.753 5.554
5.753 3.907 5.433
5.738 6.196 5.270
6.121 4.178 6.003
5.986 5.640 5.300
5.890 6.026 5.371
6.262 5.943 5.152
6.085 5.925 5.320
6.282 6.003 5.372
5.928 6.506 5.445
3.918 3.838 4.816
4.195 4.351 4.929
3.777 4.288 4.788
5.591 2.428 5.317
5.394 3.025 5.538
5.827 2.909 5.630
6.143 2.816 5.521
5.687 3.175 5.343
5.493 3.318 5.225
6.120 2.683 5.638
6.257 3.111 5.533
5.741 3.242 5.604
5.672 3.938 5.559
5.644 5.779 5.027
5.569 6.113 5.095
6.362 3.793 5.631
6.078 3.791 5.751
5.887 5.680 5.438
5.923 5.995 4.942
5.855 5.947 5.032
5.737 6.420 5.049
5.885 5.691 4.817
6.181 6.236 4.732
4.252 3.818 4.254
3.892 3.905 4.717
4.052 4.339 4.447
3.734 4.047 4.560
3.943 4.794 4.317
4.256 3.893 4.647
4.419 4.383 4.290
4.181 4.390 4.195
4.184 4.460 4.564
4.693 4.464 4.498
4.349 4.549 4.782
4.355 4.911 4.257
5.182 5.675 4.450
5.361 5.988 4.659
4.929 6.125 4.636
6.241 2.825 5.353
6.047 3.059 5.392
5.431 5.376 5.048
5.521 6.147 4.843
5.481 5.945 4.791
6.078 2.736 5.174
6.302 3.275 5.070
6.258 3.302 5.039
5.587 5.709 5.140
5.479 6.076 4.795
5.578 6.453 4.765
6.512 3.687 5.119
5.949 5.929 4.797
5.880 6.092 5.165
5.901 5.882 4.867
5.820 6.377 4.799
6.494 5.972 5.093
6.140 5.915 4.527
4.031 4.701 4.133
4.311 3.607 4.433
4.344 3.689 4.178
4.076 3.969 4.407
4.243 4.259 4.382
3.853 4.397 4.108
3.752 4.814 3.979
4.134 4.805 3.862
4.254 3.698 4.104
4.599 3.934 4.485
4.135 4.374 4.292
4.480 4.606 4.190
4.492 4.645 4.018
4.280 4.815 4.105
4.517 4.835 4.381
4.494 3.746 4.293
4.757 4.136 4.205
4.768 4.316 4.567
4.463 4.472 4.017
4.131 4.686 4.471
4.437 4.925 4.451
4.315 5.190 4.502
4.913 4.036 4.310
4.935 4.780 4.318
5.003 4.892 4.577
4.783 4.955 4.343
4.977 5.132 4.492
4.681 5.334 4.063
4.875 5.733 4.267
5.118 4.648 4.311
5.185 4.976 4.331
5.152 5.137 4.203
4.991 5.287 4.478
5.221 5.504 4.526
5.027 5.779 4.088
5.112 5.832 4.228
5.319 4.882 4.276
5.207 5.079 4.599
5.109 5.153 4.768
5.265 5.334 4.479
5.082 6.011 4.630
5.213 6.177 4.214
5.040 6.003 4.359
5.602 5.476 4.335
5.609 5.439 4.659
5.537 5.491 4.798
5.509 5.799 4.573
5.635 6.150 4.741
5.668 5.201 4.662
5.741 5.469 4.711
5.489 5.666 4.803
5.514 5.699 4.684
5.815 6.043 4.496
5.782 5.713 4.787
6.247 5.724 4.676
6.183 6.218 4.545
5.775 6.233 4.856
6.334 5.842 4.762
6.152 6.261 4.843
6.058 6.260 4.245
4.233 4.571 3.643
4.239 3.336 4.068
4.280 3.590 4.107
4.555 4.010 3.809
4.412 4.106 4.127
4.416 4.452 3.733
4.365 4.701 4.067
3.871 4.699 4.042
3.988 5.136 4.001
4.812 3.146 4.171
4.908 3.690 4.085
4.605 3.675 4.226
4.682 3.978 3.887
4.488 4.522 3.930
4.458 4.744 4.018
4.244 4.985 4.023
4.273 5.014 4.193
4.582 5.068 3.990
4.711 3.547 4.323
5.000 3.961 4.346
4.735 4.404 3.971
4.480 4.547 4.005
4.584 4.814 4.154
4.479 4.720 4.145
5.020 5.245 4.212
4.881 5.147 3.938
4.777 5.669 3.944
5.048 3.893 4.442
4.919 4.029 4.338
4.783 4.369 4.295
4.903 4.626 4.308
4.933 5.114 3.815
5.074 5.180 3.854
4.672 5.517 4.298
4.571 5.606 3.771
4.952 5.593 3.838
4.992 4.501 4.289
4.953 4.829 4.375
4.999 5.051 4.105
5.002 5.341 4.065
5.491 5.397 4.231
5.296 5.375 4.207
5.097 5.568 3.884
5.054 6.103 4.050
5.187 6.430 4.019
5.487 4.826 4.459
5.037 5.167 4.229
5.028 5.291 4.120
5.390 5.105 4.320
5.386 5.692 4.042
5.328 5.490 4.414
5.333 6.043 3.905
5.227 6.274 4.388
5.632 4.995 4.565
5.710 5.139 4.517
5.715 5.295 4.398
5.403 5.673 4.215
5.352 5.817 4.462
5.257 5.813 4.230
5.606 5.401 4.171
5.636 5.554 4.564
6.090 5.717 4.274
5.752 6.018 4.395
5.708 6.237 4.439
5.931 5.440 4.308
6.186 5.981 4.659
6.105 5.744 4.387
5.975 6.535 4.654
6.105 6.363 4.478
4.220 4.767 3.579
4.384 3.192 3.617
4.740 3.258 4.074
4.158 3.898 3.765
4.239 4.288 3.602
3.982 4.319 3.763
4.331 4.626 3.511
3.865 4.907 3.832
4.347 4.699 3.392
4.829 3.287 4.006
4.772 3.862 3.850
4.675 3.779 3.705
4.716 4.245 3.664
4.651 4.338 3.641
4.678 4.870 3.443
4.288 4.900 3.465
4.388 5.055 3.933
4.705 4.992 3.589
4.757 3.390 4.134
4.872 3.714 4.236
5.156 3.707 3.715
5.049 4.081 3.585
4.862 4.494 3.674
4.451 4.838 3.752
4.490 4.750 3.719
4.944 4.720 4.002
4.933 5.408 3.758
4.456 5.246 3.562
5.284 3.776 4.013
5.127 4.025 3.902
4.788 4.362 3.961
4.736 4.298 3.930
5.016 4.601 3.949
5.045 5.185 4.033
5.274 5.324 3.757
5.108 5.224 3.846
4.667 5.519 3.519
4.570 5.849 3.673
4.548 6.241 3.853
5.381 4.197 3.940
5.138 4.063 4.015
5.000 4.862 4.140
5.309 4.909 3.919
4.903 5.039 4.049
5.390 5.399 4.134
5.098 5.158 3.706
5.205 5.417 4.120
5.243 5.965 3.888
5.065 5.915 3.794
5.173 4.842 4.054
5.599 5.079 3.910
5.418 5.265 4.128
5.614 5.139 4.281
5.536 5.272 4.227
5.236 5.878 3.915
5.464 5.841 4.123
4.965 6.112 4.035
5.792 4.905 3.905
5.307 5.504 3.902
5.641 5.556 4.079
5.561 5.623 4.159
5.841 6.079 3.985
5.297 5.824 3.812
5.885 5.391 4.390
5.951 5.312 4.147
6.199 5.624 3.977
5.651 5.939 4.382
6.050 6.350 4.263
5.808 5.376 4.490
6.294 5.947 4.012
5.900 6.087 4.389
6.006 6.018 4.186
4.676 2.808 3.648
4.895 3.048 3.492
4.560 3.721 3.655
4.449 3.642 3.442
4.668 4.074 3.470
4.323 4.256 3.213
4.470 4.672 3.508
4.631 5.092 3.150
4.944 3.341 3.579
4.758 3.206 3.406
4.936 3.779 3.484
4.456 3.965 3.589
4.410 3.816 3.511
4.347 4.210 3.227
4.368 4.344 3.467
4.537 4.891 3.325
4.609 5.080 3.559
4.616 4.976 3.185
5.251 2.934 3.909
5.314 3.343 3.829
5.211 3.660 3.844
4.857 3.972 3.923
5.127 4.148 3.338
4.664 4.163 3.544
5.005 4.599 3.538
4.897 5.111 3.678
4.732 5.157 3.768
4.999 4.949 3.258
4.603 5.681 3.424
5.141 3.586 4.057
5.315 4.001 3.703
5.417 4.000 3.734
5.303 4.258 3.728
4.898 4.314 3.879
5.144 4.743 3.746
4.948 4.970 3.743
4.960 5.125 3.629
5.182 5.255 3.449
5.151 5.334 3.278
4.859 5.795 3.558
4.829 5.868 3.433
5.593 4.108 3.727
5.198 4.227 3.968
5.543 4.576 3.677
5.112 4.595 3.430
5.121 4.938 3.555
5.581 4.906 3.561
5.306 5.197 3.910
5.060 5.838 3.565
5.025 6.129 3.539
5.001 6.214 3.725
5.803 4.628 3.958
5.478 5.153 3.490
5.142 4.971 3.629
5.498 4.963 3.824
5.765 5.304 3.843
5.372 5.914 3.610
5.269 6.129 3.545
5.609 5.989 3.577
5.810 5.057 4.096
5.869 4.991 3.586
5.876 5.170 3.720
5.568 5.410 3.608
5.514 5.817 3.544
5.490 5.897 3.760
6.138 5.059 3.654
5.864 5.721 3.762
6.151 5.802 3.726
5.645 6.302 3.852
6.297 5.905 3.956
6.134 6.239 3.814
5.049 2.983 3.463
5.009 3.063 3.539
4.473 3.413 3.223
4.693 3.277 3.022
4.457 3.484 3.014
4.489 3.886 3.064
4.541 3.942 2.942
5.370 2.913 3.261
5.072 2.918 3.660
5.180 3.482 3.143
4.782 3.626 3.606
4.661 3.925 3.357
4.786 4.114 3.343
4.513 4.314 3.415
4.665 4.737 3.150
4.969 4.828 3.188
