12.431557 112.47203 56.638187
11.459557 114.84003 56.40619
7.7445526 106.525024 58.57819
5.6455536 105.401024 58.73119
17.891554 22.68502 56.867188
16.182554 22.071022 56.173187
7.684555 27.00402 56.179188
7.6575546 26.693031 54.012188
13.070557 71.955025 15.695188
14.483557 71.955025 13.786187
11.233559 64.10203 4.684187
12.377556 62.534023 4.458187
47.660553 47.389023 40.62219
46.147556 46.806026 39.548187
37.799557 51.632023 43.15019
36.565556 51.616024 45.13519
13.367554 45.627026 2.899189
14.4755535 46.520023 4.600189
11.889557 35.256027 10.977186
13.529556 34.679024 9.81119
46.198555 113.94303 14.483188
45.500557 113.135025 16.210188
46.536556 5.7540283 17.486187
45.986557 7.0120316 19.568188
34.255554 11.89003 22.832188
33.572556 12.243027 25.005188
30.134556 21.735023 28.842188
28.091557 20.952019 28.401188
39.044556 3.8190308 41.444187
39.068554 4.317032 39.54519
34.692554 109.76703 33.51619
35.984554 107.98703 33.860188
0.6705551 94.63203 59.575188
1.8685532 96.42403 60.53019
56.785553 105.427025 6.44619
54.991554 105.03303 7.8851852
42.036556 58.173023 60.14319
42.595554 56.120026 60.923187
46.200554 55.594025 3.342186
45.509556 55.718025 0.9941902
49.754555 29.545025 13.293187
51.075554 28.216024 12.234187
48.707554 32.479027 18.484188
48.631554 30.463026 20.116188
25.630556 81.67103 16.831186
26.891556 81.870026 14.679187
33.042557 84.914024 11.774187
34.692554 84.261024 11.040187
50.893555 13.194023 16.859188
50.892555 16.02903 16.865187
42.216557 17.589027 13.675187
43.213554 19.58503 12.585187
28.879557 14.245033 59.53919
28.625555 13.912025 0.7661896
36.568554 6.7080307 3.9831848
36.651554 4.378029 4.0441895
15.476557 85.50503 49.02119
16.156557 87.981026 48.262188
9.768555 97.578026 49.19919
9.227554 98.85503 51.291187
39.492554 87.18102 56.10719
39.406555 89.22903 55.10219
38.281555 86.74203 2.5081902
37.467556 87.79903 4.291191
22.588556 9.867027 4.3981857
24.543556 9.5490265 5.4431915
25.990557 18.235023 12.264189
27.440556 18.620033 10.353189
15.093556 107.845024 20.166187
15.174556 109.04503 22.267187
21.821556 103.98603 25.453188
22.883556 102.258026 25.419188
3.4585533 49.929024 13.357187
2.8385544 47.357025 14.048187
51.827553 50.152023 13.345187
49.998554 51.586025 12.111187
51.253555 104.747025 58.37819
51.118553 105.274025 60.943188
0.6565552 104.40803 56.873188
0.323555 106.76503 56.35119
25.098557 72.71403 49.576187
25.021557 74.776024 50.339188
25.334557 79.21103 59.65419
25.342556 79.22202 0.7461891
33.948555 102.61703 57.631187
33.835556 100.358025 58.14819
41.353554 92.052025 2.4481888
42.499554 92.87803 4.1131897
9.571556 33.277027 18.971188
7.627556 32.988026 17.790188
57.187553 27.430025 22.773188
56.449554 28.418026 24.955187
8.557556 80.359024 21.572187
5.8815536 79.36603 22.670187
56.749554 74.68603 15.666187
57.584553 76.78303 17.029188
27.784555 52.056026 34.77519
26.432556 52.323025 32.84219
20.497557 54.109024 31.587187
19.274557 54.192024 29.733187
46.067554 8.7760315 14.415187
44.413555 7.562027 14.599187
37.565556 2.3870316 10.571187
35.783554 2.6560287 11.872187
40.019554 83.92103 39.616188
38.628555 84.85503 38.47719
31.720556 83.35103 33.999187
33.093555 84.441025 33.278187
20.757557 72.66602 17.385187
20.667557 70.30602 17.719187
21.540556 70.802025 30.847187
20.806557 69.02902 30.868187
25.151556 63.197025 45.66119
26.148556 63.737022 44.00719
31.934557 57.205025 37.69919
31.727556 54.976025 37.69819
53.266556 4.3070297 40.644188
53.131554 4.961029 38.362186
2.863552 112.149025 33.25419
3.507553 113.23503 31.251186
17.809557 56.168026 24.350187
17.269556 58.101025 24.863188
22.246555 59.459026 34.547188
22.319555 61.341022 35.534187
23.694555 89.883026 8.95919
24.198557 88.72302 10.494188
34.464554 87.89002 6.0251846
36.563557 87.981026 7.0081863
56.873554 103.60003 15.362187
56.070553 101.90903 13.996187
4.9045525 103.995026 10.712187
3.469555 106.25403 10.982187
22.658556 89.12803 25.858187
24.617556 88.55702 26.205187
30.835556 93.65903 18.829187
32.515556 94.02703 20.204187
17.762556 31.916025 54.75019
17.469557 30.166025 55.83019
25.597555 36.762024 0.9121895
23.878555 38.497025 2.3701897
7.4115524 15.9850235 52.172188
6.996559 18.444023 51.09319
56.066555 19.194023 60.701187
54.696556 20.095024 59.22319
32.045555 81.31802 60.33519
31.868557 79.79302 1.437191
22.624556 79.33803 6.8791885
21.865557 81.384026 6.5961914
44.867554 83.81103 20.333187
44.389557 85.86403 19.645187
45.771557 92.03403 28.782187
45.247555 93.829025 29.616186
5.9855576 18.26902 2.7321892
8.091553 19.405022 3.0461884
9.389557 12.79203 12.258188
10.751556 13.732033 13.593191
38.466557 107.720024 40.42719
37.430557 108.68503 39.036186
29.791555 2.2260284 43.30319
27.666555 3.0800323 42.88919
35.157555 2.2710266 21.836187
35.131554 4.7300262 22.155188
24.027555 9.9010315 18.726187
23.694555 11.786026 19.651188
23.326555 104.32103 15.675187
23.261557 106.71503 16.114187
17.395555 113.74103 16.208187
17.276556 114.64403 18.771187
3.6375542 17.025032 44.242188
2.4735527 15.312019 43.194187
5.417553 12.631027 36.57319
6.8835526 13.618019 35.653187
52.587555 64.122025 11.105188
53.985554 66.11603 9.951189
1.1925545 64.40903 1.9561882
3.3415527 64.497025 1.5671883
37.525555 112.69803 60.818188
36.423557 114.00203 1.0421906
37.511555 5.763031 53.91019
35.669556 6.756027 53.37719
29.185556 96.71103 47.401188
27.173555 96.72303 46.019188
21.027555 104.35203 52.64319
22.245556 103.523026 54.609188
36.306557 42.750027 48.23219
37.103554 41.307026 49.99419
43.225555 42.092026 0.27719116
41.857555 43.705025 1.3341904
22.220556 82.05502 55.72419
20.661556 83.56203 56.60019
18.528557 86.99902 3.8551865
18.388556 88.11002 5.7401886
21.662556 90.40703 10.302187
20.914557 89.30402 8.627187
15.341557 86.106026 17.042187
16.983557 86.74303 18.375187
51.460556 39.273026 20.296188
53.456554 38.810024 19.540188
50.893555 29.285025 21.424187
49.396553 28.623026 22.330187
48.309555 92.82303 29.702187
50.685555 93.137024 29.819187
54.763554 103.40803 32.55919
54.771553 105.00003 31.072187
29.598557 99.65303 7.513187
31.745556 98.75503 8.313187
24.294556 90.509026 12.850187
23.795555 88.814026 13.883187
51.665554 85.956024 9.365187
53.312553 85.65302 7.313187
55.004555 79.689026 13.158187
54.923553 77.62703 12.913187
55.729553 21.717033 11.045187
56.567554 21.703026 9.458187
52.988556 14.224022 12.929187
52.935555 11.727028 12.898187
45.540554 60.802025 35.236187
45.956554 58.571026 36.44219
44.426556 48.836025 37.409187
47.219555 48.517025 37.779186
21.045557 36.984024 41.27519
21.989555 36.978024 43.02319
32.644554 32.674026 41.790188
34.091557 33.892025 39.859188
39.470554 42.626026 34.138187
39.130554 40.548027 32.59319
28.952557 38.157024 35.118187
26.969557 38.033024 36.21819
16.467554 107.45903 27.674187
17.130556 105.60003 29.005186
8.392555 96.65503 32.763187
6.401558 98.11503 32.47019
38.952557 8.225029 4.302185
40.109554 9.87603 4.916191
37.446556 9.866028 6.7581863
37.166557 7.3710327 6.8491898
44.196556 43.746025 34.12219
42.773556 45.292027 34.771187
38.942554 43.818024 44.62119
37.769554 42.610023 46.05219
10.273552 58.382023 37.53119
12.188553 57.329025 37.48219
12.278557 47.590023 29.647186
12.967552 49.054024 27.561188
37.929554 54.051025 41.63519
38.860554 55.933025 43.443188
32.455555 58.267025 34.97519
34.213554 56.674026 35.37919
51.468555 57.062023 0.6621895
50.494556 59.173023 1.137188
49.506554 67.47603 3.66819
49.012554 69.317024 3.9151917
12.560556 48.736023 7.074188
12.689556 51.036026 5.8531876
23.433556 55.733025 7.4031906
24.328556 55.295025 10.138189
56.680553 112.21603 0.61618805
54.683556 113.411026 0.6621895
50.731556 103.441025 5.9011917
48.465553 103.928024 6.2301865
25.587557 48.049026 25.558187
27.692556 49.587025 25.346188
36.137554 46.558025 19.273188
36.022556 45.525024 16.787188
28.921556 42.087025 24.356188
27.434555 42.713024 25.111187
22.026556 32.274025 21.033188
22.923555 30.913025 21.973188
21.511557 22.74102 37.144188
22.478556 21.818031 39.535187
19.776556 21.089027 45.17619
19.254557 22.651024 43.936188
42.281555 39.332024 21.774187
40.985554 40.130024 23.152187
42.047554 49.221024 27.995188
43.731556 49.986023 29.614187
28.978556 19.897026 30.915188
28.164557 18.625023 32.26019
27.927555 10.52803 39.01719
26.003555 10.79203 39.640186
49.162556 50.637024 42.215187
51.630554 51.842026 42.166187
56.108555 52.204025 37.39819
56.231556 54.565025 36.58819
56.709553 92.96403 40.69919
0.67155457 93.38803 41.223186
57.102554 100.553024 50.089188
56.314556 98.57503 50.61919
20.611557 55.028027 53.45419
20.246555 52.558025 53.64219
14.710556 45.276024 56.77219
14.528556 43.769024 55.32419
54.340553 22.911018 59.916187
52.980553 23.772026 0.39118958
4.974552 27.289024 55.762188
3.7445526 26.064034 54.23019
2.6065521 79.689026 3.0351906
0.23055267 78.01502 3.8691864
52.451553 71.161026 5.2821884
51.439556 69.21503 5.441185
33.495556 61.157024 58.013187
31.654556 61.247025 57.03519
27.992556 50.319023 58.97719
25.633556 51.479023 59.061188
4.684555 8.365028 23.916187
2.8995552 10.290031 25.161188
1.7355537 10.535027 14.729187
1.4815521 12.480026 13.253187
13.432556 93.52103 8.728188
11.942558 94.344025 8.912186
16.072554 104.88803 7.552185
14.966555 106.052025 6.550186
44.446556 32.174026 41.21019
43.859554 34.779026 41.790188
49.158554 36.823025 49.33719
50.333553 35.312027 50.88519
2.634552 1.8350296 39.300186
4.3405533 0.4410324 38.036186
57.477554 107.77003 32.19119
55.778553 106.45103 33.390186
25.783556 77.26803 3.0141907
24.113556 78.15903 4.57119
27.247557 74.18002 14.31719
28.961555 75.83803 14.850187
44.565556 57.270023 15.061187
43.100555 58.807026 14.238187
34.278557 59.520023 8.226187
33.018555 61.447025 8.530187
15.674555 18.854027 24.118187
14.924555 16.747032 25.268187
5.330555 16.850029 30.286186
3.4355545 15.650032 30.736187
7.085556 100.18503 51.401188
5.5975533 101.91502 52.10219
57.155556 105.07003 43.84919
57.056553 106.75203 42.48119
26.257557 6.301033 7.5021896
24.651556 4.6030273 7.3321915
19.450556 1.9120331 2.378189
17.792557 1.3630295 1.3551903
23.664557 66.914024 20.311188
22.122557 65.899025 19.799187
14.897556 65.27802 29.763187
16.820557 63.760025 30.588186
14.606556 47.035027 41.257187
12.833556 46.158024 40.070187
17.848557 50.757023 29.553186
15.842556 50.285027 28.819187
57.672554 103.19903 53.83419
0.9055519 104.69703 54.26419
9.940552 111.24203 54.651188
11.491554 109.78403 55.39019
7.281555 64.23903 51.96919
5.9875565 65.44602 54.03919
0.03555298 73.19302 53.19019
57.997555 75.314026 53.804188
42.014557 100.99203 15.0911875
42.679554 99.01503 15.362187
43.127556 94.23503 7.360187
41.564556 92.69503 6.591187
54.046555 87.42902 36.23919
54.871555 85.176025 35.69919
7.066559 83.314026 34.305187
7.5035553 84.717026 32.45619
12.008553 19.982033 11.405187
12.454552 22.647026 11.799187
8.525558 32.389027 15.136188
6.0795517 32.62003 15.429187
45.444557 109.731026 42.756187
43.552555 111.13103 43.71719
45.618557 114.24303 54.52119
46.540554 112.940025 55.99719
14.7565565 7.9240265 55.30319
14.920556 10.818031 55.96819
24.834557 5.4390335 54.64919
26.070557 4.770027 56.34419
22.264557 39.545025 25.552187
22.772556 42.396027 26.055187
13.369556 46.414024 23.949188
13.033556 48.959026 24.207188
36.303555 3.022026 50.84919
35.204556 2.213028 48.652187
28.155556 12.04203 52.03619
29.567556 13.572029 51.006187
1.8525543 62.263023 57.05919
1.9725533 62.249023 59.16119
1.7245522 52.052025 52.80319
3.5825539 50.835026 51.73219
36.412556 25.270027 60.42519
34.267555 25.911018 60.762188
31.794556 26.98603 9.687187
31.281557 26.567024 11.549189
57.395554 63.255024 22.033188
56.255554 64.369026 20.260187
50.524555 65.928024 28.944187
47.802555 66.47503 28.531187
52.168556 110.970024 19.733187
53.856556 112.80503 20.103188
54.746555 6.5750275 17.228188
56.147556 9.247032 17.546186
52.225555 91.88903 45.76119
53.360554 90.68803 43.78219
57.050556 83.344025 40.96119
57.632553 81.704025 40.139187
15.222555 7.110031 42.90419
14.100555 6.294029 44.07919
8.884552 17.427025 49.70419
7.3935547 16.303032 49.30919
6.0865555 76.592026 48.763187
6.668556 78.82303 47.131187
14.630556 74.29703 39.297188
15.332556 76.442024 38.701187
33.062557 65.20003 19.224188
31.168556 64.70003 19.964188
36.827557 63.402023 28.614187
38.364555 63.563023 30.693188
29.748556 16.328026 0.48318863
31.106556 18.43203 60.87919
40.617554 20.494026 4.948189
42.176556 19.92202 6.2321854
6.0485535 32.643024 43.450188
4.3405533 31.178026 42.43819
56.669556 32.024025 49.66919
55.500553 31.804026 51.80819
48.472553 47.003025 28.838186
50.126556 48.453026 28.430187
56.281555 41.791027 30.214188
58.007553 40.298027 29.838186
51.302555 21.730019 33.51619
51.451553 21.035027 35.78019
4.669552 18.31202 32.491188
4.903553 16.273033 33.561188
43.474556 63.245026 34.925186
42.667557 65.53503 34.119186
34.185555 62.799023 42.39019
33.564556 65.04903 43.62619
47.704556 22.326027 35.751186
46.043556 21.858025 34.918186
44.715557 22.69503 43.25719
46.870556 22.059029 43.033188
23.191555 26.377022 40.75919
22.188557 24.850029 39.23819
11.915556 29.216024 39.91219
10.908556 30.210028 38.290188
0.8315544 2.0570297 6.9851913
1.8925552 0.2160263 7.824188
51.625553 0.8800278 1.951191
49.940556 2.4320297 1.6891899
46.367554 47.719025 25.388187
47.365555 49.119026 26.618187
53.621555 45.269024 26.732187
54.216553 43.382027 28.171186
10.696556 84.36002 38.658188
8.737556 85.05502 38.158188
3.6375542 76.79202 43.80119
2.8415527 78.57102 45.93919
41.472557 108.43503 45.29519
40.576557 108.788025 47.50419
32.819557 0.7500305 46.83019
31.136557 1.8070297 45.714188
46.259556 48.611023 50.49419
48.288555 48.300026 49.73619
50.834553 41.229027 58.43319
52.235554 38.659027 58.32819
44.753555 52.610023 3.1261902
46.837555 51.922024 4.2071915
47.675556 42.900024 0.5071907
46.110554 44.057026 1.2651901
42.285557 47.159023 59.69719
43.430557 48.478024 57.62119
40.663555 47.081024 47.512188
40.489555 45.344025 46.443188
8.717552 39.854027 33.56719
8.787552 42.067024 34.53019
8.745552 51.043026 36.528187
6.8765564 49.429024 36.097187
41.911556 87.19502 53.39919
41.606556 86.00102 55.083187
48.410553 80.26803 53.929188
49.576553 79.39303 55.353188
57.149555 85.73502 5.142189
55.832554 87.23003 6.8311844
47.063553 93.08303 3.7961884
45.242554 92.84103 4.019188
42.547554 82.79703 24.757187
43.433556 84.72703 25.451187
38.068554 93.01903 29.462187
38.647556 94.970024 29.371187
8.737556 35.495026 33.08719
6.7415543 35.158024 34.34219
10.104553 44.922024 38.30919
9.488556 46.851025 38.993187
19.543556 98.829025 52.12519
17.509556 98.15403 52.34519
19.586555 105.635025 45.58819
20.216557 105.23003 43.71219
27.560556 25.101025 33.99719
25.299557 26.229025 34.075188
22.736555 28.749025 23.834187
22.120556 26.855026 23.966187
0.7825546 53.009026 9.188187
2.7065544 53.194023 8.496185
2.1165543 60.904022 1.5331917
1.7105522 60.764023 3.4761887
27.103556 105.64403 19.212187
24.523556 106.317024 18.718187
22.599556 2.0700302 17.665188
22.119556 2.9820328 15.8011875
30.386557 75.39403 42.79319
27.895555 75.024025 43.56519
30.632557 65.773026 43.318188
29.065556 63.722023 43.353188
15.066557 58.452026 20.189188
16.326555 58.133026 22.390188
12.462555 61.609024 32.175186
14.513556 62.450024 31.168186
20.608557 107.595024 58.71619
20.691557 105.47603 57.840187
31.411556 103.008026 58.49519
31.346556 101.35103 60.020187
7.759552 60.521023 20.845188
9.599556 61.110023 19.648188
17.770555 60.252026 23.257187
18.701555 62.041023 22.311188
2.3855553 40.155025 57.714188
3.3885536 40.851025 59.40519
6.773552 52.864025 56.48319
8.423553 52.198025 57.825188
14.865556 38.661026 8.906189
15.424556 36.617023 9.859186
11.327556 29.313025 8.369186
10.1315565 31.083025 8.157188
6.8185577 21.438026 19.423187
5.3715553 22.39402 18.280188
54.566555 14.920021 14.886188
53.353554 13.362022 15.685187
15.531557 98.20103 46.958187
14.855555 95.62403 46.47419
5.809555 98.86203 37.43519
4.530552 100.494026 37.53719
46.890556 53.466026 60.89919
47.342556 55.215023 59.54519
57.791553 50.321026 54.16119
56.564556 51.000023 52.312187
38.589554 65.689026 1.9141884
36.800556 65.53503 0.4651909
31.334557 67.62803 4.291191
33.217556 67.287025 5.8971863
20.467556 67.176025 17.849188
22.644556 68.05702 17.820187
21.865557 61.318024 7.477187
19.788557 61.445023 8.880187
24.186556 33.661022 50.665188
24.265556 31.21803 51.30919
19.878555 21.595024 52.24519
20.305555 19.288033 51.854187
8.053558 41.598026 16.494186
6.9665527 43.351025 16.081186
58.090553 48.560024 10.932187
0.6515541 50.270023 9.810187
24.782557 18.388023 26.275187
25.080557 20.786018 27.272186
16.974556 29.070028 25.740187
15.061556 28.612028 26.575188
38.954556 44.590023 18.556187
38.570557 42.346024 18.153187
34.040554 35.455025 13.414187
33.860554 36.973026 12.407187
26.962557 56.502026 50.00119
27.613556 58.118023 52.03519
34.116554 63.073025 45.61419
35.843555 61.955025 44.519188
14.270556 13.102028 37.57219
13.170556 11.80703 38.55219
18.620556 16.24302 47.48219
17.893557 18.441032 47.958187
4.1975517 73.85403 43.637188
4.672554 71.775024 44.951187
15.421556 70.79703 41.063187
15.180555 68.82203 41.07319
25.927555 20.21003 45.36519
26.378555 21.638023 47.03919
25.197556 29.048025 49.832188
24.972555 30.96903 48.65619
33.489555 32.853027 14.238187
35.159557 31.726025 14.271187
36.397556 23.314026 16.667187
34.269554 23.437025 16.563187
42.785557 52.263023 55.10019
43.476555 54.277023 55.33819
55.474556 54.566025 51.76719
56.749554 53.723026 52.734188
32.153557 70.17103 43.99319
32.885555 68.14203 43.71019
40.241554 72.164024 48.742188
41.572556 70.68403 48.49619
2.3905525 3.4690323 49.436188
1.4765549 4.1650314 47.791187
12.965553 6.898033 49.39919
12.939552 4.4880295 49.99419
6.047554 103.42303 56.68319
7.4615555 102.12903 55.38219
11.084557 99.60203 48.06019
12.997559 98.29002 49.09419
33.811554 25.470024 12.338186
31.994556 24.069023 11.133188
31.575556 21.68502 0.003189087
34.347557 22.796028 0.050189972
6.8745575 90.04302 14.3411875
6.793556 90.397026 16.503187
56.818554 90.22302 12.881187
0.7385521 89.81802 11.996187
39.519554 100.69803 22.826187
41.804554 100.526024 22.740187
50.222553 99.73503 26.611187
50.408554 101.54703 27.933187
6.462555 24.405025 12.026187
5.853554 25.074026 10.351187
3.3265533 35.734024 10.158187
4.3125534 37.078026 11.756187
51.802555 47.003025 11.921186
52.195553 45.030025 10.475187
43.815556 45.075024 2.3041916
44.346554 47.041023 1.0371895
50.037556 82.69402 8.017189
47.939556 81.63802 9.193192
47.602554 71.703026 6.823189
49.431553 71.33502 5.6901855
4.6105537 64.29903 56.27119
2.5765533 65.00503 57.048187
3.2675552 74.11503 60.80019
4.8315544 74.08803 2.0871887
38.573555 51.049026 56.36219
39.061554 51.579025 58.291187
29.531555 49.179024 60.82319
28.099556 47.361023 59.693188
23.698557 77.50703 49.05819
22.493555 75.676025 50.07019
24.316555 65.79102 46.83519
22.424557 64.662025 46.12919
57.412556 89.85303 34.404186
57.884556 91.842026 34.41919
51.739555 91.23003 25.871187
49.232555 91.30803 26.951187
7.662552 35.229027 42.826187
5.5415535 36.543026 43.103188
2.398552 36.180027 44.964188
3.4545517 37.484024 46.527187
35.474556 58.664024 58.03119
33.078556 58.328026 57.76819
30.581556 54.420025 7.3041916
28.246555 54.706024 8.19519
25.534555 9.455032 0.2571907
25.989555 7.4010315 0.5491905
32.561554 1.9040298 3.0471878
31.563557 0.104026794 3.552185
31.174557 75.34802 32.847187
29.176556 73.99902 32.59519
27.990557 80.050026 40.47719
29.042557 81.97202 42.110188
14.297556 5.8680267 57.165188
14.613556 3.6560287 56.53519
23.464556 7.312027 2.166191
23.365557 9.635033 1.5841904
14.056556 3.3140335 52.28119
15.777556 5.19503 51.17719
24.949556 5.824028 52.130188
26.795555 4.253029 51.735188
48.035553 89.898026 52.867188
48.931553 90.65503 54.83519
54.745556 97.85103 54.09819
55.701553 99.73603 52.83419
18.264557 68.61403 32.943188
20.693556 69.68002 33.985188
14.020556 79.12602 35.91219
12.014556 78.96103 37.19019
27.778557 4.7500305 45.812187
26.725555 4.0590286 47.53219
32.501556 13.607033 43.48319
34.058556 11.6890335 43.85519
7.835556 5.794029 24.991188
9.902557 7.164032 24.614187
9.319557 13.384026 34.80219
9.026558 15.549019 34.12819
35.192554 11.30603 2.5161896
37.379555 11.768028 1.7201881
28.336555 8.241028 55.01019
27.554556 10.219032 55.249187
44.360554 36.149025 11.380187
45.720554 35.593025 13.572187
49.100555 47.443024 15.139187
48.785553 49.492023 14.396187
43.401554 50.974026 57.71019
41.962555 52.466026 58.55719
40.980556 48.087025 7.323189
40.954556 49.911026 9.01519
31.535557 60.097023 23.695187
31.549557 57.907024 24.813187
37.489555 57.798023 27.542187
38.983555 57.506023 26.684187
4.938553 14.605019 52.360188
3.4905548 13.858025 51.56019
54.677555 13.520027 60.49619
52.814556 12.804031 59.95519
39.605556 45.600025 14.868185
38.427555 44.403027 13.918188
36.194557 45.068024 3.9541855
38.541557 44.554024 3.4721909
4.2065544 60.768024 17.795187
5.889557 59.265026 17.864187
6.023552 54.742023 28.846188
4.912552 56.210026 30.202187
2.2985535 89.25102 2.2241898
1.4915543 88.817024 0.5481911
53.625553 84.28103 3.8901901
51.769554 85.369026 5.15419
8.234558 44.469025 4.609187
8.948555 42.553024 6.145187
6.9195557 34.816025 14.076187
9.1855545 34.523026 13.836187
53.696556 84.20203 33.609188
53.169556 82.94803 35.82819
55.354553 76.010025 30.238188
56.694553 75.30402 28.586187
15.992556 64.16602 57.42619
14.756556 63.570023 59.17019
9.023552 54.115025 55.71719
7.788559 55.291023 54.485188
4.6335526 97.07003 30.207188
6.3465576 95.898026 29.998186
12.362556 87.550026 35.172188
13.587555 89.31802 37.013187
38.935555 101.967026 54.44919
41.376556 102.27703 55.22019
30.611557 105.49903 56.42019
29.636557 105.29303 58.78519
7.5085526 3.352028 26.517187
9.488556 4.997032 27.135187
9.108559 8.0490265 38.49719
11.638557 8.878029 38.88619
5.1905518 94.30603 58.90519
3.955555 94.62803 60.491188
8.888557 104.98003 56.80719
10.889557 105.59903 55.83419
54.186554 7.5140305 1.2881889
56.478554 8.936028 1.8131905
57.666553 7.54303 13.787191
55.858555 8.039032 14.682188
4.7165527 79.300026 49.624187
3.170555 77.511024 50.44019
52.055553 79.48602 52.130188
51.573555 78.33803 49.777187
52.934555 109.61103 49.540188
52.938553 110.369026 47.26819
0.28355408 1.9540329 42.14119
0.7135544 3.4530334 40.651188
56.939556 51.304024 24.966187
58.284554 50.196026 22.861187
56.522556 60.032024 18.513187
56.745556 60.743023 20.551188
15.062555 106.73703 9.866186
12.175552 107.65203 10.493189
13.740555 2.6540298 7.444191
14.347555 4.2740326 9.508186
19.512556 76.90202 54.144188
17.465555 77.53103 54.67119
18.091557 86.522026 0.19718933
16.262556 87.65903 0.5481911
30.366556 71.06003 13.404187
32.282555 71.06902 11.983187
36.018555 74.06003 23.736187
34.423557 75.787025 23.735188
46.935555 2.6210327 2.1961899
48.062553 4.360031 1.4521904
47.130554 12.381027 58.06619
47.807556 14.111031 57.26819
13.315552 9.202026 33.98119
14.102554 8.809029 32.10619
10.020554 112.22903 34.201187
11.894554 111.36803 35.883186
53.948555 72.134026 7.598187
52.146553 70.82102 8.087187
48.453556 63.751022 9.793187
46.545555 62.771023 10.342187
17.664557 24.031025 23.687187
15.888556 23.307026 23.040188
10.707558 32.953026 16.609188
11.128555 35.318024 16.301188
47.670555 77.16903 4.748184
48.325554 78.428024 6.422188
39.593555 84.29803 9.8011875
38.141556 85.63003 10.4141865
49.760555 89.190025 9.26619
49.092556 86.93102 9.4051895
40.890556 89.83803 4.600189
40.761555 87.79903 2.7851906
37.560555 1.2620316 40.61519
36.913555 1.6770325 42.49519
37.036556 4.907028 36.290188
38.550556 6.256027 34.784187
24.680555 103.48503 27.283188
25.860556 102.78003 25.478188
23.059555 112.51303 26.629187
24.315556 113.08203 28.892187
23.966557 17.080025 21.731188
23.054556 15.359032 22.514187
29.307556 15.118019 18.511187
26.773556 14.317024 19.201187
46.004555 49.138023 55.943188
47.522556 47.847023 57.242188
53.401554 44.880024 0.5321884
53.516556 45.343025 2.6741905
46.096554 51.552025 47.208187
47.469555 49.479023 47.52519
57.214554 48.748024 50.92619
0.16755295 48.652023 49.020187
44.971554 112.900024 18.929188
46.885555 112.302025 18.885187
52.436554 106.621025 26.738188
55.305553 105.90803 26.888187
20.141556 107.510025 56.137188
20.837557 105.927025 55.09419
24.743555 1.3710327 55.70619
23.027555 2.86203 55.76419
42.610554 60.052025 31.411186
40.943554 60.410023 29.659187
41.175556 56.673023 18.266188
42.499554 58.197025 17.893187
56.977554 66.90603 39.452187
0.1285553 65.97503 38.29619
57.817554 72.497025 30.627188
58.245556 74.67303 30.818188
13.512556 94.400024 56.60819
13.112556 94.690025 58.86119
17.571556 106.43103 56.64319
18.214556 105.73803 54.305187
4.3485527 63.696022 18.968187
6.2895584 63.408024 19.643187
10.983559 66.86202 29.409187
13.023552 67.10303 30.344187
0.278553 70.76903 9.577188
58.329556 72.037025 11.335187
9.776558 73.72803 19.684187
12.273552 73.342026 19.206188
45.137554 79.29903 57.33519
43.143555 78.57102 57.85019
37.441555 85.85103 54.47319
36.286556 88.051025 55.05919
23.119556 56.702026 34.693188
24.850555 57.937023 34.320187
28.865557 57.355026 25.508188
29.261557 58.791023 24.102188
53.172554 93.926025 42.70619
50.949554 93.31803 43.38619
43.910557 93.88203 32.24519
43.818554 91.73903 32.66419
16.975554 5.0870285 3.1071854
17.230555 7.454033 2.416191
12.427559 8.822029 54.38319
11.939552 6.3470306 54.41019
16.593555 104.470024 10.32519
19.067556 104.661026 9.352188
28.379557 102.46403 7.177185
30.518557 102.522026 7.797188
46.997555 75.82603 29.409187
45.498554 76.28403 27.709187
39.215557 84.04603 31.133186
36.528557 84.68102 30.930187
45.966557 98.87603 0.05519104
44.485554 100.498024 59.31419
38.859554 110.91903 59.45219
40.171555 111.539024 60.78619
33.899555 25.556023 36.87919
34.745556 23.694023 36.659187
38.571556 19.314034 25.896187
37.769554 17.32003 25.483187
34.717556 36.694027 6.5771866
35.162556 38.453026 4.4451904
34.678555 38.800026 56.09419
34.985554 40.494026 54.624187
21.537556 84.858025 14.192187
22.211555 83.58302 12.178187
20.498556 74.732025 15.284187
18.449556 73.649025 15.3411875
25.806557 93.00603 39.590187
26.004557 90.47402 39.402187
19.548555 89.98003 30.659187
20.920557 91.84103 29.913187
27.300556 65.05903 46.05819
29.172556 65.97603 45.770187
39.254555 64.50203 52.221188
39.637554 65.71002 50.359188
34.636555 91.997025 13.8411875
35.315556 94.65503 13.745187
34.057556 99.68003 9.9921875
32.690556 101.38803 9.162187
22.223557 108.15503 33.29519
22.634556 109.04703 30.756187
18.069555 101.232025 36.46319
16.325556 101.373024 37.825188
14.059555 81.18202 37.44119
15.1265545 81.68703 39.576187
8.701553 88.04603 44.61319
7.125557 87.550026 46.45419
35.684555 21.61802 38.00219
34.849556 22.985023 39.362186
32.202557 26.57003 40.890186
32.457554 27.176033 38.658188
36.692554 14.403023 40.645187
35.787556 15.97802 41.55819
38.075554 12.675026 48.05619
38.623554 13.268028 50.52219
5.524555 51.161026 24.400187
7.5555573 51.821026 25.389187
9.162552 50.650024 13.665187
11.205559 49.246025 13.541187
2.9355545 8.589027 1.9521904
2.1425552 9.067032 60.50419
12.043556 4.676033 56.86819
12.334557 2.6720276 57.304188
9.392555 78.82703 56.07019
9.379555 80.64503 54.91119
13.502556 88.426025 1.9461899
14.504557 89.75303 0.41318893
53.859554 71.72603 30.930187
55.301556 73.51402 31.969187
6.9305573 71.47703 37.494186
6.938553 72.064026 39.84219
57.966553 104.969025 33.438187
1.6615524 106.46003 32.75319
8.126556 99.803024 28.564186
9.067558 98.16803 26.922188
48.341553 28.756025 9.853187
49.864555 30.485025 10.747187
58.113556 34.839024 13.206187
58.030556 34.853027 15.223187
49.418556 44.787025 27.846188
47.633556 45.575024 26.365187
42.186554 45.883026 30.540188
42.366554 45.178024 32.290188
31.133556 70.676025 40.89119
33.044556 69.553024 39.770187
43.318554 68.649025 36.17819
43.882557 69.123024 33.82919
27.595556 82.43503 56.88619
28.745556 81.772026 55.31319
27.556557 78.22503 43.69919
25.460556 78.71103 43.235188
43.247555 98.20103 48.909187
42.162556 99.011024 47.262188
39.825554 89.20003 42.48919
40.732555 88.83603 40.111187
38.087555 98.07603 26.432186
37.346554 96.34003 26.856188
46.069557 93.26303 21.805187
48.163555 93.19303 23.243187
43.401554 89.870026 51.88319
41.141556 89.28403 51.95419
35.822556 99.12403 53.23619
34.479557 98.609024 55.67419
41.802555 53.514023 17.375187
40.276554 54.886024 16.728188
47.344555 52.864025 11.954187
47.554554 52.073025 14.247188
3.5385551 56.643024 9.226189
2.6625519 58.430023 7.26519
10.135559 55.803024 1.8541908
8.005554 54.689026 0.5321884
7.946556 42.872025 58.58019
9.807556 43.722023 58.880188
14.686556 46.756023 50.56519
14.426554 46.804024 48.38219
41.406555 23.35302 5.5981903
42.736557 22.49302 3.6331863
51.367554 23.29403 10.905188
51.771553 25.134026 9.297188
31.406557 17.43003 47.22719
34.178555 17.36802 47.26419
28.718555 17.688026 52.08019
27.227556 16.93702 53.98019
35.185555 107.705025 37.86419
36.347557 106.567024 36.422188
39.635555 95.71603 34.03719
41.476555 95.31203 31.733187
15.828554 89.19302 17.616188
13.215553 87.79202 17.038187
9.411552 95.26503 9.483187
9.350555 94.508026 7.360187
31.719557 2.1840286 9.563187
30.873556 1.9620285 11.760187
26.665556 105.761024 12.712187
28.435556 104.84803 13.507187
24.836555 110.51603 0.8741913
23.050556 110.95103 0.06219101
16.092556 111.441025 58.16919
13.716557 112.24003 59.333187
42.611557 24.020027 44.88919
44.166557 25.08802 44.826187
49.138554 25.928032 37.057186
49.662556 23.16903 37.30919
54.123554 102.276024 22.120188
53.192554 101.135025 20.654188
52.552555 100.66903 9.132187
54.887554 100.59603 9.1431875
34.098557 48.533024 42.35719
32.217556 48.543026 40.889187
37.496555 42.878025 31.568188
35.935555 42.399025 30.469187
11.724556 13.525032 25.596188
13.735557 14.183022 24.705187
21.301556 10.039032 31.658188
19.856556 10.415031 33.084187
30.474556 0.8290329 48.83419
28.218555 1.888031 48.35019
29.372557 114.81003 59.94719
28.528557 112.731026 60.16119
26.019556 19.44802 7.0301895
25.311556 17.625023 6.7491913
27.138556 10.909027 3.8381882
26.060556 8.90303 3.1871872
49.891556 12.847031 27.364187
51.745556 10.906029 27.608187
48.753555 4.3990326 18.038187
49.357555 6.130028 15.987187
22.131556 81.51402 24.716187
24.015556 82.538025 24.255188
24.218555 83.635025 16.084187
24.816555 83.50303 13.970187
1.6425552 105.55903 35.63419
3.139553 105.261024 37.437187
57.956554 111.88803 42.839188
57.221554 111.59903 45.304188
5.665558 62.770023 14.190187
4.627552 60.420025 15.198187
55.899555 67.161026 11.786187
58.241554 67.62502 10.873187
20.949556 30.438025 25.205187
22.676556 31.362026 24.860188
27.383556 40.858025 28.295187
24.879557 41.033024 27.442186
1.3295517 28.680025 53.01719
57.767555 28.024025 53.13519
48.069553 32.004025 56.964188
45.907555 31.495026 57.347187
29.579556 3.9810333 9.207187
27.607555 4.630028 9.365187
18.793556 3.923027 10.120187
17.141556 4.54303 8.658187
57.534554 105.68203 37.943188
56.938553 103.36503 37.450188
47.768555 102.81903 45.59519
49.288555 101.97403 46.832188
28.853556 40.981026 33.659187
30.150557 42.748024 33.05919
31.530556 50.815025 35.493187
32.442554 52.629025 36.28819
5.120552 95.30603 3.9711914
4.0135536 97.30503 3.0511856
8.116554 100.442024 13.213186
9.032555 99.315025 14.978186
44.212555 1.4590302 4.9451904
45.907555 3.687027 4.503189
52.973553 9.127029 12.142187
52.780556 7.657028 14.0961895
10.264557 33.077026 11.286187
12.609558 32.934025 12.000187
16.643557 22.752026 14.969187
14.530554 21.389025 15.779187
27.189556 97.94403 6.757187
26.119556 97.887024 4.4871902
21.781557 108.762024 1.0481911
20.824556 110.52903 2.5881882
46.910553 36.108025 20.506187
47.403553 36.169025 22.882187
47.324554 31.873026 31.778187
47.514553 34.160027 31.615187
20.307556 6.175026 18.741188
22.508556 4.73703 20.288187
12.314556 6.444031 26.768187
12.067556 4.7620316 25.839188
22.689556 16.32003 19.369188
21.585556 14.622032 19.731188
17.468555 16.013023 20.620188
16.665556 17.11602 22.372187
1.2315521 43.119026 45.26719
57.860554 44.291023 45.569187
51.461555 44.918026 41.06519
50.463554 46.589024 42.471188
32.804554 65.93703 10.642187
31.832556 63.801025 9.741188
23.580557 60.684025 5.2981873
23.913555 58.462025 5.819191
2.6475525 46.654026 6.0371857
1.0395546 45.168026 5.763191
1.2895546 35.473026 8.128189
0.11655426 35.293026 10.147188
44.950554 32.620026 55.08019
46.589554 33.676025 54.047188
39.218555 27.307026 52.18419
38.993557 26.659025 54.72619
40.849556 41.967026 43.652187
42.180557 42.368027 45.84119
46.767555 34.004025 45.270187
48.566555 32.674026 45.98719
15.557556 111.96603 34.513187
17.127556 113.00003 34.333187
17.818556 7.08403 39.652187
17.867556 7.343033 41.846188
44.761555 30.487028 34.543186
45.645554 28.961027 35.133186
50.331554 23.475029 30.115187
48.715553 22.44503 31.345186
24.244556 2.037033 24.687187
24.595556 3.2640305 26.312187
29.097555 6.729027 30.405188
29.848557 5.020027 29.214188
40.867554 82.897026 18.575188
42.104557 84.59802 19.340187
43.250557 94.75503 17.759188
45.527557 95.939026 17.662188
36.999554 106.79103 17.862188
36.327557 108.75103 18.823187
35.340557 104.17903 8.618187
36.426556 104.45803 6.816187
18.092556 102.88803 28.072187
17.621555 101.92103 25.916187
13.6055565 97.09603 17.241188
14.690557 96.80503 15.410187
30.130556 72.66802 36.861187
28.974556 71.939026 38.41419
17.066557 71.88203 39.028187
16.876556 72.96603 40.590187
53.603554 56.424026 24.908188
52.440556 57.764023 25.775187
42.851555 50.351025 23.228188
41.527557 50.579025 25.790188
5.0535545 30.215025 52.46019
7.297554 29.769026 53.92519
1.9025536 33.801025 2.1981888
2.3725548 35.448025 3.5011902
14.777556 52.104023 13.590185
17.005556 52.829025 13.959188
18.555555 58.693024 4.3221893
20.914557 58.856026 3.4981842
46.055557 77.94502 0.010189056
44.790554 80.00203 60.23219
38.481556 83.06802 7.2611847
36.811554 83.914024 8.82019
47.933556 69.43703 9.707191
48.106556 69.039024 7.5231857
54.742554 60.178024 3.6901855
56.525555 62.024025 2.8021889
13.350556 72.05903 6.455185
13.891556 74.80702 5.642189
21.590557 79.08202 4.1741867
22.309555 78.48003 2.3821907
6.176552 33.007027 36.290188
6.5845566 33.774025 38.297188
13.176552 42.561024 41.56719
12.481552 44.435024 42.57319
41.401554 97.62703 20.688187
39.505554 98.98803 20.582188
40.841557 101.30403 19.482187
42.347557 101.622025 17.635187
49.546555 11.729027 14.993185
50.385555 13.187019 13.930189
48.343555 5.7280273 4.262184
47.038555 6.881027 2.7001915
8.629557 63.878025 54.936188
9.432556 62.282024 53.991188
22.058556 59.047024 51.97419
23.128555 60.873024 51.69619
54.576553 46.313026 13.510187
54.374554 43.993023 13.830187
55.048553 41.716026 25.952187
56.160553 44.019024 25.846188
48.519554 95.43003 5.449188
46.121555 94.57503 6.055191
39.156555 102.79503 7.5181885
37.858555 103.65803 9.638191
13.3885565 99.15903 11.494187
14.278556 98.88203 13.686187
23.587557 101.913025 16.909187
25.099556 99.68403 17.369186
29.883556 39.669025 25.080187
31.577557 39.516026 23.804188
37.703556 40.465027 30.532187
38.624554 38.081024 30.696186
14.258556 46.766026 45.64319
15.084557 48.530025 43.79619
25.328556 50.490025 36.887188
25.489555 52.978024 36.291187
18.463556 65.08502 56.83019
18.255556 66.99103 55.92019
23.032557 78.10403 60.73119
21.873556 79.05602 58.88519
5.1335526 73.45702 27.231188
4.236553 71.01703 26.589188
54.142555 75.45203 18.944187
55.593555 74.14103 18.156187
45.462555 69.592026 20.934187
44.815556 69.82203 19.101187
45.643555 69.73502 11.642187
43.404556 69.706024 10.355187
32.246555 86.49902 57.16019
32.482555 84.16602 57.03919
33.043556 81.219025 5.1881866
34.334557 81.29703 6.9431915
9.352554 111.64503 17.479187
7.1545563 111.87703 17.531187
56.468555 3.87603 17.194187
57.150555 6.065033 15.911187
14.561556 91.43803 40.07819
15.610556 91.565025 37.846188
10.712555 94.51403 28.158188
11.079552 96.56903 27.843187
24.316555 9.30603 41.24019
23.347555 11.33403 40.929188
22.116556 19.149025 46.57319
20.483557 18.734032 47.63419
11.955559 43.231026 18.421188
9.8485565 43.906025 17.685186
4.960552 52.385025 11.920187
3.8175545 51.295025 10.497187
32.563557 64.42003 0.2761917
30.608557 64.92303 59.57719
30.117556 71.272026 50.193188
31.023556 73.13003 50.46119
48.721554 77.32303 40.43319
47.765556 75.44302 40.74719
54.070553 67.36403 42.443188
55.629555 68.065025 44.01519
25.086555 19.742027 49.00319
27.184555 19.996025 50.444187
25.728556 29.69203 53.21319
25.206556 30.81703 55.30819
27.957556 36.310024 19.142187
29.692556 34.349026 20.142187
35.751556 29.019026 25.917187
36.121555 26.676025 25.444187
26.299557 0.5240326 26.342188
28.370556 1.4690323 26.439186
33.601555 108.46203 22.679188
32.191555 106.72103 23.752188
48.303555 10.826027 23.129187
46.821556 10.27803 25.155188
50.234554 17.455025 30.920187
49.625553 19.813026 30.648188
12.081558 27.87203 26.841187
10.232559 26.83303 26.851187
5.4475517 18.852028 28.082188
5.7275543 16.96502 26.126186
55.546555 79.58803 53.40619
56.391556 78.80402 55.68219
0.062553406 83.87402 3.5201874
1.4395523 85.58603 3.965187
31.552557 33.355026 18.380188
33.030556 31.775026 19.744188
41.576557 38.102024 25.139187
43.857555 38.147026 23.901188
17.758556 29.22103 31.515186
15.389556 28.145025 31.843187
10.305556 21.860023 25.442188
12.025556 20.691032 24.438187
32.485554 61.135025 53.29419
34.031555 60.694023 55.37919
40.665554 59.901024 46.23819
41.055557 58.215023 45.80819
22.944555 56.623024 43.55119
21.511557 58.428024 43.12519
18.594557 64.373024 53.11519
18.562555 66.89303 52.359188
41.313557 54.438026 53.680187
39.712555 55.356026 52.47419
46.607555 51.794025 42.825188
47.740555 52.297024 40.332188
6.7375565 23.369026 8.164187
7.446556 22.442024 10.506187
7.172554 10.941032 12.843187
8.087555 12.345032 14.774187
21.832556 80.89002 40.179188
23.718555 80.67103 39.756187
22.572556 76.91702 27.673187
22.070557 78.89403 26.653187
13.8745575 29.710026 41.69019
15.340555 28.413025 43.512188
8.552559 32.466026 52.52919
8.148552 33.857025 50.70519
53.037556 76.96303 53.80019
51.731556 76.19803 52.37619
45.985554 66.79202 51.21119
43.681557 67.78303 52.63919
27.423555 57.372025 8.539185
28.936556 56.889023 9.961187
33.032555 65.762024 3.1431885
35.457554 64.83603 3.2061844
43.452557 62.514023 43.04419
44.116554 63.352024 41.03019
40.834557 74.36803 46.353188
42.231556 75.859024 46.075188
48.950554 55.203026 4.2941895
48.592556 53.188026 2.680191
1.0555534 49.007023 5.180191
2.0925522 49.044025 3.0491867
48.141556 99.05703 11.800187
46.245556 98.58803 13.641187
51.897556 107.67403 20.130188
50.282555 109.30703 19.077187
23.508556 53.383026 59.804188
22.231556 55.145023 60.08719
28.353556 66.525024 0.06219101
28.092556 68.08502 1.8061905
24.996555 41.947025 10.510187
24.352556 42.577026 12.501187
31.297556 33.545025 15.953187
29.892555 31.204025 15.911187
23.306557 34.799026 45.02319
22.700556 35.710026 47.16219
11.9735565 36.638023 48.77219
10.545556 35.772026 51.235188
0.29955292 8.96003 53.339188
1.929554 8.627029 51.610188
11.614555 1.4200287 53.98919
10.630554 0.4450302 52.39219
57.220554 100.190025 22.613188
55.945553 100.205025 20.987188
49.542553 93.21303 20.699188
47.467556 91.413025 20.180187
35.897556 65.27802 5.8701873
38.026554 65.397026 6.913187
40.882557 57.956024 15.884188
39.237556 56.679024 14.955187
11.324556 62.108025 47.15619
13.058557 63.887024 48.186188
18.633556 53.411026 47.44819
17.756556 54.053024 45.30819
30.036556 3.8280334 18.956188
28.072556 1.9030304 18.570187
21.774557 8.4620285 18.365187
21.243557 10.30603 19.238188
35.970554 35.942024 9.262184
34.673557 34.201027 8.64019
42.000557 28.029026 0.8181915
43.603554 26.590025 1.3281898
33.994556 50.083023 10.614187
35.864555 50.554024 11.613187
31.686556 59.807022 12.465187
33.458557 61.673023 11.512187
42.003555 68.871025 26.611187
42.860554 69.747025 24.999187
34.878555 63.273026 19.145187
34.903557 64.03203 16.538187
43.301556 33.587025 13.532187
41.078556 34.069027 12.155187
41.298557 43.412025 15.988187
41.578556 45.622025 16.999187
52.117554 10.456032 58.45219
53.796555 10.438026 59.76019
57.362553 1.3850327 4.9011917
55.544556 2.6030273 6.51519
44.037556 35.196026 5.3321915
45.519554 36.541027 4.616188
40.780556 44.976025 8.683189
39.549557 45.172024 6.9921875
20.134556 74.53103 25.018187
20.322556 77.067024 25.531187
17.646557 81.439026 35.957188
15.816556 83.288025 37.062187
30.810556 98.12403 5.41819
29.008556 97.45103 4.175186
32.803555 93.10303 7.913185
34.440556 91.87903 9.163185
50.817554 56.991024 2.9501915
49.457554 58.334026 3.6051865
43.687557 67.19703 6.297188
44.826557 68.45103 7.896187
4.5365524 20.18702 30.557186
2.516552 21.097023 30.815187
5.382553 24.62902 41.69819
5.094555 26.732033 42.12719
43.389557 20.877022 8.639191
41.626556 19.315025 9.19519
38.701557 22.190025 3.1531906
37.739555 23.74302 1.7771912
32.230556 92.41003 31.976187
32.253555 90.399025 32.952187
41.564556 92.33303 31.620188
39.552555 93.510025 32.44819
6.0085526 114.15503 31.367188
7.752556 112.663025 32.444187
9.326553 110.75603 44.12919
11.423553 110.553024 43.51619
16.661554 35.739025 55.47619
16.090555 34.850025 57.19719
11.146553 34.458027 4.9681854
12.601555 32.422024 3.8671875
57.002556 7.817032 27.797188
55.882553 8.733032 26.301188
46.349556 8.111031 23.784187
46.468555 8.323029 21.832188
32.190556 48.512024 57.471188
32.516556 46.538025 56.62919
40.158554 42.353024 2.4551888
41.283554 40.815025 2.2751884
42.616554 72.34802 52.818188
40.148556 72.651024 53.60019
34.649555 63.592022 57.89719
35.735554 63.559025 59.90419
31.063557 72.77003 29.311188
29.096556 72.79603 28.269188
27.856556 75.37502 17.128187
26.609556 77.275024 17.351187
30.352556 96.77903 44.92819
28.412556 98.76903 45.00219
29.824556 106.69303 43.21119
30.115557 107.815025 44.90319
43.115555 102.358025 12.982187
42.038555 103.39203 14.161187
30.348557 103.163025 14.351188
30.079556 102.36103 12.296187
53.287556 61.823025 0.096191406
54.750553 61.556023 59.116188
49.807556 64.691025 50.34119
47.784554 65.397026 49.80919
21.261557 59.478024 9.960187
20.912556 60.823025 11.925187
32.859554 62.536022 15.665187
31.932556 63.593025 17.263187
14.259556 40.999023 19.159187
16.276556 41.555027 19.316187
16.643557 50.043026 14.582188
15.632556 49.123024 13.266187
32.772556 112.109024 45.20419
31.201557 110.400024 46.08719
28.689556 105.64003 47.05119
29.360556 103.97103 49.30319
27.326555 22.190025 34.03019
25.466557 23.247032 34.63519
16.273556 15.444023 34.83019
17.048555 13.819023 36.255188
51.007553 61.852024 15.537188
51.939556 60.975025 17.274187
0.14555359 52.866024 13.266187
58.329556 51.211025 12.128187
57.767555 28.130026 50.186188
56.158554 29.285025 51.22719
50.609554 23.651024 58.305187
51.795555 21.624031 59.11519
19.009556 37.189026 20.323187
17.893557 39.325024 20.071188
23.457556 45.060024 14.513187
25.969557 45.681026 13.830187
15.140554 88.316025 7.5111847
15.772554 87.774025 5.1531906
6.106552 80.87703 3.9761887
4.9915543 82.761024 4.0221863
46.361553 77.566025 38.665188
45.432556 78.67403 40.43519
43.094555 88.62803 44.37719
40.702557 89.15603 45.19819
18.143557 79.11603 8.764191
20.041555 79.75102 7.864189
18.051556 68.316025 3.7071915
18.475555 67.25303 1.9161911
0.73755264 22.046028 29.115187
57.640556 23.545021 28.543186
53.407555 16.886024 17.836187
53.919556 17.510033 15.630187
18.769556 90.13003 3.4891891
18.520555 89.05903 1.6701889
24.095556 84.34602 57.548187
24.191555 83.85203 55.339188
19.103556 45.052025 38.811188
20.199556 45.389023 37.09319
19.326555 40.146027 35.630188
20.400557 39.080025 34.291187
3.8585548 86.06103 4.5341873
4.1215553 87.25203 2.43919
3.7505531 91.592026 4.239189
4.115555 91.109024 2.2291908
45.346554 24.292025 9.208191
46.119556 25.603025 7.0111847
43.644554 31.747025 8.708191
43.864555 33.200024 10.249189
15.921556 90.98003 55.812187
14.229555 92.11103 57.01819
3.8875542 91.911026 60.43219
2.7585526 90.10503 59.53719
6.5555573 7.692032 40.286186
4.865555 9.032028 40.72019
9.367554 12.634033 53.207188
8.574554 10.492027 53.152187
18.784555 90.73903 7.003189
17.004557 90.26402 6.285187
19.828556 100.94403 9.258186
20.274557 102.746025 7.3041916
8.441559 13.492027 21.881187
7.9805527 15.220024 24.012188
5.599552 13.537025 33.09219
3.5815544 13.32003 33.95519
25.126556 64.18703 33.652187
27.016556 62.137024 33.408188
27.994556 64.94703 21.456188
25.550556 65.35103 21.337187
57.817554 46.113026 39.05219
57.941555 47.358025 41.484188
4.8155518 57.283024 37.214188
3.5825539 59.538025 37.439186
46.671555 89.345024 50.151188
44.491554 89.28303 49.55019
37.474556 82.05702 46.076187
37.187557 84.49103 45.485188
16.634554 69.34003 53.06519
16.057554 71.189026 51.965187
7.771553 71.11202 60.840187
7.927559 68.90202 0.3271904
57.659554 91.25203 37.083187
0.02355194 91.54102 38.965187
11.409554 90.661026 38.446186
12.424553 89.817024 40.756187
11.796555 41.985023 54.998188
10.349556 41.749023 53.763187
1.3695526 35.699024 53.69519
0.566555 33.918026 52.742188
39.317554 62.135025 28.067186
39.281555 60.347023 27.428186
43.748554 60.787025 16.051188
44.030556 62.965023 15.099187
43.793556 114.86603 29.853188
43.121555 113.34803 28.779186
40.123554 110.67103 39.73119
40.678555 108.050026 38.61419
9.201553 95.50603 25.762188
11.077553 93.80903 25.231188
17.831556 87.73702 23.315187
17.673555 86.93303 25.208187
12.477556 90.29803 43.630188
14.102556 90.272026 42.74319
23.726557 88.647026 41.064186
24.433556 90.40503 41.78719
27.416555 83.178024 45.60519
29.831556 82.90503 45.124187
32.293556 90.71103 53.87219
33.584557 89.26502 55.151188
54.594555 12.416031 30.082188
53.608555 10.245033 29.985188
52.176556 2.211029 29.530188
54.051556 2.949028 28.010187
52.846554 13.281029 55.31419
52.219555 15.655022 56.30019
0.43255234 25.013023 51.901188
0.7085533 26.063026 54.394188
34.642555 29.970026 16.547188
33.046555 29.921026 15.581187
26.520555 31.154026 19.009188
27.217556 33.140026 17.700188
33.256554 77.65402 4.524187
34.276554 78.911026 5.961187
32.389557 79.56203 16.758186
30.382557 79.05402 18.121187
39.813557 18.93702 2.5211906
38.818554 18.096031 0.018188477
38.198555 24.614021 53.123188
37.242554 25.642021 51.31019
44.801556 27.930029 59.91919
45.199554 27.388023 57.64319
45.705555 14.142021 59.20319
44.017555 12.77803 58.242188
16.451555 7.241028 32.445187
16.311556 7.025032 30.323187
10.759552 112.03503 26.563187
12.257553 112.08903 24.673187
25.465555 100.775024 28.010187
24.900557 98.373024 27.313187
18.259556 91.33202 28.404186
19.255556 89.29403 28.120188
37.518555 18.999031 18.848188
39.506554 18.796028 19.223188
34.336555 13.036018 14.630187
33.276554 14.661018 13.895187
7.7075577 69.54403 27.527187
8.826553 70.24103 29.674187
3.382553 78.01402 31.647186
3.3535538 78.718025 29.681187
53.589554 17.661018 2.399189
54.319553 15.923027 1.4341888
6.2185516 19.280022 58.866188
7.6525574 17.630028 57.82419
22.653557 37.271027 6.050186
20.925556 38.465027 5.524185
14.364556 30.452024 58.686188
15.655556 31.719025 57.21819
19.429556 28.450026 23.650187
20.005556 30.614025 22.617188
23.065556 26.486025 10.9661875
25.039557 26.037025 10.004187
29.592556 2.025032 28.840187
29.844557 3.0517578e-05 28.272186
35.690556 112.41003 19.380188
35.590557 113.40203 17.621187
19.850555 25.289024 22.581188
21.218555 23.492027 21.904188
26.085556 24.311028 11.758187
24.256556 23.387032 11.1431875
45.639557 85.259026 56.86919
45.686554 84.93703 59.06519
34.328556 79.550026 1.1851883
34.265556 79.96103 3.180191
50.066555 101.27003 31.022186
48.152554 102.137024 32.529186
38.663555 97.85103 29.019188
36.959557 99.927025 29.822187
28.898556 101.942024 51.28519
26.570557 101.83603 51.00119
27.975555 110.00203 60.23119
27.273556 108.066025 0.91719055
32.604557 16.79203 15.567187
33.262554 17.552025 14.021187
34.876556 11.121033 5.138187
34.230556 8.619026 6.190187
38.672554 83.54202 35.639187
39.724556 83.331024 33.87119
46.763554 77.20203 31.484186
46.683556 74.939026 32.13619
24.702557 77.73602 24.465187
25.292557 80.27003 24.845188
36.569557 83.66903 25.553188
38.874554 82.80602 26.078188
10.404556 10.669029 12.686187
11.238556 9.993027 14.621187
19.421556 3.6880264 17.399187
18.405556 1.461029 16.715187
30.859556 44.395023 57.64619
33.032555 44.347023 58.05919
30.785557 34.655025 60.00719
28.630556 34.217026 58.72519
