2.023 1.320 2.082
2.280 1.139 2.174
2.290 1.078 2.344
2.475 1.450 5.903
2.123 0.933 -0.059
2.080 0.891 0.238
2.198 0.830 0.597
2.283 0.991 0.654
2.140 0.980 1.052
2.207 0.963 1.260
2.233 0.932 1.401
2.221 0.942 1.782
2.385 0.983 1.888
2.374 1.056 2.158
2.521 1.003 2.189
2.756 1.264 6.112
2.302 0.608 0.009
2.423 0.720 0.357
2.389 0.823 0.443
2.375 0.736 0.829
2.320 0.745 0.876
2.442 0.926 1.316
2.362 0.821 1.533
2.377 0.869 1.609
2.343 0.827 1.897
2.464 1.006 2.119
2.495 0.592 0.046
2.579 0.580 0.342
2.464 0.527 0.455
2.564 0.676 0.667
2.446 0.599 1.054
2.579 0.694 1.120
2.561 0.652 1.342
2.527 0.683 1.755
2.529 0.684 1.995
2.677 0.306 0.039
2.665 0.485 0.278
2.590 0.350 0.453
2.635 0.506 0.633
2.632 0.439 1.013
2.626 0.524 1.169
2.774 0.402 1.388
2.652 0.532 1.627
2.889 0.131 0.356
2.758 0.258 0.434
2.861 0.186 0.825
2.764 0.175 1.080
2.869 0.391 1.162
2.804 0.294 1.380
3.316 0.417 3.651
3.334 0.427 3.877
3.168 0.366 4.201
3.041 -0.049 0.420
3.081 0.107 0.687
2.924 0.134 0.950
3.479 0.419 3.620
3.373 0.616 3.802
3.155 0.285 0.527
3.212 0.207 0.607
3.411 0.354 3.193
3.449 0.402 3.282
3.666 0.371 3.516
3.662 0.385 3.894
3.541 0.329 4.144
3.654 0.361 4.280
3.673 0.143 2.923
3.760 0.206 3.070
3.706 0.005 3.315
3.715 0.174 3.616
3.645 0.053 3.912
3.797 0.074 4.046
3.733 0.291 4.296
3.727 0.273 4.627
3.939 0.032 3.981
3.991 0.130 4.399
3.891 -0.061 4.479
4.061 0.120 4.730
2.060 1.791 2.404
2.033 1.901 2.598
2.101 1.794 2.808
2.068 1.917 3.148
2.088 1.940 3.327
2.019 1.998 3.651
2.140 1.908 3.898
2.221 1.937 4.035
2.135 2.012 4.253
2.183 2.115 4.632
2.167 2.048 4.690
2.216 1.944 5.076
2.024 1.519 2.063
2.236 1.554 2.285
2.109 1.650 2.652
2.304 1.760 2.781
2.198 1.689 3.064
2.196 1.679 3.426
2.293 1.702 3.512
2.371 1.684 3.741
2.169 1.749 4.041
2.271 1.702 4.285
2.296 1.754 4.506
2.272 1.847 4.688
2.316 1.904 4.990
2.360 1.932 5.181
2.369 1.883 5.580
2.191 1.653 1.892
2.213 1.695 2.041
2.373 1.439 2.200
2.259 1.544 2.445
2.628 1.694 5.075
2.418 1.696 5.175
2.555 1.685 5.375
2.488 1.788 5.783
2.640 1.780 6.007
2.232 1.198 0.307
2.104 1.346 0.446
2.197 1.263 0.648
2.315 1.227 0.840
2.336 1.316 1.114
2.263 1.334 1.404
2.213 1.298 1.563
2.264 1.422 1.996
2.223 1.316 2.059
2.653 1.661 5.520
2.651 1.524 5.732
2.811 1.671 6.064
2.232 1.133 0.263
2.357 1.096 0.379
2.301 1.130 0.610
2.362 1.020 0.904
2.431 1.218 1.243
2.394 1.238 1.487
2.395 1.251 1.568
2.413 1.293 1.824
2.838 1.432 5.801
2.826 1.505 6.002
2.557 0.853 0.108
2.510 0.979 0.359
2.412 0.920 0.769
2.534 0.976 0.881
2.654 1.033 1.281
2.600 1.073 1.363
2.677 1.023 1.639
3.086 1.205 5.663
3.163 1.226 5.936
2.747 0.727 0.115
2.599 0.663 0.502
2.782 0.792 0.670
2.606 0.675 0.876
2.739 0.692 1.286
2.798 0.780 1.377
2.765 0.850 1.607
3.260 1.133 6.055
2.723 0.450 0.252
2.941 0.494 0.462
2.845 0.664 0.734
2.858 0.598 0.875
2.824 0.714 1.086
2.817 0.537 1.445
3.066 0.376 0.204
2.999 0.404 0.508
2.937 0.298 0.682
2.929 0.412 0.967
3.007 0.493 1.305
3.467 0.444 3.697
3.489 0.565 3.848
3.099 0.135 0.378
3.194 0.293 0.629
0.143 0.335 5.260
0.153 0.431 5.596
0.129 0.575 5.706
0.106 0.396 6.106
0.240 0.516 6.173
0.148 0.729 5.547
0.073 0.845 5.812
0.127 0.879 6.034
0.199 0.774 6.145
0.268 0.685 5.283
0.332 0.544 5.405
0.379 0.685 5.731
0.240 0.619 6.032
0.370 0.700 6.173
0.047 4.313 4.557
-0.074 4.407 4.781
0.065 4.416 5.050
0.043 3.794 2.118
0.016 3.978 2.388
-0.012 4.009 2.441
-0.010 4.022 2.868
0.136 3.917 3.028
0.106 4.127 3.303
0.024 4.111 3.488
0.128 3.956 3.758
0.061 3.986 4.025
0.225 4.012 4.293
0.203 4.203 4.408
0.237 4.170 4.714
0.257 4.211 5.034
0.169 4.293 5.206
0.229 4.172 5.321
0.100 3.905 2.080
0.224 3.701 2.016
0.234 3.692 2.283
0.470 3.891 4.992
0.405 4.031 5.218
0.309 3.953 5.541
0.346 4.142 5.692
0.448 4.000 5.955
-0.063 3.596 0.131
0.070 3.577 0.382
0.042 3.704 0.603
0.188 3.549 0.830
0.107 3.626 1.038
0.049 3.740 1.250
0.048 3.601 1.569
0.116 3.799 1.735
0.258 3.760 1.964
0.604 3.961 5.538
0.518 3.914 5.634
0.633 3.936 5.912
0.114 3.452 0.112
0.229 3.431 0.404
0.332 3.431 0.635
0.287 3.458 0.830
0.236 3.454 1.130
0.316 3.482 1.407
0.316 3.504 1.500
0.379 3.563 1.811
0.776 3.796 5.755
0.674 3.684 5.819
0.324 3.242 0.140
0.490 3.103 0.419
0.320 3.144 0.664
0.470 3.290 0.945
0.315 3.302 1.132
0.447 3.222 1.382
0.380 3.400 1.508
0.982 3.458 5.677
1.042 3.570 5.991
0.530 3.070 0.052
0.526 3.061 0.345
0.652 3.153 0.630
0.524 3.192 0.827
0.511 3.021 1.128
0.687 3.170 1.350
0.727 3.056 1.513
1.023 3.319 5.896
0.770 2.917 0.161
0.635 2.894 0.442
0.738 2.803 0.639
0.783 2.865 0.949
0.687 2.876 1.111
0.730 2.941 1.340
0.879 2.642 0.222
0.845 2.620 0.513
0.842 2.686 0.702
0.927 2.729 0.817
0.814 2.686 1.161
1.305 2.866 3.652
1.181 2.852 3.805
0.961 2.530 0.395
1.058 2.464 0.579
1.424 2.528 3.053
1.427 2.508 3.188
1.337 2.525 3.558
1.405 2.740 3.886
1.462 2.650 4.053
1.531 2.719 4.293
1.569 2.384 2.726
1.655 2.315 3.048
1.525 2.382 3.346
1.636 2.440 3.434
1.668 2.563 3.849
1.508 2.489 4.057
1.545 2.607 4.354
1.543 2.642 4.445
1.676 2.151 2.541
1.790 2.225 2.747
1.635 2.169 3.063
1.700 2.239 3.242
1.831 2.183 3.620
1.674 2.344 3.706
1.829 2.245 4.090
1.914 2.237 4.296
1.919 2.367 4.536
1.853 2.338 4.764
1.936 1.890 2.704
1.844 1.966 2.722
1.968 2.029 3.005
1.830 2.118 3.363
1.896 1.994 3.516
1.886 2.128 3.786
1.846 2.069 4.149
2.059 2.240 4.227
2.022 2.152 4.524
2.049 2.305 4.832
0.097 4.564 4.226
-0.004 4.573 4.493
0.061 4.206 2.133
0.127 4.317 2.194
0.092 4.194 2.504
0.076 4.232 2.733
-0.017 4.247 2.976
0.068 4.292 3.247
0.066 4.419 3.365
0.240 4.432 3.755
0.176 4.366 3.969
0.089 4.424 4.199
0.155 4.510 4.367
0.004 4.334 1.696
-0.045 4.252 2.035
0.175 3.974 2.078
0.313 4.161 2.307
0.158 4.044 2.464
0.239 4.149 2.743
0.329 4.236 2.910
0.205 4.111 3.339
0.384 4.098 3.578
0.396 4.160 3.672
0.237 4.342 3.985
0.171 3.919 1.115
0.163 3.928 1.329
0.039 4.009 1.650
0.086 4.037 1.751
0.114 4.097 1.999
0.281 3.982 2.037
0.394 3.841 2.239
0.446 4.046 2.418
0.350 3.892 2.656
0.308 3.897 2.942
0.143 3.736 0.087
0.197 3.642 0.329
0.178 3.787 0.537
0.154 3.763 0.730
0.256 3.771 1.004
0.188 3.756 1.395
0.350 3.919 1.511
0.237 3.890 1.778
0.371 3.935 2.040
0.438 3.705 2.042
0.526 3.769 2.387
0.736 4.123 5.898
0.332 3.593 0.098
0.468 3.442 0.259
0.441 3.478 0.656
0.516 3.565 0.958
0.360 3.508 0.993
0.370 3.653 1.395
0.501 3.584 1.544
0.540 3.690 1.760
0.420 3.789 1.996
0.643 3.636 2.044
0.938 3.946 5.957
0.595 3.359 0.145
0.605 3.338 0.266
0.621 3.365 0.607
0.594 3.426 0.941
0.587 3.561 1.157
0.736 3.407 1.315
0.555 3.450 1.496
0.735 3.594 1.889
0.602 3.601 2.040
0.700 3.154 0.190
0.723 3.243 0.376
0.817 3.151 0.692
0.730 3.337 0.969
0.849 3.236 1.030
0.897 3.199 1.332
0.916 3.403 1.615
0.725 3.332 1.706
0.964 2.931 0.100
0.954 3.057 0.491
0.912 3.014 0.708
1.020 2.967 0.916
1.011 3.027 1.135
0.881 3.129 1.445
0.901 3.117 1.612
1.106 2.787 0.044
1.077 2.827 0.402
1.175 2.976 0.668
1.169 2.875 0.767
1.044 2.928 1.141
1.095 2.834 1.371
1.355 2.859 3.502
1.448 3.015 3.640
1.365 2.998 3.949
1.184 2.616 0.386
1.211 2.797 0.669
1.198 2.733 0.865
1.642 2.860 3.378
1.578 2.730 3.502
1.605 2.870 3.683
1.581 2.851 4.001
1.689 2.902 4.279
1.763 2.862 4.508
1.679 2.629 3.002
1.819 2.477 3.266
1.874 2.578 3.583
1.747 2.555 3.652
1.760 2.575 3.930
1.931 2.763 4.334
1.843 2.662 4.569
1.834 2.831 4.672
1.875 2.501 2.941
1.984 2.360 3.256
1.977 2.539 3.473
2.060 2.467 3.783
1.931 2.511 3.976
1.911 2.502 4.278
2.018 2.415 4.471
2.044 2.535 4.619
1.948 2.642 4.975
2.026 2.080 2.883
2.090 2.273 2.980
2.030 2.192 3.284
2.011 2.362 3.598
1.995 2.365 3.828
2.215 2.224 4.001
2.074 2.292 4.186
2.269 2.252 4.592
2.126 2.277 4.784
2.253 2.383 4.958
2.115 2.374 5.223
0.117 4.971 3.867
-0.016 4.657 1.888
-0.031 4.625 2.350
0.004 4.721 2.490
0.086 4.547 2.758
0.148 4.631 3.000
0.099 4.664 3.217
0.068 4.816 3.348
0.203 4.702 3.656
0.166 4.861 4.013
-0.043 4.508 1.747
-0.060 4.642 1.935
0.126 4.321 2.012
0.138 4.506 2.201
0.236 4.422 2.551
0.237 4.560 2.644
0.260 4.518 3.058
0.368 4.560 3.261
0.221 4.462 3.487
0.287 4.616 3.764
0.257 4.695 3.868
0.153 4.315 1.486
0.202 4.412 1.719
0.142 4.482 1.904
0.377 4.273 1.897
0.307 4.145 2.143
0.438 4.247 2.523
0.343 4.387 2.627
0.524 4.423 2.967
0.502 4.387 3.142
0.555 4.372 3.467
0.401 4.044 0.987
0.404 4.220 1.274
0.277 4.119 1.516
0.407 4.213 1.811
0.430 4.119 2.020
0.446 4.022 2.116
0.439 3.964 2.236
0.503 4.040 2.417
0.689 4.011 2.689
0.554 4.187 2.991
0.522 4.005 0.527
0.480 3.991 0.772
0.509 4.013 0.947
0.494 3.873 1.349
0.435 3.938 1.434
0.504 3.923 1.738
0.518 3.984 2.059
0.660 3.803 1.958
0.653 3.881 2.204
0.713 4.029 2.596
0.525 3.739 0.163
0.486 3.753 0.337
0.681 3.760 0.544
0.669 3.833 0.912
0.655 3.890 1.079
0.623 3.905 1.379
0.586 3.772 1.630
0.606 3.896 1.721
0.647 3.765 1.930
0.767 3.740 1.999
0.927 3.788 2.271
0.807 3.553 0.133
0.772 3.574 0.281
0.675 3.544 0.622
0.728 3.502 0.758
0.834 3.637 1.043
0.772 3.717 1.405
0.846 3.741 1.650
0.740 3.683 1.832
0.832 3.620 2.016
0.926 3.524 2.101
0.819 3.326 0.044
0.840 3.419 0.395
0.860 3.333 0.699
0.929 3.395 0.866
0.869 3.444 1.025
1.000 3.520 1.252
0.968 3.507 1.576
1.031 3.473 1.676
1.036 3.595 2.078
1.000 3.226 0.001
0.992 3.210 0.359
1.093 3.208 0.633
1.181 3.200 0.886
1.162 3.194 1.037
1.066 3.233 1.416
1.225 3.202 1.581
1.205 3.224 1.711
1.121 3.075 0.284
1.277 3.021 0.573
1.223 2.960 0.918
1.224 3.191 1.135
1.384 3.174 1.361
1.344 3.039 1.511
1.521 3.160 3.707
1.749 3.125 3.952
1.776 3.107 4.148
1.623 3.284 4.377
1.366 2.793 0.507
1.385 2.824 0.832
1.524 2.986 1.082
1.555 2.847 1.333
1.737 3.055 3.413
1.698 2.987 3.699
1.907 2.949 3.998
1.743 3.103 4.165
1.874 2.975 4.411
1.768 3.172 4.780
2.005 2.696 3.228
1.880 2.662 3.517
1.850 2.848 3.794
2.005 2.786 3.871
1.934 2.833 4.188
1.906 2.941 4.418
2.109 2.772 4.588
2.091 2.968 5.011
2.142 2.606 3.360
2.166 2.510 3.502
2.211 2.531 3.731
2.202 2.727 4.029
2.176 2.617 4.296
2.143 2.798 4.548
2.171 2.749 4.732
2.155 2.632 5.006
2.202 2.665 5.212
2.320 2.472 3.274
2.224 2.523 3.492
2.369 2.345 3.708
2.224 2.511 3.934
2.368 2.407 4.318
2.323 2.497 4.485
2.255 2.473 4.710
2.295 2.648 4.974
2.385 2.668 5.170
2.405 2.523 5.415
-0.044 5.177 3.594
-0.030 4.954 1.877
-0.021 4.838 2.188
0.163 4.937 2.443
0.046 4.888 2.609
0.045 4.950 2.848
0.105 5.107 3.256
0.163 5.055 3.356
0.056 5.127 3.596
-0.031 4.912 1.998
0.240 4.793 1.951
0.180 4.885 2.151
0.239 4.693 2.432
0.173 4.769 2.646
0.317 4.876 2.899
0.248 4.789 3.125
0.318 4.860 3.465
0.269 4.977 3.605
0.252 4.809 1.832
0.149 4.670 1.911
0.431 4.626 2.079
0.297 4.675 2.276
0.442 4.557 2.352
0.489 4.569 2.592
0.473 4.712 2.925
0.567 4.605 3.247
0.541 4.751 3.523
0.427 4.764 3.540
0.244 4.521 1.389
0.285 4.658 1.676
0.466 4.555 1.931
0.633 4.454 2.017
0.486 4.338 2.283
0.570 4.471 2.356
0.475 4.554 2.767
0.557 4.454 2.830
0.594 4.546 3.139
0.556 4.243 1.120
0.539 4.393 1.336
0.573 4.335 1.452
0.425 4.331 1.800
0.441 4.334 1.909
0.586 4.297 1.933
0.821 4.181 2.235
0.739 4.226 2.444
0.643 4.324 2.600
0.716 4.215 2.844
0.502 4.125 0.886
0.516 4.012 1.046
0.756 4.128 1.259
0.710 4.174 1.511
0.589 4.218 1.670
0.596 4.257 1.919
0.866 4.121 1.902
0.946 3.991 2.216
1.001 4.199 2.418
0.751 3.835 0.220
0.836 3.879 0.528
0.774 3.917 0.801
0.786 3.952 1.126
0.789 3.952 1.239
0.901 3.977 1.414
0.859 4.047 1.806
0.820 4.097 1.973
0.992 3.806 1.930
1.016 3.785 2.210
0.882 3.797 0.296
0.856 3.669 0.481
0.884 3.693 0.789
0.896 3.670 1.037
0.952 3.860 1.260
1.052 3.869 1.514
1.001 3.934 1.785
1.142 3.866 2.048
1.286 3.774 2.059
1.100 3.637 0.309
1.009 3.620 0.525
1.010 3.564 0.761
1.154 3.637 0.931
1.176 3.595 1.198
1.182 3.748 1.617
1.187 3.626 1.759
1.294 3.694 2.077
1.448 3.411 1.945
1.330 3.248 0.416
1.269 3.399 0.586
1.298 3.442 0.884
1.319 3.415 0.989
1.332 3.348 1.255
1.362 3.477 1.528
1.275 3.471 1.704
1.398 3.471 2.099
1.662 3.620 3.928
1.588 3.582 4.184
1.289 3.199 0.330
1.362 3.224 0.626
1.359 3.143 0.873
1.449 3.237 1.062
1.460 3.193 1.403
1.374 3.398 1.503
1.433 3.217 1.686
1.832 3.281 3.723
1.853 3.237 3.856
1.797 3.299 4.227
1.862 3.356 4.313
1.834 3.379 4.545
1.591 2.966 0.460
1.620 2.985 0.812
1.654 3.090 1.121
1.633 3.020 1.341
1.537 3.197 1.466
1.955 3.205 3.448
1.897 3.158 3.724
1.881 3.088 3.912
2.005 3.139 4.115
2.091 3.148 4.301
1.936 3.164 4.569
1.976 3.276 4.793
1.722 2.778 0.819
1.718 2.896 1.025
2.044 3.017 3.438
2.219 2.970 3.611
2.102 2.927 3.992
2.186 2.948 4.213
2.159 3.127 4.522
2.215 3.066 4.638
2.148 3.049 4.851
2.159 3.054 5.221
2.271 2.828 3.500
2.361 2.771 3.738
2.376 2.811 4.053
2.244 2.780 4.107
2.365 2.846 4.448
2.376 2.798 4.720
2.385 2.809 4.796
2.345 2.872 5.165
2.378 2.625 3.580
2.442 2.499 3.774
2.529 2.735 3.885
2.578 2.762 4.218
2.570 2.691 4.340
2.620 2.797 4.675
2.556 2.744 4.998
2.628 2.737 5.242
2.489 2.666 5.416
0.071 5.982 5.701
-0.096 5.539 3.599
0.263 5.830 5.528
0.066 5.695 5.844
0.018 5.235 1.959
-0.018 5.287 2.213
-0.002 5.273 2.470
0.116 5.335 2.562
0.195 5.292 2.830
0.191 5.311 3.049
0.091 5.447 3.461
0.213 5.328 3.673
0.052 5.362 1.833
0.197 5.168 1.957
0.139 5.140 2.145
0.256 5.037 2.508
0.285 5.098 2.645
0.266 5.234 2.822
0.245 5.229 3.181
0.308 5.212 3.362
0.457 5.281 3.603
0.123 5.079 1.583
0.229 5.043 2.004
0.340 5.012 1.903
0.423 4.981 2.144
0.501 4.879 2.365
0.376 4.957 2.597
0.342 4.902 2.905
0.535 4.912 3.231
0.572 5.026 3.441
0.353 4.900 1.721
0.397 4.937 2.000
0.524 4.761 1.951
0.624 4.657 2.090
0.677 4.879 2.338
0.683 4.781 2.629
0.597 4.925 2.858
0.664 4.807 3.253
0.545 4.846 3.342
0.559 4.637 1.415
0.567 4.705 1.789
0.605 4.637 1.973
0.758 4.468 1.908
0.635 4.647 2.198
0.724 4.687 2.487
0.688 4.679 2.583
0.774 4.538 2.869
0.760 4.565 3.113
0.606 4.579 1.255
0.657 4.520 1.432
0.694 4.612 1.603
0.712 4.598 1.938
0.983 4.352 2.045
0.920 4.490 2.081
0.804 4.469 2.390
0.978 4.375 2.657
0.865 4.223 0.826
0.817 4.237 0.894
0.716 4.372 1.335
0.851 4.449 1.546
0.904 4.244 1.740
0.883 4.474 1.899
0.958 4.171 2.006
1.025 4.324 2.284
1.190 4.182 2.331
1.023 4.165 0.505
1.041 4.151 0.745
0.919 4.161 0.961
0.967 4.066 1.337
0.890 4.225 1.496
1.021 4.240 1.787
0.952 4.169 1.906
1.177 4.008 1.895
1.283 3.962 2.185
1.035 3.934 0.572
1.008 3.988 0.719
1.175 4.044 0.985
1.131 3.858 1.220
1.067 3.998 1.452
1.167 4.082 1.777
1.243 3.976 2.038
1.456 3.760 2.041
1.470 3.802 2.237
1.345 3.751 0.338
1.263 3.649 0.496
1.307 3.731 0.668
1.395 3.823 1.001
1.394 3.806 1.240
1.248 3.845 1.447
1.278 3.794 1.742
1.402 3.911 1.952
1.546 3.681 1.999
1.505 3.407 0.296
1.327 3.548 0.536
1.388 3.531 0.811
1.492 3.603 1.090
1.409 3.716 1.239
1.414 3.734 1.471
1.554 3.535 1.712
1.493 3.728 1.959
1.742 3.582 3.967
1.900 3.651 4.106
1.902 3.632 4.481
1.976 3.755 4.527
1.468 3.442 0.348
1.626 3.413 0.564
1.544 3.494 0.672
1.676 3.480 0.941
1.740 3.453 1.356
1.713 3.398 1.439
1.765 3.369 1.712
1.887 3.522 3.722
1.906 3.449 3.843
1.992 3.500 4.088
2.018 3.455 4.335
1.948 3.527 4.630
2.162 3.635 4.913
1.787 3.166 0.636
1.814 3.118 0.673
1.709 3.144 0.968
1.850 3.315 1.213
1.786 3.344 1.579
1.767 3.408 1.725
2.166 3.161 3.382
2.113 3.389 3.765
2.265 3.324 3.800
2.254 3.281 4.225
2.248 3.408 4.340
2.144 3.470 4.546
2.291 3.318 4.882
1.901 3.089 0.676
1.997 3.106 0.938
2.055 3.017 1.245
1.946 3.145 1.503
2.276 3.029 3.334
2.249 3.051 3.569
2.325 3.215 4.011
2.328 3.204 4.098
2.380 3.181 4.438
2.312 3.132 4.632
2.507 3.211 4.940
2.314 3.276 5.058
2.474 2.839 3.357
2.386 3.020 3.707
2.402 2.897 3.822
2.441 2.911 4.106
2.598 3.033 4.433
2.513 3.101 4.607
2.477 3.061 4.868
2.619 3.079 5.154
2.669 3.196 5.382
2.581 2.721 3.790
2.632 2.856 3.870
2.583 2.910 4.227
2.595 2.774 4.304
2.786 2.848 4.555
2.814 2.911 4.838
2.805 2.971 5.035
2.708 2.998 5.289
-0.101 6.005 5.777
0.098 5.921 3.318
0.202 6.155 5.324
0.192 6.073 5.551
0.197 6.231 5.819
-0.044 5.629 2.011
0.014 5.684 2.192
0.161 5.725 2.385
0.110 5.736 2.570
0.057 5.677 2.746
0.123 5.610 3.197
0.087 5.821 3.322
0.402 5.969 5.315
0.381 5.842 5.488
0.337 6.003 5.807
0.085 5.597 1.931
0.244 5.421 1.939
0.166 5.542 2.111
0.182 5.553 2.479
0.279 5.516 2.730
0.364 5.620 2.759
0.310 5.458 3.106
0.425 5.634 3.287
0.493 5.858 5.486
0.563 5.783 5.685
0.323 5.446 1.951
0.403 5.170 1.806
0.522 5.389 2.047
0.345 5.204 2.328
0.519 5.336 2.694
0.534 5.432 2.787
0.588 5.273 3.199
0.574 5.427 3.237
0.338 5.203 1.698
0.455 5.190 1.849
0.666 5.081 1.878
0.513 5.170 2.059
0.521 5.106 2.320
0.578 5.149 2.708
0.740 5.266 2.834
0.537 5.076 3.202
0.700 5.279 3.319
0.635 5.080 1.600
0.454 5.046 1.884
0.759 4.965 1.803
0.812 4.960 2.267
0.652 4.912 2.457
0.890 5.032 2.573
0.750 4.931 2.781
0.904 5.058 3.110
0.586 4.770 1.370
0.778 4.798 1.598
0.762 4.788 1.898
0.892 4.807 1.860
1.004 4.653 2.097
0.946 4.661 2.513
0.912 4.720 2.535
0.973 4.887 2.847
0.814 4.695 1.100
0.773 4.610 1.386
0.971 4.783 1.675
0.789 4.801 1.824
1.000 4.631 1.956
1.144 4.661 2.210
0.979 4.481 2.305
1.213 4.518 2.728
0.909 4.529 0.906
0.923 4.405 1.138
0.937 4.524 1.356
1.002 4.624 1.586
0.997 4.427 1.819
1.117 4.282 1.859
1.212 4.359 2.202
1.249 4.441 2.526
1.060 4.178 0.747
1.064 4.384 0.987
1.227 4.208 1.114
1.100 4.399 1.367
1.102 4.336 1.730
1.108 4.438 1.860
1.467 4.302 1.864
1.422 4.306 2.129
1.161 4.166 0.579
1.286 4.087 0.817
1.275 4.027 0.871
1.323 4.149 1.242
1.454 4.038 1.405
1.426 4.147 1.809
1.283 4.190 1.968
1.558 4.019 1.997
1.567 3.952 2.086
1.347 3.822 0.534
1.551 3.814 0.821
1.552 3.951 0.891
1.532 4.002 1.253
1.509 3.907 1.492
1.527 4.088 1.804
1.549 4.056 1.990
1.739 3.757 2.029
1.813 3.981 3.954
1.834 4.040 4.204
1.840 4.140 4.266
1.843 4.076 4.664
1.592 3.728 0.470
1.632 3.754 0.762
1.622 3.651 0.910
1.565 3.801 1.225
1.689 3.867 1.435
1.786 3.698 1.676
1.651 3.717 2.014
1.869 3.617 1.997
2.020 3.800 3.702
1.932 3.829 3.816
2.033 3.839 4.208
2.094 3.914 4.443
2.008 3.994 4.620
2.068 3.983 4.743
1.788 3.545 0.412
1.823 3.587 0.780
1.750 3.461 0.946
1.775 3.620 1.170
1.730 3.717 1.491
1.801 3.522 1.661
1.774 3.604 1.923
2.045 3.740 3.521
2.065 3.552 3.889
2.304 3.616 4.019
2.315 3.794 4.337
2.161 3.739 4.682
2.358 3.689 4.812
1.853 3.374 0.603
1.998 3.341 0.752
1.944 3.475 0.975
1.998 3.361 1.193
1.931 3.498 1.420
2.103 3.511 1.680
2.273 3.543 3.724
2.291 3.579 3.932
2.393 3.620 4.170
2.329 3.633 4.250
2.300 3.446 4.704
2.397 3.618 4.818
2.337 3.673 5.178
2.019 3.241 0.619
2.016 3.297 0.819
2.190 3.106 1.068
2.209 3.233 1.164
2.080 3.149 1.418
2.156 3.329 1.657
2.485 3.282 3.532
2.419 3.244 3.772
2.446 3.293 4.097
2.561 3.404 4.355
2.503 3.417 4.557
2.666 3.284 4.820
2.634 3.526 5.179
2.265 2.983 0.787
2.380 2.980 0.900
2.397 3.104 1.323
2.329 3.026 1.429
2.674 3.175 3.734
2.639 3.149 3.808
2.717 3.189 4.115
2.816 3.065 4.452
2.653 3.092 4.706
2.792 3.212 4.888
2.809 3.264 5.080
2.791 3.225 5.322
2.885 2.906 3.684
2.775 3.063 3.862
2.907 2.974 4.209
2.958 3.020 4.371
2.818 3.041 4.621
2.813 2.999 4.819
2.932 3.103 5.107
3.031 3.003 5.274
-0.009 6.001 3.304
0.264 6.144 5.229
0.274 6.028 5.417
0.157 6.041 5.830
0.015 5.998 1.808
0.097 5.923 2.111
0.194 5.919 2.430
0.020 5.944 2.585
0.124 5.953 2.770
0.082 6.067 3.092
0.160 6.095 3.252
0.200 6.276 4.960
0.338 6.305 5.150
0.071 5.837 1.869
0.252 5.732 1.945
0.218 5.871 2.104
0.209 5.734 2.388
0.269 5.823 2.665
0.332 5.773 2.879
0.376 5.853 3.022
0.363 5.972 3.414
0.459 6.090 4.918
0.543 6.082 5.191
0.596 6.116 5.505
0.518 6.055 5.663
0.109 5.664 0.081
0.136 5.712 1.974
0.361 5.671 1.888
0.363 5.689 2.165
0.522 5.544 2.262
0.462 5.567 2.516
0.367 5.787 2.820
0.387 5.658 3.069
0.499 5.702 3.410
0.740 5.843 5.122
0.623 6.022 5.531
0.637 5.845 5.624
0.516 5.552 1.922
0.526 5.411 1.875
0.490 5.547 2.053
0.547 5.505 2.309
0.666 5.573 2.489
0.681 5.516 2.827
0.764 5.437 3.031
0.724 5.752 5.337
0.903 5.800 5.421
0.872 5.737 5.698
0.497 5.456 1.953
0.809 5.259 1.829
0.718 5.158 2.021
0.853 5.189 2.366
0.731 5.374 2.708
0.739 5.263 2.927
0.920 5.403 3.024
1.042 5.501 5.261
1.083 5.483 5.551
0.989 5.601 5.830
0.764 5.288 1.780
0.802 5.093 2.003
0.853 5.003 2.074
0.866 5.132 2.365
0.877 5.126 2.514
0.927 5.164 2.795
0.837 5.052 1.672
0.884 5.111 1.937
0.973 4.783 1.835
1.143 4.874 2.198
1.085 4.938 2.321
1.025 4.868 1.608
1.112 4.793 1.993
1.326 4.601 1.912
1.146 4.739 2.238
1.087 4.679 1.396
1.274 4.796 1.713
1.317 4.745 1.892
1.346 4.531 1.981
1.421 4.544 2.197
1.352 4.533 0.845
1.353 4.352 1.242
1.407 4.490 1.355
1.310 4.546 1.608
1.400 4.494 1.990
1.649 4.448 1.836
1.723 4.621 4.387
1.653 4.545 4.504
1.675 4.711 4.819
1.497 4.147 0.705
1.412 4.290 0.875
1.512 4.200 1.157
1.594 4.344 1.442
1.528 4.436 1.581
1.521 4.334 1.956
1.675 4.279 1.972
1.771 4.436 3.836
1.965 4.314 4.072
1.878 4.360 4.229
1.943 4.381 4.563
2.028 4.492 4.826
1.566 4.099 0.678
1.677 4.094 0.903
1.775 4.197 1.204
1.670 4.060 1.406
1.661 4.068 1.781
1.663 4.262 1.951
1.785 4.061 1.851
2.105 4.162 3.835
2.101 4.212 4.086
2.012 4.252 4.337
2.042 4.346 4.567
2.183 4.268 4.744
1.797 3.759 0.485
1.893 3.789 0.800
1.820 3.858 1.056
1.802 3.924 1.237
1.832 4.006 1.517
1.842 4.010 1.630
1.883 4.054 1.982
2.014 3.898 1.876
2.211 3.939 3.608
2.143 4.099 3.823
2.118 3.943 4.104
2.319 3.951 4.296
2.315 4.025 4.474
2.160 4.200 4.742
2.258 4.149 5.017
1.910 3.721 0.492
1.965 3.701 0.620
2.026 3.788 0.876
2.088 3.677 1.167
1.949 3.719 1.328
2.140 3.765 1.757
2.115 3.880 1.944
2.223 3.564 2.023
2.315 3.900 3.589
2.452 3.917 3.917
2.448 3.803 3.976
2.359 3.766 4.317
2.461 3.857 4.545
2.457 4.018 4.766
2.424 3.917 4.943
2.126 3.394 0.433
2.101 3.602 0.656
2.134 3.556 1.052
2.230 3.613 1.128
2.120 3.591 1.344
2.282 3.558 1.596
2.152 3.651 1.902
2.484 3.529 1.829
2.606 3.537 3.662
2.459 3.555 3.834
2.466 3.569 4.151
2.633 3.714 4.224
2.609 3.634 4.500
2.671 3.806 4.763
2.590 3.821 4.937
2.373 3.416 0.571
2.361 3.390 0.847
2.368 3.312 0.991
2.434 3.284 1.202
2.360 3.482 1.554
2.456 3.446 1.687
2.436 3.519 2.000
2.738 3.497 3.699
2.585 3.394 3.927
2.705 3.547 4.022
2.786 3.413 4.320
2.727 3.626 4.690
2.652 3.518 4.727
2.853 3.548 5.029
2.442 3.235 0.707
2.366 3.105 1.005
2.586 3.294 1.201
2.598 3.261 1.381
2.584 3.259 1.650
2.920 3.209 3.882
2.794 3.423 4.018
2.827 3.425 4.311
2.933 3.298 4.515
2.827 3.358 4.771
2.926 3.388 4.982
2.565 3.040 0.819
2.702 2.917 1.002
2.570 2.953 1.232
2.698 3.026 1.426
2.745 2.976 1.615
2.987 3.216 3.948
2.933 3.111 4.115
3.112 3.111 4.400
3.034 3.222 4.613
3.009 3.227 4.715
3.002 3.182 5.023
2.865 2.772 1.315
2.804 2.997 1.546
2.865 2.837 1.748
-0.038 6.340 2.977
0.001 6.192 3.361
-0.004 5.910 1.823
0.158 6.023 2.151
0.086 5.895 2.316
0.163 6.109 2.641
0.158 5.930 2.726
0.241 5.965 3.171
0.076 6.130 3.349
0.324 6.161 4.926
0.313 6.264 5.337
0.173 5.884 1.855
0.171 6.039 1.781
0.276 6.153 2.045
0.217 6.210 2.245
0.285 6.229 2.523
0.235 6.313 2.799
0.304 6.317 2.971
0.472 6.175 3.195
0.088 5.968 0.063
0.231 6.051 1.860
0.335 6.006 1.918
0.457 5.942 2.185
0.524 6.015 2.278
0.441 6.095 2.585
0.427 5.975 2.805
0.411 6.073 2.983
0.571 6.011 3.279
0.667 6.235 4.866
0.607 6.290 5.184
0.570 6.357 5.443
0.290 5.870 0.239
0.495 6.011 1.798
0.706 5.802 2.101
0.662 5.709 2.408
0.673 5.826 2.651
0.633 5.800 2.772
0.570 5.982 2.976
0.779 6.010 4.898
0.724 6.169 5.276
0.844 6.082 5.430
0.941 6.205 5.724
0.571 5.547 0.126
0.753 5.641 2.159
0.811 5.628 2.256
0.715 5.714 2.500
0.815 5.624 2.903
0.945 5.642 3.109
0.901 5.770 5.062
0.918 5.825 5.275
0.913 5.937 5.341
1.091 5.993 5.678
1.013 5.393 2.121
1.034 5.505 2.269
0.909 5.401 2.645
1.158 5.623 4.883
1.242 5.639 5.166
1.127 5.831 5.550
1.091 5.853 5.777
1.197 5.444 4.742
1.234 5.432 5.048
1.285 5.653 5.222
1.235 5.606 5.552
1.282 5.535 5.783
1.399 5.355 4.729
1.425 5.425 4.942
1.579 5.306 5.326
1.559 5.408 5.479
1.610 5.043 4.461
1.676 5.150 4.798
1.733 5.139 5.013
1.617 5.164 5.302
1.659 4.820 3.937
1.847 5.014 4.269
1.803 5.002 4.497
1.762 4.997 4.807
1.740 4.981 4.889
1.774 5.024 5.346
1.811 4.620 3.738
1.980 4.788 4.107
1.892 4.777 4.252
2.009 4.666 4.540
1.832 4.713 4.767
1.956 4.753 4.972
1.657 4.495 1.181
1.614 4.369 1.373
1.619 4.599 1.740
2.095 4.619 3.738
1.956 4.441 3.954
1.962 4.448 4.195
2.183 4.607 4.566
2.125 4.639 4.713
2.097 4.585 4.995
1.765 4.119 0.690
1.747 4.177 0.957
1.836 4.363 1.260
1.841 4.196 1.318
1.835 4.399 1.536
2.093 4.224 3.551
2.298 4.241 3.808
2.296 4.328 4.130
2.182 4.488 4.299
2.204 4.415 4.416
2.330 4.378 4.819
2.318 4.502 4.968
1.884 4.033 0.775
1.967 4.112 0.955
1.976 4.152 1.187
2.100 4.214 1.517
2.032 4.138 1.691
2.134 4.051 1.838
2.260 4.144 3.506
2.300 4.097 3.882
2.412 4.088 4.084
2.304 4.132 4.251
2.314 4.190 4.453
2.345 4.270 4.824
2.412 4.290 4.942
2.094 3.916 0.515
2.197 3.945 0.738
2.136 3.898 0.863
2.278 3.961 1.264
2.227 3.910 1.502
2.144 3.957 1.738
2.329 4.051 1.898
2.391 3.726 1.971
2.478 4.058 3.622
2.637 4.026 3.927
2.490 4.055 3.961
2.559 4.101 4.255
2.683 4.069 4.644
2.677 4.099 4.781
2.607 4.030 5.119
2.375 3.649 0.497
2.197 3.717 0.753
2.285 3.678 0.909
2.316 3.717 1.274
2.459 3.843 1.484
2.265 3.821 1.632
2.456 3.715 1.877
2.519 3.540 1.795
2.726 3.835 3.538
2.598 3.804 3.938
2.668 3.939 3.967
2.822 3.796 4.266
2.839 3.805 4.533
2.854 3.922 4.896
2.772 3.937 5.017
2.491 3.494 0.374
2.458 3.495 0.724
2.452 3.636 0.972
2.432 3.512 1.127
2.493 3.508 1.512
2.552 3.525 1.769
2.666 3.723 1.869
2.718 3.472 1.852
2.963 3.713 3.748
2.852 3.595 4.067
2.964 3.719 4.346
2.876 3.711 4.609
2.889 3.755 4.849
2.679 3.419 0.445
2.661 3.330 0.793
2.746 3.439 0.925
2.580 3.451 1.114
2.648 3.482 1.444
2.756 3.425 1.615
2.762 3.457 1.902
2.792 3.248 1.940
2.918 3.378 3.804
2.933 3.456 3.969
3.015 3.441 4.370
3.035 3.630 4.515
3.119 3.463 4.689
2.693 3.105 0.813
2.872 3.068 0.899
2.839 3.091 1.114
2.793 3.310 1.445
2.834 3.189 1.777
2.843 3.183 1.898
3.027 3.063 1.841
3.288 3.346 4.413
3.129 3.352 4.477
3.283 3.403 4.732
3.006 3.046 0.719
2.932 3.004 0.938
3.052 3.124 1.259
3.122 3.092 1.504
3.048 3.121 1.621
2.935 3.069 1.905
0.213 6.132 1.731
0.367 6.026 1.990
0.279 6.266 2.312
0.352 6.226 2.506
0.307 6.180 2.711
0.249 6.200 3.136
0.310 6.166 3.187
0.173 5.928 0.131
0.175 6.219 1.834
0.297 6.104 0.088
0.730 6.152 2.095
0.558 6.193 2.274
0.663 6.193 2.640
0.740 6.132 2.873
0.742 6.093 3.103
0.808 6.193 3.340
0.580 5.857 0.067
0.690 5.890 2.254
0.773 5.902 2.594
0.849 5.958 2.840
0.838 6.001 2.926
0.951 6.155 4.921
1.103 6.303 5.109
1.024 6.344 5.473
1.028 6.266 5.762
0.612 5.814 0.105
1.153 5.978 4.588
1.109 5.984 4.971
1.074 5.992 5.144
1.293 6.179 5.423
1.261 6.056 5.755
0.802 5.551 0.114
1.250 5.782 4.663
1.304 5.916 4.888
1.230 5.793 5.073
1.298 5.858 5.348
1.468 5.909 5.667
0.950 5.351 0.070
1.425 5.532 4.560
1.415 5.545 4.673
1.382 5.593 4.870
1.510 5.676 5.222
1.500 5.780 5.348
1.516 5.638 5.738
1.654 5.502 4.150
1.515 5.512 4.449
1.741 5.501 4.657
1.611 5.418 4.987
1.594 5.410 5.188
1.704 5.601 5.415
1.708 5.485 5.646
1.748 5.319 3.988
1.653 5.239 4.332
1.830 5.269 4.455
1.748 5.363 4.825
1.839 5.302 4.930
1.759 5.359 5.299
1.762 5.329 5.448
1.784 5.485 5.666
1.922 4.938 3.764
1.891 4.953 3.920
1.896 5.002 4.165
2.029 5.007 4.458
1.947 5.199 4.807
1.985 5.253 4.886
1.880 5.073 5.319
1.946 5.237 5.507
1.993 4.729 3.625
1.987 4.754 3.773
2.116 4.826 4.021
2.188 4.810 4.160
2.212 4.994 4.524
2.119 4.895 4.795
2.238 4.928 4.885
2.106 4.920 5.254
2.195 4.628 3.494
2.177 4.700 3.881
2.179 4.739 4.088
2.340 4.771 4.197
2.244 4.860 4.456
2.176 4.815 4.689
2.411 4.796 5.070
2.433 4.708 5.257
2.282 4.367 3.627
2.478 4.530 3.764
2.320 4.487 4.127
2.418 4.566 4.192
2.383 4.514 4.426
2.558 4.576 4.685
2.506 4.676 4.899
2.050 4.138 0.702
2.239 4.141 0.801
2.147 4.232 1.044
2.181 4.299 1.446
2.442 4.332 3.614
2.640 4.390 3.723
2.552 4.424 4.032
2.576 4.381 4.239
2.664 4.285 4.489
2.530 4.456 4.809
2.699 4.351 5.080
2.283 4.027 0.411
2.265 3.964 0.556
2.292 4.036 0.835
2.240 4.060 1.199
2.305 4.026 1.297
2.353 4.209 1.621
2.669 4.174 3.503
2.729 4.217 3.711
2.771 4.224 4.091
2.807 4.102 4.363
2.804 4.311 4.453
2.836 4.279 4.713
2.469 3.806 0.488
2.438 3.756 0.763
2.516 3.853 0.825
2.623 3.853 1.197
2.511 3.861 1.311
2.615 3.922 1.682
2.777 3.734 1.955
2.805 3.982 3.534
2.922 3.940 3.827
2.870 4.023 3.920
2.958 4.030 4.252
2.877 3.932 4.414
2.922 4.092 4.700
2.534 3.543 0.496
2.586 3.605 0.703
2.698 3.682 0.931
2.648 3.790 1.069
2.662 3.751 1.490
2.735 3.673 1.676
2.705 3.839 1.944
2.947 3.529 1.814
3.011 3.694 3.710
3.163 3.871 4.046
2.994 3.730 4.244
3.170 3.773 4.561
2.675 3.407 0.354
2.832 3.477 0.676
2.760 3.539 0.821
2.954 3.644 1.059
2.830 3.645 1.462
2.931 3.689 1.648
2.824 3.679 1.771
3.164 3.464 1.979
3.174 3.434 2.125
2.883 3.356 0.367
3.020 3.324 0.794
2.967 3.322 1.035
3.082 3.467 1.153
2.957 3.401 1.330
3.144 3.472 1.546
2.991 3.358 1.996
3.289 3.231 1.980
3.254 3.263 2.169
3.047 3.078 0.543
3.214 3.031 0.666
3.073 3.222 0.968
3.196 3.113 1.172
3.233 3.187 1.351
3.121 3.324 1.617
3.109 3.181 1.895
0.204 6.199 0.240
0.531 6.193 0.013
0.584 6.105 0.161
0.594 6.199 0.380
0.870 5.932 0.200
0.752 5.952 0.420
1.245 6.067 4.576
1.251 6.300 5.021
1.237 6.119 5.200
1.456 6.297 5.400
1.305 6.238 5.698
0.917 5.641 0.009
1.103 5.720 0.461
1.399 5.932 4.619
1.391 5.999 4.923
1.594 5.934 5.083
1.419 6.056 5.507
1.495 6.043 5.537
1.099 5.617 0.018
1.588 5.764 4.405
1.527 5.711 4.590
1.732 5.861 4.944
1.571 5.778 5.143
1.610 5.812 5.512
1.643 5.885 5.700
1.407 5.300 0.200
1.759 5.490 4.213
1.706 5.513 4.387
1.741 5.756 4.612
1.877 5.555 4.876
1.746 5.586 5.219
1.965 5.607 5.460
1.931 5.703 5.672
1.956 5.328 3.760
1.849 5.305 4.086
1.930 5.479 4.116
1.897 5.396 4.411
1.958 5.413 4.732
2.021 5.596 4.886
2.052 5.486 5.287
2.133 5.423 5.450
1.998 5.600 5.584
2.099 5.162 3.601
2.032 5.168 3.624
2.135 5.148 3.878
2.153 5.284 4.324
2.019 5.270 4.506
2.093 5.250 4.668
2.142 5.387 5.014
2.257 5.367 5.069
2.149 5.432 5.466
2.268 5.086 3.400
2.175 5.103 3.777
2.142 4.944 4.066
2.303 5.015 4.302
2.256 5.116 4.372
2.241 5.142 4.693
2.430 5.156 5.034
2.219 5.094 5.165
2.283 4.855 3.377
2.284 4.896 3.414
2.432 4.767 3.667
2.397 4.928 3.876
2.536 4.953 4.232
2.531 4.952 4.463
2.535 4.906 4.614
2.495 4.846 4.929
2.387 4.975 5.244
2.634 4.621 3.189
2.527 4.699 3.417
2.444 4.613 3.801
2.593 4.709 3.923
2.637 4.772 4.143
2.516 4.660 4.482
2.588 4.824 4.605
2.619 4.834 5.046
2.672 4.447 3.324
2.716 4.442 3.468
2.669 4.578 3.791
2.711 4.405 4.100
2.868 4.568 4.201
2.811 4.470 4.409
2.820 4.464 4.807
2.465 4.209 0.556
2.614 4.230 0.918
2.420 4.135 1.081
2.517 4.232 1.378
2.801 4.367 3.502
2.824 4.306 3.782
2.950 4.231 3.938
2.954 4.433 4.221
2.980 4.487 4.391
2.952 4.438 4.784
2.536 4.048 0.412
2.614 4.080 0.712
2.597 4.038 0.892
2.623 4.140 1.162
2.691 4.030 1.333
2.649 4.194 1.710
3.019 4.244 3.694
3.158 4.202 4.025
3.026 4.102 4.265
3.188 4.311 4.546
2.837 3.809 0.154
2.783 3.860 0.503
2.794 3.843 0.550
2.950 3.863 0.808
2.957 3.866 1.079
2.922 3.843 1.405
2.860 3.928 1.698
3.179 3.750 1.868
2.871 3.608 0.126
3.071 3.650 0.433
2.959 3.617 0.576
2.955 3.592 0.787
2.981 3.653 1.243
3.126 3.743 1.337
3.086 3.756 1.583
3.185 3.856 1.803
3.246 3.534 1.854
3.290 3.620 2.135
3.064 3.444 0.252
3.125 3.553 0.363
3.060 3.466 0.619
3.147 3.399 0.924
3.275 3.636 1.123
3.233 3.568 1.401
3.220 3.648 1.675
3.344 3.502 1.958
3.450 3.348 1.844
3.380 3.387 2.093
3.210 3.212 0.371
3.404 3.375 0.660
3.409 3.253 0.842
3.409 3.339 1.123
3.255 3.380 1.465
3.442 3.454 1.721
3.403 3.409 1.949
0.491 6.386 0.068
0.812 6.197 0.051
0.754 6.271 0.217
0.993 6.030 0.128
0.998 6.044 0.374
1.099 5.861 -0.013
1.282 5.923 0.245
1.577 6.125 4.620
1.654 6.213 4.883
1.699 6.266 5.186
1.717 6.242 5.299
1.620 6.244 5.698
1.384 5.796 0.020
1.251 5.642 0.363
1.863 5.860 4.320
1.717 5.911 4.735
1.914 5.989 4.964
1.954 6.139 5.073
1.973 5.966 5.432
1.948 5.981 5.597
1.508 5.574 0.168
1.565 5.573 0.305
2.003 5.836 3.879
2.006 5.844 4.164
2.061 5.853 4.323
1.935 5.901 4.620
2.074 5.836 4.960
2.109 5.917 5.087
1.987 5.954 5.295
2.017 5.920 5.568
2.099 5.564 3.740
2.040 5.626 4.015
2.213 5.694 4.280
2.038 5.633 4.342
2.070 5.636 4.699
2.057 5.599 4.921
2.138 5.704 5.260
2.224 5.637 5.466
2.212 5.730 5.560
2.186 5.316 3.279
2.263 5.334 3.501
2.288 5.445 3.720
2.231 5.477 4.028
2.282 5.456 4.119
2.321 5.353 4.543
2.324 5.359 4.773
2.316 5.551 4.995
2.273 5.451 5.089
2.396 5.520 5.344
2.436 5.198 3.334
2.362 5.253 3.532
2.405 5.251 3.750
2.465 5.229 3.935
2.351 5.299 4.130
2.424 5.243 4.454
2.394 5.159 4.758
2.469 5.223 4.821
2.397 5.271 5.068
2.569 5.021 3.215
2.556 4.919 3.593
2.533 4.909 3.687
2.561 5.008 3.903
2.644 5.116 4.137
2.569 4.973 4.494
2.664 5.167 4.738
2.733 5.184 4.834
2.590 4.745 3.284
2.715 4.751 3.463
2.825 4.839 3.702
2.671 4.814 3.989
2.666 4.804 4.292
2.891 4.955 4.411
2.819 4.947 4.763
2.852 4.848 5.022
2.815 4.631 3.199
2.906 4.690 3.502
2.839 4.711 3.614
2.846 4.579 3.867
2.986 4.702 4.319
2.995 4.660 4.391
2.926 4.746 4.697
2.758 4.331 0.623
2.787 4.395 0.940
3.116 4.459 3.496
2.991 4.472 3.744
3.149 4.583 3.984
3.100 4.544 4.182
3.042 4.499 4.470
2.899 4.138 0.465
2.793 4.278 0.702
2.882 4.169 0.768
2.776 4.144 1.063
2.792 4.261 1.233
3.165 4.180 3.644
3.169 4.371 4.068
2.993 3.896 0.098
3.015 4.065 0.447
3.091 3.913 0.566
3.078 4.059 0.764
3.098 4.129 1.051
3.094 4.067 1.234
3.026 4.120 1.540
3.217 3.835 1.762
3.020 3.852 0.245
3.073 3.696 0.435
3.097 3.821 0.590
3.240 3.798 0.832
3.245 3.860 1.034
3.317 3.991 1.374
3.264 3.932 1.492
3.266 4.020 1.878
3.352 3.871 1.874
3.257 3.646 0.038
3.220 3.572 0.480
3.235 3.574 0.598
3.436 3.554 0.877
3.383 3.720 1.048
3.320 3.723 1.455
3.357 3.653 1.687
3.398 3.835 1.811
3.649 3.516 1.858
3.653 3.616 2.161
3.351 3.467 0.098
3.555 3.434 0.342
3.498 3.554 0.711
3.528 3.488 0.851
3.438 3.582 1.131
3.635 3.602 1.271
3.549 3.480 1.500
3.532 3.689 1.767
1.196 6.276 0.153
1.104 6.174 0.269
1.351 5.995 -0.035
1.246 6.040 0.306
1.262 6.079 0.550
1.416 5.886 0.114
1.416 5.899 0.195
1.506 5.848 0.537
1.979 6.215 4.279
1.971 6.096 4.683
2.042 6.181 4.952
2.016 6.211 5.050
2.136 6.132 5.347
2.025 6.287 5.547
1.582 5.718 0.173
1.631 5.796 0.261
1.739 5.663 0.456
2.187 5.836 3.944
2.093 6.019 4.150
2.055 5.913 4.399
2.128 5.871 4.543
2.104 5.899 4.878
2.254 6.063 5.189
2.314 6.125 5.322
2.146 6.045 5.518
1.819 5.459 0.032
2.290 5.657 3.436
2.235 5.658 3.643
2.213 5.790 3.923
2.312 5.810 4.206
2.312 5.793 4.285
2.323 5.886 4.526
2.452 5.837 4.806
2.342 5.869 5.154
2.303 5.770 5.362
2.286 5.849 5.597
2.322 5.484 3.062
2.277 5.394 3.310
2.294 5.400 3.350
2.460 5.480 3.788
2.469 5.491 3.852
2.465 5.646 4.056
2.476 5.537 4.339
2.491 5.668 4.542
2.598 5.728 4.970
2.489 5.560 5.090
2.435 5.602 5.447
2.579 5.198 2.925
2.444 5.202 3.313
2.506 5.284 3.434
2.581 5.318 3.758
2.545 5.313 3.992
2.552 5.342 4.105
2.566 5.301 4.333
2.622 5.347 4.704
2.735 5.429 4.795
2.725 5.394 5.133
2.764 5.161 2.955
2.751 5.153 3.280
2.746 5.161 3.488
2.766 5.218 3.663
2.684 5.259 3.891
2.804 5.179 4.071
2.800 5.268 4.510
2.707 5.186 4.554
2.724 5.204 4.869
2.911 4.981 2.881
2.936 4.854 3.240
2.985 5.038 3.391
2.881 5.085 3.800
2.838 5.012 4.019
2.950 5.138 4.130
3.001 5.089 4.476
3.044 5.085 4.673
2.998 4.703 3.140
2.971 4.745 3.432
3.105 4.769 3.696
3.009 4.775 4.018
3.017 4.931 4.083
3.226 4.812 4.402
3.153 4.569 3.405
3.223 4.543 3.681
3.350 4.650 4.031
3.182 4.751 4.130
2.955 4.325 0.316
3.026 4.451 0.553
3.107 4.420 0.761
2.975 4.377 1.001
3.186 4.145 0.063
3.250 4.249 0.254
3.199 4.234 0.503
3.155 4.182 0.752
3.312 4.134 0.961
3.314 4.322 1.397
3.402 3.876 0.023
3.234 3.992 0.294
3.339 3.910 0.649
3.377 3.988 0.919
3.281 3.993 1.049
3.346 4.162 1.393
3.320 4.135 1.466
3.580 3.923 1.704
3.469 3.706 0.014
3.584 3.711 0.370
3.459 3.838 0.548
3.467 3.754 0.927
3.448 3.810 0.970
3.442 3.871 1.293
3.645 3.902 1.561
3.539 3.853 1.719
3.737 3.825 1.805
3.841 3.771 2.083
3.582 3.631 0.148
3.642 3.552 0.264
3.729 3.596 0.705
3.724 3.673 0.845
3.755 3.639 1.172
3.632 3.785 1.331
3.687 3.706 1.647
3.792 3.816 1.914
1.619 6.207 0.078
1.414 6.364 0.363
1.455 6.223 0.540
1.588 6.075 0.145
1.804 6.155 0.185
1.702 6.022 0.594
1.757 6.036 0.718
1.694 6.212 1.029
1.865 5.795 0.039
1.828 6.013 0.189
1.896 5.868 0.476
1.883 5.994 0.679
1.861 5.909 0.976
2.245 5.976 3.929
2.274 5.993 4.196
2.374 6.183 4.372
2.249 6.017 4.514
2.359 6.169 4.901
2.462 6.234 5.004
2.429 6.141 5.399
2.500 6.283 5.606
2.083 5.672 0.067
2.067 5.817 0.281
2.078 5.650 0.486
2.262 5.782 2.968
2.439 5.752 3.079
2.430 5.878 3.348
2.447 5.885 3.574
2.429 5.919 3.990
2.373 5.998 4.101
2.502 6.017 4.353
2.462 5.889 4.660
2.543 6.060 4.847
2.573 5.954 4.975
2.612 6.069 5.432
2.582 6.117 5.627
2.464 5.685 2.539
2.605 5.619 2.596
2.550 5.592 3.031
2.629 5.564 3.269
2.669 5.755 3.299
2.480 5.600 3.592
2.632 5.597 3.908
2.665 5.670 4.065
2.735 5.864 4.398
2.621 5.889 4.686
2.732 5.703 4.924
2.773 5.906 5.073
2.584 5.285 2.380
2.618 5.317 2.710
2.694 5.354 2.839
2.765 5.415 3.261
2.670 5.521 3.460
2.706 5.537 3.686
2.736 5.475 3.815
2.904 5.446 4.188
2.901 5.549 4.329
2.773 5.538 4.600
2.895 5.717 4.950
2.771 5.192 2.754
2.880 5.239 3.005
2.863 5.234 3.133
3.002 5.383 3.503
2.944 5.241 3.681
2.933 5.463 3.912
3.040 5.293 4.166
2.903 5.491 4.345
2.958 5.346 4.666
2.977 5.000 2.596
3.051 5.048 2.885
3.107 5.054 3.282
3.061 5.049 3.529
3.009 5.122 3.684
3.134 5.230 3.936
3.089 5.104 4.082
3.038 5.283 4.445
3.142 4.920 3.032
3.320 4.982 3.109
3.321 4.853 3.349
3.312 4.966 3.610
3.297 4.930 3.918
3.291 5.065 4.118
3.482 4.752 3.228
3.471 4.865 3.382
3.410 4.797 3.625
3.071 4.418 0.121
3.193 4.430 0.288
3.141 4.537 0.657
3.253 4.280 0.126
3.255 4.216 0.283
3.237 4.397 0.492
3.480 4.304 0.894
3.481 4.289 0.996
3.478 4.183 0.128
3.609 4.095 0.440
3.620 4.076 0.618
3.513 4.176 0.730
3.466 4.210 1.124
3.527 4.185 1.284
3.738 3.942 0.067
3.711 4.023 0.400
3.657 4.053 0.576
3.622 4.012 0.875
3.774 4.037 1.127
3.635 4.114 1.327
3.678 4.085 1.534
3.817 3.890 1.797
4.299 4.335 5.502
3.809 3.671 0.158
3.853 3.691 0.312
3.850 3.731 0.637
3.774 3.748 0.873
3.972 3.842 1.081
3.785 3.933 1.280
3.801 3.979 1.579
4.033 3.817 1.698
1.878 6.143 0.076
1.963 6.271 0.300
1.840 6.370 0.502
2.058 6.010 -0.070
2.119 6.055 0.212
1.968 6.110 0.532
2.117 6.096 0.736
2.166 6.088 1.052
2.097 6.088 1.312
2.200 6.112 1.350
2.342 6.048 1.721
2.253 6.094 2.033
2.184 5.929 0.008
2.286 5.769 0.201
2.241 5.851 0.397
2.271 5.832 0.788
2.166 6.031 0.879
2.347 5.957 1.108
2.349 5.895 1.468
2.318 6.021 1.619
2.440 5.895 1.769
2.440 5.793 1.926
2.520 5.914 2.218
2.518 5.862 2.526
2.585 5.953 2.712
2.548 5.983 2.879
2.628 5.879 3.186
2.682 5.948 3.302
2.626 6.077 3.543
2.576 5.993 3.930
2.655 6.174 4.095
2.578 6.014 4.356
2.598 6.054 4.509
2.586 6.079 4.777
2.799 6.076 5.166
2.501 5.873 1.425
2.560 5.822 1.754
2.743 5.751 2.003
2.697 5.703 2.108
2.744 5.795 2.378
2.608 5.844 2.736
2.617 5.845 2.902
2.830 5.826 3.198
2.861 5.921 3.290
2.759 5.884 3.686
2.756 5.777 3.827
2.735 5.907 4.091
2.765 5.865 4.365
2.951 5.954 4.645
2.749 5.466 2.202
2.832 5.483 2.350
2.767 5.656 2.625
2.834 5.488 3.003
3.010 5.717 3.217
2.886 5.590 3.359
3.007 5.644 3.648
3.052 5.613 3.880
3.001 5.802 4.150
3.022 5.797 4.351
2.884 5.356 2.203
3.075 5.381 2.350
3.071 5.418 2.765
3.149 5.487 2.864
3.068 5.552 3.268
2.972 5.557 3.286
3.190 5.547 3.579
3.181 5.512 3.882
3.123 5.540 4.113
3.059 5.601 4.309
3.111 5.116 2.393
3.120 5.235 2.638
3.155 5.213 2.918
3.340 5.232 3.183
3.274 5.401 3.511
3.193 5.401 3.659
3.352 5.442 3.984
3.249 5.465 4.099
3.405 5.007 2.688
3.346 4.966 2.828
3.480 5.132 3.072
3.313 5.162 3.430
3.449 5.101 3.604
3.408 5.223 3.954
3.469 4.805 3.207
3.656 5.036 3.500
3.277 4.579 0.110
3.405 4.725 0.208
3.508 4.367 0.014
3.603 4.516 0.406
3.544 4.490 0.462
3.486 4.415 0.716
4.147 4.755 5.669
3.635 4.256 0.066
3.676 4.193 0.396
3.672 4.315 0.535
3.684 4.308 0.798
3.642 4.322 0.937
4.251 4.605 5.426
4.147 4.528 5.681
3.887 4.031 0.091
3.803 4.020 0.314
3.812 4.067 0.475
3.805 4.249 0.671
3.933 4.282 0.984
3.919 4.201 1.322
4.321 4.421 5.302
4.474 4.456 5.626
4.044 3.877 0.122
3.998 3.908 0.215
4.086 3.916 0.569
4.110 4.072 0.702
3.974 4.011 0.976
4.014 4.028 1.323
2.281 6.283 0.109
2.320 6.192 0.435
2.265 6.211 0.708
2.467 6.168 1.578
2.457 6.113 1.835
2.511 6.147 2.147
2.574 6.243 2.358
2.575 6.339 2.572
2.405 5.941 0.341
2.308 6.027 0.454
2.324 6.026 0.594
2.485 6.083 0.894
2.516 6.241 1.247
2.440 6.152 1.358
2.371 6.262 1.573
2.682 6.058 1.589
2.569 5.990 1.828
2.565 5.968 2.249
2.698 6.184 2.367
2.754 6.171 2.692
2.696 6.207 2.986
2.745 6.215 3.030
2.710 6.076 3.250
2.721 6.246 3.493
2.483 5.858 0.733
2.698 5.874 1.026
2.535 5.973 1.087
2.545 5.912 1.405
2.723 5.972 1.729
2.875 5.812 1.643
2.895 5.926 2.002
2.905 5.831 2.131
2.849 5.905 2.451
2.843 5.862 2.612
2.982 5.837 2.988
2.903 6.037 3.120
2.946 5.982 3.320
2.838 5.995 3.591
3.065 6.048 3.772
2.944 5.940 4.119
2.837 5.877 1.330
2.777 5.792 1.608
2.957 5.571 1.596
3.072 5.604 1.826
2.945 5.623 2.275
3.077 5.822 2.298
3.043 5.807 2.675
2.991 5.878 2.874
3.120 5.747 3.215
3.091 5.790 3.467
3.156 5.769 3.686
3.023 5.760 3.923
3.135 5.870 4.167
2.992 5.602 1.630
3.111 5.585 1.880
3.218 5.414 2.224
3.271 5.439 2.305
3.231 5.640 2.729
3.278 5.518 2.838
3.223 5.654 3.082
3.315 5.696 3.361
3.269 5.623 3.671
3.264 5.592 3.779
3.411 5.296 2.146
3.397 5.415 2.392
3.472 5.348 2.609
3.327 5.315 2.953
3.413 5.457 3.223
3.410 5.463 3.415
3.438 5.420 3.682
3.525 5.503 3.827
3.577 5.136 2.508
3.571 5.285 2.744
3.570 5.251 2.848
3.574 5.181 3.141
3.673 5.390 3.294
3.676 5.328 3.687
3.721 5.161 2.806
3.716 5.086 3.101
3.735 5.105 3.484
3.504 4.706 0.039
3.594 4.889 0.156
4.164 5.222 5.604
3.651 4.674 -0.042
3.664 4.700 0.152
3.600 4.750 0.395
4.178 5.024 5.228
4.191 4.879 5.537
3.891 4.332 -0.028
3.875 4.487 0.254
3.839 4.523 0.457
3.861 4.383 0.769
4.385 4.660 4.979
4.465 4.821 5.278
4.494 4.835 5.453
4.073 4.339 -0.078
3.954 4.270 0.333
3.981 4.251 0.514
4.120 4.300 0.812
4.475 4.577 4.826
4.569 4.492 5.109
4.489 4.668 5.323
4.670 4.605 5.513
4.212 4.086 0.145
4.235 4.068 0.219
4.099 4.071 0.563
4.133 4.144 0.875
4.250 4.199 1.010
2.563 6.248 0.153
2.499 6.198 0.480
2.476 6.248 0.663
2.588 6.339 0.902
2.845 6.273 1.667
2.917 6.291 1.799
2.932 6.189 2.160
2.899 6.326 2.371
2.978 6.157 2.641
2.983 6.334 2.945
2.671 6.004 0.762
2.825 6.049 0.960
2.791 6.011 1.254
2.711 6.172 1.444
2.886 6.127 1.702
3.047 5.986 1.600
2.947 6.103 1.896
2.999 5.980 2.082
3.049 6.071 2.440
3.144 6.022 2.660
3.002 6.089 2.803
3.032 6.053 3.005
3.169 6.053 3.280
3.149 6.217 3.576
2.883 5.953 1.241
2.916 6.005 1.374
3.049 5.965 1.665
3.261 5.805 1.673
3.091 5.736 1.965
3.092 5.943 2.085
3.131 5.987 2.382
3.253 5.840 2.688
3.230 6.004 2.806
3.147 6.040 3.187
3.307 5.954 3.419
3.184 5.935 3.687
3.175 5.876 1.496
3.095 5.901 1.697
3.293 5.563 1.763
3.278 5.557 1.871
3.389 5.734 2.109
3.394 5.609 2.285
3.483 5.668 2.731
3.446 5.751 2.849
3.501 5.751 3.115
3.340 5.792 3.233
3.488 5.703 3.663
3.296 5.714 1.733
3.497 5.432 1.950
3.502 5.389 2.238
3.603 5.456 2.367
3.457 5.564 2.559
3.531 5.547 2.956
3.487 5.566 3.000
3.561 5.505 3.339
3.698 5.610 3.567
3.577 5.379 2.044
3.656 5.391 2.316
3.614 5.398 2.609
3.650 5.370 2.955
3.732 5.465 3.066
3.822 5.396 3.384
3.893 5.226 2.310
3.768 5.181 2.539
3.837 5.146 2.892
3.929 5.261 3.108
4.010 5.520 5.469
4.303 5.161 5.165
4.218 5.376 5.574
3.774 4.786 0.242
4.456 4.966 5.075
4.357 5.009 5.289
4.374 5.185 5.434
3.922 4.587 0.010
3.960 4.598 0.173
4.058 4.549 0.530
4.471 4.898 4.805
4.477 4.800 5.119
4.547 4.817 5.200
4.534 4.865 5.481
4.179 4.334 -0.001
4.147 4.529 0.182
4.301 4.452 0.561
4.703 4.596 4.470
4.625 4.718 4.866
4.619 4.696 5.029
4.776 4.824 5.272
4.788 4.700 5.549
4.231 4.296 0.018
4.456 4.285 0.355
4.333 4.229 0.407
2.968 6.192 0.707
3.032 6.329 0.786
3.203 6.144 1.637
3.169 6.156 1.836
3.270 6.212 1.998
3.235 6.205 2.378
3.242 6.295 2.619
3.253 6.194 2.730
3.185 6.060 1.171
3.045 6.233 1.479
3.249 6.054 1.543
3.249 6.064 1.739
3.241 6.005 1.858
3.295 5.996 2.005
3.273 6.108 2.249
3.357 6.071 2.700
3.326 6.052 2.795
3.437 6.217 2.987
3.487 6.138 3.213
3.291 6.010 1.324
3.364 5.958 1.643
3.444 5.895 1.697
3.450 5.745 1.961
3.537 5.732 2.118
3.442 5.842 2.368
3.518 5.893 2.642
3.688 5.919 2.719
3.685 5.868 3.016
3.658 5.946 3.261
3.479 5.720 1.663
3.567 5.668 1.709
3.624 5.553 1.879
3.694 5.552 2.078
3.707 5.650 2.351
3.709 5.784 2.574
3.744 5.735 2.895
3.731 5.767 3.052
3.794 5.876 3.245
3.724 5.556 1.638
3.808 5.569 1.776
3.882 5.413 2.010
3.970 5.605 2.337
3.788 5.474 2.573
3.824 5.615 2.830
3.950 5.485 3.067
3.937 5.671 3.377
4.071 5.390 2.166
4.125 5.324 2.318
3.948 5.468 2.541
3.994 5.337 2.761
3.970 5.516 3.174
4.255 5.653 5.133
4.152 5.707 5.401
4.157 5.122 2.646
4.345 5.122 2.909
4.337 5.383 4.953
4.295 5.380 5.206
4.419 5.463 5.562
4.083 5.007 0.236
4.529 5.310 4.883
4.450 5.325 5.087
4.610 5.192 5.250
4.603 5.382 5.419
4.199 4.738 0.212
4.697 5.023 4.844
4.626 5.160 5.024
4.714 5.164 5.201
4.657 5.139 5.564
4.476 4.672 0.264
4.947 4.800 4.549
4.838 4.941 4.807
4.837 4.868 5.105
4.930 4.924 5.148
4.951 4.884 5.560
4.465 4.371 0.254
-0.048 1.347 6.211
0.173 1.067 5.444
0.244 1.181 5.762
0.225 1.241 5.903
0.171 1.291 6.179
0.283 0.992 5.256
0.172 0.898 5.594
0.395 1.070 5.822
0.387 1.072 5.907
0.442 1.083 6.299
0.422 0.765 5.328
0.445 0.787 5.582
0.354 0.888 5.772
0.454 0.921 6.015
0.418 0.816 6.303
0.086 0.350 0.250
0.099 0.296 0.383
0.042 0.296 0.693
-0.091 1.611 5.894
0.130 1.760 6.139
0.091 1.282 3.663
0.043 1.577 5.484
0.128 1.502 5.737
0.140 1.478 5.902
0.224 1.485 6.198
0.041 1.093 2.770
0.079 1.058 3.023
0.031 1.077 3.388
0.049 1.205 3.489
0.414 1.258 5.543
0.385 1.260 5.765
0.399 1.465 5.956
0.326 1.401 6.079
0.413 1.069 5.192
0.369 1.063 5.420
0.366 1.185 5.691
0.524 1.061 5.912
0.491 1.214 6.268
0.118 0.557 0.157
0.037 0.686 0.319
0.117 0.613 0.591
0.561 0.948 5.170
0.616 1.008 5.412
0.676 0.858 5.673
0.576 1.020 5.881
0.762 1.005 6.242
0.127 0.460 0.246
0.156 0.380 0.500
0.169 0.486 0.695
-0.083 1.940 5.558
-0.053 1.930 5.975
0.112 2.087 6.172
-0.013 1.533 3.596
-0.029 1.581 3.721
0.235 1.874 5.358
0.186 1.857 5.619
0.201 1.774 5.860
0.289 1.795 6.033
0.141 1.288 2.239
0.106 1.449 2.517
0.122 1.440 2.798
0.084 1.462 2.978
0.082 1.365 3.186
0.251 1.413 3.530
0.074 1.385 3.762
0.417 1.544 5.481
0.367 1.696 5.657
0.287 1.794 5.926
0.348 1.781 6.086
0.173 1.250 2.224
0.187 1.251 2.651
0.225 1.329 2.804
0.387 1.272 2.915
0.374 1.160 3.234
0.351 1.281 3.536
0.536 1.495 5.476
0.475 1.390 5.671
0.418 1.574 5.808
0.429 1.482 6.074
0.014 1.053 0.255
0.030 0.968 0.395
0.100 1.118 0.704
0.357 0.982 2.596
0.410 0.963 2.753
0.568 1.127 3.142
0.554 1.090 3.238
0.602 1.054 3.445
0.612 1.328 5.355
0.682 1.203 5.622
0.732 1.428 5.944
0.683 1.420 6.232
0.342 0.805 0.232
0.291 0.714 0.452
0.650 0.953 2.448
0.648 0.821 2.701
0.548 0.983 2.951
0.776 1.134 5.407
0.796 1.163 5.711
0.794 1.222 5.947
0.895 1.289 6.210
0.470 0.628 0.190
0.475 0.536 0.486
0.100 2.306 5.566
-0.079 2.476 5.841
0.039 2.336 6.013
0.034 1.883 3.268
-0.091 1.975 3.518
-0.009 1.927 3.808
0.184 2.217 5.354
0.120 2.202 5.635
0.198 2.315 5.796
0.148 2.226 6.049
0.067 1.721 2.252
0.067 1.633 2.601
0.098 1.640 2.726
0.140 1.854 3.083
0.058 1.685 3.129
0.126 1.834 3.378
0.092 1.784 3.622
0.381 2.074 5.390
0.285 2.048 5.669
0.465 2.118 5.970
0.426 2.040 6.194
0.020 1.668 2.179
0.235 1.523 2.214
0.258 1.638 2.510
0.213 1.556 2.796
0.239 1.673 2.987
0.274 1.664 3.339
0.244 1.720 3.425
0.290 1.555 3.620
0.418 1.880 5.371
0.425 1.781 5.585
0.418 1.832 5.938
0.507 1.942 6.139
0.109 1.249 0.151
0.047 1.322 0.438
0.182 1.351 0.680
0.256 1.588 2.239
0.430 1.322 2.169
0.516 1.248 2.467
0.571 1.454 2.858
0.361 1.442 3.083
0.444 1.466 3.190
0.450 1.460 3.546
0.498 1.376 3.645
0.732 1.568 5.659
0.762 1.659 5.967
0.613 1.737 6.085
0.358 1.106 0.082
0.352 1.181 0.339
0.522 1.281 2.265
0.504 1.126 2.318
0.509 1.127 2.618
0.593 1.171 2.866
0.640 1.305 3.109
0.622 1.133 3.343
0.674 1.226 3.395
0.725 1.573 5.558
0.811 1.455 5.819
0.892 1.497 6.213
0.372 0.896 0.020
0.364 0.927 0.314
0.624 1.211 2.359
0.854 1.000 2.234
0.817 0.900 2.414
0.815 1.063 2.804
0.795 1.098 2.915
0.827 1.096 3.358
0.923 1.127 3.532
0.907 1.242 5.539
1.009 1.332 5.975
1.004 1.308 6.200
0.740 0.982 2.251
-0.064 2.730 5.357
0.132 2.592 5.620
0.066 2.808 5.841
0.134 2.759 6.164
0.074 2.313 3.177
-0.077 2.206 3.439
0.258 2.461 5.433
0.267 2.539 5.654
0.269 2.463 5.803
0.124 2.469 6.040
0.012 2.005 2.586
0.056 2.151 2.797
0.145 2.129 2.948
0.094 2.216 3.120
