53.52082 39.674194 41.16581
52.50382 38.206196 39.945812
46.53982 48.403194 37.271812
47.94182 48.234196 35.56781
31.81882 49.688194 33.41381
31.048822 47.561195 32.875813
20.611822 44.354195 38.60781
20.156822 42.558197 37.556812
49.71882 46.118195 10.573811
49.42082 48.297195 11.125811
58.53482 50.359196 19.19481
58.81582 49.038197 20.84581
0.3778215 10.835196 38.78181
-1.3331784 12.490195 39.19781
6.1198215 19.041195 42.19781
8.164822 20.623196 41.126812
43.34882 47.472195 48.89481
44.08782 45.236195 48.487812
49.80982 37.948196 43.95481
50.96982 39.151196 45.06481
42.64882 35.525196 20.92481
40.59682 35.145195 20.09881
37.18482 23.241196 25.78281
37.483818 23.662195 27.98781
35.98282 60.307198 2.7618108
38.05382 60.157196 3.4108105
31.906822 57.134197 13.074811
32.080822 56.593197 15.332811
35.06782 101.26019 32.43381
34.21982 102.796196 31.37381
32.940823 2.7531967 37.083813
31.104822 3.9991913 36.30081
35.47482 85.633194 38.88581
35.75682 87.81419 40.22181
32.00582 95.06519 31.256811
30.643822 93.311195 32.423813
37.04382 71.7492 17.55981
35.75182 70.9612 19.033812
29.631823 62.047195 22.662811
28.85382 60.599197 21.433811
38.81682 47.266197 44.29281
41.14782 47.059196 44.80981
37.23182 34.480194 44.883812
39.25282 34.606194 45.77381
35.89182 28.977196 47.85181
35.97182 26.839195 46.87381
36.32482 16.930195 52.56581
36.81082 17.882196 55.17781
0.53582 75.0262 25.19681
65.67082 76.075195 23.25181
57.71382 71.16519 17.02281
57.76382 71.60619 14.791811
27.786821 67.27519 32.729813
28.290821 68.338196 30.20181
21.254822 65.16619 31.82381
21.618822 64.62519 34.26181
5.897822 97.35719 18.35581
3.5088215 98.811195 18.044811
-0.6781785 107.393196 23.756811
0.69282156 108.577194 22.24081
5.884822 41.271194 28.60381
3.5968215 42.387196 28.33081
-1.7151784 39.163197 18.08081
-4.2491784 38.919193 17.63781
10.513822 31.139196 19.19181
9.547822 31.230196 21.04581
10.257822 38.570194 25.92681
8.688822 40.593197 25.75481
18.682821 8.951196 52.80581
17.410822 7.9201956 54.08381
28.071821 6.9511957 55.31181
28.769821 8.837195 54.62481
42.15282 48.892197 55.36481
40.233818 49.808197 56.02381
48.03482 52.067196 7.3308105
46.93582 50.779198 8.949811
59.76782 31.999195 16.763811
57.50582 31.845196 16.395811
55.26082 25.012196 24.92081
55.24682 27.051195 24.586811
20.574821 82.9052 45.31681
21.819822 81.4572 43.80781
31.870821 85.60619 39.80281
33.54782 86.824196 41.09381
30.556822 42.228195 18.62581
32.29782 41.921196 19.44281
38.41582 36.881195 18.006811
40.29482 35.589195 17.697811
37.85582 98.67719 54.94781
38.08582 98.105194 52.22881
35.72182 92.88419 52.15181
35.47082 94.423195 53.93181
40.40982 2.8961945 10.48381
39.37782 4.7171936 9.776811
28.451822 7.2281947 15.299811
26.899822 5.951195 14.741811
60.69182 76.119194 55.02381
58.67282 75.38519 53.31181
49.29682 71.8732 52.03781
48.35382 73.9422 53.53681
8.592821 19.162195 35.49181
7.239822 17.689196 35.673813
12.892821 7.4461956 35.21381
14.983822 6.3861957 34.966812
2.8768213 108.74619 24.020811
0.5028229 109.6272 25.43981
63.72982 1.6551971 34.60081
64.110825 109.659195 36.68681
14.602821 54.707195 27.00181
12.578822 55.171196 27.44581
7.6698217 52.945194 35.97581
5.726822 52.940197 37.035812
36.44982 62.254196 45.76781
37.82682 60.412197 44.29981
40.05382 65.563194 37.03681
37.90782 65.562195 35.93481
26.998821 38.166195 38.833813
27.406822 37.936195 40.82281
25.201822 27.199196 42.612812
24.018822 25.953196 44.78481
33.55082 7.4371943 18.91381
34.93782 6.1501923 19.94881
40.50882 107.9342 18.096811
41.80282 106.852196 16.92181
-0.88117844 106.241196 0.41780853
1.1628215 107.409195 56.44181
4.4608216 7.1941905 6.0448074
5.8808217 9.083191 5.3678093
46.81482 85.35819 50.42381
45.57782 84.0302 50.63581
41.97082 79.006195 40.22681
42.05882 77.369194 41.61581
13.344822 52.586197 9.63281
11.800821 51.224197 10.684808
8.990822 47.557198 54.27981
6.260822 48.092197 54.75681
21.81882 45.594196 23.83481
22.552822 45.146194 26.20881
24.88482 36.808193 25.09781
26.475822 35.046196 24.211811
64.13082 40.979195 14.789811
62.40182 39.980194 15.19381
61.27382 49.117195 8.316811
59.56382 50.081196 7.9678106
41.77782 37.862194 21.99181
41.07082 40.384197 22.863811
30.388823 36.389194 29.68481
30.36082 38.769196 30.18481
35.84982 3.9601955 46.30081
37.06782 5.6401954 47.42281
40.25682 8.021195 37.188812
41.99182 6.3251953 37.237812
10.036821 54.934196 49.66381
8.911821 52.883198 49.19681
-0.7061785 60.428196 52.70881
-0.34217852 62.413197 53.84481
63.58882 39.406197 49.38681
65.02182 41.529198 49.60181
61.70982 50.354195 54.20881
61.38282 52.251198 53.97281
3.4508214 96.6982 14.947811
5.095822 97.8632 15.822811
12.497822 96.396194 9.999811
14.415822 95.39919 8.60181
37.63382 96.034195 8.131809
35.42282 95.30219 7.5218086
34.54282 89.2782 53.39381
33.504818 90.8352 52.45281
13.546822 44.953197 18.39281
14.097821 44.112198 16.35481
11.830822 39.343197 23.07081
11.049822 41.325195 24.63381
0.47182465 49.267197 23.38781
65.07682 48.178196 22.97381
58.70882 55.591194 16.87981
58.06682 52.668198 17.44581
27.408821 61.757195 44.99281
27.376822 59.396194 46.05981
25.961823 54.502197 42.90181
28.324821 54.354195 42.63981
24.52382 33.763195 29.24981
23.104822 32.445194 28.15581
13.436822 34.502193 33.340813
14.461822 33.665195 31.23581
41.56982 61.980194 27.36481
41.60282 59.933197 28.57581
38.10682 52.643196 36.521812
38.78382 54.939198 37.71181
38.75582 102.89919 31.82181
39.69282 104.798195 32.902813
44.13482 3.791191 34.730812
43.73982 2.169197 36.76281
40.00882 21.153196 25.41181
40.46282 23.124195 23.81781
47.86482 26.584196 26.39281
50.35782 27.077196 25.89381
0.95782155 104.716194 55.48381
2.8488216 103.548195 54.86181
4.392822 94.2262 52.33481
4.063822 92.4882 51.38481
16.995821 2.357193 37.64781
17.439821 4.024193 36.15581
24.864822 5.7121964 32.86681
25.717821 5.1271973 31.06881
37.43582 77.2222 8.336811
37.84382 79.03919 7.218807
43.38982 85.3372 1.4318085
44.90582 86.8652 0.22880936
50.71182 72.3622 21.475811
51.83582 74.60619 20.74881
41.62782 75.98319 22.75481
41.90082 76.035194 24.75981
13.827822 81.035194 3.795807
12.002822 79.744194 3.5068092
17.58982 69.26319 1.6198082
16.86082 68.59719 3.7968102
6.9418216 23.830196 22.29981
5.3158216 22.806196 24.17181
10.869822 23.321196 34.42181
9.806822 21.412195 34.88781
39.54182 34.148193 26.50781
39.07282 32.194195 27.98081
46.92382 24.878197 28.38981
48.77782 25.660196 29.770811
6.7818217 103.005196 27.97081
6.6238217 103.0532 30.03381
1.9668216 3.294197 28.26781
-0.22817844 3.8421936 27.65581
24.025822 58.832195 46.81281
21.850822 57.792194 46.71481
26.372822 56.757195 0.20780945
24.988821 57.070194 1.9988098
4.9558215 2.6891956 53.95281
6.8428216 3.1611953 52.16081
6.5788217 13.645196 47.79481
8.232821 14.135196 46.10981
22.795822 61.670197 22.51781
25.128822 61.936195 22.76281
27.70082 74.908195 25.54681
28.201822 75.4562 23.92581
36.46082 73.161194 37.263813
38.15182 72.2782 36.098812
30.599821 75.4482 28.42081
30.824821 78.035194 29.54081
11.081821 72.0962 36.52481
11.628821 74.4202 36.40581
1.2278216 72.64919 34.542812
1.0138215 69.99619 34.611813
51.93582 33.435196 25.43581
50.64182 31.684196 26.28781
53.608818 28.012196 13.555811
51.19782 28.262196 13.644811
43.91282 38.457195 42.91581
45.78682 37.747196 44.16881
52.17282 43.054195 43.84981
53.16282 44.796196 44.00081
40.74182 31.452196 3.2408109
41.83382 31.458197 5.468811
48.33782 29.406197 12.510811
48.84982 31.446196 12.980811
49.70982 27.412195 52.00681
51.30382 25.757196 52.89581
43.13882 27.801195 3.0118103
40.80582 27.188196 2.404808
25.359821 93.83019 31.87581
23.224821 94.758194 33.487812
24.367823 85.7082 30.15181
25.53782 84.063194 31.29781
37.86782 84.7092 19.322811
37.85282 83.9702 21.335812
46.59682 85.061195 14.569811
44.43682 85.20519 14.022811
30.027822 105.75919 16.14381
28.296822 106.5032 17.49081
18.927822 100.2942 16.44881
18.319822 99.630196 18.541811
41.85682 72.7212 39.409813
40.65982 70.66219 39.31581
45.83182 71.132195 44.82381
44.90582 71.629196 42.78981
16.88182 51.329197 26.90381
17.359821 49.504196 28.013811
9.854822 51.358196 36.10181
8.739821 49.772198 36.709812
61.82882 34.150196 55.59381
62.54382 34.705196 1.1258087
2.2018182 29.996197 6.35981
0.030822754 29.333197 7.97781
9.815822 49.810196 39.028812
8.073821 49.781197 40.83681
4.4078217 41.223194 47.05481
5.8688216 39.762196 47.55181
38.79482 14.993196 28.28681
38.89482 13.555196 26.51781
37.27582 21.457195 17.38981
35.58782 22.582195 16.213812
16.543821 6.699196 1.0958099
16.588821 4.780197 1.9508095
21.711823 3.0531921 2.3758087
23.613821 3.0531921 0.78380966
32.69282 29.537195 55.07081
33.95482 28.971195 0.55080795
30.746822 32.572193 9.628808
31.380821 31.782196 11.599809
53.22282 86.69019 26.659811
52.71982 87.62219 24.71081
56.55582 97.2792 30.33581
56.47782 99.2222 31.63581
39.43482 8.761192 49.78881
39.41482 6.850197 51.38681
30.788822 6.633194 55.80481
29.501822 5.9001923 0.9458084
31.143822 55.796196 31.98081
32.246822 53.531197 31.74181
41.82182 58.260197 24.34781
41.80482 57.344196 22.72281
26.312822 21.686195 21.15081
28.392822 20.600195 22.107811
29.299822 9.573195 17.43481
27.716822 8.568195 17.950811
0.25082153 92.032196 52.67281
1.8908216 93.8052 52.69581
5.536822 94.2072 4.5828094
5.339822 96.671196 6.1178093
41.82382 65.51019 21.32181
40.90482 67.58419 20.92781
34.01482 64.660194 29.03381
31.588821 66.1152 29.81081
21.525822 74.4852 55.38181
22.080822 76.46919 55.23381
14.993822 72.96919 53.16781
14.219822 72.6842 55.64581
28.461823 104.632195 3.8628082
30.343822 105.9022 3.2568092
25.979822 109.1662 52.126812
25.480822 1.7601929 51.38481
47.92682 100.0422 54.74281
50.07382 100.7262 53.61681
52.52382 90.7122 48.90081
54.75782 90.91219 48.49781
6.7448215 4.7101974 43.71981
8.699821 3.4851913 43.14481
1.5518216 1.1701965 34.94381
0.073821545 2.6011963 35.31181
37.70082 24.011196 15.816811
39.39182 25.176195 16.35481
37.52482 34.174194 17.026812
37.39082 34.162193 14.909811
30.73582 34.589195 12.3778105
30.304821 36.411194 12.183811
18.361822 32.353195 11.99081
18.236822 31.409197 14.041811
57.80682 52.400196 44.52281
57.76482 50.165195 43.77281
1.5578212 50.660194 39.72481
3.130819 50.171196 38.479813
14.478822 41.154198 8.347811
15.723822 39.834194 9.506811
22.953821 44.365196 15.200811
24.872822 45.687195 16.39281
56.36382 17.437195 17.46681
55.01682 17.498196 19.92881
59.97982 16.264196 26.96581
61.80582 18.150196 27.06881
27.119822 22.774195 32.08281
28.514822 21.154196 33.25481
34.09482 26.267197 43.80481
32.39082 27.178196 45.71081
5.509822 55.404198 8.827811
7.864822 55.423195 8.966811
7.4528217 65.84519 14.730811
9.484821 65.436195 15.481811
36.20082 98.19119 27.85981
36.26482 100.8042 28.42981
38.57582 105.71819 19.74881
39.05882 107.8892 20.25781
14.997822 24.634195 32.86381
15.887822 26.159197 31.53281
7.8148217 31.917196 31.99081
6.0408216 32.528194 30.00781
45.46282 21.542196 14.261811
47.54982 21.067196 13.638811
54.73082 22.765196 11.2528105
56.71582 22.350195 9.98381
35.33382 77.4562 9.90581
34.52182 75.95519 11.3448105
29.793821 70.7932 17.72781
30.673822 72.1132 20.12681
52.24182 14.782196 20.80681
52.84482 16.694195 21.18481
45.05782 20.618195 18.79581
43.15382 21.817196 19.64781
5.463822 44.939198 33.32981
3.6708214 44.838196 34.452812
-2.5131786 41.514194 33.54781
-2.7251785 42.955196 32.174812
38.10082 20.847195 43.34281
38.22382 18.624195 42.73381
37.41782 23.799196 38.70781
37.88082 23.659197 35.92181
19.72882 69.51019 2.8918076
20.09682 68.26319 4.494808
27.038822 61.877197 9.578809
26.869822 59.912197 9.092809
8.810822 66.757195 21.256811
11.434822 65.629196 20.72681
7.4528217 58.428196 15.341811
6.7958217 57.670197 17.041811
7.812822 62.407196 18.009811
5.285822 63.292194 17.50781
-2.1311786 66.51119 14.9698105
-4.1421785 66.52419 14.086811
31.05182 47.865196 26.26781
31.51682 47.337196 24.06281
35.38082 52.192196 16.130812
33.64282 54.447197 15.581811
21.367823 5.8291955 54.87881
23.390821 4.9881954 54.28981
23.363821 11.579196 44.52081
22.570822 12.632195 42.94981
27.738821 70.8352 0.58280945
29.810822 72.090195 1.0738068
32.46582 63.532196 7.47081
32.128822 61.001198 8.229809
17.526821 2.8901954 9.303811
18.092821 4.8471956 8.065811
20.786821 14.856195 15.672811
21.797821 16.810196 14.251811
38.41782 20.817196 55.64681
39.36882 18.578196 56.00381
35.02282 19.574196 9.817811
36.25882 17.911196 11.460809
57.95282 45.278194 22.31381
57.33282 46.866196 24.25881
65.790825 42.377197 30.47981
1.4758204 44.146194 30.51081
25.909822 56.136196 32.58581
27.875822 56.414196 31.51281
28.816822 57.193195 43.15181
29.733822 59.432198 44.251812
45.36482 67.42919 29.37281
44.55382 65.480194 30.03281
53.45182 65.825195 38.361813
52.36482 64.008194 39.73281
56.94482 58.981197 34.03981
57.25282 57.201195 35.409813
58.66282 50.029198 33.33081
59.03282 49.006195 31.28581
49.90282 36.203194 6.979809
50.95282 37.624195 5.56081
47.52682 40.231197 52.03881
47.96182 42.316196 51.34081
63.52782 19.868195 25.35281
65.164825 18.666195 25.67781
61.74182 25.657196 26.541811
62.18882 27.465197 26.41581
38.81982 87.2212 23.666811
36.85782 86.3182 21.98981
30.785822 93.59419 16.07781
32.57782 92.35819 14.342811
1.2508216 107.6672 53.47081
3.0258214 106.034195 53.19381
2.6808214 100.7092 44.49281
4.076822 99.604195 43.39181
27.498821 75.048195 34.83981
27.057821 73.379196 36.78181
27.014822 83.602196 34.18581
29.084822 84.7652 33.605812
2.4988153 46.856197 27.586811
0.7078247 45.933197 26.59081
61.07782 42.949196 19.50481
60.06282 44.179195 20.874811
42.47782 101.27319 43.07781
41.37382 101.3222 44.60281
38.49682 109.10819 47.44581
38.46282 0.22719574 44.78481
16.19482 52.877197 36.29681
14.827822 54.044197 34.660812
16.401821 56.312195 42.11681
15.827822 57.045197 43.68281
58.26282 105.30219 35.52281
59.372818 105.45319 37.17681
1.4268168 100.7352 31.61681
0.18981934 98.90019 30.91781
53.27882 59.508198 55.87881
55.09682 58.901196 54.79581
59.15682 49.634197 54.99781
59.40882 47.627197 56.27681
18.381823 79.4842 41.32281
17.497822 81.0292 42.68081
11.222821 80.411194 52.46481
10.832822 82.5732 51.21181
13.212822 27.472197 0.33781052
12.772821 25.612196 1.6458092
7.8868217 25.789196 6.4668083
9.336822 26.043196 4.7698097
48.41082 69.23119 54.17481
48.02582 68.8502 52.21281
59.58782 62.308197 48.89181
61.16382 63.624195 48.27281
19.580822 107.3212 37.48181
19.690823 106.5992 34.84281
24.633821 97.27519 33.14881
26.559822 97.19119 32.140812
22.132822 1.3811951 50.36081
20.098822 1.5251923 49.96781
19.411821 9.364197 41.66781
17.691822 9.618195 40.13581
55.90182 101.575195 29.00781
57.38282 100.1152 29.23181
62.75082 100.06619 18.34081
60.78482 98.200195 17.51881
1.1448215 71.632195 45.30081
3.6188214 72.144196 45.71581
9.919822 68.021194 55.38981
8.068822 66.62019 56.33981
3.6458216 2.1271973 21.42881
4.754822 1.6181946 19.42781
5.844822 100.1422 16.686811
7.9888215 98.8912 17.45581
58.64182 17.041195 42.47081
58.85982 15.130196 41.46781
48.61882 10.937196 40.83081
48.54382 9.336196 39.16281
33.68482 101.869194 16.484812
31.972822 102.866196 15.81881
28.257822 98.0272 23.905811
27.573822 99.227196 26.027811
19.695822 109.380196 21.62981
20.310822 1.9871902 22.18881
16.783821 4.9601974 33.32481
18.658821 4.4041977 33.45681
54.37682 80.58019 39.26181
54.19482 79.0132 40.91581
65.180824 77.0532 46.03981
0.51982117 79.2362 45.75381
28.600822 8.510196 23.24681
29.808823 10.133196 23.95581
22.175821 10.712195 17.919811
22.782822 9.203196 18.71381
65.748825 63.872196 48.23381
64.748825 65.1682 46.86781
64.19782 76.949196 48.84181
61.98882 77.575195 49.48881
0.17881775 83.008194 45.89581
0.11981964 82.1682 43.77781
57.53482 82.92519 41.994812
56.32082 83.0432 44.06881
7.734822 104.7812 7.828808
5.8248215 103.9472 7.107807
14.680821 102.0692 6.6958084
16.045822 101.1672 4.6488075
35.94382 85.6682 42.96781
36.04882 84.27419 41.03881
46.48782 79.4482 39.27281
47.19082 78.493195 37.26181
0.6498184 100.7792 11.522811
0.39382172 98.143196 11.895811
2.0958154 88.2102 10.58281
0.8808212 88.1682 12.304811
18.334822 97.6822 15.566811
19.345821 95.4992 16.46281
27.86082 89.4452 15.140811
27.797821 87.797195 15.896811
37.34982 60.956196 51.99381
35.09482 60.767197 52.30781
26.731821 58.957195 55.21481
26.394821 60.487198 53.56281
44.21182 29.994196 1.7168083
44.09382 30.332195 55.94181
47.38582 34.997196 52.41881
47.10582 37.396194 51.39381
14.923821 1.4911957 9.404811
15.300821 109.5852 7.5478106
15.426822 99.659195 10.1538105
17.057821 100.8072 7.9728107
46.04382 65.285194 13.8778105
45.77382 63.883198 15.246811
45.89782 61.922195 24.83981
44.34582 62.575195 26.711811
18.097822 41.285194 36.284813
17.675821 41.085197 38.39481
15.473822 29.119196 41.89481
15.646822 29.925196 43.74181
17.880821 96.1252 48.88481
18.879822 98.5952 49.21181
24.685822 92.8882 52.96381
25.506823 92.4702 55.46481
28.539822 94.8082 31.43581
27.686821 92.9572 30.84581
37.47282 89.546196 26.51481
39.29882 90.6122 24.92081
42.86982 71.6952 44.81881
41.16782 71.146194 43.55181
34.66582 71.657196 50.91681
36.70582 71.8472 51.63681
1.8088206 41.185196 46.57881
0.73882294 42.138195 44.97881
62.53582 51.549194 47.75481
60.69182 51.530197 48.36181
59.261818 97.310196 56.00281
57.77182 98.81419 55.66881
53.35982 89.6142 5.50581
53.62682 88.004196 3.9848099
2.8258216 56.400196 15.329811
4.5738215 55.024197 16.63281
11.546822 55.232197 21.523811
10.551822 56.761196 20.673811
6.8818216 107.9032 49.99381
9.243822 108.6672 50.92381
11.516822 105.1972 54.44481
12.9098215 104.1812 53.05681
61.06282 40.311195 47.26181
58.97882 39.732197 45.93581
54.15982 48.705196 45.74581
54.42082 46.982197 43.46581
4.283819 105.2782 40.99781
2.0348184 105.2642 41.85481
60.26082 3.8351974 41.48881
61.03382 5.373192 41.08681
38.60282 60.010197 16.03981
37.05882 60.655197 17.669811
28.573822 59.305195 11.10181
28.769821 57.611195 12.466811
55.61182 45.420197 5.771811
54.66782 45.591194 8.484811
61.37682 53.724197 9.831811
62.63382 53.245197 11.662811
25.627821 71.9342 33.86481
23.71482 72.230194 34.903812
15.890821 70.922195 27.88481
14.763822 71.8762 25.81681
31.442822 28.520197 14.692811
31.688822 30.130196 15.770811
39.99582 33.450195 15.591811
41.33682 34.038197 13.905811
4.188822 30.841196 31.33781
5.4408216 31.595196 33.01781
10.685822 29.898195 42.89481
8.532822 30.525196 43.58381
55.94882 5.6241956 10.731811
54.30082 5.6961956 11.709811
56.72082 15.951196 15.1278105
58.33182 15.250196 13.718811
42.72882 108.4172 19.85881
43.76082 106.701195 18.74181
47.80882 108.841194 28.02381
49.07182 108.21719 29.95781
9.675821 29.616196 8.416811
7.523822 28.186195 8.529811
8.527822 24.982197 20.277811
8.237822 26.742195 21.92881
26.159822 82.0562 15.357811
25.198822 84.008194 16.43781
21.503822 87.7402 6.7298107
18.910822 87.40019 6.7228107
44.13082 48.440197 16.94181
44.80982 48.532196 19.530811
55.69182 54.108196 18.249811
56.21682 52.463196 19.94581
22.470821 30.245195 9.021811
23.552822 31.061195 7.4408107
26.196821 41.008198 9.60181
28.078821 41.350197 10.981811
34.36682 51.959194 48.73381
33.20782 50.175198 50.34481
35.74882 48.807198 5.42181
37.77182 48.693195 6.48481
61.07282 77.1152 26.75381
62.87182 78.5962 26.072811
65.497826 78.715195 24.13281
1.4248179 77.59419 24.47781
23.83282 16.224195 53.59181
24.007822 14.620195 51.68781
29.479822 4.7861958 51.76481
27.136822 5.1821957 53.43081
13.406821 54.898197 55.10781
11.690822 56.074196 0.19880676
12.531821 66.42619 51.14281
13.808822 68.2102 50.82781
59.13382 76.4712 28.97881
58.46182 76.35819 26.72281
55.06282 77.047195 16.321812
53.03482 76.39919 16.832811
-0.31717843 60.982197 46.90281
1.2858216 61.788197 48.82781
11.418821 62.705196 42.25981
13.575822 63.681194 44.01481
29.911821 58.053196 20.350811
28.192822 57.755196 21.57481
21.446821 48.256195 22.416811
21.394821 46.668198 20.00381
4.7618217 86.3322 2.9108086
6.569822 86.19119 2.416809
1.0978215 86.0002 5.0798073
-1.2551783 86.492195 4.7628098
15.408822 2.6131973 34.98181
14.503821 2.9271927 33.37381
9.4758215 103.533195 28.01881
9.096822 101.5572 29.41881
0.6338196 90.5812 33.54681
65.79582 92.73219 33.313812
1.1358165 95.769196 44.79281
3.896818 97.3172 44.82581
63.004818 26.551195 35.027813
61.80582 24.742195 34.333813
60.66182 15.911196 34.944813
60.18582 13.915195 33.74781
48.96382 65.0172 44.42481
48.20382 63.313194 43.75981
53.379818 60.595196 34.764812
54.66782 59.171196 36.23981
58.08882 7.5301957 53.20681
56.59582 8.094195 50.99881
49.83482 15.286196 0.54480743
49.55582 16.133196 2.149807
45.74482 75.7622 55.32681
44.81082 77.9312 56.06081
33.30582 75.15019 5.364807
34.20682 77.2922 6.251808
28.982822 19.480196 28.01581
28.23582 21.429195 28.61181
23.283821 16.162195 33.94381
23.692822 15.584196 35.90781
49.66282 64.94319 1.4988098
50.93582 66.56919 0.62880707
57.62182 69.521194 51.133812
59.04982 70.6822 49.38781
4.5688214 92.92519 40.85881
7.1498218 92.0832 40.50481
2.5428214 82.5672 47.02481
4.3358216 81.2762 45.46581
44.81082 80.0002 53.91881
45.03482 81.16219 51.67981
37.67982 74.661194 51.26081
37.63482 73.8472 54.01181
18.29482 3.1531906 19.478811
17.336823 4.810196 20.42481
7.6778216 1.1341934 14.781811
8.5018215 108.853195 15.309811
11.057821 39.211197 12.724811
9.984821 39.187195 10.380811
1.5598216 30.099195 10.144811
0.47282153 31.584196 10.87281
12.549822 42.596195 37.29781
14.527822 42.082195 35.53881
22.779821 47.908195 29.85581
24.338821 46.611195 29.36281
23.482822 77.074196 40.31681
23.25982 78.977196 41.53281
17.922821 85.03919 34.17781
16.12482 83.4562 35.37881
65.92583 70.535194 37.07381
63.78382 71.2942 36.41881
60.65482 82.811195 38.92781
58.34282 82.4042 39.187813
8.371821 45.736195 47.848812
10.021822 46.462196 46.98581
9.9168215 42.828197 36.89281
8.061822 42.737198 36.751812
54.45582 38.192196 44.65981
54.67882 37.563194 42.26681
57.85982 28.473196 42.22681
58.18382 30.962196 41.75681
54.85482 7.971191 10.448808
51.95882 7.8551936 10.856809
48.02982 2.7781906 2.826809
47.46182 1.8121948 1.2398071
16.038822 46.021194 54.80081
16.299822 47.609196 53.09481
7.458822 52.848194 0.10780716
8.866821 54.785194 55.723812
59.59282 59.415195 23.38581
60.51682 61.433197 23.63781
53.71982 63.924194 22.77481
54.02082 66.19319 23.75581
65.080826 4.2831955 19.707811
64.04882 4.1341934 17.471811
65.28582 9.515198 10.197811
65.68782 10.941193 11.506811
-0.28617853 55.383198 14.188811
-0.11017853 53.421196 15.694811
3.1928215 60.351196 24.35181
5.016822 60.485195 24.80481
36.10682 8.493196 19.60281
37.51482 6.8161955 20.17181
33.83182 8.264195 29.52381
32.73582 8.285195 27.76981
8.080821 90.27419 27.90081
9.488822 91.8232 29.06481
9.690822 102.5132 24.03681
11.711822 102.992195 25.12081
22.361822 81.5962 20.01281
22.560822 81.411194 22.22981
12.495822 75.9332 26.19381
10.935822 76.5402 24.56781
9.028822 3.4731903 5.9548073
9.703822 2.345192 7.7088127
3.3138216 105.7402 0.5118103
5.1078215 104.21719 55.96981
35.29982 107.9282 25.69381
33.29682 109.66219 26.11381
26.344822 109.369194 32.695812
26.135822 109.686195 34.85681
46.41982 14.359196 12.616811
45.865818 12.1911955 12.41081
45.45682 2.4881954 15.414811
45.72482 1.3751955 13.188811
13.733822 45.103195 54.05481
14.586822 45.705196 52.25581
12.7518215 35.392197 44.97181
13.802822 34.841194 43.22881
4.9488215 91.159195 5.516811
6.5398216 92.4882 7.300811
3.3828216 84.9032 13.926811
3.9298215 85.895195 15.918811
-1.0291784 7.4851956 22.08881
-1.1451784 7.3811955 24.83881
7.7958217 9.098196 19.47081
6.5578218 7.3261957 18.22381
16.802822 66.79219 32.03381
18.51682 67.87519 32.43981
15.002822 77.036194 36.80981
14.436822 74.161194 37.08581
59.990818 44.386196 31.68481
57.76582 43.083195 32.632812
62.17982 40.043198 43.61381
59.90282 40.664196 43.51381
26.045822 107.65019 5.1518106
24.447823 107.4842 7.1388106
30.231821 101.9292 13.948811
31.777822 100.673195 13.054811
29.130821 11.442196 31.28281
29.487822 13.702196 31.93281
23.540821 18.494196 23.44981
24.014822 16.832195 21.065811
41.01382 108.51119 42.90481
39.39282 107.1122 44.06081
39.35982 101.85619 34.409813
41.68182 103.383194 34.70581
28.122822 93.631195 17.36981
28.281822 92.07819 15.062811
23.093822 90.64919 9.158811
22.598822 90.730194 6.9818106
46.81882 10.970196 37.305813
48.40282 11.955195 36.042812
41.58482 19.047195 42.72781
40.06382 18.175196 41.10781
33.129818 36.679195 12.953809
33.36682 37.210194 10.774808
33.94282 42.663197 5.270809
32.48582 42.753197 3.6768074
33.83682 7.9581904 34.79081
33.12182 7.1201935 36.70381
41.70482 0.9421921 39.11381
44.10382 0.95119476 39.24981
20.931822 41.449196 8.423811
19.324821 42.514194 9.716811
17.129822 52.194195 12.479811
16.022821 51.696198 15.076811
45.47982 22.009195 38.45781
44.78282 22.460196 36.382812
41.86482 11.368196 35.50581
43.17982 10.495195 36.89781
3.1128216 24.286196 22.20681
2.8708215 26.240196 21.46981
3.4858215 25.007196 9.573811
4.2528214 26.517197 8.354811
26.758821 82.83019 56.28681
26.712822 81.4332 54.24881
36.004818 82.77419 4.0998077
38.05082 82.436195 5.5358086
22.199821 57.544197 23.85281
21.726822 59.024197 21.50081
30.437822 57.986195 17.38381
29.734821 59.950195 17.62981
5.5958157 12.457195 17.832811
5.4798183 11.893196 15.945811
59.34182 12.723196 17.88681
58.14082 14.877195 17.39681
58.87882 14.9081955 31.513811
60.87482 14.587195 31.09181
0.91082 5.8731956 26.42881
3.243818 5.7101955 25.843811
2.9898202 33.374195 5.217808
2.3328226 34.849194 3.8938103
57.851818 38.382195 6.809807
55.92882 38.040195 5.68581
26.035822 82.8632 24.57581
25.107822 84.659195 25.30481
26.28082 96.1832 22.832811
23.97182 96.366196 23.01281
33.73682 105.1782 15.325811
35.34682 106.605194 14.974811
44.45182 109.7952 6.9398108
45.82982 1.0091934 8.275811
29.131823 30.815195 47.21681
29.986822 32.648193 48.33681
22.973822 36.659195 55.82581
23.202822 38.852196 0.57880783
-2.7751784 13.180196 20.92081
-1.2311784 12.946196 22.134811
3.0998216 4.2271957 18.447811
5.162822 3.5181954 17.41481
14.940822 56.184196 22.13781
13.542822 56.149197 20.25181
18.914822 56.345196 11.18181
19.886822 54.699196 10.06381
11.120822 67.84219 22.91481
9.144822 66.94319 23.749811
5.3038216 67.69219 32.612812
2.6668215 66.8072 33.64181
50.72382 63.618195 54.43481
50.85982 62.711197 0.11380768
47.23682 55.884197 49.62781
46.73182 54.786198 48.21481
7.1388216 75.185196 19.860811
6.1178217 76.9902 19.89681
16.335821 80.1982 19.49181
15.477821 81.032196 17.27881
21.08282 51.618195 14.079811
23.752821 52.202194 13.679811
23.612822 55.287197 5.514811
25.120821 55.425198 4.2858105
8.682821 53.171196 2.7338104
10.444821 54.838196 2.5088081
22.402822 49.834194 2.93581
23.695822 51.321198 1.7128105
59.61382 16.614195 37.39881
60.59382 14.983195 37.97081
64.303825 25.748196 37.396812
62.41182 27.099195 38.74881
18.757822 34.060196 27.81281
18.420822 31.921196 26.73081
9.214822 34.889194 19.103811
7.963822 33.362194 20.19881
63.56082 97.881195 43.89281
62.41382 97.09219 46.12981
54.60282 102.5262 53.16981
53.27282 100.7642 53.55481
37.49982 27.866196 2.2758102
36.879818 27.555197 0.2448082
30.802822 31.850197 51.15781
29.836823 29.951197 50.79881
7.272822 91.393196 37.29681
8.886822 90.0022 35.41281
13.503821 82.2632 33.34981
15.495822 81.1542 33.50381
42.78182 98.147194 47.487812
41.04082 96.7262 47.68081
29.976822 96.355194 45.62581
30.330822 95.8462 48.08981
40.30582 33.664196 49.70281
40.93182 32.428196 47.87281
45.72282 20.711195 47.45281
44.45482 19.505196 46.33081
26.047821 24.001196 43.15881
26.51682 21.847195 43.66181
24.257822 23.510197 38.84281
21.702822 23.859196 38.792812
2.7518215 96.9752 11.810811
2.7508216 97.7382 10.019811
13.045822 98.8062 5.265808
14.663822 99.393196 7.2008095
61.865818 17.094196 29.29781
60.12182 17.080196 30.14981
55.09382 19.003195 40.063812
55.81882 20.854195 41.46281
9.3178215 55.759197 6.1438103
8.144821 55.975197 3.8638077
3.3798215 67.3512 7.1298103
1.9088216 68.046196 9.050809
40.94082 33.929195 34.598812
41.18982 33.643196 32.28781
48.78782 33.353195 25.05381
47.80282 34.508194 24.00381
5.6838217 66.869194 8.654809
5.9218216 68.520195 10.245809
3.5248215 79.910194 6.312809
1.6828215 80.21919 7.701809
28.295822 79.85719 15.354811
26.446821 79.27519 14.754811
25.826822 77.66319 23.843811
24.990822 78.7912 25.79481
35.58082 87.8082 49.25281
34.05882 88.01119 47.83081
38.858818 93.450195 42.93081
39.95682 94.866196 41.16681
-1.6751784 21.651196 8.4628105
0.41382152 23.005196 8.942811
3.0568213 16.801195 19.582811
1.3158215 15.775196 19.127811
51.08482 6.2591934 25.45581
50.77782 8.353195 24.461811
44.80982 0.58719635 21.79981
46.04782 108.41319 20.36981
58.37682 99.6542 17.78881
57.37682 98.05219 18.49681
55.59882 106.2782 22.100811
54.96682 106.28819 25.06481
3.0598214 52.872196 38.67981
2.7098215 52.364197 36.06581
3.2168214 62.650196 31.13681
2.0338216 62.402195 29.51581
30.770823 19.764196 7.25581
33.07482 19.364195 7.94981
30.245821 13.493196 0.83880997
30.804821 12.6911955 2.8618088
26.550821 30.685196 3.9668083
26.366821 29.084196 5.2028084
27.920822 16.907196 6.416809
29.771822 16.664196 4.97081
46.34382 9.4411955 11.02381
48.122818 7.3121953 12.130811
51.71182 12.062196 21.96281
53.48082 12.391195 20.81681
13.790822 37.911194 9.008809
15.530822 36.679195 7.7598076
19.81882 31.571196 0.6308098
19.238821 33.635197 0.23880768
55.018818 81.28919 1.5548096
53.91382 82.2662 0.051807404
59.45482 90.1942 50.60481
58.20482 89.7672 48.18581
42.90882 73.907196 12.393811
40.35082 74.35619 12.188809
45.42982 70.979195 1.7028084
45.45482 69.341194 0.9508095
32.80082 97.617195 19.47281
31.194822 96.838196 18.19681
29.316822 87.923195 18.02881
31.518822 87.852196 18.027811
44.05282 53.718197 42.66781
44.80882 51.920197 42.36781
55.69682 53.663197 45.22081
53.97782 55.646194 44.69081
31.711823 78.2762 32.53181
30.232822 79.465195 32.14981
30.271822 88.42519 34.604813
31.899822 89.9482 35.34381
41.21782 97.5022 22.540812
41.79082 95.28819 22.409811
30.739822 98.0702 24.565811
28.720821 96.812195 26.34481
58.29582 88.272194 5.2048106
56.14982 87.797195 5.752811
56.65782 91.950195 15.850811
55.36382 93.01019 17.59581
9.196822 76.6672 11.933811
8.745821 78.796196 10.264811
8.660822 85.977196 18.26481
6.2638216 86.9302 18.05381
13.582822 37.352196 32.16981
14.921822 36.214195 30.57681
21.719822 39.429195 36.21881
22.33982 41.171196 37.723812
2.8398187 56.264194 46.89981
1.3068217 57.380196 45.43481
62.97982 63.056194 45.33681
60.74682 63.379196 44.02581
30.069822 9.551193 26.81081
29.463821 7.6261973 26.68181
22.065823 6.423195 19.70881
21.008821 8.104195 20.502811
30.289822 11.449196 34.05481
31.000822 12.098196 36.16981
26.44382 7.0771956 46.62781
25.83282 5.4681954 44.75781
5.7698216 102.7532 40.56981
3.6888216 102.9282 39.95581
6.265822 92.07919 34.55381
5.845822 92.9452 32.444813
50.58082 94.1922 25.62281
48.72782 95.7932 24.98781
49.93182 105.7912 18.238811
48.20482 106.508194 19.05981
65.98183 96.590195 15.4368105
0.12081909 95.4482 13.667811
60.87482 90.602196 6.280811
62.54782 91.852196 5.613811
8.414822 5.204193 7.997811
6.765822 6.0571976 8.083811
6.6328216 106.591194 9.480811
5.931822 105.187195 11.456811
25.35382 31.943195 31.73781
26.52382 33.516193 32.72181
34.18782 26.428196 34.77481
36.56182 26.867195 34.54681
49.92982 99.018196 39.62481
47.68982 98.82819 38.42281
51.04482 100.4752 28.50181
51.47882 99.1842 26.65381
27.772821 79.7672 10.939809
26.317822 81.45419 11.272809
32.99282 82.9562 4.090809
33.59882 83.9442 1.9128075
62.81082 88.5282 32.84581
65.14282 87.03919 33.257812
59.92782 88.1532 23.322811
58.68282 86.3072 22.81281
35.85582 99.9892 7.2148094
35.35982 98.51119 5.6518097
45.12882 100.21719 54.72581
46.02582 102.2372 53.51981
37.51282 7.2521954 2.8728104
38.50182 9.154196 3.890808
31.680822 16.835196 7.1488075
29.829823 17.362196 8.347813
9.326821 101.2762 40.473812
8.706821 102.923195 41.30381
15.4758215 108.2112 37.14481
17.122822 108.9442 38.666813
64.61882 11.465196 35.38581
0.30882263 11.627195 34.11581
63.63582 16.751196 24.36981
63.21982 15.493196 23.054811
63.27982 34.750195 31.72381
65.123825 33.469196 30.13481
61.78982 41.668198 22.24781
59.81682 40.414196 20.96381
42.52682 6.4201956 53.85781
40.71982 7.1581955 53.62281
31.109821 9.291196 56.02081
29.732822 10.497195 0.94680786
55.49682 2.2691956 41.00981
54.20182 0.44219208 40.94081
44.22082 108.3062 39.42581
42.33882 107.5412 39.465813
21.284822 84.0442 22.43481
22.838821 83.5582 23.88781
17.219822 88.23219 20.53881
16.692822 86.39819 19.27581
40.56382 79.44119 9.914811
41.52682 76.9592 9.2668085
47.46882 78.5712 0.5498085
48.70382 80.55219 56.21481
44.59082 19.433195 26.58981
43.09682 18.867195 28.85281
40.89082 19.597195 37.88481
39.02782 19.792196 39.291813
18.303822 49.330196 18.919811
17.458822 50.030197 16.71981
29.999823 52.091194 18.17181
30.78782 50.012196 17.87281
42.20982 99.3312 40.354813
40.72582 99.0282 41.22281
29.26682 100.4302 39.729813
29.310822 98.03719 38.694813
63.35682 50.396194 9.219811
62.24882 52.099197 7.9808083
60.95782 57.021194 56.140812
60.71382 55.443195 54.67481
59.14282 3.7871954 5.272808
59.41682 5.147196 7.2388077
57.79682 15.636196 7.97781
57.10682 18.028196 8.850808
14.194821 88.312195 19.68881
12.237822 86.7932 20.86681
13.132822 81.07819 30.90081
11.417822 82.534195 31.16481
20.462822 91.27319 50.85981
18.678822 89.7262 51.24881
24.314821 80.270195 54.23581
24.203821 77.78819 53.48981
34.46982 64.923195 32.208813
31.870821 64.9342 32.388813
32.59882 59.917194 45.32381
35.06782 59.113197 44.60081
16.029821 85.827194 42.95181
18.13482 85.2062 44.03781
20.678822 76.3652 48.43281
22.600822 76.088196 49.74081
29.119822 58.618195 29.95781
29.115822 59.704197 28.45581
28.789822 68.338196 21.277811
30.798822 69.45919 21.20881
46.55682 36.283195 10.16681
44.68182 36.629196 10.204808
40.76782 45.225197 3.406807
39.94082 46.257195 1.5528069
16.996822 29.452196 54.15981
17.058823 30.595196 52.36681
28.358822 31.620195 52.32681
29.731821 32.556194 53.85381
0.93182373 83.09319 20.19481
0.110824585 82.908195 17.929811
2.3668191 93.41219 14.353811
1.9788188 95.23319 16.36281
0.21681976 45.172195 16.523811
65.67282 44.530197 14.723811
60.30382 42.865196 16.832811
58.10682 42.663197 18.86181
20.776821 5.6811905 17.394812
20.932821 3.583191 16.241812
25.573822 3.060196 4.3778105
25.16282 4.355194 2.8418107
16.515821 80.1652 39.58881
16.852821 78.6242 38.20381
25.857822 76.99519 31.56081
26.687822 79.0172 30.39181
7.0288215 55.536198 1.45681
5.4328218 54.514194 0.25180817
0.64782155 54.655197 47.70981
1.2488215 52.387196 48.44081
49.886818 57.412197 30.107811
48.19982 58.410194 31.24781
44.44782 52.390198 39.64181
46.02582 50.145195 39.26181
59.72782 57.061195 25.61081
60.31482 56.343197 23.909811
3.1238153 49.599197 28.18881
1.4128169 49.119198 29.08581
48.33682 35.071194 42.10181
47.13282 35.485195 40.410812
45.09582 24.724195 38.06781
42.77682 24.363195 36.72681
37.75782 20.076195 12.524808
35.88182 21.160196 11.67381
35.11482 26.718197 2.4608078
33.483818 26.289196 0.7398071
47.47882 73.52519 48.22881
49.32382 72.3362 48.77181
54.66882 80.7392 43.18581
53.29782 81.30219 42.05381
49.28682 17.714195 52.80181
48.23682 19.520195 52.55381
56.81982 20.401196 1.8728104
59.03382 20.459196 0.43880844
46.16882 48.826195 13.801811
44.18982 49.978195 14.195811
33.115818 48.146194 14.364811
32.836823 49.728195 15.983811
58.83982 86.422195 19.23081
60.51082 85.908195 20.429811
58.69582 77.28819 14.750811
59.29582 74.966194 13.692811
24.46482 47.458195 51.92381
23.526821 49.262196 53.76781
30.548822 49.828197 49.28081
29.154821 49.363197 48.29881
35.82682 21.998196 31.18481
34.12882 23.155195 31.80781
38.14482 14.0991955 39.29581
39.23082 14.076196 37.17681
19.39882 28.882196 16.554811
20.917822 28.418196 15.239811
17.00982 18.571196 13.955811
18.396822 16.919195 14.470811
33.04782 7.0851974 32.47081
31.142822 6.5631943 34.33781
27.861822 3.0151978 26.21681
26.425821 1.8581924 24.64981
32.71682 39.402195 46.21781
34.90282 39.319195 45.27781
38.34182 48.489197 41.30681
38.92682 49.613197 39.396812
35.58882 10.430196 33.55381
34.08682 11.976195 34.61381
37.81782 21.204195 27.71281
35.42482 20.506195 28.73481
24.050821 80.327194 12.637811
25.108822 78.5982 11.750811
19.47882 69.64819 7.4078107
18.684822 70.59419 5.074811
16.304821 101.96819 26.33081
16.139822 103.591194 25.67481
17.95782 108.924194 35.638813
19.299822 0.9991913 35.54481
64.193825 6.2811956 53.07281
62.51982 7.3961954 51.63481
59.91082 17.914196 55.95381
59.08082 19.392195 53.78081
15.504822 1.933197 4.8158073
13.397821 2.456192 4.765808
5.1108217 107.521194 53.62181
4.4948215 109.6702 53.60981
10.345821 44.062195 55.54081
10.1928215 41.999195 0.029808044
4.1818213 36.041195 1.5038071
2.1708214 35.644196 0.7848091
28.03082 63.310196 42.92281
28.090822 65.1142 44.35681
31.295822 63.165195 53.70281
30.035822 62.047195 52.973812
30.220821 105.7352 19.34581
30.668821 106.657196 21.65081
28.955822 100.4442 31.20981
30.713821 98.3752 31.72481
63.45182 87.1972 20.16781
61.94982 88.716194 21.39781
1.4718226 91.51119 31.06681
3.4598215 90.3362 30.84681
10.604822 30.550196 53.00681
8.961822 28.299196 53.348812
5.049822 20.073196 53.06781
5.9888215 19.870195 51.08081
24.704823 14.708196 8.805811
23.021822 16.836195 8.88481
33.29982 20.886196 12.323811
34.60582 20.609196 14.261811
39.99882 4.4881973 54.22081
38.97582 4.097191 55.77681
34.33882 8.8701935 4.9178085
33.41982 10.732193 5.6818085
40.40182 53.309196 24.44981
39.24882 53.551197 22.30981
29.723822 60.069195 24.23381
31.158821 60.572197 26.70081
8.127822 62.914196 7.418811
7.575822 60.620197 8.519811
16.80882 54.906197 11.652811
15.607821 54.065197 10.434811
58.43082 51.168198 4.7288094
58.629818 52.601196 6.640808
58.32182 61.354195 5.00581
58.64082 62.221195 7.3298073
3.7048213 75.326195 22.589811
4.4748216 74.784195 20.87881
2.3858216 83.39919 16.53581
3.0228214 84.6672 18.03881
17.029821 103.10719 41.42681
15.526822 104.5262 40.70481
20.681822 103.408195 50.12381
19.542822 101.0712 49.81581
17.056822 28.154196 29.53281
15.781821 29.445196 27.711811
13.710822 27.072195 17.027811
12.710822 24.621197 17.81981
10.205822 33.949196 15.387811
12.171822 34.449196 16.47381
18.927822 39.833195 10.614811
18.283821 39.646194 8.881811
65.76982 36.930195 1.1558075
63.83482 37.144196 1.5968094
55.01282 43.063194 6.9938087
54.05482 40.960197 6.2928085
20.868822 16.178196 6.2858086
23.422821 17.398195 6.2688103
20.423822 28.449196 5.8778076
21.583822 30.147196 5.689808
48.21782 21.759195 47.79381
48.04182 20.596195 49.72581
57.70282 14.495195 50.37181
57.08882 13.506196 52.11781
46.33682 93.80019 25.70181
48.07782 93.258194 24.291811
42.38582 86.3342 27.55681
42.25682 86.1552 25.31181
37.97282 63.783195 33.583813
40.24382 64.1262 34.084812
43.28582 55.335197 40.11781
41.33682 54.466194 38.77481
29.367823 25.117195 17.22081
29.341822 22.678196 16.51581
27.965822 12.1911955 12.732811
28.871822 11.263196 14.775811
16.205822 50.141197 20.56981
15.296822 48.589195 19.29681
3.2978215 51.884197 17.35481
1.5948216 51.389194 19.12981
4.7818217 101.171196 28.75381
4.6548214 101.5542 30.91881
14.609821 97.9992 33.56681
14.391822 100.5822 33.09981
40.87082 83.89819 26.68381
41.55482 82.3042 28.23981
38.94682 85.2782 32.34681
39.27682 87.340195 33.757812
13.810822 8.9411955 0.48381042
14.994822 10.247195 55.55181
11.425821 11.778195 46.22581
11.561822 9.5991955 46.30381
18.642822 70.020195 21.902811
20.142822 68.143196 22.54281
25.659822 66.33419 13.635811
26.53782 64.2102 12.286811
13.163822 69.577194 47.72881
12.028822 69.73419 48.95781
7.0528216 70.83419 38.390812
8.072822 72.5672 37.563812
32.97982 75.6112 45.62781
33.63082 75.53819 43.69781
33.67482 83.5992 42.39681
33.66582 84.242195 44.97781
27.622822 85.7532 19.11981
27.733822 84.9702 17.072811
36.10082 83.2632 17.572811
38.05482 83.157196 17.179811
53.89282 80.907196 19.835812
51.30582 80.85819 18.409811
44.68582 82.478195 28.69981
43.71082 83.883194 27.85581
38.35782 84.27519 25.34881
36.72782 84.4562 24.39781
29.306822 77.10819 26.41481
28.187822 77.7242 28.38581
45.31382 55.927197 28.850811
45.66382 57.900196 30.06681
41.02082 50.802197 38.22181
41.77582 48.976196 37.59281
43.19882 107.2232 41.94781
43.71382 106.6822 44.27181
48.47382 102.633194 52.49781
48.48982 105.2662 53.34181
7.5128217 80.3482 46.27181
6.4948215 78.32919 46.79881
15.0348215 71.1152 43.37581
17.32582 70.84819 43.45281
52.31782 25.838196 31.21681
51.53082 28.216196 29.78781
43.53382 35.083195 34.85981
43.15482 36.480194 37.30881
10.420822 38.011196 5.6698074
12.082822 37.948196 6.670807
8.330821 28.790195 4.9818077
8.073821 28.628197 2.57481
8.642821 29.074196 31.89681
6.8308215 29.100197 30.86781
12.338821 20.666195 27.01081
13.451821 20.819195 29.43081
44.53382 24.134195 15.578811
45.18882 22.672195 17.009811
48.38282 32.425194 22.381811
47.09982 32.743195 20.69881
26.362822 88.4902 56.13081
27.168821 88.394196 53.90181
21.948822 86.9192 46.723812
22.013823 88.699196 45.89681
40.87682 107.895195 46.42681
41.16982 105.9062 45.34081
46.43082 1.7881927 53.28881
45.63082 3.5381927 52.38281
40.483818 47.368195 53.376812
38.87682 45.813194 53.64181
42.25682 37.451195 50.74281
42.07582 35.413197 49.95881
52.93782 85.7242 5.0618095
52.49882 83.4202 5.4408073
63.240818 79.924194 10.09081
65.03282 80.853195 9.794808
52.22082 66.85819 40.59281
53.04682 69.008194 41.64581
56.75382 73.46719 46.60381
59.10682 72.8912 46.35181
33.75182 73.96919 53.94681
33.36882 75.6562 56.38281
40.57282 84.324196 1.1168098
41.08382 86.216194 55.77881
39.643818 50.430195 24.85881
39.72982 49.816196 27.07481
31.685822 44.227196 28.23581
30.82582 42.228195 28.85181
56.28382 59.614197 5.66481
56.09282 57.858196 4.895809
54.761818 50.151196 0.71180725
52.47982 50.461197 0.812809
61.54682 74.411194 53.01981
60.81082 72.603195 55.18381
5.3998165 68.060196 54.89481
5.2818203 67.97219 0.8438072
45.42882 50.071198 53.15281
46.24382 51.379196 51.68181
51.96082 48.457195 44.04781
52.51682 49.910194 42.18481
47.51982 54.712196 29.65781
47.22782 53.330196 27.92681
56.511818 50.318195 21.21381
56.98682 51.579197 23.162811
21.04482 92.5562 36.96881
19.47182 93.4432 36.19881
16.404821 103.5402 38.256813
16.557821 105.491196 36.959812
7.0658216 11.651196 4.923809
8.2258215 12.995195 6.3468094
5.8108215 22.920195 7.354809
6.0648217 24.541197 9.0358095
62.57682 28.191196 11.309811
62.26782 26.594196 12.158811
59.45382 26.392197 23.04981
59.68582 27.735195 25.19581
14.827822 99.2772 3.062809
14.941822 99.369194 0.92780685
21.567822 92.366196 5.236809
21.601822 90.16219 4.689808
44.50682 30.898195 4.35281
44.66282 32.589195 2.538807
44.95382 37.095196 53.21481
44.51482 39.118195 51.94981
13.004822 68.7812 26.98681
13.893822 67.44319 28.232811
5.7838216 68.6982 35.493813
5.5258217 70.671196 34.944813
55.09282 56.678196 19.356812
57.31782 55.919197 19.70681
50.49582 57.915195 13.898811
50.35382 56.835197 11.871811
37.35682 33.052197 21.99181
37.88182 35.336197 22.426811
30.763823 32.031197 17.30281
29.390821 32.165195 15.6538105
7.879822 17.419195 20.85981
6.8808217 16.951195 18.711811
12.449821 21.191196 9.429811
13.175821 19.046196 8.17481
7.1908216 42.570194 48.67981
9.300821 43.071198 48.88981
12.4168215 30.886196 51.13981
14.524821 30.499195 51.43281
60.46282 109.282196 15.076811
61.31482 108.1682 16.63981
61.75182 105.2362 21.08181
59.59282 105.67719 20.971811
59.66282 78.9742 50.14681
60.01382 79.744194 52.21881
62.733818 89.893196 51.258812
63.31082 91.7102 50.38181
38.23482 35.217194 50.06481
39.476818 35.515194 52.00581
34.226818 44.969196 51.34981
33.90882 44.706196 49.12781
60.48682 89.91319 46.89881
60.91482 89.16319 44.62181
2.069822 85.23319 38.35981
3.7998178 86.7102 37.55981
35.27382 52.392197 13.384811
33.70982 54.073196 12.711811
44.96082 52.742195 13.497811
46.37482 53.924194 14.893811
0.60482156 76.978195 31.482811
0.36282152 78.2662 29.55681
2.5718215 88.728195 35.15881
3.9698215 89.78919 33.53081
24.870821 59.166195 10.663811
25.211823 61.622196 11.541811
26.56882 61.665195 19.89381
27.404821 58.944195 19.35181
1.7548215 85.772194 10.012811
1.2418215 83.73119 9.834811
-0.36017853 78.4012 8.110811
-1.1561784 77.063194 6.5538106
31.784822 71.31619 55.79081
32.98682 72.96819 0.21281052
38.95282 64.40119 5.6678085
38.21382 63.121197 3.4128075
17.144821 89.702194 9.2668085
18.444822 90.2252 7.2688103
21.623821 101.1012 3.9528084
19.364822 101.13619 3.5858078
-0.6201785 48.198196 10.71481
0.1418215 48.896194 8.508811
1.5568216 51.326195 15.3118105
1.6698215 48.849197 15.606811
34.07882 84.12219 20.07481
33.70382 84.7952 22.107811
25.803822 84.493195 28.33581
26.684822 82.632195 29.54081
13.228822 3.1821976 7.286811
11.814821 3.609192 8.617811
17.789822 3.1011963 15.0618105
17.178822 1.8611908 17.14781
7.7508216 105.632195 44.78281
9.682821 104.7632 43.29881
12.724822 5.9081955 39.71481
12.239821 4.192192 37.868813
8.193822 22.842196 36.87881
10.325822 24.129196 36.95781
10.820822 14.449196 44.30781
10.189821 12.363195 43.473812
61.63282 2.6151962 33.298813
59.98182 4.7611923 33.16381
65.929825 2.3541946 25.55681
1.5688227 3.567192 25.30681
28.726822 4.310196 6.471811
28.244822 6.0751953 7.555811
25.767822 109.286194 16.169811
26.56882 0.1561966 17.898811
6.4408216 18.998196 45.14281
7.379822 20.476196 44.40881
15.712822 28.402197 49.05381
13.730822 30.004196 48.59581
48.997818 95.96719 14.868811
48.09182 94.26019 14.771811
55.40582 86.9332 19.679811
55.97482 86.31519 22.01581
18.552822 81.4862 18.38581
19.681822 81.99519 16.36981
15.185822 84.1982 7.996811
14.193822 82.298195 6.984811
19.165821 10.027196 37.24681
18.65582 12.619196 37.840813
19.338821 12.490195 47.35781
16.764822 12.381196 48.08981
15.838821 100.78719 54.96081
14.426822 102.7622 54.81681
20.067822 105.7102 8.629811
19.028822 103.492195 9.429811
12.855822 18.010195 29.32581
12.989821 15.928196 27.79081
19.643822 11.739196 24.57181
21.35382 13.214196 25.12481
46.80582 60.572197 15.258811
48.35382 61.901196 14.41081
53.254818 62.867195 10.74081
53.76482 60.871197 9.656811
62.67682 62.226196 49.96681
64.222824 60.718197 49.86781
63.55982 59.814198 38.72181
64.28682 57.715195 37.71981
59.49482 74.6932 4.8958106
60.28582 73.227196 6.5318108
52.26582 79.076195 12.206811
52.46282 77.907196 14.312811
57.41482 31.118196 38.86381
59.53082 31.387196 39.33681
1.5778178 38.241196 39.389812
1.7098216 40.269196 39.80081
13.841822 70.66719 53.980812
13.023822 70.31619 52.09481
6.5058217 79.1682 49.48381
7.7918215 80.2402 51.20081
24.165821 87.4172 2.2788086
23.864822 87.799194 4.5078087
29.768822 93.411194 11.744809
31.256823 94.2102 10.355809
63.73582 85.3032 7.3168106
63.615818 87.504196 8.215811
59.80182 89.5532 19.11281
61.20982 91.0862 18.89981
41.63582 36.629196 33.987812
40.48782 37.293194 35.53281
33.67782 41.063194 31.32181
32.05182 43.198196 32.223812
31.474821 75.20319 2.44281
30.683823 75.65019 4.1208076
25.697823 68.52619 10.799809
25.117823 65.9892 10.552808
61.17882 42.546196 45.04381
62.726818 43.265198 43.08381
54.60582 42.641197 42.91481
54.34582 40.871197 43.65381
0.6018219 79.952194 20.728811
1.1288203 80.0152 18.53881
0.08982086 70.36119 12.665811
2.0188196 69.771194 11.841811
59.85682 107.9162 35.21081
60.20982 0.72219086 35.848812
65.472824 104.41419 42.35881
0.7878189 102.757195 43.43581
14.619822 91.34319 51.89881
13.684822 90.6922 53.74081
20.232822 89.7632 55.98381
22.139822 89.339195 55.07581
44.47782 100.841194 51.77081
44.23282 98.394196 52.51681
43.91182 100.116196 45.24181
43.36682 102.06419 46.63481
39.92082 107.6982 23.64281
39.93582 108.52419 25.89081
48.52382 99.57919 27.35481
48.06382 98.228195 26.23081
11.877822 64.729195 14.529811
12.293821 62.983196 12.6278105
19.158821 57.670197 20.73381
17.444822 58.145195 22.134811
23.722822 2.3131943 34.348812
23.806822 0.732193 32.077812
15.547822 103.2672 31.21581
15.609821 101.244194 30.78681
44.64482 59.197197 16.08081
45.45782 57.361195 17.224812
40.20882 52.397198 14.578811
37.82782 51.864197 14.662811
30.779821 67.45819 16.30381
29.381823 65.94519 15.248811
37.99582 63.857197 9.262811
39.93382 62.734196 9.375811
3.1808214 14.565196 52.90581
2.9828215 12.163196 53.50081
-1.1891783 4.4731956 49.33981
0.76382154 2.7611957 48.16481
15.193822 66.7512 35.388813
15.032822 65.34419 37.063812
11.463821 55.830196 40.90681
11.585822 54.100197 39.46081
11.324821 16.802195 24.61381
11.136822 16.234196 22.815811
