26.7133 15.412888 45.88101
27.705301 17.031883 44.569008
17.7073 21.19989 40.64201
18.2503 20.943893 43.48301
65.0273 43.461887 35.300007
63.9103 46.426888 35.62101
59.1493 45.738884 39.842007
57.8093 47.652885 40.688007
58.0093 0.48388672 38.07501
57.3563 109.196884 35.911007
57.2243 100.26189 41.99201
55.3383 99.28189 40.90101
29.045301 43.516888 13.186008
27.7703 44.405888 14.816009
32.6423 55.303886 20.441008
31.538301 56.382885 21.77101
27.3243 21.731888 19.371008
28.3813 20.189896 18.58701
33.5633 19.71289 12.417008
32.8233 21.31189 11.020008
38.4253 13.046883 35.486008
38.9103 14.315887 36.884007
34.8413 5.1668854 43.61601
34.305298 4.0188828 45.65701
31.4053 101.30389 8.568008
32.2393 103.49789 8.280006
42.3473 99.404884 11.119003
43.6263 98.00989 11.448006
39.1713 19.820892 52.73301
39.4403 22.411896 52.75401
28.9163 23.579895 2.5700073
27.5723 25.876892 1.7270088
64.5133 31.771896 9.985008
66.157295 32.806885 10.756004
57.5763 39.049896 10.030006
58.3693 41.417892 8.747009
64.2573 37.33589 45.737007
65.4823 36.144882 44.181007
9.708301 40.383896 43.55101
9.4373045 38.16989 42.627007
50.2123 64.21388 22.485008
52.109303 62.592888 22.326008
47.5503 64.37189 23.28801
47.401302 66.24289 21.815008
24.2313 41.458885 12.736009
25.118301 43.883884 13.411008
19.3563 52.739887 16.871008
19.702301 53.912888 18.644009
57.9623 58.485886 34.49801
57.5113 61.030888 34.425007
63.9543 67.293884 38.50301
63.866302 68.502884 40.057007
23.5203 82.890884 28.652008
25.9353 83.46789 27.96501
32.0603 84.49289 21.35801
33.3443 82.62289 21.65701
2.5573044 51.117886 20.48301
2.417305 51.578884 22.645008
64.2193 57.805885 31.119009
62.8133 59.923885 30.244009
23.6343 47.465885 45.48401
25.2763 49.389885 44.898006
35.5953 45.996887 38.752007
34.5453 45.055885 37.12101
12.8373 93.61689 21.057009
14.0103 94.00989 19.318008
19.3903 85.957886 11.964008
20.9243 87.69289 12.202008
27.6353 32.377884 45.44901
26.691301 32.961884 43.73301
32.8073 44.22988 41.944008
34.6953 43.52289 41.432007
28.9423 84.099884 32.37101
28.5853 83.36789 30.28101
20.5673 73.85389 34.759007
19.1733 75.34389 34.47801
35.2403 57.886887 22.50701
35.159298 56.328884 19.91401
41.6183 66.44888 19.066008
39.7613 67.03589 17.82001
44.3883 5.825882 11.153008
42.4323 4.8528824 12.188008
36.9353 9.316887 17.703009
35.5323 10.823883 18.089008
40.533302 54.707886 29.99601
42.6413 56.144886 30.912008
45.1003 52.466885 33.291008
47.0943 51.470886 34.027008
13.4243 100.290886 11.805008
14.8393 101.361885 10.624008
19.1823 92.401886 4.984009
17.9733 91.32288 7.274006
34.548298 56.883884 47.37401
32.7753 56.753887 45.82401
31.2843 45.712887 46.924007
32.2853 44.078884 47.083008
49.7133 95.377884 17.409008
48.3923 95.83789 19.110008
46.6453 99.056885 29.109009
45.5773 97.77089 30.00601
13.283299 96.30089 22.79501
13.0083 96.64489 20.41001
14.5393 106.85388 23.779009
13.1953 108.22888 23.78501
16.3873 105.71289 26.415009
17.5953 106.73189 25.60101
16.3103 5.5938873 30.849009
17.2203 5.004883 33.036007
64.3603 99.49389 45.917007
63.3913 97.916885 46.875008
54.547302 94.596886 48.14301
53.0003 93.70589 49.54501
27.5793 35.224884 1.8880081
26.2873 34.336884 3.5570068
16.8163 35.76689 53.89101
15.1233 37.565887 54.32901
50.3543 5.0968857 13.566009
51.5653 5.4638824 15.181008
57.0313 108.25688 20.217009
58.7303 109.167885 20.15001
38.784298 37.43788 18.86501
36.1473 37.724884 18.79201
29.1643 31.571884 17.97301
29.590302 32.196884 20.215008
30.0093 57.404884 26.284008
30.3673 56.640884 23.895008
24.6283 57.114887 16.588009
23.441301 59.270885 17.314009
64.0083 79.26789 48.47501
62.7793 81.458885 47.96201
5.6723022 84.21889 41.576008
6.452301 86.44189 40.26201
34.4103 98.03989 39.76101
36.0563 98.84389 39.404007
42.742302 97.86488 47.01601
42.2063 96.50889 48.74001
54.7403 90.99789 50.44301
52.3333 91.181885 50.78001
57.2013 81.67889 47.319008
59.1393 80.67189 47.59501
61.5383 99.65089 45.02501
59.2753 100.318886 44.45601
61.7333 1.5368881 47.02601
59.8453 1.814888 47.222008
49.0973 56.970886 20.204008
48.0233 56.924885 18.277008
47.5863 63.314888 8.225009
47.6283 65.61588 8.605008
64.7633 63.727886 27.13601
65.2183 65.766884 27.45901
58.5573 71.84289 34.14901
55.984303 71.67589 34.196007
46.3173 17.882889 50.31401
46.7063 17.997887 48.60901
43.7173 23.692886 39.41501
41.5213 24.497894 39.35801
33.9433 33.722885 8.347008
32.5363 32.413895 9.897003
27.6163 23.925888 8.483009
26.955301 25.659882 7.928009
38.7893 27.799896 28.394009
38.6093 26.271896 26.800009
48.6983 20.431885 28.645008
50.8433 19.851883 29.661009
10.244304 83.029884 21.804008
8.025302 82.708885 20.53201
66.017296 88.32489 22.633009
65.3293 86.90588 20.964008
48.5413 36.222885 36.78101
48.4203 35.689896 38.62101
39.4743 42.004883 43.29501
40.4893 41.606888 44.877007
7.8163 75.833885 43.76001
8.4683 76.84089 45.17901
18.1513 81.08688 49.42601
17.8103 82.46789 47.958008
61.4603 32.455887 43.674007
63.7243 34.308884 42.618008
5.381302 32.001892 36.931007
5.1372986 29.840881 38.402008
4.1352997 71.13389 21.238008
3.5822983 70.59189 23.457008
67.0483 81.69189 25.867008
66.1493 79.778885 24.07001
16.9693 7.9078827 7.4550095
14.8693 8.672882 8.382004
14.8603 14.650887 3.5230064
15.2053 14.820885 1.074009
9.0293 56.025887 14.814006
9.189303 57.436886 12.614006
66.6123 61.436886 8.419006
65.447296 59.638885 8.424004
50.8073 98.932884 41.202007
51.7163 100.571884 42.252007
43.0983 104.34489 44.861008
41.7163 106.06089 45.57301
16.5223 50.635887 47.29301
16.2353 50.621887 49.60601
19.9373 59.617886 53.71701
21.1143 59.068886 0.25300598
43.8483 28.693893 54.49101
41.7773 30.04689 54.66501
39.624302 23.022888 3.159008
38.9343 21.210892 2.0970078
57.1543 16.956886 8.351006
59.1273 18.264885 8.728004
67.3913 22.50589 13.060005
0.48830414 23.052887 14.883006
35.6053 106.94289 41.87301
34.8773 104.14989 42.10001
36.2063 108.73089 48.33901
35.020298 1.2138824 49.78301
12.6733 39.164886 1.298008
11.238299 38.64789 3.3340073
18.9353 27.951889 1.9740067
17.7293 27.286896 55.72801
48.568302 45.067886 24.784008
49.3483 46.298885 27.07301
44.4493 43.074886 36.49601
42.0523 42.254887 36.44301
15.7603 9.847885 31.46501
13.6573 8.433884 31.19801
5.3513 15.847885 33.410007
4.8963 15.323883 35.82301
39.1183 35.484894 13.603004
40.026302 33.68788 12.592003
37.7213 22.409882 13.771007
36.2713 22.508896 11.613007
4.072296 1.8348846 48.70901
5.4353027 0.117881775 49.569008
7.5053053 101.04488 47.77301
6.836296 99.08889 46.64701
25.7423 59.899887 18.90001
24.6193 59.645885 20.201008
23.611301 49.627888 23.53201
22.6273 50.063885 21.28901
14.6573 98.03989 47.08201
15.299299 100.40789 47.28101
14.8673 97.54789 36.42101
14.1923 96.50489 34.99801
67.4313 81.18889 1.1430092
1.4442978 82.43789 1.2710075
67.211296 89.36589 47.01101
64.6813 88.79889 47.13101
14.658299 20.605896 46.39201
17.063301 19.886887 46.53601
17.7423 14.766884 1.5720062
18.4713 15.798882 3.9400063
45.1843 107.665886 39.71901
46.4243 108.80089 41.383007
51.3703 2.2018814 49.25601
51.5323 109.28288 48.62301
14.0073 28.592896 13.742008
13.6772995 28.056885 15.8630085
4.7422996 25.927887 13.320008
2.8932996 24.320892 14.532008
24.5273 22.717896 6.925007
22.7423 21.078888 8.449005
21.1083 14.137886 14.832007
19.3823 15.885887 15.451007
49.7823 2.3458862 11.376007
48.7813 4.224884 10.374008
41.4633 104.08889 12.318008
42.8433 102.08989 11.223007
12.5803 67.85489 53.69901
11.6833 70.08989 54.320007
10.8293 74.73089 6.8980064
11.205299 72.071884 6.7380066
14.2513 17.914886 13.681007
15.3793 19.769882 13.119003
15.5903 28.780884 10.55201
16.5293 28.901886 12.7780075
54.7113 109.29488 36.59601
54.0223 0.49388123 38.53201
64.5643 0.72688293 40.38601
65.9303 109.42388 42.37301
36.8063 86.68889 22.91001
38.0883 88.20189 22.93801
31.7833 96.417885 23.724009
32.0723 99.016884 24.034008
11.1763 29.292892 7.499008
12.7703 31.072891 7.9430084
23.979301 26.565887 7.4380074
25.479301 25.194885 5.9900093
31.8533 13.179886 26.485008
33.9563 12.391884 28.210009
38.2893 21.389893 25.147009
37.8163 23.238892 25.394009
67.198296 107.39689 43.416008
67.2723 109.35489 45.328007
63.0833 101.791885 51.76001
62.936302 102.49789 53.75201
25.4803 83.94189 32.632008
26.9843 85.543884 33.590008
18.841301 81.49089 36.570007
18.9993 79.53088 34.98501
61.2123 32.89589 8.1910095
62.3333 30.703888 8.6530075
57.450302 27.29689 17.544006
55.1683 27.331894 18.162006
30.0503 75.09389 17.39301
30.5483 73.42389 15.3960085
35.0123 67.61989 15.187008
36.5893 67.01189 16.759008
29.559301 43.014885 53.938007
30.281301 40.88089 54.31101
24.7723 35.015884 48.194008
27.3523 35.444885 47.63401
59.8233 66.957886 6.949009
58.4803 67.460884 5.4620094
53.4583 68.45289 53.08601
52.401302 67.59289 51.60001
9.5603 28.392883 55.243008
9.370299 29.885895 53.82901
14.2403 23.437881 45.42901
15.7543 22.766891 44.88601
47.929302 18.086884 18.568008
47.3063 19.661896 17.065008
39.0513 18.805893 22.41701
37.1073 18.211884 23.300009
53.5293 75.168884 5.982006
54.332302 77.45389 4.6290092
45.6213 78.78789 12.329002
44.255302 76.85088 11.944008
30.820301 12.014885 35.97801
29.0233 13.187881 35.70401
27.3783 13.917885 23.036009
24.469301 14.526886 22.703009
47.846302 61.963886 22.293009
46.7593 63.462887 20.29901
40.249302 57.478886 23.885008
37.8823 56.781887 24.11101
7.9042997 53.769886 48.87601
8.1503 55.258884 50.95001
18.4473 58.831886 48.78901
18.6153 57.443886 46.04301
62.4973 56.289886 22.134008
64.2103 56.156887 20.928009
64.7203 44.800884 21.821009
65.0403 42.988884 22.95901
53.7933 23.27089 35.71101
54.1903 21.422882 37.32501
45.4093 14.476883 37.007008
46.2163 12.2638855 37.215008
4.3513 65.76089 28.56301
3.7842996 63.860886 28.919008
14.2323 58.142887 29.710009
14.7913 59.944885 31.33001
14.7793 6.1698837 9.998009
16.3183 6.3788834 11.872009
14.5513 107.237885 5.579006
12.3573 106.97888 4.9520073
49.2943 81.67089 28.317009
50.4763 80.127884 27.506008
49.8003 72.92689 25.530008
48.3853 71.388885 24.054008
20.6203 66.752884 1.9270096
19.1533 66.80289 0.33700943
16.2963 75.75589 6.576008
17.2133 74.76089 7.9120064
60.0883 77.626884 6.275009
60.297302 79.60689 7.4360085
57.242302 89.46489 9.55201
56.561302 90.304886 7.546009
13.5273 14.836884 28.759008
11.9532995 16.036888 28.19101
5.0372996 11.418884 23.83701
4.6703 13.631882 24.31301
31.0723 44.324886 44.32401
29.6343 43.272884 43.11501
19.1963 46.313885 39.834007
18.2373 47.085884 42.037006
0.90530396 105.24289 4.3490067
1.6072998 105.78489 1.909008
9.4043 0.042884827 9.891006
7.952304 2.6558838 8.977005
64.212296 5.212883 50.07801
64.1403 5.861885 52.667007
64.350296 1.1528854 6.145008
62.936302 108.52289 5.143009
15.9272995 84.599884 49.26101
17.445301 85.680885 48.51801
7.1643 92.391884 46.82101
5.9483 92.52289 45.14401
20.9793 80.98289 50.20501
20.8013 79.99089 47.76301
29.802301 83.182884 44.46901
29.1853 83.56389 47.25901
16.1063 4.109886 43.828007
13.8033 3.8218842 44.35901
6.5603 1.2428818 51.53601
4.9823 2.5018845 51.29701
27.7563 32.325882 41.210007
29.150301 31.03389 42.641006
27.1683 19.209885 38.90001
27.677301 20.483887 36.612007
15.8553 27.704895 32.391006
17.7033 26.479889 32.244007
22.6083 31.567886 41.30101
24.5323 31.03189 39.88501
62.9863 56.055885 46.88001
63.7453 54.410885 45.44101
67.3193 56.831886 35.681007
0.16230011 55.880886 33.870007
54.2813 101.02589 43.328007
55.4743 102.51989 41.30901
54.7183 106.043884 50.64301
56.5143 105.487885 52.472008
56.7153 57.508884 45.687008
59.0633 57.017887 46.007008
60.644302 53.902885 32.77401
62.2393 55.275887 32.875008
52.0093 25.49289 13.535004
50.7813 24.710892 12.158005
45.9883 16.269882 11.497009
48.7273 17.167885 11.895004
16.5313 45.755886 36.65601
18.7073 46.389885 36.98201
15.2413 51.983887 33.69701
14.0573 54.224884 33.60701
0.6792984 90.14889 13.259008
0.7243042 89.02289 11.519009
58.9753 92.02189 17.242008
56.7993 92.31689 17.104008
15.8883 8.089882 41.133007
13.8643 9.568886 41.55301
4.9223 5.564888 37.66301
4.7922997 4.752884 35.744007
61.3553 3.9148865 48.82401
62.5863 3.3018875 50.26501
60.7363 106.43388 4.4400063
59.832302 107.807884 5.984009
21.2833 47.043884 21.63601
21.4063 44.890884 22.357008
23.4293 34.34088 17.371008
25.243301 33.542892 17.19501
7.5933 66.609886 32.19201
7.1113 64.69289 30.603008
17.4913 65.75488 29.284008
17.5203 66.55389 31.682009
31.8943 82.87888 30.08001
30.8253 83.498886 28.458008
29.243301 74.19089 22.84001
28.129301 73.012886 24.196009
26.021301 19.31189 45.375008
26.5403 20.552887 47.52501
29.3643 31.53189 48.31101
30.5533 32.28389 46.97101
9.933299 3.9528885 40.034008
9.360301 2.675888 38.264008
2.4653015 3.8428879 29.297009
1.530304 1.0988846 29.51101
25.757301 93.24089 35.765007
25.2773 93.00388 38.451008
17.2583 99.27489 43.02601
16.8483 98.251884 44.529007
58.991302 82.17789 24.266008
60.7153 81.99189 22.628008
50.8963 79.88389 24.731009
52.5313 79.07389 26.207008
50.1433 48.039886 1.9210091
51.4093 46.224884 0.6720085
62.7253 44.285885 2.3770065
64.989296 45.287888 2.3270073
13.6663 68.66289 12.739006
15.0403 70.85589 12.640007
17.3173 65.34489 6.7100067
16.1863 66.860886 4.7480087
15.1383 103.113884 2.036007
15.4593 104.35189 0.2040062
12.0403 106.626884 46.96701
12.7863 108.80988 46.215008
10.606299 2.278885 30.20901
10.9913 2.8178864 27.67401
8.1953 15.618881 26.083008
6.6562996 16.491882 27.60501
3.3843002 101.61889 36.28901
5.133301 103.62989 36.355007
4.3683014 2.7448883 37.458008
6.765297 2.1328888 38.48401
38.0253 43.165886 22.849009
39.4753 44.691887 22.606009
34.2043 55.072887 24.640009
32.1923 54.419888 23.61201
1.8493042 7.920883 19.184008
1.4363022 9.624886 17.406008
61.7573 5.264885 9.526009
60.2243 7.0868835 8.457008
11.2213 96.87189 50.70901
11.4173 94.65588 50.194008
17.1333 90.071884 1.4410095
18.320301 90.42389 3.404007
54.8553 41.828884 11.668007
56.8783 43.288887 12.917007
50.3303 54.008884 12.210007
48.1413 53.051888 13.042007
27.604301 55.233887 39.51101
25.962301 56.903885 38.458008
23.2553 48.211887 36.29701
24.3123 45.777885 36.82201
65.0633 27.927887 6.1370087
64.2103 26.091888 6.593006
65.5563 18.206886 9.8650055
65.559296 16.578888 8.380005
4.8213 73.333885 50.000008
6.6752996 73.96288 48.97501
12.7093 83.82288 52.49801
12.8903 82.98189 54.91501
21.3303 22.497894 32.890007
20.3743 21.201889 31.09101
17.0603 15.503883 27.17701
16.688301 14.417885 25.53101
16.8743 48.225887 44.69101
15.422299 49.627888 44.70501
12.9063 39.347885 37.002007
12.5963 39.466885 34.828007
24.334301 1.3298874 35.625008
22.9493 0.041885376 37.569008
17.1413 101.73389 35.32401
16.6963 99.45489 36.06101
64.1223 56.062885 3.666008
65.0973 55.451885 0.9460068
66.0483 65.08189 0.14700699
65.3423 67.528885 55.681007
32.9153 23.927887 21.14301
35.1343 24.627884 21.312008
38.6533 33.00389 19.363008
37.6823 34.791885 21.203009
18.1783 50.268887 23.62201
19.9473 50.295887 24.494009
27.0083 46.882885 26.526009
29.1353 47.533886 27.366009
61.6673 37.44789 44.355007
62.0073 35.041885 44.59401
51.4513 32.200882 49.02901
51.332302 32.241882 46.785007
49.2673 23.123886 27.520008
51.1663 22.457886 25.92001
46.4683 26.062881 16.075008
47.3313 28.049896 17.954008
21.952301 69.13289 41.252007
20.9413 68.53288 42.83901
11.2203 68.945885 39.83701
9.9443 69.05289 38.06501
25.854301 89.570885 34.612007
26.9873 90.87189 36.73201
31.5223 90.973885 44.01001
30.073301 90.32789 42.785007
36.7043 40.546886 45.376007
38.4843 41.728886 46.51201
42.8313 41.322887 46.542007
41.9163 39.508884 47.063007
64.6063 74.71289 35.32301
66.907295 74.67489 34.42801
2.067299 68.779884 27.509008
2.976303 69.542885 25.794008
40.943302 28.302887 39.24601
41.1623 28.290894 41.12301
46.1193 37.681885 45.58901
44.3223 38.782883 46.173008
65.6553 76.79488 51.82901
65.572296 75.66489 49.96301
5.438301 69.14889 47.139008
6.0503006 71.60889 47.25801
41.5483 101.89889 52.00601
40.1613 100.90889 52.08901
45.5463 92.651886 49.10101
46.5903 91.03489 49.89301
43.9423 93.81389 30.599009
41.0323 93.55389 31.13201
32.7753 94.986885 25.637009
31.9733 94.224884 27.10401
0.6283035 61.704887 34.29601
1.1242981 61.635887 36.83201
0.7093048 57.919888 40.95701
2.041298 56.635887 41.592007
1.5522996 58.085884 37.76201
1.7053 59.069885 35.63601
14.1013 56.942886 32.57501
14.7113 57.228886 34.488007
9.974299 63.757885 17.842009
8.3083 61.801888 18.735008
7.2363 71.56289 25.12901
9.6273 70.960884 26.15001
22.0233 91.61889 48.62201
23.379301 90.443886 50.56701
31.288301 85.290886 53.66501
31.3803 83.318886 52.306007
45.5483 21.164886 23.648008
44.8413 20.379883 21.34101
38.6463 17.574883 15.262009
36.3893 17.907883 14.472009
34.1533 89.735886 50.97801
35.1723 88.22889 50.52201
45.1553 85.37089 55.51901
45.2323 83.195885 0.8630066
8.3053 48.519886 44.14201
11.0203 48.968887 44.98401
12.1733 40.426888 52.83101
13.9583 39.986885 54.50601
35.0883 85.86789 16.392008
33.3863 85.014885 16.960009
22.8183 85.86488 15.657008
21.0723 85.85689 17.161009
15.0223 98.87089 27.297009
13.4532995 97.46589 28.748009
3.9222996 94.24389 27.35401
1.8982998 94.21188 28.158009
58.6973 103.65689 51.61601
59.8623 101.612885 51.653008
54.2563 99.14889 6.8680077
55.8903 100.639885 7.763008
8.5813 10.218887 15.288005
8.0443 11.956886 14.143008
15.5852995 11.488884 9.422005
17.2043 12.864883 8.786003
33.1863 86.04789 55.11401
33.8823 84.25589 54.83601
36.277298 86.17489 11.042007
37.6073 87.83189 11.733009
42.7723 97.513885 27.651009
41.103302 98.31289 29.565008
31.1203 93.34089 29.551008
31.2773 95.60389 30.262009
4.549301 78.79989 46.05001
5.671303 77.90989 44.30801
65.6323 75.99689 37.44101
63.6113 74.72588 38.662006
11.5173 80.112885 20.211008
12.0103 79.012886 21.908009
21.1733 73.25989 20.703009
22.3963 71.38589 21.399008
48.172302 16.134888 49.99401
47.360302 14.984886 47.86401
57.5813 15.555885 45.252007
57.728302 13.793884 46.38701
40.3703 62.818886 9.924004
40.5453 63.476887 7.855007
34.7413 60.932888 0.8330078
32.8603 61.489887 55.58001
25.778301 24.495895 34.576008
24.9233 26.21489 33.40101
17.0713 25.581894 41.305008
15.2783 24.976883 40.88001
47.1113 8.117882 19.853008
45.1483 8.698883 19.52501
39.5943 109.38489 19.566008
37.7243 108.53488 20.214008
49.9413 63.108887 48.54701
48.332302 63.658886 46.36201
37.4483 59.054886 44.18401
38.5443 57.435886 46.11401
23.2833 56.258884 10.753006
24.913301 55.998886 11.625008
24.4533 48.771885 7.656006
23.5683 50.395885 5.7360077
16.0013 17.552887 4.914009
15.6703 16.826881 7.0800095
27.847301 13.941887 4.501007
27.6073 12.370888 2.9310074
66.5123 82.99789 30.14301
65.3403 81.209885 28.377008
56.9413 74.60389 31.540009
59.2443 73.68588 32.43501
21.1593 104.19289 4.661007
20.0003 104.36989 6.564007
24.9073 94.53088 8.364006
26.261301 95.82489 7.045006
35.1913 75.235886 37.139008
37.1083 74.30189 35.995007
37.5993 81.32689 34.328007
36.562298 80.12888 35.21901
6.4922996 3.927887 54.49201
8.6033 2.8108826 55.50901
12.1363 4.3558884 11.896004
13.0903 2.0578842 12.045006
29.8293 100.05989 25.239008
29.028301 101.598885 27.005009
26.3283 103.54889 15.366009
27.025301 101.49089 15.133008
33.4153 107.25889 39.584007
32.0393 105.64489 38.750008
26.5343 105.792885 49.34801
28.8853 104.88389 48.97301
66.2283 40.28389 21.04601
64.8473 40.286896 22.829008
56.8103 37.28488 15.105008
55.7633 38.455887 13.847009
57.9213 44.083885 27.617008
56.0023 44.78488 27.093008
49.6363 38.027893 26.72901
47.998302 37.058884 26.024008
50.7603 12.228882 28.759008
52.3853 12.447884 30.102009
52.3083 22.318893 29.728008
50.8993 23.31189 31.07301
11.4283 91.86589 27.210009
13.3603 91.63089 28.554008
13.1283 88.98289 37.895008
14.5713 90.56089 37.11701
37.8903 49.030888 4.175007
39.4933 49.681885 2.6370087
41.8573 53.297886 52.60501
43.575302 54.277885 51.37101
24.649302 59.899887 12.943008
25.1213 59.290886 10.949005
22.5963 60.347885 1.8310089
24.3803 58.250885 1.4000092
67.1213 36.629883 28.648008
65.6593 34.473892 28.720009
3.541298 24.61589 23.16701
2.1593018 22.90689 24.241009
27.5013 68.085884 4.227009
26.816301 69.97089 5.5990067
35.3803 66.960884 12.021004
33.6753 65.82589 10.150009
50.6543 9.913887 48.86901
50.6643 10.805885 50.87601
58.9383 16.545883 47.611008
60.978302 17.165886 47.94601
0.46030426 1.5078888 43.12301
2.2713013 0.38788605 44.391006
5.2433014 8.080887 52.63601
7.2013016 8.991882 52.61001
23.708302 108.93788 6.954006
25.4303 108.44289 9.005005
36.381298 3.276886 7.393009
37.8303 3.675888 5.803009
63.5903 73.126884 47.88301
63.1363 72.22588 45.548008
57.4733 65.77289 44.717007
56.3053 63.827885 44.737007
28.6833 15.738884 47.70901
29.969301 16.227882 45.604008
37.4513 19.82489 47.472008
37.5093 21.131882 49.15001
52.1803 29.010895 52.05401
52.658302 29.744888 50.027008
42.790302 28.36589 50.472008
44.1823 29.303894 51.92101
9.5883 17.825882 2.7370071
11.4473 17.816887 2.817009
4.2412996 20.208893 11.726006
4.3033 21.794891 13.549004
26.1783 105.67289 7.5420074
24.271301 106.152885 8.258003
14.5703 104.61989 13.144005
14.6833 102.640884 13.118004
32.1493 71.02289 53.26301
32.1083 73.112885 53.11201
34.7373 76.48389 8.224007
36.0883 74.95689 8.322006
0.917305 85.82989 4.468006
1.6053009 84.472885 3.0310059
10.038302 94.42789 3.706009
7.9933043 95.83089 3.3150063
27.0793 30.344894 9.347008
29.7873 30.654892 9.294006
28.2823 22.267883 16.363007
27.4543 24.481888 17.620007
38.305298 42.945885 40.44101
36.4503 43.416885 39.077007
42.5463 37.862885 33.071007
42.5363 35.723892 33.47501
18.4413 31.265884 44.79701
17.9213 30.63089 42.93601
13.2623 40.140884 42.766006
11.6323 41.37889 42.22801
54.1673 15.194885 36.98301
55.9133 13.482887 36.63001
63.4213 15.912888 26.66401
65.1543 17.842888 25.982008
5.7032995 28.889893 35.688007
6.1863 27.142883 37.111008
10.2233 17.661888 30.17001
8.9943 18.675888 28.373009
27.2583 34.955887 6.064007
26.153301 33.64389 7.206009
16.1043 35.997894 10.178009
16.5693 35.496887 12.170006
34.8103 74.42889 41.04401
34.5443 72.333885 41.15701
32.1033 62.766888 47.00601
29.3943 63.533886 47.33401
10.583301 17.628883 40.395008
8.630305 17.791885 40.424007
2.5863037 23.629883 45.99501
3.6362991 24.538895 47.174007
41.9553 7.6878815 8.489006
43.575302 8.398888 9.271004
38.7753 19.791885 11.453003
36.4033 19.925888 12.534004
65.6483 25.073883 41.46101
66.8063 23.35289 40.37301
8.068301 20.792892 43.47001
8.761302 21.829895 45.340008
37.4243 4.1568832 42.445007
39.0823 3.2168884 43.85901
34.652298 4.885887 52.160007
33.5863 4.4978867 50.187008
65.8303 48.131886 3.475006
64.9843 49.737885 2.0420074
59.0693 44.029884 50.47101
60.630302 42.591885 50.10701
66.8483 43.984886 0.64400864
65.1113 42.531887 2.4500084
6.1473007 43.590885 10.628006
4.3072968 44.199886 12.189003
8.495303 64.32989 38.709007
9.685306 62.194885 39.189007
1.6163025 67.10489 44.930008
3.7352982 67.43989 45.410007
4.6893005 74.24789 36.076008
5.5643005 71.67789 36.543007
5.152298 62.701885 35.278008
5.0522995 63.525887 32.56101
35.9103 53.235886 51.49401
35.4493 55.432884 51.85801
39.2083 63.360886 53.99501
38.0083 65.31389 55.09501
44.8293 19.860886 40.70701
47.1673 19.088882 40.34301
54.4053 26.681885 47.46901
54.679302 25.428894 49.271008
36.6233 22.438889 22.859009
34.3423 22.237885 23.00401
26.6573 18.538895 24.062008
25.254301 19.793884 24.912008
60.5703 10.296883 6.7280083
60.3453 11.364883 8.043007
51.991302 7.946884 16.37901
49.7653 7.2218857 16.228008
30.3643 55.943886 43.53301
28.9083 54.022884 42.13501
35.4503 44.904884 43.83101
37.5843 43.906887 43.46101
28.9753 96.526886 23.890009
29.3533 96.72789 22.062008
30.8223 91.71289 12.716008
32.0263 93.38489 12.000009
48.6293 35.398895 52.91801
46.8433 36.946884 53.20901
40.9903 42.276886 50.62301
40.0653 43.746887 52.31501
18.6043 89.78589 51.80101
17.9533 88.73289 53.82201
10.4043 84.14289 55.583008
9.6123 85.35389 1.9130058
57.026302 32.91989 7.2450066
56.4063 34.402893 8.381004
61.0443 44.075882 6.388008
60.4413 46.525887 6.5580063
18.0933 7.5258865 42.81001
19.3833 9.460884 43.403008
17.4503 16.955887 35.777008
16.0963 16.383888 33.85201
21.8023 98.50889 14.904008
20.1513 99.124886 16.798008
16.3693 102.529884 23.85501
17.4033 104.03389 24.65601
64.4363 94.07689 54.021008
62.5653 92.92389 54.66801
55.9543 89.71789 54.75401
53.4183 88.516884 54.45501
24.2583 107.252884 26.843008
25.097301 106.15588 29.256008
28.167301 105.61889 34.60101
28.0693 103.43589 36.702007
37.8713 87.21489 47.91401
36.673298 89.251884 48.63001
39.5023 93.58089 40.60101
38.6473 91.77089 41.231007
54.6263 91.18388 12.735008
55.2123 89.04989 11.131004
63.443302 80.78489 13.498009
61.360302 80.51189 11.911003
32.180298 62.984886 11.546005
30.3283 62.763885 12.6760025
27.5293 57.134884 3.4860077
26.7983 54.912888 3.0380058
6.003296 5.0058823 9.346008
3.567299 6.1468887 8.598007
0.09429932 106.68989 7.923008
66.072296 107.68989 6.7400093
27.188301 92.89989 8.383009
28.5793 93.18388 10.019009
18.9773 95.07889 17.534008
19.6893 97.123886 18.575008
22.9213 59.874886 31.27801
23.9993 58.322887 33.06601
26.823301 53.563885 35.64201
25.1333 55.209885 35.17901
26.556301 109.39288 35.59501
25.5083 109.110886 33.840008
32.4223 107.72788 36.904007
33.9033 0.07688141 36.92701
32.9043 98.47588 9.565008
32.7693 96.63089 11.552009
24.9633 99.68489 15.688008
24.528301 101.21789 14.018008
60.8693 63.932888 52.69301
61.8953 64.80189 54.299007
63.9813 64.52389 7.305008
65.449295 64.252884 8.649002
15.9523 84.09089 21.759008
14.8963 84.98389 20.007008
11.908299 95.54689 15.845009
11.6823 96.40089 17.588009
56.5943 60.091885 39.562008
57.4163 59.390884 37.30801
50.9513 49.202885 38.32901
48.610302 49.333885 37.78101
36.5383 42.015884 17.437008
34.4913 41.982895 16.466007
27.4373 41.00688 10.638008
26.830301 41.106888 9.046005
63.5323 1.1948853 48.86301
65.4143 0.9878845 49.15401
2.591301 103.00589 1.2950058
3.2222977 100.51089 0.9790077
60.735302 46.860886 38.015007
58.367302 47.538887 37.868008
56.4513 56.996887 30.88501
55.2043 57.967884 32.953007
44.2923 60.436886 13.251007
44.998302 59.550888 10.784004
54.3923 59.894886 6.1770096
55.999302 57.928886 5.4720078
64.3333 5.7458878 8.255005
63.998302 4.891884 6.444008
0.9562988 9.431885 9.434006
1.763298 11.252884 10.228004
30.6993 87.74089 2.4780083
29.7413 86.984886 0.4690094
27.0623 86.46188 47.01501
26.882301 86.167885 44.752007
54.9543 30.347885 42.285007
53.589302 29.335892 43.333008
43.9193 27.560883 36.710007
43.8553 25.21489 37.27401
2.4263 46.527885 19.530008
2.7733002 48.321884 20.232008
2.8462982 48.628887 31.69101
1.5033035 50.485886 32.042007
34.7413 36.511887 33.31801
35.4703 35.974884 35.909008
44.0373 35.515884 35.548008
44.6873 37.246887 34.55401
42.124302 13.963882 42.94201
41.2663 13.311882 44.583008
43.8823 2.6458817 46.611008
43.4863 3.113884 48.75301
31.5263 48.672886 35.35801
30.3383 50.488888 36.021008
28.5433 57.397884 33.90001
26.5623 57.652885 35.12801
48.9093 104.13489 22.92101
50.874302 104.29989 21.48701
48.846302 2.3788834 14.169008
47.2653 4.450882 14.213008
13.7923 49.881886 31.30901
13.6463 47.873886 31.19401
8.7153 45.360886 41.056007
8.6573 46.967884 42.127007
16.7563 48.585884 53.17601
15.3723 47.838886 51.85501
7.9662995 53.985886 2.1600075
6.3513 55.765884 2.4840088
9.670299 26.187881 6.664009
8.755305 28.07489 7.138008
65.4593 26.100891 3.9680061
64.768295 24.103882 3.7050095
51.3203 66.25789 6.8460083
52.9053 67.94289 6.992008
51.7613 72.59089 54.313007
52.6363 71.90788 52.40501
43.8883 92.33789 17.575008
43.089302 92.51789 20.009008
49.0043 101.59289 24.22601
49.4483 101.724884 26.494009
41.4343 26.57489 37.35801
39.0973 26.261887 37.61001
33.5773 33.486893 35.432007
33.8013 34.366882 37.56801
64.615295 36.17189 48.11701
63.8773 34.43788 46.33001
5.992302 31.944885 42.12801
6.055298 33.10089 39.98201
9.552302 54.652885 5.708008
7.4423018 55.293884 5.0800095
4.936302 62.148888 0.92800903
2.978302 62.409885 2.2010078
31.0373 38.564884 2.4660072
31.695301 39.983887 1.0050087
36.0723 46.238884 54.72401
34.9393 47.327885 0.35300827
56.9443 52.483887 47.62901
55.6643 51.090885 46.576008
51.7663 46.122887 40.661007
52.200302 48.356888 40.87101
46.6663 5.7048874 27.023008
45.0703 4.635887 28.79501
40.1613 106.349884 28.95201
38.6833 105.44889 27.867008
34.1493 77.50388 10.875008
33.0193 78.28389 9.470009
27.8223 83.67889 3.437008
29.9093 85.013885 3.0020065
7.0903015 82.94289 55.36901
7.4033003 83.86689 53.20301
0.7013016 85.762886 45.87601
66.2653 86.81589 45.65001
16.3853 6.2048874 14.724009
14.1313 5.5088882 14.032008
17.459301 15.835884 13.595008
19.1583 14.973885 12.314009
26.9163 21.535889 2.4170074
25.125301 23.274887 2.8650093
14.9073 23.547882 2.8930092
13.2243 24.873886 4.489006
15.6823 51.173885 22.836008
14.8863 50.386887 25.005009
4.2303 53.063885 20.43801
5.1713 54.013885 18.86501
9.106299 87.61789 23.960009
9.448299 88.248886 26.59401
15.6053 84.10489 33.779007
15.686299 82.62289 35.62801
42.0023 62.006886 14.359008
41.9203 63.187885 12.008003
44.408302 74.195885 12.495003
46.3073 75.51189 13.684006
35.3833 57.312885 55.09301
36.1533 58.723885 0.66500854
40.5703 60.222885 9.8040085
42.7523 61.361885 9.065002
66.4663 52.189884 50.597008
66.5403 54.428886 50.23401
64.3983 64.32488 53.660007
63.3343 65.262886 51.93601
42.172302 12.707886 35.640007
40.457302 11.978882 33.92801
48.7243 13.788887 29.51401
49.4273 13.275887 31.54601
30.198301 86.82589 46.42501
29.649302 85.79889 44.43301
29.142302 86.10389 35.80401
29.653301 86.70589 33.60301
26.806301 59.269886 16.566008
28.7313 59.189888 17.588009
31.3043 50.811886 11.283009
31.625301 50.127888 9.206009
12.6263 86.11488 41.632008
11.8573 84.73089 43.36501
17.091301 78.99389 37.37101
17.4723 77.50789 35.84301
6.5353 23.948883 46.69101
7.8722997 24.53389 45.15101
12.3483 34.042892 48.94201
14.6043 34.72589 47.29001
44.2153 24.842896 34.591007
43.1523 22.461884 35.384007
39.8653 15.040886 34.606007
41.499302 15.492882 35.84401
0.22730255 67.39388 16.036007
1.1863022 67.749886 13.912005
10.267299 67.30289 8.957008
11.026301 68.66489 11.088005
38.1123 0.5458832 7.2690086
36.298298 109.42188 8.395004
30.6833 3.0918884 18.602009
29.2323 4.4548874 17.056007
18.9343 88.599884 48.923008
21.0443 89.320885 47.09301
15.2432995 93.21889 37.13101
13.3573 93.89489 37.89201
35.8823 17.863884 47.98801
36.0853 16.625885 50.06601
25.941301 15.858887 49.069008
24.8593 16.931885 47.55001
44.234303 3.2438812 35.57401
43.0993 1.1068878 34.444008
49.6913 102.68989 31.148008
47.8653 102.08989 29.79801
57.2963 98.56189 36.786007
55.5343 98.51989 35.53101
57.3433 107.44089 32.71301
56.6733 109.443886 31.65301
61.3913 26.799896 34.798008
63.3013 26.220886 33.639008
58.9663 19.063889 29.17401
57.7293 18.543884 26.964008
66.0773 91.582886 45.743008
63.8903 90.766884 45.44701
57.5933 90.18989 36.99001
56.4763 89.09489 38.35801
63.4893 31.769882 3.8110085
61.1203 32.674896 4.8300095
62.3623 24.682892 2.9380074
62.4493 27.256882 2.876007
15.6143 109.137886 47.666008
17.0863 0.48888397 49.51101
17.3783 102.498886 46.96601
17.1253 100.73389 45.369007
36.5113 70.75789 32.83701
38.6473 69.81689 33.000008
50.0903 70.93789 29.555008
52.0923 69.792885 29.099009
14.7903 67.32589 55.71601
16.0923 66.30389 1.6080093
7.7462997 58.095886 1.871006
6.9972997 57.978886 55.59201
62.7233 59.372887 23.30601
63.9043 60.859886 24.22901
2.7843018 60.231888 32.897007
2.5173035 58.357887 33.097008
43.4583 65.34289 53.09501
45.624302 64.89388 51.96301
47.9953 55.769886 55.73501
47.6773 53.896885 54.47701
56.3293 18.410889 52.49901
54.7783 19.023895 53.85801
48.1913 24.476883 1.496006
47.2023 22.57489 0.6300087
3.664299 41.560883 12.660004
3.7033005 39.473892 13.587006
8.574306 32.976883 5.0230064
10.731303 33.396896 6.220009
62.7133 71.152885 40.465008
63.3783 70.49489 42.22501
53.200302 69.666885 50.26501
54.193302 71.78489 49.94001
26.955301 13.083885 20.382008
24.2823 13.477882 20.088009
16.3223 21.817886 18.985008
15.0093 20.850891 20.83401
7.5213 15.407883 35.701008
9.1813 14.208885 37.284008
16.4993 13.288887 43.99701
16.9623 11.377884 42.30101
42.6463 104.041885 3.8750076
43.2663 104.859886 6.126007
46.3223 102.67189 1.4400063
48.1503 102.00889 2.5920067
10.2273 3.024887 20.192009
9.2233 1.1758881 18.27101
12.2803 101.70589 14.194008
12.8143 99.598885 14.382009
2.4202995 98.61789 27.29901
3.6132996 97.166885 27.60801
14.7273 103.72789 25.69101
15.5413 103.47588 27.937008
15.804299 95.512886 18.095009
14.6772995 94.80389 16.03201
22.518301 91.84489 8.617004
23.959301 90.598885 10.630005
64.852295 80.93889 50.59601
63.0853 82.236885 50.542007
53.915302 74.27589 50.70301
52.526302 74.82389 52.66301
53.9973 71.55988 30.18801
52.0133 72.73389 30.661009
50.8963 77.63489 40.51201
49.200302 79.764885 40.91401
22.1473 29.536896 43.55801
20.7373 28.524887 41.779007
18.7643 22.14389 34.32201
17.0173 21.370895 34.03801
17.0613 40.684887 20.08701
15.8923 42.060886 21.290009
10.6823 47.216885 27.142008
12.9353 48.432884 25.68401
52.415302 62.746887 29.412008
53.3823 60.787888 30.553009
42.6713 58.904884 30.38501
40.8413 59.992886 31.009008
27.743301 11.109886 18.646008
27.410301 11.965881 16.253006
30.1613 16.686882 7.697006
29.2143 18.363884 9.074005
30.823301 60.778885 18.763008
32.7193 61.317886 20.272009
29.9963 73.54688 19.669008
28.202301 71.985886 19.839008
27.7103 0.7048874 20.91001
28.288301 108.640884 22.523008
28.6863 5.5768814 28.67401
28.056301 5.250885 30.869009
59.4973 104.81689 33.828007
61.589302 104.445885 32.95001
66.2983 103.959885 43.479008
65.2443 102.11689 43.460007
32.6363 79.98289 32.45601
33.6343 78.196884 32.550007
36.1413 71.57989 35.75601
36.3543 72.46589 38.230007
17.3223 33.47888 14.546008
17.5473 33.845886 16.71601
7.8563 32.279892 23.534008
6.8852997 33.570892 22.071009
6.0483 76.53088 3.397007
8.5273 76.44089 3.369007
8.8083 68.01989 51.055008
10.3723 66.29989 51.60701
57.0793 42.690887 51.69201
58.8633 40.71289 51.08401
56.2923 37.797882 40.00501
57.4773 39.856888 39.95001
25.7313 13.307884 14.702008
23.458302 11.844887 14.7640085
25.0993 4.073883 17.43101
26.9823 5.0098877 18.430008
43.8053 102.66988 1.8550072
45.3763 100.97689 3.6860085
40.2513 90.332886 2.9400063
40.8153 89.32389 1.1110077
4.4493027 16.701881 0.8540077
6.624298 16.993881 1.6430092
5.6073 12.465881 12.713005
6.4962997 13.935883 13.629005
44.5993 100.00789 9.102005
42.8413 101.21589 7.0840073
42.505302 93.79689 11.373009
41.6133 92.20089 11.161003
63.8693 102.35389 13.761008
64.4783 101.82489 15.435008
64.6103 2.7698822 17.208008
64.5023 1.4778824 19.569008
36.062298 81.16489 18.338009
33.8103 80.694885 19.887009
27.7943 75.98988 16.92401
27.472301 74.10088 18.28901
11.9453 108.876884 32.08701
12.3123045 106.59489 32.897007
1.9883041 101.90689 27.051008
1.0122986 100.57288 28.83701
48.9743 4.936882 24.165009
48.818302 4.1608887 26.16001
56.1473 1.6328888 33.848007
58.249302 1.325882 33.98901
16.629301 26.076889 19.378008
16.1423 24.279892 20.742008
21.2673 29.346893 27.607008
22.6913 29.771896 29.66401
55.3883 90.18489 18.446009
56.8403 89.44889 17.29901
64.2163 83.39489 23.269009
65.8453 81.45089 22.134008
14.5763 0.46188354 22.71501
16.6573 108.42689 23.741009
22.122301 101.471886 15.329008
22.3903 100.609886 17.66401
27.3903 44.753887 11.731003
27.9503 43.748886 9.601006
25.2393 53.977886 8.328003
26.028301 53.585884 10.776009
11.8793 47.191887 1.6750069
10.172299 45.408886 1.2830086
2.8802996 50.207886 49.229008
3.0382996 48.508884 48.02601
16.5923 48.721886 1.7630081
15.3813 48.393887 55.645008
18.9953 37.206886 52.31101
20.5273 36.008884 53.36201
24.1963 27.583893 17.701008
25.4993 26.417892 18.565008
16.6023 24.08989 16.874008
15.4023 25.272888 15.814009
41.8233 39.721893 12.872008
40.9343 39.13089 14.657008
50.1803 44.287888 21.763008
51.2013 43.184883 23.96901
7.9433 78.666885 5.8180084
9.4663 77.528885 6.7280083
12.5303 74.28489 9.121002
13.6023 71.92589 8.253006
63.4213 13.4268875 22.998009
62.9033 15.764885 22.331009
5.0422974 13.141884 17.786009
3.7243042 10.736885 17.53201
38.6723 6.606888 7.9100075
36.4963 5.361885 8.985008
26.576302 9.241882 7.5840073
25.3393 11.116882 7.730007
13.1603 35.60289 50.78801
14.908299 36.433884 49.47101
20.5923 45.775887 52.83601
22.393301 46.887886 51.97701
13.283299 33.078888 28.189009
12.7913 34.760895 28.82701
12.0733 45.789886 28.537008
13.4943 47.314888 28.530008
4.805298 45.761887 16.054008
5.7222977 43.861885 16.441008
5.834297 36.264893 23.062008
4.3263016 36.56288 21.279009
4.4543 92.36488 25.543009
2.4633026 92.00989 26.24001
67.1753 99.60489 16.632008
66.6313 98.96689 14.980008
54.8833 93.346886 8.849007
56.3243 92.915886 7.0440063
63.6993 98.38289 1.192009
65.5973 98.39489 2.0540085
4.9412994 7.325882 0.50400925
3.7082977 7.030884 54.51001
60.6643 8.136887 4.897007
62.0153 6.8508835 6.4620094
0.53829956 77.22089 34.646008
1.5083008 79.12888 34.640007
8.109302 73.00589 27.319008
9.708301 72.16189 28.280008
19.6613 4.632889 46.41801
21.584301 6.367882 46.43401
27.236301 0.22688293 40.21301
25.267302 0.72088623 39.530006
40.9033 16.578888 2.6740074
42.714302 15.437881 3.1170082
52.1273 18.994888 54.69901
52.214302 20.738892 53.07101
11.750299 36.791885 41.55301
13.0063 37.38188 43.47001
13.1003 29.806885 34.201008
11.007299 29.741882 34.416008
44.6643 104.68489 28.076008
45.2583 106.95189 27.614008
45.1153 2.024887 19.81301
43.2563 1.9688873 21.512009
54.6503 18.93489 23.933008
56.0043 16.282883 24.54901
49.5933 13.655884 15.378008
48.0283 15.757889 15.123009
55.443302 70.47889 53.37801
55.3863 72.51989 55.12901
59.734303 77.304886 47.07101
61.0843 78.71889 48.61901
7.3163 12.496887 16.972008
9.5313 11.311882 17.560009
17.8163 16.450882 22.231009
19.7193 15.171883 21.49001
60.5843 29.866882 43.85001
62.8793 28.33989 44.862007
5.084297 27.442886 39.76201
6.8632965 26.463882 40.659008
21.952301 15.026886 49.71901
24.167301 14.299889 50.68201
19.7953 10.3628845 2.8210068
19.4813 13.027885 4.1910095
59.630302 18.86589 5.890007
60.429302 19.126892 3.6200066
54.6273 22.725891 50.97801
53.984303 24.44989 52.09301
50.1563 33.89389 36.71801
52.3813 32.823883 35.889008
47.8643 23.570892 35.813007
48.2923 21.871887 34.037006
28.8073 97.806885 31.380009
28.6093 99.916885 29.509008
18.2013 102.224884 26.673008
17.8113 102.141884 28.557009
18.4903 34.545883 51.444008
20.6083 33.78389 49.86001
25.0643 25.357895 1.0850067
25.7773 24.550888 54.63101
41.332302 107.12289 22.324009
39.5113 105.61689 22.008009
47.2193 100.97089 14.689009
45.0253 99.40889 13.6720085
34.1773 84.02289 19.259008
35.9733 83.598885 17.765009
45.665302 81.679886 21.012009
47.6253 82.70289 21.942009
13.3073 44.067886 13.903007
12.2253 45.808887 12.857002
10.153299 48.743885 5.430008
8.7293 49.964886 4.352009
28.7323 92.10489 32.86001
26.5343 92.34289 32.923008
18.4203 99.05189 32.909008
17.4833 101.43489 32.674007
19.7373 55.844887 12.712008
18.1643 56.563885 14.473008
11.3603 58.059887 18.815008
12.0773 60.062885 18.21201
55.1693 28.30989 49.41401
55.0573 29.044891 51.73701
64.4193 29.639893 2.996006
66.5023 30.315887 3.4540062
12.5153 20.076889 1.6420059
14.0223 21.142883 3.2590065
24.1663 19.657883 51.98401
24.934301 20.967896 50.08801
40.2583 61.201885 37.76701
41.7943 61.884888 39.58001
41.1483 53.017887 44.57901
40.5593 51.017887 45.008007
9.427302 40.555893 2.513008
7.5992994 40.291885 1.6380081
0.19530487 38.683884 55.562008
0.5223007 36.25589 54.87001
12.2093 101.859886 9.936005
12.934306 104.099884 10.476006
2.2612991 102.960884 6.0510063
2.976303 102.68789 4.060009
26.771301 107.08089 13.237008
25.4913 108.68588 11.747008
15.1573 3.5308838 15.731009
13.8383 2.339882 17.20901
53.4023 58.274887 4.0770073
52.3703 59.985886 4.102009
54.9093 65.248886 47.43901
53.0643 66.13389 47.49701
10.4103 83.738884 3.8590088
12.2983 82.97889 3.2200089
20.952301 77.67289 5.2380066
21.8293 80.03289 5.649006
51.6323 19.791885 26.77801
52.0763 19.375885 24.86101
46.5433 11.372887 19.838009
44.0983 11.197884 19.23701
32.4583 54.553886 13.065002
32.8353 53.276886 11.548004
31.9213 55.741886 1.0000076
30.4883 55.568886 54.813007
24.5553 98.58889 18.658009
24.6943 98.043884 20.781008
22.3633 88.41089 15.303008
21.4633 90.488884 14.265008
30.702301 89.599884 21.04201
32.3973 88.03489 21.522009
35.9983 83.763885 30.38601
38.7743 83.11989 31.02401
26.767302 49.015884 24.635008
29.0233 47.689884 24.70501
34.3543 44.730885 17.649008
33.1133 45.297886 16.11201
48.3353 90.87989 18.638008
49.7803 90.56789 20.198008
56.1003 94.38189 18.822008
58.359303 95.39589 18.880009
29.597301 46.649887 48.917007
27.361301 46.508884 49.24501
27.792301 56.014885 0.5170059
27.9643 58.381886 0.11500931
25.847301 10.898888 51.16201
26.1523 8.950882 50.96001
32.055298 7.103882 39.17701
29.9373 6.132889 38.703007
23.795301 33.974884 44.583008
25.1173 32.86989 46.25201
28.4473 29.646896 54.14301
29.1213 29.753891 0.9450073
19.6993 63.308887 19.40301
20.5473 61.597885 18.03201
18.5603 53.470886 21.531008
20.5623 51.599884 21.687008
46.193302 93.305885 34.757008
48.200302 95.20189 35.377007
54.3913 97.890884 33.008007
55.1893 95.42089 33.787006
2.0162997 108.13188 26.734009
1.8682996 107.12189 24.869009
11.3113 0.09088135 27.776009
12.8213 0.96588135 27.012009
35.8583 70.584885 52.44101
33.7533 70.611885 51.326008
36.8613 70.70189 40.898006
37.3493 72.915886 41.640007
9.5603 18.897888 0.3230095
8.073299 17.576881 54.82501
16.997301 17.354881 46.645008
17.1793 15.663887 45.661007
51.1553 68.12289 47.87101
50.616302 69.443886 50.20701
40.0913 66.77189 51.62101
41.0783 64.404884 51.79501
3.8233032 16.421883 28.183008
5.8332977 17.852882 29.87201
0.64030457 24.845886 37.65101
1.242302 26.959885 37.55301
38.5243 4.1438828 10.199008
37.4743 5.3138885 11.447008
31.5653 8.637886 19.347008
29.858301 7.250885 19.110008
56.1603 88.74489 33.87401
57.5373 89.96389 32.314007
55.9763 87.22989 24.468008
56.7263 86.862885 22.232008
11.2503 37.317886 36.01001
10.685306 38.071884 38.25501
66.4003 40.74489 34.203007
0.2472992 41.58789 32.840008
14.3783 85.28889 38.15701
16.5263 84.42189 37.45501
15.5643 77.21188 46.88301
17.6973 77.27189 47.78701
48.950302 55.724884 3.7010078
50.234303 56.430885 1.8760071
45.5293 67.11488 5.359009
47.860302 66.91988 4.7220078
0.478302 65.85188 53.34201
1.0643005 65.779884 51.50801
61.9313 60.716885 49.18201
60.4743 59.036884 48.95201
36.1603 64.862885 40.80901
37.1863 63.232887 41.840008
34.2453 59.803886 47.43501
32.041298 60.237885 47.83801
29.486301 64.096886 24.929008
27.827301 62.860886 25.416008
19.2383 70.53389 26.967009
17.1323 69.583885 25.81601
6.5903015 79.15889 2.456009
5.0643005 79.78189 1.1880074
2.3852997 76.60789 50.57501
2.4712982 74.59289 49.278008
1.5453033 11.2028885 32.65101
66.5503 11.472885 33.007008
65.0013 21.580887 39.34401
65.1823 23.54889 38.20701
47.6333 106.56489 39.45701
47.2863 106.084885 41.958008
52.4693 99.89589 39.210007
53.9693 101.291885 39.57401
12.8513 61.425888 35.89901
12.4963 62.182888 38.18501
9.8053 70.932884 31.321009
11.5013 72.79889 31.418009
65.3533 65.07989 15.266008
64.5113 64.403885 13.405008
55.9513 58.176888 19.038008
53.4493 59.352886 19.527008
63.867302 43.791885 5.6340065
63.3283 45.890884 6.3470078
8.599299 48.976887 9.608009
8.468303 51.199886 9.727005
29.1133 22.917892 29.26101
30.0963 20.765884 30.85801
37.2073 14.759888 33.35701
35.9633 12.791885 33.974007
31.8813 94.832886 9.643005
30.0203 95.430885 10.761009
27.6573 105.75889 10.360008
28.590302 107.068886 8.5770035
1.8783035 41.112885 20.95201
2.9982986 43.130886 20.659008
5.5832977 49.780888 19.022009
5.489296 51.124886 16.582008
30.7303 89.62189 28.030008
29.8563 88.55189 29.935009
41.1353 93.60589 34.306007
43.0183 93.21889 34.38001
34.8853 81.53989 33.64301
33.4813 83.10389 32.45401
42.2443 83.931885 31.61101
40.5803 82.09289 32.58901
61.1363 38.146896 24.708008
63.505302 38.832886 24.78201
62.4863 44.358887 34.779007
60.2063 44.600883 36.25301
42.1563 23.637894 4.5630074
42.1883 25.498886 5.4830093
47.7773 28.170883 14.308005
46.2303 29.18489 16.02501
2.8253021 13.283882 27.843008
3.4793015 12.179886 26.394009
6.9462967 2.7318878 23.87901
5.9172974 0.5428848 24.866009
7.206299 46.439884 12.557007
5.011299 46.494884 13.357002
66.100296 50.127888 5.888008
0.4933014 51.221886 4.4860077
5.9953003 87.05888 35.83001
4.4012985 85.139885 36.21101
59.3443 85.668884 38.279007
58.484303 83.25689 38.99201
62.9313 105.61789 30.72901
61.9543 103.96289 29.942009
60.0103 102.627884 18.60501
59.7273 100.612885 17.066008
38.4053 40.318886 19.215008
39.7653 41.513885 20.89601
45.3233 43.132885 12.836008
44.533302 44.615887 11.621008
53.540302 65.76989 8.9220085
55.4763 64.38389 8.910008
49.582302 63.767887 19.510008
50.1273 61.564888 20.835009
66.4053 66.40788 12.971008
67.4153 67.208885 11.130005
8.226306 71.46589 9.673004
9.756305 70.67188 8.474007
12.9463 30.209885 10.512009
10.888301 28.955887 10.369003
2.4063034 34.42389 14.506007
2.0972977 35.700882 16.291008
8.877299 10.667885 50.58801
9.3713 12.182884 52.32501
17.3713 6.0298843 46.81501
16.3803 6.774887 44.591007
19.6423 14.942886 26.78101
22.129301 14.983887 26.70901
27.400301 17.941887 36.105007
26.208302 16.962883 38.180008
48.7173 46.68788 38.86501
50.8933 46.296883 38.368008
54.4483 36.26889 35.78901
53.3013 36.889893 37.96301
12.523303 94.430885 34.375008
11.936305 95.137886 32.76701
2.2322998 98.93489 34.585007
3.5623016 98.90989 36.772007
29.2843 35.843887 22.394009
30.931301 34.525894 21.596008
40.374302 34.41089 24.904009
40.8893 32.537888 25.28201
64.8273 75.50789 47.10001
66.629295 74.36789 46.97501
8.026301 68.66089 44.19801
8.0283 70.083885 46.02201
29.5623 13.116882 48.666008
31.7973 13.557884 47.66401
29.285301 16.891884 38.389008
30.1233 18.989883 37.787006
0.4403 49.509888 49.11201
1.0923004 50.458885 51.139008
7.4313 45.731884 2.482006
7.2382965 47.267887 4.9480095
56.4273 7.700882 37.19001
55.2943 6.617882 39.402008
46.7943 7.3108826 45.83201
45.9303 9.567886 45.85601
41.3583 41.209885 30.88501
40.4133 41.47989 28.005009
47.4143 35.970886 34.527008
48.3473 33.961884 34.576008
29.9043 103.154884 53.333008
29.9183 105.03789 52.673008
39.2683 103.02189 2.2750092
38.6753 100.72889 3.2070084
13.2963 35.780884 54.618008
12.2623 37.543884 54.29301
8.0033 36.288895 0.69000626
7.5832996 35.379883 2.8370094
26.0953 1.302887 28.189009
24.465302 0.9718857 26.981009
16.9623 9.090881 21.59801
17.6673 11.366882 22.214008
55.5743 67.304886 33.58901
53.3283 66.570885 33.646008
56.8233 59.563885 26.119009
54.5483 61.001884 25.634008
9.6233 73.88289 40.744007
10.6593 75.16389 42.12901
23.4393 72.389885 43.695007
23.313301 74.39689 42.63701
52.6953 31.273895 2.6180077
50.8123 30.03189 3.0490074
49.3983 33.967896 49.882008
48.0183 35.800888 49.15001
15.7153 73.973885 30.94801
16.0813 75.60088 32.216007
13.4602995 82.10289 21.90701
11.9633 83.08189 23.871008
7.823306 52.251884 5.562008
6.8143005 51.789886 3.6530075
5.8703003 54.937885 52.97001
5.5162964 54.619884 50.60801
54.8163 92.623886 45.51701
53.2203 91.41189 44.430008
47.533302 82.04488 42.63001
46.4003 82.763885 40.74001
40.2573 38.71689 21.479008
38.895298 37.523895 23.01101
32.319298 39.161896 32.31101
32.0263 36.831894 31.68401
49.033302 78.34289 54.58601
51.0143 77.60789 0.32600784
54.693302 86.89889 52.64701
56.4743 87.43789 52.937008
11.9463 75.47989 16.15001
12.9593 75.77089 14.445006
22.5573 77.182884 10.099007
21.4183 78.793884 8.499008
54.755302 4.274887 5.098007
56.5673 3.4448853 3.9400063
49.610302 11.395882 54.83401
49.8653 14.370888 0.11400604
27.879301 23.925888 33.06601
29.1263 21.979889 33.63501
32.2003 28.47789 43.50501
31.691301 26.817886 44.56101
16.6993 28.356888 42.709007
14.6853 26.683884 43.021008
7.7373 33.34088 36.931007
8.5813 33.019882 34.80801
51.9953 100.10889 19.917007
52.811302 101.87888 19.035007
48.1673 105.81489 8.281006
46.505302 106.06389 7.1910095
54.0553 61.738888 32.902008
51.7393 62.031887 34.356007
48.2463 58.136887 44.743008
45.9383 58.157887 44.035007
62.1553 76.404884 7.5280075
60.1533 75.92289 8.757004
67.3463 70.29588 16.308006
1.8162994 69.88589 15.225005
29.070301 35.415894 30.54201
29.8323 36.71588 29.43801
30.6903 38.998886 17.823008
32.9493 40.53589 18.224009
27.9843 72.84589 2.171009
28.1573 72.10789 4.3510094
24.8553 75.44089 12.232002
25.399302 77.16988 14.078006
20.6373 46.347885 24.627008
21.820301 44.617886 25.602009
28.295301 47.140884 35.12101
27.9163 49.451885 36.062008
25.1003 70.375885 38.22601
23.2043 69.73189 36.890007
30.3043 69.21589 27.08701
30.4613 66.807884 27.14301
3.419304 90.48289 37.85201
4.924301 88.76989 39.14201
6.1412964 98.48189 38.12101
