2.892 5.096 0.713
2.552 4.013 1.202
2.529 4.232 1.090
2.741 4.464 0.920
2.622 4.586 0.973
2.862 5.066 0.795
2.940 5.188 0.737
2.406 4.466 1.293
2.518 4.474 1.420
2.911 4.830 1.208
2.796 4.892 1.344
2.845 5.130 0.920
3.165 5.543 1.174
2.520 4.440 1.404
2.630 4.667 1.522
2.707 4.929 1.331
2.785 5.097 1.526
2.913 5.667 1.156
3.081 5.749 1.261
2.621 5.015 1.843
3.047 5.072 1.723
2.838 5.454 1.599
2.864 5.537 1.661
3.132 5.672 1.281
3.277 6.187 1.284
2.978 5.155 1.787
3.123 5.433 1.704
3.057 5.691 1.922
3.031 6.053 1.650
3.205 6.166 1.723
2.967 5.421 2.101
3.001 5.671 2.245
2.983 5.906 2.021
3.180 5.819 1.737
3.132 6.262 1.947
1.555 1.035 3.443
2.251 3.178 3.151
2.052 3.425 3.068
3.019 5.517 2.343
3.045 5.792 2.263
3.196 6.097 2.080
3.106 6.391 2.143
1.351 1.225 3.981
1.997 3.124 3.293
2.239 3.450 3.168
2.278 3.703 3.349
2.585 3.870 3.307
3.174 5.763 2.350
3.078 5.841 2.415
3.283 6.212 2.545
1.247 1.156 4.034
1.997 3.019 3.733
2.307 3.370 3.470
2.407 3.566 3.406
2.235 3.588 3.357
2.441 3.951 3.481
3.152 5.860 2.882
3.107 5.825 2.644
3.328 6.119 2.691
1.352 1.221 4.302
2.285 2.977 3.849
2.200 3.298 3.910
2.133 3.475 3.659
2.333 3.796 3.834
2.572 4.100 3.468
2.627 4.133 3.718
3.178 6.133 2.927
3.154 6.204 2.949
1.562 1.241 4.639
1.908 2.797 4.256
2.323 3.263 4.333
2.227 3.536 3.948
2.282 3.632 3.984
2.393 3.933 4.079
2.373 4.211 3.867
2.472 4.342 3.674
3.251 6.105 3.225
1.911 2.964 4.273
2.129 2.981 4.329
2.228 3.149 4.271
2.407 3.523 4.457
2.386 3.677 4.243
2.399 4.075 4.032
2.498 4.038 4.231
2.408 4.228 3.910
1.936 3.164 4.600
2.033 2.970 4.770
2.342 3.312 4.697
2.166 3.569 4.667
2.520 3.783 4.677
2.479 3.987 4.435
2.705 4.384 4.503
1.937 3.044 4.876
2.274 3.228 4.933
2.337 3.462 4.922
2.383 3.686 4.758
2.499 3.793 4.765
2.336 3.999 4.705
1.960 2.990 5.100
2.083 3.043 4.816
2.120 3.091 5.133
2.345 3.380 5.196
2.167 3.771 5.004
2.491 4.046 4.987
1.836 2.713 5.274
2.094 2.927 5.376
2.139 3.215 5.404
1.278 0.752 0.024
1.043 0.625 0.434
1.310 0.900 0.178
1.294 0.897 0.332
1.640 1.315 0.262
1.497 1.281 -0.127
1.569 1.586 0.032
1.149 0.417 0.620
1.346 0.617 0.394
1.358 0.910 0.613
1.480 1.283 0.342
1.503 1.288 0.474
1.732 1.641 0.206
1.545 1.736 0.371
1.156 0.246 0.882
1.338 0.566 0.859
1.323 1.003 0.599
1.359 1.059 0.768
1.658 1.212 0.601
1.577 1.667 0.458
1.731 1.663 0.590
2.426 3.386 0.168
2.507 3.648 0.005
1.341 0.337 1.041
1.112 0.674 1.093
1.414 1.035 0.885
1.343 1.153 0.924
1.714 1.293 0.929
1.664 1.545 0.751
2.118 3.658 0.449
2.467 3.875 0.168
2.487 3.926 0.382
2.582 4.275 0.265
2.449 4.439 0.197
1.298 0.402 1.403
1.461 0.955 1.151
1.505 0.906 1.319
1.640 1.059 1.118
1.474 1.409 1.056
1.503 1.549 1.163
2.547 3.579 0.488
2.675 3.488 0.411
2.869 3.778 0.039
2.845 4.056 0.283
2.820 4.329 0.112
1.433 0.592 1.382
1.389 0.571 1.267
1.793 1.033 1.060
1.574 1.093 1.207
1.950 1.435 0.970
2.030 1.563 1.022
2.319 3.311 0.797
2.689 3.451 0.712
2.501 3.686 0.632
2.674 3.788 0.598
2.963 4.226 0.313
2.827 4.314 0.324
2.799 4.469 0.338
1.479 0.683 1.596
1.546 0.884 1.320
1.875 1.221 1.439
1.965 1.625 1.308
2.466 3.161 0.817
2.491 3.615 0.939
2.793 3.642 0.958
2.709 3.998 0.591
2.787 4.364 0.606
2.872 4.271 0.533
3.168 4.659 0.431
2.467 3.268 1.184
2.569 3.702 1.077
2.819 3.730 1.143
2.714 4.157 0.756
2.687 4.403 0.984
2.766 4.401 0.807
2.934 4.857 0.773
3.191 5.003 0.544
2.813 3.553 1.308
2.817 3.769 1.225
2.829 4.135 0.994
2.981 4.257 0.944
3.069 4.498 1.081
2.952 4.901 0.787
3.023 5.037 0.688
3.048 5.420 0.897
2.704 4.070 1.335
2.649 4.074 1.499
2.987 4.298 1.193
2.998 4.584 1.296
2.913 4.830 1.257
3.264 5.040 1.147
3.263 5.311 0.935
2.713 4.185 1.679
3.032 4.547 1.604
3.184 4.679 1.657
3.155 5.040 1.255
3.042 5.169 1.348
3.234 5.242 1.209
3.170 5.818 1.203
2.845 4.425 1.632
2.887 4.948 1.627
3.003 5.172 1.716
3.270 5.172 1.608
3.099 5.366 1.548
3.351 5.566 1.587
3.285 5.983 1.181
3.367 6.037 1.334
2.938 5.008 2.133
3.184 5.024 1.879
3.201 5.425 1.905
3.350 5.380 1.663
3.485 5.896 1.604
3.278 5.894 1.411
3.406 6.080 1.600
1.692 0.808 3.284
3.321 5.153 2.045
3.084 5.511 2.213
3.329 5.668 1.913
3.502 5.838 1.878
3.527 6.214 1.885
1.721 0.864 3.631
3.224 5.300 2.457
3.268 5.311 2.322
3.233 5.567 2.191
3.399 5.878 2.311
3.382 5.978 2.237
1.489 1.145 3.899
1.839 1.194 3.927
2.450 3.385 3.149
2.669 3.569 3.275
3.172 5.477 2.599
3.242 5.811 2.422
3.395 5.967 2.396
3.594 6.092 2.180
1.728 0.944 4.287
1.751 1.286 3.840
2.358 3.180 3.539
2.410 3.308 3.593
2.548 3.519 3.471
2.644 3.985 3.282
3.556 6.020 2.715
3.519 6.221 2.602
1.611 1.111 4.219
2.258 3.155 3.922
2.345 3.362 3.893
2.628 3.494 3.762
2.667 3.558 3.749
2.701 3.809 3.513
2.845 3.984 3.561
3.256 6.104 2.872
3.354 6.009 2.942
1.844 1.167 4.750
2.403 2.966 4.273
2.436 3.179 4.144
2.649 3.229 4.266
2.416 3.420 3.871
2.626 3.777 3.857
2.856 3.852 4.015
2.691 4.093 3.642
2.147 2.762 4.411
2.243 2.806 4.460
2.308 3.255 4.285
2.422 3.270 4.215
2.752 3.766 4.265
2.682 3.836 4.318
2.649 4.129 4.087
2.940 4.289 4.150
2.239 2.784 4.539
2.173 3.182 4.800
2.411 3.234 4.796
2.443 3.347 4.753
2.670 3.824 4.646
2.793 4.038 4.355
2.627 4.029 4.493
2.954 4.460 4.128
2.234 2.822 4.958
2.258 3.152 4.721
2.351 3.011 4.882
2.373 3.286 4.849
2.717 3.558 4.694
2.509 3.819 4.857
2.607 4.099 4.737
2.682 4.342 4.512
2.218 2.694 5.088
2.469 2.938 4.969
2.522 3.176 5.111
2.592 3.303 5.321
2.510 3.562 4.929
2.757 3.969 5.022
2.725 4.192 5.023
2.119 2.706 5.317
2.301 3.124 5.476
2.528 3.299 5.263
1.341 0.483 0.064
1.438 0.716 0.089
1.404 0.136 0.539
1.281 0.288 0.344
1.394 0.762 0.470
1.702 0.762 0.344
1.614 0.905 0.091
1.951 1.358 0.061
1.803 1.554 0.107
1.280 0.106 0.568
1.642 0.500 0.708
1.496 0.843 0.524
1.792 0.900 0.308
1.861 1.211 0.503
1.631 1.254 0.165
1.778 1.528 0.201
1.740 1.835 0.591
1.516 0.186 1.019
1.606 0.653 0.748
1.732 0.634 0.850
1.787 1.100 0.840
1.603 1.313 0.596
1.675 1.275 0.508
1.789 1.646 0.575
2.730 3.582 0.037
1.316 0.565 1.190
1.392 0.739 1.085
1.489 0.848 1.085
1.621 0.902 0.951
1.696 1.486 1.010
1.761 1.618 0.601
2.445 3.218 0.364
2.581 3.456 0.405
2.593 3.871 0.203
2.913 4.210 0.180
2.999 4.375 -0.096
1.372 0.332 1.341
1.679 0.556 1.201
1.563 0.940 1.057
1.756 1.200 1.177
1.986 1.362 1.018
1.766 1.628 0.982
2.679 3.312 0.373
2.983 3.654 0.491
3.073 3.761 0.089
3.173 4.023 0.278
1.875 0.325 1.557
1.669 0.657 1.364
1.983 0.709 1.361
2.008 1.074 1.265
1.967 1.454 1.259
2.872 3.061 0.806
2.664 3.442 0.648
2.942 3.718 0.718
2.902 3.687 0.432
3.122 3.918 0.344
3.243 4.214 0.324
2.798 3.066 0.895
2.966 3.326 0.720
2.756 3.555 0.854
3.001 4.038 0.773
3.217 4.283 0.527
3.200 4.477 0.556
3.068 4.740 0.545
2.735 3.430 1.067
2.760 3.490 0.943
2.821 3.915 0.971
3.019 3.947 1.088
3.175 4.251 0.989
3.342 4.591 0.913
3.264 4.588 0.796
3.486 4.879 0.584
2.793 3.415 1.356
2.882 3.733 1.225
2.872 3.832 1.190
3.165 3.896 1.332
3.279 4.354 1.016
3.284 4.364 1.187
3.364 4.782 0.807
3.428 4.872 0.976
3.371 5.267 0.935
2.961 3.768 1.654
2.997 3.883 1.472
2.902 4.068 1.521
3.085 4.172 1.164
3.046 4.736 1.299
3.260 4.852 1.100
3.464 5.206 1.268
3.594 5.319 0.970
3.726 5.332 0.980
3.108 3.954 1.717
3.002 4.187 1.491
3.268 4.270 1.506
3.094 4.768 1.620
3.438 4.771 1.381
3.458 4.995 1.322
3.343 5.413 1.183
3.469 5.671 1.227
3.496 5.866 1.215
3.143 4.672 1.804
3.352 4.663 1.774
3.168 5.009 1.760
3.243 5.058 1.400
3.590 5.292 1.320
3.465 5.583 1.255
3.763 5.904 1.343
3.691 6.209 1.278
3.178 4.922 2.161
3.454 4.849 1.793
3.350 5.109 1.825
3.624 5.640 1.896
3.642 5.630 1.841
3.603 5.744 1.662
3.944 6.298 1.330
1.924 0.660 3.472
1.787 0.838 3.497
3.494 5.118 2.325
3.481 5.467 2.114
3.513 5.392 1.934
3.610 5.848 1.849
3.546 6.141 1.869
3.879 6.182 1.648
1.772 0.850 3.669
1.776 1.210 3.706
3.526 5.429 2.232
3.512 5.473 2.309
3.494 5.925 2.028
3.790 6.016 2.071
1.970 1.019 3.950
2.033 0.950 3.825
3.588 5.658 2.715
3.776 5.799 2.540
3.763 5.980 2.208
3.582 6.265 2.131
2.004 0.997 4.210
2.090 1.340 4.176
2.860 3.463 3.500
2.765 3.536 3.404
3.062 3.805 3.513
3.489 5.951 2.839
3.547 5.853 2.603
3.842 6.120 2.675
2.050 1.239 4.343
2.777 3.297 3.923
2.859 3.292 3.970
2.880 3.434 3.670
2.895 3.757 3.573
3.126 4.231 3.660
3.666 6.255 2.979
2.603 2.943 4.175
2.555 3.221 3.993
2.709 3.470 3.956
2.682 3.769 3.833
2.837 3.725 3.828
2.993 4.315 3.808
2.941 4.255 3.699
2.416 2.877 4.556
2.468 3.043 4.331
2.614 3.196 4.232
2.870 3.622 4.414
2.801 3.848 4.073
2.913 3.950 4.050
3.091 4.324 4.027
3.253 4.252 4.137
2.591 2.751 4.469
2.466 2.936 4.786
2.508 3.320 4.769
2.737 3.345 4.751
2.903 3.523 4.332
2.965 3.804 4.507
2.933 3.954 4.369
2.915 4.203 4.407
2.982 4.681 4.266
2.618 2.520 4.658
2.750 2.763 4.621
2.625 3.174 4.864
2.635 3.145 5.044
2.704 3.606 4.760
2.731 3.739 4.717
2.819 3.899 4.708
3.093 4.129 4.460
3.141 4.183 4.363
2.557 2.428 5.187
2.572 2.820 5.037
2.616 3.171 4.845
2.645 3.261 5.302
2.591 3.402 5.036
2.642 3.575 4.964
3.019 3.861 5.157
2.989 4.110 4.851
2.903 4.184 4.947
2.363 2.478 5.546
2.306 2.630 5.210
2.408 2.817 5.363
2.601 3.102 5.122
1.429 -0.046 0.099
1.618 0.289 -0.043
1.769 0.367 -0.104
1.773 0.040 0.588
1.599 0.307 0.263
1.800 0.369 0.459
1.924 0.920 0.167
1.945 0.818 0.177
2.177 1.318 0.050
2.034 1.531 0.146
1.477 0.138 0.737
1.852 0.283 0.501
1.809 0.530 0.380
1.697 0.948 0.424
1.951 1.038 0.359
2.069 1.468 0.447
2.037 1.521 0.312
1.475 0.128 0.896
1.788 0.154 1.002
1.635 0.472 0.674
1.895 0.763 0.835
2.077 0.826 0.613
1.930 1.014 0.548
2.021 1.192 0.550
1.709 0.489 1.201
1.841 0.590 1.154
1.793 0.664 1.130
1.895 0.898 0.951
1.889 1.147 0.974
1.928 1.257 0.699
2.788 3.314 0.332
2.733 3.521 0.373
2.823 3.604 0.107
3.160 3.884 0.192
1.684 0.352 1.463
1.656 0.473 1.429
1.946 0.788 1.091
1.900 1.186 1.248
2.063 1.418 0.924
2.912 3.337 0.410
3.072 3.625 0.308
2.990 3.754 0.062
2.174 0.507 1.491
2.156 0.902 1.263
3.117 3.076 0.655
3.197 3.347 0.742
3.003 3.544 0.700
3.361 3.618 0.540
3.364 3.994 0.357
3.065 2.904 1.024
2.956 3.314 1.026
2.874 3.227 0.852
2.982 3.430 0.618
3.202 3.929 0.561
3.224 4.223 0.584
3.423 4.440 0.401
2.907 3.020 1.299
3.077 3.215 1.103
3.025 3.468 1.219
3.022 3.682 1.165
3.198 3.733 1.040
3.413 4.015 1.040
3.588 4.306 0.761
3.626 4.663 0.888
2.813 2.982 1.580
3.058 3.353 1.452
3.289 3.704 1.473
3.283 3.789 1.263
3.403 4.120 1.340
3.219 4.365 1.278
3.525 4.562 1.121
3.461 4.779 0.855
3.707 4.745 0.909
2.953 3.433 1.795
3.197 3.713 1.707
3.309 3.645 1.427
3.225 3.903 1.316
3.330 4.275 1.326
3.621 4.331 1.110
3.711 4.885 1.026
3.735 4.825 1.145
3.639 5.080 0.851
3.833 5.494 0.996
3.046 3.827 1.643
3.479 4.142 1.848
3.221 4.198 1.568
3.380 4.508 1.517
3.629 4.718 1.319
3.542 5.074 1.473
3.581 5.359 1.187
3.962 5.418 1.010
3.730 5.790 1.216
3.321 4.389 1.811
3.638 4.701 1.680
3.449 4.953 1.693
3.833 5.003 1.745
3.790 5.251 1.389
3.766 5.421 1.569
3.946 5.741 1.274
4.147 6.172 1.173
1.895 0.509 3.029
3.611 4.645 1.799
3.566 4.947 1.810
3.858 5.272 1.906
3.866 5.379 1.832
3.802 5.436 1.802
3.889 6.016 1.576
4.062 5.893 1.468
2.190 0.678 3.319
2.281 0.891 3.141
2.226 1.064 3.422
3.790 4.952 2.159
3.612 5.374 2.116
3.936 5.481 1.843
3.746 5.624 2.044
3.933 5.807 1.657
4.012 6.099 1.871
2.240 0.611 3.472
2.130 0.962 3.691
2.109 1.056 3.447
3.769 5.167 2.305
3.772 5.496 2.181
3.828 5.926 2.103
4.109 6.125 1.940
3.989 6.394 1.901
1.966 0.996 4.003
2.227 1.118 3.964
2.244 1.234 3.623
3.744 5.673 2.292
3.997 5.751 2.253
4.017 6.030 2.179
1.956 0.939 4.091
2.284 1.226 4.075
2.393 1.304 4.116
3.786 6.024 2.459
4.130 6.035 2.454
2.233 1.053 4.247
2.395 1.226 4.138
2.972 3.412 3.795
3.044 3.352 3.865
3.030 3.685 3.530
3.220 4.049 3.429
2.783 3.071 3.970
2.955 3.433 4.229
3.235 3.645 3.890
3.346 3.900 3.941
3.365 3.924 3.894
3.439 4.264 3.882
2.762 3.173 4.458
2.973 3.369 4.188
3.233 3.598 4.116
3.173 3.772 4.130
3.064 3.929 4.161
3.150 4.065 4.193
3.475 4.203 4.059
3.573 4.443 3.890
2.774 2.716 4.851
2.978 3.149 4.804
3.090 3.363 4.678
3.248 3.410 4.417
3.100 3.891 4.462
3.310 3.871 4.359
3.136 4.333 4.381
3.555 4.561 4.107
3.437 4.558 4.015
2.913 2.753 4.897
2.969 2.903 4.966
3.097 3.035 4.774
2.901 3.384 4.746
3.082 3.668 4.887
3.110 3.812 4.835
3.132 4.081 4.713
3.467 4.161 4.602
3.447 4.595 4.552
2.616 2.725 5.118
3.040 3.000 4.887
2.782 2.820 5.354
2.803 3.289 5.256
3.029 3.310 5.124
3.087 3.492 5.076
3.074 3.845 4.972
3.150 4.045 4.932
3.246 4.458 4.907
2.493 2.342 5.288
2.664 2.729 5.268
2.853 2.808 5.477
2.769 2.906 5.144
1.801 0.184 -0.026
1.970 0.269 0.037
1.756 0.177 0.305
1.901 0.244 0.532
2.154 0.481 0.198
2.057 0.798 0.212
2.135 0.760 -0.043
2.101 0.965 0.153
2.508 1.417 0.329
2.034 0.000 0.712
2.134 0.495 0.456
2.043 0.574 0.488
2.157 0.733 0.571
2.349 1.074 0.261
2.132 1.189 0.329
2.406 1.509 0.314
2.000 0.336 1.040
2.055 0.302 0.678
2.059 0.569 0.678
2.247 0.853 0.716
2.156 0.954 0.569
2.161 1.341 0.508
1.965 0.078 1.189
2.096 0.299 1.140
1.835 0.419 1.081
2.092 0.800 0.883
2.051 0.793 1.106
2.167 1.083 0.678
3.160 3.327 0.358
2.899 3.466 0.310
3.304 3.725 0.264
2.122 0.512 1.146
1.945 0.772 1.123
3.179 2.809 0.624
3.158 2.978 0.880
3.391 3.105 0.759
3.328 3.494 0.504
3.268 3.832 0.420
3.108 2.486 1.223
3.185 2.907 0.888
3.365 3.141 1.028
3.250 3.337 0.854
3.530 3.441 0.896
3.524 3.584 0.864
3.715 3.878 0.799
3.237 2.624 1.171
3.211 2.773 1.279
3.111 3.101 1.114
3.216 3.304 1.272
3.388 3.523 0.907
3.406 3.964 0.846
3.716 4.078 0.771
3.563 4.316 0.948
3.020 2.859 1.414
3.264 3.095 1.682
3.397 3.219 1.484
3.415 3.394 1.424
3.440 3.664 1.164
3.489 3.806 1.304
3.590 3.984 1.272
3.610 4.416 0.992
3.732 4.645 1.061
3.150 2.827 1.796
3.332 3.203 1.578
3.340 3.106 1.722
3.403 3.411 1.496
3.452 3.577 1.379
3.404 3.957 1.420
3.469 4.269 1.208
3.839 4.565 1.357
3.911 4.486 1.031
3.903 4.691 0.942
3.220 3.549 1.884
3.487 3.958 1.682
3.487 3.984 1.526
3.744 4.345 1.490
3.790 4.521 1.541
3.633 4.827 1.384
3.994 5.066 1.452
4.118 5.162 1.094
4.055 5.320 1.205
3.940 5.646 0.954
3.684 4.159 1.837
3.678 4.513 1.629
3.807 4.655 1.744
3.990 4.960 1.691
3.946 5.172 1.685
3.952 5.462 1.491
4.292 5.721 1.417
4.262 6.090 1.419
2.355 0.506 3.223
2.359 0.699 3.235
2.572 1.102 3.128
3.848 4.754 1.771
3.987 5.100 1.774
4.099 5.467 1.914
4.035 5.480 1.634
4.004 5.635 1.503
4.127 6.108 1.348
2.278 0.697 3.301
2.387 0.731 3.208
2.522 0.991 3.197
2.473 1.206 3.144
3.813 5.022 2.107
4.025 5.280 2.127
4.113 5.474 1.914
4.160 5.663 1.992
4.344 6.115 1.798
2.166 0.854 3.700
2.584 0.715 3.569
2.330 1.156 3.308
2.432 1.457 3.220
4.173 5.448 2.389
4.092 5.645 2.332
4.043 5.793 2.113
4.433 6.101 1.871
2.221 0.558 3.849
2.523 1.139 3.780
2.490 1.055 3.589
2.613 1.546 3.714
4.089 5.702 2.533
4.313 5.933 2.263
4.184 6.120 2.045
2.211 0.739 4.057
2.468 1.194 4.217
2.440 1.285 3.965
4.275 6.165 2.691
4.294 6.320 2.535
2.232 0.865 4.208
2.643 1.096 4.408
3.190 3.515 3.754
3.519 3.621 3.817
3.541 3.990 3.556
3.547 4.131 3.524
3.085 3.170 3.865
3.205 3.397 3.898
3.596 3.585 3.983
3.343 4.101 3.951
3.457 4.227 3.647
3.489 4.455 3.522
3.244 3.094 4.328
3.191 3.188 4.278
3.248 3.650 4.074
3.632 3.975 4.192
3.350 3.977 3.976
3.485 4.141 4.069
3.720 4.606 3.945
3.226 2.812 4.535
3.400 3.326 4.778
3.470 3.526 4.427
3.308 3.723 4.465
3.414 3.837 4.287
3.474 4.198 4.258
3.525 4.455 4.090
3.730 4.643 4.086
3.947 4.866 4.230
3.111 2.745 5.101
3.138 3.239 4.985
3.322 3.217 4.878
3.382 3.639 4.850
3.599 3.628 4.765
3.396 3.921 4.624
3.580 4.017 4.693
3.675 4.353 4.326
3.785 4.801 4.222
3.740 4.680 4.445
3.120 3.012 5.047
3.258 2.773 5.313
3.185 3.201 4.972
3.106 3.423 5.168
3.187 3.611 5.002
3.540 3.993 4.966
3.419 4.021 4.830
3.431 4.299 4.662
3.554 4.431 4.539
2.878 2.581 5.293
3.162 2.784 5.302
2.948 2.990 5.225
2.087 0.260 0.237
2.100 0.148 -0.082
2.022 0.036 0.287
2.300 0.288 0.264
2.513 0.590 0.244
2.257 0.746 0.173
2.344 1.059 0.223
2.079 0.242 0.586
2.448 0.611 0.653
2.416 0.810 0.481
2.521 0.725 0.350
2.600 1.030 0.251
2.256 0.111 0.749
2.255 0.450 0.856
2.442 0.369 0.752
2.325 0.881 0.701
2.546 1.100 0.489
2.004 0.314 0.991
2.116 0.438 1.129
2.172 0.640 0.918
2.312 0.749 0.899
3.385 2.333 0.929
3.290 2.711 0.809
3.480 2.770 0.883
3.334 3.198 0.483
3.718 3.265 0.508
3.134 2.237 1.170
3.125 2.594 1.286
3.207 2.845 1.040
3.587 3.030 1.016
3.431 3.351 0.744
3.759 3.445 0.806
3.769 3.807 0.824
3.202 2.563 1.429
3.406 2.681 1.256
3.213 2.717 1.095
3.497 3.050 1.101
3.468 3.195 1.038
3.484 3.552 1.168
3.884 3.792 0.925
3.799 3.936 0.748
3.173 2.149 1.574
3.276 2.508 1.660
3.311 2.627 1.676
3.305 2.821 1.362
3.670 3.057 1.255
3.724 3.289 1.496
3.487 3.763 1.425
3.778 3.946 1.153
3.724 4.183 1.121
3.940 4.097 0.978
3.221 2.188 1.903
3.331 2.534 1.791
3.295 2.763 1.768
3.424 2.834 1.668
3.372 3.055 1.532
3.415 3.521 1.435
3.661 3.647 1.346
3.750 3.899 1.334
3.924 4.111 1.360
4.037 4.504 1.118
3.470 2.775 2.032
3.449 2.916 1.967
3.619 3.041 2.092
3.492 3.211 2.016
3.738 3.688 1.852
3.725 3.854 1.734
3.662 3.954 1.786
4.329 5.145 1.481
4.453 5.234 1.263
4.470 5.443 1.290
4.423 5.680 1.360
2.436 0.388 3.098
2.563 0.796 2.936
2.836 0.827 3.140
2.902 1.153 2.845
2.682 1.175 2.888
2.900 1.696 2.766
4.102 5.396 1.717
4.225 5.385 1.777
4.260 5.767 1.713
4.451 5.934 1.601
2.452 0.427 3.385
2.753 0.810 3.437
2.580 0.986 3.070
2.840 1.118 3.290
3.002 1.384 3.114
2.964 1.614 3.116
4.414 5.644 1.871
4.587 5.865 1.958
4.489 6.114 1.690
2.714 0.398 3.660
2.521 0.893 3.625
2.882 0.903 3.345
2.734 1.184 3.370
2.964 1.604 3.240
2.879 1.617 3.360
4.350 5.614 2.188
4.622 5.875 2.023
4.715 6.144 2.028
2.616 0.644 3.930
2.606 0.701 3.726
2.700 1.205 3.863
2.790 1.275 3.516
3.095 1.717 3.748
4.375 5.991 2.477
4.422 6.160 2.363
2.493 0.718 4.136
2.688 0.813 4.163
2.776 1.203 3.804
2.855 1.489 3.993
2.626 0.867 4.457
2.595 1.183 4.203
2.856 1.347 4.346
3.476 3.514 3.527
3.548 3.737 3.591
3.937 4.199 3.627
3.433 3.530 3.991
3.720 3.553 4.000
3.678 3.936 3.824
3.834 4.063 3.624
3.934 4.474 3.524
4.087 4.460 3.711
3.395 3.453 4.195
3.702 3.367 4.050
3.767 3.750 4.115
3.696 3.799 3.928
3.731 4.276 4.062
4.007 4.577 3.855
4.074 4.665 3.928
3.926 4.843 3.745
3.362 3.007 4.630
3.615 3.353 4.350
3.747 3.494 4.626
3.859 3.779 4.231
3.970 4.064 4.239
3.853 4.144 4.050
4.109 4.544 4.276
3.942 4.856 4.140
4.235 4.937 3.879
3.311 3.122 4.656
3.717 3.329 4.918
3.621 3.730 4.678
3.562 3.744 4.719
3.946 4.068 4.453
3.927 4.410 4.422
4.025 4.557 4.453
4.199 4.843 4.455
3.985 4.947 4.345
4.123 5.179 4.103
3.477 3.158 5.243
3.612 3.609 4.886
3.489 3.846 4.739
3.583 3.907 4.933
3.955 4.227 4.787
4.082 4.414 4.737
4.010 4.459 4.618
4.160 4.686 4.518
3.977 5.177 4.359
4.286 5.182 4.199
2.480 0.100 -0.043
2.314 0.090 0.262
2.593 0.358 0.212
2.475 0.493 0.053
2.722 0.565 0.106
2.562 0.034 0.546
2.424 0.451 0.485
2.475 0.416 0.424
2.611 0.111 0.893
2.603 0.623 0.694
2.657 0.796 0.733
2.503 0.032 1.141
2.605 0.366 0.984
2.473 0.327 1.023
-0.139 1.558 4.986
-0.051 1.681 5.019
-0.096 1.701 5.479
0.020 1.792 5.563
0.077 1.770 6.103
-0.083 1.807 5.656
0.033 1.595 4.475
-0.102 1.025 4.642
0.150 1.314 4.841
0.065 1.352 4.539
0.005 1.111 5.179
-0.005 1.212 4.875
0.212 1.608 5.060
-0.017 0.916 5.219
0.004 1.180 5.416
0.280 1.566 5.358
0.437 1.588 5.107
0.008 0.931 5.625
0.255 1.222 5.699
0.062 1.540 5.353
0.343 1.571 5.297
0.009 1.010 5.810
0.155 1.426 5.852
0.201 1.511 5.818
0.235 1.635 5.555
-0.015 0.965 6.109
-0.088 1.330 5.963
0.320 1.426 6.140
0.116 1.588 5.988
0.368 1.741 5.712
0.267 0.907 4.535
0.176 0.960 4.308
0.386 1.337 4.547
0.167 0.627 4.939
0.435 0.975 4.925
0.193 1.375 4.545
0.296 1.604 4.786
0.036 0.748 5.163
0.261 1.000 5.039
0.260 0.917 4.869
0.428 1.356 4.865
0.443 1.458 4.807
0.033 0.686 5.403
0.114 0.717 5.538
0.385 1.143 5.311
0.290 1.158 5.260
0.516 1.383 5.080
0.031 0.421 5.664
0.075 0.789 5.630
0.283 1.040 5.448
0.520 1.136 5.521
0.624 1.435 5.476
0.495 1.467 5.215
0.161 0.503 6.121
0.168 0.496 6.134
0.307 0.766 5.877
0.487 0.989 5.884
0.202 1.374 5.826
0.611 1.623 5.727
0.489 1.773 5.684
0.185 0.523 6.297
0.318 0.761 6.175
0.371 1.162 6.032
0.484 1.468 6.163
0.353 1.752 5.913
0.615 1.726 6.019
0.043 6.189 0.143
-0.089 6.035 0.126
-0.011 6.231 0.527
0.220 5.976 0.958
0.077 6.250 1.023
0.004 5.984 1.525
-0.036 6.160 1.730
0.127 6.238 1.975
-0.018 6.186 2.214
0.207 6.077 2.401
0.154 6.101 2.808
-0.132 6.254 3.310
-0.132 6.112 3.503
0.361 5.685 0.152
0.321 5.936 0.189
0.286 5.778 0.301
0.196 6.209 0.469
0.117 5.911 0.662
0.282 6.124 0.466
0.396 6.156 0.420
0.019 5.770 0.939
0.061 5.991 0.842
0.144 6.101 0.855
0.064 5.437 1.450
0.043 5.685 1.117
0.333 5.991 0.996
0.485 6.285 1.088
0.121 5.409 1.593
0.066 5.499 1.632
0.114 5.927 1.556
0.212 5.913 1.333
0.497 6.248 1.166
0.032 5.543 1.744
0.035 5.666 1.658
0.179 5.921 1.707
0.240 6.123 1.539
0.285 6.365 1.584
0.222 5.479 2.102
0.128 5.617 2.138
0.310 6.051 1.947
0.452 6.155 1.797
0.090 5.569 2.353
0.226 5.764 2.140
0.354 6.080 2.367
0.223 6.281 2.218
-0.072 5.210 2.612
0.158 5.617 2.703
0.330 5.852 2.463
0.368 6.115 2.378
0.307 6.291 2.250
0.093 5.555 2.781
-0.034 5.613 2.962
0.383 5.830 2.659
0.442 6.166 2.600
0.252 5.691 3.312
0.036 5.680 2.963
0.256 6.094 2.902
0.391 6.262 2.748
0.209 5.540 3.504
0.344 5.803 3.353
0.129 6.167 3.343
0.431 5.922 -0.017
0.499 5.938 0.522
0.586 5.913 0.271
0.762 6.115 0.038
0.496 5.577 0.531
0.611 6.020 0.710
0.655 6.122 0.579
0.459 5.826 0.993
0.493 6.082 0.678
0.604 6.253 0.822
0.301 5.446 1.213
0.474 5.520 1.136
0.561 5.714 1.171
0.709 5.981 1.048
0.519 6.118 0.829
0.294 5.257 1.599
0.440 5.426 1.596
0.432 5.773 1.398
0.468 5.808 1.569
0.512 6.280 1.185
0.237 4.700 2.160
0.165 5.024 1.957
0.419 5.290 1.820
0.428 5.344 1.711
0.281 5.615 1.739
0.489 5.917 1.471
0.474 6.119 1.534
0.033 4.780 2.332
0.099 5.012 2.232
0.324 5.053 2.257
0.344 5.312 1.948
0.269 5.731 2.079
0.478 5.835 2.127
0.682 6.116 1.839
0.460 6.459 1.660
0.001 4.672 2.623
0.204 4.892 2.416
0.310 5.340 2.388
0.298 5.455 2.254
0.541 5.725 2.336
0.407 6.044 2.147
0.371 6.284 2.278
0.074 4.765 3.009
0.189 4.805 2.930
0.067 5.015 2.613
0.090 5.200 2.563
0.180 5.402 2.702
0.500 5.684 2.488
0.415 5.911 2.606
0.737 6.329 2.343
0.237 5.050 3.245
0.152 5.004 2.827
0.151 5.419 3.064
0.478 5.443 3.000
0.531 5.954 2.603
0.355 6.070 2.715
0.226 4.902 3.241
0.406 5.336 3.181
0.204 5.338 3.023
0.330 5.642 2.970
0.306 5.709 2.928
0.161 5.556 3.475
-0.065 4.684 5.065
-0.113 3.671 0.494
0.808 6.025 0.273
0.825 6.354 0.119
0.851 5.665 0.475
0.669 5.884 0.693
0.747 6.141 0.452
0.715 5.576 0.819
0.793 5.711 0.972
0.979 6.229 0.640
0.451 5.531 1.146
0.636 5.810 1.161
0.729 6.093 1.170
0.715 6.170 0.871
0.366 5.166 1.802
0.421 5.278 1.659
0.807 5.420 1.305
0.547 5.974 1.225
0.797 5.943 1.483
0.953 6.344 1.146
0.357 4.648 2.008
0.210 4.690 2.062
0.462 4.966 1.994
0.526 5.098 1.817
0.730 5.520 1.907
0.784 5.666 1.739
0.878 5.819 1.719
0.785 5.988 1.591
0.262 4.289 2.366
0.121 4.577 2.268
0.264 4.936 2.390
0.562 5.251 2.344
0.538 5.144 2.158
0.666 5.409 2.164
0.787 5.818 1.932
0.744 5.949 1.716
0.896 6.344 1.659
0.079 4.232 2.574
0.216 4.559 2.830
0.463 4.648 2.419
0.494 4.831 2.326
0.509 5.086 2.313
0.370 5.254 2.383
0.810 5.699 2.167
0.692 5.877 2.027
0.877 5.979 2.001
0.214 4.684 3.078
0.265 4.668 2.817
0.227 4.906 2.658
0.406 5.372 2.580
0.501 5.530 2.638
0.647 5.584 2.592
0.745 6.016 2.298
0.204 4.729 3.025
0.508 5.016 2.922
0.353 4.992 2.898
0.585 5.333 3.082
0.558 5.525 2.893
0.628 5.580 2.898
0.327 4.734 3.268
0.538 5.196 3.052
0.506 5.384 2.988
0.806 5.567 3.159
-0.126 3.992 4.918
-0.011 4.143 4.918
0.116 3.855 4.885
0.013 4.177 5.166
0.043 4.219 5.279
0.250 4.491 5.180
0.309 4.798 5.119
-0.037 4.195 5.239
-0.024 4.009 0.318
-0.039 4.266 0.048
0.055 3.662 0.356
1.285 5.946 0.097
0.946 5.769 0.397
1.273 6.285 0.600
1.116 6.193 0.784
0.993 6.329 0.557
0.909 6.005 1.256
1.194 6.178 1.043
0.730 5.262 1.622
0.967 5.467 1.428
0.838 5.624 1.493
0.943 6.013 1.232
0.951 6.317 1.410
0.202 3.907 2.134
0.486 4.251 2.294
0.323 4.530 2.260
0.710 4.772 2.154
0.666 4.785 2.003
0.580 5.130 1.695
0.868 5.217 1.879
0.959 5.508 1.817
0.949 5.671 1.644
1.030 5.987 1.725
0.440 3.789 2.555
0.456 4.126 2.623
0.598 4.202 2.509
0.689 4.647 2.324
0.573 4.903 2.428
0.659 4.865 2.096
0.855 5.144 2.174
0.970 5.534 2.115
0.852 5.758 2.006
0.931 5.741 1.856
0.352 4.039 2.719
0.408 4.131 2.714
0.345 4.318 2.707
0.570 4.712 2.453
0.715 4.763 2.455
0.800 5.040 2.340
0.853 5.140 2.217
0.780 5.366 2.397
0.763 5.760 2.354
0.196 4.108 2.986
0.429 4.300 3.013
0.370 4.505 2.904
0.649 4.516 2.993
0.824 4.932 2.917
0.626 5.175 2.775
0.853 5.171 2.408
0.809 5.657 2.358
0.393 4.402 3.112
0.633 4.457 3.298
0.652 4.893 3.229
0.760 4.806 2.999
0.903 5.283 2.894
0.755 5.574 2.707
0.653 4.685 3.414
0.872 5.235 3.318
0.851 5.158 3.092
-0.081 3.259 4.819
0.039 3.377 4.912
0.125 3.396 4.642
0.083 3.189 5.154
0.013 3.511 5.304
0.296 3.666 5.163
0.100 4.086 5.348
0.327 4.071 5.016
-0.005 3.331 5.391
0.110 3.540 5.450
0.320 3.645 5.243
0.287 3.828 5.316
-0.049 3.192 0.146
0.145 3.253 0.304
0.173 3.705 0.127
0.089 3.453 0.243
0.234 3.497 0.312
0.427 3.920 0.106
0.450 4.104 0.009
0.548 4.349 -0.066
1.281 6.198 0.225
1.216 6.052 0.780
-0.156 2.521 2.189
0.128 2.440 2.067
0.115 2.823 2.122
0.203 2.451 2.096
0.052 2.717 2.025
0.276 2.933 1.955
0.136 2.783 2.228
0.485 3.122 2.310
0.445 3.283 2.208
0.031 2.510 2.649
0.022 2.716 2.311
0.318 3.013 2.482
0.143 3.030 2.493
0.329 3.432 2.537
0.578 3.324 2.292
0.345 3.590 2.349
0.498 3.886 2.259
0.535 4.037 2.121
0.591 4.288 1.984
0.679 4.542 2.094
0.907 4.645 2.132
0.268 2.889 2.495
0.249 3.020 2.498
0.420 3.214 2.673
0.373 3.512 2.646
0.603 3.601 2.467
0.747 4.032 2.486
0.642 4.309 2.373
0.660 4.448 2.453
0.749 4.527 2.169
0.813 5.037 2.046
1.175 5.154 1.988
1.038 5.390 1.889
0.262 3.417 3.076
0.445 3.769 2.936
0.655 3.950 2.934
0.493 4.247 2.705
0.637 4.305 2.730
0.775 4.340 2.679
0.971 4.885 2.677
1.023 5.026 2.324
0.869 5.248 2.272
0.632 3.519 3.102
0.628 4.075 3.038
0.524 4.050 3.120
0.553 4.336 2.977
0.776 4.463 2.857
1.032 4.810 2.624
1.017 4.998 2.501
0.975 5.206 2.755
0.427 3.962 3.347
0.598 4.052 3.268
0.859 4.615 3.014
0.695 4.636 3.178
1.047 4.805 2.946
0.822 5.115 2.771
0.767 4.398 3.373
0.959 4.746 3.231
1.047 4.909 3.081
-0.122 2.407 4.812
-0.015 2.758 4.712
-0.068 2.589 4.773
0.250 2.883 4.865
0.305 2.830 4.744
-0.110 2.527 5.010
0.094 2.672 5.092
0.280 3.129 5.108
0.073 2.375 5.449
0.024 2.567 5.309
0.260 2.883 5.375
0.344 3.073 5.330
0.171 2.541 5.831
0.104 2.823 5.621
0.175 3.118 5.582
0.510 3.277 0.057
0.567 3.386 0.144
0.459 3.651 0.126
0.633 3.641 0.041
0.533 3.846 0.264
0.821 4.106 0.143
0.770 4.085 0.458
0.827 4.127 0.368
0.149 1.749 1.417
0.203 1.690 1.352
0.153 1.716 1.615
0.075 1.901 1.800
0.248 2.280 1.649
-0.050 1.738 1.871
0.128 1.945 1.877
0.088 2.257 1.931
0.262 2.244 1.853
0.278 2.631 1.790
-0.103 1.827 2.214
0.279 1.986 2.256
0.071 2.336 2.139
0.503 2.495 2.043
0.289 2.576 1.998
0.532 2.895 2.195
0.581 3.101 1.960
0.428 3.257 1.840
0.012 1.612 2.654
0.241 1.824 2.418
0.155 2.120 2.227
0.417 2.472 2.433
0.242 2.386 2.054
0.433 2.697 2.201
0.415 2.811 2.336
0.584 3.041 2.129
0.435 3.483 2.142
0.833 3.477 2.034
0.719 3.799 2.148
-0.112 1.838 2.716
0.158 2.021 2.476
0.050 2.013 2.459
0.134 2.594 2.477
0.197 2.476 2.581
0.287 2.863 2.200
0.656 2.999 2.650
0.703 3.143 2.537
0.656 3.238 2.602
0.790 3.771 2.205
0.962 3.771 2.240
0.782 4.164 2.235
0.823 4.279 2.197
0.119 2.098 2.976
0.375 2.343 2.824
0.475 2.608 2.701
0.642 2.872 2.536
0.531 2.868 2.755
0.509 3.323 2.823
0.798 3.518 2.722
0.649 3.621 2.547
0.933 4.057 2.493
0.910 4.040 2.517
1.107 4.299 2.434
0.964 4.761 2.190
1.105 4.960 2.139
0.260 2.748 2.932
0.549 3.058 2.763
0.589 3.180 3.089
0.602 3.330 2.909
0.644 3.651 2.858
0.602 3.597 2.679
0.767 3.884 2.830
0.802 4.290 2.566
1.033 4.346 2.520
1.270 4.603 2.562
1.007 4.858 2.538
0.403 2.960 3.221
0.677 3.219 3.176
0.686 3.458 3.262
0.979 3.859 2.983
0.861 4.198 3.064
0.928 4.292 2.863
1.189 4.544 2.893
1.227 4.618 2.588
1.167 5.031 2.738
0.808 3.617 3.244
0.864 3.971 3.340
0.747 4.187 3.261
0.915 4.290 3.325
1.055 4.433 3.161
1.004 4.706 2.980
0.965 3.804 3.363
0.928 4.303 3.612
0.850 4.469 3.210
1.060 4.605 3.430
0.147 1.789 4.475
0.004 2.106 4.497
0.090 1.872 4.746
0.248 2.021 4.721
0.098 2.459 4.696
0.239 1.995 4.973
0.277 2.142 5.055
0.223 2.511 4.857
0.042 2.158 5.346
0.164 2.224 5.145
0.156 2.417 5.185
0.499 2.658 4.925
-0.004 2.124 5.687
0.109 2.259 5.520
0.255 2.529 5.331
1.570 5.936 4.496
1.680 6.196 4.228
0.083 2.198 5.840
0.241 2.340 5.683
0.837 3.547 -0.047
0.668 3.572 0.280
1.027 3.867 0.157
1.008 4.234 -0.107
0.720 4.020 0.293
0.960 4.052 0.230
0.936 3.901 0.320
1.065 4.135 0.224
1.274 4.190 0.333
1.467 4.633 0.237
0.215 1.139 1.443
0.188 1.583 1.154
0.378 1.684 1.181
-0.100 0.982 1.641
0.314 1.385 1.441
0.282 1.638 1.500
0.454 1.582 1.455
0.564 2.033 1.309
0.073 0.744 1.785
0.101 1.219 1.710
0.358 1.439 1.705
0.430 1.627 1.879
0.185 1.779 1.460
0.371 1.984 1.452
0.536 2.145 1.498
0.534 2.727 1.691
0.174 1.069 2.223
0.012 1.176 2.262
0.235 1.278 2.055
0.413 1.736 2.028
0.520 1.792 1.786
0.582 2.122 1.938
0.596 2.221 1.597
0.596 2.437 1.607
0.711 2.703 1.998
0.718 3.020 1.775
0.147 1.110 2.341
0.256 1.258 2.452
0.175 1.486 2.242
0.221 1.784 2.320
0.525 2.092 2.081
0.493 2.112 2.187
0.440 2.267 1.933
0.465 2.449 1.927
0.821 2.761 1.999
0.702 2.846 2.138
0.818 3.018 1.962
0.295 1.479 2.565
0.237 1.504 2.453
0.466 1.727 2.326
0.337 2.123 2.305
0.569 2.085 2.086
0.753 2.542 2.223
0.847 2.831 2.098
0.658 2.737 2.509
0.691 2.848 2.156
0.757 3.207 2.151
0.806 3.403 2.132
1.031 3.506 2.201
0.339 1.611 2.706
0.370 2.044 2.624
0.355 2.141 2.722
0.689 2.300 2.420
0.432 2.603 2.330
0.739 2.958 2.423
0.801 2.869 2.466
0.703 3.078 2.632
0.886 3.248 2.455
1.085 3.672 2.176
1.038 3.645 2.458
1.016 4.091 2.220
0.393 2.183 3.000
0.693 2.307 2.884
0.716 2.464 2.521
0.850 2.867 2.434
0.586 3.034 2.984
0.778 3.081 2.729
0.895 3.346 2.582
0.834 3.591 2.639
1.188 3.789 2.410
1.079 3.930 2.452
1.054 4.150 2.500
1.223 4.431 2.112
0.426 2.546 3.129
0.524 2.681 2.766
0.820 2.874 2.696
0.731 3.149 3.055
0.709 3.083 3.003
0.763 3.362 2.947
0.841 3.788 2.869
1.058 3.774 2.847
1.339 4.118 2.523
1.379 4.189 2.534
1.469 4.600 2.703
0.650 3.078 2.908
0.802 3.214 3.249
0.949 3.293 3.177
1.092 3.396 2.982
1.079 3.592 2.976
1.119 4.098 3.101
1.316 4.150 3.051
1.171 4.369 2.789
1.418 4.470 2.886
0.819 3.263 3.389
0.782 3.529 3.635
1.042 3.548 3.501
0.991 3.867 3.190
1.014 3.875 3.273
1.334 4.409 3.320
1.465 4.474 2.953
1.249 4.680 3.003
0.971 3.721 3.781
1.198 3.730 3.614
1.290 4.026 3.473
1.288 4.324 3.500
1.180 4.620 3.290
1.350 4.115 3.697
0.207 1.742 4.568
0.382 1.944 4.324
0.291 1.939 4.674
0.402 2.011 4.647
0.342 1.746 5.101
0.599 2.066 5.101
0.600 2.370 4.796
1.775 6.045 3.733
0.492 1.826 5.331
0.621 2.169 5.056
0.389 2.581 4.968
1.844 5.986 4.227
0.419 1.912 5.473
0.596 2.306 5.477
1.782 6.045 4.393
2.015 6.120 4.523
0.314 2.011 5.611
0.849 3.470 -0.131
0.858 3.691 0.206
1.230 3.826 0.158
1.307 4.053 0.140
1.041 3.922 0.196
1.047 4.061 0.396
1.456 4.264 0.373
1.404 4.735 -0.032
0.059 1.302 1.147
0.240 1.384 1.375
0.179 1.577 1.260
1.230 3.728 0.370
1.386 3.930 0.155
1.508 4.214 0.224
1.764 4.607 0.280
1.698 4.634 0.210
0.304 0.930 1.462
0.330 1.225 1.464
0.594 1.437 1.252
0.590 1.563 1.099
0.687 1.624 1.122
1.351 4.260 0.597
1.436 4.198 0.476
0.431 0.980 1.465
0.251 1.187 1.627
0.407 1.449 1.330
0.484 1.664 1.327
0.576 1.887 1.219
0.713 1.914 1.311
0.834 2.330 1.257
0.180 1.224 1.745
0.420 1.131 1.889
0.354 1.322 1.684
0.624 1.615 1.594
0.813 2.038 1.585
0.687 2.305 1.598
0.982 2.544 1.569
0.869 2.320 1.526
0.458 1.079 2.168
0.374 1.240 2.176
0.423 1.715 1.807
0.533 1.796 2.049
0.833 1.836 1.940
0.943 2.410 1.681
0.971 2.484 1.735
0.965 2.677 2.015
0.863 2.660 1.845
0.258 1.241 2.369
0.524 1.385 2.425
0.712 1.584 2.311
0.477 1.834 2.237
0.577 2.230 2.169
0.912 2.247 1.953
1.005 2.702 1.896
0.890 2.694 2.174
1.015 2.985 1.973
0.952 3.227 2.071
0.535 1.513 2.540
0.755 1.727 2.537
0.536 1.778 2.437
0.897 2.081 2.239
0.793 2.325 2.210
0.815 2.459 2.271
1.114 2.550 2.219
1.043 2.999 2.196
1.182 2.989 2.099
1.076 3.282 2.176
0.525 1.696 2.713
0.752 2.182 2.753
0.794 2.235 2.634
1.003 2.555 2.580
0.925 2.580 2.448
0.944 2.945 2.538
1.196 3.003 2.595
1.144 3.173 2.607
1.207 3.367 2.204
1.454 3.799 2.291
1.408 3.729 2.171
0.599 2.067 2.915
0.623 2.225 2.701
0.709 2.576 2.677
1.134 2.820 2.439
0.977 2.970 2.864
0.947 3.196 2.578
1.190 3.340 2.813
1.270 3.359 2.510
1.391 3.604 2.690
1.388 4.117 2.408
1.557 4.365 2.445
0.975 2.547 3.115
0.808 2.527 2.975
0.854 2.780 2.686
1.043 2.985 3.040
1.101 3.294 2.820
1.195 3.187 2.971
1.226 3.737 2.731
1.480 3.973 2.617
1.542 3.920 2.717
1.574 4.148 2.660
0.782 2.660 3.095
0.870 2.912 2.993
1.073 2.918 3.423
1.134 3.347 3.109
1.012 3.321 3.050
1.179 3.720 3.236
1.284 3.931 2.898
1.309 4.137 2.814
1.408 4.208 2.691
1.041 2.889 3.371
1.052 3.273 3.583
1.078 3.700 3.277
1.308 3.579 3.306
1.383 3.985 3.311
1.436 4.319 3.129
1.548 4.260 2.962
1.223 3.325 3.850
1.396 3.625 3.547
1.454 3.706 3.514
1.442 4.139 3.340
1.618 4.163 3.468
1.570 4.375 3.437
1.382 3.820 4.042
1.356 4.015 3.610
1.580 4.290 3.545
1.348 4.513 3.637
0.512 1.829 4.749
2.277 6.221 3.184
0.512 1.800 4.687
0.501 2.091 4.814
0.455 1.799 5.029
0.662 1.959 4.875
2.081 6.230 3.886
0.591 1.910 5.106
0.640 1.952 5.124
2.264 6.153 4.074
2.155 6.059 3.912
0.764 2.125 5.614
2.169 5.741 4.268
2.025 6.160 4.363
1.260 3.522 0.294
1.263 3.699 -0.020
1.389 4.040 -0.074
0.257 1.283 0.912
0.462 1.384 0.802
1.164 3.862 0.460
1.538 4.011 0.458
1.481 4.292 0.109
1.766 4.451 0.157
1.711 4.573 0.064
0.318 0.927 1.494
0.255 1.165 1.375
0.457 1.504 1.399
0.578 1.701 0.984
0.508 1.657 1.053
2.289 0.116 3.296
2.260 0.173 3.615
2.389 0.168 3.458
2.373 0.160 3.790
2.522 0.430 3.579
2.509 0.218 4.070
2.498 0.587 3.804
2.309 0.241 4.366
2.576 0.529 4.023
2.688 0.084 3.402
2.555 0.214 3.977
2.632 0.154 3.713
2.683 0.224 3.897
2.718 0.412 4.065
2.479 0.114 6.251
2.684 0.120 6.165
2.823 0.399 5.895
3.049 0.032 3.645
2.991 0.081 3.884
2.996 0.291 5.951
3.007 0.236 6.267
3.112 0.439 5.966
3.191 -0.045 5.816
3.156 0.184 6.018
3.183 0.442 6.044
3.254 -0.046 6.225
3.427 0.144 5.875
5.333 -0.132 5.735
5.579 -0.100 5.999
0.481 0.754 4.384
0.487 0.825 4.392
0.460 1.137 4.036
0.237 0.758 4.615
0.483 0.657 4.426
0.717 0.930 4.625
0.808 1.094 4.371
0.405 0.489 5.012
0.311 0.814 4.951
0.483 0.984 4.778
0.690 1.000 4.557
0.582 1.341 4.721
0.365 0.663 5.307
0.643 0.883 5.034
0.628 1.090 5.156
0.563 1.361 4.899
0.820 1.333 4.706
0.388 0.469 5.511
0.297 0.634 5.420
0.367 0.878 5.307
0.613 1.064 5.460
0.753 1.280 5.233
0.812 1.431 5.231
0.348 0.323 5.840
0.444 0.642 5.651
0.534 1.040 5.735
0.619 1.156 5.412
0.551 1.517 5.503
0.705 1.619 5.531
0.278 0.319 6.105
0.501 0.552 5.977
0.500 0.723 6.084
0.419 0.872 5.872
0.516 1.272 5.711
0.861 1.519 5.742
0.829 1.550 5.540
0.405 0.421 6.161
0.380 0.801 6.206
0.382 0.947 5.909
0.789 1.124 5.905
0.632 1.434 5.888
0.521 0.326 4.156
0.633 0.431 4.130
0.634 0.864 4.138
0.803 0.919 3.814
0.788 0.287 4.279
0.744 0.661 4.262
0.730 1.050 4.315
0.896 1.210 4.178
0.485 0.161 4.682
0.774 0.478 4.691
0.578 0.658 4.678
0.800 0.981 4.320
0.882 1.053 4.344
0.551 0.299 4.845
0.819 0.470 4.803
0.614 0.661 4.943
0.695 1.056 4.572
0.870 1.397 4.472
0.699 0.444 5.023
0.601 0.830 5.137
0.889 1.022 5.040
0.769 0.937 4.843
1.053 1.416 4.857
0.648 0.618 5.373
0.562 0.802 5.224
0.915 0.921 5.341
1.048 1.016 5.051
0.984 1.470 5.131
0.529 0.457 5.539
0.615 0.964 5.581
0.886 0.977 5.386
1.052 1.429 5.334
0.886 1.599 5.450
0.594 0.459 5.983
0.695 0.829 5.773
0.706 1.034 5.967
0.944 1.054 5.868
0.923 1.186 5.823
0.500 0.575 6.227
0.733 0.859 6.077
0.927 0.769 6.000
0.761 1.108 6.138
0.699 0.057 3.384
0.899 0.062 3.808
1.039 0.415 3.767
0.691 0.357 3.935
1.023 0.358 3.916
0.862 0.821 3.949
1.160 0.816 3.675
0.661 -0.125 4.129
0.779 0.316 4.251
1.005 0.388 4.056
0.864 0.735 3.871
1.192 0.891 4.103
0.925 0.293 4.526
0.934 0.358 4.284
0.982 0.466 4.512
0.911 0.970 4.229
1.190 1.132 4.360
0.782 0.260 4.782
0.738 0.408 4.521
1.067 0.605 4.476
1.185 0.786 4.541
0.959 1.205 4.306
0.973 0.273 4.924
1.081 0.467 4.869
1.096 0.661 4.683
1.204 0.971 4.579
1.135 1.345 4.699
0.970 0.187 5.029
0.923 0.522 5.217
1.074 0.909 4.889
1.247 1.188 4.795
1.189 1.209 4.863
1.067 0.508 5.551
1.080 0.499 5.435
0.975 0.722 5.343
1.151 1.182 5.392
1.191 1.422 5.234
0.997 0.741 5.571
0.962 0.838 5.538
1.321 1.314 5.404
1.208 0.153 3.131
0.936 0.192 3.300
1.067 0.374 3.150
1.178 0.055 3.786
1.196 0.135 3.796
1.141 0.545 3.564
1.317 0.766 3.425
0.931 -0.035 3.962
1.075 0.455 3.819
1.212 0.743 3.686
1.395 0.884 3.751
1.225 -0.001 4.024
1.024 0.468 4.054
1.375 0.763 4.020
1.291 1.016 3.930
0.873 -0.120 4.372
1.025 0.364 4.604
1.312 0.575 4.467
1.426 0.881 4.151
1.408 0.958 4.329
0.876 0.151 4.756
1.188 0.170 4.826
1.259 0.567 4.529
1.196 0.816 4.594
1.289 1.137 4.354
1.298 0.438 5.011
1.174 0.782 4.789
1.186 0.954 4.641
1.479 1.090 4.740
1.224 0.593 5.136
1.221 0.730 5.208
1.359 1.042 4.896
1.538 1.155 5.001
1.440 0.639 5.378
1.346 0.882 5.333
1.133 -0.147 3.097
1.198 0.060 3.468
1.279 0.314 3.232
1.460 0.554 3.183
1.235 0.173 3.669
1.377 0.276 3.452
1.684 0.484 3.293
1.274 -0.002 3.858
1.484 0.128 3.981
1.442 0.322 3.680
1.620 0.763 3.576
1.247 0.000 4.296
1.403 0.210 4.214
1.430 0.614 4.025
1.667 0.749 3.786
1.467 0.274 4.237
1.524 0.531 4.389
1.480 0.803 4.241
1.676 1.002 4.360
1.326 0.416 4.543
1.540 0.433 4.657
1.589 0.692 4.550
1.658 0.796 4.329
1.334 0.355 4.790
1.433 0.451 4.918
1.629 0.923 4.820
1.473 0.935 4.757
1.509 0.670 4.891
1.702 0.242 3.058
1.689 -0.001 3.422
1.590 0.137 3.432
1.711 0.430 3.360
1.505 0.240 3.697
1.814 0.381 3.484
1.779 0.627 3.297
1.609 0.045 4.018
1.607 0.216 3.771
1.791 0.718 3.825
1.470 -0.100 4.366
1.576 0.213 3.930
1.798 0.544 4.023
1.939 0.716 4.093
1.583 -0.078 4.505
1.661 0.265 4.177
1.640 0.659 4.448
1.852 0.682 4.264
1.535 0.193 4.675
1.569 0.456 4.406
1.867 0.563 4.557
1.734 1.016 4.601
1.583 0.562 4.912
1.963 0.533 4.789
1.915 0.833 4.669
1.796 0.148 2.933
1.847 0.189 3.229
1.837 0.270 3.256
1.888 0.000 3.580
1.739 0.336 3.430
2.089 0.478 3.530
1.885 0.179 3.945
1.787 0.250 3.778
1.921 0.456 3.846
1.965 0.167 4.257
1.880 0.290 3.889
2.102 0.718 4.117
1.825 0.038 4.569
2.041 0.206 4.218
1.996 0.486 4.131
2.157 0.499 4.290
2.082 0.379 4.513
2.149 0.433 4.547
1.993 0.763 4.429
2.247 0.149 3.489
2.057 0.194 3.268
2.166 -0.026 3.535
2.096 0.263 3.657
2.001 0.140 3.656
2.369 0.301 3.604
2.201 0.116 3.945
2.257 0.426 4.020
2.098 0.703 3.940
2.219 0.212 4.372
2.187 0.477 4.379
2.192 0.506 4.101
2.181 0.464 4.637
2.469 0.584 4.255
2.415 0.041 3.298
2.261 0.127 3.553
2.482 0.393 3.499
2.318 0.052 3.918
2.588 0.538 3.587
2.584 0.325 4.126
2.394 0.422 3.778
2.331 0.131 4.398
2.527 0.413 4.064
4.717 6.046 1.142
4.651 6.133 1.284
4.703 6.135 1.338
4.562 6.015 1.687
4.596 6.454 2.007
4.659 6.073 1.160
4.883 6.322 1.006
4.872 5.956 1.530
4.830 6.158 1.451
4.724 6.060 1.707
4.819 6.179 1.848
4.950 6.316 2.201
5.005 6.235 1.101
5.110 5.919 1.397
5.195 6.076 1.180
5.080 6.167 1.768
5.027 6.405 1.631
5.102 6.245 1.816
5.200 6.292 2.267
5.449 6.250 0.985
5.370 6.132 1.441
5.239 6.101 1.795
5.306 6.147 1.481
5.377 5.888 1.921
5.534 6.181 1.777
5.395 6.169 2.243
5.680 6.290 1.221
5.613 6.141 1.581
5.659 6.158 1.725
5.568 6.248 2.226
5.969 6.132 1.600
5.983 6.173 1.966
5.734 6.321 2.135
5.767 6.050 2.185
6.192 6.042 1.634
6.301 6.224 2.218
6.340 6.073 2.630
6.204 5.059 0.171
3.949 6.046 1.361
4.306 5.953 1.324
4.351 6.285 1.563
4.169 6.152 1.623
4.484 5.994 1.313
4.793 6.167 1.306
4.676 6.047 1.604
4.469 6.252 1.858
4.553 6.226 2.050
0.023 1.725 6.293
0.108 1.433 6.075
0.377 1.590 6.270
0.594 1.326 6.109
0.439 1.495 5.995
0.077 5.338 5.435
-0.059 5.576 5.447
0.052 5.886 5.493
0.147 5.696 5.865
0.066 5.871 5.664
-0.002 5.531 5.956
0.262 5.578 6.032
0.317 5.915 6.050
0.025 5.682 6.285
0.304 5.818 6.057
0.149 4.756 5.170
0.014 5.000 5.095
0.258 5.365 4.989
-0.087 4.791 5.690
0.270 4.760 5.365
0.081 4.961 5.339
0.196 5.417 5.199
0.178 5.599 5.305
-0.018 4.674 5.643
-0.023 5.048 5.763
0.118 5.311 5.493
0.253 5.625 5.404
0.452 5.556 5.455
0.594 5.902 5.196
0.189 5.013 5.954
0.120 5.165 5.761
0.139 5.466 5.759
0.340 5.528 5.884
0.344 5.903 5.597
0.439 6.122 5.674
0.229 4.736 6.244
0.109 5.067 6.101
0.128 5.239 6.261
0.262 5.550 6.184
0.531 5.722 5.790
0.384 5.953 5.927
0.346 5.638 6.129
0.344 5.709 6.111
0.382 6.071 6.065
-0.039 4.183 5.537
-0.001 4.385 5.421
0.232 4.369 5.351
0.262 4.704 5.279
0.568 5.112 5.121
0.319 5.378 4.986
0.114 3.936 5.571
0.193 4.173 5.593
0.260 4.234 5.469
0.175 4.638 5.490
0.375 4.998 5.605
0.555 5.011 5.251
0.570 5.131 5.267
0.617 5.505 5.159
0.814 5.724 5.161
-0.169 3.920 5.683
0.214 4.078 5.691
0.278 4.318 5.947
0.276 4.577 5.865
0.437 4.587 5.725
0.370 4.896 5.529
0.485 5.006 5.635
0.602 5.214 5.612
0.570 5.707 5.575
0.728 5.751 5.262
0.746 5.950 5.342
0.220 4.375 5.942
0.306 4.394 6.112
0.195 4.816 5.845
0.398 5.135 5.957
0.313 5.233 5.708
0.532 5.252 5.615
0.647 5.651 5.733
0.552 5.761 5.730
0.849 6.113 5.634
0.407 4.870 6.273
0.530 5.185 6.042
0.628 5.353 6.080
0.538 5.380 6.044
0.726 5.892 5.923
0.772 6.100 6.015
0.850 6.142 5.683
0.532 5.710 6.175
0.756 5.737 6.354
0.822 6.026 6.151
0.401 4.086 5.337
0.398 4.189 5.507
0.393 4.405 5.460
0.490 4.777 5.353
0.588 4.920 5.059
0.758 5.020 5.143
0.879 5.183 4.846
0.204 3.407 5.533
0.182 3.775 5.473
0.308 3.993 5.538
0.358 4.088 5.701
0.316 4.466 5.701
0.396 4.430 5.350
0.653 4.826 5.385
0.700 5.091 5.555
0.786 5.185 5.309
0.902 5.307 5.206
0.820 5.725 5.250
0.827 5.783 4.877
0.921 6.175 5.050
0.435 4.100 5.862
0.616 4.506 5.928
0.621 4.666 5.834
0.631 4.798 5.609
0.564 5.045 5.431
0.753 5.151 5.671
0.997 5.339 5.270
0.900 5.689 5.447
0.884 5.883 5.295
0.967 6.031 5.242
0.596 4.680 5.868
0.435 4.815 5.841
0.725 5.232 5.975
0.964 5.325 5.808
0.967 5.680 5.763
0.982 5.981 5.607
0.901 5.938 5.377
1.080 6.111 5.359
0.618 5.153 5.992
0.608 5.299 5.984
0.927 5.566 5.968
0.706 5.634 5.774
1.012 5.964 5.864
1.213 6.056 5.851
0.683 5.388 6.434
0.756 5.756 6.225
0.811 5.951 6.213
1.187 6.001 6.013
0.997 5.423 5.106
0.954 5.348 4.750
1.173 5.785 4.742
1.433 5.984 4.745
1.443 6.318 4.503
0.706 4.655 5.634
0.968 4.871 5.410
0.913 5.262 5.317
1.110 5.247 5.326
1.051 5.592 5.185
1.192 5.917 4.935
1.211 5.835 5.025
1.440 6.385 4.837
0.851 4.634 5.728
0.991 4.794 5.736
0.915 5.057 5.695
1.160 5.335 5.391
1.200 5.733 5.321
1.188 5.818 5.204
1.343 5.917 5.248
0.805 4.762 5.898
0.979 5.033 5.904
0.967 5.375 5.911
0.945 5.506 5.870
1.127 5.844 5.625
1.244 5.910 5.479
1.284 5.981 5.424
0.931 5.225 6.250
1.180 5.291 6.020
1.150 5.662 6.027
1.326 5.847 5.795
1.406 6.006 5.887
1.250 6.167 5.803
1.192 5.303 6.385
1.241 5.804 6.026
1.238 5.983 6.204
1.365 6.254 6.112
1.504 5.895 6.391
1.307 5.253 4.939
1.270 5.611 4.862
1.612 6.008 4.725
1.518 6.193 4.722
1.188 4.996 5.182
1.472 5.367 5.160
1.491 5.313 5.102
1.458 5.662 4.942
1.530 5.882 4.915
1.501 6.294 4.964
1.166 4.969 5.787
1.110 5.190 5.672
1.357 5.407 5.405
1.248 5.616 5.225
1.654 5.662 5.320
1.539 5.845 5.347
1.534 6.132 5.133
1.327 4.834 5.719
1.206 5.086 5.656
1.200 5.504 5.677
1.237 5.711 5.530
1.451 5.990 5.684
1.625 6.117 5.312
1.148 5.309 6.008
1.512 5.404 5.779
1.433 5.564 5.875
1.557 6.033 5.831
1.462 6.057 5.562
1.352 5.651 6.217
1.303 5.634 6.225
1.593 6.164 6.170
1.597 6.191 5.806
1.722 6.168 6.079
1.802 6.070 6.177
1.964 6.222 6.246
1.620 5.726 4.865
1.847 5.687 4.609
1.686 5.901 4.586
1.751 6.242 4.604
1.336 5.293 5.364
1.497 5.237 4.997
1.728 5.587 5.216
1.844 5.858 5.017
1.776 6.075 5.091
1.423 5.355 5.390
1.746 5.547 5.250
1.810 5.843 5.471
1.813 5.749 5.238
1.996 6.149 5.011
1.575 4.995 5.743
1.752 5.263 5.714
1.687 5.705 5.781
1.550 5.730 5.647
1.824 5.892 5.298
1.931 6.263 5.523
1.481 5.247 5.850
1.641 5.396 6.072
1.687 5.484 5.920
1.934 5.852 5.737
2.004 5.898 5.793
1.575 5.306 6.362
1.648 5.770 5.934
1.900 6.060 6.057
1.802 6.098 6.070
1.762 6.147 6.219
1.835 6.177 6.358
2.028 5.988 6.403
2.247 6.079 6.105
1.992 5.798 4.776
1.877 6.065 4.568
2.263 6.173 4.532
1.845 5.444 5.111
2.010 5.699 5.165
2.141 5.598 5.144
1.920 6.137 5.011
2.272 6.361 4.942
1.757 5.335 5.541
1.955 5.632 5.209
1.856 5.704 5.305
2.076 6.240 5.228
2.318 6.445 4.990
1.954 5.356 5.810
1.703 5.325 5.766
2.151 5.557 5.643
2.064 5.824 5.364
2.212 6.030 5.420
2.002 5.339 5.919
2.088 5.618 5.984
2.004 5.794 5.732
2.165 6.137 5.868
2.255 6.318 5.705
1.953 5.459 6.339
1.973 5.732 6.214
1.981 5.933 5.886
2.020 5.899 6.116
2.241 6.437 5.807
1.931 5.979 6.442
2.130 6.170 6.352
2.559 0.822 6.288
2.654 0.920 6.118
2.786 0.588 6.361
2.981 0.803 6.194
3.137 1.202 6.060
3.167 0.652 6.094
3.177 0.836 6.151
3.291 0.781 6.211
3.286 0.291 6.079
3.483 0.550 6.364
3.278 0.726 5.951
3.391 0.306 6.239
3.583 0.561 6.092
3.852 0.183 6.085
0.734 1.266 6.296
2.781 0.921 6.291
2.633 1.066 6.205
2.832 1.175 6.136
2.945 1.582 6.112
3.115 1.684 5.728
3.020 2.075 5.804
3.044 2.385 5.561
4.572 6.066 4.697
2.682 1.568 6.416
2.799 1.682 6.172
2.894 1.750 6.112
3.094 2.019 5.877
3.044 2.208 5.976
3.348 2.369 5.695
4.746 6.337 4.760
3.175 2.217 6.294
3.119 2.473 6.313
3.239 2.472 6.260
4.157 4.830 4.755
4.570 5.007 4.514
4.518 5.287 4.518
4.513 5.486 4.508
4.664 5.650 4.479
4.600 6.094 4.312
5.004 6.064 4.222
2.926 1.318 6.137
4.700 5.668 4.735
4.848 5.821 4.590
4.948 6.182 4.720
4.717 6.072 4.460
3.107 1.410 6.379
3.118 1.446 6.213
3.232 1.860 6.124
3.262 1.877 6.208
4.861 5.787 4.844
4.967 5.993 4.678
3.350 2.019 6.414
4.890 6.282 5.258
4.549 4.566 4.806
4.615 4.926 4.551
4.770 5.267 4.781
4.833 5.581 4.601
4.812 5.636 4.378
5.134 5.922 4.472
5.178 6.240 4.225
4.819 5.060 5.087
4.773 5.222 5.009
4.664 5.439 4.961
4.861 5.623 4.554
4.982 5.924 4.611
4.950 6.056 4.631
3.325 1.062 6.281
3.386 1.564 6.295
4.783 5.518 5.179
5.059 5.654 5.037
4.945 5.991 4.853
5.110 6.264 4.726
4.878 5.840 5.198
5.025 5.971 5.125
4.977 6.086 5.397
4.773 4.572 4.791
4.944 4.899 4.638
4.899 5.287 4.650
5.106 5.398 4.713
5.144 5.748 4.461
5.042 5.972 4.332
5.163 6.104 4.348
5.502 6.167 4.335
4.801 4.902 5.051
5.093 5.229 4.857
4.941 5.320 4.901
5.027 5.457 4.536
5.303 6.035 4.741
5.169 5.978 4.515
3.707 1.163 6.242
5.083 5.437 5.126
5.080 5.446 5.149
5.096 5.754 4.819
5.423 6.061 4.965
5.483 6.119 4.781
5.069 5.408 5.234
5.054 5.918 5.264
5.426 5.947 5.239
5.312 6.170 4.984
5.365 6.003 5.471
5.380 5.947 5.411
5.167 6.255 5.456
5.590 6.068 5.882
5.261 4.669 4.668
5.300 5.120 4.495
5.195 5.416 4.543
5.375 5.562 4.302
5.346 5.587 4.380
5.724 6.047 4.122
5.523 6.092 4.132
5.095 5.067 4.802
5.236 5.279 4.805
5.328 5.623 4.792
5.381 5.753 4.497
5.496 5.916 4.605
5.667 6.392 4.403
5.297 5.257 5.151
5.431 5.509 4.927
5.568 5.512 5.074
5.664 5.956 5.046
5.523 6.009 4.806
5.261 5.598 5.107
5.453 5.680 5.272
5.372 6.066 4.991
5.493 6.199 5.056
5.576 5.769 5.606
5.603 5.876 5.431
5.578 6.092 5.215
5.531 5.785 5.562
5.590 5.979 5.433
5.509 6.184 5.677
5.745 5.920 5.914
5.961 5.935 5.780
5.971 6.302 5.929
5.496 4.800 4.642
5.324 4.949 4.808
5.599 5.097 4.655
5.565 5.262 4.480
5.720 5.706 4.434
5.956 5.824 4.216
5.463 5.038 4.747
5.402 5.072 4.753
5.751 5.592 4.719
5.724 5.564 4.744
5.771 5.752 4.603
5.712 6.100 4.394
5.490 5.240 5.045
5.813 5.700 4.873
5.565 5.794 4.782
5.735 5.947 4.810
5.830 6.382 4.719
5.565 5.449 5.097
5.655 5.462 5.353
5.844 5.694 4.987
5.724 5.888 4.958
4.959 3.487 6.228
5.031 3.650 6.129
5.559 5.692 5.245
5.868 5.843 5.227
5.946 6.046 5.128
5.918 5.863 5.687
5.716 6.128 5.548
5.979 6.348 5.534
5.897 5.854 5.857
5.713 5.906 5.992
5.959 5.658 5.801
6.191 5.977 5.774
6.053 6.173 5.631
5.983 5.911 6.226
6.086 6.060 6.244
6.192 6.369 6.120
5.860 5.031 4.699
6.007 5.327 4.471
5.876 5.378 4.703
5.830 5.562 4.473
6.200 5.918 4.664
5.101 2.634 6.052
4.945 2.903 5.929
5.039 3.142 5.706
5.802 5.408 4.873
6.129 5.626 5.042
5.876 5.730 4.672
6.159 6.289 4.596
4.922 2.656 6.110
5.146 3.054 6.037
4.968 3.309 5.851
5.345 3.440 5.996
5.918 5.561 5.007
5.859 5.765 5.189
6.107 6.066 5.064
6.201 6.316 4.789
5.040 3.548 6.173
5.318 3.411 6.192
5.264 3.627 6.135
6.037 5.638 5.347
6.110 5.895 5.488
6.087 6.097 5.239
6.065 6.242 5.200
5.899 5.829 5.781
6.162 6.014 5.501
6.149 6.112 5.426
6.057 5.810 5.719
6.202 6.044 6.007
6.006 6.121 5.837
6.184 5.596 5.770
6.383 5.778 5.981
4.853 2.402 5.330
5.276 2.715 5.516
5.308 2.619 5.360
