2.821 3.538 4.448
2.603 3.487 4.537
2.778 3.811 4.779
3.081 4.072 1.667
3.036 4.059 1.755
2.793 4.036 2.050
2.927 3.912 2.035
2.765 3.851 2.551
3.051 3.778 2.527
2.969 4.045 2.977
2.817 3.637 2.942
2.826 3.848 3.537
3.052 4.025 3.477
3.020 3.783 3.536
3.162 3.783 3.774
3.068 4.090 1.125
3.008 4.145 1.334
3.173 4.285 1.398
3.258 4.075 1.704
3.263 4.131 1.806
2.952 4.110 2.274
3.123 4.031 2.599
3.228 4.052 2.520
3.151 3.792 2.983
3.176 4.010 3.066
2.925 3.835 3.314
3.384 3.948 3.351
3.122 3.883 3.666
3.216 4.420 1.155
3.304 4.117 1.341
3.451 4.435 1.509
3.215 4.339 1.600
3.348 4.313 1.987
3.102 3.970 2.370
3.473 4.161 2.494
3.218 3.908 2.581
3.401 4.149 3.089
3.454 4.060 3.146
3.204 4.114 3.542
3.432 4.379 1.023
3.625 4.252 1.398
3.737 4.321 1.457
3.666 4.448 1.954
3.706 4.078 2.027
3.427 4.221 2.229
3.396 4.067 2.493
3.317 4.157 2.780
3.293 4.006 3.030
3.259 4.009 3.314
3.743 4.294 1.137
3.759 4.476 1.513
3.634 4.254 1.687
3.671 4.269 1.918
3.686 4.408 1.904
3.614 4.232 2.382
3.653 4.168 2.559
3.601 4.140 2.772
3.622 4.270 3.158
3.494 4.260 3.236
4.155 4.393 1.177
3.844 4.720 1.719
3.964 4.356 1.699
3.834 4.344 1.874
4.117 4.434 2.284
3.833 4.372 2.330
4.079 4.298 2.914
3.793 4.288 2.909
4.304 4.540 1.685
4.177 4.600 1.756
4.305 4.645 2.025
4.272 4.750 2.251
4.100 4.728 2.513
4.137 4.451 4.735
4.038 4.404 5.123
4.191 4.243 5.167
3.923 4.293 5.540
3.952 4.487 5.926
0.208 2.542 0.362
0.117 2.496 0.600
0.208 2.442 0.968
0.194 2.460 1.094
0.003 2.310 5.273
-0.101 1.933 5.548
0.230 2.505 0.662
0.373 2.652 0.723
0.396 2.437 0.884
0.463 2.653 1.151
0.078 2.437 1.591
0.164 2.619 1.801
0.196 2.695 2.010
0.069 2.648 2.009
0.149 2.131 5.953
0.062 1.975 6.120
0.183 2.080 6.167
0.327 2.926 0.583
0.383 2.584 0.822
0.369 2.535 0.911
0.546 2.746 1.238
0.367 2.767 1.330
0.458 2.558 1.645
0.514 2.780 1.757
0.596 2.571 1.931
0.579 2.685 2.175
0.812 2.729 0.555
0.819 2.858 0.938
0.723 2.971 0.861
0.736 2.744 1.159
0.786 2.995 1.327
0.775 2.643 1.563
0.461 2.632 1.987
0.487 2.528 2.215
0.536 2.738 2.469
1.001 2.977 0.348
0.788 2.987 0.914
0.946 2.831 0.894
0.771 3.108 1.184
0.992 2.925 1.677
0.860 2.941 1.516
0.818 3.017 1.885
0.895 2.619 2.293
1.097 3.141 0.418
1.253 3.047 0.874
1.089 3.249 0.834
1.297 3.016 1.267
1.128 2.832 1.314
0.971 2.935 1.839
0.913 2.950 2.142
0.953 2.848 2.343
1.495 3.204 0.462
1.213 3.234 0.928
1.511 3.228 1.092
1.250 3.273 1.253
1.199 3.132 1.430
1.329 2.903 1.782
1.282 3.097 2.053
1.291 2.728 4.270
1.493 2.929 4.722
1.270 2.702 4.681
1.667 3.080 1.203
1.480 3.444 1.158
1.532 3.271 1.686
1.417 3.076 3.764
1.064 3.221 4.034
1.355 3.088 4.257
1.145 3.205 4.698
1.129 3.114 4.998
1.550 3.364 0.801
1.414 3.398 1.120
1.596 3.549 1.474
1.311 3.340 1.534
1.581 3.399 3.808
1.448 3.293 4.106
1.530 3.405 4.181
1.364 3.368 4.333
1.431 3.316 4.554
1.203 3.301 4.662
1.533 3.093 4.955
1.502 3.310 3.646
1.694 3.298 3.486
1.856 3.475 3.923
1.602 3.326 3.960
1.780 3.208 4.272
1.397 3.189 4.583
1.599 3.281 4.964
1.711 3.294 5.057
1.695 3.109 5.477
2.073 3.524 3.299
2.056 3.403 3.595
1.972 3.646 3.570
1.699 3.686 3.931
1.959 3.317 4.149
1.796 3.499 4.216
1.960 3.457 4.447
1.876 3.566 5.071
1.758 3.232 5.001
1.774 3.198 5.218
1.966 3.601 3.136
2.241 3.668 3.141
1.918 3.734 3.310
2.097 3.833 3.695
2.031 3.813 4.167
2.116 3.652 4.274
2.075 3.557 4.550
2.189 3.566 4.751
2.099 3.666 4.773
1.850 3.550 5.286
2.102 3.656 5.541
2.185 3.633 3.145
2.263 3.879 3.307
2.266 3.795 3.129
2.323 3.609 3.360
2.167 3.618 3.689
2.350 3.847 4.133
2.421 3.611 4.088
2.314 3.598 4.554
2.271 3.806 4.703
2.133 3.476 5.071
2.334 3.556 4.966
2.206 3.895 2.649
2.487 3.650 3.179
2.197 3.739 3.212
2.479 3.882 3.365
2.589 4.018 3.676
2.463 3.658 3.853
2.336 4.012 4.191
2.301 3.865 4.388
2.633 3.901 4.634
2.329 3.931 4.749
2.494 3.884 5.145
2.608 4.129 2.211
2.688 3.777 2.600
2.345 4.085 2.932
2.513 3.865 3.038
2.695 3.846 3.315
2.599 3.871 3.505
2.695 4.027 3.397
2.763 4.099 3.986
2.513 4.120 4.151
2.713 3.937 4.279
2.838 3.900 4.327
2.752 4.174 2.046
2.846 4.213 2.254
2.837 4.295 2.615
2.728 4.285 2.746
2.879 4.146 3.064
2.795 4.003 3.107
2.791 4.162 3.246
3.072 3.954 3.425
2.979 3.969 3.649
3.070 3.974 3.966
2.754 4.014 4.214
3.103 4.143 1.537
2.917 4.330 1.845
3.119 4.175 2.055
2.896 4.444 2.341
3.072 4.193 2.591
2.845 4.064 2.662
3.098 4.235 2.807
2.812 4.158 3.085
2.970 4.126 3.582
3.302 4.090 3.390
3.038 4.296 3.652
3.288 4.122 3.721
3.167 4.476 1.361
3.212 4.348 1.531
3.206 4.203 1.677
3.225 4.516 1.886
2.997 4.231 2.247
3.252 4.149 2.320
2.958 4.292 2.590
3.194 4.313 2.976
3.045 4.249 3.268
2.961 4.376 3.463
3.139 4.313 3.477
3.553 4.499 1.412
3.510 4.468 1.411
3.293 4.445 1.608
3.590 4.505 2.013
3.195 4.580 2.447
3.308 4.526 2.658
3.322 4.296 2.822
3.406 4.241 3.156
3.401 4.308 3.355
3.337 4.446 3.340
3.854 4.780 1.412
3.658 4.441 1.704
3.773 4.738 1.864
3.440 4.688 1.992
3.523 4.441 2.321
3.600 4.634 2.435
3.390 4.367 2.858
3.505 4.651 3.098
3.429 4.408 3.321
4.023 4.577 1.791
3.820 4.813 1.754
3.763 4.635 2.023
3.636 4.648 2.339
3.751 4.774 2.579
3.771 4.517 2.591
3.577 4.608 3.013
3.721 4.390 3.265
3.776 4.519 5.549
3.715 4.367 5.642
3.979 4.955 2.094
4.044 5.011 2.170
4.176 4.838 2.379
3.944 4.688 2.565
3.964 4.812 2.836
3.999 4.750 3.115
4.064 4.606 5.013
4.045 4.467 5.013
3.987 4.413 5.448
4.186 4.550 5.650
3.993 4.711 5.757
4.103 4.283 6.266
4.156 4.897 2.089
4.127 4.773 2.242
4.157 5.056 2.393
0.013 2.626 0.506
0.051 2.678 0.316
0.321 2.979 0.739
0.103 2.890 0.949
0.264 2.785 1.028
0.107 2.662 1.301
0.230 2.682 1.605
0.305 2.414 5.439
0.143 2.214 5.879
0.051 2.169 6.040
0.400 2.794 0.641
0.238 2.865 0.666
0.499 2.964 1.037
0.537 3.086 1.297
0.496 2.987 1.585
0.442 2.686 1.810
0.151 2.792 1.865
0.217 2.558 5.947
0.653 3.241 0.657
0.641 2.899 0.570
0.711 3.178 1.068
0.551 3.145 1.134
0.410 2.941 1.488
0.402 3.113 1.721
0.492 2.944 1.742
0.856 3.302 0.450
0.668 3.006 0.722
0.777 3.055 0.827
0.734 2.969 1.310
0.811 2.907 1.410
0.694 2.960 1.568
0.824 3.179 1.846
1.039 3.458 0.534
0.802 3.426 0.618
1.116 3.189 1.145
1.184 3.233 1.207
1.010 3.234 1.572
0.983 3.279 1.593
0.948 3.103 2.144
1.163 3.301 0.724
1.401 3.215 0.878
1.022 3.377 1.198
1.217 3.237 1.397
1.030 3.396 1.637
1.051 3.188 1.842
1.447 3.223 3.699
1.122 3.272 4.213
1.029 3.201 4.206
1.027 3.268 4.398
1.180 3.174 4.854
1.304 3.444 0.965
1.420 3.602 1.196
1.197 3.611 1.223
1.339 3.456 1.740
1.153 3.493 3.652
1.307 3.492 3.698
1.155 3.536 4.092
0.971 3.388 4.302
1.297 3.426 4.461
1.187 3.462 4.907
1.192 3.541 0.459
1.401 3.788 1.023
1.491 3.819 0.930
1.402 3.587 1.163
1.185 3.681 1.760
1.380 3.493 3.301
1.300 3.526 3.796
1.307 3.668 3.820
1.453 3.672 4.289
1.493 3.409 4.579
1.493 3.615 4.421
1.172 3.498 4.724
1.533 3.713 0.861
1.587 3.738 0.977
1.476 3.467 3.348
1.582 3.540 3.689
1.384 3.749 3.512
1.548 3.407 3.900
1.670 3.499 4.357
1.565 3.607 4.457
1.641 3.683 4.597
1.679 3.353 4.861
1.508 3.621 5.164
1.525 3.561 3.083
1.773 3.724 3.448
1.601 3.910 3.421
1.867 3.692 3.835
1.905 3.768 4.036
1.556 3.753 4.203
1.666 3.742 4.496
1.548 3.600 4.861
1.661 3.511 4.752
1.677 3.643 5.111
1.952 3.600 3.207
1.846 3.798 3.334
1.940 3.737 3.638
1.828 3.646 3.791
2.010 3.643 3.820
1.743 3.770 4.399
2.035 3.602 4.567
1.914 3.931 4.590
1.824 3.666 5.095
1.836 3.607 5.287
1.960 3.925 3.055
1.810 3.863 3.148
2.357 3.814 3.517
2.017 4.027 3.737
2.292 3.885 3.944
2.194 4.055 3.937
2.083 3.896 4.327
1.979 3.885 4.419
2.217 3.829 4.724
2.114 3.769 5.026
2.291 4.116 2.753
2.324 3.944 3.261
2.136 4.161 3.307
2.430 4.025 3.549
2.481 4.235 3.761
2.222 3.947 3.827
2.423 3.962 3.842
2.241 3.861 4.196
2.532 3.921 4.671
2.313 3.810 4.681
2.586 4.387 2.424
2.318 4.098 2.609
2.420 4.317 2.820
2.410 4.312 3.291
2.215 4.010 3.527
2.694 4.332 3.249
2.609 4.101 3.658
2.639 4.040 3.718
2.753 4.175 4.012
2.653 4.156 4.465
2.398 4.215 4.694
2.662 4.441 2.027
2.543 4.139 2.442
2.500 4.243 2.784
2.473 4.347 3.054
2.666 4.349 3.030
2.525 4.248 3.328
2.762 4.504 3.351
2.604 4.394 3.795
2.804 4.163 3.793
2.894 4.256 4.112
2.875 4.537 1.695
2.993 4.305 2.022
2.967 4.620 2.269
2.869 4.384 2.335
2.985 4.580 2.516
2.931 4.581 3.131
2.953 4.430 3.303
3.008 4.276 3.411
3.213 4.263 3.282
2.933 4.428 3.804
3.017 4.414 3.811
2.924 4.506 1.436
3.087 4.761 1.976
3.302 4.543 1.950
2.952 4.715 2.468
2.935 4.460 2.303
3.004 4.705 2.723
2.877 4.586 3.035
3.095 4.576 3.187
3.199 4.250 3.461
3.049 4.700 3.550
3.112 4.692 3.868
3.341 4.747 1.701
3.403 4.538 1.727
3.178 4.776 2.096
3.125 4.650 2.278
3.395 4.792 2.394
3.143 4.687 2.853
3.082 4.741 3.029
3.340 4.641 3.127
3.301 4.590 3.635
3.607 4.662 3.426
3.555 4.878 1.563
3.466 4.646 1.918
3.513 4.607 2.104
3.652 4.604 2.427
3.609 4.756 2.540
3.351 4.702 2.771
3.266 4.724 2.954
3.554 4.851 3.118
3.472 4.794 3.303
3.811 5.054 1.730
3.749 5.017 1.925
3.658 4.942 1.915
3.772 4.697 2.413
3.790 5.041 2.757
3.681 4.943 3.001
3.613 4.625 3.133
3.732 4.671 3.437
3.824 4.622 5.359
3.505 4.791 5.663
3.579 4.641 5.726
3.709 4.426 6.067
3.724 5.199 1.921
4.046 4.939 2.196
4.085 4.914 2.312
3.899 4.901 2.590
3.812 5.019 2.697
3.884 4.731 3.062
4.157 4.735 4.838
4.042 4.780 5.250
3.779 4.932 5.328
4.025 4.583 5.772
3.801 4.725 5.741
4.036 4.618 5.992
4.038 5.271 2.226
4.196 4.899 2.586
4.145 4.918 2.515
4.108 5.231 3.023
0.268 3.293 0.505
0.287 3.229 0.742
-0.033 3.119 1.159
-0.056 2.819 1.256
0.191 2.789 1.374
0.172 3.016 0.692
0.314 3.365 0.909
0.082 3.074 0.959
0.202 3.241 1.432
0.232 3.097 1.508
0.396 3.087 1.601
-0.015 2.672 6.083
0.044 2.890 6.020
0.689 3.317 0.553
0.648 3.109 0.878
0.684 3.409 1.147
0.373 3.051 1.143
0.379 3.239 1.694
0.644 3.019 1.623
0.464 2.950 6.036
0.617 3.220 0.398
0.661 3.303 0.624
0.697 3.245 0.902
0.544 3.511 1.198
0.806 3.381 1.430
0.582 3.423 1.705
0.931 3.640 0.472
0.860 3.594 0.854
0.774 3.443 0.980
1.020 3.568 1.425
0.858 3.324 1.461
0.730 3.348 1.645
0.786 3.254 4.199
0.871 3.352 4.158
1.094 3.654 0.737
1.237 3.456 1.017
1.286 3.726 0.904
1.197 3.632 1.139
1.268 3.362 1.471
0.913 3.432 1.774
1.008 3.465 3.554
0.938 3.455 3.835
1.204 3.348 4.071
1.075 3.172 4.563
1.123 3.438 4.717
1.248 3.085 5.009
1.364 3.580 0.600
1.476 3.791 0.864
1.253 3.591 1.330
1.096 3.823 1.443
1.236 3.598 1.464
1.006 3.666 3.270
0.854 3.434 3.622
0.961 3.724 3.809
1.118 3.458 4.299
0.785 3.384 4.163
0.965 3.300 4.578
0.779 3.533 4.629
1.230 3.821 0.660
1.166 3.782 0.947
1.355 3.774 1.071
1.165 3.764 1.252
1.002 4.026 1.781
1.440 3.794 3.419
1.052 3.550 3.729
1.409 3.661 3.923
1.387 3.742 4.183
1.184 3.519 4.246
1.377 3.551 4.525
1.327 3.551 5.051
1.611 4.247 0.519
1.442 3.964 1.016
1.226 4.144 1.207
1.403 3.779 1.471
1.618 4.018 3.233
1.386 3.748 3.586
1.614 3.660 3.577
1.221 3.601 3.892
1.539 3.754 4.227
1.560 3.799 4.331
1.394 3.744 4.476
1.499 3.594 4.943
1.606 3.794 3.338
1.845 4.136 3.458
1.602 3.842 3.678
1.551 3.858 3.543
1.787 3.893 4.056
1.560 4.043 4.108
1.784 3.966 4.450
1.418 3.704 4.490
1.515 3.901 4.768
1.706 3.891 3.222
1.514 3.937 3.352
1.722 3.948 3.438
2.005 4.054 3.727
2.029 4.056 3.982
1.667 4.108 3.826
1.960 4.158 4.400
1.793 3.813 4.614
1.964 3.847 4.635
1.693 3.825 4.937
2.096 4.023 3.210
1.873 4.201 3.452
2.256 4.299 3.350
1.955 3.974 3.619
1.891 4.096 3.693
2.132 4.217 4.233
2.033 4.215 4.098
1.925 4.179 4.700
1.987 3.926 4.791
2.227 4.104 2.863
2.178 4.374 3.118
1.928 4.339 3.246
2.160 4.173 3.391
2.477 4.185 3.383
2.086 4.341 3.937
2.373 4.112 4.239
2.415 4.033 4.247
2.040 4.018 4.377
2.392 4.290 2.842
2.225 4.343 2.794
2.459 4.329 3.301
2.358 4.145 3.340
2.538 4.314 3.255
2.409 4.307 3.788
2.535 4.514 3.903
2.442 4.408 4.083
2.628 4.347 4.350
2.560 4.650 2.301
2.431 4.631 2.290
2.480 4.394 2.673
2.459 4.634 3.053
2.426 4.625 3.144
2.584 4.438 3.574
2.512 4.611 3.601
2.830 4.518 3.645
2.810 4.402 3.962
2.844 4.637 4.222
2.906 4.746 2.031
2.772 4.777 2.116
2.810 4.512 2.505
2.694 4.562 2.870
2.534 4.429 2.924
2.600 4.596 3.359
2.698 4.567 3.451
2.774 4.444 3.592
2.813 4.695 3.845
2.821 4.628 4.084
2.882 4.679 1.870
2.934 4.680 2.244
3.153 4.937 2.278
3.151 4.530 2.717
3.122 4.568 2.778
2.785 4.817 3.039
2.891 4.645 3.048
3.040 4.631 3.291
3.064 4.599 3.539
3.042 4.829 3.595
3.193 5.118 1.979
3.389 4.788 1.885
3.265 4.908 2.193
3.019 4.753 2.408
3.313 4.622 2.907
3.189 4.760 2.881
3.034 4.825 3.113
3.250 4.548 3.384
3.134 5.030 3.648
3.198 4.913 1.804
3.312 4.988 1.937
3.563 4.946 2.326
3.568 5.110 2.470
3.257 4.757 2.931
3.244 5.083 3.190
3.220 5.051 3.154
3.185 4.676 3.470
3.550 5.063 3.390
3.224 4.558 5.628
3.512 4.590 5.988
3.432 4.648 6.134
3.758 4.963 1.843
3.805 5.310 2.071
3.397 5.290 2.344
3.590 4.910 2.587
3.595 5.019 2.797
3.742 5.161 3.038
3.334 5.105 3.122
3.374 5.106 3.666
3.630 4.808 5.124
3.668 5.016 5.415
3.413 4.744 5.567
3.583 4.699 5.816
3.429 4.870 5.961
3.898 5.063 1.707
3.733 5.380 2.064
3.704 5.245 2.406
3.881 5.085 2.500
3.678 5.175 3.022
3.612 5.147 3.102
3.858 5.067 3.163
3.748 4.843 4.971
3.738 5.050 5.473
3.967 4.977 5.530
3.645 4.827 6.039
3.569 4.821 6.299
4.146 5.128 2.231
4.148 5.179 2.501
4.047 5.428 2.760
3.849 5.189 2.942
4.099 5.128 3.151
0.385 3.587 0.478
0.185 3.516 0.839
0.117 3.403 1.014
0.352 3.247 1.238
-0.031 3.475 1.495
0.070 2.754 5.797
0.133 2.992 5.960
0.450 3.623 0.649
0.504 3.580 0.945
0.405 3.609 0.893
0.354 3.587 1.283
0.184 3.294 1.478
0.130 3.107 6.043
0.765 3.793 0.449
0.406 3.453 0.816
0.705 3.687 0.893
0.697 3.427 1.341
0.369 3.458 1.642
0.577 3.450 1.730
0.583 3.266 6.331
0.904 3.578 0.769
0.963 3.491 0.818
0.892 3.828 1.253
0.944 3.637 1.403
0.784 3.685 1.454
0.699 3.525 1.720
0.716 3.640 3.451
0.887 3.478 3.884
0.953 3.391 4.168
0.728 3.534 4.185
0.746 3.454 4.666
1.171 3.803 0.557
0.869 3.912 0.676
1.053 3.935 1.022
0.971 3.779 1.502
1.099 3.868 1.750
0.918 3.566 1.959
1.231 3.622 3.283
1.161 3.722 3.763
0.965 3.575 4.105
1.135 3.365 4.121
1.116 3.711 4.197
0.780 3.678 4.619
0.821 3.666 4.651
1.416 4.095 0.635
1.255 4.091 0.985
1.372 4.008 1.264
1.241 3.867 1.430
1.364 3.790 1.764
0.776 3.982 3.651
0.877 3.958 3.664
0.824 3.719 4.033
1.063 3.919 4.050
0.735 3.768 4.261
1.032 3.751 4.588
1.096 4.172 0.786
0.977 4.065 0.806
1.211 4.064 1.320
1.237 4.159 1.522
1.193 4.091 1.759
1.229 3.897 3.107
1.130 4.058 3.636
0.938 3.942 3.510
0.932 3.714 3.851
0.954 3.840 4.135
1.132 3.802 4.486
1.194 3.729 4.555
0.982 3.747 5.054
1.306 4.325 0.708
1.259 4.272 0.949
1.243 4.386 1.293
1.180 4.271 1.561
1.364 4.143 3.309
1.288 4.163 3.483
1.465 4.053 3.623
1.392 4.157 3.801
1.276 4.069 4.035
1.343 3.986 4.076
1.254 4.088 4.455
1.145 4.065 4.774
1.213 3.841 4.915
1.544 4.448 0.593
1.462 4.548 0.923
1.524 4.137 1.125
1.509 4.190 3.436
1.576 4.175 3.307
1.477 4.307 3.617
1.497 3.940 3.751
1.527 4.093 4.135
1.536 4.221 4.315
1.335 3.955 4.609
1.428 4.167 4.863
1.258 4.154 5.059
1.649 4.245 3.142
1.416 4.368 3.192
1.976 4.161 3.262
1.939 4.160 3.736
1.838 4.381 3.831
1.592 4.313 4.141
1.822 4.061 4.342
1.742 4.040 4.307
1.843 4.021 4.605
1.780 4.474 3.157
1.692 4.444 3.311
1.940 4.329 3.321
1.986 4.212 3.442
1.798 4.496 3.808
1.848 4.278 4.105
1.760 4.127 4.258
2.109 4.328 4.447
1.900 4.663 3.056
1.927 4.244 2.957
2.094 4.526 3.374
2.247 4.620 3.514
2.126 4.317 3.725
2.196 4.648 4.041
2.333 4.373 3.997
2.050 4.547 4.235
2.339 4.642 2.527
2.344 4.691 2.804
2.069 4.725 3.118
2.253 4.706 3.583
2.225 4.780 3.231
2.284 4.765 3.483
2.147 4.512 3.878
2.170 4.631 4.257
2.402 4.533 2.315
2.326 4.493 2.858
2.200 4.603 2.882
2.581 4.491 3.128
2.202 4.691 3.587
2.775 4.757 3.515
2.430 4.786 3.635
2.627 4.728 4.056
2.730 4.888 2.366
2.483 4.958 2.541
2.586 4.871 2.587
2.467 4.832 3.140
2.573 4.706 3.106
2.577 4.687 3.398
2.592 4.994 3.650
2.890 4.611 3.811
2.892 4.955 1.926
3.024 5.094 2.343
2.837 4.992 2.566
2.704 4.803 2.902
2.844 5.009 2.904
2.845 4.915 3.255
2.827 4.771 3.427
3.017 5.120 3.602
2.995 5.090 3.652
2.997 5.264 1.885
3.258 5.190 2.169
3.178 4.856 2.604
2.924 5.173 2.634
2.858 5.062 2.981
2.896 5.150 3.274
2.810 5.073 3.512
3.328 5.153 3.539
3.207 4.851 5.552
3.021 4.713 5.699
3.018 4.876 5.936
3.413 5.167 1.793
3.363 5.384 2.001
3.250 5.136 2.148
3.406 5.160 2.423
3.033 5.306 2.621
3.025 5.211 3.080
3.145 4.965 3.216
3.177 4.883 3.533
3.203 5.148 3.639
3.458 5.034 5.487
3.241 4.785 5.717
3.466 4.714 5.779
3.191 5.028 6.004
3.609 5.520 2.111
3.326 5.392 2.255
3.387 5.202 2.429
3.589 5.430 2.698
3.390 5.168 3.035
3.254 5.030 3.148
3.441 5.083 3.175
3.509 5.220 3.494
3.688 5.195 3.361
3.656 4.934 5.028
3.293 4.937 5.519
3.298 4.988 5.514
3.461 5.162 5.753
3.574 4.836 5.928
3.777 5.367 2.118
3.577 5.523 2.140
3.739 5.503 2.389
3.783 5.548 2.644
3.603 5.297 2.801
3.738 5.301 3.158
3.737 5.425 3.520
3.465 5.242 3.639
3.781 5.196 5.351
3.840 5.289 5.302
3.658 5.015 5.586
3.651 5.139 6.066
3.508 5.044 6.154
3.872 5.572 2.355
3.981 5.654 2.228
3.844 5.445 2.725
3.958 5.456 3.033
3.686 5.452 3.065
3.679 5.481 3.237
0.224 3.519 0.541
0.187 3.673 0.845
0.012 3.373 0.942
-0.130 3.384 1.205
0.297 3.922 0.456
0.096 3.481 0.676
0.408 3.817 1.049
0.257 3.722 1.460
0.374 3.422 1.341
0.156 3.294 6.302
0.513 3.630 0.650
0.385 3.906 0.687
0.628 3.978 0.884
0.448 3.927 1.423
0.566 3.801 1.675
0.714 3.581 3.740
0.441 3.773 4.057
0.657 3.455 4.277
0.451 3.552 4.151
0.566 3.401 6.106
0.748 4.056 0.590
0.566 4.009 0.987
0.527 4.068 1.259
0.707 3.966 1.374
0.519 3.732 1.645
0.733 3.896 3.240
0.585 3.840 3.557
0.913 3.750 4.099
0.661 3.552 3.981
0.786 3.643 4.257
0.562 3.645 4.583
0.849 4.027 0.519
0.699 3.974 0.871
1.002 4.006 1.027
0.699 3.935 1.190
0.664 3.779 1.586
0.907 3.643 3.651
0.873 3.645 3.573
1.053 3.889 3.918
0.712 3.856 4.303
0.911 3.936 4.444
0.861 3.859 4.690
1.300 4.232 0.875
0.981 4.092 0.730
0.919 3.920 1.199
1.207 4.085 1.476
0.938 4.162 1.807
0.645 4.075 3.095
0.986 3.850 3.625
0.959 4.147 3.702
0.761 3.891 3.889
0.776 3.921 4.205
0.717 3.753 4.536
0.882 3.902 4.674
0.788 4.535 0.758
1.114 4.239 0.921
0.755 4.108 1.008
0.865 4.274 1.556
0.863 4.050 1.582
0.681 3.977 3.292
0.975 4.350 3.288
0.983 4.357 3.598
1.214 4.263 3.843
1.124 4.084 4.007
0.995 4.006 4.234
0.990 4.194 4.269
1.036 4.009 4.631
0.904 3.967 4.728
1.165 4.397 0.854
1.066 4.583 1.101
1.017 4.268 1.073
1.326 4.569 1.534
1.322 4.309 1.458
1.242 4.212 3.481
1.167 4.089 3.339
1.082 4.449 3.610
1.123 4.026 3.630
1.302 4.007 4.148
1.044 4.353 4.236
1.106 4.302 4.577
1.153 4.040 4.813
1.413 4.745 0.960
1.357 4.571 0.886
1.497 4.330 1.173
1.561 4.288 1.266
1.331 4.423 3.406
1.324 4.419 3.150
1.256 4.293 3.504
1.368 4.244 3.814
1.570 4.337 3.922
1.440 4.452 4.228
1.411 4.360 4.581
1.302 4.126 4.548
1.404 4.672 0.713
1.747 4.740 0.982
1.785 4.442 1.378
1.441 4.407 3.128
1.668 4.560 3.525
1.697 4.373 3.422
1.785 4.427 3.765
1.725 4.501 3.888
1.762 4.400 4.380
1.702 4.448 4.592
1.898 4.964 0.666
1.614 4.771 1.181
1.683 4.577 3.206
1.853 4.591 3.417
1.706 4.470 3.531
1.822 4.540 3.703
1.877 4.608 3.724
1.876 4.362 4.113
1.951 4.492 4.284
1.897 4.446 3.309
1.918 4.518 3.373
1.989 4.747 3.514
1.867 4.792 3.457
1.867 4.698 3.839
1.880 4.501 4.171
2.026 4.888 2.766
1.906 4.891 3.288
2.171 4.684 3.408
2.262 4.939 3.609
2.262 4.727 3.614
2.212 4.852 3.949
2.174 4.971 2.701
2.416 4.886 2.916
2.236 4.678 3.262
2.225 5.037 3.533
2.560 4.766 3.269
2.323 4.811 3.720
2.394 4.991 2.660
2.439 4.929 2.566
2.671 5.145 2.889
2.360 5.001 3.308
2.507 4.981 3.511
2.867 5.060 3.369
2.482 4.846 3.567
2.718 4.869 6.139
2.803 5.162 2.137
2.617 5.021 2.575
2.554 5.025 2.726
2.702 5.090 3.128
2.494 4.879 3.137
2.734 4.926 3.325
3.014 5.018 3.544
2.963 4.779 5.726
2.791 5.020 5.627
2.635 4.957 5.826
2.552 5.012 6.328
3.151 5.123 2.047
3.039 5.414 2.535
2.994 5.412 2.764
2.872 5.207 2.675
2.969 5.287 3.139
2.998 5.343 3.444
3.031 5.190 3.404
3.216 5.075 3.440
3.022 4.962 5.493
3.029 5.125 5.693
2.895 5.192 5.907
2.927 4.995 5.876
3.290 5.313 2.220
3.021 5.322 2.222
3.253 5.228 2.471
2.965 5.295 2.829
3.090 5.143 3.083
3.136 5.196 3.397
2.889 5.162 3.362
3.144 5.350 3.408
3.327 5.116 5.584
3.168 5.162 5.460
3.278 4.986 5.730
3.241 5.172 6.228
3.585 5.442 2.101
3.302 5.625 2.379
3.371 5.271 2.487
3.531 5.290 3.055
3.420 5.365 2.891
3.142 5.467 3.332
3.480 5.394 3.720
3.601 5.632 3.487
3.196 5.243 5.200
3.562 5.209 5.433
3.389 5.231 5.513
3.554 5.367 5.680
3.513 5.364 5.975
3.400 5.476 2.035
3.580 5.741 2.191
3.600 5.810 2.515
3.626 5.581 2.586
3.490 5.461 2.685
3.528 5.562 2.990
3.388 5.459 3.364
3.479 5.529 3.745
3.717 5.444 3.443
3.753 5.202 5.359
3.491 5.465 5.542
3.521 5.346 5.697
3.376 5.237 5.907
3.669 5.228 6.295
3.588 5.533 2.115
3.773 5.720 2.605
3.889 5.701 2.795
3.543 5.627 3.059
3.630 5.477 3.274
3.639 5.538 3.173
3.778 5.776 3.452
0.036 3.569 3.515
0.322 4.097 0.606
0.083 3.687 0.737
0.086 4.060 0.910
-0.015 3.824 1.395
0.144 3.764 3.417
0.010 3.885 3.524
0.135 3.632 3.864
-0.028 3.591 4.094
-0.013 3.574 4.430
0.201 3.298 6.197
0.376 3.882 0.752
0.188 4.194 0.989
0.334 4.012 1.016
0.357 3.920 1.280
0.564 3.950 3.242
0.483 3.606 3.841
0.323 3.700 4.033
0.532 3.741 4.263
0.437 3.532 4.511
0.153 3.609 4.711
0.077 3.513 6.236
0.745 4.017 0.498
0.520 4.099 0.708
0.735 4.233 1.020
0.403 4.255 1.302
0.737 4.148 1.446
0.470 4.111 3.609
0.589 3.989 3.632
0.519 3.888 4.001
0.778 3.809 4.016
0.402 3.867 4.309
0.661 3.936 4.633
0.731 4.296 0.669
0.747 4.023 1.101
0.783 4.183 1.228
0.690 4.050 1.438
0.640 4.090 1.441
0.831 4.204 3.450
0.624 4.208 3.584
0.898 3.910 3.861
0.684 4.015 3.846
0.627 4.011 4.067
0.872 3.943 4.393
0.937 3.737 4.777
0.898 4.473 0.706
1.040 4.269 0.833
0.911 4.337 1.321
1.137 4.194 1.480
1.014 4.106 1.651
0.950 3.910 3.238
0.627 4.156 3.226
0.691 4.381 3.340
0.503 4.194 3.889
0.795 4.026 4.066
0.500 4.038 4.324
0.676 4.226 4.598
0.541 4.095 4.612
0.970 4.690 0.745
0.714 4.513 0.868
0.939 4.304 1.032
0.801 4.574 1.574
0.867 4.355 1.497
0.839 4.323 3.357
1.136 4.403 3.130
0.920 4.352 3.419
1.053 4.496 3.651
1.065 4.488 4.060
0.679 4.160 4.198
0.934 4.182 4.403
0.809 4.198 4.655
1.233 4.501 0.645
1.263 4.671 0.778
1.187 4.690 1.153
0.926 4.695 1.563
0.987 4.641 1.493
0.744 4.288 3.295
1.230 4.348 3.269
1.050 4.631 3.643
1.130 4.388 3.908
1.053 4.603 4.036
1.222 4.460 4.418
0.967 4.456 4.578
1.081 4.325 4.691
1.370 4.894 0.890
1.292 4.676 0.925
1.168 4.759 1.278
1.260 4.600 1.555
1.313 4.692 1.587
1.253 4.297 3.216
1.344 4.650 3.443
1.325 4.544 3.391
1.357 4.348 3.677
1.457 4.668 3.989
1.355 4.394 4.362
1.399 4.283 4.592
1.421 5.041 0.838
1.654 4.837 0.914
1.354 4.912 1.234
1.310 4.970 1.330
1.488 4.398 3.162
1.437 4.760 3.463
1.388 4.870 3.418
1.352 4.790 3.717
1.604 4.682 4.181
1.612 4.525 4.247
1.622 5.137 0.619
1.822 5.116 1.106
1.623 5.139 1.324
1.412 4.883 3.194
1.548 4.934 3.466
1.590 4.927 3.770
1.742 4.782 4.155
2.073 5.253 0.643
1.949 4.957 0.920
1.951 4.900 3.850
2.301 5.212 0.932
2.041 4.932 6.282
2.432 4.837 5.645
2.229 4.964 6.015
2.123 4.963 6.213
2.435 5.004 3.068
2.188 5.132 3.350
2.693 5.274 3.376
2.356 5.027 5.554
2.313 5.201 5.817
2.615 4.941 5.975
2.538 5.071 6.385
2.530 5.157 2.352
2.510 5.417 2.804
2.558 5.407 3.220
2.627 5.236 3.130
2.525 5.164 3.295
2.569 5.473 3.446
2.565 5.186 5.375
2.841 5.297 5.398
2.727 5.258 5.751
2.561 4.994 6.140
2.425 5.032 6.391
2.859 5.608 2.186
2.725 5.499 2.560
2.984 5.596 2.954
2.647 5.432 3.089
2.724 5.191 3.111
2.572 5.370 3.499
2.798 5.617 3.667
2.920 5.336 5.275
2.945 5.064 5.528
2.868 5.040 5.963
2.937 5.353 6.204
3.256 5.608 2.155
3.253 5.500 2.443
3.211 5.576 2.526
3.004 5.646 2.920
2.804 5.379 2.885
2.891 5.462 3.319
2.998 5.583 3.699
3.106 5.423 3.569
3.253 5.600 5.058
3.258 5.180 5.310
3.036 5.418 5.612
2.877 5.260 5.719
3.219 5.209 5.923
3.162 5.626 2.072
3.173 5.505 2.365
3.344 5.667 2.486
3.121 5.590 2.710
3.191 5.666 2.975
3.368 5.694 3.515
3.327 5.551 3.727
3.360 5.586 3.771
3.104 5.492 5.081
3.385 5.537 5.343
3.464 5.367 5.764
3.240 5.508 6.001
3.305 5.466 6.146
3.374 5.888 2.334
3.506 5.611 2.337
3.243 5.601 2.558
3.295 5.867 3.092
3.593 5.634 2.968
3.419 5.918 3.217
3.484 5.497 3.540
3.442 5.764 3.551
3.415 5.482 5.249
3.289 5.662 5.538
3.589 5.501 5.750
3.379 5.646 5.794
3.305 5.584 6.312
3.472 6.127 2.128
3.505 5.907 2.646
3.566 5.867 2.647
3.665 5.753 3.098
3.575 5.831 3.345
3.439 5.924 3.514
3.688 5.610 3.790
0.267 4.206 0.597
-0.125 4.135 1.030
-0.058 4.057 1.289
-0.027 3.941 3.259
0.180 3.731 3.366
0.059 3.732 3.714
-0.009 3.753 3.711
-0.097 4.032 4.238
-0.000 3.697 4.437
-0.053 3.818 4.719
0.144 4.268 0.599
0.422 4.075 0.957
0.101 4.338 1.150
0.114 4.137 1.421
-0.061 4.054 3.142
0.159 4.092 3.347
0.105 3.822 3.355
0.092 3.874 3.851
0.382 3.781 3.739
0.441 4.135 4.072
0.409 4.073 4.503
0.313 3.837 4.799
0.264 4.234 0.757
0.555 4.188 0.790
0.487 4.127 1.207
0.381 4.231 1.173
0.335 3.961 3.320
0.348 4.094 3.231
0.676 4.198 3.281
0.452 4.209 3.543
0.309 4.269 3.790
0.566 4.141 4.132
0.571 4.121 4.569
0.469 3.819 4.641
0.634 4.448 0.643
0.859 4.600 0.959
0.768 4.203 1.254
0.449 4.169 1.586
0.521 4.350 1.758
0.386 4.149 3.222
0.637 4.244 3.307
0.583 4.206 3.376
0.848 4.163 3.927
0.718 4.322 4.098
0.849 3.982 4.052
0.638 4.249 4.276
0.800 3.988 4.643
0.764 4.739 0.760
0.812 4.436 1.144
0.899 4.344 1.052
0.767 4.484 1.589
0.917 4.267 1.562
0.675 4.387 3.359
0.629 4.579 3.282
0.429 4.423 3.438
0.725 4.225 3.649
0.760 4.340 3.869
0.412 4.526 4.079
0.563 4.223 4.517
0.631 4.504 4.587
0.855 4.958 0.724
0.618 4.573 1.016
0.897 4.734 1.143
0.839 4.634 1.474
0.511 4.859 1.826
0.754 4.687 3.443
0.740 4.387 3.622
0.631 4.490 3.597
0.643 4.548 4.097
0.906 4.611 4.279
0.815 4.366 4.647
0.714 4.402 4.894
0.837 4.948 0.709
1.122 4.689 0.933
1.009 4.936 1.249
0.801 4.734 1.520
1.039 4.958 1.583
1.023 4.491 3.694
1.105 4.805 3.624
0.944 4.648 3.881
0.835 4.516 4.133
1.100 4.764 4.581
1.136 4.960 0.731
1.028 5.072 0.810
1.325 4.962 1.218
1.074 4.976 1.567
1.284 4.976 1.725
1.088 4.779 3.613
1.330 4.879 4.248
1.071 4.822 4.436
1.363 5.256 0.806
1.352 4.956 1.217
1.167 5.053 1.064
1.331 4.802 1.631
1.398 4.960 1.815
1.437 5.003 0.719
1.594 5.216 0.975
1.599 4.977 1.402
1.619 5.202 1.631
1.399 4.568 6.175
1.906 5.123 1.017
1.905 5.248 1.168
1.877 5.082 1.478
1.890 4.827 6.016
1.884 4.672 6.226
2.030 5.451 0.890
1.800 5.241 1.140
1.836 4.920 5.874
2.087 4.757 6.125
2.082 5.113 6.374
2.151 5.560 1.112
1.955 4.968 5.418
2.229 4.936 5.867
2.262 5.139 6.021
2.287 5.176 6.373
2.147 5.265 5.337
2.410 5.221 5.705
2.317 5.004 5.674
2.233 5.381 5.857
2.376 4.990 6.111
2.700 5.204 5.166
2.429 5.272 5.557
2.716 5.253 5.415
2.428 5.150 6.040
2.319 5.172 6.093
2.539 5.729 2.780
2.519 5.415 3.035
2.742 5.651 5.126
2.699 5.303 5.375
2.675 5.513 5.596
2.533 5.439 5.911
2.702 5.502 5.958
2.838 5.890 2.307
2.896 5.606 2.435
3.102 5.860 2.795
2.845 5.922 3.123
3.073 5.802 3.473
3.112 5.759 5.328
3.101 5.588 5.303
2.830 5.573 5.835
2.983 5.408 5.939
3.030 5.693 6.133
3.049 5.745 2.377
3.286 5.794 2.580
3.109 5.694 2.614
3.084 5.885 2.671
2.909 5.927 3.215
3.098 5.613 3.292
3.201 5.663 5.235
3.191 5.494 5.507
3.133 5.793 5.470
3.329 5.450 5.993
3.263 5.556 6.272
3.187 6.003 2.240
3.265 5.881 2.482
3.392 5.974 2.799
3.385 6.040 2.735
3.463 6.022 3.341
3.375 5.902 3.159
3.354 6.114 3.728
3.578 5.633 5.213
3.387 5.697 5.605
3.321 5.567 5.629
3.410 5.715 5.725
3.534 5.758 6.289
3.468 6.033 1.855
3.760 6.226 2.120
3.524 6.327 2.352
3.594 6.120 2.654
3.597 5.911 2.778
3.704 6.061 3.291
3.409 6.178 3.433
3.533 5.799 3.487
0.054 4.249 3.211
-0.032 4.522 0.749
0.241 4.295 0.995
0.275 4.377 1.162
-0.008 3.979 3.108
0.074 4.131 3.361
0.178 4.443 3.300
0.114 4.072 3.883
0.078 4.332 3.810
-0.017 4.323 4.059
0.177 4.245 4.335
0.180 4.131 4.420
0.265 4.220 4.878
0.400 4.746 0.676
0.401 4.711 0.744
0.287 4.487 1.303
0.115 4.656 1.403
0.177 4.423 3.325
0.414 4.375 3.078
0.458 4.493 3.572
0.195 4.375 3.673
0.476 4.126 3.862
0.372 4.186 3.981
0.182 4.417 4.417
0.128 4.145 4.497
0.465 3.985 4.808
0.382 4.564 0.808
0.534 4.593 0.890
0.459 4.602 1.131
0.361 4.778 1.322
0.698 4.401 1.429
0.252 4.401 3.278
0.724 4.606 3.251
0.515 4.297 3.359
0.770 4.608 3.888
0.631 4.501 4.131
0.446 4.370 4.345
0.625 4.219 4.488
0.656 4.509 4.690
0.769 4.621 0.878
0.657 4.893 0.992
0.790 4.566 1.351
0.839 4.593 1.548
0.560 4.839 1.457
0.477 4.497 3.473
0.500 4.463 3.602
0.342 4.738 3.767
0.354 4.683 3.847
0.407 4.746 4.147
0.232 4.588 4.306
0.565 4.493 4.666
0.239 4.338 5.010
0.506 4.812 0.916
0.793 4.879 0.985
0.569 4.947 1.052
0.754 5.072 1.588
0.780 4.900 1.715
0.603 4.767 3.656
0.833 4.616 3.799
0.537 4.720 3.984
0.591 4.654 4.162
0.640 4.504 4.626
0.689 4.630 4.730
0.705 4.875 0.837
0.684 4.870 1.031
0.780 5.213 1.106
0.695 4.873 1.580
0.780 4.967 1.764
1.080 4.783 3.887
0.847 4.853 4.071
0.962 4.984 4.177
1.272 5.179 0.845
0.920 5.298 1.109
1.018 4.970 1.397
1.203 4.988 1.665
1.107 4.870 1.720
1.055 5.254 2.085
1.261 5.461 0.699
1.155 5.089 1.153
1.315 5.144 1.130
1.137 5.228 1.329
1.072 5.376 1.593
0.954 4.941 6.347
1.608 5.542 1.002
1.416 5.309 0.892
1.602 5.242 1.194
1.561 5.116 1.581
1.318 5.455 1.619
1.173 4.760 6.134
1.358 5.101 6.125
1.742 5.597 1.000
1.796 5.473 1.309
1.813 5.365 1.538
1.484 5.300 1.664
1.405 5.184 5.632
1.552 5.259 5.826
1.707 4.980 6.194
1.950 5.688 0.980
1.720 5.641 1.031
2.053 5.382 1.473
1.852 5.380 5.669
1.781 5.224 5.901
1.791 5.156 6.000
1.823 4.976 6.154
2.202 5.777 0.985
2.217 5.724 0.962
1.844 5.412 5.297
2.050 5.209 5.708
2.123 5.099 5.706
1.976 5.402 5.883
1.923 5.100 6.405
2.228 5.752 1.029
2.339 5.515 5.325
2.262 5.394 5.431
2.096 5.463 5.706
2.350 5.349 6.000
2.033 5.251 6.061
2.549 5.387 5.098
2.606 5.362 5.275
2.264 5.508 5.522
2.212 5.335 6.010
2.458 5.462 5.942
2.744 5.819 4.957
2.459 5.868 5.322
2.684 5.744 5.283
2.621 5.533 5.837
2.435 5.628 5.974
2.436 5.412 6.283
2.804 5.857 5.253
2.923 5.795 5.406
2.880 5.771 5.741
2.738 5.632 5.927
2.938 5.877 6.122
2.932 5.961 2.471
3.049 6.278 2.795
2.815 6.234 2.970
3.020 6.170 3.036
2.898 6.017 5.291
3.115 5.801 5.530
2.866 5.928 5.667
3.064 6.038 5.747
2.919 5.674 6.302
3.274 6.275 2.247
3.152 6.114 2.456
3.200 6.196 2.721
3.260 6.174 2.822
3.157 6.333 3.309
3.099 6.093 3.323
3.401 6.129 5.175
3.228 5.886 5.663
3.056 5.931 5.698
3.333 5.828 5.842
3.040 5.847 5.998
3.527 6.308 2.751
3.242 6.432 3.384
3.270 6.302 3.297
0.091 4.668 3.173
0.082 4.572 3.528
0.248 4.224 3.548
0.248 4.298 4.004
-0.086 4.357 4.147
-0.035 4.333 4.243
0.141 4.273 4.666
-0.161 4.312 4.949
0.116 4.626 0.640
0.413 4.692 1.015
0.357 4.494 1.305
0.107 4.550 3.195
0.292 4.404 3.347
0.139 4.724 3.350
0.358 4.431 3.580
0.104 4.402 3.895
0.416 4.330 4.008
0.350 4.339 4.617
0.226 4.405 4.604
0.342 4.570 4.903
0.525 4.811 0.765
0.383 4.974 0.799
0.406 4.864 1.052
0.600 4.791 1.343
0.221 4.597 3.167
0.437 4.578 3.673
0.658 4.600 3.713
0.307 4.536 3.932
0.499 4.409 4.109
0.617 4.428 4.483
0.394 4.504 4.855
0.472 4.458 4.973
0.578 5.040 0.805
0.653 4.854 0.798
0.652 4.982 1.395
0.826 4.771 1.598
0.784 4.748 1.880
0.547 4.691 3.624
0.213 4.998 4.036
0.508 4.589 4.392
0.472 4.772 4.494
0.122 4.671 4.523
0.207 4.706 4.854
0.732 5.240 0.884
0.390 5.298 1.211
0.692 5.280 1.220
0.448 4.990 1.415
0.557 5.041 1.825
0.681 4.916 4.107
0.676 4.947 4.059
0.351 4.820 4.370
0.645 5.100 0.598
0.617 5.452 0.889
0.684 5.329 1.365
0.871 5.079 1.620
0.880 5.078 1.535
0.769 4.945 1.956
1.051 5.389 0.923
0.873 5.553 0.871
0.999 5.372 1.345
0.744 5.470 1.506
0.774 5.405 1.842
0.867 5.406 1.908
1.072 5.384 0.867
1.041 5.462 1.232
1.106 5.632 1.448
1.217 5.468 1.677
1.298 5.252 1.593
0.994 5.418 1.888
1.168 5.041 6.212
1.181 5.679 0.958
1.316 5.602 0.890
1.355 5.386 1.206
1.318 5.630 1.548
1.161 5.457 1.965
1.178 5.684 1.935
1.417 5.210 5.879
1.430 5.097 6.361
1.705 5.800 0.868
1.714 5.748 1.256
1.628 5.483 1.545
1.576 5.682 1.447
1.491 5.791 1.801
1.318 5.259 5.889
1.492 5.304 6.063
1.515 5.111 6.074
1.828 5.771 1.007
1.632 5.861 1.070
1.595 5.884 1.492
1.824 5.887 1.788
1.548 5.241 5.314
1.686 5.244 5.387
1.865 5.240 5.635
1.602 5.413 5.986
1.576 5.239 6.269
1.838 5.761 0.972
1.881 5.842 1.184
2.015 5.673 1.370
1.734 5.681 4.921
2.013 5.530 5.442
1.744 5.603 5.781
2.013 5.379 5.941
1.676 5.682 5.941
1.779 5.277 6.177
2.067 6.210 1.072
2.358 5.866 1.267
2.077 5.542 5.031
2.026 5.771 4.977
2.131 5.798 5.385
2.049 5.560 5.457
2.282 5.657 5.999
2.180 5.399 5.974
2.209 5.954 4.748
2.499 5.963 5.361
2.350 5.640 5.533
2.178 5.931 5.471
2.133 5.833 5.796
2.478 5.495 6.079
2.538 6.132 5.123
2.647 5.719 5.164
2.520 5.691 5.492
2.613 5.682 5.538
2.677 5.969 5.927
2.311 5.974 5.919
2.850 6.120 4.978
2.903 6.155 5.035
2.828 5.857 5.451
2.761 5.753 5.546
2.540 6.032 5.906
2.807 5.914 6.347
2.989 5.919 5.267
2.805 5.985 5.651
3.104 6.274 5.900
2.894 6.177 6.099
2.948 5.945 6.335
3.278 6.344 5.096
3.207 6.169 5.509
3.237 6.052 5.593
3.116 5.940 6.135
3.121 6.313 6.154
0.238 4.716 3.726
-0.039 4.741 3.710
0.116 4.857 4.061
-0.004 4.470 4.299
0.215 4.451 4.316
0.206 4.480 4.521
-0.112 4.546 4.870
0.223 4.861 0.951
0.260 5.182 0.943
0.227 5.090 1.204
0.496 4.922 1.536
0.360 4.871 3.649
0.400 4.894 3.932
0.539 4.893 4.101
0.205 4.846 4.569
0.459 4.681 4.872
0.115 4.740 4.881
0.404 5.208 0.826
0.665 5.212 1.138
0.346 5.041 1.078
0.697 4.886 1.257
0.313 4.944 1.827
0.095 5.007 3.873
0.391 5.143 4.252
0.085 5.032 4.585
0.340 4.847 4.646
0.271 5.036 5.098
0.498 5.281 0.855
0.298 5.186 0.812
0.507 5.137 1.139
0.573 5.100 1.334
0.215 5.283 1.641
0.639 5.671 0.899
0.523 5.340 1.014
0.646 5.316 1.356
0.721 5.296 1.582
0.743 5.310 1.633
0.644 5.171 2.172
0.907 5.797 0.659
1.004 5.697 1.030
0.895 5.528 1.407
0.956 5.507 1.520
0.910 5.374 1.594
0.697 5.351 1.894
0.920 5.402 2.016
0.992 5.887 0.941
1.251 5.845 1.214
1.185 5.451 1.424
1.001 5.647 1.443
1.194 5.783 1.658
0.851 5.694 1.849
0.804 5.730 2.224
0.966 5.138 6.152
1.063 5.692 0.711
1.252 5.668 1.134
1.194 5.550 1.313
1.243 5.651 1.722
1.382 5.769 1.778
1.215 5.689 1.845
1.053 5.789 2.336
0.974 5.395 5.862
1.158 5.479 6.085
1.275 5.797 1.009
1.656 5.904 1.279
1.611 5.759 1.568
1.567 5.912 1.678
1.436 5.949 1.689
1.373 5.986 2.043
1.537 5.380 5.416
1.304 5.341 5.822
1.231 5.658 5.898
1.296 5.544 6.188
1.473 6.003 0.798
1.743 5.868 1.094
1.615 6.163 1.415
1.476 6.098 1.836
1.462 5.814 1.778
1.421 5.689 5.282
1.585 5.760 5.665
1.761 5.694 5.600
1.501 5.705 6.091
1.584 5.467 6.106
1.743 6.151 0.900
1.949 6.128 1.319
1.932 6.078 1.541
1.744 5.740 5.039
1.866 5.830 5.011
1.723 5.962 5.231
1.718 5.869 5.805
1.750 5.834 5.997
1.799 5.585 5.906
2.224 6.353 0.985
1.943 6.019 1.046
1.948 5.844 4.668
2.225 5.817 4.910
2.207 5.987 5.140
1.953 5.898 5.353
2.083 6.028 5.491
2.166 5.905 5.896
1.900 5.849 6.092
2.205 6.194 4.929
2.333 5.851 5.081
2.395 6.087 5.196
2.284 6.158 5.222
2.394 5.912 5.672
2.037 5.726 5.717
2.345 5.711 6.022
2.619 6.349 4.884
2.347 6.290 4.856
2.589 6.282 5.317
2.372 5.902 5.337
2.429 5.987 5.621
2.369 5.989 5.818
2.545 5.990 6.339
2.550 6.140 5.057
2.630 6.203 5.091
2.600 6.029 5.493
2.427 5.964 5.865
2.581 6.011 5.857
2.603 5.919 6.051
2.936 6.447 5.755
2.949 6.437 5.992
2.850 6.301 5.979
0.189 4.883 3.388
-0.139 4.815 3.713
-0.154 4.716 3.873
0.075 5.077 4.214
0.070 4.896 4.476
-0.071 4.976 4.481
0.230 4.820 3.847
0.162 4.967 4.199
0.025 5.092 4.580
0.037 4.824 4.803
0.116 4.861 4.856
0.384 5.553 0.977
0.314 5.173 1.082
0.284 5.307 1.358
0.326 5.319 1.432
0.536 5.359 1.845
0.200 5.014 4.274
0.004 5.258 4.573
0.172 5.333 4.532
0.180 5.089 4.835
0.459 5.591 0.842
0.141 5.515 1.392
0.454 5.331 1.684
0.370 5.675 1.916
0.385 5.649 0.667
0.334 5.598 1.013
0.654 5.750 1.239
0.634 5.739 1.525
0.299 5.655 1.627
0.268 5.703 2.119
0.467 5.324 2.282
0.937 5.699 0.649
0.925 5.719 1.076
0.736 5.658 1.166
0.532 5.908 1.627
0.490 5.683 1.674
0.538 5.566 2.086
0.786 5.783 2.133
0.872 5.710 0.770
1.132 5.671 1.065
0.881 5.735 1.286
0.714 6.018 1.772
0.923 5.709 1.845
0.800 5.655 1.881
1.019 5.771 2.409
1.021 5.738 2.644
1.220 5.844 0.941
1.292 5.778 1.154
1.162 6.135 1.486
1.053 5.958 1.732
1.284 5.936 1.987
1.243 6.059 1.880
1.049 6.006 2.433
0.930 5.730 2.338
0.980 5.594 6.296
1.176 6.023 0.764
1.497 5.893 0.991
1.123 5.867 1.343
1.340 5.928 1.749
1.410 6.135 1.998
1.159 6.186 1.906
1.316 5.928 2.463
1.095 5.784 2.689
1.346 5.560 5.637
1.311 5.852 6.054
1.110 5.469 6.310
1.429 6.210 0.847
1.488 6.359 1.071
1.717 6.200 1.616
1.438 6.072 1.681
1.673 6.188 1.852
1.381 5.943 1.903
1.352 6.050 2.393
1.546 5.969 5.140
1.294 5.703 5.202
1.676 5.972 5.422
1.536 5.673 5.971
1.554 5.598 6.195
1.517 6.272 1.714
1.570 6.033 4.641
1.860 6.159 4.965
1.659 5.923 4.960
1.842 5.786 5.201
1.732 5.892 5.692
1.764 5.920 5.857
1.602 5.694 6.168
2.140 6.062 4.340
2.076 6.188 4.788
2.098 6.029 4.967
1.979 6.292 5.070
1.767 5.950 5.295
1.753 6.000 5.558
1.730 6.080 5.747
2.052 6.176 6.111
2.330 6.245 4.450
2.097 6.196 4.728
2.190 6.154 4.862
2.324 6.265 5.117
2.229 6.340 5.561
2.239 6.150 5.650
2.167 6.201 5.729
2.076 6.268 6.254
2.458 6.085 5.727
2.348 6.136 6.085
2.268 6.284 6.353
0.266 5.184 4.411
0.232 5.072 4.575
0.151 5.087 4.920
0.259 5.167 4.833
0.190 5.520 1.122
0.307 5.368 1.081
0.201 5.426 1.595
0.399 5.406 1.556
0.299 5.735 1.490
0.031 5.513 1.665
-0.002 5.570 1.955
0.468 6.069 1.265
0.324 5.898 1.345
0.271 5.686 1.387
0.452 5.578 1.856
0.512 5.868 2.011
0.414 5.864 2.146
0.485 6.109 1.068
0.816 6.067 1.251
0.400 6.084 1.410
0.705 5.828 1.462
0.380 5.846 1.823
0.442 5.861 1.865
0.405 6.011 2.322
0.447 5.857 2.555
0.891 6.177 0.935
1.009 5.934 1.270
0.936 5.849 1.297
0.674 6.203 1.437
0.683 5.933 1.657
0.644 5.975 2.196
0.750 5.864 2.077
0.700 5.845 2.516
0.923 5.920 2.572
0.856 6.043 1.056
1.088 6.347 1.342
1.186 6.019 1.411
0.928 6.235 1.636
1.055 5.968 1.965
0.971 6.131 1.987
0.767 6.172 2.329
0.953 6.018 2.675
0.985 5.971 2.679
0.819 5.977 2.898
1.154 6.473 1.600
1.054 6.286 1.842
1.190 6.396 1.866
1.163 6.063 2.300
1.171 6.088 2.200
1.238 6.347 2.388
1.237 6.256 2.913
1.232 6.265 3.213
0.974 5.807 5.995
1.275 5.744 6.232
1.281 6.186 2.214
1.395 6.098 2.506
1.222 6.367 2.628
1.152 6.185 2.977
1.279 6.272 4.623
1.486 6.080 4.644
1.542 6.033 5.089
1.450 5.983 5.079
1.479 5.947 5.381
1.289 5.822 5.590
1.341 6.100 5.844
1.182 6.077 5.965
1.620 6.057 4.392
1.817 6.435 4.840
1.660 6.141 5.056
1.521 6.365 5.151
1.550 6.122 5.195
1.567 6.281 5.730
1.443 5.909 5.949
1.350 6.010 6.027
1.998 6.440 5.434
1.962 6.070 5.480
1.934 6.119 5.738
1.781 6.229 6.295
-0.017 5.771 1.707
0.049 5.879 1.924
0.106 5.662 1.796
-0.106 5.850 1.876
-0.079 5.843 1.965
0.096 5.918 2.081
0.336 5.969 1.452
0.270 6.063 1.432
0.386 6.049 1.752
0.057 5.851 2.022
0.328 6.126 2.175
0.065 6.047 2.420
0.336 6.374 1.171
0.283 6.152 1.189
0.683 6.284 1.397
0.586 5.893 1.850
0.351 6.087 2.044
0.320 6.021 2.463
0.410 6.056 2.453
0.339 6.165 2.709
0.287 5.900 2.916
0.877 6.330 1.271
0.708 6.177 1.801
0.613 6.121 1.755
0.584 6.186 2.267
0.773 5.981 2.361
0.784 6.215 2.591
0.626 6.141 2.698
0.538 6.046 2.875
0.659 6.278 2.373
1.040 6.336 2.437
0.644 6.087 2.902
0.761 6.201 2.812
0.837 6.159 3.060
0.780 6.123 3.335
1.195 6.184 3.128
0.995 6.111 3.608
1.053 6.422 4.384
1.233 6.158 5.378
1.396 6.207 5.722
1.234 6.087 5.864
0.070 5.963 1.962
0.119 6.037 2.007
-0.011 5.658 2.055
0.096 6.359 1.668
0.087 6.368 1.940
0.008 6.104 2.024
0.206 6.320 2.311
0.276 6.312 2.552
-0.032 5.937 2.851
0.190 6.235 2.790
0.141 6.160 2.021
0.531 6.399 2.426
0.418 6.156 2.505
0.429 6.309 2.807
0.102 6.191 3.151
0.215 6.000 3.400
0.445 6.107 3.287
2.334 1.178 2.893
2.148 0.970 4.583
2.114 0.994 4.873
2.091 0.992 5.208
2.243 1.104 5.199
2.254 0.737 5.742
2.133 1.010 5.828
2.127 0.694 5.997
2.376 1.519 1.635
2.309 1.404 1.694
2.645 1.112 2.088
2.310 1.400 2.377
2.544 1.067 2.401
2.607 1.173 2.823
2.537 1.410 3.150
2.402 1.274 2.980
2.522 1.003 4.472
2.324 1.215 4.858
2.533 0.945 5.304
2.466 0.983 5.293
2.483 0.913 5.396
2.498 0.939 6.020
2.539 1.133 6.154
2.769 1.408 1.521
2.485 1.457 1.625
2.467 1.416 1.883
2.667 1.407 2.054
2.523 1.336 2.149
2.534 1.280 2.481
2.517 1.188 2.744
2.729 1.442 3.066
2.807 1.224 3.072
2.690 1.114 4.928
2.839 1.232 5.273
2.764 0.998 5.380
2.667 0.987 5.562
2.580 0.912 5.799
2.705 1.755 1.286
2.894 1.582 1.599
3.026 1.539 1.921
2.782 1.583 2.042
2.966 1.600 2.367
2.649 1.426 2.753
2.957 1.653 2.967
2.772 1.250 2.984
2.947 1.488 3.023
2.853 1.258 5.110
2.788 1.184 5.444
2.997 1.230 5.566
2.719 1.359 5.872
3.117 1.570 1.754
3.033 1.857 1.992
2.954 1.742 2.182
2.980 1.682 2.530
3.068 1.502 2.466
3.048 1.375 2.995
2.828 1.598 2.964
3.254 1.590 3.119
3.047 1.608 3.149
3.194 1.677 1.829
3.182 1.872 2.124
3.123 1.717 2.245
3.287 1.749 2.319
3.404 1.639 2.497
3.020 1.561 2.688
3.255 1.583 3.181
3.423 1.923 3.079
3.583 1.779 3.343
3.447 1.703 2.036
3.323 1.708 2.059
3.543 1.974 2.512
3.380 1.592 2.784
3.542 1.974 2.794
3.220 1.930 3.235
3.493 1.695 2.978
3.624 1.719 3.233
3.722 1.649 3.795
3.652 2.113 2.279
3.734 1.846 2.486
3.444 2.031 2.503
3.575 1.825 3.070
3.635 1.687 3.050
3.749 1.965 3.234
3.880 1.811 3.335
3.890 1.909 3.849
3.636 2.026 3.773
3.693 1.964 2.303
3.978 2.061 2.604
3.721 1.972 2.945
3.993 2.008 3.358
4.229 2.046 3.078
4.073 1.998 3.390
3.994 2.022 3.625
3.950 1.951 3.778
3.970 1.971 4.163
4.039 2.294 2.929
4.220 2.234 3.078
3.933 2.248 3.300
4.036 2.097 3.187
4.091 2.248 3.600
4.115 2.320 3.870
4.098 2.254 4.050
4.194 1.892 4.116
4.162 2.067 4.461
4.215 2.025 3.132
4.404 2.084 3.439
4.429 2.452 3.444
4.213 2.113 3.460
4.499 2.284 3.774
4.434 2.019 4.078
4.406 2.016 3.994
4.440 2.331 4.581
4.235 2.096 4.501
4.686 2.671 0.597
4.744 2.560 0.842
4.502 2.221 2.978
4.606 2.197 3.325
4.654 2.375 3.473
4.827 2.428 3.479
4.737 2.164 3.726
4.737 2.118 3.990
4.625 2.177 4.163
4.647 2.085 4.497
4.569 2.357 4.647
4.764 2.694 0.625
4.593 2.489 0.877
4.945 2.474 1.339
4.492 2.544 3.195
4.762 2.548 3.284
4.812 2.336 3.575
4.693 2.625 3.727
4.908 2.344 4.110
4.958 2.271 4.179
4.919 2.546 4.593
4.543 2.291 4.712
4.747 2.525 4.818
5.075 2.970 0.952
5.017 2.680 0.980
5.149 2.923 1.047
5.039 2.597 1.365
4.920 2.379 3.508
4.831 2.611 3.449
5.091 2.481 3.654
5.198 2.594 3.789
5.032 2.452 4.178
5.167 2.548 4.393
5.097 2.683 4.588
4.806 2.560 4.857
4.974 2.248 4.938
5.388 2.775 0.600
5.017 2.895 1.111
5.161 3.034 1.335
5.132 3.020 1.678
5.061 2.778 1.612
5.124 2.749 3.386
5.367 2.625 3.576
5.414 2.643 3.865
5.348 2.752 4.150
5.179 2.471 4.160
5.258 2.665 4.459
5.029 2.491 4.882
5.311 2.984 0.851
5.328 3.168 1.160
5.454 2.927 1.449
5.223 2.972 1.615
5.509 3.103 1.776
0.175 0.079 0.230
0.076 -0.010 0.552
-0.106 0.124 0.749
0.058 0.109 0.792
0.081 0.111 1.031
0.184 0.395 0.104
0.369 0.112 0.366
0.239 0.049 0.817
0.391 0.179 0.768
0.310 0.330 0.971
0.398 0.093 3.112
0.383 -0.017 3.268
0.370 0.572 0.071
0.374 0.492 0.549
0.381 0.215 0.863
0.615 0.216 1.110
0.335 0.441 1.058
0.496 0.700 0.274
0.751 0.680 0.566
0.594 0.528 0.796
0.565 0.439 1.056
0.443 0.042 5.680
0.569 0.005 5.853
0.797 0.673 0.098
1.083 0.433 0.541
0.694 0.561 0.626
0.943 0.042 5.388
0.983 -0.033 5.514
0.844 0.261 5.741
0.850 -0.077 6.001
1.005 0.647 0.518
1.275 0.634 0.712
0.859 0.468 5.294
0.859 0.344 5.239
1.144 0.202 5.717
0.787 0.101 5.807
0.762 0.405 6.267
1.111 0.939 0.400
1.265 0.475 4.809
1.171 0.529 5.133
1.037 0.178 5.630
1.111 0.177 5.529
1.020 0.253 5.995
1.201 0.377 6.234
1.376 0.591 4.763
1.268 0.715 4.965
1.604 0.533 5.126
1.212 0.411 5.674
1.272 0.527 5.833
1.422 0.512 6.110
1.425 0.341 5.972
1.491 0.832 4.637
1.867 0.531 4.724
1.764 0.754 4.896
1.668 0.690 5.084
1.479 0.658 5.287
1.759 0.775 5.724
1.388 0.404 6.127
1.432 0.414 6.078
1.794 1.105 1.968
1.886 0.972 2.099
1.982 0.965 2.596
1.728 0.619 4.570
1.951 0.803 4.762
1.713 0.630 4.935
1.698 0.770 5.108
1.927 0.506 5.584
1.762 0.735 5.883
1.975 0.730 6.100
1.694 0.566 6.294
2.175 1.079 1.658
2.135 1.041 2.073
2.048 0.869 2.356
1.954 0.879 2.388
2.123 0.978 2.787
2.123 0.724 4.574
1.976 0.784 4.922
2.171 0.891 5.115
1.839 0.936 5.503
2.083 0.663 5.585
2.055 0.798 5.596
1.922 0.649 6.057
2.258 1.440 1.651
2.273 1.265 1.847
2.131 1.299 2.228
2.388 1.314 2.125
2.078 1.048 2.531
2.274 1.235 2.634
2.354 1.406 3.153
2.163 1.234 4.577
2.262 1.144 4.973
2.437 0.946 4.990
2.053 0.963 5.418
2.204 1.054 5.464
2.097 0.756 5.854
2.311 0.734 6.009
2.641 1.268 1.731
2.540 1.373 1.974
2.556 1.361 2.044
2.385 1.273 2.170
2.467 1.111 2.643
2.594 1.273 2.869
2.244 1.002 3.029
2.134 1.603 3.140
2.179 1.260 4.476
2.246 1.405 4.709
2.065 1.382 5.155
2.185 1.074 5.282
2.131 0.934 5.419
1.966 0.931 5.905
1.941 0.882 5.839
2.234 1.608 1.532
2.242 1.491 2.094
2.350 1.396 2.249
2.423 1.459 2.502
2.448 1.586 2.603
2.267 1.315 2.717
2.225 1.278 3.005
2.346 1.488 3.016
2.216 1.531 4.854
2.336 1.285 4.768
2.260 1.238 5.205
2.145 1.248 5.527
2.389 1.158 5.777
2.330 1.411 6.045
2.472 0.991 6.135
2.737 1.722 1.524
2.522 1.623 1.870
2.445 1.578 2.191
2.673 1.606 2.357
2.629 1.404 2.624
2.514 1.574 2.664
2.490 1.686 3.226
2.592 1.814 3.028
2.398 1.623 5.097
2.456 1.420 4.998
2.452 1.507 5.200
2.376 1.300 5.805
2.320 1.125 5.783
2.572 1.395 6.136
2.940 1.602 1.836
2.699 1.756 2.007
2.905 1.740 2.286
2.800 1.784 2.300
2.784 1.858 2.507
2.688 1.450 2.716
2.878 1.785 3.103
2.834 1.723 3.149
2.783 1.500 4.752
2.721 1.599 5.366
2.646 1.314 5.550
2.618 1.389 5.856
2.655 1.391 5.811
2.620 1.299 6.196
2.830 1.816 1.791
2.978 1.905 2.028
2.770 2.002 2.369
3.054 1.965 2.574
2.765 1.724 2.719
2.716 1.846 3.039
2.769 1.562 2.918
3.057 1.936 3.122
2.843 1.782 5.029
2.874 1.533 5.476
3.039 1.449 5.599
3.026 1.704 6.087
2.936 1.405 6.241
3.205 2.130 1.876
3.266 1.874 2.363
3.311 1.959 2.346
3.189 2.017 2.542
3.093 2.010 2.908
3.106 1.982 3.006
3.188 2.053 3.302
3.001 1.680 5.510
3.086 1.716 5.877
3.176 1.588 6.340
3.284 2.115 2.389
3.307 1.833 2.468
3.189 1.927 2.530
3.495 2.011 3.073
3.466 1.959 3.213
3.398 2.056 3.387
3.531 1.989 3.497
3.309 1.633 6.049
3.677 2.195 2.583
3.573 2.225 3.128
3.307 2.208 3.199
3.889 2.059 3.046
3.718 2.194 3.310
3.761 2.112 3.835
3.533 2.025 3.090
3.786 2.129 3.049
3.908 2.421 3.083
3.779 2.387 3.428
3.672 2.393 3.765
3.858 2.072 4.099
4.109 2.232 2.846
3.809 2.426 3.034
4.086 2.485 3.121
4.190 2.373 3.571
4.183 2.457 3.869
3.873 2.124 3.891
4.232 2.111 4.077
4.367 2.580 0.513
4.289 2.517 0.923
4.292 2.428 3.467
4.206 2.478 3.159
4.452 2.426 3.358
4.268 2.426 3.911
4.120 2.460 3.803
4.257 2.309 4.086
4.104 2.577 4.295
4.610 2.615 0.892
4.563 2.577 0.884
4.586 2.857 1.153
4.463 2.483 3.330
4.531 2.500 3.391
4.537 2.601 3.527
4.362 2.700 3.726
4.642 2.696 4.108
4.295 2.416 4.053
4.508 2.639 4.308
4.526 2.248 4.637
4.597 3.029 0.593
4.525 2.730 1.163
4.586 2.730 1.045
4.468 2.692 1.374
4.366 2.712 3.407
4.921 2.757 3.273
4.630 2.865 3.691
4.606 2.738 3.649
4.786 2.574 4.029
4.536 2.618 4.365
4.773 2.695 4.696
4.472 2.556 4.711
5.066 2.925 0.862
4.853 3.089 1.148
5.024 3.059 1.224
5.031 2.821 1.482
4.707 2.761 1.746
4.716 2.912 3.372
4.885 3.000 3.542
4.785 2.588 3.752
4.771 2.965 3.712
5.094 2.589 3.894
4.674 2.890 4.310
4.677 2.563 4.319
4.909 2.583 4.625
4.981 2.980 0.617
5.179 3.010 1.163
5.164 3.217 1.421
4.933 2.859 1.444
5.199 2.983 1.645
4.770 2.782 3.233
4.950 2.988 3.480
5.067 2.821 3.649
4.925 2.953 3.768
5.050 2.680 3.928
4.896 2.744 4.364
5.199 2.741 4.466
4.958 2.935 4.661
5.155 3.199 0.756
5.278 2.986 0.994
5.463 3.369 1.368
5.230 2.995 1.358
5.264 3.269 1.856
5.077 3.063 3.379
0.052 0.137 2.938
0.023 0.027 3.181
0.348 0.439 0.036
0.324 0.284 0.350
-0.007 0.256 0.616
0.312 0.515 1.109
0.083 0.243 2.933
0.130 0.423 2.940
0.047 0.212 3.204
0.232 0.369 3.151
0.085 0.250 3.385
0.311 0.103 3.605
0.236 0.196 4.118
0.419 0.663 0.127
0.366 0.686 0.671
0.254 0.728 0.572
0.355 0.684 0.758
0.214 0.372 2.874
0.614 0.429 2.695
0.415 0.501 2.886
0.280 0.191 3.296
0.191 0.371 3.560
0.538 0.202 3.909
0.414 0.022 5.714
0.052 0.221 6.007
0.666 0.599 0.385
0.563 0.740 0.572
0.350 0.771 0.705
0.378 0.453 2.920
0.557 0.471 2.914
0.724 0.502 3.421
0.250 0.221 5.984
0.622 0.304 6.168
0.759 0.739 0.440
0.753 0.710 0.480
0.486 0.206 5.703
0.703 0.318 5.744
0.816 0.110 6.136
0.997 0.524 5.427
0.765 0.270 5.577
0.918 0.266 5.849
0.653 0.320 6.228
0.873 0.801 2.769
1.135 0.766 5.120
1.203 0.682 5.422
1.196 0.637 5.577
1.233 0.429 5.779
0.891 0.651 6.116
1.403 0.949 2.430
1.231 1.079 2.314
1.246 0.957 2.589
1.603 0.812 2.992
1.520 0.851 5.070
1.207 0.887 5.342
1.110 0.878 5.418
1.498 0.465 5.777
1.119 0.533 5.773
1.326 0.656 6.137
1.704 1.202 2.027
1.319 0.867 2.402
1.389 1.178 2.564
1.601 0.803 2.683
1.439 0.846 2.973
1.664 1.139 3.064
1.691 0.688 4.669
1.344 0.666 4.978
