1.661 4.853 5.784
1.508 4.938 5.594
1.431 5.071 5.315
2.228 4.750 6.153
2.148 4.812 5.878
1.924 5.033 5.679
1.792 5.057 5.464
1.648 5.237 5.268
1.480 5.367 4.967
2.542 4.847 6.086
2.369 5.065 5.874
2.182 5.074 5.587
2.004 5.245 5.354
1.867 5.417 5.148
1.745 5.529 4.971
1.583 5.580 4.715
2.735 5.003 5.941
2.564 5.182 5.691
2.417 5.237 5.477
2.263 5.378 5.326
2.067 5.497 5.098
1.905 5.685 4.788
1.737 5.735 4.609
1.622 5.912 4.373
2.692 5.444 5.452
2.558 5.526 5.201
2.336 5.619 5.011
2.214 5.800 4.741
2.063 5.882 4.535
1.827 6.055 4.252
1.658 6.075 4.018
1.580 6.226 3.786
2.735 5.688 5.124
2.565 5.840 4.827
2.487 5.908 4.673
2.248 6.016 4.380
2.110 6.107 4.232
1.959 6.320 3.952
2.624 6.032 4.572
2.566 6.187 4.318
4.973 5.767 5.941
4.814 5.793 5.678
4.612 5.961 5.489
4.435 6.064 5.227
5.372 5.729 6.019
5.114 5.837 5.808
4.999 5.964 5.595
4.828 6.046 5.401
4.634 6.265 5.226
5.748 5.720 6.242
5.606 5.840 6.005
5.419 6.062 5.737
5.223 6.126 5.527
5.073 6.284 5.329
5.782 5.831 6.173
6.030 5.868 6.092
5.835 5.984 5.908
5.602 6.112 5.691
5.509 6.298 5.419
5.942 5.918 6.136
6.240 6.032 6.065
6.021 6.141 5.783
6.244 6.011 6.059
1.660 4.609 6.108
1.514 4.693 5.870
1.302 4.765 5.690
1.705 4.341 5.930
2.072 4.327 6.026
1.960 4.527 5.834
1.722 4.562 5.596
1.644 4.736 5.356
2.498 4.427 6.197
2.355 4.566 5.929
2.204 4.614 5.747
2.042 4.805 5.577
1.834 4.909 5.298
1.642 4.987 5.059
2.793 4.564 6.091
2.577 4.619 5.925
2.406 4.781 5.616
2.276 4.914 5.426
2.120 5.018 5.178
1.889 5.156 4.950
1.766 5.266 4.787
2.965 4.637 6.026
2.868 4.784 5.807
2.651 4.947 5.564
2.528 5.055 5.276
2.317 5.162 5.090
2.189 5.267 4.889
1.978 5.434 4.632
1.832 5.466 4.468
2.888 5.040 5.445
2.736 5.228 5.199
2.596 5.348 5.048
2.376 5.433 4.767
2.296 5.484 4.520
2.069 5.698 4.370
1.980 5.776 4.154
1.788 5.917 3.902
2.668 5.543 4.697
2.509 5.691 4.448
2.388 5.755 4.215
2.188 5.897 4.002
2.031 6.063 3.784
1.814 6.169 3.622
1.723 6.323 3.315
2.710 5.864 4.407
2.532 5.940 4.114
2.425 6.026 3.943
2.262 6.207 3.669
2.800 6.051 4.000
2.694 6.171 3.858
4.891 5.581 5.521
4.665 5.677 5.370
4.471 5.849 5.046
4.338 5.973 4.892
5.292 5.654 5.662
5.088 5.793 5.450
4.972 5.901 5.272
4.727 5.960 4.986
4.647 6.095 4.812
4.433 6.198 4.505
5.675 5.606 5.853
5.497 5.767 5.567
5.293 5.861 5.323
5.112 6.024 5.184
4.951 6.117 4.909
4.885 6.190 4.680
6.074 5.636 5.899
5.894 5.763 5.750
5.770 5.957 5.472
5.589 6.051 5.310
5.435 6.206 5.074
5.292 6.323 4.809
6.015 5.675 5.906
6.178 5.965 5.608
5.922 6.097 5.341
5.828 6.205 5.202
-0.046 5.301 4.068
1.688 4.312 5.890
6.070 3.991 6.251
5.724 3.394 6.231
5.906 3.615 6.151
6.186 3.735 6.079
5.205 2.941 6.204
5.493 3.040 6.115
5.864 3.112 6.310
5.732 3.211 6.039
6.133 3.186 6.131
6.016 3.308 5.939
6.192 3.548 5.869
5.963 2.835 6.055
5.851 2.964 5.899
6.198 3.030 5.957
6.039 3.174 5.769
6.080 2.851 5.559
6.239 2.609 5.450
4.521 1.106 6.279
4.772 1.228 6.199
4.321 0.719 6.158
4.566 0.918 6.136
4.357 0.980 5.918
5.018 0.963 6.170
4.777 0.995 5.982
4.679 1.195 5.726
5.246 1.043 6.145
5.084 1.238 5.895
4.890 1.286 5.711
5.582 1.082 6.207
5.424 1.227 6.074
4.541 0.455 6.211
4.435 0.505 6.063
4.255 0.608 5.790
4.839 0.493 6.136
4.640 0.625 5.868
4.423 0.790 5.741
5.237 0.581 6.242
5.058 0.640 6.046
4.913 0.787 5.772
4.710 0.881 5.537
5.420 0.688 6.202
5.257 0.870 5.916
5.074 0.996 5.720
4.936 1.082 5.459
5.567 0.946 5.881
5.421 1.046 5.619
5.233 1.182 5.440
4.275 0.194 5.971
4.009 0.283 5.751
4.670 0.135 6.039
4.499 0.295 5.790
4.326 0.417 5.647
5.025 0.207 6.171
4.912 0.270 5.990
4.699 0.446 5.751
4.582 0.512 5.565
5.216 0.297 6.065
5.168 0.510 5.818
4.958 0.580 5.623
4.804 0.643 5.468
5.553 0.526 5.949
5.374 0.575 5.790
5.246 0.754 5.601
5.055 0.865 5.298
5.450 0.819 5.486
5.218 1.035 5.265
4.259 0.176 5.880
4.065 0.204 5.723
4.149 0.056 5.509
4.580 0.054 5.688
4.394 0.113 5.445
4.925 0.098 5.807
4.724 0.212 5.585
4.660 0.318 5.309
5.218 0.242 5.725
5.078 0.350 5.467
4.889 0.444 5.283
5.404 0.366 5.595
5.239 0.478 5.360
5.124 0.662 5.180
5.563 0.620 5.319
5.340 0.776 5.096
4.141 0.011 5.499
4.711 0.114 5.180
5.076 0.110 5.327
4.898 0.262 5.090
5.298 0.297 5.148
5.169 0.353 4.973
5.401 0.538 4.852
5.201 0.122 4.783
2.288 4.059 6.083
2.206 4.135 5.915
2.002 4.254 5.687
1.836 4.374 5.440
2.783 4.023 6.224
2.571 4.148 6.054
2.414 4.333 5.778
2.282 4.386 5.583
2.037 4.556 5.391
1.965 4.627 5.172
2.940 4.202 6.198
2.758 4.299 5.976
2.632 4.415 5.721
2.527 4.524 5.496
2.345 4.626 5.252
2.225 4.760 5.028
2.067 4.882 4.831
3.373 4.234 6.289
3.212 4.286 6.019
3.106 4.512 5.864
2.838 4.628 5.569
2.746 4.648 5.383
2.605 4.848 5.133
2.359 4.903 4.937
2.295 5.096 4.735
3.437 4.543 5.907
3.274 4.594 5.734
3.163 4.680 5.543
2.942 4.849 5.245
2.833 4.968 5.065
2.706 5.072 4.869
2.233 5.683 3.893
2.067 5.807 3.637
1.891 5.905 3.415
1.729 5.998 3.130
1.660 6.159 2.893
1.448 6.274 2.756
2.543 5.849 3.784
2.284 5.920 3.473
2.163 6.026 3.262
2.075 6.157 3.115
2.551 6.141 3.420
2.430 6.189 3.234
2.860 6.284 3.320
4.709 5.529 5.177
4.643 5.589 4.952
4.446 5.684 4.689
5.150 5.463 5.249
4.972 5.625 5.016
4.846 5.747 4.801
4.675 5.900 4.612
4.537 6.032 4.402
4.344 6.064 4.194
5.534 5.555 5.391
5.403 5.606 5.159
5.255 5.720 5.006
5.033 5.855 4.708
4.969 6.044 4.563
4.714 6.071 4.332
4.596 6.192 4.054
5.799 5.648 5.304
5.687 5.765 5.127
5.457 5.887 4.828
5.274 6.052 4.657
5.170 6.209 4.384
4.946 6.315 4.164
6.184 5.679 5.406
6.084 5.848 5.177
5.872 6.008 4.976
5.694 6.054 4.765
5.506 6.176 4.594
0.101 4.368 4.659
0.151 4.617 4.412
0.267 4.933 4.054
0.119 5.009 3.813
0.436 4.961 3.571
2.532 3.675 6.176
2.343 3.840 5.911
2.216 3.879 5.777
2.124 3.964 5.534
2.774 3.817 6.019
2.632 3.947 5.885
2.480 3.998 5.646
2.270 4.163 5.422
2.169 4.333 5.207
3.152 3.850 6.158
3.034 3.991 5.951
2.927 4.108 5.717
2.750 4.164 5.473
2.517 4.308 5.249
2.397 4.414 5.028
3.417 4.037 6.079
3.305 4.110 5.843
3.136 4.208 5.641
2.965 4.372 5.423
2.836 4.484 5.221
2.595 4.583 5.041
3.851 4.056 6.185
3.737 4.096 5.985
3.518 4.280 5.813
3.373 4.317 5.537
3.169 4.544 5.363
1.130 6.055 2.454
4.050 4.164 6.121
3.949 4.327 5.958
1.828 5.824 3.009
1.651 5.866 2.768
1.551 6.001 2.552
1.358 6.129 2.291
4.533 4.140 6.293
2.267 5.788 3.070
2.135 5.982 2.916
1.896 6.086 2.635
1.747 6.186 2.442
4.467 4.192 6.219
2.488 6.002 2.986
2.388 6.103 2.764
2.198 6.157 2.559
2.701 6.153 2.920
2.582 6.224 2.682
4.623 5.379 4.759
4.488 5.503 4.529
4.322 5.585 4.334
5.084 5.381 4.920
4.856 5.541 4.683
4.723 5.629 4.394
4.613 5.792 4.180
4.373 5.852 3.956
4.255 5.939 3.786
5.320 5.496 4.835
5.164 5.616 4.538
4.937 5.803 4.328
4.864 5.862 4.083
4.715 5.981 3.924
4.476 6.131 3.707
4.370 6.214 3.397
5.523 5.644 4.743
5.341 5.779 4.514
5.180 5.972 4.294
5.100 5.991 3.993
4.868 6.168 3.802
4.782 6.227 3.609
5.645 5.906 4.424
5.480 6.044 4.090
5.256 6.221 3.930
0.346 3.347 5.681
0.158 3.497 5.388
0.270 3.733 5.091
0.093 3.874 4.811
0.343 4.042 4.721
0.201 4.158 4.559
0.400 4.324 4.474
0.173 4.415 4.223
0.078 4.543 4.027
0.416 4.539 4.090
0.281 4.649 3.931
0.193 4.814 3.650
0.343 4.962 3.581
2.389 3.258 6.107
2.174 3.416 5.828
0.734 4.459 3.812
0.616 4.631 3.609
0.460 4.659 3.455
2.783 3.279 6.248
2.595 3.481 6.005
2.488 3.537 5.805
2.332 3.670 5.562
2.202 3.733 5.328
3.059 3.476 6.181
2.838 3.621 5.903
2.715 3.677 5.631
2.513 3.777 5.474
2.381 3.963 5.206
3.489 3.513 6.257
3.230 3.615 6.001
3.142 3.768 5.785
2.902 3.790 5.562
2.788 4.011 5.303
2.626 4.109 5.130
3.728 3.605 6.103
3.569 3.735 5.943
3.347 3.895 5.651
3.158 4.017 5.482
3.072 4.058 5.259
3.917 3.835 6.036
3.733 3.883 5.790
3.622 4.061 5.640
3.475 4.148 5.334
1.162 5.794 2.253
4.303 3.766 6.193
4.105 3.952 5.939
3.997 4.059 5.790
1.793 5.734 2.591
1.630 5.788 2.415
1.407 5.880 2.168
4.283 3.796 6.217
4.556 4.018 6.099
4.418 4.081 5.810
2.142 5.769 2.708
2.002 5.829 2.503
1.821 5.969 2.241
1.729 6.082 2.066
4.531 3.974 6.142
4.860 4.088 5.983
2.454 5.867 2.685
2.196 6.025 2.418
2.081 6.101 2.192
1.962 6.197 1.935
4.913 3.981 6.236
4.820 4.158 5.937
2.670 5.994 2.589
2.484 6.122 2.278
2.358 6.238 2.051
5.210 4.167 6.072
2.736 6.275 2.196
5.616 4.225 6.283
4.788 5.129 4.580
4.582 5.239 4.341
4.386 5.401 4.184
4.295 5.540 3.895
4.087 5.561 3.655
4.987 5.267 4.444
4.833 5.372 4.222
4.676 5.534 4.087
4.451 5.639 3.756
4.311 5.743 3.624
4.179 5.865 3.320
5.234 5.385 4.410
5.014 5.496 4.183
4.901 5.613 3.945
4.760 5.801 3.707
4.548 5.934 3.500
4.401 6.056 3.277
5.431 5.559 4.320
5.287 5.746 4.035
5.180 5.785 3.831
5.033 5.908 3.671
4.848 6.044 3.449
4.610 6.145 3.133
4.482 6.260 2.997
5.487 5.873 3.961
5.405 5.960 3.767
5.188 6.021 3.521
5.052 6.168 3.354
0.487 3.084 5.710
0.356 3.159 5.471
0.192 3.288 5.232
0.109 3.394 4.984
0.434 3.353 5.108
0.309 3.541 4.919
0.191 3.586 4.657
0.557 3.614 4.827
0.345 3.749 4.547
0.237 3.868 4.380
0.099 4.018 4.107
0.679 3.922 4.527
0.415 3.998 4.252
0.346 4.140 4.070
0.195 4.314 3.850
0.703 4.220 4.126
0.568 4.336 3.957
0.426 4.384 3.683
0.275 4.583 3.505
0.025 4.676 3.281
2.379 3.324 6.135
2.278 3.456 5.897
0.733 4.428 3.829
0.583 4.621 3.612
0.449 4.735 3.351
2.669 2.944 6.089
2.418 3.067 5.979
2.336 3.181 5.736
2.195 3.318 5.447
1.009 4.129 3.919
0.864 4.218 3.665
0.647 4.333 3.406
0.580 4.488 3.266
3.055 2.993 6.226
2.857 3.056 6.072
2.745 3.249 5.844
2.523 3.336 5.599
2.386 3.478 5.364
3.210 3.099 6.148
3.141 3.265 5.926
2.896 3.337 5.752
2.731 3.502 5.478
2.661 3.556 5.263
3.539 3.294 6.104
3.393 3.390 5.838
3.137 3.440 5.672
3.018 3.624 5.381
2.816 3.690 5.213
3.894 3.263 6.195
3.790 3.411 5.954
3.612 3.532 5.764
3.449 3.599 5.493
3.277 3.771 5.281
3.925 3.267 6.206
4.121 3.426 6.092
4.001 3.537 5.938
3.825 3.661 5.622
3.618 3.814 5.466
1.239 5.548 2.041
4.108 3.407 6.082
4.366 3.594 6.041
4.226 3.744 5.846
4.076 3.805 5.552
1.652 5.601 2.189
1.463 5.660 1.923
4.498 3.515 6.193
4.429 3.591 6.038
4.688 3.734 5.957
4.487 3.790 5.671
2.126 5.616 2.299
1.881 5.703 2.163
1.754 5.823 1.847
4.792 3.562 6.171
4.656 3.778 5.896
4.825 3.916 5.784
2.337 5.793 2.266
2.170 5.843 2.024
2.021 6.009 1.832
5.244 3.624 6.241
5.007 3.787 6.011
4.858 3.924 5.859
5.115 3.994 5.710
2.515 5.915 2.084
2.402 6.008 1.943
2.284 6.157 1.727
5.409 3.738 6.162
5.302 3.877 5.969
5.144 4.038 5.700
4.376 4.907 4.321
4.293 5.017 4.068
4.067 5.068 3.839
3.918 5.173 3.618
2.815 6.052 2.022
2.642 6.194 1.868
2.445 6.272 1.638
5.708 3.930 6.035
5.558 4.016 5.870
4.642 5.071 4.168
4.450 5.133 3.918
4.273 5.227 3.704
4.215 5.339 3.472
5.895 4.048 6.023
5.070 5.010 4.287
4.902 5.151 4.139
4.731 5.239 3.851
4.617 5.426 3.619
4.377 5.558 3.455
4.206 5.639 3.191
5.250 5.154 4.239
5.129 5.291 3.976
4.955 5.414 3.756
4.785 5.531 3.517
4.627 5.651 3.337
4.448 5.788 3.128
4.326 5.880 2.883
5.340 5.488 3.924
5.169 5.530 3.669
5.022 5.667 3.421
4.912 5.789 3.197
4.776 5.934 2.950
4.556 6.064 2.791
5.459 5.685 3.530
5.248 5.880 3.399
5.124 5.975 3.173
4.983 6.040 2.926
4.820 6.233 2.625
0.419 2.966 5.271
0.276 3.029 5.023
0.145 3.177 4.812
0.583 3.147 4.977
0.361 3.235 4.714
0.163 3.429 4.566
0.036 3.473 4.310
0.600 3.422 4.596
0.412 3.602 4.419
0.237 3.699 4.148
0.152 3.839 3.965
0.741 3.703 4.264
0.563 3.855 4.115
0.357 3.909 3.914
0.221 4.009 3.691
0.075 4.135 3.395
2.208 2.945 6.034
0.883 3.852 4.206
0.776 4.015 3.962
0.564 4.068 3.724
0.454 4.159 3.581
0.245 4.342 3.384
0.092 4.447 3.073
2.567 2.938 6.164
2.440 3.054 5.887
2.300 3.208 5.702
2.108 3.328 5.486
1.019 4.134 3.898
0.835 4.186 3.675
0.710 4.320 3.500
0.487 4.511 3.180
2.863 2.563 6.157
2.633 2.740 5.953
2.516 2.771 5.720
2.408 2.958 5.552
2.226 3.073 5.326
1.210 3.729 3.988
1.071 3.855 3.681
0.953 3.976 3.518
0.787 4.068 3.305
0.575 4.202 3.011
3.064 2.766 6.105
2.972 2.815 5.830
2.814 2.956 5.621
2.563 3.086 5.384
2.407 3.180 5.157
1.316 4.074 3.633
1.194 4.141 3.440
0.992 4.241 3.205
3.542 2.752 6.262
3.385 2.828 6.000
3.161 3.023 5.788
3.023 3.085 5.564
2.848 3.210 5.324
2.708 3.319 5.104
3.519 2.785 6.204
3.721 2.881 6.102
3.565 3.086 5.948
3.418 3.155 5.730
3.208 3.272 5.434
3.100 3.422 5.268
3.725 2.929 6.079
4.003 3.098 5.991
3.832 3.128 5.801
3.713 3.333 5.571
3.494 3.389 5.361
4.091 2.924 6.312
4.033 3.003 6.008
4.180 3.215 5.936
4.111 3.360 5.710
3.889 3.447 5.526
4.419 3.055 6.211
4.223 3.176 5.989
4.462 3.401 5.834
4.297 3.524 5.621
1.600 5.406 1.815
4.654 3.218 6.035
4.423 3.335 5.884
4.705 3.551 5.713
4.563 3.648 5.570
2.018 5.537 1.959
1.782 5.613 1.675
5.022 3.212 6.225
4.823 3.416 5.950
4.704 3.510 5.800
4.962 3.624 5.602
2.360 5.541 2.065
2.247 5.639 1.838
2.066 5.698 1.590
5.267 3.406 6.069
5.092 3.547 5.843
4.915 3.681 5.678
5.213 3.846 5.594
4.061 4.569 4.007
3.871 4.688 3.776
3.702 4.871 3.501
2.616 5.631 1.980
2.424 5.813 1.712
2.280 5.881 1.510
5.556 3.574 5.946
5.371 3.660 5.804
5.136 3.766 5.517
4.457 4.591 4.102
4.371 4.791 3.881
4.210 4.915 3.684
3.947 5.012 3.383
2.840 5.756 1.893
2.711 5.978 1.610
2.564 6.011 1.442
5.727 3.714 5.887
5.628 3.827 5.625
4.728 4.777 4.039
4.536 4.875 3.773
4.394 5.046 3.548
4.246 5.142 3.345
4.078 5.219 3.128
2.970 6.078 1.514
2.795 6.233 1.319
6.003 3.885 5.754
5.798 3.967 5.539
4.958 4.939 3.906
4.762 5.026 3.676
4.690 5.186 3.500
4.504 5.230 3.256
4.374 5.378 3.073
6.196 3.977 5.698
5.211 5.094 3.804
5.057 5.166 3.630
4.860 5.294 3.413
4.708 5.408 3.197
4.545 5.494 2.874
4.436 5.626 2.686
5.277 5.319 3.480
5.151 5.447 3.321
5.005 5.597 3.065
4.861 5.674 2.821
4.662 5.767 2.571
5.403 5.574 3.210
5.178 5.678 2.967
5.077 5.839 2.744
4.834 5.911 2.491
4.746 6.098 2.306
0.336 2.795 4.896
0.178 2.962 4.695
-0.016 3.065 4.469
0.413 3.066 4.548
0.273 3.162 4.352
0.084 3.307 4.150
0.627 3.244 4.470
0.481 3.288 4.236
0.329 3.387 4.031
0.160 3.520 3.835
0.009 3.691 3.525
0.812 3.432 4.136
0.551 3.638 3.882
0.423 3.738 3.708
0.293 3.820 3.444
0.138 3.987 3.267
2.402 2.611 6.105
2.277 2.644 5.797
2.086 2.747 5.639
1.000 3.617 4.094
0.798 3.741 3.828
0.704 3.879 3.565
0.533 3.959 3.326
0.384 4.103 3.187
2.804 2.576 6.219
2.745 2.711 5.961
2.585 2.836 5.733
2.327 2.987 5.529
2.160 3.045 5.312
1.264 3.721 3.940
1.085 3.901 3.691
0.960 3.945 3.488
0.802 4.155 3.283
0.665 4.251 3.069
2.927 2.329 6.011
2.734 2.452 5.773
2.552 2.547 5.567
2.439 2.732 5.321
2.247 2.818 5.166
1.362 3.526 3.765
1.142 3.637 3.615
0.992 3.772 3.313
0.852 3.908 3.161
0.657 3.955 2.903
3.113 2.480 5.875
3.010 2.570 5.686
2.872 2.768 5.468
2.678 2.840 5.248
2.469 2.982 5.051
1.534 3.674 3.730
1.378 3.811 3.420
1.222 3.960 3.268
1.067 3.977 3.029
0.895 4.172 2.783
3.422 2.649 5.817
3.193 2.771 5.576
3.085 2.833 5.368
2.975 2.970 5.152
1.820 3.854 3.571
1.639 3.930 3.310
1.495 4.087 3.114
1.338 4.211 2.915
3.807 2.666 5.943
3.667 2.755 5.754
3.432 2.923 5.459
3.380 2.990 5.266
1.910 4.092 3.232
1.774 4.218 3.081
3.841 2.648 5.978
4.093 2.787 5.888
3.903 2.905 5.648
3.720 3.041 5.363
4.020 2.881 5.821
4.267 2.969 5.710
4.141 3.043 5.498
4.332 2.931 5.769
4.479 3.142 5.712
4.642 2.998 5.869
4.508 3.118 5.710
4.809 3.227 5.527
3.384 4.262 3.503
1.862 5.340 1.500
5.066 3.028 6.032
4.896 3.143 5.835
4.812 3.319 5.516
4.982 3.390 5.447
3.855 4.236 3.938
3.776 4.401 3.651
3.584 4.440 3.504
3.382 4.611 3.279
2.309 5.415 1.720
2.126 5.544 1.405
5.294 3.169 5.913
5.169 3.321 5.687
5.061 3.401 5.426
4.290 4.216 4.005
4.180 4.342 3.800
4.023 4.451 3.594
3.783 4.589 3.330
3.652 4.691 3.104
2.598 5.497 1.613
2.411 5.617 1.297
5.584 3.329 5.775
5.427 3.494 5.599
4.498 4.380 3.939
4.421 4.492 3.685
4.191 4.641 3.526
4.027 4.703 3.259
3.902 4.835 3.072
2.981 5.588 1.664
2.801 5.659 1.505
2.679 5.816 1.238
5.874 3.458 5.739
5.650 3.599 5.499
4.736 4.542 3.820
4.591 4.655 3.560
4.426 4.802 3.405
4.290 4.942 3.162
4.196 5.039 2.946
3.178 5.677 1.592
2.992 5.786 1.339
2.812 5.940 1.173
6.029 3.633 5.661
5.960 3.739 5.432
4.981 4.741 3.794
4.903 4.845 3.567
4.659 4.961 3.263
4.576 5.077 3.086
4.382 5.162 2.880
3.299 5.995 1.319
3.081 6.072 1.106
6.103 3.882 5.319
5.110 5.016 3.402
4.961 5.121 3.250
4.755 5.236 3.006
4.642 5.313 2.723
3.403 6.298 1.012
5.203 5.264 3.152
5.018 5.392 2.916
4.841 5.449 2.709
5.289 5.539 2.800
5.153 5.549 2.591
0.257 2.680 4.480
0.126 2.747 4.268
0.301 2.921 4.189
0.206 3.009 4.002
0.084 3.210 3.682
2.013 2.083 6.066
1.838 2.199 5.833
0.577 3.051 4.102
0.437 3.239 3.891
0.318 3.339 3.670
0.095 3.389 3.444
2.414 2.094 6.248
2.324 2.193 5.966
2.074 2.331 5.791
1.910 2.449 5.592
0.826 3.209 3.940
0.709 3.342 3.720
0.535 3.506 3.563
0.326 3.534 3.351
0.181 3.754 3.051
2.678 2.224 6.084
2.520 2.281 5.885
2.405 2.497 5.718
2.148 2.569 5.442
1.106 3.392 3.837
0.887 3.529 3.699
0.808 3.567 3.440
0.605 3.720 3.220
0.457 3.903 2.999
2.953 2.386 5.993
2.754 2.463 5.848
2.637 2.630 5.619
2.432 2.748 5.398
2.250 2.842 5.149
1.346 3.556 3.815
1.178 3.608 3.543
0.963 3.779 3.308
0.823 3.898 3.065
0.706 3.994 2.925
3.031 2.115 5.850
2.782 2.280 5.598
2.722 2.314 5.427
2.530 2.451 5.224
2.335 2.577 4.975
1.436 3.329 3.652
1.212 3.358 3.335
1.052 3.513 3.169
0.914 3.652 2.882
0.807 3.713 2.656
3.219 2.288 5.758
3.038 2.332 5.486
2.894 2.530 5.289
2.749 2.669 5.108
1.579 3.425 3.543
1.494 3.559 3.255
1.308 3.648 3.047
1.140 3.831 2.818
1.035 3.912 2.607
3.429 2.376 5.627
3.305 2.519 5.448
3.188 2.664 5.255
1.858 3.586 3.392
1.661 3.724 3.209
1.502 3.808 2.951
1.387 3.901 2.769
1.251 4.101 2.547
2.335 3.572 3.576
2.130 3.788 3.363
1.970 3.827 3.080
1.852 3.992 2.838
1.653 4.025 2.626
2.470 3.812 3.442
2.328 3.891 3.207
2.243 3.951 3.053
2.044 4.112 2.723
2.950 3.817 3.601
2.725 3.896 3.337
2.663 4.007 3.167
2.461 4.094 2.902
3.311 3.773 3.729
3.211 3.952 3.463
3.030 4.089 3.242
2.839 4.198 3.035
3.735 3.836 3.788
3.590 3.986 3.640
3.454 4.105 3.390
3.204 4.144 3.208
3.108 4.315 2.946
4.084 3.876 3.953
3.926 4.041 3.710
3.865 4.082 3.525
3.699 4.174 3.287
3.480 4.345 3.117
5.417 2.904 5.695
4.338 4.036 3.915
4.206 4.180 3.601
4.013 4.224 3.414
3.863 4.329 3.168
3.743 4.490 3.014
2.671 5.333 1.415
2.503 5.399 1.131
5.646 3.084 5.709
5.454 3.172 5.400
4.613 4.196 3.744
4.514 4.258 3.565
4.260 4.427 3.330
4.183 4.480 3.129
4.022 4.645 2.810
2.813 5.509 1.321
2.717 5.558 1.120
5.874 3.272 5.504
5.680 3.360 5.308
4.889 4.309 3.697
4.697 4.443 3.464
4.575 4.517 3.220
4.400 4.675 2.964
4.166 4.767 2.779
3.257 5.519 1.478
3.149 5.571 1.252
2.948 5.767 0.928
6.124 3.346 5.446
5.964 3.485 5.255
6.117 3.711 4.872
4.901 4.600 3.302
4.774 4.673 3.145
4.641 4.779 2.912
3.555 5.583 1.347
3.341 5.705 1.084
3.192 5.847 0.840
6.218 3.692 5.190
6.020 3.764 4.942
5.053 4.884 3.066
4.886 4.938 2.792
3.602 5.850 1.013
3.412 5.982 0.737
3.679 6.212 0.683
1.574 1.561 6.101
1.996 1.559 6.202
1.864 1.675 5.958
1.650 1.745 5.735
2.286 1.737 6.156
2.135 1.837 5.913
1.949 1.939 5.680
1.749 2.062 5.477
2.696 1.715 6.213
2.544 1.776 6.038
2.386 2.004 5.788
2.234 2.092 5.550
1.984 2.237 5.353
0.740 3.164 3.599
0.645 3.255 3.405
0.473 3.324 3.128
2.662 1.745 6.283
2.914 1.829 6.178
2.743 2.008 5.999
2.631 2.052 5.730
2.434 2.263 5.519
2.231 2.368 5.242
2.092 2.440 5.098
1.126 3.138 3.736
1.026 3.206 3.430
0.801 3.432 3.272
0.704 3.442 3.027
0.549 3.588 2.852
2.899 1.868 6.215
2.982 2.146 5.899
2.797 2.205 5.654
2.684 2.390 5.431
2.508 2.467 5.196
2.312 2.639 4.956
1.443 3.253 3.575
1.252 3.409 3.333
1.085 3.554 3.105
0.899 3.605 2.883
0.743 3.816 2.696
3.023 1.878 5.652
2.858 1.954 5.461
2.721 2.111 5.215
2.576 2.199 5.058
2.468 2.399 4.809
1.342 3.231 3.241
1.199 3.350 2.965
0.975 3.361 2.763
0.876 3.573 2.543
3.179 2.105 5.343
3.025 2.303 5.110
2.816 2.388 4.864
1.666 3.231 3.362
1.553 3.363 3.116
1.393 3.481 2.916
1.244 3.550 2.624
1.080 3.694 2.493
1.961 3.390 3.208
1.785 3.508 2.986
1.662 3.632 2.787
1.436 3.740 2.523
1.273 3.798 2.349
1.163 3.965 2.173
2.311 3.409 3.416
2.210 3.478 3.185
2.015 3.577 2.963
1.853 3.700 2.732
1.700 3.807 2.444
1.513 3.997 2.230
2.743 3.412 3.444
2.576 3.523 3.289
2.394 3.636 3.041
2.265 3.816 2.881
2.075 3.858 2.570
1.976 4.041 2.390
3.148 3.491 3.678
2.955 3.580 3.453
2.834 3.692 3.200
2.682 3.801 2.964
2.489 3.884 2.784
2.361 4.059 2.535
3.594 3.524 3.783
3.406 3.558 3.532
3.233 3.655 3.326
3.088 3.813 3.085
2.878 3.985 2.816
2.788 4.008 2.585
3.909 3.454 3.877
3.834 3.565 3.656
3.674 3.781 3.376
3.524 3.905 3.262
3.276 3.995 3.031
3.213 4.083 2.744
4.209 3.632 3.810
4.059 3.780 3.506
3.844 3.822 3.332
3.716 3.945 3.166
3.584 4.170 2.860
3.390 4.217 2.711
4.561 3.670 3.925
4.423 3.745 3.677
4.343 3.939 3.430
4.087 4.012 3.184
3.930 4.188 3.023
3.785 4.302 2.739
4.736 3.887 3.592
4.585 4.065 3.318
4.409 4.190 3.104
4.242 4.231 2.942
4.073 4.358 2.704
2.899 5.206 1.092
2.814 5.367 0.899
6.019 2.964 5.430
5.862 3.164 5.180
4.878 4.075 3.525
4.739 4.221 3.243
4.561 4.283 2.990
4.420 4.380 2.790
3.295 5.216 1.215
3.168 5.330 1.063
3.019 5.477 0.795
6.189 3.174 5.311
6.064 3.217 5.062
6.166 3.499 4.707
3.543 5.426 1.105
3.403 5.526 0.937
3.280 5.632 0.650
6.169 3.545 4.688
3.870 5.597 1.032
3.625 5.713 0.818
3.481 5.793 0.563
3.945 5.839 0.780
3.759 5.922 0.520
3.938 6.118 0.371
1.813 1.136 6.109
1.717 1.326 5.924
1.542 1.353 5.712
2.077 1.262 6.069
1.947 1.456 5.784
1.806 1.502 5.602
1.629 1.671 5.391
2.474 1.372 6.151
2.317 1.416 5.926
2.209 1.599 5.718
1.977 1.708 5.551
1.869 1.779 5.242
1.668 1.949 5.039
2.503 1.320 6.169
2.740 1.437 6.117
2.586 1.550 5.881
2.420 1.680 5.623
2.223 1.820 5.464
2.055 1.900 5.197
1.965 2.053 4.969
2.721 1.510 6.143
2.788 1.786 5.724
2.655 1.872 5.540
2.527 1.982 5.339
2.310 2.129 5.106
2.206 2.262 4.844
1.112 2.983 3.273
0.885 3.145 3.039
0.727 3.260 2.870
3.101 1.841 5.709
2.883 1.960 5.422
2.758 2.109 5.221
2.536 2.223 4.956
2.395 2.346 4.804
1.325 3.208 3.175
1.091 3.248 3.029
0.942 3.418 2.821
0.873 3.525 2.585
2.989 1.774 5.243
2.778 1.878 5.038
2.627 2.007 4.888
2.487 2.147 4.571
1.399 2.966 3.076
1.214 3.097 2.836
1.062 3.193 2.633
0.895 3.269 2.376
1.660 3.055 2.933
1.507 3.169 2.708
1.311 3.379 2.445
1.155 3.453 2.272
0.948 3.589 2.028
2.025 3.062 3.097
1.877 3.182 2.838
1.741 3.305 2.667
1.578 3.485 2.451
1.409 3.575 2.171
1.222 3.648 1.969
2.395 3.109 3.166
2.311 3.248 2.951
2.085 3.389 2.751
1.954 3.529 2.531
1.794 3.567 2.262
1.612 3.715 2.098
1.471 3.875 1.864
2.825 3.221 3.277
2.688 3.337 3.113
2.527 3.425 2.826
2.355 3.562 2.696
2.200 3.650 2.415
2.028 3.819 2.252
1.863 3.841 2.026
3.194 3.173 3.446
3.078 3.327 3.216
2.853 3.494 3.015
2.806 3.512 2.814
2.601 3.636 2.592
2.456 3.782 2.295
2.261 3.943 2.102
3.821 3.124 3.764
3.680 3.282 3.593
3.479 3.406 3.317
3.313 3.518 3.102
3.154 3.580 2.942
2.991 3.712 2.672
2.848 3.827 2.443
2.724 3.887 2.178
4.251 3.172 3.892
4.009 3.218 3.682
3.917 3.403 3.511
3.749 3.527 3.225
3.558 3.673 2.982
3.417 3.729 2.860
3.263 3.829 2.590
4.384 3.251 3.880
4.291 3.403 3.598
4.072 3.545 3.335
3.954 3.702 3.216
3.762 3.770 2.925
3.597 3.824 2.768
3.436 4.029 2.511
4.714 3.413 3.763
4.500 3.506 3.489
4.357 3.674 3.266
4.238 3.771 3.103
4.056 3.864 2.835
3.872 4.057 2.663
4.906 3.578 3.652
4.727 3.721 3.430
4.608 3.786 3.176
4.472 3.963 2.974
4.275 4.036 2.692
3.038 4.977 0.991
2.815 5.095 0.747
4.821 3.917 3.078
4.667 4.105 2.890
3.451 5.047 1.100
3.263 5.098 0.861
3.118 5.220 0.627
6.077 3.086 4.868
3.825 5.076 1.226
3.638 5.118 1.038
3.481 5.257 0.736
3.301 5.445 0.534
4.001 5.149 1.151
3.943 5.366 0.940
3.761 5.411 0.670
3.601 5.573 0.484
4.092 5.486 0.833
3.973 5.537 0.612
3.839 5.669 0.334
4.244 5.731 0.485
4.075 5.838 0.195
2.051 0.848 6.238
1.955 0.899 5.987
1.761 1.045 5.707
1.602 1.209 5.517
1.453 1.259 5.349
2.118 0.829 6.189
2.276 0.900 6.139
2.182 1.029 5.851
1.953 1.171 5.698
1.885 1.250 5.458
1.706 1.479 5.224
1.492 1.552 5.004
2.341 0.899 6.102
2.609 1.087 5.980
2.396 1.197 5.763
2.306 1.333 5.555
2.119 1.476 5.304
1.954 1.589 5.082
1.748 1.699 4.908
2.604 1.064 6.006
2.774 1.192 5.955
2.679 1.418 5.737
2.497 1.426 5.447
2.295 1.568 5.220
2.208 1.666 5.033
2.011 1.777 4.823
1.901 1.918 4.595
2.810 1.301 5.916
2.886 1.544 5.651
2.720 1.617 5.385
2.584 1.740 5.209
2.384 1.839 4.967
2.295 1.965 4.738
3.026 1.803 5.334
2.864 1.854 5.033
2.617 2.047 4.846
2.506 2.178 4.572
1.376 2.960 3.073
1.225 3.092 2.805
1.081 3.147 2.644
0.893 3.250 2.409
2.846 1.697 4.890
2.763 1.770 4.603
1.073 2.958 2.421
0.938 3.046 2.182
1.706 2.854 2.765
1.583 2.967 2.592
1.393 3.062 2.268
1.224 3.164 2.084
1.014 3.346 1.883
2.037 2.890 2.873
1.975 2.995 2.634
1.804 3.176 2.465
1.667 3.219 2.194
1.478 3.399 2.007
1.305 3.524 1.721
1.134 3.530 1.575
2.513 2.941 3.075
2.382 3.047 2.830
2.140 3.177 2.597
1.996 3.252 2.345
1.805 3.376 2.153
1.701 3.498 1.895
1.526 3.588 1.669
1.322 3.746 1.429
2.850 2.955 3.098
2.735 3.112 2.892
2.584 3.125 2.742
2.473 3.333 2.529
2.287 3.417 2.292
2.098 3.527 2.034
1.886 3.659 1.827
1.724 3.735 1.541
3.419 2.860 3.490
3.275 2.941 3.299
3.128 3.113 3.097
2.957 3.229 2.798
2.777 3.308 2.558
2.615 3.423 2.367
2.468 3.524 2.145
2.381 3.625 1.944
2.184 3.825 1.723
3.975 2.786 3.810
3.884 2.927 3.594
3.697 2.997 3.446
3.506 3.098 3.163
3.400 3.249 2.951
3.192 3.350 2.682
3.021 3.418 2.533
2.902 3.583 2.232
2.705 3.656 2.057
4.476 2.775 4.026
4.258 2.892 3.735
4.079 3.027 3.531
3.990 3.183 3.268
3.782 3.225 3.138
3.659 3.330 2.889
3.462 3.510 2.670
3.325 3.586 2.402
4.657 2.893 3.855
4.504 3.073 3.693
4.393 3.190 3.475
4.221 3.325 3.213
4.054 3.445 2.975
3.883 3.535 2.805
3.693 3.617 2.526
4.937 3.103 3.749
4.760 3.204 3.588
4.620 3.314 3.394
4.391 3.436 3.158
4.214 3.587 2.852
4.101 3.682 2.671
4.979 3.347 3.418
4.838 3.490 3.223
4.637 3.537 2.990
4.472 3.698 2.807
3.493 4.806 0.888
3.325 4.930 0.690
3.162 5.055 0.439
3.858 4.777 1.032
3.728 4.897 0.846
3.551 5.041 0.641
3.373 5.117 0.328
4.129 4.971 0.916
3.912 5.049 0.706
3.744 5.236 0.458
3.625 5.339 0.236
4.334 5.152 0.826
4.150 5.265 0.662
4.012 5.378 0.359
3.915 5.492 0.192
4.440 5.389 0.555
4.230 5.506 0.343
4.173 5.647 0.027
2.193 0.553 6.044
1.963 0.732 5.768
1.806 0.755 5.626
1.677 0.949 5.399
1.543 1.097 5.178
2.330 0.433 6.281
2.103 0.565 5.986
2.453 0.666 5.977
2.256 0.878 5.762
2.093 0.938 5.534
1.932 1.037 5.289
1.814 1.222 5.021
1.627 1.249 4.795
1.450 1.417 4.570
2.513 0.614 6.110
2.351 0.722 5.941
2.630 0.845 5.870
2.498 0.973 5.593
2.325 1.127 5.411
2.213 1.188 5.209
2.029 1.348 4.917
1.809 1.425 4.737
1.639 1.593 4.544
2.693 0.837 5.846
2.753 1.131 5.492
2.534 1.258 5.354
2.434 1.408 5.062
2.232 1.428 4.887
2.133 1.558 4.675
1.890 1.749 4.368
2.761 1.386 5.152
2.684 1.550 5.009
2.475 1.588 4.745
2.330 1.756 4.492
2.136 1.895 4.333
2.915 1.671 4.860
2.705 1.723 4.634
1.072 2.913 2.469
0.922 3.021 2.229
1.587 2.789 2.358
1.390 2.849 2.137
1.261 2.933 1.876
1.121 3.047 1.677
0.997 3.260 1.432
2.043 2.733 2.551
1.896 2.854 2.328
1.653 2.984 2.067
1.569 3.123 1.811
1.394 3.264 1.595
1.188 3.333 1.405
1.064 3.462 1.122
2.230 2.948 2.408
2.105 3.077 2.146
1.976 3.170 1.997
1.768 3.321 1.737
1.642 3.368 1.468
1.449 3.488 1.285
1.261 3.608 1.107
2.636 2.985 2.499
2.441 3.009 2.332
2.325 3.145 2.061
2.180 3.340 1.897
1.996 3.367 1.594
1.907 3.477 1.431
1.730 3.654 1.169
1.498 3.817 1.000
3.331 2.711 3.138
3.159 2.801 2.874
3.093 2.992 2.653
2.859 3.086 2.412
2.701 3.180 2.183
2.577 3.320 1.937
2.371 3.466 1.745
2.212 3.574 1.492
2.113 3.694 1.368
4.435 2.335 4.157
4.247 2.413 3.856
4.138 2.519 3.663
3.898 2.634 3.444
3.830 2.804 3.239
3.590 2.877 3.009
3.448 3.059 2.739
3.260 3.116 2.542
3.088 3.197 2.290
4.612 2.431 4.002
4.527 2.598 3.842
4.379 2.635 3.580
4.224 2.836 3.321
3.967 2.879 3.172
3.858 3.078 2.867
3.710 3.113 2.737
3.553 3.246 2.518
4.904 2.583 3.941
4.722 2.702 3.741
4.563 2.865 3.482
4.422 2.944 3.211
4.292 3.060 3.062
4.067 3.128 2.834
3.908 3.286 2.610
5.163 2.755 3.887
4.980 2.808 3.606
4.777 3.025 3.418
4.718 3.094 3.169
4.487 3.197 2.960
4.287 3.285 2.715
5.015 3.116 3.334
4.935 3.250 3.019
4.719 3.352 2.836
3.663 4.394 0.967
3.588 4.523 0.728
3.355 4.655 0.471
4.129 4.477 1.095
3.914 4.629 0.882
3.785 4.744 0.687
3.573 4.860 0.445
3.462 4.945 0.189
4.485 4.454 1.233
4.316 4.649 1.036
4.146 4.690 0.711
4.036 4.795 0.517
3.877 5.000 0.262
3.746 5.043 0.100
4.708 4.585 1.138
4.563 4.755 0.904
4.383 4.852 0.716
4.240 4.956 0.442
4.065 5.069 0.219
4.798 4.871 0.776
4.705 5.039 0.534
4.490 5.103 0.402
4.310 5.219 0.141
2.215 0.297 5.905
2.057 0.429 5.623
1.908 0.626 5.402
1.748 0.655 5.149
1.631 0.792 4.970
1.431 0.966 4.737
2.407 0.280 6.083
2.228 0.354 5.894
2.466 0.471 5.786
2.360 0.645 5.514
2.147 0.766 5.363
2.022 0.867 5.130
1.808 0.909 4.854
1.669 1.110 4.657
1.540 1.224 4.424
1.363 1.344 4.161
1.184 1.436 4.011
2.458 0.538 5.794
2.602 0.703 5.494
2.374 0.911 5.194
2.283 0.936 5.036
2.051 1.054 4.788
1.891 1.239 4.563
1.803 1.339 4.345
1.567 1.467 4.084
1.437 1.601 3.833
2.659 1.007 5.163
2.449 1.175 4.885
2.275 1.209 4.694
2.178 1.340 4.436
2.019 1.511 4.208
1.810 1.611 4.054
2.682 1.306 4.778
2.601 1.450 4.635
2.367 1.469 4.317
2.262 1.625 4.109
2.022 1.698 3.888
1.488 2.574 1.942
1.340 2.754 1.799
1.182 2.849 1.471
1.028 3.016 1.300
0.829 3.099 1.082
1.789 2.726 1.862
1.584 2.847 1.667
1.441 3.056 1.464
1.226 3.092 1.254
1.173 3.291 0.978
4.358 0.853 5.490
2.124 2.743 2.011
1.948 2.908 1.751
1.834 3.010 1.601
1.624 3.198 1.301
1.466 3.266 1.128
1.381 3.434 0.832
4.521 1.045 5.402
4.349 1.160 5.118
4.488 1.458 4.859
2.443 2.978 1.866
2.218 3.087 1.736
2.090 3.169 1.504
1.964 3.284 1.217
1.802 3.409 1.027
1.596 3.571 0.760
4.814 1.216 5.249
4.686 1.316 5.051
4.536 1.377 4.795
4.682 1.547 4.760
4.523 1.674 4.485
4.365 1.777 4.256
2.158 3.434 1.126
2.003 3.558 0.874
1.870 3.676 0.688
5.064 1.388 5.162
4.890 1.434 4.962
4.773 1.565 4.745
4.997 1.709 4.591
4.856 1.777 4.407
4.628 1.989 4.173
4.536 2.089 3.915
4.324 2.163 3.759
4.213 2.357 3.453
3.954 2.406 3.251
3.814 2.529 3.109
5.146 1.608 4.862
4.980 1.696 4.669
5.071 1.953 4.284
4.834 2.096 4.038
4.734 2.262 3.804
4.518 2.312 3.687
4.462 2.486 3.361
4.206 2.615 3.225
4.049 2.739 2.934
3.944 2.760 2.772
5.087 2.219 3.968
4.946 2.307 3.746
4.814 2.445 3.596
4.665 2.645 3.296
4.473 2.672 3.045
4.339 2.795 2.912
4.140 2.894 2.673
5.383 2.358 3.918
5.225 2.534 3.695
5.028 2.593 3.471
4.887 2.761 3.254
4.761 2.903 2.971
4.558 2.953 2.723
5.331 2.826 3.379
5.109 2.865 3.082
5.008 2.962 2.905
3.908 4.097 1.033
3.752 4.174 0.734
3.564 4.301 0.610
4.369 4.127 1.185
4.150 4.211 0.866
4.056 4.352 0.720
3.858 4.481 0.495
3.729 4.584 0.279
3.502 4.702 -0.030
4.784 4.146 1.214
4.630 4.219 1.007
4.438 4.342 0.865
4.249 4.532 0.615
4.053 4.651 0.372
3.891 4.677 0.095
5.130 4.161 1.347
4.987 4.328 1.124
4.856 4.429 0.902
4.712 4.540 0.749
4.545 4.593 0.495
4.349 4.773 0.280
4.172 4.879 0.094
5.507 4.169 1.474
5.410 4.354 1.342
5.240 4.414 1.028
5.125 4.498 0.856
4.875 4.616 0.584
4.749 4.812 0.371
4.620 4.857 0.154
1.514 0.717 4.555
1.357 0.863 4.322
1.207 0.969 4.154
1.040 0.998 3.942
0.917 1.139 3.676
0.711 1.279 3.490
0.558 1.368 3.239
0.394 1.568 2.976
0.236 1.651 2.751
2.104 0.561 4.924
1.954 0.706 4.661
1.700 0.871 4.461
1.613 1.008 4.225
1.432 1.062 4.040
1.319 1.166 3.827
1.079 1.260 3.605
0.999 1.408 3.366
2.330 0.700 4.780
2.182 0.831 4.660
1.970 1.015 4.422
1.840 1.101 4.191
1.695 1.200 3.980
1.534 1.361 3.664
1.346 1.491 3.444
2.540 0.891 4.786
2.378 1.004 4.465
2.241 1.146 4.238
2.105 1.305 4.083
1.956 1.311 3.813
1.747 1.467 3.597
1.580 1.579 3.362
2.595 1.134 4.380
2.494 1.310 4.141
2.295 1.446 4.011
2.195 1.552 3.755
1.990 1.659 3.556
2.653 1.298 3.683
2.456 1.394 3.447
0.882 2.590 1.205
0.755 2.758 1.053
1.401 2.500 1.546
1.247 2.640 1.367
1.114 2.738 1.077
0.929 2.867 0.894
4.153 0.487 5.335
1.666 2.606 1.444
1.548 2.747 1.291
1.301 2.836 1.078
1.146 2.984 0.757
4.438 0.681 5.251
4.225 0.733 5.122
4.318 1.054 4.716
1.951 2.793 1.426
1.708 2.970 1.193
1.609 3.010 0.906
1.385 3.121 0.746
4.631 0.807 5.240
4.469 0.975 4.918
4.355 1.001 4.796
4.586 1.225 4.601
4.363 1.261 4.409
2.134 2.904 1.343
2.040 3.077 1.076
1.792 3.200 0.840
1.719 3.292 0.591
4.886 0.987 5.058
4.684 1.021 4.823
4.524 1.200 4.596
4.799 1.387 4.599
4.600 1.422 4.328
4.428 1.566 4.162
4.286 1.740 3.870
2.044 3.271 0.731
1.927 3.491 0.531
5.111 1.122 5.042
4.948 1.266 4.754
4.791 1.356 4.577
5.013 1.532 4.424
4.879 1.564 4.266
4.738 1.729 4.023
4.570 1.781 3.841
4.432 1.896 3.561
4.184 2.051 3.339
5.363 1.233 4.897
5.240 1.344 4.644
5.076 1.485 4.440
5.304 1.623 4.384
5.163 1.736 4.168
4.915 1.831 3.885
4.816 2.009 3.716
4.618 2.105 3.491
4.484 2.161 3.209
4.325 2.367 2.973
5.457 1.505 4.636
5.248 1.653 4.348
5.472 1.735 4.319
5.409 1.942 4.089
5.172 2.030 3.848
5.077 2.077 3.550
4.889 2.283 3.411
4.681 2.330 3.181
4.602 2.443 2.962
5.574 1.765 4.298
5.616 1.987 3.987
5.413 2.125 3.746
5.298 2.317 3.545
5.086 2.373 3.251
4.953 2.502 3.000
4.818 2.607 2.834
5.689 2.281 3.588
5.569 2.375 3.448
5.340 2.482 3.162
5.157 2.710 3.001
4.219 3.710 1.054
3.970 3.798 0.855
3.900 3.985 0.665
3.733 4.036 0.361
4.605 3.727 1.149
4.362 3.847 0.989
4.203 3.955 0.777
4.117 4.138 0.468
3.917 4.276 0.268
3.810 4.389 0.057
4.996 3.756 1.296
4.759 3.878 1.042
4.706 4.057 0.908
4.541 4.199 0.585
4.343 4.314 0.450
4.180 4.430 0.203
5.375 3.875 1.446
5.249 3.977 1.258
5.106 4.075 0.999
4.906 4.127 0.820
4.734 4.294 0.550
4.581 4.440 0.365
4.464 4.551 0.096
5.968 3.768 1.778
5.754 3.868 1.589
5.613 3.979 1.374
5.473 4.077 1.162
5.340 4.249 0.941
5.148 4.298 0.713
4.928 4.388 0.449
4.771 4.571 0.236
4.673 4.643 -0.020
1.403 0.557 4.182
1.263 0.710 3.998
1.134 0.811 3.705
0.890 0.896 3.506
0.758 0.992 3.326
0.613 1.186 3.112
0.494 1.270 2.807
0.285 1.426 2.595
0.089 1.468 2.428
1.779 0.611 4.271
1.627 0.736 4.085
1.450 0.844 3.911
1.335 0.909 3.619
1.201 1.091 3.421
1.022 1.206 3.157
0.896 1.336 2.914
0.736 1.427 2.764
2.199 0.632 4.434
2.021 0.797 4.182
1.920 0.846 3.975
1.774 1.032 3.736
1.590 1.075 3.518
1.402 1.258 3.288
1.241 1.352 3.082
1.091 1.454 2.890
2.508 0.760 4.336
2.312 0.920 4.118
2.116 1.048 3.914
1.965 1.093 3.666
1.862 1.233 3.415
1.652 1.402 3.156
1.519 1.489 2.938
2.484 1.066 4.039
2.418 1.168 3.838
2.198 1.295 3.515
2.042 1.365 3.324
1.912 1.562 3.153
2.658 1.270 3.699
2.484 1.478 3.488
0.808 2.638 1.172
0.753 2.709 0.950
2.672 1.074 3.518
2.590 1.226 3.347
2.425 1.331 3.105
2.220 1.456 2.884
1.125 2.201 1.268
0.880 2.311 1.022
0.774 2.522 0.774
3.999 0.141 5.361
1.346 2.384 1.124
1.215 2.489 1.001
1.056 2.629 0.748
4.200 0.277 5.273
4.109 0.368 4.948
4.127 0.675 4.673
1.746 2.462 1.289
1.553 2.557 1.091
1.409 2.711 0.905
1.312 2.718 0.628
4.421 0.396 5.116
4.336 0.557 4.853
4.089 0.691 4.680
4.425 0.839 4.590
1.822 2.730 1.036
1.698 2.779 0.770
1.553 2.898 0.531
4.696 0.559 5.061
4.499 0.728 4.836
4.402 0.808 4.578
4.665 0.931 4.470
4.436 1.122 4.210
2.033 2.778 0.918
1.955 2.939 0.624
1.740 3.087 0.414
4.933 0.700 4.882
4.775 0.878 4.744
4.637 0.967 4.431
4.864 1.122 4.409
4.726 1.179 4.147
4.508 1.387 3.920
4.364 1.462 3.751
2.134 3.055 0.622
2.041 3.156 0.359
5.201 0.919 4.839
4.997 1.035 4.565
4.862 1.078 4.376
5.104 1.253 4.240
5.003 1.349 4.027
4.759 1.452 3.856
4.574 1.645 3.632
4.505 1.718 3.364
5.412 1.043 4.724
5.233 1.080 4.514
5.140 1.264 4.309
5.303 1.353 4.203
5.247 1.482 3.918
5.068 1.617 3.775
4.882 1.693 3.524
4.687 1.814 3.339
4.499 1.942 3.124
5.488 1.266 4.396
5.360 1.443 4.175
5.631 1.535 4.113
5.389 1.713 3.881
5.313 1.799 3.680
5.144 1.932 3.366
4.901 2.036 3.153
4.768 2.110 2.934
4.689 2.215 2.798
5.586 1.589 4.099
5.659 1.827 3.749
5.519 1.981 3.579
5.318 2.064 3.322
5.231 2.123 3.082
4.992 2.234 2.930
4.933 2.426 2.596
5.976 1.999 3.636
5.712 2.090 3.416
5.601 2.215 3.237
5.390 2.310 3.053
5.331 2.411 2.736
3.988 3.319 0.954
3.869 3.486 0.786
5.806 2.351 3.161
5.705 2.468 2.951
4.361 3.358 1.136
4.263 3.502 0.924
4.058 3.632 0.709
3.954 3.764 0.449
3.786 3.803 0.230
4.771 3.366 1.253
4.694 3.588 0.960
4.540 3.597 0.829
4.311 3.793 0.604
4.194 3.940 0.373
3.960 3.957 0.124
5.182 3.413 1.326
5.064 3.549 1.133
4.871 3.623 0.966
4.745 3.756 0.698
4.533 3.902 0.525
4.423 4.046 0.220
4.243 4.170 0.073
5.423 3.533 1.322
5.318 3.686 1.026
5.079 3.864 0.822
4.925 3.971 0.585
4.787 4.100 0.368
4.608 4.184 0.117
6.021 3.551 1.583
5.803 3.668 1.412
5.747 3.731 1.172
5.570 3.865 0.919
5.316 3.960 0.761
5.249 4.134 0.537
5.022 4.158 0.243
4.889 4.302 0.107
1.292 0.473 3.787
1.118 0.588 3.567
0.995 0.645 3.384
0.795 0.772 3.093
0.733 0.924 2.827
0.466 1.093 2.621
0.390 1.171 2.382
1.771 0.487 3.889
1.590 0.596 3.709
1.422 0.768 3.458
1.226 0.785 3.283
1.090 0.924 3.008
0.878 1.018 2.751
0.762 1.213 2.508
2.106 0.495 4.029
1.994 0.621 3.814
1.804 0.780 3.549
1.705 0.893 3.367
1.539 0.966 3.084
1.320 1.148 2.876
1.181 1.228 2.737
2.315 0.689 3.987
2.267 0.750 3.660
2.019 0.908 3.498
1.937 0.988 3.235
1.763 1.183 2.986
1.607 1.258 2.768
2.576 0.788 3.822
2.444 0.925 3.572
2.236 1.050 3.414
2.105 1.190 3.199
1.959 1.293 2.920
2.651 1.131 3.511
2.551 1.153 3.316
2.356 1.262 3.052
2.167 1.454 2.860
1.105 2.198 1.260
0.951 2.383 1.056
0.783 2.465 0.869
3.921 0.106 5.258
2.758 0.873 3.314
2.592 1.001 3.099
2.463 1.037 2.893
2.266 1.199 2.669
1.189 2.015 1.085
1.034 2.091 0.921
0.816 2.293 0.675
3.855 0.034 4.861
2.850 1.056 3.008
2.735 1.190 2.845
2.564 1.288 2.571
1.386 2.137 1.000
1.194 2.245 0.733
1.054 2.410 0.601
4.287 0.044 5.076
4.080 0.144 4.827
4.178 0.470 4.494
1.680 2.294 0.952
1.513 2.404 0.656
1.333 2.561 0.416
4.480 0.155 4.890
4.369 0.351 4.711
4.172 0.375 4.467
4.419 0.536 4.412
1.951 2.408 0.758
1.743 2.539 0.635
1.548 2.692 0.344
4.753 0.363 4.858
4.621 0.517 4.663
4.416 0.552 4.356
4.656 0.728 4.311
4.500 0.842 4.114
1.994 2.731 0.500
1.776 2.852 0.284
5.043 0.530 4.792
4.893 0.564 4.551
4.692 0.693 4.326
4.950 0.847 4.201
4.799 0.934 3.933
4.572 1.148 3.804
2.113 2.978 0.165
5.213 0.669 4.665
5.066 0.775 4.463
4.900 0.843 4.240
5.219 1.028 4.119
4.983 1.133 3.932
4.913 1.208 3.646
4.749 1.407 3.432
5.520 0.820 4.521
5.337 0.876 4.374
5.219 0.973 4.099
5.379 1.115 4.057
5.236 1.248 3.817
5.093 1.358 3.556
4.963 1.509 3.388
4.797 1.682 3.105
5.633 1.038 4.255
5.462 1.203 4.069
5.674 1.263 3.879
5.477 1.407 3.669
5.333 1.487 3.469
5.163 1.662 3.251
4.998 1.817 3.016
4.818 1.847 2.823
5.723 1.346 3.965
5.952 1.441 3.855
5.731 1.589 3.564
5.551 1.663 3.320
5.373 1.809 3.096
5.257 1.867 2.962
5.163 2.017 2.706
5.909 1.466 3.821
6.032 1.714 3.554
5.778 1.822 3.331
5.704 2.008 3.004
5.486 2.069 2.866
5.391 2.181 2.648
4.289 2.959 1.070
4.040 3.067 0.785
3.855 3.243 0.548
3.779 3.409 0.416
6.266 1.884 3.377
6.084 1.945 3.154
5.904 2.116 2.949
5.796 2.240 2.732
4.688 3.023 1.158
4.515 3.175 0.900
4.269 3.236 0.659
4.212 3.349 0.527
3.956 3.487 0.213
4.873 3.215 1.062
4.746 3.348 0.894
4.560 3.432 0.581
4.436 3.579 0.415
4.231 3.620 0.189
5.276 3.182 1.223
5.116 3.344 0.936
4.973 3.414 0.687
4.806 3.522 0.536
4.622 3.655 0.332
4.493 3.825 0.016
5.574 3.300 1.076
5.344 3.423 0.830
5.224 3.578 0.598
5.048 3.757 0.418
4.900 3.848 0.145
5.980 3.442 1.168
5.802 3.490 0.969
5.606 3.667 0.827
5.455 3.759 0.592
5.281 3.871 0.366
5.154 4.001 0.103
1.260 0.397 3.389
1.125 0.490 3.203
0.917 0.521 2.931
0.726 0.710 2.696
0.543 0.810 2.456
0.395 0.915 2.232
1.614 0.349 3.457
1.445 0.457 3.285
1.303 0.565 3.010
1.214 0.689 2.869
1.017 0.788 2.566
0.781 0.902 2.421
2.045 0.425 3.669
1.876 0.529 3.421
1.693 0.661 3.173
1.526 0.763 2.907
1.405 0.927 2.706
1.225 0.948 2.513
2.437 0.393 3.764
2.255 0.511 3.554
2.127 0.672 3.314
2.018 0.829 3.111
1.829 0.849 2.858
1.585 1.017 2.676
2.548 0.666 3.411
2.386 0.851 3.260
2.179 0.881 2.971
2.071 1.010 2.716
1.890 1.144 2.503
0.778 1.972 0.973
0.593 2.107 0.767
2.789 0.888 3.342
2.578 0.955 3.082
2.406 1.035 2.865
2.262 1.139 2.619
1.195 2.051 1.081
1.036 2.119 0.828
0.880 2.260 0.660
3.859 0.040 4.950
2.870 0.597 3.166
2.733 0.675 2.982
2.543 0.885 2.728
2.391 0.926 2.467
2.181 1.039 2.333
1.247 1.773 0.879
1.062 1.910 0.672
0.944 1.961 0.453
4.043 0.099 4.417
3.100 0.699 3.084
2.978 0.869 2.901
2.751 0.946 2.660
2.615 1.152 2.426
2.491 1.192 2.235
1.508 1.945 0.873
1.267 2.084 0.554
1.218 2.189 0.401
4.018 0.055 4.435
4.257 0.247 4.269
3.131 0.970 2.747
2.974 1.142 2.513
2.886 1.252 2.315
1.578 2.242 0.471
1.455 2.258 0.338
4.422 0.122 4.573
4.269 0.143 4.366
4.526 0.381 4.200
1.751 2.335 0.420
1.669 2.426 0.146
4.894 0.118 4.682
4.716 0.219 4.442
4.566 0.400 4.280
4.733 0.455 4.079
1.927 2.601 0.148
5.090 0.271 4.530
4.916 0.323 4.377
4.801 0.512 4.160
4.977 0.632 4.042
4.899 0.780 3.778
5.355 0.386 4.500
5.177 0.474 4.257
4.983 0.686 4.047
5.246 0.777 3.907
5.099 0.848 3.673
4.965 0.963 3.546
5.359 0.611 4.211
5.246 0.823 3.896
5.534 0.888 3.845
5.382 1.009 3.640
5.134 1.141 3.408
4.986 1.281 3.201
5.470 0.931 3.814
5.770 1.099 3.781
5.550 1.186 3.569
5.377 1.279 3.297
5.293 1.450 3.023
5.061 1.544 2.831
3.794 2.440 1.020
3.713 2.647 0.774
5.719 1.109 3.741
6.031 1.242 3.660
5.782 1.293 3.375
5.630 1.488 3.198
5.529 1.614 2.980
5.339 1.705 2.792
5.143 1.848 2.573
4.027 2.661 0.989
3.949 2.791 0.702
3.784 2.818 0.543
6.028 1.182 3.612
6.119 1.475 3.295
5.878 1.660 3.138
5.768 1.774 2.866
5.567 1.854 2.710
5.412 2.002 2.430
4.493 2.674 1.114
4.306 2.813 0.914
4.146 2.937 0.589
3.997 3.063 0.401
3.863 3.181 0.150
6.155 1.755 2.953
5.956 1.836 2.732
5.833 1.961 2.574
4.719 2.794 0.934
4.547 2.935 0.821
4.338 3.023 0.529
4.242 3.210 0.300
4.087 3.259 0.060
6.273 2.057 2.660
6.100 2.132 2.465
4.935 3.001 0.885
4.829 3.109 0.678
4.631 3.235 0.498
4.502 3.329 0.184
5.148 3.084 0.795
5.007 3.265 0.585
4.899 3.283 0.356
4.768 3.408 0.090
5.546 3.091 0.963
5.448 3.243 0.755
5.286 3.371 0.449
5.161 3.431 0.196
4.967 3.611 0.054
5.846 3.263 0.796
5.703 3.340 0.632
5.474 3.486 0.375
5.356 3.586 0.124
1.201 0.191 2.936
0.970 0.288 2.780
0.775 0.419 2.512
0.684 0.553 2.275
1.579 0.259 3.085
1.411 0.414 2.871
1.244 0.516 2.700
1.099 0.576 2.453
1.945 0.307 3.217
1.780 0.391 3.029
1.684 0.525 2.814
1.523 0.674 2.569
1.338 0.707 2.296
2.386 0.349 3.366
2.249 0.447 3.164
2.032 0.586 2.901
1.823 0.667 2.729
1.723 0.743 2.426
0.381 1.726 0.718
2.627 0.452 3.271
2.423 0.592 2.993
2.333 0.746 2.862
2.139 0.865 2.612
1.960 0.930 2.423
0.813 1.703 0.796
0.700 1.821 0.550
2.876 0.566 3.119
2.634 0.692 2.994
2.498 0.812 2.761
2.351 0.912 2.509
2.222 1.118 2.227
1.285 1.818 0.911
1.082 1.930 0.694
0.871 2.024 0.517
2.854 0.389 2.962
2.748 0.507 2.796
2.556 0.563 2.586
2.447 0.705 2.301
2.236 0.826 2.161
1.299 1.548 0.785
1.098 1.662 0.531
1.019 1.746 0.257
3.096 0.537 2.899
3.015 0.652 2.708
2.857 0.712 2.401
2.718 0.833 2.254
2.553 0.976 1.995
1.346 1.821 0.409
1.218 1.868 0.238
3.442 0.711 2.806
3.221 0.804 2.535
3.092 0.940 2.304
2.897 0.999 2.154
2.700 1.164 1.956
1.687 1.926 0.390
1.481 2.058 0.073
3.455 0.913 2.495
3.358 1.096 2.270
3.144 1.174 2.077
2.980 1.259 1.822
1.770 2.235 -0.002
3.564 1.221 2.199
3.353 1.361 1.932
3.230 1.484 1.705
3.501 1.624 1.576
3.319 1.683 1.389
3.576 1.811 1.344
3.441 1.910 1.108
5.293 0.947 3.169
3.839 1.943 1.185
3.611 2.128 1.016
3.466 2.197 0.802
5.658 0.958 3.315
5.524 1.107 3.070
5.351 1.195 2.922
4.108 2.129 1.120
3.890 2.218 0.883
3.707 2.314 0.687
3.551 2.495 0.398
5.838 1.149 3.251
5.696 1.177 3.055
5.595 1.303 2.820
5.405 1.450 2.583
4.296 2.281 1.063
4.081 2.436 0.831
4.027 2.526 0.547
3.797 2.582 0.380
3.658 2.722 0.090
6.174 1.217 3.160
5.929 1.349 2.901
5.861 1.466 2.718
5.662 1.579 2.494
5.471 1.771 2.213
4.509 2.469 0.912
4.322 2.556 0.695
4.212 2.631 0.475
4.111 2.782 0.252
3.949 2.913 0.021
6.230 1.488 2.819
6.004 1.640 2.575
5.940 1.766 2.393
5.789 1.841 2.134
4.732 2.534 0.859
4.590 2.674 0.575
4.457 2.746 0.385
4.255 2.881 0.200
6.176 1.947 2.243
5.048 2.664 0.701
4.843 2.774 0.512
4.709 2.984 0.244
4.518 3.044 0.018
5.256 2.905 0.660
5.091 2.953 0.417
4.997 3.047 0.197
5.374 3.177 0.320
1.871 0.197 2.811
1.717 0.285 2.587
0.301 1.356 0.616
2.265 0.226 2.965
2.116 0.271 2.715
2.002 0.409 2.541
1.730 0.521 2.241
0.677 1.338 0.722
0.549 1.493 0.495
2.722 0.271 3.150
2.546 0.347 2.881
2.404 0.431 2.642
2.191 0.548 2.392
2.080 0.661 2.192
1.099 1.414 0.906
0.893 1.568 0.653
0.720 1.629 0.371
2.957 0.354 2.992
2.764 0.515 2.728
2.648 0.609 2.514
2.415 0.756 2.332
2.283 0.876 2.124
1.294 1.541 0.778
1.206 1.716 0.487
1.012 1.773 0.307
3.000 0.128 2.877
2.859 0.258 2.561
2.637 0.370 2.393
2.515 0.539 2.116
2.292 0.608 1.951
1.381 1.333 0.551
1.270 1.389 0.322
1.061 1.521 0.088
3.253 0.330 2.730
3.095 0.425 2.518
2.884 0.524 2.337
2.718 0.596 2.086
2.549 0.785 1.800
1.468 1.629 0.260
1.320 1.665 0.057
3.473 0.427 2.615
3.257 0.556 2.355
3.154 0.697 2.209
3.018 0.765 2.017
2.851 0.939 1.768
3.767 0.541 2.577
3.507 0.686 2.266
3.397 0.763 2.106
3.232 0.894 1.866
3.064 1.073 1.642
2.889 1.154 1.374
3.812 0.881 2.217
3.686 1.008 1.997
3.416 1.104 1.750
3.259 1.165 1.595
3.136 1.266 1.346
3.901 1.133 1.876
3.709 1.257 1.699
3.515 1.310 1.457
3.432 1.431 1.209
3.250 1.531 1.008
3.976 1.336 1.630
3.747 1.441 1.324
3.622 1.568 1.110
3.479 1.770 0.924
3.364 1.786 0.673
4.065 1.650 1.237
3.917 1.805 1.038
3.676 1.839 0.829
3.560 1.978 0.574
3.407 2.142 0.410
4.243 1.817 1.191
4.138 1.945 0.971
3.913 2.002 0.742
3.784 2.089 0.481
3.599 2.268 0.293
3.471 2.421 0.000
5.773 1.017 2.902
5.604 1.096 2.652
4.395 2.075 0.811
4.199 2.213 0.653
4.029 2.285 0.407
3.921 2.341 0.211
6.184 1.034 2.989
6.013 1.118 2.705
5.886 1.297 2.543
5.690 1.327 2.323
4.607 2.225 0.721
4.413 2.272 0.512
4.268 2.394 0.318
4.137 2.529 0.050
6.093 1.384 2.432
5.926 1.508 2.201
5.788 1.600 2.017
4.649 2.441 0.453
4.575 2.611 0.197
6.174 1.689 2.083
6.038 1.789 1.863
4.921 2.630 0.358
4.800 2.729 0.150
0.078 0.930 0.544
0.545 0.971 0.699
0.323 1.072 0.447
0.847 1.033 0.754
0.795 1.147 0.521
0.530 1.219 0.314
2.579 0.067 2.661
2.427 0.226 2.437
2.257 0.380 2.278
1.137 1.112 0.639
0.952 1.281 0.441
0.806 1.372 0.251
2.978 0.199 2.843
2.839 0.299 2.629
2.654 0.370 2.391
2.509 0.469 2.108
2.317 0.627 1.884
1.418 1.318 0.589
1.198 1.371 0.401
1.043 1.541 0.109
2.886 -0.023 2.472
2.723 0.178 2.221
2.573 0.265 1.997
1.468 1.101 0.370
1.320 1.167 0.183
3.322 0.057 2.565
3.164 0.203 2.327
2.924 0.249 2.161
2.822 0.388 1.919
2.604 0.571 1.711
3.721 0.124 2.639
3.577 0.244 2.415
3.335 0.352 2.190
3.240 0.387 2.043
3.083 0.558 1.761
2.849 0.641 1.517
3.961 0.222 2.539
3.794 0.352 2.400
3.642 0.488 2.089
3.510 0.570 1.955
3.358 0.646 1.703
3.180 0.762 1.469
2.946 0.930 1.199
4.041 0.508 2.293
3.872 0.628 2.088
3.760 0.710 1.852
3.545 0.792 1.631
3.373 0.978 1.376
3.239 1.103 1.155
3.030 1.181 0.942
4.110 0.779 1.922
3.977 0.839 1.721
3.747 1.000 1.540
3.659 1.067 1.275
3.463 1.278 1.104
3.274 1.345 0.795
3.156 1.449 0.645
4.034 1.093 1.374
3.860 1.264 1.198
3.741 1.392 0.938
3.559 1.495 0.720
3.389 1.651 0.505
3.180 1.698 0.327
4.068 1.345 1.060
3.987 1.481 0.877
3.755 1.603 0.656
3.634 1.796 0.417
3.529 1.837 0.157
4.351 1.559 0.948
4.210 1.608 0.733
4.086 1.736 0.572
3.850 1.946 0.291
3.728 2.045 0.106
4.407 1.799 0.668
4.237 1.919 0.491
4.075 2.001 0.260
6.131 0.908 2.590
6.015 0.964 2.384
5.755 1.103 2.169
4.537 2.085 0.338
4.367 2.227 0.158
6.207 1.114 2.214
6.066 1.332 2.063
5.858 1.455 1.781
4.804 2.165 0.213
4.606 2.318 0.025
6.165 1.545 1.720
0.294 0.567 0.525
0.188 0.748 0.371
0.690 0.606 0.711
0.543 0.705 0.448
0.379 0.873 0.216
0.974 0.748 0.632
0.767 0.862 0.419
0.639 1.026 0.144
1.174 0.955 0.481
1.045 1.024 0.251
0.919 1.110 0.051
2.875 0.041 2.452
2.694 0.192 2.155
2.559 0.207 1.947
1.406 1.112 0.358
1.263 1.236 0.153
1.355 0.938 -0.016
3.002 0.014 1.901
2.839 0.146 1.702
3.413 0.092 2.108
3.280 0.182 1.871
3.121 0.330 1.635
3.023 0.429 1.441
3.800 0.100 2.234
3.750 0.195 1.941
3.558 0.291 1.739
3.342 0.471 1.480
3.208 0.603 1.335
3.039 0.660 1.104
4.300 0.190 2.264
4.059 0.280 2.150
3.880 0.341 1.889
3.775 0.465 1.603
3.655 0.563 1.365
3.441 0.737 1.255
3.254 0.900 0.921
3.190 1.008 0.760
4.204 0.549 1.756
4.028 0.658 1.540
3.847 0.754 1.378
3.738 0.829 1.048
3.539 0.967 0.892
3.395 1.114 0.668
3.234 1.190 0.427
3.052 1.296 0.222
4.272 0.733 1.496
4.126 0.947 1.197
3.989 1.014 1.026
3.741 1.189 0.795
3.614 1.232 0.547
3.460 1.412 0.288
3.259 1.486 0.058
4.143 1.171 0.931
3.990 1.319 0.677
3.846 1.455 0.471
3.732 1.519 0.228
3.540 1.676 0.056
4.212 1.385 0.554
4.064 1.557 0.334
3.899 1.660 0.189
4.483 1.519 0.495
4.376 1.662 0.269
4.243 1.766 0.020
4.534 1.820 0.167
6.262 0.956 2.121
6.086 1.029 1.829
5.952 1.218 1.678
6.206 1.281 1.597
6.003 1.485 1.288
6.332 1.537 1.210
0.114 0.253 0.534
0.613 0.205 0.633
0.413 0.322 0.457
0.255 0.488 0.190
1.015 0.325 0.780
