5.894668 48.607685 31.10051
39.805668 37.092686 1.039505
37.85767 35.412685 1.4605103
27.844667 36.576687 8.257507
29.009668 35.949688 9.97451
63.44867 3.2666855 10.859505
60.96267 2.6416855 10.545509
53.62967 1.2086868 19.456505
52.013668 70.18169 20.319504
50.006668 5.3096848 59.113506
48.56067 6.1226807 58.932507
47.11467 4.2716827 71.2125
45.278667 5.5736847 71.1835
10.362668 37.229687 13.431511
9.942668 35.488686 12.860512
18.284668 38.896687 2.3235092
18.835669 37.027687 2.1405106
29.218668 67.96468 56.163506
29.197668 65.93069 54.899506
33.453667 4.368683 46.633507
35.277668 2.9596863 45.308506
53.37167 12.877686 25.518509
53.46867 10.666679 25.14151
46.90767 9.275681 34.51151
45.028667 7.564682 34.32951
35.08767 37.396687 71.845505
33.905666 35.492687 71.8895
25.388668 33.260685 3.6305084
23.336668 34.131687 2.8265076
34.173668 29.219685 50.617508
33.509666 30.548685 49.213505
40.902668 33.960686 41.856506
40.67067 35.839687 40.129505
31.46667 59.566685 57.824505
31.561668 60.381687 59.596504
23.001669 53.770687 66.46651
21.587667 52.905685 64.8785
14.270668 10.873686 8.531509
12.880669 11.732686 6.893509
23.146667 13.627686 0.15750885
22.03267 15.244686 0.27851105
22.712667 10.305686 37.584507
22.253668 12.596685 38.575504
17.432669 12.447686 50.384506
16.821669 14.310686 50.236507
51.195667 35.40769 68.401505
51.916668 33.433685 69.774506
45.79667 32.641685 3.287506
45.729668 34.008686 4.8125076
61.88067 44.670685 60.593506
61.14467 43.015686 59.749508
52.752666 42.230686 67.358505
51.43467 44.290684 68.38351
15.607668 46.236687 23.074509
16.710669 44.324684 23.343506
13.922668 45.278687 35.06251
13.6586685 43.206688 35.879513
59.534668 30.613686 35.826508
57.32967 30.028685 35.283504
52.04767 29.919685 44.496506
51.67967 28.474686 46.380505
10.594668 31.419685 13.435509
8.598668 30.049685 13.93351
-1.938332 31.163685 21.588509
-0.5853321 31.587685 23.362503
11.876668 4.894684 5.7345047
12.315668 2.866684 5.218506
21.687668 7.7756805 73.830505
21.245668 9.80468 73.2505
43.272667 57.641685 6.23851
42.743668 60.268684 5.5475082
51.14167 62.496685 73.5595
50.389668 62.924686 71.36751
63.507668 42.692688 42.023506
61.38767 42.986687 40.956505
55.46867 39.796688 50.078506
55.91367 40.103687 52.251507
50.82267 56.018684 14.179504
52.69767 56.959686 15.278511
58.78767 60.703686 5.8505096
57.195667 59.395687 4.6005096
15.842669 59.060684 7.968506
14.656669 60.791687 8.455505
8.706668 63.421684 18.896507
7.160668 64.86869 18.797508
61.585667 34.165688 72.83851
63.29067 33.621685 74.5865
3.257667 37.423687 65.58951
5.1026683 37.167686 66.110504
14.630669 34.812687 55.326508
12.613668 35.326687 55.507507
5.979668 31.862686 65.415504
5.550668 34.061687 65.927505
52.514668 62.165684 17.685509
51.792667 63.111687 19.37851
44.319668 59.011684 27.773506
42.82467 60.965687 27.830505
3.7736678 26.738686 62.402508
4.8796678 24.439686 62.837505
11.159668 28.009686 52.673508
10.751668 29.128685 50.890507
37.13567 7.949684 68.19951
37.904667 5.94368 69.0035
31.22367 3.7566833 2.2475052
29.425669 3.4646835 2.4205093
16.094667 57.384686 5.7485046
14.494668 59.063686 5.136505
21.694668 62.550686 72.275505
22.155668 61.986687 70.39551
65.372665 44.735687 62.875507
64.01566 45.940685 61.710506
57.07967 46.988686 70.81151
57.772667 46.146687 72.74551
35.73467 5.0396805 31.639505
37.12467 3.3706818 33.064507
27.408669 2.4056854 39.597507
26.889668 0.44368744 39.427505
45.11567 39.094685 21.859505
43.34567 39.78269 20.653503
49.68367 37.087685 11.763512
50.66967 38.976685 10.7795105
63.743668 67.38369 64.541504
62.605667 69.14669 63.250507
2.1206737 70.26069 56.866505
2.6066737 69.59069 54.479507
40.792667 66.767685 27.92051
43.064667 67.36969 28.259506
50.528667 65.26169 17.756508
49.23467 66.78469 17.316505
12.7906685 25.811686 52.386505
12.400668 23.718685 51.863506
9.238668 19.366686 63.904507
9.911668 19.918686 65.4445
43.730667 68.82568 14.004509
42.12467 69.83069 14.702507
37.563667 67.05669 25.58751
36.347668 68.71769 25.782509
59.85167 50.640686 4.886505
61.181667 49.134686 5.7555084
53.652668 48.405685 15.018509
54.472668 45.767685 15.209511
10.871668 31.162685 45.607506
9.516668 32.960686 47.052505
13.317668 37.839687 35.081505
11.663669 37.838688 34.037506
47.68467 37.087685 7.857506
48.60967 35.519688 9.547508
43.050667 31.907686 18.942505
42.17767 33.477688 21.117508
27.007668 20.273685 61.197506
27.303669 20.674686 58.572506
26.042667 28.470686 60.966507
26.845669 26.685686 62.145508
-0.41933194 25.345686 21.815506
-0.15533201 24.304686 20.167503
6.048668 27.668686 10.317505
7.687668 25.944685 10.633507
35.827667 19.640686 47.661507
36.91367 17.355686 46.911507
43.05167 20.234686 36.922504
44.584667 18.478685 36.738506
41.389668 1.4856873 52.524506
42.439667 70.22269 52.620506
39.96367 69.02569 64.027504
41.083668 69.92369 65.484505
40.69167 9.299683 48.049507
40.53367 8.383682 45.481506
48.689667 13.247681 40.203506
46.79667 12.727684 38.595505
39.26767 28.284685 75.2125
40.46867 29.972685 76.426506
32.107666 31.876686 7.4935074
30.558668 33.087685 8.897507
55.009666 50.111687 74.5315
52.701668 49.970684 73.83851
46.35167 45.906685 6.5475082
47.659668 45.731686 8.818504
29.648668 60.209686 75.36751
32.174667 60.495686 75.0865
35.937668 62.532684 63.717506
34.14967 62.937687 62.421505
62.243668 32.700687 39.910507
63.847668 33.844685 41.616505
55.57267 28.036686 47.751507
54.988667 29.287685 49.278507
56.43367 15.101686 67.040504
58.20067 14.492685 68.553505
49.85367 12.905685 1.0755081
48.49967 14.690685 1.7705078
25.646667 48.244686 29.22551
26.90767 48.347687 27.305504
35.97667 46.400684 20.160507
36.570667 45.780685 18.400505
55.23467 54.833687 17.889511
55.000668 55.825684 15.757507
61.319668 56.873684 8.329506
63.76067 56.791687 9.44751
8.734668 27.903685 67.316505
8.035668 26.333685 65.941505
12.784668 28.695684 55.171505
12.350668 30.242685 53.911507
4.7746677 55.782684 33.877506
5.781668 57.697685 34.126507
14.060668 53.916687 24.304504
13.598668 55.138687 22.612503
17.919668 36.813686 16.644508
19.200668 38.816685 17.484505
23.29967 38.752686 6.7575073
25.28267 38.996685 7.9965057
10.693668 5.0966797 62.584507
8.892668 6.0116806 63.712505
3.591668 68.54869 72.2815
2.824668 0.21768188 72.552505
15.116669 33.419685 16.436508
13.855668 33.029686 14.787506
19.559668 36.361687 4.6215057
21.637669 35.665688 4.133507
45.33667 19.577686 33.952507
47.28167 20.170687 34.135506
59.01767 18.087687 32.100506
58.854668 18.789686 29.711506
20.812668 64.045685 68.43951
20.543669 63.157684 66.470505
26.537668 65.54169 56.334507
27.653667 63.714684 55.439507
0.19766998 47.307686 46.268505
1.3146744 47.464684 48.099506
62.347668 47.413685 58.761505
64.136665 48.314686 59.526505
59.67067 21.015686 10.747505
59.58867 20.066687 9.179504
63.27367 27.170687 75.97851
65.387665 27.211685 0.019508362
47.827667 11.753685 76.13351
46.34467 13.072685 1.0975113
41.01967 7.074684 9.762505
42.18567 6.59568 11.619507
67.13067 45.969685 27.227509
66.05666 47.634686 26.028503
57.77367 43.663685 34.847507
57.06667 42.501686 33.791508
1.215668 11.436686 37.68751
3.3986678 12.906686 37.416508
6.661668 15.193686 25.685509
8.363668 16.050686 26.299507
1.073668 53.903687 30.618507
1.200668 52.990685 28.118507
9.863668 53.348686 20.636505
8.841668 54.680687 19.493507
54.40067 47.770687 54.455505
53.02467 47.271687 56.045506
45.16967 49.881687 61.482506
43.418667 48.593685 62.812508
18.964668 48.651684 43.212505
17.436668 46.961685 44.275505
12.447668 41.376686 49.188507
10.034668 40.958687 50.293507
14.830668 26.313686 55.345505
15.297668 27.444685 57.325504
11.256668 25.567686 66.07851
10.399669 26.104687 68.34251
18.693668 31.564686 18.676506
18.668669 29.842686 17.069511
25.757668 37.264687 10.371506
26.267668 39.203686 11.142509
65.579666 48.620686 21.033508
65.968666 51.053684 21.703506
2.6316676 48.619686 11.812508
4.172668 50.557686 12.174507
38.69267 54.607685 40.425507
40.53067 54.887684 41.079506
50.49667 56.927685 35.617504
52.16467 57.128685 37.428505
5.6036677 55.034687 16.552505
6.559669 55.062687 18.524506
68.44967 49.239685 24.636505
66.27767 49.728683 24.28151
-0.39333215 52.462685 65.763504
1.8676679 52.596684 66.398506
5.466668 52.668686 55.792507
4.043668 52.443684 54.303505
34.252666 26.800686 66.735504
34.369667 27.850685 69.2095
27.789669 27.939686 2.7255096
26.210669 26.166685 2.190506
48.41567 60.559685 33.903507
47.74967 62.700684 34.245506
41.71367 57.542686 43.574505
42.54767 58.998684 44.671505
23.249668 1.2886887 14.234505
22.845669 1.5056839 12.46051
28.26867 9.060684 3.7275085
29.015669 9.549683 5.486511
31.986668 7.473686 62.053505
32.82567 9.570686 61.761505
37.946667 13.045685 51.487507
39.842667 12.080681 51.523506
15.087668 21.646687 14.125511
14.031669 20.870686 12.314507
5.470668 17.836685 21.157509
4.887668 16.134686 22.204506
65.99367 54.350685 47.577507
63.883667 54.168686 46.550507
54.11767 51.687687 51.538506
53.91367 50.579685 50.049507
20.228668 43.154686 4.084511
21.792667 42.905685 6.0485077
14.219668 40.255688 15.406509
14.944669 37.949688 15.783508
6.9596705 6.838684 2.0765076
5.2826686 7.2246857 3.393509
65.01667 5.654686 9.743507
66.70367 4.135681 10.78051
9.690668 47.571686 15.106506
9.508668 49.631687 14.388512
17.293669 48.621685 4.985512
19.482668 49.314686 4.72451
38.11467 39.324688 55.999508
36.94767 38.166687 54.499508
43.03867 41.706688 43.847507
45.23367 42.278687 43.978504
23.419668 35.838688 42.279507
25.114668 35.960686 43.662506
31.229668 38.065685 34.849506
31.720669 38.346687 32.638508
6.3796678 68.241684 55.428505
4.717668 68.38169 53.326508
9.869668 68.42869 43.995506
10.774669 66.48369 43.810505
54.94067 23.425686 30.760506
53.02567 24.506685 30.412506
41.87467 18.376686 32.072514
39.745667 20.067686 31.497505
45.363667 40.776688 24.251503
46.500668 39.026688 24.269508
52.681667 40.555687 14.771507
52.910667 42.348686 14.913506
33.723667 48.794685 72.5995
35.403667 47.273685 71.49551
42.835667 44.061684 63.774506
44.90767 44.716686 64.121506
46.327667 56.789684 66.27051
48.362667 57.127686 67.1705
57.993668 58.944687 60.088505
58.52567 61.477684 59.910507
16.390667 30.941685 57.582504
17.324667 32.095688 59.261505
10.300669 33.764687 66.9475
9.340668 32.65069 68.87051
65.49067 19.018686 35.05151
64.94967 18.618685 32.865513
4.547668 21.358686 25.634506
6.217674 20.486687 24.179504
36.828667 24.704685 31.805506
37.897667 23.171686 31.413506
47.30167 22.950686 22.651505
46.917667 21.123686 21.535507
30.105669 0.416687 58.147507
32.09567 2.0956879 57.960506
37.071667 1.0516815 47.564507
39.013668 2.303688 47.064507
31.244669 41.523685 69.82751
32.036667 39.944687 71.03451
28.906668 46.682686 69.3915
30.786669 45.444687 68.899506
21.178669 34.751686 59.404507
23.406668 36.261684 59.776505
26.663668 39.804688 48.656506
27.002668 37.743687 47.544506
29.534668 21.570686 8.125511
30.350668 19.774685 8.851509
24.308668 13.267686 16.555511
23.332668 10.741686 16.119507
17.241669 50.021687 61.596504
19.850668 50.261684 60.618507
27.496668 50.176685 52.505505
27.228668 48.545685 51.441505
15.097669 69.25669 7.2035065
15.8826685 67.25869 7.4375076
24.050669 1.491684 74.7935
24.241669 0.83768463 72.8655
13.754668 55.655685 60.583508
13.248669 56.071686 58.410507
14.668669 62.677685 61.040504
13.937669 60.931686 61.016506
10.127668 67.19269 21.257507
9.520668 65.75069 20.038506
21.804668 66.70068 14.015511
20.482668 66.713684 12.338509
11.030668 15.682686 47.582504
12.770668 14.515686 48.667507
7.7026677 13.910686 59.592506
8.325668 11.355686 60.625507
20.274668 61.394684 68.59251
20.271667 59.774685 67.25851
14.927669 54.916687 2.5925064
13.694669 53.236687 1.8925095
18.673668 15.513686 14.352509
17.058668 15.705686 13.19751
8.084668 13.177686 22.161507
8.069668 13.602686 24.060509
35.37167 40.213688 55.601505
35.917667 41.851685 56.259506
31.708668 42.78269 67.4605
33.071667 44.025684 68.190506
19.27567 35.098686 37.629505
20.539669 33.168686 37.915504
28.036669 40.622684 32.874508
27.565668 39.980686 30.698505
59.35167 17.381685 9.917511
60.69067 18.086685 8.195511
67.93067 20.327686 2.6185074
67.13867 19.459686 1.0195084
26.145668 32.830685 9.457512
26.946669 34.720688 11.117508
21.169668 30.668686 19.838509
21.161669 32.776688 20.693504
3.2046733 43.254684 11.686508
4.672668 44.069687 12.518509
0.60567474 41.739685 23.160507
68.24967 42.749687 24.08651
46.86067 69.63169 15.284508
49.208668 69.019684 15.445511
56.65167 6.1456833 8.681511
58.11767 4.6536865 9.555511
6.779668 17.824686 6.145508
8.247668 17.194685 7.5695114
1.430668 13.845686 16.632507
0.4086679 12.056685 17.83451
17.429668 61.039684 9.426506
18.422668 61.076687 11.260506
12.588668 55.683685 20.221504
13.377668 57.290684 21.061508
48.10167 60.580685 31.307503
50.48367 60.195686 31.130508
59.01667 64.974686 24.765503
58.20767 66.47169 23.464508
46.833668 49.593685 46.331505
47.51667 47.977684 45.401505
49.72167 51.954685 33.972507
49.27667 53.658684 32.418507
21.69567 49.308685 6.990509
22.378668 48.188686 5.0805054
33.462666 50.346684 74.540504
32.92167 52.104687 73.00551
7.095668 43.963684 13.841507
8.139668 42.314686 12.36351
17.845669 46.082684 4.9655075
18.19567 44.658684 2.978508
5.273668 41.940685 46.421505
4.329668 43.663685 45.823505
6.342668 46.518684 33.070507
7.957668 48.012684 33.293507
60.22867 2.5966873 28.844505
58.93667 4.5756836 28.097504
59.486668 69.849686 31.547508
61.40567 69.33069 31.744509
33.04667 8.521683 5.7255096
35.36467 8.72068 4.7375107
43.46167 7.217682 73.3785
42.76267 5.370682 72.28551
8.204668 40.222687 47.820507
7.850668 38.044685 46.982506
10.931668 43.795685 35.571507
11.318668 45.770687 35.874504
8.314668 19.291685 47.203506
6.3666677 18.003685 45.731506
-2.5083323 14.845686 53.534508
-1.244332 15.7666855 55.363506
39.08167 64.72969 28.32251
41.078667 64.15169 27.853508
45.855667 69.09369 18.244507
46.71267 67.51069 17.09851
44.06067 3.444687 34.835506
43.68567 5.279686 34.517506
37.19767 69.727684 42.550507
36.81767 69.92869 44.864506
54.786667 11.794685 43.554504
53.80267 14.112686 43.561504
60.661667 21.601686 36.490505
61.87267 20.114685 35.658504
62.138668 54.380684 59.843506
61.127666 55.980686 58.476505
68.08367 53.063686 49.392506
66.92067 52.018684 47.924507
34.890667 4.5826874 7.6775055
33.42267 3.7816849 8.087509
27.943668 4.5126877 18.00251
26.67467 2.831688 18.367508
34.041668 63.983685 59.515507
35.854668 63.061684 59.916508
42.08867 59.948685 48.947506
40.944668 60.371685 47.155506
37.26767 31.358685 36.200504
37.99067 32.790688 37.464504
28.653667 36.390686 44.578506
26.971668 34.374687 45.078506
30.821669 55.699684 74.150505
29.829668 53.772686 76.041504
25.190668 51.859684 10.097511
26.727669 51.183685 10.71051
53.272667 35.029686 72.1125
53.56667 33.058685 72.5575
50.74867 34.851685 7.48851
49.33167 33.736687 7.035507
39.209667 12.847687 29.587505
38.577667 10.947685 30.920506
29.67467 7.2686844 38.038506
31.764668 6.604683 39.707504
36.188667 26.000687 69.6255
37.645668 27.755686 69.32851
46.293667 23.238686 60.797504
47.10367 21.295687 60.190506
51.425667 6.59568 39.509506
50.002666 8.180679 39.972507
43.765667 8.87368 50.809505
41.784668 8.477684 50.374508
18.993668 36.484688 59.349506
17.007668 36.069687 58.488506
10.074668 37.853687 68.4315
7.622668 39.174686 68.34051
32.649666 24.944685 30.490505
33.391666 24.876686 32.755505
28.520668 24.566687 43.490505
27.437668 22.968685 44.638504
44.660667 0.7476883 17.352509
43.618668 3.069687 17.009506
34.923668 1.7266846 26.852509
36.65667 3.3736877 27.694504
52.347668 10.313683 43.959507
53.445667 10.197685 45.963505
46.689667 3.1386871 50.975506
44.125668 2.7336884 50.512505
65.248665 23.071686 73.3375
64.359665 23.857685 71.78251
4.2756724 27.567686 66.9605
5.130668 26.301685 65.3515
14.611669 24.208685 34.309505
12.443668 23.650686 33.497505
4.909668 24.979687 44.117504
4.234668 26.917686 43.488506
35.147667 37.811687 13.828506
35.09567 40.080685 13.737511
43.94367 42.970688 6.773506
44.24267 44.924686 7.952507
28.463669 23.720686 23.343506
30.485668 24.187685 23.605507
37.202667 21.054686 14.162506
38.738667 19.647686 13.944511
7.4796677 32.017685 27.939507
7.3486676 30.501686 26.640503
14.173668 35.828686 17.694511
13.142669 35.320686 15.895508
16.059668 19.588686 55.355507
16.297668 21.713686 55.387505
13.483668 20.787685 68.137505
11.966668 21.684687 69.5575
42.939667 45.591686 3.4485092
42.827667 47.570686 3.207512
52.195667 46.952686 71.4765
53.56767 45.515686 71.46751
33.135666 27.040686 28.736504
34.61767 26.904686 29.860504
42.348667 27.119686 20.060509
41.980667 29.531685 19.05851
18.687668 28.436686 21.632507
17.388668 29.301685 19.80951
11.391668 31.527685 30.751503
10.496668 29.796686 30.550507
10.746668 13.382686 65.13451
8.983668 14.169685 66.455505
2.946668 11.295686 74.4185
1.5966679 13.156686 75.07451
14.298668 13.332685 67.3365
15.981668 12.196686 67.3615
26.428669 14.265686 62.326508
27.210669 16.134686 62.275505
7.7486677 50.739685 53.754505
7.789668 52.854687 54.615505
15.112668 58.307686 46.323505
14.345669 57.630684 43.904507
14.263668 29.603685 75.5695
16.217669 29.973686 0.5975113
9.604668 26.865686 8.131508
9.938668 27.194685 10.306511
14.929668 66.475685 44.701504
14.318668 64.93869 42.988506
19.957668 70.17669 32.990505
20.409668 1.4856873 32.753506
24.694668 39.397686 4.2345047
26.374668 40.279686 5.361511
37.048668 41.000687 73.6275
38.13767 42.701687 74.89551
10.689669 52.623684 17.495506
11.453669 51.302685 16.054504
15.241669 54.896687 5.68351
16.839668 54.344685 4.942505
17.370668 26.143686 18.438507
17.911669 23.982685 19.602509
10.342669 17.713686 26.03151
10.087668 19.414686 27.188507
1.2396679 21.040686 1.9985046
2.198668 23.093685 3.1605072
6.442668 27.596685 68.707504
6.118668 29.883686 67.95051
1.4516678 14.8916855 20.331505
1.2066727 12.286686 20.497505
62.479668 12.696686 29.922508
62.576668 10.223686 30.379509
40.81667 45.363686 59.482506
41.12867 43.958687 61.098507
36.305668 42.563686 71.29851
34.272667 42.033688 70.4905
56.063667 53.077686 74.85451
54.382668 54.651684 73.566505
47.673668 48.585686 5.815506
45.696667 48.880684 6.7795105
48.97867 21.455687 42.442505
47.571667 20.158686 42.555504
41.585667 22.378685 53.642506
40.60267 24.263685 53.746506
1.0776672 33.258686 26.868505
0.3096695 35.046688 28.336506
62.59667 35.878685 36.544506
63.847668 37.347687 38.005505
25.937668 7.241684 0.4065094
24.840668 9.189682 0.05050659
16.669668 9.406685 9.013512
14.829668 8.395683 9.213509
25.019669 3.3936844 72.263504
23.494669 4.477684 71.374504
28.25467 5.052681 58.550507
29.35867 7.281685 58.860508
53.22667 7.045685 1.2625046
51.988667 6.071686 75.41151
56.460667 6.5816803 64.9735
58.988667 6.489685 64.1275
25.161669 16.999685 41.124504
24.686668 18.160686 43.029507
20.526669 18.570686 53.686504
20.319668 16.397686 52.918507
30.811668 12.051686 41.423504
29.420668 14.097686 41.319504
37.54567 16.879686 30.992506
37.52567 18.860685 31.591507
23.403667 45.813686 65.3785
21.932669 44.323685 65.400505
16.170668 39.089687 75.6545
18.151669 40.805687 0.5755081
39.80467 2.8916855 32.588505
40.64867 1.1906815 31.486506
36.916668 66.73069 41.984505
38.49667 65.06869 42.070507
0.055671692 33.975685 5.174507
67.68267 34.604687 4.7345047
62.376667 29.268686 16.368507
63.80367 27.342686 15.425507
39.488667 30.188684 38.158504
40.56167 29.179686 39.157505
33.611668 25.297686 47.497505
34.80867 23.932686 48.207504
7.563668 20.187685 7.1655045
6.488668 21.696686 7.785507
-0.428332 15.948686 16.722511
-3.010332 15.556685 16.21051
23.322668 64.08269 10.287506
22.162668 65.95769 10.4015045
31.758669 68.32769 2.3095093
31.038668 67.10769 0.7345047
51.26267 8.884682 60.894505
51.27467 9.99868 62.480507
43.627666 9.62468 71.9735
42.55267 10.743683 73.45351
1.450668 30.232685 4.726509
3.209668 28.367685 4.1245117
7.484668 34.299686 69.92551
5.786668 35.430687 70.7935
58.54467 21.253685 51.864506
59.84567 20.006685 52.772507
53.38767 15.205686 61.397507
50.79767 14.599686 61.980507
21.824669 0.6216812 67.7225
19.616669 1.5436859 67.829506
25.043669 6.833687 57.679504
24.888668 9.122681 57.611507
57.757668 52.371685 2.8815079
56.675667 50.162685 3.2345047
48.840668 49.635685 11.58651
50.591667 49.261684 12.876511
10.839668 9.902679 43.083504
10.248669 11.413681 41.612507
15.699668 11.644684 31.372505
15.212668 10.72168 29.196507
2.6456676 35.297688 44.630505
1.4436722 36.973686 44.981506
63.368668 35.828686 54.929504
62.14967 37.364685 55.461506
22.137669 14.280685 57.860508
23.942669 15.400685 59.087505
16.450668 9.609686 66.89351
14.888668 9.633686 64.75651
58.480667 61.839684 40.817505
58.72167 63.795685 39.902504
65.526665 68.57669 30.927505
65.92367 70.46769 31.420506
44.765667 63.432686 11.658508
44.60167 65.31769 10.272507
50.549667 68.88269 2.2555084
51.68367 67.15069 1.2255096
25.676668 64.52769 53.727505
26.182669 62.650684 52.065506
34.319668 0.093681335 44.047504
34.70567 69.23369 42.178505
6.517668 21.755686 45.942505
7.402668 22.119686 48.151505
-0.20333211 22.593685 57.006508
-1.4103321 23.941687 57.789505
7.4336677 57.621685 36.564507
5.378668 58.322685 37.219505
-0.188332 53.736687 47.039505
0.65866786 55.271687 48.962505
45.133667 69.13269 70.31451
45.33767 0.47868347 69.3775
51.77567 3.2166824 59.624508
54.21267 2.7086868 60.391506
68.23567 57.570686 11.096512
68.94567 55.860687 12.148506
61.688667 51.929684 20.115509
59.46167 52.011684 19.841507
29.109669 12.905685 22.404503
28.332668 12.205686 20.40551
31.816668 14.003686 9.69751
32.474667 16.207685 10.395508
8.702668 48.769684 55.880505
10.065668 49.287685 53.641506
19.426668 56.169685 48.298508
18.48367 57.927685 48.619507
35.252666 52.728683 56.447506
35.23467 50.901684 55.507507
37.67667 52.189686 45.056507
37.932667 53.816685 43.302505
22.413668 69.17469 36.332504
22.777668 67.28769 37.133507
16.134668 61.937687 44.137505
14.025668 60.296684 43.654507
38.15767 7.2106857 46.038506
38.98367 7.1136856 48.424507
31.809668 7.5306854 57.668507
31.766668 5.40168 58.072506
44.34367 33.418686 57.482506
46.168667 32.586685 58.454506
55.85967 37.425686 52.667507
56.388668 35.548687 52.173508
39.910667 32.918686 75.96651
41.42967 32.152687 74.9585
48.77467 34.983685 64.7265
47.203667 35.155685 63.213505
46.67067 19.820686 38.878506
47.73467 19.662685 36.713505
57.430668 22.709686 31.473507
59.056667 23.794685 32.048508
2.6216679 22.021687 23.858505
3.7766678 20.325686 22.557503
13.355668 22.499685 17.00251
14.371668 23.715685 15.658508
38.888668 53.623684 56.895508
38.236668 51.925686 55.920506
44.02467 48.984684 45.395504
44.632668 46.702686 45.637505
51.459667 67.24769 54.499508
51.92667 69.376686 54.717506
62.14867 0.20968628 48.120506
63.620667 69.36869 48.905506
45.042667 15.380686 75.93751
44.258667 17.074686 76.1145
39.257668 10.0096855 7.912506
37.04667 9.996686 7.4635086
68.718666 27.630686 23.784508
69.23767 25.482685 24.369507
62.34567 18.875685 31.42051
60.786667 19.632687 33.129513
56.904667 51.450684 72.623505
56.120667 50.129684 71.13151
66.35667 51.635685 65.248505
66.31367 52.459686 67.0295
22.132668 38.640686 43.278507
20.883669 37.092686 41.868507
16.583668 35.752686 38.325504
16.761667 34.961685 36.458508
17.914667 17.144686 55.362507
18.742668 15.033686 54.735508
11.440668 7.793686 61.138508
9.463668 8.556685 62.599506
21.21667 53.642685 47.851505
19.69567 54.321686 46.175507
26.732668 54.396687 37.166508
26.120668 54.309685 35.190506
42.000668 65.61069 10.263512
42.24267 63.338684 11.365509
31.476667 63.787685 16.35151
30.224669 65.602684 17.549507
19.360668 64.501686 51.180508
18.568668 65.00869 49.177505
25.790668 70.12269 41.661507
25.796669 67.557686 41.149506
41.12167 24.801685 37.136505
40.99767 22.472687 36.679504
31.448668 19.747686 46.078506
31.533669 17.737686 45.458504
4.638668 58.143684 73.73151
5.530668 60.077686 72.374504
11.466668 65.31369 63.150505
12.958669 63.175686 63.088505
67.69767 67.69469 50.277508
68.89567 66.84369 51.652508
59.02567 67.27469 59.805508
57.42267 65.80369 61.288506
8.711668 38.509686 29.879509
11.084668 37.818687 29.787506
19.184668 34.778687 20.943504
18.746668 35.824688 19.365509
58.71167 3.3016815 61.555508
58.94867 2.3606873 59.477505
66.178665 9.2666855 54.188507
66.00066 11.34568 52.738506
45.784668 51.482685 9.592506
44.03767 52.555687 9.708511
35.74067 53.961685 19.644508
36.90567 52.773685 20.902504
35.779667 64.32769 27.492506
35.160667 62.086685 28.190506
26.311668 65.54069 38.187508
28.082668 66.88669 39.378506
32.12367 59.917686 15.580505
32.01267 58.326687 14.066505
36.03967 60.155685 2.2445068
35.10767 61.876686 2.4095078
10.937669 35.942688 31.490505
9.558668 37.943687 32.269505
1.9876679 34.958687 42.215508
0.60766786 33.566685 41.590508
50.66567 54.997684 16.57351
49.979668 55.492687 18.464508
41.80467 52.483685 26.230507
42.67267 52.242687 28.631508
69.17667 69.197685 36.865505
1.2776718 67.75969 37.739506
66.44567 68.79169 48.212505
66.094666 70.46969 49.423508
34.458668 4.5916824 43.270504
35.42767 6.9176865 43.457504
43.65067 9.836685 35.079506
45.465668 11.357681 35.666508
7.234668 11.0776825 42.047504
8.299668 9.450684 43.107506
-1.724332 9.791679 51.255505
-0.958332 8.590683 53.114506
49.14267 48.820686 67.3505
49.83967 50.822685 67.706505
54.953667 54.939686 59.589504
55.313667 56.025684 57.636505
59.91267 21.636686 69.3515
62.355667 22.814686 69.7525
1.3496704 25.325686 62.236507
1.2726746 26.871685 60.991505
51.12167 63.410686 55.695507
51.47767 61.370686 54.364506
42.652668 56.134686 61.444508
40.91267 57.237686 62.520508
21.134668 62.234684 11.746506
20.312668 61.044685 13.1285095
17.850668 58.932686 23.83751
16.696669 57.242687 25.014503
52.33667 66.85969 37.537506
49.95467 66.71569 38.411507
45.731667 66.67769 48.185505
43.813667 66.55069 48.843506
66.54467 40.747684 65.27151
66.02167 43.641685 65.3915
58.74667 37.649685 71.8355
57.910667 35.623688 72.54651
11.567668 19.468685 49.774506
11.241669 21.454685 50.965508
0.46066794 20.111687 57.702507
-1.289332 19.935686 57.016506
57.611668 5.4606857 4.7955093
56.00467 4.4436874 3.803505
64.48766 7.814682 71.0165
66.07367 7.74868 72.78651
65.316666 32.515686 57.783504
65.541664 31.659685 55.621506
68.928665 30.748686 43.598507
1.6696701 30.630686 43.842506
56.46967 60.570686 54.529507
55.021667 61.100685 52.814507
57.89467 62.817684 43.328506
58.63067 64.78368 42.255505
3.026672 6.866684 19.132507
1.9776688 8.667686 19.842506
63.46367 2.8706818 26.73951
61.95467 4.388687 27.050507
16.500668 2.1966858 48.068504
15.416668 2.6696854 50.120506
8.555668 67.25869 56.937508
8.872668 65.16269 56.676506
32.38767 55.233685 17.603508
32.883667 55.418686 19.373505
23.665668 55.935684 28.463509
23.878668 54.115685 29.898506
67.46267 41.974686 41.876507
65.774666 41.835686 43.086506
57.633667 38.555687 50.668507
58.631668 39.999687 51.859505
60.500668 41.485687 56.342506
59.265667 40.839687 58.299507
49.61067 38.543686 63.70051
51.02367 37.678688 65.525505
66.72767 64.517685 46.615505
64.58667 64.72369 47.433506
55.48567 63.333687 54.037506
55.26767 64.41169 55.876507
28.231668 48.699684 32.19251
29.487669 50.593685 31.861506
34.40667 52.893684 22.272507
34.53767 55.598686 21.964508
-1.303332 17.696686 75.3495
0.23666795 18.332685 76.166504
9.462668 20.664686 68.956505
7.717668 20.161686 67.3515
23.412668 6.149681 18.756508
21.361668 6.904686 17.86351
17.572668 9.292686 28.888504
15.956668 7.8636856 29.884506
52.029667 65.32568 75.637505
54.17967 66.407684 76.1295
57.437668 64.44269 63.77551
59.28867 65.60669 63.495506
25.905668 52.229687 68.457504
28.670668 52.780685 68.32551
35.474667 54.009686 59.053505
36.78867 52.535686 58.718506
30.721668 47.573685 34.849506
32.88067 46.524685 36.512505
25.131668 42.261684 44.890507
25.147669 40.875687 46.448505
17.590668 68.32568 68.469505
17.094667 68.32969 66.0865
26.005669 67.97369 57.836506
27.954668 67.739685 58.748505
19.006668 61.202686 51.825504
17.178667 61.631687 51.340508
8.9486685 57.977684 57.584507
7.2096677 58.073685 56.415504
62.01967 35.602688 59.229507
60.729668 35.476685 57.212505
57.119667 32.255688 68.68551
55.44867 32.456688 70.5695
11.360668 4.1396866 43.181507
10.549668 3.2336884 41.412506
15.148668 2.017685 30.911507
14.460669 3.7326813 29.405506
41.479668 14.767686 72.1845
41.10367 14.1746855 69.94951
51.32267 12.326686 64.1565
53.38767 12.063685 64.43851
14.120668 16.502686 66.65851
11.855668 16.003685 67.12051
8.572668 15.716685 0.6315079
6.093668 15.223685 1.4855118
38.81767 21.725685 69.74351
36.806667 21.693686 69.248505
44.78267 20.264687 59.415504
44.65167 22.686686 58.684505
54.238667 57.567684 18.122505
54.92267 58.402687 20.19751
46.271667 53.043686 27.427505
45.527668 54.472687 28.650505
-0.91933197 38.02569 40.846504
-0.17633216 35.942688 40.214504
3.5466678 40.312687 28.470507
4.424668 38.590687 27.908506
61.583668 48.020687 21.438507
63.24667 49.361687 20.171509
66.427666 50.834686 10.014511
68.51867 50.545685 9.39151
7.934668 4.9506836 23.57351
9.246668 4.0096817 24.73951
1.935668 2.840683 34.99751
3.301668 1.4366837 35.88751
56.59567 31.560686 29.242508
57.44267 29.979685 30.028503
62.751667 35.493687 20.83651
65.26466 35.794685 21.413506
26.359669 11.398685 58.848507
27.739668 9.153686 57.880505
36.272667 15.409686 49.850506
35.06767 17.311686 49.145508
9.716668 60.927685 75.082504
7.829668 61.817684 74.81251
16.490667 65.684685 66.46451
15.874668 63.430687 65.5455
20.97367 25.015686 57.804504
21.792667 26.180685 59.399506
17.619667 23.739685 70.85551
15.143668 23.491686 71.4325
56.521667 24.167686 68.57551
55.481667 26.272686 68.82851
49.85067 24.162685 1.8685074
49.717667 24.797686 4.2315063
52.383667 38.177685 68.6425
53.96167 39.695686 68.999504
63.675667 38.741688 60.610508
64.98067 39.39369 61.843506
63.035667 27.052687 18.07051
61.40567 25.993687 16.949509
53.223667 21.537685 25.94751
51.627666 22.211685 26.404503
53.806667 60.711685 55.528507
53.488667 62.373684 56.892506
46.256668 59.988686 66.17151
45.827667 62.116684 67.2245
50.62167 17.562685 62.214504
48.53067 16.526686 61.974506
39.37867 19.070686 69.90951
38.62167 18.848686 72.149506
52.473667 52.641685 49.031506
50.877666 51.383686 47.878506
56.49967 52.221684 37.852505
57.42867 50.754684 36.304504
2.5596678 61.893684 16.395508
4.222668 61.181686 14.19751
10.529669 66.63669 6.482506
10.850668 66.63869 4.339508
5.433668 7.8316803 58.979507
6.414668 8.142685 61.383507
0.68866795 4.260681 70.5575
2.265668 2.7786865 71.53251
30.712667 11.197685 62.661507
30.392668 9.126686 63.766506
20.042667 9.17968 69.3615
19.624668 7.44368 71.2245
7.810668 28.079685 46.456505
8.951668 29.453686 44.511505
16.646667 29.424685 38.435505
17.507668 30.286686 36.377506
60.902668 20.878685 50.480507
63.104668 20.139687 50.912506
68.19667 23.397686 40.705505
0.4286728 23.925686 41.556507
27.207668 15.495686 22.69851
24.926668 14.695685 21.824509
18.050669 10.706686 31.07351
17.799667 10.068686 32.918507
19.665668 12.919685 71.7945
20.353668 14.017686 73.721504
28.653667 14.082685 64.2365
30.568668 14.528686 65.0565
54.27367 42.226685 32.684513
56.03367 40.640686 31.890505
63.74767 45.036686 23.237503
64.42067 46.625687 22.270508
13.341668 64.851685 23.599503
11.275668 65.49269 24.917503
6.792668 65.697685 36.12251
7.403668 67.73369 36.64551
15.405668 45.371685 59.200504
16.529669 44.369686 61.083508
10.190668 41.113686 70.21351
8.710669 42.676685 70.124504
17.656668 16.106686 33.37251
19.360668 14.703686 32.307507
25.982668 22.858686 25.398506
25.999668 24.885685 24.215508
5.053668 27.415686 24.22651
3.277668 26.934687 23.037506
11.239668 28.610685 15.242508
12.697668 27.917685 14.15551
11.947668 22.006685 29.883507
11.505669 23.918686 28.070503
8.758668 28.951685 28.785507
7.5576677 27.449686 30.098503
45.73467 38.524685 42.087505
45.717667 40.253685 42.153507
51.902668 44.455685 32.650505
51.57367 46.766685 33.195507
37.73967 38.865685 39.284508
37.952667 40.384686 40.228504
30.894669 39.954685 49.934505
30.876669 41.830685 50.885506
39.062668 17.325686 12.23851
40.826668 17.257685 13.736511
49.807667 21.998686 4.851509
48.349667 21.996685 3.3045044
68.64267 34.584686 43.813507
68.21167 37.029686 43.529507
61.708668 30.181684 51.895508
62.938667 28.695684 52.978508
2.462668 53.231686 49.858505
4.581668 53.069687 50.255505
9.577668 55.057686 38.303505
12.0406685 54.232685 38.682507
51.042667 52.399685 13.180511
52.03867 54.149685 12.916512
59.555668 54.993687 7.025505
60.83767 55.510685 5.0805054
9.182668 23.848686 69.04751
7.451668 22.454685 68.97851
0.12266799 23.312685 76.36751
-1.043332 22.075686 0.7305069
18.285667 10.585686 70.85451
18.336668 10.938683 72.97851
10.338668 7.517685 5.1515045
11.829668 7.574684 6.372505
64.19067 52.571686 8.914505
62.738667 51.220684 8.031509
56.15667 47.319687 16.777512
56.92767 44.924686 17.61251
38.35267 58.004684 2.714508
38.35267 59.509686 1.1145096
47.208668 60.800686 69.18851
47.01867 58.737686 68.691505
27.177668 23.934687 4.3965073
28.383669 25.769686 5.16951
36.91467 25.046686 73.192505
37.61767 23.662685 71.3795
38.95567 25.735685 16.96251
37.65167 27.566685 16.98751
33.170666 22.578686 26.758507
33.147667 22.839685 28.83751
35.592667 14.465683 47.586506
35.31567 12.161682 47.975506
24.766668 7.7926865 54.831505
25.98367 5.745682 54.498505
56.563667 23.089685 65.926506
58.35767 22.951685 67.0845
64.79967 26.261686 55.745506
62.76267 26.476686 54.772507
32.496666 64.56969 1.5715103
30.665668 64.52169 0.8365097
22.350668 59.862686 8.824509
22.140669 59.529686 11.020508
27.213669 37.65769 24.241508
27.93167 36.749687 26.306503
40.035667 39.677685 20.066505
41.10367 40.161686 22.243507
2.4266734 46.378685 30.584507
3.8686671 45.814686 31.825506
65.732666 43.796684 40.589504
64.23167 45.283684 41.728504
51.298668 48.559685 49.153507
49.17867 48.842686 48.269505
41.07267 50.004684 57.923508
38.924667 49.620686 56.990505
13.922668 32.967686 73.6695
12.704668 34.262688 73.5855
2.2436678 33.51869 3.450508
2.623668 32.801685 5.22451
31.948668 19.018686 25.862503
34.285667 18.657686 25.108505
41.687668 23.847687 20.466507
43.458668 22.366686 19.785507
50.737667 16.950686 4.2225113
49.53967 14.989686 4.412506
39.91467 13.318686 11.045509
39.87167 10.981686 10.295509
7.881668 16.875685 3.2935104
6.171668 18.477686 3.5855103
11.265668 25.736687 73.36951
13.169668 25.589685 72.5015
14.713668 67.01369 24.80851
12.993669 67.80669 24.248505
20.457668 0.57468414 14.024506
19.329668 1.2736816 11.716507
37.56767 12.013686 68.32451
36.847668 10.650686 67.14351
43.187668 13.135686 56.216507
45.605667 13.2666855 56.101505
10.872668 60.642685 1.0215073
12.483668 61.930687 0.17450714
11.101668 51.151684 74.692505
8.647668 51.252686 73.90751
38.750668 33.276688 53.431507
40.34367 32.288685 51.981506
44.92167 30.287685 43.938507
45.409668 30.221685 41.597507
21.604668 55.745686 10.622505
19.363668 55.100685 10.237511
12.310668 52.754684 19.50351
12.542668 52.949684 21.409508
41.765667 59.241684 29.834507
42.868668 57.172684 29.207506
35.46967 52.196686 38.180508
37.077667 50.560684 39.287506
12.267669 42.780685 54.904507
14.214668 41.849686 55.386505
19.221668 46.905685 46.228504
20.875668 48.259686 46.414505
28.186668 21.721685 47.281506
28.801668 23.890686 46.771507
22.523668 21.990686 56.521507
22.382668 22.882687 58.637505
18.487669 48.492687 23.896507
16.609669 48.527687 24.624504
8.831668 45.674686 31.892511
10.306668 44.000687 32.458508
38.960667 54.561684 23.132507
40.20467 54.386684 25.081505
33.535667 48.973686 34.946507
32.974667 47.339684 33.40951
44.354668 16.847685 18.608505
46.272667 17.320686 19.932503
36.01167 20.426685 27.46251
36.569668 19.743687 29.246506
15.531669 12.378686 12.881508
17.877668 13.1416855 12.289505
24.105669 14.965686 2.5385056
26.292667 15.427686 2.4105072
50.952667 26.901686 26.909508
49.134666 26.235685 25.149506
40.981667 22.577686 34.02351
38.89967 23.662685 33.936512
48.423668 25.216686 60.332504
48.737667 23.574686 59.625507
53.46267 27.135685 50.570507
53.606667 26.180685 48.166508
62.134666 62.548687 25.287506
61.86667 60.630684 25.974503
51.335667 59.054684 33.514507
50.83667 60.897686 34.50751
4.822668 7.031685 75.0975
4.5046678 6.798683 73.06451
8.105668 13.0776825 63.964508
6.359668 12.353683 62.191505
1.1356679 39.610687 63.660507
-0.44933215 40.126686 62.319508
7.030668 43.638687 53.052505
9.071668 44.280685 52.901505
24.034668 60.733685 32.019505
25.09867 61.583687 30.041506
28.152668 58.103683 36.469505
28.849669 55.958687 36.952507
20.982668 49.131687 63.398506
21.581669 48.035686 65.7365
12.896668 41.996685 72.93851
10.143668 42.131687 72.91051
31.48367 13.755686 6.5545044
33.210667 13.463686 7.4445114
39.763668 20.750687 75.107506
41.78867 20.550686 76.0845
61.86567 21.281687 71.92551
60.263668 19.910686 72.054504
52.30867 14.577685 4.4985046
53.584667 13.186686 5.8925095
3.4046702 51.003685 71.13351
4.1526713 49.044685 71.04951
65.76867 42.02569 0.9505081
64.040665 41.457687 76.148506
63.131668 41.484688 39.377506
64.97967 42.874687 38.327507
0.46566772 44.509686 29.027506
1.7066727 42.890686 28.555506
41.56167 54.431686 43.999504
41.85767 53.096684 42.612507
52.85867 52.177685 37.554504
53.08067 54.413685 37.020504
42.56067 10.83268 32.78451
41.41567 10.130684 31.219505
46.925667 9.364685 20.360504
49.24167 8.87468 20.469505
56.807667 1.5136871 42.134506
55.24667 0.043685913 41.635506
48.19167 65.699684 49.160507
47.020668 66.141685 50.621506
42.79467 2.456688 14.702507
44.01867 1.0276871 14.611511
51.863667 3.9746857 5.04451
52.995667 5.1646805 3.8875046
55.375668 10.419685 22.887505
57.10767 8.859686 23.140503
63.95767 15.989686 15.148506
64.33466 16.971685 17.00151
56.24667 69.544685 39.418507
57.94167 0.16768646 39.725506
61.79667 7.5146866 29.951506
61.377666 8.424683 28.044506
25.480669 49.744686 67.00951
26.90767 49.684685 68.430504
21.697668 44.438686 2.0135117
21.575668 45.627686 3.3305054
33.000668 17.674686 65.7245
30.762669 17.530685 66.42251
22.955667 20.421686 75.60551
21.892668 17.858686 75.53251
66.21567 32.242687 19.61451
66.86567 34.697685 19.569504
1.5226746 35.420685 8.93351
3.8706737 36.003685 9.045509
33.920666 6.505684 25.079506
33.44367 8.146683 23.589508
40.674667 9.404686 14.512505
38.972668 9.936684 12.66851
24.911669 18.387686 59.923508
22.70267 18.151686 59.346504
15.622668 19.492685 68.329506
16.741669 21.039686 69.74151
63.14967 24.115686 15.596512
63.96367 22.881685 14.518509
1.0006714 25.387686 7.6095047
1.8796692 26.666685 6.079506
34.31167 60.504684 59.889507
35.833668 60.898685 61.498505
27.191668 57.016685 70.0875
27.940668 55.384686 71.06051
67.86567 61.507687 30.910505
68.12767 63.579685 32.226505
61.681667 57.424686 42.723507
63.40067 55.823685 43.206505
23.862669 5.961685 75.886505
24.84167 4.2336884 1.0505066
17.509668 0.6566849 7.4585114
15.559669 1.326683 7.9255066
29.583668 46.048687 52.479507
28.519669 46.102684 50.239506
35.87167 42.935688 41.396507
37.821667 43.519688 41.614506
51.69067 10.193686 39.787506
52.57567 8.8846855 38.344505
60.94867 13.658686 33.815506
60.745667 16.085686 32.871506
32.17967 21.798685 66.4895
33.474667 23.612686 66.51851
39.94367 22.006685 56.289505
38.09367 22.334686 55.298508
8.668668 9.342682 21.44851
7.6956677 10.996681 20.075508
11.6656685 9.650681 8.338509
12.239668 7.9526825 9.467506
37.154667 69.182686 4.754509
38.222668 67.74469 3.5195084
48.34567 67.809685 73.01851
49.375668 68.155685 74.691505
23.204668 60.269684 27.952507
25.409668 59.254684 28.306503
34.42867 61.524685 25.449509
36.520668 62.926685 25.147507
44.28267 43.003685 25.955505
44.52367 43.049686 28.335506
39.793667 37.661686 38.007507
38.473667 35.559685 36.962505
31.671669 42.15769 53.361507
32.93567 43.823685 52.920506
41.72067 45.723686 43.998505
40.550667 44.180687 42.222507
38.361668 28.670685 54.846504
39.90867 30.111685 54.014507
44.99067 32.999687 44.603504
46.97567 33.982685 45.436504
22.770668 7.969681 15.603508
22.592669 7.257683 13.646507
31.955667 10.889687 10.073509
34.11767 11.384682 8.58551
13.471668 52.827686 36.576508
15.254668 54.322685 37.071507
20.84867 57.186684 29.310507
21.362669 56.371685 27.247505
0.88066787 51.110687 46.006504
1.9086679 49.945686 43.828506
5.276668 53.285686 34.026505
6.8796678 52.611687 32.701508
50.92967 12.000687 4.41951
50.66967 10.342682 3.3855057
44.959667 8.751686 14.318504
43.13667 10.535683 14.674507
55.23267 56.857685 75.013504
56.798668 55.591686 75.2805
66.35267 61.785686 69.218506
67.36067 63.095684 70.6985
28.13667 32.966686 23.593506
25.914669 33.196686 22.464508
30.252668 33.523685 11.411507
31.361668 35.199688 12.140511
55.58067 23.680685 12.755508
53.619667 24.508686 11.926506
44.981667 21.692686 17.39151
43.939667 19.341686 17.521507
11.562669 27.480686 33.249508
10.030668 29.160685 33.073505
4.865668 29.348686 42.682507
5.9586678 30.172686 44.530506
2.0756679 22.574686 61.353508
3.3096678 23.412685 59.771507
9.266668 24.023685 49.403507
9.286668 26.094687 47.964504
41.74767 27.402685 36.183506
41.778667 29.424685 36.762505
47.61767 29.634686 26.420506
49.877666 30.768686 26.604506
60.99767 41.324688 18.554504
63.252666 40.870686 17.814507
65.31267 44.546684 7.1595078
66.89467 43.564686 5.6545105
21.072668 3.5496826 72.027504
21.594667 2.1566849 73.5585
11.373669 69.23669 4.2415085
10.098668 69.557686 2.9325104
68.20167 46.261684 44.310505
69.00367 47.908684 43.513504
1.5676727 51.766685 32.303505
3.6036677 52.066685 32.233505
20.276669 35.382687 0.6695099
20.843668 37.733685 0.4575119
27.477669 36.905685 66.7255
29.34167 35.292686 67.02051
38.479668 63.093685 63.000507
38.73467 60.947685 61.721504
45.69767 63.024685 51.031506
47.86667 63.140686 50.166508
63.460667 46.620686 1.4815063
62.127666 47.183685 0.16651154
68.52767 54.039684 71.3645
0.38867188 55.528687 70.402504
33.786667 9.674683 25.556503
32.024666 10.259682 27.127502
25.721668 5.7666855 35.850513
24.45267 3.803688 35.346508
10.227669 23.412685 9.702507
11.032668 22.720686 11.534508
1.197668 19.027685 20.055504
0.50266796 17.823685 18.597511
69.29267 21.810686 60.085506
67.47667 20.164686 59.643505
58.326668 18.227686 65.2505
58.576668 17.189686 67.39651
51.425667 30.654686 48.305508
50.99267 32.835686 47.852505
45.342667 30.235685 57.369507
42.904667 30.279686 57.881508
62.300667 26.587687 36.420506
61.870667 25.328686 37.930508
53.67067 20.571686 45.166504
52.084667 19.011686 44.140507
59.79667 31.392685 53.017506
57.99767 30.708685 52.058506
49.21367 30.113686 58.701508
47.85367 28.475685 57.433506
17.859669 18.226686 12.124512
15.628669 18.420685 10.96151
18.786669 18.716686 74.857506
16.693668 19.153687 74.84251
23.506668 39.747684 21.443504
25.126669 40.756687 22.215508
30.845669 49.371685 15.58551
32.44367 47.963684 15.095505
66.49267 30.041685 58.626507
68.470665 28.739685 58.919506
61.79467 27.641685 70.860504
60.238667 26.435686 70.4735
21.691668 63.211685 31.235504
23.524668 63.734684 29.866508
29.40067 66.463684 19.889503
28.245668 67.84069 18.076508
18.142668 27.097687 74.41051
19.798668 25.402685 74.07551
24.508669 28.086685 63.88651
25.685669 30.367685 63.213505
36.022667 47.689686 56.642506
34.014668 46.361687 56.895508
31.630669 48.047684 68.5715
29.816668 49.542686 68.46451
22.559668 57.247684 8.059509
23.028667 55.531685 6.721512
27.774668 58.812687 73.81251
26.741669 60.380684 73.6395
48.306667 44.103683 46.835506
49.03067 44.141685 48.938507
38.26667 41.78969 54.781506
38.28167 43.590687 56.706505
8.621668 36.906685 70.42151
8.6586685 38.778687 70.89651
4.389668 38.316685 7.5295105
2.405668 39.375687 7.4255066
59.097668 12.023682 10.469505
60.29667 11.296684 12.21151
54.73467 8.0776825 21.255508
53.458668 9.579681 21.052505
30.257668 43.013687 33.724506
28.227669 43.367687 32.279507
20.561668 42.181686 39.807507
20.182669 43.913685 40.950504
25.339668 57.365685 29.816505
23.34867 58.331684 30.943506
17.072668 53.660686 38.874504
16.098667 52.058685 39.248505
25.500668 47.437687 47.760506
25.005669 45.995686 46.446507
33.67967 48.918686 38.072506
33.280666 51.335686 37.280506
0.3536682 39.485687 24.830505
69.09767 37.702686 26.358505
66.58767 38.676685 39.163506
67.09667 41.087685 39.515507
6.161674 41.77569 68.8795
6.604667 40.858685 71.1845
66.48867 38.188686 1.7685089
64.64767 39.101685 1.1825104
19.290668 63.138687 9.68251
21.18867 63.274685 8.6775055
27.896667 0.67868805 1.3005066
26.867668 2.576683 1.8805084
22.941668 68.724686 69.04951
24.305668 0.1306839 69.70151
31.248669 2.0596848 62.166508
30.630669 3.626686 60.464504
5.1596675 24.151686 7.2335052
6.1576686 24.051685 9.354507
68.66667 20.174686 18.32151
66.45867 19.957685 18.00251
40.23967 16.078686 31.130508
40.94867 13.967686 31.438507
51.70067 19.419685 27.589508
50.307667 18.330685 25.896507
18.024668 17.551685 35.676506
17.860668 19.872686 35.708508
7.245668 19.932686 43.886505
5.061668 19.172686 43.426506
46.05367 2.3976822 72.7645
44.446667 4.1346817 73.7955
37.01867 7.0856857 6.0075073
37.40667 5.1606827 7.14151
30.742668 54.046684 15.0905075
32.049667 55.584686 14.782509
38.72767 58.384686 5.383507
40.48367 57.257687 6.077507
42.187668 2.0216827 47.990505
40.827667 0.18268585 47.271507
48.65867 2.4956818 37.455505
49.36467 0.40168762 37.720505
55.55367 45.274685 55.097507
56.35067 43.551685 54.310505
46.19967 38.399685 60.662506
47.820667 37.558685 61.927505
30.720669 15.885686 23.792503
29.77567 17.821686 24.717506
23.453669 16.657686 35.363506
23.112669 18.795685 35.17951
33.06067 19.547686 8.708511
35.536667 19.278687 8.245506
45.85967 23.366686 3.0015106
46.56067 22.368687 1.2195053
51.173668 33.570686 65.9325
49.49167 32.570686 65.3655
44.015667 30.955685 74.85551
43.131668 30.126686 0.6495056
63.66367 19.449686 17.075508
63.53067 19.142685 18.721512
54.097668 16.835686 24.39151
52.33667 16.520685 26.415504
7.693668 42.827686 30.956507
8.759668 41.034687 31.483505
3.705668 38.448685 43.978504
5.165668 36.529686 44.418507
9.138668 47.174686 75.704506
8.9416685 49.248684 75.99351
0.5626679 43.546684 6.1545105
-0.8223321 45.203686 6.7715073
49.99867 3.9546814 3.1525116
49.62467 3.642685 1.091507
39.65767 1.5206833 7.226509
38.47567 2.3726883 5.4445114
25.953669 56.366684 12.957512
27.22367 58.050686 11.788506
33.354668 60.331684 0.9375076
34.63567 58.323685 0.70851135
24.513668 18.620686 21.202507
24.337667 16.723686 19.951508
34.001667 21.110685 11.348511
35.47067 20.176685 11.984505
4.764668 37.093685 47.209507
5.622668 37.688686 49.176506
0.7616679 31.028685 58.620506
1.845668 29.492685 58.614506
57.46467 69.88269 4.917511
59.66367 69.29269 5.303505
64.844666 2.444687 70.305504
66.69567 1.6256866 70.34251
33.794666 34.313686 52.236507
32.354668 35.388687 50.752506
41.562668 39.314686 43.431507
43.99767 38.718685 44.205505
32.029667 37.856686 68.39751
31.816668 36.065685 67.04751
34.12367 37.126686 54.515507
35.772667 35.391685 54.928505
3.402668 15.846685 39.834507
4.870668 14.912685 38.519505
11.440668 16.037685 28.721506
11.827668 18.528687 28.756506
30.850668 23.951685 26.72551
28.751669 24.611687 26.692505
21.714668 20.946686 35.305508
20.505669 19.637686 34.444508
40.770668 48.055687 59.930508
38.23367 48.560684 60.218506
31.193668 51.689686 68.9875
31.04967 53.120686 70.7925
64.359665 37.000687 58.748505
66.38267 37.792686 59.518505
4.343673 41.960686 48.955505
5.734672 40.203686 48.507507
3.4416728 59.184685 33.651505
1.3156738 58.499687 34.226505
65.788666 58.473686 43.668507
65.17467 56.954685 45.002506
17.724669 68.68969 9.481506
18.94567 70.101685 9.874512
30.360668 3.5616837 5.032509
32.107666 2.5796814 5.8565063
6.475668 61.650684 56.009506
8.268668 60.929684 56.994507
18.08467 66.72169 51.167507
17.082668 68.59769 50.335506
12.538669 37.581688 54.027508
13.592669 35.582687 52.713505
18.644669 44.817684 43.688507
17.793669 43.765686 41.967506
11.591668 43.219685 15.429504
13.260669 44.718685 16.117508
20.409668 46.584686 6.0475082
22.481668 45.552685 6.6665115
26.50467 31.233685 46.635506
24.980669 30.283686 48.496506
18.903667 29.351685 57.240505
17.533669 28.285685 55.960506
47.515667 20.072685 18.756508
48.99967 19.401686 19.732506
58.23967 22.448687 13.524506
60.55867 22.187685 13.556511
64.277664 20.740686 72.14651
65.45966 18.589685 71.805504
3.158668 19.446686 62.976505
4.8866725 18.415686 63.028507
22.844667 24.478685 4.2455063
20.883669 23.902685 4.0195084
