63.05617836981038 3.0958592506791947 47.88144704408426
62.393450254398495 1.623507718754864 50.71942581373658
62.22638479997262 3.5010361170239293 50.70999363582722
64.4190516659175 5.129538385858987 51.191141303863816
66.29100534821002 1.1207679620838367 46.89506632638957
64.57293225265575 1.0103070362729965 49.07329017341283
60.278787396306655 1.9352270425511024 45.50529153621683
62.62375959619224 2.0476870366355633 45.30343325837268
24.175516309567296 11.757849346566488 54.5088462288319
26.26941969634666 12.28781884240471 55.99575766413686
27.1503179421043 10.993806027293841 57.681625546991036
27.626936160592415 8.753419152885737 56.011924900721006
29.514554687151755 9.86984231200571 56.10981041749215
31.378332278813673 9.508813223074299 54.06048213247761
31.38414550491638 7.765983589552022 52.423392741175526
44.16070486065621 0.043260132201257205 39.643599092565154
40.41829224392435 1.1779292020865704 65.50973202769866
54.412849536230006 18.70730287875917 33.45028393038483
53.19357333876472 17.779815566346937 34.622918284271584
55.99351458173617 5.438158901771078 29.112992261562304
57.9112767967283 5.151820328777186 29.376695603499527
59.4572104737155 5.81011486025748 27.35558690999618
59.21664157738949 6.9246813976236865 25.195998384748002
45.98263299151794 16.915320676861224 39.26820898194253
61.12635499873684 6.096664641995515 50.06800760415452
38.02856134886081 3.673235254191535 40.70409179696368
39.26094990016063 1.585200587196277 40.12581253544708
56.008868419536256 5.107009580692351 49.18210635300935
57.37083603615813 5.057811368269238 47.50581674251285
59.86137545532053 3.678277351210882 47.669784091884914
60.54585089684015 2.064015785891303 48.792929148335844
7.91725866590143 5.839558481763807 66.801506838291
9.825258371619187 6.134859844699696 65.2742093972504
11.810459179913448 7.305217554253835 68.30686827508653
10.194961029537657 6.165368753837811 68.57364182729701
7.645083349667216 6.331792937022906 69.65893940883763
6.408858586669358 8.248768092679581 70.76379300189622
50.17485919435608 17.712536506162927 35.87739903308271
59.89353686916433 4.150258158663031 25.293300787184503
57.79907067843639 4.343311084573529 24.875985204065163
65.34746315787397 0.7571211268344432 30.95928222989405
31.602100577242183 13.152994724492066 53.42269447076172
29.686735779555647 12.884761628562797 54.40057059389426
27.80112707567394 11.43301660055493 54.0154420373535
27.429212575201007 10.304780822391583 51.528217769671315
35.071441976486526 11.566517091736818 52.24641304652478
33.004722256293576 10.951628798243389 52.59283634381945
31.25270131167481 10.438202635372757 50.74441901519567
31.453766213135793 10.00194800207439 48.36299385885776
25.2636176115868 5.181735291280877 49.11506091529096
23.738754765747117 6.714228687749793 50.28464773220794
24.51362297041874 8.374859014268823 52.58795414217619
26.68462649492266 8.436992407298426 53.53638234925924
27.099770004364913 9.497443095845885 48.92312938853003
29.45001867197306 8.479799573292944 50.39442378632764
30.04721077329488 6.403176791332167 50.49455811381302
4.751450788293909 2.8375206672860895 71.73402517561239
6.4740315622846305 3.924581799328911 71.176427580766
7.137503599608887 3.6221612721962866 68.14311576927656
5.824604695271433 1.8932250669010355 66.80653068058437
11.822983559027849 4.822964801814423 66.83562260996985
10.427856093991547 3.316464742682076 66.91911152455896
9.440039441875419 2.3589671208160348 69.04794499006596
10.155255021398716 2.6737675151602427 71.46033925780503
1.8709756187814321 2.3987778213749333 71.33548386735276
2.7360526584183593 1.1751281608608142 69.58145483049671
57.42953284362878 45.20746262237805 84.70558552379678
59.14315198201794 44.39195131117236 83.6771446863962
61.07814038895216 42.73164130235104 84.02308742432007
59.60510239513534 39.1289907419788 80.70619996645189
60.302332136755176 40.48201299459167 83.01406096670927
61.68899559447339 38.812011792475666 84.54898523515018
61.62669612405421 36.11761887245403 84.43050770775028
61.364732226462024 26.7188252074311 84.55750350504785
59.81198142252061 28.014476776626154 83.9278965273439
60.312832280258455 29.364897295751206 81.75580077216638
61.65947726550707 29.022523368650536 79.9355833711144
61.68560141096049 29.89833854033088 84.81679962406702
62.163835088360045 30.95189729418811 82.82897919575004
61.38874631893833 33.4357787589015 81.98245312409426
64.29285655128659 26.977778240185476 84.33183009990785
64.24384495806267 29.357906597187018 84.40386118617255
46.11954812631274 54.7662554900023 70.6798836002347
76.59272252526821 13.11393754467061 16.627704643909823
78.75451549462879 13.160507300500305 15.86725809446673
80.03969594887224 11.657918817964248 13.972542221907352
79.28247870057452 9.683375067810301 12.880986036308723
39.27677174844237 31.10457616724422 72.7308086234089
54.2164402511626 54.20107272919587 67.36550354266619
52.528689058657775 54.33741247702792 66.12634922447153
50.65881130959231 56.12827434361471 66.26462995483149
50.67503788788834 58.40292996815118 66.90960582506023
42.42080188957745 52.551513680835534 71.59976845732967
37.63930428773823 32.21678183150202 70.8752343122676
38.57500171335652 33.78788233328587 71.79627627506875
38.185102780605085 36.35417921864796 72.33326338117072
67.43534075385195 57.02098093761465 75.56184288592442
69.59155739872259 56.58666948996988 75.06990911504268
70.04762502234459 56.593452141286406 70.81720118932185
64.44394357208634 30.246531126288392 80.63766128138221
63.280483827697374 32.30373882589215 79.96620402234204
62.73741826443804 33.08235868747098 77.77535990890809
51.780732032448874 57.11852796843277 69.71410821508552
50.20330479042352 58.7459740215808 69.77653597394468
48.19467020878557 58.44915959689581 71.49251777210523
47.72615907617254 56.00479136424105 72.59204353760758
64.92235561921683 58.225331222492976 71.4999352801392
65.95240060238164 59.26693791170649 73.29342062388912
65.41674813771037 58.88192679264075 75.2764399468674
62.740104462993095 58.325554370059535 76.45440847377348
66.75349092795425 41.203501387088906 80.85913210769432
64.620513788522 39.23548668706009 81.26806862404267
64.11725747883754 39.05114583417459 83.79353394316175
57.84132231801163 29.784788688114762 81.39621418382956
59.20139783885856 29.910449947047603 78.97058535942801
60.24937014374974 32.21063490876628 78.32919461982387
59.9719968474728 34.236344392523215 79.59122793484525
43.66578836133656 34.270709191228256 71.59524553303265
41.64379923687251 34.490474797585904 72.05409430713998
40.59835703066716 33.03264327002758 73.84256714578919
42.17264497909492 31.604960827370313 75.26683846598993
60.481343524227974 36.78754267507418 78.85524126127504
61.80995316099039 37.77946422427418 79.9092777475567
63.8801081694397 36.42871075746408 80.90395131495023
64.99991009475926 34.49864117885981 79.36694057238938
44.976047452558134 34.50431959542717 74.32415794861494
43.98584635415907 33.46719454922249 76.2395943383634
44.32599229164103 34.54913000911044 78.7407083825557
46.378441953497195 35.85491430187596 79.33432399745925
63.54599348395201 44.392569806227264 83.14342817251037
65.03193312210875 43.70240641668248 81.64028160126962
63.31628470119413 41.54730540558696 81.8590300008501
61.91670418322805 40.73861252396819 80.55589651758612
61.93657009860889 6.7682649638007755 26.42337244636308
63.80528719062965 6.025435903632484 27.491069432876706
66.02463670674459 43.15088544376342 84.11605166551689
60.00037976493355 3.249027970749303 11.773426771428904
44.15891859678503 55.11653462872206 75.39348736262416
42.9671276772884 54.8822916415547 72.93330839686489
49.704288663392965 53.613602001042544 63.6867628176923
48.385458808597825 51.069788212563104 68.69655333572108
48.373280445179105 53.21131311690185 67.91032439821122
50.23932782858596 54.785266788979996 69.23121663368606
52.45482400812156 54.36634717915523 69.2997358043573
42.371879398399805 39.40094104865066 77.74032077623103
44.433507380717145 38.68179926315036 76.60354162828382
46.712254658341756 38.25414157710995 77.78661106189215
43.54559745195326 36.913170788490554 73.38255083178888
43.387128321765076 36.50505100714267 75.52157208059728
41.70454859895259 35.19881766062202 76.89627760141371
65.9861003541349 30.971941380817846 82.85931655146052
64.37616267826793 32.42557381872086 82.42841978220139
63.459861952124136 34.82352361537011 82.9134720646999
64.3175812507152 36.500596236528416 84.20286969500542
39.81070630962733 52.11351948195076 75.13596998017613
40.83111833840154 53.8902621189168 74.34989970570906
81.61800604604467 2.1570684785494483 34.480910139408024
80.23603094128582 9.31676293759894 16.747366686026112
81.25102266108959 9.193957553570298 14.941999300982376
80.57378529552444 7.15422149501383 13.13065164771813
79.92487351291493 4.837220725397653 13.939312191098226
81.25891515161193 7.446700047383185 34.031335096506936
79.48966078967747 5.571583594885041 34.575404298033334
80.11432904958531 3.535226078881109 32.751449943589606
81.60008406187558 3.7371593241815777 30.68473629520168
69.59220388926376 56.13977770172377 77.83677888835693
68.39133648745943 58.64938658489611 77.47792932016436
83.6902918650729 7.1040654064284015 13.290457539870138
83.47351723107009 9.679748582826875 12.074200045646615
68.54189755141148 62.7404526306899 74.14482789512041
66.18196326229926 62.5191751541869 74.44054284905032
78.65457416182511 10.63815454671445 9.925372118388639
69.38254696895017 58.4919687882988 69.02623677826195
67.58191148800732 58.61218370763477 70.55336352220712
67.86986815181208 61.05063852280708 71.91789103290476
68.7902340365634 63.10161111665531 71.23925511876831
61.38711081520661 1.9718760425576936 25.490599099031744
66.49732053393045 5.6257622618916585 28.326230865230333
66.94227892653919 3.3623186524280193 27.79310430673916
66.14185139701831 0.972382532260951 29.0421068534881
63.10426711603998 4.792565743069455 21.609316901367773
62.41022932223882 5.5775443007823995 23.682995490070784
63.33240214170914 3.907501131866712 25.28429066532634
65.43651072224685 2.639801557455808 25.219082970659848
81.16451569576074 0.03602678875033927 32.646759732736214
80.54560335981651 1.20073071291905 30.50399107966729
42.25686348122133 53.134150444160866 68.27718157028382
44.00322176715741 53.74327043579008 67.13297027068515
45.898480110176415 54.62793474181129 68.18944715146885
45.779653694384294 58.79306371971144 70.6531008384904
44.57218282113042 57.957999009360705 69.18499164365048
45.43038331759081 56.98989050156474 67.05802702153741
47.865496531952026 57.21546619626571 66.02907079038732
36.832937285797335 53.149519333893295 71.18473824486675
38.5482194409246 52.85887943708405 69.97598957034225
40.55406073861912 53.374107669845586 70.32115058667523
47.88920880840356 12.874910030387568 13.107297791880661
37.984574494134066 56.029306466796086 64.80084757157852
37.44211309858788 53.81772094381949 66.19989757629037
39.637658370710824 55.05492126147415 67.14958387050892
41.92905819667136 55.161563444239654 66.36873569833205
43.49335610011459 56.49492973801862 71.07733555892544
44.603784974009585 53.241198101727775 62.87848501850014
45.288225235654764 54.13694112531618 65.06647464533316
47.8571424248559 54.355567914955 65.42707876284277
26.192002177171336 42.58126885664536 60.189994601395846
23.87296006002271 44.32880326228137 58.45147471443518
24.11792254233002 48.562742537574216 57.46287905553906
23.1951277342839 47.11821508176438 58.34966368499462
40.283501898256546 56.129203474534485 73.83595493436705
52.68796770010213 3.713609677817724 10.30897240194994
21.848768548975716 49.94598858558527 59.12411220911429
37.461076163853896 57.92686272791828 71.91339207150546
38.62330731215628 56.0435278963486 71.66951364064221
40.96995717278455 55.98886075806317 70.72227248364392
42.02587492373735 57.23023358890216 68.77012490860098
84.62690678187322 19.179848498211644 32.70171917189733
79.81470388334358 56.12666999315574 83.12984163639108
80.73643715392946 54.04131482365117 83.59373472261007
82.72837704382854 51.0467044429379 84.76429399242897
80.16176054220983 22.316381330985898 79.19077499575585
82.11784725585677 22.09160728302618 79.55566797369497
83.30211841271746 19.913422934582826 80.02375034250632
83.35913343809386 18.13793587014131 78.94891822438079
82.75195588058762 22.46036014570672 55.71239938373334
83.19581540201911 22.541589185998262 58.0825423431012
84.38285164315003 14.73836004860181 56.224291317735414
82.93756546489678 13.442092597140238 58.3666495313343
83.74601342444994 12.602519331006297 60.29037032103373
82.95390564002315 17.070394735476448 61.79952166309227
84.44095442632624 17.77500513059612 60.25479068613359
83.89960242340739 16.94087873299099 57.94196020744441
81.71615330620716 50.852683702026056 69.44749172536837
81.095376738425 50.848926680602716 67.30187964624308
81.05855768555796 49.0985565447473 65.70507548834641
82.28446078052484 55.399097675734644 71.00732949331692
80.88947068591271 52.93168290368351 71.56540592076131
79.37631431999985 52.32610495779155 69.28287401698563
79.10441351289609 53.753829289577226 67.20593538067358
83.1307164053111 19.463653452190247 53.978388119845235
77.8420646865745 32.51641720819292 79.5950071015786
76.70320164535313 52.11632648951997 65.71112504019526
77.85651270328358 51.49063620119635 63.325251816643416
84.08636031216187 55.079858498476554 84.04808606747788
81.21325942836873 52.84024362635322 65.44952868205071
79.47758262147953 49.93214139527104 71.20543882253887
79.77437797096609 48.74064682130916 69.33329115966285
78.47125771162322 49.65521053059463 67.12843904107596
81.44181466332712 21.467920230741118 82.00780017872835
82.57184524107564 19.906391930427922 82.82063204242444
84.77719903345071 15.27889678839913 61.74368417085213
82.96003171401668 14.789728835484084 53.8397871593421
74.7629588827144 48.99027861082999 60.15601591735377
74.56719857911062 50.376954562545535 58.83687603200602
73.23329711378743 50.08938146568378 56.88572801755922
74.57333570505095 50.10253948146283 62.44050179360105
76.79386478389232 11.00544267027513 81.0489665185509
78.87524007302427 10.347653831982555 81.36091754899056
80.56367090096663 9.507364900683399 79.0945109661024
79.40937616482293 8.198088572237339 77.57369357578074
82.9091687046278 3.0142732247885164 59.328402705015534
76.13640958754225 28.322043468396405 67.51246484743544
76.18949865933345 26.74441912187545 65.1869537629475
75.44429405174253 24.773048809818224 66.65014783699814
78.39730116683404 24.371933393522365 70.14327009051998
77.37117980134173 25.410671246252708 68.1455982836436
78.5670114258297 27.597748683443424 66.96982746393155
73.59917998361142 47.62796308822932 63.34290194903606
73.23665650384835 46.93038091908251 61.12287612234235
81.4116975520419 7.682464841743214 72.52143322948291
81.29172786751813 6.519577730467138 74.5760482055593
80.5153719050979 9.50047014799851 75.40148215127259
78.61855552521696 12.264120602466813 83.54950914192945
72.59424181843146 52.255356373898415 60.01718714386303
81.25888210446136 13.291815273317642 54.97839677225845
81.21437837483727 11.437612030784582 55.96366626185214
83.00254916766615 9.450898413740685 55.50101980826453
80.48675639650058 4.49117408365547 59.57482875760842
82.11130238946448 5.463107853360659 58.33346496423076
82.24786554609831 8.213518579284749 58.26875527158085
80.49230257271631 9.599505287737387 58.63321432382612
76.37056025046331 48.603785500872235 53.740233391456464
82.76952393127553 8.610746628233866 40.515809918113334
84.37253087126471 9.790811781969957 38.93916735514699
81.57584110456867 5.9810080112050406 77.49241936941469
81.20772550766414 2.756649749329116 82.8311611040092
81.6505673361155 5.160473942284734 83.46811019523521
82.31830286080788 3.3141699903462682 78.31300922024971
81.70517564059755 4.383571773862386 79.95693869536066
82.82273754352305 6.430258543672518 81.05827951055478
83.93490523070517 11.84278435462467 84.11979304574028
82.95148030399157 10.477238947049182 82.43371738178185
82.01956826467983 8.400330944735325 83.03326654282844
78.66248200612625 5.858406079231819 79.61541737664213
77.93840009158535 6.026212387623758 81.43016015901374
77.37160728296291 0.06713715533677236 83.18522968021914
77.3961352332054 0.5259925001181162 80.89277568203886
80.47892629043538 5.0774394459825665 77.53774672393624
80.19777781653701 0.9804277961968455 84.83756092352469
80.55214965915155 2.6507746166829027 83.12302469868803
79.64907973961542 4.55027586942259 82.59824978912556
78.7932914088851 2.845127721087795 76.0161653348501
78.23892075346158 3.0517982231351786 77.94259578521076
79.42911881853955 2.6305311864653422 80.18227691054992
81.29307554606345 1.0546782718090828 80.56849202023965
84.82251165693863 2.536710862181251 31.006507036136536
70.53986336261907 56.925006155006606 72.62609984791693
73.56447396213886 60.01439096942984 76.56397393005041
72.70309496404235 58.26897620242099 75.01516464739979
71.1034714026699 59.57006810406187 73.35653005681267
71.23847113739843 62.03092122719429 72.75303454288277
74.44231434213026 53.09464263276547 70.90568301386133
73.21072551759245 55.101300336707276 71.2182060298368
72.81704375780124 56.09185294207391 73.58423226391753
71.69209801482403 54.53827705477607 75.11629761106414
82.51386108109588 4.010586717505595 39.760454330625116
83.25192516077574 5.205444950689668 37.92352640675928
82.64645584436344 4.345220709665336 35.128011126703974
84.26825484454992 1.037542729101074 35.76677869189365
84.10732933861811 7.508302386256689 36.77552117884742
71.63474474721912 60.491975791927246 69.75780064790533
72.2359638625857 58.59169072722407 70.96385634099599
74.26479703278737 57.76874607552574 71.1937307308104
72.03339183107079 56.599904045363594 77.49949720390025
2.76500363988569 24.851624662062676 10.683187048135267
2.460615634943647 23.644165928373756 12.714116555571534
4.774608430077529 23.1413430757584 14.270440021757045
6.8545016466817374 23.18128167402652 13.535132592666349
4.402224997917642 29.051480583382503 14.87919205573113
4.145221912104942 26.66775788893344 14.971178616711013
2.1343201257215854 25.34639689473217 14.939857134093076
0.7350151744301908 23.66985188271973 17.074237560508152
0.38842644375168167 24.693989505216 19.23519711074687
36.02555249329438 30.751575615899466 22.179246640429508
35.38212822752437 28.733009197623478 22.946423057582372
33.55098885152355 30.82077750185294 22.966566961800655
31.908608788611076 31.340476237544255 22.245613450529245
20.959287563847525 11.215642665348625 6.637552945963109
21.589664020123596 8.966618493472284 7.097920704408786
21.154137282420546 8.003664286926533 5.130932194694641
19.163592269017013 7.003349400027021 4.352393613966736
6.186507935252524 53.16065318947408 47.65062892192372
5.71417382136688 55.127895045310154 48.29345590920665
3.722615291596868 56.649436986252276 46.89729126896584
1.716872640911354 55.86113616264953 45.879662959155226
20.429077628702437 9.298596374814412 0.22393576990572464
20.34350682217225 10.140747094957627 2.8444625442068596
19.971291104680596 12.406399605761738 3.6767896350526525
27.216489870707058 30.506520662859387 0.6340180233486796
7.84108147344793 25.95853213644967 7.180875445684987
8.111054442315456 24.741522336529094 8.974874778059975
9.518168351303242 25.558386101492264 11.209116420716766
11.056953191115145 27.160982481175672 11.522966487655614
27.249575353513382 7.762170123473714 6.348216870803433
25.55969908686996 6.713653987207114 5.1474897877714865
23.182943308279004 6.233428495501303 6.071822458434953
28.676696489588753 9.995352215639695 4.685785300191128
27.174757420771943 10.390542956846408 3.1659697084214766
26.07993773145323 8.673165583553846 1.92207574524259
26.47213059599108 6.097091495008379 2.756742636819419
4.7956024616673885 30.980602333077393 12.04795344311658
3.4334024296920687 29.656153365617218 12.166712134963484
4.21927537166406 27.114359683470102 12.172090135359591
6.353388321814973 26.337745307503777 11.409733088922675
2.668828372772006 57.5535796902819 44.008318635915735
4.796107614962107 57.79989346728888 44.94239428519135
21.450446392478945 29.42962354132782 0.6083194431005009
25.5346531920032 33.07799577807873 0.3480743557143143
2.5517108933456853 61.5997950218728 42.22445619325868
1.662411761976872 60.413544023474074 44.005794812080026
3.564394324644088 60.20817954184525 45.987024438204784
5.249450803601072 61.679400407715704 46.49472097337829
15.180213359621808 9.603653638919923 1.2489648753480607
13.706274533096368 7.108526868132348 0.6765966617458242
17.636086569749875 13.95549294105589 3.5358739250278264
17.067264108112465 12.348716356953547 2.6291369402380793
15.213882149269931 10.708286214682131 3.7252728280009757
13.063272600682868 11.183002391190128 4.7252305135765225
45.52475141795858 15.52122526805569 14.743183386019949
21.045985384414863 4.649032512177211 3.8801602813042293
21.065587726982955 6.808872753089874 2.1364888597130016
22.677019604227567 7.847638551081682 1.27837912953502
27.091471353088384 11.55627410982844 6.852132946686861
25.330035929905875 9.890252794204944 7.398255365198638
24.147866292886032 9.111122319470812 5.381405165014232
23.57935827350603 10.257155047929308 3.0748979869066124
44.806913010468136 16.817442356554434 11.637391914763057
42.65165920304402 17.266612586393567 12.068366873332264
41.86730429752425 18.252467217410306 14.302910022738589
42.56143499322555 19.97415949518361 15.132123703276559
11.751664285942738 6.464638981175328 2.3954949080114742
13.549661967797904 5.709520367977256 3.2574595195989873
15.378139549108594 6.864559722256823 4.199181212028212
15.557416355613967 9.003562648491688 5.746432346697706
17.834564679517484 3.6468359432331314 2.679711336696424
17.224624450671595 5.651016338308977 3.008442135277699
17.368130344957326 7.929084131984722 1.7461194360271004
38.77515110962031 23.605220235582884 13.13939234679128
38.580359479243945 21.888477770976095 14.157636695202626
39.45411065179005 19.542579461266833 13.89481516714613
40.22796137025542 18.260984929239918 11.496438562634454
44.53427261168901 22.20216504252468 14.497709371797416
41.96950905622255 22.765308691740046 14.057301226776767
40.721888156561434 24.923006389428103 14.656551091046852
41.3740237378381 27.034910523341807 13.387880204455369
0.6502340064396349 57.89633441302941 48.020321626401184
1.4483964188682374 59.981988669764384 48.32690114600564
3.8390245406452106 60.62077051578769 48.86606819366845
5.556275314081536 59.86147285870298 49.880028301362685
8.326692255254661 54.80042180942788 46.131577818879364
7.267347329226121 56.70466572321918 46.7790246936339
7.512734763222281 58.40924401667939 48.6417815231249
4.648392078508997 63.55283261797732 49.96238006078111
6.214399691729652 64.59074492250839 48.818033550505305
7.494566887242947 20.088242048778397 16.91102891604298
7.542903093595024 20.51116127903996 14.75876702082332
9.514192001709356 22.651197501676073 13.858674632427077
10.644421700443772 23.840102936673034 15.530590470533902
7.166278503329502 29.78201543186745 13.28606085342311
8.478851967847524 27.925591541381 12.431735656377176
8.51138784456821 25.762146013355196 14.093439344579243
8.570477288155699 25.630703513964573 16.53094964143381
8.681803764367732 45.91451405793211 2.184868136039602
8.514738309941855 47.79204245620118 2.175435958130262
10.707405175886722 49.420544725036244 2.6565836261668587
37.01134299738183 21.0232892955567 18.353318455786983
36.343680855777556 22.69793054830886 17.173990546822164
38.56922763288915 24.17212099139319 16.278411867693695
40.82937362071793 23.575129698216024 17.547857262649366
10.861285762624977 45.301313375450235 0.5387324957158659
9.540669031415934 43.62499901042155 1.2398431370095673
3.1113827173732003 18.899434631714772 19.512346050437156
3.1983772383728204 20.693805687107435 18.31180463529326
1.624638880747351 20.967418427589724 16.01910636963253
12.06347915579269 22.703230488122728 9.670354844033092
10.744252120862292 23.09209119292514 11.476417815299794
11.672136435976896 24.950786894594444 13.180891964639416
13.74539445540453 25.767859743332053 13.611496141764734
5.312838008334007 17.457327680526042 11.24349469433119
5.659049278926905 19.897096472408627 12.600702916853413
3.91626325705104 20.65545940261949 14.920696474941161
4.882809353551961 19.473008315487373 16.590855853985243
24.424380334270683 36.189931595350544 17.14620896028025
21.86137890878338 36.847172853318064 16.68831308470795
5.857923849383346 20.942423204312924 19.064604449170563
7.159743032547994 22.583049121352328 17.664544915881294
5.161017343902249 24.294341695518654 16.582363570374433
2.9377034921828806 24.781055301599025 17.71569851158391
1.2824973245335034 26.862955870510763 8.528910146920595
0.6647949971216989 28.11630537585472 10.688491853062457
28.857622731104072 33.67059444224146 19.918349220308627
27.87516759929243 34.80238612483372 17.614556592786656
35.52104095448956 15.411242168947078 15.00362182239271
37.400724003585424 16.807647410359735 15.981283031122684
37.546052876738166 19.207658584603504 15.699016685313707
35.92796954377625 20.90408726809098 15.227669500660792
6.834204406809382 46.355022125068544 0.25837147063889576
0.8676705846134188 74.79001912316934 16.45053761843875
0.40577902618907385 71.31355784382124 12.44280467909667
1.5097369446119855 70.71453936831303 9.696985734251832
2.568796099174186 70.21585929160564 11.329222273024955
11.130600012252952 30.72789654549132 31.141794146110602
10.416448847323457 28.797144942796614 32.499277909636284
44.114945584271396 13.095432896109587 10.639749075768208
42.75690070308318 14.372694780900822 11.57365268380849
22.283556565460646 33.28451925100887 9.901205052187214
22.711316425777785 35.57491617885717 10.571979947073435
22.635282909593343 35.80058951093205 13.350279234090275
21.247435915931124 34.847393960281345 14.65978424602779
29.784758926341716 30.270426587546595 23.74017063150667
28.990440540805555 30.781710265919262 22.039783788554036
26.934063914999065 32.92003310155208 21.56673018881708
21.902310528663428 28.726914321877732 9.37262232049903
22.592571303733052 30.513704606577956 10.627479926451384
21.96306590882667 31.373837838282057 12.715815618177126
20.556676085934278 30.291362214890103 14.7304570255665
26.79637095173868 35.29896691690198 15.210153871515457
24.952523448390515 35.03097304281167 14.795928431283828
23.88387223411398 32.46261442081922 14.463599283782232
24.69008989110033 30.56384845213424 13.59594042075603
21.56063021267666 33.927783539516454 17.063790069504037
22.132210570451228 31.891779253030013 16.723989650633268
23.916378176747386 30.865305105348725 18.11425930991821
24.238904101883527 31.731168437813693 20.677245056920576
26.32872877975471 28.87069150069877 16.617922887485864
27.78874456768835 29.74274804052872 15.32586520195933
29.52681429233413 31.559265926102253 16.056775564133286
30.452669030942147 32.049522303169965 18.34720438433836
24.31134856705944 34.31753420063921 20.90448454776857
39.01033279006775 18.780511011585414 17.84508963688055
41.278521194500634 20.546940012248342 17.233709432126844
38.112861750334936 15.162969883495872 10.745971860808117
37.679277333828004 16.43795088400298 12.686564154930391
39.81580322764203 16.506076719454033 14.463719025307869
41.31892249269535 14.68315780484554 14.857681174044199
67.70182549726553 48.26968332736407 52.49364078530561
69.40351914592114 49.18810763809605 52.56412807704943
70.7324561032011 50.73322559373393 54.39541103533151
71.86237270342372 48.018513108574716 52.95824676608911
69.69494669797015 48.62192282421864 49.88020633847384
23.189076986147278 82.18920334651435 6.538565665607083
22.729877497852215 81.7802430742686 4.51406055811753
21.997281276430982 79.60319211114289 3.749012531447741
20.79596582839058 77.66777446857165 4.983906608338396
60.008146269672174 72.26334521202332 23.998007825299084
58.49941640887385 74.32110397963599 24.840475554619257
57.73691954815434 72.66480838999517 22.621844759272154
58.69532963290508 70.95223037108427 21.96025845352911
58.36344161662445 69.28105720284529 20.138033971809133
56.87066202172052 69.11553600562655 18.056180016422513
57.99547268743582 69.68178536688487 15.74392146795015
59.13647386758834 70.7243928075453 16.936430331498023
59.19435975572707 73.2970452356211 17.79675272344569
58.184175563597556 75.12619201868011 17.036064971080393
58.05824545529366 75.29014556822706 22.109129747506312
58.52107332700229 74.06083216214375 20.242544212126408
60.60875263375804 72.43330900551153 20.00703737042282
62.316389216291604 71.94663185307967 22.254372758612547
63.990173179639996 70.07183739410989 21.79663433958651
28.588811627925356 72.27555551457326 20.507258203860683
27.04744665969596 70.97838354045913 20.705787846062776
27.339404491055976 68.8536253209505 21.93385099049516
43.9917308667556 79.29240995283467 29.943492543016408
46.595335565016825 78.34121312328817 29.59335356422203
48.32895647111807 80.51188093328064 28.87233385700694
47.26975590965864 82.83105710566281 28.81940644299049
32.22781141771007 73.98357843919761 26.39168989523744
30.48183796501191 74.12969299525997 25.059772317092833
30.26681843379891 73.19615087710002 22.344023021080904
31.922970904605812 71.65070815453628 21.66080496615549
49.192758259908004 79.26110246131167 31.494355503454905
49.389367729613795 81.25648616729762 31.574693881470797
45.62175921835953 78.39008485167541 5.340157345388095
46.023518379111955 79.68512828613623 7.19818678102822
44.52928155609117 80.99813840291154 8.888967882376635
42.17163533952174 80.8575295477337 9.547776786889877
40.78555718053135 79.78134202569703 16.60603715020579
41.92568620431309 80.76534224534335 14.892357859226088
44.273223338043096 81.52687974751824 15.281748321121063
45.30994874975503 83.0325084067934 17.0174362788919
45.655402782207425 76.4607700242603 12.536928515622732
46.09824461065878 78.86459421721594 13.173877606848743
43.68802858758884 80.08096173612829 12.492341295888238
41.83000313801366 79.0475352357591 11.673327794793916
44.05725189874897 83.15046784143018 13.433560066592054
41.98299948613437 82.57705124208783 11.993658213726457
22.044572170714332 73.86357772031768 20.37195401790729
23.05852825822225 74.6991096275895 22.05464620026581
25.50951205323033 74.55679494281009 22.403494498029787
27.47877288079366 74.47820409607579 21.04772587512679
50.15740143474225 82.30420561970955 29.17515277669726
26.39829469778228 72.11947774998866 23.04428624560059
2.4903860494695844 73.07797709663575 19.01128617569754
28.72466034888097 76.25764335601475 2.521914830349128
28.15045366653213 78.62420051922531 2.5735072269118535
29.077077824376694 80.15416483167029 0.7165559917797986
40.504546892116444 66.43500801402408 16.643605764877158
41.5739553927042 66.19802884804638 14.631869976682971
59.1346043585366 67.3408932452483 17.265790605864357
61.532944222431084 69.20083832444337 15.976715494952789
61.704953521316384 70.53331761780227 17.943067476501774
61.51190446202132 69.23088918204529 20.386604181155853
48.4863569580265 80.51260928919268 6.388825284640784
49.8337388758655 81.30235888531881 8.353172624071833
48.23934530270641 82.85131549406556 9.667185572470824
45.803910259057 83.6301932700497 8.934325602423764
24.11686831820092 79.6538631007521 6.887622832322939
23.397768419936753 77.2275072473403 6.235082772273445
25.54613440422602 75.62897588422899 5.341640406863324
27.8696767195531 75.64315972360487 5.904381737984448
46.76598013535114 77.01829026527746 8.018776631863245
46.15285291514083 78.08769204879358 9.662706106974168
47.27041481806632 80.13437881860371 10.7640469221683
49.70264161377292 80.66140057524 11.27409358615419
21.6290039363704 72.86755918346 23.302897585238217
23.36516455117677 71.31897904593387 23.90440183971816
24.693548368014287 69.95139069823138 22.01862164676443
24.658641404491288 70.3388350112652 19.669063979536745
64.13791576437382 71.67385264719304 2.049308728285905
62.74119547407846 70.86570183104206 0.339580366906844
58.47760017131786 70.92414932167131 1.2504629701900898
66.8576168353024 72.00447088889428 1.0565573311766174
47.39915757853486 84.18135922198037 12.139484793395358
46.46724553922312 82.10445121966652 12.739033954441974
46.8011257877272 80.53902773709729 14.92597951346111
21.227637976558153 76.11128578039683 23.31497861236342
23.304398774906552 76.76987976678673 23.6582835213745
24.92966755927485 75.59903431162596 25.17657823694041
24.466786943102907 74.62819203502286 27.47819637691535
25.035704921077635 79.22477492482223 23.781475432574744
26.382683310163724 78.12387397954842 25.271158589298533
28.64186450702414 76.38500398658188 24.772213094049405
29.14658087743387 75.75986627543438 22.73043497128169
25.25355490582634 67.56416269477836 19.944286133293364
25.332377111992464 81.39318806387598 5.361902043400786
26.418151287334826 79.72479904983152 4.384615520037168
25.38802954711912 78.98317904828839 1.9102453275184421
26.129383571105183 80.28612472973589 0.4900467905104161
73.47468701981076 48.10340084074613 51.204203548875434
71.83721955910661 49.21560650500394 49.348629237734116
72.7729169847249 50.786707006787786 50.26967120053528
72.38301805197347 53.35300389214987 50.80665830663726
75.36984670316005 45.46025517232982 28.799993116736566
74.82024798955088 43.46272471696661 27.21988714124634
74.77266947225347 41.01174552925359 25.840199422327345
70.25793241179387 44.92703832556297 36.54623040289973
71.30712874468182 44.81754309835138 34.459872099240464
71.76338461475727 42.63390536426021 33.20546349095064
71.14968160711047 40.30435449166073 34.385107109849905
68.26887725663782 42.17841796860837 33.9345410793732
69.34320795979438 41.92946596216252 31.777042343601217
67.98665431038816 24.002531621913 18.768762234527994
70.93863529244379 37.90369361704197 26.629659874463513
72.90817899126273 38.18034431437993 27.751986666922836
71.01930344180572 39.64832291383704 29.137898610171884
69.80094975962466 39.313582319423716 30.820710105763272
74.21887959655317 40.3576764602659 28.993109152645758
73.0398689208347 41.38900664457093 30.102467745360688
73.62944667100003 43.99933290276054 31.370474913593405
75.635075426947 45.11412393667572 31.434192259480835
67.2848890063329 44.16594175646361 37.22541931425835
40.38442320662092 70.159477862976 26.12402384739026
39.91208909273527 72.12671971881208 26.76685083467318
49.24956472884729 62.85229117186443 39.4440517732014
50.47352685282818 63.23047204362938 41.10471189832958
52.117604808145046 65.39759348755125 41.299631931335306
51.78852816006791 67.60130044021253 40.025567250480236
48.59817081969675 60.26287659465655 34.05473761876455
50.79415285371921 59.96572941652728 35.03582460415416
51.08205758821101 61.50518013316306 36.859964723602374
50.29588557496863 63.648908940681466 37.2959902937601
49.718503323299075 56.468917306676836 37.09357766723359
50.58017562113027 58.188657911752166 37.0693852062725
51.287038044472595 59.72838295304611 38.96344247506085
50.418682871734475 60.47698933944707 40.72822812272789
59.970864716407746 62.48197356183699 42.553412451305306
57.357613087581065 61.61555447155576 41.72239696619319
58.28403708629493 60.79980455335722 39.3109948090993
53.54750502952332 58.05177659630794 34.597861277304446
53.876650134188466 60.194118202611484 35.681549390642544
55.52660473371911 61.52983612089176 36.63949147444559
11.47322112626766 50.972637756564374 31.746369262914946
9.877150735209218 49.99020022596096 31.161339717782184
9.13604563169456 51.829025184252004 30.279566447672536
7.6273157708962245 53.886783951864686 31.122034176992717
32.32919106619437 56.395982255739284 38.72432898489229
31.70841449841221 56.392225234315966 36.57871690576701
31.671595445545144 54.641855098460546 34.981912747870346
33.1516157458838 52.45031625905636 34.78702788245777
10.644488829330166 42.14950088911857 25.038452450215654
9.658158311870002 41.247474027007144 27.132336805841618
9.678674946503612 43.032634966931745 28.91006854764849
11.618640063250801 45.08279716704149 29.38072232812696
6.864818910176721 52.23048836222386 28.903403381645607
7.823228994927462 50.51791034331295 28.241817075902567
7.491340978646839 48.84673717507398 26.419592594182596
5.998561383742901 48.68121597785524 24.33773863879596
30.614833689632732 48.851506339036504 8.004788814614306
30.07587596992491 51.02921271149177 7.484832747504709
32.228919614326756 52.71299986047558 8.434476174574332
36.19568617278833 50.01279456748865 29.47536350500543
34.78920439440726 48.65564283723757 28.726756453822514
32.40981025840625 47.95964166206432 29.432619420965032
31.041549092928452 48.22610549490651 30.992409914961232
23.082218293861565 55.29644900945238 32.514408840853946
25.163593582993503 54.6386601711598 32.82635987129359
26.85202441093585 53.79837123986066 30.55995328840545
25.697729674792168 52.4890949114146 29.039135898083778
7.123372049458204 49.24746533911356 22.025480090323608
8.264373229610722 50.290072779773986 23.217988953871483
8.32225911774945 52.862725207849806 24.078311345819145
7.312074925619938 54.69187199090881 23.31762359345383
32.89749854051205 60.94239622944787 40.28416675284085
31.502508445899903 58.47498145739675 40.84224318028524
29.989352079987057 57.86940351150477 38.55971127650956
29.717451272883284 59.29712784329046 36.48277264019752
7.186144817316041 54.85582554045574 28.390688369879765
7.6489726890246725 53.626512134372454 26.52410283449987
9.736651995780425 51.998988977740225 26.28859599279628
11.444288578313985 51.51231182530836 28.535931380986007
34.86734481301685 57.38126698289069 30.825733935308122
34.88624880774273 55.961394585391275 32.284063629027784
33.8293549438697 53.45978255903337 32.076565133509504
33.38025620242613 52.485684475561825 29.656300045986
15.135252555667362 49.00525711314622 27.692376743942592
13.11807254166238 49.637517366338585 28.078192961959964
11.247327732345083 48.524003785775434 29.543246140250165
11.475728907010568 46.75757033379311 31.355727984946263
37.40185253645215 49.678318261163376 13.35542009188181
35.4234613839264 49.694159273276455 12.000961863364546
34.22557015058242 52.11283295642198 11.23584857453078
34.26621747675056 54.107529169648906 12.166603318632616
29.19752221459704 47.30527956396577 10.793845027318575
31.752126700989173 47.55365596063694 10.482285190155181
32.75610526188854 49.76806040017205 11.162941848554322
32.07808179982046 51.49609019701661 12.738345727917409
14.09561364717513 66.46192540358922 24.024772024834498
15.374700978257493 66.32470139920369 22.23222524892732
50.72051574715421 45.01987736729103 26.216866410243455
50.053098749046804 44.76180014288798 28.323399873649414
51.61967071102027 43.80072234058106 30.423321247282903
53.775826890632665 43.053984379535336 30.30031002300812
9.891948402974158 45.14516127049017 50.58800428970352
11.147565969296096 46.52862367217397 51.378954801589984
11.956662773882991 50.07275155047994 49.01590267075403
27.700051062011134 51.973471180920455 23.98687555178595
27.580081377487375 50.81058406964438 26.041490527862347
29.218664011231724 50.317765816392395 27.305253647095377
31.83824795959985 49.35214362493834 26.62701340314613
55.35326014373189 59.84321917640149 42.08362109428843
53.46240178190913 59.97123488369264 40.75738554988986
53.242153301475156 62.63965343018005 39.956589087677436
54.958499877116786 64.35367261697623 40.97121981217047
26.803725415067117 53.791476487175764 26.866924473575633
27.614277225616608 55.264062041089126 28.654900435222356
30.05800504516451 54.25090153003394 29.54947170190501
31.16436470076469 52.67217505850605 28.246543044523698
47.26024292160079 41.25112856588986 22.71993947445321
47.832558529220094 42.39919216341964 24.401969783221283
50.4889574592982 42.501675685698 25.11581836761443
26.57490425877472 51.09511579502762 33.94619398075304
27.21363201270629 53.39134722634983 34.15276466668021
29.459856083705315 54.41406522003784 33.05836497941301
31.296888491870053 53.043869286613045 31.77534581687561
56.75388246864322 57.979100264837136 40.93425016440179
55.643765955535194 59.055412649119184 39.3156179831271
53.5412720460482 58.77206021070716 37.89365648914978
52.644314602214514 56.85454248900643 36.66082560670256
24.90690903518619 56.55512694164406 35.01495146423249
27.316239405340344 57.659625043233206 34.987962299719186
28.469550463270778 57.03393475490959 32.602089076167346
27.73398221668361 57.433433134040975 30.502121898783244
57.050564882192816 63.270094018171974 39.49266404512927
57.93210839549992 64.28241010535638 41.224427577657615
54.72926755500014 44.399078528150056 48.62104369709983
47.66121576593603 43.80167167782205 30.863600541696723
45.77870524839137 43.09525678411795 29.7983157138606
46.00579604804286 43.28582380282423 26.755335995631704
47.97375899044534 44.99065221569571 25.937384499082075
37.21065023423962 41.25441381699949 45.547657903752366
31.747513191235633 37.26161582019279 41.92427863648269
30.383191855515264 57.36039561140431 29.685883228325714
31.974595599991407 56.528215661386156 30.622229969362092
32.488717172492 56.60897103942315 33.31110769919481
31.82629718835592 58.38354218006647 34.726365941574635
4.944237887185413 82.77574014377757 6.872990774234131
4.975078379799416 83.30569110046166 4.563229848989604
54.032694426031334 42.757396419316436 33.12711482590486
52.97611558712286 41.373450034597404 34.23647525161363
50.32379540720287 41.028581303036304 34.29533801023125
48.542129167936515 43.14250988574998 33.07983565741701
43.3585879318571 38.83622109720164 23.98244783412658
45.22664254171082 39.68075717470397 23.428973577793847
47.2635380870638 39.88876992942844 25.46852212963202
46.665397565632524 40.888751845839046 27.54136347143532
49.821351379067956 40.21402026640938 31.667041001593322
49.264485721818616 41.861493543873905 30.371775860762664
49.73204525411537 41.843250754597065 27.78663015404394
49.768729336179064 39.760830087778736 26.344021006960542
53.998992654670175 66.1891674170998 38.78411459217404
52.85797399061907 64.00700861097454 37.78095755379992
53.08989210490228 62.76141541764553 35.57452340968433
7.5556392756820925 44.46296242586496 27.871678694278938
7.751860666153821 46.395868946408825 27.52997512692847
8.335051210854237 48.22615214500372 29.610967215009975
8.827944064875275 47.304587383043206 31.95070970556669
27.781510279694274 46.94415576828678 27.40826304634619
29.27393140225008 47.96860131968752 28.899965622264762
28.58287429896817 49.78975511918155 30.237300149581632
26.682014076595085 50.899804093539984 30.977611656943022
30.090620381466717 55.47543994898428 40.482276082062796
30.387415730953297 54.283945375022405 38.61012841918678
29.08429547161043 55.19850908430788 36.405276300599894
26.84035171034504 55.16061630603658 36.14371112581861
12.628423964746535 48.869817509239724 4.373271990442442
27.502731884806504 55.728618369961836 7.429108584155173
29.290902677635398 53.74190475291793 6.96646213056758
30.186609326221692 52.80444944474077 4.9186336397683
5.644538950449461 42.61049566876871 24.199233556734907
7.715190862116278 42.636334557224956 25.53334230317761
8.672940747561418 45.402576663576625 25.256239279918734
8.262503720558987 46.90657321747699 23.547349228237817
31.516732751716827 31.11039347208846 25.436642598744175
30.64861217349393 32.87527123999686 25.865938378834034
30.91627665973355 33.58062884283564 23.64126288166348
32.875235348536506 34.83641935987114 22.526661442759224
26.530205341497098 39.85861968203315 17.450263482675748
26.393408591799144 37.74654920041006 16.997913814666962
28.80574682017826 37.57225030656655 21.58487427482396
29.49242640462698 35.367796493323574 21.94317658174711
30.59911882071348 35.42025383805027 27.963399329622348
29.05909444545208 34.64901727560807 27.073685843290804
27.90996133882823 34.92729145994599 24.78921960646779
27.222516897597963 36.640926651565685 23.606165730762207
26.77510990646981 48.78218042283272 11.040271079911463
28.399655899433718 49.75411419253791 9.798907286533803
28.53621905606756 52.50452491846199 9.734197593883883
26.78065608268555 53.89051162691463 10.098656646129156
10.660843584453477 48.76651829667206 22.258274117326238
10.83285288333876 50.09899759003095 24.224626098875223
10.639803824043707 48.796569154273996 26.668162803529302
10.849489708364256 45.98987448726782 26.794921035892916
52.8381801224506 34.52643137027169 31.435059244564826
54.04849064417826 36.29502292417632 29.66203490642407
52.983516257227045 38.56820425077495 30.12432051736064
52.30444957255211 39.526842344443786 32.57421978494439
13.066100239232686 52.990903225677506 6.133664079442707
10.958199305523973 52.94686616335 5.203614969604255
8.406869819885062 52.72640852629668 5.307964812873132
8.168349499960947 50.586372678853834 3.73615927770318
13.265815126396197 51.23953261942174 8.330867350659359
11.869094836100837 50.43138180327075 6.621138989280304
9.36065177962673 49.80185990241488 6.177094076127485
7.605499533340242 50.48982929390001 7.532021592563547
15.985516197324783 51.57015086112297 7.338115953550079
16.343989185378447 52.49039201847687 5.282480650991994
15.928395233727853 51.599764184352416 3.158347470769519
14.580526868565293 49.23502566833094 2.5322311478257826
30.25093053081365 53.27474229585279 12.06631522604272
31.80179912127522 53.80594308970873 10.87324181663975
32.055565877070194 55.40187921059369 9.121707340264319
0.08971200867494517 75.1639363275392 19.235156160852405
15.780267186459572 31.49878585103246 34.55596170040007
13.273405334474548 31.393088042503877 33.59674717612497
12.043615591364134 34.03181999654971 34.847798158378964
10.048313441484824 33.72273995121521 35.61982106563728
10.870683317698976 32.801373860435 32.55749647589752
21.378634519897677 81.5853073246226 1.7818583486272426
18.92773288995475 81.59510610867636 2.9136922639841707
25.64047980024831 34.15489461142529 23.485220208882193
50.59618835479087 34.75491568980805 23.131465995297503
52.173599176586954 37.66030696836655 26.271828504150797
51.310498594097396 36.64019603036488 28.23347893404594
7.6793429805971245 33.80157423363891 37.22057131533547
47.13145410952943 38.69232258872153 21.57477640395977
48.61276757959111 38.88271016040161 22.887665205478122
26.237738774809515 38.94247907303406 22.21331919210557
26.362779048451454 38.054412310820034 19.82195090412214
25.584771527772855 35.7757304274941 19.278445362609283
56.75876568636777 67.44199955791892 40.129087978234516
56.44408687484945 66.48024094159976 42.15956318442745
53.85990612841206 66.80149541540051 42.99396410950247
52.3897898254309 68.84987355353228 42.58911480307052
63.77596681708426 78.00540952763785 36.51268439451988
63.32810439347501 79.98723333680135 35.251531585047374
54.82707643534806 58.49922558786023 13.453621525069794
54.391722706944115 60.28076389547645 13.060732150223176
54.16838416021154 62.328006210492966 14.359555176749813
53.58791154808471 62.71097190630276 16.77651155892402
73.45018231329568 67.07777871690318 28.476506019754538
72.94643375409136 69.47006052022388 27.707720921139803
73.0156417275953 69.62713445451799 25.247790151794472
72.75754255229496 68.11305258314302 23.401582670925425
60.38991744853972 59.58009353014729 38.66338952686237
58.07087533139109 61.32762793578329 36.92486963990171
53.39244617391119 43.747558134009516 0.6579054066235669
50.91672732909779 39.953102185866676 0.3179510686273572
49.26004822183704 40.342716719430044 2.7097233575650197
34.09272038361275 52.22377489177795 8.665419533454703
63.4334307673605 63.64103021169452 16.39036631533099
63.554180302002806 61.63553859315094 16.187394127835635
61.57011367856926 59.924603395000716 16.97913349186634
60.18293547386063 60.08472738200417 18.889459829392653
60.943138078395855 57.4189037922923 19.098569575920795
62.92388545176261 58.04025386591673 18.58215995677793
65.01741851245201 56.02908584789206 17.858929574803412
63.91672359578367 53.497856300543056 17.585452598206537
62.505525224782815 60.92042352301221 12.47253614479149
64.30176845260462 61.67607353075747 13.526095270126813
39.69826745960857 56.9416172850612 8.328758220859116
69.90933916204479 45.08900648630153 2.365476483328935
70.26357696580703 43.423864761517365 0.5273399822860151
72.74946500402648 42.39312160729901 0.7681968899749835
74.44079080941448 42.47304136705685 2.48751424803507
75.37786939881127 47.77084993338011 27.684060471164504
75.09836369657195 43.36314262763665 24.799888035668186
