68.38443356829087 68.06440479170745 70.18455824921438
66.75736756393945 67.11673281657005 71.63378042316386
65.5805079208902 68.61268674573161 73.62130227823043
66.06903424144805 70.84945108512773 74.20510181093351
78.69226092627767 56.5129599497726 46.56171662127121
77.61613865435531 56.01474553681621 48.5377916056667
79.53402795702841 54.39741005935993 50.31941230777884
82.23724774374533 57.989744561352865 51.23276806528609
79.66689603202573 57.09588600316148 50.866973937370005
65.94066144032894 73.9277913627004 55.65056342864885
64.68005490025325 73.45816923884729 54.37589518379856
65.48172466816354 72.54857594683604 51.86863351926222
66.66258637510437 74.00908683122896 50.43974609974676
77.4862752141478 56.675918148957415 58.039252503003645
79.65974714054508 57.34024261678395 58.53620811622526
81.5004464911822 55.50465816907537 58.73729773814236
65.68319797070885 66.9904909744173 48.68905359351805
64.68719809908883 69.05889316815126 47.69143956490374
62.54983039709846 70.12018284407948 49.03218801228599
60.825770229044245 69.36929631187125 50.141005115287484
79.82050422706772 62.677491984749 61.2740251349898
80.72722016479709 60.99419016239173 60.11633293406829
81.12807636266697 60.950827181666654 57.47223258762101
80.8299487844288 62.45467759432172 55.82037102703536
58.32463213039304 73.27620092225274 50.73483963565613
60.605666652902315 72.15125860248044 50.30092645263098
62.731089073710685 73.60123288650885 51.1735923928505
62.294180802669516 74.10115704433191 53.70583732584728
60.90631921732969 69.90641674965809 46.893192477191555
59.342338377770474 70.45832601155617 48.191155457688886
57.16717888346944 72.15353723516542 48.298899533763
56.30291130066125 73.80973497981007 46.62310245031394
39.91523599668239 77.18963944517517 16.411518521678417
40.45770727409809 78.8511942927252 14.160006300136976
37.9594243392306 78.59240069126487 13.04256100597851
53.68168794610489 79.77246874779809 23.53676963262986
55.85931742561277 80.356798398184 24.034406025159218
57.11142071710578 79.9422023682263 26.223727889024616
55.96787108964305 80.4531304058306 28.26407320189504
36.098513299038146 79.81956118742444 22.627925961138903
69.23952748943714 72.56579773991513 69.27481725075506
70.73781767481516 70.30777388539593 70.09598761047474
69.71593786552081 69.71479415614672 72.03198239707382
69.20554593656881 71.44052089847663 74.19979943309323
42.45267353737988 74.95593289713443 17.826700318894172
62.416650000211504 69.89029244185073 78.23326679577568
63.65601975823153 68.61396834902006 77.01129199175654
66.34796612814586 68.10539966134418 76.76754920111976
68.11562648699282 69.40181029198318 77.99526869237147
36.77759253541446 81.78428439490544 11.43419643215433
37.991138349824595 83.58569050666958 11.469041843395617
40.44134557713204 83.05627073735515 12.360079878659587
41.71827060801456 80.9495962727435 12.342249471178507
66.74625094317044 64.50653131457031 76.65537368746539
64.32548386534027 65.36153896069979 77.41127966138438
63.34200794444597 66.62306131443539 75.12292540789198
63.612446003743514 66.12414344499935 72.5829111382465
70.27550671332001 65.89491381705125 66.63359608506234
70.0568646808944 66.23085424233554 68.90665823781892
68.75671045020863 65.36967614218558 70.87400695201181
66.7157281877591 63.62464474072373 70.9531158942297
60.357726564590216 81.34146347142574 49.47459695596653
60.21683128473718 79.22695238938876 49.882674919763204
61.404851123050555 77.1092155641044 50.455603176353826
63.73086502712847 76.61390111303406 51.17288074585545
63.37554785955624 67.31412604892107 52.77577776698385
63.25534419952781 69.45012359369008 52.56499203810726
62.950613674711114 71.52025001511278 53.97606057831291
64.75807686968955 71.17372977856138 56.22823520574405
56.23515767980574 85.10989578309017 25.293685033027295
56.7574276417204 83.1962462443123 27.21324548304086
56.34751488375659 83.7172367370575 29.780105286063655
57.99520219551562 80.38473424247361 51.23256508832818
58.36600702225166 78.6216388453702 51.97476571426275
58.5426655820892 76.31923528169393 50.88161287551254
57.593003279494845 75.22488705788163 48.88050297446676
83.24402614273636 62.917105117981265 54.54546879823099
81.31390894718102 63.10940911822309 52.79130618503267
82.04720985600413 61.07696232673576 50.84839025482942
84.51105058121684 59.832375370192885 51.39167106003284
84.94750857988538 55.729543980967726 60.78526006020279
84.28604551228572 56.67942397442623 58.21984173382697
83.2087544013777 58.79165393263886 57.625741607527644
81.16669036577852 53.83621675971344 56.562319272388386
82.63911185676669 55.3441430952265 56.23853789149811
82.92207384453106 55.9479892373919 53.61322827226454
82.12514274948141 54.688984654530806 51.72703518722412
76.46648254830632 84.49015286908708 58.0587522541599
57.11250505717495 78.30902057579438 29.569225040159374
59.503651471546036 78.2653319223069 28.878995493430395
60.515183316958534 80.55347640749163 28.26330649634769
59.87711372813783 82.7989887227396 29.176814544761566
83.2584599493701 77.50135355491943 44.34228604649318
84.71708763844647 78.98519873840357 43.77754127539896
38.77294563628515 83.68319795885431 16.50154665696573
40.029741218915476 81.6828251502694 15.536188333990824
42.52138334071991 81.59947072232119 15.011889767581948
39.028183836826486 82.56320137553156 21.920506729055855
39.35444612999344 83.00930787585837 19.802535488180382
37.35646218908869 81.99752493413328 17.831277058725462
35.71878558275921 80.36198139756192 18.839580214924514
43.26407983922636 77.46594185217862 16.53163521230888
41.85499220005846 79.38283946841328 16.26902344049462
40.43300291272924 80.32243839897963 18.048446617529077
40.386678691882565 80.26385860275415 20.342053381023092
37.77411508317662 78.64503387818964 19.547248380047645
36.22748109044373 84.45673309069286 15.685524995846913
37.22761771550717 83.44032296607932 14.211606964655044
37.604408962470984 80.95928304101997 14.53278658814198
36.47065961250206 79.47973855241993 15.909827972799086
84.29160165487203 58.41116102257692 53.76491327753111
83.99170641884835 60.4961022315329 55.13012946489319
69.43111954693819 66.95139379976611 32.34608870753977
71.42025119409004 65.69645664673662 33.266191678180945
77.75883579737035 56.349827599305726 52.92741611257099
78.46647133791299 56.08347338240539 55.451591463357
80.68604071855769 57.341289482332236 56.08331811201144
81.67986101337277 59.31948116074087 55.38643617218205
44.76814102637004 84.88778721194305 73.04327636007913
45.762331534713915 84.62962735922507 70.60257158235397
48.754287045922446 83.00529391486424 75.49842514818951
47.20943348070634 83.68842244258975 73.93265824503645
47.21960181371525 82.64825240625706 71.65547667754105
48.362154739214866 79.95000152549282 71.26774851106265
49.75670881170155 84.73754634537063 68.84629972634814
50.97612224339572 82.96553757463782 68.91636983500054
60.9362990546083 65.34543100678759 73.92547845636801
61.384063468896045 65.07077310031545 76.06276057846685
60.92196209434276 66.70793165509328 77.88917835713424
59.909865580073486 69.10673142554538 77.99865657331065
60.94252510766387 69.31278670551185 81.28927621008033
63.0442220557112 69.21399330773909 81.21885613851221
64.77597678291009 67.41381673292821 80.69697979958552
64.75717870286371 65.17977045974652 79.86902248805215
80.80126543003735 84.47189888463745 69.58386295013271
78.27546424065999 84.47298561813137 68.06384214733826
75.89823045629608 80.17646873031406 60.3470951659886
75.62225582832617 82.42459331274219 59.722563998341414
76.057281337988 84.27968321288493 61.13743773352735
77.24641391283107 84.78356963925884 63.17454226002476
76.34956371499077 83.98246481178474 65.92298640894067
68.1233873833109 71.20084461770573 42.55690870639908
67.44116822428072 71.47765106890994 45.038339985201716
68.39844812641874 70.25761688509891 47.15934996956308
68.27675425440704 68.09634661146968 47.79855214648856
66.62897769230469 65.93407094413742 82.39271749378605
67.77706252340808 67.60984040079437 80.16962389053944
68.4698518203636 65.76916038739124 78.55936437420723
69.17415272162437 63.36060791794274 79.04691178413626
58.21687682560783 77.18053418275554 24.513261886856846
58.84331188790985 77.90206990937834 26.372641400537844
60.67066873786132 79.80771706159894 25.80524678967068
62.23691940015532 79.72567907010624 23.623690468781827
55.42884317455364 80.08026918557961 21.24840677985871
57.715170582594766 79.65062356645556 22.345590132108658
59.637721264800255 78.14418163506713 21.12549634260011
55.78288385148331 81.78058067746161 67.62382246919147
53.83917328615604 81.64594754655998 67.02048516696821
52.45203702976478 80.76032438367999 64.83006720594656
52.93880383709586 79.68022616242757 62.96051272842543
56.55986030136182 83.83287414720932 22.900352247895643
54.74023379653172 82.92712018562936 24.3195551479263
52.03273648870427 82.41436819161115 23.860140397462587
78.25203930787728 76.58186236027073 84.50762776624508
71.28882522811189 64.84572321247525 72.00679931758991
72.77483927722493 66.3313197094156 73.0291377457196
72.46440103004308 68.3518192193433 71.26364592735213
72.21921342535686 68.10806449103949 68.78938341702401
73.04343234219016 84.94834624126081 58.36256509552277
45.83845687948278 83.72168448431857 35.92950223064504
41.42554941771496 85.1449445437524 47.83842382465545
42.07776841702616 84.0447075177964 50.432984816872924
66.91366092768976 66.5909367746416 51.55223671482844
65.46864691653091 68.12488010798153 50.982769917107305
65.99054326080227 70.49869450148469 49.85285575172913
68.02424523823707 71.74042456920277 49.641973585662555
58.99739232291843 82.20110236797993 20.94044503800761
59.86746371921214 81.0219413553071 22.636236771320135
59.085670270055 81.7774981450107 25.018730273001747
59.43116618964332 83.84029096326994 25.97889168533786
49.331669522126624 76.83887051474818 66.2587324123169
48.12922146617143 78.82667738495306 67.55942560551267
49.829820599585496 80.42499428663399 68.81633926865406
51.98934092317016 80.6757611805744 69.03241191470279
45.51816725072279 84.15438495094072 65.78104059219798
46.7550119549684 84.39159226359841 67.72757763587352
47.572765522803145 82.39170093512023 68.93458436085746
46.49768092731003 80.2004351286554 69.29610289788549
52.45385772793192 84.42407674240324 67.55677151900763
54.49190450870813 84.13757847990789 69.16345631703736
52.336719750400185 83.58787332995384 64.97872467592353
50.07620033774379 83.03378658649213 66.070034399486
48.12352793244361 83.36372567183467 65.59480316123818
71.50714362510395 68.89945048608666 74.24118113237093
69.57161046105266 68.91497192950375 74.98640686737954
68.087092366235 66.95899495877072 74.81591359067896
68.80811344884718 64.69071260075732 73.88917833751472
46.612588065254286 81.36003650608956 61.283693704780916
46.43453040720486 81.71971525925979 63.82339842590249
48.689620206797045 80.78358839765066 65.4646185156763
50.25466728744163 79.0646586611013 64.6439647416455
45.52765039028255 82.38495825650601 38.147984557737274
44.22011474692018 83.38446552675116 39.624100682614106
43.54459043457397 82.7061521795781 36.118372919208895
42.71159609534402 84.27737432713957 35.37747144431347
44.33591419973372 85.17916355039509 48.28656637387515
43.27199228958842 84.68562043753279 42.93981206157666
30.31630843482389 84.46276350287356 75.6697391160324
84.16345329793808 75.52718823640677 45.55992650914918
66.17257882676016 81.18646438591853 26.954107426083205
64.32377021245452 80.9041696354806 25.271254005812118
62.36159692141002 82.65273530596833 25.768541727041796
61.63508379531712 83.51879206932311 27.423070250119054
78.83003202099142 76.96291583378846 80.89739093786343
80.04852017749278 77.64492040587214 82.64428519845067
79.3321493958419 79.40851649149766 84.63025375847211
78.91903150721085 81.70116053773614 84.17705365948959
84.98959457042977 82.47862228090041 44.081982491113756
64.92347080321187 75.21681644066213 49.14395927871288
63.17556846549991 75.05889962206054 48.54844493098914
62.13760094247205 72.92678052232156 47.49028000544478
63.38130350667511 71.19140965215755 46.08972542095681
40.293451883301145 85.05203871729728 33.52030096406463
28.024609406308485 84.86042649756135 40.869528531830305
36.28128826403251 79.93227848162937 24.80923390135849
38.79659362521213 78.5439047567498 21.93070578234723
38.735556221265334 80.5460119414585 23.571628122147413
33.15010808935803 84.6439031994413 38.2694911115875
26.342031863756358 84.99849331491467 35.89420742266439
28.628359271797464 84.5688476957906 36.99139077491433
30.550909954002954 83.06240576440219 35.771296985405776
21.474287943135515 23.832655141945487 61.54392186682762
64.60073596145318 16.52060719745637 56.24619292750329
65.68295536948312 16.041521958758583 58.44679187023485
67.75547408926988 17.422537212021282 59.15573637999579
16.56723012581547 49.18085009337887 67.56329790126715
26.085620960737145 16.520408261024695 15.962619742076111
7.628758468916056 44.37041361688068 75.47369033640474
8.090478722284809 43.27431127022071 77.90450324547969
9.857700892122965 41.550798679566014 77.64887362712354
12.06734813320679 41.44238907519433 76.0594394606206
70.79531366555634 54.49193889379793 36.93307094722159
67.06671865971681 53.050392996257635 35.15395163333017
67.61660490353881 15.31559645788234 60.84960688120575
0.5693882072860642 50.38462731692968 48.09397059309716
0.5009662063621974 47.03314348347183 50.2952703398986
1.8193527458785004 47.095656785488686 52.03072094238399
20.93718454490759 18.43851424218793 84.3189411688785
14.70889200240689 18.718132905569266 82.28243525990017
14.579071159247574 25.704521021960907 54.78139730014739
15.296642714806127 28.691110477292142 55.78107768598794
14.54020247471607 26.728090194437822 57.19204060339853
16.671403733348708 25.374652529824754 57.13607258690515
18.804014037918975 25.78978852576723 57.43145834638805
20.858546651023673 26.698740015719665 54.982396207667605
18.292320181910306 22.824747487193314 84.48885961375314
18.633651344699608 20.812588287625324 84.58580352066545
18.5069253836646 18.73058415257851 82.95813810393415
18.933225872581964 18.76388471909342 80.68117394455216
22.827820544387357 24.9060599173784 58.317780160307045
12.03647831515163 31.14090665990234 34.03076994509655
9.53368921325575 32.517623220872515 34.574555698700294
7.618747043771807 31.957287943772926 35.73149320103835
7.739925122909806 33.12776956750975 38.357996175024724
8.576131109583175 35.162308154746476 38.3111216354349
8.12833276457056 36.9530299592901 36.91404163381906
43.28546515908947 29.17012782299715 51.90002339604554
49.885217003468185 27.317819307238096 81.90216424458107
45.3866884570923 27.392163579718417 60.23298726333341
41.805366680883566 29.210802613282667 60.07322100157256
43.73632104925943 29.65886428828339 59.11762423457634
43.968026857403636 29.41231321421888 56.39715477236466
42.40266097484165 29.07780845166777 54.81433693687988
49.14692235887729 25.62521518194018 83.81614437399652
2.91456999426629 50.01720363190601 18.277589553469333
49.522657621621526 21.402172138672228 82.24484605345643
47.4306431420759 20.99151600366072 80.8110842025187
33.36138266418446 38.51363658620519 22.303444729598937
30.509827911526024 38.45715349202533 27.211404199437197
49.042915423103004 23.493714773822344 76.3947156537396
49.412926863639434 22.950817649889316 78.37811906057156
49.29837810176322 20.077639980970027 79.03351737546012
4.637109975402064 44.65005440795674 19.20753684185507
4.154929367788255 49.799565167283724 20.632237846746243
9.656171748721079 31.4494229235117 77.16918012591029
8.183113810310491 32.459873705968135 78.46609469108314
8.385284545027421 34.55050194057385 80.12043518476493
11.015047810030824 35.68817267650174 80.24207154490179
9.180040194847344 33.414038406108354 71.65918258156762
8.526732892868008 32.869374821410354 73.78813207773227
9.605624095470862 33.76153636109401 75.8504971340418
11.596984156243009 34.18794833060119 76.62938022524557
5.166741156966699 36.295549721597446 80.94899484706512
5.9788243988349095 35.761505040504254 79.04077980597597
7.766767000373868 37.552596727049284 77.42997653080502
7.6980972702924735 39.77892427988301 77.33918732159327
13.390062913102298 20.75247356418938 83.60186391471372
15.2299388958677 22.057147021574362 83.13789749701834
16.05564878350671 24.048218748693113 83.61288286849913
31.187987211599218 39.56683431776687 69.85180233832092
32.40709899973913 37.95728807693146 71.15373118995637
34.671293281985676 39.0422095142258 72.49835132059908
7.294596445141035 41.97857403479376 72.87447327891535
7.315114714218573 40.0856108366036 73.02842475672624
5.975662924783645 38.87291765209095 75.00361513338406
3.7991409565006 39.23010036948634 75.98288858911381
31.64295747817454 35.30655404224909 71.00969009670884
30.94912520569864 34.4788907154482 73.0709764001921
31.47695610760448 35.63545602810955 75.18944159934185
33.353419874458886 36.73283232640923 76.05545478603175
28.19652969087011 38.55669492202205 70.0701343890643
27.632520054870124 37.465149360810315 71.83327460192947
28.377153259042956 35.245772906927584 72.42774526329951
29.022403335410434 33.21716519684758 71.02535388870369
30.903052752535647 41.07824700470365 71.82681702257884
28.75847990845095 40.29717339088348 72.40618343852603
12.724781335831262 33.32692225597932 35.8547755613394
10.219495772138117 34.220830456737254 36.467459325166395
6.300616947986921 36.30864488297751 71.15693885501699
7.26070832776937 35.17921623672859 72.93074896975901
6.420057838933351 35.33686134969015 75.37422346222499
4.310578218565881 36.710156270870776 75.94287931247216
10.84683143903738 40.50609768375542 37.21838027849372
16.37021095010915 18.56961953142714 79.65629412205644
17.10208068226117 20.317370895414367 78.79478297095154
16.182010911029163 22.56677190550732 79.7422140647279
13.837678549675134 22.973526031340555 80.87990283047196
0.6294350657453032 43.22180586160815 48.718636800501145
2.625929623588487 44.89016711549081 49.467572405269884
3.665676450638271 46.46035983158768 48.059989145464115
14.164247865462457 25.22005641334242 59.39887750348234
4.050668202276311 43.86417365319363 55.81257581547818
2.052421201798347 42.484415581490886 55.646082189326144
0.13011425203139224 42.66764521242881 54.19628202509838
11.008931420602456 33.36836712490125 83.702952767014
8.882632615766061 34.13984334765896 82.8936113070389
8.084326009499337 36.812589717361476 82.95391564594847
8.914534625617494 38.548427912857235 84.12531676990717
28.01582957215088 42.172299094353676 44.773926965443906
32.88857922654812 38.011895441327276 44.77986406509649
31.855506598358314 39.45615102092999 45.742112723671625
30.0963215887609 39.49191366506672 47.73937015802474
29.07460418920267 38.14671337315139 48.79886081735462
54.09389490962635 10.141350302387345 48.93717680948672
36.451086970966045 37.18964024976611 72.76053762478084
37.01236312293807 35.8845775076724 75.03052462170815
12.34418499707297 36.93532553905834 75.94768986303468
11.514948307161072 36.9151800531041 77.92676248114276
11.505130481289614 38.7191774403241 80.01880135681637
12.966813670982274 40.52482271950695 80.40178482855909
2.98914480073108 29.891949550721073 75.82321191486483
3.8213512683314588 31.911052836336577 76.91939814174312
6.570319224616346 32.497995303839765 76.14568827842541
7.872861895925938 30.503961361632786 75.28096070346635
9.556466696133821 44.01435231797827 80.27091747043481
10.773084825615069 42.19153476828717 80.40841914060458
9.971269441785005 39.721407940740505 81.98468002814066
7.328885560262918 39.304843911096434 81.64378402270079
5.542597522234718 34.2835408386336 84.29483097504779
6.531238444462745 32.40815450424726 83.45571050043205
6.689573336493401 32.35698054313259 81.04871770816271
5.261024619897616 33.18164925432473 79.2787956931387
15.069427690081618 38.35857918273348 80.02562438730888
13.737731795125743 38.06417846896708 81.54945147126509
12.97946056361674 35.6105441666758 82.16595830025638
13.778522225014365 33.76098951225361 82.65339812041354
9.842486947038294 41.3072207023086 73.19593772298988
10.623126578690695 39.51107232545763 74.54190403151185
10.55011746538704 37.037652875182495 73.73544653517041
9.434994477563091 36.051511728827926 71.63136044921029
52.36447269936726 11.752861863846313 46.2153754594216
46.29252367047105 9.394793903195641 42.28350573223433
49.2637839574878 10.431785631273764 45.40152623221622
47.49909154682618 8.364051513559948 44.58205156256216
18.696064316680747 48.68036481635336 62.28439514580641
16.56983027290712 48.43039126188312 63.56898483414065
17.06142839435808 47.12557868617476 65.93854137790584
18.29024506535737 45.83165281395085 66.60070974678986
3.343204251337382 37.86205394697809 53.48743253906717
1.186628918662055 38.110044587911226 53.61496471211099
0.2283584649489234 39.87973089052305 54.722898496171126
0.5396744036467727 40.62563334338297 57.32595162937456
7.804569997525152 40.27399826698015 53.732571861826905
6.143410388256192 39.344174114609025 54.02358880587054
4.118732385397196 40.39942143211406 55.58223710369144
4.4507296311966345 40.35524996393925 57.929087987435224
5.2725478549126885 41.2196148649999 51.96233496773924
3.712084256814236 42.46295475572414 51.106744287787
1.386081820498689 41.80557169793724 51.28129628682227
0.15337792993026603 39.34044651220653 51.08230719164013
1.4626610148755705 47.81784173539657 47.14809746989619
28.671916806904235 36.91911056523486 76.5312010592756
29.29234461724919 37.28051878219575 74.44371207139505
30.928617520332747 39.15337760484797 73.72600976315813
31.449725842367705 41.28361441368414 74.80377218267886
2.4366005525357552 45.585235384896635 17.362865276133952
29.177380405044396 35.66030491598447 82.04586249423858
29.057008398838928 36.26093049740563 79.44916737689805
31.13040403290875 36.183605438913794 78.18522612124909
33.50690077820799 34.92745340518582 78.90732190343049
50.03076526529813 28.84984820720601 84.64143823381985
36.03587599887564 2.3809225037249058 36.71400153372457
34.38529928477294 1.4041111542534184 35.44162700988611
33.00744282823901 1.897924942093428 33.287332795955756
4.506549862155598 47.126235031528225 50.854829735668666
4.1399809386094955 45.47025705722363 52.154064271761825
5.230623523659854 43.610645176409825 53.191239610834955
8.068478780263208 43.07275729800813 52.83451077284281
46.22013407823205 19.160793147287485 82.40281055279472
46.252260657285014 20.227524711942774 84.57161163095984
45.323112443893834 31.955911733942084 59.089310292043464
44.7861611505816 32.08115410901041 56.99098273038748
20.116773500690833 43.587524097090714 52.74708595969721
22.024447563478503 43.194960258770635 50.887785705180754
24.265595650996726 44.279995359814976 51.865420290722895
30.39716319079732 31.704416520218256 72.88259972060496
31.0564977081154 32.18675396049933 74.79901961713547
30.096580181637815 33.61453978765856 76.61623022190673
27.804259607267284 34.39533060539989 76.89777862318763
69.23299666909945 51.904011126740485 38.52591459222723
26.036029114072647 38.67386157585019 48.27748335070078
27.535535227547616 40.105236139204585 46.984075763461256
28.277285670405067 42.49545269696435 48.24062000264224
25.674939470031763 39.16213695303583 51.56464966654497
27.65925713873859 39.163987096930065 50.8990304343526
29.495284437326557 40.513714238469916 52.20532668672847
29.252255937637088 41.20123240009132 54.699141968135145
40.08782699857068 31.853868943748086 54.540668931039704
42.0088810584202 31.36400386891083 53.554391356565844
44.04797556736978 32.968556581753056 54.23291183000906
12.982648846085283 31.964935007789556 31.556323267431498
12.739802844318097 34.07315963182476 33.443089197904406
14.327758090812269 36.273866243629335 32.985397911805244
46.24642777179632 4.028865503223178 49.10651590788363
46.443696218955075 1.700450195342124 49.17769796637339
14.720564674486335 3.713144080540912 16.83947531854668
13.991449436375794 5.232321199995542 15.372787469876236
24.10901477139795 20.716906476390275 17.954453843851482
7.685766907443362 22.646995649656322 10.653133985819375
6.158176542401997 23.299003860385348 9.41966534897288
9.417609460522343 16.011109041959983 6.9704567461977724
8.716252482032948 17.96930064674499 8.217932831183878
6.372872724303978 18.345035866977472 8.779647722949717
45.77664271624551 6.5209047800362425 46.139086918661135
49.68591589215244 6.628163458076487 48.83027654950669
13.892845433598133 24.45120718493035 4.145407181226709
11.635598483772087 26.28679298854443 4.588658592329057
9.393740637481121 24.604725607378754 4.654882918316575
9.380590355092046 22.26179844800771 4.0039566720771
16.5705076241092 5.502809629051119 15.825120899722558
50.62491730456304 2.3166774309362577 70.1037517205152
13.142848595684011 22.360734476328922 7.2531038468890205
11.18147524409462 21.9864554100221 6.65975521423732
9.102540662100035 21.389853294415314 8.516166996667122
8.98307987321216 20.02602257328798 10.379773294904487
51.20756560602568 2.7966086702304622 73.04318338987494
53.12672584052262 2.3624518116159527 71.09471250797064
53.902355560168694 0.10921174176910758 71.02400902590514
6.811764928424378 25.16219147540619 6.851044982589923
5.440122095110447 22.52591485905391 6.450308806714408
6.775904348163558 20.531570861082802 7.16549323012376
46.358561516872136 7.308048880947618 51.565038303110995
47.15522992798683 7.6479214574945225 49.27075540306415
60.473096933423484 17.133581643421987 62.502378133675315
62.23761200001022 15.680594458484826 62.48832748632245
61.7973817342794 13.048180628155627 62.10863116002489
60.17653229952897 11.630157022631387 63.17959173719284
58.44466950219245 18.916641376080836 61.635847834978584
58.27808763123614 16.976498649084082 60.70997314112758
59.92059151536534 16.29554441706057 59.43774720489682
61.04968308944114 17.176583981452932 57.04778460263305
67.3589187946442 14.766596472975795 63.90356583053961
64.5633386049492 14.306101348116727 64.04236208298174
63.77635118822229 12.028690354265674 63.91996055528015
18.780651073625954 36.226404023974034 25.52487376756387
19.06872858550062 38.84167340065568 26.49416053933492
14.772823892980535 36.22273684378407 19.610422354702663
15.719817986698375 35.45684176328978 22.013954913870908
18.292082399801863 35.51615415999302 22.110403908955774
19.863328457563984 35.95365915309426 19.790876815958168
20.005731437394918 40.6017597611855 21.85481502651547
17.93519392226916 40.75456031760165 20.933917787085402
16.164757908719963 39.05108186325219 21.693921265522206
16.227839870929223 37.43917583462408 23.901824184067667
21.459347565941737 33.950397892869724 24.413138759440123
21.00921044062127 34.09471463751562 22.36084724452161
61.02086881415669 14.574038925253433 56.40416342289516
61.836177698682256 13.215166602969646 57.62662424892553
60.59337655027127 12.217574491803553 59.86320133395007
58.44101598684098 13.428837310461027 60.7718954091354
54.23491802393655 4.387924678322969 68.38697785021436
54.98813196547124 2.2919453810360886 69.09890028226435
56.69288000954498 1.4100468350546729 70.20773232141163
11.845791376826268 29.115380910076414 5.8211123798576105
13.028437763521273 26.79070332228808 6.820536197712421
12.202951774216992 24.88826634266858 6.7089033154240205
9.869139267687215 24.228323221482288 7.343687734529937
8.71700714819676 24.396101081340444 8.870785093124722
23.741582600439997 35.07866065659563 23.585167111767998
25.646681704540224 33.638839710001086 22.9236672953392
51.50124320815849 2.781758115964332 67.2857073920492
51.06044439942358 0.892649965813965 68.03682488610205
62.476047884951186 9.893551708284718 62.30509291272497
64.59713629163743 9.903127925505812 61.76024091994375
68.11734568392416 15.938416648492012 61.30604767596117
49.69718030036351 24.1708830992363 56.05647112665307
24.23645326580506 38.03798460038672 17.876860975034962
22.26180909639776 36.40771716492034 17.533122879780688
22.336013480566507 34.55856531223086 19.887291136337524
23.961629334227545 33.7212386437058 20.821400656763597
15.47614737456863 35.766011202783226 25.91743580014808
17.60107585107268 32.42668473333055 25.635686378177493
17.75604699947897 32.20057344885523 23.072747702671194
23.307773420365926 40.791779199275744 18.23990032202859
21.465709145108143 40.45450533993707 19.34549024579856
19.914337083150635 38.45665401196684 18.908302975764418
19.76466226241673 37.33894845686409 16.671596458470244
55.463306710854056 17.961605215365946 74.48515169570334
54.04752471552283 20.213263783327186 74.32869020712882
51.606329305908915 19.801348847859007 75.74961640642465
50.794423190010214 17.709289040084055 76.38303331103948
13.810366862505857 42.054200931960885 17.11750934322427
15.825813280987752 42.185562279255024 18.204307319665098
17.435287633373033 39.870249559661325 18.413258081711707
16.486630489780403 37.68328864699484 17.40595829815365
25.318394911462935 38.306565748282715 20.951698249913456
23.009055527343012 38.497780822706545 20.442931631837528
20.90770895990512 38.20487215803156 21.98279371982538
20.573666995633104 38.12792115495341 24.05954537310618
46.45576175366774 11.20142844667113 45.545650924421004
45.09331575488819 10.277981175686458 43.226994801025626
21.431403627690436 29.394022499209772 18.517928251263434
21.837785087459764 31.887253309306807 19.659644623012788
23.133614365281026 31.05957190888409 21.73970940412991
63.520594920234956 17.457277027877012 58.52411104981711
62.83656634255253 15.82630911542585 60.05657859622924
64.24253648939002 13.292319803545984 59.74626420521525
19.562494629073562 34.237516939894185 26.411047929945624
16.16478010913018 33.7487979051682 26.967532934946373
16.35222944376665 7.015943984270909 46.184170387651854
14.872070877844125 6.685409407751986 47.94907446884191
14.897918490861722 5.329894179521714 49.87547248155221
16.025599346298282 2.9863547208513297 50.390132181877554
20.86385906714435 23.71495707228327 59.57651186941519
18.520585710948943 23.109475737114067 58.432877286388326
16.41977581269831 23.910610835405794 59.116829413407125
54.15354623581909 60.40162360916085 58.2962736470182
52.30837024004909 60.70450857685913 59.853082870953976
49.80253233634425 59.912789711743216 59.000986307737335
49.5267594108503 59.09156244426779 56.33871919504461
65.32359590296126 44.35423616239428 66.1634157064803
66.418813513533 42.470934899727474 65.14221770742229
68.95845207685983 42.2315864318426 66.34206691073132
70.49358164203325 43.916828832823775 67.00878791826867
41.76896090425489 57.20769374492265 58.35387148100515
42.69489781983222 56.16534002433181 56.48349634548251
44.99798381472676 54.919804772002344 56.966285968855026
46.05289138646371 54.159467139801805 58.95461595403572
52.67936466283337 53.44043968427409 60.99836653608511
51.242496870220954 53.95327823553349 59.19234948951112
50.805153686631094 56.67016675284032 59.28711921868296
50.66653578599068 58.16388377843559 61.31021566760368
66.4653341506425 42.288729643275694 71.74719905279876
67.16076695813416 42.1218616933621 69.880113985603
66.03733410756811 40.757328780293776 67.97000849829669
64.25489863085096 39.25318227991717 68.00632638965973
48.059512894169764 62.06058530641016 60.759735691575116
48.03520894088738 60.46645734280134 62.20851137936398
50.076492989948534 59.6524993496154 63.56102713326119
52.30389693968386 60.945120839967096 63.96925190249142
46.72546876078984 67.0100238447589 27.50562768346383
46.10961969193582 64.3614112268231 26.577904476417793
45.793473032791404 62.57639350913731 28.35990743826544
45.5771615044089 62.83116981317927 30.694198097313684
66.64248053373402 41.772890075043165 60.27344432601556
67.48564802559136 41.34590085705674 62.27593644338505
67.25476868121233 39.88007458167638 64.31727618145446
65.89314963977286 38.43868286186684 65.40082238266011
21.600314576932753 1.1858516423869485 57.92274326142877
20.339708036857065 0.716229518533824 56.64807501657848
22.32223951170819 1.267147110915488 52.71192593252668
76.95334067385673 54.712377978883 57.18013101619804
42.59302456950744 4.387621475009513 50.6314954434387
44.49986256539458 5.528466520484066 50.34868278065976
7.331690936489652 70.45856427948341 63.903770981353475
7.528959383648423 68.13014897160235 63.97495303984323
13.984285266996862 0.5342612019392741 53.00701946843605
18.3907422103145 0.8592931661953965 53.44577222563042
17.953833939273338 1.3592173240184509 55.978017158627196
11.96256443726507 1.067795259496608 48.89528228309386
77.49978216937518 52.595146690378925 50.27542544650628
78.87193293119289 51.247695911578965 51.32233937476227
79.72977801372438 52.11976790941604 53.77695138832203
78.66336726555897 53.50295437543705 55.492616465720225
64.47406211766251 50.7554017436831 40.77197167373512
63.62695772933592 48.53519453386566 39.81332868543537
64.44067022026607 46.069150210713914 39.82473713073732
66.32099881656411 44.966176322156244 40.56990965672361
19.50925838528108 78.93660451502588 18.454278420308405
20.215242450170532 80.40870688510128 20.080540095965954
18.438922470214333 80.06108480830524 22.296803099000137
16.175014190973975 79.18232896225764 22.337881296883427
36.50596527093559 50.524450613733066 6.847244608134577
36.781272651428395 52.873563006005384 5.823526720294352
34.657713212910444 54.35072181549043 6.616548549411907
33.24025121515828 54.28234104682584 8.699329273265803
9.008714714438808 68.82299460471796 22.01691664785871
11.08123343422556 70.20400985798067 22.725861157619658
12.45885274712959 71.68952831280987 20.678240831721133
40.030813095978985 75.04589602421557 16.751674193786126
9.341341082708706 7.0305290274846275 25.80894946540978
11.518970562216593 7.614858677870532 26.306585857939137
12.771073853709597 7.2002626479128455 28.495907721804535
11.627524226246864 7.7111906855171375 30.536253034674964
12.063313329196108 75.32306855192883 23.42276671812141
14.43918342624608 76.27443173520828 23.570196053956103
59.263257735975685 59.0722966587524 24.118755130678633
35.04781284413871 75.89563123152747 21.553990935035433
34.79652510571978 78.07445486118212 20.97931331967191
18.570105826580487 76.35042579678732 21.08517302865765
16.957213956327326 75.68206216770133 22.007844653272628
14.567726613532601 74.91522999376609 21.54770429879187
60.963181714146145 47.37238462737263 84.96420700196846
52.86713650673573 54.79314577822933 54.87559057615325
52.39047896942154 56.95682923029842 55.76228759689097
53.8065832038478 57.75840506814397 57.86821451836319
55.7709936668393 56.54586437294135 58.76828541229845
71.37573790027861 51.42409411231085 71.43154479404508
71.0122903114772 49.615102393031336 69.93349932792547
71.34470507151129 47.24332166579396 70.08862377036412
73.07132042887311 46.06290977736667 70.84427015464263
41.10046453206209 75.38957527229991 20.098872040067242
63.96923517721571 43.41954195351382 73.55571873623535
63.60241649487989 43.067501983266666 71.41673193243626
64.57908558168404 43.918992332233394 69.46565558227633
65.5894634054767 45.666190766175056 68.61432944989518
39.40092740932691 59.45330182803187 29.71588542894933
40.33359550656365 62.03767319292419 30.277919356262338
39.8404298507132 62.689971300411 32.82178717364828
38.47678298747373 61.69985995000364 34.37185888651569
65.3695526553621 44.26395176762832 43.55793090454927
65.79390330937308 43.06509229871771 41.94912485374672
62.49145226836417 39.78217899073773 42.64094482048538
44.29599221536012 61.84985562138634 41.29701078218755
43.39738626861339 61.45865528365528 39.08602604974178
43.461226574538216 58.65289611191007 38.45967467745244
42.882637674103016 56.961734256363805 39.54055911832568
16.01737970119403 8.599523751112274 51.74677678874645
15.876484421341003 6.485012669075295 52.15485475254312
17.064504259654377 4.367275843790939 52.72778300913375
19.390518163732292 3.871961392720598 53.44506057863537
41.580844996601975 67.59344294138094 38.68042661122073
43.13703642346536 67.02466968420681 37.18346345583723
45.07848014236581 64.85299529891414 37.55693247096326
45.81728324071172 64.08316184345877 39.5726361721905
48.09923195586339 64.45444764333966 41.03452971452715
47.17548475249129 62.37054099874495 42.22879552037789
46.98569774814971 60.33701791970008 41.03042267422013
47.61525314323355 59.815095544055936 38.74567444462175
56.04084544691286 44.96467481845396 83.38094895482328
60.68189565764408 45.11694625146092 41.604126258781925
62.77077664514013 44.699230304037414 41.263404596854365
64.14925262237907 43.22120349508344 39.477046188032716
11.0987746967997 14.155699305814933 27.494691330208582
11.894810816409553 12.36795606277671 27.565864865807214
12.417080778324218 10.454306523998847 29.485425315820784
12.007168020360407 10.97529701674405 32.05228511884358
11.410112806506364 76.61997596321152 56.488282730902064
10.855131734173854 74.15891780050096 56.17143328397052
8.427384243475055 73.66569377792628 56.19502966332828
6.508522147524801 75.10640384684677 55.76124646915501
29.529397616527422 20.95863355955025 45.42486352086107
29.14590211653803 22.163649811216754 43.39090415466118
30.81157260230299 22.789943390980213 41.73652809769172
33.25000212190022 23.770444582689585 42.10999225744856
22.89854760319967 47.64868164548482 65.16314386984058
22.986383354989073 47.30102467433211 62.8368775642657
53.552980611464754 34.97174251423955 50.55133725562297
54.014700864833515 33.87564016757958 52.982150164697906
55.78192303467165 32.15212757692486 52.72652054634175
57.9915702757555 32.043717972553196 51.137086379838834
46.13723535720995 37.07624538282672 67.37244935133721
46.507558526350856 35.49370729492918 69.09271103076198
46.50782730370461 36.43366311749533 71.5534905956805
48.36633275002144 37.60406962785384 72.07433540495663
22.03151798550595 60.16318432583285 62.67136662841864
23.46321162346395 58.79476992725287 61.51463000211533
23.952247728784332 56.465816970221645 62.40956474837908
22.635418480946026 54.79434119641673 63.76626862142348
43.36506076126442 59.702100744522475 78.63903314250227
41.966178102905985 61.214693315159145 79.53481614590615
40.13315070776515 62.85470957713527 78.32026883400442
39.880802183979085 63.344717771415944 76.2471841673957
13.654855332119432 7.642794522160145 53.5047449211081
14.025660158855478 5.879699125056731 54.24694554704267
14.20231871869302 3.5772955613804776 53.15379270829246
13.252656416098658 2.4829473375681728 51.15268280724668
20.52350120378313 53.833256697125556 70.58424803239906
20.770237016626545 53.18666452151438 68.28840531083567
20.279704500918616 53.914230404515145 66.16491647273983
19.40714010682497 56.16494858465718 65.08289201462037
43.44326324826901 35.54904773108113 71.92100296026692
43.90112773560944 36.27626902696794 69.81994361167484
39.65062595192057 40.71210316426125 69.01666828594533
39.824646146482884 38.60571902992079 68.36756371423317
42.204360896829755 37.5849400602112 67.98420053913688
44.37609133307578 39.06632138082578 68.20064495759878
35.735355730057044 67.23891420562806 52.011184915907975
34.24272827268229 68.07132143881107 53.835773592190385
34.52791654148622 70.861816826576 53.887199263446625
36.870856147176006 71.97396334702162 52.91496560223506
56.389421609946744 53.70320041989475 59.864704512377635
54.58202611538016 54.09569160794412 59.12764822347919
52.93696117331741 53.33417480899299 57.21786350471193
52.55165678603221 51.62162027049394 56.0383037026383
45.08486862467947 57.33882797236149 55.43882562211109
46.96239022676842 57.06805647015117 56.473054507173245
47.19842457701284 57.77779609650446 59.01010553192911
46.02958883122033 59.694604305801334 60.34863102716571
29.24744967926432 76.6145625882791 48.3226676467516
28.775093429027525 74.43021802177482 49.404805708815786
30.91828122261319 73.16755338872262 49.75041200940595
32.71836752356735 72.86964892859928 48.240118644348556
47.74545080676789 59.336270770605424 65.07532861087037
45.804093172107 59.295597321088785 64.1088351861972
45.02287482603972 57.96269378991496 61.94241172772673
46.37474989007353 55.9085998392366 60.711970689269116
37.23180550771339 67.95260155442342 49.50883226871361
35.69550807689117 68.92115293044276 49.9825527158607
35.556160669473506 71.55740550991196 50.552370199624455
36.896660445634566 73.10090410938412 49.50341995954217
46.021152394266394 67.61679221897357 81.49007697036063
44.056069175653455 66.8058399967646 80.28276793917941
42.621854942496576 65.53383023464971 81.71392794194267
41.92082822627991 65.90997407200548 84.2551948806145
50.09259893444462 51.49006648103544 57.18621936417131
48.6954776962845 53.131221865985594 58.24798906564522
49.19430005870358 55.40072654318081 57.53611844247982
49.589285952990664 56.41848310099774 55.43053111213221
36.73095089300146 39.19708393346767 54.395618263697294
37.92980801574578 39.271192686263625 52.62669861578167
36.549953990957476 40.58227555722569 50.375466747883394
33.862405173746936 40.92487935724087 50.8488899665908
10.942364248494485 68.09706910384172 24.41973165882962
7.902445605115415 67.95008868005549 24.616028667136
19.718037703217988 49.34877806775044 66.05576126530953
16.343110382788158 72.68867663753458 23.327630105467943
14.291425746433331 72.67062318989602 22.655154450564726
12.53028857715185 73.1218990021496 24.936357706761015
19.112052703904443 78.89153402312903 24.7830049694777
17.38370270433843 77.23626869678687 24.19346373743701
16.821683465323197 75.17088890425138 24.97711473174218
4.971632926317589 69.8800705817725 25.937817879581853
38.55358301684643 62.26962022988402 84.41392932599652
39.32451342897029 63.489591656508246 82.50428992274234
8.817319856199314 71.45814184580908 23.365940800918146
10.023774950014245 72.06078638151445 25.019788478506264
44.027553026038134 64.10015052257602 84.93454873376143
46.051117282011916 65.06909535044659 83.25530633339764
35.56960640488972 63.76373681285478 80.19780173801763
37.424621827687346 63.720945874552896 79.1695950715492
39.75980525878919 65.34653387707289 78.95351729870342
40.50842735908731 66.8416507915199 80.47672167792075
12.058375412745992 75.71564227749477 26.923860780505443
46.49361034983477 40.98595621428856 23.171617512315386
45.45458057849146 39.597569426024194 23.88606116847555
46.4251883489109 37.63447238083071 25.372917259116825
47.74357488842718 37.69698568284755 27.108367861602204
22.83288482185109 57.70696396818532 36.32014470219658
21.07769368859267 58.73116410546257 36.85516345415588
37.42982210030762 42.575010460241856 53.43678401651765
37.667719643270644 44.50599883113843 51.891265149762965
39.883703483801554 43.581639457346824 49.85626031925923
41.7123053533916 42.69712224092773 50.38500552565302
35.823126202989855 71.91942754611718 57.430296301892525
34.386129985642654 70.15113076903707 56.827062449596696
31.64243133849533 70.93098946448838 55.895234491835666
30.831322569049647 73.2208086580185 56.21080666449541
35.49263717156347 44.69731260945945 38.22280718750503
37.12420536551512 44.764814133310686 39.770179022995976
37.23592055340575 45.01769471338568 42.49548402507527
35.427303100870056 45.53364549901691 44.06475977353578
45.19823413149494 56.00961999896181 38.61022973306479
45.86287250256563 58.04990565795455 37.89842096892391
44.9645743424908 58.30414545260759 35.88269200653085
45.69216551108682 57.683391381665864 33.485379463529135
4.030205142788413 21.432060094944706 8.535153556352254
3.191806124727363 19.461646353141177 9.35390449112295
33.805718152365735 44.551850071100944 46.38683921970373
34.53170188178678 44.372293566548606 48.748029599995846
36.95925043227069 43.397266331743566 49.1690524088209
38.426687677013945 42.494828413772616 47.525205414840514
39.40980979682143 65.16484266284192 33.798460078514765
41.180247169593066 65.7710317362399 35.38859836810607
41.96919108066322 64.10557368931832 36.893293489407114
40.915370616524946 61.40504597635382 37.12028479689108
47.54581540911299 61.246301735233416 26.499660672370897
46.751804618558026 59.14356883441107 26.84194553224884
45.98051895752409 58.66192005075924 29.087788728494104
46.59989515884189 59.99988021380181 31.43525550986519
42.89461832670442 56.347288714090936 37.04023002132978
42.69817416716536 56.80021168580527 34.996434162543686
41.10790087457424 59.02168960700899 34.48196574635014
39.409172560539865 59.64094981833859 35.691803285192705
43.533812126819335 56.075480816495954 32.52849289392909
41.78834189563985 56.369523546025 31.712575924286355
41.210056620528874 58.983362210971954 31.700888103044857
42.60479428758894 60.65266278026359 31.162709929411857
42.87449170140187 63.152950429395496 25.53439141975691
44.507755071937304 61.492126971350174 26.27615992143379
43.43088640491287 60.15268220445845 28.09726584878203
41.48734605473314 58.67547976564911 28.21647327869269
26.70991083867469 47.53548837405164 28.28302496918808
11.426764506624249 63.63696651775295 81.33964997857464
34.137207438600974 16.909626540079827 60.15607486455372
34.61777896499891 15.048112999516256 61.7068228940366
33.422558879041596 12.74815584886337 61.74674759763759
32.12613568491013 11.748213148773615 60.33093208693982
26.41396864802323 57.23144037488197 58.28890010459572
25.123961043317596 57.01893918387158 59.981439100232095
23.87978318329191 54.87462960229449 60.17963483391067
24.238750824083596 52.959986969285 58.39662019780661
26.40469984898434 50.94710483027058 68.40626849105463
26.662481173646896 51.66595941977902 66.20491473640797
26.393123815429355 49.93984778528041 64.09307702766758
26.11486774287553 47.74138017533541 64.29938318934724
4.244929374582173 17.273220828593626 8.119413454213873
12.772158193778765 5.567080855480915 31.841404872939297
15.163304608149856 5.523392201993434 31.151175326210318
16.174836453562353 7.811536687178163 30.535486329127608
15.536766864741649 10.057049002426131 31.448994377541485
20.710554727748796 48.87787448255197 71.51636844969944
21.083069931985595 50.597097842953374 70.08979413892247
23.422062440347553 50.17946018883151 68.3628661933642
24.837214390855173 48.33315889517485 68.47147399889818
38.91811308597392 4.759413834605965 46.6144658792731
40.37674077505029 6.243259018090107 46.049721108178886
42.17552872446651 7.1940051784923895 47.53609445724558
42.02736514439733 7.247335692667372 50.21815289304038
23.929230012793987 47.95829976068165 60.25959505206611
25.315992042624792 47.606483516807295 61.621144757076905
28.096528878058 48.381166718743046 61.914599653537636
28.815752898256836 50.528974740964685 60.425380164465885
26.73505869406077 54.0079577419342 65.02351444606867
25.43905683176306 54.12531677213273 63.453780360638284
25.32011287394918 53.148045426509746 61.229164780064565
26.979747717663027 52.50363516849228 59.55471660217693
41.247861416684344 4.058595909367722 44.79261910167739
42.969022607660754 3.3369280567444517 46.175598838217944
45.32048912003349 4.548529824370317 46.73957364252184
6.861905880938855 72.95060355629647 60.93634199213097
19.089843887835748 49.628725706438324 68.56721184677271
17.71722376777094 52.14270168632665 69.04272962631698
12.062584633820896 72.18719559748605 57.61206252393031
11.206044020584043 71.81274464321972 59.6814114944748
9.435958947672832 70.40700429921104 60.83285251820292
7.569770585290526 69.03260458528912 59.82464909474709
10.121158719974742 67.93094724073062 64.24276699205328
12.160383766136889 68.99473222892814 63.25911884532895
11.631285750572017 71.20312823619109 62.72332966983275
10.77117905684578 73.0578622343367 63.627531622976534
43.56939179629911 42.3701615085847 46.77549037068707
42.14383596587564 43.41176345720977 45.280098765886265
39.72303527791178 44.18976966078893 45.8825620600277
39.044072006769774 45.43164502662096 48.10767875629742
35.469195037879906 74.31293746398455 19.414325394378558
37.90590301526322 73.94338011539821 18.381477809017177
39.03123873031468 76.52745454717565 18.739827777542416
22.19504216059521 64.15225718379723 84.65993148387436
19.93779521076915 65.9878429874113 85.10318289497671
17.695937364478183 64.30577560624563 85.16940722096423
17.682787082089106 61.96284844687458 84.51848097472478
25.09155259096575 52.54286303417243 70.43995730433545
23.212787339526482 52.9370720529342 69.59009181711049
23.250670964643966 53.9532832409255 67.10017562500953
24.6027745946211 55.81550000380902 65.97603810116019
47.59746769576318 0.010293748790469114 72.70270057022165
50.06029612653163 0.6741828516100034 71.94974348805292
11.71018046925638 68.74637620719648 84.90100679398505
