41.82557038265414 25.055239139634992 45.4074011506588
19.18750553352514 54.51267075625244 78.91461411429972
17.227671302177292 54.96378353093333 79.91050194270946
15.519487898343225 53.01723370270713 80.6036702507376
16.391385110473497 50.4508120542186 80.72355775935014
53.284760519013055 20.643402405435303 13.518741220724449
53.03847838613316 22.842885512024164 12.26688802602591
50.401017020400744 23.683496117822504 11.684632166635817
48.79024917473436 23.158709304793515 12.577807765122701
15.502848836979323 17.17459704005691 17.526062138710188
13.530036922885849 18.07181284391741 16.098373598265223
19.31953697090537 26.31030756082913 25.800357405006327
17.969746532430538 25.181185512392933 23.376651552151852
18.439273618387304 25.228250696942947 21.197276371717333
9.663027534494454 18.249865211965993 18.1746759806297
11.800506099643213 18.48630422878111 18.491387165439484
12.669710074928616 20.768701236535062 18.8404444868639
11.932538303642415 22.800998253181945 20.005871455176834
17.903439339792058 23.35744270099913 26.4324371740336
16.42478049117414 22.41745910106792 28.056004599100937
52.556156084827755 37.08992136613263 83.41579150709742
14.451745029726418 19.973926943039984 20.70908612285532
16.75721776114446 20.963996117150668 20.231403814485606
18.89696980840951 20.042580504202153 19.151145857235218
16.41507198409867 25.62235774903703 25.743099664613133
15.09664110710901 23.795776614317454 25.85870183548876
14.051860902751818 22.96916859680913 23.38756264714273
14.062226610893036 23.94206547625821 21.35004802709988
9.898452694472722 23.923630370159827 40.31537709694968
18.301842306422323 20.643854312847175 16.55929691884242
16.591516372099637 19.230629786651157 16.082210961656685
15.786302589796083 18.48506623662875 13.750720426721587
18.720805343786378 23.846179737344325 16.178989158758313
17.23391759378896 23.10162791065286 17.622115151798237
15.815696634167493 24.14837511398929 19.257150329232335
16.34061404694184 26.56795974436974 20.36056463362325
3.9657695956289767 25.04413406093566 40.124675542921416
18.09265682610361 22.400499089823917 23.96448122049768
16.209712406339023 21.006981412915724 23.28902385272981
39.70786606206827 23.14327721416327 26.645325051541764
37.57307258001734 23.12232845176731 26.16893588695142
36.975360886605934 23.892766367285713 23.874407899186547
37.34196779291792 22.72150324892009 22.072146901949683
48.241109801376346 29.666110950238803 49.391931273829485
46.2071126717216 28.178246389601203 49.43236513599518
44.995920542943395 27.777240154252755 46.840657882765285
46.26193756570692 29.335487985137654 45.00152408100145
13.704430500286177 51.17410912735756 82.87826424400703
38.322030302130734 34.49173813923609 5.507792185369693
17.555816243994855 52.66490095922433 56.01077672674216
18.387111357440126 50.31222012386734 56.26241828645382
20.476646405167447 49.740661242451615 55.184242311702704
17.801333070356527 80.6859427671436 56.739933241348
15.474123311199369 77.3652934437054 55.498135747175304
14.734211665696723 76.35029149814451 57.96208003134255
11.08954247241475 26.188999071677763 58.39282083975781
9.386666307090925 26.63087963031138 59.974536546277164
8.97128186662752 28.699376457267697 69.0361733354657
7.565301341125527 30.69388291589599 69.34979516404343
8.91063463898144 32.5980700740601 67.98698179742611
9.330488991800616 31.557759540932782 66.11404051805269
11.361008213269882 30.05310189921112 65.32576525411305
12.976526150350868 29.000316955904733 66.46831253058299
46.26977314718054 51.71483296040186 76.97582693301624
48.34036633872589 46.89592216838885 77.52432626317511
15.885225923223325 71.03381467370241 63.950203592695715
17.193730664321528 71.43433151853034 61.7350178476867
2.862323008122208 49.44104836684332 65.53398000427788
6.121926571536766 33.09580749984036 69.11465401725181
4.895689905836578 31.187957847551043 67.53036938467888
2.6458815580688233 30.939766017268532 66.74228271221426
44.168902330841625 49.903687522568006 76.21165023103593
44.8430515230497 47.53431972319501 76.58978193762333
42.398662650672996 46.11054781645774 77.31481194145658
40.32885967499977 46.74209187582793 76.71708868422041
16.780480219273517 74.92229558382465 59.3994979905062
16.708070921824866 74.2659635979009 57.54078447452794
16.78481351622133 71.60180671481368 57.138943969163876
17.706807464844232 70.06261961008082 57.93158639191852
17.077795450531752 65.97780806418467 57.443031201377025
18.153434550477193 67.83004186685838 56.64013279439366
16.449339732445186 69.84927447316258 55.370708377869946
14.338425084627772 69.54039311436014 54.466474258320815
18.488047101461156 74.39591463013463 54.54077565413544
16.35681115039672 74.91431620814888 55.09231587815648
14.482545028931353 73.39197896975816 54.717824826248794
19.996939425569042 44.68207064586415 50.745498000544465
18.449868249983822 43.664447167258615 51.91086436043953
18.14199985119217 41.063527038955954 52.802899994526065
10.081030192035517 33.27612817960574 61.788190138119454
8.804326458228836 31.55446030143349 62.01096380213628
7.279534144366171 30.85071568817036 63.77808144832866
6.864753241615544 32.64253888880847 65.8372766440321
14.718318401591507 52.29244297291357 52.4995823960508
15.190520253814322 49.88928754712506 52.83866697166148
16.016660337599447 49.317130795706404 55.30036918447505
15.23067546461587 50.106719588924 57.287255127287295
14.205767428413541 68.3468582835814 64.07134990586918
16.24097296117422 68.20845350036461 63.4446199674034
16.904575768289064 68.91208101137065 60.99456847485613
16.184473053112672 68.01598375640036 59.11809649371055
18.291920403946964 65.85400861294319 60.332292994267426
15.384236146139912 75.36795579474206 61.89880937063433
15.359448794298771 73.2330052092139 61.46504645422387
13.592347547428176 71.01142182644352 62.1190882104039
12.058737888181247 70.54311247348762 63.018193807644735
11.503892397080449 74.31342337770438 55.33283878880046
19.002511946642844 71.7042945757499 55.15892273921275
12.333485137686107 71.11555926100483 55.674417404178364
13.995983296218347 71.11155892664439 57.46783608733677
14.33630120238503 73.13934489126311 58.7238778431133
12.94571709397185 74.87427379856523 59.618968396229604
13.413997961143302 48.83836391253664 59.274887529158164
14.223794866980034 46.433164236259245 59.19447508122338
14.753043880139595 45.73692731815949 56.760160428527605
13.997326583888464 47.313561945055326 54.721696284646754
18.93942884703398 53.92651565104332 53.69241977404264
17.190187323453845 52.47934706410063 53.06720094090226
17.993600592988415 43.19028486525925 59.40387709857962
16.699812969169823 44.49334040095186 58.33070255447135
17.57297158456615 46.41595426100082 57.20998267953694
19.06827077948049 48.45792139237034 58.10006814744032
18.320123771444678 48.75481726842426 51.22797496045525
18.61957355195031 48.11030502075914 53.85166028903403
18.472191950890686 45.43829118841766 54.80823420604237
13.419212854791716 43.45899866909365 53.59035008011097
15.738665656176236 42.85754840581137 53.07487341949841
17.5332091863244 42.78900389793403 54.903788987997366
17.62405098568751 42.113270304032994 57.093176582780636
19.92037183200687 41.99235515390678 55.043938251773895
20.08053211277019 43.39324364914871 57.524411302118715
30.355734579028805 35.23345822300236 74.62949062432837
2.2521847201182363 27.712716677173855 67.4436933413627
3.0668895767910405 28.5269409885953 69.87533484764533
10.464884908359682 31.530184235904812 59.60783129169838
9.896810210086548 29.62722761996313 59.96151725467023
10.744975820180379 28.301819305438265 62.280966842919575
13.358261441029436 29.30215296139736 63.48842021107713
5.646351960946696 28.45700514945083 66.89372522784369
8.040883226336538 29.220951443379057 66.50388810874341
9.79522025954714 28.070801659306817 65.19449857576505
64.47268592588492 71.31230164770399 68.77929839236234
34.63760134180733 68.88134254307883 69.68137735193714
2.912163620262133 68.81058936781349 16.78055083199755
5.110598198829188 67.64576255727155 18.04727548751603
4.930876384414505 65.0962168943208 17.523263497072676
2.983246999169766 63.84551508645003 16.99419595509848
60.14982698019144 72.17994172811753 45.46784842128486
61.11821370136493 71.61594898958421 43.73551857521666
59.90479835110802 71.17282888976867 41.55978643536849
57.541939550186754 72.50212465170219 41.16957029909395
4.593562532305305 66.22429994018958 11.612999851940883
5.276857530764819 65.62380524252025 13.507062960048104
7.3259226708120595 67.07372447901356 15.096627182709815
8.842813689068642 68.8874092436923 13.92549407770931
65.94762396904187 59.24784272416826 54.99726587333058
67.11549760319014 58.54429230362285 57.244366820932264
66.98482543865431 55.779096626272924 57.4243873202604
65.68199881412515 54.364915966961505 56.990469712597964
60.36140550663841 13.183393741986917 16.86820829753203
61.030509630792885 12.358711608201098 19.165226310621545
63.94090939589021 12.393800568190908 18.74693654291947
65.27677419106712 14.277262622354938 17.839154078059067
10.211095545581664 66.69830231406996 15.999259250546979
9.426201172724014 65.49107846861222 17.47499644058043
7.563954084386529 65.57260347710138 18.53746175675432
6.662228531802004 67.15894035791723 20.296937351691817
68.47663802612774 58.06194059294779 54.634805651758384
69.35437867424373 58.384645646974846 52.32301474025736
62.161440118001444 64.37772138187736 70.18471434841241
69.71213909433109 51.459424380229486 50.31715161042037
69.50786870561637 55.18151011265988 52.741667004022524
67.50772286872203 54.199901087459104 53.94024899899388
59.536216465606 34.92456954368585 66.78067450872736
60.887042103626236 36.29546555675471 64.92107446880782
61.28123690792617 34.83242799235164 62.76919811321167
60.51519166429856 32.554687763264695 62.84529745206774
61.927752345083356 68.40863242891851 72.45519401741609
60.616176172626126 69.97215492293446 71.83070371870568
57.11863464360032 72.59514136058252 70.2590388067859
58.79630519046734 71.38758021741629 69.10253932897969
60.856089900934485 71.6810782068752 67.99060965791452
62.620862295195735 73.42340385414275 67.88640276415093
66.68389476966 51.70989679990978 55.51084171425656
66.81360235625675 50.90247972377672 53.8290608949201
68.79324371641677 50.24269768598219 52.51583726434083
0.815912931682336 63.851080131783455 45.39719227153949
0.5908607799495925 61.87360670009767 46.11907535761579
16.93934968083207 48.5176375686876 4.958663075953084
16.411700457625653 48.68588004220935 2.9568129071928446
15.92167581680885 51.010932424019465 1.7894302181288837
16.954109090562095 53.01071155009725 1.7787183608125936
61.53712666468047 84.1531661218694 25.735149727137518
62.38187400414903 84.28706730218786 31.018654127691807
76.79416429585811 58.00920089721214 27.167211165447284
75.32708355240248 58.24323321896699 24.80204304598254
75.65847415737447 59.47372103723339 23.031516988936055
50.20825217601859 71.90962848316906 14.133642060380398
51.129686032496686 70.92775720193 12.456283569146366
53.76899450916004 71.49237133682439 12.379811242382491
55.362958090769624 71.13555549695077 13.75509627260026
72.45829771240706 83.32645610474522 33.4489704711421
72.70491681192775 83.39196459789261 31.63850960011085
71.79588750424146 81.80211094461727 29.778690057363768
72.424913593695 78.97206359286064 29.802133450833207
66.04106179832344 55.30095650877086 25.941435666505633
67.43063337212014 56.80951497771771 24.764287414343418
69.12844916021076 58.46892090124907 25.737244549267633
69.51771604344958 58.90569852012695 28.458752910917383
76.5976903987504 63.27172849573624 19.976854520176733
74.07440943518426 62.51002938838494 19.48505574676068
73.8961061604362 60.23600287510163 20.220243923435056
75.96490365412572 58.518999315172195 20.24740401991611
55.614304290267214 73.07100464695739 37.15489344383655
56.871791776695545 72.15357227702331 38.50633375258725
57.5990622046862 69.62885709894844 38.428856926309756
56.1616693187525 67.70381976648642 37.14166991809276
74.2940142599217 53.796315667693534 24.993543878946912
74.36874972250743 55.90208896677733 24.02397066451895
74.36967462636642 56.73865485562649 21.6066128619382
75.72622807854898 55.90623387061518 19.508965219702283
70.84900764503637 52.298215563684934 28.07613781210656
69.62263931871279 54.75105638492451 27.734083746872592
71.7814148936714 56.65853259849914 27.061025858095046
74.11641564684564 56.41504294807452 27.49562252876765
60.754857362717686 64.34959669312185 41.44271709735277
61.844051118271615 65.64184479261345 39.42159186022606
59.7698450259391 66.8928521167183 37.95143363020877
58.03097808577602 65.73835779777525 37.03819010649842
75.50101439239778 62.73265238974421 25.394308576182205
74.35960179975304 61.67442153649819 23.742109996248335
72.71087851866623 62.503020601520284 21.900611275497972
72.1199406240447 64.74647263812467 20.879536141105607
57.57448241577609 71.23690352673246 45.57672947957415
57.29755045065548 68.93936524316763 45.47251149249676
59.513830328774496 67.70085347043712 45.7549679716514
61.39828097622934 68.07123391411135 46.76548199197239
55.8974939765308 68.48278215291512 34.384893543553844
57.71696375280883 68.94853736457549 35.02317168096765
59.941428979727135 67.621212433098 35.21776694853886
60.66711606408066 65.64827143497888 34.06801711144652
3.445558696218624 32.7842347220431 9.611450082972535
4.11796604750332 33.634525835602076 11.364734566186725
2.8604320223843502 32.98865434063491 13.834761453379544
1.5036117756310912 31.104188667598805 14.616809982526393
1.4022055997848935 67.88732060375168 9.688913482376167
3.2582444395476 68.63038087999581 11.22851667668116
3.5518343870746767 67.97716110388403 13.663809144822311
1.6214748254667555 66.65158839885152 15.126614269483213
51.00199235907861 17.511271887604615 31.528271660085515
51.988424835773415 18.892735471416795 33.06095688912428
50.65976401698999 20.403763219337062 35.059231236797636
48.093865071670024 20.335907490364207 35.49859451574536
7.086423009057226 62.97142349964123 41.800780526115744
4.612193060255959 62.86832105183313 40.384258097401904
3.673173167614593 60.245568229966835 40.544625766462396
4.890782564038446 58.37979020375941 41.170043899645606
72.52093103137891 6.790176359285381 22.48101970274936
70.5966779994054 7.099214365776386 23.392782281598407
68.74759857140967 8.23618718254896 21.762829299674586
68.30822327487589 6.915190951928192 19.820299584909378
59.66621628613225 67.02001927036015 66.79589547933595
59.86889576842622 69.09204544879694 68.0237365019853
61.96594282959856 69.55788132849914 69.45182521455631
63.82035682731232 68.38546887223595 70.13229632313158
61.59992940784128 10.037917500405507 17.62659862687716
62.873604288031196 8.787277459651925 19.358872165185907
65.10678316251443 7.489747539866358 19.231510264012975
56.255436021067965 67.38016764697578 74.5390936925271
57.70968380439445 68.8861410154095 74.85824817863818
60.205961398402856 68.17804929145555 74.79300437390653
60.911790089224624 65.51781088494941 74.80221705876959
38.489146028321855 75.63384328267283 78.87793378102303
39.705148180608454 76.09912505627194 77.08312646082955
41.266726058305906 74.42953896825382 76.48553441753552
43.25658008698097 73.26117530396229 77.78700575261674
66.10042703873775 5.079993768259565 22.57665748409249
64.22963839174207 5.339635598200998 23.705173752096815
61.806336443897415 6.21655058100286 22.149080073584578
61.54272318505901 6.335149072929461 19.7563928366589
0.7495284294035893 54.185590645511894 43.63373778417956
2.9982247503216812 53.89097110694703 43.29704274639236
4.293958247505268 55.160016100387686 41.55618912246548
3.6120171357250612 56.23399744764955 39.40919370514727
10.57337104207181 27.0314988915099 35.78781239573797
9.149144322709919 26.66986176594507 37.48482389236335
10.288340270713073 26.818800564323706 39.847096115487034
11.789859537460826 25.87311217633971 40.76736615486359
36.040426121304534 75.71977631126322 73.6499152839401
38.25087808027174 76.11147090377445 74.39998777444808
39.92392906278813 74.27044748939977 73.9025718352432
39.32576179025091 71.72427993746258 73.82439845911259
45.35164228936274 74.02364792576388 75.95297969365888
43.62899286314691 75.51243456018754 75.43699891980242
43.63666815386037 77.14889501070397 73.05421092658403
49.4023219911512 76.78198857071108 15.947109734136724
49.78860534375859 74.8990857271417 14.718953178420547
52.53265684226528 74.57456735767487 13.909454943153804
54.251227122130764 76.72065125160057 14.25688356929942
40.749578846925985 80.95640355278917 72.77632341050396
39.4443977744141 79.49027917036945 73.6662778478261
40.42798928604636 77.65388297557946 75.14688302876033
42.64768878318195 77.82305438550347 76.52082874280605
52.566343894399026 70.37344833913419 9.553653232683168
54.38287511156073 69.17139177261963 11.040553248754852
56.24793169358617 70.82085571329361 11.038910690029715
57.6040189285083 71.61635129691135 9.098396849491492
52.801761836652034 75.31078073361023 6.925103718044587
51.94666611253732 76.38414078056867 8.551465268505943
52.61485963071187 75.87594933884084 10.895786522934259
54.91034599377413 75.65469060173146 11.809598559215871
41.256646614410585 75.79028515170927 72.0949055549299
73.86221248547236 39.54678619546397 34.36657070941315
6.209513045696673 10.218070140714605 43.06990365608373
5.523765058601961 9.422792051185466 41.10184494069056
64.59409288968597 23.473209790817545 70.87368437275168
66.21337675367518 22.734607535654973 72.20472950466447
6.755606512494514 7.337675753452793 33.59769675558804
67.5376002754886 79.40558298756267 54.63620896630805
66.35472076651574 79.5911801441795 56.33424956554919
9.733349996663328 9.010263597757682 34.77277828017724
66.64984441466692 82.12942659795749 54.76488688003815
53.585177287242 18.106579261592085 82.95540649665
59.089469252077976 15.129640554898852 62.97705466706327
56.77730268360989 16.527449828733207 63.96199296494509
55.37552962895728 15.820999407491005 65.57800711293098
10.27326384908525 84.16699963150884 45.7385170559935
6.422276008839542 84.39919430316526 43.262169454943596
4.521484661595999 83.05021545404377 44.24707127963454
2.6150038081741633 13.071907823330193 5.467106256934992
31.78366621677158 50.28413671176502 37.91349537267037
32.750718570881254 48.582597613973434 38.27010447381363
32.50809877134844 46.75186501624429 40.4329670478083
30.32915452210179 47.16350751311174 41.85256092702516
72.7457261394241 77.93051618727797 26.976749408292346
73.29482112190324 79.97170364052234 27.376223514210174
71.93440792390162 82.12217885611007 27.182825850805933
69.39101390364965 82.2255390999685 26.22541288988312
75.8986767717517 20.184921973565846 35.882637022243124
64.19981031014277 83.2356106995638 27.227025402443598
70.10409994967972 9.880204431864087 46.11350559340832
69.46215223727567 82.42578734643502 30.58685874577092
68.1752293150958 82.9462156691687 28.581832509774987
65.92830767570771 84.93309029721487 28.852446765780847
59.100929545118944 16.725747280646246 60.48058406699375
57.86201699221158 15.732144069190968 58.931005982282876
57.82796980130669 13.190604083976938 59.28735651719996
72.38936850056365 84.65027143440312 27.449394738603967
69.85519646234992 84.78671641670722 27.51636427980088
55.82242486277882 12.787764404919285 61.45448381862108
73.95699195191266 84.6559394362949 29.460477025234987
7.074151837710104 10.200519622255769 35.04997109401124
8.001297797734555 10.283275165412215 37.114552366054454
7.0567745441822725 8.73596073083165 38.68175373528006
16.98638790401346 79.66650081429448 55.28362036396057
6.029298713404515 78.7835352229114 40.320210595435285
7.771337431813499 80.10626634372002 41.27110968142655
7.6758575909406845 82.81026966592194 41.385232077534724
5.698525860989674 84.16129166855336 39.96012650632188
68.91301145565626 6.415017446280651 27.054082867846486
67.45276823797515 5.618611673542933 24.945634826493244
67.00654239549294 7.681882150910839 23.583320961166407
67.22293100507244 10.030704485225543 24.062825326396144
52.847894685748976 47.20119387700266 38.4327848543702
52.9948632898647 45.00683617349448 39.002548751511455
55.64934124486764 43.93894069350902 38.93159007555528
57.75234026044378 45.29480272460006 39.324453687299886
52.95236768216238 19.635156883432916 36.37884612463975
54.14294944399217 19.030896057955477 38.03340170222377
73.82542391778705 12.572487271046723 23.623520683584537
71.69346927378669 11.492792977658873 23.105040701169564
70.04464106750993 9.841367960183263 24.017594480732114
69.66978605926704 9.18265503517362 26.22575877153814
73.50473017887772 10.672214472437982 21.224436819848936
71.48972148391647 11.174085057113379 20.20836771780048
51.42444937336799 13.933978810733237 32.165625173946474
50.826695552453586 15.431745601236276 33.65605329454328
52.18570241995367 16.70321720316174 35.2047986190847
54.777513145709065 16.622311313817857 35.64179179337878
46.829932816852995 18.370502996356368 39.51257178909206
47.32450329702978 20.500883959034407 38.74340503762031
71.106953640667 13.723068588268449 19.972313404960175
69.37293111140788 13.502028094720071 18.788009950060754
67.23328053547006 11.811702305931885 19.416308168919034
66.91343669935554 10.516939841933846 21.36282130200328
14.415112176546934 21.292208921002533 44.73113975118855
14.750986335791474 22.584745482276514 47.002387933462984
69.77224149700481 48.82720565762054 50.13768907861578
1.7053509264664912 39.711046659266756 10.623333290822519
0.010559226223750204 38.5640341330596 10.071668944262386
0.5925497648158733 34.881863414995756 12.721928485291134
60.93360711733811 36.65081995664085 35.519996163154474
59.30817692682788 36.01404226136968 34.08077161815084
57.60422346977274 37.56980358966201 33.56296587876243
57.93574271181487 40.279182653039705 33.62509680455125
40.9675269404164 56.10505925997111 61.494156558594796
42.80828691390738 55.878608242611705 60.13516732766783
43.75383660544416 57.203859270128014 58.00036516983644
43.11414368551218 59.02810460851306 56.78401683150943
64.70057807086098 40.28105245403803 45.393625860066756
64.17502423763676 42.47856145157151 45.56245603354384
65.29738763346494 44.302690427926095 44.30543480383201
67.88903493823287 44.916965660897816 44.60135184471541
2.2531762304718352 40.80799990767475 19.041147582144607
2.496589140377806 39.435103427802666 17.582645981430467
0.7499166932330593 37.65476484508566 16.880167718794205
53.65987467067289 49.65873290840025 34.870913571899905
54.112512886294326 47.62906147231364 36.032465951443676
55.25587382402433 45.4464606940183 34.4895102478928
55.74612959562149 45.45773195528472 32.152795190552034
55.28546389607733 73.79418680274574 14.352591977372128
56.710305001563675 73.43881405200067 12.846980168263208
58.66751306732737 75.0220927492406 12.03588405555119
59.22294873548803 77.21298509639732 12.475094950808508
57.32471374618512 33.882224858978915 68.28997699044422
55.540183825441034 33.528435111558025 67.12835161159107
55.08380044443523 35.147395987080515 65.0506542571676
55.75829916269347 37.356909461002815 64.51483470870514
50.400934203761935 32.52108670054013 66.95601265631801
51.09548551027218 33.37862705705951 65.4272142615431
52.73278562777742 35.06425060671269 66.32908462390145
52.61767069584181 37.33414310024608 66.96935922036384
56.863185318250935 30.919557867807274 61.280798760276895
57.9299306804728 32.31657266585719 63.20089298038825
57.5762173744901 32.587075210156904 65.39784588340144
54.49039075704228 32.50298405840703 60.31814650614255
54.223725743052825 34.46311336386502 61.54122456708774
56.51189219379195 35.73618443918546 62.28730815780629
58.61181390853336 35.38407363765571 61.4881817637613
1.1844420404715297 83.93517217710858 47.4873949001056
3.4539095838009177 84.73328982811434 46.55075482299357
8.914527070761869 36.694937810278404 38.32912069017456
7.555545117261095 35.07544371952808 39.2975064123398
6.639479828104075 33.05027393495889 38.23039821722428
5.789989448087369 32.385312491328406 36.260667895188355
66.98158952080396 56.78997291755346 16.994172040979873
67.75973196519043 58.47102993938519 17.80677936454454
68.21042925108583 58.916493853795664 20.197552130262146
66.59309092455635 58.10705962404 22.328680761581452
69.28367177072461 59.02321307183203 15.268214068436041
70.97311287313984 60.17318067231392 15.94008208004691
72.62451028547181 59.59049050617198 18.02655282481337
72.69425197789417 57.63598786606287 19.03558497401433
70.5420054752829 64.14112568781078 24.5386878889134
70.0395420611067 63.449041900866874 21.902140335590683
68.42731529082029 61.114586173058086 21.79939083713185
67.26045609853645 59.959636613126676 23.797571716611813
28.836042895512453 59.39359951063214 83.28813065002707
30.154799933217618 59.409715091082454 81.45130777759157
32.68502589338779 58.5724072437888 82.41287340391682
33.27575488240429 56.793768685330264 83.99498422420868
69.73868039009334 55.72467549207454 24.394376569430417
71.73308571680127 56.891553456040114 24.529679657087666
72.04943320187722 59.25802768405381 23.290583897287544
71.17498105001722 60.130044575414196 21.079456926563335
67.75475838523398 60.80703102020077 16.84169640541812
69.43091450159497 60.69076776454149 18.216317810032326
71.29118086351741 62.13379238112346 18.73331588738592
71.98518108700571 62.33870155071551 16.97337221391698
54.14094719647644 48.50367598367984 30.788119755403784
52.660483610846754 47.91273087675173 32.69690690709451
53.083615347794726 45.3376642453048 31.60245499567247
51.55140504820741 44.26783526987296 29.623864029309264
65.46443942827965 25.341911263165 72.99560439493757
60.76448922579066 38.884957650291966 41.33021039698352
59.70793163874202 37.68397689088341 39.57724948641753
60.56139223468773 38.48072256502585 37.275109845148386
62.68735806806296 39.04731359522098 36.440658393399076
57.979463547720975 45.28892122171186 42.14013103730805
58.00733540983883 43.41712300213825 40.93383143161924
60.433133673079894 41.91420827813815 40.184655549725264
62.17171148839729 41.4730767162681 41.16041752602158
63.84629594236754 58.41616347903037 53.069020802918494
65.51243439905821 57.24376149503558 53.0698625872576
67.37174181076222 56.94208123553633 50.995707341975155
67.0518739861851 57.43705678358494 48.67019955582212
40.84551389476142 69.49727981645266 75.39298374324888
41.4753764416453 71.76587030869078 75.5063053448286
42.895394706878285 72.84972236887823 74.0087509755945
45.02046488625055 72.5411022170017 73.66063201992564
3.0982705841495 33.26514125688057 36.63081182882423
1.6091296636474175 33.04984823748832 38.384635981364475
1.4464840178145497 30.907260050996328 39.5249531142644
1.9803582763834748 28.52865813843318 38.58580626914503
43.67134576613027 79.82201349239932 72.21256330821095
63.80333366088746 33.27363377681806 58.692371857180305
62.52661587831138 33.41081348151774 60.60422924169406
59.95422687241611 32.09136966760996 60.19580480190106
0.4541605169113639 32.459417268049286 41.50430558514671
74.40697856749316 59.03049057516535 27.531208679324237
74.21570901412444 60.41221895887033 26.194557466108712
71.93465813204426 61.43868771194067 25.054481543755564
69.78609089150413 61.868709144611195 25.97414657375679
8.966548439479219 29.17880380418628 36.41788579224842
7.479336820731754 30.459454266445324 37.521743849256815
7.025826973971028 30.237177905729343 40.25998222635092
8.286768799427326 29.299231479118696 41.958522137396095
62.50125157553757 12.562333616438435 21.598985062154487
64.06567840589754 11.148685095819262 21.18712330536765
64.36497222796032 8.745562404114926 22.380069913638525
63.53124202902882 7.880762869333398 24.331642611169478
60.944493918379536 48.16019184245026 10.265198859632555
59.242757353011704 47.620551557698256 9.252547507907416
36.06366185194861 64.08885187839662 84.76056897607432
50.15398958565527 45.32131192045729 7.6865679212722
52.25589759403316 45.10864401864745 8.508660921992783
53.904842250122215 43.84841682136544 7.333345505532011
37.855906871223276 63.010384808970386 82.41520667680436
38.33261941988053 62.43902518518363 84.49473162199077
36.155829590374644 58.54315184508378 84.86744842641333
60.666850241651744 43.74138750067347 10.068420231456532
58.22157461878155 45.02855634687417 9.498494546488466
56.56883556054587 44.655856762933 8.39149067016859
30.701808558989068 76.11960504614123 34.51444413787879
31.21824093933048 77.23280037077397 36.2919798786843
30.132264299462722 76.39129848949487 38.627772656097044
27.90728894948967 75.18402953360969 38.94898654303705
68.18130862085268 52.95646824016339 57.57172224800491
43.7891429998772 76.42171508673329 55.38589986348253
42.851302693422085 78.18063244513249 54.69840905004614
42.412449803354704 79.57997351760434 56.81131430299746
40.5386232564829 79.56109253286154 58.21447494884771
48.57101324044929 60.70816179519294 25.41242938329157
46.65324753753456 59.87756625581099 24.721186822144414
43.938130154548375 60.56066770162611 25.068524092834075
43.19897970566224 62.47462305373335 26.034726567310184
25.262500389281456 71.19142632241086 42.05952879211028
26.361182949518053 72.63488487638365 43.0697092102427
25.9326523666598 75.11507822962555 43.724619738946686
43.0868570373339 81.5360288987394 54.79174194555408
41.09794608793946 82.34071923994831 56.76752617616973
42.42147649563575 83.44580839880503 58.5062716658564
44.591744309963055 83.5803386417398 58.76739282185231
44.45709687398512 84.9253085967887 61.06405882214417
46.62117549557499 83.19724486549224 61.666262052644456
48.78555403930319 83.47644126310473 62.046944732514945
64.12986695041646 70.94482497763605 44.09282154451135
62.55378021787303 69.44250452891019 44.75526329307491
60.94063006060058 68.03222584894407 43.00812160615959
61.29494690440935 67.98246869555328 40.5440339890718
50.00539923138488 48.2438662023155 33.77962571713264
51.47391670879522 46.97982665211349 34.71874978108871
51.50748522048208 45.45759102622734 36.6693760071526
49.83087231909012 44.9825682840915 38.75813132795001
39.23388748351806 5.258893707749017 21.542399264425153
40.65564813823898 5.8936612650695555 20.110960427887196
41.20316051246024 8.138437874290348 18.881763641313473
40.96969637545523 10.39570215095677 19.156130856894833
65.95641354075163 64.83289860533031 45.797616591353794
64.28355543229858 65.71688978040078 44.40319728860651
61.75572715207097 66.08334026998735 44.81279349047311
60.40419393318521 64.55557607197568 44.22919509050808
32.35793311571172 74.41129218456197 36.466506099042675
33.07787584502955 74.19555708045573 38.52989762471482
33.69173892214697 76.3202831203803 39.94664067688502
34.067996093071855 78.67232026711713 38.893881695983836
32.11848173574928 65.47748835531858 67.10438303370361
33.1874196142111 66.33716510916751 68.52115060059421
32.636541210075535 67.29621573264811 70.53884707202802
56.02702489607722 36.553909794939365 31.038783658577593
55.683856340105926 38.6481394660218 31.542650679255843
54.11413314669237 39.66929418984801 33.74104123770187
52.92483638516155 38.038481245807205 35.397336098170385
50.3322423495934 59.83188737017734 57.01535111364251
48.822520494130934 57.73747785581243 56.64253007096295
46.58240649964096 57.89052742932509 58.16738801619442
46.15196220044797 58.999064252261036 60.43605876279207
41.68973700774556 53.08392868452246 48.512474267082915
42.52090944489713 54.377763393258775 49.867060288965305
42.59667496217872 54.097910014464475 52.784903595717196
42.60345197377106 52.36883036218394 54.19487377440929
34.50961960980359 63.15061746084328 72.04404005547309
30.626421401273703 61.90052033136627 70.67994624781619
31.50879862998381 63.43875174957714 69.72498063699922
33.59399652827739 63.2008595393058 67.71153334817484
32.72073931920547 62.17642653825364 65.80458010562191
45.316189127708554 51.56100320552201 62.562059750372086
46.09418624527787 52.25137543965839 60.116668878978466
46.187738281667464 54.695435951877485 59.528933524296896
46.02064181453055 56.543837377319804 60.96515954117687
53.70898359485756 66.92137300481805 72.03276027739867
55.28967764295016 66.82368141101621 70.62481619223884
57.5851484941108 68.0906691108857 71.05872829930497
58.0584774328165 70.09286921940421 72.37336810962941
44.27287827087146 81.53663173642383 35.56191620570559
44.292734265007496 83.34162176911138 34.50960419351
48.77838728731936 84.29109776099028 34.765117222711076
58.00428799716113 64.92995120865763 42.79079311169713
58.72814127602774 66.64194481285564 41.608628887556264
58.006129862611964 69.47222958104152 41.333456455189925
56.57499652168161 70.53164481182998 42.86572075924208
64.15830902192725 72.27523736526476 11.139922380419042
61.87325544073539 72.07360314176226 10.817338987819197
60.099747084720846 72.93203380393457 12.355568631176002
60.71216314945375 74.12966206698894 14.645717633449104
41.667105471171794 82.81841443141789 33.54360812338307
61.007716247050816 68.27791570147242 10.514811981769965
59.89951931668224 70.06852661424759 10.758803605418189
58.48835049305452 70.77999177408513 12.496301182171045
57.64879155502606 69.11281008955163 14.60224994275334
36.010568170373254 60.29206933696354 20.815871057789433
37.78146055951065 60.61053205433712 22.555057800671467
38.85660045161958 58.10092836664494 23.167076798670337
37.61727501513654 56.632553120898095 24.242921849549024
42.76130209075715 81.16334365516802 26.6129023138563
42.18662574821097 83.00877053076218 25.48174272730374
49.6627406291416 80.65107987861622 62.04709076054663
47.53568767931559 80.01391462977315 61.1998971447983
46.56821643919619 81.57938868821186 59.76430217728222
47.03553877429409 82.62904655975488 57.76324236992296
47.613845747668826 74.56040849454985 10.53210809735676
48.94512043017135 73.44442304711575 12.22241695178667
51.55684022504524 73.07983914585107 11.088060122042021
52.05832981741692 72.96842273290775 8.852608113834927
35.10874025138206 58.45034132322175 15.761756900138115
35.055197617248695 57.33883090854153 18.252109214768883
37.021032943052546 58.18397621146067 19.411137679914802
39.40182787252805 59.07094973883262 18.718682430847128
24.06901017828019 67.62974047939873 42.31368657109005
24.631221309803493 69.15613411995727 43.94748756904169
27.31463922865024 69.94225835981142 44.122435924328194
29.31220039645452 68.65018003160351 43.71246790674208
33.09811240892887 43.90135412559418 39.628801740854364
31.48038552535781 43.7719684193701 38.49747899587126
30.5015722819675 41.954843256226404 36.58405338405531
31.499796948420958 39.7296183422936 35.92864814945633
48.11974800607833 58.86069967557341 23.008396434934653
46.63678183634741 57.10402184627164 22.104517269746037
45.939655656475765 55.2676676549819 23.631008265627163
46.93717160102036 54.991846246085856 26.05578338001461
33.15019706446369 74.33005566023627 41.91515638075484
31.746380262227703 72.93831553609347 42.75737627437977
29.06884661269236 73.68979472515264 42.210024257593425
28.03443858459834 75.7620404182412 41.91823415708464
42.92416535740097 64.94634299453348 24.72954950402141
45.096856200966386 64.31129968295635 23.64783992205516
44.67642997203424 63.59199174616371 21.241206907378018
42.60413727744261 64.24566699849913 20.0201274531395
5.195014912625129 56.671815638013705 43.51688931770188
3.6673632558696148 58.11061414596949 43.98855151853125
1.657115334577887 58.15588133838579 45.41206414097405
0.18613595956875992 56.47704169856243 46.0820530509928
31.26999213797067 68.92242220546869 41.52061792455083
29.056602407621696 70.14171358812497 41.2978773363616
28.94134904565355 72.43268344893346 39.98688263715129
29.972552483677344 73.06144554884841 38.086088814537284
60.862324020249545 41.95028495246036 37.34120803337102
59.38664726718045 41.86920507256266 35.82969326137359
57.35847406329085 43.463656491699005 35.86899272743455
57.351285808770946 46.02216025149249 36.039749850891106
58.46916731246895 71.8526471503635 35.88884432237425
59.47435653322965 70.144227680236 36.6284129539915
61.03444403507303 69.69145472330466 38.614501138329175
62.10782057862609 71.1731338758698 40.25756125151945
46.51681148413941 10.212013802638287 15.091790260354927
44.41526247408923 10.610527916301347 15.393751529140804
43.58674070572457 8.505711361724517 16.534178279302708
42.71737022794629 6.307817817812771 15.636984911146403
9.267788128601763 31.503847541128778 44.880829604455194
7.26017789390402 31.23695000442933 43.8777984480273
5.7773303676561945 28.82947597377075 44.198252402125625
6.224039308507202 27.21438365073586 46.071430890490554
42.366352484083336 14.778464966214298 22.757334560506365
40.93072321795494 12.9672656839363 22.236814919425406
39.88850254056057 13.591780817573635 19.54935984773551
40.29755554483782 15.302697943982027 18.3152429033705
47.89096131582373 60.45952868402819 55.35627564150131
46.43071722430173 59.1839089059935 55.56368898393393
44.37987309725921 58.481266508981896 54.14183792232192
43.25733857010839 59.54871576179587 52.47972552329331
41.72121520355129 11.045585203600401 15.595920002381321
39.80134681490506 11.814932848101826 17.038444630855018
38.43436190638048 13.965617302605986 16.790706839281018
42.57346378451789 4.035479556587526 17.270051350795335
39.98250067845952 4.686364699235886 17.806041165756735
50.558588913126506 60.322454901467054 54.32078137565269
48.9634159147885 60.184958266442706 52.79725845405929
47.879105885380625 57.96162960194757 52.81585291640232
48.96002772206978 55.796858613000225 51.881149228923974
39.50782915274808 52.354763558743436 3.154286943527842
38.240142606687265 53.40410009384871 1.9996529178175797
36.57843972072294 55.46974976867436 2.436599154875863
36.64442285649998 56.77511052402612 4.696373022357942
42.550659367613726 15.558484936728227 16.94830986872379
43.16590501501579 14.25154167525446 14.994998970276864
56.25844201981625 65.11836403316642 72.26789498438671
58.91094494840116 65.26160913738127 72.14171628718056
59.79925516962077 65.81196645294769 69.58362146682053
59.138772051386916 64.59148925450452 67.63053821581761
14.37970336671103 79.47836591805607 74.60599879617482
15.816860082358087 79.60380702555223 76.36511782281835
21.877784381589375 77.89863546408277 77.0641017313241
20.372117578924247 79.19675078877921 77.16388052787839
18.736507942965805 79.10427936060923 78.77228300850807
42.60295074199561 62.456813748426015 1.4825252332907488
63.18970895131898 74.4806423542157 9.241945155656115
62.154213712596764 76.41705770057102 9.61610163622981
59.52577593089021 76.63891490758974 9.622620375208571
57.92787883224753 74.37150588620185 9.298516840448224
38.2297221339084 24.297984322292436 76.13284997438171
40.02028007873347 25.510865829393424 76.55529583552487
40.10922523850995 27.88153736926539 77.64474141920785
25.01872826637624 37.23428440307861 68.36006918336871
25.71015472355362 36.78597326613925 66.22011854461945
26.48024398839915 39.202124600760236 64.5446285588392
26.457703521922674 41.42852715103955 65.04321259191066
50.78385108092628 16.205183020607386 62.692371982316
52.97689761152272 16.12689691697659 64.09770614009922
53.310878999040575 14.409595403549936 65.56877692532406
46.74597411841617 84.24116110427487 69.32655828136267
45.91958861941949 82.97019832339048 67.9478874259338
45.691430962832484 83.594612731448 65.45443983134929
49.03717220182497 15.382480565449717 60.876144851229725
49.36811320423733 13.654691955475679 62.30322891136697
38.193269465750646 14.91095830920173 70.04370899702921
48.71565689224415 82.97497917009926 67.1202984808796
48.58012496650868 83.06054882429254 64.80861399533714
46.70143117555719 81.12684059507001 63.4824572146873
45.661177851832626 79.12144624330335 64.3868902910075
46.42366161533544 76.2730014109911 54.89908803633426
47.50690795295527 77.47427488461358 56.390557178109546
46.13336013315113 79.58829004118144 56.9547841335121
45.651715866246015 81.30803369646438 55.325063393112295
45.8020018849918 77.89080916125977 61.890648479871594
45.169158920205476 78.32018492997904 59.292615794781696
45.1345053171217 77.02618172294969 57.54853825198754
46.931511385651866 74.77864430102625 57.75791491179432
62.182615912342364 69.24185679327374 35.144134082524516
62.92397527440092 68.60930011962216 37.35358118704072
63.99632362146565 66.03207972826613 38.070870990962746
64.1911662579805 64.18270278792302 36.162269766669276
70.29058635486648 84.44878796230415 32.214801908859656
27.471436831052984 13.435319429493564 62.32572337833356
30.111445972981418 14.032934922262092 65.8908122938128
31.591579221007503 15.657904118307947 64.8172149959769
51.48765218099681 19.51070497191098 42.21737869901886
52.11617353240273 20.320563494097435 40.21964034971283
50.82225782938013 20.131671603000257 38.20298519701855
48.80847385947105 18.527264896979155 37.56035657717099
39.77104740811938 26.437384398084298 80.3997478526595
54.80969882656454 20.522996962796423 41.28436736494313
27.055885812037047 16.29522409797347 67.35400055609927
55.42530607242273 14.277586297320324 58.078266803335524
53.685289498455504 12.643392194182438 58.5876679780405
48.16414417488764 84.11537968994439 28.953824002855274
33.246246712134294 44.73727990842454 42.850053936146104
32.704982490031874 42.720891891861946 42.08840668099221
30.869671504454267 42.35840352492722 40.931933809771124
28.321848958830337 43.1566900799773 41.163268174695105
46.99314716158704 83.08565026703275 31.424981121697027
45.22516328438217 83.67401096632864 31.893882935750508
42.733290691155105 83.44197973282722 31.005395236582586
41.71461527878842 81.55546936748564 29.747619478681827
34.93685275921929 15.871189768702052 68.95634290421242
33.282226763122964 15.225939068784337 67.7460908864765
30.840318908529174 14.90256462207338 68.77754610764907
29.998639802488466 15.731984507085816 70.79646019392858
40.10313228181833 84.04082472945295 23.7558456104044
56.37447202544969 16.994378822205245 61.29793291787032
54.8888688338599 15.868801594292432 62.29401861150253
52.90508307138566 14.452526902618338 61.53788249411341
51.871350573023264 14.597385055773408 58.951062446335825
60.77483797047202 8.632727355272994 22.58101068132362
60.330293060806504 10.332533683647133 21.353570407303067
58.89148939518243 9.631424772715674 18.51937946409488
58.01855181175175 7.802458170535483 18.062424022728877
42.960611001703896 84.0340700352329 63.43720037899288
43.792183579150674 82.06101835352096 64.10521523521668
44.39053244865476 80.17404251016305 62.19488887655871
43.60354273737972 80.46913721649038 59.671848550153236
43.13918313683602 5.398965771315263 20.703701588483124
43.66875098720927 7.852867203449441 19.788780807770483
45.56668689443931 8.604501647034043 18.422285102186667
34.647927026054006 20.781799823301387 52.15188982410048
35.31823788946551 21.174686802601613 53.95299057681752
35.38430160381372 23.68858861988048 55.09879157602765
37.999777444907586 82.28003783664369 6.305283815911135
37.53472514465899 84.78704278408064 5.828785105451437
44.87209754955497 10.151022599921255 20.66403420132129
42.99962523870515 11.677274907442856 20.264217950156713
43.24042261627781 13.070112353400278 17.669079746971985
45.17167004987568 13.129265535257716 16.31894007519081
36.03383814389194 8.51683741046229 16.970723767384573
38.191753266025664 9.365662331151082 16.919068567946358
40.40903735915745 8.244094277570868 16.108396509526823
40.1383078546929 5.803783717799601 15.128406597329516
32.356043144446204 14.316151825785832 30.583139288582085
32.263749271760325 12.615240013779527 29.346866880736723
34.663660382013745 8.280264796219898 19.206772836131083
36.72397485348025 9.072998144538792 20.136573765639255
37.61692782319397 11.647577309179177 20.0146117646745
37.052462028844936 13.611016200147827 19.151092826795026
44.33420130043355 52.07107095829666 58.06789482462691
44.21051384045521 54.261617027745444 57.715179507575904
44.00251285746557 54.95706215017663 55.06045564789471
45.835885158328225 56.230614651382155 54.14728187900935
41.49365887980536 59.16465421453234 54.4913182538915
40.912645471794086 57.388254216381824 55.3226494955007
40.01969580032413 55.18414983779469 53.75624900178679
38.98569852086121 55.4206279294997 51.63709809081954
59.81253673352892 42.14836082666104 31.324178869414677
58.18034141731454 42.94257619644508 32.77598721852782
55.53668097568856 42.84516561236955 32.75378786718798
54.312279506459255 41.78649616732178 30.595095072809936
36.45595574811553 56.234877344633496 48.86130489692412
37.84334906543725 54.57637670119025 47.98916121645929
38.697266645515114 52.09272454121912 49.239528663385585
38.51227478297503 51.28861953694347 51.3020114709396
42.77720076281695 60.43490369244981 48.14754795555045
41.653346755587826 59.71610118989507 49.711939718491614
40.66922748071457 57.13613944809329 50.044030286028196
40.16159108369122 55.44065666330135 48.66235287636777
52.59133228623912 41.730353082417764 32.836936961457305
53.01665336452723 43.826206619182635 33.757006730224894
53.65979969468719 43.981684833172494 36.639181926771855
53.15074410067946 42.2378916805198 38.191055344106175
46.44090002086254 59.314546793736405 50.57537736645066
44.361068866246015 59.27373057673544 50.095358215406364
43.423329723945166 57.20402536205499 51.30003045957438
44.9391854274724 55.12828993892767 51.92880004300892
36.95228031129794 60.21590400376718 3.2113764622081358
37.07726458990932 61.789029915047344 1.4209362219762232
55.499475223481156 34.87587100812669 33.5605833359898
55.304024347209584 36.613164266998446 35.34173683106259
57.09956408397396 36.99729795401647 37.459389786746144
59.27038793731168 35.42124587067202 37.60140018237633
28.281022781404282 37.21782241002634 61.06019067256071
28.340055238992065 37.69512322804143 63.25781656982175
30.24938215152575 36.174820444220046 64.37477802733522
31.270395474490876 34.061387005912074 63.04467670777205
44.83801642407956 25.914304078992338 76.63571786261669
42.46494513178432 25.852619656291044 78.10582963155358
42.30398876230677 26.934560136245672 80.2704730545005
43.87199381436431 27.007875268815834 81.97690601740112
29.563778067769718 37.73590549818947 58.817576909099714
29.994122453036514 35.76012011177901 58.875467860104884
31.84667080528243 34.477732397740766 60.16509899590089
33.890641306201864 35.24123750388204 61.234016508612214
41.52315747604703 29.54840333990785 80.74689983059987
33.36182891562459 37.06920007202868 65.94729103044286
32.928783754320136 36.653439561393434 63.48729611412891
32.98168359816064 38.83287946577412 62.06112404169
34.48127511122585 40.98934070107086 62.58465757243031
25.347118129566113 34.55027552604917 73.02990802401379
27.974696528043804 34.56932078847749 73.00244497576547
28.68398162898917 35.92487719807014 71.03950794031987
27.28768929195517 37.34035692853659 69.54279822315719
47.54008121068643 34.01271157606026 45.75599418055192
43.002628485138786 33.52356695446311 48.635527819365656
51.97189288068653 31.061336524274473 68.58649309185628
53.02003676266603 32.02814220443218 66.9430277637029
53.60496723618169 31.421784237647707 64.18961794047635
62.33938805871727 78.97012418040958 14.134435822154588
61.8168824227163 77.08752452563162 13.483436764509502
63.44289767791812 75.12185128629713 12.510516282606162
65.42306244847106 75.19907732556516 11.180033356998736
38.2341958099912 62.84075121509819 24.74395973994831
40.219006259359304 62.29850380331533 25.202392579997493
40.85931422904854 59.76621958323045 25.508687620426837
39.21707931261949 57.95903244477827 26.188557710421552
35.341185154256294 64.23427637401895 80.58220552712295
35.15295397175668 63.12316576885133 82.59498519009277
32.866097466978104 61.51409100887559 83.27106359258221
30.804636867515725 62.105120448974446 83.05868273149086
45.80507713961187 52.3260237430886 25.91905383855892
43.530469319362474 52.96659931086294 25.479338948487392
42.06636644705391 53.148686055743056 23.554732854678477
42.01153542837411 52.58295165417696 21.33329313769747
38.121891196806835 61.19555296448394 19.67601482785145
40.11548432747084 61.62208936177071 20.18251841752547
40.96761358163835 63.08605569925826 22.09978764423421
39.71877974348629 64.97772672936154 23.44341152351835
62.16400458128703 45.856877797490206 9.625795012323298
63.25314356012324 45.24861062501982 11.760552281923
41.7587823047761 55.66096020946741 20.456745167739737
40.74294012994226 57.46000762596443 20.092022442065865
40.711012321157476 59.36215527066573 21.723407103551935
