74.54924627359259 67.79886675860324 70.83308811124118
74.29049407080826 65.56865432512292 71.20356502282401
74.05779621201106 64.2764635657749 69.22799474445938
72.48521810860616 64.3206975506839 67.32714249629176
82.42418054701767 59.40213715310511 66.35575667126132
78.29000257001768 61.345515483215635 71.99673852369538
77.97623958624668 61.184961143569694 69.798576170889
76.74679321726735 63.403031032464824 68.90412017904688
76.63583706446259 65.5630305448517 69.84477418026621
47.776322239549245 6.408820833476789 81.70901813114281
48.72120047311381 4.063977795760851 80.60394389307939
46.64101395686489 2.4904543266837305 79.86040086822713
44.3226650093215 2.730764705002594 78.99648091618776
65.78260051217431 4.238089858718526 70.5754232283622
67.5357587782082 4.771446323712312 71.8410262476318
68.91516413325019 4.12330047604215 73.88795929941102
68.58291474266697 2.793450211719451 75.6561139725877
73.43522299027116 56.248752805566426 71.56086046513632
73.20007006442242 56.00136518686459 69.4146454947053
75.612948150336 56.71355907940471 67.78969528781604
77.61127965059286 57.20356579966658 68.51264900094935
71.08978715339902 1.857443826702269 74.35935231127375
72.97713585384803 2.0600934525761754 75.70214311513341
72.80967957720125 2.431927161009786 78.42717785152828
70.6054119961618 2.1085515139316495 79.95000270487756
69.98653073730084 7.612521222737332 70.10180450530967
70.30095856678379 7.3640512214278475 72.66101802623098
71.29554042995896 5.7405404661648625 74.17143513781684
72.74384625634144 3.686701733682806 73.56909330091109
74.83910277514644 76.26136888607462 54.98372688588389
73.56432686789582 74.44194973076979 55.89788119518858
77.35415557031068 0.8023276717355775 80.7670455140183
75.94113081737673 2.2344952436024945 79.184922042346
77.37566525094127 3.2365386911035863 77.79012811166108
79.4677129771173 2.1912324844055933 76.24805291577171
73.50108150018384 8.859688175114094 74.87093131783374
72.69821269010778 6.932147717861134 76.06131794444484
73.470042381879 4.815952120759574 77.08108674617307
75.39159265350263 3.1950314068300782 75.96635212108417
54.73856149024724 65.79644709139428 83.16578316870937
55.99889593779454 45.90692550942853 76.01290457607473
57.00917192184229 44.66089013678525 74.44643629586089
55.64667444861216 42.924482034589786 73.14310343665215
53.54053584800262 42.11553882127372 73.68253997287142
81.28787946502847 63.341264470144004 65.12362064783258
80.08004892326535 63.62885624820041 67.37729288314692
74.55771348537525 64.63377142651312 73.92336561672646
73.12567719937844 63.647508111372 72.75606711754813
73.61914331189271 62.13499812074909 70.83329023437834
75.64470139469726 60.15772100310689 70.82986382352522
53.714300340666256 49.55141718588714 74.22752552951785
50.88170784461029 24.80953895476669 77.3867649375772
52.15100107319778 23.55913186833731 78.32236933081354
53.14579788265903 20.972627505423645 77.26595325773674
51.926760163171345 19.508575593890082 76.1848535724218
47.569683844815046 15.032688611557951 76.62017354131068
49.549987982580596 15.735663546293134 76.94519727839743
51.22400828588009 16.824127602742067 75.15350632600719
51.209749296995945 17.019537927500696 72.98067616065893
58.58598304850439 19.380434648759305 75.64315389043325
56.99782669499621 20.289927241284644 74.85974621188832
54.61188876898446 19.918029237812664 74.5363245686062
53.26883625569915 18.46313620302818 73.9524751142998
63.64434988726239 75.84678769297605 74.12761932397595
61.58034628023672 75.54574828137362 75.87289789012988
61.88834331512686 76.35214156326701 77.95790199840218
63.612176152182656 76.60508492098438 79.54897900813371
69.46840429938747 1.6626393492242688 82.22398700095621
69.93904128369746 3.8844970362245563 83.3130187007965
72.74997189698837 4.659635006599234 82.94412742812551
74.55751378439362 3.251218389245875 82.59991910275521
45.41294968996188 3.247407888821172 83.26761509436457
47.44115284037964 2.262247866240524 82.47353582578182
49.630392037618144 1.3300062968689796 83.41765479515207
58.82707080086526 78.91081809862911 74.78241511388637
60.698731068706735 77.81113094540011 75.01059111991178
62.63210920679386 77.84175358487468 72.75152628310751
62.148250658576266 78.42864138920686 70.6603565216112
82.95127234466297 75.75091290616423 21.46207680955686
81.96657667080251 77.30414390679202 21.37373232288901
82.82232720210318 79.84677029477844 22.195090765516653
84.6464719282767 80.730302342691 22.451959876127376
62.71025165204035 84.97767555187471 10.921192537017346
61.16035976366824 79.38987487945452 38.981316473985295
40.0253044979767 83.87652512066465 4.506095996168349
39.1771348003468 82.38864149432284 5.210400995841436
54.79705108344228 79.52480108075433 34.502093595163814
42.58399735574761 82.83027680026142 4.381609313271519
41.76612825840529 82.47180947234726 6.7608152286356615
40.71929194591436 81.83327724521732 2.884362300125247
59.00356972134479 83.1889176552349 33.91928088201959
56.71058512065791 83.30023938315746 34.433302907915085
54.61618973739634 82.35056676471439 33.467455597336645
54.26170656880467 81.11610469492165 31.10332029974052
79.11281927757648 76.23514656470964 47.20101240037355
82.17922457810633 77.07592419454325 45.582362078785046
80.58348856465554 78.74441278349121 44.52701322432236
78.62029624436914 77.149525105304 43.55619287726056
77.89867319901099 77.85124031946974 45.54315701036279
78.54901468105706 78.94741298969798 47.95394458900968
74.23197696635621 78.53373931951776 48.443052727223225
73.73130542569032 77.76805395472968 50.928232816798506
76.97128937505988 77.32660746895495 26.157927383374535
78.3375311497634 78.09371988176565 24.21043532909997
77.6759696493606 79.27797990390322 22.314240672231197
75.28101542400867 79.86803613010363 21.87986631960529
79.5620950972285 84.92917086135212 22.442050265216345
79.31326816394665 82.66771240286135 21.064369378470108
77.08990603841607 82.77203902813405 19.165126705769822
79.45796645994025 83.695164295427 17.609835081631246
76.21011751656637 79.98447204333526 19.2650780155929
77.54542287589877 78.3014731772922 20.0009256256712
79.88362625244854 78.7574774958231 20.49411502211682
81.71067408943561 79.40863449810185 19.10475357896134
78.37522353263034 83.40148490563496 25.0550195422067
78.27930505630503 81.68341770956587 23.5489146997033
80.44592013990588 79.76811732673758 23.735418955448186
82.35015896947917 79.69742584593403 25.245548180313587
80.73052048821562 84.27776872885697 24.731382998089227
81.34807464724105 83.66861592747385 26.808778937776978
71.93570668963375 77.36252578706441 47.215675401566216
82.39925518958974 84.68045511736223 18.927242200944132
81.88994823360467 82.7092647910924 19.90873057955601
82.48286968451852 82.6588588010877 22.58412926287412
83.69240659786207 84.42599387383373 23.87014684269339
84.01934155645402 78.1064221964407 26.301311157085017
84.78363452014709 76.08922661438082 25.348523504286565
82.85197847921205 75.0341306562484 24.07138370260412
80.60867997932078 76.5061132246215 23.772365173547346
84.20990121851816 84.38868890154177 26.962665762215213
83.69617189673815 82.01504790740441 25.374758953342788
78.48299354210266 75.84208969295173 20.511211181568655
62.297325577667166 80.16668859598063 36.365877636054314
60.445998898568526 81.16396828113139 34.761952750382434
59.564338867547264 79.61396016776575 32.84044797356784
51.72964176595109 82.38365556195896 31.234810485368442
52.53829327535151 84.79112214204287 29.954369113625134
58.89197577145345 80.66064002822546 37.18678337600044
58.45924218488168 82.65461382455298 36.86189455836512
63.67246838593917 83.08084973148193 33.85560521950673
63.69005862334185 82.43247895635477 36.33713497679379
61.99000186724843 83.07978202702267 38.07478615008112
60.2338836524835 84.67533229908715 38.01273964812944
24.814530664064602 84.11643306755992 31.890646516413756
52.370740753218634 84.39184254390975 33.18448994029853
50.59289537151924 83.31156734118876 34.44236353480537
40.71328744471009 83.33130222064034 54.26949114646956
48.44654790809038 83.89821214204316 32.991466448105335
52.41055804051663 80.92844893001943 34.72891544435385
50.592908870001956 80.71048814506841 33.80293834570258
72.01347107805981 78.50344878008272 52.793568064597075
74.16509200606134 78.30899021013134 53.92591208489822
37.45933026023943 83.72271595740733 54.216878314871224
49.76970131699064 81.87089769193668 31.432079787626748
77.48794613967607 27.977932938524535 0.3430984572969033
76.18124562033398 48.997396794928044 16.843078381932933
74.29668657494024 49.50082655037972 17.99811461729534
72.47382491319914 50.99940447717679 17.460506391430663
72.16873675357941 52.823492957841104 15.605360386898765
70.10960911286749 43.61896975808364 17.341843388419196
69.93043698124347 45.30821319377453 16.231855146031844
71.71993265241836 47.40516604842819 15.502794763092288
73.96056105588134 47.30021742057623 15.860346337304174
72.82851480862828 48.24597438635521 13.388422821814483
71.24410669854801 48.01361363671103 11.640969901436534
70.36650299790564 45.694188349489394 10.93902387717704
71.1642104875315 43.33222549916018 11.828398042008018
47.80754083784276 42.794315321483225 14.183071693574602
48.96450432433748 40.90901397522319 13.707348734656016
50.999210096244866 40.38814179688794 15.015480631690874
52.396816825244755 42.158288641154975 16.333837888535253
76.27604328761115 58.3344091071827 38.68920932660905
74.94578056728605 60.07573815744315 37.25042747846
75.39168712870053 59.982378839707 35.13679549189949
76.20471060258836 57.831169116596136 33.61376568211972
50.37063120865817 28.90837752617805 11.388990086710187
50.387134781154685 31.03798111880223 11.661995226208075
49.86580779796851 32.541889186380466 13.586670404820675
47.66635935142011 33.265689762543374 14.729586339489664
58.208484813103745 71.0106779346476 13.672641804504002
58.842076978449654 69.91313636470842 15.660739589492913
58.92633872465112 66.90841325672196 15.283510417549653
57.699270506972674 65.94175953108389 13.676939749296979
31.33816734000234 54.97952883724771 5.555278161895253
30.4282868556398 54.56827737747349 7.759762440189598
31.689545244490915 55.09133131132926 10.02220898333933
33.7024232423386 55.73451285225069 10.423815595514968
49.16659954647575 49.81749973191701 16.65402803297491
50.17755910072173 48.63818104802947 15.121640174875983
51.22614997122766 45.83739880556589 15.596247493736005
51.15216505244704 44.61075628476668 18.030705861463538
59.00193323414168 55.02481044335155 31.047929484216862
58.44771605235617 56.33303736461816 32.47996556713528
56.3128498196484 57.68752396582112 32.641657824722536
54.94908169635005 58.722524051054904 31.155168273513745
60.3678704012846 70.62769301436451 17.845308554122532
61.44999622670467 68.76291823208518 18.10292139088119
60.39729772322564 67.17974625669464 17.529225544144087
59.74449199878699 65.0602807317632 18.712022649478325
48.72071137500277 38.050312371468905 21.321710326673426
48.11955548995536 37.86090237314859 19.486893788874607
45.50232295404993 37.35973499121198 18.36250180655362
43.76902130170023 36.62138182147213 19.11424893382297
51.33955579423386 50.06683098075294 33.00623219123973
52.91137722139569 49.743183472612884 34.133871341118095
55.04588527108926 47.87166658505621 33.5951047330074
54.97425684704076 45.83229162346415 31.836461020811868
58.882628785859474 71.96959669807856 10.896616109760354
58.83325618841905 69.56942029417436 11.369400985452595
60.96315217275829 67.7536956262682 11.798251694389336
63.280556639017156 68.39735816147196 11.5775718383667
56.516533211600716 63.92240662940549 21.28456147550453
57.85847307528775 63.36215153958254 19.29350019906269
57.17365373877484 63.062831570804555 16.684626291621342
56.22728973684698 65.57067466845682 16.12674878172849
53.58563975728159 63.567548158735526 10.433263346215313
54.70310468632861 64.947380341424 11.91170124260102
55.924384976685 63.764624761639986 14.19299962912887
55.43954973861729 61.84944474664707 15.19431729791764
58.582521888532916 65.52745922873653 6.09438982813811
58.869178081234345 67.0294361811053 7.640516674781232
59.658986626283586 66.04511361089718 10.035071635919719
62.34411426096377 65.04227262814703 9.47147906788925
67.67216534203244 65.1952600449484 21.12097699980095
66.71662868825021 65.65047402331308 18.656139036331837
64.59280784960913 66.9529894394294 18.009918634550907
63.65598981463723 69.06887039923896 19.57917444413959
74.8190803273199 41.84343584065036 12.402787262807452
72.57475325836758 40.90573177771201 11.437513450422399
70.9750419970956 40.94931011542716 14.006081600759412
72.12943366249013 41.539040073905305 16.337374973958536
50.66502912830606 36.23072232743927 20.62033580453986
51.289979989370856 36.28046443092743 18.29691610943095
51.11432735415456 38.61593706558165 17.10749234394652
50.89440321400497 40.90011582278145 17.8874322039445
30.24839335155939 55.71892381418272 12.02520847961827
28.8484066199616 54.09545650033342 12.472935233706039
26.680067176179104 53.58474806595502 10.56283054594328
26.119689304878797 54.29733594299899 8.812891042597201
32.679291723752726 50.70890840619707 7.398930639445016
32.907529594758856 52.16199210704753 8.80961239624297
31.134703437276514 52.65335335507211 10.960267736305399
29.337498663715362 51.14541764314967 11.697429139216519
33.61205387681486 51.58310436601745 4.9766116646654694
33.67213225808688 53.50162722734974 6.354356761942603
35.6264871297713 54.422548489403525 8.018860255154419
37.96689400187725 54.22926197720526 7.881062814020589
51.736927572897734 57.171227542818684 36.3423786484173
50.50860509361197 56.96980955197562 34.557574926217924
71.56695688837476 5.7355461783474215 5.0379839129412325
72.0775800772674 5.1010904531503165 2.5581073714002334
72.26801496416088 2.840535222328009 1.9526946220611832
72.49120175404985 0.7495064669736244 3.4965587810156706
73.29706444681314 66.39285763219469 1.0703901032095529
71.82656553451086 67.97514293285056 2.119776364826676
73.61639259078048 16.087290186687177 18.785556039120905
73.32246144971705 18.221427954398166 18.46389121957094
72.70724334740241 19.099967860967748 16.13101830026767
73.40382388954345 18.522027320915633 14.108593547266379
68.17881181294021 9.365190417418198 7.129733670645259
69.13980216264686 7.3682092198774845 6.215252359833386
69.77618422283582 7.347705881419342 3.574997844463927
70.72992290286112 8.83391869288313 2.472718196136241
44.8232708381016 28.839864520880216 0.00309118687962989
65.40429999212944 24.865904553251347 14.544418509597593
65.8760075462774 23.12787437659702 13.225275475509044
68.51202533961911 22.757242391875984 12.415806772144816
70.34358676408006 23.953865909663833 12.542308565735535
34.48008299505893 6.762801470941238 28.894447702506646
66.40359691947108 20.53809582737541 20.101760996500648
64.83546194436262 20.719782098464595 18.168206827835114
66.13399795221862 22.2185134964638 16.230156578416565
67.1345999044292 24.22193582976144 16.313992307329194
46.12276171661084 1.2491245503618522 19.95526236008074
47.36545880335556 1.4539970081989317 18.028724526463748
46.144421854385584 2.545341521907564 16.01844747809471
43.92215356894718 2.4628782752270726 15.155124395776538
83.03566050400595 29.432456421580852 28.88410755743584
81.27235106228092 30.850467732409623 28.746410385197137
81.0379573652683 33.12927975253798 29.061661391225535
82.43990037886834 35.08869648089489 28.8409286826294
43.52627088121883 13.555999855551676 17.554784309043765
44.53402097405567 11.39889205929273 17.122567567921845
45.150631541778075 9.504105531621853 18.426907354831208
46.31329012208652 9.171161205312641 20.135469196602717
52.733339068562586 27.0811510926758 30.10188455709723
51.81860936176897 25.70641629813292 30.787977358497475
51.312805167554764 24.86210964420934 33.41263300612178
52.100694209498094 25.52023910872215 35.27778908595324
47.00159064134754 14.522265424923251 11.222682330266718
47.94025859143621 13.08955680925991 12.882722200386649
47.76872930678072 10.161546373429449 12.452444549247817
47.92027172133814 8.976204640031446 10.71746556435122
31.23243188653219 26.647037798984865 9.032540441830708
29.396588254662404 25.268890026385776 8.71293341251122
28.13251107070416 25.06029162566296 10.910806727901054
27.786827072303925 26.614524671952253 12.789221898206362
52.10170454667643 22.505270339056885 30.717270007761833
50.242889936303634 22.12019295866219 31.857201532056358
48.87186711108487 20.390659632011676 32.6687235251237
48.25140208427675 18.032277569001533 32.22750845349095
45.20681540635731 41.07440317363778 20.127532480137706
45.575303438050305 40.17813612636557 17.908612385468206
47.916604474701565 41.66495829856316 16.870380497893304
48.57102518801477 43.49325010154644 16.890360692377357
50.943615834468034 3.973386770505534 18.58844611032819
51.441466674582756 5.78914673638115 16.952311606093183
50.392092132284105 8.08336971185802 17.30420499343307
48.632220540704225 8.222365271144758 18.976861217531493
66.95180249666937 1.4161465809203175 4.753236110110136
69.3846918146911 1.3551842570178185 4.8172130767126
70.5489234142804 3.4095852344958373 6.176054514916591
70.09293561942495 4.882151664599034 7.491457887663419
50.16552970791195 28.00586675758919 30.60331392033811
48.603600325811456 27.27930913504501 32.42293008197893
47.72862808232969 24.622404240004318 31.988339780313535
48.137833480164836 23.298443808367118 30.329384188339755
54.59559778610051 35.100792337309294 13.392427100245953
52.16333732231775 35.35204288812388 13.014055942188103
50.66306652120831 34.54211544374497 15.062262387437578
51.57779066429287 33.622803775033226 17.32757885543952
41.188676197127776 34.790376007485555 17.16990209021416
43.400639337872626 34.11070388093917 18.760531692851345
45.267956347352175 34.84200527051966 17.14213662731512
45.290938719208526 34.338201550643284 14.616899429469182
52.97001565864921 39.54097007965126 11.767943846852083
52.12107653004113 38.47915255357283 13.778371239261155
53.23689986607223 37.37734138139647 15.498064362055688
55.011773681341495 37.17305744436834 16.604897887898623
44.45334243189506 38.71888373333694 15.757966393816751
46.88687954413508 40.070838707006935 15.07694468456575
48.976791636235056 38.15790845194132 15.666282168017958
48.54875861079297 35.818430296647676 16.517240643255462
46.45582991558454 26.041515273019588 1.0037644333669404
47.371762161994795 24.450965776860816 0.06246274461653955
47.529595966255 21.598810644599094 0.4311544345346036
48.00677879664373 34.05070625294795 21.39326166807707
46.07385383872555 33.75987315978532 19.829581855318622
47.090844521191364 32.54634236222185 17.411297945538294
49.3692986159846 32.139925781374416 16.911455159325026
72.89183160752857 16.95568092729141 21.441855120939362
71.029922669727 15.83241306522278 19.6896780279969
69.42353844950641 17.648847732139696 19.127758618896912
69.05815704470463 19.860885421350883 19.99535093512133
30.177569368176403 6.696491520477219 22.785171528026716
30.447982446212396 6.2748490033362785 25.33181720264754
32.71919553620779 7.322649401280291 26.43872943952589
34.42191634478125 8.765917807334382 25.07067736523703
38.857183316739366 4.345211459534314 32.372320301064995
37.23843928046373 6.132462818677608 32.560199646021566
28.262600171987323 11.370572226230216 24.116373937032982
29.236889773480208 9.509553174392495 24.475843664930572
53.79691352663689 6.107397424272026 15.591434204611966
53.26198034455316 6.325674617926757 13.382515200258274
51.47446237799476 7.937018699180261 12.568283218672264
50.459220072920516 9.948525572705426 13.986362366784451
34.085292114508576 22.425065132169593 18.7519292390231
35.04479929044073 21.176357077305926 17.13666742786185
33.59502482203207 20.24851150924509 14.73014551940869
31.32145383609084 19.88978394525691 14.711856264010065
31.32350972519269 28.809059209769732 13.987978766198003
30.66988187969855 26.87403085079249 13.239677787425437
29.91395800675244 25.003559790832742 14.842350690787345
30.574633836942944 24.353650051052135 17.167886181538755
26.55114910049502 21.184681581194017 9.633630659709606
28.47479358311545 20.360515429318355 10.495019315250449
29.20538761845322 21.378961859427854 12.889241059213237
28.028067242695418 21.795281280796154 14.774930136530388
27.378152397351215 27.115016801523474 18.431577847180115
28.069817477153812 25.32765828518804 17.66155070338262
27.580883946638178 24.332856889892515 15.46007670599258
25.333342944583894 25.56398482633153 13.70598931985597
47.788895724484505 28.489445108395383 34.69076188959306
49.26805234867486 27.226190974194626 36.472774314493606
49.430659234082704 24.666950671389674 36.12432129778861
47.86314813294331 23.377007303428748 34.43304081279373
83.16110637364665 68.62792243538382 6.716915045622583
80.86859462301761 68.31026079226841 7.252317353452724
78.93708897681287 69.72891269278122 6.187680034706948
79.2283340330094 72.09739090218224 5.008120314278924
75.84888425588144 67.83490390954333 7.901562274017017
76.8637851956755 68.14551986369221 6.213669876177557
78.09708123795708 66.69862341711293 4.362583883810785
78.83799764796642 64.21665560995456 4.392703825423824
65.75876048339849 0.07521709798157959 0.08464624363489973
31.239258076637825 51.77202855933865 13.480510516478134
32.86560407937786 52.423434079130246 14.642140293716194
33.36710115796458 54.90387643727854 14.710528099541149
32.56078472577718 56.74564075303048 15.507034964994766
72.38619011216089 71.06225716501307 1.920894713774376
73.74074983311532 69.64723353293495 1.080613726227199
75.34508984333407 68.45441868070905 2.4682006246351027
77.54191178197881 69.2364831728435 2.9618372180404844
64.36747698522052 3.848392953968159 1.9766233201711874
64.193362616441 2.598590762886232 3.6535329611650793
70.43516821979121 3.519538757035836 0.2973916621055877
69.15658637718242 3.315653594443079 2.4833711803458476
66.97557883652911 3.711936001234972 3.2276107937946286
53.89872331657299 60.87036579732858 9.937015018993424
55.6217291605774 61.4001169131835 10.68797305289715
57.19701431660286 62.976241675008836 9.4793976681747
57.190130372007424 63.34065869804181 6.884722140816388
71.12503249943762 5.272032693733266 27.326351442366555
70.09307929224772 3.5833881201712305 26.976400199602757
67.93719315891495 3.031699615899255 25.439928633677944
66.46910672362615 4.34675783459322 24.617527447607678
59.57879907380819 61.10288780631435 21.40865165952102
58.878041699188984 60.84641515135938 18.958073925657352
59.63114161040285 61.60370344057266 16.831328258345728
61.42052453070776 63.79724012268393 16.723427824208464
59.33461197999895 73.19854722570078 36.42121610836113
60.5657936278071 75.03348545606376 36.11373692341113
59.65027279028171 77.30363650186887 35.58427896244582
57.60995097699339 78.1402900998188 34.19273562815194
58.45671352250395 60.41595787632962 14.814005763039118
57.24024227620032 61.5634467205672 12.714302135298887
58.55160283093621 63.96684185937984 11.845573648604763
60.21243244219212 64.73280761915552 12.396909138207343
38.05656334348435 75.90464200536752 0.1844298745765542
39.87823134541051 76.63939565141808 1.4937692854234264
42.03891777467191 77.27263165023088 1.1800836649131365
54.449626620036064 64.86181491279947 8.287212761675796
56.32486643280312 65.91988607435012 8.074740569791077
56.98331868431483 67.8462630737891 9.935384325651428
55.01589914542398 68.60329296539187 11.596631930985328
49.22930963669617 1.1314841781161782 15.603438870601893
50.23871032550548 3.2677430651311 16.202206578881654
51.300092265232095 4.701711309975937 14.365224882061215
52.34575552188985 4.043284700284303 12.08826741765597
65.00402933376857 64.72192493146191 15.68014519965649
63.290041341260626 64.23973253454916 13.954002116801561
61.250099408002384 66.429262222215 13.956787228081788
61.48413169685156 68.39095797515695 15.336848354955407
60.03377991301057 73.67741661012548 39.12598804677016
58.81066543648094 75.59820834475155 39.665397622340585
59.46518264220227 78.16984700389114 39.50045355915369
44.20666469380405 5.8545444248400464 16.74771376786075
45.94334319163654 5.313756984625541 15.787685477876062
48.11621145362908 7.139227571575386 15.424272392412389
48.096742210223816 9.589743822082397 15.709332370294318
43.37929049017928 6.170914932379264 20.03089823977222
45.19972542735072 6.804285942849577 19.17598396632724
47.58859983721872 5.434231975712884 18.667591425320317
48.42707599326436 3.4395648234343894 19.748718051922555
53.13115997499015 9.894344904549241 18.747391573899286
50.985056586410515 10.612652245408636 20.072611403835648
49.14510408069406 11.204110437057896 18.373142966170054
49.47751479859747 12.178405115978927 16.160082086274045
47.94986822720584 1.3470241949391986 11.510715643445382
47.669714419272516 2.390802983988497 13.573754959867498
48.09726360665311 4.827535070295988 13.89994771865403
48.28715944160711 6.7330467754996075 12.53022126456495
45.391948055419675 14.678351829021116 13.470528972313781
45.5490572343657 13.612393236611169 15.760178966100513
47.49733480706027 13.697511126403203 17.28092770064792
49.28485709688399 15.445972177556836 17.480751854599436
62.80244793616273 71.3067321313693 17.14227028750915
63.4445975259672 71.64471472834212 14.544303061810732
61.46531028650001 72.6401087093159 13.010493475101859
59.372544279732246 73.61625121198036 13.529826050369936
24.03150676090353 3.3392215884878684 10.744759775431369
26.302695745364968 2.9682661946533035 9.696480849840539
26.544362482632515 0.030333746906118512 9.188342329752897
54.935632787343984 77.40617131119204 34.34548703653935
39.10076179740356 73.1226264229805 9.174772434199912
41.44872451353841 72.52700176835947 8.665820703556442
41.74832842547372 71.40929464047554 6.170464472794901
40.05845794159983 71.00640723867998 4.589745867327613
41.35507297519677 79.81357785299178 7.056858338986199
41.686307908735216 78.24900010966468 5.805496424028911
41.14427440629185 79.68128885987282 2.700543883341296
39.34385216210758 77.97116841372488 3.676989659903535
37.0986982931004 78.30577122280638 4.203717202274956
56.18644819615632 51.7908198501757 0.9415947067389714
56.91670313312758 49.93182855662155 0.2896809534373304
55.32292223075428 47.983662311929635 0.8861201814970836
54.99118599333876 46.74420266570499 3.402519218727979
53.653728796658456 52.499433424084216 0.2717812625665123
28.344971944598758 54.585367444031185 3.5026258612185868
28.544194627777703 54.02401791347799 5.940091432657625
30.161905997830534 51.467725936570936 6.382596222018068
30.294832341999783 49.815791786190466 5.012146620995995
76.5447387593671 46.69528229022342 43.49333887149601
77.80149416903596 48.06012408195874 44.30513510549758
78.0110805033458 48.710023279397475 47.00997466737046
39.01191700731052 54.341908262803116 12.27127383791106
37.49234656559556 54.44790311322995 10.720677549554335
34.86206958175946 53.49612120390586 10.62635006105653
33.741662717645355 52.14818307056306 12.19911935729568
40.90393516735152 56.57366289684753 12.071532873593158
39.15668348615083 58.45319924153617 11.979740089182094
37.2201320052578 58.24356060908115 10.206566105447118
37.252987904439486 57.228762563175955 7.805139475947975
16.73707320736979 34.469883730115896 6.750853246631193
20.205468228995354 69.79320729000587 0.470913747847726
18.81200876872705 71.22383598058568 2.7138597686808614
12.20142768713131 33.85661367212847 3.9809346753909494
68.02283050015222 54.454445038436646 51.72952201897319
69.24957368454481 55.1024432027205 50.099314687365414
20.125967904485147 64.69675054655859 2.182015876035602
20.694101287174455 66.40050083161859 3.12018383181998
21.723826780146748 68.3422069413847 2.2190468768063574
22.858931678087895 68.8184418078056 0.1192072223364743
67.190508848429 48.80469273650836 51.39205204913965
69.08610966172823 49.007802529840696 50.6961202389139
70.20163849475392 51.27016004385673 49.22652343586482
69.27145710694408 52.914142419551965 48.54061160339201
24.444110919132378 70.74979289151707 1.1040792643907065
22.104312743493164 71.45014964769378 2.494917761210929
20.612682917941992 73.00667156369943 1.696119261729007
71.674423776852 53.362524569684865 43.41635465391536
72.05506496571597 52.40381538080766 45.58186929237786
72.14331762970342 53.65978794892635 47.927947469284774
71.83123531588996 56.085580356092755 48.489866694789306
27.049074438390424 49.68954322674777 11.371299919184697
27.069964603676226 51.199184947053254 9.982590656385334
25.126294945929637 51.9354853736461 7.798917076813275
22.871241344066622 52.30951813922952 9.112222220688068
50.41982825090611 33.44529875326725 10.378997682203481
49.727908925294095 34.55936957374859 11.952228292706764
49.53361028649955 37.16175988428673 12.727828054314529
50.01829278558784 39.22363499167213 11.51921638038912
33.08140190064548 20.196341350059313 9.955676284214583
32.48259289927269 20.931576127956465 12.169946540762865
31.40892518208669 23.105868098488724 12.683787635424823
31.320434971038395 25.096749243617584 11.242048135864797
26.60271879140024 7.225151770193137 2.3414537280237293
26.163469622699125 8.47234291553577 0.7590398201362213
74.18606303395951 22.787184105678175 44.83748837924603
72.56750878315734 22.058342824487802 43.72850204991908
70.32750818128525 22.030483913558182 44.64563039574946
68.84329135208952 23.809796964609774 45.51453589837093
84.13533203957951 13.684854970870788 31.898679188244756
32.83791017969636 15.090186796886712 10.476072812809502
32.24136761308176 16.976237155556817 9.054777813301014
30.805900944286893 18.949289877563515 10.826798299927452
29.863536279640122 18.57491932879777 12.617312050359894
25.336679092517954 26.5930919507898 6.38642799915394
26.438989234932034 24.86132448248272 7.812421510012283
25.919835678583123 23.856225504453867 10.153194883269993
24.306815912050922 23.967779972590417 11.79357611198891
43.62530087349451 25.939039435032374 0.39223150988150585
83.72349767737198 15.194464495995403 34.07723618111842
55.522428230133066 22.976375093120122 2.4640928048028687
53.15314268869065 23.120761642747063 2.2425347914417944
67.02237818086591 21.18396790349778 46.65488130346527
68.97363808731623 20.58352853116195 46.62499256999116
69.61531740946937 17.85991574856801 46.34723948533769
68.08304611384351 15.702888743601996 46.59581927172209
63.99762570353617 22.336079392778696 44.00916412053951
65.54843136357455 20.79774766002769 44.32309243423677
67.80564351252053 20.169787278206968 43.37342464075822
69.43672498702689 21.81075452846327 42.25137517665817
19.60412007821463 37.867363181952754 9.83427193896873
16.41809107238529 37.31235118652966 6.780088207298963
17.52716527480736 38.20368393365874 4.7544698093006845
73.84289147755305 21.525766403355107 47.509020385641
71.82949285309589 19.927785145234825 47.33724993442296
70.88755019105928 18.251800147354523 48.76276682549807
74.61540996067541 20.16253733192304 44.957688235217844
73.0129249956861 18.422046854960115 45.39703787937853
70.80987213662559 18.06559374771473 43.82414560889398
70.5139561658913 19.36612241577231 41.738624554290446
30.35986564890398 18.054337977762785 6.7767419014054315
31.11725809255292 20.14337132573647 8.14754410672734
29.443758871829697 22.2474697635768 7.947998162063614
26.97765446860956 22.02334989958661 6.915775573534813
78.6604102971525 74.13357063475695 44.64902853630846
80.30062802473216 75.44682464807903 45.49570191529216
77.84069364793964 75.22188318747392 48.95326332520704
38.261302160630684 58.350255356189614 15.06040873004932
38.28404625610181 56.40726704385334 13.610166707555154
36.108016507039586 56.63028146480799 11.9925224956253
33.930184225782355 56.94360140793755 13.131223919858954
50.35875179381425 3.7498937099509746 9.868864527291809
49.083997804494935 5.115641504856836 8.98483597471992
49.89232513515595 7.929010376004996 9.250244833552857
51.80177902308771 8.801366209456226 9.87938395927446
44.576565054734026 76.53912094106249 2.4899338521756444
43.45747949070904 74.6570465871786 2.5305215053196295
41.313853605739126 74.50148457706906 3.926910410057935
40.76224434092771 75.19257001972291 6.2130215681398955
35.946947306396225 77.81550289619216 8.511078613617666
38.31494721265968 78.74806569493464 6.870307170098797
40.40451860165436 77.08173988370388 8.150997248434932
40.2172626343655 75.96092003659524 10.119807448857177
22.749377643478216 10.168700532442648 0.5804319131031277
36.78562141289479 75.71968763058848 6.146587056061924
38.18357995135927 73.96692778376196 6.231294575806546
38.848941281928106 73.23774073736978 3.572243911090989
37.81026922163115 73.69955596448199 1.5130225661616563
75.93753980607781 76.50855736786905 47.20548956265641
74.14612171943769 75.16599860648239 46.65195437392891
39.55431158038385 2.7883962150707347 36.509407280946164
24.97169590060691 67.92010776488036 4.265852855787527
23.066591745587665 68.94157041281753 4.50228946699448
21.38827956272217 67.29386047464996 5.531038973481493
74.55658889535853 52.22351744008142 46.7218091925907
75.58372154704341 49.902921258847606 46.56028338418224
74.31561873824971 48.57713005850838 44.598619644998436
72.77051845946474 49.49089782181744 42.88951221934798
72.64993273075422 74.0602542494476 53.02387216245834
74.88344370522601 74.07104419743173 52.83593400443562
76.39104859728137 73.63655414936056 50.72204018976374
75.72663497662195 73.46447779898138 48.45241632336089
70.21716767318597 13.344202931207361 49.139184324205786
70.93523999086604 15.614384802816113 48.19122893299153
71.8903180751039 15.92604038661056 45.931876057639194
73.04861602420048 14.421949532817834 44.43918736283651
76.15318416591111 76.90581566613085 52.17911592008964
42.1377367942513 78.72638564210378 10.58593562026669
44.04349252325325 78.60298976946324 8.994971734759902
44.53516851630049 75.78495102967415 8.211172925302936
43.606384884090154 73.88139009605229 9.12321947009955
64.4112050161352 44.22641132024809 13.574783705130084
65.75182235208072 43.875527661096015 12.005034064199373
68.64295611186112 43.383575344393655 12.30062984721573
69.88605682591755 43.53774582753254 14.135635561411478
68.64995763628717 45.75992528578783 8.463665586018916
68.66686427332337 48.02019238989244 9.82424707088856
66.46612061409469 48.1183079135016 11.529959354723816
64.83302050960415 46.12040065220641 11.558424971606891
54.668344263820075 64.8724528469193 34.33840539970032
53.54675714845251 64.03598865265707 36.020840818927994
54.16892003930225 61.17128233711742 36.77508011290423
55.28424649473309 59.62575869175953 35.4521349147638
72.03574296778716 29.82534010942755 34.983883151233066
73.01168714741772 31.47289249709875 33.43779683627401
75.50135311259258 31.23445259102606 32.73948026644123
77.28392300200306 30.901699685010076 34.14738294625581
81.04550018198421 29.299337932333845 30.90632348332489
79.07886704188934 29.97206070283515 31.913886931148685
76.80211945005699 30.440168685888455 30.45347202768363
76.30913960667544 29.727812594767226 28.15751729029498
50.96049650205819 57.36326039280316 31.87827197066032
52.896322265200006 56.18359286978094 31.54929479036288
53.59563099177701 53.78680652244511 31.295653282172978
52.24269138788055 51.752766470430565 31.138557727898036
72.3803884693556 30.002541441406514 31.302189939215047
73.99508839778272 30.562905252440533 30.382178355731146
74.17624248037194 31.52946615950602 27.92212901069171
72.56875186432558 31.179348986890535 26.034039670007726
69.73005308222598 49.101086142390606 55.45577604280425
71.11366083492359 48.32200253184846 53.95297253208631
70.19218050811318 47.150337194084635 51.952828734738105
67.87602675536186 45.84751990980011 51.92625366886899
56.79491667946559 75.93478686692991 37.81803495505927
57.47982998202666 73.87510341796673 38.29183456126435
79.37882897987791 31.60070597731716 26.557128861721207
77.51070568999388 32.151311154918766 27.29636035036563
75.20767545338853 33.51331008525602 26.472676457856732
74.50951103318731 34.35167389828022 24.616536088078256
72.33283283350774 46.308946120339094 50.75097046932305
74.24006124257912 47.407691433102016 49.74224777031933
73.6604116845443 49.510804904583836 48.76900156699357
71.43640322082614 50.163673233269606 47.22681987994574
83.74097404539484 55.43414194009724 31.624208351266418
82.62288420392461 53.730143807125536 30.04279315860145
73.52139257810329 43.69512682148965 7.185037986801626
71.34092548063153 44.38411791075515 8.031757183100398
69.83170267055847 42.66730724073594 9.472468972220913
70.53623827944075 40.176142302472115 9.6690705890797
79.9468204128209 54.31161987990785 27.26484977929162
79.1308142587009 56.06069054393639 28.42620587137816
79.38874273901762 56.65194934499349 30.96490445143201
81.06073250522117 55.42974242029908 32.23886147395937
66.33230637452583 39.53451858787173 11.451745958058604
67.87085325610651 41.11739213931646 10.948563245487433
67.27278030070164 43.30547838070474 9.591072616892424
65.25045506467306 43.507685270126416 7.789056755565153
71.41965141290414 60.282817190966945 36.528268045635784
72.56597553957624 60.87876668654545 34.878814235808115
72.38157787655051 59.358021508631516 32.400913458170585
70.22228077627182 59.13043227551171 31.408804534240076
68.93551036342592 48.104479010823376 18.119632107433603
69.23289921520238 48.8084190005418 16.0687685239749
68.55400227755561 47.76337300946798 14.14625851570842
65.91797604858694 46.69576435274825 13.941186694148353
68.09691664380962 50.900339308070855 9.278881149885258
67.54187487576141 51.069408718951294 11.45315879158202
69.04077671773648 50.605022201226674 13.356384433168069
71.50241305830038 50.90462432331706 13.602167160572465
84.11063126661345 57.825818987674666 30.41372847166774
84.00135004536483 59.631305784481896 28.462207999917304
83.07853228740008 55.49951291355947 27.381728519215
82.23058000056137 54.16802025669615 25.564923910588057
22.03386020720494 73.56002689780343 4.670928278630643
21.53897864273599 71.2559640896511 4.928301691267244
67.89210518502149 40.34774060444429 27.562561767157874
68.88424182408215 38.42189187061498 27.866096657296048
70.39366669190382 37.308031279773594 29.08642277758354
70.38502819160632 36.759789236129606 31.287259937644365
54.84536937281822 56.85856415498231 37.36804256187218
55.3195784358745 56.90687053007875 35.0027060728411
55.05780622246441 54.79182101353528 33.50308407919598
54.28970931431647 52.7537596588148 33.70449441248923
53.938943989373506 50.04609806954029 30.01940376912098
56.11764077033013 50.11592697437334 29.6046508099117
56.9639434608471 52.54037334109568 29.554056774719825
55.567487282451225 54.61362194863692 29.109269573019123
52.8976181354175 47.868339553877796 39.33910986142513
52.75271822408765 48.73040042913474 36.97535247776413
55.23366040131207 50.012241387626204 35.82918740030019
57.30098103486478 50.21878534293732 36.79722796293978
57.31005415586851 48.95042494568057 33.85561482229158
56.36289521316434 50.088214462652815 32.30308266399377
56.56959077349506 52.729185025951864 32.38101696207235
58.057722667380304 54.12122823939648 33.72847633510202
69.84155587251254 51.725163053755125 55.06611417148682
70.13192930492356 50.749135752270526 52.84702508460133
71.84233687322637 50.72853077275672 51.29920944643972
73.32302379241172 52.005660270622684 50.458480534841804
65.6964218548714 19.021346583788553 13.955932765957863
67.18776879460592 20.934103782266515 14.174357017161089
69.54881118576706 20.329533964672525 15.886028610413398
70.27965495931053 18.546378581233594 16.811819670380476
65.51362480399472 3.1650156818055533 26.952889800435916
66.08115308188431 1.0829794875935803 27.12429659880089
60.99320248524224 15.90112476894184 48.76958176432084
62.7477694464536 15.02181131932721 47.59348660824873
64.57387551639059 15.902637300241214 46.390637991282695
64.54999670037047 18.296697019801346 44.798190150099856
66.12434965562598 4.803047945533267 19.062232785186104
65.47575356512962 4.2575928741429045 21.57757157573188
65.47298490819998 2.045756452040123 22.923356314452157
44.93308893522095 23.130297624338517 28.26367599504531
45.549552895830054 22.433424880701985 30.27479002442681
45.16038371846788 24.89885239684779 31.97850868414752
43.84765521392852 26.40524637942416 31.72359164484001
64.5254022591712 10.603919886678266 48.256538925497665
64.47051008060664 13.002098171216765 47.12085298922267
66.2781316644207 13.295937071404431 45.870840631643446
68.69504288361544 12.403740262847373 46.26210689674413
67.45623401721306 36.188494476486696 26.86566623262791
68.84065229863657 35.079739500624505 27.944589454707494
71.06101207660245 33.72017527405516 27.375009694737923
72.26744326887383 33.72284060993231 25.682977630053312
60.763866359813036 11.786679140900992 44.20178347874884
62.46149320327292 12.836782722166182 45.496788201838065
64.07921605049034 14.555532270470932 44.36684124197119
65.094037050366 14.751636898047439 42.28112316394171
67.4572340859176 35.393520375835536 30.19807029722805
68.89588510248227 34.398354218171804 31.70528538593484
70.35201811598377 32.247088754145004 30.906599767139294
69.64823122863595 30.81063171434186 28.660694011061832
75.0612618040402 20.3487358024996 13.445872024571639
73.10245655486327 21.342143416100363 14.278749752631951
70.82885254632367 21.30896356242005 13.423475905385075
70.0389487919047 20.779998329762652 10.9772881628543
81.97344702206836 34.5228455911777 32.242060657662506
80.93720074050286 32.448759655679396 31.66205435431452
78.40594972469442 32.77722631831567 31.182492010623502
76.64086172358097 33.77075058016792 32.61151139041586
81.65789282885872 37.04298687419405 30.432773925422765
79.75919077057682 36.43655564366238 31.23599180348166
78.13859248684703 35.087703286393975 29.28143206958209
78.104268263243 35.408634054969134 26.900806605751463
60.29034172013561 19.061102365888313 13.416761418435218
62.343483903576505 18.830729624363535 14.457981844840347
63.87031180686466 21.028691614096164 15.41721995143144
63.69847581803693 23.086171945064518 15.473044701923897
71.44362650292595 38.2126034659985 26.110462990787767
73.12721363027552 37.72392616318524 27.946948786886495
75.28251300245796 36.5931599203081 26.582535044360824
76.05244817934162 36.87921993489719 24.53062038254763
71.2256369051093 23.78992229518918 15.070610347568158
69.82740761170233 22.903865850269266 16.794181283069815
71.32648770082503 21.025784634171675 18.486223801402446
74.22317112476564 20.962406218660735 17.77151643080686
67.08625231096381 16.10051658573681 20.456620602954406
66.73605249612595 17.949035363813366 19.435802447845546
65.81880474630573 18.323079041409486 17.117192667893484
64.31139402978356 17.305405086082697 15.751666269700173
76.57699091897943 36.813659585641076 31.31534808880885
75.52810430139357 36.59443455980104 29.510366991065563
73.47382008752706 35.00725878202842 28.814991032546818
72.28869954544777 33.52406159833629 30.086228403048292
13.911258387385116 38.75828806569287 2.8764476243213095
15.056948558466003 37.332595168621026 4.240877256742573
15.187909279132885 35.151594593366774 4.489290153508405
14.810464434791394 33.268805996460436 2.837733172482113
69.14598798181261 4.2845541937321965 29.79389699181956
67.80558263440095 2.875982013735184 28.52124398250982
67.24957847287143 0.4315773550984321 29.41362933167377
45.77577580936267 17.601199142705838 34.81852666380633
45.431310427149214 18.510479802638642 31.981002094974595
45.99303875871531 21.111975871311287 32.465096362298475
45.16623928010948 22.56406152523495 34.053571312720464
55.73318283185178 34.55187115078238 44.94775768684892
53.86077046378747 14.314960664907284 36.813802153377004
54.129367662044146 16.32828469118851 36.23891982314943
52.295424692795194 17.872604472507195 34.81740943282041
50.3595492450833 17.111745103451334 33.56559677103533
56.574598007431675 18.13247412212115 34.789137488672544
55.01457272653883 18.040620653773285 33.55722998795172
53.634640197631605 19.99218967386569 32.70674614605913
54.14229490650716 22.48337085802696 32.549173130277524
48.366349162581635 20.64056408496809 35.65204966349245
50.20968604397252 19.836531614164826 34.89892716540719
51.958228339027194 21.531664766314524 34.231337381418314
53.03898486816149 23.047012514254273 34.97917926741708
70.81063479493366 14.957031218205284 43.32701255184716
68.76110833378296 14.304586581594197 44.125314108112754
66.92415781726052 16.068364407086026 44.2635946771401
66.47116300382791 17.916959264381045 42.60309558833588
77.97071665401779 69.84650479454669 0.3159050939417169
83.47919759512567 0.8212548774291881 9.31578571367531
83.04611974708553 1.6826036759143022 11.213838923322001
74.15439300692827 62.9321467938065 34.3890034652135
73.41694886660221 61.990387494184155 32.07671660777852
75.19010564100007 60.43836384234549 30.896540157221857
77.57794857851106 60.50409660996841 31.174064676592796
80.88312766594964 56.86710688002591 26.16884593483468
81.81429403298415 58.06299404006211 27.395438610826258
81.01595785336595 59.47471737375506 29.287672539819642
79.46739381751519 60.87327805666842 29.310956465929436
71.35446950841207 75.82259142204268 51.46195712696969
72.49188261808719 75.7676568954523 49.17552003266751
71.52591163015761 55.99702739556937 32.546768270461634
71.95044716216351 57.584495375485346 30.298933866474684
74.67429264205938 57.93763611238157 30.114908813517268
76.530007286627 56.41005537212415 31.17231491635771
52.17376951856747 52.25683586513924 37.805020976353454
52.18953400152567 54.38321544891526 36.43779592543944
50.6251289044515 54.090160670154724 34.13337345948583
49.047006092659515 52.483059620953995 33.59837495931252
82.36646645384577 61.864536933519595 29.68715199269248
83.37049721550488 62.02925002193338 31.712889724963766
82.00722973554227 62.98251964424615 34.032043031724314
80.06085196963834 63.81063439049912 34.193133658497125
68.91831317424555 0.8342637436036937 23.609488534528683
70.21146458251789 0.5798025000752054 28.552393176277942
70.28841760799776 61.78478352697324 30.431623043756353
72.08036547444361 62.933090547731204 29.65150893487733
74.00026896543623 61.4589546071716 28.63550300451995
73.89820383105692 59.12519893555763 27.730050104557183
71.73037465959692 3.7084158393750224 31.44074657825073
71.62459410259751 3.02581865622735 29.212201655952967
72.85590227661524 1.0161200522492906 29.42936749629134
74.68017909135041 0.7438518221745739 30.58724968345717
79.90185786595057 66.57022536475742 0.9563868320127363
80.77360871063121 68.02738860599652 3.3482952185724284
83.30501406375109 68.47296658895978 3.9204216658607542
82.49506929598752 69.65783201245772 0.46354151327579174
82.46638690826806 71.30516734511961 2.6693493351823654
79.98019746293241 72.5265638321774 2.469797023038926
78.43579689675786 72.57172422470543 0.6120588577095464
72.76578244270829 0.8884450187918458 32.532920909802236
70.72895920317397 0.5424975277832287 31.644912095799757
77.0097206010551 66.22510884306132 1.6169464972299854
76.0109796712693 64.48502822441544 3.1662858395237157
73.73158452974799 65.55354415698004 3.7489046685358085
74.8033833255831 67.02716139477583 4.958827357911434
73.60305976027816 69.23398715888406 5.545219823531799
71.36183418808642 69.34794112618168 6.782305805534997
82.46581330333943 72.18463444397032 21.9223598309855
80.75150636184124 73.03732379737862 23.300612440422352
78.71791395185008 74.54695423828721 22.699380507404275
80.08963022499037 60.56900199560999 38.00573353035836
79.61842101920864 61.534634938248786 35.957750306388306
77.27559493721398 62.27287871638065 35.4569713093511
75.41839898104631 62.828069790280026 37.290699137454894
79.09841021920785 58.209954868378226 35.92203477286001
79.14741566601137 57.30641164435612 33.924540553895085
81.51743756636472 58.18929766330106 32.36277501336271
83.07431980745012 59.655206853765655 33.17831284614486
62.53675262280593 77.6895991568896 35.965797993733474
39.05735126000734 0.9449307682843378 34.636615447209685
37.52315663981873 2.6370248369244393 33.836222246172454
46.75294163713932 0.8291409253285962 42.69498598171399
42.915674824157996 71.10545579514663 2.837147802287146
43.832705609377925 72.1188305649649 1.1362043073391261
13.008462328700825 49.627162696124664 28.737451017866686
11.071709474770115 49.3975346076097 28.058922391431633
10.326137787341366 51.807771984097705 27.20320602505081
10.974907749419355 54.00351400914802 28.119524413087365
52.20810619274971 51.586519434174654 67.47953955095103
