39.97324726803201 37.67810690682745 83.06782933564561
44.56535370341444 55.786512055701685 75.78004588925556
46.15655484181078 56.69705908821574 76.99953569844345
46.49589528467673 56.257141957785436 79.68388092513389
44.74281093266565 56.434082291355566 81.45228118873274
42.74596227606182 56.48360940750475 83.74973255247312
48.30467024595955 52.39680974975662 79.77195590426626
48.65201211358357 53.189768623499006 77.56297291596651
46.58979025884764 54.0301313790929 76.39015144335397
44.4246506618452 53.02009355754319 75.89823021309643
29.623900226222155 38.52346515198675 83.81758752610278
31.690466053048 38.25424021072519 83.84834332386293
36.19174963422315 35.799771327521086 82.39743233630034
35.00051299562812 36.306176606673475 83.97713134312558
45.2184819536457 40.625130148122786 84.22204042794144
51.28744722769492 58.026882316410344 80.69997346064469
49.928438062116726 58.276139172595954 82.56027959158136
47.72461520949413 56.92042288255515 82.54460295733857
47.206128636910655 54.63132739858746 81.6444494955342
18.443215241870817 36.05169495458424 83.05824547037408
62.30065333455246 3.7632513489952686 79.31533966183429
73.6766687261829 20.30293860900846 73.89934421078037
65.01783335279544 1.213895188769387 79.65106327934275
64.30337565655064 3.2867851607819905 81.1626889527807
64.56445413597211 3.590538157472983 83.60178602500635
75.40768307217918 5.405985254190617 69.02501810122519
73.47678595716336 6.356384325341031 69.71203179181444
41.07629255311 49.19442052265623 61.70264829728083
38.94719428666171 47.82746588673848 61.12007585257094
43.058340623146336 41.08783336724843 63.872261390540366
44.64889539368251 41.06089729320521 65.71282472479213
47.3451406602961 40.839084739367586 65.04031733141647
47.979708110095224 40.566986752064345 62.58194086469943
49.86163592298835 41.916195783959765 65.11211560047033
51.536950434351574 41.21474128917558 65.35030844041783
52.702624257366196 41.09604042593756 67.61279898724123
51.96894301763844 42.16492548759374 69.78862634237512
70.75985357770831 12.402515288481576 67.73256577114569
72.74415899473372 10.241285455313848 68.1485003767996
71.21695921928851 8.079476443738482 69.59390081223863
47.56951580664261 38.245508651031116 66.12049638917115
49.51985931738304 39.20925039772116 64.92286797465076
51.47454942928527 38.1443209663052 63.969322253407164
52.88571247296347 36.32133807227821 64.77560122202331
70.07742943434091 24.3813253211366 76.40644694686804
68.98689350267023 26.13110190319322 74.55755287100605
33.10194103141531 44.79893026302201 69.44461971337691
34.30678510871785 44.9234953854413 67.08583811915076
64.62305886780766 5.6967426767950915 79.64507790821807
64.67954963998574 4.956702825293651 77.44892090692754
67.95769700200057 2.671177867746647 76.5393042655446
71.59595838589321 7.3162226800281145 72.06888852544895
70.96310305598854 5.622432654452112 73.10592106987643
67.16528075323455 7.134978117023088 74.40948470243283
62.27399904203695 46.07775602386312 83.32429198847015
64.13832289691605 46.8478548380515 84.74723781492156
66.23845810613103 44.98898318414962 84.64664361714081
66.3782221647691 43.275526249384455 82.930740814204
30.044294305828828 35.32536673648516 84.49636769774295
32.24337687945254 35.46620042737154 84.94633740174663
34.344252003702266 33.81810623181935 84.57405019302144
34.97701910729529 33.30620262881611 82.19459261634218
42.45178688486209 41.2039298409093 84.36451059766799
57.62263970300857 17.94703354571979 70.98277772820381
56.01511822617857 20.424109577019724 71.77232168405291
53.56040858738248 20.523960187604604 72.0220773225376
36.78207709456273 46.452383235613986 64.36653178026977
19.26363430963653 46.61774698615066 80.5807762832661
18.223192766962267 46.10066139316139 82.30672225173025
19.190213442970666 46.18485778442126 84.5171668011338
21.56868491218338 47.90971988441019 84.99258836239338
49.46284154288459 77.82691816807944 83.08958114416389
51.02768802653345 79.98588658432041 83.77253655564841
30.402617546668356 51.67869783206833 66.00706853037683
30.902455026148502 49.74425876121691 66.63626950291142
33.389733610773035 48.47454122592011 66.38711002525406
34.29817087118964 49.186207326444425 64.17768710509677
27.896848644084113 65.55391880053925 81.9911101833822
26.491462359416435 64.21413595655054 82.90362058708291
24.742748810839004 65.03252861111122 84.66711390206555
24.478355040766438 83.34405421492504 73.53472081207097
26.195885885425344 84.1163856283847 74.9048777297141
33.353550536804704 78.5649279461582 76.83347834290979
32.91172894042445 80.42594235306277 75.95360277256032
34.24014008411795 82.47693033022225 76.91348924211904
36.53855491372234 82.677985966088 77.06286970034462
51.63879734011744 76.66876072447529 83.67852629223549
13.767801502682596 84.22785892008709 54.9412803700742
44.05443792606643 60.60084855433343 81.15473261144106
44.454552906190386 59.11387442827771 82.82822401622673
44.79975563987288 62.493743311857415 78.57902139676104
46.48632732072935 61.42798042591588 80.01163809536193
49.398048863103334 84.54578691468667 84.87337645889782
21.374279675748042 66.20268586281247 73.64384801104615
21.16390818011268 66.78532106276892 75.60589089242126
22.325883617718855 65.41926471280692 77.39359453501726
22.546834003756512 62.822675635120426 77.77264321450208
31.08074635581962 79.87279221183412 73.15634504318635
31.978383344403692 81.51991162087101 73.67849608676671
30.690428989498255 84.02405515104336 73.57353285378626
28.88779560463958 84.59693455415483 73.2384474452889
37.20731892490154 83.77635589342874 74.67638317025288
34.49666630434625 83.0292364168486 74.1685484158657
33.37981726765672 83.86483562654448 72.23879648544877
25.030556349906856 63.736104251213646 77.23695367313873
24.640105832177152 63.76260698179112 79.34144752484983
25.415408196515063 66.19185387115178 80.6284254181056
26.53680667121106 67.87627550957114 79.22185789737127
26.315149922897835 83.62050561382219 77.42479579862959
26.13425256932537 82.83616860107915 79.41695940728619
23.369104813845155 71.65557768471396 81.50154810569083
23.3102354751071 69.55767880752994 82.5878945450265
25.709513253389645 68.14576974177412 82.62043043021231
27.674754251453074 68.45749927968956 81.74246644271865
20.530934855077966 66.91860161829413 79.37016375711082
21.627322006010036 65.01694550829299 80.04579070296305
23.003965970698278 65.4672700157183 82.51338627229005
22.432993771192084 67.37163844038982 83.9317778355964
36.39004293253392 85.05114806213409 78.27639738062665
34.27714095942567 84.20905419331139 81.50933824116164
35.21350009484437 81.75991334492915 81.69463613223957
11.027895253516487 80.41592264983882 74.58252512962312
10.123026634947571 82.32343830116254 73.57225278887498
7.779854738976159 82.93698384670863 73.37945444933989
5.8832907595097685 81.63275886031701 73.15451255780182
10.031144286078064 81.86875298652126 69.9369107081327
9.706380206581732 83.95095662374929 71.3620693258658
6.1592168875872355 84.90007123874867 72.41907331814438
6.550767463911219 84.62045073049869 75.26210794289624
28.388221886124196 66.3565804940326 74.75703796136959
26.54208181993112 64.9661017284631 75.00476580025021
24.288173245813827 65.62383552229008 74.28894436712929
23.38362984767773 66.6748228124379 71.94166666972947
2.9923273817392326 59.66591071262667 78.21396679778192
0.9361957369313783 59.013448429959794 77.1715432366074
2.7618915723094517 61.4920788656796 72.31320496925274
0.27701762147146275 53.66589601108341 81.14229281152987
0.11656033449884794 56.67368306182372 78.20690772397607
2.0212059640930664 56.52665837231429 76.74804871490885
2.121476181748075 66.59735510754862 72.76740883694507
2.036577432540409 66.2006412578319 75.1813221224529
3.437307208033871 63.66569243426795 75.51708200569118
4.838101794850276 62.49131871371927 73.90460715166579
25.193452193651694 44.67760929267058 83.3617871208199
22.729573294592868 45.50590272704033 83.63170261446811
21.233425241038884 44.327231730503605 81.76444437601265
21.880014156898078 43.150111002755196 79.45753008061304
19.2066457481108 38.778419407049704 83.74667426846791
20.56588738867716 40.19557665713393 82.82485318157285
21.519548524602698 42.257104657183035 84.18859292312371
20.01471585709941 43.710097486861955 83.97532443101325
17.47468627594941 43.55032827087424 84.39684243719763
12.351257566948357 41.41500241971307 83.03751718595821
14.539554900022866 41.8505051803703 82.94349731533194
16.512628749682477 39.67576513869544 83.172470180823
16.24767929362523 37.68589005371027 83.05542741892417
8.13818721272606 67.3969406414415 63.41265366584225
19.5142026043565 83.9366279014547 57.99665821478834
10.855367230969035 64.84758448121562 63.74837728335071
10.140909534724237 66.92047445322822 65.26000295678867
10.401988014145717 67.22422744991921 67.69910002901432
21.245216950352777 69.03967454663685 53.122332105233156
19.314319835336963 69.99007361778726 53.80934579582241
36.76080811352301 48.900818291388774 62.532717804242026
36.67996231426616 50.70647482667784 63.828473702806946
16.59738745588192 76.0362045809278 51.82987977515365
18.581692872907322 73.87497474776008 52.24581438080758
17.054493097462114 71.71316573618472 53.69121481624661
32.25567477983582 47.05804281106181 69.39561034968949
34.46928827212439 48.86623503375956 69.0114792136642
36.15419696450843 48.90968106153415 70.41107729646498
31.397288061899133 47.04749769494156 64.56374430784469
11.142431492375374 83.15739050851644 76.3150625154015
9.516468693760588 84.40216830277696 76.28026894352513
3.426955552982334 58.47711086075998 75.57662464827489
4.937091929350036 60.524419041488116 75.67820868308853
2.372913814589381 82.0692752854561 79.32573630512202
3.7362644285504962 80.72403379644471 78.28570832031289
4.35346933419735 81.29268830897487 75.90221628361066
2.964466300289736 81.85344685738403 74.05103239240928
10.460592745981254 69.33043196924132 63.74239191222605
10.517083518159332 68.59039211773988 61.5462349109355
13.795230880174168 66.30486716019288 60.63661826955257
17.43349226406681 70.94991197247435 56.166202529456925
16.80063693416214 69.25612194689835 57.2032350738844
13.00281463140815 70.76866740946932 58.506798706440804
21.141185035539465 63.29030055168071 84.4954671196359
15.438851396814274 46.07116775536563 83.27392468242813
11.550193952685696 42.819725145918326 85.02681036381054
3.460173581182174 81.58072283816603 55.080091732211784
1.8526521043521702 84.05779886946596 55.869635688060875
9.073371121472737 81.55443500220674 76.88368314361021
6.734665098054092 82.25808970530858 76.72600814604522
4.971899182639622 83.38227039896863 78.58415993129069
5.4826365712115335 84.19894446267142 80.87207458028124
12.48223352013066 38.422498324349604 84.7757980610159
10.899390356184917 39.95004708530071 84.89655257529047
33.286910550261624 81.91151573472658 79.60391302021678
32.160925268859934 83.79054162159045 79.90136647073122
30.31613082465587 84.69311533028903 78.16742025261506
29.715438636451665 84.10368115709251 76.26072712447704
19.941836543868725 41.15230643278554 80.03300943313609
17.886356059863953 41.15942729290055 81.30138113563913
16.505841285125893 43.37315157919044 81.71355363625186
16.19435600569061 44.949966458543265 80.33838761031441
23.327594599154235 68.18860455165078 75.27998303784086
24.438363243866 67.78696944521829 77.35689334735824
23.254180589877556 68.49454196612328 79.45544860556562
21.480955070864443 70.14244407213263 80.12850953334906
21.309701593904585 62.15721815998998 80.01873606657308
21.810315925040463 62.791738009908414 81.7887699437452
23.884183057945023 62.88828412447453 82.79824636703086
25.535902584631895 61.687859703803525 83.42560101056303
37.8185914715947 50.98898763211314 66.56361400290602
36.698196196597614 49.774934647557274 67.49531701276892
35.95259149624287 47.36919749721439 66.50080670270613
27.655046870562412 48.85038438094555 67.40674468198812
30.219362068384054 44.070456036321794 67.7462039714538
77.29228478543621 3.113353595530808 34.138737202615346
75.58179154823266 2.2296720004971977 34.861207244940076
80.39890930345092 27.885373234678184 30.240900431441926
78.5409963321735 27.61670183990217 31.16096177373133
76.32750874997664 29.43965385969575 31.733890775659262
76.09405900691348 31.60286440155679 31.08609386096687
69.72328557571612 7.257232577747892 11.07599548509031
67.8546655906354 8.278845343806982 10.022554090404979
67.48395744334803 10.659311132276855 9.165735780853774
68.3608659707757 12.773194896550848 9.941297677874184
74.67934024740511 1.1794993027983276 37.230855496399116
77.73252515527042 21.08898720556243 34.14325493627748
77.53014086664578 21.636908736514002 32.02375134979863
79.07608225717553 23.143454395975766 30.903989676634566
80.1087308442556 25.286043064489945 31.488638153448544
37.286452724599016 36.0289897307245 20.153806060144124
35.37023596745458 34.77401308801164 20.94704166854461
81.84467841086521 25.758405219247763 28.958717496709777
80.9638595424526 23.830197167879643 28.9768870968322
81.3845394287557 21.463144383801644 30.49280320135772
83.15990082690607 20.867206122336892 31.839455801186055
52.045733529541394 23.741560477232536 19.898798457217545
51.5349416264646 21.731517812279527 21.223022910802985
53.79917940499199 20.587924501887798 22.211480333414297
56.23808283468644 20.9227502700175 21.4280816067467
82.12030623285875 44.83231671142968 29.478945020126705
83.14947026610724 43.10538561630088 30.90078972996227
51.450656941118574 17.210756986441652 34.631800111672746
51.35779707020828 17.440830590507495 32.113719323789574
50.925682495605834 20.06611562024019 30.947947760999483
50.61690302094539 21.999608347329737 31.777107833527563
80.25459589313002 29.62293536129104 4.494794765046541
79.95749887753263 31.416837748856484 5.7793428896502865
78.75335461161296 31.18476556100413 7.88744517391937
77.06735505782892 29.65808120017118 8.60663499432349
48.303208615967385 25.336980905723195 0.5381423902420532
49.71625998641948 25.21084006311321 2.9874125285707382
50.8740680550044 23.60400085500062 3.638648280551757
56.82524747270177 24.198500428692146 17.398425967597333
55.66525888094243 24.06073777752914 19.42860653168322
56.37639757416246 24.25384762068808 21.876584719523915
57.93624014620931 25.742182291374768 23.10249533420878
65.8099360945729 39.786090461252655 22.548749222689995
67.1554020725135 42.107315046272774 21.140654239164558
65.67370781698797 42.068755406535026 18.849136424524108
64.89504008301576 40.451649134721016 17.432133749993632
78.97426507502712 35.99706870140986 3.995066749671999
78.29647962874542 34.387732650069694 5.769113267162901
76.29897168270239 33.11551415271127 5.823465844405062
73.74231671143133 33.864702222913955 5.188859682400598
54.621049067901346 28.63934614204008 29.3243845163927
53.187173550242264 27.052610192571233 28.623634288163355
51.291921211849676 26.750505631824467 27.183547901957287
49.53270396519076 28.03318217106165 26.518664722877542
56.75211603080441 40.289424423914895 22.414766166073935
57.57102906373528 42.40042122981603 22.563255272395242
59.009834689159156 43.21047539280766 24.423864624523937
59.328049896862794 42.64019120919336 26.637078382496647
81.24637311348916 27.3804649776335 5.34508674029071
79.44011411527433 26.998295927785687 6.480209484741442
79.04781012210066 26.89225328924452 8.793457864605093
79.65748522468397 25.749053122866126 10.706225360456948
68.826952000602 10.113423961353975 6.520699813007871
68.20294235013523 12.264101622586194 5.655243891906675
67.14455300216365 11.987059577795577 3.663621226395921
67.22769825621742 10.176271489904705 1.7778401779090707
72.20528697523143 32.95580692484996 12.542382856332939
72.36352393688286 31.067492300458635 11.390431354295687
72.88441809387268 31.402237334830986 8.992721794237456
71.6819721799511 32.549993759787476 7.004239742520043
71.60353972704654 25.38979353797953 3.872712855024505
73.77624917044754 26.315365012908547 3.88855742725528
74.39151814424078 27.673732112877932 5.869833360794499
73.12025440692858 29.10452933448066 7.510903431046088
63.0610276681559 2.573526606346471 4.674925816725997
63.6851524041495 3.6469535610805446 6.266817726618261
63.92259009323375 2.6437961149030156 8.681219814483672
62.975661025934265 0.4256321341670611 9.593652976778966
75.27095738975902 19.218737672205226 7.801035330484187
76.93893495198266 20.290758785833713 6.971392884126302
78.43944770955893 22.191651916091207 7.691316326402211
78.4504784792563 23.47106016669521 9.783140996387884
66.15901388253612 9.624822255297241 16.16089226580399
65.6736466187157 9.481534595183119 13.999161288502501
66.44299532919237 7.718354627007523 12.309610048278602
68.32738019167148 6.066700718478046 13.099035860626294
61.28236423108153 4.838695516003356 8.852782940989593
63.00166509233958 4.364410535698748 10.385058785434316
64.35475487538741 6.166399852761348 11.500156208609056
64.11177645539591 8.507477939624065 11.468173541895347
81.54416958810265 35.085794815173685 12.119888419566406
82.93295079332923 33.8670277989894 9.771620415394167
80.71348792481157 33.42726403033564 7.8579076045773615
78.36918407620894 34.34706977826358 8.493270353486162
80.04186657590985 20.431912392962968 35.801571845698206
80.42049576777453 20.67292523318175 33.705893304614435
79.30023205247366 19.63393577732144 31.61479622228909
78.75130518990282 17.481319579532617 31.11304650875555
40.72785047836218 36.16189965440388 24.540863374949247
38.818604175266884 36.50156055872098 25.95712032956968
38.63614320455131 39.36081990164292 26.235963774794175
40.496550385268414 40.80691366205258 26.71313165959066
39.36734205761731 40.344162288981146 31.959536780254407
39.906927957214975 41.04018385354162 29.381914884983438
55.511406663122564 45.45327581622063 0.9224027278564034
36.926327302699605 37.27120864486158 28.0787212232273
37.55335994401939 39.12364670539094 29.113825248004467
56.29462223334009 26.672066982981928 29.782814690130714
55.4746981187235 25.144573348496728 28.303245799843257
55.27232534638674 25.475607695091735 25.743727967080883
56.142894024149435 27.236275194882683 24.357230271919814
51.3085388279404 39.288504250037796 0.7211589457685509
50.37572077292023 40.22783182164995 2.3721030635663687
51.74350133162186 40.8072503371884 4.263169552211537
53.15093624319063 39.44487813102926 5.657549922293793
53.24613276679161 41.072341542412346 0.08311058854861667
53.78520086109463 39.03826813970559 1.003754055372453
53.386273584983876 46.44557197042736 7.9319823832102285
54.956462337511724 45.32027258241314 8.677630137848455
56.55595223704409 43.18355692279995 9.801549712299455
55.46039876763716 42.46849672373308 8.334107527505223
54.176297690792275 39.75750123990961 8.56729180309827
54.88199040951811 38.33076222261915 10.58575670705909
48.76927409675663 27.869764107407224 0.9123448654261673
46.383177943725244 28.377580594518165 0.8973297625895569
45.054550584925146 30.13645863486265 1.2116010488883404
55.04227424163681 40.39232499949216 2.7930911354270123
55.27459466797249 42.636960220906154 1.7833813985898868
53.79645478828038 44.23833045477943 3.5652837415509926
54.30263753289946 44.74621863701718 5.729670666355634
44.53540593151117 23.455508145844565 3.5688502940648705
46.21655720729519 23.822040085781484 4.476849906670624
47.5616258970371 26.38938187455283 4.4774725806052444
46.531269170754115 28.2545978185341 3.564873845399588
44.05710923148118 20.678156648832108 1.915370370386574
46.41972608557829 22.005522551941137 1.645853268923647
48.50791105099395 21.368678984802504 3.528539282226051
48.55926652353307 19.730495503411873 5.212452347990685
51.50658745438634 43.06454806767046 2.4524490954258678
62.599766512239874 49.486662441678966 18.16154619527494
60.97550920287301 48.62726262452919 19.75190191629274
59.68678032788783 46.76058548089689 18.928991808338434
58.053323134464705 46.58814535044253 17.217725675582876
66.38675126693028 13.61818096361901 55.071079718620084
67.04174081396933 16.30465010521315 54.94073491090063
67.33060257789062 16.99688165622845 52.24975675099561
67.17888141768401 15.298542083193588 50.49592331644892
51.91262211904596 3.4570181962044315 23.548686195982384
53.98548566670212 3.313514209126527 24.761755544699795
53.8675920320595 0.6979822485004965 26.021158496949564
63.70715309488568 13.969064660287621 42.49927494538354
63.81145179834864 11.679289279945696 43.18213725295117
66.08612275675398 11.194560516388858 44.62650653414678
67.68812689220773 13.151005704184403 45.01441391448051
77.45562477898488 1.87635308899159 37.260530335649
60.479114891666505 17.29963050510422 47.778296178078485
60.838473288574626 15.335182973697858 47.134415229857304
62.886594473636016 14.430640452975826 45.43465672340569
64.54811623897399 15.762302789757786 44.36079528584134
50.63095463061875 33.29327059902964 42.5904827565673
49.166249343168126 32.251072955085895 44.098788335301975
47.404446187987965 34.296944144118115 45.36792638276148
47.8748992268816 36.209865816558896 45.88925414137244
34.253980026677915 14.219624504900187 26.817481683616233
32.83050023900879 15.077664833369182 26.198371486747757
31.95611246487737 17.31568141983037 26.642154657470225
32.79961926644879 19.49447154848418 26.084874565860485
48.12754859351914 30.99303169634969 46.303981864682356
46.36070014812834 31.471578517067623 45.30374257217985
43.74832983234407 30.680973891802754 45.70464182540871
42.776577680493546 29.182136333239406 46.59524419568089
50.416794607804036 29.405149362405023 23.830291973838104
51.07600176183688 27.157535142140155 24.236138807371937
53.38761720169271 26.213630908848586 23.89916234444417
54.005494662437336 25.472226878796935 22.05347919559739
48.49538158878712 31.649984617285938 40.56580942133967
46.65179004048756 32.95464568329126 41.886276689300594
44.99747898416542 31.104070205696484 43.009466674953934
45.34006522690117 28.66681764167096 42.48853653112074
55.511703318310055 17.795609851013513 28.61800007033384
53.33978918871286 18.71953245164059 29.870171538358726
53.54906323927278 21.445504016262372 30.169643095398047
55.13052261170201 22.78466469473677 30.307783117251926
48.71379088095863 25.52095068758758 27.535412967852437
50.95702360036793 25.02966955503664 29.2906396723359
51.30312661202177 22.63468607015789 29.12479481165172
49.69775336184922 20.969751507483622 28.197789832571647
55.86358000534094 17.99655538385696 25.581237402123552
56.154596348232836 19.918239468465167 26.759437002926447
57.42358947885099 22.273905108017768 26.407541724157134
58.07785959821464 23.111695293880196 23.97448242609207
49.72152867670141 24.959568497807826 25.119726712569445
51.68135063901032 24.175092571705697 23.184825896853948
53.7611436638806 22.597907275699253 24.31812941736234
53.04000799769319 20.810960242702592 25.240271917828252
52.686348958712394 3.6704880505263553 27.44292377972066
52.56101541021553 1.7792043481265707 28.346790554393156
54.416008053681956 0.5754575019143848 30.1246073119249
56.776259340190585 1.0175064722563625 29.61022794637025
51.117116785832245 1.2272449536758574 31.72985360745779
54.8467566368363 27.54737966447187 31.920819881865516
52.66924328165925 27.143784002014062 31.972052933397233
51.82124225843547 24.52246866921525 31.85971637836626
53.00971074360809 22.59219351241699 32.5137522075978
64.87294514119613 17.932195632153576 54.10884548516416
63.68535681187547 16.016850125337598 53.452804639568555
62.7831092691247 16.00800091163645 51.232284533247935
62.4939085700292 18.15601418962058 49.55283548135191
34.86370305901717 32.14432017739409 20.740122685982165
29.454584095150057 20.377526131343274 33.93440002358284
31.018196998820812 18.70753356260476 33.13800583988219
30.26887254890228 15.933562994728229 33.51764754265251
27.993726241805668 21.148391659038797 31.05582938276772
27.268501692736347 19.162280363678104 29.98607695528509
28.594546843256186 16.990226588683917 29.819201571516192
31.143776259881673 16.470543607681087 29.985321727099567
37.568615672931585 30.875506326877158 24.294617258309124
35.88854664424935 32.085905858995304 23.306260350198855
36.10298056858361 34.714770793417145 23.365400049005263
37.79173091595191 36.05394809647472 23.603578079867884
25.354956542694936 17.174081228174078 30.163095575284878
26.980447997189994 14.879888282472145 30.204627445353353
26.80754002541219 23.206780157771018 32.02463241635442
27.24354469859323 21.825717962043672 33.951533660900786
46.79214041078516 37.18082326487509 41.67307518749084
46.25246863710637 37.875978686832084 43.837575626243975
45.33012101401057 36.16032879442785 45.29705804952319
44.19368628349221 34.03504094569538 44.63230710273171
48.708550632158826 27.91931629752475 7.859230333595024
50.142604563641044 27.142380676207917 6.263531477057976
49.400959809478024 28.398224890789624 3.945807543180226
48.46979315620596 30.847993418662668 3.766730694026449
70.15630022841057 23.514142533501385 5.538261120049785
71.66088122163187 24.82304016244519 6.785305385899664
73.6242011733617 23.548599588089488 8.135972803098669
73.28019911536839 20.9353800565952 8.361419624048768
77.7112529417373 33.22734898515285 11.196046780602066
75.987564919326 32.75124664899715 9.914271184671357
74.76054882307207 30.258849305353273 10.45867956945136
75.69494984515157 28.541869669502326 12.007747021595454
78.5741980473849 53.595300781146776 9.518235069185014
80.02881647428667 53.80050222852048 7.824234603682671
79.94038573968561 52.71561183827718 5.383652743783951
78.39345962122364 51.46625901403963 4.224859725565969
72.49751572897421 28.389760936364997 11.050937506673353
72.2409765111419 27.107004194214507 8.915357083288088
74.6689126528245 25.951721292557608 8.058510367764766
76.56157096609986 25.311125955649057 9.404649885017445
73.56592964651104 22.74475331372078 4.802293497090945
75.3427085037259 22.698524332221467 6.182768064105621
77.03626682560915 24.58528726980733 6.4453944250402175
76.96864692786123 26.758004771120156 4.762705972998534
82.61977382337228 32.39202984805424 12.109107913938022
80.24789188777585 32.29204561021429 12.15972059870058
79.33349022729621 31.05467970330424 10.563497840732762
78.31773479120497 28.157091247295273 11.33453454881216
78.56433613340805 57.04487060044454 9.966614794223284
77.96184614737113 58.35638586534163 8.098450827119306
79.85434494084305 58.26841911755409 6.425168871879405
82.6966969095177 58.24715730001283 7.116619272049794
47.66101715354031 11.720105759987712 44.38595716705188
44.9988598630681 11.42248976296328 43.44692533155374
53.07127897110582 43.36946415480822 9.22324817602568
52.15793647809871 41.76347567832495 8.068682615887848
49.945437602063635 41.806175454845985 6.382208826904235
48.820393330626565 41.19386928413202 0.3502128910650323
47.662909303589366 38.0748589839744 6.569694512858501
48.405617350086644 39.811402423156046 5.864492465557779
47.800276813126374 41.503223979634015 3.853564189787618
55.02827148381196 47.12337933272063 4.233368095795716
82.4990697506533 34.46314332617512 6.242407124231548
83.93660826811681 33.77357083686454 7.439594457650753
83.52344968625702 31.306240048828894 8.329228250770528
82.34533916621746 29.52197513107849 6.432345145974486
75.4161989770546 52.917196427171625 4.439570242245624
76.01691158338498 53.85316851329249 2.785061749281988
74.913185896207 54.865311002497336 0.383029401615901
78.97589586942215 52.62548794508554 1.9159348262403082
78.05619025050976 53.616162853469085 0.8926943168729261
69.95322459914014 12.829709762432449 16.27644535342192
68.69540763559293 10.857361759978163 15.727771206259577
67.41547810599464 11.405085593982266 13.222937749114031
67.03284738624896 13.296457424657588 12.193389865258112
66.33936345975928 3.73206342744395 9.522437768139621
66.3555954238791 5.677732310045875 9.673145987783265
66.17306174854535 7.647379249804154 7.70297559467846
67.13515887615536 7.819877661714842 5.6352921219397025
25.528687106232837 13.478035570137498 1.981801405070026
24.288758455923656 13.989292809606383 3.452558841634905
23.2174802868574 16.496511140307884 3.686370543406618
23.418360518478533 18.456850622606506 2.186383792000312
65.01869349752957 10.759399867444086 10.163800868045955
64.04903732154824 9.404832654221774 8.580988452665483
64.8884557466442 9.760203912391596 5.940526722068451
64.8113560195499 11.35817051492907 4.616622762250412
42.080280901788065 5.339645824650841 4.0245776098361725
42.99350427834751 2.959562736345649 4.827112177329274
43.66302970040248 0.9690547987766309 3.7821288517567506
65.20537013112425 8.628243195412496 3.4982673731803837
64.84590269843036 6.078180457850378 4.783324626181198
63.079681320454426 6.217490018658024 6.499412032753167
61.45417445292746 7.652953757929574 6.857004238672258
44.498980160388825 0.12761294277352775 8.153623309982997
44.67843317846842 2.2699387383034337 9.631861802527625
47.17627008542651 2.425844239918609 9.343952524692106
44.38841129672944 24.666696765655704 1.1706975063631961
43.25080686923614 23.040553008254925 0.9881375197647247
32.890485732769115 4.615721608002683 12.288182888130018
34.8623100801479 5.892677423902295 12.356319896601574
37.032463043689866 5.446728747738695 10.936636715967373
37.29548738356538 4.616832788643208 8.437044064562459
44.102860907189765 8.376912613618128 6.342108548276972
43.267840150357266 8.41193174774732 8.395487186144202
40.58743708516531 7.290316529118448 8.746624780573692
39.21538351114663 6.70668619339675 7.045837864962569
52.295555967595824 22.082774994766883 6.585347230437868
50.409809078876926 21.82331911933626 5.631238967651511
48.87730705112839 23.680923096583538 5.424914078586591
48.09396522109219 25.432416598983163 7.019071526598551
41.84437377742779 1.7758909390940611 10.102328615202284
41.64085959251824 4.085857228953428 8.570490945690217
40.65425475641463 4.19222978329409 6.520636063952814
55.68278448413735 21.92892160127567 5.174005615433684
54.709765385204406 21.947572531006514 2.9408301540455923
52.295241705454174 20.702394150254253 2.5553025756041343
51.12781573578371 19.19124917392146 4.453561341409193
62.660512340243734 0.7647696082993231 12.09358658919629
62.6096311999794 2.2682727095775683 13.586675260513596
64.41290772464417 3.8669153985747404 13.633211219530985
66.63350787994223 3.8135571927230596 12.200511869790809
20.737260062648613 19.07554849322117 10.279283612131588
22.873361810641455 19.530242790070698 10.257982179284795
24.55195187113597 18.008325832388635 9.36831192324392
25.287971549509574 15.956342702782917 9.926271694216133
25.77314791964191 23.602174881367574 14.717585028209125
24.038961324060978 22.100588109453263 11.042375228113954
26.12131055229791 21.817739876081006 9.65434945733647
26.383534375248267 22.121522479836205 6.890443404278668
19.653505325437735 14.62414666454852 4.128335394503207
22.192014129604157 14.30922928366762 5.193135470206291
22.41703873992474 16.07116718355538 7.090870488361049
19.962873129325896 17.413323688510555 8.089463868799461
42.081222298747534 0.06111351534585011 5.975102094066154
39.76459852970449 30.20343185994749 2.1176654174155867
40.065722471556604 28.532182069029805 3.824212286552535
42.528869889619145 27.48807056174126 3.22274732375594
43.70074115098053 27.504865328132006 1.2778444556590662
50.54351753839698 17.519095837747173 29.155879944422015
51.27392186688144 18.803600558855166 27.74286142733746
53.40077704829866 18.70030429449528 26.41892883054053
53.64267192574296 18.224950975445942 24.179721633285332
32.82909418102215 15.835146926113834 34.20338011917777
33.158452938074646 16.98363059701958 32.50478977312464
33.78817051436624 16.19620400619603 30.343700731217144
34.7911645829452 13.757173814929349 29.67922045840084
31.187118707029725 12.910705378016889 32.4371340194783
30.186354327257707 15.024505186245106 24.89775742393817
30.013139644549803 17.678370654044727 24.820704061818656
28.068202615945886 18.527323474627284 26.615213188254362
26.554977868425947 17.700107524706908 27.667339452880984
46.45996970590668 1.2020806856106199 29.191956462079872
49.8658611936601 0.689800348073813 26.758868029589227
50.61218590852176 2.5878042652667754 26.334401168990084
42.70212355190161 1.5881020532269061 13.233406175586575
40.777638542689516 2.7671877470506345 12.395924505961016
41.332168575431155 4.871827738062457 11.124718002203661
42.53401636368459 6.762234720995729 11.391709026443456
45.056298115182095 4.71468683292708 10.157467996338445
43.560300000251175 5.974797645895127 8.90158950903862
43.971467270685466 5.573367511836826 6.055370479091559
45.68330727974715 4.643695303708571 5.068748954794532
46.0448486813788 0.14690523459131385 2.858812689662625
46.12225628989846 1.8766867491990196 4.900638119948395
47.181595682963625 0.565602003205624 7.177630922537234
37.57834921083721 8.070155461355712 9.181837021912077
37.665710173783985 8.06595739537738 11.600831283904217
39.96976448406266 8.660746815368928 12.787677228699039
41.69217598001856 10.12068010005991 12.255050070812498
53.551786863122885 0.3760458067864736 36.07320744420265
52.979065971310575 0.9448041547713235 33.8488285613583
41.91640076713058 37.99103175304076 23.153059759525885
40.47234807726335 37.58316930282414 21.36842113044657
38.21471167373251 37.8656727049791 21.70459641110567
22.06116167013169 19.19732707253213 4.8026010790187295
27.47466240613156 18.991922734175127 2.9432468320439176
26.947786371783888 17.261799157256593 3.923242532449307
24.90076131998518 17.04110647397407 5.71682156267247
23.725577787950478 18.513792112093288 6.535014223352054
31.035939680926568 18.09066823370491 0.7512661227509964
28.63549959075946 18.68916199156457 0.538170322426955
26.976332883956438 16.45146723211574 1.476797105511717
28.12400022709984 14.188591486701956 1.6342655488401316
28.332292055636255 20.58945624100877 11.164600299183206
26.700897255820212 19.467499554518806 10.450263528116876
27.391671473923246 17.35105859064848 8.721993507120908
29.490851621665115 15.952140848346241 9.325814342754624
25.60230564420247 19.776779776285053 0.24373748562115996
25.168562461837634 20.613758570943634 2.0586840833952733
32.37740902100757 12.309743727085754 30.230869384213946
32.15175052325628 13.74110435565875 28.719522292194725
29.887421499764038 14.70515357597414 27.735083114791397
27.56811932252587 13.825281803265792 27.936029256747293
57.3371409178671 24.617289090752983 4.129470404955128
56.063737504301926 24.34928628689593 6.388492328274816
53.26079885630938 24.50781068980058 6.101361645531123
52.22718578606747 25.99386644577336 5.003829566203789
84.69220635349784 5.615172961794385 52.55939538895468
82.14054074163619 6.435300332147437 52.95655662974793
80.51499084751683 5.483461692086735 54.04235779461049
80.84105040379896 8.449368899468146 54.0001825586753
81.81570666209429 10.4999201240037 53.05541549781402
84.4161278224102 10.160394169221027 52.42013655042191
73.96892263481534 19.94152929480824 29.463048047912782
75.02859676049309 17.864469437371195 29.567192710598942
76.12168684762298 17.316432183675076 31.862000664985494
75.47453899015915 18.121655549157254 34.10551263659854
82.09744814948682 20.674102558754 27.111192965449888
80.0494169558868 22.660584696451174 26.721215850860528
78.12514887188912 22.17180131062625 28.345155706651223
76.93107884366515 20.38579453961174 29.025719588728307
64.71364483015769 47.38330825073863 17.506557588488477
63.53482345624606 47.19280272573989 15.715088116138551
62.288256295652914 45.56149804981134 17.54115770860092
62.49886380943996 43.24998595300209 18.05310442574055
65.58663835800775 35.02055853243389 45.16526983779462
67.57031705166774 34.14122889520732 46.187556449196464
69.59488606829379 34.92964126203639 47.08983336537918
60.591142901337385 41.4490267266008 16.038990895622014
62.32338432057648 40.79912736776398 18.044030366388746
61.14020676116266 40.85661529577245 20.281910701645216
59.26407448545717 40.42166232490218 20.983797179766935
65.99914793533377 32.48563239195601 47.88265836369244
67.98490807818834 33.07318490545654 48.81410195066826
69.9320389137455 30.997049939420716 48.52571648130792
69.76647066657851 28.666205106411937 48.214261550516554
72.43227154189103 53.901780460128776 6.999088581497181
74.18062059413111 54.66718835835438 6.310966309532892
76.31685263313844 54.71288233059107 7.765734636765799
76.41240869443737 55.061779302624295 10.457120172278
72.59278371952105 30.485704775427624 48.00840942890657
73.1178688018895 28.44363925321489 47.20093156002384
84.45220843407266 14.307955470212839 49.58904852255544
83.56383831199182 12.033594448704271 49.47274018412633
82.58691880804093 12.659866040795807 51.97357537586072
80.86758847895285 13.851663090502367 52.6866711560743
84.89209233652093 19.20084505422404 30.4406475373012
82.5411109836959 19.158677193580957 29.405105158431887
80.66299364200448 17.482846055040934 29.315294117171195
76.09295341285052 15.535160254071412 29.635574582180723
75.0088723162731 14.714297481313285 31.284130270785585
75.94420364484036 13.578022786420672 33.37249899740242
78.66173503157269 13.24886883719124 33.59406328178199
78.80886570999424 47.49629818820812 29.60927478589745
80.08288507752725 46.50504172127745 28.34293127273928
79.81517620654832 43.73766760615535 27.84146326168987
77.777167104897 43.259631125664235 26.445704622271226
74.4930481867249 27.692795797869998 30.45698160455733
76.4513555350379 26.833899705791314 29.395518966876597
77.0495671039533 24.38935207283867 29.611555402167856
75.82190283417782 22.39153829914647 30.206240477707457
78.61539342447213 23.53986198191035 24.489941570377066
77.3077159079041 24.330612192795403 27.01564330478081
78.89174148806406 25.9674055798139 28.02042427653103
80.57245437093403 27.403907254644697 27.199073193403198
49.158953091531025 50.45688253973994 48.54376520534298
51.160061381452884 52.29205261552632 44.83519667794539
49.98394981465508 51.686281722089205 43.28777801402727
71.62697438203328 28.552102354474926 38.537950764219445
69.2528523452681 29.030254198637657 39.855811286538035
69.70611070420031 30.559552599584276 41.79979648529313
72.64366199718178 30.993077905873424 42.27516651196803
71.3201339197327 64.28107341223487 21.1826767004167
63.389239086219895 47.120876929295974 19.662039678378452
64.32216617583981 44.93779182588305 19.950155688265145
62.70260926455943 43.19978555514174 20.635139264196795
60.63418925755234 43.38382554612007 22.500396517316485
59.21120181091911 38.79831843041575 23.488620755910617
61.316456522561886 38.67630895826713 24.688071179903496
63.13350729351808 38.9601709900371 23.106785057641726
63.71054829155529 37.63341842440815 20.64122947033162
58.02461496002143 47.7723810981825 25.21541367705017
58.655518350623545 45.72651076881383 24.882796272653465
61.40784370441237 44.96594891871996 25.757587520587787
62.55378104861681 45.80744053666206 27.388182262802598
62.47311149538336 43.169661210096336 27.238944689680295
62.02886667170496 41.10621294957008 25.86022301313679
62.80327943445703 41.49104033492472 23.516260805598943
64.60473517879569 42.545300434453786 22.5835004898213
61.47918071094985 11.277704817628159 47.50741980403393
63.339924154999004 12.012082663724932 46.44604399859137
64.87012058165332 13.972252993414243 48.30230168717919
64.59063278993402 14.233442799347474 50.33677922415558
84.5250046540552 6.287039695726066 48.00780630930611
83.75735451915469 15.544873160572 52.14985068327281
80.2966059302893 5.463284767721714 50.94508965547104
82.37643959391707 6.246740742089323 50.17369079366942
82.7673693927237 8.919148371890934 49.80059623017768
80.98565563803992 10.33586149060917 49.95724981365657
76.47543877688668 7.729330959894867 51.80757673725251
78.73708706518349 8.552290777112711 52.217143242583646
79.30299800574662 11.13931205351416 51.917378491425744
78.2286827077693 12.885512040322192 52.785740833368706
34.66914219788891 4.642255876130945 15.156971638674001
36.08347544456327 3.3955798513077684 13.979319327251728
38.13998457737227 3.6611773956614986 12.878703981007568
39.481628826374276 5.90075272182616 12.88996362617034
41.56158816734178 27.204556823467417 42.94320834363372
42.45297889520172 28.85789374080514 43.80568696092551
42.49739971591262 31.07645660338086 42.35810317503258
40.824594792547956 31.967659036627065 40.91291958051784
67.67749538071563 28.96135134940963 42.335267792614246
67.82263635547012 29.277997691437907 44.89453318072641
70.4941752128063 28.49149903792169 45.73743675958689
72.21439107832705 26.992601238476944 44.67506394107047
67.56686765092448 32.616492178952505 40.2693328790047
68.31125724437219 33.20868601974598 42.098820804539294
67.95516707094333 32.36170666821751 44.3514413499348
65.85663905482454 31.14447179038188 45.43521855805927
70.75696573785748 13.046420907611882 50.59729599001762
69.29912732674131 14.493195609346632 49.11859941826439
67.28020873460278 13.05619122537559 47.92321722207461
66.80241956892876 11.06951019327912 47.63456461846258
56.961940917268514 11.36684345778333 45.05202915022404
58.50279693356142 11.210174039590573 46.03456020706632
60.62980261401987 13.028462684159319 45.638108029358996
61.24286838795323 14.04688168088321 43.522580214975356
73.98554178538002 27.313909026141694 42.32480019867771
73.82778991972945 28.824576477292194 43.47772974903759
74.69331156508382 29.665750378102334 45.40952905918204
76.7732533488022 30.144524867244765 46.22145801534427
68.33934778855597 15.634278798227074 46.72087004771792
66.02647085601832 15.654716177749833 46.51749071786004
64.54980067275335 16.791605573220654 48.74119905661648
65.52590932719563 18.294883701872152 50.276606749361775
59.87032751138537 15.54121973135172 52.24580423477279
60.47499281508631 15.395927334816838 50.17734571992394
60.03388609152407 13.24605847778605 48.88611496985765
58.59116002127333 11.879738125951564 48.47700232735311
74.35617751026709 32.209316812685785 46.1661439823318
71.60087742114777 31.355839017323422 45.44363309199033
70.59664921945904 32.08040872644701 44.0072153482772
27.60806434120608 14.41699005753105 4.51401714459856
26.9169771933006 15.322578414446403 6.38339120969954
24.878959681835024 14.665231608005191 7.6079423320054795
23.639778229696034 12.594253602829477 8.093495024148496
53.122148376316666 51.69597894459684 42.70503006434026
53.45522598552213 54.08511131378214 41.61477247784234
41.101016987158616 31.827726219734302 48.72945930639885
40.87518063236701 30.93768681019891 46.573690869764974
41.37438264756057 32.85202076119331 44.63850224145287
40.604661001730044 34.886917305468565 44.217879326532795
54.2198342781513 51.2701573015871 45.152278462486194
45.126436919844814 32.39132797989145 54.75505096150827
44.70724545216629 33.01574815672529 52.03789858659685
43.248527629636584 31.958870596881376 50.428891931975095
47.430018658436275 31.251475071245704 53.92347763849531
47.0731649989796 30.54723811093115 51.66298123067887
47.40289828878139 31.43992822429986 49.62419061357536
49.20764030078444 32.71782051250338 48.2646173887418
42.90258456704365 35.913509058510954 46.85389708660992
43.02921620845681 34.01952661349067 48.02275519165619
45.381982544305835 33.05614240371566 49.11519279587708
47.48761533542134 34.55654720564457 48.23631630534897
55.11569090185871 55.730955113544674 39.11651221954944
75.06160251909725 4.1878082561010554 64.15248758920215
73.5004738985671 5.721387235777686 64.10037442009823
73.06812121828611 7.103554418694117 66.08089483280814
76.42637244171652 1.8957956047025413 64.99442717722766
75.98130393985272 3.0939864874287375 66.54418378893747
81.9202788354447 47.91063310397646 26.666354650103987
81.5402370925182 45.94832251352951 26.13159158402801
83.06109975106907 44.06973438758438 27.17083082035827
79.998052658009 41.866257459568814 25.83343876651701
82.12437342359647 41.59332901275399 25.458644538709127
84.00645933934372 41.0789769362565 27.61875834811547
83.24911531416329 40.55236443438232 29.829382694337102
57.66173178228085 50.048319178475246 23.36808150346441
59.082025956971776 49.57509216160586 21.675892364616654
59.24472247571613 46.77388374659348 21.34899617192625
57.45860813969565 45.129443903667365 22.32311079399677
76.52984586685976 44.14128704518165 22.769652457556386
78.38868495894536 44.95457920654749 24.105957447967455
80.27967769532329 44.11363749491582 24.575863834163272
82.43850659888045 43.89061067450454 23.434195134859674
67.04290869404227 60.51892250635962 22.77706319322355
83.0768055270006 69.63835209967299 4.503469989128757
83.79948607480587 71.91299776986595 3.291677757850804
83.35284754514974 56.07578522382344 8.902427409318914
81.16823131145281 55.49011300419033 9.613215057105114
75.19669415654505 56.25466870348694 4.554291411729307
76.92729862173765 56.78044788221628 6.342968026237284
79.04440013534514 55.6283669969242 5.696395082984501
79.82044011301663 54.759876216528035 3.402582864030664
84.42112088206343 53.82846483563694 7.3599102805623335
82.72801015893211 52.33346188151942 7.9840308207719515
28.98391826534477 41.65532851972699 7.68232777499964
27.6363362324412 40.89239805670722 6.320051856284998
26.025043474618247 41.84569909235803 4.432421293950343
25.199179419818712 43.584308757112936 4.151464210192994
23.129818663609804 66.74704288797705 18.236051206623316
21.419325426406253 65.86336129294342 18.958521248948042
20.587502734877006 63.21028786102836 17.834941651045348
20.03887206107123 63.3111828353107 15.549912047041746
15.060221923746019 60.00852122711364 10.369041149688414
13.16857717649819 58.80324904152091 10.849590603498894
11.065449740881615 59.39249372753637 11.245045099825465
10.822335068123545 62.50293710876505 11.51063047297297
20.516874125578703 64.81318859524455 21.328169500407085
20.000446569983364 62.69719860972229 22.044415243470436
17.876793290011193 61.61957766663753 23.307083505920165
16.241489597529768 62.31375613609055 24.28889206449358
23.570059033444014 84.72267649800867 18.24056894028545
35.726071955614394 66.74292552732506 8.835041761149306
34.78043806259606 67.12074236269645 6.678084449146177
35.472128326811536 65.01468453962366 5.068493742053891
37.37809596400489 63.40590675918105 5.838303896063181
13.668946552663238 63.09454790094854 23.882993676628548
14.593883456294966 63.17332921374272 21.930603704670496
13.88939682951333 61.91785925082793 19.520265320932598
12.442567793419245 60.22997534897827 19.08472801753208
33.29226200266776 36.588241580284986 22.152147347651347
33.25057014625942 38.58624270641112 21.725340484909687
28.99743470507967 84.50089541478312 15.936769805194023
34.6341002571765 64.6392142957256 10.972258165917324
32.599003256210686 64.13806870816559 10.36738867095425
31.498542780565987 65.47946723344475 8.715461602664375
31.334288158808903 68.03634709368403 8.508617265741425
28.783198957554525 39.10793358164532 0.22136930586208814
28.095678325122194 37.53496312082491 1.1952125405769936
38.95875353567053 60.84585665290698 7.664581207773078
36.86094708867452 61.59139364101744 7.693809584644426
36.35387475041337 64.00576197776536 9.052468196679774
37.25657983137298 64.94888047609716 10.784153087051868
32.46960158575105 36.18571851813216 1.5141911516237823
33.23169481781688 38.10767192820145 3.143081812636343
34.14190993625509 40.37221796167472 2.6642862444446123
34.217365662243154 60.25965361817966 7.774107023557009
33.907600281678846 62.41511831979171 8.617594082670502
33.030691926621905 64.31457602735843 6.607976729606153
31.93006096586795 63.17165362308328 4.462048560474991
26.227500658032678 39.125230627976535 7.486518022165282
25.1637759492107 39.5409059470799 5.808396466571515
25.99666495042127 38.60477334726681 3.6761113265147864
25.93510379410005 36.00918029693991 2.913863382433345
32.12519839847269 62.64533142663529 0.439722445982453
30.391251269479977 62.39277460296962 1.8953412494921746
50.387289217776555 63.986263310314044 19.316434521545567
48.07400461882041 64.16824220249333 19.830361610034704
46.6119664211318 61.88712393187373 20.095033275457585
46.97116978058129 59.838500815598486 19.521379497557632
2.0756167128600387 84.55643956246374 5.525395610754671
19.53422147385273 59.27344722246482 16.083685752942262
17.751849428728853 57.46872897532777 15.612058227332907
15.636770682556318 58.712073021689015 14.867794142486431
15.36584166967103 60.776495541778935 12.930708944057544
11.996547760709708 73.25851154774347 0.2582062698119601
25.879400454083445 84.0656016854092 19.898885849706176
26.25802964594813 84.30661452562798 17.803207308622405
