27.030289883418387 12.540314755147174 64.788053925061
25.96638702218616 11.159793731919939 65.86638768892392
59.65381486523906 0.32336630910804526 74.03287245639983
49.96648230073613 15.618453726610998 68.70564329002339
48.019432263410394 15.192739042475441 68.1054107500634
46.03281112259374 16.220530562134197 69.24548205616414
45.68186487226422 16.54478188928553 71.52430824341695
46.77660017713393 19.73027942296162 64.91642402662438
46.0210160240687 18.84786473905334 66.86697195434009
46.391231619263245 18.975868666626827 69.14332561110871
48.33279642094766 19.3149198677713 70.64944646815677
37.43578479538598 17.622236297855686 64.86242470433695
38.994819571387154 16.97960023957245 66.40439685976786
41.47746768772607 16.197313218582554 65.41594769588593
42.49312537378254 16.360842609320013 63.47081222109225
42.49978909395359 15.97789723028245 60.30425929686823
44.31194923702957 14.7196285377047 61.89084370202417
42.90790760345804 12.306730610361866 63.119674171079055
41.13866050047701 11.31297540101797 62.63221283188179
27.637932226352675 0.10537382440565866 82.29705037180526
22.138861484723858 10.125843995745802 28.890917561647957
21.434993330881127 10.47096076152196 30.680636079751945
20.497460065905404 12.865470944760512 31.583675156863855
21.620317205125048 14.953971667944005 31.49035082716735
63.72743927158641 18.764417334411622 57.343796953734106
63.614068013130314 16.197515280444858 57.424548956792336
51.72497975512952 12.917651331484937 40.35375019248919
53.04435438242771 12.855470895549477 42.350038990272466
51.61936080602552 13.418712054300283 44.89682929054833
49.209634192753846 13.649430390423879 44.64240707066181
53.39001978993209 8.354436805788476 40.83958255374285
52.59098966294052 10.22429839086194 41.65807400671639
50.30939353643732 10.001175858989917 42.99023334337862
48.986048972095176 8.16773312998712 43.08407811242586
51.57575058267193 11.122866724368983 46.745493942120426
52.279692457671686 9.694323153847655 45.333350247604784
50.78273893133667 7.32137952942932 45.27546152337388
49.657721683818274 6.300606070300052 47.032611963440374
49.75455426490652 1.9663761934877397 44.602076220099434
50.6420163319832 3.821927120779125 45.74739105328949
52.44580136435298 5.11969569968126 44.548207918929435
52.701097409820505 5.622970493357602 41.805027670274036
67.22928725408252 19.94127095277166 53.95130375597905
67.1047079572592 18.017227128315874 54.982502214802324
42.331477938824825 1.154275043055846 34.363789792022544
43.82648412503498 0.6153309006880314 32.46013962981483
46.96946968068188 6.931614050307896 46.98172547686309
47.48087667726344 8.980223309953992 47.835989775959845
48.59332876541605 10.45776906343558 46.28918304723759
48.06674480402503 11.19901836485455 44.0510751725413
26.521823504509776 6.299999750834962 47.81744374810569
24.909131263453137 4.6588649648280445 49.08069929411882
23.517047048991643 3.8065753926903634 47.09661526453181
22.50298222041863 4.768997434430205 45.12633750387826
22.158981072919964 10.564839517085968 25.100819643820003
20.804093400431974 10.213646716771885 26.563574755367632
18.4900163162125 11.488858839192202 26.924282984332176
16.71104137961823 11.649425596801539 25.499555990158687
24.95112578760401 7.190658612610252 43.73063885237246
26.511010559914546 6.1429899981114096 44.99493743200822
29.05676730911491 6.328562320557904 45.26206244530732
29.083577902449502 7.944946050048722 46.70272785282898
31.5197367569157 22.5061125277097 42.09187878758168
32.325687348274926 21.26177897359218 43.84459272651649
31.828043690159923 19.05932641403912 44.928357080715344
30.285838027036025 17.188978768173577 44.44647556993757
34.06638990016762 23.168412992135515 49.496882436052395
35.40963816804369 23.376305952688764 47.2465475097628
34.79052955076924 24.318302161395344 45.16630517475994
44.02287663439634 12.919525111496268 70.58075062904848
44.37916594627964 13.541592503294781 68.23803607026703
43.48624273461737 13.33835789126351 66.10947826820623
41.200640282043636 11.621590496544618 65.38487487494864
36.83642917771006 19.62921267132989 41.92615586398438
35.54680178972424 21.10377649465093 42.81401447549894
34.37791457139144 23.50340651408982 42.642812428670545
34.678634343157185 25.208102421828766 41.1495767434991
37.44500364937819 27.71616505471352 46.28376722994139
36.757501143957015 26.16599825167066 44.00582469022205
37.58826463022985 23.72411202211624 44.30193139855879
39.447471409003526 22.7981210257829 45.65580217127113
45.58228046154167 24.265792358220033 69.70489563372891
43.669273580670776 23.03888859975785 68.8985781608314
42.495598072451294 22.528621527778874 66.60880045706745
44.79883410938431 21.710367220519768 65.2425470290117
56.15814647217984 0.8115590339762146 44.47334248872845
56.75624797586071 2.864331329088858 43.747523568327686
54.646759470232986 3.6430137958624846 41.954119602356215
53.80641967499931 2.604396010416451 40.47880199857747
34.744125987507196 24.385633260806497 51.93844314565721
43.30890752236062 15.441256771076555 70.68338135718106
42.34267854879286 15.494729580162373 68.73800132210562
42.71944940490706 17.48994161191347 67.29620928063382
43.166805155881136 19.900558529309613 67.58916193880472
57.08048157296319 5.334220910388635 42.137045551695984
55.978386985002544 5.416149804663548 43.880215655607394
54.45740208458939 7.541044568982791 44.75677230764608
54.241858141890205 9.35886051506938 43.6308260486257
52.42411087644557 0.11377062832918165 47.32899592075926
52.68514336003824 1.9663398879796106 45.76061516584624
54.602494502608565 3.4775511347483055 45.27057130005833
54.75081199535069 5.177394001663531 46.22775241835726
51.96606657618834 0.8347727654054086 42.28434307207797
50.48361564219768 15.9583485800134 46.78572814698025
48.32425737467509 14.856893115138751 46.98918283099257
47.81560278760578 12.515848851216289 47.78279447957137
48.4603740750654 11.164576239856626 49.557858639377244
31.434461929004055 5.271513170685404 44.41232799621364
30.68930394835967 4.177536113747706 42.25436902384159
31.15107343162619 1.609295413395692 42.10078695041912
31.897547211975557 0.11876675789691035 44.05248376765946
3.484041417811286 0.7316082962969783 2.9277005834662857
2.989184321333721 0.27091802865684206 4.974690855324498
61.21058201699765 22.327542662918457 57.878080870889804
62.17632407296485 21.186351091528614 56.0007748188921
64.75254609002944 22.068880602441507 55.08337399952045
63.90646306857163 22.180966476896053 52.183539382798216
62.11371493055208 20.71884783506142 53.03011035053743
62.97087971232233 18.505604018632127 54.576163345605856
64.88046498926931 17.080374369296248 54.20664148078079
64.27090864212734 13.970758007895004 58.64911112743574
46.232216804422464 19.139608252329644 72.4826142656879
45.846878098589755 21.502413384523642 70.96945000436682
19.812022157249817 8.287793650243712 28.742162919276655
17.87829137661682 9.212893237135017 28.46330967110681
19.184062625803335 11.867223094562412 33.52263898553126
26.66626484730262 11.008236582939658 70.78465658478216
25.502730210576786 10.754757571574322 68.79372160779035
83.48160144868473 1.4204383238570142 50.551881221087505
38.644620493431916 21.71722520394331 49.43705802449966
37.96124402766981 23.012062463380847 47.94168843556341
36.934909957470396 25.604563628755063 48.00181956512674
36.77476126980357 26.834176560420055 50.41715799646184
40.925301481994474 18.391041714701526 48.14115376448553
38.97005214530997 17.85885612128358 47.01435902770521
38.25522766223939 19.274018820992243 44.926163112742515
39.24861446924583 20.680712315992217 43.47162946122764
83.26106228956685 3.702186548140571 52.00260962404425
80.84465783246283 3.2672401658169328 54.567234086745614
67.95108739990827 3.66178363211229 59.20587341623591
65.64854259391853 3.2364618887202425 58.50284335801731
65.36981959688626 0.944633458498631 57.797003847034865
83.42548663693286 14.568741851363116 81.60326564293833
81.16938143179449 13.757788788095677 82.37769474805756
80.49308032641507 11.111909027806858 82.08872052460546
81.8697233275338 9.192060206157679 81.65208863840753
85.01712442473094 22.21680365242443 63.14279312352761
66.06468498046482 24.75484206341619 67.14739131844969
66.84732001144458 22.68218860588182 66.19063646126843
68.80313482676739 22.445974206372007 64.44451928146994
70.76003023588721 23.966650220940906 64.00619997291797
48.56695180523678 36.499219277198755 61.126731270940375
50.535208303508426 40.03890672153524 58.46796020729586
58.02609664246108 2.427128288894903 75.36992021160239
57.610988690615585 3.559203446187808 77.83455337181971
56.60087482998596 5.564986114719733 78.40930586952923
83.82600237792177 14.994197273715896 78.23018465271606
82.443057084951 13.383471570484298 79.10503785845314
80.15698696668991 12.38625822216119 78.78236121082564
79.07860360051255 12.787597119150313 76.20472476987834
81.75706540697567 7.87201785889912 53.77753588178028
83.27869251962262 6.5737467009358825 54.78543456405515
84.20102921194281 6.532823757163432 57.34191955527347
83.98482314666562 8.005762242618168 59.048649061689744
83.73338588226493 6.255947050900242 76.12641770148448
84.05998530565789 7.887929033051439 77.7413809277344
81.59907516997252 8.42538947107735 79.13802585838874
79.72800014601614 6.626124690549766 79.52721184301106
81.94845893616237 5.969130935897468 73.65658349930841
81.21508798657622 7.066991319793925 75.13143704245154
81.51998362170566 9.734575987932379 75.62097907843575
81.5937710024968 11.476614466794645 74.25960059151262
56.45398855480897 1.8394296914112946 83.77136816186955
58.541943189101275 0.4809216387736464 82.52715538329281
55.54263214133804 11.30766103903239 83.60003278474366
54.52222314554091 9.409579680922503 84.19380163812163
54.05154885317851 7.89007270306179 82.10382558342047
54.03902200257901 8.393872265191474 79.79198765253658
57.275649537755754 5.057551579291217 83.01159858148934
57.050763056446954 7.2461284942563635 81.68116599778726
57.242375437780815 9.45580044152089 82.6250147608378
74.99462475021981 10.504131789838127 82.523461849063
75.07902679558858 12.217124949996318 80.69409600815617
77.12767837137699 12.277316968067211 80.12648493675097
78.94582461423109 13.972057533532164 80.80396646349288
59.40909960719104 1.1784882112533566 78.33269344035935
60.6832978571827 3.6023631798425506 77.40110190151586
62.29786817447598 3.6173550832131576 75.5935199491634
54.77894698781721 31.28137171070659 77.56303798097501
57.16849413360423 31.519286419042288 77.86362104133167
58.07519859439032 33.59316158823244 79.43383862731878
57.28243054819854 35.76709136695915 79.52245383535855
56.79226710919918 36.58458450051005 82.82404371255376
58.68975290541823 29.51233622003634 77.04715982169624
60.38991387022061 29.151526305959557 79.14070723357264
60.773551767285014 31.74341173233973 80.05438766633803
60.77655554752496 33.63504821998172 79.01354567525871
61.85713113848738 26.79421252920366 80.63109489985972
62.73021113020677 29.14125912571613 80.37864986815583
60.88141088198453 30.378815215867604 82.49132993411081
60.64478424864437 30.077283959237366 84.30642507709553
55.87508368627886 1.64489519460528 77.53574862949749
56.19718919639673 1.7401770458524737 79.80919654721487
55.11387974438817 0.36237157138309517 81.19781351374534
63.81241756756981 1.0968653839550024 71.13937519293252
63.187620228737856 2.7506037676599124 72.08448460228621
60.842028436684224 2.7135540389221564 73.70613132503355
54.1073903884201 3.5494631285997373 78.80322480352575
54.57976161572221 5.432101913293884 80.2130336769849
54.5788919430729 4.817333892395707 83.03669509975421
53.88017468247073 2.873682760377854 84.10845644056398
60.383375355161725 7.012647375347229 78.4446545499979
58.95236426591856 6.660637907168645 79.99623522567283
58.39344053890991 3.986104138089189 80.58164351445835
60.02308437039125 2.3006984489968385 81.30521995338961
59.642650417921814 8.829186351524333 75.94826995944
57.37269883027489 9.243111901854412 75.67766883078849
56.17090040312089 9.338486763749357 78.072171798829
56.86728514803729 10.018710573598185 79.99248516150722
56.74648163970045 31.685298419734295 85.02850323856073
58.02045603818728 31.624780880599594 83.24112765711494
57.202553707952944 31.399422939706337 81.00920703460268
54.72932917963907 31.500945049910612 80.2514715468988
54.29833335432556 37.985880373289895 63.74604388727548
53.77522874415334 35.66060500537788 65.3438250640882
51.44002859201754 36.04965533465071 66.47599426789648
81.05300252232537 28.07924467718497 79.68059334141655
80.93509649640501 29.882412449162995 80.99531044735485
83.14621252295073 31.536222861782274 81.08941112636265
85.03709049286424 31.369224464585898 79.0563726192991
62.4807082473335 20.01809210799517 61.28565887692074
62.78505302414398 20.391365183232974 58.89851871825957
81.00320481013188 6.744970297582717 82.57054495702849
78.65520610298255 6.958553677746781 81.9299246282433
77.43598517237528 9.160353668247572 82.89648639035914
78.81543864412471 10.779867949573797 84.40685103478366
78.86865697553677 32.415358586052065 81.57162449552267
80.53374526303693 32.09560174923382 82.42906348132422
82.1420192448666 33.16585026583386 84.49630132207314
82.44660484608978 35.40713761138099 84.32555699708479
61.77028326134179 23.028117731079274 60.641055010486305
63.85931598188281 23.271623196798313 59.667354231864635
66.2114013490002 22.441949866827475 60.49535219852777
67.08918639232402 21.90875871899123 62.448516498574335
84.41007559084265 10.293780249544046 78.82142160208737
83.28671843244248 11.302721928352277 76.47059149074414
84.34336498444127 12.239803690123443 74.74235724984987
66.52831264610961 18.534858480455846 57.80783359808519
67.03530266382585 20.26404576913229 59.19064474497553
64.02133839762044 16.665819116075642 61.56272203758005
65.36945047672897 18.722883744556757 61.889837892245815
67.99496800324498 18.928388983360673 61.8921855411534
69.45814397665708 16.75708522744924 61.1305100405513
76.14778420536305 9.452426393541991 80.31926945194807
78.13569161324948 9.020544778063837 79.50381674898522
79.18893481113189 9.887164140105574 77.50046796947872
78.53464099716156 10.154998309179097 75.24755903007505
83.31548618923551 4.123331406012762 59.12207576787842
81.27889971701455 3.4760358677160137 59.5816369928286
71.52327156703745 49.91912843966893 82.1345238322158
70.16838389454946 49.56793563935485 83.59727894376344
67.85430681032999 50.843147761775164 83.95798717272798
66.07533187373572 51.0037145193845 82.53326017855449
82.24423685313722 27.02780937343274 81.78420531136288
82.55971596481372 28.812182874574205 83.12761330649566
80.77655570980968 30.16249908690213 84.53135640114236
62.9600579550027 32.245002377212245 81.52275849739029
62.10614699174876 32.542812984620305 83.97620520509038
59.64162678123018 33.8485308975423 83.88070783798446
58.824232906497706 35.19831403231034 81.93087731104961
52.848331911928774 40.08589721887994 59.96140477186209
52.353474815451214 39.62520695123981 62.008395043720306
61.8030277826628 5.077710898274849 70.87011504522792
59.86040604784861 5.517939514699752 71.85243552693849
59.410006569256936 6.232640643736052 74.22837477122809
61.28966238112459 6.209548404796867 76.05435380733499
50.80338292067629 36.40785615268155 58.7095998477626
51.441201479562295 37.333520171945516 60.460520546637504
51.93007482200029 36.20640623721985 62.79614030089589
52.13659877600076 33.4350206747378 62.790334115683734
59.954887076900945 23.824797693561496 80.74931673363378
59.25966349916939 26.00558075182234 81.45287323977482
57.84365458966922 27.80189485841454 80.39177882695162
56.0247604627123 28.03782706527026 79.01374288452477
53.55717146269868 33.88589732710729 81.08821309727465
55.18915727821054 34.5389738567382 82.36066517505164
55.35348178640034 34.01501773526514 85.03835228903478
65.92031460446263 23.880563911370672 55.90893679285599
69.09014798510664 25.215963462606513 61.88795949860302
66.7695503319939 25.069509958758857 61.42431140505747
66.749592721029 24.372886805292982 58.45250458633553
68.8022274761318 24.61998937515077 56.966328040296986
70.02529381491424 17.22185374015065 65.09097403677126
69.27025208876073 19.385930865612647 64.16769504845094
67.11079506789268 19.839226581906736 64.80359033822094
66.13965122962911 19.940187438626662 67.30189947911255
69.15528834270512 15.775486706181212 56.52667969014409
68.33273435385212 16.64100090338438 58.19578753656709
65.98315769535836 16.135459407598542 59.29833702461778
44.75706155277244 19.986102197433357 74.59244773017593
47.0912834501484 23.225091636657602 71.55291624887538
71.28255467571208 24.063337586823472 59.09705569996317
70.38080651889246 23.286806088069124 61.010060216332036
71.27111698553021 21.25901284349509 62.86041417702404
71.06297446618679 19.199121803651472 61.68283437237178
84.4242294543608 1.467993931164454 52.87461712612066
81.87926428728322 5.545296431014427 52.30571248316379
84.8272449185415 0.21971130443618572 56.531707053672896
84.02953838552065 1.6244481105371733 57.52977766147432
81.62148676797078 3.3370495672030023 56.77198112608901
76.72464180181171 4.833787804351629 58.05472963128475
79.20834218300293 4.574028433682513 58.1667071589627
80.30004864196596 6.08252818275889 55.95118634047227
79.39551552841337 6.718756428983267 54.158917361972
49.55506119714195 35.21173561931541 64.68335186502586
15.34870321655206 40.42420512250451 43.435162696923726
15.512344673008451 42.58950847057906 43.27773025919186
13.951024045858105 44.12835684717477 45.34391999492056
13.517406723368778 43.02194270230499 47.65666512858598
31.546632447390483 25.513509686182278 40.79151769196239
30.506501754580675 25.052368325235804 42.78119913509065
31.366095223444095 26.4253507660424 45.244287256078145
32.463459554070404 28.25646762425577 45.47891397284427
9.311054844239331 27.252430494439782 53.17453778837682
8.200564182120315 25.61954101044486 52.76824506308664
5.50662098047013 25.0325419378733 52.373825353699594
3.83645214561185 26.13397969541191 52.78491034493203
18.966828041316813 14.95704029420283 29.85717411244268
18.251827724745205 13.047724862775226 29.242623352250682
15.974349912302966 12.404650823565849 28.137095033032644
14.096885941398323 14.037362435470603 27.178068874483927
30.198426959191618 34.8354547588923 50.76415393388365
31.985228408643337 33.719744284653245 51.59259663298993
32.87755019038901 31.857022808977238 49.92614868232081
32.75358214139245 31.899504138891427 47.313047834972046
0.8642929738720634 5.206283685179642 77.07008706427868
1.016462137008865 5.109138108094746 74.69621088286804
1.2262423481105786 2.2925230306122506 73.91773158403464
2.1270634203735765 0.785536713410987 74.44789635107888
8.449179940746468 50.77237737256618 72.00564037243413
6.85632497575118 51.04953540035575 70.32295975021037
5.852271918192735 53.6593140786576 70.15347905045253
6.335607654948434 55.49591828861334 71.43490068229414
0.8630266593986816 36.264322896363055 67.73106078143306
0.045794584954914126 31.293068100406835 69.23276059091428
6.390645395937649 32.64096503233892 67.59204258407033
4.999648859368735 31.786262156241083 69.40215008880777
2.9259270353782374 33.8213325480063 69.1408981725746
3.39997789102495 35.98476080300817 67.89266382977428
6.756649332209304 23.419625018111336 54.28739955727214
8.357287705587455 22.51014140197283 52.640488480464946
7.71561492846799 19.852138248524632 51.98531922367008
5.864432237225049 18.498030801695684 53.783523320322246
1.5574338708409583 34.54617687646906 80.64325107274894
2.4663548404163103 35.38338343363849 78.92383580415857
1.903784115259624 33.90461342432653 76.9195918457262
1.5295453259479568 31.094240544447203 76.9824118916079
6.785525489274129 56.76771347424605 75.96330436593162
6.2879012051400744 58.58058195805806 74.24805191173789
8.706831724471737 59.053984298508894 72.73770010889108
10.672948707393688 57.1897617420545 73.56493040096116
2.218061619499258 62.988780006558294 68.3755978717085
1.5641413159845234 61.175666614166786 70.39255025897832
2.0658553345266566 58.80479037990249 69.36411799770613
2.8842539359783474 58.30641440554555 67.0604030484525
5.593821289852575 50.69494221600834 63.69899750911171
6.959851343225061 51.39112221841659 65.50902801351036
6.098330732427565 51.10367602299585 67.98057832435427
4.407951985249897 49.567970223035665 68.5983715289949
12.275967901200438 53.20116257158771 75.17283276423775
10.673606104018111 54.69039018488223 74.47150909665393
8.385549570312328 54.52141613029887 75.7823387476657
7.631035829786768 53.81374855154702 77.74862515973165
4.2884116624494855 2.578460207364512 50.96894865430232
2.1716506229480164 2.383147426562212 51.47542901986879
0.4532031644748768 0.5448178271968489 52.162240962129566
5.768825985167708 2.5278183132244365 48.29198139006284
4.610282792646913 0.8403158897898939 47.52788702437825
4.566279409939747 0.2969871889499452 42.971918597704835
4.823701546086218 0.5600287921395412 29.409039297826755
5.582344644328318 1.5925363537257209 31.736476120239566
20.877594720229933 12.677499070686642 60.79385868880896
20.005149476848104 14.508292327664865 61.429865908325155
18.719970498731275 14.629399661544738 63.39695471234242
17.15037736668053 13.056022329460538 64.72532381033838
16.102392391438574 19.229242831433158 66.86382147257211
17.291103528552036 17.41060438736192 66.0814371217448
17.623725403713422 15.543465462362832 68.19622939314358
17.322716424924725 15.6506419911534 70.41006162067146
13.651401939340843 13.9415570769876 69.73090733752476
13.79454529519102 15.728175324237908 68.45775037589343
14.576692855164728 15.876252082142576 65.97504839804057
14.715086112430555 14.601390381850186 64.30639981842008
24.26839296153447 14.761942589830047 64.61480104800452
22.08511447970908 14.187093712986917 63.62232834568761
20.205580895308113 14.234158555181521 65.56123103310931
20.424487076028 15.491458839633282 67.62191599345073
4.250239968350216 24.35987071391967 55.069570028991095
4.359242083714171 22.20462990109347 54.552965644767
3.795265086599071 21.4483795719831 52.19310924128872
2.1123997766826794 22.65847005908215 50.4174758849966
32.04114901747579 24.035276025583546 78.65293053049771
32.800387630297934 25.14200307282336 80.29913827987909
30.931622103403534 28.513092544856487 76.34150069413256
32.489761005530035 29.331521592732937 77.83228535747547
30.035160515906572 28.011304747327415 81.39437336486947
25.4195702169736 22.85264356510473 77.69970444462552
26.498982994489122 25.431273109790013 78.32016290359478
28.682125179123556 26.20590457762686 77.78462398727771
30.287226359397753 25.856266205842434 75.93252245457509
23.46526364499279 10.602399003707635 65.36669512834727
22.33855949653968 11.610530417638772 62.888043900458854
21.659593036169895 36.9554911768583 63.371864855060515
22.36262149029195 38.27465088886656 65.06782171907454
21.013185973994457 40.04589579380168 66.18162729761515
18.589843647784296 40.69498018941917 65.79798971768629
19.97255124125282 11.000942326429124 64.85081985477262
19.12710697394191 12.035816966606363 66.79581680782253
20.513470108604626 12.549298972195302 69.10365211218425
22.569769027106727 11.865944147401175 69.85548258931908
2.9850805508839953 1.1101894881380274 71.88807089169647
1.332375716323052 1.5065724654363186 70.21968617687716
0.8209850045838155 1.263179667373284 40.25422126153453
2.0606095680426115 1.1171677039566819 42.25953943233934
1.0027837523065466 0.9264763322748314 44.7715795747665
2.7818079183354825 3.3740204401677936 48.552584564689035
2.13292113656125 1.692478968984261 47.038938056758816
0.3653497075329562 0.09798126823486694 47.98041302071691
0.7490222309896795 4.975025010639152 52.85756229029512
1.6142636148579448 31.45706755929006 72.51022450604485
2.4872627083748173 30.473673913208803 74.47237126551909
25.53396961312461 39.24324006284505 67.67670037302429
23.804634935491205 40.85766471481623 68.44885081374798
21.594409129278215 39.65619134380316 68.69822175458935
21.259641904039352 38.35688234407974 70.60353723702394
1.3546070145388625 38.191977583827956 70.48198965180444
0.8337925021587892 38.36801178011647 72.40148038509754
19.62598475237397 13.071466292948111 73.94491870562551
18.983844537725776 15.244957311628951 72.95621098545192
20.599495406027426 15.758383144945363 70.693380909868
22.40111810736371 14.80643856470498 69.63424743687004
3.6157755088532335 33.86397385930468 72.38096511080411
2.5363777001231926 35.59337814582124 71.2775711407545
14.002297339218055 18.733852055289866 64.50040828729345
14.13640968856804 17.026074758290306 62.883574672345446
16.598090965597194 15.975974106418683 62.16072163080311
18.398452087278393 17.435090042375702 61.51699537079634
1.6507174790185444 19.877089206951734 49.42761881464108
3.2598011379759364 19.191911986127856 50.4469463886258
5.928304635333272 18.695788183645643 50.23687765303092
7.262690726013603 20.334387938585923 48.02435964021844
11.963990422967658 19.51334042286553 71.44009036271453
13.864667604741593 18.637418293049198 70.97819517503623
14.584054143664648 16.13116402350885 71.38677818736967
14.078796779138745 14.492566696404968 73.0353094220353
24.974516430585393 43.833445343338 74.4840079260895
22.817276249229828 43.12773615111959 74.22757028011952
22.62381286770254 42.31525453983493 71.33073611058826
24.134369362399394 43.35842540060519 69.7032919742137
6.2936832495441255 26.428645305629075 49.153995357671135
4.8402541431699575 24.32441141784714 49.729270869439944
6.752556486621102 22.19311561056357 50.01017239815749
9.219656066974274 22.598880151037484 49.42967246724515
12.52273991572367 21.71101896419466 70.00987470432821
13.874399537410863 20.40682184657516 68.61513758405333
12.557094821750347 18.254973398493593 67.15724683402624
10.249256230690289 18.28489224792672 67.14264124738769
6.170741166241354 14.553298465906076 53.773011566555354
7.526715539388532 16.2960960470156 53.67170894153606
8.79174396742128 17.352139998148605 51.61091547954979
8.50746773805997 17.550763590049538 49.38386128734235
17.827336850272413 23.478938507501812 48.029825963211984
16.568407927628606 21.662926356264858 49.33728358977606
13.888755695999803 22.101711207083948 49.25645093161015
12.835591106060892 23.884339323396656 48.06826906431698
19.730270296424585 11.281508509912905 71.31866154941416
17.87627654411544 13.010807972025447 71.437719636681
16.260745384029544 13.35810560485042 69.56964850979381
15.95185369457156 11.746311793581658 67.44658383180027
29.972758493476125 26.10110507660802 73.15820773807734
32.157647618984136 24.871815520907656 73.3445396634356
34.13010991954025 26.127456244958367 74.78366544796961
33.859033970526596 28.605979773719852 75.32935375652946
2.620669231188098 51.514504602965815 67.08816834589186
2.503223106902042 51.23880777883456 69.29097455347397
2.893349640267754 53.31841587889438 70.85832731532996
2.5368668158714742 55.80873369919196 70.48078947648963
28.383983693738376 40.15541590919426 63.43039484658332
26.9976533733984 39.626843409860676 65.185966942645
24.835551471984353 40.752641740221705 65.48541740994453
24.601901721387385 43.575746404305285 65.57149672953526
0.27652196551607455 1.3537255601039608 57.68663504669858
26.36708923994494 38.08523955263661 62.793157700699496
24.405776980255695 37.612759400930166 63.56668141388782
24.348771933617357 36.93916837857266 66.5734915499248
25.51594554204924 34.927190903865636 67.06195498481858
21.024720368699203 40.908073560674296 73.19500443717864
20.359751596375986 42.68116134683194 72.52620694702111
19.803081452829222 42.885927549397465 70.08614226901689
18.827909555254106 40.56447433791893 68.55058378805629
28.192293242038634 26.26822000873465 83.00177902372313
28.23208828508884 26.081511593576124 81.08382244289591
29.389107054449486 24.255277432931106 79.6792464840788
29.93257670498416 21.973935338267182 80.11472102630961
10.822613766332406 16.467965394612893 84.31510656467904
2.5307204353297506 76.37271874191788 70.5605234265507
2.417349176873651 73.80581668795112 70.64127542960894
4.592575435751283 33.33940833431707 29.108632810299834
0.4533380040701425 36.872688945467054 29.60581816381651
1.1644899487149531 28.958505072637227 69.621797050796
2.5664356786165303 30.638366166018184 70.06562940063667
4.584871761437867 30.34558283591894 71.88151122453569
5.231280670234907 27.976323242603623 72.86138268144549
0.06869432431846888 36.1032571648442 77.70684653848596
2.6217398783097883 54.246946981492236 63.680245291380984
4.122104658893515 52.64146799775014 64.69923674948882
5.433742859291696 53.638653399506794 66.83794962129126
6.505350940354508 55.43984120594513 67.45712176837804
3.471462906172278 51.200451568264334 72.93072067013942
5.680269721990027 50.65597704758089 72.69542570529609
7.002053508223596 48.34908228008927 72.77771641932607
6.32616118886126 46.62432261498258 70.78024656282928
6.471189890935817 44.65314060993438 46.492826642722996
8.33121612016876 45.83331342596078 46.568721402122975
10.738258517990413 44.78169396816561 47.18306764847705
10.718141037650877 42.04399599494507 48.06024235633508
8.745017356267189 50.04765192963076 44.2065828794272
3.055317664287339 47.22872236813882 41.684350776853385
3.8018250427795794 45.14227987578037 42.8090752429148
6.284896165895806 45.3035456798165 43.77375309774214
7.685132407238655 47.59910460825951 44.191021385998404
4.313014886535961 40.58759272165657 41.38479875430726
3.2906180837048398 42.42293927928158 42.13700936803657
4.2618607089825105 43.19037118026095 44.885503840944025
6.156302236847493 41.74315882855365 46.067310342369204
6.032568417825852 77.54957236027792 67.16803022879566
5.907989121002538 75.62552853582214 68.19922868761893
11.4548832418769 49.788727846271065 76.06767381009278
10.10080738680682 50.68459916464163 74.71208232027575
7.810860302803931 51.32542797520538 74.41559814431658
6.612129960383819 51.56435582322629 76.76508025844073
8.709776754445295 14.087243712777584 31.718330805569135
8.752000935950434 13.469441974947165 29.604953399295983
11.602384547310324 13.022787007111669 28.746855391317506
13.421516286564655 13.969226662361832 29.832422513857463
6.501032874967628 9.718763061872506 32.582406491188365
7.734037452354158 11.401820872839739 31.663606737758485
10.079319920227682 11.91894912586226 32.640724742722064
11.014909004157893 10.700846631869952 34.898614549222415
24.950932053612142 30.58719558310738 49.89562155254701
26.93179735946882 30.6763185035415 50.82563628632734
28.77583906365946 32.45107623272983 49.83231459922808
28.293887636733587 34.49235006065731 48.37850804822523
1.1175324787385907 29.989724407098507 28.629359863913958
1.66528733549861 32.18178273206242 28.35073637138478
32.58257212157072 24.5177802929123 49.96047110600389
35.584639150468945 26.028944127422193 52.851663328736294
34.17925935147547 28.27816077716894 52.35047687950709
31.714386845819377 28.464384332427095 52.60111581838079
5.6349911397394585 11.835445473208507 26.35650984299069
7.951411367378156 12.026311082426565 26.620077326075403
9.24883464769393 10.720468519276004 28.631298093524794
8.218516845624652 8.957689820910138 29.92194699433301
4.32866663653015 52.09060778468044 75.57539804539024
5.655945992605865 53.589764116298866 75.5148845162968
5.504312061093827 55.62026581305155 73.89299619501759
3.852836888343248 56.39308988083081 72.6365617684033
2.1274992512213546 1.8397874080261831 6.84721476364018
1.3951959424610245 4.378718952492928 6.011065750096993
35.547982345245074 31.069112350462426 50.65565107296823
35.46732973294085 29.06324885415851 50.12255220868544
34.53162753780243 28.23802416293961 47.70688468250699
35.135883667718474 28.904691047799563 45.66772507941531
0.01386318074098477 79.93584407042472 71.0948073437064
0.9796052367081821 78.79465249903487 69.2175012917087
3.5558272537727773 79.67718200994777 68.30010047233705
2.7097442323149616 79.78926788440232 65.40026585561482
0.9169960942954134 78.32714924256769 66.24683682335403
1.7741608760656666 76.11390542613839 67.79288981842245
3.683746153012658 74.68867577680251 67.42336795359739
3.0741898058706796 71.57905941540128 71.86583760025233
0.8483789519781764 32.28604191588231 31.11753937067694
3.369675139186047 31.032358103580346 30.714780640806065
11.657443045092707 22.227857442016955 45.353027800365496
11.275921487487235 21.450594495813224 47.44428176160363
12.537180351825011 20.032008869455545 48.125079838396964
13.235838350859177 17.317946688159093 47.10331515232444
1.6246133990317555 19.56181895182935 52.53486507348061
2.9881708034732255 18.854898197681607 53.90253253908526
3.993263472735849 16.022434612272516 53.792172085614276
2.2840824627791263 14.796401344535047 52.316568273912466
16.551347562613277 10.64360895965845 30.341582463357607
16.912945908462305 10.788827464878409 32.46435098911953
13.356632266513222 18.197946778959434 49.6912567955248
11.020110006434301 18.382664918327126 49.7960504335272
9.94388405941982 20.58285333395557 51.23217180079493
10.910396918557039 21.913117214959172 52.458203505390934
11.90241000054205 14.774520278811805 26.13130658069589
10.411340417957517 13.094995782204073 26.277536805977334
11.523583847449423 10.672650386519672 25.995811336048604
13.929346905521266 10.391793162252597 24.6801779214869
16.20191999288752 15.298065535858502 34.66129694347584
15.436823096981048 15.405838920105225 32.74751263574865
15.071796139536389 13.420155394024455 31.530696517781347
14.127954470825545 11.323245735649568 32.32218515928492
19.297305360527552 12.748971402912115 38.74583435647586
19.114203734661505 14.506282025548092 37.087588209317275
18.55586705223158 13.664400201547837 34.67005619670063
20.53202910898403 16.367186255847738 35.60565550333274
19.87589145375344 15.803026659095634 33.41081341921193
18.20516912546429 16.172107185698493 32.29299712999402
17.344070717528094 18.00999896297295 30.942211915542778
11.963276758738044 9.676221198864326 32.54868401841678
10.777327133501723 10.014647768060982 30.738560171982478
12.3534213477417 10.372843867991422 28.499225606206757
14.610608173030524 9.516350839389048 28.058452447150806
7.664901856515804 43.362261627739606 40.748909615413076
6.275796983872584 41.79534777071585 39.820719427057334
24.401765830979407 13.013673586758177 67.27798713699663
24.726217800425335 15.239308046261026 67.86610793233245
9.90890822994193 46.48532448897273 50.76795034679711
11.274654000404208 46.772056961237865 48.99269992856252
13.403248556589158 46.2442060240438 48.17838789516044
15.302606733170208 44.698873155589084 49.12827811567041
21.13050899699001 38.29743386010211 60.576739058173345
21.333902228267338 40.10720364470219 62.21743225261834
23.9039564454575 40.71298123672808 62.56142569003724
25.717485948510078 40.00741457161089 60.586563080431716
16.438558935444103 45.36699701724807 46.31316185395136
16.123334575560897 45.47339167258277 44.38984809338719
12.24626110148306 48.86944148907536 47.42650741344627
9.215792497289778 48.25902839864822 47.520013253133605
7.7485194913831705 50.12611281358932 46.89154434519642
24.13430411694729 60.11328172509534 62.71882910766821
22.28488261242807 59.02873973136328 63.76860769390411
30.08033214767669 29.797942194790863 46.058758984689035
30.079939621856067 30.842649855601493 47.992021768831684
31.520190739925894 29.523162778796735 49.809969212481455
32.53736443658061 27.00296814330334 48.93517139790809
13.436574839032398 44.66119332804559 42.63496812219889
11.321287372665193 44.282979578317246 44.73722590601424
9.373882119613896 44.309008479184676 44.19405551553077
30.501899260685526 28.784133198554237 55.319947655391594
29.38038910083147 28.937040457866768 53.41947216756513
29.44451088623204 31.1187429633896 52.03457742884319
28.847139520100058 33.17107699128064 52.57947170538652
35.25713638667036 28.323535976678443 55.051409257289514
32.766580312707696 29.794486524059675 54.610841447889044
33.01444809435452 31.99644953831379 53.31249595596897
34.77947898101263 33.257743992580615 52.891047331562724
19.999678784876743 42.54872655932326 63.40900323759311
22.001579021134365 42.044760029784285 64.69126761560356
22.285653987027178 42.97335311758434 67.25054392521965
22.63524542857505 44.841408023585245 67.85927332857867
10.601487495807081 28.718817945626345 51.007011294919
9.005986780137118 26.631347137737794 50.27206770145455
10.554775169895976 24.40605588074412 51.38445633634479
12.366650593791542 23.761114439825466 50.73412334390949
22.064343453310176 61.310487955646835 65.21933609686084
19.647938996206165 60.8755415733232 67.78396055956222
12.223883658658039 40.402899786936324 42.983062382501224
11.0763755679672 40.98474610773005 45.027724243573175
8.3158661111253 41.52616158044436 44.3568239936626
7.123154691387085 40.59993610469834 42.32429450204805
6.754368563651603 61.27008503961856 72.4225998890525
4.451823757661869 60.84476329622651 71.71956983083392
4.173100760629594 58.5529348660049 71.01373031985146
5.04225690667015 57.17592640083632 69.40810831940551
42.32249474221362 43.59718482541189 60.143520283313656
23.820405588474266 79.82510505993069 76.35951959634421
29.377477270017565 65.33228980552802 68.59283009942456
27.516859801124646 64.76181583117321 67.40159730428272
25.33280629025687 64.90777132590593 69.23748675295059
25.259485011806152 66.76922420312911 71.42512531379953
48.575877780991654 56.61985075974064 71.35820879768305
4.867966144208155 82.36314347092245 80.3641177912663
5.650601175187918 80.29049001338808 79.40736293408503
7.606415990510717 80.05427561387826 77.66124575428654
9.563311399630546 81.57495162844717 77.22292644573457
63.46117643551581 53.39165135805357 84.21177306287973
47.85418090696202 38.45328421660111 61.98401275778636
49.17034539545055 40.67322898135416 60.642164416641606
20.56034657071901 65.48031926640537 66.99426235459688
22.081973683365952 64.18204810844215 68.00216103687175
23.004310375686153 64.14112516466969 70.55864602809008
22.788104310408954 65.61406365012444 72.26537553450635
38.27146315660144 49.63683480722114 84.87907792093311
36.46638567018115 50.22094647392242 83.56657678062656
31.61871939967379 23.992609872063994 83.87376113349724
34.13819457943204 24.032103788544035 83.13668016138598
34.169699404300225 27.20089597867723 79.74441817807794
35.28904613929569 27.858612414030407 77.76682877349039
32.14579502570963 28.987558581615872 80.60344549547955
38.811459676080844 27.448750332626126 79.40298789512396
39.840828660029 28.52948968816241 81.26740529687767
40.49138243989803 31.381958429539345 80.92296166035007
40.26686213589115 32.64088450508104 79.01793420562585
35.91851982561059 26.760243084816494 82.27608025653315
36.85286578564167 25.867865088491065 80.38554251778471
2.6156987313131426 58.70516679146127 84.35610166574912
42.275123010415285 51.20720236316065 84.56673371875273
40.69856605383971 48.72557040927463 84.16345131431906
41.05917843969789 46.95395583462998 78.9233644695492
39.15788171405351 45.635455788347365 79.66482846098971
37.09462237498813 47.06247737535826 80.77624779662493
36.966402253129374 49.74382057761065 80.80325845854401
37.08383442911313 31.282929470608178 84.55372950011986
38.26158746639896 29.053259132369394 84.62384865274117
40.2253195176513 28.260520955456716 83.99478134233172
49.894393864656855 38.13573553434669 66.55783656824339
1.2839894110768346 77.62639351550143 74.50238534973735
1.588334187887311 77.99966659073924 72.11524519107617
45.01884445789634 68.01433576136256 84.34254007256843
26.224994084294913 79.18063954084798 77.78848259686445
39.82603814249749 75.9518045569391 82.61270723559454
40.79344790360502 73.96439519243948 82.99607039277953
0.5735644250851221 80.63641913858554 73.8577814833029
2.662597145626145 80.87992460430458 72.88408070468124
5.014682512743534 80.05025127433373 73.71207867134437
5.892467556067358 79.5170601264975 75.66524297139094
5.331593809852943 76.14315988796211 71.0245600709018
5.838583827569174 77.87234717663856 72.40737121779213
24.37328877716609 66.48905330003974 76.3191751840699
24.75092386257729 66.2354962188046 74.25487191067683
27.13682442139732 65.62281804908882 72.94821506956858
28.811306659149395 64.14539313802888 75.00058596766227
2.824619561363777 74.27412052358191 74.77944851039666
4.17273164047231 76.33118515206301 75.10656436506241
6.798249166988318 76.53669039086694 75.10891201397
8.261425140400418 74.3653866349555 74.3472365133679
24.00192280561214 64.00459446926811 75.58626576603014
23.982046787133843 63.41462815027229 73.92660211317582
22.118767352978853 61.73163281351903 72.33880224069502
20.082180880757896 61.084337275222275 72.79836346564521
24.9661975092377 81.317831938328 78.64740642025457
30.30169030574779 62.87711034865304 67.95053361546903
29.070120441593033 61.18213228134765 67.7112795598237
27.398741010291857 60.765596477463625 65.8756004467786
27.292157631965143 62.00731654161787 63.34930690848476
48.854482023082156 72.95673037668068 84.80845938418466
47.0511228081603 72.39275490822114 83.48710463716037
54.999281633856945 51.189734395791476 83.39021403138649
57.31570186149565 51.38060000500953 83.6537815144712
51.49178974533884 41.19407633060915 63.880918952035984
50.75948643657851 43.73300787507589 63.0447699384928
0.6063089464061351 62.68601230578111 84.08684151804452
44.55216734957834 42.71832567676304 68.09271535326066
44.295671717310114 41.12445245659673 66.58470063369349
41.917148223367576 40.04955855461924 65.85713349440086
39.46371930012405 40.8772160005364 67.51694987669583
41.67441260704328 46.58666102687729 67.08039696869096
42.82455246989474 44.4903439076206 66.90487894521246
43.29148757275096 43.51897560653803 64.35311339424592
43.16463351324318 45.040619549721946 62.37321218381539
4.723595768205964 81.48886531887693 69.12566326567259
7.893429148849979 82.82426487011278 75.10468597141961
5.572831495737229 82.67781136626512 74.64103787787407
5.552873884772335 81.98118821279925 71.66923105915214
7.605508639875138 82.22829078265703 70.18305451311359
8.82857497865757 74.83015514765691 78.30770050958785
8.073533252504053 76.99423227311891 77.38442152126754
5.914076231636016 77.447527989413 78.02031681103755
4.94293239337245 77.54848884613293 80.51862595192915
7.95856950644845 73.38378811368747 69.7434061629607
7.136015517595453 74.24930231089066 71.41251400938368
4.7864388591016915 73.7437608151048 72.51506349743438
42.69334252996881 75.4738317405129 85.06576033548136
43.46149089351338 74.71754391584824 83.11925495412994
10.085835839455413 81.67163899432974 72.31378217277977
9.184087682635797 80.89510749557539 74.22678668914864
10.074398149273541 78.86731425100136 76.07714064984064
9.86625562993012 76.80742321115774 74.89956084518838
61.26670049465954 54.12880920139477 83.1650107690917
59.77563091207501 52.44928470478704 83.31124099437314
60.88787434156691 50.02693930910264 83.0295155244444
63.293637399638754 49.746082084835564 81.7138821098827
41.92976995066695 45.517451839912525 83.61536845396532
40.23265714964777 46.675058372198386 82.09265041889037
37.80669515313374 47.01447228769599 83.37492217735557
23.22751061810414 59.07629533867072 66.09134359893727
25.30135896635886 58.17923568880609 67.21858868811266
32.05304043054042 65.93421842856635 74.8494002136512
31.28026272117437 66.68027050266234 72.46753195027962
29.620130973736586 64.96261951222263 71.48859014765215
29.92736206230377 62.75598393675822 70.71057133252552
20.682545451026556 63.15359783852069 65.52243895598039
24.91358301236037 61.978621953792164 65.94695267200075
25.962418398464823 63.77228912481589 65.52145985602509
26.67775051498545 62.14060237803039 73.91798581021891
27.540801026291057 62.9236016303462 71.86842999325326
26.478743799290992 62.55808478041315 69.41945879911357
24.630886719910258 61.6958414900024 68.83170666134193
31.186161116951137 26.45410426356348 83.60433252172363
33.66241219474989 27.025760999121925 83.43100727244388
35.03693990375261 28.50294732225547 84.56052388886758
23.630526082284835 57.82801271194245 69.7484335264895
22.832819549263988 59.232749518043434 70.74650413429093
20.424767931714115 60.945350974709264 69.9887075989056
15.527922965555053 62.44208921185789 71.27145610410135
18.01162334674626 62.182329841188775 71.38343363177931
19.103329805709297 63.69082959026515 69.16791281328886
18.1987966921567 64.32705783648953 67.3756438347886
34.672370459956696 47.43059838675499 79.6009990482519
34.344401809747886 48.74549181888436 81.7044440533334
34.73385678983878 47.803577445301016 83.93119696246318
34.525514155695255 45.69802034940699 85.06316480944162
48.91952815923645 37.29447928376888 64.19160097636772
46.705130151817556 38.434215569141145 64.32979487725605
45.0261319334766 38.26590684163561 66.28848462400283
32.004765131927506 50.68725846903805 82.19569081014049
32.60252373994501 51.96292492770018 84.12165499019653
45.77787522871862 44.332212446775394 66.4567346236578
45.771478432692454 43.89312130444674 64.2919532936183
47.02892090801767 41.79857560801051 63.17653682462486
48.763296707776256 40.44639234772477 64.11059604461886
48.76965749538291 43.24828001005046 61.390066695003114
46.10212447962597 43.93601924660409 61.47752510011482
44.27728092978861 42.464931070792474 59.76840645174923
45.53402326634928 40.74074472418208 61.271120903933586
44.22941697522627 39.76100546285089 63.60141828393031
33.13921254595401 30.764333289681513 82.49903852384453
35.09693367717328 30.4489914326089 82.87043186508991
36.75018916182337 29.463797306643627 81.10192265846067
36.856607769553705 29.478118557266274 78.86079152458178
45.09647306252103 23.145089842479877 4.318206678323179
43.230475895217786 22.643210142000868 5.712726538431629
41.7320858889882 21.245238159753352 4.687967320283977
40.46378842838737 21.498307519537022 1.9802137561538222
51.48516305236764 1.8981107500821999 19.5550713933888
51.89859366343193 1.7150916871206296 17.13664338839119
53.14393993860344 3.2165198847745216 15.817842747728514
54.20751026741214 5.510437861935494 16.24122837017184
51.11927733250442 19.09620191607772 1.284512842508979
53.10489008660887 18.083539084477227 0.3377588665388563
46.69640447717065 20.636798633320534 1.2361863061918883
44.894924229215555 21.064911930177487 2.1330490236877786
57.78576415084931 1.4123488356589187 19.522221776764496
56.40700255801715 1.5969223503395853 17.734539362477367
54.15945658744606 0.15907787948361604 17.23205929032089
44.149741275341086 19.794055401475415 5.586730279662871
45.66771972494308 18.77753799892326 4.622243400676987
47.55426853364138 19.707310270110533 3.491983724297015
49.49224926154879 20.425039422244257 4.933821737485974
48.834039421591946 0.9816001099330633 13.134912052799606
49.4810109552664 1.3342103446417388 14.954096385045561
52.07999555635095 0.4145337951416858 14.214844267229827
64.78885780944424 25.39306616101288 14.762289815248439
65.98839292239757 27.13947743532894 16.457179997141463
64.6547915046581 27.272178759868154 18.413429594654225
62.12549666859158 28.036456496593736 18.70434080693161
74.07357108455979 23.265987046295667 18.313734824963557
75.06167557520155 21.086772931672726 20.09890088276964
75.25881707554811 22.01031675860806 22.316239688865757
75.90213623794759 24.520828090610816 22.952414688203604
72.9274598550434 2.850983625372177 19.671506314345923
73.72348483483904 1.9940477583060352 17.900099582889595
74.17790952408886 3.3819177856588607 16.40741598194812
73.40849330665498 3.177382051647073 13.871527801091657
83.40816987095435 30.498507844055815 15.76499214558758
64.06600664865339 20.537771712114484 25.169037071845707
65.94235175302518 22.152899417732797 25.948040678923476
68.22897991324461 21.764286677417893 24.46677463372636
68.82114656499762 20.08930831861937 22.645661064006468
77.09060038578394 21.682405152992956 37.821075032766764
77.43270861137374 19.532699615515074 38.19233336581878
77.60801067591841 17.86759028422562 36.15537085170658
76.45747780272504 17.90461131932373 33.949750360229686
84.74087356395577 8.270994094703354 17.83901150295634
83.72245359020559 8.679639355433505 15.610186516725921
82.51917249141627 6.935720121879978 14.620922421605657
82.60800022338023 4.410960661647258 14.95852867350521
64.53166300009973 29.41358009918973 20.57928929204665
66.70301727999568 28.736735495467823 21.42991045640619
67.3013160945064 28.032295407377337 19.08894629633629
67.83236316543673 29.328737362600023 16.856104652350076
43.0191866875036 18.897958058453014 3.42740293491494
