57.61526533008221 30.750671177884193 23.767422617746544
55.6388433703479 30.079218732815722 22.112120381864667
46.96121231682087 18.823184218043753 16.530822517899495
47.22325385874279 18.668184515779824 14.260943036345157
47.23128282515175 20.117254796527856 12.774603614773918
49.35279741635916 21.03904909319091 11.441312008496004
10.476752911136309 18.90112481653601 7.929031034407588
10.428954269064915 17.78848828335778 5.698526869565566
72.82398132271331 21.668257716545867 39.20293899850889
71.17802657066359 21.397687970049056 40.83535705284178
71.36109880359693 20.96037632373306 43.36885351721089
72.6281421058575 22.017623084816584 44.85443252931375
62.47079801274562 37.00517952815573 56.62380699930503
60.81075598718671 35.49372828681062 57.29851410238927
59.76315296638775 33.34525640938497 56.64831721379327
60.20995833915102 31.796609181566183 54.71591963077892
48.96225897430054 21.727068776489613 8.922398096240599
46.88835299612789 22.30295969775361 8.472664358814292
45.25444450361081 20.91025299167804 9.805397685852949
45.9781680543107 18.53336213575126 11.057422288606942
42.388331502615365 40.194356746042544 13.954970034292824
43.20269078392796 40.7495340564482 12.337851372155356
44.92630310448435 42.71875470970745 12.252610960091626
45.01949923460035 44.642880137977855 13.748751992061374
52.06215378913449 43.69514397197323 39.09131413101848
50.13937418379234 43.892368122039485 40.75368725128406
49.491956739658534 46.151644777905766 41.21550785002118
50.82946781442103 48.26870878676228 40.99950934248753
14.686363256497609 26.976932820787685 9.326649267319404
28.14941815106424 36.11542243122793 22.278810430087383
28.11357657510375 34.61431950925315 24.205186261450205
30.60143878838407 34.47921476569699 25.53892590992877
32.64288802584148 35.43309226692358 24.845751463001967
32.211783822590796 62.43217692590843 46.231505506384835
32.322785297395114 62.58393898801181 48.48890222414716
30.849386907122856 60.839734107071564 50.339547046459785
30.05511934258224 29.84563345473454 30.31875268428493
29.091499607091574 31.357883215135537 30.785643566950192
28.336662015329736 33.08337088710581 28.97365767766168
27.30216028161629 32.80723545824659 26.851517375600146
49.650922289773 49.76381246034918 44.820995701855416
49.14403753358909 49.33345741340754 42.77701057250957
48.82244278967138 50.602370777907886 40.59527695077276
49.626693307666095 52.76480496626774 39.603591672372175
46.06675841022036 49.465616680723315 42.899527902130075
44.66724037834261 47.31096833584326 43.028192432495906
46.25961128993186 45.303079902483994 43.33101415062946
48.67126029967892 45.13756347447217 43.63593504941758
37.16266195870995 34.19803883443612 24.520208711779134
37.34315998074205 34.647210230315196 26.942390081147007
34.97418980479021 35.04414134321585 27.930777965712377
32.833383976801464 33.834483240671524 27.73425167736688
33.5505330509345 19.6799549362858 39.96003200042145
35.642393227219806 18.68674666591175 39.43195008665794
35.51813522881522 18.257384874097646 36.59436330329051
33.55736709179918 18.040663741317378 35.41749419896384
61.52591110056385 26.35111383082138 4.081405637629059
60.99876218367438 28.08575122882836 3.0040835393566367
60.141246013651326 29.091640848762925 0.866657959661635
44.41148523180529 22.458737808113273 7.5063616611054975
42.72607125807358 23.532984008574328 8.671673082199456
40.93685419070043 21.69152468474434 9.905986029402918
40.85968648914768 19.307132596279487 9.464533463499986
56.82000016345423 33.816014798960225 3.907688470806593
58.30026540845073 33.32889962226332 2.781611106595694
60.157615109034 31.601000006016488 2.907856375738056
61.34983206663522 30.668816232316043 4.827782885023559
62.63207644009596 30.739482491827737 2.1394766516422203
62.14690328744957 31.07679110885367 0.0830979882946061
60.55856692177238 33.01665882687243 0.7727793470005072
60.61647088923144 35.08796985427023 1.2575143655893393
54.362634682947515 33.56153081228543 0.14507391703632647
56.43281758792334 34.27021056502493 0.7113678160421794
38.13106506927574 39.84368565227528 0.7449534253505495
37.8748459097154 39.111709169034405 3.0821243818572275
35.2543397535 38.40901563748931 3.065617440957527
33.617748572566406 39.061177787368244 1.6735059449356207
53.33591527215191 30.634728554204358 25.89116449357561
54.86741100513488 29.737702687451854 24.679006920969243
56.94301278797924 28.43692915243207 26.302448687029134
56.4322093687678 27.66597737111083 28.741370139768886
44.80486295930483 42.29293576412085 16.161866278583975
45.81102337587045 44.14276673656877 16.645374024480244
47.90903764145217 43.06775086757526 15.154140018449647
50.06706892919537 42.04360559248347 16.29662144937684
45.097744446136694 39.949338490510044 14.141937920510765
46.57685809663336 41.401460941669725 13.652144755024375
48.62171551416071 41.696842179953634 11.91882042236897
49.827489419904076 40.19298464029439 10.568718685285985
33.197714351367246 36.133667459685896 2.198298249049447
33.01224114997237 33.778088271548086 3.2791412055568414
47.778983557627335 49.91051332664895 13.032158128171638
47.63898464111409 47.697130885481776 12.04666027528941
48.23005136201169 45.901423280048554 13.693702030765104
47.87317045508914 45.8652556131257 15.956784914505366
14.153926338402794 19.46598931617087 15.463266971881076
13.115920277842832 21.035390629812056 14.427510984677062
12.093406591390963 20.984414201749885 11.866896004659939
11.80348450366168 19.115138668030976 10.463990773394828
36.31435465958974 23.029334544300912 15.729949064287407
36.76412265903548 24.84321476508047 17.129717855192084
37.1349131848359 24.399159820758083 19.771871762960046
36.03157932777238 22.242827940877543 20.90211459056416
53.424922086051915 37.31281747557838 55.18073277684219
54.87577233978613 36.17380671967063 54.772238211616454
55.5335415011417 33.578114842537914 55.12277914952853
54.088287066122625 31.56588582188575 55.60888159847711
59.98720777385877 39.118006057772895 52.19505227742217
59.09194156479133 37.385353708968175 52.61602590597188
60.687545846077256 35.673342284481684 52.878388888233104
61.333153930564706 34.398094447026935 51.70278273759081
32.6634559317356 31.386868178686953 34.123895959213506
30.80245983219574 31.940846922211318 32.74234414919598
30.638002898680643 34.164545790372415 30.896658069028895
32.36577187528771 35.38492781100113 30.111064431305277
55.02443053160064 36.227428849676514 51.86932903561825
57.20154570376785 35.67765565744332 52.99069978752164
58.67942760672707 33.39414568701526 52.996471303298456
58.51803945911428 31.33206592092463 52.027602722638164
41.365560504153194 44.907769470500135 39.84606130867331
41.39606650928358 46.14036457640538 41.54106103965498
42.91594983556714 45.68963018860254 43.92542513567312
44.59766525397297 43.32058811154847 44.07274339749921
56.80447802778505 30.52334190573638 60.04374642230891
56.12850069867625 31.689488850826248 57.66441373201952
57.097757276675885 33.97063570789922 57.174716470394095
57.21851277977871 35.79027600581584 58.51278606409025
36.15463940335766 37.11023182115626 25.765783725082205
34.0472322656931 37.140603884088186 26.94752371127553
32.204761428962286 38.17724682172058 25.154989898959535
32.33465765419931 40.097229065635254 23.876075414417503
31.378703416045994 34.395455588314576 54.51923327184998
29.76369225927966 34.92245516547418 55.69829145214774
29.177136742066146 37.406833951864904 57.17941965426462
30.664106721686583 39.3862085622181 57.29467410413162
63.740566958487456 35.17448938709825 48.000055237811885
64.77231199302672 33.7499480478031 49.55536624134879
64.39968100327776 30.857398328541183 49.58291125819484
63.51492549740012 29.44761668215784 48.070878618379425
53.088034569243874 36.001029219834926 1.123080548696007
38.382924807984864 19.388805405320543 34.287476029733554
39.21221470286392 19.50832833266102 36.17475337071353
38.81712040304609 20.658216266170452 38.292846362678496
36.69458449166881 21.591141284729762 39.25033798088182
22.581320237202863 39.871489400309436 58.745390892343366
22.781119029194514 37.13638249085919 58.56862550993448
25.46639211512975 32.91591410924794 56.62969051449248
24.18793864273608 34.65478136225645 56.802869648978316
25.364333936737246 36.810953380036544 57.74317028013961
27.418034783922458 36.80116652771721 59.448803439479605
44.04404054843825 47.96355968491158 58.81150829037138
44.71705697717505 47.85180767757172 61.09235350941761
48.96096705432801 49.04763391494371 59.8159790861215
31.599542966068814 35.61460376442226 52.0911924492911
29.41530673530839 35.79248801134604 53.08344285381307
27.31480158711671 36.077788203191446 52.33547881353107
25.889409699056166 35.48388075269298 50.378615019588494
50.46040560583843 7.995858414920547 26.103245414340886
52.31811563154232 7.669614149938419 24.64132438147454
53.25905897740108 5.458934307102662 23.827019486395322
52.10076947637168 3.466994476886346 24.17126340691791
64.61100653546855 13.595876884170847 16.10122643496772
66.1583702268529 12.59695604365937 14.715837933999268
66.63874306395702 14.030348014495882 12.27961858531502
64.94363230061677 15.690686876100829 11.263777517118166
67.84419501407156 12.891856200273557 7.525679500313389
67.71010021916952 13.730937773649222 9.80137234987647
70.0272060141399 12.900919338179548 11.491208045146195
71.72627052002366 11.671965285879605 10.822042915234507
55.62763988598063 24.58434211189605 24.15420543371517
56.88195686160902 26.14345509290853 24.640133721305098
58.12207080579218 27.84125738187544 23.202005176352863
57.628719782978294 28.292561394265235 20.653480396000674
75.06772386838009 12.630760151340896 13.170586515680062
72.6581522020749 11.532225548198143 13.974558145779694
72.48086988488505 9.113515386199978 14.874264005001296
71.19293516336751 40.01837846248288 7.544753693032281
71.75223512092505 39.99098388371391 9.578089299766296
74.13936982811548 38.556799106710315 10.35935266901639
74.88928967786039 36.53988061057594 9.607480211615812
78.08703078139682 42.725388591490514 37.63076263070827
78.46328229313389 45.16390426451032 37.887669976551386
78.23008381300934 46.36850833489222 35.39578867721679
62.085912815592025 31.61183319628884 27.814911228331276
61.27749380067338 32.26177190175641 26.0743450815152
60.3947009620202 30.078608421468456 23.93223623041927
61.006590988387714 27.603969849277888 24.13866113520222
57.608536876217364 35.970968902324095 26.559438552468
59.04806045878389 34.400253586640105 26.79772625959635
57.80000935511648 32.05905053146438 27.189946101468472
55.54752863232878 31.902053276537824 27.9541686049867
72.79688464934007 40.01863010189751 34.17703680714332
73.20557327267268 40.95054177437899 35.82502302985543
75.652419227632 41.8317071674671 36.37528620536075
77.57875676187109 41.173632497295245 35.354123970340325
56.45513420608733 31.484312958819388 30.51349740573902
57.27992373263088 30.028143439008588 29.30485097096159
59.925875159609866 29.679821192169463 28.650781438550975
61.82065368121186 29.967537590190105 29.747028399374237
74.99600069242818 55.45357664493807 38.43849348803143
73.61747227527154 53.53479676175106 39.09431802694133
75.02222860384106 51.17376911663877 38.3318814309557
77.12755480528406 50.854731182167875 38.06628253320333
74.86115804631966 41.851016298160914 31.34154661739923
76.89864545091025 42.69455822887593 32.761251893559844
76.48306347504561 45.49575577455286 32.59717154894422
75.87329238791018 46.71660047508445 30.72885034924863
37.987247330310076 24.41423816105821 13.374425884962166
40.31196173733536 24.066918800360327 12.309487018911339
41.01788955363322 21.545117863302202 13.026909244751266
39.56745288577783 19.540505158210507 13.512634866520099
66.55092287104016 20.202086070852758 40.382264631941844
68.46475022512188 21.980899610396257 40.570821617405855
68.88555191256262 22.713844423174706 42.96138926072121
67.66241818580679 22.49977228265651 45.075066280925995
47.85286070907961 13.855974635239884 1.478831655368371
48.923152346273156 11.911505789224313 1.2994462296660394
77.15215424236041 47.53110896923712 13.524059260969729
75.7430960116232 45.974920857277404 13.672588319806355
75.86856230400429 43.379947047375 14.651287515925826
77.66763683647079 42.057337023293044 15.249287200491942
77.48066566036943 39.820863022925884 13.660152339466977
75.63257284964664 39.836949546259525 12.47604836115198
73.23073209513487 39.9619467305179 13.369534497967802
72.51490532771847 39.50205222983337 15.868166619568164
74.04306740704861 10.146309526722733 17.28443503030943
73.29149919277614 10.130568171416721 19.780388124967796
74.78568596534258 11.274421806419317 21.872700885286843
52.76597746564124 38.90143273409029 0.6669149493481299
73.3163768891059 45.88625293205446 19.041771917923963
73.88718453851733 45.02082149397141 17.088197138142817
74.12112961130315 42.570160920196294 16.251826999118837
76.43483408590083 41.62775885441337 17.611746597605883
70.37291147831317 42.566961238313226 9.205732473275944
70.9888903375247 43.02375387305242 11.485830290364383
72.88746139264006 42.8625469139493 12.619989632217543
75.53015337459347 42.667325418208726 12.164699920378052
73.91651784700602 9.7825556158626 5.871468315089091
74.17108975995652 11.463396195979023 7.295542352086693
71.56108786570879 12.94715271622859 7.287553378645832
69.89352226328893 11.73269377001267 6.035500826423032
72.35359526413605 25.016265297828568 48.22507928256873
70.04746556899447 24.80786020602679 48.616303631219864
68.31538348352849 24.767501590867873 46.41586452904629
68.61836948787077 25.255654235683284 44.28987533858083
78.0523841514387 45.38003848649495 42.747493553258515
75.68233881756412 45.00685444669714 42.855341656043414
74.83609434599262 43.65289421958129 40.71588391135419
76.23935145062165 42.04164084259462 39.333185136105214
62.341772832942304 27.208073917210204 30.184511295473772
61.85428720301352 27.80562078094442 28.170503884795984
59.69667111201569 27.09743482784412 26.666981407505453
58.06712985843295 25.47051364087918 27.005950428790747
57.95569348445312 28.814966457424354 57.98771608695928
58.65481356488884 30.280643828619244 56.513290855933704
57.05874549611546 30.892063725244615 54.37731975497749
56.09273734887966 29.225706398980243 53.20209908361165
72.0499144272962 10.314134384638962 45.512725016566776
71.71293062396103 12.690299135848816 44.352248397996135
69.34478311082235 13.458622632800635 44.65172146524086
67.19334708905194 11.840869296658521 45.09182860883816
59.04043365166317 28.963345752162034 60.395474170343334
59.70797135480535 31.026974935621244 60.61890326385375
61.54923448832683 32.371278765992884 59.37084379888181
63.32658764141169 30.84018388049995 57.70429171638927
69.70864892614486 14.393104066321056 47.20160827514346
69.65804645889007 17.070811201335932 47.12302537484297
70.28465035770408 17.69566677594533 44.47509276469717
72.27417195512625 17.22212843964468 43.41696285391658
60.856968431959864 29.669930100185844 46.85284719044519
59.22388594232712 31.4883290729166 48.15212017092543
60.554078239831895 32.03858723934292 50.37933815044915
62.04841735053019 30.73229467246571 51.85126594519806
61.6871958953361 39.94013201361772 56.246575527856805
60.96000347215263 38.40996773614058 55.046933398403226
59.038412509877965 36.92466607979307 55.385697207628915
56.835648785465686 37.05271014611224 56.20115308413592
61.58703963963349 38.37511445221292 58.76069212575372
60.19761620335542 36.87153204560408 59.89083890062163
61.15765330713589 34.59898653320832 60.644429383246106
63.8091080695444 33.70833273099732 61.09409528243972
21.1418771018544 39.38726007635182 21.53128738642829
22.64155629334125 39.320856248969164 22.967781463469933
25.26025333871376 38.99541586850395 22.72105381930495
26.625601400606843 38.63523210601762 20.873817014876828
72.42877249092851 16.163288425937342 40.8546512060631
71.37166483763565 14.301702335034664 41.81337874404241
69.4329422962378 13.155803873066432 40.26735555732363
69.27773718869298 13.59132610026658 37.595806846551724
22.710241309289675 42.42140675544052 23.593555905749586
24.432028161560382 43.26387530505702 23.868629324281255
26.332022821636734 42.61982130281642 26.056569617288254
25.339959022444 40.98262833953297 28.1537846600631
24.588959518213077 38.22210321886793 27.8260888856781
25.383971474778342 38.95136172568462 25.994213822107945
28.049863830548215 38.80654729281288 26.090141120507198
29.428499870674393 36.695773019708035 26.84929560562834
27.9031834711716 42.92816138438614 23.578230988319255
27.010301877826073 41.16073406715764 23.807676618556407
28.024767580028083 38.67172371641186 23.447544221928506
30.2689302390879 38.07873284740858 22.489617660972037
30.421674386376782 42.433128270721284 24.832444777634493
30.51512303902248 40.843222305498664 26.391842284062104
29.118387354749355 40.87191812181361 28.745794055026185
27.670662020957717 42.6388370177634 29.746409494318694
29.012014804770583 41.64341076699877 57.31903884891083
26.988890810919717 41.52547002650791 56.91020867630206
25.34957602461785 39.5759025756885 58.29812818075091
25.508548624733773 38.91491682927146 60.52713906922851
13.729987068844679 27.0764835512278 15.748434989727347
14.032569507502293 24.74534355022025 14.773149306193872
12.063778365043826 23.483756005539057 13.844463829961187
73.4101681868659 43.0229865635705 34.04216205857479
75.14759322720322 44.16831094310935 34.655897718944345
75.67413244267183 45.42686975295962 36.80869022626913
74.6331839227382 45.56738755712745 38.99035878421953
30.496950655779234 36.390368856212284 3.2031953205635793
31.123823879868706 38.861411934257944 3.5478788142315563
33.49849005281791 39.430201281342526 5.172562601929447
34.53885361725701 38.131964889957814 6.3412657737922915
29.469741297870208 34.770185555236864 0.1644398565651574
28.325486164563138 36.44935641926094 1.5741368348916283
28.87893149310842 38.585167654789466 33.125142479742095
28.903804397079544 37.206690912191966 31.54143488401798
30.50555415568778 36.97202642258108 29.23778941673494
31.8561984953209 38.69673377402212 28.442225626180747
22.665688912752092 49.13050772817609 5.089709436739922
17.52720599103388 18.918962395333846 10.023949442315597
17.95188689393601 20.747171457524786 11.660274729664703
15.9141180957214 22.09573680486293 11.541328228170416
14.500247750385666 22.667020859425737 9.477586409545454
29.890023545697144 30.96399985711559 0.3905552145630318
31.23072789747735 32.57795546256288 0.29821382162560367
24.232184357294003 32.011983725219174 54.4368471042314
25.252412730508038 34.2386601347711 53.835717648738566
24.433551436040705 36.282664830950544 53.12145284347325
22.19109446098462 37.23338638728187 53.173878520882226
28.856890998510202 39.859468454720925 55.2273001138674
28.20106189232086 37.69090931339404 54.48937870224072
25.957736450700345 37.48121771978258 55.41336883912677
24.2603886382458 39.00907849248513 56.017902920647686
26.938874818452312 31.561529011411473 51.658289632793114
27.719629753403396 33.08657097685948 53.66318638985798
28.261245324467033 32.38706203723882 55.96355507547496
23.37362404746335 43.56508498607976 54.409134541963326
23.373586783650577 42.28902205129015 52.07752720942138
59.308431707364434 53.79691148606227 23.606336160356516
60.54491255197797 55.15082468539931 22.525380092376892
59.995818554477125 57.523405525488386 22.043662184297602
57.61642876060383 58.77876756290858 21.787740623963256
26.579779438533496 40.26826053242864 33.93573320823052
27.55435381795629 40.7068215799151 31.5135035538234
26.324086227370284 39.03775517893234 29.920641541383052
24.102584063212785 37.67775797802716 30.568360236195982
56.442060136458906 54.95252568472051 29.514090497604244
58.249336665330226 54.44238571895906 27.841823749531414
58.24896373308524 55.33334113226577 25.61177548223203
56.08004327271743 55.991515520456204 24.16975701798698
62.30603957666456 58.929821024980825 22.016512892293253
61.74446049175822 58.7323221782024 23.88677083255589
59.906218702848676 60.34990392514728 25.575077461869245
59.86946122829374 62.32985403197837 25.578592759589775
52.219787378985814 48.65177163937733 13.300388004889728
51.430251953701955 49.4134890772076 14.915384059207067
49.792575697261036 51.26049592528021 14.783557559708465
49.10992400946443 52.594821380739425 12.615277921906447
33.695100883098135 61.74287352269152 28.615691962963627
32.8447449094858 60.92699829860364 26.32383013816072
31.661858867395924 62.79211911202444 24.653765887965328
30.9990380338822 65.01609137515955 25.327544965610922
58.15529070024398 64.9387149705842 30.223250454557213
57.56831637016442 62.86270405688289 29.931422636788568
59.22097982048642 61.033924353235015 28.691748317568543
61.750136335755506 61.26090765934339 28.058557576922848
65.53927007766843 60.23533634876679 49.152492863699855
33.6524171692142 57.80151727104223 25.90542189777921
35.11307451177994 57.51083495592858 24.526458824878233
36.08042386314498 59.013691799279975 23.29678930088406
35.176069829900904 61.32620670055704 22.250961437192686
36.50366390665952 60.48970967587235 29.452638955562737
37.54907479561673 59.48875121744494 28.004759267839763
37.18725497308858 57.46007696936977 26.555488451940864
35.4927135927577 55.69427011306752 27.223545162913428
39.200911623667785 24.221756274792025 41.45941642846895
40.25276894038477 22.939219132155564 43.142977640964475
39.581039033072834 20.126178643740378 43.49273416828014
33.27894027263199 67.55602300752561 25.667580501693774
35.66774600224852 67.29756531005974 25.562520601610455
35.475526918129674 67.89260681991598 28.237512663907186
34.3308797958181 66.39829983185393 28.71568954797037
34.94976703253446 64.11237476913367 28.468389757280043
36.93685417730977 62.845599411822775 28.660382151459807
45.34645469736717 38.75915418033729 45.91391157605978
44.84742781304018 39.83815195076787 44.222823510261755
46.329765877284785 41.27954529343184 42.58819940053509
48.21388255135454 42.68467916246353 42.91709700838254
29.660392606883608 39.48688793879558 0.9097644854819846
29.918120069399773 41.298651992669676 2.712916490512574
59.30549450785647 58.63436765692806 30.051341356368287
58.8589663181544 57.272018849781844 28.352224506297446
60.23711438328418 57.450091728831005 26.229453058530048
62.9714234182551 57.99459047348288 26.13564911782373
50.09465572621401 45.64451849849068 17.62782093967004
49.952416881582046 48.08196074600453 17.596903083374155
52.33378228206963 49.614391641495445 17.466562374196585
54.26537684918944 49.267484256315726 17.903984018654494
33.319185977771426 60.76532698591308 2.1064348462144014
34.670851435576 61.75862483323202 0.46449548163641874
34.31475383003096 64.08053578478433 0.070552851242484
31.93207582187966 65.1434270369496 0.717081491264359
42.448693817044585 1.9263956092029493 14.152414039952474
44.260760633611504 0.7632500186690717 15.345370835270534
37.52014061770321 59.60162709110309 2.0554120496011565
38.52742996923415 59.934456458159644 0.5174115304993345
40.156601446367446 61.792402835775135 0.039024256722457074
41.09826386338677 63.36064468821805 1.874790167536847
34.37271247070054 60.964966266112086 7.566283480670316
35.06364847076444 59.47838259504342 5.526992152589111
35.771715714695716 61.03253975553923 3.4275285839060454
35.9830103136692 63.23909394755669 2.9256586209748714
21.818396295538747 37.90682793848846 55.55251661235416
21.499836759340507 35.81987491984019 56.81534438867015
51.353727825758526 46.16587276315573 34.93728647055273
51.68406465180754 45.94817237221442 37.02371331618357
49.94474730099834 47.576505312429354 38.540389559517614
49.891993564524384 49.59812063614587 38.47277774762152
23.66752789700087 42.74831922122584 58.738372106588535
24.59425116621517 43.15465248610781 56.620021876693876
60.88866484546517 65.23501502065895 45.960341755535985
62.10785172915378 63.458865104866476 46.51979091511279
63.659774923542884 63.22510630992058 48.79949257835635
57.747616954803455 57.299174404633455 18.205699704054606
60.06303825930898 57.304614672585984 18.613315182273674
60.92764005269717 59.77603118608232 19.70111365494853
58.917493317496316 61.543878070360996 20.084370949166484
32.50624239695588 62.90962710155343 54.36420784745219
34.487806318950014 61.936465660989974 55.04948137425208
65.59463035515353 62.09149564957648 47.09369005062143
66.0271926068654 60.32779644725785 45.65734332325466
49.21011347273646 44.98584719932275 38.159374504374895
47.595617716202234 46.41934460110028 39.25217272934651
45.7776842153345 45.27803059455725 40.874815696016874
44.87878049232432 43.050164508624015 40.903442535833044
32.2482655618724 59.2422251107831 51.87964383673425
33.684243330205405 57.62067531079018 50.85790220938121
35.924965609040584 69.21878632380984 48.82983756357324
37.1224592661427 66.95100652535233 49.36017704385102
37.9281399859936 66.05402974679733 51.44218223246895
48.81487127893048 48.45245650570142 8.42077865154088
49.8476213582456 49.14293060029836 10.523706281217668
50.61149424005196 46.91400124402058 11.865671757402707
51.34403785441574 44.94144689815587 10.991479798403736
75.26076193523433 50.83565727150472 13.152692696100099
72.96559589101906 50.100400062027724 13.301307045147155
72.48949971751517 47.723440418329105 13.519859272285045
73.42456358374308 45.84321317615471 12.340021595832741
29.49248323130197 61.027103418452285 24.386182991547123
29.692426934041798 60.7440338774919 21.72201567385639
70.91894194344901 39.05771540423972 12.388027192181655
69.58931351132868 40.95393954646867 12.15700420957921
69.30646061812361 42.701047866907004 14.11593092181655
70.53658486584166 42.65967510189666 16.583148982168975
54.6838328199546 57.733823533490906 26.108740010813293
54.51441169619755 58.36643478232694 23.603772323271237
55.67665493977833 60.73096168832204 23.037119941798903
55.99434826388417 62.65361736224254 24.33833381924475
77.70310723679862 47.84044185508915 16.454043123320602
75.9676876566895 46.51215273555997 16.55707434930917
73.36938442949229 47.4976653055472 16.067795737191528
72.60890265322597 49.54941176393256 16.103105091402814
64.73604468619095 54.36270997488701 26.58893656402722
63.57449872031668 55.61546490396931 24.702465356387084
61.01765511620163 55.08943266413677 25.21304833409028
59.98231320304449 53.30946088422967 26.242907980896867
58.60084722684747 65.54014386888348 23.445363064736963
56.29423378356471 65.33965951553763 23.273535862551185
54.9649272187243 64.45457642715398 21.020598759292326
55.44808662795306 63.46819434453604 19.31913053259276
62.581720461913505 57.84883964363156 17.166692792234358
61.72970201340415 55.40269723782618 18.139125070158844
62.383663175525015 54.91644381850306 20.60942390808605
63.38907478007219 56.06101486631345 22.20860932639285
52.196387295678626 61.69075097185078 21.86637197922001
53.85483233896038 62.14441268918616 21.313331699198468
55.57243228357251 60.48891539718454 20.037240385085457
54.82968587057311 58.25427304259194 18.83790316343018
55.04326308048514 62.35901443178662 30.581118588721548
54.27576921833878 61.362248102109916 28.986982740648237
55.90487951796174 59.54682168719387 28.195163526895172
56.37429318191369 57.55036993122753 28.99685784839319
75.16983102653309 47.70837736148858 42.26150786144608
74.99682292963755 48.43700137877693 40.106278688002334
76.75008459541003 48.25169168046407 38.25592228563013
69.34752283982029 45.243926382548786 12.782518322385487
70.82462673721328 45.34486209998212 13.920481927639495
71.16304812936441 45.40236999926031 16.2568044054024
71.15095152563015 47.34886786981814 17.61758694131665
58.300468689702555 33.292045850794636 63.709776029024496
60.18760997973193 32.69090150692303 62.73285720902362
62.71554196410143 32.61954567588881 63.33666807370197
73.64320019433178 46.9943105074649 44.82775815761914
73.20543747265947 44.72341360524053 43.91884977066556
72.32498543597154 43.93380604308971 41.911018215865646
71.178514261444 45.0751709907816 39.964919309293286
73.81666119954852 52.917062617246366 35.265064526151484
73.3881479887305 51.08625181269484 36.34108314575489
74.64365908879289 48.715507964631406 35.61400716015086
75.02950094924971 47.84163138628329 33.94999762662268
47.42556237895634 67.62023270189778 37.09267255973613
45.53417669747542 66.44014429199407 37.27241372954071
70.4054422511334 42.29587038734282 42.24421230047422
70.0082100176699 42.57120079865327 39.986710212997544
72.01239558269296 41.91125287669767 38.25787859503556
73.8580162684705 40.692940080222144 38.601550858040184
79.11798055021012 49.72816185118462 36.44729946100787
77.46421013226716 50.23411889477743 34.86806595684755
77.08141082429368 49.186431756798854 32.34971255940337
78.66933740911632 47.30477960724169 31.488996327693975
60.155558967412034 58.94594206749272 44.58931073401297
61.361289324744234 60.52435079782115 45.297516147622275
63.431828677831895 61.74133759323926 44.81980390262304
64.68378367991339 61.974478009867816 42.62613809840889
56.49012722763271 60.82868730603618 46.32686610351951
58.64604958009078 60.81632271954688 46.041359723522035
60.09434549719576 62.60363037324809 44.77028652254668
59.39860632270187 64.54111317814619 43.24837486090287
58.07945198771501 61.51692879834842 48.530604651770844
59.599694478055135 62.46093912594233 50.13710341490045
61.98040311629062 61.59705931744363 49.973456215219244
62.821339452002334 59.87988207084123 48.28296537525234
38.90972128330097 60.19867450980495 24.120976006556383
37.1989075998012 60.20613356406551 25.354303327767948
35.42485093080685 62.231463840745846 25.901455652162184
35.48039768798881 64.6496210256843 24.833451516416726
65.02386266099465 13.474200165817695 19.0681019095198
66.71239411900297 12.504996546668531 17.37705570997585
67.90622073325595 14.508376491720187 15.941995019435405
68.59587332777883 16.86526357293265 16.735842488783184
21.490220354023304 44.686174341700344 10.380280614086393
22.907765941662184 46.51127346502927 10.311758229129419
42.18072138543632 59.262945340110285 18.11781318012809
41.63816668652732 59.41828269004425 20.202160198979993
39.54729220485003 59.87692034249353 21.73447378728903
37.4548831489628 60.363963210680225 21.051772733116007
30.214429729107653 62.26673717781902 19.37459278024279
30.419919501169662 63.495038156212736 21.012916361729175
32.39372035672519 64.52425800578168 22.58168494166428
34.83750813533481 64.21573517877094 22.13371611117156
58.870180715501334 64.4531695068843 47.633326856225466
56.4751026970068 63.7578656647578 47.89602431334379
24.777029423468107 50.014152245122624 12.556727625249176
25.39095245991032 51.543064510159134 11.191262739439214
24.630617872832254 51.34699867480554 8.677035911657265
24.30234955120736 49.27793922023112 7.406981934304857
41.83500642405228 65.54084931361723 0.11926106517870443
40.64274152128013 67.51836035363552 0.28189131555636804
43.2497762832756 63.58766844110239 50.19035025127864
41.52564238694314 62.30998571664543 51.131920261036214
38.98433110213827 63.22557402205832 49.958293795365535
39.24614884961339 65.28275154924911 48.24231712315451
36.278539233055334 54.173909842914945 25.019801761428948
36.19810242104259 55.157808720632055 23.086494167660884
37.87709983508456 57.07986324931372 22.549966228079516
40.07768820576 57.61671764504821 23.46818177527284
34.970295869935775 66.48305210781805 53.32445541555653
36.318713983218885 64.74851466628203 53.298315625432686
79.36148909952948 56.61219958915243 2.346705330415498
34.15235787914536 63.62270615560298 44.70270424014262
35.210026727497095 63.486725992961816 47.14632442961745
34.71451402819614 65.65490495202695 48.67500410246832
33.74316085176696 67.62916540238422 48.080125586531416
36.05531096876617 58.907499075616286 51.01886422390119
34.542505248950675 60.24949765254984 52.84710178076974
33.40247729806525 62.5229361387528 51.77890476644759
34.58324257033827 64.03195875018308 51.10682115458319
37.33700810171847 58.270221973732276 48.43916995986211
35.25040628586601 58.804303608600485 48.7573712122144
33.921098833950836 60.31782011715008 47.142354251816506
34.308906550547334 60.9168558880636 44.716689165662586
38.785625243623265 64.25534962960879 3.243439303059955
39.37132332792937 65.85116291579544 1.8005892031777628
37.19193433567077 66.5932442455883 0.3194300200442048
35.09610566107153 66.62382271714355 0.8073470805176897
40.01532408266805 48.20313836231737 61.63601874277644
42.11914319803926 48.45512792758992 61.69399169422602
82.1638118228271 4.062977020777535 34.38048644995327
83.69155363764993 2.7661228551667403 34.90186257388468
75.34784771327111 13.244461312207847 15.642918345610804
81.14188531673966 1.730385004485713 35.119933500883306
78.79485637473017 0.932870880485925 26.849528688206586
78.49370148688772 0.6009474532995025 29.064018982976105
78.73844049599062 2.2359608881787905 31.366358347994787
79.82239353202043 0.9073814096476919 32.73682897920146
80.49934492445402 2.0011230166239353 2.8807883788292146
80.9161302980132 2.323647776689968 25.898848316697123
82.34579484071503 1.5017248835702002 27.403152256595952
82.49181928178848 1.5553686892350853 29.857607896496265
81.4167905184558 3.166709790395172 31.52398014355784
79.96257693042182 23.269867012663727 26.7174809671764
80.11925909395441 24.550848511823737 24.853029087497056
82.48914144206633 24.78995259263628 23.852645731230336
84.11631692932968 23.117770346301945 23.66056178693506
82.55958475444135 25.184512046579087 21.212362557875494
83.53457311062468 26.96440671607117 20.6419933664034
84.08378252758484 30.026017427446693 57.19283221216746
76.91039389832889 11.503602873240268 13.683012218160101
79.0046508446816 45.57034942622976 33.28696683817189
76.10623232859412 10.68902146634583 16.224879243154362
84.59509667696008 39.83968868099915 53.75422356497862
77.96765435947812 25.721301870040808 22.922492439383745
79.98793234500403 25.973462487439484 22.52182181544553
81.15655492307245 28.3425076241472 21.979986945246097
80.76684853689143 29.958233868123045 20.929627802323182
81.25007752326759 23.552741045675415 29.044796694677594
83.17863307063818 24.306140326190278 28.48443007893513
84.45356376324557 26.503904137115228 29.5339364479395
84.19924800232691 27.228149562822832 31.76003579991204
78.75278262154889 25.18594282708748 28.206659923189896
80.55818071246938 26.64148001957166 28.975537008168068
81.7875631309658 27.63245095681577 26.75490174391122
81.07342944257077 28.68788245478063 24.93158244867753
81.0327879449921 31.973763014546446 0.6836736698594522
84.47751523561186 33.61686967802537 0.9565230775668337
83.359176779881 33.08062437738365 2.7576284523563888
84.6967429892587 30.98623972829103 3.9244194971992297
82.71174158790274 29.534975385977642 32.708250166196464
81.99045113722518 28.875191401433277 30.899493787523447
83.25428154418739 28.924597067017515 28.974111880652146
84.94211817673664 30.87658498830799 28.058682203955335
84.82035471262016 25.73788614415906 58.34885534188238
84.11031740447444 35.73155820741462 54.256439347936976
83.40017198792576 54.92425656397968 26.26452111879185
79.11641794713252 47.72596213592626 38.23796349053135
83.97496898932627 54.51862564132994 3.145417291977833
82.3323268003021 57.65594199843309 0.32553651456529026
84.27001334205497 56.54248211347934 1.0075930066742893
80.41398489519999 55.569524237203204 0.6375619668500427
81.60756431635704 53.318533450503075 0.8206664620144192
82.31248132495283 52.3822679415903 2.711245399641759
85.09797261064438 32.18186482650858 25.656407742152407
83.88611185770414 26.8751477456386 25.08598176795553
80.12390701183598 30.642978362926485 59.02886235235486
82.75025746173009 26.001218846691984 60.284188377740776
84.69384052803575 24.02904760459867 60.889986955199916
32.31652315388762 25.93128600985821 64.27003639320668
34.46909999761999 26.011694140511032 65.32460126016505
52.410637651107194 79.17627678848164 16.042904790322737
50.67204468702632 77.94887414989293 16.824823232759616
48.62989223812403 77.61002164968106 14.916950952994943
47.86326469606462 78.9581696347577 13.211454300969688
53.37570974463827 74.96362433282805 11.989299389771752
51.27009208943235 75.495967505215 13.035427585522402
50.597138955483665 75.4187030250639 15.38028408584443
51.589944265268414 74.56629443049174 17.1539421888771
36.502132326685604 27.471088832028652 65.35264456513609
37.763009703242524 26.591379011472927 63.49860148625074
36.19784146287166 25.627524935341242 61.96010878119267
34.121501321392245 26.38157178934654 61.08718992513937
47.63619309269818 76.8782973955032 22.037022781341634
49.05110288051834 77.25563472229308 20.326073195666396
48.69000817554661 76.48301476547086 18.127723185351392
48.848772709531886 73.9382576585101 17.482086283183463
3.315451444291236 1.8116465130314856 2.040194432752238
3.389800790217561 4.036156695126237 2.481432731357745
48.68095724940395 81.05229523115229 36.21261338259245
47.30867591775726 79.96331586216247 37.8281551204688
46.093524263587526 77.43634956833573 37.232286157373956
45.60806007904958 76.40480242715292 35.61611600702016
24.495716136952574 22.64729858686171 40.78802190091478
35.30926546019698 14.112969064932344 38.70047138839427
34.6787589230404 14.389372112228914 36.58884485111803
32.885572954704614 16.284162829770032 35.816768153877995
31.59363207114835 17.68551886747048 36.89043964034338
12.049912849038456 21.004525157142442 33.23217863460005
23.777623192650875 19.99493493150496 38.03821689664469
25.18972912230028 20.395751969787185 36.38919009819604
51.048826788809535 82.73908195943575 8.163577829269812
49.12863124221613 82.36822822959132 8.923561386936841
48.20369178350671 79.92832670744116 7.909249475852062
48.61194922725985 78.83842134794821 5.7291802800216995
20.262183693437056 34.87308766454459 58.220785861426656
55.96898400166932 76.14071831299074 11.215723802306881
55.350161880325324 76.41948393066443 13.383078579416805
53.582444878961 78.24480774043289 13.99606214103718
52.836750020800906 80.09501445680408 13.236259185681485
47.09443206042965 74.73230416078462 33.39448688584151
45.452591570664495 73.8989281757615 34.75399798654967
46.22959694580304 71.26423267373258 35.90351276550829
48.05699013646834 70.06202758191668 35.45943895121423
23.10047587508783 34.06367303807912 72.65729929442091
23.59854194095988 36.21600320269699 73.23565854473557
24.7780116387192 38.33029527400045 69.88490387408628
36.06579054520958 16.04574271079805 41.55449359435373
36.47048612976593 16.322065299088823 39.32680066120648
51.05390957494899 75.50784530069905 36.73777991894288
48.983048966331225 75.12127226467011 35.79134080336109
46.778039376326646 74.55300988709827 37.178387346455736
46.49647038972371 73.89271890062554 39.543070946045674
58.054678162567654 67.42294856791759 28.620228343222294
72.19932902743233 72.80733202910646 15.35282589635983
71.57830806216597 71.66119599603792 13.573900957646833
70.89012138057673 72.49891928434192 11.43583915929615
68.68056342362756 73.15221747287967 10.897089406698116
73.19543594616682 66.49359153214102 4.0509950025109855
74.17572401662967 68.95952415228408 3.6574175876839687
74.00589567384684 70.28972888467979 5.964186573123009
72.58510735248036 69.55900085203777 8.059798425498673
77.57127433704653 69.7503371863248 10.112079336368854
75.65475525722991 70.64120866506569 8.83818739983284
74.24749075683293 72.23872695349922 10.136451733850823
73.85031297411315 72.67547700642766 12.35640015060778
78.8585015233096 75.73387068133187 13.233641099798527
77.80831228637113 73.71445034546662 13.966798571507141
75.29567495975388 73.41499468324922 14.370266021605428
73.56992119635248 75.46710106084528 14.295422515928012
60.70398728733851 85.04692719024382 20.872249302737348
39.00531931450844 25.881147258225788 66.49304377578875
41.24283533793709 26.13090396735946 66.37905881441205
40.10782967257131 26.231571999448814 61.602306865798695
42.61773494237008 24.767586857090016 62.17890465974122
41.63691682285779 23.520312923902388 64.46836791211614
39.68768814816211 23.223047688032725 65.389925696549
75.99734156991587 72.63968451118882 29.438654498171825
74.93701797975051 72.6602469633972 31.449945328812397
76.62006619266336 72.21788060020823 33.18229536154178
78.41449804952344 70.96329820358783 33.34546019201608
32.587914237577294 13.614784181367053 34.04038417520374
34.955005766189394 12.67447831105512 34.3450065065261
37.26101265047825 14.973437370839868 36.729234273598465
76.29935179753399 67.77426059531658 17.063278527492333
75.7657332086072 68.80455725218474 14.74678531241516
77.39239827338596 70.8210826798969 14.291700304827183
78.88148193110452 71.82353510831226 15.661033253313613
76.67617455047777 75.28035692260474 31.52620304143104
76.73174542315348 76.54059056804273 33.557283340603625
74.76708635893414 76.60281768269647 35.30929967343502
72.3580654305792 76.00988256502103 34.99331064236037
79.81043309200086 73.5650360022229 37.75941016025251
79.33467104901746 74.67326637879844 35.625398030349196
76.59934350643935 73.75543032547985 35.166731418334614
75.18347266297614 72.47144577686865 36.566472520747816
69.32829822729101 74.39395941983236 38.536098908644796
71.25333733232235 74.9271549645399 39.67447388597791
73.25785623239133 76.21108604580303 38.742896208725114
73.4194380511558 78.28911010603191 37.01678552511446
48.183945040694574 74.76740963313803 42.86516017869966
48.09459011799503 76.86498457254362 42.30722400354813
46.29567333583936 77.53281034086848 40.92418668494917
44.003370588502804 76.77483719249544 40.550287336158235
33.62655579884719 23.04535265410709 61.44561948650809
77.98513177701741 78.54383940829906 35.031748453823546
78.19420908057259 76.73604362279966 36.87321468320044
76.44565894615775 76.06298609107608 38.21679116541118
43.37113073402091 78.46540357052861 15.257238776447437
45.06903347112408 80.38094130321473 14.79613821509433
45.80167224371739 80.58890515512337 12.024475480815912
44.750448273812815 79.61369986377265 10.176699192295244
52.401645804350395 77.28833000977195 10.577372807338268
50.838907087851695 78.79570205748908 10.864666755622347
48.19247440985514 78.69783373702103 10.712513836223218
46.86832932549943 77.02256861982097 10.142070828373765
45.81200826765655 81.9706104497594 41.212847447047274
45.72963147387114 80.09096769729236 40.67668945956763
44.72533133387863 79.14443664494956 38.76048233253486
42.42295932654059 79.0430945371382 37.63369828897316
52.42373865335243 81.8051133546307 38.44346816082845
50.77609576640628 80.36579450979721 38.144523753117674
49.04011990135231 79.47868971884564 39.90102337234248
48.2765508069242 80.77066063140673 42.32817868503878
43.844613162412834 70.97885909516928 37.03628890895571
43.33047507094138 72.09792289866428 38.51500137456851
43.97981916495236 74.39110979258535 38.838347921357844
43.559943941841304 76.4182081116332 37.60069610734624
43.52733386003328 76.27325616368245 16.90414465267467
45.772201651531745 75.91515890976726 16.944961549114208
47.11703602868568 78.32200188655463 16.883036888784112
46.5977020374987 80.34905674008766 17.941010029606478
46.537080780172154 84.57792408744825 10.232791254740574
46.570877268472984 82.37815073722511 9.99069722459516
45.733764659043906 80.8551932242913 8.02267930602232
44.82416563729609 81.44114703986111 6.037833500821287
53.30348284307316 82.66972604062929 11.366095505069696
51.11233914805765 81.48765370409208 10.874827784681138
43.80942452062576 75.91100612773292 14.16883425443681
45.43895044261242 76.67845023690339 13.1028717097928
48.24236839726644 75.61941276578065 13.279575003287375
48.66186293462208 73.47029064044699 14.948678433278156
57.018251246516705 78.72953376699854 15.63995863996411
56.66902208230317 76.47847120276732 15.69531790440141
54.35699325159619 75.81940663705602 16.190617274088687
52.93768587849063 76.8097831113678 18.31742924867284
75.63083205308344 72.91416674680767 40.54910028388026
73.98153256289328 73.4663928880863 38.4610126085485
71.6192503258553 72.60577409392717 38.259252873357376
52.91551410113504 81.53863419003223 34.20592317192873
51.8518243746341 80.56801584781456 35.59174686749455
50.275253986462204 78.72069273099855 35.747289072511606
50.1808064886256 76.63143100255176 33.918792315176475
54.026031056625555 79.19622067671642 38.77861360984672
51.91431184912021 77.85648170008736 38.21201889516666
50.049613433349215 76.86343445582806 39.52301228421683
50.15149508825327 75.56687839206568 41.126183034279684
68.3929417528283 74.11686164720085 8.1515402413097
70.74006813939357 74.21844410573962 8.74472802519543
72.37319670292322 72.71306769090404 6.797433375747243
71.44389926460704 71.89473184909795 4.686832344665967
72.66110334321279 70.72179477728083 32.817639158061134
73.68132345556178 71.92616640790037 34.56209819919909
72.12794369929348 73.65278234829617 35.79484657834515
69.47959693118113 73.58642714136458 35.706230669786585
76.68088656568611 76.06680289805949 11.547164667579445
74.4572679752225 75.13632089584682 11.410025522298062
73.41238540627536 74.41612356054401 8.95812027605183
74.20326174878848 75.04257696464975 6.7638140130650335
80.60176138627867 70.64682686061916 10.772327797661971
78.77681151009459 71.25736737632218 11.941090128529947
77.59368938203889 73.59712203556204 11.370208703118141
78.01230138156667 74.71944368219911 9.665943712568499
67.85701488402427 70.80787174867135 9.554840131124061
70.35107886304526 70.64988915389631 9.231734553175423
71.8613921799854 69.6710212110501 11.568761434042028
71.18807116648462 68.63591768001828 13.711027958889899
75.696449028029 72.92998054988904 5.969324815765796
77.21767387410407 72.80603143835118 7.74304456899049
79.1783883635468 70.82730862930063 8.233052820706352
80.22137626626699 69.22180954905907 6.177896744614031
80.54052760797512 78.99918216658544 34.76289354044209
81.24392519185692 76.84779054462618 34.825497703514266
80.47958391404192 74.902060866937 32.95025842579069
79.1987720130226 75.0660716976028 31.1057555899395
45.789506998390785 71.23034034953906 38.932311308504666
47.66681493746506 70.25671557538317 38.000573401827204
34.37454890284076 69.48011573818286 0.675307756910418
37.20210544527168 69.71035636638815 0.9433316166559704
19.592951623160065 8.71258081339512 15.147288741849614
21.020229632759722 6.785960017022057 15.931553148654508
22.603137025837327 5.1869149936284025 14.986961952109864
12.539894511940595 19.251398855383034 31.814403205685398
18.31976011397261 6.803074936260856 16.941123264554403
19.362999087926546 5.572368494764317 18.676212780123166
20.91467443274936 3.3770698937410306 18.13912451842757
21.52116314241832 2.8111807131575772 15.86061159289128
13.270988846946137 18.98149365697174 28.473341962998795
11.120196474413428 19.31524971772322 29.329874469131074
9.313443323303238 14.889310287005046 29.419710502251185
19.363888509568156 8.589160101634985 22.248495968594206
20.794880315290634 7.0500395490055014 22.950787024090147
50.61569025162345 2.2203103219257647 24.722046238686573
48.73783604360108 1.5255200679566308 23.601615330693264
11.687661334182328 16.841318818900618 32.51275366406649
25.88495257045017 11.796409092823305 23.612634978840127
26.0147868483178 9.694630543820718 23.908505542099057
23.694656578746 8.39114558190164 22.591036052999122
21.941664826185136 9.43675383530994 21.89346044020076
26.126744927451856 2.531088732079683 22.04636768318936
28.525092071912724 1.5158646506960982 21.359490950897936
22.131611550375464 9.555153664886868 18.86428743771701
19.53200654905351 8.93066923641689 19.30254027973709
17.605780076571495 9.536060115714477 17.2325936782947
24.709599272757526 5.5973000859769035 24.332249023607883
22.713531725940243 6.920495277771433 24.637089598892693
24.591957829455986 5.728623035158587 16.986011154705295
22.95622233175188 7.2873544162896025 17.932506078432617
22.258616175413174 6.475797847547536 20.389235887192836
23.248825742827027 4.331835216000587 21.34984490206811
45.5647959203128 1.0241400589291418 24.127375681364725
46.43795474598362 0.8151061898675579 22.117077624834454
44.248907973004904 0.02686382096816404 16.94906472402014
24.3587823221105 2.9638098874516663 16.64805049654074
24.560476173661307 1.5267703215968558 18.741744655450233
78.18171858542887 0.7265401686691004 50.05143863685643
74.78624682020327 0.188647482321042 47.014518282478114
65.7969330419087 16.512602111260605 69.94024981238863
66.43351629301662 16.943848805777442 67.37385424243287
65.04058400764401 11.090063152771636 59.841621904796774
