73.84742160823363 71.61243294566965 45.94711956537543
76.01637842666224 70.39927411512754 45.55203228870889
75.8781966538218 67.77116730109 46.05172870290587
74.16436182205054 66.3605474276082 46.40175124561257
20.274876648240273 64.86223257858853 83.56122014242217
22.36515270272956 63.25772457446104 83.4342853689992
14.70581037579422 59.756861842446654 85.01318626645285
16.65494048092856 61.54576728756218 84.00179137553876
17.019912828621553 63.61020152027475 84.33702883263973
22.565651059131298 54.9916990384736 84.49766724604233
21.126366188571552 58.80711631289841 84.8037155989104
22.866057414293874 60.34552201726424 84.84390877921976
15.462688651432678 53.43410971770702 77.84087444436173
14.724849088615958 55.327714341981675 79.4632723449201
16.301879669737822 57.57863727194566 78.74026300103691
17.61148123385588 57.80857920879485 77.1496499160912
12.022615591905382 58.63120304364743 77.80687286359172
13.64729497276589 58.216431732827836 79.20992861807281
15.34214590956197 59.69282771594214 80.47709187597341
14.988070585941621 61.94738029150068 81.44361560138447
1.5570817117264824 71.26518231352705 79.0631473676313
1.2631131563877238 73.19506474289146 80.6539381018994
2.615043652021589 72.33333329954674 83.13125897992809
4.621289277129913 70.60403279065883 83.24491967224374
29.823036239160757 75.82434898440782 84.87644800671701
30.060375364290444 75.59055717525416 82.2991081057269
22.61197012236118 79.06691950780214 83.38610198767897
22.55392815692542 77.42684026261396 84.96976332388927
22.972933181896163 75.16933378304653 84.56817320186563
23.40355734812949 74.37778496240982 81.60314640396855
33.847202801354854 65.5449830717868 69.38788370366994
34.45454646851009 67.48919947413262 67.84159034637551
37.35305362527991 67.83327787338582 67.4778922394576
38.668493199997364 66.57922715142945 68.35202165129053
21.793947094280753 51.713142867890916 83.10753380263895
19.747331505809996 52.536676792058934 82.48688320534225
18.717214872788656 54.22600142506913 84.01430637486342
27.36387101577336 61.836037896995904 67.93251816278374
31.608753613315816 62.24886015574637 67.15926315328615
31.7185216644904 64.61630728433238 67.57120033502926
16.258238208252507 54.38402596493648 84.96431984292803
16.43923313423621 55.08189107356481 82.53561064197439
15.041993832029652 57.23745499464852 81.69028877778797
13.818512328868197 58.4469890352187 82.79916629593797
19.868509923508178 64.28593709789693 81.00503107751423
18.6617459267976 62.955304719953496 82.23607222268392
18.256485306801473 60.46999450661385 81.51191969360993
18.53738416177289 59.485730632534896 79.3573295427184
17.1518471753237 59.03322455568993 85.0009061956962
21.729724170223538 55.578795296711924 79.21926685829833
21.462689199230404 54.98346658679479 81.3132157050024
19.835814356350777 56.615142185853365 82.81041346890291
18.06286609282049 57.86637362821647 82.38659436950564
10.631979458218716 70.09610215168449 84.2634542249411
8.541488984981855 70.82082414491258 84.96074175630794
6.806384893898738 72.05874144307714 83.73142732287508
7.047588658476198 73.55209980619772 81.48390847015321
24.748942615024514 55.96828752863361 77.30378425871719
25.80722191731895 57.69908470943515 78.70570380395668
24.982962312905144 57.44522806784355 81.38379469772816
23.948740998815197 55.51385781022544 82.33370982983955
32.847702171474694 77.3515571866176 84.19549462103583
31.78704792383971 79.46451966228658 84.86477645565776
29.364154784765372 79.6787431658968 84.13618068327338
28.16864785605901 79.0252024603413 82.21546032617228
33.24118813398606 64.61601856525195 64.42551794641417
0.5758233613048899 67.96034320055468 83.38276977706316
0.7090520997579193 69.10207668926475 81.45879995274633
1.650071585465546 68.43645385854504 79.15314842406315
67.02608353172876 75.78501951750557 65.94467698866946
22.51027190556239 57.92278553252849 77.49106402609692
21.080716076533182 58.23632305219542 78.53823686356648
21.398069398686925 59.183504861678095 81.38654641289915
23.73478317297076 59.91698196541822 82.27861908381617
68.94760577162685 76.77128308786392 68.81990475737231
68.70665406886411 79.1050365727288 69.09282345657238
7.978699057787365 56.25258574337115 67.75030780432569
3.821474619836591 58.245326166419666 65.20922030601248
1.5625650072220205 76.59609740104436 83.53990370192633
3.3020117616975626 75.16040971144464 82.27893018583447
5.157477227007849 74.17070130906468 83.60649059758953
70.16504012757856 72.2579934807252 71.48966152422932
69.13054060974318 73.76988190504595 72.3172048636143
67.54364828611314 75.31916797438926 70.8217346612243
66.35857300072992 74.66792984506677 68.57379500742442
65.00213781793052 76.62495760014654 70.5936752448373
65.73273777841142 78.64834257211068 70.38506367726926
67.9933140223504 79.64944313160282 71.97409295592102
69.21153395807646 78.30256692513288 73.33276272115883
68.0398888749892 82.60765533680788 72.20327924434733
43.01565163931717 58.59844360541721 84.96903596276468
45.34379070971337 59.877748293998934 83.66196576655173
45.92506947631114 62.318500408351724 83.9457729716445
49.543652109829104 58.06551805139038 81.51845991208417
48.22295644100508 58.152284569701536 83.03438458611693
47.991599364617805 60.44561482947295 84.92649638715355
49.73020012577019 62.28111495844437 84.64522788182516
44.07070511710979 58.14330578226454 80.83411085310884
44.45011485550107 60.58129433740658 81.18430801874139
46.896360967255 61.603496851015144 81.30666038907731
49.04403662681168 60.50835124369192 80.15505232491488
27.25410606041516 77.39649509053592 84.54450304924987
25.442449000146645 79.01274516759327 83.99327348187211
49.36484599910446 79.33546457628925 74.62776665181076
48.12190721745436 79.48621527990076 72.52446406149517
40.04976977480652 64.2197950581366 67.82556602210381
37.769919544114266 63.92553351556916 66.42248612092335
53.14654154959216 66.96332652080619 84.26865894154473
28.33748871660277 70.47709210087352 83.549277311113
27.49104570187189 72.52520784885542 83.13891769890625
25.259203895426754 73.46465319837883 83.67558018189234
23.291658778906232 72.39565354929539 84.4599234071031
52.24126141518053 67.40650437967516 80.99115322862271
50.28734450161634 67.31958892730484 82.70613825904012
49.56869409208945 64.82209338989671 83.4472178493173
49.169399352549846 63.084221201614696 82.05834888851737
48.164959377297 69.06074476047444 84.25171320505011
45.88091643658284 65.41663670910863 84.85059551595151
46.5460837219581 64.6662909681941 82.42599996699411
23.546272987389454 77.1509316823978 80.13567234973388
25.028733745620073 77.22748657725941 82.01996548513965
27.153650118420867 75.46394845689268 82.1168972563959
28.079702071494918 74.16679119138372 80.57574753801411
41.325515386773944 55.7780231824464 84.064624707061
42.68141060714351 56.86703297466826 82.86546157983666
44.94856698155346 57.212020286057815 83.46781868467103
46.941826239164435 55.674415279728514 84.43449438063013
37.48642722526116 66.45729403505494 64.7370538906664
35.089017748295895 66.27153613358703 65.6688784602537
32.75796995843079 60.28948368439472 68.59557174020506
33.7976626446697 62.52831923208327 69.27553485193695
35.78856725266705 63.42065280933448 69.06262750081389
40.74611151741774 68.0677600115206 63.0384577082479
40.07081635483592 66.44693590127443 64.12790506342576
42.58687191349835 64.75685159030024 67.10731945414302
2.526703640378441 69.1398980592894 84.91429075296574
46.7245846827948 81.10979902004058 74.62307212715878
18.14761247678092 15.667103006444767 59.9956069395984
15.968229286488315 15.288225992204676 60.77421921466274
13.696148168678892 14.498239917269327 59.90401139373268
14.020048851355837 12.322638294674276 59.459390453260426
72.62736062510432 28.421043870240073 59.40983833304644
71.0338015296772 27.569346067148796 58.33770686147434
68.40987570745811 27.6038542710912 58.59222557275793
67.42397968045687 28.79049392433899 60.22692694938484
35.54950785694157 14.963297608203483 44.60214735852064
35.5780198470736 17.35532690775329 44.18359835383232
33.86492224530493 17.998390336613433 42.33290348260581
33.348700142541155 16.750990091496387 40.08188874801384
35.37848038432464 13.87944298958183 50.71205318380692
33.57654055189735 13.483940591200335 48.848447128254605
33.26955500860388 15.716895452672928 47.29770720230327
34.88186251463059 17.527321379660346 46.93834121255019
17.40558067170956 3.0045946408533943 43.7182911246618
18.3135232453646 1.4813466954607006 44.26014860558407
29.435593456529126 12.639848388845508 46.122750487438054
31.216044194676652 13.862519773596889 46.49669209199343
32.632198771602994 14.558052519027319 44.81409786783436
33.013092433492496 13.653179157486447 42.46920382335017
36.855941141624655 19.17293382718586 46.0728561022288
36.63180375462995 19.9530340073546 43.89718169977058
34.06310575747423 21.1613803043988 43.37463921088265
32.9508052002533 22.480350686936752 44.51593357013161
24.077589545335744 26.383619484939093 64.2730423480395
22.01149798591459 27.62745917035761 64.57794203349272
21.681074038269397 29.69920201177848 63.50477433357512
22.89538632590708 30.143988148918353 61.03256540669959
41.960611231641046 0.5045027035569312 36.45170709592295
43.39640427155478 1.844026145580273 37.56246553340365
43.08396955003893 2.079008403656615 39.754965292021716
40.84485279439875 1.9672939550549302 41.19491180215975
31.586084410063265 2.8675135352598247 59.21235672752976
32.09757016205973 2.3205450503161567 61.40317418796559
31.017424581483098 1.3635869900704072 63.38312556890026
28.802196553607413 0.3863945956756828 63.760104824577496
17.702228196725507 11.794405042250512 66.56669106324048
15.904173024780254 12.800395013852485 67.56053949997867
16.28540333389176 15.46502027308644 68.80196794639508
17.92058589015931 16.352408063020302 69.65912135350321
17.9959881854167 15.53505342368577 62.732107474635576
17.455375960314022 14.33691334558398 64.54424125709772
15.03745592188649 14.683508717620725 65.95546608541758
14.681145950846545 16.504356226262313 67.07098130099003
16.993128274603876 10.963719290766464 61.38860118632697
17.94823628879324 13.132336952496427 61.45362701924517
20.073416312780143 13.777155175877013 63.25785064193298
20.81943356358795 12.565465658203413 64.91692245470541
12.363520410807418 17.005233721652704 60.04333647771813
10.344860668392002 15.90039475103833 60.78417808965113
10.309361592674458 14.750256833634387 63.26406072036571
10.744078131059865 15.577801373610514 65.13773942424497
37.131116928067804 4.034159703179935 58.29729108639867
35.032050959970846 3.6171669265127098 57.07657200151429
33.62639014848497 1.2533187200664286 57.7617478486547
41.60033211807153 23.870495311903525 65.87872849977768
40.29807217755697 22.80412570907375 67.11781591224889
38.83300495120902 20.855530827534984 66.16296428069487
38.343526355784526 20.564865499089613 63.918139398580685
31.17970123664605 4.8032780415457985 26.647888784532533
31.334579831906975 6.294031995770551 25.15624197435196
32.84506020326666 6.215448848773067 23.231955774652974
34.93533625775595 4.610940844645566 23.105021001230003
26.56669777996643 1.365371809679653 26.75847330094649
27.275993930820608 1.1100781126311818 24.683921898683653
29.225124035954945 2.898983557746709 23.672527007769567
29.590096383647943 4.96341779045928 24.007764464870537
5.356297222612161 33.55194188985591 79.9196007273926
5.9298229698192895 31.458719452862216 81.19121723965173
7.060703028850988 32.027496837010034 83.41072780214927
33.69654974359794 0.16033258308293943 24.47445123114121
35.43624096932026 1.6987382874487635 24.51464441145057
35.25706688194186 41.08971272118533 82.80995889679451
35.523303845416144 38.3358377630325 83.34555392668166
35.1170309469728 21.48042116798519 39.62907785463542
33.795235352057865 19.351502490295506 39.81287065396032
31.19685076851716 19.65410060128473 40.830198584114065
29.988994235087073 21.859471557228595 41.26475718735587
20.187946859736073 1.10776782348133 46.8145710331318
1.1660988723123173 47.0275701662148 68.33827554523066
56.49255750913228 27.978246078697186 80.99464910963091
55.334084816862614 28.192865809180038 83.47343187635964
27.24904394598181 31.62110665156679 64.76370956237395
26.8093359277848 33.4296167464389 65.85269052123843
24.122445776976754 33.46082378845301 66.42868158607462
22.23384937960892 32.09550885474364 65.3797876925298
41.2915983445326 21.064436503009244 60.88952470662774
40.69917175910071 19.859764896078396 62.67183032842706
41.457148929129445 17.41739609790915 63.25382847160236
42.866796696567846 15.921408300022838 61.92918027444256
27.177266018456542 42.20327640084264 67.11040623211004
25.39479944887725 40.9080439241166 66.40046171858604
25.828847296365062 38.06774229655689 67.15939363210285
27.67628305277728 37.29866253927861 68.28771733418498
11.412215237958787 11.989721191339026 63.55177536630565
12.779130053310277 13.165148307981196 62.270906364897186
15.471135205246362 12.742096893681568 63.0357792971383
16.246706824053508 10.997560967103475 64.42510279805609
26.91603881335303 30.974031561115115 69.84135511661299
24.37729632996924 31.941015543052327 69.18599579043517
23.940728757911344 34.3299395541303 68.89636602029412
25.14843355969481 36.37107662073185 69.76120869494837
12.81061504729187 16.596394548683858 73.71706283230928
11.653952240554707 16.745584545986073 71.8659235685267
13.17746177541712 17.36251951151962 69.4938538556439
15.34917163202992 18.233735123758713 69.18121622371784
22.038590938423297 36.34616297982975 68.88082265729936
20.72829365794908 35.4711995181448 67.52793505873538
20.237284622887934 32.81213948295803 67.60347032853873
20.099746334465845 31.359348453373826 69.43691402193022
27.912329464588357 1.0460439861266644 20.147827508204212
27.55825414096801 3.3005965616852095 21.114351233615274
41.19053364633127 14.300113361866083 68.74285405197061
40.73553690426778 15.992770097283616 67.56241310576569
42.05945746366813 17.47218900992907 65.68800176210279
43.89074784359917 16.80007946860993 64.49495530209605
29.502116890641677 18.55877929926607 80.06610923364951
27.97265144399325 18.898171443965886 81.43678207422725
25.478933713261465 18.07663148213495 82.10924077115294
24.03113480089552 16.252821877861 80.6982581450639
4.65312347028752 28.9986737754169 82.03062909109033
6.416177203463825 29.451971653310288 83.6170263327098
9.058183038650613 29.441056438766733 82.68480817566342
9.407441306863364 29.181523181609943 80.39835172288713
19.84120366992895 19.295266541481865 85.02091191662142
10.959975275016612 28.289187710589758 84.30657481025693
11.206234836664322 30.5063014628566 84.91847097283379
21.667173903435884 15.583713339717699 83.50011171479555
23.523664863277787 16.201616430465 83.37651003483724
25.838159286916234 16.19092053396219 84.57421068643966
34.41009136691999 37.57780547768945 77.70100039654578
34.20941417014708 35.83951638750638 79.11351014195405
35.93219462061026 34.853486644192174 81.07683049769726
37.65942792327645 36.746050736176734 82.21268360862034
61.18390885940081 19.413842259465007 41.20747767821237
59.96619319479527 20.853312864045755 39.70671775961552
59.514496946450436 23.44538050913447 40.169691112610096
60.99466295898584 25.023598037653823 41.76552689751491
44.32171645973362 25.557227839150542 25.255245024029538
44.96819730399122 23.292530987701724 25.078668134802268
46.97644224190497 22.52361675410529 27.014493451326903
48.23151020864928 24.18007686033737 28.549415848975784
14.12726526675287 12.61839858371157 18.733882999862107
13.833296711414112 14.548281013075986 20.324673734130197
15.185227207047978 13.686549569731259 22.80199461215889
17.1914728321563 11.957249060843356 22.915655304474544
41.285364462263956 13.48067760440071 25.285926536024014
42.434602284335554 15.423495872985892 26.327233943575283
42.39321979418715 17.177565254592345 24.54718363894782
42.63055891931683 16.94377344543869 21.96984373795771
31.550065389214815 24.15807240891014 47.20984614140899
30.270321721808752 22.543325621023303 46.241223490640884
28.92972090561573 22.91061107864974 43.90002942127419
28.543136099601643 25.139421968966364 42.65400559669207
47.19590209241271 16.580464286115518 25.286486156909895
46.904393745430156 16.53899488096767 27.45455114965346
47.43936045731637 19.200259523749367 28.677694557831614
48.94666767948005 20.71855881459831 28.01074630391759
35.18215367738757 20.420135777986665 23.05683761990978
35.12411171195181 18.780056532798493 24.640498956120076
35.54311673692255 16.522550053231054 24.23890883409644
35.97374090315588 15.73100123259435 21.27388203619935
13.177121435491904 43.26687844843977 44.49798186216577
11.454793345876022 41.902937440188666 44.40602813816736
12.05324561064741 39.38755486274964 45.799921658695894
13.986092391632132 38.766431123046004 46.29740016905474
21.94834352852392 18.790412988124896 40.94983797825032
23.395573971852563 16.972662715185873 41.55615466656017
26.045492175760806 17.166247784529784 40.53396755492547
26.403031402357055 19.1578149930674 38.85433981950081
23.685819897602222 14.771996179408918 42.857681297883
25.596186993792603 16.196735405610383 43.462737364793696
28.187322201323468 15.115767859834772 42.833928947570435
29.02689819996661 12.950874891821844 42.96719143649284
18.083486590619366 32.453127826665316 54.857820545695844
17.20556136147648 33.677195009384704 53.011170882745354
14.522169932815993 33.941251727796626 52.32086334483242
12.739224822159924 32.74577414548776 53.11574606487786
28.13122163104909 16.881199148158842 46.21064614699083
29.753231796034406 15.92190953675217 45.239071873047614
31.29787354145923 17.281819781989242 43.484518681508526
31.894326712420032 19.538348100869545 43.37242816134292
12.722269297635172 37.037988375289835 44.105834106504346
13.692359368879345 35.98863598587061 45.846970589463155
12.968584653135833 33.39209463316447 46.68609013030135
11.867069087312236 31.782638771488582 45.74522894984255
13.0309295768275 13.99219245746776 26.588106781425164
11.483554647674563 14.708641206202376 25.20542010299313
10.36868865553752 13.277635965400469 23.07866659638148
11.026739762238524 10.77364488194936 22.860735145789263
27.380262849592707 23.007760475317955 41.0192774453949
27.60308907262405 20.905530817767247 40.8164666966353
27.38798622959541 18.92031309877219 42.18540423702813
26.51134865985075 18.664990638698487 44.5846833794255
42.89322809471795 40.95193119003078 44.38485431251975
41.59569411813669 39.41990608310058 45.39792934226056
38.94595966117189 40.37371009901626 46.011237621346844
38.04720167693455 42.44465452405793 45.57765101652435
62.356668535000956 6.870014086979069 29.296025237748466
60.080374968132475 8.202102068840821 28.88191446678686
58.67340817273058 9.716623216211094 29.767492457519833
58.72343502865941 11.147158482982336 31.8603773699178
41.246238131516996 62.88543129036675 60.12168331434395
40.978815748122024 64.72643558276299 62.21756098066891
38.39207614063858 63.86931902957346 63.25775000901362
36.87571841796573 62.37801353421472 62.26789427314034
7.567972035388732 48.928830578171585 66.34471780589422
5.375477616856078 47.96559232709298 68.28232703615149
2.9384537368638015 48.65524684686298 67.35652883432174
2.033951667913524 48.91074603915728 65.40100895281138
46.41738635638124 6.898199341971325 9.05861933590075
47.02473002353648 8.84241574431714 7.512325978606314
49.9232371803063 9.186494143570357 7.148627871688399
51.238676755023754 7.9324434216139785 8.022757283521337
20.23937747294911 32.76304863270445 30.00869246195857
39.934054570799745 3.1892541671804335 7.603253795014535
29.428609366674948 61.299780502411366 66.02855011719599
44.1789371683422 3.602076425930898 6.829998785516958
44.288705219516785 5.969523554516904 7.2419359672600665
32.43869347853457 5.639153368081459 20.67576670974504
31.231929481823986 4.308520990138026 21.906807854914724
30.82666886182786 1.8232107767983823 21.18265532584073
31.10756771679928 0.8389469027194242 19.028065174949212
29.722030730350088 0.38644082587445616 24.671641827927008
31.464960015819546 1.6953343629518014 25.361477627795466
10.823059619514627 19.87474583452414 26.99197703653828
11.905290880007609 18.396668141762362 25.3518467916549
13.208855189346245 16.76337792743587 25.483812870638733
15.08464461437715 15.895517251265744 27.591167575438234
11.182901154493196 8.889285433214683 18.843502985389748
10.798593246994663 7.924133835206012 21.03844699008387
8.613939487125045 8.778695896736318 22.65453145357108
6.39459163944696 9.298073483464261 21.819768907541917
23.2021630132451 11.449318421869018 23.93418985717191
21.111672540008243 12.174040415097101 24.631477388538745
19.376568448925127 13.411957713261671 23.402162955105883
19.617772213502587 14.905316076382247 21.154644102384015
45.41788572650108 18.704773456802123 23.866230253266643
44.3572314788661 20.817735932471106 24.53551208788856
41.93433833979176 21.03195943608133 23.806916315504182
40.7388314110854 20.37841873052584 21.886195958403075
50.80105628142998 47.15189662363719 59.48475696072906
49.459547336781526 45.97007122487928 60.63612497148409
48.27578841847829 46.816685023875785 63.21303166152217
48.38250608956962 48.56604890192867 64.24914871481799
26.239900493300436 52.77714297245105 52.490385962572546
25.89654836818194 55.282476607820946 53.228051559262
38.57010511644007 33.6245247714225 47.282109855189724
38.03310850070381 35.63098439410614 47.489999195405474
39.619309779690006 37.50128409252358 46.72010454028923
42.12372200448317 37.40209044275271 46.7757181673715
9.315013447502391 31.289036170832887 46.83128210979753
9.648956307446923 33.331350208976126 47.555233613827426
11.464215546651818 33.216429844374055 49.07878736618263
12.120943216368518 31.62762359311185 50.899722416691205
37.82836706791719 48.56407923240443 42.65733421219522
35.43570635916588 46.83020983049306 42.65840630357617
23.390584562509947 39.97539653779088 65.0690470007725
23.21287747025607 38.424987936782436 66.80429634018714
23.143628407751617 36.009727580314596 66.14832988829343
24.277595249555972 35.72877056596196 64.51717809134492
44.317456215718984 41.84750415548359 40.13062478201821
43.17587411358263 43.55956511993835 41.640918292733225
40.98910155082065 42.26194249636715 42.857060301667666
39.3488733608735 40.91004163499661 41.753817061373745
26.979165930164594 29.564555998534196 66.39362986750388
25.135211953783486 29.35938364470226 65.27396786307558
22.71853269446769 29.6871522786537 66.79259224891844
22.573914084624644 29.94861718416508 69.19595680301713
9.789452795306673 53.90289642373735 67.66345217480776
8.639269061157387 51.811513858646784 66.91724314197576
6.531015831422191 51.02776437958277 67.7658335035249
5.444731093350302 51.458708410333216 70.14384531757499
28.741935721965636 43.754210342779956 63.118381249987735
27.854117973596505 42.815521155433856 64.61160696576302
26.24569100822783 40.71819671225451 63.71647027781442
24.408755400571454 40.81738781962544 62.265731056291834
31.199653285083567 44.6048038059764 67.59375231483021
29.83310464698476 42.97166474374918 66.7151737205652
29.815789767190775 40.570859495931224 67.35609509548853
31.428460995009583 39.12294980791801 68.76262618408455
0.9941519996011617 50.290677912305384 69.6455152238305
3.0713074224019907 50.27573781402673 70.0688645273031
4.844290967309992 48.15959207972301 70.93018795615377
3.934940814648491 46.055699618326265 71.21507241433439
31.25072904539325 36.619959727805835 67.54748821613174
29.698679810245768 35.98643032781865 69.24443945663928
28.065249237618996 34.144884241667796 68.73705128022677
28.449411162406474 31.95429486302334 67.49604067167957
6.3940423522306995 53.95976106970948 61.370242344644346
7.5383777300081265 54.381359492462536 62.99109205825282
6.704069979158544 53.65055829299235 65.42850631098999
5.067074784619875 52.65615794623 66.13023803428209
1.0651923433118562 49.963760715194844 63.288553590139806
1.235137632149624 52.48490642121455 63.4000479281694
30.005130878202877 40.61622921531271 64.02922543285857
30.505234269910854 39.17477002062973 65.01857830225572
28.994763059674618 37.27502063139798 65.85121795517959
26.90804974292983 36.22740274034472 65.12342846268079
34.11947584665644 64.35866380425726 62.56161567393005
45.81137168901245 5.969234835436478 4.096253578644984
33.81191061765335 62.11011071350205 65.97362972208666
34.91804642216155 60.21793538190443 64.77910837528813
81.00506145368207 9.854008504084954 65.07391651698265
81.55007856161978 11.044059383277053 66.71687469179942
26.579004082319408 0.6646948202348016 69.32812847337965
26.51463604328685 0.9359111813822942 67.07409240323793
5.941894894957342 35.13164927112181 76.7870457660367
8.215233291178752 34.89321650611528 76.98767862265079
9.105172191653113 32.61013280015547 78.23058987057186
7.407169541216987 30.802635092943497 79.02047843722096
26.383220089738916 30.133821163326026 28.00263463226582
25.334751322913007 31.856677754659238 28.616545372336713
37.78269250798254 47.26100674583495 44.95380109249787
38.89569531160113 45.439637930244515 44.654972320765985
41.4461345949772 45.04260887179461 44.08325994491535
42.945970046027966 46.332196660841845 45.364483392835076
46.473523294233416 2.7910392806881954 81.06838569917714
44.42240192270876 3.190157004864367 81.12306749992852
43.111763567904674 2.7193119107397097 83.10135852262991
43.25229023655794 0.9770595322503822 85.06402161904526
18.615585187758562 15.570277860113656 82.8110734712848
20.084243486612646 15.591436016682884 81.43258229853372
21.35559019329704 17.94704906988674 81.20545514486615
20.370363521005515 19.919022022452808 81.95135799283436
37.29706718002296 0.0986558607752546 84.36546437403925
25.195600079118986 21.39279611415556 81.89211086872466
23.330915920129666 19.847453641589013 81.58584367600083
22.761820994800548 18.810973469179388 84.00199295312267
29.91963094935737 16.024473633627068 81.91026533198364
28.374017402680202 16.63386679698643 83.557998412693
36.21296318049467 2.9335564930059266 84.99644993791878
28.26897260602359 19.658292443940233 84.6712535984118
27.738433268384792 20.818782465963743 83.05890595802165
48.6246871280308 2.912557789753122 82.56181504347173
47.2976737917669 4.192486849893589 83.80913327778798
19.375545570142403 30.641095439831894 62.51911264972781
21.129318867952968 31.94361628493817 62.07520511195423
21.108781451736437 34.586393115770775 63.28095134636111
18.909693439353212 34.929665878294045 65.2147946462334
74.11376231489876 8.190747565249836 52.93477846828517
71.85092662867123 9.195049109319886 53.02402349257796
71.53916667757073 11.24257854756904 51.41000254255967
72.92316883140701 12.570627685310438 50.355188255627965
3.241026466738795 8.408270306933362 52.77375714216819
3.666085229569813 8.270593629527108 50.87676383838094
2.4101982584514667 9.13271466234104 49.025418894799955
69.69978522864223 9.722084858497093 50.44889633922789
69.8815439094583 10.223636576264301 48.0758131519045
70.50667460487651 12.811120609310796 47.32506162827739
70.15170619791768 14.730694072867493 48.23348691720248
5.826313149359236 7.810617275018289 49.66166772053781
4.1456566884710675 7.67826180124496 47.57175203113579
4.782091725811927 9.78361354875898 45.664774402356265
6.82341729254087 11.319554930818652 46.0056999897445
4.279175835246109 11.072424015896157 40.79452955848823
3.5938154689723127 10.904938976078803 42.48693587995846
4.352821040342642 13.075399579878875 44.52999844957772
5.775012468192461 14.763030135585003 43.59751267614933
21.835746563315144 0.08108898461729215 44.85488165303121
10.056638660970396 17.602709876700175 42.122565057139845
8.284394372634063 16.350064844904963 42.3350511135799
5.685934262128392 17.48191263582647 41.98360789148958
5.072202742597336 19.320804207558798 41.02981803759465
72.6287688524573 41.66754868883391 68.64501003743342
74.80963339740245 42.563885639368365 68.41562395566949
76.35223562234448 42.567884893107596 66.13713188574884
75.77729909568684 42.11449550188818 64.00590151253876
74.30165390744644 3.2206763379242846 51.29349619026844
73.48271695487728 3.5543267348915077 49.36443618180197
72.6627903095598 5.758714136181934 48.40439168390173
71.89835344337101 8.138140726252935 49.90996925882756
69.06874485787377 27.312972127547642 51.375111975134146
69.71783690239306 28.054707387564065 53.475573403573485
68.0707476100118 27.2847043166902 55.71546889213284
65.6489525159768 26.698271069271946 55.40303104950202
1.6831045072090471 2.090110105885584 69.38550958106116
1.1648187681440305 0.1966993857658494 69.04667532084568
70.2104750654911 23.0117664874381 57.77264127860327
72.1915293182735 24.736574563567938 57.88356900700806
72.21597246063182 25.88106007279043 60.47481327267982
70.97786416916381 25.070513873181024 62.248501365155676
69.78312563807829 21.22074806241762 54.224177456889926
69.36147384512314 22.89935083240477 55.1668243541761
70.68933175162636 25.27586657090875 55.43596911370388
71.99659724247095 26.349741076705712 53.950912651628286
75.85327650661536 11.21301780110114 68.15202772909439
77.53435023920024 9.649160079086935 68.870476908221
80.16695298373759 10.49522637761309 69.11263656976934
81.05103796173029 12.566891776484928 69.1203314945839
9.192205187161122 16.060102217285717 71.25367064184944
9.117171944369094 15.06350360483781 69.37534389662041
10.776343057529163 16.30707556447379 67.63365622052812
10.96753250248273 18.57283050064811 67.04037831625837
77.43611946254813 9.624410558468329 33.07697203047857
78.72887161995567 7.799031011513779 32.03407432987545
81.30136207549901 8.422858523760588 31.808534337841223
82.44798884717048 10.194127305786715 32.62968944965996
16.013283283520533 0.30538819625322816 43.53507361415686
15.27672465561511 37.719751997495976 82.66174174978447
12.542047932968789 37.242898784757095 83.76537830528784
10.872882561867875 38.22096715571787 81.96197752554343
11.600787197531716 39.26819166228403 79.88151804962848
79.17244623524645 6.862788875560029 28.97973961171994
81.57523666560151 7.835440527462142 28.853540409200768
83.69150968834894 6.3407695200725405 29.12020554984695
84.07796701227377 3.7102368369378342 28.62604031063499
8.359482369782006 37.94915723064725 82.91239419947792
6.157172252027168 36.55739176946823 81.8026970823674
7.453540117295009 35.54399008352906 80.01633987330699
9.555574884496217 36.65690542645306 78.65187175008903
8.999833660904772 17.528420760447208 44.775068714758866
7.4819108890537365 16.4993972730638 45.381564078522814
7.107870990921048 14.093560871445336 46.85553056225796
8.031744774304029 13.501121575005355 48.73370185114267
9.799993628261563 34.15203715972582 84.68705913822836
7.879163501873012 36.220954987035455 84.87022749615109
79.55850293795321 17.15759900317033 48.53649276046101
79.60389621151161 15.15216346121376 47.08158126673467
77.03003206062832 13.902685292911414 47.92208404413654
76.00634720040037 14.230172124928936 50.06683129071285
74.34719576052564 6.899626940205571 43.33695821532564
74.03427051905464 7.298059391641699 45.42827901856419
75.31504547563569 6.858884909324118 47.28822934437241
75.64766070596467 4.999331316021843 48.44889083119438
39.72651469888272 17.556837178503088 69.2202292244645
39.050350936705655 19.518883470877082 68.84722271896365
37.13029350582915 20.86217969040219 68.0861092693464
34.79284430946685 20.073031914151418 67.45669094652264
78.32374664481333 11.627581272502104 48.10199499354453
76.70113877019502 11.59908577398959 49.67269825366177
75.2281579992255 9.421965067162171 50.375255589287505
75.77771293271807 7.074380403467322 50.10535565840046
63.13798019736553 28.81419898383079 56.42294453837273
64.7464983646256 28.12669634683912 57.45603637077128
64.91639943320612 27.4927073435758 60.036777817539395
63.57479873952651 27.336098697417754 61.80467336062124
75.45722987405281 40.7848019422067 71.36298756928262
3.365871724872926 0.18726610328937005 70.72856234329856
1.3400962559992122 31.382725594442142 55.68682033593965
0.38420249004224954 29.485000983625707 56.4652352972528
11.389788890551738 14.514246013114361 70.24461492680975
12.80348086966562 14.650581738017355 68.60451518971631
12.53016585032532 13.49266746929149 66.25366161051062
10.690739064697732 11.406741920175872 66.23985710510307
78.26282762603614 21.195908727026683 82.72971665885655
76.27997744308774 21.850530635125253 84.26634936969104
58.96273064046029 39.89274478343643 84.10578307130147
14.294518713468419 29.124162735014117 82.98824788451856
12.931367760533066 31.0121255507205 83.1829031058686
13.140030157600473 33.51559954107456 83.60308153213606
14.978748839210956 34.93654321818096 84.41545886603558
32.0349572316105 14.250187906232549 39.49231667717389
30.54962865825272 14.51590836504198 41.23146910369432
29.449415841535284 16.878276164351302 41.052166274267734
29.230925006658147 18.51862494564232 39.05669277228136
71.32775091899468 8.955142309031652 84.91522631193283
71.40627664292231 11.18331616676034 83.79916828387593
4.156904401825295 9.686600165675735 23.374434111601317
4.224609463145167 11.680493461391956 23.336985278598057
6.14515321592928 13.29220596275458 24.05288227192196
7.907168483431378 13.080547335372856 25.56913923199244
1.4029698945330027 32.45567175261645 34.294886711792635
2.0450266080515647 34.503364801683944 34.21058935833416
12.51996645097193 7.166063622354149 22.909606323700093
13.146006916331277 9.313559470739206 23.053505409293958
13.279235654784307 10.455292959449283 21.129535584977138
14.220255140491934 9.789670128729563 18.823884056293956
3.070803800743207 17.346953503141883 41.38942364398322
3.6517834727851577 14.94516033181424 41.41989382200483
3.193676019670772 13.198376000658897 39.26738739260356
5.135699869222697 13.173493126456528 38.494798894937105
7.748338876179062 14.640405489622431 20.659393922160152
8.096390024864684 12.401985353567328 21.38498496082347
10.763424989689963 11.40212492423232 20.240495795372812
11.503038142635635 11.722361596395144 18.416544643217787
74.40898347210484 25.525177100609973 26.67920754079993
73.61449988057868 25.952718703309962 28.4726817819841
73.01647068898252 24.107934108653932 30.45586762318881
73.05791786043248 21.83462016829685 30.394267246966272
60.42144873695131 44.66405324884009 51.10108494922512
61.430569300930834 43.78013289027946 49.85803200236672
60.10460437341524 41.62961041487281 48.350072771433524
59.24648538125985 39.692404261996266 48.89111836029457
3.84264943173365 19.11537938396917 43.32680456479632
4.928556017406788 17.681057770156272 44.44397144036268
4.042937147891769 15.643490200859059 45.530903647004834
1.6153549583461566 15.056001141553333 46.060123207712806
10.367935969541715 12.141440075109447 50.13188908230328
8.852451319451742 10.98498951157519 49.23549789450489
6.559874905899293 10.578204615401793 49.78780918765335
5.1581839172199215 10.437164990308483 51.76776860106281
62.26177916657603 45.30868460980265 39.30765456136042
61.87453925836768 44.962089718434534 41.68329922494101
63.025841689280384 46.636332641395036 43.38095697210762
64.53712533818177 48.44805598836123 42.686238179973856
1.533877727648519 11.969440980824873 49.12823652196596
3.811243857385984 11.579935430879296 49.57527560331611
5.338256858686785 12.872920341647584 48.5787026223683
5.139619878520319 15.632528828734891 47.8908685782746
61.47339667835995 52.089406820387744 45.41058095781382
62.95820284289567 49.96975720947886 46.337942886331064
64.95390374520446 48.97370466540921 45.47572958581101
68.6918885919141 43.763377559906075 47.92828055388936
66.7516138002613 45.083235084260835 48.52392670994909
64.5446991072157 44.98147645524857 46.66688588842825
64.65458725990229 44.586602227071 44.20266033991115
14.640846231841389 29.854958849020814 45.83092838519073
13.818792150521594 30.578113802063072 47.78675216485791
14.715335612580484 32.487061090362886 49.590949735194606
16.337319148184438 33.84236496719253 49.55476177202073
79.59626708675515 17.138235787690103 5.61541262090026
33.96825295371331 0.5367211318626234 21.05728204512996
36.30496672799715 1.2701982356027517 21.949354716046972
5.0950471604346586 58.82259232646722 62.495077895225656
5.887889925466105 56.68642045432239 62.65414077316054
7.851551932787405 56.423683565828355 64.91352991748488
9.39449203543663 57.56175365278828 65.7192887378231
55.55305238291648 57.85665089114311 65.80127679555416
55.42977532392291 59.16455209288377 67.33567354759815
55.18948196584032 61.75210802106946 67.42544677910236
54.76123030275717 63.531664362034896 65.60347020496822
75.6115033802057 32.2396526037651 26.9482852532399
74.04074009355544 32.39997154289414 28.856701841428936
72.78458402145826 29.93087675550059 29.236799365208544
72.36602230552171 28.28111263526384 27.748394321843232
0.24262489035486537 54.67528624091384 65.6947563579422
2.3035792920615568 53.38442119619751 66.25377688019626
3.1604859220030046 52.307100457643564 68.20862304645793
81.51778932665324 18.124499358048443 8.49064038960312
81.2768376238905 20.458252842913335 8.76355908880318
5.978455798345411 54.85855834627292 67.8496700304356
3.7580768636053143 55.7431120603279 66.54688914681425
73.9307217948071 26.31144100465903 35.59152839856583
72.86039751090263 27.916382283924566 36.29858938244586
73.65731846783508 30.389801095274592 36.07806561961697
75.90756176518059 31.19156873684463 35.26833813191182
14.132748562248409 17.949313671228886 23.210639334157136
15.872195316723952 16.513625981629165 21.949665818065274
17.72766078203424 15.523917579249217 23.277226229820332
19.001475197656813 15.645312404972689 25.027926828179183
83.31925070305213 6.4191356700549544 31.85577426364575
83.69728265268782 4.279485071616407 31.79359868141684
75.62285851476118 27.5762541190464 28.969765008140204
75.4889733752211 28.430376549074644 30.817574189933865
74.59562408871962 27.185009526072413 32.97862176544227
74.28795059056337 24.64411268159201 32.93377259609279
71.30638396311694 20.397000085207022 32.83978129814436
71.75773161274462 22.31060745056057 32.50766497017777
71.68166508802375 24.485717251200885 33.57550153169474
71.24491848279251 25.34803574131854 35.906404441791196
9.292540262349956 17.232735543336574 25.576528867365756
8.848134300589267 15.584538530479174 23.9232837055049
10.099297006439032 15.818536217811497 21.57905420046644
11.790619350725247 17.987874239930957 21.20594213405786
72.8431104726634 63.764988948452235 54.861168703107815
17.957841783614597 32.347796194577796 66.34466295206472
17.73031760288095 30.84894921971129 64.82126794151071
19.43660010254728 28.987530847743628 65.39991930144645
19.928816803011934 27.90065188454037 67.39806330950717
12.728302390554182 38.316717816208296 54.20414371313768
13.557084971805057 36.53818756078482 52.61008630537993
11.786482871393822 34.99486593761907 51.2934913744281
9.618502917648966 34.86591941098434 51.284406018129374
71.02539433451992 62.29193916969364 53.80345947539689
70.79374477268223 61.07238190432158 55.75437827704957
69.37439577822947 60.51314276980074 57.35458270892669
65.82231194277267 47.82235134618962 49.73291915769288
64.62817043407658 47.57432819463186 47.660815393852
62.21124572921766 46.821486639647624 47.28836083009375
60.579197262554494 46.283717401054304 49.06592197306335
1.3567922985783494 12.362838665712495 41.6569449354844
1.0173496692433939 13.86189003126124 43.599256152387156
1.455795433620746 12.485529428410368 46.0057952968022
1.8744191943719284 10.071589313005923 46.131284768730296
74.11037433817988 47.01055774242744 70.16303277005818
75.37594355316511 45.24522075223076 68.81214799980741
82.73522368260495 13.611209750909737 11.160397156460126
81.70072416476957 15.12309817523047 11.987940495845104
80.11383184113953 16.672384244573784 10.492470293455096
78.92875655575631 16.021146115251288 8.244530639655233
11.783697106754897 39.85280638642414 51.927469462099815
10.518275209414629 39.412011222858126 50.05328849612704
10.573531140960412 41.09178170566962 47.64361655427282
10.481058829659894 43.17862450076315 47.35976443129587
71.64794816150186 40.275276674594046 72.0742472612889
72.73132009325136 41.873258495161195 71.18510192782296
73.77471319893063 44.41228075653777 71.73759020679336
73.4941432791551 45.78221702748639 73.38900726442137
63.76298004637513 57.36233967849716 73.66530295749274
61.57885127610336 57.58252550256545 74.12707501399117
60.506727991792204 58.843657185021414 72.2546998903009
61.48735535599073 60.8172420620559 70.79993597882667
14.66086830535616 39.45882717636893 51.5999526674904
13.434279281039661 39.76529589221473 49.829534301000784
12.354636125791636 37.96533479529644 48.376188349613244
12.435370838128591 35.770930446952725 48.793183607082995
75.46332239563387 45.07882199646937 63.063999624193805
76.65571421894788 43.33284454493277 61.79608753123668
54.77124257591088 56.26307704709406 70.87635928365295
56.31353577246578 57.651427387090635 70.14279214420687
58.821920698093315 57.58180405284942 70.59633896849822
59.99693731555055 56.353637704813785 71.92368845975244
77.34450844849442 37.596380952457515 65.8295954787226
61.95755552889442 58.425318169543296 63.86562070064994
60.11060162778353 57.60196029595594 64.24876036963397
57.852396679941855 58.86687844420867 63.845900023395366
57.55449754842521 61.07051461280222 62.1041593648115
56.6384975624974 63.39462122499276 63.0340528374194
57.7937029697371 62.85392483990321 64.71694302826128
60.34075225283221 62.67654439937331 65.11689928964667
62.28347274725219 63.40293745309524 64.1697172396425
75.71965004049069 39.243701816439234 63.47649900369416
75.4501034944666 40.448709528709664 62.01203656197715
13.90580082719993 56.59863293682751 66.4068076692658
12.423421715797936 57.31970514389012 64.42399648025986
10.272677286762045 55.32476004375232 64.19624901653742
10.334525118304109 53.10023135030358 65.0531750177744
81.03233626133664 5.44643761095737 68.82840678160811
80.82079268180046 7.725149812530583 68.69561979220443
9.674777963778112 38.54403068185066 44.363114492806915
10.266563920765183 36.78350374735566 45.399721762255695
9.674160795393348 36.081072575149285 48.10955285725004
8.288533085947675 37.682481361763855 49.75130128830218
77.5723213729569 17.978173870331073 10.2644108770681
78.30292133343781 20.0015588422952 10.055799309500062
80.5634975773768 21.002659401787355 11.644828588151821
81.78171751310285 19.6557831953174 13.003498353389638
58.51044647656995 40.70162671701829 46.003909079525
58.77767541109122 42.207378057484945 44.473153433754845
58.89734388211183 45.08626646180538 45.12323681394629
57.95418704492366 46.167417911404215 46.89336180749492
77.60441995290935 5.484933568424734 83.68950472024791
13.385736358648627 35.431686442181146 81.80713975838113
11.157436508893007 35.89513427062717 80.86693937312288
9.333279394026837 34.218315327483374 81.87578823660608
9.281645115008043 32.139043597612705 82.30557584297384
82.68070201263835 4.614811309151073 66.20119902618923
82.57930371285175 7.210172838907181 64.93887708473007
80.61007243001559 23.960871606992402 11.874014876578126
25.23212898421518 53.985291490671464 50.22181328645921
73.9087880488234 9.08385661456105 82.55419459463893
75.16120114731426 7.588581420773066 84.15450327971352
72.314383810254 4.446467621120041 84.98291640592193
73.29271497901742 60.95732832267138 55.1065196312952
72.75402435118538 24.95227082152641 79.09928679693957
72.89010200101704 25.976293039913337 80.43771148419899
74.19416472783534 28.52596433927508 80.50959687464791
75.29951376981113 29.231051465584578 78.48362140178318
62.21669347620061 48.354068433620434 81.8068616390074
61.021589038657666 48.19874640329317 83.70132033447594
1.4770532987649934 56.9956749563391 64.74541211623847
3.7090163975935364 55.89824444158866 63.95060178657101
3.1333285113553413 54.426537534789915 61.662707459600085
54.9732108624095 24.990475064136508 50.631036432879995
53.545788250414176 23.304620832645508 50.33954716303885
53.13162257329689 22.778114617587104 47.94203261019422
53.400129878279095 24.04295901838515 46.07886091075731
79.8877458886881 5.008755744590492 64.74275940188696
80.28394908760124 6.314954750620301 66.05990050600953
78.89801273351625 8.79493099810047 66.6148492052872
76.37844556125414 9.139063579642974 65.80610082798744
57.01954616502417 20.102128374410523 50.61739910637712
55.91712455693571 22.052124897140523 49.81335414122134
57.02895232168955 23.71946021125931 48.670951847021506
58.79883962338385 24.771930055609932 48.844339375804445
53.17201016754605 24.858345754702906 40.504940335582205
53.56651583561735 23.865208144508806 42.644004055486455
55.87700846184891 22.418755263044403 43.22717901695838
57.572388514584716 21.840399814747137 41.38165499612046
39.56295442502234 35.47308156863596 44.35659674336578
39.584370813660854 37.35211477033463 43.88673083972454
38.04591995087091 39.26465964191627 43.672664227671916
35.58618397533936 39.80204383555003 43.38229585814861
46.555398573619556 1.4631702887419873 44.764373395435115
45.286808289819184 0.470875182929909 46.12319825833351
74.81695496157273 9.47419177012486 43.70576078032547
75.55549122803771 11.902254154231752 44.790494175399616
74.50809650106017 11.650595856078708 47.467910795092415
72.89975659659626 10.095703871227451 48.36935502516824
62.369617683066664 5.874122525092657 70.7694777743794
64.55075855167905 6.087670979309638 69.65558857329388
65.70004090522546 3.8973929019407687 68.81060404349628
65.12668715717217 1.6687963362065688 68.93137094066083
57.45667969433996 16.324196982373884 43.35961599107733
57.43883898707176 18.329952502268966 42.40725828791439
57.78268536034328 19.12794520045271 40.04064648147524
59.02102294972757 18.14612278830967 38.0972732927043
47.36336123794381 44.66010995610133 71.19551899763941
47.739444957524384 44.21919434550299 69.36029903093943
48.7799741346454 41.8830715132091 68.11692570368396
49.21180162569115 39.86694492278119 69.30098428919324
59.927445013701366 0.22420341537924782 64.33672046574773
60.17422744611807 2.033018271538228 66.44130044910115
62.161507704985006 2.0833771352954984 67.9669341418802
36.64167803655568 18.52160379239366 65.12397041685556
37.42947654705382 16.543671971936753 66.04190325817594
39.25759527606586 14.890164797065626 65.12255245023391
40.27584031793128 15.091001287878457 62.70985632558611
52.09903720884758 1.657452971844523 57.81241727824154
54.29051178711483 0.5212310205596637 58.83772283862541
63.415315111210674 10.452668453729533 65.12920785837818
61.94786661432413 9.128732344463378 63.85993082797969
61.76980436561775 6.545300626564412 65.34572546604042
63.630572650332645 5.596577592621089 66.95746411445981
6.727410060168673 13.237962113226201 68.5876343833734
8.483506577057252 12.479649763523895 67.54592399422715
9.306117707336547 13.453045473936973 65.43851581291705
7.6464921048632135 15.160683995908625 63.975589373397646
58.74723052269565 3.682870511835914 58.81084793538786
57.06733639512766 2.8326405201064047 59.6201307670507
55.85610945043285 4.065786531722461 61.63223496258484
55.92396611726175 6.127319828738906 62.42871600925078
45.261679856228334 22.798669615510683 69.1458185290788
43.73918610739273 23.065254460621208 67.78542030017964
42.31011179964077 20.928493201359654 66.81511608316052
41.6686758307544 19.03885416251474 67.80912309487853
35.129702508841746 25.344337494639188 70.98451826979208
36.62811263661086 24.548300364220047 69.03459323369103
38.521561406973525 22.55137700824844 69.45823947566218
38.867636630195456 21.281973100421023 71.57797854918029
64.63778786394481 10.261471201574421 68.29553624691249
62.62039024918413 9.79687654442546 67.93058565660496
61.1754275930895 8.3372777584446 69.0752003622074
60.85768993571441 7.877648093307175 71.65558416130062
63.811496160930126 27.792173918599687 64.34367301577129
65.23879671377894 29.605530956074446 64.13186842723377
67.65454932827096 29.19337780293595 62.854423298884555
68.46323480915947 26.476741448272605 62.47552999378035
32.25419890740492 31.910507078611698 84.82403625282231
33.43116361624736 32.8727089151192 83.14400799511714
33.88790932514982 35.55281389569425 83.06484508188666
33.29835723280107 37.14990228697447 84.54105833344626
57.02716397934236 0.7462197086952063 27.740903553491552
59.42018684964938 1.186515060038566 27.19528286122509
54.86086382215165 1.0348479291640407 26.380046576001522
57.91397426473976 1.2309645641834588 23.33270139878253
58.495253031337526 3.6717166785362503 23.616508603875307
