80.02180438419028 25.117130117788825 34.73987009571484
79.7891756078443 22.288611379326227 35.24513866948282
2.3759748435604795 5.09770779800981 41.42283780942885
81.82217517093285 30.78544121625231 37.71467301641821
80.68147470350016 29.27613500347971 39.68142527773202
81.38606923586539 27.0695243673092 40.49454860678874
77.1063639313049 24.831564084698186 38.61938872052321
79.5341121738369 25.738372365272085 39.02686350294354
81.65965707520407 24.444427464410865 38.74357794572858
4.318574220608119 2.1689435322123503 41.87251459567876
1.9939580612646737 1.947814335999731 41.989018243038245
81.97976042781518 27.032978677850107 35.22433341214869
82.56386910210749 26.283699103238014 32.64367765391204
80.85980906854681 2.0962230948402785 65.48754810081269
78.65111410318171 1.4857275965186474 65.8474764385689
71.29666580212749 3.121932793131906 66.01400138716325
72.92891895408611 5.410704608005728 65.81035118347344
74.67158186405032 5.08925011237873 67.2053692666662
74.997914228717 3.6596532250108456 69.03205229020152
83.19485869436647 2.9208602606446594 66.27370565584044
82.74648259640396 0.8181729785325326 67.33581069188168
83.57140283107505 0.4540876906745221 70.0995213852423
84.03852185364262 2.845229066957791 71.06461276083252
68.72659026952581 39.13277041291274 22.30543519544426
81.87182804380029 6.059993260042786 66.48382570431366
81.8535429692823 4.364648541038168 68.13054142740172
79.91063121413261 3.0059617756552357 67.83909572342428
77.77424117334266 2.8622083692556006 68.81790110336777
78.97671505375509 43.07866415711408 57.45959459281558
1.717852176709107 5.182617217515855 34.47543413742281
81.8754403711465 28.75889325698414 31.18576457312284
81.36852155566967 29.67404188122191 33.3637567412139
1.2890041680375204 6.617948186494761 39.5667785170682
79.2346640077965 34.99140556861658 39.92312978351336
77.48758098287935 33.35399697018975 38.963953650407056
77.6168010877667 30.862697125232998 40.02516759163021
79.05642066841277 30.131390165676255 41.88035703928196
79.94543328366368 33.1112243054906 32.45955063038757
79.74265145916007 32.019679101955255 34.67561965587633
79.65303646687302 32.64553286133458 36.90257113200916
74.8661115393596 30.880774480154198 43.65975479827799
75.04331400628034 31.075262137407947 41.23420016927176
75.87872505247194 28.83612367206723 39.87239324296168
76.20844508500889 26.767068756035297 40.71643492272902
76.80842532134103 27.29972913014363 34.09921631355402
77.70560166564162 25.966181583477027 35.937884843622236
79.37993039345402 27.445322794481232 36.88600815051541
79.62710931760597 29.854022206796383 37.09695767947162
36.45070115561442 1.9129797726254543 79.90819073263017
35.57813249610374 0.08452258856068053 78.8058650638569
44.31678143215462 3.2256544172361674 80.80124207768647
42.55248842304728 4.227642030261807 79.9576908119738
40.352209914548084 2.507341864464061 80.08099334691929
39.78429770026013 0.8381845911099799 78.47745710866215
32.486930822333 0.40820273268044305 79.2663838978332
33.998664480283146 1.7231843342779178 77.47590054918535
34.83552559709287 0.431239252670722 58.18093651237539
37.487668309728996 39.000374361514424 45.85292414487333
40.326854985612286 36.61223980583324 54.81566533568087
38.3328366666626 36.76069548284833 53.644337533090614
37.99414338933408 38.66393581594517 51.439687935016856
39.626468572292744 40.29360193340097 50.776292433972905
36.24190252124492 41.517610371957126 53.122134036991646
34.93132227780814 39.848740204241174 51.77339281743679
63.038062756838066 15.947572248164441 74.81215422447168
60.49082748945914 15.411116621095095 75.14046920769545
38.49885958707718 0.9536125651758492 75.77498446553717
41.66051654061652 6.423614446902442 78.09337231355553
39.773783735196865 5.044293935928018 78.90014341216985
38.28619542403228 3.736505749544248 78.22116800448191
37.250015829301034 3.1826955708589413 75.77972930348982
56.515122035834914 13.89342640578535 74.73387570525422
77.92046958027574 28.5404797019157 45.31402261592371
77.93415367344744 28.39273110503479 43.283622845652395
78.6480311417273 26.590017463638493 41.603999026695014
80.25141631425718 24.161929749088706 42.15517587390806
82.99446737722785 3.441709644088142 38.142581438578226
84.31439673459315 4.829104618074446 36.86292094336015
35.46904156635436 17.87363410610362 83.16815914772101
33.289308306210785 17.100651826313754 83.12360611013816
32.39353853125331 14.45483616716687 83.20648834538201
34.188695454801284 12.218049862345213 82.34032048611586
29.446473832214416 15.821160607438204 83.95879489693452
35.07184606882094 10.655947782765372 84.71349345984729
35.176945465200085 9.360908418973043 83.08197702625556
32.40914264296205 8.90333864830474 84.2119966474555
30.807667215839402 10.454593223383256 84.43256196833264
30.491711078198023 12.302491085210944 82.77966663677431
31.580264437015273 12.629295430092554 80.31572770467812
6.71765330741414 10.75037108827667 84.67894568732018
8.476751916504957 12.976770942611386 84.38031634847836
28.133216731545122 11.812187871411135 83.76905842366617
55.23811510405625 8.089843418845206 42.45429643556323
55.5928818836313 7.4547999266636475 40.018601561026045
55.64144558771063 9.877468305390401 38.59969129187509
55.049339910042264 12.104029745864294 39.77163257425849
34.23414097924704 20.28417924068356 24.518080400266644
34.666383454937424 22.574284849675188 24.42893952499929
32.61410324585103 24.002876177442612 24.94585284907808
30.340449548438926 23.544418831008578 24.864761463271716
36.712772887800895 34.94410643506273 33.46518532232248
38.03667791906853 33.178910063983935 33.048810533952725
38.070696419887874 30.773365566795114 33.154043901043316
36.41077497833218 28.98770722026529 34.15308812382979
20.260603295325502 1.3231596770988865 17.090443821108316
51.03731108294003 2.5832408391787838 16.4528540636615
49.90799873051415 1.845992746018092 18.039317433504035
48.33649882915214 3.4521702629105757 19.10639739798557
47.56005666488512 5.709750739761468 18.079600224789544
27.782840839557526 17.242486653094524 24.79055384710369
28.780245904842783 18.760477120367298 24.194649963814054
29.853899121892187 20.523921024671104 25.26275905346384
29.228624090408562 22.041197705991408 26.973189874282323
18.963094844749595 6.498641159785754 41.02821438362807
18.422761669095607 5.388223063775008 42.67851408653743
19.03914733945413 3.124631365318509 43.288614398522164
19.94408049527426 1.1505161434751687 41.42447601580918
31.68295339104298 19.89193338192546 34.13643481126961
31.779401465224566 19.20457976228515 32.25748780039196
33.616273704407156 20.65049037052917 30.765083942894478
35.634562573650655 21.763917099393506 31.83828047583304
27.524372942721904 10.476481479917936 44.53193144440608
26.46211557589986 10.192574608927954 42.10707422983314
25.72739609190668 7.564466972009902 42.09913286538312
26.391096184031763 5.650364716010201 43.26951202636089
30.381176068970333 16.169805329386648 9.545020176081609
31.89316962047382 17.285396934203753 8.550549964308198
19.889111766112862 4.176735103178008 19.43167345668975
19.827870359028076 1.8037863312753994 19.753091599498088
17.112785241985314 0.8619067055005838 18.487553764293057
15.260589808334387 2.1113084936989956 18.587781042134004
22.506764049448517 5.929443833307568 13.99977890220818
21.66817812825277 4.024330776422685 15.150194850417716
19.73137322939426 4.645291293272597 16.990396196296206
19.047852002661816 7.179276252739162 17.516767645936007
20.352861693383314 3.4344236619078914 7.85834332875922
21.504451562081762 1.703702308163653 8.396247024245035
49.6783572652789 7.331426782636116 37.169394941954955
49.04416413462026 8.9041478748579 38.51263418360117
47.72302595486007 8.835633224947937 40.67587739531674
45.750790595088944 7.611514776917285 41.33724750241999
44.851271464589864 14.78760054721363 48.06029565221971
43.27779327253413 13.269559045529302 47.8215079801701
43.068469070198944 12.736373238062384 45.004607547674695
43.50652900388659 14.29940766291791 43.23383477124089
40.50638202299676 12.090456735427406 44.61403827408218
41.14482752985049 13.47336315089607 42.52870225765989
43.36972643445874 11.955786344923652 41.2497808850521
44.12438762850143 9.74299756909633 41.826887695362565
53.623670440809406 7.591100535289131 44.905213028594815
53.38063593495644 9.56978691808069 43.96126402560485
52.85137661548829 11.980268331700403 44.69310131698166
53.70048585660123 13.202904566616729 46.59912829948049
48.04387706943328 11.443837343444203 39.2352970831576
46.294333277566416 11.184050298179635 40.410865745925214
45.69460893074903 12.76136643451432 42.45664788359071
47.50132638188502 14.781718320388531 42.82929910617254
30.451797472252988 21.98756779905249 33.37793275334921
30.908876544082826 22.468420794971866 31.14474193407385
30.124836639798673 20.992483975087282 29.092480543285497
29.128152221828653 18.578374167480707 29.535049689041223
49.55059221837892 0.1148363689905816 20.055652603700278
47.34573156893202 1.0354073560222712 19.30993975056667
45.84814823907245 2.0897636411793763 21.592605563438756
46.40511651008338 2.117748606861228 23.751729347997163
50.12927301513008 11.025845634913782 24.123663673540804
49.71345103324349 8.920408157691572 22.8358725376104
47.80152827895735 7.683189934827168 21.75498712966145
46.555749197432995 6.720814662685053 23.4827850150381
51.440812292739174 5.3554951907754615 17.421582426395222
49.9020334516798 6.510628845174265 18.670862224182592
50.53307844167775 8.594318506457096 20.205175554494318
53.147241310980164 9.506092716641893 20.46229910589877
7.511150409906663 6.142991948827519 8.296700695995126
2.8997954042551433 25.638531874364382 80.08901611903174
4.999142163456309 23.776512259224376 79.70599837488182
6.111097444599276 34.558896752410774 45.51996165258173
6.760730187841674 33.083898517460284 44.11173209619037
6.096220304307648 30.691297860081335 44.546094525595635
3.880016630384691 29.654376235586675 45.47299271076151
33.26632665451767 31.093872888500307 50.99165497276833
32.72631412967647 33.40705728709068 50.42398836605237
34.68855798150424 35.36415151290158 51.38508344083481
35.40613257279569 35.46568164833338 53.380144360398546
50.64693392896561 30.665154131063932 32.36776672173086
52.436033783973805 30.9540144317536 30.708196733051274
54.89835201747146 30.13808642154097 31.981763381328655
55.19537422292954 28.7557854292732 33.784052268293664
32.9693987462768 37.24639498142642 50.13661460292887
34.54056723036625 36.240337865017956 48.77724088084043
36.78398423932678 37.66660178107074 48.069060780059786
31.442916774048207 17.03732624852919 29.939838264379777
32.306266882600504 18.753522323024445 29.117966642357782
32.29446172403336 19.339718039721372 26.348832285967873
31.234478311245713 18.03081392891304 24.93732522954597
2.242948638937737 28.468493413708675 80.10983846980689
0.5157349761935778 29.01258088657906 78.80408720410729
33.09739350004472 30.082108947439647 48.65182349285739
35.115160148268984 30.167635118472102 48.04228145747101
36.41105626336373 32.33940777808342 46.82702684277783
35.42661030484227 34.65870117421126 46.79077109360861
31.725427065238478 31.336680565416362 27.60481041606908
33.59888550285305 29.70394398178029 26.683000382322547
35.34776552120571 28.951730765844502 28.52600408496831
34.99892580486348 29.81335598919112 31.25890388481465
37.10602745866671 24.346501785745957 33.174961325127256
36.59773749384128 26.536825357921042 33.29842675938797
36.42828320972505 27.506718876401756 31.268891614069243
37.75464445502308 28.067180575122073 29.37916491580143
31.17034198521006 26.8373139725421 23.77901810323356
32.15159507286839 27.851471669876705 25.510002611598942
32.528141220754996 27.058311274106735 27.918402260934293
31.506624088079295 25.047506211526784 29.125614333292322
35.563454876364695 19.834327155038608 28.922305627396963
34.185611803008825 20.947666726440644 27.208837102313844
33.41588232831599 23.569287403671122 27.99356548197565
34.724986933105484 25.18828861154865 28.76330479233602
32.43947561341033 23.15633221964915 34.3739844884383
34.33449509344047 23.57166342156812 33.43040412602089
34.69624114927093 25.482197695272212 31.547326680796946
33.39152156298293 26.773620964785202 30.611638398703377
29.112772060409753 19.01439485169344 65.93965832133702
29.20155016216103 19.965429953613057 63.82430566657165
28.099412768694997 18.563702564971187 61.854807147030975
26.979371077725045 16.554070793450737 61.867227164088895
48.75171139396566 24.20973616694231 58.99847112710241
49.25127134668866 21.921163460238105 60.92153324159781
47.27800290573584 22.351377788142948 62.1188645079554
45.864419144438735 24.717819999479417 62.7511081692114
56.294695059454405 13.521227312431362 37.18962459777683
56.76189117352309 14.060015850973643 38.80908801398172
56.47884779485542 16.59882490368358 39.85052372776861
55.82761338838462 18.66485906875574 37.982414815512996
42.608644879567244 20.229424086355806 62.175055821709286
44.008481142392526 19.238078606080407 63.67363469425841
46.86748696386691 19.151154969358604 63.23256570855898
47.83588215455368 19.517585053182987 60.75328867099857
51.12539148090152 14.626680046279423 46.84311343430701
49.04525214221406 13.659128267847993 47.785310537320484
47.00959446451946 14.212138097777832 46.53666860978917
46.65109488832604 16.333664047426826 45.053671549435535
58.4629689553017 27.84895456328406 39.24840118938853
58.14751902843215 29.967037326638984 40.42260675483884
52.0808305451264 14.510174649566544 44.323839550887044
49.88873472398037 14.196109450543016 43.38760084780975
49.63379821583077 12.445109428795234 41.09414875072728
51.293109628085524 11.572226478512952 39.920593196068396
48.15281025864664 14.198285203626392 51.84424053726046
48.02564380859156 12.39763245938122 50.347785040069354
45.824565013513755 12.051314516260339 49.18702606137721
43.31154945678011 11.880593102799514 50.12535295457942
49.90096737536897 30.55247376937011 36.365974119565614
51.7135447234948 29.922215019073487 35.03466580089417
54.39819778452507 30.499928727805685 35.84525006842722
55.1741829586361 31.269700769602906 37.607641481390935
54.767208035415955 12.089362909016534 33.70221827485144
54.334627189472904 12.582986369711893 35.890339022686504
53.00799451548104 11.492757252391755 37.9527455527298
51.69139833637058 9.46120021192914 38.088769375054795
57.321440060845546 28.2733892496032 31.31070796941267
58.946527162438116 29.63293058335572 32.241987947704466
59.202187282576126 29.958075980876398 34.81544705576589
58.95867631492418 28.234575539281465 36.534446140788525
55.97525043843098 24.397329809672613 36.257633608010856
56.069111994172324 26.460878792681303 34.920965494851096
56.299170342148024 28.655501285394 36.72968282757375
55.63507436101752 28.679793045649163 39.15784834467627
45.100271310958085 10.770592156010911 44.54643580878601
46.881480098373196 10.334799565265058 43.5988397340073
49.065686964261054 11.595113951308644 44.37551496631094
50.09833266447192 11.52997745365433 46.65708633479329
35.02448831992636 29.21639876715591 50.711938940406284
36.47682775454381 31.040049146569046 50.64598505836305
39.066850944063454 30.924470491009693 49.517617597140045
39.68467989342007 29.507976668026096 48.028296103307675
4.413404633788406 6.538444001366576 9.286244977684314
44.26913740603427 4.924949958389188 24.241747427585633
44.033567795976396 6.672285705262668 23.112139667792995
45.02080247916673 6.725158014496478 20.914154645474035
45.05842792973919 5.323695337281059 19.005224328807973
20.89507555963128 7.331113633235917 12.400659959894282
19.58809170874706 6.30447687731949 13.020193479262193
19.0286789499351 4.2964127213713645 11.30464460331823
17.987466107854193 4.3718052809652574 8.983449928156668
15.551942576210287 2.3296988644868946 15.780977067124935
17.750602664175577 3.5006804806467553 15.389771118548312
19.226750694968587 2.288789440545655 13.606514309877683
18.904422643553104 0.6141429337731538 12.048394075853505
27.138230925584143 30.05538431312068 70.86656826556808
27.78742345996985 31.554051471143474 72.37322442556813
27.919350388242204 30.124312805283502 74.6827114483483
28.272538128919557 27.297116022071577 74.20106095638228
22.816544459084056 5.448764310755139 11.483546938022254
21.5797597210331 3.5317154227527787 10.407724283712312
21.73773194514813 1.234670917305748 12.19609296747781
23.216825814880014 1.199937003699068 14.0134800128167
5.3792365729234195 28.22920981669052 76.42617532332216
3.647438927023547 28.144797269623258 77.82509318086049
1.3424296921798209 27.799615498416085 76.6824010936191
0.4316517224446725 28.80489668019562 74.79593400777127
4.537049542688695 38.09643829355626 63.246675762825234
5.597197374818286 39.01387865175637 65.12153341410492
7.370351947081698 37.6826678048482 66.7090676002716
7.8322670843420825 35.43679201159344 66.79402820286163
7.643207202352032 38.78365947611451 59.65178505903639
6.843603792708094 38.060257743818084 61.7412502257908
8.804961824163168 36.76810896325753 63.36222786737596
11.074743644949264 36.23924961273872 62.88419288927651
6.989461213453192 26.0178871788695 76.12389025485781
4.944761422974532 25.577350431749828 77.53151652443479
2.700687684655729 25.080055529606433 77.09324432698432
12.781297778599171 37.79589845688683 67.69191933270939
10.733497665757513 37.312959338099304 67.05786499398171
10.25399952726108 35.30298734642554 65.38064256823215
11.471782737247743 33.25190378431853 65.06333186940591
13.202637012377131 40.3766615263647 65.47241295123774
12.40037787240169 41.34125589346688 63.62603456278718
9.649557250692675 40.5735543410145 63.02851899170439
8.015138479737544 39.53743936912461 63.92619471679361
25.48868427515619 20.523630639479766 78.93712337008219
23.814994092563996 21.47133742522885 77.60500660753733
23.382821535082048 24.213518364623145 78.21008960270636
24.183322311009917 25.417243784065224 80.24227656637977
21.137140538571867 33.24368532085146 80.82965258770389
20.60370023312666 32.57159251349744 78.84108770436742
22.27683073565545 33.53299219976922 76.50319467475491
23.994331628351116 35.15636715896999 76.86005636848812
18.279441880094353 23.4591216005784 78.10730737485133
19.785794867302734 24.11876483137605 79.67378349575174
20.810406588234812 26.452971082970663 79.69574408749679
19.763935028041978 28.584643031708303 78.49051617007296
27.147041887420606 25.032909011398008 79.73102337972233
26.11313086619062 25.79871775871734 77.99567845647852
26.462703458978815 28.118000111163393 77.00989390384208
28.167266446836383 29.82802999225157 77.26347075142014
8.321330391253491 42.796229565327295 58.03356444155391
7.789663790089687 43.21745437189331 60.38190544721915
6.759033204355151 41.94457730664776 62.158743977478764
4.398514390613973 41.43410060898094 62.091238807843446
68.43548056998107 17.71197191566863 19.739382934133534
68.02311804009673 17.544348966336038 22.107882577939076
70.39939179970595 16.448196723188648 23.28036958795282
72.44025945763458 16.397469558717386 22.607710800849556
33.238507942548225 19.193772910802636 12.346948237340765
58.68692338126497 17.859888037365245 7.932394416421542
59.37865234635423 17.88334603031798 5.206731077713981
60.94798800992295 16.959353503989124 4.000002761918823
62.340457559235524 14.645375290763338 3.9468435183453625
55.19919207645723 18.46382380173416 1.4978606342197809
52.458867979661655 18.050718735251966 2.059226403874815
52.18891668134734 1.2929536904464438 21.507498016795143
52.22868310042213 2.992661579803734 19.536679244789482
53.45645432049312 3.270048999293678 17.596098250794668
61.11803399973074 21.35948819614026 9.604824066833684
59.22113569010368 20.64275459358419 8.763611381598883
57.15357130989288 21.83264946828385 7.62368848679248
56.718078975407195 24.032232627267945 6.945231695485442
4.63077961843426 11.435023552863907 52.15466003823873
6.233492605327557 10.437046379217753 53.281111591624324
52.58552884427473 19.490500675744972 10.156818831016826
53.79228597074108 20.89034630461553 11.493694155373804
56.00722590038205 21.327060362507318 10.722814211789542
57.66371465747987 19.36516417793482 10.701222752982037
42.18327682094241 11.249332088423937 18.678798223224906
44.415039849024424 10.741932829402188 19.76795292654587
44.238473997741536 9.328622543171573 22.065517888571712
41.965108208484224 8.559499991087032 22.6916361167497
37.3664546073423 41.59907646149074 72.14827091707171
36.13692091388548 41.53171023147413 70.67366049519676
35.513859426130125 43.845118737648875 70.1344801546713
34.229051687323285 45.50051360749113 71.11555169866206
56.2399972364187 20.97527198060143 5.015199088088583
58.56194718673945 20.559685289249483 5.40574912411299
43.52638602226608 9.226556853571857 17.48583902663544
44.73858526737672 8.09373190498491 18.369497024087213
47.44768726961742 8.471771164328413 19.23253455412817
48.89578129979525 9.864780527359828 18.52883596860958
29.0059760671963 51.305103354400195 70.34050015827887
28.417444936134114 49.03453776100055 69.90828968218496
28.526295187671707 48.243974192772214 67.58920627901347
28.701022496930985 49.98198669847554 65.5695261840771
31.03981529697339 51.650803944079804 68.08122615981628
30.910658165371316 51.283754928020954 65.67253480436665
33.03592262477737 49.94694876509765 65.0310726549933
35.197751668848205 49.88810460729828 66.07465325381666
41.46447464690912 40.71303794106983 71.32962038154498
40.06111229971525 42.08272893432296 71.94856092427503
38.42416253234667 43.138891173638804 70.46786715087678
38.55272061873893 43.05775878001344 67.95003301031169
30.074908807138822 47.374897196837516 64.73645085008636
32.20440353022055 47.401352211979976 65.1710370345775
33.049060955580366 47.520222602969014 67.46928056152478
32.41245728898345 46.42127202079894 69.51159680719462
15.144037683677197 38.24677707150531 65.86463570836145
13.250800409759124 37.800630309900406 64.87959305444973
12.588795958075993 38.428502670283805 62.31885382029294
14.19262851048212 39.051935120037044 60.46551661353519
69.29899018748581 12.82101037074827 28.536129652623448
68.20823907019819 11.29320593692694 27.100085573840893
66.73878236383437 12.234516342978191 25.65454890790304
64.74317049591068 13.200649148637414 26.002201288384533
66.75635822410393 7.7348284217825105 27.12393163251016
68.55879310637886 8.67503302447774 27.658902151551317
70.35017367412752 9.732609291640621 26.11417660680347
70.54012998738858 9.075279666388845 23.580625824657623
75.1617946451744 7.843597379069442 26.688159934752623
74.94696672116575 9.939011483577932 26.496302581802954
73.11751807670997 10.894314036239493 26.390107167186954
72.13756970467122 12.582092980522178 27.942775911197497
74.90678559744485 4.7855587824325525 23.56388722072423
74.00180635639875 6.227023106356826 24.58007467825195
73.36059945377359 8.784703980302613 24.104989589749835
73.42907918562348 10.331411405408058 22.20021222213826
45.048922593920125 30.264493279760522 83.47474050192947
42.90869678753565 29.37502044971804 83.24884336545765
42.47657174448644 27.764271030961186 81.20452350213932
43.46963297305438 27.120697061245732 79.40321381826632
69.28447424076109 19.88959473074627 25.103682441253255
67.34247676479356 18.4096646649319 24.84653073848932
67.77086641256426 15.85993691140224 25.670938582297474
69.37312470912568 15.261807422182681 27.71669264716322
57.148604709331266 16.465003191988387 1.5847752090992093
58.6154761626059 18.125102024840462 2.6385119199998375
47.38838452361855 29.317731576237716 84.53737975913135
46.215116703201865 27.479807389030395 84.67716443045532
50.54828922453379 40.875831665635395 78.06857503924847
51.93884972396062 41.14850231048647 76.38055112901482
50.75258604827022 42.86250074311953 74.34549262504821
48.50766170893125 42.917045621136324 73.55249562324529
40.07893967535775 30.32283533504906 82.52461153131122
40.707502835423185 30.61934466983665 80.26200125578715
39.47763669294571 29.071862855921115 78.61281145978708
37.53278331120226 27.326081500075492 79.25575881353157
6.135174012916189 13.641754721562277 59.374129696310646
6.464670842102593 11.527904011231051 58.1922088446347
49.01260459037028 3.1091538186425978 25.151368843174293
47.84750219591653 4.432853004704505 23.85496411585921
48.91167859605704 5.389342994231197 21.42268242453158
50.998496646921076 5.006518661088994 20.692193741378173
38.38603069209439 27.87171804187895 26.65518247242375
37.44363213919794 26.316224222089758 26.927562387663333
35.08060992078523 25.47417773238358 25.614006360587723
34.01770948708414 26.144750968484313 23.81282431294732
57.26014111120876 31.59934514657283 35.54635839928776
55.10926595807834 32.5235222281981 34.1939234360439
62.967194627966805 32.10288184950408 30.123499819115395
61.82139421913697 30.24436361537898 31.650760387470477
61.78575302525536 30.007111322278668 33.752934642116706
52.86134432904399 15.067018996630475 1.8130904200522477
55.569027377446396 14.511468576874815 2.4261648857852247
57.06131088625811 13.08444771554982 1.1584701281288694
56.490604679791716 30.79101509021652 27.982938497883186
55.76996857129615 29.28707914714451 29.62181803114347
54.6197028363374 27.095531733411654 29.635654263628112
54.60014663601788 25.00143217643984 27.983322226766912
54.6911497619963 22.689540707169602 8.222716117503738
52.90663339379923 22.63854602507465 9.711663888706118
52.62242943006489 19.47847308310191 4.651607643046146
54.034894070095625 19.59066199935746 6.4085989888787855
56.66027608116343 18.323485955000308 5.913350037950903
57.04016084358011 16.611648543215903 4.449335746770867
59.501594087024166 12.024995926973823 1.432504409601017
59.745033791382966 13.810694959962884 2.79738711608033
58.08470704304592 14.173338221480883 5.141500985001059
56.021345354129515 12.834128179028237 5.042319248834249
60.4403438936449 19.01435464522251 13.123102378698096
60.468610498910046 21.310061595424244 12.443114287870666
58.596416005218295 22.826918968431592 12.158951280123121
56.14805344019508 22.665147909995667 12.86465893810201
51.124142211582786 5.8541540066065405 39.00329285626947
52.72250284605731 7.613556779304593 39.80863122566453
52.0322087042216 9.330138548373592 41.60825141288599
49.709551283192475 9.321624100663445 42.87170419622453
76.2162914001705 22.72582906523379 38.23923598903565
72.02799784672894 15.364576965987583 27.384956642301482
71.50500725905644 15.265228974656218 25.37506383845521
72.34446941794921 13.426128088461603 23.636663157905534
74.41416958525848 12.007895222842386 24.154446206961644
69.68349069513057 12.400218256249117 19.169841993238165
68.36651050123785 14.112838477774275 19.92233494524824
68.46253230648888 14.737424868326205 22.5168487668677
69.13313012623989 13.72662697213984 24.316736836503534
70.44602941375788 19.76970955869804 47.38477529233031
70.0789521743863 18.211787356563878 48.809123962836956
68.7283688179842 13.813720716458702 14.67220072623631
70.01525823868857 13.149336669638085 16.54082526576906
70.45343173065253 14.876904299405073 18.325045787071055
71.3431801987075 16.627227096917316 18.3764448860143
63.54665899561773 8.202239427752145 25.638230226213615
64.91678368977173 9.736789269815121 25.55192310226198
64.88457454933119 11.854250539624324 23.58472934762478
63.35272588816005 11.675818472949517 21.549669654022168
73.98573932048775 15.450430102933758 17.99541932748306
72.84921454044121 14.676858811891593 19.72408406637422
72.11411792768419 12.08261046536986 20.19358702275552
72.22448676781367 10.200116344570866 18.055277273435383
59.11446451589694 31.85166414554953 27.979978417702956
60.254903617604405 32.47226163173593 30.005570338903006
58.24937577179122 32.67165613168452 32.012744538284245
55.93052540765542 32.4526717717608 31.654714171004088
12.91019104411031 42.79815721676445 59.94255121573061
10.701496078745214 42.187661718442826 60.30247955348682
10.048168454101777 39.8537501654177 60.45338573220502
11.451046414721235 38.068538211581576 59.230515448084915
3.3470477776909875 43.82386691505609 60.469004502081155
4.979300929649617 46.11263872992992 60.26535429839136
6.721963839613824 45.79118423430291 61.6603723815841
7.048296204280492 44.36158734693503 63.48705540511945
44.10151099104293 24.426021998242096 79.8084650376161
45.34805370782101 25.517452882332435 81.89408465771226
15.245240669929968 43.622794382568834 60.72870877075835
14.79686457196746 41.52010710045671 61.7908138067996
15.621784806638535 41.1560218125987 64.55452450016021
16.088903829206117 43.547163188881974 65.51961587575043
10.283018883688962 0.25220918120806285 75.9242217120859
40.645159611784784 7.599804375784908 14.800592166483778
39.204490023791784 8.692190370891083 16.522543087115164
40.16487874225575 8.57447096431999 19.083655599788244
41.99757101935662 7.573245159993621 19.779953682320688
1.0306582203973493 26.13549483440922 73.32761365550328
34.59987027326092 51.239325640699 60.23298249800823
33.423997917000364 48.893335850493585 59.89860732882168
33.85168271102434 47.230035111226535 62.34407434742491
35.13477116033963 48.10366122304481 64.17783314565298
25.463111922467107 28.09027244019706 74.3708623316614
25.315720941866946 30.22518118841501 74.12577632010277
24.315061875305894 31.472702142769336 76.21728515318156
22.838334576833432 30.650198346939078 77.6183293947754
28.302737702721227 52.37320715277398 63.29656934279005
30.529977741069715 52.266790019032506 62.992720698411894
31.88059806438695 50.525721970267206 62.63551487503568
31.292885266812345 48.04392816936035 62.44464176135924
31.910142668475522 46.95487640120891 72.19379562717677
30.957206692360753 48.31951132537998 70.60068484583242
32.46358954871406 49.54975035460218 69.34817406666797
34.36728136600148 51.20437415981322 69.78532051222719
27.21943491031046 28.793865543581823 80.92060403494281
25.14866239247239 27.8926896756838 80.42579849884945
23.356887664663496 29.783163263990385 79.91131593489914
23.507023941012164 32.100699604565804 80.39613740134324
35.73868424391971 48.590140420432505 69.38144916097144
35.67566967953245 47.6564999578485 71.14711584417563
37.33560349116238 46.235654539027294 72.95152435904123
39.37941862852529 45.23965206969402 72.16504028057174
26.953918040240676 31.53335057616047 79.46270943417565
25.409198216918025 32.83179854647375 78.44740688175649
26.07783576511063 33.800810082861645 75.70345057102865
28.18352680903788 33.05035913685896 74.79772178464712
13.922210019363789 46.76192738196697 60.93882881923157
13.903924944845807 45.06658266296235 62.585544542319624
11.961013189696109 43.70789589757943 62.2940988383422
9.82462314890616 43.56414249117978 63.27290421828568
40.52981545625673 27.19254839739096 83.43546925790064
41.484342672588035 29.343950309703796 64.79791129611593
22.05626457788675 29.349918627610705 83.3332802630614
21.32952321331817 28.973086472713558 81.3959915285299
19.517131765101634 30.279268589979342 80.41303248706835
17.833238748246334 31.920678318373255 82.34347665917154
46.60298913494212 25.87220305657794 58.98958970011951
46.09608494097662 24.114090661904317 58.19616954519334
44.85403610663611 22.239743411824225 59.25281687035654
42.6605310063329 22.791465583086975 61.12389928742759
15.52267910500517 18.44121553254083 63.56336007613395
17.789693891775073 18.459657359041575 62.53935179813849
19.020309133261943 16.035089027586857 62.232118408618035
18.01680092353218 13.982709291147684 62.434486091593755
52.01265420231066 16.86207040167614 84.12721066005228
18.21167195758304 1.1445159562277567 45.440875295376614
20.19415745017276 0.3810473580463743 46.51649520528037
22.494926770694374 0.014612021971047814 45.13252120167778
35.8613192902935 41.341647126175296 67.00190913089135
34.43186927162978 42.825860961643954 67.76735820146097
34.918304246828086 45.61558248852166 67.93031060806868
36.186157937338116 47.024251941737674 66.53165322310298
16.54321038279907 29.35646830552024 43.761900763104336
15.261116706167613 27.56490887660888 44.4394068519251
12.902021941458436 27.483439855473833 45.846358752349666
12.266848902218168 28.948396231841276 47.7338878519582
7.872144499573373 32.61025373713225 46.87739178070075
9.988644886753885 30.978160641178857 46.877079966744226
11.341972957299557 30.848219669764553 44.427109590868795
10.968997958415065 32.32683633182642 42.57482662521858
24.1829421762362 0.6960470451202507 42.324225241594604
22.663039119687333 2.21429099676397 42.27690233767912
22.9665780287596 4.859341207786188 41.24726764651558
24.804252780489044 5.82663570408115 40.36491889094399
16.443087165588356 31.515197979034557 42.089415146498474
14.42600540010882 30.90589997512479 42.67327519842346
12.05108489324506 30.440534671551 41.297649238479345
11.685680307409724 31.122690006418534 39.09121444431208
55.79947638104584 45.177200794772794 79.20836385429372
8.170709625552705 31.515206432678273 41.92936340610966
9.506933864158476 29.53201797422738 40.53288084767638
9.046963805022218 28.627296144285797 38.52320416589481
5.594114402822074 8.731206217936696 57.54044870910965
5.000766836252616 9.504762088162785 55.63699014142978
6.585130390600463 3.1816231840813844 35.88334778951498
5.793565605858409 4.1398625959596735 34.02430919799897
6.457277185698832 6.789779195085002 33.54029043687239
8.566941597886766 7.755050252828486 33.264928317756954
17.583358779772638 18.134629589350233 66.81496466671852
18.249992929340674 17.782764383802856 65.07975182191998
20.639341987932223 17.187627179566675 63.9597953960047
22.77078928342642 17.437617185788042 65.0147135160111
38.988811671705676 25.12314527308462 78.75679198676991
40.740968510499314 25.672461188739746 79.0980936771041
42.093445122154144 25.031020175420977 81.5226156509151
30.77526281066743 23.26183646203613 63.12936950713469
28.7134404024108 22.23437426768014 62.156407353250394
28.950090455984313 20.47619209354235 60.097456934847145
30.74060966006255 20.21316340425869 58.39550647003357
32.779125680851706 17.802821919368725 60.85339404325358
30.465021228465062 17.29676297322654 60.264294269289906
29.128665483937322 15.228000520767315 62.14108485301488
30.426418751076568 14.396956979972364 64.16609342014418
29.56328921422061 13.374081328023436 59.74371911698203
28.29057580780106 12.789306752792088 61.3622658988688
26.30968434842946 14.133218226121457 61.106785529735696
25.101292133528805 14.81742869281117 59.09577986806538
14.00496847868387 22.376703546371747 36.123698037639905
15.238976772984698 24.02571575376882 37.50921807647405
13.789963209609557 25.551759170303665 38.97459237582823
11.016974489856018 24.871457928819222 39.3702577215547
24.401143089011278 1.272653506158572 47.82350865671264
25.030102523165787 2.7232290231833054 48.561494647737945
24.798127036243592 10.841096373004564 39.7198346149631
22.706746183317488 10.71052252791889 39.713039855264796
21.527221302165408 8.459593282716577 40.00386832803332
21.70163729844583 6.119841100115129 39.15826834477776
25.496108018627808 5.283588163355351 46.09442626563295
23.992968627879048 5.588344396267682 44.5614106586248
21.68734335094398 4.041108704624894 44.40651150724566
20.556779969423516 2.961679894008792 45.84807374348833
23.828128376522887 10.60124666362239 44.73306800198787
23.77480843982914 9.733114218218702 42.55576312409896
22.41755818586491 7.4752115083321895 42.816942415091056
20.894645126343473 6.6735765311139135 43.915035133579615
52.79862751076764 45.177795979580615 79.19545656268326
52.88159191937181 43.238738033898514 77.81389283363565
49.84211110370636 18.33542212921394 61.875467371382584
49.58698827755394 22.312536062089922 65.517425067331
46.78117411266759 22.76809026479363 65.13317016061269
44.79322827794782 22.09184006972929 64.29381639617942
58.60835818390534 25.223465290786766 10.673670145249657
57.0738810491922 25.611197815592625 9.468358839495522
54.754143149133164 25.087509468926847 9.667216609189326
53.28318998669026 24.720026189816277 11.746159702841673
36.81186528616451 31.288089277286335 42.01309354159804
37.11616893479454 32.194413323553086 44.33998391640351
38.084449213213894 30.26636740937181 45.662414579406764
39.42646803591463 28.580884201764118 45.691517182654735
14.89871186254565 27.533095701589072 37.54347373213712
13.518541056452683 29.70756667384919 37.256994461964695
11.199793236861227 29.628683956586332 36.54041151106632
9.786987280490399 27.965216166984522 35.37621957945534
17.197851725572114 24.229990421438764 40.44322704085183
16.031797539191956 25.607644222728243 42.16120755941934
15.397216057853957 28.20044834402746 41.62860877549461
16.165231536122448 29.52408526125223 39.52958492409601
5.462163126850706 28.998838402849252 47.92971081230486
7.070385694351117 30.199838117894018 47.003931314051925
9.00281881464557 28.752121465112058 45.6892188777525
9.992504012057955 26.954572071889004 46.13575234731409
4.129331325815844 26.84153035528431 45.86249844809042
6.3570004597317915 26.02284276396765 45.37440838074656
7.587214283753198 27.46462645716264 43.58897603077061
6.415079169108962 29.22940209775108 42.27487232452785
9.500194929558708 22.094062396557195 38.16795588232818
8.501633371175878 23.742684579983393 39.82445602969314
8.020117769149175 26.358050461252514 38.90480125657589
7.668291475750578 27.135856820416905 36.760856382462954
8.782516587711385 25.033430541471827 44.19128828653231
8.598518994443463 25.34690695670781 41.92341622506756
10.164298854301864 26.97069202977997 40.79038671365297
12.691239271408422 26.751823685689825 41.15598766470706
66.23521103503467 15.843658401764232 20.865108145625946
65.52640139730639 14.425888081060094 22.320996518720534
65.0420587718253 15.35354131630676 24.640885143521043
64.66480186207109 17.901933611412336 25.20967576406474
49.51878458577287 24.950211832193016 66.99131937171312
9.796477871595238 2.966173676051373 74.66118772393241
10.075731414907963 2.106018177262335 72.2192020104616
12.340491133005935 0.5621817951285614 71.71458119914247
14.285722027278405 0.20993853204895926 72.87237637679337
29.47253782569483 11.251583479548843 63.91163784752934
27.27492745120297 10.986558270201957 63.395072132426336
25.758918009640958 12.842696699460191 63.54292092048305
25.631673063441646 14.85795879656188 65.59103156442721
27.533641015978386 20.934525156538438 57.857636250437544
25.917870692952896 19.022545724765546 58.257977316814454
26.81348546651663 16.989559622207544 58.78028912303683
29.241509942695558 15.959712474092772 58.25047509027138
36.37037131634639 37.06587824041577 45.141408702195314
37.711128686729744 34.58760274846117 45.37232254254178
40.093928460491036 34.007074865856296 45.455253930846176
17.79947178889918 15.17688078559077 65.52792570566615
15.97639238596567 14.44347800546115 64.7094620053923
15.333791771623416 16.513043296995466 65.40227173549575
26.631273316423254 21.931164472074894 60.438918112600724
25.65367845003482 19.719067593586797 61.32919775249622
23.406197164737495 19.135249690600027 62.53693420652927
21.245697496877742 19.997025751074162 62.4335531442608
31.20003496040621 17.056451124683914 65.28983580936763
31.711378184366435 18.550065723965528 63.378927018054235
32.9282749692864 20.493466897784472 62.847933513974716
34.271741221482344 22.270199673074696 64.26435541163525
33.9746134042224 37.730660376250924 52.817732231881564
33.454862232097014 37.08938519730963 55.27752924336651
41.11662254599607 33.550876459591805 47.94489334166426
40.89509774322248 35.653143001263786 48.37152668684434
38.54201015127067 36.38571746284849 49.489055883077896
37.57787137110254 35.46261024975926 51.300407606400576
20.261335247856042 13.786542137361268 60.66685115749493
22.357300831356838 14.754059092881024 60.11645913106567
23.395863367012588 15.500348017570214 62.341627993816296
23.062188539893793 14.83867964674433 64.77968815288887
23.32420875169825 18.120581871588975 55.91578422901907
23.78395398127227 17.498940097682407 57.981801201183444
22.456567898450537 17.444697680915294 60.4168256926291
20.09078271294715 18.019512003834702 60.52067734339352
5.668265345375051 3.1049443962900836 31.43299889360226
6.313724864692067 5.301601194982098 31.22074003865307
4.519225946823274 7.217943104076121 31.105727964180023
7.017075160944879 9.34584977037891 31.689735960212715
5.4234859321518565 9.858152407791001 30.111640788785344
27.8383468543998 3.720168093608205 46.721434334817516
26.163757995269364 2.5520881636329653 46.13843068026747
25.65908024271927 0.13290907921151737 45.05548669413441
26.56542962569413 1.5846512914356572 43.22540935473271
10.723542781254128 6.37325041760196 31.729753859174135
9.041311034550894 6.060458858207868 30.777409717335843
7.452984577454397 7.319138190445033 29.542849257921304
7.310688276203604 6.603711382781665 27.889238240175146
5.852750681842884 3.567495168150664 6.068737088894179
4.361602138642287 4.989989574363097 6.535101877134049
54.65161575733011 43.65486595287972 81.05296941354024
55.70650313584594 42.185860205026124 79.69897880820847
54.85645819417233 39.41407465224516 79.17688643158394
52.707409000161775 38.69483029367544 79.84579989365672
22.959546917959358 36.68794029942392 73.33707869202644
23.04953260824009 34.97122579185418 74.3164237491484
24.580654617610186 32.84271702489946 73.56725570557016
25.082153418369902 31.864956071325558 71.6662928127827
67.5554778447968 12.790234950605138 50.13001883644554
69.2926513376816 14.084578440075187 50.44560199448257
69.29409061450899 15.281930766713987 52.6771827651539
67.43772223915957 16.323025469083 53.78445553854362
74.77518242315351 14.839028364870533 49.25126663251306
74.02541666732711 16.36265804707854 50.01253806602905
73.80503713828986 16.701832216379145 52.605359824089135
75.44776048254937 15.978140391602748 54.43557445564994
52.47358855642049 21.40449071387167 69.03839142687447
52.416592686475255 20.279180759273938 66.59392982513052
51.54562655578425 18.153805695192272 66.9649538879375
45.65840144304638 17.03605547627623 65.5561614113546
46.569599911304806 18.675275048698992 67.02440003319956
49.15310060776831 17.758272377031215 68.16274762058976
69.28780143040868 18.63720689507197 54.1415723892959
69.95693652875235 18.02301215053197 51.95186079840091
71.83949581082004 18.31422307058566 50.92311541634722
72.22670896537666 19.691213838765243 49.40195166159782
71.8991966273536 15.046500629980587 53.57203119788794
71.02569622860089 16.88285342163176 55.27597447885635
70.93654718523423 15.758058106357991 48.94624237517379
72.84988725986199 14.603646597393311 47.361448012015636
73.82145153531563 12.217203616853626 46.846088566524585
74.53354089650233 12.053947664509193 48.968126053348115
73.15331258585151 12.893348067431623 50.7392685183674
71.00817679817717 12.224514351248631 51.598850969867655
49.4474367048246 17.84713158767208 64.10805476219387
49.07179169010439 19.739497114300598 65.95050386192678
49.64739899719343 20.89811420963614 69.81959187677626
47.871323843284834 18.999489051745194 70.12394991457307
45.776125982393175 20.933236465170996 69.17169647726855
47.71265936523331 22.22406594230779 67.84433295455969
48.55754243448645 15.313616259064046 65.0040965958698
46.44395475116315 15.147596686817945 63.85135169528991
46.30659925378931 15.887869186468292 61.94376848784025
47.72633613236378 16.318824795925813 59.80530023479327
51.710495858844666 23.973286295600477 67.13658809559897
75.01347970671273 21.897331159510152 57.0601704125692
73.96558788934489 20.26280838097799 55.7917254780535
74.05390589428569 17.866124128738477 55.629887120402046
80.31548479017538 35.917013258089575 55.299988160064245
79.53193080299778 36.618956892356344 57.42069414527078
0.28766708350490966 16.66949889534868 65.44109444210719
0.7380508278052715 14.808160147584317 64.12654524869129
3.3439473859735367 13.827322318653954 64.24490752312603
78.8611386083643 37.92168342556446 61.776707178832574
78.99971302741723 39.693521794469675 60.04650086114639
77.86056258962834 38.105918281293874 58.91067294074444
3.0857492782520866 12.902334146306499 61.460659158537794
1.7341117816407738 12.293094816297268 59.69229091239576
3.6798302020488625 11.144971318859737 66.65748816808326
3.040598310942665 11.271211443357624 64.80591890426251
0.3292922651501018 11.83591327924699 64.13687090141411
79.6185306956662 35.70722710422478 60.098317954071064
57.33044494325471 19.486234878743307 77.58682153514204
56.17879071499859 17.673182295900013 78.30300657087092
54.129347745085525 17.769028569927947 79.91632844668814
53.42310363377457 19.245388407157137 81.2472617510742
50.99441690879002 14.92943751031929 75.42063697402102
50.803608898660876 12.84935884586833 76.62161785771586
52.50105919977695 11.503856725756954 77.09467892970956
53.831711279659736 15.35135420319065 78.73306863548991
51.08628988542103 18.59596305021895 79.37934365725052
50.738471349301285 16.89443705153915 77.48760066537649
52.95012495170416 16.431051089812087 76.52489092793097
54.775724812013145 17.650267642655216 75.84509775270496
74.14589029913219 40.407374885421376 60.253355483975206
1.0295878643038825 20.629514269505226 64.55712399886254
79.60223007109772 32.34732103267546 66.82845110619184
73.43835472369007 12.345120832845826 83.95408660433534
61.81934893434422 65.71044968172771 62.12093592303341
59.603145260421265 64.67352805723304 63.04783410819926
3.441005763506377 5.081006630909046 76.24770558077947
6.024506459969893 4.16400395924127 77.38605316816965
6.619268004668771 2.2852932746669103 78.10797017870325
51.05933909724975 11.034433055033814 79.78440376001507
53.12062040071127 11.430260036961002 81.1250610598351
54.5788613668246 13.830974296431354 80.15828053927774
55.518856940806444 9.658155519189517 83.22871245982768
56.677513511208375 11.706054109755696 84.19415916726462
58.32540224459658 42.707241606427665 68.08355954840054
58.46918732524612 45.22378297126799 68.01357001694831
60.35390824847083 46.45417537451028 69.7295014356765
61.956621235364146 45.456198200864115 70.85595298906209
58.143648669857264 39.87489057275763 78.41568675201513
59.049879484599536 40.833774221631764 76.13380854455927
56.77045673482636 41.33810358389355 74.51650377077176
54.14126041316779 41.16227811093318 75.09373436256566
56.24659730523061 40.96792522238447 70.15563646192155
55.63151278520872 41.6638836347757 72.00270323950754
53.03705613885823 41.84596890375326 72.92077171604092
51.181166595075815 40.754529847082225 72.39430730705737
61.85830264295278 48.66090654320864 76.9489710937484
62.18779947213917 46.547055832877405 75.76705024207247
59.391801495514855 45.71371990762964 75.2591802125796
57.63361142951312 47.10884238357621 74.9225320249171
77.69753722022925 23.187443118500884 8.39258287853239
79.13453262424399 22.751418665094977 9.728019309742129
80.06355249290334 24.84387057583166 10.792987570284618
78.8982138915282 26.7660389843306 12.048694967316221
2.8561638323969523 2.3199808636403048 17.794446847511654
1.1237005227088557 1.5737052113565142 16.39866833838165
0.08548997129764017 2.8163989478340765 14.913696053873572
3.704913418145931 1.2608835206453417 15.563066536158074
2.734028069188173 1.791432320093498 13.682637559113592
0.8897594797396653 0.41663194254348723 12.115959639979728
81.18631285100378 22.650654708621055 7.799623398165413
73.55540420899455 29.680309346278552 7.265149990208543
74.24763848234976 27.62076323448369 7.304302772882102
76.48536666679051 26.661343890010738 8.600770949022568
77.96255760713379 28.158708488857503 9.99096510460692
75.8663342426841 24.55301627236263 6.277379459285405
77.16398454595638 26.37917914424293 6.115429348635912
79.76080415035406 26.156206785849548 5.739272630299472
80.86095738952291 23.947334123514953 4.7789982911486995
55.55450902204116 42.21116856585278 66.53896420101468
54.30382558429373 43.05863803281743 68.05222247261672
54.07908149491771 45.941940616531646 68.5410965404972
55.29971996683584 47.64729282076758 66.93561181233821
77.74797960523493 28.885109993451177 5.390222378193668
78.61086221535176 29.76979026032659 7.812864956139298
77.56907912485897 31.519441355545588 9.147160704182243
43.89922950517796 28.864204816868842 65.08841334714852
81.55075044756421 5.665506298667437 11.684959792462188
83.81776523433412 5.683948125168159 10.66095151446673
74.74343776329854 51.05424084923322 79.80695980605579
73.73992955356876 49.00186111279405 80.0093274890315
53.534167843526156 16.124412209076148 82.05896811336493
55.72958751328338 16.184011661675534 81.75068164502613
75.91728608020934 35.400199179692734 64.09133660271813
