43.78650983832669 72.52870200411387 67.41629228903085
43.0205791516784 72.87409302436586 69.47928300046149
44.03459321814281 71.85604103384182 71.68199477104828
45.81680778304996 70.72669956097049 72.02462987176428
0.10080237144196608 79.88097556592561 45.2123739091958
0.1971115852398517 82.50380794757582 45.1533786323373
1.8945078804759063 80.43645086941319 41.61410370477833
3.439227082889249 82.35415050588136 42.29750482168909
35.053544364892154 54.58439522011809 4.04512858572859
36.44756472456679 55.31402942449122 2.5221212354644904
83.3674800101989 48.827106287873015 27.528812265400443
82.67310334088812 50.62379419999562 28.59225188648676
82.82665226386779 51.43203429159873 31.110781198088876
83.66446975367163 50.804484464489505 32.931646783995774
61.88977688378144 56.15559920092145 78.27769650204958
60.441796307454425 54.753115936872746 79.09875451291703
60.83079962838097 52.16654624702488 79.66256151209946
62.22261521134523 50.80181606948045 79.13335742347085
23.361444069187243 62.99666266928849 40.723573858526116
21.38120092885457 63.809598744743184 41.49305836466886
21.36820116437002 66.0734403886081 43.38675341921415
23.391897409436556 66.98642048392783 44.47383764561708
41.96814831216249 72.38212910852927 53.94119336951272
40.21517233812774 70.82816219089337 54.367422637970634
39.234887992327565 70.47734552510359 56.062634183877826
39.55316820234729 68.83638740208816 58.316651260862315
32.45963282505855 80.0877078708351 34.61330718599033
33.64331364861602 80.77111260164573 36.596399676748554
33.88582605894475 83.6182696130636 36.64628035718055
35.79792693762175 62.23753460084351 50.13989055933292
37.60334854159436 63.4595218278396 50.7815236001964
15.612419801664004 47.412999464011726 75.99669083249572
17.571907695769085 47.47190597890802 75.20543050311795
19.39798661384875 45.59153551558604 76.18284046697542
19.943087507903417 44.90696083416724 78.29369259229574
37.18353035243588 68.02446210158679 48.74356763363544
37.074391207438346 66.0281863020346 50.09487896703338
37.56839960701296 66.56008923149331 52.82914130793699
38.69126606588693 68.4550339556423 53.624344452122415
39.945853703592725 74.8426530232579 54.741801718321874
39.16813974027948 73.20106197919974 54.35556843296802
36.5167224948623 72.38706657799142 54.011609406626334
34.695009668919255 74.57088783726779 54.153742344509695
2.802601458616439 39.882747446677016 61.32231140406862
0.8178711282109491 39.72741647574487 60.40869863162673
0.7710506477928967 35.49881024650752 62.22499128257507
13.728784045013617 21.28857684188723 72.77530832521346
12.752338801058858 22.444570860289563 74.23084710168564
11.694305069544559 23.910137471690714 73.34848850236942
11.830898116380764 25.984383531798272 73.97369230970114
4.319786207549064 25.20954485839038 69.69868449885551
3.602554323189902 23.376392300350467 70.3486210479023
4.019912638009194 21.418341314707 69.13415351222625
5.1009246318042 21.008829655999808 66.87927852004994
0.6643910688902498 43.4745964855429 69.79084485111751
5.181429722314471 18.908007464289476 68.57040800293474
7.335962853900271 19.289974332510845 70.01345987246513
9.057664934068672 17.601899758451886 71.02600349440421
5.638877529304324 38.12769379908238 63.23625145115636
4.105463724676465 39.19390534566858 63.48581386095624
1.8115102638871858 37.93191662844661 64.14817869085417
1.3453936281824466 36.041179507780946 65.58708669213412
10.10813987947278 27.04831056381993 72.35054028177989
11.134548797281951 27.275058457184354 70.17857025416431
9.125286159501583 27.19068203031369 68.24412368074256
6.633956844899183 26.461871066980436 68.80208549243793
21.99684045514113 69.63956217813273 54.68374795321225
21.380419460612607 70.37138651011493 56.72649194034139
19.830410904355418 72.4805209273249 57.25996999817125
19.225975807574876 74.31103359423908 55.272991231056196
62.21765758820015 66.89033028427647 45.42045878545853
61.495780494227525 67.79679773604755 43.16073109776411
63.799977527757484 67.2145577173393 41.545070272737
65.13465913536191 65.48017268409389 41.904019905737975
21.59074101605647 66.85944290850526 54.440270612773396
19.917458124456527 65.90022275227342 55.668534267482556
19.919112442117516 66.26850529151295 57.85853543375106
21.474802923183322 65.99983231690774 59.558851390350156
29.573592846121013 54.32684371030593 65.15582731782429
29.606586940877783 51.83528829387364 64.34167294546072
29.45188522231726 50.46704880283099 66.28420007291977
30.218262267865253 51.04386083155167 68.86118553301797
14.131070131782442 75.18670704724506 60.90876749466427
15.368598792642775 73.14757002902041 60.96931262405227
16.356196551285592 72.0104101850739 63.18492932763329
17.331418624839962 73.67168891033045 64.07871965380312
61.29079517509817 34.49357670094213 27.75937651749175
60.41810493975333 32.62470300975682 26.14128277631208
60.302475283152894 30.31100602149406 27.040831540309743
59.1227631072692 29.45058576682916 28.601258639822674
26.52983668682546 57.416995073614146 65.51049329008781
25.263762218131042 56.01714461920644 66.12489013042978
25.670992188630713 53.63974376025607 66.0512593903292
26.68531567836623 52.05045418870738 64.29379448697422
39.205752949572265 66.51803753766279 74.28579068956299
40.122909518839315 67.97441311443164 75.97810682977267
42.20972488860192 69.84343400993997 75.32174856647971
43.63407481233128 70.12240499184632 73.67619005010381
14.33530894283855 69.17617417903533 65.50362530700119
15.903412456512559 69.1555755608265 63.63940520145009
18.269171610471464 69.74667179691673 64.18392550834675
19.880937643499124 68.52708330061469 65.80782206060535
30.600231733019378 57.184110084950646 67.61926470559469
30.307717664003636 55.00865514615222 68.14527314223595
27.895950097742688 54.162236450292205 68.17390673659841
26.02974394539085 55.34562686665692 68.47949886988404
48.19765012779583 72.4002733710655 75.30969054082584
46.22516980258811 72.32301737907899 74.26955627016083
43.99782630410572 72.72518079189706 75.58183790177648
43.644855766706364 72.11913615741162 78.09001776295113
41.455455294488615 79.35792735697552 78.96079530960465
39.309936543427426 78.01509044089215 78.41350468791676
39.00099370152501 77.15384839847142 76.33113598467592
40.31506476205655 77.93418487573894 74.07983393461122
38.13630353962326 71.00923691013658 71.3599447533073
40.49387632287214 70.17793705371479 70.84427882101917
41.914455637456676 70.15922076511468 68.92239976117156
41.85793000173859 70.62860417640073 66.49349120029261
41.69400307369499 74.8083553001703 71.2647590909476
41.095139335190424 72.57931495974141 71.32889046013317
39.55542467585234 72.14789274937627 73.89803752694576
39.00954525378895 73.49630467727242 75.3140579277744
35.83287571682782 72.67195434720406 79.18019807605717
37.67416297683673 72.66418338642367 78.09036524356495
38.58378435928315 70.77699924244048 76.47885272984433
37.73649065116109 69.23740240514444 75.2504568020645
42.95479697057732 73.49038505912897 48.735535477072105
43.35321332351018 71.86089778008767 50.396947176545915
40.76603981156775 71.08750355992494 51.663113993905924
38.78999383364125 72.52811220662966 51.35770806593103
37.52487836565188 19.288801346437612 44.69981925945261
37.85412959999173 21.718706427685206 45.299465278978566
57.196566036447145 29.947572440270203 26.695419136415683
56.48659299252803 28.5114685870885 28.424321463811385
57.037577549864146 25.955374058807763 27.629105091910635
57.49540214299282 25.21287885623723 25.26410897088951
16.487064908835308 41.81920557774178 56.50270540302932
24.91682087433912 74.05548585203886 83.03538132978953
23.606480186306886 72.21108179762177 83.13534051849716
21.19711967303346 72.90287892578158 82.67958188225703
62.846730053760304 29.28780081856377 26.077086235718024
59.221401845090526 24.44039789394913 30.988659136418992
59.24510813097739 25.524864095709393 29.06783104654994
61.12237284050578 27.381760468346666 28.430904775728244
63.183252189246055 27.549621041292678 29.960850810465775
18.785184958093584 39.5671353750257 55.96724977870143
24.936295310740263 67.66993881784421 82.26132217681085
24.47229459572538 68.85456513091285 80.38224096374877
25.35419963304421 71.36372740005781 79.98277636496779
26.99123251839242 72.83915577650315 80.99792880446718
62.96250260946349 24.144870358064782 30.074515644090813
64.40543973342213 25.28574177182127 28.80807152124182
31.05533949247123 48.07325415723717 68.18325530816772
32.84285292451841 48.96319744921612 66.82924474395399
20.21079334671422 63.8856464476057 38.80356395227664
20.00867429221654 66.35342984045053 41.08707642258954
17.915126541488654 65.36297548720907 42.5736560377108
33.29750418109258 82.91669340133924 39.17133525465899
32.64838492105662 84.85452800350002 39.9635733783606
30.777233653514916 81.53709207204413 36.60056533491829
31.108750863975317 83.4490301850884 37.71243007197676
29.424052666786817 84.27725680525684 39.7662101971821
60.40271568100709 75.58782927438784 83.20653932506984
60.45492078604261 76.95805854754614 80.98415467820779
61.33325786947118 79.32826786164843 81.29358845003695
62.04445070738941 80.38852111208013 83.72412764561227
43.801017054679484 65.14468784600531 34.56541035467199
44.29694615855457 64.79233471972604 32.55155899183731
43.16343581973258 63.5046183380559 30.30159951198722
41.56115378449445 61.930863480376324 30.197589253169358
62.24164415900707 70.45948937048355 82.21414891801437
62.83290264761357 72.2324963195114 82.46198380594178
62.579125034467 74.96684678204511 81.3073326287407
61.764041001356816 75.18662177858114 78.95757809770281
39.45198755257062 29.89549951011107 8.746369091981192
39.12862271548756 27.303584124118114 8.173727007258293
20.80521196062617 65.50137333013541 62.195714835190095
21.14377801614065 67.4756166094161 63.19028680781199
22.905181569829193 68.3486504151926 65.23689066957618
24.92577529246261 68.60990826846209 64.04503999751968
63.69683411153155 80.39192161543052 80.83366624810465
64.65981823042584 79.42481990314296 82.38135611902094
65.90734054944069 76.81990366707926 82.481813874996
65.67235239172791 75.23865445557983 80.67117041171133
17.513123802881797 65.07447259524017 57.58118125231537
16.483236619397754 66.93777210427854 58.68550502489806
17.033539309007036 67.03652983629105 61.68842697317723
17.98602286603638 65.39586691331601 62.79477288381613
19.383641058626644 71.27275360877275 67.63790511404183
19.02713785448684 71.95282149458525 65.3680680059092
20.853684620966156 71.33493469417179 63.71086905520484
23.297587566664756 70.89484773791303 64.26278362786873
21.209756763017257 72.69188980053816 61.55644266285547
20.411999163186746 71.90982876548318 59.825782009751876
21.17110060132771 69.225685621149 59.15995740824555
22.684471396134708 68.0574256881828 60.51032560437769
17.00102990844084 72.53979674494644 57.44066700169801
17.857714460287582 70.58655814797599 57.036798756518664
18.493970593272596 69.19315145089597 59.30538177060456
17.65194125738058 69.47868485337433 61.223893468173074
19.30030269794149 69.74344293011691 52.31439986823838
19.75270646298721 68.6722450937317 53.70238936128148
18.35175529634494 68.33926646919885 55.800200641792784
15.857004331072172 67.82563365643018 55.97500784540785
2.6481552144499854 82.18654341634566 46.95511438571957
3.666545006591277 81.47984848505241 45.13260380183379
6.0788630146340035 80.71707180492963 44.98300709145721
31.282988118847577 53.734581793006335 47.636668410179055
8.579250706437465 80.48394125661656 43.24245409351537
6.154204496385641 81.23632772148962 42.13889202796301
5.664336189835245 82.45889124351038 40.1322865628847
5.973607296992223 76.59996622394182 49.565571178652064
4.718384768918336 80.69435001981813 49.123560635583914
2.1899872537928604 79.80778215022022 48.97956851658579
8.622847454433773 77.72303202018878 42.38115784475816
7.639670099189441 75.65416228430733 43.76508969836018
6.771017499397257 76.89055550843611 46.03401265250754
7.155613458135352 78.95803521057906 46.76727858284649
4.308149250402542 76.70884329065808 47.38860807843762
2.441219187474928 78.0652263849728 46.915494253392616
2.4556161102439966 78.9345599876215 44.65858593336343
2.4930677965839796 77.86991963665925 42.486701586206905
64.38430539491627 78.07155240579178 84.86455404935495
63.0852933793117 75.79718944692534 84.06437204957143
35.710187185252224 49.41966319187093 84.44833513433949
37.151695941906496 36.89631336798517 12.85738076779929
38.30117465162747 32.893457468321124 11.689499772638241
39.92789894827224 32.81872331189426 10.307216117073294
41.09910645004051 25.331487429085726 16.206367331151394
40.597236912038085 27.453150345533327 14.8147900779562
38.111869471689594 28.186266373614345 15.883166135025759
33.55181798304715 32.9260699902469 15.216710412200303
35.01917809511685 31.662300088736927 13.404254890945424
35.63642771723005 29.189924555519227 12.905309143926363
31.997713341472444 19.39107815302136 83.57694910328583
2.7676845544564324 2.7936368336839204 0.609384934111077
0.6520429273308037 3.1751488495045437 0.5112277496964919
0.8493138387331934 5.785948713553023 4.508497564305952
46.00533069121063 8.173917309249209 57.55652299652822
47.98562106597081 7.260599541484064 56.53409261127726
48.140232224077565 4.7101008738950165 56.086698393342026
47.51430930752599 2.9592676737756305 57.260078385999805
5.441688208364747 56.83972629827691 64.58379957678576
66.2655363350364 29.355524951506727 46.439574637058406
67.80020088572013 31.07022882359834 47.561920160693255
68.02999020625458 31.889707518590775 49.80298314314119
44.38471306121569 0.7214065233128747 48.56784150376633
44.92224228408722 1.4289696938757157 50.548659521612436
43.13814646780673 2.817044235659057 52.35666224406112
41.68886484762669 4.26521092992598 52.05057284071474
48.86641467236076 16.13603642268801 34.33259675863464
50.430237865969474 15.399964116284034 35.660631297627354
52.86095241894044 15.680345525499343 35.20300411532312
53.99042965106499 16.56433978602009 33.09505268173406
28.311828756527348 74.8830226218182 17.798763603012265
51.71597592012727 22.86625132034785 32.11592633506731
53.19374762803594 21.3832669683802 31.61021238908827
52.51240482133971 18.878414884708885 32.70206940672491
50.040754450859765 18.580506997184088 33.541633654361306
50.46507800813435 22.56873111647967 34.481458550084255
50.71009974601224 20.461690230572597 35.61298331851341
53.0198224760294 19.55406389639599 35.445195799587665
55.285849381437856 20.53948847551075 35.89545837299469
26.867477672574964 41.37258905182212 77.15089631377012
26.729225189113766 39.41697059813042 76.91138131211629
24.532163061447644 38.25977603933997 77.52819906566154
23.195247589359656 38.290985476945174 79.64050838416428
66.52489330268688 51.53662473372111 30.88545315424935
68.37150603146029 51.24852798338265 29.43892897012038
70.66485022844464 52.37918621879332 28.995120006725685
71.74255648829754 54.14754171568136 30.250898041891762
76.36351921654878 54.72910415400781 26.433085315289084
76.55231635899418 53.056923991355276 27.94314688987663
75.33794700509068 52.46834253354578 30.247168043071625
73.98035647240329 51.314575881551335 29.646378623173163
65.5118996577534 48.971369231474185 30.08373758496551
65.59588751873669 48.488529024818064 32.10604223445972
64.20690517939097 49.74272886343986 34.12958444166339
62.68028395377381 51.328344714035424 33.88381034800491
79.80442350130542 56.91909491860004 55.6738040645287
78.56859950756593 55.214650898544946 54.64973384125213
79.59607966182033 52.8134591437455 54.671356698224784
80.06432864142731 51.890348373348935 56.67250572849981
72.91513885048245 48.64703698528744 28.84676028634855
71.4841459128816 49.87896624934121 29.79202880217468
69.83173555435923 49.4850827945555 31.35579881222768
68.27497106913196 47.60206424393932 31.542636425054727
72.74600718037517 51.94154901314616 32.108122834184854
72.39731616777122 49.719861879322664 32.66965746176113
74.73846357965988 48.02216147363345 32.46550114618316
76.87831719764162 48.57178072095634 32.116242737997126
39.15330764915975 3.5321808102175316 52.32227895791038
40.089104775286465 1.900128672922418 53.09378620518584
46.90112889080695 0.3335201986740271 54.35835250215736
48.821594671557726 1.9495268245056747 55.18139332321409
2.6072591847782225 60.67527143486427 69.87280121917145
4.408830378693109 61.04927962651431 68.69879386806737
6.869229103688114 62.06264258966554 69.63827940681543
7.467781696335969 63.00728966429016 71.40400902474009
2.777533862444629 54.999013458348486 70.98939904127712
2.340709746411059 56.9683670641687 69.33912343792403
4.6814011903814805 58.08829139108082 68.3238582269748
6.074051765729986 58.73559231631349 70.04522038611114
67.99424527439278 36.8641172710793 50.91921420796565
69.29662381571131 36.191204615249205 53.09471416986221
70.79202408610878 33.85055782043661 52.177816492578664
71.1205945810503 33.15141461627095 50.491585349427524
57.603936421525326 20.410574025975013 37.15354198502302
56.14550800701436 20.62116167698071 39.402298380261605
68.96947593585296 31.92626017210805 42.17040978620798
68.1047273491218 32.42944350587247 44.132215197928915
66.01965899499747 32.251061778900834 45.16005069096709
63.74157094988708 31.346680714842254 44.065820637822746
9.660578118018572 61.30874702446696 74.09282978080621
8.29338659873852 60.7511849152601 72.75827550242613
8.596948840661396 60.10729089044738 70.13439191819097
10.740101865463606 59.612829670695184 68.9084187130907
79.14178243283176 52.37846328690835 26.277468961541665
80.12032628334003 51.1325618729078 28.00114607359158
78.700616937366 49.77602550950555 29.85790556629284
76.19241245120308 49.61141881844191 29.682044048759778
18.4181600235316 36.94417266688431 81.12272936116962
19.244823717527197 36.6212962093655 79.35145433519953
18.30339382644276 35.30514396491907 77.45010462278655
16.75286280791088 33.34365531970174 77.34681383379036
84.44153759844593 51.91061351764758 57.46168265314128
82.36740911564745 51.1557083572157 55.66277528507645
82.39438145698055 48.70035684115907 54.622599393591905
23.085528332495162 64.86632250989966 1.3709010708592217
79.49640987474619 44.51997884073873 58.695242757098136
78.13980220880525 43.489897770099844 57.00346244778836
76.52017387477957 41.87890156444004 56.83384918431753
74.87846395695102 45.63590896812704 54.47026463927948
74.13582133628898 47.945677114513785 54.15267258320173
75.47730437225086 49.40196578617654 52.232288360821315
76.43384248332353 48.58463667855856 50.282119096586456
82.87215512830316 56.24678239197511 54.713926122653504
83.41616809506513 53.89162857054751 54.966044955886325
84.21827803429768 52.74444929417548 52.854760896598265
84.67295084131274 53.77411040614366 50.263271812501415
29.10315643663392 57.031772186093775 3.9123821960013117
55.09113715709135 83.98434311573004 55.66233060023906
8.745971675722702 17.197799500768813 75.38072057253683
7.299617093360485 17.913484598283983 73.20675988777944
51.99157060302545 64.54357079672688 26.825941352146867
52.54730387120363 65.77083904108358 25.18840412895128
53.414047459635434 68.07714581380532 25.670497643097246
54.917031926232006 69.03230726446044 27.111199521147388
0.6260087817442918 38.43245439148169 82.87849169498996
29.696941352706023 17.12916045861854 27.866653266249443
28.568606668416177 19.224182931846634 27.436930392795798
30.245801230165508 21.32691800109655 28.445767931227994
32.637817717885305 20.755857392304875 28.99362496525452
43.25334525268376 5.670908219676042 31.48857807137553
43.18098083825576 5.851075174315741 33.85344394638133
43.62620307212571 3.4276524986941976 35.140170163045624
43.57696080207204 1.0452650870891784 33.96108328979012
35.71529424973172 14.370148402646207 26.637190715187742
33.987631624664665 14.679689044285057 25.706393446392365
31.844964668921037 15.56860001485867 27.315192541097886
32.83790235286737 16.14651869676199 29.763526435071967
48.21735493264431 2.9798391634658135 37.59248374567033
46.83898093297208 2.1653327969544067 35.63247382695257
46.41376282820992 0.2188621702930389 34.62084309573003
31.617235193588545 26.555185004607374 22.565193542584307
31.605229240057334 24.91559409113356 24.203201935198816
32.35082690840203 22.403544121627565 24.311184065487073
32.6150054992429 20.922787784853618 22.231879566089596
38.766340088137056 16.52977961029636 29.603796851084045
36.56862446964929 16.079730428032548 28.579726943013856
34.894463507770396 18.147315116020952 28.5132021620415
35.486891006572435 20.51481986734733 29.618635592076057
52.38189785177119 54.26826624025431 10.815674490092668
54.33563903764442 53.56877353128291 9.92264025300778
56.735974298750534 54.919273301042494 10.01815272454955
57.077317033540915 57.07757213481766 10.559631240968448
55.873529940838566 42.430344718152114 16.229775436072277
54.45342853115356 44.62587686836154 16.806484830696494
55.05671501354066 46.815384762062386 15.351891712902367
57.21059225478263 47.50120339268944 14.30630492130836
22.338829616378355 67.1459959687298 80.48506654991782
20.57581592696315 66.4410174455729 81.61912874842483
21.26040832768558 65.89412630301186 83.94530191930379
22.947042477564427 64.84019767124941 84.9810821119979
53.83150468061008 51.87369162709258 7.720548084813984
56.07678468666317 51.24356270883738 8.926777003848622
56.12451710898368 48.73310599043727 9.511525498136185
54.94029192585457 46.905933954053616 8.53107094925669
62.1942105507061 46.66435273181236 38.05684386880329
60.91120188721573 47.34178672859497 39.96958051660787
59.08185433351059 46.19327234253074 41.25451073318338
56.99295337330075 46.46361524568468 40.417285882009125
22.57499204540546 1.6807658725556973 43.81954247317868
23.700019964199583 0.1858417617106035 42.857953570312645
25.01695593110375 1.3126013205835854 38.537979873617886
60.720679193323676 23.015899095508214 28.742550393861663
20.191297965596117 70.28960852735555 83.95842745749786
61.123200400833156 26.500249434319343 25.913660459164916
82.13182509831057 44.660855549977654 31.599767017789805
82.69318421271007 46.68123225721397 30.920432151163624
80.54394020417554 47.83252460168068 29.321420863604526
78.98738442029054 46.40399777981454 27.675378652682856
49.21148876188946 48.634783703740936 7.784551169712104
51.559692252371875 48.80335157239918 8.176385656290588
52.83807522783563 47.26867429984302 10.326791281354424
52.33258268975802 45.42331948483319 11.134051173963863
67.19397629881088 34.09060137308808 25.263548667647743
65.44833909265253 32.34707704607665 26.249777948313113
63.03565613845657 32.26878035090935 24.93103322570604
63.11886290640152 32.930922034613296 22.380100219273434
28.20480747177358 3.437154840786591 34.88352698293597
26.752570153539878 2.4002595206825488 36.407101151165854
28.02087371101455 0.47459156691192805 37.72519385385218
81.9200373707047 52.23629910229507 34.66307721709982
79.66804865980932 51.58541996513203 34.28566096167439
78.2316449286409 52.01212081899758 31.978658476111665
78.49211306315284 53.59529934325251 30.253433285279144
84.58017638002708 54.02036013063752 26.735956064238216
83.40319954252887 53.37658473551242 28.387714813085516
80.62582337528882 53.6636471311316 28.456078055617663
79.14739915879645 55.37797033988121 26.896764667438564
76.70494484631367 45.61371469945344 34.477014816057924
78.64772215628051 46.38752057567518 33.2438416252865
80.55212646995703 48.3535065467755 34.024572361488936
81.17485105900913 48.50705604667722 36.38538755545861
29.73885354836273 3.866835080454822 43.14802497366849
29.120848295026736 2.0885977429555815 42.18223398167461
27.247236384628383 1.9931543193756838 40.37742056065218
26.793180439897206 3.886666584467933 38.7183951595324
83.46077793570666 48.72091250664723 34.73204136965921
82.59892550781089 46.612171791237614 33.58345184415049
46.16306550328496 33.419061156022174 35.79978683160997
46.2382224617351 32.56281779574916 37.69044774121008
45.48357372001274 34.29351640065822 39.414782399999766
46.646337138025736 35.753783686487196 40.75147842362768
0.6694334377336575 38.61314958315453 69.0047966494346
25.25283121837698 19.202313160521644 22.758928384992416
26.664400962275938 17.92557354912068 22.238874923021505
28.594417381435854 16.51639129824443 23.771365210527893
28.318705349668623 15.88670704617332 26.06535615489846
71.48808456759735 31.346234139519964 44.10019043794991
71.39446226506018 31.084425862238298 46.14934044099894
70.41434484143086 32.61375324433958 47.83845574014355
69.75023884573142 35.296850919168364 47.18249163040019
51.48456811313786 51.527721093462354 15.613653751077804
52.17247937854821 52.78385278193908 13.844870796837586
52.809459072559754 55.152637899163885 13.274644429749051
52.31420543502398 57.245937416084374 14.30443627323027
0.185305483899993 42.62261118066012 60.00722166013039
69.58138407770116 29.126950819397475 40.78119702672256
68.02040382345373 29.149912049201628 42.132955533262574
68.25995774155933 29.549670272088942 44.56270076919784
70.08348887242704 28.84495427227121 46.096091512542735
55.131617816875966 45.79458342208268 45.74386864621213
57.298440048180474 45.22347228288942 45.4814902827733
58.21423696781432 44.19265604973332 43.05217548439153
56.67237189794395 43.78361918064834 41.03954651844399
2.0410469305588386 41.17634828393155 63.720484595500984
0.8188219018778791 40.11951627176637 65.00922985106472
52.81137952006067 49.047790421040176 51.3927756575523
53.49913453886362 50.42842712855605 49.67294555724847
54.94047298891031 49.33420573286313 47.755725064934175
56.341589133580044 47.44797765722323 47.537004732734744
1.7002711087585538 57.03736873939851 64.40473936258863
3.277130467583184 57.64490587501591 65.98532803995252
63.927232778423765 31.246903008744795 48.52902322159432
63.18045805121903 33.137381433366905 46.710697758904764
56.70149734098292 51.507378359741615 49.10153129818604
57.34168037035962 50.55312396728071 47.438633134594525
56.93306486975024 51.4618517596903 45.038747364227326
56.89443896651044 53.622740760419425 44.01461883023534
52.13602505647379 55.72932378953395 47.96386470652049
54.39497625039215 54.54011872729478 47.448877724091666
54.352808174529954 53.76963249232154 44.94958080661296
54.64836401425459 55.55718538350042 43.41780653996957
0.7574848264427217 56.5816576999825 61.72471447039091
61.96218798749148 29.238780638831127 44.76438967218289
64.20007871113785 28.893157252597163 44.68756618556515
65.71353657689308 27.470220969946894 42.90730467426702
27.357537101354804 76.14471417932373 80.89836302060073
25.164635962898334 76.62616936166428 82.05948378340216
23.239668761942443 75.85907954704409 81.20576428313045
22.00007074961952 76.40412698635001 79.5269241128787
30.391646513839298 44.603226746726946 24.370182203003235
31.743240708656202 44.38109384177051 22.611117347758334
33.58286065147443 45.897193969668976 22.903572994500834
34.98638652357248 46.39116445816452 24.866747704301314
49.90516163296756 49.62963446746076 14.761689056173148
51.43301812487833 49.012000375977706 13.42093987600664
52.41485850285453 49.95038282586013 11.029309382261019
51.98384915956628 51.26812243866667 9.656449083328823
37.37806965267209 52.8138777290503 3.760710917102392
39.08482559439363 52.748367615161335 4.828456917614278
36.25421313378781 17.188666981148444 25.481939666835913
35.60877006115892 19.298096247542215 25.99052590159488
33.12828593647089 19.971971973161153 25.97744281283783
31.2611125162015 18.344617934216643 24.83939123604272
17.120227555423632 75.90208107202854 57.68050883375373
16.954999690266543 74.7090573062111 59.38468536237741
18.23484895772026 73.96478984548273 61.333710220588074
19.46488277993784 74.8420843007025 62.764228116770695
41.76129421812848 29.932060140835663 14.086194203801838
40.08024013989361 31.258360062870487 12.939579489061714
38.231333830027296 29.78328945334737 11.80042436337935
38.68248366159502 27.261705047583625 11.092777565953943
30.179606024961757 46.786024399493776 25.933252012207895
30.813407735277163 47.594632557309815 28.194877468000257
40.75500346300437 30.943007350908754 16.676173681830353
38.62978220820108 30.868725292780983 15.413937229533653
37.21808805605629 32.373989447260385 14.290723658463449
36.224085343627934 34.155732801580825 14.73772631028932
58.283655956671865 51.69020769799861 16.26900462533094
57.251769253486174 50.29245933638026 15.196996746063684
54.711948617459655 49.56415451979323 15.232045037780228
53.040640082743906 49.83026135687581 16.92625974884374
55.66635984739695 39.98213345353119 15.231796462640865
55.222395075222344 41.75226256371075 13.668584792462346
52.51023421179022 42.91283670661355 13.98308731200289
50.80050651384174 41.99138938741659 14.867980334124205
58.62399263984743 52.44214004043781 13.771463266534916
57.06587911077976 53.71593482249461 12.580867553900267
54.595050733444054 52.26131784621886 12.617339896909527
54.48552332925212 49.80125342024303 12.783970162125216
32.81122031973329 46.28893762646026 20.200023271618143
55.88137780142301 41.97911624877443 10.824927217733899
54.26766737745994 43.48675432557524 11.25321251290345
55.10192509606269 45.803802703590335 12.100645176622074
56.94041558706762 46.8673781700163 11.711796414747328
58.40641432326884 55.16316998763733 17.284714370774566
57.764472092549696 54.17643333200062 15.581119271836041
55.4533028629046 55.213203822373465 14.08869198457724
55.3386039069387 57.047568063215984 13.244870390191203
29.98038710900709 57.747468694813186 0.4720151961268869
31.42944242738258 57.98992299408531 2.891978806128044
32.53311094405677 55.52803302663023 3.110733985996981
33.23930857906465 54.15845704151551 1.8684347624001298
44.775221444917484 35.653488606012814 34.64562624833738
44.167882556589554 35.050492952676564 36.76293952026334
41.74251154403799 33.824939283378754 36.93483346738246
40.12283655264213 33.828961380151576 35.06099924970208
39.17294465392157 55.353700091607834 6.888314335296552
76.68751492310679 43.45536885613107 53.663624457515304
77.42767037191152 45.371842128684854 54.066136673555334
79.92116938321945 46.670758045447585 54.45346904775753
81.99061532950388 45.78484506619731 54.79215074457773
38.80218783032164 33.24075661641656 37.52549664023532
37.732741754441676 45.44367319341022 24.226336742653082
38.49518200070828 47.02230813133683 22.5650089956523
37.2334318126388 47.774373841254985 20.961354641740304
35.31096763925621 46.79571404142027 19.53892044228294
38.662980616112655 51.48467161115835 50.759025506613874
38.153648312791695 52.46846790010714 52.67521535391909
43.26920353427848 29.895223116897963 34.107198265602136
44.614594205374374 31.412720283193845 34.97972207203801
43.870937374642565 32.25758907992443 37.26777847647981
21.464250069380004 73.9539108202812 79.18400214975023
22.951646795429312 72.53653642985192 80.36460330468783
22.00383759705033 69.90763543528678 81.40709210147755
19.77640995885255 68.98185776317804 80.98037658102405
34.85783396264372 49.334340730487305 22.524341257666677
32.86384756933828 48.64090207924285 22.55206342203283
30.909501573419906 48.79748153608487 24.243373303822235
30.71193396238764 50.48951831169454 26.227182724856483
43.97421119763656 36.73284915295955 40.77852521033178
27.638865876491444 17.239434058076338 44.82975869111746
34.87575923975776 16.21233225952182 46.065603052164256
33.153166116548704 17.13125914679353 45.67998804213447
14.513598061400858 12.936602406399722 35.22368976910528
14.226760520001953 13.351794168911418 32.92108463083768
12.40588049128677 11.964404997763532 31.55060265264571
11.096069178470097 9.877198054729394 32.68524657557774
45.47925744695629 6.358743493871342 54.39310546215032
44.82556303272717 4.9060804847865045 53.313840345139624
46.268409234103146 2.6804158399470754 52.6297811274157
48.638405744978066 2.5083831287875173 52.716805070020314
61.04012697177666 21.828250812856886 54.360944772813845
61.030402694229835 21.61087749111868 57.40563388959105
42.804817589175975 23.145350752038098 45.63918166947994
41.40700059409282 22.284360747820653 46.896294855760765
39.869242750774795 20.388114433954556 46.34413812481959
40.259897896907916 18.217262972192376 45.14644675076301
64.86734408244736 57.19752403526275 63.57425168175378
61.70404772917762 19.20132857283566 53.57418661154668
60.857779886397964 17.444714040055842 54.22394305981334
59.51479627769524 17.320073391779687 56.32341068951832
59.84540225875441 17.995193739709965 58.41001744918502
58.61465878720201 22.327699347009037 52.40758798207091
57.37653661782175 20.61523048123688 52.52655694703868
58.433919797255435 18.240352987907475 52.353669934534
60.9766966856441 17.871493209428895 51.299439941584616
15.407241605275566 41.96129761905749 79.59021527915714
17.304850407503135 42.89996664129805 78.91269995943023
19.970680676414368 42.09659132155397 78.45888111388996
21.01547359853513 40.09939980497865 79.04954425049235
56.705666725418354 22.929417421152028 54.30553933628501
58.888954315623934 18.538757075956816 35.42232616613171
56.572015082494126 18.306278089654477 35.458446013375
55.932868738844284 15.571892350948122 34.94541502485461
57.339943858176916 14.07121464397896 33.750013165908385
54.11450168156611 54.29759737850923 78.09685109422529
56.005446035662835 54.09283243855099 78.93864571692072
58.32728954338577 52.64992002420538 78.78877647945325
59.09766933721305 51.238939165507034 77.34159031882976
3.243404549224924 5.884171193502825 0.7987927776460808
67.21192697149557 67.4054570316911 47.06174022022916
65.4230801703445 67.72978981153771 45.79374251607374
3.433631232274565 68.76691171236926 24.80179755163163
2.1386579979160625 70.1642019505035 24.015009600090806
58.363144938155536 49.484232988704996 80.59514032745905
60.08715032727575 48.98575127554055 78.59293290291637
69.55781940660162 71.12137286005405 45.58741821772751
26.12343822005759 2.479074653083805 66.4539737614805
77.78038204206796 46.76430842541386 58.0072217773811
76.76349424868452 47.25637537842173 55.96626564420654
77.28518452179348 49.480230811964304 54.82414896901297
77.53076103890432 51.8367329803863 55.725848554784235
32.62854933240272 16.284794874818584 42.959113778774054
30.75731218130695 16.74309755275114 44.26421115959363
75.9650205463439 51.10404535056944 49.36925214681329
77.26979574026981 53.1114118899579 49.78507409202209
77.28041764978494 54.16490180444016 52.14208578838049
76.26701702344134 53.846260661193774 54.046618991270186
66.05747104353208 68.6588724773966 69.78423115115135
67.30900960955495 69.76219940575729 67.83930602387198
41.69889632912496 8.790924025207095 55.630655505123244
43.79938702122448 7.370050949181505 56.465595534975705
43.74889286551158 4.725831218554279 56.239460861045345
41.794765344449814 3.777956938443801 55.02165781159693
69.64996324262444 75.70759394728033 65.0075096262583
42.20792940308539 1.7656352465452911 74.82949329951704
42.04448970981003 4.056329010555396 73.4499751979532
41.280196023915494 4.513233179889773 71.30550387803203
60.78953867353366 70.34411105659362 61.78824745248438
47.654350758278945 2.689797648982241 76.59773525947352
44.95699837108139 3.240605031981182 76.77787276631724
49.012737584136744 1.1809862381139415 72.7874351662519
51.94591738666678 18.213694615900636 37.38186465033109
53.84790593331231 18.829113264171323 38.41739678390625
55.855305841637346 17.562142560581606 38.10908143048457
56.207595562740636 15.135056129505445 37.84823380131748
41.47353211678056 53.85181540339795 2.1647412870224825
39.16875051534833 54.87022651389014 2.9168431232214242
39.32248068645871 57.3581704838724 4.509535781585244
62.60312241341275 53.857438555309656 67.00749946528722
62.40787579305617 54.882185241924034 65.3302936545462
27.514645790506993 78.54748242843455 11.375412832624413
27.084975340892335 80.07991060646302 13.487066320099112
22.708787087027137 78.37982433515948 13.695803252587403
52.723310917748485 12.090532376628486 35.87252584858746
54.1548375088022 13.348475279608465 35.02077758319876
54.83182976398257 13.469562984653061 32.4855867385417
26.92676617991064 75.68636926739198 12.484386294732316
26.425423223665064 75.52628090887018 14.57629985690738
26.419328450741318 73.60745526646748 16.323465227188407
3.988196689917938 69.89719928010919 28.689824414391534
2.2105194896532705 69.37191268076694 27.21932956259863
1.1617811805868559 71.9354285542161 25.813118064317987
2.0318415547885915 74.0279384127928 26.55317041679585
54.88311445841699 58.315794776620365 81.49570065654879
55.4671127035286 56.23405573315171 80.28603973011522
58.04030181030796 55.482412346651614 80.64971166246595
59.93943339000868 56.75222092656157 80.94982872740611
55.870677572427425 53.96018004138294 82.28267288725789
57.586758116569285 52.24949668113939 81.44411134805192
53.91828674291338 56.36854519455449 83.42502219600381
53.039312807112424 55.105855945913774 81.81745228650666
13.819064234816503 62.73469680480689 33.096647611543645
82.07932944913145 57.55742915311761 52.06095969308498
80.65083785283792 55.991620118844736 52.875230180968
80.06840985237552 54.093990678463506 51.44979210987843
79.85791922235903 53.471423500521354 49.41337549103899
11.414169309543178 14.311367040056407 29.49973205686372
42.19027541496746 0.2375907260230255 53.76990971425018
44.44334154376678 1.5824259070862126 54.53836702121106
44.8780361837623 2.3968859740583905 56.681287437001714
12.030453852505705 16.620593740190415 31.031525884615448
12.60168962416801 15.124962204535993 32.052344296806254
12.23072931507566 14.924593400484138 34.83024890456875
12.01098854448474 16.775265091345624 36.27651166093911
37.66004082919584 51.45077027325651 28.88401718221028
36.561189639828164 49.822468412862165 28.718995474411546
35.61530310489585 48.79720685252631 26.26298302606405
36.85674675258503 48.789612047626036 24.12295369237691
35.59002106189663 62.17097341399971 53.07671619046103
36.12029634136855 64.45978576684874 54.2768007527889
34.86169101607544 66.86969060635131 53.28952722343426
33.04123208142748 67.09744981214315 51.729741502988375
60.88604474375099 20.766560700900804 60.051553086848614
58.80104005841129 19.84077039741689 60.241686367782094
14.487995768435914 13.413722340563712 29.18231875238774
15.905259337268028 11.936662163146256 30.402579275103914
24.963767972842827 2.157643011907102 45.797697459611335
25.64093159073799 2.134245056214795 43.53614832387584
27.201857165199403 0.27709916472031476 42.801193372054904
36.341340816518375 18.349363924127548 48.763698127415545
37.36431819750769 16.794532838071884 47.43017737574436
28.25852442102722 20.12786134065451 21.522397953146832
29.932096368058566 20.32278749118355 22.850245727950547
29.90634913353398 21.254595207788945 25.585082281696312
28.957736867993518 22.94161083947719 26.294568140880177
47.76212056314683 67.86086971157997 21.87581101220233
49.63737308648099 68.01195959740545 22.697345727326944
50.41176270527641 67.51456741337334 25.130718014687076
49.06955063596304 65.99889175033896 26.83146270155144
73.13491793660813 46.18784397062209 30.894156770280976
74.79126405401409 46.90615821321904 30.040961656930257
77.52163139959238 46.33247876988211 29.854530175357308
78.86583762684735 44.62306181486357 31.229100325420546
45.1432320312872 63.37888576963326 36.824198053022684
46.1804620889573 65.24129247080204 36.32017653386741
48.06009680740429 65.42827411559178 34.2043600330532
49.0859478726983 63.59101091431333 32.852254845801106
58.040393857526325 51.349422679946294 38.392159178698044
57.742704065033266 50.29742983076015 36.39342688492871
59.77610663671441 48.72265119976633 35.5100362594602
62.13770542820349 48.78994429784156 36.27369111063331
52.38106807105732 73.58572710961667 24.75348888816416
51.80278094036455 71.95164812009156 25.878784739518267
49.66516292971032 70.69661591114964 25.35857409733661
48.15807077019725 70.67376658079753 23.308864191034694
29.488093006921417 50.11790439368898 62.1680800738962
29.85595519559833 49.0115074653978 64.05323156484266
48.1027518168288 70.47659007613157 29.897150745628007
48.86853757704747 70.44886787293656 27.87582350497053
51.22133076929431 69.08418287808608 27.566573653347604
52.860230300190665 68.52728236506209 29.429883028656224
59.10615119441043 46.8757830118226 44.19757412313093
57.77257304785789 48.319822244358264 44.52687731051056
57.284429310517744 50.12507762370484 42.756029768173235
58.64070064322351 50.199107024644974 40.58601919889179
71.24687556394197 66.74046565465918 43.82128369943951
69.74469023762786 67.42031493248341 42.653434485803714
66.96347828775856 67.10579312062566 43.26894706633966
66.23130724642826 65.60771437274266 44.678501516806016
39.05034786927426 46.33951622877214 30.917490075298822
36.88008822669404 47.297927556132 30.29274066166005
36.11545100014118 46.49527066636063 27.99489911561292
36.36797737609447 44.459178223932724 26.814368759122075
52.731516935099194 51.95592507661979 44.0567872972658
54.22116187095499 50.56048581507213 45.44957931294008
55.015063488476926 48.19255099938103 44.27831306054643
54.06978820257026 47.07256320963684 42.47422985278311
67.0673325894229 67.21227374244671 40.70299488545931
68.28158634616192 68.90445708465165 40.896127156706015
67.56572057414502 70.63942824139518 42.386148171175186
34.095400783636876 70.95928198955538 56.25826867389665
36.403012847398486 69.75519790918437 55.49036804553447
37.14226562307282 67.29989903549452 55.969487518116054
36.05270119067568 65.33710019893115 56.749482489241096
73.03464719574212 68.65500893156442 44.050548308203425
71.21562539409055 69.97620870705278 43.8163111707661
24.53507720690845 2.7319468233488275 61.71048477056605
24.857587931339477 1.9657105688212126 59.60732626397759
72.43965198394463 67.32668476075482 46.53835527281288
70.26504867036653 67.14137236063118 47.290620725778275
69.33227442558768 69.00538556438194 47.627346487254094
35.70801210465063 70.60847805488524 48.44531480379257
36.93999957175548 70.5882578915202 50.1710682175352
36.36202365830882 70.0750632258215 52.76978623182216
34.185734897737426 69.50482761825344 53.739160493143565
82.34049791818131 51.99160382649814 50.53989637809821
81.73118300649962 51.26622175421823 52.503747896902084
80.04011387684605 49.315153528912056 53.27994250944012
78.84942667088336 47.72131943601301 52.402040420887445
38.21525310247185 63.192399245207504 53.24859798887338
39.77704728615525 64.67554520653799 52.93667078758339
40.054399283040055 66.451914019738 54.99394092242833
38.929452891114124 65.95496801851282 57.43121801842049
33.432202931475814 62.53098488857324 47.754362464711605
34.21169724125775 64.2851942389621 49.14886722948576
34.55163305170154 66.57952875744928 49.18848408550433
35.15743475187569 68.25890307297749 47.096296292771726
29.549357205247233 0.1669926788380999 39.85618252057946
35.208483050767704 50.91248296837974 50.38645241744953
34.43374879786533 52.78287064206259 50.3845506096479
67.59813362762641 36.069336721693816 45.49643309927817
67.289848530961 34.35344722477382 46.54994030170762
67.35464064425166 34.637325317242 49.199576449567445
65.57592138250938 35.45557475385075 50.71050687847048
26.818249602642027 16.372033097939173 19.942439027816995
28.54139589806424 15.234880123796493 21.073556297211272
30.419507259216136 16.176435178350044 22.01167830671527
32.009896774866505 17.617390791105112 21.510541256530047
33.71565249410652 54.225176034483866 46.20891256951171
35.37026505335227 54.32561985284933 47.33997462969953
36.406267617802776 52.36105486038385 48.463822636530786
36.948852647162646 49.854594942503056 47.64944961027618
38.433205413769805 25.394928068505276 23.425754614252245
36.95249320104718 23.67041252669819 23.46670960629793
36.15539414141518 22.092088071247748 25.536720382992403
36.60321477038408 22.44545161359432 27.842975532035304
29.632166402949988 12.827968464504417 20.614399983512026
31.161457029257384 13.898934518235933 21.11288773413825
32.390965441132344 14.298417842330549 23.784861822803226
30.453778733525034 14.541208636496714 24.878946976008855
45.74389217507865 66.9760386394365 33.8445448602317
47.07475017370307 67.10943675948116 32.12987268296828
46.096109820859446 66.69295028872529 29.44489600598835
43.56337451825602 66.81670594949614 28.93262278767285
30.00806798280289 23.51536636509556 30.780206824491213
30.170865719256078 24.692954152832623 28.801950028409216
31.616542853607772 24.09317144874799 26.706511550475554
33.7126039814665 23.77139366553175 26.399890575769586
63.428768079180514 53.34284304670444 61.107592578508466
63.10639951779376 52.52026916382507 63.30074417499474
64.81525890385709 53.173683101294095 65.40464932690932
66.77226614394439 53.93552612557964 65.63642311140961
26.087269177078557 52.954024704774014 70.09298586163051
27.381426917062388 51.349524597953426 69.18741120213673
26.890947472186706 50.02517037574385 67.07210879394088
68.06835369867099 52.57266537147819 68.45348030316069
65.52299678917281 52.973302240558894 67.86607333864302
31.733490670734735 49.58774864710814 71.06373550289277
33.828796167134215 50.46869110441941 71.39609284771775
33.36182737119385 51.21861616711163 74.15743779336711
33.01078570555868 52.808512369082436 72.66629772133605
30.872975284110087 53.7446622245694 71.25925819688729
28.752314636468544 53.05221818368219 70.91869182157615
44.5549462464462 43.409065102178985 81.77366239150756
55.972476065848596 49.449138552093544 38.82323158985892
55.175820529567794 49.4534129716705 41.01297686214268
54.76700763678348 51.91793408310968 42.17386857980044
54.53815873238137 53.96823934123173 41.338549398293765
56.4301978545462 17.315266786811634 55.72267554592258
57.81177416371045 18.95182872104355 54.746781652954795
58.45812935708542 20.863808477805964 55.99387981615036
59.20093047170242 13.516859284671153 65.24195865057308
57.46279212705264 14.348557464159676 63.65676139253967
57.425142567594214 16.73514810857697 63.19548364505677
55.56011526941697 13.050192196098587 60.12022593345895
55.69473168898367 14.588388894560378 57.764562810848155
57.39035393937363 16.820226614795285 58.33282280997253
58.73767281921006 16.754822867630903 60.836909146130104
9.261558240984385 11.38821827994457 34.12896221839143
9.724651968731798 12.244548782270329 32.16382879964419
9.452547577041143 14.906611926696119 31.957444152721674
54.617910855214646 14.321204265930447 62.5485709910268
54.78207174894244 16.491349507209154 63.600575478883016
55.330682261588926 18.68451667732629 59.715136014134764
12.120132064077065 11.798567492515005 39.33076592658766
12.248115984399853 12.240286753549851 36.89090066058634
9.89768380723266 13.51854952943033 35.81627058589243
7.953682263507701 14.583528111583233 37.28800344006826
11.769467716267227 11.29925927119451 28.97116146168987
50.766212061139136 45.21125738080809 18.466648544328134
52.24916900791674 47.17897661703083 17.29024265180122
52.360998764811804 46.79089659969927 14.554674598546548
50.863032616937026 44.84508546661303 13.323960309916098
48.1811710817052 4.522612215415205 74.85387378856308
48.78391430958266 3.8105608280641543 72.15743915603107
32.0671506354064 52.69619719735887 30.625363586434858
33.174565765304536 50.71522408594491 30.71299446654532
33.8714996751426 50.0647580447848 28.394523160178316
34.03907504150793 52.02586171600863 26.440813468102522
10.430081049000059 59.954635684734306 34.647529868998056
11.182948236684908 62.13901339509546 33.71625245677654
12.469643711941044 63.93319571506155 35.28128577718462
12.420530650225139 63.97535293245982 37.73585596635887
43.00430532417904 61.669580319091146 27.58777586518992
44.81862391003884 62.31318272001911 26.3981045304871
45.63892556001994 64.62168687006556 25.771581050641743
44.08275243247427 66.80196256050439 26.44296335874534
60.91899186445156 15.237793394719983 51.18547442650907
61.12542866775336 14.780670181979326 53.35404069069967
59.5511040502072 14.779737997512287 55.28944111667312
57.111736043520246 14.403345710352879 55.31675371378421
45.24242926652618 62.003375666778105 29.382658206271564
46.10969810920543 63.500239834246976 30.463488377700045
48.620123237436864 64.62908779484853 30.435552563228725
50.339035328221684 64.19548871042322 28.915933715979325
23.43098612465789 67.13912236704198 37.12228039711959
24.56708115045586 67.71059257147012 38.959693772067965
32.507894328615414 49.016406170549295 33.17577329982998
34.15328589572135 48.733414735013326 32.11982122189015
34.40905074513666 47.830001663718335 30.007075330158965
33.4379526041471 46.09763362398064 28.741412071089986
