72.90395600288079 13.631922248340727 67.7092907329905
73.28633706257801 11.7094398116708 68.91832019409742
72.1814337533715 10.266642606097047 70.38012820165764
64.94554505692327 16.856949827863545 58.759700275085684
68.15786907987041 30.9212427697168 72.29226161066808
72.54109461323064 8.063534184638254 68.41427526549498
75.88345737306514 7.168674383843085 72.11398152460977
74.10052027311154 11.767527630370594 72.15323657325325
75.61347434150943 9.718136167530478 72.57294186354838
76.7544309288335 8.913058232247634 74.31010068176546
68.99627431845971 27.871152443936296 71.37937522834584
70.74265203673181 28.03381132922227 71.14973581571373
71.88078825320753 29.642293768860522 72.92230955816729
74.9867726959957 27.807433838369658 72.741832109202
80.02171539940497 10.764666278256463 71.72141381016823
79.79206554484173 9.145034493439944 70.39672508488282
79.18174026706352 6.785955165247017 70.66936876595932
78.81923156996052 5.222920919183113 73.046716849516
83.96777411408135 33.50782214768524 34.49924430472893
76.99656844764203 29.754015791223626 75.70727550016265
74.93272332320905 29.77395075280542 75.17465748144357
72.9714600374999 31.629859157740896 75.1948873496016
56.79506516214346 39.555191928680614 68.20014954197033
58.4003307600229 41.14105736411977 67.85177941962951
63.685683399106814 46.15961670227626 81.48435233931137
64.62592503033882 45.11157427550816 83.15038433429243
64.14680487992179 62.139868848567986 78.70655265079557
65.58590057863842 60.50722882556422 79.42524664465753
65.71408742665137 61.665446623689505 84.894625740537
67.76510293915045 61.07829915088682 83.02969075500086
69.31598862369904 62.90057245576777 83.67271703327843
66.0190000090544 43.74414683389131 78.41929100655024
53.33245786245604 48.59665520816687 63.449713460003046
54.92439152862574 47.39733700354078 65.00645458131488
53.562694187738686 46.7418313639847 67.26415006987045
51.62425413857608 47.67147283999375 68.2025597441679
36.50489238192154 54.54609947331426 61.13224162036228
56.34013737771634 42.76430648395969 69.51343910979806
54.423871842802775 43.24555335779281 69.40137669285626
53.74728902534699 43.769269326918604 66.62851945147274
54.81336609675096 44.69773058555927 65.25811360674115
50.79084609159846 45.626716518474865 62.09176005141217
51.02561624817075 43.66811118679745 63.549172062390255
53.13310341035569 42.37794144130308 64.46256495281278
39.64552149699036 54.78835368095005 81.01186278130888
41.187573311172144 53.23098465918248 80.48367367509998
43.01282482881834 53.41491104503462 78.30316135762399
42.94236851899007 55.6294331051888 76.57157781540944
51.994183547030964 69.1491087629494 67.28446787492409
27.390993252617676 68.7661655163859 77.15431253277215
28.705048514864423 69.33847492996146 78.78953919437487
28.667015791941456 71.43680732937686 80.5737501735891
27.757374099217444 72.97568707313735 80.96903315433596
46.916280373604586 58.320665087739485 78.02545170314183
45.16811764106325 56.9661786739148 77.96346636045295
45.51870754837845 54.7611818659342 78.7256180641424
47.68359994347965 53.16854891626851 78.50319693975966
48.770009071929024 57.09192511111113 84.56998316418617
46.727945989243395 55.78510477262992 84.53543650342363
61.87558584819946 62.840870291436055 82.09975977388395
63.567880209461315 62.18372226098291 82.93448719526204
65.09067391289311 60.21154955772855 82.21151662947017
64.62728371883013 58.34067662750598 81.2825702574602
34.06218314780688 56.291542825113865 64.16420604423077
32.40881373708023 56.06389983494957 65.66056867267629
53.003785031407766 68.67368519856 70.05854633947322
53.34038490680009 66.36171154136134 69.05237114272485
45.1395423334521 66.06372670144833 66.99182161511125
47.459894718532134 66.25405706382494 66.36849648972957
49.51493592500066 68.07864655282988 66.69109926928344
50.22059404825495 67.99093826160946 68.89356271182042
54.727549474512394 40.16769166928264 64.11834025319965
54.919649781233126 38.80514197333208 65.99815646752681
53.572267370427774 84.82009823472752 74.86149276819113
50.25946105975256 54.90597384669041 84.53053554042026
48.750190416179606 53.97010590628622 83.21297464293802
47.89879267313968 54.84226718002095 81.11931167643527
48.493699855267096 57.2538425037824 80.05632019637964
45.64275733844672 83.77420440867249 77.56753570935577
46.77566757962416 82.08641106278802 78.75303124684636
46.18655658677565 80.09326432053163 79.82562459900738
44.02452905722999 80.14044139277593 80.64615048209636
48.09383367717058 84.06048438448083 76.23359232021221
46.76083100275944 82.36412320054762 75.35828044161113
59.195948129582355 82.36716613561579 84.60926606052706
57.973284042935035 83.86129622258706 83.82995058928991
55.62167431347816 83.46183320003998 83.63738494367885
54.104861645565414 81.86849557647427 82.86731114138382
48.51218050540561 75.33982373275786 79.87957500123048
47.41643957838458 77.73408577547715 79.76404511330296
48.76051979331096 79.4508467666985 80.80082889634382
51.1276391331763 78.79577979602806 82.31670434975413
27.81925963494294 76.04554393642876 82.3594966161055
29.915067793663145 75.56550032545867 81.23143978657566
31.515168156587457 73.75774261254404 82.89436415970056
48.99092648602825 81.48941426017375 77.21816333820956
50.204936647948315 83.28083431893972 77.62982063388529
51.6336442344144 83.6853574027994 80.27386494167311
51.50696136226769 82.242450417287 81.99906536508705
29.48630250949332 66.2857964153649 82.64024331124496
30.210477338597975 66.88688873897145 80.80790337832651
30.75765674723866 69.52993673934539 80.61772542238346
30.815602355392162 70.8626872534775 82.72313716669488
26.68224085626947 65.74806094545302 81.52897166548884
26.6903663769499 66.57491774970148 79.54456077480744
28.780719545490644 65.61603696023893 77.78932701120988
29.943620004501746 63.606545263907165 77.76208967514583
51.48766727092381 84.5162894463178 84.64915075789892
23.626748464641157 46.7388583518319 82.58989364184953
25.657061629778223 46.07814483913481 80.57682317021846
25.215209141686383 43.5701689088716 80.38764611107818
22.915551053956314 42.213030746197475 80.78316814575156
26.370949981007378 33.13229203558614 82.40208140445257
27.934896903201977 33.05942868392711 84.59588275973928
47.608848955107895 59.46099969399931 82.85652135444305
46.991509230911895 57.56210652871033 82.65117179820582
45.06722753620799 56.26500701134707 81.317558281273
43.330855700847835 57.438266808542906 79.89841164324946
44.14714325453758 46.7226815751966 80.15138275691584
43.209370523876345 46.53072438976875 82.35026890306557
44.77449601780161 46.56866759418777 84.7454720653692
47.09362781163516 47.16457092271352 84.68852768423922
43.16584674379576 50.75768932533909 78.67946623429593
43.6067182526818 49.299453332560866 80.15634249654248
44.84204556278101 49.859206209986006 82.03612074383018
46.50849535077325 51.93335606961443 82.33265457453177
28.561857332283598 35.154882665778736 82.5903765814135
27.929949398510182 37.466712197816435 81.39334406489112
43.10285911669982 56.44129100750642 84.42737478409971
42.57787530152195 55.5829064867291 82.3118438006115
43.46655690197554 52.84713631340045 82.15281481856306
43.84762328842975 51.07497153111155 84.18376540008092
27.213829923922862 44.19272042895914 82.39428983949144
26.686554632689532 41.987235905963566 82.29201206905674
27.5620617786947 39.93748201218324 80.372026888908
27.744863184525904 41.00300697506863 78.21984343257009
25.51118079152464 39.366899543647904 84.1751441904756
27.98288208978181 39.233311120328295 83.36592421125427
47.28137914668707 49.956608362977256 84.20382304272407
35.02630342533654 71.10249376170734 84.04599373273453
34.6803996003644 73.46164584062619 82.971725405093
46.990455282582694 64.37200390070863 68.47309367402586
48.81733740846885 64.15933518201489 67.6250392954297
49.17323038982183 63.08938145576538 65.51922493066218
48.607978073682354 60.77882884534691 64.80895631279301
53.535009865046774 63.54966154297466 68.56175253353695
51.36123731180965 64.17037913762933 68.11728188530252
50.70661043104286 65.5007060700975 65.85494634353604
33.21831653327812 81.96592385348193 57.70455138587456
34.55984682750278 84.11523590617544 57.463287995367736
45.882154153768916 64.10621675180455 64.34044071191379
47.93599573312668 64.12414067599335 63.386180263555026
48.498317481720974 68.36084670931542 63.81166465647492
53.7008563088636 79.82310185004062 84.58150366964536
51.41106440781655 80.46069045976485 84.43977402645626
46.61899262494322 79.85314797155903 82.66666405880602
48.311842445824595 80.83262830257016 83.29809525729668
48.92335753415917 83.40415099062507 82.82339044954834
54.978245776511024 84.93855318256217 81.40528392664005
55.938887738763945 83.52611580287135 79.67073924350764
40.12153337241514 83.38093953827419 63.58479576133098
41.57930068581517 81.95852828197737 61.819714400273185
39.995361344299724 80.02612176398436 60.55909535014873
37.618120915172064 79.54057017378676 61.416524441614236
35.45112207412277 53.885007801533845 63.90042061130634
31.31921446590824 52.14536043413038 67.34817214126659
26.97884642493469 55.919882119604765 70.11131412168788
27.671563836106124 55.31134022071723 67.92872907543685
30.10792385764385 54.85632834766012 67.29285240909563
31.986103978104367 54.88132580539229 68.64307523704687
8.817681969001049 60.640956732015205 83.20258595787749
28.298730030885125 71.67267643525713 83.56062712924695
28.885780493768106 70.34293447740407 84.51555378101317
28.29592489383889 67.84310560038467 84.78880801885019
25.974898835452418 66.75230550939087 84.13720842662305
0.763165164011972 80.29763986036428 79.69878546122739
1.9759938177114444 79.29167420877546 78.14782560676224
4.452083442199215 79.01371344054672 78.70309936389246
5.571287876452002 77.92108559747314 80.77810923875892
37.38810831844234 67.06663866640125 79.12142570490661
35.012059618250255 66.90864587001444 79.87322778096394
34.599945454901594 69.46959693133374 81.53997944378511
36.97451425827677 70.93021372679524 81.95429887236713
15.302524280700935 78.99760459872452 66.40641211117467
17.020934744527807 78.64725096269244 65.5463101203592
19.015805653285224 74.94789838061587 65.12849269002615
9.775671357556984 57.399237676581954 83.61532339260631
7.48210113038734 58.426424623948236 84.225334311956
32.62987093242198 69.19949632396435 75.37682180980585
30.871714248853667 68.81698718573365 76.55259232828713
31.202042719972518 66.72158911056178 78.48128661313218
32.423921410704835 64.97670913716999 78.39822366289212
24.16096724576992 72.92907111274712 65.62782382170427
25.32882975335678 73.82840223945242 63.69228253712265
25.97518653732044 72.39241286149203 61.82137992828703
26.683780763318506 69.87145026655077 61.93643906986143
22.652550043137047 77.43212364924297 61.18949158982656
20.71846598359468 77.16745830054388 61.696340570410655
9.474345996954128 78.86307711526754 82.73654745504606
11.522402300937511 77.85303331672735 81.6762928462623
20.82287961154091 36.246376910314694 84.84961885530619
23.16743130394663 35.228364729042795 84.02649117612661
24.653181272789585 40.519325687279746 79.62967588287115
23.805695069847186 39.43635741523566 81.86959186103
23.57636567508022 37.39156377989882 82.53754771549949
41.17535918941281 46.80405534938494 84.66677624277357
41.97143210190934 48.60144746739444 83.86561033295942
41.613256593814505 50.02777630883528 81.7652835025047
40.51199913630091 49.91727622241272 79.75202941841849
23.75864532899323 42.31509613290891 84.24052592689492
24.822331462541808 44.29326648312126 83.61070225271655
13.279306291888053 54.767551043203866 82.21538325393867
11.1991046992483 54.30781606325475 83.66459376793323
14.85298472336612 56.781609041836155 81.25394627779343
14.896529764121672 56.68637327308973 83.50980413880576
12.860754947751662 57.5158780443668 84.61675393584946
11.277457802454267 59.582345033568785 83.86292136726092
11.288922107627087 64.26783583989177 78.16664972544275
32.64570240078807 38.96929550419994 76.153063894422
31.389484394823867 39.76410725932645 78.03400841633174
28.838007241337184 38.598889560845585 78.37112604854521
35.17883278402821 70.90719898618855 75.62513776418025
35.258147373055955 69.24627040849187 77.88033558702516
33.31903840954213 69.76043012706646 79.05617038875153
32.801432282242025 71.29291582640425 80.43016838458846
37.46438031379203 82.74423045825066 57.336574586866384
39.083860101955665 82.61385792145447 59.21394314052521
26.98195945836108 72.1977855637995 58.88610692604351
24.825567009050555 77.1005347085683 59.34683378487795
20.04473841190396 70.57083298950273 66.58942542606853
22.36412628703239 70.86767361054564 66.06429051140222
22.636696634042767 70.54639291504796 63.711852863202445
37.66513435018763 84.04746803636439 61.70420142077042
36.66400928876993 81.64937410661804 60.32403276849266
34.77913259249249 81.21085433358854 59.55505328592355
7.48447852917204 84.75692714644703 76.90896970665088
8.114044312703735 82.45875644354638 77.82507459882297
5.9090903013297265 81.1686670829652 79.06846190426087
3.899651418245924 81.68232933442421 79.24762889501342
50.34993750270846 40.37989348030048 71.1161741344058
51.46592344384553 39.59433581506882 69.39551589280076
53.835271047011425 40.263608858040314 69.21690801935472
55.53178484297792 40.38004933383069 70.70686673486101
45.55295567265348 40.72768484816127 63.89724951543687
47.741290258189366 41.41225983002486 64.52978773265276
49.4134217311331 41.11454685143958 65.85668504989971
49.59629851680915 41.025920097035154 68.07687704348879
18.02297714712556 81.67465717061738 65.25381908677966
19.260236289359916 80.0391871616558 64.4968764737235
18.57672545454477 78.49888292127436 62.78449779583064
5.992465562585946 78.10133080546966 76.58223848947377
7.0392868666072355 76.54158321743245 78.27244046362453
8.919471721258082 77.56327588003381 80.21971985281475
10.266491571836779 79.33542504729435 79.75783646001123
67.62909411398051 66.0681809309801 84.15927307206988
67.24691554660735 64.2811471567958 82.35781521994309
65.00629094484377 63.59307129157533 81.1531096950682
6.482466842177493 79.83401099429058 83.09545051893305
7.360450156643093 81.908140840392 81.43145519616058
6.909176172294719 84.15189802339616 81.48181211702864
50.29049784738322 41.06592051843308 60.51587512822834
50.03518713664937 41.43854943162244 62.466584239730544
51.57621013036878 40.294531447418876 64.51903531478601
52.455307902052745 38.31576402976473 64.69711169782369
53.39784508535099 37.06500359553525 68.62617731892537
51.336794015687964 37.754062675279656 67.46550275904714
49.373379809027576 36.44890075018507 66.41174375892149
51.035651648103425 42.76238703951168 69.52958745261185
52.07512929293848 44.73051814111039 68.33835338882561
51.054338947743034 45.26616673793333 66.0655422698004
48.68683587014909 44.11439281812516 65.28033461864565
45.544894143322885 46.39691742035024 63.71284609234914
46.79432901614349 47.22066169733877 65.8431272143627
49.36390904865676 47.51636966764018 65.43142479248036
50.69240992066864 48.08825293337371 63.433493954689226
11.486042353110173 83.10525667861754 84.93119230760352
9.937327088410505 82.66736501791283 83.2905579386298
9.897275042721153 82.84361962357265 80.96132170513275
21.315464548781353 42.73870283647639 83.63314250049493
20.987801762597197 40.70728865502879 82.78867090342438
21.78027579023238 38.68820616740159 84.21957840115576
38.10799648031098 78.61412726735327 58.77302530052791
36.78009772653388 80.27962872002236 57.90445042598955
34.83989293118044 80.4249894858792 56.159382754281246
33.41131809455666 79.10472729394719 55.55246273931733
77.13018590421477 70.57467449873879 39.86383814414419
75.44901852927374 69.38499375632829 40.24159891438986
71.5871718605259 71.24921011147786 38.88641528806482
70.02329149066492 71.0370335226442 34.42939654246564
70.19341564830937 70.8374385005179 36.716944851220234
82.77145645734666 60.579571725081166 66.20245010524573
81.04111091089865 60.63457820396421 67.40517469665232
79.92679237627978 58.302049919257115 67.31324154729613
80.96805046704226 56.091297661353615 67.25368448052858
71.7409030781854 59.51839536700651 45.72087072341871
71.32733767176586 61.26311380522855 44.585852815733205
72.81075175683743 63.35981773536947 43.791860768443044
75.12337951568388 63.27906568676165 43.45290018864911
71.0051426076602 63.0690379482208 81.04271163907748
71.75778501098496 64.21276620950229 83.03702972707202
70.2832845008873 66.5410684054777 83.0496251660928
69.39210530927805 67.63797893688658 81.01800418570403
72.88219212599307 69.84694800174037 39.91608631687327
73.82812366942223 79.070922801904 67.11218295424925
73.19325454983024 79.63100526986388 64.90778664792059
70.99300330936106 78.5827717560512 64.20306436131034
69.80860928286145 76.6295059146693 65.16846836667366
80.84809719015907 52.124828460863775 82.49877694894617
83.98458344439301 53.50951793492367 82.0476203827322
66.55542989678479 41.64855512931453 51.759404326024416
65.34334987581505 40.06489453895756 52.56375028345216
73.3401821047513 68.04260675649789 83.41099175349106
71.27787623267498 79.24419897228611 68.59557932788631
72.7328942172308 77.75528796677305 69.57689234149308
83.92237897354538 49.49485062373728 58.60046928001947
84.53176436301007 51.32669092038104 59.936072083510915
83.46092682251225 51.21845797799591 62.65754181921885
82.85278333061747 49.26198837235065 63.79405920932807
79.00206668503742 48.889887277157975 65.58730326142172
78.19578858109978 50.760601140215186 65.69764412023687
79.5803508717371 52.752837449889284 65.34486963838353
82.051008042425 52.38763660923763 64.66206489169261
79.38089576630632 61.99255822035676 69.27641576838069
78.56344492800838 60.36560880308566 68.64229409494172
78.03773406254244 58.09477883567405 69.99176421242737
77.84929309076563 58.06013848114585 72.69696408786535
81.35979908957036 54.036373679654716 58.15553138021974
82.04604338148252 51.8801920205724 59.09165472842634
80.01308690304599 50.747560388558185 59.85135005465214
77.61003043553083 50.99759634357419 58.07906946555735
81.50685576035993 48.23241510357538 59.774013552126355
80.58305427345454 48.28265560206079 62.06857157229464
79.12887860145848 47.07636155386326 63.310281762450714
80.10198070976051 77.26407333350483 84.02827666375543
68.1205299766533 61.51478449630599 80.35010347957083
68.69586108849518 64.04272145285528 80.04706914731946
75.31823174087918 49.325093572586795 30.98946194292771
73.14360347934023 50.3148402933496 30.642165472849346
71.8138909415482 52.08219713447717 32.12438199768532
75.03054381378159 46.77950838094316 30.199049010648377
68.9699005551015 52.47114342554227 32.0447334930914
69.91912589529139 68.8649858913815 38.45834883671238
69.71619966921543 66.72378417630402 38.49306911656372
69.83078346129851 68.84157722948139 45.391057713223944
68.77896746764209 66.65400206110942 44.48456906856404
69.92944449440074 64.5003018137384 44.848157683889255
72.07586767971802 64.12897362238515 46.76396036634009
75.838390128794 71.72590966899234 43.10248140753686
73.70487109735447 70.8347434241363 42.82792534511571
72.57072243964365 69.48407387679403 44.90043655830447
73.27549143419213 69.35862039802176 47.0216293547119
65.47420160785073 42.32959872229391 46.79296678506127
65.76588373263273 41.597068835437256 49.099502942609256
68.17784952003817 40.60063241840854 49.811489472278105
70.36729827797221 41.14462378543006 48.421160943168445
75.97658904751314 60.88436117171551 66.42754418661087
75.23313723122278 59.72555180297876 67.90187218430849
76.04937002357859 57.39503208510605 68.31062099258529
77.80009534674012 56.44883403132114 66.84101933261378
77.49843930349408 49.24397129508048 63.223752815201046
77.89901195911207 50.098613982666386 61.27589321706118
78.25488456289716 53.05960540816083 61.777874778879664
77.37161282064226 54.06067641922841 64.16818675992582
76.53310643196582 55.66651944136513 72.18229006517804
76.15653901808895 54.98457943635616 70.17569262817028
77.82790310775553 54.20670020974294 68.27062552175492
80.58850557933617 53.81484805638466 68.52212897208472
77.41939027597658 53.48251724735082 59.350708324030954
79.22366105787911 54.63982415544401 59.40363949799425
79.56564360663963 57.15459076218142 60.879525155865636
77.97524405334275 58.16808142515692 61.95954979066013
72.75080051790115 67.04217872678969 39.38880460201064
72.22602412619437 65.63286012992796 41.03726852599366
73.52457319956241 66.594965852089 43.54928258225708
75.6991935738675 67.88803217500492 43.62815625931071
73.71454082401877 56.457016935511014 69.31799031290295
73.71162341774105 56.19929611652894 67.14206122177579
74.92772469755892 54.53499390168359 66.09354157681383
76.01978235370203 52.375570285740594 67.13006661249962
78.55427251511928 70.55768502365585 44.01113758362941
78.07343465525197 69.69249685418578 42.17214083930154
79.42573321138245 67.80351083723863 40.701108586636195
81.50371452803475 66.65746267054598 41.8153109666786
74.1386541669529 63.1318236112831 48.23338045630232
74.20816634288254 60.67684406576393 48.87705118139545
71.74476832612918 59.70544860243918 48.25085950392682
70.17375546421516 61.689293506371264 47.31525349763226
79.09430567536293 68.71151665178697 46.24164200744741
76.76283727057833 68.69036412062083 45.911990996981196
75.48132137319145 66.00092083429884 45.61561456102465
76.36196233435948 64.01768366547056 46.31135260189745
69.20779034842056 58.731899195298695 47.61405944857093
67.62659582450068 60.86847606143469 47.41444070701388
67.08509986179465 61.30936663373688 44.95003516200496
66.87229363017644 60.22878662173039 43.046168491946986
82.61661018106955 59.86232007935363 62.11008563716517
80.91246709831361 58.802693327587264 62.39065720467452
79.05924798525888 59.35527708905557 64.56048015546997
78.90587246157824 61.400658990886505 65.9559328314293
83.470254791155 57.934180769247746 63.889559735990495
81.820894030437 56.63239973969899 64.32289497698565
80.67593238203553 54.517296921399925 62.71424764130187
81.35338500379589 53.241353158085055 61.32149508393961
71.43820932604619 78.41342435538046 61.62696297847252
71.29360384304283 81.51206752120889 65.87605594468666
73.69784285589361 79.62677593336612 61.80926937517726
74.21900612405507 81.5269031826153 62.50245349211124
73.71805183979959 83.67484979362169 61.614329130561416
73.00909490169545 84.73581193164691 59.46969426067658
54.325633132944226 82.79154457125237 33.4187686408174
55.25982532077895 82.37188735878924 35.36149561890997
55.465808525071346 84.07628418306327 37.33624008404579
57.79521032444034 80.5552921846694 43.13001891730253
59.35355780985764 82.35382138219657 43.98795602182965
54.928393407771914 81.13220317423377 40.649504112085076
55.19559563907692 81.21527418832599 38.39339057259914
55.72154209156038 84.32822217061181 44.26661165966201
55.89669201034526 83.23944484064596 41.98377366164362
56.69312266744967 83.87143279033266 40.15515395424712
60.2802063065347 84.86517671698668 44.451589817060054
60.32933499406768 84.08977232988939 46.46900367103492
62.0865974243669 82.28215406965127 42.81904866023873
62.56908062624595 83.84809738834811 40.710177277297205
60.430640872644496 84.20421292643222 39.26235775469064
58.638191078251126 83.17975983470461 38.569897094792545
52.99706547289209 83.4067806938241 43.87441399031807
52.96119281493679 84.04644057703794 41.68949763321247
56.660769799707225 84.49179926066417 34.15642675406884
61.528322436812466 84.55751871964179 36.873843981381654
74.468795384756 43.19336505408075 53.67311844790212
79.56049022084487 44.95272395912682 51.2456823041493
50.80664172230867 81.04670103697887 41.42934813037352
52.20206955274674 81.84595312448064 39.83528829640578
52.79677626001328 80.7304681398937 37.5698790126697
52.25908039060027 78.16278405269318 36.82131750551704
52.38480171599648 46.896761216063204 61.49793330112712
51.51976107568337 72.49922357014792 62.231330827287174
52.791696634550505 70.40263987627526 63.123784495318304
52.47645221935623 68.90262557025001 64.87442393295089
84.58290466496956 84.83052201536002 16.440514172009994
55.42870111613705 71.76202681421692 62.11210339693433
57.4648966424603 70.75324915516495 62.40499136325499
57.146900484644156 68.27028032123651 63.53604471267116
56.12925852026367 67.92609258764689 65.78990020080374
50.66395642360699 70.42987109376809 60.42703755245387
50.75266138005216 68.89619196202216 62.11650499362699
52.44073081473784 67.2965130021664 62.05245249813509
53.184209485891984 65.89297766381104 59.85371816436699
55.7487096746235 65.37048111813084 68.0701525836846
56.301192319278734 64.3247377000868 69.98941391152627
49.43923355768419 61.8573061085702 62.38130825011222
50.25444801475692 63.89356783622574 61.82825554419237
53.09783581562946 64.13227881562743 61.71825694164748
54.72509349996872 62.42232788302141 61.85929455807452
60.66301231983685 66.62549003456675 59.33178711126226
60.52831424087928 69.16136036869189 58.90923172971817
59.909660638991134 70.35377502971049 61.42012492857388
59.57298886005899 69.44297691911962 63.2201351618131
83.87415226862134 81.81241744442714 20.81517330472668
83.88227778930178 82.63927424867559 18.830762414045267
80.81865987699304 62.803214850806015 21.87609528108736
82.8489730421301 62.14250133810892 19.86302480945629
82.40712055403826 59.634525407845715 19.673847750316014
80.10746246630819 58.27738724517159 20.06936978498939
57.493848888880294 83.64127422387432 46.82077923734135
54.98043743361007 82.80445531501576 46.430767448477475
52.939503105261394 83.00787090081606 47.604721170328325
83.56286139335926 49.19664853456026 21.68828304369041
54.892998931304234 80.1943881916735 45.9075991575374
55.71023396221529 79.4602815664542 44.209163079977436
84.40574133627474 60.257076927933255 21.680491478729266
83.87846604504142 58.05159240493768 21.578213708294577
84.75397319104658 56.00183851115736 19.65822852814583
84.93677459687778 57.06736347404274 17.506045071807925
82.17286725363414 51.63802843675717 25.305873937565547
81.42834316759554 53.509188108117606 24.77683467972672
82.70309220387652 55.431256042622024 23.461345829713437
56.53946755969726 77.46220534650479 42.160793546060894
54.6402248155157 78.47946908427318 41.94961904268745
82.8968402705983 68.93447831145997 41.32837669544743
84.11776019110106 67.30739999589167 42.06363746300447
59.32424049415419 51.381194873601466 41.740447730957925
57.44461347076046 52.91147778498934 42.79309417596414
56.21008637947739 52.324979123288415 48.205449143945245
55.423169247833584 52.13946031784342 45.9723617461066
60.53333223397582 66.76203502412095 65.77990444296069
58.18578873182025 66.64473992512828 66.61128773717007
56.66977987164747 65.00088290308021 65.1885582877284
57.593168165352736 62.74450417537861 63.79417660128892
67.4795923939403 79.12860531037613 68.5274442483972
68.79164496234382 78.60869079596254 66.96605978239516
69.20798871972104 80.25153578588355 64.97438931339926
67.77581605541313 81.87294003933008 64.06588997582305
51.9281209763464 65.14269399383046 63.84044525600147
34.182912221446955 84.56476985651821 52.77563264483926
49.35468749644232 66.23844115851244 63.37658092985424
49.85931769722409 81.48937132134084 46.55554257432388
51.702795308802514 81.39509426674736 45.93861787780762
52.69609750629807 80.5076430288085 44.032119956302125
52.08386883412376 78.29183065818388 42.58502182820311
58.82285289339776 64.70714889907907 60.23214695699505
56.87854297538529 64.34744364142738 61.77410233496074
55.561783612178566 66.58035390946957 61.89722141231132
55.45277100671548 68.58160892600812 60.396708079942094
48.79568705790424 84.4261196822529 44.54862097547733
50.850301533501636 84.01692940403076 45.94881010309225
56.9289176243246 70.64197806998692 59.475249533442
55.08077475400243 70.05540774544492 57.986200187006986
52.715110340589725 71.20769761630366 58.7013805267621
52.13665604584096 73.17753958655427 59.60291451272537
68.16914614393066 83.97820670841158 66.0504159841597
70.21517440085991 83.12042190033705 59.23875389687382
84.17075783728657 71.98423861857889 9.397515760925723
84.863475248458 71.37569671969135 7.214930714674691
66.00959338135293 76.70531323098932 22.488787597115323
83.16681024780429 82.81666200836499 23.423410065860885
66.11758804682592 70.3486040943415 26.609828378074187
70.94723839639384 73.18914185007013 26.356184672978337
69.44085214056122 72.25549028934388 27.921014015276942
66.77669768938945 72.77804701815965 27.682314461677077
65.61609015644218 74.77432202803702 26.782847428238725
66.96758276990886 73.46359417555607 22.901525031844148
64.67401254273922 74.49078112292236 23.511535951193842
80.73235915835618 83.35696784244628 39.909817516892915
78.01479102389278 52.31073340928881 24.13582049454403
80.35934271629851 51.292721228016916 23.312692815364453
81.84509268514147 56.58368218625387 18.915877522108996
80.99760648219906 55.50071391420978 21.155793500267837
80.7682770874321 53.45592027887294 21.823749354737327
82.88119841437924 70.68218676606567 39.21738755448727
84.76047977050777 69.85383798654973 39.65530928853492
83.16287532400338 56.63390989921398 26.93164667114225
81.77389249670475 56.5774898111307 25.652849735514486
80.95055674134511 58.37945263188303 23.52672756613275
82.0142428748937 60.35762298209537 22.896903891954384
70.47121770423993 70.83190754217799 21.501584893176503
68.39101611160018 70.37217256222885 22.950795407171064
69.1135608057994 70.6133322046736 25.704082845309507
71.63667176692539 70.58398214180188 26.59681892767275
72.044896135718 72.84596554081027 20.540147917031266
72.08844117647355 72.75072977206383 22.796005778043597
70.05266636010354 73.58023454334092 23.9029555750873
68.46936921480615 75.6467015325429 23.149123006498762
68.48083351997897 80.3321923388659 17.452851364680587
68.06553616995869 68.51541744315399 28.59446511960348
70.66645059002902 67.8133185236982 27.89505954423801
78.95126742566134 81.64381453427191 38.48529439394604
78.00621346936344 82.81367033941136 40.1545073690864
73.70034074834976 82.7596884906894 38.023513635895675
82.49527908038552 64.95460868024368 40.46650921542701
84.89662220573771 65.98564143775229 39.16002251845516
84.69892266890842 67.97818429934948 37.49950558155025
37.722614044118956 84.5148457495452 55.843914770280804
41.064976803953456 83.61998594875004 59.5436210293956
44.363259697951825 83.23726673015398 58.09900827074515
44.000751000848844 81.67423248409007 60.47635635430184
68.13024591433673 80.00652293865791 71.58333975481304
69.20961040214554 80.79492781527823 69.63716571143706
64.4576499372672 63.60007204268454 49.59072315007783
66.14680987483176 62.448037721123654 48.9637108562027
67.33055182427553 63.580542755005055 46.40224292294517
65.85967066959951 65.54349069657715 44.971203166828644
67.2072701348449 68.5454056008911 24.654910672488683
68.84603576781798 67.81404493991607 25.87955117765813
71.15569002170861 71.25577938167491 41.49505465113486
71.27653886453811 69.40296472391813 42.48209587767739
70.279251612112 67.14191614149134 42.31029030371296
68.57136740640426 66.50933288986677 40.98810466096693
66.35885527936202 64.6904264721269 41.525656666061174
66.98563895361555 63.3866234043066 43.031035456439206
69.80137612796278 62.72272576186159 43.093943601194866
71.30926351474349 62.50394732602296 41.630896254027604
78.50737596113323 58.80305933545051 22.91934413973276
78.17971317494907 56.771645154002904 22.07487254266222
78.97218720258427 54.7525626663757 23.505780040393596
79.69868868950367 55.115201532159006 26.276038005425605
53.642821988159284 50.997907911250714 48.67002973551057
53.79887143631404 53.81514107062672 51.772504510184135
52.68814202127784 53.24362570889618 49.608349495919995
53.07150788461486 53.85883205104631 47.503051858114965
54.380716173142474 55.27858714074229 46.09378014218291
68.86826843026556 77.1198425966246 62.53533547632794
70.77012698993964 81.01582827254086 61.26370633761585
68.17443657019179 81.89318048073565 61.33229610973243
70.43123095436361 82.92719172805297 67.34490895063459
71.4577395279286 82.34422396869304 63.335378818625856
31.863734447179358 22.296174333332353 49.63420715163957
30.18256707223832 21.10649359092185 50.011967921885244
9.956469660474074 7.611507009090275 81.93995430850737
7.595124304526892 7.029105207941301 82.21774917367243
6.0049427652530305 7.923589709002095 79.90994113497776
6.200701241198258 9.603940719762958 78.59815293494788
11.844845381776958 5.445666767708403 81.43209177708465
10.869788034906977 3.5993406315679293 80.45916212423336
8.37337092884791 3.0340687590268707 81.37482445411327
7.291852348462112 4.311595881642099 83.11606119396137
8.78166834296315 8.337622993512936 76.88762900270821
10.365005498091985 8.135366062962012 78.52941420746478
9.988900442966752 6.003387405789661 79.60574931058807
8.822739589719912 3.8601067415958266 78.13800086509623
5.9656035972785855 2.1989417414509616 82.53074332256679
6.224486143939593 0.3612945371470483 81.45157762695185
8.72841453522073 0.58661545889862 82.17901003222431
7.2344041115287405 0.921352110839371 84.62427669792194
10.69174378069743 0.914065166737956 79.67750205621493
10.797960865593737 1.0758240208552987 10.645304898923218
8.962638335039037 5.455728661077446 11.284380240935553
9.516207188910697 0.7809050822956808 14.062547350928696
11.707035366935415 0.6233530386472289 13.643606388905186
3.2979703422251974 11.970798705886917 73.3353672320334
1.8943225702455222 10.383986119418603 73.06494938787783
5.073197446931505 5.788080192261414 72.62710096569883
4.693806205399918 6.98621551816717 74.51049527312941
5.8064290535208585 7.369194994777788 76.5133490762812
3.324257089123338 8.783779772393311 76.37430629851907
1.7432098115828358 6.9532531922253575 75.66164070952917
1.505310388528092 10.93291610472518 76.06315481268902
24.958469955264285 16.097075100247487 30.76813353479632
37.505005000311236 12.30107155967473 75.97281911274112
35.77465945386323 12.356078038557772 77.17554370414771
34.660340919244376 10.02354975385069 77.08361055479152
35.70159901000686 7.812797495947191 77.02405348802398
29.856928058648464 15.000565521355211 53.2232691961445
51.981609601504466 0.1794850959937014 77.11972947728415
49.37675513253351 1.1385188406993711 76.63401671060845
42.11678064920734 21.077548536614284 69.08138213340999
44.117027289478344 20.746284767551913 67.48153874256217
46.21731356289875 20.937492052808913 68.70194323293622
58.4845272783655 0.07946952314431122 69.04269878979629
57.40803077115363 1.8521537352561315 69.76746860011303
55.33683749084841 1.8380583420511731 71.28680348048252
53.932358814560835 0.2314844082853709 72.02448608810198
46.56250105935478 19.97596791845579 64.92933329898315
44.271354603973194 19.50130853773394 64.98109092141996
42.89789041511529 21.570017845945504 63.981555671921384
44.201762966893455 23.6591205953672 63.39234766759222
48.45701696868746 10.657688298405073 51.79999430598053
48.63438653197059 8.340072667476676 53.98682617400433
46.286272095656585 8.46543772445495 55.061516747684614
44.43981750735114 10.185754051519432 54.347172524230466
41.70350024026239 22.931397582265966 66.76111102934922
43.187819770632025 24.57118875425266 67.6538820906983
43.69165716408043 24.666689525101653 69.94867549973098
45.07305213500602 2.0386388880755963 47.090945346319124
44.929955591115345 4.211060483872038 47.92351893168428
44.28465646340313 4.684539992928924 50.09074552736861
42.453185337828 3.57706095133364 51.77229497035411
45.69257728288384 8.924800666314542 47.78392229672917
45.35837229279201 8.022349804581825 50.11312154249815
44.10278981892821 8.513549062088268 51.833284491610726
41.26641127125953 9.177562367233818 51.99788074495282
42.70739449381852 8.036342834614883 54.391496965000556
42.98387839922056 6.101091892814604 52.70657432185798
45.26809625949762 5.072179005587163 53.10515173066738
46.47999460360436 4.639811418375744 55.10714206120434
47.97503874008009 22.45330466961692 63.742891317656444
48.00793631032198 21.943703595554968 65.77439699249848
47.10907627016314 23.30165236153934 67.95416729364275
45.98786601384678 25.167807071100714 68.16801811205752
43.103234630293656 22.067036269777923 72.39217426793263
51.56458184752543 17.144387136569005 65.74201183793616
49.049890944733 19.1726339004489 68.18737902478001
46.966167344395195 18.571366191750425 67.34256036442778
52.384062128309644 2.575109669923249 72.96719735632104
38.655927516509976 1.2163504583308302 68.37083828751486
39.26531290597466 3.048190754974617 69.70644109100633
38.19447536547686 2.9399578125894745 72.42791082671422
37.58633187358208 0.9834882069442098 73.56442821682344
33.73561522800202 0.6113871117515469 75.35767226891713
32.92933712406437 2.48210097480876 75.46801312773225
34.31389941470168 4.474337284482837 75.11523864587892
36.78455658538961 4.109136443831191 74.43243389918798
34.11444430927093 13.714058054950328 79.04678477587608
33.296993470972986 12.087108637679213 78.41266310243711
32.771282605507025 9.8162786702676 79.76213321992275
32.58284163373022 9.781638315739418 82.46733309536074
36.09334763253497 5.757873514248281 67.92590038771515
36.779591924447125 3.6016918551659636 68.86202373592174
34.7466354460106 2.469060223151749 69.62171906214753
32.34357897849543 2.719096178167749 67.84943847305273
35.31660281641913 0.0041554366543555595 71.83894057979
26.809416222682632 15.850473456978708 56.53432937383547
27.30427098260823 21.205573711387597 54.67080556579986
28.00903997715672 21.08012023261533 56.79199836220727
46.78450760604438 2.9065506123486133 49.31372153423139
47.32362329899857 3.296013292392588 51.31243464010948
47.75102407121785 5.9028797678867795 52.24258529847918
48.08480433447526 7.805286295771922 51.03761866598062
49.77365319409253 0.47389830026729535 58.04864890683322
48.36901291151159 1.7480768467119412 57.47016056357686
46.90421553623085 3.5883864378772774 58.5749671828279
46.42727812524447 4.098994388776048 61.214793031730935
48.62477318531723 5.044663512190372 57.08334529480188
48.956154040710445 6.009198979529229 55.30788622723314
49.45717896553203 4.141352087788612 53.764170552976495
51.54409671258655 2.159794574453038 54.34632413571144
30.710137590477736 12.60586100630908 76.19791319410626
29.966685774187372 11.447051637572324 77.67224119180388
30.782918566543195 9.116531919699614 78.08099000008066
32.53364388970471 8.170333865914701 76.61138834010917
32.23198784645867 0.9654711296740445 72.99412182269646
32.632560502076664 1.8201138172599418 71.04626222455659
32.98843310586175 4.781105242754373 71.54824378637507
32.10516136360685 5.782176253821961 73.93855576742119
31.266654974930407 7.388019275958692 81.95265907267341
30.890087561053548 6.7060792709497195 79.94606163566567
32.56145165072013 5.928200044336509 78.0409945292503
35.32205412230078 5.536347890978211 78.29249797958009
32.152938818941166 5.20401708194437 69.12107733152634
33.95720960084372 6.361323990037573 69.17400850548964
34.29919214960423 8.876090596774981 70.649894163361
32.70879259630733 9.889581259750482 71.72991879815551
51.1032612567417 19.891350443169117 65.53055585933534
28.258121742527003 18.31646568668256 53.319651589752475
30.432742116832113 19.609532009598478 53.3985252668061
28.448089366983368 8.17851677010458 79.08835932039833
28.445171960705647 7.920795951122503 76.91243022927117
29.66127324052352 6.256493736277134 75.86391058430921
30.753330896666608 4.097070120334149 76.90043561999501
33.287821058083885 22.279184858249405 53.7815065911248
32.80698319821657 21.41399668877934 51.94250984679694
34.15928175434703 19.52501067183218 50.47147759413159
36.23726307099935 18.378962505139544 51.585679974173985
28.8722027099175 14.853323445876665 58.0037494637977
28.941714885847137 12.398343900357474 58.64742018889085
26.47831686909377 11.426948437032749 58.02122851142223
24.907304007179757 13.410793340964831 57.08562250512763
33.82785421832754 20.433016486380527 56.01201101494281
31.49638581354294 20.4118639552144 55.68236000447656
30.214869916156033 17.722420668892404 55.38598356852003
31.095510877324074 15.739183500064122 56.08172160939285
45.14993802273613 1.5742911309579954 51.32291732838868
44.61270696019994 2.127402093224508 53.29365657293501
46.60179268734121 1.7789139417546844 55.47996294149586
48.954313407185026 1.1542622780601903 55.04976526430439
37.35015872403413 11.583819913947192 71.88045464466055
35.646015641278204 10.52419316218083 72.16102621216992
33.79279652822347 11.076776923649135 74.33084916296536
33.639421004542825 13.122158825480076 75.72630183892467
38.203803334119584 9.655680603841311 73.65992874348588
36.554442573401616 8.35389957429255 74.09326398448101
35.409480925000125 6.238796755993501 72.48461664879726
36.086933546760505 4.962852992678619 71.091864091435
9.822293924734517 5.140467580611741 58.60740742338165
11.877565618363386 5.211422558063993 58.35812506854174
12.497162038745511 6.571878946705762 56.17564561803699
11.4272000536733 8.642859071504219 55.34640498658769
24.515657169608485 2.235706665964396 34.80519640175529
26.239600647386975 0.7185082344219574 34.45387410677775
28.67946743502275 1.0660964590772797 35.635029026326286
29.87950360709127 2.9194700922719776 36.068595671479564
19.703744157122106 12.707752367510741 50.94537209785103
20.065621374069455 11.560733289004016 52.95912094322118
18.310797978983643 11.75559840310037 54.813132245270445
16.136675224913787 13.321287878600899 54.72503020611764
7.432392804713107 5.916888213017952 56.264191383091315
9.113927914023861 4.709268050867211 56.145461910258156
11.170461639770089 4.749278307790324 54.33523646997794
11.323186359844579 5.354574254718234 52.08337873557246
9.553750331437017 1.6189336355929693 58.431369982792404
10.983970364986433 2.927808889725182 57.177824030176794
13.48010245383247 3.2392734777956913 56.841133951115005
15.428579915975707 1.9532648756238071 58.09727209132612
21.444004383832414 9.406963241360206 54.17536619333907
20.890826838786925 10.632472299101675 55.96560968815518
19.377612994921886 9.500007577088411 57.93993507911258
19.27041931470427 7.220272845317005 58.48424293847891
3.864180738521327 5.606160785576677 68.15972675431537
2.861211998136033 12.597858147745772 70.9070781167137
4.283362670220751 10.09056742654223 71.65262081850709
5.9450446038347975 9.923497298483483 73.13668323714975
19.748011723988522 4.882068621908988 60.492573311217825
18.581282963100588 4.615600546137615 58.81292862470219
16.10300227519768 4.725362161286394 58.29646360822655
14.142734870659066 5.001728231975094 60.32412305722797
5.171416762440267 6.269209053098187 34.10474953797172
7.648448100133759 5.658428460665886 33.741636148402584
25.64176553801394 13.58630474326163 34.318228766110494
26.504460265581454 14.942142140689977 35.9966239967383
24.70062815140714 16.277161362429027 37.40649607371249
22.141441161698495 15.948112502779383 37.61026684250188
17.02341872003813 8.56384704486472 59.21652774836738
14.83148582998254 7.147551654839554 58.45367952450166
15.12056011349467 7.040609717436133 55.63183874691415
16.05975821259625 8.23870604547298 54.23276471285592
16.49777205668261 1.452971911819375 55.64035077329012
17.950669679888836 2.740470598871637 56.67809917837756
18.980935422984984 4.814537779161468 55.026404006931294
18.75355064829543 5.037998738803851 52.73599133057397
15.95473918408977 9.648553513168876 49.9134518401098
17.164461659415323 10.614703672920147 51.30577503807484
18.300561725265272 9.542229432131748 52.76656923058435
20.047079415433537 7.80709402115417 52.70155242016516
22.278324061139315 11.511756284434792 59.620415373840935
22.215569470758258 9.513319907540145 59.81272831577668
20.639069779608533 7.66210094399312 60.85510595162485
18.419251829464038 7.980510593058965 62.05319889419572
9.023278748329405 1.511087655795465 53.74042767277797
10.989981147290141 2.086003324081503 54.60307995912257
12.745490984652388 0.03180852032523211 55.4087453673279
12.244515194710361 8.558665862045723 27.66423501482911
7.9831436290032 6.333609892502636 29.41510865881507
7.818131850920272 8.423603522063829 34.383182981253825
24.447953264500253 15.20638782141273 32.52484228097999
22.083572500689648 15.169289616648285 33.70435939853075
31.921428944437462 4.091602784938144 40.273111626978476
33.43859527856542 2.5188752980291467 40.93922439737403
33.59953929130107 0.1603229417338443 38.93686785573999
14.611329548551204 6.779577979565553 50.21789076406401
16.324863127635908 6.276004600109416 51.8083229728941
15.561882420417751 4.916788502370187 54.19099296538462
14.593304927605237 2.933124031046757 54.35083534695299
22.97444511914593 1.0102152291072497 36.49259579373007
33.81084506758922 0.5015451445505379 35.325348178235274
31.30470855391267 0.6265261948560431 35.0306638004349
11.919284592426763 7.899747276257986 50.35865742129264
12.04090289288767 8.312060809974747 52.57586726903291
13.703497186804693 9.444002414896103 53.81689216883197
15.270773238921546 11.561479022913112 53.047809126317425
8.81228966417008 7.0813196544072365 70.2559597797741
6.878809456732141 7.892211166045232 71.43513358257213
4.801366843609564 8.1562016103264 69.98530856687934
4.57610476374703 8.598940503228471 67.50460045412467
1.5122758153753113 8.462448819937942 68.0617307265022
2.238339621344286 5.10712821125696 37.28809508921724
4.194978218402048 6.01333060574202 38.49563416195712
6.5746050725256975 5.623257306954404 37.769546906075625
7.525459650155528 4.086193709141375 35.91045855016631
1.6549991113593436 6.517075594344715 35.06211583313867
10.482258217588088 17.09198095272439 77.84052159117999
11.03474086224333 16.046237534680376 79.75978291902165
9.458642042933311 14.143827717614975 71.62966356556991
15.396560862801458 18.346989869160318 69.10215611875766
15.266880776940429 18.483534858714517 75.55027345045609
12.919337274784834 18.36623975972184 76.38165674466546
11.403328414612075 16.722382737673772 74.95892729522379
12.326716708317333 14.466004009972178 73.5645456087843
13.556401436362357 16.428648733672635 70.00251596449043
11.612091518349882 16.068943476020948 71.54447134245612
64.9082721791948 1.0577734929290605 13.156554722205573
64.546452153159 1.3580700069851905 15.575298352577642
64.68246052732823 1.437433677037658 22.737642652216465
49.73682231408651 12.864301371362725 1.0770868599038197
52.45134287586268 13.491363944016092 1.0976616283711216
79.6467909394817 24.398970967486534 33.21196006834372
81.67710410461878 23.73825745478945 31.19888959671267
81.23525161652695 21.230281524526244 31.009712537572366
78.93559352879689 19.87314336185212 31.40523457224577
80.88143717949553 10.645731297567753 27.126419230340616
81.28161380447587 10.470506385254264 29.146517211250774
80.08514817321051 10.96868919012084 31.217985975791308
77.89033891700089 10.941359129954535 32.04448077002806
83.56704700859952 6.7858508308671714 32.0029097811448
81.96746936478254 8.459571166217106 31.464001196817573
82.39099245584794 10.79240465124079 33.02414783094678
83.95493937804252 10.719541299581747 35.21794918623349
84.58189980712416 12.814995281433383 33.21244300790771
83.94999187335074 15.126824813471082 32.015410491385325
82.51601579213795 14.181227359839792 30.0542103692324
82.93385456562338 12.366801154062683 28.27227692413914
83.23387239876342 21.852833044613796 33.01635626598564
82.70659710753009 19.647348521618216 32.91407849555095
83.58210425353526 17.597594627837896 30.994093315402196
81.00099831612282 13.23378455343771 36.64173872482191
80.25647423008421 15.104944224798139 36.1126994669831
81.5312232663652 17.027012159302554 34.7972106169698
84.00292456462238 16.89342373598294 33.987990637748474
61.88495278533567 0.2979977575791105 16.20381380610959
59.98197965600384 0.2510648671260546 15.008316028807188
52.181284857130805 11.755643168498276 2.91566379878363
54.32954854147272 12.330316462023205 3.497454295775523
56.175238130634625 10.413437340514562 2.9840239526862975
55.85132644082337 8.285398714613425 2.1825822179644825
50.589375300665715 10.226193764988277 1.204901602464727
52.66050614097111 9.850859013203408 0.2284245255578248
57.36193364324803 9.976712954037017 5.450756898523772
56.610357810711136 11.942355370415953 5.5886941936902135
67.14838107282596 23.675863508064392 21.2261559477452
64.78703571687878 23.093461706915416 21.50395081291026
63.19685417760491 23.98794620797621 19.196142774215588
63.39261265355014 25.668297218737074 17.88435457418571
69.03675679412883 21.51002326668252 20.71829341632249
