59.348451865931075 64.67495191573154 0.6089917966225619
58.62612315325399 66.78486856645262 1.3614054476840727
56.07585060037655 68.00532442410406 0.827992332846636
48.50041545310597 33.62768200694033 22.960058123163268
46.42050727983714 33.0988927024879 23.0644979359377
44.29223664175789 33.33826147792502 24.624643065141303
44.17838807304041 34.86743156688615 26.55867770260584
25.351846445934562 42.260731997032224 80.47831458173182
25.399056865566592 44.59456759234267 80.11723805912104
27.38160943036951 45.90122532567054 81.88269369614197
28.224625046594625 44.97567905102386 83.60311765942669
28.212876448227128 72.72721876577 71.33741726473728
28.309662770307725 72.09619611771487 69.11788538441431
28.797815403510334 69.27249163570231 68.56193901382844
29.492897854417134 67.41704202511376 70.21729311959213
36.82098648859552 40.354623366736995 4.286473162129946
36.08028028197166 38.37625394586108 4.582954831192693
35.66429701926819 37.04471822149011 6.890404512829567
35.934939129960995 37.6866785355983 9.017234073882678
35.44687237697863 37.561345169413954 0.048379652268670005
35.43607301320354 38.57554236083567 1.679249394842743
33.292688025937125 38.44656379414183 3.2160513423881425
30.76563805283133 38.08734316007553 2.821892332945291
22.51122296491993 68.62991856580109 73.0607282245005
23.115642279780488 70.3599567181224 71.42055250297275
25.65474599010627 71.01762659236448 71.22231089851292
27.378811276026504 70.1631889719178 72.95882226424463
30.656961424449612 41.316138074567625 2.599261960385137
31.61600573999278 40.630196701806895 4.290756098514343
34.03822619392819 41.17601665968311 5.36977035101464
35.598648313370965 42.80156779453995 4.8104030827867055
30.182681124531463 68.916111265025 58.16191489299576
30.012390390018457 68.09008755847451 60.16824689669329
29.388287572471395 68.9984058190655 62.3771428311303
30.759616394002432 71.17825473961516 63.52425773165939
24.42818182688854 66.8774379720126 72.02798944901774
26.578908108335696 67.12219429364822 71.18769294084532
27.794718534942746 65.77173121807627 69.01778992579987
26.83748740402647 63.560151942792515 67.88761672286553
13.94274135304158 23.77217055792234 14.598788917843125
15.920757003484782 23.463440770637074 15.222801182447629
16.733799524147983 22.137393835132585 17.41252917045819
16.184334618549688 20.237430217030454 18.39245745868361
40.89871448473077 55.914525062273476 11.445028971623854
42.604428131843825 56.86098712785604 10.275569279122244
42.8313032057277 58.14362205807669 7.953835938869076
41.803072444089935 57.798791827281484 5.870991059684271
27.350654669980464 13.274265080315798 29.2786683688327
28.54547353118648 15.477612533146232 30.480099080816387
69.0271284988328 16.808504538834057 18.08660057312941
68.55155489248469 14.64150759076339 19.197525322672533
64.48436624752868 14.095866790454169 17.328388104753135
31.61039381179079 84.44450952069492 10.733637204163026
35.21263851355125 83.8755061588012 6.7594269102053275
69.54765118674536 13.909497290458754 16.7716199519416
35.256434340473724 45.94610733705405 75.08165480884252
32.96522037132056 46.379202109173455 75.20158165110766
31.888987099796868 48.16621693071812 77.19249088506255
32.895915639438606 49.159961130331055 78.93545754014008
38.5909987473948 81.00380508392088 5.848623855129992
37.59561418184414 82.5578524964833 6.389547923330598
38.69914632574578 84.99467065983232 7.219279885799249
35.74877261022483 7.8846324101484555 10.470163416733662
62.499583732344455 44.53550955704142 5.02769659579724
61.891302055445074 43.58200535179697 6.811820300771523
63.467280555698956 42.33475371618305 8.514536796283773
66.07315712600975 41.89167053299252 7.849916507579871
31.679728008271063 47.745044823270774 81.13943012589742
29.876536237395587 46.83888658379798 81.26253457174677
27.878373782967984 48.26658570229685 79.88101778808725
27.704140993082426 50.46541811630903 79.43427933911518
45.62128322071821 37.18571234957232 23.698818827496265
43.54494827654394 37.504782115807906 24.979263851442408
41.435091859075584 38.96492410897913 24.124362580323854
41.21404963383501 39.95774195667761 21.98170106991191
13.888591417941289 31.551950751876706 82.83984429557285
13.739743003732691 30.290358853716533 84.60636064187617
39.56677884633193 9.1904374408389 9.052258616124766
55.82070656092532 51.335711555559534 77.79696861707443
54.99196796516667 49.19320198775635 78.52091645122371
56.41543232939886 47.2255461590166 78.83907958516447
57.13741098845916 46.17858728662093 77.33915760566919
30.215342760780807 51.514484313035446 72.87174305131163
30.13035379504271 49.96922456047542 74.35372322580686
30.019907422587778 49.9167931430804 77.07314029157327
31.978256109553094 51.557808872659145 77.87200074705044
25.963015211651182 43.21932484889533 77.35795889688858
26.96442232287876 45.097225836545405 76.70891449720312
28.523200742501697 46.53514709134326 77.69538880054307
30.88042230486126 46.20689372082691 78.65933609815747
47.86721023877143 28.547057447185164 29.805648105099614
47.62928390563891 29.641509862897546 27.91829935783718
45.84562449468362 28.608411585060857 26.02188800512091
44.850036015266575 26.521799060631448 26.172109181978588
20.760192910530527 68.80462557229019 20.678067688353664
22.074265892899515 69.9291070449649 22.052878000998444
24.22285529216039 71.31267033580238 21.667024877791704
25.154143246963333 72.40160519586401 19.601789331411155
47.92393589609639 59.175173687827474 4.659886994731612
46.16789578337522 59.02725926582973 6.275692588066528
45.242166975309054 57.505941341817014 7.633170661842792
44.7385318722543 54.73407152753979 7.237338194353097
29.027636344093185 78.28676528044433 66.47013724949107
26.7473958527631 77.89539628251856 66.91643794003068
26.026199241936535 76.05332433157119 68.66155084277979
27.053558477083172 74.89613928409464 70.21209751691966
64.46241151739528 65.9707556344833 0.03991920091049046
62.26160108562417 66.74212350806567 0.27685943315277783
35.05431913329326 44.11256039764201 7.329847862375915
35.50080356219269 41.83894111076926 7.320644497205728
33.57017325237056 40.12752831658322 8.701745753481132
31.334805534578575 41.09445652839333 9.646120728528922
29.669407285202066 67.10569408388876 1.1119234694377853
30.96966939959163 65.48177161556472 0.7769210524131009
29.620564066508383 63.14233401518655 0.02570218075295924
27.276935404783266 63.068613368289846 0.1611605056166952
46.07266357137364 57.297474028847795 21.505821360508847
45.4663120288804 56.485148146137576 19.156941815348336
43.15781338491884 57.54637939653632 18.33550824735992
41.29997034736129 58.61106932705066 20.104357837762556
30.453552439675597 70.47229753415003 0.9950479374525143
43.09121037775727 59.32508821429015 16.353985071428013
43.279926281213505 58.59765633842134 14.54704750529323
44.550732725856044 56.372109411806186 13.937179367601257
46.54240224148385 55.55088458300059 14.754789539984971
32.237012773195 57.05651038054253 1.723610880510401
32.20448341080441 61.95422726436097 0.13619735907685734
45.75335553816526 53.25852685063296 15.850769702018217
44.589594611494476 54.45591337507745 17.83401338740474
42.42923010748363 52.89635797517625 18.822725183741056
41.622715365637305 50.881914461209426 17.76202018548937
70.14861755432874 33.08609254855393 23.098991046988328
69.22473510069868 33.787896837558925 25.13045857071554
67.32632819922804 32.00027560278052 26.442274809486406
66.61018713689042 30.018448775584744 25.423576330923783
63.72538664506897 30.26189608556133 28.436960716052933
64.3434819628304 31.594255025234744 30.214688467725487
67.34712720889802 31.61225024954711 30.2497970796644
68.33472271569 30.515936383551846 28.44947866073157
72.92894057439683 34.71168604309732 24.664512270203964
73.34027093885261 35.23399916771439 26.818842731861665
71.0120482790165 35.66100744925389 28.060654851722582
68.7567352202811 36.23379033716188 26.582433844311605
23.39417605556988 68.31268145621137 70.03143234516226
25.417635573379403 68.7221770882497 69.35503467661133
26.388981389425638 70.55745113920833 67.76278922499911
25.581482384152338 72.12445750401716 66.79624908385739
53.68247781742024 77.10929308781134 77.44254820015509
54.40673745922353 76.57768758492456 75.50168545245913
54.92504349238906 73.99977993028004 74.76856083208577
55.333279542582346 72.09235630745569 76.42272075057902
64.69375086527072 38.98169593427561 12.15731776868666
62.22975957042729 38.44896739241727 12.261425434363787
60.789686482593936 40.735208559254666 11.01856262016439
61.709221429382715 42.75758978644769 10.521629787327477
55.68952709750557 35.634221690118125 8.820754163908672
58.2768090173369 35.037505179662716 9.532074637435496
59.53334099613577 36.021192308395115 7.389501852848663
34.44712801242105 60.98472179740958 83.6622163241339
50.596640142298966 76.07657292052714 76.94858097385529
51.26312172584572 74.28146358821002 75.64264809918723
51.21842025979096 74.7770137390009 73.41338056262893
50.3983332816599 76.90700113736058 72.26093952250281
56.34044816591362 42.73786454886279 11.442923615988862
58.442633102895755 42.01733287164558 10.90540212843163
59.65809545317297 42.91027748830797 8.762038060385951
59.61230460036569 44.9477960891977 7.703707067556549
50.28307094318547 70.84717205475275 76.25902789723104
49.76520534709016 71.52450960664495 74.13957810975943
51.81676502681439 72.15312374449726 72.29624441379642
54.14402877559327 72.06902281015499 73.00358402345601
54.72117494314552 43.28251216963187 9.472542707395368
55.50061357225463 43.0658552394135 7.021047787649744
56.493683619615 40.49486068969999 6.295916262243296
56.15058711070067 38.337901485162696 7.744568079491783
71.03219247499742 60.43275828740234 23.0714045805428
57.15182525179993 29.785589012864868 43.1311349379609
56.99849597720267 29.04063070087663 45.03288232836588
58.80440507468824 27.228444840084563 46.18760791147212
60.96347643812253 26.871610296677627 45.75583820092424
6.991657455631763 9.882882478173473 7.315332335237868
7.3792444407099715 9.08937100868396 5.155127052317418
9.110043414940723 9.676745147295316 3.892097641739572
9.66925931525095 11.356784642622523 2.4886474022929725
10.259221142462318 4.455661335904035 8.923300411802218
10.55926408249467 6.3827316528268945 7.126510894262104
8.917140026869705 6.969537279823041 5.322383719033901
12.485785935716502 4.978021045903231 5.415912670520291
12.018308676725566 7.198641512553004 4.861923974462183
62.636642210092106 15.860294520953405 14.887035458202106
61.96720948301182 15.24571021429675 17.56275748658357
60.0790235201467 14.581305443913728 18.39237846389727
52.76207656975168 49.7968737069101 84.89853831220435
55.58592676219208 50.746032145335775 84.50680953264762
73.39533403485386 16.645250965362354 17.15215816736769
57.59776642893118 52.35996051480732 79.67563240623359
58.44615275622133 49.909892500613445 80.50709699600539
59.05916372515483 49.760472335611134 83.04799224930375
60.64723826610725 43.663863267676795 82.74672023034158
63.54312760510258 12.990690655338648 15.069260658790236
74.30505495007462 34.4932445187398 32.037338141637434
73.40068719689704 32.26351704728373 31.293922453607564
10.479585434921793 8.976895620440573 7.89748605153488
12.357292962079377 9.398317681418865 6.463739786797282
14.804970509334483 7.918637303930881 6.506459742019499
14.591399443747951 5.602170395736768 8.235107104778047
55.754726313040855 80.30548285737542 20.483125182509752
53.68985474506474 79.71171447957744 20.228027989540035
51.84780770630584 80.71551835738913 21.617827312569833
51.910878151056 82.9807180835575 22.844256578924824
52.756140415463435 77.75396614273681 65.47414360643829
54.52797543179756 78.77738418783034 64.66084836314067
56.89421134808583 78.18052252895708 66.04468969361946
57.15061482345149 76.51726017953474 67.7886846300983
63.163047034245814 63.031105760167996 15.5877336968457
62.550891251599175 62.854191631606284 17.49402029743703
64.51232919198974 62.33682447482103 19.202539193135685
66.15343410646817 61.03692776695216 19.024507320022735
68.85740761046871 66.79438433798992 16.286466051175143
67.7732488595686 66.07771760751464 17.829939272844857
65.18298165067351 65.48434123238293 18.12481693568891
63.28684024124357 65.74003967196734 16.644233573490514
70.94969889460972 56.74102915430401 27.547364665492488
71.24375537188207 57.02587290264235 25.329282804694863
69.65722874328154 58.3931968270633 24.028211238449835
67.37271568204332 58.79628378584891 24.17020290095167
60.254869365881476 73.46628731967604 2.224117913026303
61.654698426797154 72.46876293673847 0.3534622515359127
42.5888538905947 84.78930241446517 53.196776675166504
46.57473429686678 84.51595920586126 51.29337211995513
56.9633729094409 46.35386078753112 4.187814857477347
57.216264964986294 44.755514908388506 5.742315548831215
58.77916316459944 42.77845910355338 6.253973403767212
37.62882176690405 66.32801585064028 82.6052157939393
57.027214712408 70.26624767556653 4.840777357059789
57.64937570687654 69.97608466928594 2.715038248928076
60.12351443062327 69.62998007044072 1.6899403499610968
61.93054805225018 70.66450147605588 2.4770503942404147
18.554685351816254 49.8603157930729 61.76588796600481
20.029707063122704 48.96822637161761 60.204055773783665
18.97194949661665 48.12703124287605 57.7716908601844
16.754925592572878 47.20344081785506 57.196937738405374
15.844804182843257 55.16513884462127 60.08016472092597
17.08850256604213 53.69627187617537 60.21481356481577
16.867885987663264 51.36823832934205 59.768658268389096
15.003422692138853 49.70615092433467 59.93306315335224
20.700469781404852 49.160327791135444 54.75207132063866
19.92526466081763 50.23667829729339 56.236890939341585
17.529336748981606 51.2313105193012 56.703968539013324
15.889820023979564 52.29023328165536 55.10192507170444
32.20705319619535 60.259925759187404 38.68916525659844
34.30774711540601 61.149356099611516 39.17875010634766
34.903183949044966 63.74580662581355 39.31854212010576
33.56713758746539 65.71529073627876 39.09660264492836
4.853243717799896 34.423903111816244 41.720719050233946
6.717643570700184 33.642827442205075 40.6489668265017
7.78165192081707 31.05738471289317 41.54381346495802
7.214466319514292 29.646702870493492 42.9929305779875
42.44255457026162 52.93677428480516 63.485297319264845
43.673448299508344 54.399888006480005 64.04426444274469
46.03940053400272 54.753995703223794 65.44032910844177
47.243652504838884 52.4884435591295 66.47269729242645
8.177664017121407 45.717150740190014 70.34391643392807
7.722836168170535 46.735431170629575 68.34880745406359
5.949146628026656 45.57041104106009 67.69208718851719
5.7279572331543855 43.05591434370817 66.58613853786915
16.398277758918717 58.84985280958398 52.223197656717495
16.96612367851367 58.140678753266165 54.050828085818054
18.25982803689794 56.034020703527815 54.257537336746985
20.295347095884228 55.539955574204384 53.89614927921482
17.213264546343495 79.1605857693294 51.79074419428595
18.529443413098893 78.4780944041206 50.15322024236453
18.809487467707303 79.81849644514276 47.71222045126733
17.83410366566641 81.96748035418788 47.26129104127357
13.681773315548863 30.428188534238824 47.00711590132029
13.3096415712853 29.89648145242504 44.4834475133684
10.893687448293694 30.31195100952862 43.76455383256459
8.874147927273334 30.65378562753974 45.03432110621733
5.596203536862437 57.821765172943316 28.0505805365962
4.81183353356443 58.791064413020955 29.867786812703727
3.8465415846624675 55.97985500696369 30.319575886235384
1.3187637025959411 56.02135024186201 31.073890347835295
11.349475745404236 49.02824734713047 3.5935450172822576
13.37106244422597 49.15161612118898 4.3853977295250965
14.320081235221899 50.80007749436874 6.193405443593317
12.742745780009786 52.586546144464016 7.392153044988461
12.326062287907567 59.48656692888317 29.223379619723605
10.6669725996237 59.02736589660513 30.735027806239334
8.309459143585395 59.29097809646429 31.065410721321122
6.389445831647269 60.772148055272474 29.882265810204974
2.169323071827763 57.59635944509253 38.95344970301138
2.4356833881108737 58.69384877017585 37.25049117055476
3.012029328223447 58.17201379423703 34.67193657249206
2.6172088406731993 56.52116528969929 33.15405491176498
1.2508886516033069 72.25802930824656 64.45245869822529
2.110276497679387 74.29011622001775 65.95857468618321
8.297504028080926 4.284703044910761 1.780918855472474
9.289510145518298 5.86126565158773 2.839628093474062
10.193931610546484 8.139260224964831 2.0587317007173556
19.587847192791802 25.680340397890213 69.17335901178119
21.2239850164598 26.127803411822438 68.13263624134228
22.513406146518737 25.022295762023322 66.3110229501335
1.960576100934257 84.80863868820792 29.4488067582437
4.437943534450658 84.32182333892004 29.968597532188266
21.31681665721212 24.463049698524735 62.70357288904777
18.7854489482509 25.06447304847226 63.620364728169825
16.869797056157395 24.59284288963437 62.90367150707546
18.49966189558639 56.78039807017702 56.76517514491133
17.796190097692048 55.31952779328654 58.15091332044239
19.035836473742858 52.94932114434705 57.872941218388014
21.159523887036183 52.480995299880576 57.44625128454374
4.351483729470976 37.80076999640783 42.381680566879446
6.345442136206744 38.13511810979021 43.404129023635896
7.894667085036701 36.53207740840792 42.899951178129186
8.636822389682756 35.441046352200175 40.67129418407954
8.935844779646734 26.558065922543705 38.778427664615194
8.395634365427098 28.597559203968782 40.1570804923429
9.590798089095761 28.272103593432085 42.80490879094319
10.177808258584273 26.307793548489464 43.92950253112878
4.817101503810596 50.19417067590318 70.84579181659132
4.007264186872153 49.74896828423139 68.85668755430153
5.930878034267038 48.62571299940126 67.31354912702929
8.276929095504352 49.196309153489565 66.90816062813735
9.569433211068628 29.810555979536606 34.939664956331946
11.492968613140846 30.680243104231742 36.87564995707387
10.690070492696963 32.04617255414787 38.57242648306213
8.49637177998918 33.81422143936803 38.68472216060191
0.020578710411375368 25.61381278318749 63.00196995148096
1.2099321534684513 25.011922476663916 60.87885812266873
1.208117733011047 25.963850313632992 58.892453903345064
4.839559242138431 35.34534158664471 44.49171481203188
6.653656960200597 33.70418148728847 44.37843765049365
9.090229540352253 33.983496697582204 45.73147053453402
9.583021148394321 36.06320100296444 47.07987385025498
19.544255247212604 35.048839310210695 42.96054455252384
18.720978767041043 35.415621471846244 45.126779616954835
16.53247171475791 36.44422683250605 45.16030717589649
15.141291226809711 37.56409444766491 43.67355059054536
0.8416996984332396 20.917609892655634 59.96361890404327
33.444321821320095 71.81639345185319 40.56687925951783
33.78077455388609 69.86533941880774 40.96879017435223
32.6848887217061 68.51454246732713 42.33311839141357
30.698555995539188 68.90029897120976 44.15727210317397
15.099414911422887 82.61736796409902 47.03021988074585
15.182383615511444 80.61233024232776 47.3327542863298
14.444670697063065 78.75455054774689 45.71280251449029
12.647969593839257 78.46558865674041 44.58199051851878
4.640902393654771 64.55924412598598 63.07290186714306
4.295196616167996 66.74276757928669 62.14136868605777
1.8524677357376549 66.39261309220711 60.80057636366116
1.2589472259714838 64.47566730026145 59.52019163683964
11.662025270867652 56.56815425035881 32.300410602338786
10.315077189403562 56.09170588466645 33.5537844734402
9.202741499566818 53.41606296673348 34.061566662343076
10.298470932086085 51.84648937438551 34.46999512872108
15.495248859655076 72.85567381244574 46.54785553042847
15.72775681117037 74.41277089010548 47.86653660491249
17.49246652191492 76.73845258889918 48.08259684932856
19.187628217596043 77.37092399561446 46.923453644120436
20.283388143008278 46.05631362071332 56.41201804354908
20.285022945520375 45.548537461560684 54.364534551729456
17.940206089135742 45.42482218357686 52.88032368337185
15.56391391623795 45.75926170898309 53.76418250516081
23.969545903489774 78.0541983498539 46.7560172782454
22.49143716444654 76.7449884804968 46.712373606524594
20.893174213431394 76.02504977777762 48.543871954543306
20.66720833957013 76.71778122565856 50.899535629829685
1.7929140881307617 67.28568873153132 63.77211031343395
10.117716003683823 84.87863156620098 28.614640453288914
55.385550383850095 73.57445233713193 39.064751211648904
56.236864870557056 73.48592828745605 40.900096035943335
58.84291546752138 74.67354638328915 42.062622521580394
60.26441546888207 76.1880436145617 40.662708487512084
13.947152834291627 61.384926120055844 31.457828877288787
12.777181991232593 59.498192125632876 32.210436859169455
10.574433406239825 59.587156192038876 34.008651472671694
9.829176362650385 61.14965849114495 35.23938355712046
6.5009586305674665 82.4087813843164 20.159441712885524
6.83440752361825 84.35289138265746 21.604025031591043
2.432662282308798 84.87808557887519 22.3643642899156
8.191993831351187 81.49154152057527 25.076679017503082
7.102472723914505 82.76828212995343 24.099597349255205
40.234003447729904 60.677818661098016 67.97896208497671
42.217679125980936 60.39495615603295 67.02955030936872
42.75157866291043 57.869127970336 66.47329090511266
43.08888520340792 55.971035142609345 67.77061784626275
5.1343611907590665 39.63929160963667 70.67632367601422
6.103076499189208 41.893536373078035 69.8076898368116
6.785246466456976 43.450187800311156 71.70663185449013
7.434883651777755 42.93001387824497 74.20665139427733
37.63281296282458 60.24748110150068 67.74974867156062
38.48692585108225 59.30831433246147 66.19318876236153
38.61435751100991 60.21704635606207 63.76809477779743
37.29048281497427 61.78930561823995 62.71759157104628
33.4881030857761 45.94411098190576 71.01657153730532
31.363927086303086 45.69807864410035 70.61013354011668
29.893167609271785 44.99486073086717 73.21737276514271
31.628415061099336 43.956300659429914 75.17128394367397
31.894907706610788 35.76357384654439 47.677791823320256
33.460411302438956 37.158604228712726 47.4765456937092
35.75134697802067 37.107877334812805 48.23460669135132
37.30789039175599 34.98503738100898 48.4746884042397
25.362947625672007 47.69349880128546 80.76300827491943
24.414363196555897 46.817433699704736 78.93182173826544
25.08511443012416 47.49479620143911 76.63206194677501
26.492135799846583 49.97480150391026 76.22862290347166
13.435725286692929 51.690825204600344 57.83196753160586
14.688587930750224 49.78778170479303 57.21480201447373
14.578185908976634 48.02516994173549 55.45061075956801
13.576730466466923 48.024512609178096 53.366103693289986
54.16900442622563 57.217800526666394 67.47583685766354
52.30171813781119 57.12401204648752 65.7345581911151
50.76895879407924 59.31628731930929 66.64728188360993
51.54588921875502 61.433593892278786 67.60132705447751
37.8828270332005 61.96256308709614 33.164753659160965
36.15534946988052 61.475355813024855 34.77875789028817
36.87642370215863 62.84338028432834 37.33652309903526
38.54871974000874 64.6001688302302 37.73613584690792
34.60295833092696 48.053798875738636 73.12658628514392
32.33117868229011 48.67722474884757 73.93359521974094
30.58038054721569 48.727962679817075 71.64448888745576
31.499903882217648 48.16558578061584 69.34608116435903
23.216117964569353 52.353297331371806 59.63811639279252
21.25383527123392 51.474528772923485 59.91852164552041
19.541423885293447 52.796986112403175 60.69371410165593
19.768113135217156 54.78144710189408 62.49865320205921
57.04059319943443 78.53847802156194 24.317144331664817
55.19597244783398 79.21447754242453 23.233336193444057
52.60940681316254 79.39865013683706 23.97971895450122
51.47753747972863 79.43705209895772 26.163075982448497
17.2259013315122 50.962417511124315 48.025588383130156
15.493909796227044 50.76088904506629 49.30934550812315
15.562088086771194 49.23444021029299 51.65892899857376
17.070114421082888 48.25326462294254 52.48338224668976
25.718163148437732 46.46911965616918 54.54613646467677
24.268817219609456 45.522524680781366 56.21195432274212
22.517229832128546 46.96114114997255 58.060090793940134
22.41958555005149 49.34632499839185 57.91304641381705
32.649593201760815 73.00943658333327 37.27376810667839
31.381379312465917 72.68690931262623 39.00923817849713
31.425052805302062 70.08446432443245 39.45357065943636
31.621867765322886 68.15317662997246 38.09481894893374
12.745638609394083 46.34361686555571 56.399415968223714
14.141465414039404 45.08522917102017 57.85491937397712
14.28213986045541 46.0689365361974 60.321215203598285
12.771362487021062 48.01568012420957 61.26345983766967
30.348209358414717 62.89454309121726 47.24426273628251
30.329840303470114 62.89691142842704 44.93565860313266
29.092791872614757 64.33766766538666 43.14000675387987
27.404978212449496 66.09659237688044 43.52246155188084
51.76141834888577 58.45315464004038 36.69154462115946
51.51761235333527 56.44666471900897 37.001395181063565
52.41311946706897 54.44170748423173 36.14563659496163
53.866986851125816 52.90162817557903 37.330579069704676
14.883628281034651 56.79051339633066 52.919237254016885
15.271046049957269 54.94207708985969 53.95531264104368
15.93762565883228 54.82646690462621 56.281066000558724
13.620321845663854 55.223871276618006 57.87997052927422
26.99020618913063 75.09713756732684 65.52795662465547
27.637675327971177 72.9054326451829 65.15671252270974
29.545252546428156 71.57580436061575 66.2930130369007
31.426404109565823 72.28366600769496 67.35777085588055
44.719263454277964 37.44156526731903 69.67206945587313
45.75867014267054 37.14524846826041 72.09591410936117
47.30162538717806 35.25999992591452 72.18634258881809
49.060491557424164 34.8819916568014 71.17285355888927
43.17579347091639 32.90082830015971 65.20603936266578
42.65548272595595 33.777535725125496 66.86830244394561
44.68647148694367 35.23394594694485 68.37397216810413
46.9016953033856 35.7570757846048 67.62323368385556
45.686354351701524 29.762380002764836 67.59485395837639
43.864337280862145 31.206777168017954 67.2396184163226
15.909744354964078 29.258533105166563 66.57984545198799
17.80834820598693 28.749279286903093 65.5286200103938
20.12323904258524 28.311717666019966 66.86033227236558
20.377989928213196 28.304392274108228 69.60425842514707
45.64206823536474 59.58654924540927 60.714423128561435
45.69188128169547 57.22996163969091 60.69814175383391
43.333786685608395 55.98887722146642 59.773901294167864
41.41868960544275 57.19911271102699 58.38478834143359
19.093140958055304 29.770431515222917 63.120910761549275
19.922751238255817 27.906456649971112 63.75210864772139
22.20180031271471 26.73138925998518 64.05908088201654
24.36380120134067 27.756690160957962 65.37476131493221
39.81120532135326 41.18010606250973 44.08542660558497
37.63155196058411 40.43913896774326 44.238098884552926
37.260098454215445 38.538978419684504 46.30658941716641
39.07440196659634 36.89003780696755 47.157172849551074
14.169605707964308 28.03699143338188 64.63013324209894
15.495837972135194 26.812792728316726 63.29849166881503
17.383371543920273 27.893485321777202 61.68324731841194
17.53358685344868 30.099535151012862 60.5546091558473
13.944075767251125 27.57701340282329 67.81300741723501
15.799975890600557 27.14298054773786 68.67058130793087
17.54817740243643 26.10072493957955 67.36677218070524
41.815125848802786 44.134177297837674 50.76575902834633
40.46511722982397 44.68144276285526 49.3708858471874
39.8452815405781 42.75290441656737 47.337945762830465
41.125911859977954 40.68889087298189 47.20794821254636
30.679318304798915 36.93568780093412 50.54620727691854
33.0150665591992 36.721711331483526 50.24090121806733
34.48761161361113 39.10840277369886 49.647415072383346
33.388894983467495 41.47078497633569 49.30534045735639
40.794132016200706 37.73889306015646 49.3356135002721
41.419230080798876 40.080060087311296 49.589603001546
42.05376115496153 41.29319254503984 52.047143994663095
43.23067016067729 40.60522922588404 53.77818582021953
26.591894216377046 26.061877412204677 65.82781433038252
25.633146036227952 44.48103341129196 74.11732231763314
27.318979780042017 45.57021490430291 74.00212199554353
27.887702632212072 48.12191740945362 73.76155599128654
26.335599587849654 49.98735048090202 73.40257854006465
48.33915455762003 81.16732485915223 54.82238673380295
47.25487117027152 82.87296480767857 53.63073015387883
45.17329507167215 83.89988058072906 54.749460641899105
43.4662146605855 83.05183635389906 55.56755050920479
49.31502164351942 84.7305216412924 63.18779561669997
47.22262640865153 84.42136374872092 59.191802434607546
48.83101571522041 82.89583438121967 58.17040229601522
24.06087920869387 79.07479497397672 66.51262225986027
23.690641251201143 77.27599699264725 68.16871257332109
23.957051503799384 74.63681819932059 67.50531500187292
24.498602286212456 73.97361883963931 64.9531222282919
37.771126337239764 59.650190175085044 37.99929578982108
38.10940696937614 61.551314189465835 39.11807117058852
36.817221264492076 62.165741102525715 41.34586316762782
35.653903412151244 60.785778382549594 43.09704592512341
26.77459537522157 68.22754103604704 60.836782193735324
26.650125198528407 69.91609812242382 62.705799308384094
26.99581584162312 69.31545168338242 65.32027003601134
27.22452455395235 67.09974706675364 66.2854636666217
4.319987964282834 59.56389085733797 38.739631228293476
5.751467916940838 58.604455090114286 40.279574292101415
4.40692182430053 57.90601439537075 42.49669668773742
2.848083706243135 58.8673518232638 43.69473213821014
21.64277752754473 77.23581985429779 69.92109022337293
22.012851679253288 75.36670349428324 69.27257885091555
23.63297872854686 73.22952739992449 70.36149862392249
25.257295672274285 73.76223774388514 71.99485558324255
31.968154272334075 69.99041150891415 65.67769879345396
31.249278248505846 68.58499670993545 64.73512593608541
29.88479242513479 66.39861949274606 65.8128754637398
30.421361350283373 65.20869398999122 67.88275656666693
15.183836866927454 75.57970103354182 51.884289767409655
16.789797451988214 76.53787491041815 50.9946933038012
18.58276158187821 74.98425389227233 49.89342163703981
19.49280365936658 72.68070431697804 50.996430948093725
13.511554492984216 70.54778228608428 46.624235024167454
13.141822168843552 72.55197316813616 47.94386345610572
14.502677553202824 73.36040620632573 50.09389623103488
15.10545787109566 72.13085906779013 51.906385283132295
12.211366269848643 75.01227666010101 47.26313263842107
13.507196592285684 76.53903873119498 46.87363142244373
15.086704957872517 77.9166370564951 48.52751985836231
14.75500805531757 78.70850539719996 50.931117348993666
17.321114056548645 84.05463518321982 42.89435988312705
15.64830241314892 83.00369837467933 44.092572390079994
13.35299541866744 82.57814347059394 43.76613598037534
20.070437949149056 83.35491887067782 43.58769363545183
19.1880578909579 81.642218722956 44.864441257171215
20.586018161616387 79.69370417376602 45.927176901187565
22.67864468138806 80.33869038305927 47.38969369129835
35.718226184685726 35.16816599095499 22.535179129269075
37.889723931449026 34.86015334420584 23.40269498444771
39.08954781142744 32.75007070452393 21.95976777737602
38.675381987759906 32.174602891924614 19.50220588980628
59.53543703920731 45.868453809155845 84.98526729746278
66.25158400661111 35.91572090671158 56.23184066184622
65.24916318610636 37.52487182139868 55.233369610590955
65.37920636002727 39.82098388611825 56.012455714559486
67.23955995845638 41.240172011932565 56.755352440581206
59.57537123179962 44.31571587516425 77.69205170019723
57.7088498945456 43.267704727307134 78.42262306329509
57.668281754892945 41.530149471958545 80.5477092402593
60.187144094428625 41.06511727486326 81.6572460622433
42.49304549119178 52.07036395346504 60.3604181833012
44.16670739671957 51.79532636637838 61.467301270734346
45.80167634088608 53.18312234423425 62.31567293885929
47.22285257899535 54.75830317627259 61.539843629560686
12.705542538943961 77.17441038737645 41.21622487803368
13.709511295705678 76.75144807604373 42.90805295211052
14.092658861338304 74.77503171057018 44.75203562481008
13.449812591166785 72.81585691604869 44.82605288093417
45.33651157097765 60.089729383197955 67.22953108974482
43.96629271339937 60.19220751944794 64.98271173823277
44.28367076919641 58.26811418025257 63.17703474809591
46.52506294885253 56.77205334122427 63.33829143528774
51.448347481950435 78.05367130910226 38.50311051325965
51.94034222940681 75.71249401430862 39.373222150554945
54.115130352899904 75.28507230362982 40.949309347760085
55.640542704576575 77.09907898811956 41.78458468180506
40.97465378892283 54.897617476426106 60.19449628558202
41.79061010777167 54.89074074163636 61.80287610275269
42.14687782907422 56.73741984925637 63.84854951969428
40.467522527670184 58.104166057779786 64.8690999916045
42.95142272443473 63.70603927064704 60.16080229860331
43.04471846390905 61.84963160683349 61.14306701063694
41.98515615209321 60.543132202219546 63.018010212469584
40.69273110949324 61.35500691637285 64.89816857580993
56.59445360508372 71.73945536046689 50.793484965880516
59.3144008602922 71.44719981351686 50.91937370944403
59.86532124449202 70.27055587697889 48.57501671639186
59.110329744043874 68.62262531565177 47.82749474595598
49.296761419207584 51.15146134817915 64.9085731243504
47.96816657263108 52.76036138086494 63.92700837178557
48.42698720584099 54.913329682833734 64.26511259902009
50.62819984523991 56.53392312559547 63.11439470668188
57.50256227653889 69.61281797753071 44.30486911073324
57.7316731116157 70.75158782089895 42.49767691306979
60.039534485570286 71.50531331506326 41.76162426025862
62.31001948964925 70.36543482977659 42.551197865866754
58.58568967941711 78.30910555515372 40.732546790116125
58.305895060583886 77.42752797010239 42.9298469714354
60.08587892162846 77.972509259463 44.937616802785634
61.71567668641212 79.63975024444622 45.114869714727455
40.546276635654316 62.82303639513112 58.27220550505395
41.84533717167415 61.07378676500931 58.57337246552615
40.92512707890739 59.573936957615274 60.81012595042918
38.853172715786876 58.85879608928802 60.972903027531295
56.00558384771719 72.56421093019142 71.48262507541472
56.78367088022027 74.7249244238918 71.12951254629029
54.98933740364008 76.75958600129559 71.5143050238876
52.858410852860274 76.72402723582516 70.87283641565179
4.370125410495364 21.939122386048926 59.7426421749832
2.1603420353728726 23.01379012249675 59.37071663935152
1.295688649700348 23.075312539348335 56.980644435956286
2.620487226000554 22.787783282369887 54.880024808585986
62.73764175846031 16.504602884040473 22.51129600202213
61.88127935920952 14.819944927971516 21.108535631271046
4.571865112337092 19.822770445695074 53.578391066422725
4.502647286914072 22.26604116456529 53.114260316908556
7.982327913054032 80.89415789712511 27.858275422703084
8.21087487257742 82.95948789504587 28.85487503081111
6.519015866353947 83.3049009099115 31.301313073500285
5.5816716000131095 81.37843174855617 32.51943009655974
3.2052928256129607 19.64975645003362 56.65475242184715
51.79593169049785 30.094316106365728 71.8139014671137
47.70845416203009 30.119713439642393 73.3441701799765
0.33514987278937275 23.128755631133206 53.4322620445237
1.0785482900723795 20.310504079302078 53.32061143925577
0.21712187588665927 18.94586237350178 51.66719636294942
66.38958997705124 43.05657531269054 54.86561386918572
65.80995782673955 47.23005897089673 56.13276770690907
64.59128285630644 48.14797582646303 54.32321296891246
64.69024018793556 40.82022757529577 63.85237713246021
63.21455148746945 41.49503881712085 61.768640432110786
61.93828140087097 43.278765709282546 61.358218045889444
43.629113542110915 29.663319439730046 73.03628666798731
44.75103992679015 29.07930790707066 70.6744123389771
62.28275580868191 48.29540940029952 55.870760521892116
62.513358221543086 46.44500779716929 56.47235689718846
62.11345934832252 45.24752716387777 58.7848974317637
61.164223991660414 46.090038604644775 60.92342381023846
64.96506764953543 51.04007866789846 55.20358252429688
38.73163646255207 36.317027908348386 66.5988798364228
39.75744093606146 34.323042451243474 67.84503520944146
41.72384972519896 35.001280295232256 69.72845050224238
42.223269221162205 37.411671552781215 70.62521557031967
54.76190917827493 47.906879215724054 83.9000005283261
56.80133488515444 48.29814601524664 84.11705430594793
58.744956821298416 46.86446031558504 82.48459538491448
58.69073080151038 45.28564810410667 81.15073328001814
39.023644729751325 64.2153248579686 81.92495370882088
40.32285653005972 63.652552942287414 83.93585430540516
62.13409581620152 39.85563384980079 8.226289535309672
59.816907910718704 39.923953018437615 8.387059282865852
51.897828013250496 67.81236500162028 3.0745637035982947
53.427204295338754 68.9933255306213 1.4511445388850848
54.77388091127639 71.24866429794993 2.440539759682734
54.51792391554986 71.94603949431021 4.926132786901622
55.41147335240494 78.00633480902106 69.36189949156962
53.134370876601324 78.26951733780028 68.55597769926563
43.513613737652776 82.99553657485443 59.14877136398456
45.71715402631937 84.08110133656949 63.51121699948752
48.663256289042515 77.82275943266144 59.38955603390241
47.869967769150925 79.4787647125493 57.80075578650204
46.39038301042056 81.44208996699736 58.93538907376134
45.63964405859046 81.70789614237611 61.149840396901226
47.72013596946292 82.36585654420388 63.38455605100175
49.78985317987042 82.06694099478356 62.77352884934104
51.964820251082855 81.61091056263166 63.53513528209373
52.97064341612176 81.07700217401309 65.86072919943217
56.35370623772437 73.0478746886412 6.407044819956171
58.228744850164055 72.71704811767572 4.9156865431178085
57.4772590264556 73.18493570944717 2.519820858157865
57.64027593200911 74.94392406804357 1.4492084414603927
13.771647017271105 0.09904005755144048 47.14096017007712
12.198063313014917 0.8029807576977616 49.19753929757875
13.558390139753433 1.069406809932498 51.2925736504372
6.973311699917455 8.386433898927935 36.57451773510227
7.41594264054116 9.375316674594409 34.729036663543766
7.185449713578194 7.58034977132497 32.453845149050885
7.415628281191163 5.36351722826982 32.35943275347903
21.705428931795723 14.110585730940182 34.89300681670746
11.245691440835964 3.0565221505242697 51.72644130718794
11.965685358101647 4.133172309105979 53.55305458580142
13.831234910924955 2.5753710357545314 55.04140868713189
14.253622762158946 0.26026808113193184 54.773432658813945
0.9967463390129649 8.063318313939376 38.86136029291254
0.8731392053624126 7.859240237513806 36.654158685362965
0.2811242147349767 9.704838470487864 35.03041441541948
6.169092328133135 5.89234819255479 37.24919203172778
4.4314376536321465 6.951098153672085 36.138864861297385
3.193361326239105 9.148861659752798 37.235747454782704
3.1818732750125767 10.04847772959049 39.45288915876011
54.83464532261308 11.051270639179807 37.52318522492362
54.613339566537505 10.6402308003353 35.18160979673313
53.46390533014342 8.286326997995703 34.36391431909641
52.66445238129259 6.643052929112107 35.64959472011352
8.615926043180288 28.362553194492104 84.69493665449757
10.54042419326215 29.056091609580903 83.7954615718439
13.071462860124937 27.610283800473738 84.43127129872023
13.442602783176767 7.716111239930172 48.73159055489112
14.646255705894886 8.321499895642898 50.665215838554644
13.796607932547746 7.481804472391535 52.963457648817595
11.35324012161145 6.7933987856230456 53.59773702488712
48.47399881701609 8.580534549433608 63.44638590701986
47.22777800078641 9.54887256688395 62.129768567757864
45.48763966539268 8.155736383257558 60.96126060537888
45.14473903521199 5.614551159285322 61.40739614959595
63.146063616288316 22.524474035087895 49.59571825668079
55.37454371205451 15.501919025874177 31.53648361013695
53.66148850460406 16.196273980444204 32.92683860321788
53.05533068214249 14.389452601970934 34.89235127599197
54.45251497245677 13.49347046887242 36.33301980054368
44.98812587541543 14.611301829251602 58.08541282117074
42.92509187280682 14.032138831460403 58.59965954816666
42.44353968609249 11.720404268148666 58.730789143157125
43.22472520205831 9.771385281390488 57.52252449659621
32.391258064355185 14.437569944323814 42.20873258914753
30.351481262452282 15.850184483290002 42.72919102615131
30.88912490901946 18.166091848018606 43.86423236925768
32.667217768152284 17.99326188518165 45.53979112168027
60.67213213507607 22.939927934907484 48.425584581293755
44.4666019012397 13.148414022427081 60.79746025505662
43.6968255638282 11.517226911298454 62.115489213520505
41.445265110275564 11.362147200462157 63.600810801721856
39.6043613809284 12.724137888561113 63.71650147305021
24.2356832254449 14.218305873460487 37.71754347263137
29.027577699590797 14.74493015978782 39.44991675389034
26.07838870508677 10.44827255098317 31.28668131513972
25.60166124956357 12.383712332870088 31.62964793054137
25.938544452150385 13.868252187645785 33.85653148929216
25.903719732858402 12.422821835419333 36.30935695655366
30.602892819094208 16.921791981754378 40.40325197232295
32.53108067741602 15.003857459576276 37.14604699800604
30.145535561509003 15.112417200508691 36.49212731440183
28.314723039612506 13.492010704945919 35.68152904516305
28.17460840125895 11.258032531144913 35.29586356225276
54.393463006036086 0.25481042898948075 53.81941303272827
55.358709977738854 2.718537937201434 54.842155463282744
26.23609528816255 1.1614674130736267 67.69474609441166
26.466770476442882 1.1634371335456808 70.06973947582038
58.02849951355554 0.9876336682485778 49.01814990438934
56.9046535298178 0.06846604474421468 53.13167889758769
57.87086594877096 1.8417505135924366 54.516169180041466
51.98813589524435 3.361478271433812 31.546314763932266
51.643663152831394 5.453864307746128 33.609953951533576
49.70017993605752 6.608972617932938 32.91006498892375
48.33317196301566 6.644272415353032 30.698909162914237
53.65946628421748 13.284847978435383 30.678810258923058
53.13404484069443 12.421949036454135 32.62523957285356
51.53144495856768 10.401489650681404 33.273333705675164
49.667669300197964 9.371325517228529 32.05686087206925
49.99517425276091 0.7157300262086557 31.34598095133678
48.588297907526226 2.8365766307776505 30.77596838778415
47.21830301368387 2.9160110639915096 28.956075349875103
42.94872924271984 4.3659943715487115 29.868622610964987
43.09762307587895 5.214256304527678 31.60666176004009
44.88104275968071 7.349712593052662 32.13559281521847
46.20742750142925 8.331374043191877 30.988950845642172
45.792379908308014 0.02656519754089229 29.37589909173087
44.22640594232717 1.6827145652860527 29.271520265352045
42.06583892043734 2.3709288449036623 31.40241673044762
44.78557834955369 5.766833893636486 64.372735940503
42.853717948215326 7.227144336124011 64.68894037313117
44.09577682825052 9.926957643920852 64.55833168449026
46.66605010386754 10.153263044359237 64.65588617911685
54.856280097785586 27.836927046656342 69.42595627018062
53.450314991637335 27.905276477242168 71.5857624428619
53.63724725120616 26.964802213381404 73.48035902894702
53.49147951185167 24.440301224944676 72.84371992795612
3.25274228472467 7.908856001742994 29.14241077693054
6.627255306846249 10.923282412703033 31.316019745496384
65.28601260189058 9.23010429220442 65.66521152005379
66.57439832655491 10.640056489762502 64.65453279051482
67.14775209738949 13.170028974860436 65.30075882796191
66.43092873252354 14.367906063167379 67.32590327473434
1.8835433117120708 9.035006599265136 31.166629365536654
73.87217266381754 17.099319941161205 41.27783516770217
73.52529302734683 14.89307206519596 42.306507530011096
75.45496315826851 13.826497901235046 43.773449110209164
5.381556805454087 11.237782451325886 37.897569071061234
3.125121062606964 11.91617869994242 36.941336322997074
3.062721669051209 11.594744743014408 34.223880384951386
64.8432678628647 16.27342600303126 65.7150859680267
65.86930510851116 17.181223197793045 67.32040054555678
67.85402167392077 18.77241745987297 67.22120955841575
68.25422765668004 20.460471876640245 64.9967513000171
65.81980040566344 15.464752232193268 62.90005004844949
67.33333270308982 15.641950115886408 64.24048949477157
69.97122207816024 16.71358281301435 64.35175465806483
64.09571948866827 20.149922334795175 44.66471328961638
62.88023418126726 21.4254978499106 46.67927610661154
57.30197972091 6.108953058793082 77.89321188903166
56.05336214996631 7.220513118714461 79.68816932518175
56.126688317853 6.411158229056672 82.39182058661966
57.419549900796135 3.8735805338890743 82.89659969641095
1.9811010353204241 5.456084535683678 35.312686415421176
2.4170619904811903 7.2382907322321515 34.34145175000387
4.221869942211193 7.629774432085619 32.02831945090571
5.262437542238954 6.013254678039648 30.9218429510034
0.31888669770500233 0.9968104352163083 12.214881792065379
64.3275854570351 4.469884977596551 53.015570912530436
63.55174011102867 3.1876746659632635 51.157996888656015
65.38689688965744 1.13010587954777 50.11593439281993
67.63489553225358 0.7308179894960679 51.447506389031446
75.67202729156082 16.04085476431091 33.89421337498779
77.26692189230779 15.35854493964241 34.720525256633735
74.20452342090289 8.042234641699448 43.36239485101165
73.21102592428015 9.272895369943951 41.61675395292382
74.32915191581505 9.847215317126494 39.64846309038068
76.17249751381372 8.80876117714114 38.11522166994643
18.46431885465596 2.6203997624606177 6.410436148628155
16.260904986754177 3.214765864731063 6.6333531516787065
5.153668550129014 9.097305824531492 72.51064823579526
6.570592550163956 10.395127591697191 74.05993703512084
6.7457170198231 9.102229967809297 76.41888903533851
5.50754524038233 6.939965316502672 77.16044923506624
22.312324444518737 1.2007825714683955 27.385023257771998
23.085842342196816 0.7951972779858059 29.95762913338809
21.32700873592515 0.09662667206480836 31.399679214922195
18.783385787644264 0.22461883878085964 31.31471723678723
39.39794116719882 7.7410614471578185 13.604455071127832
38.6502998958809 6.015334469230472 12.330465791368141
21.88160755889544 0.48226175700099766 24.247426858963365
11.274520533609618 0.1555715156826403 6.164220621880818
10.339134339328192 2.4066446586919694 5.500394697064278
17.09965577851525 0.816060364327643 7.838831278753766
1.2027845656540201 6.447227219607278 80.96616200874067
1.5257212323830813 6.422691198434526 78.55559147467038
3.281227277759843 8.329470945243187 77.73561983662007
4.581384197660872 9.309199670475088 79.1701694676337
8.640329358967467 6.268273874053154 83.71509381317735
10.528662621713227 8.594942324433147 83.32390510953468
11.797862174666884 9.487047610712223 84.64771035639018
14.028386175194015 8.306392509224162 82.53836634905205
13.72726790488398 8.93307720030932 80.183721501713
12.30839220899362 11.333415557191831 79.68117040968929
11.995102835195636 13.100348527672129 80.99348190549182
2.6991487048253533 12.361537239356569 71.59655274411902
3.469538845611178 11.01840839804904 72.73144123967276
2.625076492778559 10.10286788723129 75.22084871904345
0.4986052719277497 9.170913491135456 75.647979720526
67.02586149704142 9.018394470601194 22.37121804244182
67.92806030390805 11.14198174117717 22.075212283464854
68.57756364961628 11.762266085775483 19.303693598921654
68.73926412438695 10.030198809044967 17.48847428915327
28.7028540454983 14.090537800556035 32.883247307513905
28.433485615849623 11.36584316380021 32.72016912296697
66.12509182501748 13.38876264664467 18.658852837569913
40.381176423105956 4.320987710425173 37.88078533752271
41.83265105965271 6.1211011352198526 37.11365069130984
42.40956529567354 5.830012640630867 34.34498654815172
43.98342112486641 3.7519843485314635 33.90657504356501
71.1308971408672 12.081160344675974 18.025788757299686
47.36178135870996 0.8802832736511439 32.99577198848967
46.3663967931593 2.434330686213564 33.53669605669028
47.46992893706094 4.871148849562577 34.36642801915893
49.78069487666446 5.135638814589723 35.51896314255278
33.2146132878766 3.9930070602239565 11.98076474411007
33.70125183244088 3.912588358993777 9.512182670124435
35.393910930249504 5.884042613039554 8.972310778588815
63.898685587164465 11.723202682218325 25.217802289372855
65.11609266128438 10.68419098504853 23.835045506744
65.50577521257698 12.079204933567624 21.281713953980674
