16.035405271492014 30.295591443054875 12.312139778172817
23.379434166130036 29.618971577074177 16.760413187143726
23.41411459489972 31.707639316376135 15.980522814647506
21.05461270131325 32.51521670408646 14.663146475192686
19.213231687157574 30.96164491131195 14.392527094340252
19.628361235977668 40.79683448939329 16.276367688932975
17.108235197788844 37.44535086809859 15.662635509961486
19.018032569202944 36.294028415720426 15.531886772478876
16.45977218221734 34.995705500303174 16.465113001891865
31.32228191691902 52.7583161115703 32.48542487737859
31.679350713773815 53.59696451549844 30.41744376374406
33.696866663084926 55.09876753842801 29.97272635164375
34.71436362711314 56.73695030655966 31.310429509326394
38.6972871883853 46.59566583447485 34.30490295771345
37.15544612731065 47.68707465013225 33.52791652028704
34.81833505704899 47.55906828600489 34.01838798885239
33.393124052543996 45.90549159888987 34.72902300835952
44.437345510830944 66.049403345191 50.86233837389363
45.94961474801471 65.9308871760237 49.829186645469704
33.52654219285302 49.74838036505921 35.96716690379677
35.60318819782329 50.33261927619733 34.85742446377192
36.478019081201374 52.77853951991111 34.40749433125772
36.14046410803026 54.80405028249183 35.13929164220346
41.918012992409835 51.495395572755406 32.232064551210925
40.018722746284595 50.10513678787601 32.40572215651057
38.289570552822596 49.98204811702522 34.51128073610311
38.87581474969245 51.455732155936126 36.58712991046347
40.82720822610169 54.149604716940345 32.971288706522834
38.99836877836418 53.886812315469875 33.68197506673689
36.95922240733753 55.931330872471 33.00711556212006
37.171920467555346 57.99115767306401 32.50169214027284
47.16701245635883 26.99686515786465 22.59855595990137
45.00966348034382 27.607576978258088 22.519216611263257
43.65993891463714 28.613347695818625 20.63429852996843
44.45518544785614 28.649775476172348 18.10303564905218
45.863373445384354 62.902975807236984 53.90175357076897
31.940733292176812 78.58074643335247 48.545446059999115
32.02792665328398 80.58096044160318 48.06655085851616
31.8449736155413 79.91092589365086 43.389500139882465
33.111633603988324 77.7249259733039 42.23370466629513
37.474799958184455 76.30547826757967 39.84792382707217
39.955054408701876 53.684816990542906 27.904202608525093
40.377431760184216 52.48344228453982 29.970417431754942
38.64101451839483 52.266890812066464 31.59274086604106
36.093309426184895 52.55406346343997 31.794856552756865
45.883528029984035 28.84576430384483 24.70045190311774
45.84994291185235 30.986695081848247 24.18680457689688
46.80844498005187 31.96102878769998 22.033546508263186
48.89983049897045 30.817887207735065 20.554874630913577
43.84590306276891 29.8555037739025 15.259736039575609
42.17745892722856 28.39484786455479 16.52144050671033
39.683037197638896 29.440159918253247 16.57220828208005
39.1998362426646 31.718768636306887 15.391895461595881
37.337338974541986 31.441648092580554 17.40130008448343
36.70303910775343 33.22149669780077 19.055404554549504
36.94759160250905 35.52352460219404 18.300842293276432
43.288830996351905 40.22070589705724 38.2323222943518
45.632025748690694 39.74743241976544 37.89202941500462
46.85346791415347 37.5033559751013 38.118642679894194
46.65035399176713 36.36853902120494 36.251087010160916
46.5605546067316 42.79337611165877 44.15134668935853
47.76030658328783 43.19476930676996 42.06859096559078
47.52238916136673 40.680804298995675 40.5111465515619
47.465509843236205 38.51005908988981 41.334644245624716
36.58032637369996 38.68365678727047 18.75099380195949
35.71464095138501 58.59141811915998 29.2955078300908
33.9706941967746 59.592964280057636 31.17713403249584
32.067648757507776 60.920246716567725 31.108472683910726
0.6624047923169345 25.75477926352458 51.19030752745417
0.613659943730456 24.199026691413582 52.772429262298104
2.2012175587643807 7.196988527732015 59.880887699927115
1.8901733875706102 5.37800940082993 60.710922117302616
25.28111203951395 21.836547926932734 56.64022418720221
25.613874937000094 21.253748460766047 58.65530105564618
23.548879171904776 20.68436559809037 60.00753597308087
21.555172762336724 21.70694595300001 60.18228743243096
18.314248524260638 38.319757274688236 40.64308170987994
19.467526483478267 38.83432839494692 38.99341370383279
19.21339950743137 38.013952016912626 36.53402764809196
17.66008067124908 35.90318655174767 35.750379732550215
21.222505657592787 14.30816337357304 59.5659836871218
22.243909474354602 15.633891339581302 58.10530564509166
23.33156222385886 17.882989874806626 59.316075589691195
24.651718746323237 17.86780871764003 61.19062289668413
28.34687569790989 19.460614730112052 53.2013834362966
26.475794560994622 20.360489477084855 54.71247816578924
25.856973958622014 18.6978114453427 56.66658204152338
26.653051905352356 16.750086645422957 57.249829934031055
35.82254122409572 73.4228816411516 43.52562635936185
35.02511960367352 75.55062863769051 43.282062551071824
34.2445491390703 77.15614448175928 45.279327188524505
33.62184629904116 76.49199062173253 47.70427960220935
40.66115227580126 40.442425117841466 20.268345974049055
41.83336921965661 37.94262547011474 19.614590247321274
41.18547148782707 32.45749583203491 23.193090050628253
43.408984041962775 31.05039326782867 22.685685648626713
44.16767314047015 31.729586819698312 20.115315631366
43.988149310329206 33.630006190979586 19.290923165442614
21.03848563414879 26.45769667194008 62.099765928707924
21.75725997595684 24.461547862034372 61.862691568899514
21.73531869410351 23.190552768096698 63.88538156513481
34.85795891308951 5.601890073674062 72.8001155085172
36.41098312683921 13.171666936794782 69.87251371459745
34.979435866539255 11.777531121405042 71.41095261910371
34.009230953821366 9.449844123936646 69.93518662722748
33.51940177076472 9.30507710861076 67.4961090110105
19.40731506592221 1.860995954784359 51.92354749728785
21.707935854571907 1.8444926715469632 53.14553665648627
32.61847313554049 7.157517487075587 70.68565094034365
33.287932776743105 5.310492780561577 70.03816404012288
33.36954337140824 4.8410655871844455 67.43432549998083
32.35851634756037 6.820555087629232 65.60308583214132
18.277290809423704 2.7189443663600152 45.45860204022715
19.072599768792866 0.9754217038882244 45.171938093571406
21.117351810979407 0.674316554803215 48.633584418651445
45.48054551776534 0.782769847671177 50.26367054239639
45.743649329898496 3.342625143213328 49.914189865745556
41.1337781573788 1.8429694551811702 71.98161151140083
41.22133595595401 3.1669878678674173 70.02229643704896
42.77823738022678 2.884188147318293 67.63181517496032
14.656566102936683 24.41792489384641 15.072874233985925
14.49342586816691 26.4510976670848 14.439980032197516
16.12042315670024 28.278562076513726 14.210789588093956
18.27906029726858 28.265091415105587 13.326897522300872
1.7039043863341365 21.60079247046887 51.71183936933932
3.5507464939069524 22.00231304068585 53.1922942924172
20.059944541782105 16.629204478445317 57.03695168369123
19.813772242419493 19.31955021359027 57.23830696502616
19.506142679231353 20.352293464052153 59.36820455036049
18.69439823363532 19.664805238277392 61.63846265595676
9.21781200919376 4.802582147726598 63.17686660025847
8.096616279262472 6.3678681297908675 62.18268990878559
2.069824766317458 3.1990046347289924 57.2290573648981
0.7452163062150544 3.0133505361448933 59.38533879322574
1.908950070007867 2.4683274098572148 61.500600098435946
4.286426432345035 1.7381075393384624 61.929643912149565
7.117431553050429 0.12479989937240987 64.21417832648322
6.572704963637675 9.374777298768212 57.99936455905326
6.806878419484973 7.7365541919072145 59.821841249156044
4.890344715905143 5.841952492801142 60.06819348840459
3.764256327846506 4.804180807159035 58.29029448091236
42.39185360403058 27.036802539580748 57.01911515633945
42.8030753112324 26.24522068704921 58.913999563110096
45.32574670389031 26.97624898421814 60.017220790078035
16.455122658333615 0.6250038055943306 45.72360886600331
42.96444120349494 3.150967383660472 64.63376138182149
41.275474867524224 4.625552653361509 63.602907048372
39.34936296674025 5.181713076103677 65.5807952200328
38.94821355614578 3.764564453239762 67.42848358695944
40.271106562869456 2.8973640254773945 74.65953235280564
39.525092344853604 10.477442407888297 65.51973416820599
38.846466169833384 8.723035823063732 66.96077239690477
39.91025704302891 6.539942209865505 67.99880261062668
41.90405964759185 5.666266246123537 67.93193994518568
36.1674557791517 3.332941971370533 73.02093395633476
38.49292853778593 3.622191513943808 72.31341798202692
39.011288749581055 5.542837772675422 70.40778426529202
36.45695857681956 7.057679117408217 69.28782065413198
37.16151646809046 4.262601704719318 64.37986530387293
35.97909860534259 4.876990692735687 66.02791842973865
35.51689692823427 7.516520170924683 66.70525136979344
36.28686685962276 9.593007170371218 65.46657736252769
34.48986178563037 13.75183641025866 65.13603977830853
35.682859580137006 12.083355653212575 66.22022131565923
38.0309673026475 12.32081792274285 67.48116689082251
39.740620937477075 13.74967525583817 67.29157631070909
51.68658543252466 15.016447978242365 20.780587198523747
68.11203300247672 0.5824767931147662 30.801792125796336
72.40400387556905 2.629086868837233 29.081382667967393
70.90334905284257 1.5359628948582262 30.70093532468343
66.27362505822668 0.7999169056097214 36.08063108246423
52.411991046205735 6.235107443106006 26.93768620054682
53.67521964627727 5.468158406103209 29.217027615371194
69.22928199357138 1.1577529064082928 33.03427730970458
53.859773371212114 8.142183745908792 24.918767547918087
52.72472014385857 9.856963956098468 19.00477228841169
43.48083555575489 10.075496576183976 76.24991693622059
82.95574936895342 5.274573735045918 28.7814606731111
81.71579462302162 7.149215933239805 28.37885008426179
40.1450222963075 23.686742563402532 83.083073373251
39.49569426193257 21.440395570925993 82.53389376050914
41.51357002703291 1.0651326384150712 78.27125624801678
40.787912084658394 3.7316448089361702 76.5131327248369
54.97772129118938 8.59144016784058 18.633403257071485
55.066249298982505 9.518604744121337 20.664510782501583
52.736676345562 7.889901198938674 20.793439895684514
51.89898346061772 7.683426407450756 22.7424535047377
52.2811923296322 3.4535685287019287 24.6925449876006
77.43669784563997 7.179599200968464 29.21893136841772
79.18271327101505 9.905742037031477 26.780769497002876
43.53045037501158 21.595530726102012 84.39488338872734
42.25102648562429 20.99436535774343 82.6346573873859
53.87041738034805 43.46149563858263 39.680137677846325
53.41128453957659 41.36643523335186 39.19307670040205
55.08422123649925 39.350750441163534 39.13526720313704
57.32114007443776 39.31555242324696 39.64491617915044
82.58241217877398 43.95677283877721 71.84917321443916
84.74501068542418 44.3006018058723 71.01165554687385
84.84498568447273 39.425199933666946 70.63368136899047
42.77796783554232 4.092466953816186 73.08594464263854
52.40608002143993 21.239621545341492 63.266727481834295
52.111502681129124 21.105549089245034 65.29215524704203
54.210507431078355 21.70524744428118 67.29243340355357
56.202586634412945 22.72012538263458 66.97887954305199
64.23346156869148 53.15186752342187 61.560191691057405
64.48472779511252 50.345874887611586 61.6727935141819
62.43037015599794 49.206338539937626 61.05329981690714
60.643388508162914 49.65883004905139 62.603368729825306
76.86190735010754 40.82990464712165 77.74305747066778
68.61521608950073 45.121599444287774 52.41124097777448
66.29302760247757 46.042658187202775 52.48312342650939
65.8046789904478 47.52028907681026 54.70484837711932
67.12988544111919 48.30514316653152 56.456792448741865
60.03645559848312 39.49194746926498 62.74518168706188
59.188065417796366 41.22966049391302 62.9533544231864
59.990319577016855 43.124973151685936 64.92927221890643
60.72026128810883 42.47546891573763 67.34788726542341
66.02901810624013 46.56829881806343 63.79679626802855
64.62065076292548 47.846190868274704 62.459766256505354
62.12456196883318 46.69969635825161 61.87243391926821
61.26904993211423 44.907997084786565 61.949500680462116
70.09246049271653 24.124172786872432 50.98097120081062
67.65533988599104 23.937525237921232 50.765737654010245
66.83338914251215 21.43119419058962 50.802090479814204
68.46036730644528 19.369398899272923 51.46801540098453
73.84617011649722 40.02041191858328 77.7811219810814
79.40179963265965 38.33443115073562 36.322984463968005
80.42478910061912 38.182605149652815 38.331089411400825
79.52884323351536 39.13932890667014 40.52318979972579
77.72603839740017 41.13379931357621 40.572594136809215
80.08389784225056 42.84619035805682 46.770996949871396
80.22086422682474 41.319079659156664 45.599575576937085
78.15617960522754 39.99286733493718 44.7730802038353
75.94646016680493 39.49789673572182 46.40613494412902
74.61050298135797 40.53481960661721 38.212215965305624
73.78314786869623 38.505932605272456 38.708641721088185
75.03479749846854 36.630235276187896 40.40737052153986
77.12989397861502 37.364091542007735 41.84459622436187
57.33960326024436 43.67825758499205 61.314429724969415
58.34310295635397 44.55181956473541 62.93532841931853
59.40406152491247 47.194809775244515 62.57392701265445
58.90075074095193 48.69336099612479 60.52967258632377
73.0378178749378 45.69358621993089 76.0291465747109
61.532139519474285 16.465043715326768 43.700513521627705
63.433188031653124 16.67180342181078 41.92402539269544
64.93537250508305 18.489126045996283 42.53842115098552
64.74100437348937 20.88228681887054 42.9768534845638
69.34957651935966 11.262803054643605 41.87327479377906
68.99590672587107 13.072522851590977 43.891693623138195
67.44203789317314 12.173030768306536 45.06944380659795
65.64085410730982 10.654969293014874 44.75311507902133
62.685513567350064 18.731538209272987 51.7730992630478
62.48631206036772 18.18808916312202 49.727134470833604
64.09951193559043 17.949564431987525 47.83142684481984
66.72437659740174 18.10294128610567 47.648122985685994
79.81814718767252 46.73200007219377 42.117694959530326
81.51671771222473 45.1139694673682 42.58416103873568
80.27338227288989 42.551411333918985 42.83008486370711
77.80074981887823 42.18557610597423 43.09368373229854
62.32257975980537 15.119484275757483 47.478242884461984
64.6167975891158 14.860444980276217 47.167729949689004
65.63537152107305 14.552056300181397 44.83667056885896
64.72127103202577 14.46243783389281 42.836498212025084
73.4169762974956 26.560316238715256 58.999591753269506
73.14561001134305 25.30100228919605 61.355054754200424
74.0934644235223 23.960317050816116 59.42650996319546
72.76155752548843 22.416478790129997 57.80968095388434
61.4801588265498 20.442103289610394 49.490562339292175
61.0972605291475 21.93534272081663 47.675576512572256
61.90441606273309 20.458076260152335 45.61397670244008
62.27731546667608 17.821845715210028 45.69080796137379
55.681758209936746 60.525282736869016 48.793851323303436
54.63450800108594 59.969679442804406 50.54028140863491
51.86091472388672 59.885227458095244 50.68593849764287
50.41028214512975 59.32124868926386 48.82387928107652
71.19210401777985 24.852749957316142 67.67675298061525
72.41570268356155 22.963010757445883 67.88013662025955
73.85463231375901 22.293022589081257 65.43641719067503
73.12700222291448 22.72268999065053 63.22545010052812
84.18545303542439 14.627720225303559 32.8744594710664
82.98347556978823 14.954867190337588 30.977841078212798
82.85212572038962 12.918732230079382 29.52764635636162
84.73509727409126 10.912080580105178 29.290588261232937
83.01615820623802 12.473032025368322 26.459852269002372
62.34209800581481 40.83951940073869 56.03310929408578
63.291957600837776 42.32602911560306 57.452607435077844
62.66783709898091 42.39057817184549 59.91014613122688
60.93722304528609 41.69954008987863 61.10443802525862
55.42817396142477 64.87402664725023 50.63948937703639
55.026220242204 62.56645552463931 51.14352952948178
52.98804062251786 61.95972373285081 52.72310158978697
50.77365479710997 62.85313612513049 52.99638703836231
62.521114586452455 37.94309794524299 56.48513847758641
61.192639902237005 38.400360652828226 57.8581290457477
61.87351403520523 38.36693662907929 60.225960427953765
61.94731458032399 36.72375449495083 61.445802730194295
50.844472236175754 42.15304018937693 37.15381153751074
50.29149949793433 40.31333661154104 38.07357673057044
62.32801530793085 49.45581031818948 58.42831527048634
60.94334285379854 47.47547328688644 59.141568357131405
62.637473458891726 45.11029028107093 59.464824232308835
64.74765292472291 44.640370698072275 58.55380761994333
64.61712228068728 39.74449265513961 56.22761007344424
65.60850156510092 41.077714031803005 58.28790661540605
66.77499548921632 43.49331040166648 57.25084256713731
67.11772266289417 44.05940034739518 55.28637421201004
52.8463768882645 33.37619757468632 40.97748897507827
51.41260435207711 32.87991078793068 38.601244339468636
49.47005915340782 34.97346490182779 38.34401210692985
68.00741599781212 45.90558001703156 57.655086291065885
66.82328671252773 46.62702353353517 59.264577142605006
65.94987502322743 45.69646502825657 61.25822619603768
66.73430436663983 44.14033796833997 62.97054806556969
50.677971914990884 29.90304309860664 35.70678318697341
51.6072680740548 31.966936967460054 34.751797053404765
53.80669358344396 32.97253522667433 35.82691689287437
55.44093393194721 32.160106059345814 37.176988192751224
57.12077445863648 31.68843251368792 35.12871424966791
55.21897684834376 32.94445528289748 33.77657150681352
55.12224158543042 35.62884099760058 34.28333593173749
56.90527322133139 37.06744316427539 35.522893234907734
73.51261412267154 16.45416410003243 64.47040714303759
71.50015842877004 17.522402628362226 64.65709349781646
71.13215312580988 19.758600459501682 63.573303343106396
72.90972092298712 20.556232572641225 61.42764655154435
47.74765370171132 25.617725833440158 67.31254293256663
49.115196610113514 25.301130415540506 65.6305998669572
51.34044007419951 23.588651665247895 66.00224407504214
52.07520006770235 22.90801343872558 68.3120266089446
52.66907782705326 5.106057227829221 50.00362482617824
52.24041103497724 3.4583712675303913 48.905965009872446
50.46681079668373 1.239462563129734 49.35494373825644
48.62318880555203 1.1562299079101204 50.94551819657905
51.69890779604264 1.5062283709040807 46.26380660489884
49.40144921319769 1.1351774429790225 46.87068261582371
51.84243581463646 66.96723818084675 52.919685311355245
54.42811577615585 66.17681775400561 52.873474251957376
62.94502327615952 38.75967366428889 63.16999007919502
62.92950500583324 40.78231919901614 62.97706271309193
64.99820120178748 42.534787237340275 61.733510434862374
66.8211512907894 41.57924884810474 60.51502376938976
49.63571418041001 54.124475422007535 46.767789478559564
49.99531341959841 55.69442077833444 48.09732700526099
48.691154684504994 57.54855332389271 49.37336459529906
46.45425427180176 24.373370751126824 54.95875932900083
59.2916460052622 36.60271192391641 37.38725285548843
57.32207632338953 36.95674736648512 38.156254315390726
55.478472879840766 35.47135531814673 38.57294767244504
55.2591648728597 33.45467752221695 39.5385833909726
46.27373123231517 25.088076734925306 65.19180964725594
46.70545059464363 24.550174492013586 62.90245913026203
48.3225655302612 25.62786122462827 61.697940265866265
49.32286253576875 27.7280385507713 61.0926237900763
71.56645692268341 19.13272903885665 44.839187119281554
70.38820377713573 18.542781795458975 46.37261920057808
69.7396190131438 20.041341358806417 48.4468800829995
71.11107958922268 22.416875868584036 49.09865468244485
51.305643522708124 26.716851864554275 62.85184240831812
51.792902787272084 24.229859199514102 63.175837931318895
52.30038755962885 22.762771218587687 61.01262682552184
52.37583889085525 23.50689779123722 58.40476270546437
56.51770014452731 12.419623921643417 26.704093942803617
56.00441443938487 12.085313605321092 24.57360210291783
54.33690927315953 10.358870993448022 23.885477726201128
70.9821714864652 9.139522759139089 43.665855661312975
70.03096992157356 9.513003541998515 45.455755007721265
69.99404395328486 11.980219795340075 46.28615767794978
71.92430673701358 13.746465730759425 45.11888459002947
53.284938720191406 11.556878561788988 20.693881712559335
68.84465210210132 22.905775870616324 47.98474241391074
68.26159538794656 21.59426255635651 46.567879333502155
65.97941997640963 20.519669497573748 47.01573737533139
63.662065233640384 21.92205765972892 47.38869653359478
51.44009806425354 12.743208855516963 28.40124535738864
53.627594591390306 13.6092455125634 27.13207955805438
53.4498462119385 13.607190366144806 24.67520367515737
64.82944200993774 26.476125148438832 51.1481274217545
65.75718321129315 25.023123027646424 49.305828745463806
64.51911393457792 22.39286189696466 49.95938197932194
62.28392417138238 22.307746439336647 51.2798000658386
52.3100639033326 66.92598572746432 55.84785805052872
53.83583434184101 65.27581204951026 55.25697934407406
52.92377489698 62.864562960851075 55.480763941193196
51.318618162053795 61.7485390682416 57.34155687764586
48.04043812054096 62.69153171770314 51.71339400497874
49.646620647348584 61.31337771127572 50.30400508045719
47.89087576500345 21.492333568911466 67.14492821137004
47.95392115607473 22.9497114318357 65.66224752355632
48.95172578619498 22.875934614729154 63.23917302214495
50.13719145340771 20.895067957627024 62.30935428897774
65.36737321959056 54.112568846403654 34.13475118140457
63.1148075086708 55.894593155312556 34.925392692423046
61.58111020103203 56.42471120317285 33.55848043349095
69.358475236754 54.141332353877026 35.020933530869094
67.09430286589291 52.729253760601885 36.163690195330894
72.00364530524817 31.806259681657693 21.867418136150842
70.44361067918032 29.500846139277066 22.518162739051654
69.81280323523869 27.560637647738066 20.948516988412333
73.55828640400121 38.725774651887846 47.53259713046866
74.46501122443657 36.58486600783849 47.99305889623487
75.81387839888062 35.10151684517491 45.56688084964422
75.4236527610514 35.74436993517342 43.293179007365204
83.03521624537277 15.417461647875534 27.322430578257336
81.04466307935752 15.371251761117376 28.840094468445745
78.98313087830782 13.56911257525422 28.712161703033228
78.38235995938857 12.206842160679553 26.913590285859616
82.42701496136566 9.493718425698336 29.730604947499497
83.05335649884063 9.823508638132761 31.876210292363186
65.7076720756233 56.64367594133066 39.087319909548015
66.11070461526212 55.4880432703887 37.10124462865567
65.56368025011466 56.94545534402544 35.07087279231512
83.95478125944751 11.39706714257856 34.32764059884335
76.20654540469008 25.376747278952475 25.26576646055902
76.08256414100849 27.579981479039105 26.282986500977945
73.92626036215043 28.71345495867825 25.252847169641758
73.03798274628481 27.814366916551634 23.03196626886082
73.57347420511338 22.565623767188338 25.989941013749963
71.62671757974132 24.235514003883782 26.113510453664766
72.18141106399439 26.599951622433395 26.69572356081803
73.99367886124685 27.616108938738307 28.07835198810259
79.88244697809093 33.111128041871474 43.219957477230714
78.93187883400546 34.92888580406085 42.81942359924214
79.27403992637366 37.415904659120365 44.30884161211783
80.05600483011355 37.58460595638963 46.59367511427956
73.33368258269844 30.310414953245967 28.815009229086417
73.12567116668045 31.963284024304002 27.681558907379202
70.40346924939767 32.59298042930813 26.80927551706611
68.38538284378426 31.094148527202776 27.455981591773956
67.17352658418744 26.198237195518164 23.28199683790028
69.38435171053466 26.672723952883672 23.762814809247594
71.68984829621445 25.468152804187067 23.81807947330329
72.66450114481516 23.42185462965477 22.868713359788167
63.33156664137318 34.37767239475326 21.82717508042483
66.17812546679531 31.530250842807128 20.476270725920916
65.35901465470964 29.53076661444662 21.484981758678416
82.5805834423824 31.54955091751248 41.77457415690424
82.50222678643394 33.155517981224335 43.390939038716304
81.81335068930039 35.55608546175247 42.705109167813596
82.27877267435399 36.82289935814514 40.63959176743702
80.29758934375354 31.993337328756905 40.44318288617774
81.33216935940945 32.920343081006145 38.68393217407142
80.7626127729697 35.55687458419078 38.44577139871855
79.14927717953039 36.49135182704682 40.20539416439985
81.93296363208947 13.222062157184121 33.322778334373126
81.36328239748562 11.829531884384691 31.507020778513873
79.73115137454465 11.463220032969883 30.16368057976201
79.00670369496066 9.24361883483263 30.72253342374383
82.39404728615175 39.62362771694478 40.45982535051885
81.16632017454086 40.34517555289619 42.09150141409394
81.39531263434385 39.19551409624311 44.4701303065085
83.05704080166119 37.252655305919966 45.08777053632656
48.26173932547977 65.47800675629999 51.1503879200972
49.13802320218122 66.4688535528801 53.01448079318694
55.51147643139532 62.68033472292978 56.26626713055958
56.55067982834842 64.52675174125784 55.70122571407961
58.50890857812069 63.89204872118975 51.625859028615416
49.57711928998095 66.32445156676731 55.940481751513154
48.617981181696706 64.00852218897671 57.484298389087975
46.9994928512605 62.472880740866394 55.692613356804905
64.75151558050327 51.94980957510507 37.52403362845263
63.70361016847162 54.13572259181146 37.09531544377128
62.22720670561835 55.77850673887645 38.51618401891173
62.7759661665145 56.296421144550756 41.132785933581445
62.05030822413998 58.962933315071865 39.37466241040156
62.67809870417149 59.55666063137992 37.358105982283575
62.224652216439665 58.594867142771896 35.06420559519372
55.12305569199675 37.155025753455774 40.82356341163178
52.79270125067413 36.286142802945555 40.932972167983486
51.152119751573224 38.48922091958541 40.23520808925355
51.37735493772123 40.62280687057883 40.61878046050508
56.30296115633835 11.68076239891139 21.68836566362858
58.21865285067099 12.718538696674464 20.929579512998686
53.91837641421036 6.994969139216709 31.52794922591607
52.33503719754937 7.788391057523626 30.23254515657749
52.968802227181875 9.32029906474642 28.343295787909724
54.473449944594726 11.429978292372102 28.51364011636459
50.62070468541335 57.55315699849821 51.50028905515796
48.49585488068429 58.51234554038983 51.88596441199748
48.26618660252813 60.77433481091003 53.70792063267825
50.063980228915504 61.4074730906843 54.96468180822341
71.30269782978222 15.922426730822067 47.14249431047258
69.24262391113714 16.31918722419927 47.39913604030584
67.49635035512793 14.626773314737093 47.19331507069229
66.56304562693026 13.189726499971917 48.94168407791945
78.28005972384062 29.65569590836401 27.971345698726918
76.14070002611334 29.216342237024918 28.535249799297947
75.06196652773508 30.482787820562823 26.661548410965366
75.79911849719767 32.69497796540392 25.520594580791908
54.96748131265244 39.16299141305033 36.1299255561967
52.92972842092226 39.55806798059278 37.17512442758294
51.894204204155294 37.457103292302556 38.05653544744685
52.85287002171149 35.10908636552566 37.665709820648814
69.77346921228352 25.085419783105024 29.319372464788355
70.75397271895011 27.56496285423623 28.911832652795013
69.70046517920264 28.30563809485313 26.508870838855078
67.81075601717764 27.9488169080589 25.469899264330454
70.70977070204057 38.60247395781402 30.51862221210551
68.89317600929584 37.24619438293309 29.983688277278386
69.83500831842153 35.08996256964863 28.108163116622848
71.67100975439854 35.042039217612334 27.17923073482357
67.44642865579169 26.083199638362757 18.787652105261618
67.50626068360363 28.76122860279577 19.985448263251325
77.62298910368256 9.335131273593435 28.51124390675931
71.17083790524265 35.08239365561626 24.415729497279354
73.17946379788587 33.74231881886956 24.948991136377483
55.88102474684549 15.075794681450652 27.023799431269147
54.69777325622779 16.186692438168528 25.233261356619348
56.033732601189556 15.989107328649425 22.8579494972961
58.31979626394594 15.15590628342912 22.353809162768815
75.33972878037657 19.80310875330461 65.5552999975933
73.14656452274069 19.596005741408504 66.27949154783678
50.25902133830708 21.26167903310484 59.59364392772538
49.783283598405355 23.03231735091257 58.483934659826524
47.529703367663465 24.26369489876833 59.20749087304031
45.76108507266179 23.081610572911462 60.60281820355561
43.84533737352275 0.9631914504917646 72.38827484943879
60.89033148338181 25.494810790065607 76.73378407106338
66.59271699462585 10.992572883644216 72.50492729053187
65.08901204255126 9.548542949350638 71.600066771782
64.73782522210372 7.196927404269883 72.72479581489789
69.2182881554191 20.370669940057734 44.264722521948094
66.65727967744309 19.71188090414365 44.44791779967735
66.4701948664626 17.12547333997581 45.04590560988132
68.78781950611541 15.592194737684096 44.89344643396921
77.84915677762528 25.332911796580472 65.18454898815186
76.2771244538034 23.42799989880389 65.15167232526674
76.26110011614638 22.07160855029219 63.08960598794727
75.89438968319091 22.70999131070243 60.83174834549532
75.30645726865525 18.376896669424756 63.13575290075833
75.4149807997918 20.040827884133023 61.171847200349056
65.4020321915037 51.84315624723859 56.21773144797008
64.80527859035007 50.098767793223345 57.389671244933304
65.41655224480624 49.051110672376616 59.54244632166748
67.83833329283547 49.2537606460816 60.67856394348268
57.511085257439866 4.152316549939955 69.1259121314734
58.95460275141504 4.941779206114768 67.93142127804008
60.54924895232182 6.707787883578737 69.04084197294738
60.117158918522954 8.132466965225015 71.18244205620857
56.46290801528217 1.4915553945966167 69.85131233055085
57.48156201519163 2.6732935117156758 71.45782330708903
57.09039843091449 3.1720458268980005 73.75583834362867
62.554642743512325 5.049733653926281 75.27357474076165
61.50275714229083 5.946759295706904 72.8117397888214
58.86749101655858 5.61837605009928 72.38101643850983
64.15441832052274 6.171710758202753 67.48670765508452
65.23747277768572 4.811012488243781 69.54423143816497
67.48288329564697 8.837942149919245 70.66840781283898
60.15753391957663 1.799661902462358 75.29161099493194
57.822768340321076 1.1094846046544298 75.4003129463822
54.31794067731289 19.049070781490226 68.16346229275645
52.79950579581884 17.745759764876556 67.09690930565836
50.79076036060079 19.276871570367284 66.86904013944526
50.25691505269206 21.003558029665196 68.59332757873393
48.069456565447716 29.219444421356364 56.58161547985717
47.29577618146148 27.22472564065126 56.775427558787065
48.607920707010486 24.906600830351703 56.82432840376908
50.836750252887136 24.279539359696617 56.191175689924584
46.786834671461904 28.760120863096844 59.06571543453173
49.822400065174634 22.265377032058343 72.55636907875119
49.235762123983314 23.00770139704745 70.40024224010745
47.526779088891736 23.487594498522842 69.15142127339448
53.80942550713075 29.576531070067798 58.360498754542974
51.47079377983537 28.869246735259793 57.42291307755012
49.498102739604946 29.902464209739666 58.71223302290517
49.92620468334109 31.36405506573806 61.03473464872527
59.146498185645555 0.5005624037366256 70.01946003189387
60.36699911081888 1.4662287569960237 71.4175433897703
61.89215244627159 3.5738805984379676 71.26898516270879
62.483286961302454 5.100411477813959 69.98042029598678
49.64746737589598 5.7929182064153855 49.07743146749359
47.79206654463304 4.53270909457951 48.46628055719335
48.21071624039842 3.5161721836189814 45.81991214491154
49.44480062163478 4.698820126639488 44.045145638893516
61.867141455410206 8.343378428355257 65.47315526768949
63.478329509375094 8.781999276139832 66.78606226742154
63.47241476954756 8.75239135631952 68.79089605203141
62.22966160477542 9.915098987901867 70.66683215511256
52.28088775845591 4.0572358374386015 45.01240927736175
52.39248247526004 5.380965466613793 47.07149116967489
55.02850815928683 5.32164359344499 48.43685071557228
56.834569368220386 3.7306216446833815 47.715342979364685
56.818629608455396 1.188140297419977 47.100283350747
52.9527662191165 0.10888887275976464 50.32030445390214
68.75921259599279 34.387730451144535 25.668013212177843
68.75267312592248 33.66678999417545 23.224079195303677
67.9627362291606 31.280133435968892 22.762296023535534
66.34690459443442 29.953547191317828 23.8431684848389
54.018142737552814 13.952571014903228 20.87752605188629
56.223766452239275 14.588727480056976 20.41333461383909
57.17215733672249 15.961943452637248 18.791173754264047
26.219593616052066 6.067683921309882 23.597379142857072
27.944224864624903 5.324281075115441 22.695357619502396
29.996630364324893 6.853145482896505 22.960006881991706
1.8120551877513895 6.252919411284823 83.80485587054474
1.5365370826091793 8.08913795654367 82.18379863736449
5.999071666323196 6.564716323718216 13.498777357136904
4.129063787710073 6.291728982896643 12.804734334394658
1.9353772733876484 6.373033757231027 14.632932441292247
2.834628601017232 6.6429330939866285 17.08226467795229
21.832923416935227 6.391886499859612 18.486789591172737
22.419079388632905 7.638261993136369 20.351958713320712
24.40777615543854 8.13654217528197 21.133266489854858
26.593977347358265 7.024273697306126 21.135884988090915
30.70167337164943 10.527593378021846 17.11824289440896
5.916378795829156 9.719779283451727 14.464258023896981
4.543913243384422 8.671786889888484 13.86833632017212
2.0830658222104157 8.862547324467714 12.80618719294601
1.1056002303109207 10.598297770804432 11.66425646373217
5.016104534425334 8.68915900198232 16.985624038023502
1.174971310935502 6.199107421479313 11.81318609449122
1.9623310889667662 7.375208134302697 10.081528984215314
48.658491307825905 5.760488074299288 28.523867165222303
49.83126513880926 6.0261164364625355 26.682866576093044
9.648517054088948 5.0653392021215655 71.14951356184972
9.760446316837376 3.446148572728377 72.51014216173601
11.982446897102799 1.6838753548791203 72.45906470852951
14.137311261341683 2.049614924683565 71.80265933953014
10.09519653926242 10.376812631112884 2.2297922191846684
17.829821247518975 14.58732702264816 2.9960493100315357
15.9106235881829 29.01320021107314 82.10769703917569
14.630758442578953 30.846771251741405 82.26502824384144
32.72993000618802 5.710347846265841 23.88784603768271
18.436983057101802 18.69674923727744 78.40876163971868
16.429592196180668 19.557535295300134 79.48644912200054
16.380343087654783 21.50320523943483 80.52518940495656
18.156660030701524 23.007977468166672 81.39909011701435
20.144357203052905 20.25074412616018 77.28892322605995
4.331171645240379 12.236334096512802 78.1123190722786
2.536045258554653 11.88863682893637 79.04209724898243
1.374990845015704 9.393465499051723 79.45238917175895
1.4331585886777176 7.355969378490166 78.58338915774728
20.360787944865518 3.9654191704007324 68.55668758991966
16.81868817102446 5.717810980544606 69.85100085210308
13.288201390073315 8.10031497467153 2.8084123556980787
6.122580373984257 9.248889376986968 1.4638655959937257
13.451967487631556 1.5056618004239752 68.44889982376172
15.696826267855954 0.7000423663353106 70.14558587655542
15.909524328073772 2.7598691669283233 69.64016245470818
28.469273869426086 9.772645615810054 15.963749600204252
26.92652924589597 9.519343275530506 17.676039640860843
28.030281433695343 8.936115728831966 19.952962745782422
30.159658075505117 7.893578769642706 20.63587791519473
16.35197324544538 22.57113625945843 84.08830766745692
14.547166556219846 23.742885678130232 84.38898242925909
14.184582070389494 25.76855454218922 82.53181230786137
15.668289936110094 26.621450027522208 80.83440293245016
11.413240139318177 25.89279742240823 82.53425603096522
10.58257747605972 24.679637387515164 80.5279704543178
19.364500342299024 24.76287740355162 80.06093392120924
20.654426099821592 25.239983302185262 81.96239987361898
11.84923746450674 22.49363746716821 79.37217498073046
13.195690783579872 24.23371067731688 78.88700720094864
15.781845537946301 23.15621414630229 77.76549494842696
16.212403818702878 21.07418976144398 76.98639414150752
51.28825735429723 5.658179336916406 24.344169027183902
12.86547544020219 27.293305065061272 84.50584659684489
14.389885776929777 28.23603620185019 84.00663710200773
14.452244811903432 3.3601296130242875 66.43397814452614
12.708298057293025 4.361675773921949 68.31560434693118
10.805252618026186 5.68895821043203 68.24694299834607
10.2756362752898 28.267106009969517 82.46838363338028
12.605107080937408 29.14514540861059 81.82570658256492
14.560145084614149 18.19159313501591 80.66409667379719
13.762723464191943 20.31934013155481 80.42053286550717
12.98215299958872 21.924855975623593 82.41779750295984
12.359450159559584 21.26070211559684 84.84274991664468
45.95450822065698 46.325075018126604 69.94752167770385
48.26324463817602 45.42054822753736 69.59470709592831
50.65177669011855 46.83714124793017 69.40878230515766
43.32473888059061 26.412669702977023 79.74229397477235
44.190748934510545 27.494539748098493 81.18892920494382
42.70169812249338 29.261625759854024 82.80386868293365
40.68792163360642 30.289319337737954 82.41032178752246
60.91022747360583 18.24762811972413 80.08687700060034
44.90901178191498 22.16876581131694 81.7813818974963
43.89403743961467 24.11552864993353 81.18921528743125
42.75568942201356 25.829922023501044 82.66280291934996
43.030691353332564 26.625003039495407 84.70857797855624
43.926512186179906 23.469507277009324 75.65730057530827
43.116956246891526 23.748211417945992 77.99317064212377
42.297912571655424 22.18331787868052 79.72295793060624
42.432396068332324 19.715048052570033 79.82838609421981
41.23117333849473 25.136361768557464 79.21721866991666
40.143246498604 25.992008716218706 81.35556786243681
48.05086495371355 34.08128573040976 83.70351575928385
45.980658350701106 33.08600554734644 83.40534743449962
44.99040188315719 31.095177373333584 81.654565405864
45.700454907598676 29.37469160743489 82.95199621088172
45.86816173846996 36.17954005095803 83.7267297301364
42.0651117566675 36.909312867718846 83.93928487853337
43.467961670817566 36.34892881701181 81.70019976156709
43.768395205837464 33.613309087584156 81.80488513374847
42.50880609905004 32.19709414376253 82.7955468218563
30.677253422759602 27.162622867990553 67.87328285304824
30.860638713631253 24.67375306349417 67.98200162480208
32.56529482015844 23.309925254967304 68.32715186417286
40.447706460332036 28.08327748774684 84.6347405537037
38.69672407961704 27.97085719431693 82.56858379499897
58.20226389742276 41.004860894523574 81.3260229577072
31.720733560781646 21.485394356422173 69.917516394525
30.14532570053822 20.385521466923333 68.9301900185259
28.902514345759936 64.37140981763956 78.28388066074588
45.67797564943526 48.622799661511785 69.70812829055988
55.707109889634836 65.29741595357413 79.5888077145783
68.46472811199253 56.22548080568142 31.306606107795012
67.06532408105917 57.46812509938015 32.61134484980777
54.13923611619603 53.26843469737583 16.7254404429668
56.24800260844184 53.885355601648214 16.443090277111594
57.161956925029145 56.66739272839367 15.915239193441593
65.49302479295513 53.62984676528511 31.692414917724214
68.19463278862689 53.14726005151286 31.069068787720248
69.5404196173826 54.201467290298496 32.61431498609386
72.27852889878609 32.44845833670947 19.731897041164455
61.752597067112475 50.698382448470475 84.29453142490524
61.6720813905588 48.710409793141615 84.90163997562564
61.26805432785163 46.95377020913137 82.55706701750222
61.41508732173927 47.51221119281294 80.36284000561115
65.63026481186633 58.922259175548795 34.568999099335635
65.06938863493548 33.736269372336956 19.952032541029546
57.772324116845176 45.44087390480176 84.89518477527952
60.422853060662334 44.968951009490674 84.36503895735703
57.15578642756618 52.17403106944356 78.16379839992892
57.63767756045256 51.29984601245413 79.94110766060417
59.79142838183609 51.59999083138051 81.96328161881095
61.73082190676545 52.85972876159888 81.85583399339059
56.5251963744399 49.75492336761179 76.91177873430678
58.613277768144094 49.65720074902059 78.17368284107546
58.30412112650425 48.247926059870224 80.63730954010897
55.88711608457957 47.15574691660464 80.93457511783957
53.60464405901126 53.544769976768755 19.823390193605533
55.71410470026295 52.827916348263486 19.191458007996324
56.23270780568916 50.20006233420288 18.449748359122626
54.051027058903585 49.27298814635259 17.293214744701707
61.45904149121751 44.48953349991991 11.630573374380798
60.86663258315183 46.664240654376016 12.146527662933492
61.28783081496302 48.17331300055193 13.921432998400766
61.999114756787634 47.995179989111534 16.448133740998703
60.964596853356795 59.368586386085425 33.73775712627681
59.82528285259957 56.09759485504922 15.804963711965875
60.426794153965254 54.13296773680201 15.94717787814346
59.6127566305768 52.00462752452699 14.789815563068784
59.12472354346775 51.6666579053159 12.36485656125562
60.370098339830626 48.25672628686282 19.06937916837224
59.04432849254229 47.81730581214632 17.274655792261683
56.67535850140861 47.12584471328959 16.62118086166246
55.350027001872725 45.5119640413099 17.88924491969832
64.47344253888225 58.91872783472209 30.867601195724376
65.34636579815296 56.29046844519567 30.581201861993186
66.73034044356434 55.36626371610694 28.577043085797115
29.979054331894222 45.00595642917664 83.80052073866287
31.21201277394386 46.796613916426026 84.03824641969341
30.933983406662954 49.22328731571216 81.50299638391776
30.380981786518255 47.44716370265782 80.33474064345626
31.66542124927078 45.043057741758545 80.23640236744102
33.49288545902962 44.41356565492026 81.53780023917251
55.51615142289853 51.23741028644654 15.403339624003223
57.83425547260363 49.855617193725536 15.748317528964497
58.56085579293427 47.97758129055791 14.30275054163515
29.01306745341768 49.71300465720399 83.27633795097663
44.218736949267445 55.635433588697985 74.73900867805422
42.87297403714326 57.07778102759982 76.14042300004107
44.07693845881525 59.02203917442203 77.5622097724526
46.5889741203067 59.22655279105124 77.68394476138265
30.08484700629948 40.27186413660016 82.66962320401773
29.7760153481938 42.31201583046306 82.66357648905435
28.682516919312658 43.931486663282634 80.53201826500745
28.520266330212067 43.59924307028414 78.54068319462417
67.25251752174158 30.773342559280426 18.32506012240248
72.2658420290665 35.382773036726924 20.05611827675264
70.79406785363713 36.34102908934919 21.673993069242837
29.969883883740366 61.24213431431515 77.5862108675461
50.86237173232134 67.47587026809327 77.9227318330052
51.14230075367454 66.83940705984809 80.10367442686254
58.26850439352741 42.550815673163115 83.12297448489221
58.68059944644656 45.09759734649378 81.96319646244663
59.52053271517901 45.60714923400267 79.81621649858967
56.36489548819243 47.91317225715791 83.85335197417403
57.13632583906415 50.348019518287856 82.62972147213237
57.223164279002376 52.3877175213795 83.1600949739722
43.63563176765748 64.43125941376333 74.32384814958071
45.07914926163265 65.22072206993816 73.12935729614739
46.67379546253944 66.98673074740212 74.2387779910547
46.241705428740566 68.41140982904841 76.38037807431589
41.876050894950836 59.83560438833552 75.4844520500864
42.58745452549978 61.77049825842001 75.04924834865818
43.60610852540923 62.95223637553906 76.65575932519639
43.21494494113212 63.45098869072139 78.95377436173598
47.72867335951995 63.91370950037206 81.75613886630882
48.67918925372993 65.32867651774967 80.47151075886897
47.627303652508445 66.2257021595303 78.00967580692873
44.99203752677619 65.89731891392266 77.57895245661716
50.27896483074035 66.45065362202614 72.68464367319184
51.36201928790335 65.08995535206716 74.74216745627228
52.78048686065202 66.52522864083059 76.28674175357905
48.82173467950448 58.72270226269271 79.89230954212786
48.50860988941667 60.968691342599676 80.40901287120332
46.28208042979424 62.07860476628575 80.48954701303929
43.947314850538696 61.388427468477815 80.59824896448953
45.0361199433588 51.02221285477205 68.18103536117705
46.740320370853766 49.873822418551 67.42851599062588
66.52855816399322 51.22626183051132 12.737045658897728
64.71733449022878 52.190915374007645 13.204370389905518
61.96511716856787 51.4488445663227 12.797601930271
61.18780788337251 49.726468135141786 11.609700667513566
28.459969296363656 40.89327143579513 84.82022052209109
58.53972039071806 62.15997336152364 30.738411122730014
59.01902757520498 61.270546982429224 28.472719289051778
61.30073909588395 59.76101366754267 28.607830554405805
61.84587956645272 57.88913636859969 30.257959645579636
69.55542066149484 32.6819609661368 18.367592139255194
69.99093330020786 33.88545795032171 19.94715212452759
68.34624238785233 35.41846790171391 21.192592682917475
66.11163576090503 36.539351370563786 20.343374488883367
66.6158822706718 50.528299175796185 16.36288307654879
65.24880143144887 50.10088568483857 14.952918973190995
62.47385729253813 50.74951869556854 15.341067867473035
61.43671047495251 51.59274746113656 17.007648007677968
51.53086591304962 61.81797087353909 82.54452132652094
50.145723355382934 62.9250330949821 81.34202771587671
50.26205597488858 63.212961045060815 78.9173299383268
52.25686382865593 63.792554821668624 77.36782608249975
57.01887224206349 55.283898443192825 19.212278343756672
58.4310318554181 54.32660677796661 17.836625139799683
59.58444093665564 52.06195456198588 18.940655367687786
60.38419488680369 51.54202965484081 21.02530979756528
45.271044695863175 60.77950526756001 75.21739605000121
46.4915456210365 61.7451716208194 76.61547940787761
48.0166989564892 63.85282346226137 76.4669211808161
48.60783347152007 65.37935434163735 75.1783563140941
47.99168796562782 68.62232129217867 70.67109128579682
49.602876019592706 69.06094213996322 71.98399828552886
49.59696127976519 69.0313342201429 73.98883207013874
48.35420811499304 70.19404185172525 75.86476817321989
51.809243767721874 59.550043175289545 73.50068244774504
51.758347153754315 61.90786974954531 74.35489868940229
50.10097026496045 62.25071330646077 76.42625353342177
49.18882211667676 60.894770463191044 77.85878194477034
18.317934592151975 43.86581549932431 70.4811374794079
20.754700878909183 44.6459099922471 68.95350472747096
28.201941953585422 25.713209113787197 66.61793734433444
13.125465432440091 23.80571793050527 64.02403778244707
10.615965775792162 24.386622594500544 62.82248237689761
11.349859750841281 26.161791057341684 60.927022430894425
13.535891558460353 27.003245176655675 60.724902972121576
11.95662197214393 29.086429236258866 59.91343834171572
9.068576814750307 29.443881127854667 59.61050395723096
0.2931955938208715 3.4089738071765754 61.37695683589054
9.39250774666776 32.158883169638536 60.13654873208397
10.381588942411247 31.154199013288736 61.646930434285075
8.955376256574729 30.05803521623258 63.34977162698136
6.623672368601286 30.550226024702933 63.89405253827019
18.794633048689313 29.7065311276452 79.42605961278385
18.70199805539497 28.734370662012388 81.39666527451709
17.30055358683519 29.237272506202526 76.79870259413772
15.904884603239182 28.310187593007026 77.783002075521
15.193278302728128 25.68207489218935 77.1253425958384
15.387049097583544 24.543386118434075 75.15747075433906
6.129580442956538 23.52954403170949 59.29673881156011
6.6417643903402555 31.826541367192277 57.56481039970364
7.086189734398849 31.107098462649862 59.728268391928424
6.1944683831702925 29.355614453998772 61.50275819524494
4.489351757826881 27.42938270403079 61.13339089895876
21.707052876372206 19.492776988303373 75.91136161409578
19.20651256765064 22.45935201997173 77.38774985252587
18.06066633248245 23.963728683831263 75.55620626163234
5.192327908135391 22.87922157022341 61.88501703932017
7.2173917452520975 23.06630114682674 61.57589248948775
8.768641340166102 24.77908981877002 61.073963706079525
8.901864173833111 27.081216690960577 61.474279247063905
15.114960122008098 7.855062680557315 65.5805169956324
16.991031839779957 8.228623582763147 66.50409369471159
17.683733704505013 6.647722650078571 68.19332161799983
1.5624735941860453 40.67916890523391 71.31009312034075
2.412761794236124 42.583706095844406 71.29963294235297
20.32700656774597 28.218853410956445 77.39882769394559
19.23724490833971 26.08110961668918 77.45687581880794
