29.82696350011328 50.44526115047002 68.95993516462859
30.84795032957299 49.45645123114268 70.43330965899521
31.483414881595507 50.52056445931481 72.75062112599382
31.433006205637138 53.05749482027249 73.46035292665826
50.27079459101922 31.60862794366528 31.635420235516236
51.614976503745616 31.91628535840185 29.385073210132543
54.450853477782715 31.640978572170688 30.39690215222343
54.90060258175916 31.3590386667619 33.22623893892228
25.58475794206064 55.8844978525081 74.37359670927471
26.635650259348424 54.53146062627825 72.67857802826742
28.632497726533945 52.74744232545685 73.86533386479266
29.517655190506456 53.29760362791647 76.27995425620182
32.81977317716603 46.63814732286738 69.27990276341654
31.267651428348277 46.87140702238243 70.83884087350614
31.97332691880183 47.98728452026343 73.00483371484214
33.913667963478204 47.6580371423868 74.37737916047347
30.39011815962366 50.807474524739256 82.62236493358054
31.14691341730042 50.01014686848877 80.39216218117916
29.516273464030807 50.867176129176976 78.73698676277289
28.656902389325307 53.36713470416157 78.73011642760946
5.5781738100969855 31.15401866230758 63.17184202763276
5.959401909092828 29.406962780390153 64.52971252137262
5.880567144487685 29.898686419428074 66.7194089556744
6.683458500487306 32.339816281619775 67.90622208230084
35.347076308779606 26.91222890844598 29.472385861462648
35.19242509358939 29.305996067773496 29.57292679283067
34.17174097915787 30.617265846156418 27.612289331857667
32.71985943426732 29.840746773400955 25.810348626690693
38.53877825135034 38.79547212542776 40.628503035392995
38.07540207147693 37.211589708169576 42.44674534247848
37.45081955582764 38.99558442316747 44.5632502519275
36.38824165785919 41.2724479587774 44.246967224827856
24.658849985222098 21.113771917820316 45.61108174023038
26.40735629626854 19.765402355392215 43.758180492758584
24.97531809704092 17.385763397930212 43.117578262919274
23.116329901268056 16.58435618732626 44.018377378628486
25.588085566896897 23.27416129295056 40.0569401671975
25.06415565659671 21.485001540856913 41.51961943360237
22.902161042708663 21.335523893029965 43.01581009304844
21.08725113777087 23.396724491375636 43.18828197601827
50.553203776569156 13.25077808076481 36.88523217109677
50.0374248792705 14.615568413735167 38.774644724397284
50.89643314028156 16.125350140788246 40.23601776981886
53.304469120366655 17.185027273316813 40.29000085859257
19.951293569295842 22.8244105327912 39.817414954414794
19.54869623749787 21.29600898184855 40.75069585020166
17.864913490559864 19.297941423325188 39.83650882730392
15.958578616731309 19.25226470522673 38.86816743327688
43.02350083060783 14.308871816828747 44.2428753487619
45.25193160801275 14.732586068973196 45.3244083324073
46.37574528312389 16.829212554096173 44.68142627835889
45.8451696300017 18.983995923449555 45.42240379343998
59.515668140538594 29.3382090231888 30.51450408114181
58.02810869276849 30.22603064638281 29.52746526538568
57.56546884292327 32.597031592096734 28.865080974634818
57.83803063953768 34.594107741847445 29.773339080532224
64.99538401513085 14.78418909114369 46.94492482164701
63.392618634333154 16.17292041301798 47.05712025275383
63.035186237727174 17.567898528180653 48.827487004477696
63.83093854644052 16.915698758258923 51.54636163476654
24.830159146961982 24.77415792371955 68.02461318961102
24.770166974599846 26.485583815492323 68.83962337779958
26.438460845534056 28.78009319837822 69.25472703503306
28.529779123227556 28.949913368739686 68.95700300301978
60.62772603974834 30.15644211593323 28.134288183976665
59.18107406487291 32.052043541274024 26.816213232272645
57.239610052625075 30.74897520462271 25.77433686155453
57.073484846130384 28.144899610118784 24.92991608838859
36.92438385608758 11.82897141802833 42.97096258371747
36.919739679090476 12.960779395731906 41.16428224124782
39.213321704031685 13.092958449781369 39.589994740740806
40.95129644613035 11.69625785714808 39.65138438358752
48.492152243220715 34.04566415674641 21.71918944062774
50.57563086818529 34.55131334794315 20.559950758943454
52.498590337308215 34.204275659446495 22.46047305865667
52.52787647762387 33.194652048291616 24.39828076666291
42.56428676675489 16.228521536582992 33.59326763606766
44.70753058630694 15.086993664159364 33.84827466540349
44.953543038269835 12.487087714344904 32.99070114638895
43.088181829964505 11.16681612715657 31.658210741608354
28.165618775305354 10.067531542804897 13.52802689749598
29.683557737368886 9.637562937550427 14.758331368334218
31.346268533162732 11.643107185712614 15.71830752769536
31.24799783979338 14.010623770527033 14.430755853106955
59.2182132744345 15.788768984540884 84.80317117297756
22.263262352106203 41.132696350261895 50.841543511423744
58.22647702272818 9.285912765060425 82.38431533577362
58.661715558663616 11.808221800236732 82.41638680462493
59.38462516743071 12.422095838676224 84.81746182094653
62.86142994318018 15.224382914375784 83.59783235325354
62.020693678244264 13.366778623595058 83.40719641022179
63.463448244421905 10.808118495834806 84.01574217937589
65.2603362291378 10.298608970079087 84.63084364581997
54.95798769485056 38.09948627355876 76.85819814406858
52.94835393993047 38.80519385272479 76.16279104417798
52.31635453105699 40.57590124572976 74.53678361754304
53.60304684885033 42.603471272329756 73.79484106754236
44.3393105144558 54.02413212113643 54.47990737764438
65.41076456102566 4.877608313175479 81.29132282670041
64.02121472507432 6.596802164215907 81.38882639190507
64.52463291269723 8.938360536564854 82.11740092409195
66.96567348298473 10.146964644383708 82.01058118979485
76.05241030350285 8.545737176105026 55.16311781615089
76.11010143682833 7.753004140911886 57.048458045886484
76.29254595549932 5.43659531669111 58.08407779421416
77.60580057132539 3.5550877782895833 57.58370557167813
43.788521987943675 50.98521988683237 59.32393164560078
45.69872138545861 51.915589866764854 59.80534113966305
46.89873500853377 53.364267571066186 58.3754017564262
47.43614909024098 53.22475892097011 55.74911664201253
48.69057823194119 58.992633334472146 62.57931598164676
49.945232758913306 59.11552638527799 60.80868909566117
9.616537996207839 50.76662050954053 79.06621504019766
61.97528533347119 7.228537046745398 79.57301163431109
61.685682024134884 8.639428149658405 81.71448547467988
61.493301812960475 10.99536223048107 82.15950105085261
61.02521861665311 13.093362057134716 80.60686556878075
73.54403833883842 7.913655855916426 58.03142617334818
72.71521400436866 7.999499161087126 59.99936193441921
73.39082269673551 6.840666954784586 61.94359518519322
75.04727713464358 5.049157660586146 62.39146688922957
78.77744049717607 5.060973716055208 64.41558721875434
76.77167375533881 3.8594541982771693 64.72814843953016
75.1144957180419 4.10985595767065 66.96614777060773
75.23920652613772 5.652902998921441 68.6327235204004
71.60702961128808 3.5825454122639826 62.10707167560411
70.85937888485208 6.122128169979337 62.274105281549836
72.00884470760198 6.77850482360605 64.63986232896609
72.55291359750984 5.826261481735685 66.45246401355061
63.881461900150306 41.904088005333534 45.072641199464265
51.80023147364944 37.436097154844255 62.485368714804004
53.69062333912292 36.89867471042846 63.68056856365072
53.865817970534266 38.34869409799717 66.16492155160964
52.7532805398858 40.42248064059386 66.55790169352534
48.819161609315145 36.094365522516405 62.05461102765308
49.10217799837141 38.181725297763926 62.47511065623816
49.160948584383284 39.177849243687554 65.03552392693324
48.265148366265564 37.94071538602971 67.14846948255142
38.832110108089246 31.54264865019863 83.46536192522957
37.730667498086866 29.86000410246655 84.07818682226613
36.78669766189471 27.643912920942324 82.71927736514732
38.40011504979684 26.58379118128444 81.14625749621868
48.0762139078662 54.507724574886666 60.67193655831881
48.55175239237146 56.89697978134083 60.182981071678576
48.42705085497408 57.13780353511407 57.504529347254696
48.87368633879896 55.886565938957666 55.88065678113622
38.90081112493139 18.840738814125448 81.70186028517918
36.838152200121094 20.14854656348135 81.91783272245722
36.77678235715769 21.69032263723504 84.43771184807132
58.62749219658189 38.235264761851 75.81506225152395
56.993080241861364 38.00013443752512 74.71569379567484
56.69653828338111 39.257583403063784 72.17138748080362
58.547238602861604 40.05872369566499 70.91111766763206
44.32214024697225 29.085790074960013 84.72643254769622
42.696348520535736 28.021147897006493 83.53802514754813
40.44783031020475 27.931698423381942 84.80273948208202
56.76587227359097 16.595777178957388 78.35439957730452
58.98375555196345 16.21959089841713 79.18941410895293
59.002451891563545 14.77001669140555 81.58580411452135
57.216488476764056 14.540257313598634 82.90525642288132
68.84479943166278 12.451916222955505 84.717335719693
59.72846402822405 18.364663592945668 83.90834321472686
60.941251200787846 16.895935935389648 82.12753196682867
1.905312049965899 7.168366738943095 54.37801450571618
2.676433922047789 5.724231555436852 55.45751439766902
4.4727933490650855 6.063499938066247 57.2232424171991
4.928387029346848 7.8030780449709995 58.85152005083827
64.79105807624202 5.707810883128673 84.104097830577
60.13809986620749 7.893919607752828 83.45925091646049
55.32117316177972 18.12004446988945 66.1032995012882
53.109608258006695 18.440434392374087 67.00197440825869
51.17239611664869 19.148025230704242 65.23171695677804
51.506182340696256 19.61475987401738 62.8169338586045
64.1112139338878 5.093401079501064 40.66092071876114
63.17604884969921 3.2005983632472774 40.0188877454437
63.78421540080521 2.1802893639804135 37.72323726922502
65.23250108360112 3.1845388005249307 36.09943685637193
50.12180006185401 33.677783485312844 62.01242694433056
51.19790389505438 34.984623204540874 63.0755224120156
52.66759291518653 34.92981868169397 65.26764850405834
53.91514643951866 33.366192763074345 66.50011007478736
63.65533401137871 1.2709401390159085 34.54626935423606
67.78770316689253 18.903975978103325 50.730585054043445
65.65989939457012 18.624467812388268 50.09014620204312
64.75628622238403 20.223440676284838 47.96294845686999
65.91339453196976 22.539609794345278 47.355378441354596
61.65677876594283 24.67498983487347 47.21945341740262
63.47167961499774 23.943090351839295 46.908765780222865
64.5316724645651 22.503321393337448 44.74539217681994
63.228351907577206 21.31258083978303 43.06832587821689
50.42345396536386 16.739397281916297 69.61579559371883
48.55224247949784 16.345469816940955 68.23955570536002
47.78743512164421 18.00886110696651 66.17622773021327
48.618006793030496 20.498226714752114 66.09121735544124
71.48325585951677 18.961352900506803 46.515739111472705
69.7178521787684 19.51835941952315 48.16889634862956
67.71675411991214 17.419747354164997 48.562844434785426
67.88230239503596 15.442170116590749 47.16609238031546
59.156947752647135 25.734393121023853 45.01827209888012
60.71864417258744 25.058728547401632 44.42656401868211
62.30777037616547 25.165296102539347 42.11335833318132
62.15817451459213 26.228687710257685 40.19629820206992
45.12795296421028 20.712192125067176 68.0193983394315
45.110566738847794 18.995288306654956 66.71302656608465
45.21947696808786 18.65481136983818 64.34001740758518
44.24561521837743 20.55599807483233 62.55858224453041
54.47239737137783 9.976539607136226 64.45747797053258
52.72515751836174 11.298651545987775 64.57137338650432
52.01744869968278 12.638998289881712 62.97437078834162
50.069240567791255 12.156370408682713 61.06633490104678
47.65073262332874 16.368541217357407 57.83829577360819
47.1223892758745 18.399908740029073 57.361313131188716
45.124727995662624 19.889654600570545 58.32223106710341
43.28672725830363 19.658060062946777 59.69942276535241
79.40595763414765 7.906753123017371 58.585776933290106
78.95857709227053 5.9454782653873295 59.20070959107409
77.68284453325631 5.852093724864955 61.758434356672495
77.43422572111476 7.147658969596597 63.30943474004976
81.12753015326928 3.352802462873074 60.75907655033566
78.92563353497971 3.2809301025438766 59.96663173429984
76.99570346389699 2.631279082859105 61.77576588452273
77.42689062796961 1.4956861710744707 64.11395191622293
73.60002776361794 13.059961973140476 59.301360384601786
72.83496366914584 10.856699854646443 59.87602327376157
75.17341207148661 9.308725399954605 60.13864473436016
77.59189124112481 9.91414515979839 59.160227640103784
74.31810645058334 8.302404070648091 69.04913959860792
73.57809428456267 8.396899067401101 67.06029386624617
70.76876315951095 8.454643210202287 66.33117389965908
69.00558690722414 8.417216675565458 67.85504629138313
74.20109835958742 1.060199673728143 66.04731085567802
73.52967800157441 2.2907845990780022 63.87425156640368
74.29096822905366 1.8321707610625753 61.35624818465897
64.65781189913828 3.2665977082970916 44.76533025130408
64.18414022068573 3.101356800786819 42.67277450777733
62.562725898146326 1.2178877537942552 41.707714241919945
20.825240611794513 0.8958495486651036 78.8511094930777
21.033363706215958 2.857796417932102 78.99586915964261
22.842886439565053 4.322935200386247 80.72560470795788
24.85566479220166 4.045483050490734 80.99176426511329
42.30031801499823 52.849934487548204 60.70941643865388
43.57017833295066 53.78284895228151 58.565160555107944
45.14356538174304 55.38990752573795 58.191190118054756
45.47475776564421 57.597652138728584 59.41638282371319
35.32828620549288 53.44829397183298 76.5487122321232
33.015830630741135 53.28682144280965 75.43440726528846
31.73959903983597 51.45074427058405 76.80031999558018
32.88546213498009 49.63240849758633 78.55536362732073
27.156108081961786 50.61653231229433 64.50502393076002
25.667213851504368 49.29396610133614 66.51855095578419
26.977016327891953 48.558103370422444 68.22319835107253
29.559662289910612 47.46901961394996 68.25460324093535
54.94522834895639 36.480523860801256 74.79866863268737
54.50506208924455 36.76600915798213 72.66582533411514
51.73194190587625 37.00563523260845 71.91971511934763
49.840056602295284 36.93896392683599 73.7938514745381
75.7088512063433 8.82814314724934 65.27623408337269
75.09272829933906 8.734723356921036 63.07727489412689
72.34554519970789 9.13869412824663 62.83729384708418
70.90967839134433 10.400229728693338 64.32450922186996
30.748002397467413 48.35006647448623 77.85554704312452
31.27318762010057 48.80403334052094 75.46176123851423
29.33196057736818 49.6055875468546 73.80053441541895
27.18858107415812 50.470866604980706 74.57743257768595
56.09725664691313 35.308570116703166 65.4949441212431
56.224888260333444 34.95960591070369 67.70567713573159
56.964137370844156 37.18103615576228 69.53039999610306
57.48284549773844 39.47213776002297 68.5945674670273
44.80585398301868 40.18653821480511 71.25357096823987
46.01391356476053 40.23867834509178 69.09546868245931
48.53190464304887 38.87692073630368 69.8124337613155
48.932874184752706 37.412092949901215 71.04035274877839
46.90243274226265 42.16726054351155 72.6065299578775
48.536537505620004 40.798205605597474 72.98559829221284
49.700082237880416 39.5753088467795 74.65196351472835
49.330662986142386 38.79392862481905 76.78925238802773
49.723604329114565 43.221731047316226 71.52596047012919
51.25452608814277 42.11798893647321 72.19562472596618
52.309945140289614 39.58710210547288 71.44032058910012
51.2201366489085 38.402646546763165 69.31974696865149
49.39821728281117 35.85379011981964 68.67491724700064
51.13834446308934 36.14618111708838 67.20365439266166
53.87809242698896 35.9907949737456 67.84777293480448
54.65866572933 35.44398783923857 70.05305804760917
44.19936197494908 38.16908344151089 48.52954530429789
43.7951955405491 38.05982498729142 46.56682256632902
43.21791536465433 35.87439169339575 44.94009307414281
43.20895842121308 33.74821508733166 45.423798563060075
57.53703253233118 35.60950066208493 20.00955705628929
58.24081381907742 33.54679202268728 21.069714485493318
59.04530489031102 32.99728490793156 23.334184931898594
59.19868217134423 34.125414687817965 25.324479690040132
37.08462850712837 65.72569059132057 81.12224388565159
38.59249147831781 67.74419955526919 80.45021473429205
41.75965352957712 50.775059080923626 51.57275274423253
43.66712949099755 50.60406582471901 52.56198737763126
43.856528763073435 51.36857010612088 54.9447342729796
42.06647407593954 51.325912306035306 56.946617474872454
71.16453869351793 21.950814634196046 27.819763552095214
71.39764783849219 24.41357823528127 28.365863405653702
73.00516157175025 25.55382587943433 26.90160881795091
56.33993117330302 34.84392348024461 25.07070602750306
56.858735805097055 34.707888329390535 27.174270942787455
54.85555922519789 34.07638358333508 29.05231810220088
52.613996857230944 33.45151830811413 27.801899213879288
23.203013772796282 53.778802411066586 78.32122927127159
24.816617648119298 53.83977052349596 76.6045520401851
26.610162021726698 51.69409614578591 76.83983114195257
26.941855695401966 50.000284402947855 78.75983618466043
22.685143256230162 32.21350884929586 63.741297144272544
24.374867199975377 31.028016145097915 64.4062099831132
25.449096767012684 30.27284871206308 66.59235820503294
23.937168879986054 29.383971737942705 68.65907867160566
40.47375120465183 15.142745457939284 36.8155482516249
42.61624174439417 15.734131636927888 37.21703551010809
43.60592048418138 15.03926487011931 39.28632236747886
42.77952135279428 15.51059736607049 41.78346135739998
48.0582314679558 35.3537866096159 42.58159657980307
45.83567816473166 35.26508296663291 42.06749018145299
44.1901314966387 34.29811858157777 42.772631691356594
43.096119061296136 32.17082452257585 42.14753940664284
69.95248851531133 17.285123754518114 44.4346870140787
69.09395805936191 19.187997968967476 44.81666163925821
66.81573747888382 19.811328237397422 45.548393792843946
64.97463425925322 18.149481946105194 46.05825151013953
41.68911666242616 64.20037375012716 72.70503236069521
43.63242157683212 36.54940653072103 40.95374034101238
41.85622857968919 37.03492078642345 42.321672115598226
40.38786008560493 34.69429879209012 42.987623421078624
40.050358277872206 32.80968926493083 41.72539135097428
63.2536459125893 26.23848218235397 45.53906427434935
64.80934194714712 26.555411471339426 43.79682291172836
67.26697331689175 25.83175383538242 43.61584947071384
68.9668161419704 25.649623983103407 45.28803227957078
12.647642502245121 0.9867803060601369 11.878179633171616
67.47060464543235 27.78945463313266 41.75887372167654
65.21320973974977 28.076927653417474 41.512636021207555
63.80428659661624 28.501040191659722 39.38517028526632
64.49506732681897 28.734175472261075 37.0993901849085
64.78696410746807 25.47060272253152 40.15445904355004
66.52504013020727 25.3284596607154 41.034885350170605
67.68897903427901 23.017922581639475 42.28342760469948
66.08299468868576 21.18064704206134 43.15615672013819
8.741988116424006 1.6873515437238777 13.39194336989727
7.928124667861165 1.0962430877265317 11.32163878233504
9.852808830261981 0.00010818515744899225 15.429708221392222
11.589263485591431 1.5849005256309885 14.747649585168565
44.47772066405965 17.709576256899407 39.08174460311007
44.94591088836172 16.789776348888847 41.12810326305796
47.609707246143806 16.81361226394501 42.28807567605608
49.573634041254 17.774428763250263 41.57570739794493
33.476520598734034 10.336171208498023 17.117406455714754
33.388263592375516 11.80802440626924 19.08038991743999
33.1693050898257 14.579854769414288 18.140734867106787
33.26073514672271 15.341379075306325 16.383465517335456
74.26283157140449 39.032853199129676 5.944702191061224
72.21356139543265 37.52089226365863 6.142437870903167
17.40928791573142 10.951109215361084 1.393484896708658
18.977120864498744 14.834603431132088 1.594883581214935
20.93255501664509 13.397052523661943 0.8056063919582753
17.23488350514272 13.142040889939768 3.2099484081990717
14.8773554642797 14.022124537785096 0.23689806560261228
17.99696337261285 17.16267137072684 0.5980431797487986
43.85018860348056 31.582909088775903 5.0740573015838955
42.40493957884661 31.72985918419668 3.3565644869599414
42.59734057861818 30.584663901488256 0.7715589415366043
45.79142058405309 27.07202884402085 5.805436632417269
44.697420054035945 29.296477101505527 6.1991546932764905
34.63096671733029 24.92845769131675 1.5477855293908642
35.37805653964763 25.862603375382992 3.7042077945044074
37.7421205027841 26.03290213809296 3.751883783963597
39.54861684848317 24.514088649506782 2.203650658178201
55.295408208966265 45.19155544763593 7.479678825588083
55.846303970719475 46.93304868247827 8.898757510845238
44.08876635297177 26.87044542948802 1.0652584718686557
43.27064530095923 25.251282759876954 3.323785797736614
42.32222603797663 23.374412528800832 3.5325992324296314
41.224558613598596 31.470487433675583 5.772544269388892
39.50194790619076 30.815700767863852 4.9476535817252625
38.39497238072627 31.97925753939964 2.80562796540865
39.472448710885175 34.283471474670364 2.109791286767507
42.853152923800046 26.80543920544598 6.324879517044621
42.18812609884679 28.845896720834485 6.074797262646534
41.16072593346381 29.64476354868922 3.394737206634852
41.360058624361116 28.167479446400773 1.6373319963242956
46.77330523278657 23.54582948945562 2.4227995232741018
45.97587520629929 24.830547198197433 4.304209930368804
44.177494239151024 23.959128011236967 5.624196113256208
34.33476760090814 27.35742088827766 0.6527900629961496
35.87622681929272 28.147666337460656 0.209597393975545
37.77342015538509 28.45462905347912 1.936408148091976
37.80264903138727 28.79254445284717 4.278527762870459
65.63442963488674 39.55250501681605 6.471058742467207
67.45857038089319 39.96384582229621 7.370296830672496
70.00357955838062 40.09951725398247 5.910405744379561
70.70634004010999 38.84454128526176 4.3006586091939525
69.74563767555766 44.23380787293378 4.0583266258996895
70.51060014716653 43.04478254645077 5.521069146397334
72.23597348252181 41.13896722051474 5.109988169522734
73.83491158251056 40.87180306538416 3.596046624417773
64.12888847435325 40.57146175645373 1.583290954017204
66.07809479319135 40.5303319086442 3.247045863849504
68.27984115960857 41.935881942234154 3.1719864289387294
69.02089488022094 43.30928233611692 1.6959624838596992
67.37454595336429 38.46949019905048 1.2806296446748433
68.63673132227258 35.993687655798176 0.9217506000010682
57.66151125058209 66.92372917847005 0.42643048338625944
69.81642467506963 40.107933840280545 1.3837761531808728
71.56131973402185 38.63052214519296 1.5337724205988927
61.72454201761869 39.29822427074527 10.763461074039396
61.652473388916796 41.234088251000635 9.135582083274747
64.06579863331194 41.58827087924917 8.24898536557571
66.10845491056432 41.35911412844452 9.136567227927767
72.93621177324981 41.5069026860987 7.97121584327345
70.66692521508203 42.26443276572247 8.227902754716373
67.06413043405134 47.09344760556634 8.830028966842862
67.62212554369785 44.905524096088335 9.774546355716991
67.89810798313702 42.77114142181494 8.012442468440671
67.70076135829989 43.253948645848816 5.499724929295376
76.56037853895059 39.97645046169924 3.7963305467379014
75.47131881910668 36.74917032836609 1.4785680499753282
74.82353448387762 39.016964832522945 1.752820121474485
74.8273244540627 40.87782333584784 0.19824384261971228
12.184269796391055 76.20482610068203 83.01133137557939
12.41645934707976 78.78017671290179 82.46872307071497
12.365064890163769 80.50295035188314 84.16386153131344
8.324037575509895 83.75144113991014 83.8039817510485
6.901302497481082 82.50854649143352 85.03230433689595
14.68241611499726 84.15924843592701 77.91006422439825
14.088250151015256 82.68501085289594 79.73482252124349
12.240562927611746 81.14910943171643 79.32560605938242
10.303163489299946 81.41895371733169 77.46611853808182
18.237856226078247 76.99766104801789 81.60511353327165
15.715817678589938 76.7469447859772 81.76402980910684
14.909756068983215 76.99134121377143 79.2021008090633
13.382929043492101 76.63350578482641 80.49027201668049
10.885633133604573 77.8814954590869 80.11522278005623
10.029673828327462 78.8529973979033 78.38491558035675
16.177482108499305 81.48666511394916 78.0457856844939
15.288183687768964 79.85668481309692 79.06341068970596
15.533050278273913 79.58615213219838 81.77197503326579
16.455126114370934 81.33661164295161 83.3131734241251
8.077191104044537 76.69215622564445 79.54801078553108
8.608053184981593 76.64256850885 81.5784578309584
9.96447913197224 74.57619373371999 83.02797236201681
11.45222133035007 72.82088406826219 81.81828254896557
7.762725246488465 77.20827564477815 84.28959594764075
5.50361801212888 77.90675790353718 83.56162803752427
6.748319427216241 78.56497421839059 81.07246689309264
6.772966815330234 80.16475964246442 83.48197615150424
9.089840678646173 81.18036951122806 83.82664897397004
11.049860774297162 81.33061349677139 81.80301323880825
11.864238840611709 83.85213927696198 82.6071879417258
14.050724819341276 82.45180021066825 83.51072838321382
76.93391488712919 39.917934670202385 7.7258522466672
79.20211009788504 39.61325560228681 8.780459447607234
68.47760425816034 71.12824060948198 65.25476482629895
66.1367497605487 70.57104300537097 66.35471352817764
64.99953501933544 68.51185340053202 63.973895289432306
83.48046903110303 8.792637457762812 76.20190053277004
85.02020036497665 7.139032492742958 76.40925398334917
52.96512932118623 56.84150841473856 80.24096081514121
54.27270552049017 56.094737981913894 78.51754167484063
55.19936359102455 54.344756207610324 79.82363023149301
54.701743316524336 51.8563602087717 79.28738948354373
62.03913936688578 43.2676510704227 54.12751535402882
64.14065407814533 43.199195225854716 54.0710594599372
65.44287793997347 43.57377161945072 51.72364601297182
65.2124684805935 43.06517544572626 49.85456492930329
81.69356548897198 60.44009878969359 39.82911252670715
77.40724617652724 61.41061360391262 42.642707201894375
71.74008714285954 45.68464657643254 71.79779493564936
71.97098629693517 47.09274626422205 73.97098878101714
73.64809484976112 47.267199156226596 75.4994476716601
75.4761213785217 46.12839037424896 76.51460061353374
55.3052282705879 58.367443621254345 84.63279637851883
81.06255037057562 53.52480756302262 72.11030571286514
79.06049703416147 52.26482628916881 71.58996843620737
77.53579595215295 51.97422967965684 73.71877780329672
77.59158522694784 53.21634722478258 75.82994405800508
84.71571019661431 52.29231133672506 84.13434992932793
83.57467839463787 51.18192025375385 82.20074091451099
81.2973751534571 51.65212427248337 81.09169277692264
83.17708313629856 55.743163984203534 80.00637959254276
83.32196881032837 54.55357300516668 78.45431319684752
81.16128877194107 52.84558381153462 77.2817162038683
79.12749990223831 53.03083556785808 78.11255108017697
69.22646460262192 29.722748241188725 72.6194278441703
71.56465089118913 29.706263950481443 73.18998495565465
73.1924460977278 28.17441293200784 71.52943793248856
72.66692005403839 26.91208661579368 69.71594236772351
76.84632614353346 47.61377507300327 80.89308251677669
77.8808871886682 49.473109757731926 79.65945386471644
78.5549812116732 51.7419350983435 80.36667809644275
76.74738764322456 52.31381729038036 80.20030895670243
83.06548023910787 32.349024323486404 53.50923136010083
84.70329667816786 33.90225202736594 54.143561346435476
73.060572893872 24.622157439144726 75.10341192024121
72.58717367063488 27.00142777091042 75.18240503796936
74.25958419126458 28.780217100048294 74.26631179250454
76.31527451022914 28.677769348261435 73.64949486935164
83.96503179909126 41.45992023062509 52.394661139671136
83.738243133467 35.90148928921225 52.41550284290483
81.37300125723507 34.0442812676468 51.48305856701164
83.0143487698073 33.17185944514694 50.616478646875336
84.36083793342738 34.8431572626549 49.74394118103969
83.26667504502294 37.19660631138388 48.27744916481138
71.7552481005543 26.730102783685375 62.3751061901394
72.3379540002702 29.11835003835149 63.47309462736715
72.01734659624988 31.269262098714396 62.91498341661522
75.98900038611059 82.44804092845173 81.06819488112274
77.33229869060068 81.12912780265901 81.40939028978516
77.12423509367137 78.59246084901469 81.93335558499803
74.8750289302962 77.23781506053302 81.35212603984982
67.85384818494873 31.41553171109822 70.66588626034591
69.31193910893616 30.3712048434912 69.53295009631975
71.69311993958398 30.861511627317356 69.25554658261059
73.0212459232527 33.17768744898072 68.92155850240715
56.750930966611406 62.8220585852935 80.97339970679462
56.48332197745282 61.48412950344031 82.74355375939291
56.48160380782674 58.82296605662217 82.25236839692998
55.87259773437783 57.58744526760608 80.08695201439829
77.42875594530037 49.13701407273408 67.48869646120022
78.9320057428374 48.02799616283943 68.67746711551253
79.72418304484158 49.57779104902208 70.42269599679291
81.31071277694389 51.677025806452214 69.93573044077992
63.18259775078049 59.93621392159237 75.80293237758119
61.42359493626469 59.213590861916856 76.52103192220466
61.08946193696922 57.84336167574071 78.88689755054777
62.51474267887749 56.66390801860193 80.36911443079669
82.10751827711243 49.53166997682527 74.46462350075187
80.42740044811521 49.8500949959841 73.012708074957
77.75028920957064 49.24942564830075 73.74310824302268
77.24042049785456 47.45445970695761 75.44375556168443
72.32511103725493 83.63343460423255 83.34759857061576
73.88957600560205 82.0229692287215 82.86542759641874
74.3469095316842 80.124893550843 84.99614545330203
57.222652738685085 54.194463693004074 83.27825052785636
55.49373338137901 55.53588053928176 82.03821594177073
53.39700248084985 56.83004554277529 83.05064980235422
83.98708031930435 49.844296483147 79.91380558578939
83.02995272810452 50.33057172648942 78.15748639046738
80.94562290950472 49.842133203938936 76.88417168960191
78.93911541965284 48.589737352383764 77.50316594785231
73.03447295416416 48.181392929689366 70.94448055221481
75.04062604256215 47.04017105425517 70.4936402822906
77.1605557880442 48.22434564114916 71.04691860087695
77.24002531280307 50.680709647417764 69.85195831837615
84.39465624729 55.48995194107133 76.04104160809939
82.87929429626158 54.18539687835113 74.613674078412
82.98956279014425 51.98050709056661 73.69849885411745
71.37372086850652 47.18447841268195 76.95833954495929
72.69241401603611 45.829996037672046 78.31552302947892
75.12681229802232 47.292711774504895 78.97006408793378
75.45562709204286 49.757940343731036 78.97282137009566
71.6157472450382 24.537728376783157 63.58529375394342
72.78551827676876 25.094850673874593 65.22307219306084
72.13253993934248 26.96755631493471 67.01791693640716
69.68643377750196 28.07239320077952 67.25802594736359
61.49450631862814 52.54408875555328 51.29812070437483
63.50564538546088 52.312098358913175 52.14149333719963
63.66716579781032 50.646983646690956 54.774645054417974
62.19172806782735 50.456475867507656 56.20604417013486
81.95999659954877 38.17001173359852 35.35155203163391
82.19518059451224 40.42349856652077 35.03102050402403
84.27771094758226 41.777084815544605 35.03556603550556
84.85060381982184 44.10424822927373 31.934782538419434
74.63105406867238 69.90481399387583 80.48518867989155
76.97435012440823 70.1574035498825 81.95212152646819
76.28886330237171 70.9493119567149 84.33610617174854
72.12817565161336 75.52205209421166 78.16074814043597
72.92870885400528 75.41690877857461 80.58086424185537
73.92455878272766 73.535042604981 81.90236364134249
72.56833366184752 71.24339242606574 81.55391378163172
74.77042349998058 60.48190931559627 42.84369774049443
64.09390524844197 53.43980626010192 56.72772807639672
66.21449878495051 53.08209272307073 57.280685311054825
66.41099873756795 50.85864987117982 59.14680992249637
64.83085183238407 50.043844163496935 60.4595679804875
83.51658734432011 63.552035945761425 58.579249104188534
84.59878709899336 61.631958959692746 58.05955514339821
76.03965446468564 65.53182487639204 49.32709380733133
76.00509021894415 61.32625594044697 45.21683057344724
68.1286198262791 48.75582025171497 58.37476582488346
67.86353494529473 46.21883133201187 58.30528890200316
66.35516324286884 45.07052007536907 60.127801674115
64.81089695656591 46.399137621191954 61.958721633907444
62.202673126118775 46.48261687429175 54.43815094393042
63.31305627990847 47.964003982012 54.0051575532663
65.11939064339866 47.605425735436796 52.20997002629149
65.29678091777654 46.220583732815946 50.40397746469086
83.95931390187982 36.541884301380875 56.32863397788092
74.89788478756446 37.34322566198004 27.17165274086759
74.45441294502987 38.77437158108948 28.92754682451159
75.73044514940764 39.25093298786323 31.086065086135267
77.5012402248989 37.471447762307065 32.22359094101632
79.82775146784037 37.6715473230445 30.397201618101477
79.82109343224809 38.9059045827846 32.006393310998185
81.20485709156527 40.90650595140371 32.56158527064809
83.54227293026743 41.54991232969933 32.40577152622396
84.52241499103395 78.63784382166676 65.7999887351158
72.700782767585 72.80550978609195 84.02842888102606
73.9020062043528 77.8521210160309 83.78498124038299
67.54076659018999 45.940391473693445 47.600392506849516
66.73233969237215 47.79106995342991 48.85374296610016
67.92913357094038 48.36822519260571 51.36792798465982
69.6663135888917 47.77346516692531 52.35896076454626
76.80177586024044 80.54414162206355 84.31310368004048
77.08370128329737 78.65291998947467 84.51488323864521
80.46325897565274 72.38548921074502 84.21505289897847
79.63508298671145 70.66132525408679 82.65694057945096
76.27975774954612 74.86349244296991 81.14625869955609
76.66098584854196 73.11643656105248 82.50412919329592
76.58215108393682 73.60816020009041 84.69382562759772
75.85911941144902 31.474086766956894 75.05001619722732
74.86169312039648 33.38101153246498 73.53656627693583
73.9353017637156 32.45002860184318 71.51942996086504
74.4622835172061 30.348250960228746 70.1763700813198
79.97512153915626 5.87838608092949 80.8152088904853
81.15044660206388 7.676624107358287 80.94594959896865
83.51704711368367 8.07945274955919 80.91025059028766
77.2439465742876 41.17210697788686 25.206460424199438
76.713523359323 39.73838185613671 26.639414170908257
78.70743490223147 39.391801038770254 28.141447970279156
81.04391323203794 38.68763698176705 27.433910840517324
75.00577611659358 26.073569678556492 71.5116341002427
76.81910204918138 27.419990087563757 71.33394768847558
77.5220238262941 28.284168345396672 68.58249762934169
75.55323756306161 27.18108835791958 66.68864205261
83.45198856175917 12.316742642892763 83.28658049444404
83.42103862903768 9.879724801778718 78.80261159180198
65.17301257943498 42.78299462281442 47.0149805359728
64.29151767635828 44.50949365199139 48.0155265624254
64.14108177100456 47.207773125509355 47.10821835069419
83.50765681846782 8.30515448064385 83.94683616050341
81.80337962088251 10.046856195563421 82.76256492604749
79.99695626854765 10.774505599916226 83.46185854862814
71.93464856415558 40.2649517765508 27.28446581575819
72.59734423278209 40.88352559708174 29.30535782289718
75.14695267835519 41.703698915679084 29.59307842750063
76.55042814394086 42.765113181143406 27.52392401258098
71.86078566748948 33.73012281513644 76.76528141611902
72.3107974133387 32.823999120973646 74.9701954803758
70.83681867300628 32.6419670964766 72.8456827091884
68.28569402186348 32.36366434338895 73.34696344312225
76.33156915278386 30.32399104577743 66.42638390711859
74.60671786379338 29.682308462815563 67.57979704920821
72.14843545776714 29.512816489405473 67.20525770518609
70.71154418223576 30.21216582267378 65.47895268869394
78.772585962416 28.20259392415422 62.29574825428987
77.21742351902432 28.916312024171866 64.27853120168213
74.83377774409567 27.577526691019198 63.88473682349032
74.25505557634311 25.791003338792272 63.0347317006477
72.60689598941502 50.87784051960543 72.3524311776395
73.37801786149693 49.43370533609918 73.43193106959235
75.17437728851422 49.77297371872857 75.19765908912242
75.62997096879599 51.51255182563333 76.8259367227616
74.87465160251134 29.855159999728443 80.61656629085091
75.68875515144526 30.38239551326212 78.57358332111718
73.95652676487732 30.038095435091112 76.41169146279721
71.71973715580016 30.331868886441622 76.15427655565593
55.380097262941206 55.20815832455709 75.93440565938803
54.68744591650874 57.16372581463756 76.2076062079576
56.326994898306474 58.69278598314349 76.94593414389477
58.972098875157954 57.962181588364516 76.56488804766137
68.48729555937888 40.29056874972736 52.766643900578195
69.71999050220815 41.87436577580602 52.606539682514295
69.3270080312073 43.8522571596444 50.785620078256265
67.55911962621802 43.50871482621104 48.82367590407578
61.334055626484364 47.98617954101579 56.753441521989
63.43635700105108 48.66357064186389 58.1116301249567
65.53434331698224 47.30037805267357 57.25738795191881
65.22919085724918 45.06281237254592 55.95503475930488
66.51760678518751 42.53886877274086 56.07371534445017
67.52138687581076 42.344723661111026 54.281873319869455
68.18586811863113 44.525537617676775 53.32947515141562
69.21797886513151 46.336125528063526 54.305788276618316
61.53234152580664 49.166296055501 47.64850255432334
61.66517540795422 49.77781387710149 49.651112132331484
64.01765765431638 49.86717684905852 50.977313590407654
66.09887198815014 50.506239758263206 50.26903972139201
58.006873104100556 65.24711668913221 81.1837149865518
60.12487761478592 64.46524552902515 82.06860718140099
60.0154750349784 62.89789010577929 84.29955165539047
62.40377666387508 61.5988453992475 77.81820711279128
61.15568702782995 62.99402710925812 79.56187139292356
59.108404893151 61.72909314459398 79.71408073881715
57.2327795207502 61.131485269353554 77.95155282895222
57.11005741144115 54.41343681304297 78.00783307529727
57.78352194766152 56.33668253777219 78.5406645324301
59.16114719145882 57.22344495289475 80.49908510423302
59.38256872945159 56.0820060234286 82.70664517212036
59.087375986285245 58.61583663118538 83.60607853435712
59.67004032385427 59.610593983345765 81.18514974406816
61.2800949028883 60.50734576171544 80.42604379080254
66.40375908129116 52.28056062024302 52.35829208684472
65.9730988738658 52.407748378331206 54.518926553453845
66.21538948847338 50.62032923188333 55.863790970223924
67.6190868751931 48.59574921754314 55.866583137155466
41.17856461242703 68.23710447520465 79.5025286305323
43.44675982318288 67.93242540728907 80.55713583147234
79.23274233523706 42.517519465490864 26.754017945664945
81.29541926547904 41.58754806082325 27.223102390125053
82.80328926379464 42.46745273232072 29.135360932962424
83.34922644169424 44.69625408672247 29.852596305094938
76.35036981334045 42.31317757436269 34.56225366739614
77.97594554960882 42.02857920297501 36.03762562078262
79.52064361503618 39.752777138902836 35.80337675561357
79.0316142650506 37.67754821080847 35.26006283610479
79.44357205587313 45.39682532438621 31.366360041820588
78.62970860731029 44.805716868388856 29.296055454258358
78.46096337019483 42.15221146026307 29.130973177297765
77.97406213367488 40.604388954898795 30.94933923610164
82.07753270068362 42.67245917851516 37.15024413445174
80.46252664432002 42.492155534853595 35.93583341907632
80.5543927697111 43.70958196581978 33.40412489331554
82.29084742504057 45.29437430629332 32.72206625709189
82.80359832319809 81.2566847096185 0.8196230077805523
80.69766280727949 81.01800362628404 1.399077484208029
78.60925777035654 81.49495080992735 0.841181724537532
84.77115204024783 56.96233299849517 7.125525988678416
77.18215562397745 72.63629032787358 3.7675935975855714
78.47978743400405 73.2942889809508 5.570263615166916
80.713211632005 74.72138187284399 4.958658291926867
82.66587788277266 74.23605341590189 4.041110836402736
78.96378969996927 82.03085832569083 4.1191264937846945
80.36248906073668 81.6938009577766 5.762841636285205
82.79522383788435 82.1100625838033 5.817584837406679
84.35140930848064 83.17456691066236 4.190586068585283
82.00640446363474 56.989287823988995 10.63927352636634
83.76782821477742 56.896932509226296 12.059074945711862
84.58479245953838 54.68351884101872 13.589341919372632
83.41604225838265 52.89873087628265 14.284761442379548
83.15663597314416 55.54066131662324 8.648748618809051
84.73016996271151 51.03748514956412 12.260251841768902
84.82864438000755 59.5418967983648 8.087816217672259
83.73305895054318 83.82674198160602 7.459346513113924
79.18175266364844 75.16509239461091 7.921155070472633
80.66344747211707 77.13188335811807 9.469749217045916
82.8475008104751 77.43660748975763 7.901971012596415
83.39183211252937 75.84666765590539 5.979360835998683
83.2786170424783 80.9466395881847 8.415500173465118
84.05794615995833 79.03177895732597 9.67533318723275
75.84526782003405 78.56881972678568 0.8214026619643107
76.47294052343473 78.82512258992769 3.094550686354448
76.61944908010457 80.522777698265 4.7394233205278145
81.99906699590095 78.52761025689604 0.5050689025420287
80.51181275934526 78.23300726114712 2.368577222347003
80.75552072038579 78.513047065001 4.916206073069157
82.64611570054323 79.48365028129852 6.190685026211587
75.21521560514256 76.63609059398539 3.6089424931262393
76.55118434386556 75.28290712079463 4.294131115228919
78.74849325978356 76.3835855302074 5.555149726755488
78.8461400676445 77.86316189429742 7.028314613412066
75.37176805269004 74.73205856540265 1.4867532732754647
78.61507506206293 78.36696018787991 0.39101543161038743
78.31577155153252 76.30017327107002 1.7824738669823004
78.21656349426577 73.65965666635267 1.0189403563213355
76.95449415794094 44.0266573601116 4.968109383558975
76.10387816535447 42.093624204738155 4.748992406532464
78.4858927897251 38.918101424434674 2.831869792006819
76.08591501332748 44.18612317273601 7.694061383720672
75.44354874552101 42.05792886034238 7.57037745794481
39.86268729012381 83.06746932447595 62.08469477264382
41.35700921915747 81.05504897396612 61.786596456600876
44.21089738193852 81.79893804101421 61.10078097802277
44.69871691936095 84.30221813015818 61.00067362775422
42.14018021137227 84.43587111358795 67.12006040134851
43.029449595883484 83.82601780205636 65.43163848783774
42.62843711564785 81.47310126782911 63.98249312297483
41.77567369979878 79.65491970076373 64.59020971393493
68.48286174786264 76.06152312594841 64.45552221392593
69.48160590695502 74.8707729737799 62.58044926414308
68.94684097440032 72.07679103922564 63.18418558008797
40.58788099397313 77.00477605343588 60.52399571757141
41.17108194366263 78.29750369043545 62.05565187289185
43.75386742899232 79.45925194799541 62.50356789602478
45.69999764461818 78.91316861954631 62.38398905650102
66.71188381019137 77.10743198406287 58.77205545419843
66.3586490583102 76.66655051706825 60.713157198622625
66.24119786646065 77.97353700624853 62.95058108001581
66.7858843541769 80.18287344597167 63.824156348374814
61.72828906437134 71.43442214004651 63.6213269241798
63.51824126310753 72.57083925867235 63.71035500679918
65.63994194659934 71.80226360233513 64.76601168020711
62.91245844141971 73.90222860328088 55.53617497937637
63.10689863878532 73.5097329509639 57.556840134114324
62.320821274618694 70.98080332659667 58.679621764201286
61.82548784804434 68.85555436843426 57.27968518153215
62.92641171420699 69.2374015619568 63.030500381977
61.99704674533718 68.94287483226432 60.73589051913527
63.26495105601668 66.96328845680283 58.73622530051699
52.574924550999164 76.02223099958287 34.28125171842938
54.11465588487279 74.36862603456302 34.48860516900852
56.411287325922984 74.80931369941567 35.762115364324075
57.34921812331594 76.94616712074176 36.52369048174277
52.104872524285994 83.78294173768478 75.05124945995475
52.640050327810215 82.94070204174776 77.41198703813113
50.59813447688933 84.05582309621552 79.21668423524267
75.01652275419531 62.43899186318109 21.99044772991736
73.13554503097482 63.252966517144735 21.680150641793563
71.50628217577874 62.53932003394379 19.263863808209223
72.45764517328699 61.370363840445165 17.347102380973485
65.86809043764478 73.16563332431372 19.40479117806386
64.7471563690346 71.51317173280196 20.025620409985326
65.57244612139154 68.98547985292392 19.65203842654364
67.18264567825821 68.41463456535003 17.445988738092076
49.51131540403819 78.9260580202666 81.37456591830735
50.758211639810554 80.85421091187969 81.57974491503927
49.34918502398615 83.40634518600717 81.61141402637746
47.401285698441995 83.8598311216255 80.42542500267416
50.53612655142329 81.44346644715507 84.17144095995648
48.97481968800935 79.35665495456638 84.036928225634
39.4937382474822 84.78947814251491 67.16932430481673
40.151134652995246 84.15735953819073 64.71541623933584
57.97544619490479 59.27982699920504 30.313001301684036
58.19003573340718 79.93140011614155 42.98980566330562
57.549279269474134 78.22390754980214 41.586016994346835
55.21854336194311 77.51206253216515 41.65960492532914
53.29539526688717 77.69045822860448 43.448731856332074
77.19174260896116 60.27345395356769 35.92244359556414
76.99260510444819 61.5849060428205 37.66125256468795
75.42597043799242 62.57500841304554 38.79942374333277
73.00818831435171 63.22077600396614 38.2134450944985
82.657300965229 84.80038147448526 9.720575200236606
56.537423268938056 72.14499543515824 39.847687438398225
55.872477717800834 74.5807733646828 40.73668873017403
57.83541967026429 76.26708680482433 39.839486222517344
59.908996840478665 75.60568730452437 39.21989081094838
80.17113360064224 61.74083752045428 39.0207829236103
77.86739969165733 62.479258383201106 40.65173644527233
73.7715591819958 66.09189766914031 39.55096392581354
75.5514478482397 67.59220688945636 40.176236271948326
75.52505347720316 68.83877947111397 42.405848235184116
73.65450020501892 69.19998244414988 44.22013158211631
75.24642949069607 67.8106655147479 48.0363970573026
75.50360254971633 67.75827371402252 45.870030809902936
77.53625942750162 68.03988709303849 44.26319823656125
79.7965110549358 67.60417877482686 44.98166414232503
80.42523257791906 67.83079255159822 38.972069778540096
80.3566264814338 65.66533826632188 38.830188289121864
78.38517854152136 64.39128045362693 38.739417867309754
75.80805104667608 65.11538487243192 38.102390284335726
80.45529579213988 81.37190472485044 25.403980547936335
81.59596134089809 81.53143689629255 27.044331442101498
84.00147245036416 81.26234309389339 26.932921970266143
82.3714994584277 66.21582166980399 41.7067369396416
80.14630325645136 66.98402804998258 41.57478541852147
77.84012721430956 66.12405286311896 41.79843241156976
76.83815002039852 64.1083776101406 43.246228758935246
66.80465635434837 71.98509649168447 21.969805156851763
68.67106089057543 70.93709827425299 22.130572989846545
68.55230668290511 68.32307612411456 21.762730476696735
66.83660257839809 66.80831707124018 22.17867283216763
55.67760223051439 82.47188340660475 1.0702427468342044
54.88664087812707 80.52976697749628 0.9792147180579429
62.2940865591685 82.57367921577486 3.875831497303855
59.985084355705446 81.73721055035827 4.157523711170027
58.43433254929191 82.15225765578413 6.177405541099752
59.10502959876527 82.60112306954079 8.494361282582462
62.33038566816158 84.80047234544902 6.361293080385364
79.12679605060326 82.05405549298398 9.345174293586652
81.22856246233816 82.39540078797764 8.584507223918498
59.500021924890206 77.09032880828298 56.172012211369
61.43207178724204 76.18005286292693 55.50309176953505
63.93045127839706 76.55765271995692 57.46596424506688
63.71308592448172 77.89172949602421 59.410702583707995
58.11213779920577 74.94032423053174 60.429603576011814
60.13382771179612 75.62059613582439 58.98940537819703
62.61036474764299 75.65909180948178 60.28254089154438
62.9610405470098 76.94187049835092 61.92503790296717
59.18621395475854 68.11010249203306 59.916613954613254
59.137284469770265 70.03684880560155 58.323999045686605
59.786913203498514 72.34324193205545 59.67956522468353
59.78331679480274 72.93316792108945 61.859702374698394
83.65378161022939 79.71760991910226 23.27561531742877
57.57486414395944 71.37286620776683 56.820697967369476
57.82862238835004 73.26299561286744 58.21438867207148
59.910518414271884 73.16771689253513 56.530788627736484
60.084926892562116 74.28671411782994 54.2733421208187
67.06902203162899 75.5655319599959 67.70281941240283
66.2284377339554 74.61073944193512 66.10155827456909
