4.557591598074449 42.57718493322651 35.45328321870064
4.857128060791925 42.000126874063874 33.57858367872787
3.5862376793920676 40.48183442672387 32.0171952567115
1.4852097612955961 39.62189479339559 32.606350070672505
5.697577258720602 38.16646145629355 34.692996245877204
6.0297909546749215 37.606621124796376 32.40813732064461
6.279841475823473 39.3634847919584 7.961678048351524
7.819021218069269 38.35730473631146 8.7758450023269
7.331335953469037 37.30065683317238 11.245524401635787
4.933615841087212 37.881509721545854 12.320781218091906
1.858982032199598 35.8456860870475 28.32965898556328
3.5411979802584637 34.21742600581057 28.881055840471674
4.665869277776332 35.16300751802437 31.298346407867033
3.8801665720140712 36.01898325628518 33.13380241781293
28.32682233266672 43.17113403095321 40.67726721177804
26.940756272228896 44.598683036413796 39.51830917170203
26.668337998317675 45.532941682299054 36.96140722162972
28.275400667539802 44.8848033794818 34.89879071672417
3.307248604633967 31.641797798773236 13.590852709264263
2.7139520183254073 33.22279010229211 12.129947085310645
4.286619347981155 33.522887777258774 10.107068156580764
6.392168748882366 34.82816450207731 10.709062471407856
12.701403434426847 21.75815643840213 18.344865937849978
13.411018862387401 19.70378265675098 18.47031405302909
15.821450159738564 18.951950194747035 18.20749486292712
17.78477520258505 20.815099092423235 17.825227888971632
20.268361214647065 21.91769322665669 25.01302864487658
17.84606253708156 21.338190858396935 23.999614070748006
51.47811471090339 76.37131205877108 17.232857811613805
51.596433081073904 74.04969657287539 17.062990670837525
53.99238687669098 73.30226181053114 16.407490737427363
56.13287354416533 73.91337402966816 17.20664882635838
43.23897692842929 25.590582537296182 9.577616492440846
42.07723100109354 24.76710084922528 10.631241289834428
39.6497369854177 25.281087287031234 11.403595996492381
38.50371020756231 27.558730787531065 10.237262207198546
31.67280873113831 39.73577776768782 21.87232308985628
29.563137891378137 38.78458463490383 22.13826685307348
28.13931726701744 38.56907744072759 24.193310627981216
29.022397230530707 38.494776552382945 26.702027431237223
72.30387721077409 50.16125934111683 7.396863600567552
74.31174958764826 51.37623502527511 6.334424744249615
74.36869073531534 53.80982939338251 5.305844813658694
72.96844649910783 55.44660697645083 4.893159495106509
46.03194926437389 28.659557631826665 39.26398092058403
44.747570443390956 57.113690018903384 61.54460919409636
50.76661011970574 49.649144591406746 59.64854936448644
46.7046128159017 31.221777272398977 35.1352915594303
46.15762381641966 29.565776272276057 37.00433287458803
44.12250617900274 27.82931310755864 36.08368413629929
42.56049161907325 28.411163217728735 34.36545519153306
63.41751167629181 40.853908918874744 36.89832353312559
64.13639343049968 39.71011154444669 38.105480505821845
64.31153803705324 39.93770730070117 40.96250163358644
45.02151275427868 59.755197845386796 60.205298617584745
45.45688359255483 46.1290679170234 34.427905224357296
45.63905998373593 48.21611487866285 34.43061588821409
47.800283670762546 49.97834478852817 34.09975785478818
49.85611959559346 49.848116772434935 34.34396558258893
2.2566550032135346 10.27500568267612 5.11636618723615
0.5382342402215584 10.451234858213969 3.515075402536284
0.46481279227885014 11.153397701003687 1.0188029851942222
1.8626488363023277 8.632180418585477 0.3257888218702301
2.587347936088075 8.700936360960885 7.882629171475116
1.3765184296886872 7.610226589415151 5.954959917669942
66.21894057526708 33.7642642805697 37.48007747550493
66.83394836613648 34.53500191947969 39.74376652747491
66.50098666276556 37.49685499862752 39.893365947696054
67.11123343660213 39.1319760178862 38.23310189171345
24.76617511281035 83.03403646990252 64.49729655855442
24.586976750719906 84.85237705859858 65.55470687832994
58.79537941193721 40.766335677202164 38.82957138994842
60.67329916940399 39.82216059619722 37.178364626529614
62.09884265229241 38.17305561789672 38.99339313284805
61.27140565295909 37.32448877799979 41.1576625555208
9.553313938985534 31.26285051407255 11.053743309762519
8.190211781225775 31.978814795662814 9.4761713380631
7.533221349734267 30.64025355391543 7.355830557713002
8.714813420160567 28.468794076218316 6.660469415083281
26.854934862157993 70.46516899200967 29.09138448656173
27.771461502913503 69.07165186666023 28.11957265912701
29.881674042487493 67.41626984469309 28.855757393851064
30.59089844928569 66.7087890585399 31.04196053176761
17.57487929455409 64.30824735786223 28.477390019153013
16.72553634355784 63.71846240481284 30.61974588615996
14.92782912924655 64.72342579463435 32.12398024324113
12.856927851641245 66.35787336014961 31.359309351937604
13.14703746446128 62.8047552717446 57.46321300034709
14.828542569897428 62.58737963983577 59.065984686523805
9.961440203620166 70.8729541907021 65.79038141989078
8.19824488386555 69.68080125024125 65.57777668100036
8.337634095113675 67.70927745444298 63.912247268370784
9.631124507515143 67.7798169520272 61.77796181972
5.723596572760298 67.53059912381113 32.70797216593694
6.826055640424619 65.44926021254128 32.593439170405865
8.082417124350966 64.8413826622023 34.829555174320866
8.276460275225679 66.23686434628829 36.84874324773579
23.71005055280304 49.18771979734282 38.31388615754441
23.29035018474444 49.51091421383283 40.73655695753032
23.462522487480033 47.003409038833304 42.2248351959963
23.590825934144846 45.1521278179469 41.82551694051645
17.413856836483394 64.35437190741071 63.94747243512066
31.64167544969141 74.3846594738772 69.86033677764263
31.258075458216993 75.3022054841453 71.77947085234646
32.932692418884926 75.36922142670228 73.54348222722075
7.999444436435688 58.65062951090426 38.90297968250516
7.8677515341767545 59.935321464544025 36.88686687739541
9.282763153015557 61.87446369215464 36.20041794328561
10.267702363361765 63.64443889942578 37.134816081884864
23.003023523045997 51.59156136242051 47.14066950719237
21.002380833988973 51.11134764109945 45.284559273120216
22.092757485520938 49.44659857508335 43.36081076768525
24.758272116772794 48.61967320907835 44.05373787229219
25.905684821844243 44.64777965780167 47.21707671330423
26.6034305160591 45.98795353490536 45.51208023441487
25.958853147549267 45.210533983960964 43.29605164480613
25.643675087251125 42.91033191300169 41.99150947955751
28.64449004916789 48.60595823177222 45.54395005246952
28.859907899810338 46.92879394114439 44.443296475005226
27.981390208756736 46.132392775285446 42.30103411964735
27.453066422248195 47.31941709185395 40.124026852837225
22.137013577059122 44.66050370041126 15.280729660101514
22.312166415036195 42.908801931480944 17.084518269916654
23.784332263516102 43.72283122563845 19.251300110198454
24.62026026695987 45.972413797133335 19.793474748026828
30.947135510673014 71.22419088599909 56.202356187526924
33.015581264355674 71.24628710696881 55.78948262788449
35.05757018311383 69.74808051547627 56.89370361827122
34.93095566959766 68.14913599505974 58.40523232574876
11.379683569178724 56.51917391467689 18.325504466477028
9.66949491582855 54.78805876806507 17.766773844217152
8.288602425502098 55.29901720446809 15.558106493139295
8.852241408047917 56.413743602205024 13.369032706218176
9.602083447306512 38.96190010263852 28.07439304721868
9.105434423709642 37.218775234821436 27.272542336647128
7.844517181546892 35.39896992560019 28.093840916676996
8.62397346833187 33.85698730980883 29.49367225167367
5.284942402608834 69.61508744904815 63.78871310633339
5.596846948928986 67.41498700713247 63.00724197625078
10.54156017230222 58.24552097228858 39.60899309893366
12.144953516342092 59.96462077725165 39.48896628255684
12.995303256146682 60.602346467442395 37.03853931632587
12.745335354544943 59.01090589594902 35.138451044254566
2.913548218092819 38.206205960958656 34.598416899473136
3.846769873229031 40.234788240699785 36.433962229647214
2.054698323180996 42.78137482198354 28.12471084159448
2.5793537804443996 40.73437801645962 26.92284889023578
2.4741469053527982 38.83808252694285 28.402821085331045
1.2712834802381696 37.92837344515417 30.233641806385553
6.682372632355329 34.59635699088742 24.58438195900698
8.420448426028921 33.409368486109415 26.22585870475355
6.666678241843569 32.12082021393744 28.267341748812736
4.54766956264214 31.533269661994208 28.246296998704963
7.045306264420826 69.57339236122068 36.711425112238075
5.20937279272244 68.39203507737942 35.870318807766544
3.326558771807373 69.64044033847695 34.80999128637417
3.039044999482358 71.97254895054387 34.55172922722918
26.851503771605696 72.71421617116054 51.42862418672288
28.046990876311177 70.55789655984486 51.931373881565435
30.34575609990378 70.2578172325103 50.57665400991002
31.189485699066932 71.3281117319052 48.80593839835244
26.908066374775483 71.57927183870513 70.83411859169868
28.97293244532997 73.17112968059179 70.12915938002918
31.013456916439107 72.46273248824298 71.9115604837744
30.740966513143853 71.7151359162652 74.06271287927477
28.439466933050117 50.245958654275 38.607506615954335
26.538625993638636 49.13406198264235 38.41013914986765
25.436950835716484 47.931638453732226 36.653396371929034
25.35786307783964 47.88717785168048 34.27221854188341
49.961246087730764 51.67034585006626 57.846333821562396
50.166227411833376 54.01536018222319 57.39427793014857
49.03814081437958 56.0345679714882 58.76748673609767
47.14820702322086 56.12137061881636 59.70663005509259
32.654732869126335 71.79781561192233 70.16393927936862
35.16330242159392 71.2535980729236 71.63285367188954
34.29806886303215 70.73471317360996 73.8202114062325
36.11865565327977 63.85362170639983 47.19260252949344
36.3683938034194 66.28073563002013 47.65532089264205
36.52154871714815 67.0435678651861 50.235883985475695
35.68372947398836 65.55716781103258 52.28339365430369
51.91338552438548 48.353284730001796 54.70620447768647
53.041889492306254 49.28035213679609 56.25477472758789
37.63213823494339 66.68932236852923 53.83761787025881
35.598814612859584 67.66331314024177 55.31679360169661
34.24991449406734 69.00694792552119 53.37905225807865
34.83601291374319 70.10943404813105 51.716481388767555
46.69894058873557 59.70387368883963 56.723637875200005
47.233816549388486 58.50321904964469 58.59468211641115
43.274958116520004 25.424082170289704 33.949176955717164
34.81556582393364 71.26959104943408 48.19737401372613
35.47365148025606 69.48386419035484 49.14864373805899
33.572682003501136 67.99511241784141 50.18307665599561
30.974107176645365 67.98229067514367 49.53565495510526
39.17091571261956 21.865749063752034 10.235618583288884
37.8899022406122 23.58422202387825 10.211303297530351
37.02256469916178 24.883061614263564 8.22206802710666
35.75368110357146 23.32122243146493 12.167303974301497
36.049350912407824 25.27605052913339 11.004576160252203
37.0420448247435 27.786295330202147 12.377562472030462
36.006642381415304 28.680061916893763 13.593591907507959
1.4058227298624062 79.56289235436725 54.870152415514916
0.3852173824497027 80.90721661032887 53.83469031180854
8.337060730977532 65.44858403654949 61.33370640709546
17.50262843401637 63.36414663178286 59.21298698398626
17.288936212871477 64.11884780182758 61.15888381574067
17.142557217822997 66.51648778894636 61.77568200081298
18.034281314970652 68.66518122267175 59.931363216733295
10.229605462707175 63.2610596993388 57.16456342171193
10.516534692272325 64.11413712372858 59.04166478799608
11.340059893756617 66.55243885035759 59.54771979107971
11.215068307670132 68.46500147954198 57.989046010569304
12.374624699565912 65.78467305990118 54.88820915389871
13.306341848692941 67.99594340022459 55.96554648330492
14.120804408828066 66.9285100109486 58.0249569011781
15.592708276194111 65.141961229333 58.498987703483074
7.612208077909815 28.92775866425566 0.6745146914961092
6.073257904987637 28.832616361543 2.7866810161136364
6.480121702166562 30.64337227581536 4.51039090190853
8.241262500556505 32.11863821315726 4.948267446225184
17.77983704019432 12.776576936872488 1.1362531547900525
18.072442920380936 14.939028180506416 0.37903857190627005
22.284267553696907 15.043287807662587 18.723922800541065
20.878172982661237 19.36463530846649 4.466256684115566
19.671280399721756 19.79667064265055 2.6397392248799
18.0532970891949 18.12263520862174 19.801952735257945
41.79365255604291 28.607452322282857 37.90189795761999
14.918539643170918 12.300920299584204 1.068753345659446
42.92412773654811 30.00997414979931 12.034731396318158
44.26815722135973 28.18660701907521 12.1409283213746
43.13798648940299 26.08500693542861 12.50391886762749
41.34321085757233 25.317097177884197 13.939389984344349
23.896620651764625 20.109833768907176 24.18505244237085
19.535703478833096 19.136416993310423 22.68296240100198
18.921131319455103 20.493594367340197 21.01790477054663
64.1605059252578 34.800170889304 39.462079654249145
63.87772617032196 36.48535493347863 40.365955179706006
64.68808567265609 37.225643082360705 42.883496211385015
61.84753805452754 39.54204173476703 42.57650018341747
62.1443984907639 37.94397471613505 44.10159132770743
64.48835879877691 33.13724452437475 34.63653396482689
63.59662388979769 33.74518590982151 36.54124679606272
63.1048756072141 36.33008138377855 37.26185236303597
62.722885830395256 37.97190682493877 36.21236403867848
60.5089935839046 35.86217053108322 22.25414200987943
62.305386461244304 35.32740844303851 21.36716477215542
63.55939785792235 33.1809710098259 21.438397932845323
63.5252854429875 31.28629439174006 22.984995540580766
31.848392325530515 73.6036995394321 75.8806188571103
62.898535010737454 32.69720844354377 45.91923873598804
62.30713148247537 29.276820465265292 24.138867527736725
60.18678438112434 30.618694432018803 24.86983566182945
13.395406738649642 70.90755680384312 55.2133435669214
15.12281057514816 70.29121298050899 56.56416143871371
14.3904829703902 69.68110856189108 59.08544884600069
12.225383495777425 70.08916323280133 59.94982098459851
28.357214607136463 78.8798114189823 78.7696042016133
30.690816180934007 78.17402283468296 78.17838718670207
30.796614429812667 76.25783828406756 76.42889310929975
29.072289432826487 75.85010102566112 74.52846418215132
36.79861275515551 82.79175474289488 5.696932178342023
41.32431231684358 84.7966171566861 4.650775902773828
41.7697954135339 82.41102366478131 4.7342585654878615
41.147898176191596 84.96651278718969 7.834893326913495
41.192335987204785 83.9343364422976 9.5019360763151
45.32152215772761 82.28859131501224 30.693246976812603
44.762620877088935 80.49504568911446 31.78387112151489
43.90019174262308 80.80486660631978 34.63910888713701
44.648675700254145 82.16118965089707 36.339243522294844
33.487513740297445 56.43076701255093 6.65195033894789
32.355392082242396 58.4554755955892 7.2218792931342115
29.71045576522934 58.683528583666536 7.329203553999556
28.153961516430815 57.03687740741276 6.387887390934629
46.701708378925986 84.23229908801555 12.00956259595368
25.35944816809009 62.06119044600701 2.120243346736689
26.7969253132412 60.20209619415488 3.499685155748385
27.410065469119473 58.02136449411706 3.1207125091389067
54.91402486038177 71.60353386595297 20.88119131131665
55.1376690254302 71.6764923632028 18.66403256009101
54.76902915964482 69.3968152759338 17.504123979080422
55.14650839737762 67.08944839453149 18.282829742404726
52.019997536750296 52.59904498752226 36.540129922787365
50.5276388916732 53.77967922991102 35.61779990181215
49.0357970083239 53.18834623935832 33.9805721598014
48.99442825080875 53.41241125072482 31.685632551364264
48.21513922642717 69.20130427968763 23.989477159091685
49.26411903929529 68.45542309387311 22.331715521669242
50.64060440857635 69.39030804348243 20.51363609503438
52.32221670849794 71.20055838097693 20.480487044582812
61.07263040887489 72.78797161301472 15.815233719630292
59.43126260719702 71.94376721825205 16.76524338204724
58.11091382089416 70.02448186702095 16.39361573378818
58.473576680140646 67.91485646505481 14.98586166110905
13.214163292152067 21.308047296974628 20.997726028011332
15.151569419690638 20.846799361206532 22.377125073711742
35.19890289011511 56.526742977480424 4.449458061903814
34.21283824079438 58.286201912464094 3.0385677118911034
34.38063495184226 60.8035925329527 4.229819191609177
35.07236333511256 61.39303824000656 5.958881774664849
24.73475711326015 57.6163842803018 9.153597006720041
25.972969217252334 58.283075389394035 7.66259982513141
25.522658562495288 59.455583791165374 5.8293199734303185
23.52257480483855 59.507923232487 4.236203062956342
24.83968942977045 59.979043111787476 11.35809644945879
24.45200124976102 60.422339939775114 9.114137601342946
26.640470235383408 61.28914834709378 7.339192284438349
27.676385081718326 62.59363222611562 7.522600826786685
32.487504096261716 56.21852917336365 4.125527193127741
30.89620455979833 57.246022645187054 3.9313886757982646
30.45105694882276 58.68837964047936 1.7586267899546997
32.90788846290233 64.27378954861159 2.0640579969241344
33.79599207709428 65.80785311918808 4.232560984403504
47.40234639216125 64.2024050846528 17.346884043753597
48.79457681931799 65.63986629337387 16.16265153342023
51.2112174803138 64.33394331029534 15.03246984644116
51.65504756807113 62.05331233124754 15.659497133795282
34.6566704502821 83.64514723787696 1.8139869357632923
31.928302394439566 83.97974535339037 6.654195711912818
70.5308539042869 73.26790469197692 0.7198144356100763
72.73520193643314 73.55118752078066 1.8102966334850024
74.82593468238679 74.98723936389091 1.0923179127926728
71.55546268409996 77.06745845099726 1.4642243801888004
73.81939593906682 77.18963143609275 2.2443410973697207
73.73843074236724 77.43382740456289 4.972396594816526
72.07810198608192 78.49485370080187 6.360061891048973
68.03445499504093 47.962174357872684 5.316824035112808
48.40542473784255 64.26608907474142 22.036184513166972
48.992181210759135 64.39204434807795 20.081783332000676
49.41728393545884 66.67324016231767 18.62184633963382
48.078656061697764 69.1664512197796 19.140102959122682
16.145251121690723 76.63926963620558 15.883812101952026
14.421695578088789 78.17575444413635 16.202946841097972
12.690751184217358 78.04538508044938 13.85829558792319
13.049202171360745 76.23399636793043 12.256343739738323
39.061414743019945 81.16451726922165 5.828079106622085
39.44187584537626 82.027235987711 7.5291454340693935
39.98665225775829 81.59557887537066 10.356642178654129
41.491930438631606 79.92948283136293 10.88133826085802
43.40431034275212 75.95072743472136 38.547877622325764
43.81529057976004 77.6470980271549 37.08517381451577
43.24373078683817 79.7911199618638 37.28320257338446
41.402181746270756 80.34656266850716 38.447740539249295
37.92784557443148 83.76954218176999 15.425860227568892
38.28198731332787 84.09032702865017 13.187993562259843
37.349736578559586 80.26373889768033 11.484758812280258
37.549155634529676 82.11581806834272 10.966772821262508
36.80314149016938 83.142180221066 8.80793127193558
34.3351424871783 82.62742119924417 7.3356310059959995
15.777552309545213 83.99592975697246 38.522844330707485
45.00268821593156 81.78964657638407 11.11757639392555
43.06558665658954 81.92640585538231 9.982092488490723
43.24798973902849 83.25908555974398 7.358332199490631
45.40655970943765 84.61435445720123 6.823365757903202
5.574450754702311 40.24849059165378 26.575011514915904
6.5865400226476085 38.48371772275786 27.321574894156612
5.241787185235557 35.96057608626089 27.30813415976409
3.2555857999293774 35.447522233193496 26.06272111089494
6.61299731259755 80.6644087416598 11.74406172242885
8.277977991679036 81.13748800427702 13.545515915554903
10.770622317129112 80.09626276130548 12.722832524602417
11.102845886671009 78.20920231765075 11.407293326089901
9.173867494744044 82.06205752761497 15.857329418595507
10.623351673900506 82.46993343689716 14.474037696871953
12.919475271886402 83.47658774980661 14.45617344911975
17.526349860069324 74.24160514724308 9.356466517797076
15.816177771478026 75.72150985936668 9.085483027457748
15.268950060598987 77.25197986316603 11.474876535256602
16.78690793744619 77.60421650672886 13.318303961646546
10.460192685262493 81.86693057763644 7.517202925512033
9.285380266292464 81.04483326687247 9.376795171327325
9.952585150875116 82.53487542871477 11.978558943559843
11.513543426570289 84.1912132169411 11.748477813305604
51.70589581014214 47.60643794299663 58.093283120372256
41.24590536768534 77.1714443831669 37.20556751237587
39.47071877306334 78.39558523791464 37.58427985116555
39.93539435464973 80.39894729758636 36.1533928959666
40.64997945622234 80.8018927832268 34.01143759317838
57.45680894083559 73.77515739567069 15.039943102498185
55.95649407861627 71.87482738938724 15.0935202425751
56.6215185564568 69.92549598405584 13.877830522734728
54.734381153567675 69.12693202325629 12.099069946959705
15.876995360454012 61.061730237383614 29.543085594097445
14.436350433853343 61.45607074276148 31.130756496538893
11.952412266467016 60.930498932288664 30.8601378299198
10.934201269992343 59.052507368983484 29.653503478073727
70.6830004364582 50.96868958875757 4.174617777797894
76.31896538244771 77.9430645719375 1.3717954234823406
12.673884838464527 70.3357359931413 62.823633892250065
12.022128879575293 68.55182380767768 64.70169108692686
11.771847695950184 66.35515175094314 63.19330016829032
12.967374680179024 65.3290876959487 61.67274106356306
70.47909542392941 74.70898694991683 3.001557405888961
71.77259502415288 74.2398969776422 4.4463937918546454
71.92028611278202 71.52183386513425 5.695947169258694
70.4491201318952 70.23609665501203 6.1680797961579374
3.252426137525611 84.21932501733531 56.554462347301225
6.169880972774532 83.86012850327094 77.17019856890909
4.152037366759823 84.59830887385897 78.1259947757957
1.2959733944970375 83.38598179900828 75.53842565026439
5.878074056051659 84.68073116479454 74.48001966228662
74.81816757242758 1.9061810351438806 75.26131370111017
80.50261005126504 11.252403188832366 34.09001580758801
81.71161592133289 9.331486194478291 35.365544375292224
79.51555181842636 15.671548428794448 41.24740101256078
79.81662743436144 16.351076250439522 38.93827169372834
84.6740430384753 10.402232344217861 35.20713486364844
80.54315897222226 15.059950252851236 56.04446524241089
80.54692237280278 17.3024666830043 55.73242050102212
80.8839817387878 18.934392090312727 57.495311296136286
82.55429486337373 19.096640573228342 59.436762522118805
79.96468001840549 13.781021165226568 37.878448459902074
80.08578208905328 13.16605295776771 35.99596903605096
83.58566602240239 21.882839194428215 54.94251755201804
80.24799488976025 19.786315765698248 54.70690358603269
80.6315477617428 18.099706667531716 53.14885014559344
78.08586712235729 2.6407954763962582 48.975785080667364
76.83752736972261 0.67879798092589 49.006303699281496
75.72957972752596 0.6468732186233795 53.4365761752834
73.82437310778333 3.527418180677445 46.8367180597934
83.5511495927133 16.104103052779486 60.749699770830915
76.74993197798403 3.1294553340831173 74.11073480495654
79.07524950795268 3.2490741493021074 73.66247252112794
74.74211598051359 3.0100661768187456 52.98009766901055
75.84703674538132 3.857836532160119 50.914188343916216
73.07283624324232 3.0455415264825354 50.22697357337031
75.3744775937481 3.057414946871213 70.45330241987062
74.29336740565036 4.262766989386237 71.83024261000897
71.19239447741857 1.1496415799087305 73.51377162751204
77.00413941605483 16.346682933065956 38.5300899446205
38.307817730943455 1.127620741200001 33.605961294038366
39.603126329826225 2.8081287424601467 34.14972123662386
56.190387072526555 9.084538269782751 25.703729047956923
55.72776059913533 7.055945913711907 24.754521275663592
53.34275651828298 6.7006759796106 24.346955733214873
51.4481146988181 8.351906940526115 25.78345838090894
60.70088282010279 11.526874070190496 44.792213427911804
59.74865416105658 10.142335242547881 45.83724021937155
60.40774536061453 8.54049359295027 47.91125781238362
62.27982117355712 8.523127643467154 49.001129537089874
57.98907539409692 3.020286704632767 19.71972344396454
55.717583923259134 1.8913758559001388 20.60919144888032
61.16861172804733 2.5404824784399676 21.191206555846158
58.86670446975159 5.7872324059946765 23.497732925938493
56.87218504084774 4.8290831419716875 23.872778112325502
48.938411734470215 9.922460346344689 24.502052598378164
49.02875573745432 5.693369335827418 22.64310752616338
42.03570216955054 1.2292606642341457 36.12213828600538
43.4956148219585 0.45336661247177307 33.9134605883991
75.80548140153763 9.657174845795323 32.68743540822294
54.19632703505326 4.0656490731092445 24.595910084960135
54.910110548848834 3.5285057852024098 22.491837551876134
54.34066569742664 4.663450841172065 20.37440964450828
59.56284853523815 13.537492649526028 43.45728620678711
63.196297809423534 10.504528384105786 50.61524106395276
44.68583963730377 2.8934207395412423 34.596190368463134
43.16768301762719 4.2402986743949045 34.28171029208735
41.48204188769662 4.161438962662794 31.764454311655523
42.501290177237706 3.557856779636129 29.73733136033042
39.32973646696955 2.4769081825474366 31.6184805368027
39.094251740596704 3.6865964244825244 30.12606942870876
37.36133990068482 5.770186552486148 31.084742715545243
33.1126622572066 0.22097228482683956 32.65492700091854
54.287861496138 5.640503755465883 48.386535950050224
70.04284765384725 16.9949875271605 37.573975804543906
70.60861646000019 16.17351465830193 35.63236233566965
72.26750771110541 14.179588798122738 35.336021467416366
73.38654397190429 13.056215954985918 37.74801442758022
73.20045058380063 1.546089065539853 46.25116288200353
71.22345371910559 1.6907986073331125 32.87676393394643
36.59536073882976 0.5700246685564044 28.251773141965376
35.565842109222416 1.2562934537805317 29.809340658299895
33.2713762369757 2.183860561006421 30.542886405623843
31.082125721975917 2.254500935521954 29.266278178062546
43.965170447748235 2.572500223840313 37.19560330693647
41.61594271004951 2.466591682826653 38.53700662737684
36.00312885639236 2.6696760179734715 32.75915176481618
59.72728987177169 5.581888710528377 48.33257905007672
57.33108853123762 5.349209982823976 48.01731788009261
56.095562297340535 6.955144110604433 46.74804047522976
57.06910222743391 8.388618919720908 44.315907722955416
59.7541245563523 8.20824479885889 50.705725268770564
57.74046446420085 7.650385647466069 49.77879402906136
71.21753567426951 4.2771974331175295 50.453259212854476
72.74536019695341 17.176048191733656 38.72888558266283
74.38723555292628 15.481204266911362 38.63755983211499
84.61483682753968 22.243962522748436 79.73494452055479
82.8927154438531 23.69560121878309 78.54562903188857
61.56133466413727 17.556510428289304 67.56408628644442
59.52874609352232 18.42574923803886 68.16403033945589
57.123673748780654 18.34775808098399 67.24720848552687
61.383955392345165 35.13596679907218 51.93901594085094
50.98209391536469 40.526874529167 83.15117680275816
50.549445752903445 40.014565781984814 81.15514554172607
50.289528184103254 41.21454709477718 78.92695486351067
50.17952888856269 43.46388661470851 78.43814392002422
53.33662478188462 1.6720083313982985 83.50803310866411
73.46117979058667 5.688082829691468 81.75226198876464
73.74338529039619 7.561615732202859 80.48761586883153
74.99235930375984 7.186887614108777 78.27805226199546
76.9428459716491 6.260309144566118 77.79163211730096
75.96421237597599 2.6866122941939246 79.65412582708366
75.64361427537519 3.8775938153992775 77.5663929623313
78.73401949140859 62.35698765045695 80.45102847375755
71.28280425484598 33.33078381533251 72.3191826321808
70.21178086090157 35.36972289697099 72.04628724610234
68.05735429234028 35.110395150855496 70.87027981354679
66.2561144285702 34.07477866020746 71.96587722833311
77.86834959619495 58.28190916711335 78.50649164488988
77.37982342010883 60.625792368835945 78.4249559052408
47.1511556868424 56.78833489104071 66.30909221789516
75.36769676711265 55.217244400818075 72.86543637655043
76.99782726745835 55.38189048719894 74.64480336788208
75.79955833969633 56.27208626065538 77.02344513478708
73.71430210537078 56.28057504416709 77.61750058403948
67.32901746358858 36.1940185459647 65.82619142086003
66.36770699227822 37.22503436434184 67.69706380871445
65.51548690349462 35.775071410487584 69.64058495930537
64.81783446804123 33.42686927894632 69.85842675383064
61.20674524931766 41.855480745036935 69.68890858844466
62.668653149945946 41.675126981819744 71.55542333476626
62.15241406153453 42.060509999846225 74.14411355818697
60.35961311669689 42.25335030906241 75.21979655953237
62.43761370426237 41.76378634100217 77.185720570282
64.32774261429431 40.45348226640905 77.77131984372987
66.50499111303448 40.590228160055304 76.4897357680777
67.51525460714045 42.23356320310605 75.09529762726788
72.32581221824769 31.3538269605362 69.12780616205883
70.32605249137139 31.880364114013062 69.63443241091045
69.1949313452219 34.187001937789255 68.04272640521741
69.93521514689651 34.86532272005982 65.84831057067909
50.19650596047421 63.285551117385275 81.4865404921168
51.52643340471866 64.82465430480354 81.59199938838995
53.39919584774525 64.30593204489864 80.65464488452047
54.457027135604065 64.73765912541033 78.44652789755222
73.00153457728537 59.16000720234332 77.70413554699215
74.29341067630664 63.056896203416755 80.52258960037494
74.20209248121611 57.64274782484105 79.65595012069987
75.01498563724923 59.466621617457655 79.62003214768976
76.08118741849357 61.226407647299986 81.40924922303734
77.18000112914844 60.789815379821555 83.6216177699392
36.47757161208788 70.85479199714865 75.7886018847882
37.68657748215574 68.93387500279458 77.06413045249242
35.4905133792492 75.27393723711074 82.94598708976096
35.791588995184284 75.95346505875581 80.63685777092853
40.64900459929815 70.00462115253416 76.90572094084864
51.31920018024859 59.30668890176065 76.30009256428022
51.32584717550681 61.25630073555813 78.11441969682393
53.503072577805604 61.2338174648804 79.44407212384603
54.98808175457248 59.42063807605066 80.05565998178079
54.616344792251155 62.12053574028955 82.87755276579469
52.44080896855934 62.065698814905986 82.1516112175763
60.63499221830566 58.46549301323789 81.81418795938039
59.75545590319624 59.11250821907892 83.30890532422569
57.64734161442781 60.271289957767955 83.40710417023634
55.407390794908245 59.66242322743941 82.66692368217802
59.354895845114115 64.4296902437859 84.41877614136237
57.63071774655372 66.37464775657314 84.8772641534392
75.70404998562461 18.00853248840667 57.33410097939984
77.85687168796072 18.629519868654988 57.48577784648246
79.26415717661035 18.95083860794116 59.58892233383929
79.39746064688956 17.200318554257066 61.51608401777649
79.47066601914837 23.430910895913602 54.096595265772784
80.26527571919397 24.311209979336365 56.06093238645492
79.08994981377013 22.940711971807957 58.56111208817345
76.77335942548567 21.499815140260264 58.14221526786325
35.93964157922833 73.38340997354285 79.57703453710226
36.06074364987612 72.768441766084 77.69455511325114
66.07435145995066 30.636905412655217 49.484807207997946
65.08409105764486 32.482847201990026 50.17661491514032
65.4852669770624 42.73260719117318 72.71383903993828
66.57060767788163 40.79758513250039 72.4883216114557
65.7751295990725 38.87454060536115 70.71056437463263
64.89903294788054 39.31613334473994 68.32653296451417
81.62509295008411 21.943677103969197 54.91641656444235
74.65033103388042 21.06151514362512 63.4294572572887
75.51319752342883 19.780540903996172 61.66713854157537
74.62787599071626 20.196156120251903 59.059695894656656
73.1751278321377 22.36757594281962 58.52474490553416
84.3763626750803 22.064493093110745 62.74818848524602
82.55124629293648 21.557511874953494 61.86604841742064
81.2691260297734 21.6414794634097 59.707254008048444
81.89297665101968 22.70999394731819 57.52952635118759
84.3865814083421 40.79637730338278 83.44146763472745
42.039833365718216 35.54746982687264 83.10909148248894
43.67782827286752 37.3706346808128 82.7463517753432
43.72008088509747 39.548120185502995 82.30281616258515
61.74505699574145 38.828519793706846 73.22586576417876
63.19653844859204 39.62096155136814 74.82460912852898
65.84180661428607 39.00029833053362 74.35104447439852
66.72923248538012 37.0677927763583 73.45010752790498
69.38105646332681 2.359154303657206 82.55141977594845
71.2345515145444 3.6231594491928707 82.43041759773614
72.9163522574998 2.9710527189064955 80.752122085137
73.48277936123618 0.7849261584177945 79.77487988642098
68.30902437405416 40.628136249833936 78.1220590094375
70.09098375577484 41.017666280260386 76.46962562290737
70.54671952415471 39.660519650113464 74.15390128739503
69.48869866734981 37.54552107798009 73.47034089582114
83.33239949724607 30.796013853788093 81.99234557970277
83.488948415719 28.720493573607765 81.26843152441911
82.04803380827877 26.451455299409886 82.22779281580897
80.101112612624 26.551554156559035 83.68113196007766
84.36748882282954 30.22937823300136 84.41099166691987
44.284379717187285 41.43979548340834 80.18859515393788
45.187775204280896 39.439955650246155 79.82285120584187
47.37636054705545 39.036591120456684 78.56468151760419
48.8107978078998 40.278197486043695 76.63241349045646
45.81197050572155 30.692227184610438 81.29764533820244
45.07202929178084 35.74404704360229 81.62306848358271
46.03621020427414 40.226489019557846 83.70716551235492
47.51218579689378 39.98050285283413 81.78162343041726
48.83051887062365 38.3041310874112 80.91650931576346
49.39934039824202 35.98006122278208 81.61932863118376
69.33191534325915 9.251162325319775 82.35837542214188
70.63029477797075 8.8494023818825 80.33544188161379
70.82668222829224 6.1486020778451715 79.73171674657152
69.61537976980634 4.51909492663863 80.37418315369824
61.9076981760324 19.946185402187183 69.31604883677787
60.62212056743098 20.67366202398376 71.21930055209869
59.57486445149646 19.106363145325513 73.02062638176963
60.47910931815763 17.126972125819766 73.99272211159162
75.1530476551941 33.74656930113968 68.16660254796963
73.3227536018324 33.706555191097316 69.0930594418981
71.92014908613088 35.71379269270794 69.8550592390681
72.45683261832173 37.41721118545335 71.69593744580249
83.71121014507617 43.87605984782463 82.5962291939713
84.11065414263743 44.929558347414044 84.65636500092036
83.55627089167731 49.206217113933164 84.96436735156077
55.90798173391611 63.22306136242979 76.49514075088292
55.68876629175814 62.25301758911902 78.25991795130712
57.44506802653551 60.49023542060782 79.5793526426342
59.56602368008084 59.56384380382907 78.62422968352588
60.834643462192815 63.557508068098514 82.4175968236278
61.36120966278245 61.56888409259522 81.64000590293287
62.938229348880384 59.663484061726386 82.93322645019671
52.19737218065165 66.16072755706509 84.58091142648802
52.05343826317837 67.64472618995117 82.1833909040536
71.26452095026977 36.74714388242846 67.43501596854166
69.05302140782526 36.83119097389637 68.4219344801415
68.17215604582576 37.957688824533015 70.50634199234644
69.1379141781653 39.74810783083429 71.79500147973022
53.486428225682666 47.649695627084675 59.762468983130624
46.676066066848875 48.03296180300095 81.47652762593513
47.924734950466124 46.23954259248556 81.22309085708984
47.94236215989597 44.60200889274034 79.62246945683631
47.70451750708097 44.28363126640078 77.44481683190254
42.967530576177516 44.6130587949997 82.99991334236307
44.076185235815586 43.06200902023067 82.7069268620834
46.16248327384432 42.61398230686639 81.93272401301046
48.589438676972854 43.67082375197364 82.5093701039046
54.6318658693733 66.51355760055569 81.66955457027852
55.9410438420531 65.67337502696547 83.14956641557272
57.26451528201241 63.49460702393039 82.71640235558144
58.530944245407156 62.7606131512161 80.83487762532518
46.482318572420816 36.19432012034369 78.16193952640364
47.28649568976841 35.12918730519245 80.37439909724239
48.347371417126816 32.83115022402543 80.62765448598911
81.92713621338685 24.636071155850253 84.71334497056453
84.02652131506103 25.7418533183058 83.9729286071997
84.90646643275123 21.395318769264755 82.28152455104583
81.88505944177838 19.25997114258206 62.64009966342424
81.89823966443268 17.565958686773822 61.392827440263595
77.89842309584878 21.726536497540277 84.02119315428497
78.99310178601765 20.25194549917635 82.95370628332017
81.52774868637214 19.494025104190673 83.63412533392038
79.02708482693765 26.015810794770662 80.86608125191177
78.91708161078718 24.232403215467357 83.24402082014807
80.85546269385507 22.697134394093254 82.75437864239176
81.59412651989855 21.534001388344873 80.92495724116094
60.10317029182057 19.856540734976303 75.36081790063643
58.48590202817939 22.05498109131536 75.59025661729623
58.551279457663696 23.496482407752787 73.44796451673379
60.588389030478396 23.810837116346757 71.87058683121694
83.60950051892277 17.72855922963642 83.46380294771068
58.34996949168323 21.40947479986379 64.59178247638447
59.875594709262685 20.623176954596328 66.40069109894648
62.002075809477304 19.95487530959171 66.67500739680098
75.94470071020805 23.08404897470282 62.29455799310326
77.365027683507 21.903894153341376 60.97874767975318
79.41366524816641 20.83857664151908 61.489589941419965
77.99988235687341 19.271226766674626 62.61242354833151
56.13112647793361 15.176392725375008 74.0213199639339
57.92570428983552 16.786767036761038 73.2696099183407
57.55391392105388 17.477017546790485 71.01366122155565
56.543977219314684 16.15807530786221 69.04114961053517
57.92560502380196 22.712867728609844 67.33759378922507
59.29218354724613 21.7299837240368 68.62747078799725
58.25732862721927 19.846762547360488 70.2735805589575
55.90495331005581 19.771415874346918 71.19686126786364
56.577063953536964 20.58768844381554 73.76161166359479
55.595531947527085 18.109256376373864 73.71906792379919
56.17176775038384 16.718836419715984 76.08445129651012
58.027712464897405 17.624058681418017 77.88377432433475
80.08313539045174 18.106828021149795 81.57755827995142
80.42135450417423 19.238604294485604 79.40341762911387
83.31588142508065 19.60407927001907 78.70716675406045
85.00910611000921 18.39478981748286 79.54405486896945
70.44918403905494 0.29023371955483646 78.81861479133957
61.72850038106365 38.90320721532481 66.6867373798905
62.45413199742681 39.65841219161442 68.6551051365318
62.86011500894763 38.241687830085304 71.03126668348743
62.781019367070535 35.74585758174616 71.0284059194979
75.16419362404343 7.159740103812745 75.40909957514035
75.02579115668019 5.245947784041457 74.70130585814849
69.06406979419596 2.0917608692181395 75.76809537599412
69.80896635148173 2.667739079536103 77.91917923160992
72.0557494012178 4.127082513034456 78.36647525831312
73.21240308865164 5.411296220854163 76.90380385964431
72.69412455100311 3.1794111425134863 73.58048153641535
32.97910097687767 75.94907174138224 80.22867602182069
34.419359908906266 35.771534704682736 52.892598548501056
36.33207485247146 36.46648349123404 53.765763075600525
36.677495837762436 38.65317784711248 54.7200530758649
35.92285602030477 40.161904841762755 53.07790499027668
13.404090013460925 8.628093869838157 66.35434546987845
14.965584637379038 6.972908927671191 65.89307781809768
13.85442152281658 4.518490371599855 64.8902274697072
11.872984741116323 3.6309967110198804 65.43500177302911
12.631093836250809 9.454947399710655 83.95581153688799
9.200674181874989 5.0515414524073465 84.9111681381781
13.444548278052878 13.34378659216229 84.81456870571833
10.088333798450925 5.937606441734021 60.555582915715945
11.763546241529387 5.650590670291111 61.68643081555352
14.3019156149743 6.059507012238504 61.543038507898856
15.51289761537289 6.762583541084444 59.69601021633968
19.449816226839065 5.333701028780555 63.3379855918635
16.94445324308017 6.01204362276573 63.3976355030456
15.848781939100366 3.8341821640474607 62.08109401683855
16.388577575576427 3.0454079189074705 60.0591984946487
32.840259688283346 9.892398467161074 83.32434985960005
33.741959777725825 10.90978225988185 81.44170646453492
34.84133965038722 9.545600291867624 79.11618956284404
35.24597620581906 7.478781497248096 78.80693353591575
12.391344714324624 0.7338476869987549 36.93150352059635
3.743190007319704 4.469859704222995 67.46283206494675
3.8547857642673433 5.486534763272595 65.64828390955772
6.111202014919488 6.872805232498293 65.54749386387859
7.706388563374347 7.4705255838463085 67.63542269858802
8.273673065287028 8.377814651356795 60.71429904406528
10.406546952104609 8.762251411006849 60.94038828763535
11.294732674815142 7.862028544211047 63.24235701255838
10.340299006731538 7.929395506745722 65.6435250239561
56.6102673969059 17.864592519181766 64.90200290766265
37.648628280035105 8.316405021761584 78.10934310233067
38.59402200874294 10.32404156957238 77.35117302157224
37.06978473278277 12.205877259192738 76.31252834181765
34.87398217238617 11.937368278058383 75.36288046274242
29.94261454808818 12.024330113281467 76.55504334030313
32.03521475690719 11.648381542583275 76.20646552277995
33.99492433779436 12.437301650768559 77.88803613055352
34.32368375665762 14.188469039245746 79.08226310430452
51.6436896540693 0.1480949553618571 84.9163707656011
61.05267492000483 34.469458156721196 49.92989632571959
25.177588593884384 26.180857029010387 74.71817763754781
23.061791996433072 26.647950324515346 74.54292022404572
20.83485366207137 25.018796081595955 75.01384219593672
20.872071077047977 22.82835505318622 76.08586880161461
3.031119347326343 26.346751585491145 78.9056767409602
1.4628348397673248 25.821922030811738 76.6440878498836
15.35298141875994 11.636687972111234 83.03001521503516
13.376515520152399 1.9909612297598744 84.49850057635062
0.2941177351489375 23.464234945795265 49.256576270101476
1.7162905033385174 31.326606402185703 76.87960786851947
1.5882285691365339 28.89897208058324 76.53794636466372
1.3210277296168706 44.494404947975504 79.04070586064586
1.5999066567110727 44.82209286332117 81.47879403735412
3.888864155102402 45.80518441302914 81.96010280754261
5.046934058760094 47.31444511156677 81.43330964035108
47.244619012293 25.518755722648113 46.20407047580844
45.25295014957023 24.913977867010843 45.12273597374357
45.83638253379187 24.857502549957985 42.300022363041634
47.43107387292302 24.428347618103295 41.21226025159022
56.09523871924367 2.114805879839467 65.31342946087678
55.40835284609868 1.6034448192835768 63.45339744901337
50.97046612378551 2.2429754502832737 82.33680567114492
49.82241721457637 2.326116381195292 84.14806335123812
53.458546444864496 1.9258107806296554 81.35319782030085
18.803822627653062 29.436198739292266 42.47614380956849
16.6143780453777 28.378182997944258 41.31183950790819
16.59568678859289 25.894612932198438 41.39193526314301
18.84014901171731 24.357914651158914 41.808628650069544
21.975830880128765 47.108079802347085 50.66215107716911
13.71141579196317 26.31977319112843 46.2154124891842
15.14843616435691 25.1210984116886 47.38242281511492
15.082367389414921 22.499535708683002 47.11016734654335
13.338962749179968 21.525728653360403 45.454290963783855
21.369844657227084 43.283554023095995 47.52645424480167
20.796524578644437 27.786088331190864 46.6776280422827
19.30073507140768 27.744381615463467 44.8725318510611
18.52541337217135 25.097268453129495 44.27539257470641
19.54691263578142 23.246525956499788 44.74492470004705
44.260475798434875 39.42672494729005 57.34654918512905
41.99763147471433 39.563052087076656 57.643785996470996
39.9567540585471 40.86276908999909 56.563447715677434
39.9718782898319 42.43451582388249 54.60197627892658
53.76866917276759 16.478915494228218 72.5750206871591
53.53018808517588 15.917305315131705 70.35897087220383
54.31108059273559 18.034962665987894 69.60630530820903
53.05623970893193 20.213049238004793 68.76916033449879
45.79218580250962 23.99919318579464 36.60039091121149
39.94501497235179 29.80800460796236 60.65830003233618
40.14792900833165 32.71903947975623 61.51564327058089
39.6416391903054 33.96942631430971 59.717889476750805
37.451361656026485 34.30136465400952 58.454126431521
42.10537718382308 31.996191913549087 59.60349802511459
42.02642184060221 33.45584510138032 58.2330769875292
42.53720499803752 35.894548393995194 58.31253359491651
44.43936064284067 36.66082732280298 58.22026666913215
8.232648761880103 39.39523411867262 38.836902962465324
0.781433525317491 10.369030283548174 30.705057120888576
7.366978866666452 35.320155635329016 36.892366133597655
6.878452690580341 37.66403883705161 36.81083039394857
18.689214511051482 14.076454960611546 29.052357685987005
20.94580093512115 13.575739068573668 28.35177600945611
23.106229830981476 13.22062605662937 29.392848151250405
24.413846717158542 13.597109813641536 31.47299937471037
23.50117137564681 10.938602409772134 22.71934217866182
22.102210593384157 12.489263111560472 22.14359877528848
20.617922057299246 13.537301527021791 24.243410107527527
19.62817381628298 12.869761034221664 25.77570299160378
22.566746771670736 25.848722252759533 47.97582830135484
20.641173378713788 25.379986129018167 48.3072760786521
18.99964441034742 26.441129371729748 49.965425856876664
18.99878838058934 26.134778980440245 51.844026085923204
18.874378757979397 28.590147991384647 48.141894008164215
17.423169010487136 27.056401404073085 47.362417454771226
16.033168935849684 26.921080620495303 45.392969444988566
15.048845065475541 28.29636152356338 43.88054351194367
20.778313648535722 20.727572122670566 26.771327948288903
15.929054545994425 19.956308746382696 25.378203447959486
33.567962345472054 20.248821333979738 78.5428351330837
33.68628071564256 17.927205848084046 78.37296799230742
36.082234511259635 17.1797710857398 77.71746805889725
38.22272117873399 17.79088330487681 78.51662614782828
15.850628873229594 20.262047571592063 41.095443676615425
16.331727558397635 22.51522134571839 42.15300571145751
16.914642822496482 22.549332608983235 44.63028732023344
17.72143991648629 20.663721782721026 45.93434950291346
50.918655975087276 26.42467474582195 40.54427326482604
48.96821365826537 25.355222427643724 39.23267918794954
46.621942976289496 26.436876376269197 39.791207220342166
38.692669758095505 37.08695562197809 51.99449805705361
39.894980563096155 38.76852373796788 52.815777859797265
40.29825517918972 41.28570112191343 52.26582570928168
38.1985069795959 43.022201706691305 51.6735102433193
4.866326037584157 32.25549086903374 31.251310865258212
6.496456537929863 32.420136955414605 33.03067785658986
5.298187610167845 33.31033272887104 35.409319623494866
3.2129313758422886 33.318821512382755 36.00337507274726
1.8244414887191949 8.392073428751868 27.513680650766617
12.1653486333494 68.68692707809903 67.40231512515712
11.702722159958173 66.6583347220282 66.45310735286378
9.317718079105825 66.30306478792689 66.04554181041506
7.423076259640953 67.95429574884241 67.48204445810913
13.96403695491977 62.62267551294905 61.41830952116473
11.692545484081982 61.49376466421643 62.307777526080514
17.143573288870183 62.14287128675626 62.88979263304635
14.841666030574435 65.38962121431096 65.19631900313868
12.847146601670586 64.43147195028797 65.5713641895257
3.605088346871384 49.54382947728179 56.44391365010233
4.898377761244292 49.57881297449807 54.360238397407805
7.422984990222345 50.558035047359574 53.915261225234815
8.767590140730885 51.79189192796363 55.343207747942635
32.34636905492033 49.123461731328 72.99381654634617
30.761358974946194 49.81195843876157 74.36340840580516
31.008418934755774 52.44905738534144 74.72910327742412
32.9499681626808 53.692200341593576 74.19868144480576
24.637746910430696 50.44070354425735 65.10515217590495
26.42251521038533 51.097498414743846 65.0780714125546
27.342455088535516 53.18107679902749 66.31937086188987
26.399613601695503 55.47294416855237 66.70931156075444
27.011881955864986 54.14837940893178 69.2245517946422
27.676110265501293 51.826340579474724 68.555032705451
30.349723247499846 51.63971263885924 69.22624199091076
31.31736364899518 53.42831810092651 70.8355369801753
29.93871950110062 54.9218131121503 75.29748821134184
29.314080166739082 56.02518498973797 73.44014791760294
31.078904778994524 57.00906707478021 71.58481785585167
33.71867552902104 56.46275195732454 71.67003104604747
