58.996839613460864 36.64746841560268 12.284319706596222
57.96115317450092 37.46432455880038 10.428607049303071
64.41714437327232 44.47900596636205 33.26198870078274
66.20475172805602 44.89357897927887 33.76617859495696
67.78505464258376 45.300563863307836 36.098997210523656
67.27717950752564 44.6819400303973 38.28379634748386
37.38096185386659 57.95644892656532 76.03095270823316
38.163926674918606 59.94100121300112 75.6603818858755
40.759735757372646 60.13561275556636 74.68586914350368
42.005197650381085 58.984002206980165 73.49389303231987
57.81779279504242 57.805797180556965 54.180823234556655
55.86013401437447 58.30350837452684 55.64709388425051
56.4894446676922 60.358974819951655 57.56850384143462
58.63177424857007 61.22830685156936 58.078338321577306
59.124715263011964 59.98084379735308 49.26348516360932
58.06718673848965 61.869853788741416 50.123622722684885
56.480475897843064 60.91357892824933 52.41137420409728
55.61197807936879 58.96671926116797 52.914377648332604
23.312929870217236 60.506791430231665 43.3240049417393
22.465736083038937 60.7188656294884 41.163384370554944
20.341044970958123 60.13734992065163 40.55786158340321
19.646109349499543 58.038362442007106 39.161469019577545
56.16115111793015 59.52889756364737 62.07032016846232
56.86979927531134 60.756463927111184 60.51501244814426
59.17325331071243 62.21451144239664 60.45232321204949
61.37474992816607 61.682402639863604 61.625775361518905
10.53127486366792 12.679953904566172 13.232214925956713
10.533338006955322 14.330733136114079 14.769497113050113
9.841546650249056 13.244578926554567 17.218549864236156
10.518221360414424 11.585467652308324 18.18259830092677
63.73896383185521 66.60425866987117 61.35231304274633
64.65110345273834 65.03974228943396 62.87341280895682
64.50501559767625 65.37361503452676 65.55922220872527
63.74759038957492 67.42664008721546 66.85787126007857
36.385803371097055 76.52764534988223 49.41039868296506
35.26175836887275 74.66828257685935 49.3011120347301
36.2381624818176 72.23198874536844 48.27776411166905
37.7866622049789 71.9846465223013 46.894869368241366
69.62889731549726 42.33574978228416 0.2338230576555867
28.981507173649305 74.2501521923933 52.85909658790298
30.723848465951047 74.17506557674508 54.409997148344935
32.55886035212024 72.19395309853395 54.94871904737877
33.51647924110741 72.21359419176127 52.78084324932069
34.64212041507711 70.52856224445297 54.57591987596225
36.13145765095532 71.61618079842407 55.7518340794675
37.492227855465096 73.40107259140215 54.67433931973586
38.064113544897054 73.75140262977989 52.06854848931076
44.80125570892782 78.65663383050995 62.503378768267105
42.38190195185534 78.44541322776553 62.068963577763185
41.82124885695608 77.21097500380242 60.07643491145208
42.9773534150374 75.74909807281423 58.677640749671454
69.34361992924079 39.78647739000518 0.04748406268684246
67.27960068761686 39.84321861758438 1.8294751935958855
45.3326872785175 77.22217245596669 56.775547885323405
43.25546464515604 78.01898525541975 56.74270437006553
41.89614194324543 79.301946824593 58.3561102765883
42.270433018331595 81.84395916848133 59.56239272240327
81.20706702347373 32.633869165878814 17.858930119430966
79.80091755520833 33.8866207766459 18.82263732308533
77.49400182685484 32.8284382290213 19.084926366853782
76.93947753381572 30.15363867210413 18.850503206262488
25.550338902591452 39.60297919327859 36.77735962480723
25.80659728091765 41.6451728372888 38.29008524611677
25.0601786813435 40.897065419294584 41.07522218108329
23.901209611453314 39.44496857750994 41.76713659759873
71.25171688243923 31.691111697089433 59.05738420048206
73.32197538278211 30.79813919773815 58.28897310347742
73.34287546013132 30.40852406617235 55.48024554541432
71.03537570676015 31.218663780714458 53.930653290929634
15.458139620730542 35.836987268186476 44.92011429208589
16.991862524143592 37.237144670855386 44.55557071095278
17.910731234093944 39.063272094636915 46.59283687253413
17.11256590758037 39.935478657535434 48.38429227930545
17.36563682865676 13.032612209502506 39.940713050751285
17.74052141409427 15.435611340044943 39.9278521745526
18.58807700779181 16.951697470081566 38.20890291473202
19.127778118455684 16.120529264142572 35.452642715538545
25.506510261997516 33.430893547887074 43.746874429482745
23.42085186395518 34.689627369192316 43.611466468237
22.97337623610274 35.431189918085266 41.171298261622155
23.661798171714736 34.45232561949326 39.10017882224423
20.024159548698215 45.047719332916444 45.40679990546452
21.253513021071438 45.231937340126656 44.0167483048036
23.9722421014954 44.78094421508393 44.036985522943084
25.542394270167264 45.31419899348924 45.789478661117
11.474620714767333 24.685403570559362 46.240728783790914
10.19332210410585 25.521594871243877 44.443219706575206
11.802198611278564 25.44500177349111 42.127764937935666
14.312378001644307 24.504269544292384 42.64701800039805
60.39595941952815 67.64514992337719 33.98392430408042
62.23978254136201 66.58488222377636 32.59633802081257
19.691872837064395 33.53319085709555 41.82907790459723
18.88988215487437 35.23692929006011 43.14563350577686
19.664308908470627 37.61095816975865 42.790391636546595
20.33126734249626 38.85189131053105 40.84286323685315
33.98165180488724 74.29330572162999 56.432147285485534
35.6678113325702 75.74676204194812 56.84898370631092
35.01726941937289 78.32669436462106 57.56488247298547
32.847262291070514 79.00080872588823 58.94886689345399
20.295112539587052 17.44875027892851 40.25663249116406
18.935589329378377 17.365832668865853 41.826071630349276
16.408247979691275 18.42281476713511 41.24260911187329
16.05999221683431 20.233899440684073 39.458904037117044
61.551548324309294 65.9747715288324 39.502148061467764
62.401456451731285 65.70266392658199 37.487818871997035
62.600193098206965 67.62633703613015 35.43990020909428
2.314338075790836 53.62106672970985 54.20030438387265
2.536929807320206 53.21061218164974 51.90712965094021
0.9064975125723466 51.27523210253686 50.75484028947814
0.00020853415788461046 49.348326966586505 51.946329096216694
1.707713662111255 50.44855995817891 45.13610386128522
0.30746259287608974 50.210813538979814 43.9032004294026
8.929524975516978 40.563134579512074 61.605071578510454
7.199138444202005 39.12599079245177 62.25051589107337
6.8996462707619886 36.503552530325884 61.33077169753719
8.188240574063599 35.38806652864798 59.80210601468617
34.23291029261263 25.036092375972284 21.13206241050699
32.72691205029807 25.48121051402024 22.771668126683288
30.895791613707626 23.893046066912927 22.87708361054984
29.651728952386165 22.787849272863404 21.347712213290816
81.57691491193656 33.95623210428346 35.90157998576806
26.40126322372796 19.51571374627898 25.628506840852033
26.38828633719384 19.73604136284839 23.19434081305749
27.129842189704195 22.383511847757664 22.091547308865923
26.585176735417047 24.41939252574113 23.002378694849412
26.37176430165706 5.625970374491212 20.077927117663844
25.868955976917118 4.376680054455429 18.4037126037069
23.739841356001723 3.1552702220104827 17.915055200369153
21.406783641016474 3.5701628774197682 18.113471550844412
33.66578106473576 25.29716995041334 14.663475153602405
32.58499014195993 23.539091166813062 15.66809049559506
30.164658686267217 24.095402565396743 17.182673933922974
28.887929636723843 26.611536288983114 16.882938369221364
23.352842898898572 82.69445764001868 54.735557273109784
47.220194731951565 27.572118436589022 0.11105343828463728
35.74460423387451 22.714498274338588 20.48788139719523
33.65624355637477 22.354681025913123 19.75766903392047
32.53855322206035 21.074502163797447 18.018090393608603
31.84898024139915 19.5651991377294 19.424678957375068
16.74626012323836 68.33717166800234 59.98227308615852
18.60490445424821 67.6967241428115 59.321363024110845
20.34888332964138 66.55707807400118 60.84904704427583
19.95198340489238 66.79313762630201 63.471990880041496
8.851684232750653 14.377677775777011 25.189434334198015
10.859181485842635 14.688787038795317 24.530829180638502
12.20824666954346 12.970123398207283 23.123061234597106
12.503497254929195 10.750142104761327 23.55793862593394
27.86739534510049 27.738041507100906 21.754617190055143
28.801964884332854 26.964607221593408 19.63654915006416
27.84302912765177 24.710761679982415 18.453228784540848
26.541474065303056 23.01712777378974 19.580744033554957
29.28048199576844 34.23208462159276 40.37494276845482
27.05957463409623 34.0927144506525 40.708235818543514
25.93134669252254 35.990580048852586 39.83635126293261
26.599988803146726 37.34889179356131 37.97317839132489
21.93429566352437 56.97266411678567 63.43531891566762
20.337314420182256 58.42893110011827 62.615985121875696
18.182862309260436 59.70830073882583 63.631962041637976
16.78858894147467 59.19290399079191 64.80869243938454
12.47233513482954 7.511957494799053 26.055849764230455
14.33379087110509 8.571719955430328 24.467129453671816
15.85024182582564 6.386135309536028 23.76906961781207
15.74433921912872 3.999555186129003 24.75970639872168
20.61441571996375 4.143324993471998 15.351838081555908
20.022862119005897 6.61352632411046 16.37468175944704
17.79500584626543 6.317187679723125 17.71471092567977
17.314858534415166 3.9923961567282342 18.458951379262675
32.88136874462334 2.481187428534857 16.54636283898217
30.842770024868795 1.213542074915201 16.631484775539086
28.586853049306836 1.64909339720844 17.129369375095138
27.495987594444088 3.6223144075455758 15.918761677772656
11.305605135524887 31.548752157040372 24.750240645636428
10.239108856034653 33.18851982564903 26.37375216562044
10.990243557739339 34.69945490419583 25.05225472933042
13.222044555272932 35.91853448207795 24.84839355149744
3.130567964827291 9.628935314305009 15.340194691053158
3.9975619136550913 11.809782353661067 15.238249335440539
6.294972675920507 11.93578664982347 15.788329980986525
8.294492112130287 10.259729201108708 15.511740763508612
13.204869021118542 37.36114949848468 27.866620016414426
12.970983424383745 39.10641623373365 26.626718547878127
10.630611463789137 40.53369170944499 26.40410003967602
8.376585114107183 39.53119751121558 27.367428390170417
0.05069126492204338 15.577091106933718 21.10689301328222
14.684849292872453 13.420726229769153 39.03590696775497
15.23050101519736 15.168663006009881 40.45129339883485
14.172514623914582 17.107547463323133 41.497897006787056
12.259300922093297 18.752671320201447 40.558143547984066
14.30834546455307 66.59547148482918 56.1502711682672
16.14782641696205 66.7785949427647 57.72407277582355
16.182371378916073 65.31962981161492 59.848504103340915
14.618488588032688 64.16338308518074 60.972028225545515
7.884041099371032 14.130875850397771 65.94226408083699
7.54845764105202 14.945281805445338 63.514052538773754
7.539408922436506 12.826366241397077 61.696024100538054
6.464675878686206 10.970805222269309 61.931367816119746
21.15245848278975 60.86214358746903 61.918535650039786
19.406360658541605 61.8819158225536 62.493442015312645
17.932003413955076 63.22174852680723 60.63539421204463
18.759187555208847 64.50250636311362 58.8246532229204
0.3305469344710224 34.54623869486434 83.22927686754105
1.178085782535801 32.29932203323975 82.94756504156753
20.823069702360176 68.0618678440425 57.759188037639234
20.60384023969815 65.76211896105633 57.12763254213686
18.18118575136356 65.15239856354171 55.773036536953
16.79377945197765 66.69121275047344 54.64874664722492
19.819399217772094 55.31327574376437 56.23810974431873
18.21821748715577 56.40871473108471 57.491289181677985
16.26631956019117 57.814877011416065 57.31030326160337
14.299515813550228 57.65655389167428 55.51023061130233
3.578129246992141 34.89307965043628 61.12703238238951
4.628688030161468 35.044451586505154 59.38016416898463
7.071438957887915 33.348167267615715 58.861785890029324
7.357235187832547 31.22172067844356 59.84002329572084
27.984873668561654 22.37716361141642 17.131977702623153
29.641825502845972 21.574124892004516 18.244146282630172
29.172446097539066 19.797377289714785 20.14675042437435
27.474637453639126 18.695617170517746 21.00994772951755
28.772287556505496 28.18834914888511 30.460719875477178
28.686772578970434 27.332121865311684 28.421944948041013
27.903053863232078 24.906894636556938 27.467464132527528
26.563821257770964 23.203100531506426 28.4622117753405
4.448821649747616 40.20973231048298 63.89751302155812
4.786412093227028 38.304526405483315 63.28858207252393
4.550251111416498 37.3357332287734 61.00617101694299
2.9366757546447437 38.33473913991985 58.83671648973172
56.43603927385816 13.748569163857528 14.88691282809186
56.968040691680145 15.769039402161027 15.189718639952433
54.97503170321889 17.587504990240888 15.45947502440504
52.637926222556295 17.028504988491907 15.342892994380456
24.23343072496443 15.591737455464099 7.073568974490515
23.9203977132626 16.748099767310837 5.452197103926964
22.861417514583795 16.074667129882545 3.2164912143401994
22.836710247238067 13.915856387070978 2.1857859219148406
20.461289191302818 13.483955503249796 3.459364425137508
18.018636093502586 13.966155425509587 2.4814294605974725
16.37200929000979 12.801886786599706 1.2310868060258553
4.894923263086362 37.258461182702185 81.97555378459327
3.653296308890357 36.70826138822903 80.14581241196328
0.7443941224293043 36.505174893488636 80.73632430403407
42.659817476818205 5.529391454667936 3.6484174711214434
43.304207627866134 5.41270239955215 1.139025785086031
44.990910973104356 3.5036386758941247 0.6416688049127569
45.923178804220896 1.9770833934195036 1.9415121170011402
62.52227616912511 24.226491736522064 1.6538651620610392
63.41675460189638 22.300187144367797 1.9795086889068025
65.80219770889698 23.615434858995204 1.0643635447151527
66.65615094738723 24.941759506831968 2.054113429846934
71.262538929555 5.618894726684639 21.637259383211294
71.78606834686123 5.06775116144231 19.453944902444785
73.73795534661146 6.153986632216534 18.39631457347643
75.6224027648557 7.014544179111569 19.04337297389685
75.27040329669809 13.351828757622384 17.486620342320037
74.09355531172433 11.691387533002105 18.272997178483926
74.22304948228103 9.598939288663516 16.662615147653252
74.25809813130557 9.365288362952299 14.369441933857821
76.02181903636108 9.047851251922193 22.102370034882547
75.1593075999663 9.665432846300773 20.27578207083964
76.5700677945055 10.246596849234999 18.094433069875944
78.69506282100048 10.708241312058654 17.64996350860683
77.79034980651073 14.247850774503233 14.755675581690518
77.55092216515389 12.4192940839664 15.731621480379474
77.18984210859158 9.873142912929213 14.263736415279016
78.60861876209583 9.414969598254533 12.55396440807117
70.99332955008829 5.595272075719105 14.228050768024136
72.73907184320349 7.267171145155351 15.420174076687662
71.93755728188707 8.17504324658471 17.667315495057174
69.53599363926142 9.363169548134946 18.323958073481926
82.95744119194187 9.178613077387139 17.51479268627595
80.67648819337067 8.365487719497159 17.58770790129054
79.47165548668286 8.755106513467789 15.15148762289928
81.03577337011507 8.990821706525685 12.913413523583243
84.29056689397684 8.854120320759769 2.1916447285217098
82.80643460027292 8.330563188923263 3.969266504466898
80.20581103504324 4.178935464773241 4.299151125144795
81.4887588166687 5.9467543153075395 3.1015230781721046
81.28028596977525 5.68104995809981 0.37286626282464086
73.0689924739191 3.6037551137407786 15.09004616143852
74.38297234160099 3.933125933621646 16.677100995547733
76.59362275806362 5.915665652202419 16.47455105033724
77.4034635584744 6.917651748111375 14.845493439330387
69.65944565146036 0.10939442074046728 15.890333609073718
69.35428398471409 1.8714412454899867 17.062322324473474
71.56072889395807 3.1053219359992608 17.724636229961302
73.93628627061662 1.8851293348805482 18.007272764807194
80.50321813616188 4.841856564863735 19.023200633300874
78.81976615875844 6.028221093553544 18.39888068786331
77.9888302098303 7.545656940426655 20.662753668537775
78.07738251320633 7.222985513812818 22.82349177163064
71.60886408579498 7.783440841685256 23.25314443578778
73.29973262537032 8.200669751846975 21.968272081173883
72.67385244052613 10.108769629937035 19.923462199246117
71.45623653041842 11.630523705106434 19.913726269990384
68.93539068747958 7.251549265080383 22.60061219168475
69.56016037985508 7.195329723387571 20.389531539074678
68.93069947835856 5.020023206947244 18.68750247512948
67.3788976445074 3.5080314687267555 19.01440122389786
66.88982059648923 20.033269731056293 1.8364249207460035
64.21978606132063 25.60026118170963 0.008703816186818862
48.787397347893716 1.4502105921395858 1.290393395256792
47.49750354941165 4.0187700862984155 0.8158284523831043
44.19484812984023 6.05537855306476 7.345319146497857
45.29701144708889 7.546395827756598 6.045510947673864
45.10001543683719 9.115318636629398 4.398359953113043
43.261386910528266 10.697595113933403 3.854782765829622
64.5384307041621 2.487838116077729 17.41596102620881
65.32139552521413 4.47239040251353 17.045390203851145
67.91720460766815 4.667001945078772 16.070877461479338
69.1626665006766 3.5153913964925723 14.878901350295521
83.31861996822566 4.060286753159777 3.455328486437967
84.02726812560685 5.287853116623592 1.9000207661199133
71.95872455922333 23.188023020022353 3.888387086242758
69.53937080215086 22.97680241727794 3.45397189573884
68.97871770725159 21.742364193314817 1.4614432294277355
70.13482226533291 20.28048726232664 0.06264906764710444
69.4279018686271 26.375348357993744 0.947401040378919
60.00473114136603 23.532197915400637 0.33387521142964194
43.90372897353387 12.868560857514742 1.3672814041341754
45.76237330454372 12.228113332323906 0.7063713420864945
47.5063521799369 11.088467263513593 2.234055362251479
47.1094522551879 11.32452681581442 4.856999198017149
49.09176451381988 1.50405330629808 4.820327233643274
47.49478327047777 2.960320289630679 4.000993439851346
45.34033115955595 4.239689928338234 5.016970359613627
43.94605779177019 3.7242931803043224 6.193700757360194
43.33984022921159 9.851019001127327 1.2335124213165687
41.775957438328206 8.694772274693145 2.357036543521167
48.30992733308526 5.393532776981436 3.3035439680154384
46.56382950883712 6.413305012066009 3.878450333288295
45.08947226425059 7.753137716319639 2.0204025300202857
45.91665640550436 9.033895552626031 0.2096615408960542
80.75185337933613 59.2749733836352 15.05181756878499
82.16942768919647 57.75598200563388 15.607703200318749
84.1791313791896 56.844093737891285 14.024367540062334
84.98500984336908 57.62795401467729 11.909874100417728
84.65189907623322 77.9043530048211 14.576641066647218
84.43892218560381 76.30211760229665 16.09442721913478
81.7499650795597 73.13499158066014 18.40351506553356
83.36345386473913 72.22237091823307 17.022255006105762
82.8395109141713 72.2279202792012 14.075226402022357
80.94479126563989 72.72075316357146 13.052023997590595
82.58443742923365 60.356356679253544 33.89998710829008
82.82835179656183 61.73826527832554 35.187844389360414
84.75761587851729 61.65457136851591 36.93227092546413
69.27261302593632 76.28126959189714 30.17832014035872
67.59141171655267 76.00665227424479 31.517199948488805
67.19167230116136 73.85530617463407 33.22840209058085
68.56406892755739 72.53758726668617 34.10891984132693
78.26630940515606 78.09364865600892 20.695213978679448
80.65852777205615 79.01962588841953 21.43718578550932
82.11348307472171 76.65109507374285 21.884633552421064
81.08608816059979 74.67115162454483 22.964156824888565
84.71608401216929 41.3433060641998 78.71107882649444
74.71531375606777 54.06870911464792 80.10761560525069
82.73925673487561 65.96810253484051 34.16674435202588
83.83985382431975 64.43232448570807 34.420246765269134
78.86372117039 59.32898284246679 55.44504445187597
80.20014718619063 58.66977020524641 54.173524277511106
82.5167045003074 59.22636288479348 54.2538159397614
83.89109310113868 61.43249544635038 54.71893116632239
81.93779074332889 74.95206966648688 57.716813731611964
80.58583771219526 75.40437470568881 55.64845279943802
78.95841523429038 77.4799586609558 55.969209965533025
78.60207654075882 78.93060866331699 57.98450837713405
82.49930017842716 49.475587493233114 54.05414075394501
80.28642873925098 50.47471560265876 53.800413507674165
80.41485102313715 52.89765647678427 52.843908868139245
81.56974988000917 53.69199837430636 51.22548702474572
76.71409407062902 53.041753764923925 11.257155535632966
76.70100115231548 54.398934317221595 13.662297505567892
75.76654426067009 56.61890523393042 13.839184289175297
74.27507979968657 57.94739392888982 12.026082381319211
81.89336630055347 59.29462067724443 61.57766660995897
82.2500512320304 61.30098094194224 60.0912148129665
83.04677533349934 60.86705193566835 57.68097034432637
83.60472704293612 58.633078745575695 56.56136952261151
77.75022362300308 52.98698924880075 51.309807217196614
76.88168510923437 54.51163803809264 52.27837018984256
78.38350437361416 56.397435637076946 52.96911473501487
80.18517193440648 57.50530988337578 51.79525763647227
77.67709967930473 70.18787090627919 71.81865988211096
77.52110217861664 72.11263353768113 72.93192224286581
75.7435584699836 73.19079619779593 73.86553178351068
73.56522423725552 72.53491945663255 74.85404544985681
74.72938086987104 47.89909414431485 39.04072353124247
75.07173072557087 50.39894597168389 38.97633296001724
80.19475013293629 63.43243774286827 37.19302085848787
80.83067980101951 65.45791228915316 36.497700627394366
83.80028225333884 65.78329833190055 36.83933119266031
84.85696432301664 63.875808431019834 38.16073314254571
73.01891600450281 50.45637198099245 34.400269149400366
68.34660528032282 71.8736488040427 70.72898483149993
70.32320564949319 72.75000066292885 70.24312129673652
70.19329155372493 74.48462826972397 68.52399242703602
68.17172284823474 74.65071864462918 66.70676462264154
70.82246841039075 81.04478830846496 73.07235869167192
71.29731906967818 78.76077595281842 74.21467073579451
70.1150425119944 77.2128802714681 75.36849018390167
67.94343644594113 76.98580127023905 76.30878077446765
66.10754827179936 74.93228230865803 68.94705040593473
65.98863195009264 74.03842882580366 70.80988005958024
68.08053361958918 74.18973028334018 71.9540518021069
69.18092465117772 75.84284978740112 72.91577973437879
79.36177293741689 72.7137857155351 67.79457994754944
78.72738350203393 71.5639511041432 69.72909147199861
76.68407164681663 73.38694400054973 70.69322616627898
77.29309199371457 75.62437892926553 70.84093873324564
76.47478487404841 70.3645786838766 69.3788036666397
74.89337082889473 71.36490278076678 70.13992636496606
73.24763345295108 73.37808128068026 69.14576274710113
72.93930422792914 73.84934703668678 67.16239740166984
80.86459492533879 36.57936930866335 14.9543472783958
80.05437448546989 36.71350997515203 18.63999658054012
83.58392415506539 76.31628311045539 59.51566057379758
82.77880912852363 77.68574889572805 57.9512803023695
83.40419815157189 80.10027189588709 57.1458406710727
85.01723458406418 81.90491094114975 58.336789691998234
82.87461449959473 57.94318617513722 51.89627719869498
82.58522882440457 55.963525608677756 52.10013971050162
83.51852085204722 54.76585209419044 54.621780328743945
84.85328268469246 55.68714072663561 56.17837025091829
76.92266060207376 48.52814944871954 54.2408740163509
77.40307233560485 50.68111189618231 52.96063891813822
77.35964923410627 53.06342126111379 54.48622139048096
77.19977694018442 52.69996780317473 56.82176118166096
84.65128675417836 74.43484687383622 57.58666615139581
83.44373308530054 77.0242327408531 54.756921437331265
82.65579486687828 75.79560492069041 53.04871097243444
85.07186397598842 50.06786598097971 54.82939039466521
84.21152307980174 52.17581964476811 55.323840886894516
84.35410342503732 53.477277504750774 57.586556233543384
84.42210369781313 80.83378750873345 54.24752578735186
84.97475049205721 83.0115861989184 55.15768073845326
83.60668798357699 84.4076716783036 58.15331973910989
82.7421309712884 83.00538518632712 57.47313332453168
81.04082434296949 81.18617665287715 58.02003750961795
78.9418490424574 81.32325116274829 59.278379259051526
83.87850756728582 47.80376820370656 56.03409226768398
83.87205847865586 49.114356539194866 57.53346855024137
82.24685026781594 50.98267062946675 57.45435505340827
79.5755730929873 51.02775505866639 56.714423671015844
80.76513529417083 78.90783478951275 48.66248199826397
82.63714955230922 79.86940149668278 49.12394107508749
84.40027654991853 79.17820706999187 50.573135311060334
84.96554096338419 77.18143012936275 51.77459156586771
70.96290878434402 78.45065200760672 71.25034844551635
70.89790467221634 75.96819235799876 70.82538134960794
73.04750726210156 74.48553587614094 71.61631784216377
75.00993508766575 75.3113986121466 72.19434618628894
80.52155033601126 79.31107021647885 75.84826763216073
80.82069092727681 76.79188250687531 75.2025992095178
79.41726422600759 76.35358382254898 73.04963949107265
78.45086780231797 78.36872092448841 71.39945776919433
83.17687244299032 51.19072790221481 61.585824041240286
81.58856705186065 52.769744969460504 59.76241372701777
82.76427718214737 54.92721854632131 59.012141565712255
78.3371568608862 78.76547586152383 77.62443919143587
76.76025949729441 78.26520109637126 76.63947621616262
76.60335902317898 76.4619304193127 74.96266861775108
77.94188679130241 74.61114678486616 74.6178241280298
68.50252697633324 72.83549311858019 77.71061534648263
69.20335908320806 74.48282082264063 76.3965272244654
70.67664106337763 74.25317872777337 74.17179348713704
71.3313170941908 72.58702701249997 72.87199069210746
66.5244748527815 75.89721443175456 28.96343319582939
65.26556588801172 74.60938487644049 28.330698019318046
65.51034054272598 72.00788072831376 28.690673697987663
67.0594382679384 70.92478391102031 27.266583350768535
68.07155292321396 72.63678253147414 41.11837449782608
67.64426519919819 73.54140728232304 39.41790984097343
67.83565684521332 72.46602671803088 37.01899882760715
69.18233893152471 70.22611185917603 36.61908753259783
68.23153855486413 65.95819433114312 42.55760158920654
69.31538104773817 67.79457891035328 42.601741682249774
69.19244124259762 69.06471466622894 40.46106922540773
68.42972637472492 68.28199705372027 37.95471339184377
62.36627612126177 77.63749516931036 31.607335080836087
64.7052375194081 76.74684633461914 30.651804310645776
64.86844911166703 73.96693511578957 31.388321973193253
63.00361312891681 72.82795433764974 32.63788926117957
74.33542628918698 56.95497679793295 16.71922991615297
74.76504003086862 54.62770106724548 16.13688668389442
77.18577337971897 53.773970964525006 16.631146969574008
78.81971952030776 54.68373181028658 18.406985899439682
81.50783289338447 52.660416574683126 11.491578984165871
79.34473799404033 53.58504723821195 11.530421559092396
79.02915012259797 55.727217009432145 13.054011608119545
79.89132896142776 56.61039316478288 14.94485280361265
77.71193936012718 61.55143857732493 14.907182572562062
75.67031879017627 59.6989052223969 16.02957501677001
77.04579988083024 57.79913594996432 16.35395665489076
79.22253597433732 57.29374161146093 17.567648737260548
80.50406508341668 57.36606200173059 9.711177489779008
80.41930068469635 57.8569363331986 11.727726418941936
78.61289500815164 58.65868038668997 13.553069056933234
76.38110483814494 59.297185011070034 13.371811116558343
67.23396780757663 69.59821056318874 42.63830542998173
66.44964373841631 70.08691570133786 40.839165872296796
65.08519198356247 68.51383309425478 39.1128206580346
64.11713064366567 66.58075058957645 39.531964210985
82.91312762682747 34.11432074123664 16.115334152450462
83.92341786817661 31.75671988315781 15.29179104586795
63.22149013628879 84.73299664867302 58.30040386464621
65.28489213889341 80.34189761774509 58.52508879992362
65.29990194780386 80.22033855659804 56.41291120615373
63.353860274554364 81.73392909473444 54.809609292536
61.388302296809044 82.80525361411574 55.85577515302017
83.72947785208589 55.65057903582227 6.482355328949118
83.7315409953733 57.30135826737017 8.019637516042518
83.03974963866703 56.21520405781066 10.468690267228562
83.7164243488324 54.55609278356441 11.432738703919174
84.67282370318532 67.65602870181546 39.49086918678332
83.39152509252382 68.49222000249996 37.69336010956761
85.00040159969654 68.4156269047472 35.37790534092807
63.72862297972787 68.44443440421405 31.15017316765271
63.30628209809074 70.73131278986845 30.860401956842853
68.05210892702634 76.56602304138252 38.282968907145175
66.25707388308247 75.21889911520336 37.488447535994275
65.3358221071845 75.09648267000944 34.82997663882225
65.92138925493985 76.98860380599452 33.206138243722016
65.92892831630039 69.73613743675801 30.764218582761156
66.33390967072849 71.55738093640355 31.78939368031962
65.92794875059937 71.6098669501914 34.74746412704745
65.588187671012 70.23442481779031 36.119724327291756
61.760377475276556 69.65082151645579 35.24713403204007
64.21862693495042 67.23181016008199 28.36580132612622
62.15745641779852 68.45771658576625 28.27426173133237
62.22729868940086 71.06677294756393 27.67811927544114
64.32668649487213 72.10008872143825 26.39462535768208
63.02262161395166 74.00169474543051 35.18210710100084
62.97571905690225 71.68466289113783 35.968659541553414
64.81201993929363 71.39152112720777 38.500118089217594
64.82026172015604 72.3449334759906 40.3196060657377
82.12772796393496 83.53375971076817 54.85521198150286
80.39734143261998 82.09661592370786 55.50065629406578
80.09784925917997 79.47417766158198 54.580912100529595
81.38644356248159 78.35869165990407 53.05224641767857
83.79541749977001 34.930317073271 35.457096397142095
82.04988722116863 57.3483029070331 18.439574737190423
84.05738447426062 57.65941217005141 17.780969583630906
84.50380812394287 74.51937728829647 18.000381048628835
83.43731184445262 76.15914495690512 19.623892568612845
84.18844654615732 77.67008003545192 18.302395132322825
76.32877095324527 52.599560445561096 8.590335094045562
77.19576490207307 54.78040748491716 8.488389738432945
79.4931756643385 54.90641178107956 9.03847038397893
81.49269510054826 53.2303543323648 8.761881166501018
83.82881445220711 83.50431684070108 19.654240442668424
81.57478810252516 82.50182264247167 20.61756879316282
69.10120930258554 56.82489462043348 12.4764778237448
70.06591209385562 55.084627115378396 14.003763337410012
72.43861756150292 55.94470269289398 14.70753654920617
73.24889425334003 58.547716238189814 14.357033416274625
81.08224408778901 57.101500981653864 59.1924044838294
80.74666062947 57.915906936701425 56.764192941766154
80.73761191085448 55.79699137265317 54.94616450353046
79.66287886710418 53.9414303535254 55.18150821911215
69.7843967387014 76.27253549353581 78.34805181103212
71.10082480767531 78.17851008746955 77.86320555118029
73.52874992288899 77.51686382612043 76.47941727053345
74.37628877095378 75.26994716449585 76.19770544455993
76.77633223541012 77.86370478169236 54.37717278538191
77.82689101857943 78.01507671776125 52.630304571977035
80.2696419463059 76.3187923988718 52.11192629302173
80.55543817625053 74.19234580969966 53.09016369871325
77.6470246381656 83.18035744173906 57.14765342455052
77.984615081645 81.27515153673941 56.53872247551634
77.74845409983448 80.30635836002949 54.2563114199354
76.13487874306273 81.30536427117593 52.08685689272413
61.56856543476986 82.12712297318764 52.837553814850956
60.432623808485175 83.68795811500854 50.98526855605438
57.533067717959725 84.8629349245578 54.4204339038311
62.114198905224 84.67164549790955 53.36981901539949
64.33989166496514 84.3537561962987 54.74397711657762
65.88096266553192 84.66487024682007 58.71529765426416
66.8481177719989 82.17556280588946 59.68874323151167
67.96643148121834 81.05550942501009 57.44489560573698
78.09312625150433 80.22908631395828 75.22569418758567
76.85149929730834 79.67888651948512 73.39595281495568
73.94259711084727 79.47580002474473 73.98646470702647
73.10554699461056 80.29037886639232 75.70839506498827
18.432126912115532 83.61282283693377 54.38587128945639
16.36223486995025 82.68656882012809 53.46666323789739
11.880200903235483 84.03041804757225 57.54282505145559
10.610223450516461 81.757344463102 57.430573506434314
10.423447599430895 81.274594782803 55.40980738394254
14.54604424583211 81.18802096990416 54.93521845801916
13.795244797686232 81.21028075452878 57.733068568405386
13.210371550111672 79.19715054418565 59.02287615516743
13.842856401892787 83.84809608169901 53.76122887357272
13.848458040609508 83.96719288432979 55.87947883678125
38.90501002911142 72.86842324347515 18.832545139293334
36.823704684784865 73.54392536290878 19.787105262453437
36.00810237868224 75.93035749430899 19.20929265059145
37.703495175300986 77.76324373030825 17.953795259016385
33.45906563730909 48.02348649952285 19.72758325004393
31.44232821047796 47.51960889644506 20.320284071657447
29.702120834262615 46.49529509456868 18.13876338674763
30.108115798650175 47.07486410047353 15.849293866483336
34.22353616614084 66.51982736918366 19.016469537720102
32.94310759948658 67.44200716663022 17.498249352212497
33.463800565061355 66.9199655560184 14.838672521524133
35.130829500679816 65.15813277186795 14.447090231005012
22.27455804965867 64.87168060856601 0.145944416917368
22.925888751290174 65.27468142877746 2.4835547595026126
37.50626688224651 70.79488302087397 17.4462392959623
35.417900177364665 70.26738523844952 17.200095723585463
33.735401603091226 69.58287066478711 19.08170567035981
34.507507211874916 69.96152750015786 21.438751475699654
0.9277953916637016 53.22125037075514 24.117716696293886
3.0330502133515815 53.85986449916155 25.014646402497913
4.224721003800253 53.624367934547664 26.96481633075015
31.764207823771773 76.53691116282455 18.714349945673522
30.939809020393366 74.82402510956607 20.024509817582942
32.25993046339924 73.14789927902503 21.058731418295615
34.883977029640924 72.91644401395544 21.55076225065662
28.698461892477685 48.00954010531094 21.72599009243354
1.1252405426719205 53.769987185903474 21.741913991586387
2.9018050918764193 54.69210779911528 20.929765798210667
3.6261654970860167 57.060675459162624 22.179104944655265
2.4059020386570147 58.739146338086606 22.89869814819099
13.705876748338847 76.23105440140358 13.232896238226317
14.155115421306279 78.05598196209678 14.433427953424717
12.824519780428675 80.09853452485892 14.129820707354714
11.131004281144142 80.71710820305965 12.329829157950384
5.884936503130919 60.34325003768028 29.97984572098209
6.289985229395201 61.37455967279308 27.932117829494082
7.742405410178205 60.47824788663103 26.106346989128383
9.220046737355016 58.22651122023504 26.30706355697604
10.34793774071265 78.11317163207288 19.226371718032446
11.014844422034967 80.4810334757612 19.444527144172614
13.343433888448812 81.13943683124016 18.247231831902777
14.907414176298298 79.07145586858327 17.12288734678724
11.437740430221279 56.087220733117135 21.309892209876125
9.57277998342355 56.48050118789302 20.114329552434302
7.507784404727219 55.67782785547778 21.435179078560374
7.094006982844893 55.392328922728694 24.023819858675644
19.715823587601424 82.25200292058952 15.568089405526312
17.951129936872928 80.95147563518756 15.815586554809304
15.94801110006825 80.93947794959857 14.515356973343666
15.373346665240817 81.6897697358058 12.227344910299959
15.554201126403353 81.77591260754117 19.808090187712168
15.778200047275943 81.76506551057531 17.904408861598696
17.053664907212305 83.68609509001078 16.276513025005393
2.735389701292013 58.81416007620993 25.561726831271923
3.9117842475701763 56.68147154580765 25.58720454300799
5.61697282873583 55.83832384994826 27.635629112610193
5.8613472778341285 56.43530740469992 29.55754378401063
20.611502516252916 66.6368913560585 32.30269997782088
20.96119667481165 64.918232563565 34.07223825295633
19.112290866357725 63.12732070812572 34.93943567783119
17.05867118293555 62.32252445131282 33.72107371921554
38.71124826856568 60.16441402578625 2.208671673993579
18.94207813826376 34.62399568565817 2.5207679756309336
18.68815429010856 36.46420105438866 1.894992200350187
20.45502353360241 37.3257396867416 0.7812419606830844
23.27485808956907 37.392000618924456 1.7344857511753655
20.775899722632545 82.86161997994589 53.626012069594616
16.208177360071563 82.37273162990108 51.084774068506896
31.67444680459276 76.69437318266618 15.438325202141925
32.271588596494915 74.65919796313042 15.883218311602956
31.825574120459855 72.28774244492233 14.745238108438507
29.546634793949252 71.46242569557755 13.765840226289502
33.38242069874251 47.2459173060387 8.282304848697146
32.862043050909335 45.17108965277685 9.374204769142331
33.38147825678836 45.17126626986401 11.652768323367898
34.867533598087704 46.59738694520275 13.09370494010676
18.622645286410517 56.890009741549996 4.403442053058702
20.229145049749 56.276923986155346 2.7718005005895185
20.82154835101465 58.61257697010836 1.1570308901153858
19.439869884545928 60.15431198417316 0.13866576743545722
29.26640732958347 40.716036394933674 0.24925068450309734
26.578605093402512 41.21230706888235 0.41113012630906337
24.943546718177217 39.89217493116232 0.6907526072427619
22.051733346733926 61.385594578834336 0.6397347528504641
25.196894937038756 62.357133377595225 3.6180122670049832
22.821813455064664 62.62730394047813 3.322355587175541
21.19134072993964 60.595139165597104 3.6474674136952214
21.7302097911634 58.419743841295244 5.229434280863604
13.054184767666017 35.31704813744236 19.26193988543516
34.45275138969543 46.942393148244804 16.960584509814066
16.67414970055433 63.091674827232914 36.47864199614234
18.237985151555236 62.79721746112807 38.09050674389305
19.669151573339946 60.61749111291749 37.741062349364604
19.122966168981012 58.91755637298243 36.25966076977682
15.018288410116265 84.02981295665963 14.620369422079834
13.540815345370694 82.33874661185959 15.76127811856076
7.8369140542566385 75.7839235710999 13.611146799830916
7.531264274979646 77.09003318049115 15.52087644717625
9.862073228705977 77.82042835471104 16.811692625520347
11.967052470253845 77.0053327605112 16.562375209647062
1.9633778659454852 82.93446670559791 34.82049145578024
21.874464290176167 61.18432372090712 31.63428906900608
20.48780220508863 60.94867630314754 33.46352061783189
21.663526024942175 62.12083250385084 35.90164455670392
5.449315829755884 78.10562195116651 39.8765239768965
3.0572464512525848 77.47747927958264 40.56545386790802
1.223254980192516 78.67318034471899 38.97351917621839
1.5368700181463526 80.08654509961943 36.802246565129636
6.731021812239195 80.21882182558507 34.43078344091663
5.0657449535573065 80.14746402461265 35.55854816287438
2.7262361043978167 78.43677845582107 34.92117964007256
1.7336854437124039 78.93265304360878 33.34417474463149
0.16847879843929828 73.68473204521646 39.79032076288521
2.575613319679011 73.74732273765736 39.726364523459615
2.215065094168346 75.53329636645046 38.31808758827828
1.9061198949294746 75.8206793008554 35.674621151119055
1.6174174258589509 82.38396772951826 32.33250773811138
0.8685896349984775 80.53687310917923 41.56763829970322
54.58022448986019 64.66492483037761 18.977382284328364
54.596081708543856 63.15359021046732 17.285932519240543
52.90687041770436 63.17683855754029 15.173906893265658
50.97660190249881 64.48640414528916 14.864828360253558
55.58604297540495 56.93645285623549 13.911242634119894
56.76561000377707 56.527935728068 12.05526424631265
16.808830732172567 84.87348164500087 12.501650224710373
18.628082425878024 84.78176877513525 14.099552015794599
55.481484090843274 59.673953589723055 14.562492283636942
55.88145808561728 61.36737510118409 12.91576741448896
54.78954133750297 66.66604747536388 11.091157430036734
54.90874580664317 65.23591154978934 12.76558796650062
53.66717797791307 62.92538017052247 12.622050127873912
51.539046931973786 62.30571275451405 11.433662648495424
35.32477093263784 70.77728297011589 9.710417576663486
32.94145737295485 70.60966185459749 10.663421841570829
33.03297010970018 70.36382332644858 13.421040132414328
34.67286547274045 69.34340332921347 14.793487014196167
29.411376749725594 67.8049082886849 17.460702727619527
30.713407847853247 69.15518269365762 16.34746299396066
31.737260419807352 71.28280050769926 17.090534140579873
30.973956580415553 73.2137911803271 17.97754243155188
29.851189225878603 72.38630060218009 21.63815557151774
29.16830542499403 70.39673190757543 20.904989800594837
30.76138433915798 68.53952049382222 20.7567923607838
32.80843193423791 67.8874171743764 22.014370008491262
31.31245220519663 64.90655282801879 13.746950130244453
30.745747322851948 66.68844291153471 14.794958577559903
30.67515933612349 69.02754708376872 13.77038700613561
30.389224950249496 69.91653937528531 11.409358935197831
45.96433824898379 79.4766084005023 30.672630993411374
46.70130251694317 79.81186991071327 32.8263985394121
48.60846349535831 81.59834598793276 34.03862426899588
49.98924289100898 83.12967578147126 32.86317047823091
0.9270918116474828 30.917507553973543 0.017463760711798317
0.3770983236906937 28.78360682302218 0.6895951479943992
8.721606246063276 58.028155094786044 18.062179413048494
7.351074532112601 58.39185258860425 19.504576131130914
5.358123805641242 56.75806387511031 20.15053836797661
4.298931122397298 55.21053132612954 18.667824601336967
41.72021376183354 60.22110551979454 0.9387243501845844
51.75243703597541 48.07028918131339 0.7155170208874713
51.41345073743447 51.8346158926579 0.9967987482869509
56.34368273680431 66.83416029769448 18.26749150868497
55.41515600379757 66.62156960302815 16.633755938788283
56.21217750394548 64.7437946996996 15.36628709614494
58.29667449956482 63.88605357882589 15.140568656552276
43.86674475210951 78.92809554035195 33.43455544009323
43.04990908065794 80.60878803714513 34.00194995765113
43.91291910448159 82.52969017201002 35.59534997217156
44.78425462328489 82.32191813955035 37.69190516094256
2.545076817797341 54.08627590309737 0.9934488219998237
2.4992984583963733 53.31634435398319 3.8202555957137583
4.026650182573859 52.58691562215593 5.168790691532861
42.34719539662461 84.05351013370125 29.616144955362724
43.82550701315947 82.01532180578188 29.89690376769644
44.84997704200078 81.94377748824456 32.45263552876265
45.51819755188777 83.46669222700784 33.65111754864791
22.036508035101605 85.04080442243524 40.52522494446299
21.347364241335953 85.00261563327153 38.233051918383026
13.338066511268865 55.05462197479769 18.23868603351504
10.971376501810933 56.064122963506556 17.619152083287844
9.25038043220271 54.430661984553154 18.66825922157626
9.177194657072127 51.89476173192476 18.91180360551752
8.385992367763825 55.79450792463631 27.803725974057702
9.197034084918977 54.42923974507579 25.927018357423428
7.4237679324954415 52.39244361114237 25.481462801669377
5.874381249822312 51.120844209477355 26.82255445970311
9.918522252003942 30.450317424278868 13.614471778028559
9.407060044669723 31.935109152815357 15.413735922398846
10.393278010842318 32.46022377136998 17.60646237241942
11.66452976748622 30.731916391874503 19.178750801910557
3.7861013520128903 48.84226744400993 0.10298593614138073
3.1156404615335083 50.743813346220776 0.42170532498593655
1.1191047263845966 51.8030507689774 1.483842007385183
0.3501700108014422 51.58302085926755 3.450857190543994
9.614383510749306 37.21032107452341 18.976519618680207
9.149982678761901 36.49295196723342 21.269098593561722
8.734241030699014 33.65748520092312 21.239393039458015
8.020344813353363 32.46447321684609 19.26159253447931
50.44241265647335 83.69106786970508 16.551117373829854
46.03023174668511 84.13785034640192 40.27242789180119
18.26769822915664 42.30491807302295 3.662852912257122
19.244024421491968 41.570248620170275 1.8281469462707616
21.527895614298508 40.11959151032926 1.869488523813976
23.243202765833388 40.23326591499576 3.0926724287237812
14.976061670083764 37.99856859997908 1.8971425536724071
17.370529780765235 39.25771557314773 2.122947463206711
8.420050422618132 49.777765548820234 25.177978879473084
7.8766319813305135 49.854034525962106 23.062908989116192
8.970101785859688 52.01115232536417 21.59503244783224
10.809090911766592 53.506573143354856 22.637099883635184
0.5434308577575457 34.49949943514408 1.4035237346476488
2.604060793466255 33.33035140060138 2.0018259777251934
51.202526089839814 80.6659986620633 7.617473172320741
6.612027995692452 28.920511308031713 5.723654974031222
4.9380090808728925 30.099524548443956 6.365748574732303
2.545966504805223 30.78284609652711 4.946387343305343
1.5857287111869545 29.75228728677567 3.021755476465137
3.7196283532714065 49.18354375060658 8.21526718832497
2.73066594644826 49.884028768644235 6.289409043882218
0.8028777683984529 51.85792245874776 5.96002363248276
2.6042822544329054 51.768186212213074 22.476664848001946
4.603526317276599 52.19653752643222 23.282313616887407
6.475408308356134 53.28926127244717 21.713718966548967
6.804238127170238 53.29982836405561 19.40545327907983
8.426701294733915 78.43399819829396 38.59342304611288
6.827940583811203 78.90472782689747 37.43482083833255
4.937399982141673 77.29421432916189 36.38771861344347
5.493257916072898 74.50551774957509 36.36880044657238
4.845893703284686 72.61443358107833 40.34391720980565
5.340071009114864 74.5541347836335 39.16727938957502
7.3433129015111405 76.0165584901094 40.05228771409913
8.965188096530348 75.58380043207663 41.47620243959111
4.8122283756540405 73.66525253810843 42.9219516783947
3.900095982264389 75.00904104594373 41.98886731713474
1.2717149053086967 76.3142660752729 42.23059353627424
14.059948712106538 15.237283720890124 0.8709012008162823
2.539596928649943 61.86495718894766 24.19060637615136
4.183085380553639 61.10987279138375 25.550407221822674
5.781620424778005 59.14143789051388 24.715393397163098
6.1124781780629105 58.7554039574743 22.023642842960953
5.92461803019987 72.06833305933108 0.03698545108359357
4.003949528039806 72.63355704443464 1.1863117386616424
2.9743073066996466 75.01328977617474 1.146122458971718
4.3487025549974625 77.2966441394607 0.5387420912975934
7.613370131001138 77.25620396355492 18.755841396157255
6.071277975228787 79.62967552526752 18.47978805109602
7.3678622041410895 81.62398942286784 19.61627653991684
9.155251780578935 81.7066426396751 21.221798177880142
20.932685377350197 80.6705018680475 1.855631756440824
19.085593050357613 61.911067224529354 2.194998623632679
18.708590841237726 63.74380470341804 0.7798686162207368
19.843905725982637 66.11735438633697 1.446440560059949
20.790847700677784 66.63566404239613 3.851121854342334
0.3063692094750851 56.77676449507363 47.24182009895958
2.4025728051650885 76.38691155932987 8.43378145854544
0.8872962603128309 78.01362948063809 7.428530553584832
0.5414487295848566 77.35249605908697 4.792531504198618
1.7493351825452166 75.1927764158331 3.7890304675149893
8.202592850170646 79.23494480585538 13.661233549088678
9.894539343927491 79.923676829521 15.012157071940827
9.732545935111004 80.87502295793124 17.12951241761837
8.92712757808885 83.31918463547295 17.963153079836513
38.63591848752401 73.13521463590173 16.136970802922868
36.48316216129754 73.17861091964798 16.859097526595935
34.74537062185159 74.56041559617111 16.788741040310455
34.407156784489715 77.03702713327355 15.200631021239799
21.866210036126784 83.64826156587603 1.1654757289389246
23.07856914667433 82.76809907228797 2.6545219841197873
40.503350751910155 57.327649684381925 0.19033556549829317
25.95283126212152 81.104531115432 3.088085410056525
25.75805784445195 81.72560036362835 0.9182410336212896
22.214369223997007 78.63272754032678 0.5617429172408028
2.239669263907187 78.08914783640458 2.0887994347930876
1.3684575718101328 55.338588672202114 5.843705764054194
41.18980118936507 83.12205254417654 35.002055960155886
40.21295867235014 83.41140841409138 33.06268166707529
24.68727098177991 48.01867885284643 16.54538935098581
26.645806424374523 49.13186377613799 15.857546862778257
28.191886505857717 47.76211981508029 13.913079519448019
27.09495815956674 45.29095282927767 13.07921144493939
34.37716081804016 45.15530917195002 15.171037381093146
31.930581526526737 45.40731878380937 14.72870184245159
30.268508077285542 43.571274511626264 14.181006725798673
22.946890305097927 68.53495896507751 37.670793134249784
22.792021676253682 66.39670103270421 37.882247802148704
