13.12565981748365 7.2184765929618715 47.428866568878426
13.399590956895727 5.127914447167251 47.883617210358324
12.145146403317522 3.3216687805467564 49.21553678534581
9.920138609084182 3.5467375079964025 50.91872627165239
1.3351670562863518 32.36381198351188 54.76640496365123
3.40178328421971 33.01091405802069 54.889973159997524
4.273980130829872 33.69252006774694 57.52087142577822
2.6000423503101837 34.065991285429256 59.366854727107985
6.958956929071458 27.586932643548547 53.464242305052515
6.975334681615982 30.10719916476504 53.75303324783525
5.0653499858276065 30.989179045033595 55.923382938592894
2.9791541615907935 30.28099602220319 56.19657621311992
6.102769560393024 25.429656599707947 56.243850212128706
6.08937966976606 27.292592640886227 56.93026130742908
8.495151697376036 28.322759500195207 57.958944775644554
10.388710357448296 27.14182041058575 58.778677194455675
41.296712838529096 4.409696222734363 76.38402503680226
41.85883741443294 6.190067278140236 77.24627544062406
44.8021039092201 3.9073756347681465 79.78986507482628
39.06566909139734 10.011414151575273 76.98181494617077
23.702487385541694 2.889201737474474 79.94813646609556
23.243957700961435 2.698098956548323 82.39943386864533
25.651844810292733 1.6553168924476953 83.48148261866913
27.750366385207304 1.6975496099063838 82.59007826052547
12.32413938783789 12.475707423911738 74.10058624259592
11.527168862476904 11.964566977118116 75.91070380474534
10.37849168103062 9.295830711970725 76.22892414766342
10.620719792304167 7.5399040511636555 74.43825668001
0.05262786477684068 6.76725095326436 21.893402974552274
23.251450202924822 2.458419759026683 84.92928685453175
4.733986659245492 9.430532796640342 25.083079115058542
3.125345267324309 8.334126115746058 26.457255405212067
0.9607336990077956 9.847370726040408 27.625846503117906
0.5105073711148868 11.892769247470381 27.547557023556237
27.7138743103377 4.292623343490873 84.62829246017412
22.12807994602596 26.659464220635225 84.68007947846316
24.766471136600813 27.934959601214224 84.0573360222136
22.86535362247069 20.89462641366977 77.59663316264142
22.24892150013062 23.22994774002895 77.61444022101178
21.642701520449293 24.96081597182664 79.67548916203606
20.954352416976896 24.28368469470527 81.95827995870901
18.56731621321215 28.57262287706052 78.76447395353745
18.831084821708142 27.2074183458108 80.58614427529373
21.247998684848795 27.169926468644825 82.20125264863638
23.114606062430514 28.255768353677908 81.74750712920266
31.1842362010143 25.945796303728756 84.42117913439208
30.382862880299243 23.762738132981024 83.2405459826714
28.84983493116316 24.159089995163487 81.17581202551989
28.853000860868843 26.08959461506475 79.71719365620825
43.09955210569261 1.3991126226576802 75.66133718537452
2.780201014178437 8.683250495852219 22.5120929335538
3.0588500811207555 10.951978371620141 23.25097333504512
0.9412160419596936 12.559725280388841 22.765540554203685
25.582032333240754 25.731638533348438 75.29150157708682
23.480668648412447 26.149539140179087 75.99397723409909
23.148080126263363 26.899399720544324 78.57514513030635
25.051158959814806 27.455635578073586 80.20668965513684
46.348160901655724 83.9640260108841 64.11731245770495
47.06065172224924 82.2402624045886 65.07455470078058
46.81100894498191 81.54722827830186 67.60677091670347
45.93808635007775 82.81454951595738 69.45882016110933
43.09043424335356 76.938246972571 65.07977842012129
44.623741758097744 77.86222701940866 65.89154822845029
44.67952492989912 79.99272266687426 67.12989427886997
43.47594827908501 82.33264744429037 66.69747552520633
25.863481656432914 67.9005608829133 84.71700614185409
25.86199050900086 65.99041833784024 83.09398377268596
83.71832606096947 82.73748631609543 82.53075551219587
84.87227670920376 82.35028599787438 80.88639631555792
33.92775631564006 70.91524681102325 56.13364400161512
31.080592422789678 69.644985191561 60.33946658164489
41.78630828969878 83.96244260070573 73.8960784222318
43.25478344277908 82.51835044495235 73.42996153644431
42.79632388179014 80.40632502462887 75.01843874805951
41.993942550032465 80.23521354812202 77.23996428603486
20.061865669970352 70.91541200202566 82.08915065179454
22.00299941233323 71.441079024425 83.75524103662178
51.618791119742625 73.87269970478707 67.1294948207197
49.47211110017444 73.61150712727552 68.47821643450924
47.262201365587764 74.16757357348746 67.26490925653684
47.15571224158809 74.86099003901897 64.72709168022591
26.64789638116128 69.85668221027107 72.90717500544785
26.02673988561148 69.738887545306 75.11442896782341
26.32103107797886 71.76463619543078 76.68907861515976
28.330586786972002 73.31569355974929 76.64507913955775
27.893326030944927 68.94111453899534 83.411182587766
26.883214130391874 67.8335818239077 81.518607930244
26.814085920767752 69.36099911890845 79.17920132817203
28.010598876564103 71.7777107865474 78.9820395228486
28.467346588976138 83.53286350979752 71.60482280195406
43.27201609458946 70.12366964006276 63.41183400428882
43.53265619114983 70.03073890818231 65.51279320997352
44.89757705418526 72.31759693727177 66.51118206521024
44.59513162639573 74.55310572103609 65.4377435446764
28.562214265179307 68.62717640846901 59.531985103584546
72.28589568475574 82.94509101145192 59.20517419134271
72.7542875094272 82.25242128694124 61.3755786775983
70.11195310756592 75.76311055886755 57.9103186843725
68.88353500860454 77.62964571354802 57.649993153992774
69.7323510937949 80.10169773182604 56.698079814984624
71.56803007862077 81.04262363893945 56.384013972762865
76.6608060472609 67.82486857900442 70.26952064444816
74.59504608108315 67.36001046789679 70.71340088176392
72.97727321941615 68.99586682619908 72.43111849666147
73.24841985907972 69.86710841872546 74.25999375438278
62.16274244331942 83.54117463949618 53.475312281820116
61.73628277275052 83.34065100123524 55.55929598206465
63.2213749856643 84.60437268798475 57.51869305755873
67.0211984980599 76.39621826967314 69.89321969960928
68.74012395405744 74.65839008922447 70.71830537410861
68.51619058213137 72.48471392125865 69.27723734533967
66.78040070811566 72.00527238959113 67.33782784993906
43.4131006091999 77.63166455062199 77.16738617239038
44.34062330643651 76.49492048612473 75.5641702879087
43.19599196758639 75.89916574895649 73.08612530181642
40.95538534118592 76.10222330221247 72.44655849381114
69.98876972234545 80.79118829553788 62.33830442548534
69.06854532270806 81.77753445234951 60.7882666391987
67.97455601560702 80.70602280709964 58.69187168287052
66.40628693036437 78.21847434755225 58.8832603365748
63.29736436226262 68.49016626356827 66.03892417271372
67.4929488944256 71.46182495873217 64.0880073788872
42.57517785198934 74.10919065108033 69.27247909348586
41.721148849442244 73.54541131443776 67.13516164965168
40.74413235940511 75.99427625075931 66.15469424291494
40.602549256588965 78.09786444177739 67.8858205143879
50.18456579058336 79.89683710338494 64.18513041445287
48.145719538907194 79.17781705802037 65.03742988096832
48.03734850032364 78.18756388491076 67.6512357657232
49.91115692135406 76.99567986207572 68.85305845051774
40.734970456373404 79.39738150092582 73.1644837924235
41.096853548982644 78.34189825745028 70.99869211547953
42.53645769026665 79.64402676362965 69.21429609328366
43.67261645386512 81.70132247525227 69.52077802900861
48.00243560275231 77.61123478504723 71.95258705988378
45.70244136591745 77.79011498952046 72.03101984518085
43.76074692325174 77.2556147516037 70.23742010059586
43.85066208871578 76.79615585860252 68.31981299091524
50.933817735436385 78.81746328121851 75.79495690873078
49.45184688942284 79.85386825694128 74.27786967176384
46.704699351064285 79.26796725417502 74.46657241599907
45.284219423934545 79.44782851417017 76.18854121852594
48.234130101650386 80.92497727825095 40.851739496605255
47.3236369953187 82.58904983064281 42.38227359276041
20.258496418154486 68.15090902452707 75.69261216074484
21.120397748450426 69.0188210310092 77.3041482288188
20.496845036059714 69.00810834710818 80.12650901737626
20.782953491612737 65.27338210014396 75.82997444686575
22.1050616304747 65.76978595620697 73.82546379234493
23.965846580237688 67.49645043978425 74.80304471171608
25.124114741297216 67.59300963300389 76.79191018534456
23.848410414366427 73.31660456179613 82.70364379019485
24.73857419133252 72.00325708162686 81.06497435486388
23.376049458248083 71.1398612025383 78.98031034102638
21.21987068803864 71.9598916000135 77.95892997270113
20.33537325652694 67.51382141978617 83.20457367041232
22.004399001594397 68.61481072460288 84.08321020382756
24.26895868015775 69.10765483619586 82.654335413768
24.183186420456096 68.82320922963301 80.17488989701306
70.75601996194496 80.71285560828402 51.41579511703112
70.62894606689268 81.1232677209471 53.77627760271894
70.6980780624744 83.75889792504883 54.40939872888202
22.088083015869163 74.15838796360565 75.84739859275834
23.893312637659154 72.95704877732125 76.49082913661312
23.40539555800566 70.54173711006727 75.93129723329585
22.25605594749161 69.26559297647958 74.53062483871679
63.83600397146993 77.28537147811205 55.74806531189505
63.614843695642335 79.3177958360378 55.29304045500672
63.61108511709748 81.37684933891956 56.70265081071821
63.15056000115756 81.94138748495232 58.7815003236574
68.09837298159235 84.63761976683666 59.8825943364688
66.73825883772015 82.90360348763598 59.068386247939834
72.880890631219 83.3156236729852 56.425303021461126
69.05262080781374 76.51626495112129 52.485778737471065
67.8392559561624 77.3889828221828 54.99077304428921
66.14836765329315 76.06422285062862 56.12259015219179
26.27582968364108 70.7328941265696 84.53996479252612
26.798715212965153 72.4393300554478 82.86557035215283
12.3353778746208 81.67213905707081 65.30867217397476
11.003301919062839 81.5743192614172 63.91776325008802
11.431936437178953 82.63371422352684 61.31534600398489
12.900752489467834 84.46161542734744 60.89054405930825
26.869464257470526 83.53386279692674 40.55263794659492
28.050942670262167 82.89451252796997 42.348869314902686
29.18206568635509 84.12609009117094 44.23225325345669
32.922218461166565 68.75304293455964 61.905379887985944
11.983053848228066 79.13127949877887 53.30924962282253
12.034641892147514 80.8568513923969 54.92884049718903
9.589387397004499 80.94724739628138 56.52501763582945
7.431620672183421 79.56655883234103 56.04024761308629
32.137201396953365 84.35296861373446 50.73877258679482
34.16959323675704 83.32204380345576 51.11362914760294
11.092825422554215 74.40536557734664 51.436043972258226
9.532695268066863 75.82753168940994 52.31362443715605
10.402977145356308 77.17281070007377 54.554251985954124
12.563651331822179 76.7538191627827 55.5694809622812
10.896714797199953 80.32155360460659 69.11738821345065
11.775974170236106 79.69253298764254 67.6530309544198
10.461119381810699 79.25927875646812 65.12575798399429
8.392388742478547 78.89362291470128 64.61791767387086
15.618879872640498 84.27941131286764 59.955988187183316
15.259325928379003 82.42182610399142 60.805288147718485
16.116205439062032 80.29572357402658 60.38623096521547
17.66934212906927 79.93895325782464 58.307841673860196
31.31003212842179 81.7494369270602 47.26215103184575
31.14830271985277 83.98677674839176 46.32520291669168
50.0025836097287 79.40644692329663 70.99577746754433
48.297155357076036 79.3451136206889 70.10189735099902
46.00080165564494 80.72209837577127 70.82451801194271
45.95250026690684 81.97873625026025 73.07933192830232
55.62219174077181 81.4361666269735 41.524880673026956
53.138771769720044 78.82451487918834 45.020766630449366
45.56095032779317 79.56050412173188 42.714798613084255
47.98977540567492 79.14874296489776 43.09104629002767
26.05237537862233 83.25404872025307 44.302321669766826
26.98791589627412 83.8646067260377 46.039334054145215
28.531599045853806 82.68938495502829 47.62277399619863
29.40578461662777 80.09739462121712 47.66833364363131
51.57425540452727 76.314395894727 50.00712218397183
49.68668615496088 79.28482479980983 45.523384161006085
32.87219245108389 79.34880139724777 49.429663611270534
32.33877002434548 81.48653229795771 50.015872741098214
30.26036244540629 82.62937208595648 50.72056063028854
29.910096756236086 82.46443488024103 52.82348103132259
29.734478849416686 84.74889990763585 28.98362069731662
67.80202471149752 79.76900262449705 52.657809529449956
66.19627612154184 79.7093598970781 54.533016476620126
66.33799301162874 81.61178909919566 56.310092976835534
66.9563126856775 84.01364651599164 56.20578737664516
14.979873135172339 84.37220590919331 57.39779606994461
13.598829553439359 82.42812660725849 58.10798357480543
11.41259939715132 81.95283160210107 58.43744561680652
9.405001750734465 83.1481234313979 58.152058702205046
8.990820057592218 76.44429205006367 63.93036410004258
7.927031942489027 76.37449640475891 62.2425220255527
8.010718398426901 75.4029475432635 59.86415515152197
9.62150994036808 73.78261444983875 58.84988766441376
14.210499181936264 77.90857666495195 53.832630699392325
14.995413752173608 78.30402856715119 56.17712790171178
15.64626831084213 81.00672832136736 56.847594510737245
16.61269551256968 82.5742122083424 55.820570076135354
12.372799780559356 75.63339789096942 61.43116739774686
11.534812787044448 75.90203651818962 59.315523965027815
11.47131550225849 77.91593785635001 57.712521631333736
12.63249575482619 79.83409316642309 57.53326244925124
8.599584343268745 82.64069573063638 61.091009032920724
8.719200636182723 80.80023778039856 62.41981829195604
9.620848217534066 78.5640646723301 61.19239281562379
8.993414128943675 77.73404983766893 59.104641949438225
49.621688469884454 81.91577778512568 43.897716575275126
51.065168438703516 80.32878962289205 43.361518127369926
52.05456678509523 81.66751498353355 38.97432375650045
4.354130343437383 77.7707600811921 57.347388104309566
5.167188101017343 77.68861955611476 55.12980394916098
7.750636504782349 76.6183961178832 55.04587635629767
8.615638992453317 75.33550488597135 56.56130910252538
59.360234996585916 62.578753996842195 84.67112201006174
15.012048125284938 81.1331066581142 64.65683416280088
15.013951639411948 80.42439575373646 62.80291749950395
13.114303442546252 79.17291758137198 62.038992884535304
11.590403642398734 77.39659018181514 63.505317569514105
61.445683133692924 64.67540045101336 84.93181241264811
6.919002351772364 77.64184125274426 37.79633480697954
7.390132696997365 79.40940801402081 34.095806305459824
7.42012987288715 81.59931440128187 33.71801832342056
61.27532457595595 70.90722634536316 84.12541411856813
61.935652097423485 69.15167526897825 83.41035517571513
60.34768286185464 67.0497513899932 83.48616127496422
58.231741712914086 66.63104751965724 82.57465040502495
13.43235686648662 80.31443622600754 35.2066530998503
9.475680290762144 80.87556862595893 32.53703883988983
27.92950778992165 84.17287659247356 51.59727431872488
81.16482400902323 71.20647709671405 82.19894680872883
82.47185979784761 72.32512367628264 80.63723057833134
84.40578999547607 73.93956922292789 80.5961800320018
72.6804902927698 66.67065051076555 75.68737099639124
71.19188983743616 68.35060184157808 74.6175988609353
69.7776623454362 67.75354423365413 72.15206107746093
80.71541378797453 75.58058832984526 84.26001263313881
81.00568619361056 76.91946655494715 82.71718788674966
82.0588709943266 79.58053813721244 82.51689603052952
82.77134292094244 80.8441371992238 84.17360168895766
12.069076978686777 82.90131783505302 30.448230254714122
14.207188568701472 81.36709541038675 31.93047740585243
59.047565939380846 66.16745370511205 79.63921848650206
61.177657341519655 66.03316211874494 80.68979277844926
62.11892626478458 63.938787723874455 81.98123058781454
61.246063472218026 61.83480801500839 82.4263867548707
74.04800121542775 69.70065288896762 69.3799636780861
71.9428730712245 70.48809877174175 70.61919238770069
69.8735613970643 70.10221498846738 69.27560329547413
69.54895848053367 69.91936366547351 67.17383954879503
67.19430918226028 69.32565823523335 68.17553512812003
66.27447819057565 69.94236128356312 70.33116473835877
71.86989285018679 72.4089327695463 72.71716749942578
70.13871024945945 72.44207696309246 71.5713274878932
68.52225453126192 70.62679392275945 71.58205689050092
67.72748121918231 69.00663943356257 73.34308374809034
84.7140796322488 79.2182472489153 76.45124673548233
83.12540853197032 75.37417278926088 79.02202493147503
82.98946226962765 76.79262330626347 80.7589924638698
83.69754870253982 79.09408851177315 80.68713344850049
83.41403238236458 80.93824508045633 78.5326192305733
84.14345751599588 76.13015331298828 58.59372014736136
39.9624964350204 45.48946204418277 39.71655081919932
38.78353125360557 44.58012569908115 38.154976913670204
38.797588622657976 42.21362065332491 37.2703122732712
40.55732199812707 40.26636120552426 37.334962436261144
22.34805631498284 46.09807928160354 30.399368662649525
21.7821071712422 47.69534250954476 29.400971384909976
21.496722098456242 50.224716502333415 30.181892887733348
22.704841586356274 51.50916682745234 31.811344564629817
57.23180195949058 23.88106846756873 43.98736833927196
55.635800466241 25.73565042501279 43.534812804361515
56.70703736747826 28.379876415632914 43.65891997628123
59.4936690110547 28.38882111756653 44.35843527897369
52.70605577653658 11.821009031108614 52.513395054492115
53.776541661653084 10.143556839512517 54.442942450767646
51.678783139588646 8.316337782895175 54.60044115121297
49.32913747420551 8.70460585703722 54.355236664022456
52.793041142480355 25.945863800762773 38.059095747984166
53.28882905493935 25.692447781402645 40.23107792890532
53.56924447334958 28.123060863378083 41.40618760296263
51.55566000822415 29.586703735526754 41.71136319633925
35.64827912774897 21.147209169581423 29.28540410915679
37.08288710529691 19.579800894534337 29.90986576799591
37.33423024801142 17.154233155354877 29.206890445299894
36.272995963963695 16.141474769878155 27.189973998878322
56.88851298608685 26.566526070702135 36.0009231253671
55.47068488951069 26.524725236359398 37.529320010642294
55.946254895649844 26.66567761635738 39.808310345926934
58.177173395812815 25.43036591164541 41.20136853087375
49.989970230443404 6.571385241360453 47.48595198090768
50.16023413300896 7.371833966140119 49.5845426506308
52.64067366707206 7.170479353699829 51.092878045867856
54.69153257980608 6.6214534075945 50.35901542220773
28.15979500908768 24.313931361281774 61.56739005978134
51.28843487684486 28.588857719799222 48.81711211276318
52.14490567445296 29.496196479506168 46.667623197550846
52.132307093570724 28.55092849597285 44.26169078465326
52.97525397774841 26.318250738068723 43.92734278370726
47.74629004045606 51.46498130416897 45.55201152131751
48.593340433151546 53.74016605196319 46.76344209672825
51.71319424892599 53.310382698949766 46.94402515795115
52.70611091686208 51.218522627782164 45.991665689209285
55.13978161480151 5.5242162864224635 52.8963100125387
54.50275919946386 4.841895159106127 54.78661876058731
53.660124323718705 6.793759250076315 55.880001384158525
54.73274336060433 8.737438252289534 56.923422110513926
33.203463781482014 21.003929741867932 59.98329219560479
31.032642048322963 21.325482409444046 60.49106863784026
29.821870778417676 23.490092560668533 59.415791528794784
30.883220320173976 25.029238305261703 58.039340776914614
36.836584850492564 41.65810167246225 44.41838771369252
38.933689720469694 40.760116619396854 44.36321795411121
38.99434871844236 37.776973893354125 44.1626312380667
36.65153637300598 36.53003607401494 44.664093747644664
25.420090382699012 15.93841920787375 54.45818839064662
27.57333149805584 16.891929288954824 54.259725347287166
27.58290269868844 18.983793281203425 56.09955216963027
25.84091982867805 19.773976053823684 57.21104880648542
81.16703401922865 60.052168624264105 18.627174422844853
79.49404892913735 58.703064853759635 19.118437156875157
77.80117253885302 59.6410300162168 21.263981189363665
78.53968377620224 61.10742706273215 22.80181871173636
37.312007673882086 44.95415672771656 40.6868598675035
37.79804033830271 43.117922877721945 42.01267651103874
37.450209925465984 40.63882135796053 41.254407397877955
36.7765240646794 39.62385980361727 39.483138520760875
32.4969758060961 14.592190328312315 58.243463292740735
31.24548172793504 16.519843630564566 57.941467284202595
28.981644186497764 16.524238487651875 56.686434952409364
27.47104849098743 14.877979842289205 56.65028461430755
41.20162632857904 41.65524394402129 43.48587596356317
40.55804046509752 43.054188886602624 42.179831961570414
39.3203277051703 45.51611404633538 42.6795599304007
39.08476158520775 46.65107398568809 45.21572149947991
36.831416318696824 37.70387522185544 32.784017512771186
36.781551884211595 38.95280972987426 34.64055526855277
38.008958881831425 37.74778444244946 36.840288609368784
39.159567314200395 35.554775616772524 36.541954565790775
52.24953682181555 33.33806962718451 60.17871738274994
51.54881965924703 35.07721117586548 60.9203966778525
48.90003006077186 35.88545307574078 60.87620770824245
47.12645220393517 34.141027700445214 59.838830821694195
54.297951102686596 9.526228257288492 23.925565549999277
55.01044192328011 7.802464650992998 24.882807793074907
54.76079914601278 7.109430524706256 27.415024008997793
53.88787655110862 8.37675176236178 29.267073253403648
51.040224444384435 2.5004492189753855 24.888031512415612
52.573531959128616 3.424429265813048 25.69980132074461
52.62931513092999 5.5549249132786445 26.9381473711643
51.42573848011588 7.8948496906947705 26.505728617500647
32.29247620142778 69.60798870703918 55.88470598133993
31.165725310976075 68.6087092088483 58.08124862644411
49.73609849072965 9.524644847110123 33.70433151452612
51.20457364380996 8.08055269135674 33.23821462873864
50.74611408282101 5.968527271033257 34.826691840353824
49.94373275106334 5.7974157945264135 37.04821737832918
42.36221620260966 55.25439802631084 82.8895310968441
43.14247220091277 55.63170810574241 81.01107486206303
44.487733021285734 53.65601316504904 79.545407205328
45.895890896052336 52.13039787460804 80.14220150576091
55.10550244261896 0.4231922854233629 24.535344772520236
59.043663650403 31.193404968518134 43.84025727897875
57.49698669971068 32.10398212512949 42.50323546861873
54.869584905611006 32.11593693793121 43.1156862839638
53.83277341677929 31.040407837607834 44.98923766798225
41.9301229424717 46.82902480452972 80.12808335813612
40.77890754389314 48.50841768122463 80.10066041972799
41.292541433690374 50.86565382853342 81.17662934956086
42.240179278869384 51.64157316350436 83.08753270708368
39.38582645567538 12.031636506787839 27.227483468482166
38.614978664341415 14.238105321346527 28.165835107704236
36.80077539244054 13.86138370875302 30.05431940019757
35.302043139683825 11.751487974362767 30.365484360942876
30.163444238176332 17.772432530807308 34.98992315170483
32.564082141393556 18.682314641853736 35.8006403914699
34.18169916491773 17.02540442384672 35.80680557774606
33.97448143935477 14.249271469632577 35.715253531681576
32.56807809156824 21.214077453789702 29.9856460042227
32.66464220273576 18.889221150565064 29.832943416073782
30.93849561534811 17.24172048339642 31.244757529344298
29.052535362887266 17.566900273194815 32.34337096292238
36.417136790007014 9.095065756201908 31.413075894248376
37.48492620884128 11.173761731036828 31.748851559008692
36.58574277062827 12.737967265993511 33.59130087512703
36.01305908343167 12.321637440544217 35.74162986987001
50.432523665362424 11.36211643029283 45.37060902326829
50.792780586704495 9.73804730558334 46.97201617317268
50.93210981568132 9.94206043757507 49.756892451045125
50.18695410356646 11.853274598564012 51.147794250953176
41.9569670033557 75.02675155002922 38.11390852584757
42.79606269778007 74.10750452701558 40.10924054886873
45.17105528133303 75.03191576124907 41.16069424895844
46.25279235415177 77.29927509512845 39.90039139597964
53.111048089608175 31.396755574487013 81.8908667830116
51.45740764850706 32.78188638690269 81.82492951743654
49.69876502302109 32.82761375720312 83.50222598242243
56.49553449062391 50.0508912981119 50.08339394865699
55.82486857803475 51.081453022672726 51.56621692521387
54.08715650594853 52.94218455449584 50.98967752765464
53.47924275105804 53.93630595950543 49.06419058010803
55.19709103406962 27.084914661348293 65.04523904025321
54.15406795633566 26.57025446621881 63.13261590695015
51.60500456693836 27.514100551043914 62.939460139530446
49.90758765061062 27.368342042829916 65.04058408623847
54.729802386303405 53.95944573345668 60.92776284399485
53.66230465016165 55.00328246129602 58.931344120788744
53.95429446819897 52.92235072260356 56.82015143916647
53.31567929285301 51.20355545079837 56.875189366528964
38.45642380877945 35.41366315469869 41.672445943778705
38.91762347332005 36.11419886047133 39.83835133059297
39.487799592001 38.71408831730976 39.59664179960769
40.39720893034905 40.21771073397888 41.099342544627696
52.67141379316231 48.250651962363705 51.38214236631048
52.41822719865898 50.57880115878999 50.49991946861341
52.192072351115456 52.574284421989624 52.670358029708105
52.0299806423832 52.507969826487845 54.92379475382191
29.65319257709965 38.34413098384571 44.41874919852611
31.017629088284657 39.84803707061764 44.18437778927449
33.53915873786048 39.63746084692348 45.88280288231125
33.44112753460987 37.86600024323384 47.94984367065691
24.765374513480175 48.16851928405315 61.00749990955432
26.264820823043287 47.643568135393956 62.43487832177093
25.665888741716504 46.10688013233872 64.35912110371382
23.664462918075778 46.40204750511213 65.92173919176025
49.85619461796841 55.74006156550693 53.22003887808482
49.227361561969346 56.473971128095485 51.18252089175843
49.56070038335491 54.82256221714946 49.190938042717654
49.909122833609295 52.26530484398468 49.37048243227104
52.5449218274266 0.11530796744048505 25.24599663697072
40.397669438360815 33.62248241648742 63.019904380695046
41.88971852065155 35.160639892604074 63.787452035777626
44.58348704862044 35.096043104997364 63.51818139020305
45.88689520770024 32.99933663706385 62.43114727560955
26.57698609147671 40.652471928708934 62.73694673274784
26.771357949020086 42.04604122343955 64.19210567762208
25.34403321849361 43.24346200815389 66.11894028559777
23.352359884157128 42.35328303280159 67.1580358052243
26.6317065988799 45.55910851023298 72.29373515719882
24.37821558311471 45.413725762787806 70.94606656101057
25.178577906481603 45.89235897488639 68.22012319263804
26.775825778489708 47.1602325280152 67.47322261393919
33.52391091824982 36.56173611559272 69.50562935149073
32.79456903440597 38.45284925559091 68.45074069525018
32.956303173979656 38.58202889155484 65.70238338873871
33.38317745348244 36.714506137892705 64.25851049270257
31.971843274188814 69.24723579646849 52.25072799274725
30.96454071750808 68.1163447756063 53.890166016457044
32.5408463453684 66.90806870312136 55.56242252099821
34.78045263665693 65.82408570430093 55.148451438087434
32.571375433553236 42.382928299257046 61.28426066077201
30.496121661652893 41.72997586316282 60.90344810349836
28.35922231327779 42.30045384761628 61.96321509575513
27.25896826518536 44.239507189890276 62.7312870461231
29.529133628736986 66.57489232235369 60.58565521527431
28.578840207049634 64.48920641158715 61.61793753600631
27.19637234740711 63.027853457244966 60.237252729160836
32.75189821455133 57.687137375061404 54.16483905068661
31.033435129342365 59.04191542691315 55.26276391087483
31.62623938936555 61.674504131722045 55.86555020158658
33.18021376143146 63.16887509885947 55.11976351970669
30.802049178312437 38.91246279652515 61.332517260965915
31.77753147148689 38.84974422828261 63.1362694519931
30.719496539415854 40.192810462706426 65.38646808765257
28.109270724579435 40.646536866698376 65.80353748240998
48.19358406707075 55.91943077738278 75.65726595002192
45.905386841589504 55.47251244759124 74.7766320355582
44.83662903587944 53.93630229343237 76.3554790746093
45.24922888170756 52.07575393436207 77.43909319291207
76.56387363746892 38.76199263045426 34.96461817832605
76.60985783300832 36.674811266066115 33.56048680380708
74.98106996627538 37.11974029592546 31.118359656499134
73.23402053505973 37.80070977753377 30.881510518193625
66.37884487591742 11.418623928031773 66.32199630825194
67.37975224002417 12.84116617258262 64.58507964838198
69.99739564759597 13.339626473049318 64.80331246437436
22.754394109767148 40.69047210405458 3.139441334479803
73.47074960997219 22.84431008157786 45.14718914232544
74.03681195766866 20.92852980697391 44.500957642504815
72.30391731664449 18.541797582545414 44.52168652766644
70.46563102088264 18.079005261846273 45.499323334292285
81.71460474122664 40.03649048150602 28.92550537986529
80.55013285538062 39.90259745733983 30.84369721975076
78.45385108803856 38.63944275195483 31.411279962812284
77.60743757034054 36.90771500443393 30.823401352316097
51.89636709520991 21.525275858671744 17.95822421179362
53.69590660263024 22.168715302377837 17.268345247479903
55.195525224404285 24.355435453554257 17.939757889815642
55.23648794074223 25.758295243249968 19.607398844510918
69.95226164100622 39.97001150315732 21.343888561997066
69.8658373681092 40.70619439879257 23.079473442066263
70.55027043061574 39.50068205082114 25.204420160972543
70.37614852196923 36.99633334950352 25.873923580405638
72.75336756630506 13.91467172100081 39.096427670774204
72.40647227725493 14.690465349369687 41.16588085735415
74.64043863162924 15.660195756495103 42.268288284317066
76.48554588438374 14.358175050113443 42.83335745945714
51.872106258357434 31.830553758630842 43.06402943749109
51.49447546174609 32.37557688124105 41.022238102887016
52.78995145524951 34.30046696398928 39.71125363508359
54.078558821193816 35.96384115091148 40.997313322803116
73.1096692899647 36.20774315192414 25.710326503262262
73.0083070963972 38.40812177502687 24.972160598218622
73.52197544306098 40.22891011619952 26.990939579496644
74.73049453475392 39.59958223022118 29.262304477507342
69.80587099935522 64.41265450112513 37.60501924011544
70.93651478591417 66.15245630117893 37.98892990881529
73.75488016848496 65.65084907844471 39.08641887689987
74.58130018427939 63.939784890740206 39.42748179835872
77.2337147636948 14.122075917233591 45.89841409049225
75.40084864280871 13.151137445384862 44.993854606276464
73.13375789348055 14.195895767833864 45.009930928767695
72.31628219234446 16.382873055815036 46.56286940200507
70.76496815432546 21.85171695722489 33.708867339677425
71.08897794565138 20.176674578864358 35.21147841752664
71.83150919644503 19.820668262520357 37.36012432962524
70.40644502593193 20.673271033657997 38.79500710015283
55.497482912961026 60.37665773372528 29.755667036297787
55.2577021468593 60.21832584265372 27.445575529195715
56.29293028940565 58.21000503198448 25.847945153862817
57.82313892701413 56.29155674099695 27.048449644540288
62.72682836839323 29.248805292437673 33.841164527733035
62.302401064592246 31.085603326247085 35.526345135792205
60.62080641121616 30.078844184705808 37.61642985607795
59.15842684528681 28.523147006142295 37.5531632904348
55.53507249316356 38.31115733980355 37.646230650576044
54.867372566246296 36.436340569930564 38.45802664217879
53.50587419505378 34.6011808840425 37.4397639998782
51.91516642564877 34.810636197907584 35.251015748531614
50.97223802396409 44.44178566438791 28.85433866647971
52.79711627701213 45.74983112718792 28.304263304350876
52.231481349942044 48.57205753437468 28.216773172961933
50.23923410743868 49.657025502864194 27.584862205214332
56.87614621012005 30.95451446301021 36.06363508528917
56.604841299735206 29.074845270315084 37.220735128925064
56.562023799226246 29.243622700572033 39.5359225917648
55.288329430630064 30.0974899064286 41.07450079903431
57.024843595396625 55.28943094540965 24.70657089560652
57.427990098154105 53.59532857653916 25.07625550182614
56.062361115083974 51.651249683885816 24.282155526711016
54.82329179218508 51.185341830129325 22.198188304380007
59.65131003173097 29.333721788487445 18.530790718391163
59.27949742977675 28.32645965117444 16.71405209101376
57.11069905389975 27.459282338215548 15.407115603320907
55.026291377873754 26.952592735755836 16.343379153009973
59.85333019889351 33.0972956073004 38.58640986793405
57.820241989368576 33.94707817800693 37.225611886369556
55.80715040830496 33.708682826167184 39.05322066522513
55.76998739422772 34.24097541135056 41.442538861346605
77.35823551837609 38.12129625399815 57.43633041379487
76.18529723815486 37.00665309523989 55.9580935583667
75.05440371248727 38.014916664349556 54.089019277880745
74.26784872922588 40.37156526935839 54.07383435688565
77.94502540750715 12.277271723179929 19.42549916364157
79.02112917015955 10.781240299244232 18.362773592479808
80.23568588578662 8.50729325785631 19.01342728363703
80.70407771045807 7.814623533345629 21.183831769892617
78.0617433085968 1.3253128052719485 17.71857177666682
76.83332520963542 3.191847959952411 17.458246246287093
77.68214129482578 5.663899978230432 16.506332907278946
79.51782027965164 6.604825885343842 16.192267065057187
70.11253264435028 9.103376885900563 13.28356537411444
69.68607297378139 8.902853247639635 15.367549074358969
71.17116518669518 10.166574934389141 17.32694614985305
72.8064886735532 11.900721738867977 17.03684719631536
51.793607341585265 71.02440030603763 42.299067668113366
49.68728095968335 71.23044098573732 42.40355269280299
48.04230034051494 72.7053408909368 41.26613387396272
47.94220028730333 73.78018059791103 39.07807878822627
3.6750994690989303 16.77840798202837 17.936867886381272
74.97098869909077 1.9584205160775339 29.701472791903594
76.68991415508832 0.2205923356288576 30.526558466402932
51.36289081023077 3.193866797026379 36.9756392646847
52.290413507467385 2.0571227325291157 35.372423380203024
51.14578216861726 1.4613679953608818 32.89437839411075
48.90517554221679 1.6644255486168622 32.25481158610546
77.93855992337632 6.353390541942264 22.14655751777966
77.01833552373894 7.339736698753902 20.596519731493025
75.92434621663789 6.2682250535040405 18.50012477516484
74.35607713139524 3.7806765939566387 18.69151342886912
71.53484466027643 35.88497705966005 27.973262389683363
73.24520611146626 35.91468488271869 28.856940728667517
74.28634457045898 34.5365281203076 31.344715709635828
73.13373643522814 33.20453222315907 32.72113816618331
65.57537138212483 67.3525982501599 65.02782343736719
67.35929017032272 68.68098702739535 64.79770337044069
48.693922560435986 1.556478497163698 25.962947335209268
48.55233945761984 3.66006668818178 27.694073606682217
35.5505333881211 16.527650525241693 55.421401643707014
34.21295460909888 16.42477613886564 57.05341287975451
33.15418795359027 18.8837301298379 58.13312361429238
33.78887701593285 21.21769724084203 57.255082924649955
58.134355991614235 5.4590393497893315 23.993383506747193
56.095509739938066 4.740019304424761 24.845682973262633
55.98713870135452 3.749766131315152 27.45948885801752
57.860947122384935 2.5578821084801033 28.661311542812058
48.684760657404276 4.959583747330205 32.97273688471781
49.046643750013516 3.904100503854678 30.806945207773847
50.48624789129752 5.206229010034038 29.022549185577986
51.62240665489599 7.263524721656656 29.329031121302933
61.37780409367366 26.521487776195734 17.011290257945863
61.12820816060984 23.966800953267803 17.300344429953036
59.12956947684532 23.36692943904061 18.975813567773443
58.11420428864526 24.429735515740955 20.48294729159923
55.952225803783186 3.17343703145162 31.760840152178098
53.65223156694832 3.352317235924849 31.839272937475176
51.71053712428261 2.8178169980080994 30.045673192890174
51.80045228974665 2.35835810500691 28.12806608320956
48.22312500085124 29.20602125201299 18.00149083890094
49.731992696272236 27.319475071268236 18.096446700180962
52.182475541506136 27.151916676844667 18.59973103427456
53.476574695548926 28.032702860650073 19.99807969199503
59.754375466067785 19.67276058807899 23.522751786779796
58.15083499015523 21.336159415728712 22.74628853462392
57.59791568023835 21.156534469571884 19.9845419423574
58.11856889425186 19.58657148474199 18.483787317732045
58.883607936467264 4.379665527622897 35.603210001025104
57.40163709045371 5.4160705033456775 34.08612276405815
54.65448955209516 4.830169500579414 34.27482550829338
53.23400962496542 5.010030760574556 35.99679431082026
77.42119817604164 16.8320320998238 44.58649651310739
75.92605462649843 18.441270733047187 44.39054046613989
75.24438014809805 19.382691569109415 41.57982629305766
76.50939167207233 19.182617470544585 39.72713858079242
68.31160498747052 65.84713681800739 45.66275722539602
67.7077532332682 65.00468539900463 43.39339765821464
69.27452340974264 63.16549224362118 42.128878811650424
71.37841180878227 62.51928236130613 42.631956746600295
75.31723406191047 48.7939420447319 70.1546927564016
72.91103072231347 48.30541013533173 68.98320788896496
71.24883395847226 49.01306621860237 70.60369401057842
71.54319525280002 51.00457255153992 72.43201864230643
71.76447906204639 61.27554227629385 52.026281570405054
70.62319214391464 60.26445650896565 50.48723190257433
68.05872552091549 59.38090806785898 50.12173369788783
65.94212061432827 60.56416320581473 51.48606323980105
71.41060643412784 31.96228941848998 52.80914238318645
72.20433631833501 33.56826306618095 52.57515787029666
74.2052231988712 34.88136819066722 53.90667197418139
75.0150725416186 34.575959708609915 56.01932586398498
72.52512165223787 58.735059239602315 43.791579214161494
72.50082184020727 60.96224667591587 44.57073110888685
71.30662182704745 61.965046851723564 46.52359483604861
69.18627298332906 61.04972311141896 47.60282470415725
52.26389657666262 51.5475291370221 20.980992293887752
52.377620355254415 51.9823868901628 22.978094665408367
51.310016135943116 50.71587791646983 24.968827187763537
49.62897414195564 48.926162921060886 24.847548840131402
74.35923260568629 61.5231440771901 47.47016264335126
72.85884226931782 61.37926911218631 48.513792795406545
71.32374411719077 63.18782798387295 50.069651859247955
71.61456008801538 65.20309170911604 50.663064495310934
75.54805485830613 50.954740954017986 51.61768517941316
74.02043093729561 48.90110147431894 52.573679499971426
74.71483792286541 46.72083653190155 51.71753981040955
75.73436395980887 45.88978672641489 49.77566229218506
53.44653320725344 57.16468460021652 56.9700733730464
52.52896367158281 55.4835039257303 56.03773750643535
53.989873494999536 54.515512419675744 53.88924061200346
54.6839078390761 55.56975973470594 52.150078668274034
72.32000237083945 57.808483201067055 38.809890023540866
72.3234716311251 59.97870812625693 38.41680626094661
73.46935727916863 61.47430484369788 40.58575864672712
74.57015344995419 60.21144180441918 42.5356727939128
81.2399239872213 37.607343384717716 0.1587453801780263
80.28093424376736 37.39680568809185 2.0692737438326394
81.58334737277833 36.45798230056357 4.458868185728882
84.25111806963955 35.21340191490299 4.365717145946705
80.01855278977666 39.93223587446121 57.83038785042346
78.44124703003077 40.41776290034998 56.485980067151026
78.35350109164177 40.066498773807794 54.11088441272345
80.18768054598286 39.946719420391034 52.38273037427056
55.39304438224592 45.335054960137406 49.77525006079501
56.45683544329601 47.29009902514827 48.895326141554946
54.68759982857315 49.404857860767144 48.30717305663083
52.137268146443276 49.27624602086296 48.12337554342167
51.52986810183929 70.1375614782677 46.9167263632387
50.986506629603596 71.48335175143961 44.91716153789916
49.68934443517174 73.60400836759331 44.97591186640793
47.95575579982378 74.1976552130152 46.467864905491716
58.95282486300393 55.61189115030978 60.42559194435127
56.9916244171487 55.04561113728649 59.617186408713344
55.95664576739883 56.48437101161532 57.35029225480058
56.114767264747435 58.48545493012114 56.800026019154096
59.24581831936913 52.853157498733765 63.46403151581611
58.09667434811378 53.425130324981 61.7249993903391
56.65614656648587 52.24863667943672 59.984929615819375
56.4165268610233 50.004051238748744 59.57689464116293
42.66013903565779 74.35819704401086 43.23733263316108
44.06515492800018 73.76927961525263 44.89347067896208
46.10524323605913 71.85174742203264 44.45324270150333
46.346638647806586 70.38986278453436 42.48778499931893
57.91700348937664 48.73524715000184 57.23863872769538
55.72556409285102 49.3649367288672 56.7826628122695
54.538494425725105 49.63203535427902 54.44225958440615
54.95732265540635 48.63928504657883 52.5140299750702
48.865987847303415 79.21488592631266 37.01319158374578
50.03102781238923 79.6190884955579 38.858540068508894
50.784696768724295 77.82644221687787 41.04658388404188
51.8205967110336 75.83676340287342 40.384915648510045
44.76353727269963 79.95922383589985 38.7764703350947
46.833435953235345 79.69795946964886 39.107429182221566
56.18392030268126 6.487179524655347 0.6599925888995752
55.27342719634957 8.151252077047202 2.190526685054732
58.07396549729071 53.134939594870595 57.87127992926772
56.595430189139314 51.83497746154575 56.33333200510346
55.85146626577635 52.441066510005605 54.0024023456239
56.86242095612412 54.369113036804215 52.493996114421236
75.2905999744985 67.55844434386862 67.45612556590494
73.53200150078564 67.94295192446138 66.75342152538667
71.648037051791 66.756854360327 68.26041466191484
71.55978741364204 64.50406877133169 69.08983076254361
32.42519988124181 14.26522439640786 52.82454274497753
32.53487399734574 15.589332453295926 54.734071648023495
31.079136430543766 18.07191139888823 55.05728973757087
29.24021691369334 18.6865312997599 53.44742607578303
27.759958133841522 12.42697109299743 55.12663994341163
29.694187777282306 13.07829750548004 53.83994785728528
29.598797897996086 14.260288999385592 51.629840025211664
81.36944387961336 27.751989393227056 10.617212791249518
79.81974348078123 28.843550316109695 9.59553646734245
79.96524630903852 30.044709859084364 7.513850154133988
80.94473328442777 29.37870537751658 5.135748977413877
12.939454349888246 36.67572616905887 38.94724989317989
13.211758606502128 35.36644062912242 40.201953814837246
14.575721496626466 33.000331556009414 39.968324857946904
15.691609906586667 32.08032486413439 38.580213436798736
74.84980067844894 44.51804813198831 26.98809635197964
75.60960433000591 43.0848864874583 28.035902448345322
75.26170277280114 41.757818002170005 30.39531132136583
74.1123753903816 42.00793077657447 32.22260118491967
80.48761909420024 33.3618470371615 1.7378724993918877
78.73396351604141 31.58959514799987 1.7686064683423441
35.01978395670651 67.81280447461911 57.064102529757584
33.46039444732591 67.23291615965492 59.09386299127136
33.32482160527469 64.84742795074712 59.39440200277102
35.06158165503354 63.089914311586206 58.509037437808864
69.90376659937202 42.03216824368912 25.614033733629572
71.4558814740909 42.39224547260927 27.372441419105698
71.9312941007617 40.60316086492042 29.352987631114086
70.7777990571283 38.522489302564026 29.874927248637572
80.58951786860406 62.78057255324822 18.643438382386222
78.55458218068921 62.85230463922907 19.148212167960725
76.48764410293913 61.20172693722987 18.058695177408897
76.6482643382158 59.968900752522266 16.266113962870516
77.66336148240283 41.887313173824616 35.562633680459854
76.38869454386212 41.37369559828809 33.726995135631974
77.60909182097241 41.0419709227292 31.52159846589406
79.55943364730061 42.464356583997805 30.469573482108558
76.16254077613098 43.64520444612687 24.58755571886456
77.10993806451418 41.52731051725053 24.109909403190677
78.67048389616458 40.29322515888064 25.96849444913009
79.59338550515717 41.29462630502655 27.926228656605502
77.18510772759853 67.05357569123288 19.14032187370913
76.45954414457329 64.88664406207045 18.77139739097295
75.66228445690082 63.51091106225481 16.73480983893699
75.58651318106241 64.55365061557184 14.029647175998967
75.01295894365128 31.155638313135114 33.44372149060857
75.67773762504893 32.089774492625146 31.41385541208671
77.85214944089161 33.956799749364045 30.870117095217864
79.35549525998269 34.7036948638932 32.20478060354925
74.98222176285444 66.07024538181024 20.927453476470443
74.22950044346946 64.30775993481943 20.123338110489772
74.65720197901378 61.80647176788084 21.14087328270679
75.58219257378006 61.06963599370152 23.08806707440965
71.47574116554556 60.8761397188502 20.293917287851965
72.59552977915422 60.13544881865581 18.394778832019757
74.98422742863377 58.62770289177477 18.355412670126785
76.04803470873733 57.735179013000234 20.16389225809003
75.77513604907908 46.473721750219106 54.37850206333006
75.02853115661317 44.530000859478676 54.742079775094126
75.923743563369 42.611248477245745 56.03106364901712
76.98753626437055 42.33986906536819 57.868769158567034
76.15601273428678 81.62231230609198 30.565797637994226
74.26729972026666 80.92977436266813 32.17671458343033
72.07143524685324 82.6346623247756 31.912348264876375
71.66106709861796 84.05256712175701 30.14799612242979
78.70581016297582 6.2750578546884 11.224048209325437
78.57873626792355 6.685469967351493 13.584530695013266
78.64786826350526 9.321100171453216 14.21765182117634
79.86816982086181 11.040553861259621 13.44773981152025
31.13551496797123 7.60847631326851 55.76330412178693
29.67192197175763 9.311803064651999 56.58109810462687
30.546412210016005 12.11015779220699 56.48018765581806
32.56683823131372 12.755047691487963 55.96661142544775
71.7857941725008 2.847573724516442 15.55631840418937
71.56463389667321 4.879998082442196 15.101293547301037
71.56087531812835 6.939051585323949 16.510903903012533
71.10035020218842 7.503589731356709 18.58975341595172
74.89674407484449 30.307052846218355 0.40624373570204936
75.98810491099337 32.41998365499063 0.4591796261190903
73.44042079156306 13.604897400884845 19.172767356337108
75.53516057387108 12.513723489157854 20.5531065848351
76.04816318262323 10.19982201324105 19.690847428763117
74.68804903875103 8.465805734040364 18.87663934023416
84.25771744172717 12.643523484144765 16.16723831672846
81.65361901881673 13.27966339287353 15.588096620727285
80.34020136238352 11.146319125121263 16.17806229788702
80.83068083224988 8.877825919389593 16.233556113755448
72.45792205932547 40.35069331510429 21.65874217777482
74.32317793256576 40.344744207594175 23.053452232848898
74.3328032353597 41.94355083239963 24.977754681670504
72.69329710589422 43.932778327086645 25.218552832847173
79.2985638209275 14.160170215307474 13.831872412325636
77.84327194256849 13.122187218201526 13.035271536996605
76.94742261600089 11.343769299658472 14.490161889670524
76.7033393589319 11.220032474951543 16.89294048333942
84.05121160144263 33.58504205747042 12.115575147089189
82.55010926235455 32.09016337341878 11.547243054081733
83.09236336498891 30.110374472418933 10.059293527672551
84.77004562060456 36.01591882365934 6.952264740171712
84.87681313888629 33.845280819728714 8.56448331982595
67.5472854847868 74.98716854470366 51.33943406845699
77.00241100884462 2.078467197525671 12.294031829765386
75.78904615719327 2.9511850685871854 14.799026136583533
74.09815785432403 1.6264250970330172 15.930843244486113
28.546686043238637 23.3100795905169 56.970652253954064
28.788424614956156 21.31192057304557 57.05763229952271
31.32678688643317 20.524760833057897 56.69634058358164
32.51681142261594 20.697814829400553 54.82060172870822
22.506204600794327 44.58095611819737 67.9639862322024
21.071070789521354 45.77916995811303 66.29178892605007
20.914284211988377 48.53432603277642 66.63135422250738
21.0541773047369 49.65971415538725 68.91279807703033
32.40786731650997 38.195690585311155 59.28437593308484
34.284448345324215 36.67062427608669 59.64090253702394
35.30378611585399 37.331045378391515 62.069527554573085
34.88121106952864 39.53959296218034 63.2927793823484
35.261967482401715 41.319377147334855 67.39493036139002
34.1086265628254 41.11479962877771 65.31112868899672
31.95096410157167 42.57322541227867 65.06471819018043
31.124916593969154 44.52950121515836 66.36674335324055
78.41311051123711 55.14653554979312 26.085617718043633
79.01660659366502 55.988049423515896 24.17289862135758
77.06590915889653 57.4702143661334 22.68673196398581
74.79768346267377 58.44697600161614 23.71642604717861
29.081166801810774 39.95947482968745 70.31885875093772
