17.58915130358366 83.85121648817723 71.28242464936898
2.758456733315011 83.99640743940014 50.062694950066344
1.9046732684166705 84.86535882857108 52.41826807778729
0.6012870575216381 80.86463415563333 46.7745206790302
2.6814972665558985 81.55087130221445 46.44030630324366
3.4352077804328083 84.14155351073514 46.568612973714345
60.392353768863536 68.5440768075268 82.29591017969794
58.906273392949934 67.65375854647773 83.09355981806614
58.94997693652481 64.83717451351907 83.54303176268985
54.7742283487878 70.45273018659078 84.43903492866193
59.04262588841024 69.68753200484133 84.67887449678813
60.38703986265603 71.141121888783 83.19614545247417
21.10265190067081 78.63836822303408 55.58284138817555
22.415324836183256 77.32684603951606 54.17546588961064
23.90097890126591 75.583750423508 55.32153954187704
24.49314156097153 75.47738898357667 57.908591429753216
29.871578448614812 75.74413655872513 56.385978563634886
27.38596626200859 74.77670534513737 57.35809143149293
22.869704475960088 72.861777319587 57.50429740736698
0.019063069270773413 84.88744955660742 49.55051636759152
0.4767648131391049 82.15265927430717 49.259631294462416
36.03798801855229 68.07668553679571 74.10643077351929
37.89520037803597 68.8783400983617 73.82431791408766
40.03707344027873 68.53045128705848 71.79343816719219
46.9101835136406 82.38174799252917 84.82779266593826
39.409538640906426 82.76113497431189 84.4384215197406
44.19597065641222 82.3746723801953 83.3232919614148
42.59294136127022 72.66222312823011 65.509870138835
37.93553072049843 72.38516167235822 66.03373655745516
36.96528413637427 71.15056812580167 67.74017101695529
38.4930031505639 70.12977032485676 69.0566855452988
40.86711412216458 69.2706696642701 68.71404339691513
43.0593188194032 76.76869496726825 66.37031955622005
41.75265522374246 75.14698655429066 65.35943820896368
39.98034617249954 75.018708073461 64.03300545307225
36.27464044640171 73.47740878773273 73.15182566166645
37.48350667425567 71.82483018490069 71.69590071223725
39.828339355157546 71.18540944595219 71.57048765855117
41.95287882334847 71.13052552592004 73.16397587978604
26.318893785800217 84.2315882178809 67.0437950428553
56.673587389386576 63.25374746737053 84.29653966396118
46.70198712193845 83.29279112558613 54.029875052109844
38.90627775030153 84.25156240378932 45.30808960785222
41.3300794577779 83.5669052336552 49.29367175385712
36.44749899428992 80.13923161345932 52.9171604776331
38.70469920372653 81.08485452203756 52.234671932026814
39.45966950204318 81.72593406531084 49.88416110395025
38.038124520453316 82.83839173576887 48.347725624955025
43.681013822784365 79.72725864398757 53.71154846348515
46.78516238912874 80.0652597847364 59.69108529087461
44.946843181030324 81.67949401914608 58.9508611286388
44.428619964203904 80.97912981122919 56.351770394008724
60.31552525149568 81.07348596737789 62.504819354152964
61.00314789918603 79.43373789722929 63.28397869804584
63.240353216996894 78.50761183365049 64.03254291134789
65.60098035231184 79.22965822054286 63.264982512283886
62.30912906594007 82.79491408013118 64.57068954309473
64.01452849709446 81.62526372708199 65.17160404249248
65.31961222953966 81.52678978603993 67.48989993210691
65.02867309047 82.68551504893344 69.38897797656944
60.124101320065755 81.34392465850432 65.28257352119137
61.00444938693857 81.35414292872338 67.11773661231253
60.899777237462466 79.24236590635145 68.99282695899268
59.58516771193444 77.68059902323937 69.32746894672327
60.789020296013014 78.41988115803055 71.84924945999248
62.622202834703714 79.86940151293315 71.91386787832312
62.805164481640574 82.55416266222765 71.0704455388572
60.979592153676464 83.89595000403358 70.24597753530777
67.68504667716884 82.5980018687265 66.64609141082688
66.9380076113557 81.24583467809985 64.64146201595497
67.30030056090453 81.23141118137292 62.430230415682914
65.16793832987048 74.00776637990828 73.27540135620875
64.57760176522324 73.38336801781753 71.40888755407994
67.66670340001889 75.56842267878 68.881865217341
43.84342898673388 83.72690386995828 54.75239486758437
43.80298382554694 82.68909128625207 52.81370610441582
43.692937002141825 84.1196818544963 50.53786046879766
46.12956192597732 83.68129508948623 49.924643752253736
67.72624471924543 81.52613976125325 70.25145163725806
67.83639814368053 79.1457137396304 70.00817198870077
66.90302260494286 77.12991122595548 71.31872581288285
65.62291072131298 76.91071873170856 73.34037131442506
45.18050235919101 72.91490321747507 65.37968279146605
39.7576282173535 75.01207534466606 61.59767306956944
67.29446489312863 77.32114633041908 66.77477054886177
66.11741744917987 78.82438790122413 67.94653118000682
63.32420681427055 78.95375996328194 68.3010273587118
68.41241035185702 79.73399276309597 66.39118320194883
69.4758998001261 81.00177977174533 68.24561225840442
60.08869139840227 74.83210231189697 68.68417237116518
62.18121673387532 75.1329431749168 68.86330778518423
63.45250673207347 76.02091337982273 71.17539620263416
62.13890947586188 76.42310693282518 73.48520673760483
59.45055188299532 41.6274449445301 77.27192976842709
68.69276082957845 54.67383678625766 64.38793813566161
59.921041694529514 38.71654630281045 75.62438883831338
61.06181547599595 43.680898055390166 74.86642777922077
57.30502522420928 45.03363526650558 79.06999175297611
60.86323863545423 46.32033313734172 75.93821103581382
12.772326379558077 48.5217021081705 44.709789041409216
14.136845802943903 47.37251323381995 43.562811418053315
14.211091321944114 46.35437781054422 41.154212052120045
12.828388062331037 45.61067398178691 39.72293705518247
37.23754115725869 67.17277015629413 4.664812302702156
37.678060084892394 64.85978254077396 3.224920214999048
39.132238859175864 63.481240622446165 4.201148685915694
39.59039475236123 63.20287346049675 6.886220618087037
25.125210222190248 54.227577190267546 61.47028409266588
24.34750119824531 52.28299015084542 62.979641173456386
23.704809407113792 56.850708540164234 29.41195900273091
23.62753113818279 57.564219238463664 27.52632677531899
24.18539354619107 56.72535608604055 25.031912959248388
25.24696041088015 54.143172517894214 24.471015538911594
19.88196958784335 68.44362054575173 26.00579832259038
21.273579222124198 66.33136616696474 26.049573401390763
20.767055941978875 64.28763899584821 27.995810673666313
19.115753438195533 64.45654864418971 30.143656926769825
40.95758866828576 58.79714912996224 43.20124116862715
42.26620532777507 57.53600078764736 44.273814818238385
42.23199979124341 55.88720512281383 43.120246136476496
41.536058435714445 53.54350912688733 43.5175281821022
42.94029527150272 36.34503553095056 28.675924535747264
42.372353301399244 38.207901651793236 28.457351879590128
40.99068302627861 39.254172638151076 26.970537636178193
39.01905046529414 38.48913011392664 25.525554496843576
28.131408375393555 53.645821679550046 23.361659549665195
27.33298967452534 55.83994096217036 23.255663794825853
25.449999669710543 56.32521812322071 21.476008073933137
24.88731355965685 54.65611383735262 19.312548748676182
41.628963528018566 65.36005328984805 23.56396347752282
42.06058390056078 67.22698488996387 24.379010641387943
44.403553905630964 68.34519092521774 25.133505945072013
46.36606990039991 67.571531126715 25.58924155142716
40.5023091666655 53.11431282280549 35.85452986240614
41.07287500554832 52.48750006634265 37.8217743607173
40.90796805987084 53.963139207346465 40.05211193585726
40.721471745262114 56.60841434501413 40.30099907946195
29.78426227388638 58.61202173565086 17.71190565694368
27.35228664078916 57.56166540539528 18.528684230675324
26.75975557527997 58.82143104787948 20.708140882756943
27.61034404759849 61.008474350621015 21.50202245645752
2.7383111804982585 56.07617167693429 47.28055955492872
43.909659316415244 72.04585760788245 32.30140905926815
43.803452856920686 72.59134509547081 30.10767556521139
43.37948143840661 71.21292376381345 28.028398062056027
42.64226772602239 68.85043995800574 27.824172980170246
20.170550012675523 43.679819417661356 48.10484953019462
19.98842911295684 45.630075019979934 48.99324963179425
22.47436252227951 46.99357715013917 50.40984674197633
24.413726590000334 45.681920926416616 51.09947453902148
47.49419517086148 58.92393426558053 43.56265053895367
47.06754439278872 56.8283470149422 43.3198740697199
44.80391539310707 55.582680740757326 44.51375257427192
43.71322806470731 56.46361256424593 46.54682095245982
49.033532921012025 61.268540130893186 41.11953609537013
47.55349777183965 60.35047392534271 39.908017684486666
47.42365960444086 57.6267278322359 39.36141531309341
48.904120967628536 55.78934483465672 40.77784300032159
15.504670366577063 41.864249665384826 41.17242556467656
15.618139411407146 44.12846012368965 41.385523165205164
17.867108233549164 44.755739178180995 42.9840775335973
19.0577644015666 43.304549309059745 44.502511937714196
44.46211315947951 53.96200997739228 47.76774520647246
42.26757885244065 54.56411712243257 48.2823843063182
40.24571180326762 52.86544983928126 47.80077548930667
40.18744911466747 50.5720736584381 46.950092369578606
23.957644622320792 46.62301274777922 40.73341355227728
22.77260496965872 44.99027276593756 41.65292728036081
19.95431681745203 44.93368337296089 41.170944617824915
18.574781659058996 46.12988342789672 39.66351173007865
19.297780206293705 51.711068468747925 41.00714847849953
19.281970292159123 49.32810720495242 41.76896433577612
17.060325995941877 47.718011157936964 41.03498522147065
15.076203664120852 48.35419082231995 39.5530041805929
14.862422043726335 44.04960406813984 4.140263129015912
15.787151700390323 45.14193489539149 2.6814181943851083
15.992835618579852 48.18283535082089 2.8002379604421335
16.480204355323004 48.91419197401857 5.164912753165357
66.3257213793533 81.63466585177363 26.998393917485362
66.91202626665479 82.65742147870556 24.907483290503993
38.91010892302619 58.80914576110394 2.9694553091340965
39.44043151911096 60.88723532203277 4.349463184173926
40.71206058007251 60.67185424914151 6.713529780755868
41.679926428001835 58.31504775948899 7.2077360583801475
43.63950235911067 50.92560071388281 11.983570310801293
41.65445805968118 50.84972353127061 10.60197245443452
41.84467725717064 50.74241827301027 8.265836295822092
42.80317725897303 49.48785177835369 6.851829377978182
42.51887438908554 56.12419267550536 10.78592606414551
42.79720228324727 53.892266908090164 9.996407186262179
42.471481365643584 53.19195584024948 7.736469405495011
41.257281415708164 54.25808077018865 5.974312621036493
53.92200567140641 57.813205595138704 30.022675818823682
55.187934927761965 56.936473228808445 28.209452876046043
57.1092619157657 58.48117916023994 27.26207471343577
57.0920412568353 60.55346007367646 26.612320161797935
46.47446361816 51.459870305845136 12.91103468162703
45.972801333366064 51.7139401985177 10.882754631032475
45.67189518979678 54.14196601542703 9.730145397732894
45.79531919124587 56.46562645243116 10.753824735480963
19.270356686584876 61.657162936998404 29.39313552221141
19.553897101919265 60.34020179166617 27.618182628102556
22.188030299090585 60.365052592805135 26.755418720291846
24.26874195334698 60.49228803778965 27.652464814497822
61.18862809485421 52.82701814877957 21.63968695516642
59.05505358969953 53.75943468891768 21.19979363998715
57.315467218141826 53.114416050521456 22.920588497586973
57.27327884044404 51.00764139011636 24.489328928293286
54.622258174187806 51.33026906376648 23.197773549301136
54.021328475847206 53.92468309175803 23.211296724347406
54.96768787844876 55.00236897753476 25.569669627130935
55.29035761572924 54.22368492023255 27.275443107204705
64.7315554491755 53.36247132827041 33.286407576798645
63.55832563747963 53.415822955234354 31.353198912863505
64.19168640726683 53.10427120000663 28.844592864553462
66.58917273172725 52.69902275934585 27.92027525015003
40.56973045120955 39.179763556797376 23.41467626507126
42.33200859458381 39.68972615614731 24.849931321215614
44.65325511936194 40.78673961947316 24.058733623020604
45.83896706567206 40.578411980838546 21.92226465797976
63.23121373294266 24.474997647282382 21.87815673094768
61.73063967763703 26.02341628486263 20.388790511736424
60.894183063085265 28.076041200339446 22.283891075570974
60.05922912215814 28.192730856770638 24.392548982891533
22.000867513636425 33.269059247009366 29.141502103522956
20.802732745057504 31.55101476743715 28.730690328255992
21.594697629478922 29.6006456718582 27.544086939548958
23.74288563295911 28.686728001900914 26.96575234540343
53.546075451797826 56.7433555991099 22.646519082500276
55.4141705455003 57.36127535161121 21.63427877399406
56.95533018070765 55.89291788047762 20.17501138674474
56.842273392060484 54.02639384639869 19.044862702298833
37.9784292178108 70.52705252533833 31.727691764207997
38.62617954251438 71.86720792247293 29.485671866718558
41.001563731071876 73.0397805756414 30.12116475511655
41.72619213677108 73.81596071194572 32.12494554826758
5.158278873181936 70.80957823511395 28.669628494628125
5.788618695508158 72.22599980314996 27.261773684450766
6.936196796868797 71.33205612303728 25.623151811496783
9.559211066057092 71.0139504496322 25.30303306473663
4.331862618791853 49.814811249703816 21.01697163289424
2.8059734437197177 48.3310741614603 21.3639864283227
1.1428605580250433 50.2591113046252 21.711883443184533
0.14110915352605857 51.57735944396152 20.414294754611042
81.51124615183187 53.65227421411783 42.326663659323685
81.90563251316756 54.47148577031433 40.44457633161572
82.68376174878999 57.1570494613704 40.42615191719046
2.443097750193913 75.25625529964765 21.873408007145084
4.7040231637172285 74.11340968846908 22.011744461625238
5.44560870596974 72.14092018396222 23.074735491338785
4.3462503251329405 67.91180166990253 27.612203736234918
4.859585256885921 69.30372916967208 26.384257039202314
4.524730805672144 69.01107261896384 23.888113785229113
5.249622861810533 67.75337160451215 22.004063415943776
1.0154884816218994 50.25013587881426 25.35623220141042
2.893821993305877 51.27941159139322 23.73808776844005
0.7213520589201078 56.25951698679598 49.02028970927023
62.669387178043884 62.092826527501046 62.402722393497314
63.84635102507741 59.90691305913421 62.61844705706953
62.40112758454705 57.878703546099835 63.09634474534314
60.01490605422313 57.56132590100448 64.28933214477004
63.60973098892569 62.47700648821324 60.125311216135394
64.3188786529999 60.51703802464648 59.35388577406237
66.69925486786462 59.35592695011672 60.10596277511122
68.58849549106378 60.49854739607548 61.69735351823204
19.712435586723664 75.25823458588502 8.611036954473983
18.35903779500176 75.86643432058854 6.501681317356507
20.146196282792758 76.70874410502071 4.7635568758387725
22.00104984363612 78.27016405452848 5.004122491917592
59.483117825257686 51.80875440273242 61.29827060935744
61.24730943114729 52.29896358146136 61.077967565275614
63.77497958299313 51.23544186777612 61.312913064404704
64.03963324163574 50.00553376731228 63.409751619195994
17.940735671777965 42.05176946774643 7.06209834683964
17.02201802503521 43.80963786161119 5.521053442801997
18.595099439987568 45.043244664294924 3.8996375263784357
20.057336201881736 44.09299335160071 2.315466736703011
19.177863822158304 72.41286867802843 8.69494129096667
19.284701421444527 72.7753911477598 6.217434103537624
17.63752301172693 73.8777240485067 4.60083629982851
15.379081505808948 73.9137374050048 4.29374933524763
22.261614527838557 62.50870968840091 20.842454841500196
24.759890119942074 61.96813255526298 20.239986154038426
25.265466665004524 60.377862334469974 22.784695725337063
24.44052759873939 60.896814629890045 24.751480769220862
65.94974825402323 50.56541343140226 59.12305734802925
65.66778873578738 52.902670850823 59.62758074374749
67.63989311441215 54.52469900816817 60.32127771251908
70.26776642480922 53.43237549466353 60.43838680476208
21.189011290521314 73.66132666999984 10.728146740233822
22.420056865442504 74.74543690819125 9.194238449690996
22.436736064405984 73.66071071673925 6.663964017553861
21.89834585137689 71.42304582869237 6.082285481765526
28.411168888473465 61.749327071431786 27.85555485107572
26.905703542061374 60.674793407711064 26.862916815286468
27.103735742366258 58.69522889785074 24.974222572023002
28.658068966997657 58.47077831389911 23.26051555462952
25.53302618497113 49.51364536355438 22.777410138566268
24.64588994998372 50.6285278984561 21.082896508382092
23.253273367432758 52.95159069220546 21.464119438067595
22.65339414396023 53.85481493824107 23.61902173148855
19.34051608096645 60.316926099082025 21.78153441913569
20.63057059723788 61.43088999081435 22.923563382222788
20.653463931220823 62.519074152910385 25.403345800593396
18.859944046774228 62.95527220338638 26.96256538799136
5.8907363635742405 44.915871043274684 27.883617183831696
5.001666325420413 44.223248182440365 26.346821090299485
2.9143765930357657 44.649428259797666 25.024039570226563
1.1957930248227298 46.57995405250227 25.68168727146877
21.135004030467986 57.80477665788108 25.907866376954743
21.579642642894523 59.36586954581422 24.39781057757826
22.305567320881824 58.89276304069574 21.768176722189622
23.04745062704219 56.99494642074586 20.99925841488723
5.685187302727625 49.470105785874196 31.46442121017548
7.517318456133246 48.18249611944474 29.56537404245208
5.931605548714425 47.771131895148486 27.39075235663441
3.5186676682308278 48.41543820848289 27.28798797066746
24.482720714711878 57.531176146614406 16.026084839624247
24.577890529447842 57.27154027102755 18.117306571986276
24.00268018479792 59.46874066251027 19.740361891607485
21.830591022349573 60.4373089948107 19.27655739838578
3.0312860709382194 71.8183101346377 26.68604131273998
2.3479521046608025 70.10455463339208 25.34637889159566
83.18824398148269 63.3797976240513 43.085257877726605
82.52291580287122 61.38030355417345 41.68887910653151
84.26752053938755 59.9547647449008 40.300341448713844
45.6931315165614 81.50797718968381 6.457108406648089
44.15517506808065 83.73004128283938 5.71967578291618
44.019019978674166 84.62075860451007 3.8231599074432516
77.47929403728646 54.15027103518221 43.92806552512402
79.83389929768414 54.65763215184119 44.18557864179514
9.244219787736444 65.66321083016925 2.704249792503338
9.167389462244811 64.75997496954328 5.058528060119108
15.961996794357225 42.874383656317654 1.5331805414859767
18.007076396067756 42.77880438112242 0.6529165109618154
44.712535180310596 48.930422935694786 4.808724438654351
44.722517856949075 50.88003442193052 5.335828409164636
43.15215705087407 52.41192850935067 3.6891694039739833
12.89460876259426 72.12759343938804 1.0384951197833396
52.07347200448329 45.48897123421339 61.18331045294573
50.311688996251426 44.57413484461812 62.052896130415256
47.86919222525225 45.01039732656387 60.80469218567786
47.633561314052876 45.81418231503894 58.28847701616838
43.09653573248667 64.32929579477094 9.40533354042031
43.94643284662681 62.75961205310849 8.415520147076585
44.43010802385396 60.08796194642309 8.859936436998325
42.84628818512047 58.32048851622249 9.652640345918256
22.47457017126061 50.638444518279 8.805997911493002
21.39261115128004 51.11108561105987 6.710291417736276
19.89064484320821 49.69085317149277 5.709150388964266
19.792060902565996 47.091319954620396 5.198716520703419
42.87024934068581 59.42418693174664 4.358639470269401
43.2511651491081 61.858154206797714 6.044995615619487
38.708219799650806 50.85328407808068 8.315220389124255
40.154637735712534 48.74334594751642 7.10443786460259
41.11860616566449 50.31503174062669 4.9667923059495305
40.290375017873345 52.46565782648215 4.316487104611006
20.612973665910584 46.803962591106796 1.7083044280095419
23.625114497172046 46.95047655017597 2.594483377557934
39.375562201866785 55.48856463630911 1.7843573790823541
40.75390040912549 56.8586229868152 2.446591085558267
42.92246616885502 56.45783599034331 3.2485483156685944
22.166051023965913 55.42947064389969 5.284354040692952
20.36509884751891 55.40437056745905 6.372630003953131
19.573272831814297 54.31131792976675 8.75416063864364
21.377590759198807 53.20614098568537 10.333380568118509
24.019876332570835 50.13269150628492 0.46404728932032147
23.374375361293005 49.833777398605655 2.850747341037628
23.182001255631604 52.73148518703928 4.094393513591174
23.91505816718891 54.529705134520526 3.006819591837839
38.62630695226974 66.20522906532773 0.3557331134989975
40.39770152371609 65.6589731671376 2.2313375150703463
41.18258385367882 63.18746183398365 2.5260368064193637
40.40048392334764 61.18165219957386 1.2187985623390938
20.493810686356746 79.57216697858429 0.3778472775163587
21.815837842338215 80.58378617448878 2.3058925965830936
20.771542719874354 80.69985310787143 4.639312762801542
18.375298090641888 80.62079104832931 5.250075003249079
27.78005227583136 53.262319384779644 61.519721165760416
29.8266610522368 54.23667917555617 60.07492386192515
28.960789390644454 56.29995999319558 59.43420299818712
41.03997414713889 42.33864631375848 57.649824144202945
41.42474622609641 41.34137536217489 59.39800868119965
40.95013169023193 41.747543485093594 61.62900212353376
38.99938940809935 42.88615693465627 62.64979833544183
44.67477734444798 50.64787411429022 62.85663148628382
46.45106388906075 48.9947604257196 64.24288527407919
47.686846054860354 47.55326088489255 62.26311402517721
47.32852960659641 47.91465034674719 60.050105563501276
41.87544169031217 41.9770657393742 20.075190691695614
39.84667206480776 41.402128497424094 21.30237458275059
40.722498942347485 41.83110379276636 23.872031278514125
42.31389249172408 43.79278674049253 24.775008551194045
35.04601212541952 51.69147391496714 42.74049287973104
33.87720477587292 51.39280163484932 44.58426350321511
33.77491879007773 48.96927987483523 46.16793702793598
34.38631773716435 46.660016888648926 45.170753138353824
38.06930809124042 57.63187896913648 40.937053613986436
38.40443300398105 55.653494885945044 41.38025248012204
37.230066627511825 54.84337722067905 43.64502365172448
35.20537640189506 54.447181532901844 44.10605744867042
69.77584470198165 75.94149691041207 45.67458038227496
69.71966684567116 74.32805402153744 43.82893764634447
67.6206609378202 72.90258479356032 44.094858829283375
65.91822263221049 73.32862433614632 45.879942304830145
45.9977665989572 53.19379051670314 45.11980346920774
43.9343227438174 52.20100480696514 44.152380356012706
43.03246167126163 52.991401953497906 41.43679426129819
44.0366185255419 54.71172002425832 40.26159057934171
55.89238293561371 42.33330556458144 43.68926219498037
57.15314344356595 44.147471465390865 44.48842335932271
58.17613540698594 45.88578933615803 42.82145912273808
57.487567048244635 46.93961355309936 40.8203727065671
46.17838342498165 61.058401784587694 42.723899989776044
44.797976385901606 59.79494528016546 43.72765263790394
44.27609270873162 57.601827716224 42.26899719599076
44.596436304085955 57.58909157552584 39.61800807334109
65.80097999836492 74.88664758094659 42.862182493090614
64.6695554877847 75.62195035469621 44.48168659721715
69.28204907146558 58.13166606711656 59.74010740413596
69.38432586978807 56.34329001538532 61.53765539330896
8.264415568782022 62.53113446011048 8.679830791439606
33.56450301799459 51.47589757028989 47.36083496204253
35.56567531687492 50.80960284428792 46.79672594355065
37.64842404023991 51.909732701232166 46.113819495121476
38.15299836485502 54.33357551704903 45.95179625884109
29.326262487634988 53.02522641182686 63.846312406549664
64.59474830374187 67.5671580892006 43.60692571353489
65.11746967929183 68.94904757563027 45.24784221304766
67.5110179467226 70.33306958331166 45.27708582529185
69.32349705148759 70.05042288240075 44.63216930931565
64.90824647500226 59.669560216010666 56.535353617651644
64.19201165827079 57.84543989488192 57.27281231660865
66.35129321214094 55.83475042791479 58.35608158035785
68.54869634513756 56.23225694425816 58.14471289001807
42.34970405821453 44.67759079740688 68.27153799120047
44.2500395920006 45.41948828484719 66.69491886177559
45.53718775953502 47.126762173075676 66.45898216658105
68.99054324913799 49.86481639056058 61.98488253358935
66.56549502983079 51.29968242851319 62.111655102225654
66.92946349324797 53.75849957572674 63.08254538756429
64.99588656142163 54.37172155046365 64.97401734906835
64.1334069927202 55.62593334769938 63.4109445694214
65.59572251235697 57.67896009948652 61.95956477405229
67.95326344375609 58.39948261983617 62.76953548622084
60.06843859543912 56.50112100818199 61.56845239558105
61.543466424625734 58.00240889911961 60.57086362088263
63.67655953169975 56.699621236319516 59.526944267546334
63.823143095452636 54.48638664708091 58.47822347628954
42.256010661114416 39.14419097576907 61.325290280912135
43.947364027485236 40.399592053404774 62.8296053852902
43.29054129697198 40.65536959458539 65.65582501271496
45.32008820905542 49.285406755165944 57.54497271736605
44.86823971405639 47.57065854196319 58.72984416317758
42.46586364539629 45.89193173235358 59.091110924598134
40.93738660899447 45.319574519375266 57.357710138939396
60.15105595454427 62.23961441067836 61.333808164818414
61.7199487447245 60.55721203505072 59.930573548365004
61.111547413124754 59.63450570985226 57.44900263757354
59.23994898373619 52.10403138085374 26.156449877504432
59.818429976601394 54.20085737442607 26.80116739373844
60.47453746138984 55.21597028718159 29.225940276014526
60.83122830594047 54.55488958288928 31.095781621489344
58.62788856786511 58.93380228771173 31.53448353298455
59.285551866756286 57.19885966391549 30.949943840607855
57.821097230780246 55.91831250439687 29.240790513867605
56.70335547544854 53.98610181024122 29.69523812499239
64.44456522617493 57.08358323742763 24.81015814812067
64.43186813768897 55.67540610539855 26.820015497656577
62.825272639952644 53.46353001758002 26.53720729549337
61.72422852891261 53.0058018054814 24.33612858793951
58.97691645482912 60.65827446299522 29.43464213830992
59.78232962249792 60.56872297015563 27.17144642546413
61.35804716767737 58.48064137524246 26.470413288164547
62.37782092227337 56.80053498243372 28.17131278103317
75.65782871550829 55.03218319654088 38.47686825625043
74.75464806693084 53.535232182663734 40.81357716417847
77.10953450163433 54.050302672195535 41.483267446128934
78.99368530169895 52.73592604891139 40.844059484144
61.599124056724705 56.97713655581168 24.279721397031835
59.97181282497648 55.20768641274815 23.35652488840528
57.58958399336738 55.30013797829366 24.37284963031796
56.026527017698044 56.84375954426335 24.164642915046823
41.39766360016713 50.53302296962455 44.19899071381248
39.71346546911309 51.52756493174139 44.39046952763599
37.6320056117527 52.441519602772736 42.54863745713721
37.779202800372445 52.41548883703182 40.570597907877776
43.40240234007832 64.44746517779075 4.079011052234781
43.366400405732946 64.47413016261662 6.4004968989661135
41.45218131738968 65.41829563686977 7.475413344757314
39.80537628568312 67.45374182202781 6.753082932066495
56.119238826750276 36.35371033655817 40.10429090680107
58.276089600032805 37.174924299658265 40.80491273298609
57.996252610620026 39.66339304822771 41.511478784894166
56.356738640617365 41.55103152866034 40.73270145873289
11.147992351139477 70.23179071527758 3.778045467374657
9.790379742202195 69.60653975759463 1.405456637220615
80.88177806337332 60.24048530020309 43.20603532413711
56.79470874633771 36.05113807738995 46.063241227219436
57.98720886334631 36.61392342858924 43.53053400583752
58.5301658682663 39.459497562845804 44.06079000515637
57.67501946072219 40.97670231038192 45.47357481824548
66.88300330194147 44.95636616348618 44.81601603561494
64.45695606987485 43.86739078869332 44.830550134210874
64.51966968497376 41.954047493933544 43.16677785345105
66.05205833244567 40.405087329289145 42.57058576620271
61.2438473503003 36.10267072775457 40.46670511536175
60.75497094323649 38.433969356399444 40.36475313400327
61.97323340455202 40.708214847924935 40.05195236348139
64.47836952151026 41.2220979866182 40.21543601435108
39.07387482536847 32.53519305754671 46.40933787804449
38.13898519039146 31.12137005552697 45.02282312258131
38.568616699526665 28.36138635819916 45.12898989267192
38.66178394204041 28.29128326069832 47.68202914696293
13.274024372960726 46.103742914683814 36.843330203306124
15.122604200966867 45.90246701180937 38.209186359768324
16.444624781584718 43.590074288471584 38.82167495597335
15.358482753621557 41.31962174106078 38.169453020046824
51.68496760786838 47.30906630492902 68.64348379526184
49.13962811409266 48.59043144183143 68.28398143138705
48.321767507711 48.379690559153374 65.79783366775608
49.54857363384537 48.23874695363463 63.90318584467024
37.69930124590902 36.60074370400018 2.2443292562478163
36.58493445112079 34.57868676688556 2.797928065481394
36.93186479758519 32.37697578596633 2.6391690484337653
17.20172289169829 39.23624959605374 40.691414310701276
18.846412824094255 40.89810577288673 41.27834613547336
20.036010986007355 42.48976685820309 39.91813913571785
19.123574443659994 42.999248030435616 37.429932695894585
47.43634401019709 39.47288473102278 62.79403624866765
46.287789391725276 39.91737137022441 64.79265947070864
46.250538614808534 42.10769101499609 65.8848566072674
47.649137274090066 44.16185849645879 65.4880846959602
15.71925913341522 24.499376644821456 13.530553410970684
14.899179178441665 25.928417541394513 15.171768471596287
16.206269473508662 25.86046427568463 17.61801313555641
17.245989939803113 24.651355729010966 18.768585375395435
22.417514778615594 42.04342864223198 41.500768619317064
21.04237502204906 41.552531594392946 43.136404801349755
21.26680359899278 42.66783777029702 45.53612894808739
22.96030268703497 44.41894599330063 46.29931144541507
15.313125277265351 26.91047477493499 25.50067051324832
17.470838351698983 27.27631479843159 25.026789976771063
18.864414994486623 27.153588977923768 22.64551606963128
17.438377439435204 28.359808887339064 21.100897239077327
37.8944045292501 41.70790594694882 26.274926462424894
39.14131803684602 43.555823086447845 26.097177594042055
41.63805994491174 43.83944404878103 27.16121181201929
42.985887344446375 42.24405937168103 28.700666403655337
15.502281883649589 26.58447018142828 12.06829551965003
17.667794663867795 26.527110327575553 13.347257416599607
19.457673609965095 24.79353989064908 12.69987487903171
18.787481749399515 22.979444930278138 11.398807374786667
17.560893088784123 30.230745844796107 18.656132388183195
17.556119409758125 28.24029475619077 18.112957518157245
18.864188617481574 27.68023708840559 15.855567755486764
19.623489491846627 28.923376038638168 14.22829431276268
46.53558931545366 37.125086532303165 27.284197920750675
44.67658636405065 38.48938548920959 26.6179037232781
44.41850206444743 41.26846928587226 26.828085993023787
46.29616203863742 42.759471635292535 27.412649111179597
41.59167804823015 22.48614518188703 43.02454319863785
40.57176252900115 20.332326554695726 43.60630992421832
38.11909485581563 20.64055056867355 44.87696229673278
36.97589957536018 21.86880029957616 46.03115110222188
19.41705523108874 25.44155981049734 20.135686720033355
19.85586119186867 27.029856902597576 18.285318907109712
20.39668986137299 29.37470666678598 19.32610056330025
21.702178218962406 30.10035795969392 21.29098940075884
46.94852328729373 38.151294054919 22.3852580167486
46.35931592237862 38.87552969641722 24.452536174684113
48.23393959565451 40.45543186529676 25.627704104986666
50.78910115095343 40.88166919000657 24.45123436038011
28.780059235587196 28.555310902739933 43.558092962760306
30.725586317363394 27.81885620746808 44.38494343558224
31.673671490000906 25.42177524314335 43.100778641461964
30.802193538180084 23.78149866755354 42.154014472571774
38.88752149597334 36.639381423131425 46.61273554673571
37.573874996947026 34.97970848142331 47.34058371553334
36.33513145159645 33.37537721996551 45.77323537905445
35.81540267880467 33.210731390371954 43.39326536756136
40.58915954353367 28.480126594282535 40.1415885709202
40.89910100274979 27.446366647461932 42.488473753486055
39.61112349611556 25.06990524208025 43.090868503170036
38.9655088663394 23.34312266491703 41.63000263823409
41.284685774390624 45.25896892591601 61.66297155764797
41.50717342397158 44.565967597483095 64.041729141734
44.329284333874476 44.10814264972848 64.3222791131791
46.126769074414796 44.73555446847996 62.982225055109794
15.04175394596897 49.461530279043785 45.21169269913603
17.128148016278885 48.97304332465144 44.031691541885095
18.284435505731413 46.509468403835655 45.11926283375124
18.201064775214903 45.483108323739216 46.672366956565725
38.382153255157476 28.83551447981956 0.6501748229076098
39.67617675837526 26.741611801347393 0.35820345188044833
35.690596990307256 24.44852733280909 4.064578028274507
37.61854088756551 25.087582790616466 2.6900528539899664
38.862833031495285 27.166977955953907 3.296914769619514
38.91855201799515 28.52602908807503 5.483765942267482
33.5291311190246 33.814458300180355 7.069612969631785
33.65541793511075 32.357306329146894 5.2662990353338195
34.127750603389494 33.395545652404 3.0652716083957166
33.59927730998838 34.85594255533724 1.7867103505373794
57.509287849666705 30.563496890681225 19.746242564247474
58.248979038630175 29.801877228577787 17.92566984802539
41.99447600163897 28.262812890979497 5.016811235873161
42.71237656569327 28.020666341481856 3.31105450529562
17.000602888444075 29.11334912632181 27.147156148048193
18.829085482596977 29.94290886309069 27.14860895757467
20.17284488295216 30.035669030956456 24.966507301889603
19.325352973586618 30.130539143051806 22.5038130338265
66.87135046545616 31.464516453711468 26.634227870576943
42.03075807871837 18.05467100908976 24.790856400433906
68.97318031205212 29.245145844630986 27.588942653530935
47.88455100208192 20.130759170259452 18.168621173771793
45.949346569618726 20.36008959924986 18.794189871750255
43.778694897132645 21.575428745541544 18.235543633262978
43.35304196535599 23.327123398914324 16.910810472785588
40.73382663757776 22.569175130865716 17.01081189531524
39.78546230491141 20.57952511723775 16.324767802876178
38.20932913080998 19.090600180961804 17.395657990473264
36.713828168779564 19.339819553793763 19.22085744724478
55.138731713451435 27.25699380844595 17.546278520866615
57.06869766093013 27.39622896095703 18.696888413059074
59.72648241633006 26.46111876427126 18.50838158737023
49.04877525844826 43.01561334707163 23.935486645961184
47.377116577227156 43.0558568827093 25.147381461650664
44.95051707039837 43.58398339247226 24.51709069516026
44.25264137686186 45.18670613198114 23.20542918263766
0.6324989063975653 53.559843510450335 22.014915890958854
3.215035475148583 54.26114822274266 21.587456035901656
7.250347309298101 48.854028910890804 25.427485329405453
5.068918162924679 49.850962187277204 24.566913538008915
3.6968265373090667 47.6064028954276 23.735387406519052
4.765163312872359 45.47580120080523 23.060931492896973
1.152240241105861 46.3757528048684 22.97828165835923
2.7160527923973237 45.71733738527747 21.305495244178967
21.366639682321953 48.29209373173525 47.98295747672623
20.863147730291324 46.70361671717392 46.313101030793746
21.39207386769414 46.57484395221394 43.651995994300286
21.735901695899067 48.32373283715501 41.89654205534926
37.74582294306901 42.703469429692106 23.37223378137756
37.281666175378625 41.17710020141548 21.95473498408905
36.91882884396768 38.64781637448028 22.576914162274328
36.115873183707215 37.96466969980815 25.237855542574405
67.98806824906096 32.66998892379313 60.850686153677366
66.63911776296933 30.691549708292307 60.88860033887183
65.32783414283307 29.84855699077513 63.05981627239063
64.82737147380988 30.5792004232189 64.90922722508391
19.313335725675945 56.43932715153597 4.11016364506679
19.0582566948634 56.1437751566804 1.8231268144978328
21.50704485930216 55.20317086204492 1.566379428705049
23.722899094495318 56.35534245532317 1.1240343518706553
57.871807393439866 28.826030132421007 67.11509788070853
59.11366308409028 31.30130113568646 67.66922095210339
57.80810022551405 33.34506880984652 66.97170478450903
21.961006271858647 21.1256602595421 3.7286766188047067
21.02032841966123 19.882487227000826 2.4022249584000215
21.775667643673906 52.275649866152506 0.3318112524821815
20.993632250882484 50.86275175489518 2.2099007183663115
19.048690602148415 49.12776953973181 2.067448272478792
24.74721046967447 34.33107300474966 24.54923180380877
23.792620806666093 32.81679556301355 25.798063115105336
20.925379489875475 32.39350523765971 25.79774493645999
19.463200896917044 33.776140281043006 24.803734818092625
56.87552955123659 29.51971681236892 63.677747831548054
58.89006703566896 30.021546446111312 64.72221799398912
61.2847583694917 30.859604295378798 64.02011354070353
62.12701823764396 31.346534381209608 62.00786130509235
20.309284674423765 46.20055760002335 10.322432302451567
19.59557126066261 46.499701485681584 8.189035777911272
17.415317673057462 46.15045986928959 6.925182419337591
15.093831309927142 45.965374108113124 7.981034054518741
24.815303708527185 26.22762884344133 26.07499289349927
23.5105273750853 26.627598563313985 24.02132348243674
20.683285422924325 26.601072583688964 24.391068613842258
19.59531415640891 25.812218188326817 26.33163388982137
21.847218872558305 28.82064629567609 32.49115646840857
22.408537302097777 27.43671502914852 30.735635783392507
20.69166812451242 27.237867342560246 28.52046666878061
18.38260064133059 27.302914283136612 28.38560942636435
23.75812886380419 31.699321493591146 21.06554549172407
24.00858949837623 31.896071359248197 23.232810766547278
24.895211194986494 30.026650425539906 25.038108479195003
25.68902252615704 28.35748050076592 24.841931203570017
28.9699557585728 29.924344310528497 28.99533930617355
26.992385864453837 29.550458250781663 26.975865821101493
26.63794469675305 31.970265840284988 25.601479802171855
28.09812616782443 34.102191053064885 25.805812188044612
10.451620181281159 42.89486271457772 24.42976321347654
8.027479604952527 43.71624257883861 24.038129888695572
7.42129710403291 45.88545305878678 25.364959766700938
8.576210474630729 47.13733586428265 26.716208357822175
45.94005245633305 53.018784927451755 6.240820578772454
44.57752438257694 54.056926145631 5.388445811262663
43.29669287860497 56.550590704533654 5.89342929492608
44.43603818889817 58.58138180983119 6.488549797472779
79.96728925063158 22.860207760239085 37.02586535133922
36.61876373971851 34.105708679884614 7.381637863553827
38.0000416607898 33.46635592319765 6.0142513175862184
37.548748847498686 30.960576972056106 4.781757482358951
36.14739697044602 29.435150511270173 5.283327280501717
63.49043419694997 23.55115983565991 61.639934074817845
61.92653709270186 24.350730605102193 63.43298549502817
34.92623903116195 36.63663599811244 7.302832643215031
35.77821822459491 36.182824510468386 5.290811467295422
38.079050518429845 36.07116693283628 5.079124419581927
39.36686890670161 37.264137701778 4.210911329467758
44.01966608059366 23.179357475683542 5.134131746906164
43.28406500354313 25.650163498461254 5.38298565770033
41.324720132930516 25.857768671238084 3.472587955924805
40.44302473957834 24.479200681270616 1.8190219076699188
35.62237500693654 31.34105010901649 0.2358521625167381
33.36653059962634 31.81228404330981 0.9852987297494136
35.13542117611671 37.17650691933103 2.2616069696146273
36.92229213901695 39.198514511539926 2.80258902244459
21.00001510475735 50.846413769945364 11.581163739044076
20.687876930537293 49.11881345221789 10.277096294998076
18.692108209274675 48.8255276535403 8.593613260652578
16.420438546066627 49.1757222531618 8.78571209189389
44.1908379086877 43.11561912384173 69.63746909758261
46.29357720874429 42.48182690041586 68.83301823650802
59.799781986688636 21.000860923637962 41.96995635712434
60.681093058878346 21.25247482162214 44.00998007253431
63.3997519533871 19.988513880679278 44.356711696428334
64.5229065092166 19.147046554090032 42.43163795316988
45.21228700579014 45.02828140661818 71.1760453412008
45.927786629467434 46.92794743758792 70.37133856187388
47.798322772898516 46.46041175005399 68.43117684018523
49.73425747204946 45.651351056476365 68.36397752414679
61.578928729391635 25.19264011744795 60.5266588751098
61.363386362512045 26.828224185845272 62.01756984377975
59.2928077397339 27.499641110556595 63.93525226777918
57.14974002154053 26.89570682214347 63.90993608987532
62.5057056219076 29.956202893857316 24.51817216651892
64.66059113424204 29.539571089019994 25.10697257511729
40.21578731248857 44.521905141244666 66.23454351968034
41.973139219874334 47.41724299209321 25.4862938661876
44.22548665068557 47.130863766352995 25.33611148596308
45.34511822301762 45.42618396246992 26.59608520727957
44.80051117308824 44.329553227016305 29.04105014009803
58.29200244048687 55.19886640683974 64.00645516775369
59.88912830295359 54.15022183829421 62.63358191745264
62.29081439496728 53.27347030793815 63.35838168852293
63.3434871170816 52.235977874118966 65.14428239371018
35.49580965779519 19.333281125789643 38.49623929627428
35.73770062422741 19.40095646244839 40.44072575606648
38.190013346645785 20.3000548800197 41.69270972361277
40.18639592074064 20.95125326356143 40.6037084009638
62.510896322955 42.564291837943244 46.3948454866193
60.53210471808707 41.46879210467381 45.03972725655997
59.73894518949185 43.04389517909619 43.00971344605141
60.96500921643049 45.075668668255304 42.30644378971238
31.90603958317646 23.13277731343125 39.06986989141492
32.51369045092875 24.986059326849382 39.953735044528855
35.16431727898996 25.284858205643555 41.36128952528396
36.33216065903056 23.308120849429965 41.976218585675
55.83633193685603 18.43633142629272 39.92352569231007
58.69156395523698 18.731362154786222 40.923527503482966
60.504003491278176 17.55447850217588 39.736032121379424
33.25826221301285 27.02398549314854 45.85068025659823
34.99138698900405 27.394992201325334 44.18074978713524
36.83807869121082 25.914555501586488 43.42191084530493
63.955648266451355 40.325979132313385 45.91017691403322
62.71362962210176 40.03549657183031 43.83400889987426
61.01171163019322 38.478511704013066 42.97881900382833
60.543118200058395 36.383550144219825 43.2497808638575
2.4606790439231356 32.951481424971576 12.550054536556686
64.11554695778514 27.595892142430092 64.7030539805541
64.9763342684238 25.702459239209613 63.32017430382715
31.380390363040632 30.223333053932105 44.32642143055335
33.669425666046294 29.948296248468495 43.55764083615351
33.96304981833754 28.002058715106468 41.703370419630254
32.48902814143036 27.69655033431514 39.84287263172612
64.1800896332559 45.67472527702427 37.90596559213267
63.571141149528614 43.96739834210515 39.16950042997449
63.61235007374658 44.33060624890926 41.82952144052068
64.70664292402134 46.02523395605601 43.03059447593803
67.1474376896249 35.53575218471569 60.58159495968634
65.5113809359232 33.995102029243064 61.424469541593176
64.58615501505803 32.10755985470216 59.98234954144882
64.39280137739074 31.71890718132396 57.73263257184214
60.8518978754753 26.685063983464683 66.36015360361084
61.49543783388397 28.47280231261791 65.0897813942471
55.775431593897046 21.51324650305928 45.94216636942949
54.74381170433096 20.04066769620628 44.44730245453313
55.768801857387274 19.66897844598195 42.349144895299005
56.78772748179772 21.208761940319178 40.54720886280727
63.16618324864301 36.10570552699818 63.19999193495519
63.0731553001313 34.116347063009854 62.83098947133215
62.79480428559513 32.65591465186487 64.97277952847158
61.321301179831785 32.94489857794159 66.88606663614428
2.4622129627216385 28.861491452876386 13.51692737721519
0.9634919197648993 30.634493631876932 12.541524954112413
45.024587986437325 44.30629784522291 57.65655496302194
43.65493932328714 43.18346384548137 58.60477512953885
44.86195061228835 42.83898676655372 61.071359934427036
47.30286644997872 42.08682894773648 61.37528975041271
35.15216687307383 28.016056114438182 39.27816417701494
36.94728514310438 27.26904884782092 40.37257881481388
38.15692641566429 29.002221119251683 42.31883979242945
37.817904084618995 31.630788887951383 42.3814593109964
7.580334749235043 66.74020354440626 5.911382778690596
8.837167736018769 68.23306577985501 4.310734777362634
79.59562182480525 58.04018930195216 45.888737461089335
78.2385701746582 59.91960377780572 46.37272750783166
53.91942633632118 26.753425927684567 20.611765096144584
56.22683192349038 25.98764193200294 20.926183071359404
58.288848964579635 27.921681152383677 21.37394220968876
58.018407662653985 30.016066566603367 22.387408147304765
67.86341805545601 26.400088337400796 26.92679053228935
65.73641317801263 26.88735400812021 25.527952414167018
64.64209204385116 25.602130956848026 23.85198696735013
42.15445606360494 23.207485712556608 19.39209945616371
40.98697916983146 21.189544714681716 20.089475232089427
42.22266739499049 19.40327546769803 21.48384936895385
43.71026143278281 19.30493150952466 23.03099465355461
79.25007790292536 29.77700299334661 39.75866166779417
80.84738564006403 29.120930375611096 38.36607850909806
78.99680773975348 25.011712266268713 38.52105377596237
63.46883123700739 21.531675953304305 47.10703172316515
62.002693465356714 21.371115233777324 48.5035482631797
59.38816128241844 21.413555851021453 47.800917055367286
58.73431863066008 22.359259680996 45.53621640268215
83.28486253935534 81.23759393833481 42.2932441164144
54.79355454209046 17.1400018613889 43.64331241412048
16.548935276781933 51.0279248590443 6.75458856862489
18.79281300066368 52.23793566550501 6.9947560341888275
19.94605270048713 53.160631903559704 4.756150004526231
19.116495374728466 53.226168685430224 2.501792375799882
59.42332609611374 18.78107245213082 46.6302255224686
58.377555623087545 18.93893657322849 44.53300051573099
57.728917573884814 17.625183449356054 43.01725476122899
61.491942166396825 45.78691738872501 38.578780845266174
59.502267704648155 45.312156205522605 40.088156952572
58.66727421315638 42.549982374697265 40.32974156522232
59.43955226589863 40.68066208279487 39.00707264719479
36.482959979834774 73.38802303612734 24.013414657344352
38.554294784665316 72.59298193859176 24.46946777785329
39.53576472744361 73.1098878920475 27.273524451408512
39.0769289655511 74.59158072013449 28.611076887953637
35.836615272695084 20.05380760026141 43.408202090534765
35.07091599847806 22.511611415183168 44.16813041275883
32.82907654494016 23.210849480800455 44.130025302188926
37.314794670992384 32.69673300432054 48.22886974576577
37.56935851618291 30.7674924710993 47.68139245467207
35.43023803559161 29.25955643181551 46.37841642617454
33.319170125095 29.473002760249983 46.5157465885603
46.01106957717257 74.32114113330789 29.785802252441332
45.27318340045302 75.12943349469 28.097351559492896
42.50073254640789 76.32318511925972 27.871031720253832
41.08497296569773 76.01541160703177 30.159894005317454
43.93944314883741 18.440597172312344 18.01342829329643
41.96454913767424 19.283954471270498 17.793657158213037
24.855088258276833 80.77390573777494 22.54207540274012
34.39489941633993 18.82088653012264 20.332531226744432
43.22624206718148 82.86833318927138 11.278232264534903
44.86276962728018 84.23347150539124 10.553374792537769
47.54085708582861 83.83992125564458 10.004387261467247
48.3892358137017 81.39632246766209 9.562511702206637
62.48863605540015 31.212863253993504 29.456267243227913
61.002855660049605 29.94557524186391 28.093472097153747
61.88225542255641 28.44683058291267 26.599086626699098
63.11971799176583 26.57029866171858 26.723006675647554
41.25914242821223 84.63230250359493 3.878309631354545
50.28101296402921 73.24948783998312 27.766444938924497
48.18207329200972 73.87338292208007 27.00350975576005
45.98320755841222 72.22518692153308 27.010367606042184
45.91413736020746 70.1358435609146 26.940207090408
39.56287111657558 67.17218289438132 23.56767428781847
38.52362179090575 69.53687194735747 23.889172955833754
39.494930530005625 70.6539482553176 25.822156447746664
40.17355566121892 69.74568086182035 28.064096157982213
46.191625451788745 71.43857564776584 24.117507461793423
44.405134830614514 70.20151521559633 23.167735849462144
41.950063173540656 70.84482760214183 24.66405834230859
