53.78881023733928 82.83637090186777 46.864862529203585
53.56849314672033 81.7835943279098 44.5064251931013
52.32496897930591 80.26341555676848 43.656714471615885
37.762546000016776 18.019234309620135 65.41364015443867
35.97817464914172 18.595601827404185 66.72325078954267
34.78914988849765 20.805120111879116 66.32252979930387
35.11678604489915 22.594208994910645 65.03994169028309
32.79390725817844 41.149748518026136 52.4595882321917
33.550384621114716 42.504268273846705 53.816228249693886
35.48757810497668 44.019716437061696 53.519555544439456
36.42090564408713 44.65147435012731 51.12280438649879
75.09750852418932 77.66483844954385 34.11690829970837
77.45701011134524 76.79864402866734 33.33045287907068
77.51638859439112 77.73125932454636 30.62334754471815
75.85830042143245 77.65660230890394 29.01969666914745
72.9168938687719 73.87137750347445 23.401944159427938
73.9769416752087 75.89141447632913 22.88107996648989
75.95257887047944 76.70203773680191 24.782174709107718
76.21545091151759 76.16593926254296 26.907897924319855
28.641818157007446 35.11225056903522 66.72575251387302
27.762475999620833 36.999072556889686 67.52265344199184
34.153701808690954 32.98970861329744 69.98380266113648
32.492755305796514 34.132023511705285 68.2003183015503
37.718486627069964 34.78972438126386 10.498566690202248
37.79012600736918 32.758284577570905 10.64180272513657
36.00815273919876 31.179021660598266 9.114279996482036
33.938617393940866 32.28656836686334 8.070189871293778
41.29088581821468 11.780645352725692 57.582447577924114
41.32907664056548 10.375177676974804 55.81251316998006
43.223621971384304 8.888913699239206 55.328393366328235
45.654856394202916 9.187326472122269 56.2045274725983
57.33553181769175 60.48111551353809 14.321791297430723
56.76093695290341 58.2503183083533 14.824694844912512
54.08897338852695 58.11239848414686 15.280735546508096
52.34319455091468 59.55169862162672 14.816177984605638
42.28685880567094 10.693694853696476 59.82351087012772
43.309967560271794 8.602474217352682 59.77377772380254
42.73466202709854 6.992569871751086 57.93842827165136
40.37482690248711 7.851378138201346 56.50326263604802
40.899951490914944 6.128799121285305 54.09087517177076
42.64112771263159 5.696702041038985 52.767190117844514
44.976040801681535 5.653289097840519 54.283467855720865
45.02613065489272 5.0459811484073525 56.6905536656672
47.65887323129476 7.893699752031362 59.96380391303082
45.56956499274898 9.267050912483386 59.09369063900704
44.87533722860856 11.654455594966777 59.32318931741168
23.11598888783837 23.133946174258014 41.839946382377015
25.110549213791717 21.734406330147795 41.74368093061888
26.398195667993296 20.98149667550441 44.24684549043783
26.00728158029163 21.786944169115127 46.184626166991855
16.15303716963235 21.158252456013404 51.102376528517176
17.082684504225824 21.85547599035245 49.14296376962825
20.040323857077805 22.032537355818903 49.48474572009111
20.871017889623207 21.555967734800674 52.1136077332511
39.43811189550005 38.444554233500114 59.5106843128173
38.72382358742696 40.54916756694919 59.39970335543363
39.6810649788978 42.93910377405498 59.902102013992504
41.909790292509264 43.91945472724656 59.91929380693273
22.176801805124263 20.070589431046745 34.4238692255781
23.52730263842657 18.122142940647667 35.30027238886861
24.00987814829227 18.407831657716937 38.1374643798464
23.10047089076388 20.842520970912325 39.21133553730042
33.06155574869051 44.121217122038445 56.86329108414653
35.46828106052227 43.888320051565316 56.20851430147604
37.26019978321895 42.868130530298814 57.68147369604984
36.555778129699426 42.557996953402515 60.4738165999728
26.61836074599771 15.7489537808409 39.48914561198749
26.878785944966232 17.721030707736272 40.627107538247806
24.809135801879844 19.10023057540685 42.11113865106757
22.65434137142026 18.67759172410899 41.57313493598589
44.390266585252625 40.89981611534273 51.33783381286517
43.250006727734146 40.399307211039236 53.26572035578286
40.363377401743435 41.06013057277994 53.21126236624478
39.53966236113459 42.29614730872217 51.10661283641341
43.64927844329827 43.463052404693485 52.532975523206986
42.685950035072935 42.85240228569027 54.60800336362876
42.969466208944354 43.37615549767027 57.084777226114994
44.62976588943121 44.52571138139239 58.30166327133981
27.28247207186226 17.71039072529661 37.55421076641846
26.238253698715713 15.873102868009989 36.7418212835929
78.45991438154125 74.59098745003644 26.433287251421522
78.33014791171522 75.1317433878372 28.698172963232903
80.45240295644209 75.8671170765786 29.891491253343347
36.56771178281377 16.07187455257602 67.95193923166812
26.919246795219014 2.880230188680468 15.594366253538935
24.385882334536035 2.243969577451064 16.246075878436088
38.39023903805712 29.06510696644704 39.29717189761486
9.31643115444836 34.28196470548981 57.19473981841297
10.028725079903031 32.31044618426145 58.463217880307496
38.35257830009165 30.341225449312113 12.015851577311459
37.726931831151994 28.75215429662121 10.10092128823673
35.33928121517854 27.743734010500113 10.179940395199127
33.56823826589764 27.644165016708044 12.146143836490847
36.11238268188473 34.528446411364854 6.8253880905301285
34.6487278865158 33.580583270656895 5.442268646679144
35.963689551333296 33.15603230102074 2.7833503130539414
37.27249597356804 34.122218867782024 1.799366593509409
31.46302531482273 29.988572391669877 5.696669096235347
31.456855566296348 31.539792394453272 7.5139218979178075
21.963862749921653 2.9817064922577012 23.337332885157586
22.815765370032985 1.858461211736874 22.019398070576617
71.71254673548508 55.86442606921663 33.49585372468993
72.86275322014698 54.26210843661873 32.62369469852535
72.97925165190568 51.87876696827371 33.897612092151505
71.1153459264663 51.260447583388014 35.723775566009536
6.555205809561195 31.393273162519215 34.08950136126245
38.55652966297425 11.092491642287927 52.77084117032536
40.027430153764556 9.563717967371009 53.77207624086985
42.02450123994443 8.172085105295297 52.26070092962699
42.063113127875894 8.06494234579039 49.86201982095707
19.491387279807416 51.68215316458169 48.459667081619024
18.41727327244672 50.37035419721383 46.91729091424679
17.456712576981683 51.35906950458258 44.89352628613831
18.078893649465858 53.87204333982749 44.2579602509647
43.994953621487916 5.6599435338356185 60.01994401459496
46.33408180301064 5.42981096681403 59.1945107495522
59.861831952589704 34.45429517634658 51.44801720341735
58.779467917810024 32.43731545513804 51.248106102861314
57.87379046094575 30.724715834670164 52.13097592863184
79.13989436429812 70.2053946763808 32.56367528468403
80.01043788970541 71.78871758233815 31.37146825412905
81.34947295494626 73.84237590991296 31.43555706934828
79.91218471103491 75.28660401158918 33.446046097311594
45.25902701125399 7.6621557554191835 52.47753328636671
44.0463735402723 10.146020734720901 52.25697284193436
71.48710460718293 20.88577359169629 29.77223873185017
69.37560059745161 21.739097075524384 30.804476012024402
70.52493246328426 23.605985378186897 32.4495193651293
72.72636031317967 23.512548578555105 33.46130978994508
38.556374444388 81.303974265601 71.85719752919653
39.87578889615223 80.86140020724233 73.16592623593424
74.94371861498533 22.97943958464637 24.806254101524754
75.3397193509689 25.10668824341418 25.18888980778123
73.87448391785352 33.55274939060057 31.638092251141025
74.42361448598533 31.340961421311604 31.89185077770675
75.13981318413475 29.387936324398343 30.048131384412148
77.67961410883062 29.929644232406464 29.461719018030763
29.30644465382929 84.36714032643052 52.14154063459956
23.188820211481065 74.88532170742128 68.02320724066847
21.270745216293538 75.88865894482936 67.77732042815732
54.640307621768684 19.195940384863977 17.81653510722001
55.35761639997764 21.155135111403627 18.730060825357956
55.31636662556755 40.15913171039641 18.11834479178076
56.23793493372996 38.86576707567745 19.243606185201973
71.29674366412391 32.83341652667197 35.419111131335896
72.46106438914867 32.07308393530979 33.652822641666006
71.96418334859638 29.880014680057535 32.28273023886257
69.89835002280844 28.47870458022069 32.811446874999405
39.33570044676708 45.28263351716249 36.639234984767626
37.9515115340206 46.11469303198698 38.099799508990465
35.58261823451408 46.01515692065922 37.97501168465041
34.094388102282565 44.042053937131726 37.49518313518438
51.09466168077493 35.37052515031585 14.265383291882053
49.32168655178981 36.625389250730194 14.940633685282204
49.618307131586064 38.915745700169786 15.528640996474556
70.72963772880728 48.09863943669698 19.794093872760723
61.96245598175127 40.31602543439083 13.168473336445526
60.41209500247045 40.24794449846513 12.11205468169581
58.0206441056809 40.041430739542534 13.402560053457828
57.742301338465886 38.84718183730876 15.734678371764078
47.45954399280866 1.3333403372540509 53.194682097030345
47.404978840008326 3.721170117103105 52.64924194084555
49.85913240110332 4.6060776740297555 52.71862496593307
51.69115176619069 4.173365536387574 54.591252125009746
53.56259325822043 45.76116182828361 11.036633926236815
53.381597711609515 43.14282102081683 11.790133451802438
50.99786484646666 41.91415275336115 11.895469995088492
58.24342043147618 40.10002895139862 18.146561479942534
58.66246992599328 41.399026383990815 16.63319423744749
37.46550482742726 64.69901918279011 35.14924420284983
35.63325102636055 66.08002532406822 34.50420429561323
35.99141720303816 68.91023545820862 34.26301252782808
37.534629833234085 70.26737434853082 35.525383000223385
36.779736029211314 70.77801830621281 53.13504416870209
36.41284008263985 69.24750513898579 54.362764250153276
36.94917374201751 66.58855296354636 54.35848218626465
37.6821699255998 65.10447843223886 52.37306614163573
7.6388308312267865 46.569913126323286 60.92950268914427
40.1504087047593 71.71536397788124 58.23116047871358
37.94683252877253 71.35387198910126 57.739529382793144
37.47890488859696 68.3370355933972 58.03698408323801
38.263772182360036 66.90441531645368 56.626661579354156
29.847476071281168 71.8363753754259 34.56770810277553
31.7581841130374 72.11230705416561 33.30833928763377
33.06736175575355 69.84049846350914 32.330211683779524
32.31358560280479 67.73913925883038 32.395233388947894
33.58155378548802 64.27618081241332 55.13291704984163
33.999193294798225 65.97082223313065 56.57720709139958
36.14390373197881 65.50216244329228 58.150721096119184
36.64155174441972 63.79941249789435 59.39777595851919
15.036739296707069 52.860695843863326 40.69480815990533
15.184198947261953 53.53188575633494 43.01337678657596
15.026771282075059 55.92386636857628 44.03012078317643
13.079955594599165 57.38916548258232 43.20000077848114
17.343245605618215 84.88122861242671 23.962143247108774
35.54527831925506 72.73278610423823 57.62251329836927
35.734184339304925 71.24306752894844 56.00598849825669
34.8840010501819 69.14722209832874 56.86963651566807
32.87256937691765 68.48928018318749 57.554315950477545
66.14020782092064 21.399132819941613 30.797843768314475
67.02961306640724 22.101547626693183 32.6570688656537
68.0884143959415 24.33572022243215 33.49679627841505
68.43959838324822 26.276192251228494 31.84622044862187
12.265269827598058 52.130716206035515 40.49814746821337
13.03233398008564 51.98185422173253 43.061299181986044
12.023389830976873 52.76691381667692 44.99326791505732
11.213763789875141 51.03216146970921 45.6184102657528
30.238306589956476 84.85764896910072 49.47460169228548
33.24878073282162 84.16364833337605 55.80336321880526
23.60202420183573 71.67532617734636 74.08389976782814
23.837034208638475 73.44955808295916 72.48591351414744
22.436000428465185 73.53022611690412 70.21224534307129
21.339816266388574 71.80521834378123 68.71210999707746
4.963843493756048 73.53798214641054 44.16704703270258
7.067574911614861 74.64529921646704 43.802168930126435
9.197230214378049 73.72145208481287 44.68980777414937
9.569674390566997 72.49829518289788 47.06447419318739
35.2065225026587 84.45349480022301 46.084683499937604
33.12545730498238 84.38342933936333 49.52832676935671
32.25680438745465 81.98960692057888 50.51351810589499
21.9694688262662 79.95638999801633 36.404777751964104
20.176034195415625 79.29008843756267 36.47719143293126
18.666133273876856 79.01095916248576 38.333082523294884
18.173778087584328 80.4124280599178 40.29165909155245
37.79254394424168 84.86030593035736 47.06080299690878
13.210763209784563 76.12386155729435 38.29285701650561
12.860078467104067 78.5524673039029 38.86876171141229
14.944990203992074 80.06510395757907 38.70259998359455
16.625645829970935 80.06059457640096 36.90507396072844
9.96082627260368 72.97450899044175 42.45365079820967
12.147803903441487 73.48529226411036 41.16732165000414
12.533663556308024 76.28183760973634 41.25080898366924
11.290664125862305 77.86325750978376 41.982162420593085
55.02883955903062 44.221413007541415 26.41842264030457
56.899980576155656 44.66404667607407 26.301371399993826
58.87236789424905 43.57045285077741 27.35012175825673
59.27824074138824 42.38833740608967 29.31701033569785
31.898991051053468 49.369182079961845 30.07044192214793
31.062478148973643 47.74831188611838 31.13036937875289
32.59426327625412 45.98049535902395 32.109160864084416
35.022815014677214 45.69302028764287 31.6645612426244
71.83644282281176 45.84547003365316 20.40355239459865
31.043061319465245 50.494099298333225 32.48019636599398
31.238061128302427 49.74142090351376 34.84864826903363
29.997316040729174 47.60918484994084 35.75155572039045
28.069861745713364 46.470198129629956 34.813780022278074
73.76232568853628 30.010129651772672 35.30529273675886
75.95578418068695 30.517293881361937 34.219907413415434
16.095331493451646 60.142692360335715 16.75767641441424
14.983711209188172 58.999029781777104 18.3109000634963
15.809357783931251 58.91874114638736 20.297833824265613
18.013910217485396 57.841314103197874 21.202434419976523
26.843622168962504 44.46847642431276 36.44293723513814
26.00097386454564 46.4327907957172 36.60515869580153
27.355251044914226 48.098874230669686 37.423883534058376
28.708865132456367 48.33396938037116 39.58163807683371
41.29719009752135 63.088659994281244 53.29252676417106
39.71450901777269 64.45542185210064 53.67460473618684
38.32893814995212 64.0355428933874 56.18045698097076
39.43976003540612 63.18562754991021 58.31553333236263
12.741098239126137 42.606535875981216 31.88680199631294
21.263821962787933 61.3390183451856 21.61828512341662
19.646123417828683 59.67542217607825 22.237302926723267
19.73650651361785 58.568349435469386 24.821073442111235
21.583997910883113 59.0097744379803 26.47759066299942
35.63494289142586 63.264495573141595 33.70355706483413
33.65463155818778 63.061669358594735 32.18299209841893
32.08003648099874 64.69633807679988 32.97293931723491
31.91476583117224 65.8927856828081 35.27789913868957
19.326386906782886 74.04980511230892 2.0451362219998206
19.542071486575853 56.42789169386349 26.202607961258654
17.110193093821405 57.00013728526851 24.733586716219875
15.572795048248313 58.386081185901084 26.438507580139564
16.01592939172548 58.977094096414895 28.67280601437549
41.99607147374398 71.46750447757957 30.72173978247751
39.787916671879145 71.09927035829404 31.352751348537232
38.52780183887091 69.25857781932216 31.559163139560585
39.2895950198699 67.01020392326767 31.368189849177053
32.5163931989709 71.6581192466815 35.84879524575245
34.10757781107001 70.69550658306655 34.80394900604071
35.975089798433544 71.81327627889907 33.18559014524787
36.07395538350679 74.31901627087431 32.688817790125384
29.00822983994688 71.43808833612239 38.037434701061855
27.877891271198582 69.401456376819 36.755678457891584
30.125135117885005 68.56129404029122 35.41831624221964
32.53660471514148 68.33212759298594 36.190548195558456
7.2582399012147025 63.44588877329814 20.904392666956266
7.868911209272909 60.729459625155044 21.441139947656875
9.586123991959495 60.62946217957429 23.364558233529852
10.513791371468493 62.280846840769065 24.41439371895101
18.0941463532951 58.07743482139562 47.486562951637204
17.758401497640076 55.69589024670118 46.206465777388104
17.791556977788414 53.80219374718961 48.61732170775902
18.049946597856792 54.80867442192911 50.80068311140706
46.572749751507814 16.77493172593285 19.065763309029293
48.30695477741616 16.392810424268355 20.31037427914549
50.58523122716372 17.589123700989987 20.0630879891472
51.20602513365859 19.52812122042591 19.235505671826562
35.376238786881686 61.28962001931091 78.7495629766632
34.93877875942977 63.00384820605989 80.70792654952113
33.60034809915915 62.28181260261764 82.5418203186473
39.00303004547935 65.43179307223261 80.88381565378688
37.28476611759139 64.130123542134 81.54485190462314
37.45241148092508 61.69473750210937 81.78058869693129
73.80318194136065 20.07202282710365 28.239142001934063
74.14653341574767 22.022967432799874 28.876481422501183
76.01437128010365 23.849188152518845 28.548597169458503
77.9224454333239 23.471004887191448 26.734430847758905
58.91599220332987 32.934381272396806 40.212512418729986
59.85533111722533 34.32038128225206 41.818991030828656
59.15296283856177 33.60784359151802 44.19991327722893
58.051716927143076 31.34762192920157 44.561173251954976
35.91697269196803 59.364298247209966 81.25151382987492
35.297177722051416 58.92033667692836 83.08963439132617
38.36908128489034 78.15914347775585 75.85065572050787
38.68073472978487 80.18545726679235 75.44121334256857
72.21435696676042 22.8640707489335 26.419237074904053
70.19883988034908 23.16682111570074 27.844412457457405
77.27285926557826 56.11603450083727 30.65307126580635
76.68109142145197 53.88644244504329 31.21666821414451
76.10845750090571 53.59774593051816 34.2186589682188
74.5308395789157 55.36764393828743 34.88884092999291
77.73487514412093 30.690679454577875 26.15568093670599
75.47267632029416 29.622571908022163 25.94880496653541
75.48770011785821 27.910452572351986 27.86935994486429
77.1615654861742 26.387362971738387 28.476114675205483
67.66196332569997 28.897675519623768 34.86399005754012
67.82361824439043 31.664415950858864 35.51508643627891
69.61794230706158 31.715858660057865 37.42899801106835
70.38144594404973 29.960967694017338 38.47434473761796
74.18533316029765 25.235219014462196 35.13710777386744
73.57834934522258 27.53074874233833 35.13717350375663
70.90551105113408 28.216208777764223 35.29662224934451
69.07787342805005 26.657109617778467 35.678570933021206
57.98736467709061 47.11586422745297 25.729979416185913
60.2608038995161 46.105955177647886 26.36323546151805
61.335627608249965 44.34738966424411 24.468088916488334
73.45544680646485 27.396553962196517 26.38150987658063
72.95662267665321 25.338031122091472 26.71808282936194
72.24394600334998 24.719683332949376 29.092103522456693
71.559087315146 25.71055380302054 31.062820363017778
42.336295446011896 26.977524428093048 40.99744104189095
37.563436803048056 25.20753162206874 42.7021478303797
41.43654978256508 45.86485977365298 57.058929735927194
40.29018517915526 43.97490647692494 56.84669453827393
39.886309257436565 43.33493937832521 54.3646110013628
39.53347230762699 44.68009325352018 52.43011001166276
58.766785751862486 62.45943634673445 49.71495765163069
57.93197352618336 61.40930811637815 48.16635744462658
56.179816997953935 61.58070313539937 47.121603397150075
55.04597917850535 62.709836667222774 45.305694458768855
31.411743840778694 42.14605978792382 58.93528458770913
33.244134606204796 41.41580925776232 58.67085282340731
34.477822656677716 40.866119445963 56.53014259992161
33.55410973923814 39.76375562794136 54.49791314813823
38.56741639851169 69.45979515984746 63.209274726357556
37.44393319123281 68.69955247368837 61.672891457978466
36.115488910578996 70.0792950956225 60.01103640876863
35.46815662110807 72.5788574568189 60.36515417265518
55.46834962182011 52.95653621571048 61.51006861674301
37.78707498885782 38.04814758605421 57.18115902448381
37.064857687037836 40.2845004352292 56.78821731623311
37.41635817556139 42.262169109495304 55.00227973384313
37.44269848003064 42.16588311133563 52.503362106487934
31.952667782473537 67.32632282589813 59.937071163016526
33.683397417346434 68.41727621041827 60.16193012649251
35.82217119748283 66.86991879478174 60.54410749291129
35.92703712506971 64.67215369645392 61.93203800444462
38.213387026678745 63.75513501304466 63.66776810922705
39.789100679466436 64.78620215781467 64.6500172634343
40.532072030396726 66.9439787061088 62.91956268576747
39.69594162530954 66.80357781555512 60.26944548361168
42.169914538011675 68.86239244089236 64.35801058171302
40.912574505161786 70.71594576127652 63.50125334499537
40.25806574978988 70.25372189210164 60.8727715535043
41.96007523195803 68.47946765440804 59.592663820966635
40.047793157321536 60.7049244932323 53.885337702957
38.444245013478266 60.53926795895581 55.210615448748776
36.27063182498281 62.01359592621158 55.10583035387135
35.511026348088215 63.26899034322093 53.385821084352145
50.515697791551645 80.39168090069208 70.93384467876258
51.54300059467735 79.78406594713286 69.14680971738687
58.05560388347357 81.50226881960552 62.593225376579255
56.80528927707592 82.8681375487512 63.368780385970766
57.5011430048576 84.42300080560577 65.56097729363945
33.17540907490878 65.54706889513426 49.89993991570974
33.74658621162336 64.74963503423251 51.831428484144794
34.21989027808043 66.4797255509404 53.927166191100476
32.8071076474119 68.52060681849488 54.60197089038489
65.03476171291557 37.00237293917032 46.79225536369325
64.99138340065753 34.39443104340584 46.45728398806552
24.817760550180832 20.463779451068 51.223431936712466
25.70212277328747 20.445825862155232 49.25947181456895
23.6023615253449 21.15995378085525 47.408616723494134
21.878128170271523 22.49257243722819 47.61883084608648
59.21645409570952 30.72003540328268 49.2608405101109
58.96031200277883 31.775409743227172 47.58201601306554
60.052235955421146 33.900697540843375 46.84333952322039
62.23471174729024 34.46266472845966 47.10208952342327
61.94215938448557 39.146227085436294 44.23650621884747
60.26942350649564 38.01809611034978 44.974124412248806
58.63164331550375 36.46240186205405 43.92280735591157
57.8543859494115 36.29356366610473 41.566939942160054
51.95164773166215 27.57145448712722 53.29096342696197
52.92803687499115 28.450703854567365 51.03696326679018
54.09593905020761 31.11687955295979 51.67270288016449
55.10365695491605 31.542566365468396 53.88655760415193
33.573149614485075 50.11594292708758 32.28617818175661
36.16613058109874 49.113045974142906 32.44149595057202
35.89665243657822 47.10242687848557 34.092888287562324
34.33875951320599 46.83904687036761 35.92457616982429
54.44330816541657 55.38682270110486 45.810910504374974
52.92814918256582 56.40553896978175 44.31968513000764
51.62216877824811 58.55531718587235 45.36827149378213
51.564990767977854 59.39085314573372 47.55885090092595
39.22153995411993 47.174123183761516 40.42876201871982
36.701855576474586 47.2738228611842 40.57583172869849
35.928951048934216 49.224115868616686 38.558830955324
37.448403064873936 50.55411633151633 37.45654114321024
31.891509279912277 42.789328804177394 38.47299617791189
29.952947878945267 44.731087593636836 38.73814717311178
31.004892983543566 47.282586710391534 39.030653241444654
33.40898754844424 47.81474038427079 39.33743789436908
49.911089359999714 59.73486111164023 43.82757954534735
50.639095640021026 61.52447641582907 42.905867973854434
52.200947199874506 63.24605579105319 44.78109107330425
52.06794849152618 62.740548351012535 47.0879880957972
29.286482864234163 42.99639928106992 36.60305523911682
30.186159798433174 44.77514081937121 35.954827568656675
32.443448473614446 45.44034071708145 34.94860554646847
34.4145044457169 43.3063712818699 34.825707823695204
56.22037205851238 60.17167135894785 50.4040787395951
54.937229588802204 58.503572649146314 49.35445305854945
55.618547042835715 57.485875004244335 47.06916688220761
58.52117647638268 57.505396058603445 46.33891725893407
58.63265526521431 56.14082630460551 43.328112374333884
56.71248756717418 56.76675431925227 43.573379632533374
54.5359523144124 55.942057611246504 42.11050928819439
54.04641133128797 54.35815252336617 40.81938063869323
33.78536944981695 50.30691523908204 40.07134488615587
33.15571192321419 50.638009589190496 37.936991107853956
30.520434278926665 50.615204631342536 37.34154498983662
28.69984578149565 51.226288470263405 38.280249196661835
36.470752122261345 41.36783102368022 62.83915474790346
34.426118485082746 40.718370675235555 60.87875166429971
35.557956198289965 38.68267057340365 59.544179714418966
36.973434776235365 37.01100208594788 60.2596675393756
59.96178057613456 42.70309465995718 14.035162505251305
58.212664092676256 43.01043327904596 14.411771265369685
56.10772398020792 43.62457898487626 13.309521121534942
55.740296948271265 44.48792750381153 10.58033489819353
51.45265090688157 36.39162278761035 11.53428790238582
50.79842615147817 38.09890596621968 12.833088893508023
49.138876554554116 39.95830069307546 12.986862677681469
47.39659053985738 40.703249494003614 11.546662412324245
34.29536692770635 29.627210452359854 1.4485964512842537
36.01947775213054 30.05018277460224 0.724811134512682
56.25470502812041 38.24494776392176 11.871605658820883
54.2562359683354 37.924337737674286 12.19026899806914
53.03945831355661 39.27639175265899 14.176985319932594
53.64031635270523 41.37330533499397 14.988988595966008
39.95152293681787 28.619786929925233 1.8960971806625475
40.030035217336774 30.098794516791497 4.132122662222959
39.13928654783398 32.428363979373366 3.1854239987521744
40.03507074194747 33.775559456276156 1.6688445630613429
40.72146023935007 47.62070718120861 32.77770396573225
38.536060981583006 48.073848339457356 33.70842266493648
38.1688448488599 47.61456818504563 35.918857898556666
40.2393551992414 48.01956274672259 37.78391131693848
15.841763370183367 75.34805983856347 38.632253576416176
14.646996544498194 73.81191587954565 37.9539967893429
13.815723782442321 72.16017281711777 39.303768781994776
15.229605325081316 71.21437951768628 41.74041071557106
14.448649217700828 83.33613388514338 41.087638623280625
15.941436489894334 82.15834683874603 39.80715626451448
17.070442649488573 82.5877381694333 37.216649981627334
8.925414385426112 79.69052167321168 41.35194465497772
10.171691483519313 80.67520329559729 42.61115025554638
12.40484624413792 81.73224494950142 41.094306748392604
12.378342569958088 81.26964374891456 38.66058560457584
43.89830131312315 71.61792222180127 33.15832737895733
41.76897481025945 71.93957644891113 33.458135424949084
39.79010856832968 70.08438589544082 33.98578503914868
40.30426257532011 67.33187632809866 34.06780664364265
20.28189588450515 83.4893497197351 42.550801835097175
17.91267378559368 81.88193865091684 42.771481696443736
15.826121171558803 82.76188162170084 43.1539679144977
10.494306844877036 64.03199778945485 27.326716066138854
12.510138668808768 64.83466553767745 28.234502709585854
14.601394007856705 63.48278218854686 27.446841362162093
14.912387811085098 61.33497030094356 26.777545600447134
12.967492027556405 74.5852070579632 47.41962163824374
12.240465378182371 73.2454545808849 45.899792193060705
13.44578562650805 73.30681269024754 43.38067162673762
15.651374500240124 73.89272107326354 42.938227421751755
57.003731971206655 36.82740511781801 17.689251963935735
54.65655032245077 36.96235192855265 17.0630606873141
53.73764480696937 36.43967048308226 14.504459828426958
54.79158347534034 35.10117125399295 12.518497616125325
13.021646300734218 56.92464993243216 19.27548823022483
12.306985432334395 58.42166123810646 17.65578828386213
9.812824690744774 59.40279286973952 17.805751275890394
7.866268939480962 58.920487915047275 19.349324461563945
50.69496661051668 49.86126061162137 64.62437343190169
51.4931828928798 50.87117566530492 62.66963025714521
53.16468593957259 53.15738125439942 62.90021198255005
30.188896335148556 31.31397989816753 11.610459641692529
32.746308110242985 30.30748042432271 11.161984123658144
33.53958117588022 29.295596131454648 8.813416762500296
16.342846024227267 66.11087565417732 23.44514429691431
14.960988967531623 64.91315310486554 24.913511656718097
12.440282475974318 64.11212278493788 24.21573569973097
10.978731484428105 64.87989473821177 22.666736092932815
13.105617251020842 58.71782911535864 21.298384393611247
12.453932583514483 60.724977555923076 22.673592057213337
14.834663855077423 62.06328221875276 23.23866971946406
17.21780527592779 60.91771086828568 23.290447060597433
17.121174392982564 61.37934801460224 28.269545809755712
19.015357028206765 61.08046456751667 26.854157195413258
18.928429501227942 62.56173678580501 24.805164809183733
18.378405997072267 64.82214603036078 24.482641466538947
23.18016587317255 63.456456686682046 23.08496884911935
21.244045735397435 63.609518152921595 23.596043905742768
19.808189579788177 65.96635465550533 22.512231580496422
20.92105259465075 67.41786470723888 21.06157194356082
54.177620789616924 30.37111286715004 49.057309328007484
56.15857179308539 30.651839078980448 49.54358912179173
57.30034810505064 33.14200550670181 49.08531573729014
56.61148781860351 34.51333604669805 47.35619016137245
13.968667686037676 80.79928336508726 43.387919515984706
13.45168673962799 79.32040279070989 42.284285081474344
14.802072046754537 77.39624832407581 40.84781484077038
17.049881180892978 76.71888716461571 41.23499061328184
19.888807345298623 67.702727838208 46.17166013524081
17.342956507277982 67.37066244468687 46.621368777253224
15.864233727200787 69.22734451982343 45.736585184348776
16.681274071889412 71.0372686601328 44.16565924809829
60.76011069045754 38.47891923189912 52.16126782956591
60.13094495966589 37.40197621512857 50.56476591341626
61.194362807745556 36.61491748106325 48.359785756569835
62.67143793425761 37.85587194904867 46.762181601367615
14.776900457133488 50.28643752732602 40.31470472587112
13.140976789336337 49.12012386854062 42.13941698547503
14.497895878710272 48.58384527600239 44.461445506674856
16.742260906793817 48.504729940813554 44.761631799226386
65.93195260964364 37.46824405808276 43.812542404771825
64.02797262637445 37.15144197583382 42.84270650326958
62.319906289712286 35.42857527286291 43.223252897885416
62.346871892149906 33.07651874493051 44.171287094802906
15.905278663679848 83.1439565034777 22.148714509630008
57.2865128609606 40.31494964543157 47.21163822390434
58.09940666314966 38.38381032175874 46.910537637592064
58.21852342272193 36.45496779949743 48.3411375111768
56.974159227769604 35.75485054206816 50.484329502661346
49.09690222774799 5.322689546306004 55.98257368175525
49.230751510142674 4.009987178053039 57.906020786422694
15.79192301420133 40.462718354185476 20.65131136781145
14.352385241104548 38.6364945007163 20.840559298519132
11.59996466590896 38.989999801884316 20.20260602484598
10.735782721660625 40.80243186237526 18.993846267811342
45.61477062082196 50.24044924699159 2.1683424741444672
46.2165429547767 48.944603242874805 4.12502907656048
56.70429194231372 63.45423204560572 1.3836275891203367
59.516890601005066 65.28943196059052 0.6578127511832426
60.83029662772461 67.15058019146824 1.3364335937791647
19.148248307087183 10.391828002085235 35.16107902689186
36.4819900825809 59.30363572100284 10.503478027986842
35.215072391203606 58.14939048501232 8.90629119441987
35.66439488881385 56.44491456259169 7.256656987379459
37.73585375199461 56.27003613263811 5.810723636140031
79.81005368643491 43.89489641256778 34.82670211058145
77.18370345495264 39.49815031834109 36.53494755537465
26.987911172685333 51.363279286310785 11.424012290030564
29.320651886242928 51.94521766450494 10.934645929591257
29.90972290716785 54.05819438345329 10.077428832994185
28.46719985064193 55.581898776902285 8.263914562769536
53.62974946976785 70.68411305911778 0.4065973597660347
16.320270205648356 14.065222140934344 35.47806112557268
17.590378059010085 12.568310956613812 36.67361849394578
25.420592281810787 55.428503558183415 11.523831430170826
27.306046872120355 56.769782923310004 10.681302245855369
29.83035850244213 56.46619624786435 11.537095663470275
30.88712922618934 56.205754218699624 13.805296179932757
36.612834042523964 32.76741672463554 18.122152685799872
34.550963277822376 30.820130559408568 18.1522557628519
53.56838674861686 38.39974744739387 23.532386427524806
53.935322153184686 40.56384651681155 24.023870180714926
52.928262190723196 42.27150031338703 25.857284475139664
54.76379195983288 41.64965731354899 20.53776829720739
56.456353802846515 41.30319520628168 22.024542437363447
56.57607131699424 42.99744959006327 24.283697896848498
61.28128620391914 37.80781553114242 27.589440527401337
0.4333143233397556 21.83668199667763 12.608501626120093
0.5607653282797529 19.55538455322926 12.030808755580876
0.9482980633937409 18.142367999134102 14.158209371264924
73.89180725286248 56.35222321401285 55.24125335421132
8.378453119122259 35.13714148695896 18.8997549942491
9.01308786006277 34.48466231248137 20.98853082999669
11.468247981087636 34.3471291187533 21.699430477875325
12.995948874288507 36.11475131973725 20.062308265595018
2.9218363267505914 17.72411414838929 9.873291716250028
3.70903020715697 16.124558322113735 11.981763557122886
4.455331828637358 17.027200032340502 14.258549289836145
6.990921973338406 13.440268846958846 24.357151491819547
7.013730740250636 13.20985070330619 22.17722645590299
6.431256670616471 14.82992520655575 20.762368974586526
7.601950262378131 16.15341801203805 19.750959033503932
14.166424936474673 39.83694314924686 27.053025264925726
14.250312448267735 39.02610757880095 24.74883415641253
14.319238450089166 40.06121784808811 23.15601509988295
15.06576368715367 42.74242472729476 22.788705223968662
15.344302968565348 35.17841510401431 19.92734044268912
17.174181466029204 35.68233537106561 22.09307341314289
15.724794775902097 36.59047214400882 24.081183123742814
13.581426613989334 36.09063940019266 24.84787764071729
14.213299190584847 13.092738345314093 34.18396416299098
61.824503588088824 26.776073687208907 50.107802555875175
62.126886567369475 21.540536316018272 49.803572628684
32.83251791390666 50.26718326251073 13.577230765811958
32.90930777438499 52.215658557134454 13.501091182276127
30.91492173683545 53.67695032328553 12.871066399859906
28.290524943084623 52.75958714108685 13.484393746192051
11.095506345794822 68.97576079030573 3.5452669879688377
12.025025485664306 69.5590126065311 1.8612229132748779
0.390650693174469 18.315003384953894 9.583439499778999
10.189314144005316 40.59052911970352 27.092567766101784
11.858661463471485 40.36892483313319 25.642982897082927
11.827997630588273 39.1929470597448 23.158058061783567
10.468318435477526 37.6491079121251 22.36081083758929
1.0411256150857233 50.805423003586576 12.439273424527583
61.834953424700274 43.350891014272186 68.08790876914377
1.4981329561960202 55.83397822237887 10.430455204539292
35.67747668769232 29.264990843306595 33.78299310853737
34.866647963041366 28.62181166275845 35.96478293986964
32.821818351985556 27.70607505156934 36.94165005378172
30.524359908574457 27.5128050676258 36.46147158256838
43.46327214058838 21.220281832682698 35.56973454526585
41.70030128863642 21.2036714879795 34.035071892697225
39.10984388897679 20.595823637283864 34.58946401771122
38.104580030872064 19.68054292782667 36.66077168973636
30.95211103224415 23.043560995313076 38.626664427410994
31.558539727281826 25.343414713861645 38.17574823362438
33.50350742979034 25.204574255436643 36.62862705196124
33.670763242321236 24.417064204592656 34.4560065721445
31.91605680429656 19.90827148930078 36.582555950485116
33.40053756656912 21.123867101273582 37.62396416266635
35.573955583347484 22.162241407321687 36.47293588080571
36.63411082404929 21.754656002235087 34.55311366855029
60.79611034886231 27.47861985778585 52.52110031439223
60.867749729161524 25.447180054092886 52.664336349326554
33.259292212454575 24.42675910143415 40.84193736237652
35.45435439357203 24.634814346117466 40.628938067149086
36.413063584226144 26.50486216175633 39.16710797595609
35.90816024034525 28.69873358300428 38.63360230626963
8.622780728913416 13.656043650515608 19.110719254047073
9.129906046122109 14.937716758700503 17.153538173955166
7.311459738428697 15.928230621185618 15.694617061051876
1.2556648568450048 19.33220855721402 23.63974337414266
2.610024487554801 19.21462834851576 21.899657374013326
4.366645766176623 16.87978619404526 21.842485101015523
4.846915472365119 15.365296932090608 24.307789616595375
4.338417889832521 13.372836234512611 22.437322427987503
3.338470864695296 14.610583652225253 20.942162178062095
3.364792003989603 14.009968195781997 18.26557794424853
3.329652563299261 12.480835114402298 17.185396794731655
0.6800980211424384 19.81884511530403 19.362124138661652
1.8053612803591461 17.405431522012982 20.15345163377614
0.6988446651120851 15.173540504346544 20.208642056810156
0.8302544790806043 14.567323741104108 17.73908098167383
2.9149333628947716 14.417971158516128 15.538808545898268
2.680568141479286 14.437034269505023 13.69725672948534
38.47117752936288 29.696146179238944 34.00296538581043
39.88444319388124 28.04292997413012 34.984069306686436
39.3937522607538 27.556700187395403 37.25161897799835
0.3520100373446946 47.96406225509356 13.133874652169403
60.39498145444917 36.074637296858995 68.3025105114902
58.58321783029396 37.97322271180516 69.10312068153837
56.21536417218352 40.7141804727235 70.38551020174793
61.99053502149155 44.04114052360644 64.83044181584927
60.21481862917094 43.37025591418047 65.92084149177235
55.1987392318331 35.39507680520823 63.35887918017493
55.72695036138686 37.44522431941514 64.36709688430693
56.31543864520583 38.39321224835287 66.68296381807033
55.9818094473943 37.060348826078304 69.02519974744506
3.785338214961007 21.00052153099733 16.226281805323925
2.18888358146079 19.42505299650474 17.118347237948537
2.927954904238008 17.410219521062793 17.657031767850004
5.2648033070101325 16.415812769237093 18.349867065699264
61.43020202188399 23.030120925834108 54.03838520150144
60.80455555294434 21.4410497731432 52.123454912426716
58.41690493697089 20.4326294870221 52.202474019389115
56.64586198769 20.333060493230025 54.168677460680826
0.6623358141098523 55.991435134340676 15.029688275191887
31.228632281381206 27.89764402983477 18.07610660155541
33.43006013127663 27.80420723020297 19.08789702637119
34.57818373595048 37.84440804224843 17.26467948756714
35.127314304082304 35.632620072959476 17.51843801413286
35.84351300223172 33.67959497604621 15.674718620838265
38.38331392692758 34.22130288405434 15.08830625445687
51.834703387908526 41.58197236978675 17.749641327688103
50.90514137779399 39.76810352788822 18.799052886031664
52.69244129350566 38.40731298349538 20.596827221621847
12.556936561586578 46.463285532407056 5.70420289371772
14.43367634162516 46.578273148910384 4.3422463731776935
16.020066443664497 44.45079036204428 3.7449320282068643
16.941634751826925 43.15742572732532 4.870193421628072
32.000443482220895 37.12507517831984 21.045698367762007
33.16476420724563 36.36474258695766 19.279409878092114
32.667883166693365 34.171673331705406 17.909317475288667
30.60204984090541 32.77036323186856 18.438034111425516
10.025386369886782 40.91704790237807 0.5672209217083116
10.322006949683026 43.207404351817665 1.1552282329006542
12.35391480824724 44.4198224389322 2.47997191595839
32.98753850763677 57.78645964226482 6.570726340265778
31.6995080333278 56.274737970279745 7.656097734903503
31.247779221934653 53.74459200210614 7.57747516082543
31.433337546904234 52.39029808834485 5.420681109186827
71.79316062331625 36.13434767994022 54.74383068473158
69.47726570838742 36.27907582463232 53.47907531236013
18.446001156562854 43.13884048895664 1.361265608190184
54.30968526310526 65.42219568124783 0.08582723646747119
58.541293036487275 68.26222088038135 1.4823972644468626
74.94803412602279 39.790444670496896 53.0094683938035
36.080508926461725 55.61049503628365 14.614421706381743
36.74018971056225 56.799053355293076 12.651210291334994
35.11119770998239 56.32351643507753 10.590772341375395
33.02534587991402 55.538656910473314 10.508613340765418
33.499962534558385 61.03369737083024 9.563410077349252
32.47408338219046 59.16584701496058 8.951591430137672
29.89598638596522 58.40151070998727 9.761320607049521
28.34045500197963 59.71111218719161 10.812511446478247
18.94712024957314 44.39168760304649 3.773148716368644
19.366169744090243 45.69068503563868 2.2597814738735855
17.63701726364215 48.21021488792589 2.2304298231620923
16.280648776871963 48.872809957332876 4.266186730699879
7.3650766125129 38.558432903726995 22.01984866632068
8.258324632816308 37.2655106083264 20.69039153364302
9.031402716890971 38.31978589378508 18.494976804563272
7.971764350188694 40.87531604524 17.744956595068164
27.733312884504212 26.393206278341047 18.28365610207981
28.79211421403847 28.62737887408002 19.12338351484116
29.143298201345196 30.567850902876362 17.472807685047986
9.433778861324981 42.20371231745385 21.307772726420794
11.485963389853259 42.797737316387696 21.685749510385886
12.228012585356339 42.95243956378216 24.17316741356724
10.843135221710686 43.42087345721654 26.32064369548215
32.540142640908726 50.13712868530102 6.030139631024754
32.39533881800723 51.35086673715757 7.9589591675292075
31.486625768935447 50.52615921888736 10.334982050574112
31.62661066045365 48.641937154884246 11.554068457999525
35.54853200741768 35.691630425852615 24.883594828527006
33.683730767472156 34.72120757325679 23.358021103011325
34.46602550663325 34.30178830342054 20.931879973184966
36.659483998783905 34.8089525330098 19.84649464984155
11.574689370507794 41.71023647307319 29.738718542524776
13.176193180980215 42.48863287621995 27.541635987533542
14.804901503597108 44.16404029333237 27.508155726501
17.992536572780228 74.1487921314684 0.49044010265292654
28.365663143796937 33.18933417127164 20.490577293966236
28.5273180624874 35.95607460250674 21.141673672705007
30.321642125158544 36.00751731170574 23.055585247494466
31.0851457621467 34.252626345665206 24.100931974044073
56.083763678299604 39.21390783042178 24.70020421346506
57.04244291671012 40.841562614699555 25.842718512720833
59.70088962680343 41.582788048457374 25.839987872602112
61.19785387888256 41.39344665730497 24.136922045687403
34.88903297839462 29.526877666110057 20.76369501029355
34.282049163319556 31.8224073939862 20.763760740182747
31.60921086923105 32.507867429412094 20.923209485770617
29.781573246147016 30.948768269426335 21.305158169447306
61.48076572515999 45.58860231046094 22.40433609093021
32.26278713324298 30.002212454668413 16.689407599443893
40.64047327218668 25.899251196902956 40.40582503690666
38.25801691667994 25.56432773829116 40.816762805472166
42.0128583859065 26.887355980473654 38.11767363698394
42.26065305031337 26.014723529862486 36.25423461670747
42.08296616528922 23.206625404748962 36.3698224185042
42.19298877250761 21.99472124988633 38.689003761842386
49.92598272422866 43.20992124822272 25.600945765109167
51.54357896138874 44.02448832527473 24.62909955295612
52.538310800025776 43.230495726977125 22.494282662954866
51.48581356703705 42.17042452803892 20.592182825038915
39.882097993768824 23.450917505695614 42.323546177812936
40.220948296844284 23.091370183658064 39.89968375488123
37.81447321680255 22.12374637496715 38.323180902867186
35.68971101677917 22.156809563904254 39.35223728533985
37.86704774910517 54.84036630534301 11.140005672724383
36.27126856512816 54.284554353197535 9.160946420999105
34.226572408648224 53.069134089209506 9.735271959642805
33.766060216608274 51.1114485073809 11.205069592381784
37.520490032482485 27.199389804609154 33.626173049076954
35.87295237938656 26.165614766910785 34.742916468838146
36.54959416250755 24.641895701497848 37.06334240595889
39.180786423886126 24.61661294175216 37.73537148707817
18.91636391077323 47.30209193069384 0.03835850179579411
70.47421426164972 33.392144970525614 53.569196036514235
14.344016170802181 45.66496398664185 0.6155758323921157
70.38156483069163 34.83954479281021 56.416349864468636
8.631634055578209 47.962061144255514 1.277031568879764
9.908183071493776 47.60559007722193 3.435465512462925
10.618012358595871 45.23123228374103 4.691256729275266
16.273549318485475 50.03869486439283 0.6081931080838088
12.799608236424882 48.06898556344065 0.23814577671785075
12.498957753741948 48.219263054620754 2.8472080666389306
22.441346715463187 71.57233177660196 1.807080810658378
20.45393247377153 71.23829355309746 2.07325406821739
18.374580539170434 71.66466354566165 0.21281632628122343
8.126346017358628 67.43307154857314 5.928918466133657
72.96803674580487 55.55276753194914 57.83737779653902
58.24282774229911 44.28447552221325 69.95033543529934
57.61183403216093 42.61154120117353 71.56573563895748
17.707431789303627 41.11906376946588 3.31583920036184
15.360250140547741 41.254010580200514 2.689647923740197
14.44134462506634 40.73132913473014 0.131047064853063
0.5510569686542415 49.18437935501164 10.022390133525477
60.97535099286343 38.73067232406744 67.06529775564987
59.04072066492648 39.32815157289004 66.53710962397719
57.56181744363446 39.4135377541669 64.16677837632668
1.2296795912870002 77.30026302702225 81.32525056749539
4.431240635780268 78.06693275086315 80.42984585993013
42.798264841651545 77.55344294176459 81.6610297532061
39.67426750845949 83.50812230366608 81.63482541505809
10.902122720881879 76.43909744212431 66.69029466312882
13.259206414231683 75.94240592352268 66.7057699942653
14.329722529324858 77.6329226212297 64.80723321049948
13.56465756271591 77.80958167504372 62.7274059162972
18.084198158515218 79.79859665185045 67.35835410193663
16.756051466597313 78.35644144444342 66.48559087360016
20.928250717671208 74.24410061330752 73.14592891167362
20.051225641634037 74.23608109276405 70.85947226524671
19.151934114520863 76.49662752165588 69.92862881857546
18.871091838296305 78.71774354656368 70.98009178213381
16.714596256751445 74.35878506634005 69.4340636205805
15.825001601655272 75.35514628029982 67.33410335128723
37.05408522798371 80.00687320809732 80.01859205219426
34.9425812182524 80.86019669192542 81.0508293323685
36.09191308408504 82.72708499458793 82.69587268547339
38.29334093398045 82.63364819495614 83.70766311028918
40.51069923578612 82.1005392010474 75.05260742186884
40.90669997176969 84.22778785981521 75.43524312812532
20.207288242569476 78.31704000126501 68.0628884275641
20.924597020778425 80.27623472780466 68.97641414570205
31.70718844172143 80.52023243634264 81.04419708865856
32.59659368720803 81.22264724309422 82.90342218599778
33.65539501674228 83.45681983883318 83.74314959875915
12.139730372308598 75.89603134233388 69.31211662937339
13.873935398216947 75.51391004066939 70.55672759948958
16.15221184796451 76.71022331739103 70.30944130949129
16.773005754459383 78.64922083682694 69.48185899217066
39.37016256216143 79.19312244350468 78.48549532227815
39.71351403654845 81.14406704920091 79.12283474284527
41.58135190090444 82.97028776891987 78.7949504898026
43.489426054124685 82.59210450359248 76.980784168103
37.78133758756121 81.98517036533454 76.66559039524815
35.765820501149875 82.28792073210177 78.0907657778015
38.523603297454 84.4591307384925 76.96443614970603
37.81092662415076 83.84078294935041 79.33845684280078
37.1260679359468 84.83165341942157 81.30917368336188
7.267281909437205 80.32477110438053 84.28142521304133
4.676824509777578 79.7169232536849 84.83581733805532
2.201091444850071 80.87575561863612 84.79946698889438
60.783472182091614 75.78599917161077 0.2512546583201005
74.0118345842378 82.81607781813605 28.519452542079822
78.4659909178968 80.40288219715895 30.7323043234483
78.59581637299807 76.2074602481513 24.511594803470274
80.22190356003938 76.73094769977389 26.141418512777708
79.38312994719668 78.62402316526216 27.905982040940096
76.91538147047653 79.98091657924147 27.728566383185637
81.37164607470349 78.63824254557906 30.355747236680305
81.05746004453867 80.90113566436813 30.791020690229995
67.80224741037506 81.94083994318369 5.804409626220142
68.18003839340548 80.1437882189958 4.561861058306314
68.2563758586117 77.8646865472015 6.093201819220311
66.91497550678105 77.49166505695928 8.26303420775436
