70.54350325243372 5.974898533021044 41.216578937755074
70.39394097318439 4.154176894211988 42.680102009858246
70.11042935316634 4.084147930008623 45.33309892261418
61.229050939721866 6.708488757915149 50.23946687446371
62.6042691082663 6.33310714240754 48.82588988543667
61.683638493477055 4.660452475756421 46.44568738424258
59.52590453696646 3.4364944747659476 46.66762503245763
66.90928427852283 4.410581732623521 40.80939930957907
65.00682207560612 6.340255522612565 41.07049557065722
63.09738302423249 5.073255207488921 42.5648715477543
62.41286309141479 2.5776772215143393 42.63935407627848
78.79002068646007 6.478115564507808 36.61119895448047
78.10154373091169 5.140554011760626 38.044725500237114
75.90836990852964 5.1629741293606015 38.464726259484735
74.30560119363525 6.558740605682386 39.19036654108799
68.88865765362942 1.1292590906751194 23.92751656028496
20.933826473756366 28.123724135211734 45.39645399808944
20.390406066435208 26.66543436354978 46.628010972326045
20.40110626002697 24.17954311613689 46.866026364853894
22.796459679323085 23.521191451065285 46.46368759552936
31.242726524178558 19.312406209811645 22.440924409846414
29.604886282594194 19.965889896325137 21.101516232256348
28.87334107334046 17.988843733628322 19.75511243552905
29.92199669737194 16.295783468510766 18.422883519108172
19.2087265511197 20.511785819652882 33.89768344476217
18.77619394366442 20.524804257655717 30.878763814199626
20.312099171899646 22.024552710882453 30.04422938900852
12.101624651073008 11.416371771057392 30.24965215433533
11.912844076134585 9.289871161289112 31.306091089014412
15.415334202335217 4.318536022146741 32.61701481439986
38.39937321476276 13.074169127509178 5.401901736065909
37.837532981444646 15.555490534722402 4.747577250834811
33.01580183888766 2.04479945177472 78.34815230840016
35.64612026885082 3.3110751364042845 78.92297035618945
35.24094373891886 4.830951672089492 81.01468985554453
33.268997169244834 5.120145481167459 82.30310192190639
27.490773416015294 12.032381408189135 23.691753674281056
27.724832493726673 13.92874952981546 22.59724701571534
28.825511357665643 15.885413690762293 22.575606004476096
30.1988117907716 17.206974762476136 24.29740302013913
25.349767631108648 11.785417744014891 22.461371283411342
25.228136195545165 13.828084760213128 21.666094130335843
24.58836157817802 16.070523912161672 22.8204257403155
23.160330898997685 16.394400109780296 24.850834752642307
27.304453925183168 0.6696606143656098 3.270795891664907
21.817333283448612 17.835322001448315 15.448681972401388
23.709873682669304 17.636638091901695 15.686854615875236
25.630451405413687 16.506015946830317 17.35637575711367
24.99193192313471 15.222257782744803 19.14176608610178
25.59190476757513 22.376396835117635 13.120650759000364
25.452105209063646 20.08225776571629 13.307876529108507
22.783191984058607 19.065874921316844 13.251429579388551
20.792142608695322 19.879699967773753 12.68177557171828
31.940841295121565 4.408367376991567 73.920179608733
31.956238326834214 5.934642705501241 75.67836050499928
31.66870810699677 5.261858055008191 78.02158313332032
30.442853112803814 3.3894931856137145 78.98508258817013
31.645178758902517 18.34760180161233 4.215949584542872
34.47742761666394 3.5318151663289195 84.7237638161695
37.74367661061423 10.835911958527767 3.889184090983046
27.336086978832974 15.437137926589676 15.091050685909998
26.305488903507715 17.448965500308567 14.757307753781383
26.918996750471674 19.366456430265064 16.42366498506374
28.920676697396654 19.854134761746938 17.643549268339193
13.809271185698494 10.79756594308471 32.635296016148814
35.08784707372081 0.08515899271986553 52.8094768584951
37.06533885905991 1.6019195470169785 52.89362051104386
37.936684269855924 3.3632023317707636 54.36111141685333
37.613799530627425 3.974524734201819 56.51382391598955
14.690067354118417 6.972183582178171 35.88771758790685
13.596865046968015 6.40138022697386 33.29578359621909
14.103483812692238 7.350709136749302 31.50197554940188
35.84818377773988 13.970906056986927 54.458522792727386
35.97114707306831 11.797044144570046 54.72486959460849
34.12992456456073 9.84421415438929 55.757513055184624
33.75742245579043 10.803328525405792 58.285134266511655
36.324704847020904 6.152216644692486 57.72623736354193
37.7276561864053 6.634436535900842 56.117849777233694
38.672811568937654 8.738734155245442 54.966286479148835
38.45318007075806 10.997878051114396 55.440649034056165
15.58685368888035 5.4138071839972675 28.138423911390618
14.322854028980368 5.00159992906982 30.068081411617502
34.24512047884191 6.139037316250601 73.58126927319559
33.881547263710196 3.890005974332356 75.62177018448381
34.3374803259572 5.013201825649703 77.66563567076183
26.61252277850804 11.79077158818401 83.2359714804531
27.577353993071682 10.056545835535516 81.8041297495154
30.20098021578914 9.77997899251634 81.57362932974203
31.987208311974832 11.036524730613351 82.84178176153017
30.93103964930242 23.176926429277263 66.54910479399369
29.383336062529963 7.646686804809389 83.31263346360635
30.476754572070167 6.819967880157177 81.51478271884014
19.272977115576722 20.001880403003774 14.790328819523609
20.192009056455753 19.467836921952753 16.843231228463857
22.32791460985893 19.872643336698832 17.45723708368809
23.876038652042567 21.35809243929775 17.551550365635897
17.228031130969946 22.771725307343132 5.997494679095927
12.912159834693467 3.497602023960092 58.25390504487119
14.746632163505359 5.319383190514385 58.46161770345635
16.88519052784309 5.658222149915534 56.72695223406318
16.577859420822406 5.309851230855667 63.554479525183126
14.76687814614338 4.440275992205862 62.7080160776319
13.554931173509184 5.784637744836643 60.81433163318578
13.779250617984829 7.98248169423518 60.168905146528886
19.05047002505687 13.02325948905027 57.923587993171154
17.697760145292158 12.44258121737632 59.430899848966405
16.57912583874576 10.412541154505464 60.398261477646805
16.69349657304876 8.177032097860167 59.9718363228643
10.287117665727035 5.189754918795418 57.824330683974594
11.538040711583955 7.436408842946489 57.773978858066215
11.316264007314636 9.560964798280553 59.0021287964549
25.68248155028091 8.730537870527229 80.50839580168612
26.54031855466816 6.737574836238957 80.13833310206029
29.020571917421567 6.501943960296788 79.29558173934082
30.380591559960937 7.768046342547557 77.95386266863378
32.002751829804374 9.220243667861878 79.60016834249035
33.63518709742511 7.697059024039588 79.52123759376008
11.499156036570943 4.327270847541339 54.38502493868197
12.009393369319525 6.329523588844332 55.37833665687032
10.025682748930961 8.35905312275383 55.006687968239206
8.099727244629204 8.090994213423933 53.7427529006156
26.959849680742334 8.734450424367102 84.14151158693585
26.599250548989538 7.399994673415613 82.68906765471158
15.575511516304577 19.90042045629373 5.555994945593337
27.2365724527436 10.143440198297156 21.562383167501316
29.020618751091806 11.668183040060631 21.620157853549475
29.158241382474404 13.896029447341748 19.832064785909694
27.70968097571788 14.031081162434818 17.72318538871909
36.83819381806836 10.482817429351133 52.27351182466658
35.54751737480996 9.050719490851058 53.630143163636745
36.24495411150683 6.524709367515238 53.81879217015394
37.547451561334356 5.204648230815103 52.45411091455921
33.63061857446208 7.5535535110195635 57.01506952221569
34.430826316969 5.81449018268426 56.07696132493545
33.61277196235281 5.002707587694555 53.364507726568284
32.00090088170304 6.150104631987267 52.05434016668226
10.778240025478727 14.19355815128073 55.922061234483714
10.071839844742126 13.256456661006172 57.948102425846265
8.850657955108753 10.725340259561657 57.700086290245466
7.7796615766370305 9.828985695111001 55.71442963834174
39.485536076024225 10.249323282591657 52.618131608389746
20.909994288056666 5.545918573515313 62.90497503355757
20.277734362492144 6.764970401787978 60.83638685603466
17.796705372579396 5.917551280210657 59.77515364650166
16.667336320180706 3.909955437592416 60.41375599613439
13.29929281423691 14.491451255383309 56.80815527511735
15.319851516075689 13.1105828423731 57.671469168365135
14.355846278558962 11.41250662524099 59.34219193925993
13.040588175452083 11.494958654420468 60.7915821140765
18.702766203639737 12.987160351751548 62.16838888289783
16.90035604170565 11.375198474996079 62.99699019879145
17.607080095593805 8.840872089539321 62.73054398804624
19.322490594108814 7.677026599647787 63.1127737813344
11.624331128733626 11.778450294514048 54.204224206682696
12.7338979917676 11.500493922623226 56.19716515060576
13.809701901177435 9.557912295770757 56.94226047371342
14.823551631442882 7.538483064280105 55.78975097658114
11.6405952492017 8.90014831217124 34.386938212290794
18.942796518506807 19.254426675104238 19.50693971410308
20.78772234312863 18.375879020014505 19.451741414868746
22.699884854036448 17.325409296510585 21.23756139410179
21.31866793641155 15.479961570455217 20.991955086105722
28.11641494049205 18.809951737937926 23.041926614921483
26.691610098936927 17.466048271529278 22.11766101726535
25.26102330341114 17.815571060789757 20.074828951038636
23.86159704695411 19.491174722528907 19.667609580328627
27.24673087997818 26.536881166640143 16.63599254817809
25.75524166401218 25.411715556243713 15.055031851420528
25.321773493547987 22.960408405321857 15.955397366419843
26.800593170237565 21.78155411665892 17.336719725749397
40.203430999536224 5.499691593017627 57.05022367093082
40.449964002479334 5.677697099481803 54.940030088135146
41.628980657279065 3.6718157770118793 53.29961114201299
42.369803595181246 1.5972158877016094 54.06386136460737
28.94507598978947 21.991538788162046 71.93437988156789
29.67127385251013 23.2527459109496 70.16055952496751
6.746915958576974 9.922378886218604 59.276120886613086
7.233114248091562 7.859042836868556 57.77257439379035
66.79018854667751 0.46203089877203724 20.10366367286626
39.56957867782761 3.2732839079243474 51.84273138742551
39.580278871419374 0.7873926605114504 52.08074677995337
41.97563229071548 0.1290409954398562 51.67840801062884
59.936375806429524 28.38795373231086 46.45750966355991
77.65264975459347 14.383637849683495 54.892140864852536
81.95807492936645 14.582924728193394 51.01216403383453
40.976044448749256 48.09614031820142 55.01156006167114
63.89988175753324 20.616874583313926 49.21200412797772
63.50761800548529 22.626457003359207 48.6251544397912
49.687583763540424 26.812064722674343 45.42929552099123
51.58985032597796 27.199594992072264 46.766200610603285
53.402556947949975 25.441686704328387 47.7815931838884
52.5522853536265 23.50370736166656 49.39009568864412
54.04168048517286 28.260052114630994 45.595386927137106
52.5571730941738 29.914446265517192 45.03886682885253
31.485759268547177 14.69107090732227 42.068837260314446
47.04244494735939 32.80586531745863 42.601768374032
48.362350727266396 30.81356155764335 42.436918400109995
49.63812458587185 29.766435242574826 44.685257521388216
48.791842500426796 29.119404513481296 46.58072593271315
39.22002792750888 13.475503796915396 42.69580968097699
37.50054927673878 12.062667315708975 42.836395284318336
34.86219210893367 12.850017959383269 41.96998227278609
34.11401000751288 15.17512962936478 41.941958301310855
38.63472144177351 45.042896255855766 52.677790820024306
39.290574000681744 42.69852985730767 53.143319619197875
36.51466755466146 39.724375463425616 53.23310057084467
35.039256699982516 41.51847371257965 54.02921551064082
35.483016272520125 43.842809591150825 53.58593643049805
36.12898211676848 45.030568850691395 51.4590035575767
35.62739456368402 10.654256818467182 47.6120745250582
34.85498009525315 12.056927204556473 46.75300403997888
32.29388689257945 12.523930561514694 45.88773633988455
30.76285820261372 12.674448169580158 47.4515168347741
48.26275853510253 30.645684102045692 49.69675165511227
50.087792241837946 30.31977018575562 48.80202597744325
51.028688000212185 28.063144794427174 49.25682049940039
50.886546951708766 26.428493799868846 51.1363807020548
54.81181509290889 23.30989937047199 46.72339870766406
63.45969543310098 23.234059283395943 52.93481727360365
63.17191807044258 22.329669683381216 51.22409202830512
61.44463423093146 20.464384167914208 50.78572133872487
61.24285972277036 18.175034249640913 52.44521365403017
59.017940436114486 24.994162568031992 54.082739028378796
60.8123530142992 24.221295076474235 53.48597385173769
61.18474308696537 23.707898403666043 50.412806021351216
59.472777990350224 23.942896208802438 49.08223258562845
58.01177341619095 16.368230695242755 50.36501418755802
59.26444565053288 18.38956496658865 50.50811391880162
62.11044146871376 17.91082075930294 49.74594061384
68.29039758286699 46.87567478913271 55.87102295706886
69.70694938144217 44.95244763687942 55.83395815235905
65.21126139657306 24.724406358153733 50.5090315567771
60.70853832791521 26.412587558826406 48.541971062050045
39.25688784225397 40.20499409728234 52.00948394852714
37.10827154012415 9.90121561227418 44.570228716295084
34.6126230831877 11.239225828100647 44.30299799346486
32.8700140627997 10.778576577779074 43.499350018544625
57.38599646293725 29.897755817053586 45.05542772914731
55.293206111500666 30.28795192112862 46.4388333393983
53.48894945904775 32.46268588607313 45.84406340478873
54.61908389805325 47.95311163196745 46.12943456513263
54.92827824703322 47.26040536829943 43.66170837450769
56.80999849492643 48.65601754678313 42.56612903021194
58.99620743472634 49.19059914167862 43.47942217182074
37.01248313969654 47.57223159053405 52.24044528762674
38.628062904703 47.43298969096189 53.57958909269139
58.33058014132118 57.15659313790906 42.30939303170895
57.05186762322965 55.16026689171627 43.53323550874655
56.98447318493215 53.38919074528471 41.399056035283145
59.77560934214077 51.94434092127671 46.17156986783287
58.770908839738574 51.94128746597824 44.48681482759812
59.6054628416915 52.366710601124936 42.06682291843715
55.13759553226736 51.36876215810185 42.2052926351033
53.30277660510979 52.039725945327646 43.47545360194247
33.02921186336661 30.803850862295956 37.31374059420505
31.42905658957802 32.312500908958846 36.945225667681854
31.929056782775294 34.98535549638061 37.21730768177492
33.60366769377756 36.17887743005 38.487707309625435
29.079472534929664 36.840460882891726 35.70309860516388
29.489829767434042 36.01183935588047 38.047795634580346
39.68101404341102 37.45487369202364 37.748106420510446
38.1136505392107 35.88035506480928 38.04075995004003
35.51518331188829 36.23020971915542 36.89803369045723
72.88498452056224 44.34041574573045 55.52002828476025
71.12155712851533 43.22058631489111 54.21282059140123
70.54514317159607 42.09248583920377 55.8702010710519
9.72359595203718 5.086248730175827 41.605259222240036
9.362383021485329 3.1945289411019795 40.061662153154124
53.708535824504736 29.456712568122438 49.57486617583133
53.60078483856454 27.26831264088867 49.95881855866121
55.90805142218262 25.584079664842612 49.74642492955516
57.854351504678334 26.196502130081715 48.452087786757865
52.11561210661621 46.29439201348815 40.320675064202
54.16353491388382 46.72281969252697 41.17576001590735
56.151170787526716 45.444881092128696 41.60343038847045
4.8963134084728255 5.191393702450564 39.21951726937699
6.839016720742464 5.288909168300463 40.45133564821808
6.0361293462209895 7.072061662595827 42.75981600859569
61.63455854284672 50.2714394601085 43.8284851435548
62.10476957234975 49.44573698798532 46.139270120906716
8.413473810879362 6.990214714060378 43.8513429588953
55.22175457476596 50.1056137298342 47.781723220299206
57.03405699327643 51.05263499134645 46.423148517013935
56.077579967322464 52.64760817581692 44.4861807756758
54.59054169517355 54.4333251472211 44.797980392991235
3.088405833495447 3.937225693378436 48.41029592453962
5.827583787357633 4.50241878193744 48.88701369081362
6.850213771472071 6.0027841125519945 47.02871656578341
5.8008459864621775 7.667650676802414 45.5046722683816
9.861140449527225 3.035968937512392 48.715641499556426
52.61760964364537 49.31801279024939 47.00470275188781
52.828522794876115 49.76841822597697 44.70476880771963
52.070784364221446 48.096113443191605 42.59659716723781
50.23112709145035 46.74079020783009 42.41076014492998
69.24301142448356 39.89360296448861 56.38482568213665
33.87425972359717 39.439449013128446 37.43163007451605
32.1646238325045 40.25653468960331 36.22604275572003
29.52765994475763 39.363173861858584 36.713117102022416
28.536379074877008 38.432448107297816 38.77055776210409
24.7198553497958 31.207720476341947 44.405198284984266
22.902999528542484 30.250422029294054 45.395757495463535
33.52410919092447 41.99018696989144 34.86029282739028
82.1650603164804 17.044056700359985 54.721265697086345
4.375480965231445 3.871254444550212 42.03027073942754
1.887698834470862 2.030209604940103 46.39857622561919
8.171049203433977 1.496892719701227 47.17005607510599
5.982227629770783 2.016917119777258 47.07022249354615
4.006950492851611 1.3419620415117617 48.3728998722929
48.57577164907808 49.185560896020306 41.36555860369797
50.85753721767013 49.98546113598872 40.819653629722104
11.504729186573996 4.337322774680961 43.7368406035722
9.846684374953908 4.665115641559066 45.45664351624017
7.350060232807772 3.80402324364026 45.30446327055885
6.19708991278475 2.5600895432186874 43.99814715719097
62.09747943825337 7.887777271155554 46.57152198843231
73.3574590338606 21.880840955322274 27.57325217334289
72.46525602630219 21.021412646544654 25.505326646929213
61.0300486900244 6.816805942353099 42.228560663869054
66.73956396863804 2.8515304804444566 22.6057926292814
83.38083482441318 6.398078632329748 60.27534288373461
82.92818372022326 6.891206800620743 62.866108794809726
80.41302036928985 6.9992187569221205 63.08605117414996
78.69205279454249 5.440285472266923 62.37839658717466
76.18199553331193 8.708889052031202 7.095262387649357
75.65976476390905 11.20329466270548 6.920381658713073
75.76204872608797 4.701656004230758 61.660885385232646
77.37981311956224 3.419210753128621 60.10223179250409
78.71096084822041 5.105397450630046 58.705359835378445
78.52219145297812 7.2231172504656085 57.86816373879517
80.99162605091625 10.165185122640619 57.33191771256881
81.38217294607695 8.28650333337403 58.67917540364049
81.38452467494605 6.183154138010885 58.61189969916097
76.32520895603157 10.122272260623365 69.75906176143242
77.21879013263592 8.07455241028078 70.55702923758174
76.62436583099515 5.8402636308614655 69.32257005117154
74.59836658095215 5.383104716915544 67.95649495800994
80.82971709366439 11.110440364364731 64.20938360821079
79.12993348723315 9.543332037098423 63.83615734825118
78.67751475031226 8.572415359449506 61.37817828938981
78.75584339813268 9.784202538203594 59.17940330773211
76.4317164555277 18.24383167737256 15.363193964465726
78.43802058231478 18.009614866850193 14.620763580053934
78.79920270262086 16.410774363367914 12.263803723109692
76.92987553152226 15.459622411132136 11.094444784700011
75.55285463968971 27.405780514224535 61.195368036854234
63.06157668890576 7.13075948951782 19.042102527919056
63.131534584678136 4.879838282588159 19.891019482316285
64.29065882411048 2.8878604287217886 18.120096903938
65.36914210197908 3.212899212453403 16.292010929026336
71.8361410681098 18.55306637222861 7.57249786643301
77.9788888503178 17.593960168126888 9.632185999442497
76.63266405718655 17.0839750809479 7.92565754292714
78.25346833063615 12.922795511361725 6.878426845461078
74.88054517250333 10.970327712691285 9.595714472785579
75.18244902006019 12.7992249558627 10.595565217184413
74.81934376203762 15.025984625118957 9.58682725766721
73.02761923358314 15.762341994237108 8.082683355007806
74.14056693797554 20.045228044998513 7.285701001782962
75.01406500020927 19.10284266865769 9.191529146280665
76.52826119676286 19.770295142489715 10.8647876903087
57.4895589148966 2.3412537909693225 17.246933310096974
58.75090818574405 3.2468920531658876 15.68578617809689
65.13660571891234 10.577660814125833 84.83460111679858
64.34695112210359 2.8591644903442175 13.92946326178615
62.56180572965962 4.064108398953073 15.126080800782997
60.860381404865755 2.213945758293248 16.460420074188008
62.944256076320535 0.7960484549759246 21.246360418286415
64.90099075866407 2.8899512735080646 21.062164101803404
59.820387038005265 5.522419189541805 16.56140882029876
62.35450346649985 6.543780041110379 16.291540291649685
83.27094522745887 9.228270308291275 60.28342249685946
82.87435767787996 9.70143365312716 62.82144413577096
79.84275137361722 12.914866588364637 14.784188322032827
80.14802644343979 13.865982322140749 12.932780724027536
79.44150378650721 13.741541458370648 10.530499605148416
77.69617092536457 12.048025084720392 9.59724584648755
62.35558244533646 11.248716365079959 84.51103182817293
83.57436975795976 8.111025052237595 65.22489255914437
81.87950290116223 6.474860599846834 65.71484477368884
79.64510234666969 7.588217317625185 66.19384419720232
79.1605662556538 9.16147761522496 67.81450016167298
76.15797041077323 3.7281928655350196 64.75439304698267
76.64132503367756 4.862849739942169 66.48733164430624
78.67813912287059 5.71969077516621 67.63529298743852
81.15847413362846 4.489676713389663 67.59688349958448
75.97490632993437 8.141889390922525 62.00138420642896
75.25986612084664 6.757077730931269 63.395742249541094
75.68879481910909 7.282290721285993 66.0422251738137
76.44363830596959 9.331623061775169 67.16734585391545
78.59484194305738 3.736480741043662 70.94607172742099
80.95199421167015 4.253616295582446 70.72390448393335
81.79133292338616 6.423755353714933 70.487927194799
81.05141026182898 8.820113917969788 71.33275151418948
73.88669852553382 19.218890362303814 14.744995578677246
75.18927809191052 18.549457652077862 12.712769085702389
73.76838852738894 17.24762385745589 10.634863737414094
71.85261130001331 17.577140520722935 9.954981369884683
60.40858009342915 5.5228420338164925 19.047566314122115
61.153313448425735 2.902302501854016 19.245910120511997
60.5348494227394 1.1683669342081413 20.40936330371811
65.05355356448548 0.6030257335863427 15.302526385539572
78.02667982339491 15.812915119970613 53.023843317308035
80.46121274260298 16.03618523767529 51.98037788187698
82.22156328605405 21.15616980010453 55.8808310598668
80.01587711806192 21.42205716784713 55.84384834173485
82.85322844379435 17.333585443813615 52.68525240113557
81.807411403792 19.844027434031982 50.67176262711758
82.26892892116791 20.102866551641632 53.18522162770122
80.33866926910224 18.960804384462698 54.558295987773654
77.67321729905338 18.577833165631766 53.55929122210242
75.11689083784078 15.46281575958277 54.332906904976426
75.56887384538791 17.928954754408434 55.089323921021865
73.26101389155414 22.951304379779135 46.04230118120878
74.17124041306253 23.143836269509723 48.32292625612724
76.69020031224936 22.045103238714706 48.77481998391856
78.13228907487547 21.188881823468687 47.01818050211478
82.13776692168764 15.750400360410568 47.96895450287179
81.15820847779554 17.261350546606856 49.79539521927448
78.90781673208949 18.499875563014246 49.82121816296246
77.10252490338422 18.7594185401267 47.754347716074705
75.23196355546773 22.199670965174633 54.7292887927675
74.16758716701052 19.89314719335409 54.10741615995985
74.07363835227001 20.749606563703626 49.60312098766004
75.68538757363272 19.58650634920474 49.671018610343005
76.56873623609248 17.58000158727291 51.0743219275
75.73764152361532 15.812174775838063 51.80578011326102
80.17483835608026 20.749108709024355 76.31381572278742
79.17376012538124 22.153551489559238 77.51723609561667
80.48640574365282 24.08785379401301 79.030640053007
82.62654364070492 23.87396704314279 79.49529603268721
79.75577939479594 23.73796342050049 75.50468862967325
80.32505419564171 25.425046858425556 76.80732615048231
79.32154639632974 27.263969564670415 78.13574639118134
76.66729544558305 27.66197946800346 78.527673387836
81.78226548529037 28.21686857751098 83.84906052213088
84.11637110474415 28.9446912030053 83.17889288662677
84.80362006041949 32.09609367035927 79.84036467902631
82.57279632684448 31.845461640244967 78.61190532950069
82.72050556131887 29.287933477792873 77.95847163704111
83.48239438662965 27.30746680408084 79.52297437107053
77.10529177692695 26.225485739907 80.80326479940751
79.29766471918354 26.425032805092826 80.6935776669978
81.45990315394154 25.67522518433937 82.31648681205014
81.3294202191307 24.844000440684365 84.43106442414181
31.442306357300538 43.10291422079342 56.00004880093577
81.12565703120575 33.74537225464533 76.63424219555712
80.00889503498065 32.52117972789959 77.55425323495673
79.86909613429688 29.830850070277545 77.45744293384962
80.54921966715158 28.387194497514646 75.78726742986525
79.52396959968509 33.17477543814877 57.295894480418916
78.77198320538463 32.74656998341442 60.029225863528644
78.7677098786921 30.900028984033405 61.41956132492163
83.44594691830483 32.59325421261919 76.46662915878431
84.17120300998333 30.363674343189512 75.55141724980255
84.54240980398512 25.87138312223981 83.04464881734714
82.45132051389199 22.604860513940952 75.59192038718896
84.26293407026812 23.42018394744068 76.90147052208593
84.04531935441874 25.832747034371614 77.05211231264664
83.43333567930698 27.683956495039833 75.35655208169175
81.50857714198595 33.724869245528765 17.56675802128817
82.06590462375553 35.865176627483784 16.483279140001077
84.50067927900483 38.16312324436391 18.9978568271542
76.6551234894901 27.870480011346558 83.01134218166591
78.66537298282606 28.87160057608038 83.0769171148046
79.24338126968607 30.06541924057667 80.68244385517124
77.35321662033473 30.50828823957719 78.8513775645928
33.83432205849189 44.40031442693176 56.70492332019436
34.66089115288609 46.98421950384787 62.8691110462296
49.843451052984584 60.03657339003238 66.27221446582173
6.767845905190369 9.393264787047872 24.173939841173514
84.25031570369211 10.96940558013601 64.23182954018685
80.43896701718258 84.82248024314204 47.59175833854634
75.91460885823311 48.00185097126362 31.382366226215847
80.4205484987488 42.40461248115267 34.60538560984724
72.11363471149227 48.72571741631984 32.46903122248012
81.51208282358274 43.709446626932845 31.98564908689775
79.45604162161438 43.98967862697643 32.4246242365513
83.74456481631651 82.84077735995595 43.985307411555915
84.54579333559424 80.22970730914885 44.07115216053129
83.49704831894103 78.86968604371151 49.559225306306026
84.56523961354893 81.4012702443685 48.35371389402896
83.94578634060993 82.31286052342263 46.75589447229569
73.40716283421315 54.60935225524562 83.83495115821995
64.62784064106897 65.22897746430534 27.376620528472966
66.79102852060718 65.907088132394 27.85306227744094
68.23953530753177 63.822805919830216 29.43109215643825
67.19056429039135 61.89473941727512 30.73134401995234
66.38336276107965 66.19532854923553 21.358449672742704
64.9907578295232 64.7501228494628 21.175821146968392
64.83423523259334 62.92910127695332 23.467927606515747
66.74438591291724 62.678107501693574 25.033926105455592
68.20999723812791 68.35022426001379 22.786251905593126
66.69246721605434 66.71882351871359 24.05146218698212
68.5101505794093 65.33931215561869 25.686455327387456
70.48967347311643 66.22653269269279 26.57260886944435
68.70143433622323 62.56950391716625 33.08909008167295
70.06684442018664 64.03009958859411 31.788983180361157
71.4004868733832 62.81696441911136 29.61929079816324
72.097698378255 60.422283831638055 29.476432307118376
78.83244611797802 46.634911282517166 33.18395690185701
77.41647464571955 45.092094577640474 34.73086787317552
73.88074224582483 48.169126737660235 34.686828692634414
70.14153527052038 59.90702455980744 79.92987347108317
70.40229985204462 57.86599809939207 81.18329267700703
72.33061757112634 56.97996347301223 82.91341970180973
74.19887052205696 58.290934565457285 83.64854508136594
70.76846892538096 56.35093937628724 84.75607189763309
82.54957848762055 41.360627996470406 33.08399082320341
62.930019725875354 58.39780861774328 25.820566357504692
65.04232062481854 59.44432823401311 27.371370527241112
65.07612383239305 61.87438315975842 27.04704247163252
63.594988270011974 63.37154498605787 26.04284615833548
81.21809844303284 57.719873770218555 44.83105351281529
77.18665591511069 61.28583725820597 43.62376911221948
79.21999187405392 53.93939441824704 61.171848702592655
78.10542429222437 52.28597741134322 60.32880451591442
72.35029227946764 48.44614225862245 62.55090614077733
75.0894702333298 49.01133534718144 63.027623907051314
76.11210021744424 50.51170067779601 61.169326782021116
75.06273243243436 52.176567242046424 59.6452824846193
77.25338499054652 47.907755442885055 64.09641360589934
79.1230268954994 47.5448855027564 62.856251715794144
80.65765662618881 49.806773293333826 61.83262703377236
80.25915914596841 51.90061130495067 62.31056274746011
73.54647396917439 63.91316789314064 28.005929036940117
72.64920620850276 64.75684180797855 25.71159080735913
70.39547203620964 63.6627307111636 27.21697238223329
69.19816867251241 62.04105366394755 26.835787252505078
83.53980401869985 52.659201560351775 13.746587092360176
84.63721637976718 54.75689206425115 14.6649187137368
84.72456828698395 54.80087034289173 17.08581402172606
82.82998057988986 54.9431065267527 19.07046507503362
84.3131198058664 41.85874655795492 73.46911428479235
63.269674665352184 56.719538966725516 65.87133897316853
66.0142171499764 59.317927198351 80.92114908976332
65.83668063249398 57.446370253632075 81.94705746182589
67.54926454524418 55.273380672804485 81.28997034358765
69.47507682358773 55.5149623740941 79.69208315941175
68.12754656006946 60.40446661333405 82.01779604081081
69.09069059590026 59.471276756520595 83.63532332249
55.48505376770528 67.53340431163116 9.954938292787983
59.84822920496889 64.777954110317 23.408935394115414
61.78381335962234 65.41954804995088 22.05560968805937
64.07237403251035 66.69715457348151 23.457160004469497
64.32814831433785 67.34227058081457 25.367388379151016
72.27326730116233 49.70517908546378 57.605807052139056
71.13173338456073 48.61221331490324 59.91548502027788
71.14958528044302 46.53912617018412 60.539186441856884
77.43293564940615 46.00580928494525 61.3106662913437
75.24411407574294 46.525833685021276 61.21083270978384
73.26883693882377 45.85087860675577 62.5135100885306
72.88168481676179 44.53657002249551 64.53202181652713
81.59464827910521 52.54359106584391 60.02438158798901
63.199205095508326 55.114596105228614 82.25484847844895
64.37714620553307 56.165115948014176 83.91712738564385
63.95363569476743 61.74226495943957 19.900127064650775
62.70680210844401 63.46998461245547 20.709952049932518
61.90386240540668 62.52173544081566 23.19614625783603
61.12111585664592 60.60745527517237 24.021625632740697
66.75374605688631 69.04608993925532 18.30820786166794
65.8634249409638 68.79883234069464 20.494232899027228
63.79000807623135 67.10229176478688 20.7178286493642
62.69836727917322 66.11138109397683 19.04911020525052
67.52792721214858 55.2425197957149 27.821046375105997
66.20908183383276 56.82276935505025 28.122576079567338
67.25060668528232 59.689461626249006 28.941064093526425
69.56333621337026 60.223302106294874 28.899354055178396
69.90857351322815 67.18724596578407 29.20326582294026
69.43013125217652 67.01145374868018 31.89338215152135
54.802404724064665 74.33527726014587 33.02155802145872
57.44525576463697 74.18079934902684 32.980162009352085
79.10857082092608 49.174032206803076 59.597253732477874
76.61194667877994 48.312939808884266 59.445073486796566
75.45897635875691 47.069006108462695 58.13875737342868
80.40901459456933 42.094857759856474 77.72481650186855
83.28037418780636 41.95213974906253 77.0308055330637
82.60135921370906 38.5300076051933 74.06040115751749
79.8750139796214 82.77959637859378 49.16358971652306
66.50405897487133 70.7450706724329 46.71909123624395
81.1156268727158 79.50428389801661 50.17372124917183
65.05122490299195 82.11766863404793 45.41554737237195
63.68543223543717 80.25549416950673 45.89345917166451
63.6609450431711 78.48595758013285 44.12112080251988
65.54627513936674 76.76244276980566 45.45907559730528
60.94597022924932 78.24264825837656 45.10979968898672
80.6887550771268 62.659689687559236 58.106919050560116
78.96467257233974 64.48431878330004 57.16256497172664
78.81030350384957 66.71899345261312 58.28379439337844
64.63949724253517 79.15082337822673 49.011145062092645
65.02322600445896 76.39853529507539 48.035723687063964
62.427178019047716 75.94349066344067 47.211646294813974
60.35132762816492 77.00981374711182 47.89960262440282
80.00471053195172 84.19685048938022 27.3487733202464
62.18433848565278 79.31743879192685 39.175541955473555
61.99555791071436 77.19093818215858 40.23198089015264
73.13187934752239 61.563221395367684 84.45921719317063
74.31880327190177 60.05908223647855 82.95953384340102
79.41990021345856 62.26293553204915 77.54323575516868
79.85060164315271 60.4049036061548 77.86778305258547
78.1803477678694 58.597156296041966 77.1610263707613
65.49804803691498 72.21960304301619 41.54290461553809
77.57348725059506 79.93344842905859 32.617643475419285
77.80754632830644 81.82981655068491 31.523136816853565
78.90822519224541 83.78648071163174 31.501495805614326
75.43248146568841 79.68648476488434 31.387261084549568
75.31085003012494 81.72915178108258 30.591983931474072
74.6710754127578 83.97159093303114 31.74631554145373
73.24304473357746 84.29546713064975 33.77672455378053
77.38716775976295 68.57072763523507 12.196685692803136
75.71316523999346 84.40708296769976 26.282265558251897
75.07464575771448 83.12332480361427 28.067655887240008
84.65521550635232 59.88210871838714 47.96478636809663
82.02355512970134 72.30943439786101 82.84606940987123
82.03895216141399 73.8357097263707 84.60425030613752
72.14333376556145 63.17707095882645 81.95264236089244
74.74330858734484 61.04556485228385 78.97249934423643
76.57849812646957 62.61289321397427 78.59918809740581
77.23337949106362 60.80306274197028 82.33852063641422
78.16248387346141 62.36472555402429 81.36535310951359
80.18429401235673 62.38856301188922 80.10965223704382
82.35652171787208 60.68403653413612 80.53029607122465
82.15534163933877 57.904506361348986 75.23927758056043
80.74500407060917 57.74350777612612 76.91167894638012
79.67738877137594 61.99579841893044 38.60954160183773
77.41880081341274 83.33820494745913 24.016940487048227
63.89198502027826 78.69863296395417 41.56118581728704
84.77717216985056 65.45397437522064 60.26263402483576
64.77278118869819 74.87325060304762 44.81360738904508
63.67957888154779 74.30244724784332 42.22167339735732
64.186197647272 75.25177615761875 40.42786535054011
84.2126383991405 77.74528117525874 64.68340285632284
83.8401362903702 78.70439554627525 67.21102406764987
65.66956752346012 73.31487420486671 37.06431371252884
64.40556786356014 72.90266694993927 38.99397121275573
84.32783431342168 74.04010433712004 82.50715907433381
83.96426109828997 71.79107299520182 84.54765998562205
83.54857707745515 63.15100631379964 38.60902888741164
82.36406598880015 61.68350508601311 39.88729340541386
83.23756405103389 60.741119709672276 41.79312154991158
84.75176024758746 61.408572183504305 43.46638009393961
62.99487366927324 71.39866904482955 67.17979484600941
64.82934599808513 73.22045021138383 67.38750750459458
66.96790436242286 73.559289170785 65.6528420352014
66.66057325540217 73.21091825172512 72.48036932632135
64.84959198072315 72.34134301307532 71.63390587877014
63.63764500808896 73.6857047657061 69.74022143432401
63.86196445256459 75.88354871510462 69.09479494766711
69.13318385963665 80.92432650991972 66.84947779430938
67.78047397987193 80.34364823824576 68.35678965010463
66.66183967332553 78.31360817537491 69.32415127878502
66.77621040762853 76.07809911872963 68.89772612400253
60.3698315003068 73.09082193966486 66.75022048511282
61.62075454616373 75.33747586381595 66.69986865920444
61.39897784189441 77.46203181915001 67.92801859759312
61.58186987115071 72.22833786841079 63.3109147398202
62.092107203899296 74.23059060971379 64.30422645800854
60.10839658351073 76.26012014362328 63.93257776937743
58.18244107920897 75.99206123429339 62.668642701753825
77.31928628732338 78.04450721916662 30.488272968639546
79.10333258567158 79.56925006093009 30.546047654687705
79.24095521705418 81.79709646821121 28.757954587047923
77.79239481029765 81.93214818330428 26.64907518985732
75.75624498574955 59.14250785627191 80.60544197193657
83.71333240904185 75.45462053188902 65.94095932335392
84.51354015154877 73.71555720355371 65.00285112607368
83.69548579693257 72.903774608564 62.29039752770651
82.08361471628281 74.05117165285672 60.98022996782049
60.860953860058494 82.09462517215019 64.84795103562195
60.1545536793219 81.15752368187563 66.87399222698448
58.93337178968852 78.62640728043111 66.62597609138369
57.8623754112168 77.73005271598045 64.64031943947997
70.99270812263644 73.44698559438477 71.8308648346958
70.3604481970719 74.66603742265742 69.76227665717288
67.87941920715916 73.81861830108011 68.70104344763989
66.75005015476047 71.81102245846188 69.33964579727262
63.38200664881668 82.39251827625276 65.73404507625558
65.40256535065546 81.01164986324255 66.59735896950336
64.43856011313873 79.31357364611044 68.26808174039816
63.12330201003185 79.39602567528992 69.71747191521473
68.7854800382195 80.888227372621 71.09427868403606
66.98306987628541 79.27626549586553 71.92287999992968
67.68979393017356 76.74193911040877 71.65643378918448
69.40520442868858 75.57809362051724 72.03866358247262
61.7070449633134 79.6795173153835 63.13011400782093
62.81661182634737 79.40156094349268 65.123054951744
63.892415735757204 77.45897931664021 65.86815027485164
64.90626546602265 75.43955008514956 64.71564077771937
61.72330908378147 76.8012153330407 43.31282801342902
71.40138177099132 83.38102859132466 29.91784488724395
81.3479530929907 62.63381383090765 36.41713413246571
82.19642999562203 60.35688462753151 37.36430577987038
56.82962979315675 77.82344590708806 68.20201068775131
57.31582808267133 75.76010985773802 66.69846419492858
82.11019757635843 60.8571674033184 47.34658798230814
83.41277714273514 60.187734693092445 45.314361489333294
81.56847310312695 82.59213792819172 50.99472706145268
84.19672384209265 83.07619665023424 50.86784810244908
82.37660072715921 80.42499758238414 54.81362614102277
80.84557203719349 80.57551519044961 56.37740663591232
70.55243494142522 50.38077715471321 56.45549197422632
70.09739811954007 48.35454362836932 56.748874257238384
84.69533691776748 79.1402928489701 53.22888779460309
82.95272789737946 78.67964359864852 52.42523981968285
59.80630978661695 72.98731575104529 50.53114902337827
59.4450968560651 71.09559596197143 48.98755195429235
70.91136747072063 66.10210205668128 46.626753175765856
72.40411675680998 65.27781862561542 48.541312244234604
75.22247402920605 63.844065265780905 45.090931049111575
74.47012572220618 63.46798882018391 51.11029468986912
79.9741731331943 58.80590786944598 46.65692752641134
78.57255518066644 60.77247144361914 46.17392966917393
54.97902724305259 73.09246072332002 48.14540707051522
56.921730555322235 73.18997618916991 49.3772254493563
56.11884318080076 74.97312868346528 51.68570580973392
58.49618764545913 74.89128173492983 52.77723276003353
53.171119668075214 71.83829271424788 57.33618572567784
55.9102976219374 72.4034858028069 57.81290349195185
56.93292760605184 73.90385113342145 55.95460636692164
55.88355982104195 75.56871769767187 54.43056206951982
59.943854284107 70.93703595838184 57.64153130069466
78.06394381854862 57.936199011515654 48.637454222515835
78.78767903028248 60.37645001814586 49.019398893208596
74.55241748638542 62.39161717495483 48.51123721498759
54.45819479981122 71.77232146541967 50.95616054056577
51.97041266905063 69.93127662580956 55.32446602675742
58.253763038013744 69.39795974057068 56.095945876244215
56.064941464350554 69.91798414064671 55.99611229468437
54.08966432743138 69.24302906238121 57.29878967343112
61.58744302115377 72.23838979555042 52.66273040471042
59.92939820953368 72.56618266242852 54.382533317378396
57.43277406738754 71.7050902645097 54.230353071697074
56.27980374736452 70.46115656408814 52.9240369583292
58.919032640927796 56.663403202208215 67.59016582385962
60.44308498686198 57.382418686719525 66.10299630087971
61.09507478456076 60.17336213716829 66.08032249257425
60.35983227055026 61.67909079199161 68.00035460794025
84.12173546443164 34.52727596726974 76.96498047699606
62.790750990151 58.79320847128463 64.56760573289633
61.03396026527751 57.88647614519788 62.355133489581114
60.50863124820479 55.76072366627608 61.81214886724444
56.07690517158414 57.08294274088582 65.10218330764731
57.7779713723431 58.48229997682981 64.67343013300518
59.063237074418986 59.57048604163884 62.66074679801298
58.149819289140304 59.41746666663201 60.17448426779301
56.9250072158323 61.74876709246865 58.42903701849512
56.722082661016685 61.37135394628321 60.69664020253438
54.14583681346205 60.318452038748745 61.415286828723666
52.484593139878825 60.011327897460205 59.883554534931605
55.0634613838786 58.9969825576277 57.75543684361984
47.09663932080987 60.82427763981285 83.40088284950346
48.13157687745224 62.31891625237491 84.60601467390485
49.26198180451921 64.48155776776065 83.62587459930953
50.2026163180062 65.01895462501308 81.62659937392414
64.1506147424324 58.74734994114645 57.85186192748724
62.55902198628256 57.2190714936242 59.14518336683351
61.68541591485034 54.89311352439337 58.868561808085644
51.30176866745798 62.69165428758275 84.824013477673
52.84766565229849 61.7267934124554 66.44888275372405
54.844941359529805 62.14039453686433 65.59933689673244
56.84103974582602 60.84814144344801 65.74872901720337
56.75905946487599 58.31166628585046 67.50492519622254
56.23046324239603 64.4093546684308 65.30127467796075
56.76004813762546 62.9807375145059 63.478732717816335
59.10450575131416 62.197729888548345 62.54106504978351
61.255486392565764 61.65179170132255 64.04065950388826
50.74053464629738 62.19118115215305 64.45342576227526
52.98148797836811 61.98896581709838 63.38724979907872
54.5735963241895 63.93725277387492 62.49524141276886
54.228281375235106 66.40445893461819 63.069090183397265
51.66320448056572 59.225203089367554 66.67265330755544
53.50386469804476 58.89690154794116 64.92162126988067
53.6735738218849 58.25637192362174 63.113958410895414
63.38655493861279 60.70893777749595 62.743771760506654
63.19796600581255 59.38241148190529 61.26667429686032
60.89044750210396 59.3686675370449 59.8267764963828
59.86818312948404 60.968922938141965 58.5557183746674
56.85055973977014 77.29433180791733 33.09982964231174
0.5241336022627103 75.22912246839128 20.673652740078857
1.2098495247199987 71.84297819650406 22.31161581623973
28.63374336929101 41.45036683280163 58.91181178391133
1.7045024676362284 73.57474429402001 18.58440235330619
31.53873918801357 47.37104626801708 28.225351082187196
31.004505596837515 45.224549555485645 27.672154367614336
32.800199509614714 47.02085162513087 18.072101467738847
28.8068368393586 41.29408133300304 13.064727575958788
42.037117438293976 60.38726670341469 20.092733639281366
37.834003105673354 60.7381190258803 20.809370012472645
39.34836997197674 59.300698493115654 19.717974982224682
40.55115508421439 57.42640063367155 20.303849030099993
39.92753417312341 55.11132598843087 21.730325325165797
29.11240498846315 40.256702587486295 17.20300481140527
26.331562020218847 44.244904778404674 29.684207437505158
28.524764991279223 44.39887786907667 30.11191991354051
29.681350234730907 42.21050162769713 30.675059298221967
31.992299838889526 45.13443437811895 11.4914442354611
29.733365361568872 41.92420049457418 61.37862238700678
25.96040315215814 41.092390743296185 30.954979859717206
27.622800417669808 39.257026299868855 31.157165776137628
30.844509171513696 44.02069408283872 32.15836506471908
23.0648438599911 59.0321319028032 20.162051208521873
22.358214808687467 60.187290354198886 21.89824732309281
22.779266961639944 59.78555287012973 24.392010540702337
23.956950553574124 57.79734975477045 25.516194971391048
19.29924086349059 47.64029613205236 83.95877366368777
5.558764435325307 80.36332334036224 39.493463975218845
6.36309934562045 78.17199084997632 40.447803612348814
23.85773443118494 45.7188395545773 80.4292070026476
22.663071522235875 47.40238899484097 81.21807897683269
26.08271237223901 40.7007093352914 60.245832924137254
27.64192429248506 47.46894520440005 78.64097084666682
24.95624039184754 47.738165438981014 78.70302172747637
30.82900201504903 44.18384269318136 63.19756094692568
15.908674462328419 23.47730944834531 47.59475644339562
18.75751165846353 26.755352787396202 49.14639100175385
18.43462691923503 27.366675189827255 51.29910350089007
13.753418927739174 21.25866394897614 44.18618139921386
16.669011166347474 37.363056512612374 49.243802377627915
16.791974461675913 35.189194600195485 49.51014917950902
14.950751953168325 33.23636461001474 50.54279264008514
18.548483575012902 30.026586991526283 50.90312936213424
19.493638957545258 32.13088461087088 49.751566064049356
19.274007459365652 34.390028506739846 50.22592861895669
5.685051122228131 27.82733980034496 29.536181878381225
6.387296414164207 30.291362741247315 29.867542484982415
5.366236425088883 31.96526171711565 31.363885605527695
5.015665367735294 31.24320375547038 33.499063413932426
3.4474892004528024 38.05074920829004 30.93594320677012
5.586597714642124 37.61987122260885 30.926771433804756
6.043806844720158 35.2495962616279 31.93212336847857
4.667358027201883 34.056871849171195 33.742757522780195
0.18349142865513998 31.157271156027125 33.30934626250386
2.155204094150113 33.024063637359774 32.2995246442887
1.8377179358925488 35.14724256342085 31.567711453284616
3.440714903964911 26.77614700660206 28.902242879960742
2.039096951437059 28.742710580775203 28.419245022723324
2.9687990406359432 50.521416691344804 41.02831287548403
2.4660565657558173 50.4125090778254 42.99527754039214
0.7631740503041434 52.12959381051803 43.907311596830844
17.659021206675963 33.87496788497657 47.05879140956709
16.368344763417568 32.44286994647649 48.41542274853726
17.06578150011444 29.91685982314068 48.60407175505447
18.368278949941963 28.596798686440543 47.23939049945973
7.097337205876154 53.1049439036087 36.15185864820365
5.985763728014668 51.49053355488226 37.4045882768917
4.288924824546616 52.05002819231485 39.208165994642364
2.5616933706345866 53.543942139454536 39.18462772690413
15.251653705576599 29.206640638309704 50.86224090983596
14.4335993509604 28.394858043320003 48.1497873114688
12.821728270310643 29.542255087612705 46.839619751582774
20.773075643215428 31.338520342375237 46.607287206787554
20.30636346463183 33.641473738217094 47.40341119329027
9.30770263876319 48.13348891547246 42.03409672213078
9.911153537143125 50.64016414317965 42.499307186345064
8.541482911716823 52.26481612341429 40.52178770638255
8.694808656368918 52.13850298871772 38.42097631600102
2.3115193033905532 35.481351511502254 28.97517494055433
0.9614100379648722 33.926409379112094 29.108368220225877
1.2327566602672233 31.54950199818965 28.14091070709888
6.911537003652482 34.0820151438033 29.270617602844908
5.136403054872803 35.319784990762166 29.060268303755343
7.3844134395471945 50.84740165326016 43.59366669569627
5.56252123515363 51.564846922954096 41.957383668889456
5.23928240553402 54.17850753654016 41.64624304980346
5.945441501236116 55.90807773748598 43.30002651792375
11.632564823537738 54.60531326048601 33.746228832521
9.791638251542826 52.93270643632833 33.53134272582401
9.385638216879379 51.5929738664662 35.69608816052697
11.356400566875429 51.55148552314775 37.85100165032415
12.915466349227968 34.06602128662905 31.73256646943912
10.470032659041165 34.410545393782506 32.45817523391388
8.858431493790244 33.16015593143962 30.79892003694542
9.152222917828054 31.486577894416843 29.22092977378848
10.549617619285831 56.77078412846458 43.51085512104375
8.964133458077317 56.16839352214043 42.54362407598004
8.903156129641362 54.843601638576736 40.00200270163138
11.138829792596358 54.34001420459245 38.752023761026315
1.5304855893192408 25.90643814867173 30.882769576065243
2.2542208010530915 28.34668915530192 31.264714246757986
0.4560758251959385 30.448542497489438 30.68427741350854
