44.827997438406 4.084179349449053 72.00129689663711
42.82827011451913 2.9167291135266242 72.06760551539739
41.481532979755755 0.16524152207419573 71.60315206806968
70.48390713746329 2.3949210674370436 58.17647965234125
69.25199321923206 4.001915368607734 58.57030626012472
66.6310989870476 3.6142523752953273 59.57467539779801
65.72365259051838 1.7878804827506554 59.908299406255914
45.572942998094454 6.219314565067492 68.4017236749438
43.80483426200488 4.574161802677356 68.90780318734889
44.086898402240855 2.1045538025353547 69.26622719298169
45.70758160573882 0.6061582715436762 68.50608535172671
59.98044651753297 7.499978253513455 83.47344347609938
48.55044695146815 7.42059825608028 74.2564634230779
49.243792283554754 9.405817113379532 73.24294631284538
47.487796260607325 11.178583390290006 73.54570638095986
45.58840055066983 11.10020232062229 75.59369835387284
45.617306248091744 13.262500685513603 70.65231579117984
45.7698306041539 11.538441044680924 71.70239799424833
44.96128535319009 8.975048753324238 70.90626767033302
43.98582018363088 8.26938840732692 68.76769456371247
62.77059623157456 3.7181001206158095 55.69487866671268
64.85050288011143 3.353062412383747 55.70939049358462
66.64395763266113 5.084445725383401 55.83095130985471
66.81175214573778 7.164380704979883 54.96414060476825
59.60344897378795 6.792983323497204 63.8916645953301
60.353141830183354 7.9240559046528345 62.188943447719446
62.81844597846384 7.381767274957533 61.14522135553237
64.65662879495258 6.826077791370464 62.070194561057285
70.94670633786578 0.28585024857430025 56.49050734342231
68.87043372973461 0.2550004908321164 57.051783000487156
67.1199754336685 1.8791296536576905 55.68496117402659
67.17620939014793 2.7160293168800136 53.46353879758574
59.75219227110533 10.220731573245727 61.02848353432871
61.77426553477659 9.740563025053078 60.352102204111496
62.005658551419465 8.070753317588606 57.930688635389046
60.38213671481098 7.755825189284682 56.19271310270096
58.314360516698 14.782640573026498 79.72495297718241
40.72436333541188 10.490003681334883 70.34882791136368
41.13031989621007 12.171943373663623 71.86757058436453
43.25311897152454 11.618730632496408 73.33307962032734
44.02211619012434 9.071241595598243 73.33828247130221
41.20887393713535 14.421342455161428 73.62701033979401
47.952624827228156 15.58556117535697 72.97821655206401
46.738008925699944 13.687353041544664 73.32792734516846
44.01488546941037 14.293404473766943 73.79771531288627
43.31030160890109 16.873573980233072 73.92250917362472
50.473163986530345 3.537662184201666 72.15222520442653
48.64265491297772 3.65847374847417 71.0882454243277
47.19718906035551 6.038486533344852 70.42168834366515
47.608796825203676 8.203157238814644 71.0417856672617
48.075156950738545 0.8858246973746238 69.83977685015276
61.13331878537927 25.03708594236312 60.95226172616606
57.8487028956711 1.5998962858090262 31.20302857217273
29.681047649083368 19.441758853432336 27.617832107262483
30.16027555476552 14.916091233563689 30.64076018069431
29.960062650369824 14.287978549143078 39.38830235440068
28.186294798853755 11.924399215043163 39.065826638803
25.89283678023911 14.981779150012594 37.1173930881017
30.02818619480471 17.864483042501757 32.16130910529845
29.99531933540589 15.850078424140124 33.03697533619956
29.195105900718797 15.635980844262804 35.4965653413877
30.07391811373246 16.579667540254132 36.90312346045512
33.62454932010301 4.536871519902872 61.99459630255294
31.607378066784992 4.281012926915465 60.863573312609226
31.690419764147393 2.6440428841654326 58.70717353211122
32.463177183160816 0.3859606711516424 58.549535908631405
44.42523549611877 27.067191065741923 39.385200190318024
44.77144835348813 28.72365396767134 37.70861379727211
47.46347656788944 29.255919485458072 36.92749015573793
49.571382802695815 28.990551279669283 38.04988722090071
45.93680375089584 31.866711789262617 33.143578434086606
46.62419632551804 30.127940326615004 31.485911974585235
48.92475857034898 30.239901207982623 30.314769627294776
51.632053967526 27.88566294294967 30.36804278362737
49.53166510390026 26.46225642678564 30.177673253275895
49.306240440563286 24.07712889213929 29.7920854378665
43.27039826137211 26.90970171255706 31.369754189951855
43.32912032711182 26.877090207526305 33.77206857247337
43.751663655138024 29.319930367897513 34.8315382005723
45.208304009130046 24.68373867171164 31.890028082636675
47.07872439413659 25.64793452749761 31.17323850993898
47.940595486100456 27.8786935226919 32.63247273840568
48.152651101660666 28.104247616313547 34.649800002468524
28.575837871618212 1.0388175399678214 49.411579115361896
33.006154669281784 0.25193224811536274 51.92427057582871
63.89516779408273 14.05708758973925 35.54430599826181
63.63947729629834 14.885167237189426 37.90123712907173
27.847325249653494 1.0144707314420285 56.39624863506982
41.42388249049452 16.097080412253415 70.89338229372346
40.95318162868995 12.145768079067365 66.39730330477967
53.19389148939443 16.821123609385605 54.525216741452816
52.40329829639737 16.230458080555753 52.30943187299329
51.97754671980299 13.537425060388314 51.838416363565
54.91241076092824 8.249668559802885 33.80448628207747
53.52165468367202 6.119669066723222 33.478250629459325
54.9654615914365 4.023302072244503 32.86573956163388
56.86269512210765 3.6925388321150043 33.21239915366899
44.668510841675385 8.94509199946378 52.526896759724366
45.557407627375234 10.620006248842019 51.72690196847188
44.19137713838452 12.416066456280772 52.566688339506086
44.54007643741781 13.68498395937121 54.39622694622377
50.4503530678225 11.46853052061193 46.98641014478378
48.434039806080335 10.893153624743048 47.87530052232261
47.82484144999757 11.027063536428487 50.44936641589847
49.10317002153682 11.44103476406462 52.32786800965499
49.01928368078764 31.772625075198246 39.14722497810944
47.23746383047623 31.82489972628228 37.45483001904916
47.97394960523011 31.735364506686928 35.03684013596928
47.69567824919043 21.669877337707106 28.806800806709106
47.91889243449049 23.604539977828356 27.311932019172467
45.91699103832741 24.867072892342684 26.4980648481973
43.44539116473109 25.051246880502294 27.908999704222424
48.93108280079968 28.52779936011859 28.33381141562094
47.52700723149519 26.65267711531924 28.349529706212675
44.91891786810542 26.899411139761195 29.22392816515972
43.42344380832604 28.421985931026693 29.049076013145438
54.27038354469516 26.480069192227223 32.71231581982884
50.87511493852244 28.83189401263293 34.09272560996539
30.37764861230818 13.154686748750523 37.05796677716725
29.23995649858381 11.638048925697191 36.33486406386287
51.06155799982416 1.645113904761169 28.345455570231753
49.26683444422425 2.197691375774647 30.216762682542903
47.50584344127351 0.18874292869594253 31.22375919065762
43.378503801003355 22.327149179394187 55.12504943980725
44.2899894274996 22.654758527305198 53.24895453368101
46.46565456558398 21.664142748155577 52.55965276642639
48.50705843969477 21.402803429901464 53.2943482822615
53.0920229686358 2.211848524953224 36.94335939689343
53.01718103357119 3.021769578693279 34.695541381159806
52.361789123852866 1.4915175976987716 32.5990113773179
45.008498259635374 7.9543081595433485 27.45573211291555
44.630998188564526 6.522754032522873 29.096120109330982
46.69753219197052 5.725852585815166 30.720682265039308
49.10571103515483 7.047588587796985 31.215897627909158
45.9889971099572 5.01812109268621 33.31889599686632
46.77744668733754 2.8614264859069327 33.693468825591886
49.29994830739182 2.651934516224651 33.06700638778492
51.14031508176145 4.008377758012472 33.116857009893074
47.686413422257594 18.908377221069195 54.581253236083576
49.52904454743197 18.450514756317926 53.03445748292789
49.9981106264394 15.97905252606066 51.7000505828984
49.00394403937455 14.058373260015046 51.911740816932365
42.88361108049121 5.233791351886829 27.42112011314443
43.24198586041072 2.813473464069368 28.140119269402394
45.828840637115256 2.480307595801145 29.136530326190393
47.59847201004685 3.3494237551860473 28.445857786239618
42.03100451113756 4.798761385389525 30.90952684247131
44.126048986525 4.293136351146614 31.31827282094856
45.35816322427433 2.0657519544287304 31.5983017816258
44.68908869309661 0.021169235155610613 32.505573751041794
54.09587172591839 5.617405690264252 30.556596249884127
51.946676992745125 5.909194498305914 30.942021220970542
49.790313724957386 4.9085210077627615 29.310363605462946
49.91721874121628 3.7791939993082933 27.233122092935734
27.054000254124198 5.789828657019511 79.64184572961224
28.56218157089433 7.218291222022612 78.60173291548244
45.24335713183672 0.34952334321460615 35.1542690770386
46.905726473245245 1.345668260257914 36.083070737994696
49.205140549359356 0.9033851099895533 35.18429374227729
41.53126061623581 19.153866189027696 51.306990169284816
43.240158553624866 20.384191008479856 52.231309146251206
45.26530749210132 18.94531472253193 53.28113409263054
44.99005589096603 16.35721884973593 53.19526167484746
44.20313739074318 24.902405847145364 51.49705416516802
45.78839941879993 23.89174655341505 50.534773116762274
45.365050881001935 21.298638354131906 49.29768978021964
43.19678793284498 20.312497704804365 48.89851379266053
39.32456883766106 20.287794551449092 71.40662224352073
39.76397689296977 17.871113559931743 72.52174659586697
24.466679298080052 7.74866279159955 78.30987927229239
24.81795563122945 5.711833667036049 77.71976611904003
28.927865807331134 1.9527362087053315 60.29453633878819
29.421565237080838 0.9110189106308957 58.63447374374824
26.154000797778775 8.007386183908304 80.7697093071514
36.71382344913952 14.885335591982757 76.74502508349052
36.9104382890462 15.408897593598251 74.3566155742568
39.38758411320262 15.249596211524182 72.93886031263322
23.997834263062913 8.022551995460077 74.79825099919955
26.4923662660657 7.494199942530148 76.15309262869627
27.82282304600592 9.173637482510882 76.52298696916984
43.26102050755884 16.5369261223261 50.01101923268745
44.00595699824692 14.770576733983608 51.374080789536656
46.25500017880431 13.524551179234678 50.58345501952071
46.96277406420955 13.231810350008807 48.475619738391124
48.31675589237337 22.125143212142657 50.001353626046196
50.08915889670165 20.76316282027691 48.83871433628292
52.20433189689671 19.829294705718844 50.325136345206616
52.46255738236645 20.179353151198832 52.91986788963642
45.34079224866899 16.52775852402967 46.63987372804068
44.44212575000486 17.916033746789047 48.004034982174176
45.87352567034201 18.710952774991664 50.41855200273423
47.98713229380586 18.897233465191395 50.79393824382816
53.63449516551405 17.249760026822642 49.9634085329794
51.48583602515268 17.39449917215772 49.81017049264273
49.548342541703065 15.74427476106751 48.64539912534299
49.65345594257795 13.847726573309162 47.56734878607346
56.1248099491302 3.2838942200721037 30.297030994492587
53.60739424727543 2.5885374089306032 30.197376237498034
52.60184023364207 0.13972278874130672 29.94882926404147
64.47054944175225 31.753082996659835 47.66200014373696
54.04784596182285 27.40417343501773 30.304768861495646
66.6541193464428 14.92497071332624 33.60867849629051
63.52011324228091 38.16726553912193 38.066663088460786
65.54470648753535 36.20768991355434 38.00166258663159
67.70193096399106 36.23205840961982 37.38369829418241
49.46775625683986 33.13962611094393 33.85853096195005
52.87202149933716 28.14507901438538 32.734369868378565
51.85228393009772 30.078071009263564 35.94887626246015
53.9882294360605 33.49771025761484 33.674635367060446
52.444510727691394 31.936210541939307 34.12571236385407
51.08196483904049 30.830411499086342 31.908754605679754
51.64668858307952 30.73125977448096 29.694497596152203
63.31148783643068 36.33376753162868 42.77719112253158
64.83687091104952 36.35053059708314 40.70268020214213
63.8167578139678 18.37446741661325 39.442757686749275
65.41334789992257 31.06621101583467 42.43515504460511
65.3205471449102 31.203099369930374 44.599786291504884
18.226432206045107 4.0813422305285325 17.186133761745754
17.64828178938752 2.7761107742830244 19.105852154329934
15.296420653519741 5.954936423465755 20.44051013531473
17.549624014714677 5.900773835794719 19.448192330294166
19.55315213070137 6.466268383855036 21.135461415915834
19.076402214720076 7.374820741844182 23.51527562317691
14.677346491898842 2.449991517219089 20.656932932371756
16.72296568915519 3.77823231317416 21.871308927859477
16.769967799668372 4.694897158040534 23.96973488104147
65.91605823766609 32.05079249251988 39.2783955800344
67.11028951646665 34.15530145749395 39.266284465701595
84.2919349828392 34.227298261042364 38.925713810148025
84.88419488395849 29.26741136718259 35.56758209508424
82.78265515058747 31.126585947483257 34.27913671057973
82.50365916950042 60.42542519899442 40.77529819945335
82.20667466046919 59.473070670716154 39.05600688697013
83.11586388834161 57.19001833202403 38.32987100612317
80.11733236855947 60.45475173724288 32.55270521058793
81.28081909717152 62.02997574149444 34.30123163911035
82.00489403699373 60.62772832580457 36.56367144641685
83.20233970651637 58.40073950176991 36.09594023912366
79.99709530189799 59.63417424844868 40.276639295716436
84.87469076599453 54.915949416962796 42.62666056573187
83.5319746367325 53.698241055033705 40.888648462150186
79.50011013317797 53.62769569633781 38.98960703438383
77.80880623598853 55.02912816661189 39.378022086652116
77.21374754486186 57.609714739434764 38.474792136989414
78.3247404860433 58.95445461034044 37.01689102373312
76.18812265429197 42.1794343165102 32.75927310883567
75.64583095936118 40.41012387037019 34.618027062129784
75.73065235337572 37.89440974961914 33.68572701967766
75.47476382359616 36.75409557954914 31.689160192953622
77.96169568070682 34.69920425444898 23.80830711883575
78.0353134490129 38.68434154939062 24.15802412455911
76.97902319223049 37.32700587059708 25.39786735854221
76.34729918544609 37.825735473285036 27.863384549881236
76.15104024564582 40.12969957517883 29.05784146729721
82.74583143799603 39.17199410809051 27.78128565027899
80.76792848360763 37.882775860345966 28.01221799483678
79.46691066540987 36.36203444799206 26.31455556731943
80.87336168361159 35.277764764335735 24.24848748516153
84.61516057789379 34.164554608471605 32.44463383192025
82.37304383675804 33.71453236615701 32.626917936732355
80.8588222307443 32.6990421068418 25.564604804360382
83.15684834155907 34.04258998151726 25.35782494098802
74.88761076315194 53.557330061580714 35.69264885285642
75.27083828635479 55.88671100391572 35.21023531683635
79.22407375114136 56.933741018730764 40.954256401977894
81.37521803009567 55.6837865286156 40.04146303381865
79.1854853852463 28.87833196301532 27.8186492568366
83.88715440906617 36.41802495548811 31.90522846394553
82.4466954676297 37.12277804716027 30.488063703793475
81.87926350537909 35.36804867032935 28.712822172867813
83.66484805743868 33.58225070225569 28.06112364558598
81.54721009298468 36.21049350937541 33.27830969653922
79.73400630338254 35.49522066516445 32.90863137424289
78.00408908377156 36.59751999805498 30.844409027720154
78.66077991331493 38.454340652139024 29.31919957514681
81.33568852540824 28.626867522372486 29.597577353560595
82.65201309275618 30.132986813130962 29.730098352973872
82.20246751507526 32.574149123308295 30.122584660749798
79.82463215858579 33.837401894615674 30.100969326093907
82.61066959172565 57.22729229903468 18.500864321449022
82.21007502943249 59.0693960902804 18.127058792037737
82.98220105450552 61.156985445278266 16.262422480158936
83.88337472864853 60.93816964635747 14.398073735920319
78.98322121207208 59.54321920024051 12.662438703016337
78.77409289379216 62.17226273504122 12.858154140620442
79.51265830573092 57.94333405039025 18.145621851830725
79.15913454525086 58.511140885777465 15.889852539510986
80.69364208359391 57.21816790019926 14.022521621615002
82.09206440993347 55.346088010703724 14.342844687441284
82.83796435072136 64.92209050373312 16.940877492738064
81.46643654621488 63.160146294801656 15.15122835947359
81.66032094336383 63.22880184825016 12.651099756376922
78.54728248079294 61.16373876693529 19.184275335133375
80.89579027072341 61.47420559539028 18.062415375541892
82.78155610161734 62.725687929945025 18.591000897272245
77.49844777119874 32.47448849914032 28.06633346631753
77.28101772106135 33.79726599445505 29.98017865729208
81.3417143501466 66.05732110633085 10.818276349763291
83.43609309472504 65.90087745069044 9.261792661161232
83.8820316162663 66.65429844767405 15.933367730110461
84.11296834325633 68.18049918933413 10.573653586366206
81.95864865307591 28.602011041736763 26.77717522222673
80.55717089178758 30.147063430147927 25.864641093599534
82.49367536051889 65.1493775457307 7.418581847786637
84.7332021759182 45.35533734811196 3.207345147508113
83.59430852626296 47.49881891321112 4.3799114338693705
79.84281746515637 57.17402946397457 11.334151866266863
82.40693271164308 57.131493414256454 11.157555871101321
83.54638529980755 59.475288332022096 11.076278838746067
82.77268650452012 61.49048553915137 10.545889433949801
80.80493489481918 42.99221839091104 9.20745737972534
82.97596134437165 42.384754204581824 9.171628822068499
83.79442489702936 40.2208170507609 7.325051421766858
82.61269690607763 43.690159714632955 4.5749936898148995
83.92692236638435 44.374574885548164 6.712671817698626
82.89634911666066 46.12522894816235 8.654784438568885
20.968579085418632 15.00366273016585 3.9154678984461264
20.671594576387392 14.05130820188759 2.1961765859629074
21.580783804259813 11.768255863195462 1.4700407051159403
23.888564839340575 10.764259915849193 2.2837790438637877
18.462015217816184 14.212411779620115 3.4168089947092124
29.65179983090979 20.569096585703207 11.608257953200171
23.33961068191274 9.494186948134226 5.766830264724639
21.996894552650705 8.276478586205142 4.028818161142962
17.965030049096168 8.205933227509243 2.1297767333766036
16.27372615190674 9.607365697783324 2.5181917856448908
15.678667460780064 12.1879522706062 1.614961835982192
16.78966040196151 13.532692141511875 0.15706072272589602
44.3129635939697 31.83944921314758 20.05496337606694
41.949811182772166 30.30387986265741 19.1548326568695
60.39070723677245 28.03866659665295 23.1126803975962
17.688993667059563 11.511978549902196 4.094426100970666
19.84013794601386 10.262024059787025 3.18163273281142
75.14228100641552 29.51357970404765 25.546083769117132
76.40584623567479 29.485858421537554 28.178280177713297
62.4862186081717 48.66359971390668 14.01204888897732
60.94817745087254 47.8446875955032 18.030406776921076
62.489109372428324 48.62860254017942 19.50490709509676
57.50599414927015 28.07254885782103 23.694111410923565
62.27745645445121 44.66181689656469 16.362508960045748
59.97855993027482 45.38640657102596 15.947972875632011
58.11385872974916 44.226440661084375 18.10120841877979
59.262603367446125 44.73817884284329 19.851660093904552
61.58416414622796 44.773552383398226 20.12390898364998
63.4753409598165 42.765880316692005 19.36894256448614
64.98119651504398 48.88016278759774 20.779530030825498
64.01928681128386 46.744662237866 22.568723965582393
63.210291659480944 48.58934000508517 22.73361121184784
75.28208118699995 35.1123655439706 25.25543423427109
75.97393054038315 32.15513924297498 25.814363982401296
68.79104075329583 45.606324630596355 19.165118230366026
67.27891421261216 44.34666575783516 20.593956846007888
64.61269277092174 45.02076611553228 20.451335733288882
63.37811012091969 46.17294651010932 18.94168969193731
37.22219518689105 21.82564294904033 5.130026494663226
36.31691590403406 23.635626158694784 5.887548274430128
31.619310848777285 23.08398339476026 6.17870947090285
33.879077452668525 24.24055528859074 5.046462568750301
34.783597810713744 26.350900262506542 5.6921061952238245
30.62322804432129 21.928185602846465 9.825975979268396
31.40036296925622 24.27869984324891 10.773267875291884
32.65456849603186 20.656001382682533 7.4251500711707346
34.30701621302481 22.017682886337596 6.747271692464068
34.61429252493373 23.994648985644982 8.753993375350621
34.04302164227109 23.641957625754063 10.971759489383256
75.94308066661223 5.050043516938592 19.482662741421507
51.49782049556503 18.63484449909694 1.90681702846044
49.8728609825618 17.38944396050682 1.8831991941215989
47.39554676179766 17.566023129479586 0.5343592108762114
78.16312500927876 30.591662779033207 20.45741907606863
79.32391564056617 30.285708420536523 22.651903174416418
78.65869893757045 32.33547530721947 24.317968373480596
64.19300351039729 28.11190551313637 18.763989812980707
63.67783591725101 26.25606352711092 20.299057471814
61.44862286436305 26.334997692174653 22.057176682603224
76.71530787742583 29.24319185158275 23.86260602276347
60.49843629104211 23.055684005210953 19.690090714863853
61.8995328128898 24.37984881178941 18.904353642190713
61.31077871140104 26.742784706745805 17.42752312244884
59.94596517775097 27.31486363199848 16.521144657020567
58.095256406077866 27.713380435418202 21.65911001750088
58.93999800476897 25.03436662382399 20.98120295970682
58.23956220681235 23.198493292812547 21.593239956093985
64.33647418551203 46.769924639675416 13.384557048727295
64.34927095156567 45.153093810438214 14.798611245239965
83.31622447280299 40.8938927714058 4.609622016777555
51.36724143358476 32.60223785338083 3.044735762543832
49.719225432806205 33.92828658242204 3.8062286943167116
65.74819333934643 9.79845166964156 17.565977711858107
66.28006762141523 8.526345912159181 15.910998323913597
68.76366701505148 8.092950831922437 14.853821781062138
71.11791039305493 9.002999780228672 15.726114315128402
66.85076749572524 5.885325259337713 14.972409157320259
66.6689631111475 6.1907694041838015 17.234386905606026
50.66541902002135 13.905702385944261 5.5353302998428
49.715367475147545 15.726741615239161 5.534063541225375
50.38729076299426 17.96276430018475 4.665243702008564
52.860720556516696 18.734732509895718 3.9616695350284505
83.00804178301307 17.074811972199818 5.59561427122658
83.14003623429086 23.519161627846536 8.995306375395705
84.49281947251853 22.744408723415912 7.130806477350226
84.42167408143267 20.064504585820647 6.812824402272279
82.71771508819963 18.498073781985994 7.523738612025689
80.28507998859286 1.8696536289820227 7.165170024232891
81.13667722918875 0.5669412334016042 8.360186975419579
70.51940732575257 13.134807314632182 11.554169077286385
68.36650992283124 12.052459627266089 12.462060720776291
68.69948124917698 9.220460679669527 12.577719128467761
69.75868317256086 7.900842181298023 11.392012076730957
84.88451326671574 27.389847197140952 0.6654643326235437
84.76063377570358 23.514315223526 0.45597697896474015
83.7759642297021 22.66926532129962 2.7573539707741666
60.83135941992049 31.07848278072786 12.713582926225603
63.29965587788478 30.298309577889498 13.52557292687599
63.39250056683111 29.288226840343828 16.156162261714126
61.50527533995408 29.48653886804839 17.881726211476263
60.79182759135414 20.750198274660377 21.42388342506808
63.18656583089829 24.394478088930306 22.882582194549286
65.00961088387488 24.33415281693985 21.638396535840883
70.3618849451725 9.631162888081022 18.94970337090571
71.2688123173421 8.018331548062159 17.928287402487573
72.8497883006488 5.9981972725457835 19.11598843348468
52.86265756554966 12.08265351606764 0.7329456206269287
51.483046845968055 13.27484548288791 2.9283700349132
49.75063806671313 14.77183232451327 1.9781617905544921
48.57227559821771 14.8322229002424 0.0366382797458627
58.42827444349991 28.487475656832384 13.350859456845438
59.28946020029074 26.231641045522633 13.861170507265733
61.70866680965631 25.30385294870122 13.163567946600834
63.08929788410927 25.884083801521694 11.383095924529353
74.37417174313073 2.0022207031979766 16.045569291080476
72.75302397390315 1.392855406179073 14.12487585327636
67.10389072496778 8.654453037867233 10.357451943294738
65.64535056146192 9.488293694799818 11.818356331145687
64.37650487947798 8.260834314075835 13.898398687219782
63.915677416296724 5.985064562918513 14.400666935116067
76.4749936010177 7.235812581612582 16.724473167051283
74.59809499159597 5.796244125321363 17.175790527360565
72.93288857933454 4.395417994069795 15.130018203205683
73.27097939989095 3.8695236056638973 13.100576809879259
65.75107653418253 27.91094576311356 0.2862454241786636
65.4500984045286 30.079799039660486 1.0112172399362165
82.58047630350619 38.38429782029708 7.685930420728561
83.51341585589492 18.2895356936384 10.164690176316416
40.15390487274938 22.749123662598127 3.2941922161804085
84.108589024279 21.77541950773391 15.444333312707583
83.60885555157523 21.32448889355114 11.129275928939977
81.59937029340918 22.677536628669372 11.10154824414509
66.69290988651854 28.444224249094386 14.10582470331009
64.558867027129 27.542878638385762 14.088010882352645
63.603276204652154 25.522983142825748 15.944520316817409
64.65918507464573 24.858124707163466 17.960930933351797
80.91439030267122 45.66696013981012 3.937439921811598
48.029914740078276 13.912794812983806 3.7364249665693112
46.886986990493135 15.299191885296532 2.5153357579298263
46.24967229454199 17.800750045974752 4.0603960350766135
46.13259169619582 17.89733811806408 6.52447346719052
48.27468515940625 23.388503839868093 2.869336013169452
47.538247098784595 21.792796790164466 1.5282194068508492
44.9351438804475 21.37726328616104 0.8856218910065762
42.86994066387629 22.988961073616636 1.7733603613421436
45.98957496224227 22.246904371119705 8.228528937746118
46.77071758514702 22.88903701557438 5.4989545599077
47.929190753486516 20.63313660251435 4.591992229510815
48.66845775786352 18.750257072783608 6.475306498265048
53.68027709475638 23.96530637085608 4.9971404233409995
52.779874242572824 22.045437768402472 5.967739080282287
50.757975755938055 20.94451643972074 4.247197653529403
50.26117651667368 21.272027730853452 2.1023430737528157
44.9321142199749 19.773547040804974 7.539133114186453
44.129867999421926 21.75953474496311 6.414346670913203
42.47315793235778 21.647088302686242 4.362196268358585
36.07383945136322 24.950485170197762 20.456137278417117
36.53160465088133 26.484471094662865 18.386311064258326
49.65403004009742 36.67414822380314 3.854332674241425
51.16221135686755 38.10261078880624 2.8142198601116233
42.51897419840455 26.43202108001756 0.31435559520503775
47.066709084053265 38.632982358383174 2.5223662169215766
47.417985417202665 36.59615323381968 1.9322530636692168
48.75403058375199 38.891705750691926 4.982196251780593
59.31385323511274 45.76965515876638 0.9575120281196972
49.09239605203892 38.378519509313776 0.3655795733254605
50.422852831979135 40.05795704929451 0.735473913799019
51.96931552197088 81.21284259611613 51.11915510411278
53.87961689520077 80.00642279396808 50.6878388912019
55.29565847410652 79.11238312823721 48.76280128407368
59.52055635209984 80.82427430479353 53.24632745085394
58.74126691072462 79.38569197213575 54.44964038673609
58.530638792224316 77.03949876012419 54.09553867957076
60.22640902842428 75.49596651992877 52.79682415415172
58.299204286062576 75.03847802911608 47.96428873530646
58.768119879242015 76.02760364796583 50.275782578874846
58.5531068853838 78.36635006201256 50.62289886456476
53.682233944041016 83.06882089966939 52.92206567747718
54.75853339900569 81.20403530939043 53.105526549921315
57.069513890508496 80.51567276141878 51.67952480066944
42.199128763975764 69.73182897012978 64.50310015308402
40.952393309702266 69.19483455975393 63.03294587687529
38.21276818030937 70.06548550703795 62.52355190946831
36.9541491654905 71.18299677920571 64.27162509488582
62.400750084940334 81.12075409418118 73.44686451992291
63.66493945927911 82.62928831373607 73.45715059321076
65.86678484069466 82.87916971874704 75.24133830821563
65.57759223270388 82.25049523884722 77.28932073433549
50.65999099027523 73.92372225006602 82.99238517539656
49.692558753218826 73.47752975603686 81.11132638781159
51.38569295122973 73.82884989529371 78.83441162634934
52.60954038061885 75.7037250843474 78.7269172701397
51.43796979815461 78.65656637927312 52.28246409780715
51.716138357399515 76.83807510953898 52.437146661370974
53.62553910775309 75.75510428530058 52.06303663115073
56.272444981168114 76.87456460366889 52.65685595093829
33.30611926121222 68.64655573309159 68.40630517201446
34.19175058578051 69.05623201918242 65.78984627435239
36.96012281469502 69.2156546950326 65.9381667105949
38.22840701276144 70.47651015957433 67.39483769166371
51.72466407316506 71.32656860986197 77.92227768289527
51.377490619540566 68.78078020080902 78.03679588463973
51.99696757613531 67.52785871432457 80.25559821143351
50.38517550125258 68.6495946019374 80.92061214302883
37.18036170010674 62.571330954798874 66.43599089001323
36.70060127495383 64.79262818468158 66.4729872504617
37.84900713133529 66.6191009275119 66.01152352963658
38.65362678544266 67.65220831128012 63.65668536714035
41.34336089296559 69.25251643480505 59.936224547014824
40.35103435665586 68.66939553142876 58.04367838313024
38.33042511828611 67.28943171192557 58.162779581403626
37.71641126349724 65.6923844585803 60.2098491495555
38.44430267976066 63.46190626828015 53.72258667406399
37.539023396903666 65.27188947793462 54.4801084538309
39.12371314226645 67.34199017713827 55.53109108906711
41.363803046691984 67.86840676350401 55.30055138515223
57.61744594338864 63.44817994618115 80.36854026670144
56.8849376254971 65.33834086956242 81.11293320522874
54.813497974861846 66.53310960966505 79.78945993518599
54.133070581295534 66.04025771561925 77.5504960992876
57.117683296640486 72.72771526468254 48.4353246512322
55.71429753769525 73.37809937132232 49.91094315122822
56.888684094779464 74.09788077197337 52.501488171242876
59.12550643529364 73.14105600135083 53.29411344234014
56.694739021876224 70.10487822544769 53.953171840699994
54.86617236939892 70.74843929502745 52.96410791641753
54.43281666625439 73.30145178682213 53.345756949851385
54.60930904318049 74.66936329919982 55.57288596305561
61.23338373072964 75.9807929646286 57.21693747850875
59.176024035345684 76.90129798952621 56.81192850412777
57.49349724305053 74.95157735261222 55.56785705543526
57.962940638071366 72.62851484439028 55.687475372342085
50.42141057184098 68.648261341504 51.82774599207403
52.40556269142507 69.7042695640663 52.00287147217261
52.98882751901656 72.1127787052332 51.03648663003624
51.08868774037243 73.71850829616199 51.718925763691615
31.240613645565496 76.41033641058709 84.55091442962701
43.31622974671152 81.67301344780711 76.99771849026999
43.44547427199716 83.73312529422027 75.5752525472763
41.4697282951601 84.38997453050654 73.88840990259463
39.76057967605073 82.86457132097932 73.15225464327429
36.005705303583355 67.98716358174636 54.28466637462459
40.25167466889354 67.94630895550134 68.07637441698623
40.635593971544836 67.53361336277214 65.76667604515698
42.66276780992015 65.84148831392328 64.49339930603234
42.56531779152883 63.39029917363329 65.47332289461606
31.873851840916757 67.04542127749563 61.32609833958181
31.224433401192957 65.11598658028214 63.33844423297067
32.45187159977158 66.51016222088356 64.0106856712861
34.235082798176904 66.11640090806715 66.02016191173672
34.05636059315096 64.67465464619754 67.91011373487773
38.68584312930623 62.8302995810492 69.06951985366469
38.76638043539459 64.89993716019178 68.47092975769078
37.7053721519341 67.24585846482006 68.7266753694742
35.92238286865499 67.94507238175528 70.36186715857991
32.71471821672669 69.64767580105658 63.20359752657988
34.9907543347008 69.89617683113244 63.23923832461716
36.390780312538574 68.45832398902766 61.14067102259574
35.79081691982545 67.96016638487448 59.2577022301658
39.18984256274634 70.73931988911946 60.006871877388186
37.05651079989143 70.81310979270185 59.18489083058081
36.56953858408313 70.45458684535443 56.44855299530806
38.36613739500073 70.09793937912232 54.849587903493955
53.78672324174907 64.60330526868027 81.50487969358443
53.50815683736454 66.67984797802116 82.63890479455911
51.317872596363244 67.56040913773475 83.18431651820589
49.010068975044184 66.19692721945026 83.8638328096156
55.75618440000591 75.59745879640019 48.60688317604303
53.61913578280951 76.8396692143407 49.44331629251426
51.26548250348941 75.40603442556426 49.53396336396626
74.9604179120688 55.77042754562078 77.140680634556
35.83640001780334 65.63091230488482 57.34655355475139
35.265129135140704 65.27822094499388 59.564319668784016
38.57311517293049 74.48748131440196 42.755713802864406
61.808179228106525 40.20246811004919 81.93833802346268
36.193823286957155 84.78367617519288 67.38296857389925
67.28269706999565 81.6454928609168 68.1439009168277
67.19223967733929 83.99089942282401 68.704417827241
71.71465443715037 84.89954742830307 69.34989293810274
48.543511278940024 63.17886493783532 82.87814094049247
48.555297404588 64.92255341744489 81.54568639252523
46.72212522307589 66.3039784047688 80.60114195712667
44.19745640079748 65.65644523123271 81.66788896080419
51.58798188078339 70.77106871581488 84.64738022238606
44.86241987091248 68.25530024189518 81.9202372363183
46.54292763694613 67.79460849368436 82.94423674499721
48.56314409874087 69.65504442266926 83.94642469014205
49.0145145631001 71.47673280719283 83.49842054555744
65.14887441174393 78.89194873232935 69.35280155158533
65.56045355797723 79.65475739262435 71.32098898454925
65.68290758356986 81.93981342200702 71.6845002399299
64.78371967885816 83.81340319010907 70.14894685512111
68.09960510757728 79.76730141919815 70.29531061033698
68.47703128233282 81.96503563538658 70.80669117249556
68.7882534181655 83.43357826546156 73.18588359112076
68.64328507917944 82.33640398718835 75.56423099915331
35.558857588955625 84.83464798561953 70.38165560062674
25.037273073512836 76.79722099730652 84.79053235210642
48.54437416799631 72.97377796429835 78.37715835590173
49.30351433449225 70.80479096781049 78.63164801034824
48.002137223840954 69.05678837704659 79.74396231926575
45.268407498006965 68.2600281540585 79.374329214406
53.44594726365193 73.53966550261191 84.57193296814205
53.88051890294445 72.33950615752101 82.50641196618814
54.60684254436564 69.86032893207509 82.29868689668947
54.73285348052726 68.27656217802988 84.62630637766264
39.649783022582106 84.78372394901247 71.10009544992363
39.97073003967975 82.81952078636714 70.36038736502594
44.196238619796596 84.60531987475235 72.18927818268682
48.938930772101095 67.52449761409392 75.99443142229966
48.30602096977825 66.775905227247 78.43343618930736
50.33564593091803 65.53785613981522 79.56756039033577
52.130594075447576 64.22832048601472 78.74758467495913
27.24375583782359 77.57509624263369 82.21452306841346
25.805805068927402 75.73087416298628 82.49268889712691
28.907269275282943 72.87024001919312 83.76774840379181
37.012670413189234 77.06650632970084 84.19259623506161
31.241075279424418 71.54992440580966 84.52921182852809
31.445208249861153 73.59274086106976 84.52047674520185
79.13326935918732 54.54949391253388 83.46084680788671
76.33370101810347 55.541456273187194 82.71363883256183
76.20789460682346 57.79009579600146 84.21071584116213
82.40547169436701 58.20401134380278 80.11571370504603
81.53446768460118 59.21429328523007 81.63047693745757
80.17051094954792 58.36037948024639 83.89345228364643
75.11003522449543 61.59275060668935 84.65499836022744
80.04231928316948 56.66844199331261 79.21558298584858
78.13206089849199 56.02955266265422 80.53092231334782
75.63426218070276 55.7050900217322 79.52492224025737
73.81090667280725 58.47587554682684 81.85651350935909
73.41954906457403 57.18346761296328 84.44660862792657
79.9890165131034 59.46114940522788 79.00504130702305
78.09976712476958 58.89476817571119 78.92706210740751
76.75187000221288 58.9883871607083 81.34874057255517
77.52982447290191 60.135919967451485 83.31866650423062
59.82968904609165 40.72785466451178 83.82210005688185
57.42815755421001 38.31815703776396 84.71506537082587
58.7240727920671 36.59144056734315 84.45635892384081
44.80422301443423 34.97135889550455 81.60552483417878
72.30123407829801 60.48584076386377 81.96508281005492
73.46725768735435 62.026123487244874 82.86739763965103
71.56112922862809 58.365553959021454 79.66117188840431
73.70715504870603 57.56557457243604 79.60543180604617
73.85674715351855 58.35113524618617 76.65044507143638
75.77549295895008 59.6843714968171 77.18823115352576
75.31433864269444 59.782065958763816 79.06270467611901
75.07455063277884 61.56606566440534 80.51775510184702
73.48696377969505 64.76022593526103 83.43789705105672
27.461418658951843 57.876471028043895 81.13444840882822
27.62549472713885 53.61812261867724 84.24895975282418
33.312968143197374 53.99359769888155 83.951462272928
77.4102301471616 83.81569763575003 81.35183328823643
76.86793845223079 82.04638718961 83.21058724153053
76.95275984624531 79.53067306885896 82.2782871990784
76.69687131646577 78.39035889878895 80.28172037235436
79.2574209418825 80.32060486863044 72.75058430395987
78.20113068510007 78.9632691898369 73.99042753794298
77.5694066783157 79.46199879252485 76.45594472928201
77.37314773851543 81.76596289441865 77.65040164669797
79.22619657664117 78.23378331729481 79.43696920712092
79.88288740618454 80.09060397137885 77.91175975454757
75.22641594579265 75.83308536435872 80.59747789634166
29.701764907013537 51.6258433406329 84.02680654080677
20.9203279511726 78.05999204822187 83.67554349912939
22.50880665411466 76.498609793065 83.5443473994732
28.89192952445657 57.740474021999944 83.74145207114611
30.007363969991918 56.994474827815914 81.65409853228674
31.93789591778342 56.02809087194727 80.03680679212741
32.16039422364098 55.35715624795532 81.78401885589295
31.376323862844703 52.84927635087136 82.38571924791532
76.50418867986957 76.74862886321041 73.84799441367184
23.69277059248026 70.33721735352832 80.25002850503928
23.063516795169374 72.45136375858877 79.0878735232354
23.772305629854245 74.35356195280328 81.19503558696091
23.685310993143503 74.07701926436721 83.38868613671892
29.82031993031708 69.03960273631917 84.59223742936864
28.93845495996932 70.30182365389446 82.8846718306426
26.253112325217508 71.16716126019436 83.11610346758856
24.532543670130696 70.10364083166714 84.72441557594453
27.003856664654997 73.99402389076418 83.96262646467783
45.96352509912007 35.39162086851954 79.52767057703258
45.2600692512289 35.70004098470621 76.17570544136892
47.841429885812296 34.62085715702226 74.11134290384449
84.36349855577646 78.27395538458035 75.43642627640176
82.50772236633647 77.42858690312177 68.87912826530989
83.86735895231793 78.26444385041803 70.35053105207807
83.27708393139474 79.1732641061883 72.90867510584461
81.76864002469921 78.70163539168013 74.4292374192513
84.60344078290743 81.58690163702575 70.8013367354825
84.31108964262441 80.14529935648329 68.59306044357838
82.24929670234161 75.36896796796078 55.846877803692244
83.0484592007465 73.94959271859446 57.72671294603069
82.97291879736186 71.67641863383395 58.057167642580126
83.99744836080907 70.63229152007462 56.48802276762281
84.33536833981582 69.93481098055653 61.48847635472074
83.7396662816124 71.91203595348698 62.37055264712416
61.957884875015445 45.843730571864135 65.96877744483633
61.53897096572877 47.80910048496863 64.62870232812705
59.68025470036043 48.27053242416977 63.04923397028956
58.0484240652178 46.02463739302721 62.175158779186354
83.35572811528395 74.6431667269949 60.48712224386249
82.36947785718134 74.34427037750334 62.39515567219412
81.00872944972285 72.26336712693184 61.985527690023034
79.40171936199906 71.51181382552356 60.330616793028526
60.76128661106179 44.634636694677724 68.03817495441594
59.12010643025431 45.40028091621044 66.76444970605662
59.276394658009465 47.89581577246816 66.44296690405216
60.37704916868279 49.67125529389558 68.11636839908601
63.680435670888066 45.0502926096561 68.59444184670821
62.81135116586997 46.872763543131406 69.88798307642892
62.911196728316426 49.15740100988704 68.64575285442201
63.94012647806082 49.91781692503303 66.99527811810687
61.34317709030738 52.24387256197473 69.77016338186101
63.886160488437476 51.50562609959296 69.36563533270625
65.38904987490687 53.23343977156472 67.73202132100684
64.18610293963563 55.354726214616065 66.6978684832911
56.01240425328582 45.58978782679145 65.88572268804542
57.416076645830024 47.24394268254842 64.73478196462312
57.16708165095258 49.05831245606088 63.37124649364664
56.392243631986396 48.110500773833515 61.62748527875811
76.47776657357194 69.72465394997569 60.97699199985145
77.11663718099584 71.29515773406979 62.25472872747771
79.12170323127309 70.82466072411874 63.98267528043162
79.99468322594679 68.62807124280373 64.74877224022093
82.23438888755838 68.46578982329643 58.128177711078344
81.7668901040268 69.50696162165492 59.779393958559
82.15580572428827 68.76571442979218 62.274599841329966
81.43528708013255 67.1611078277466 63.22993226211234
79.96316381307012 71.40653577308412 66.60571397003498
82.22410355406483 72.30227479327809 66.24527484110526
84.07477245522794 70.72839918061311 64.99119002151916
83.74145860060567 68.47424992474483 64.63904928955668
63.98493781112152 54.070676319711104 63.9843837167435
64.03787985662939 52.21107015972874 64.8369564619727
62.97301563531278 50.26849856547755 64.12387553057198
62.92344827742614 49.15536576908456 61.76464242001416
62.28721827243386 58.93915509241992 46.35353346308046
64.17078015588851 59.98422821969751 47.32073162648765
65.44593328938602 61.66604725757674 45.947276861409904
71.6656496634671 58.57257274627383 49.673795101264396
71.1079855093142 58.82020053114881 47.575500579826944
68.76981134259509 60.112406098722616 46.75423535245654
66.83401657919069 60.82828504294124 47.94678812070468
58.6236577457257 63.40802743901505 48.00237772827873
61.180040309190936 63.37098083721175 47.99945551879162
62.95800422172711 62.10878480152645 48.72769016115126
63.08824339570097 60.10611736112127 50.189168363265765
61.0681004851839 62.42173021944143 45.148509585330636
59.34892993551216 64.4687437855636 45.44722107475378
52.55045206659993 43.998918133347274 54.85915269772578
49.097187271101056 51.078376521482 52.651403911765726
68.1773571044492 58.25140928241889 44.22567726089322
61.90557078171585 65.26520300273988 46.28763135493774
67.0862239130846 64.25177931760312 46.763053671515806
73.63197258437364 60.00078835040863 48.11723155102672
81.51229814695672 64.29321468421816 64.95341174626087
83.46920201129834 65.43819391587074 65.15291049342254
69.03574085904171 62.94691388876162 50.098060453631604
69.75077227893657 61.64114450614406 51.656475981412704
71.9522317417847 60.69597644127552 51.47509504230172
74.26512543497131 61.52993087723201 52.89876188350643
76.23010809012365 72.2845449675776 66.24101345915334
76.5111129480365 73.37944537165427 64.19043012143604
78.83787995420916 73.66586802695846 63.39918046794955
80.96218049327469 74.53553994302538 64.74871209308594
70.58658849500591 62.175713037602726 46.4033718543854
57.394962959149396 50.658628486377076 66.93421571824389
57.73927247563024 51.20047997930908 64.59393595205877
60.226471565867456 51.415874953964526 63.99587511000611
61.31340337871539 53.09796885140506 64.27239681137509
64.3678742321171 66.0653999296961 51.58769991819726
63.847127697122566 64.69576058004827 50.050212950469536
65.44840982336773 62.23480804655225 49.73319632430759
67.02564621632833 61.728263486765734 51.32541160195643
53.73842625172305 41.715515924502164 55.87161546929076
84.61088040213279 67.21559550383155 57.85740924669
84.69037214943344 65.2714336928989 59.071488272807834
57.78785949421955 55.50737616347923 64.58228407923404
59.158469382828315 54.65447706297777 62.82062681120247
61.73620439066583 55.40429041068372 62.163617630400076
63.32433274731133 56.75780612622525 63.2538389325402
60.83880412811962 49.85104148686643 60.349533404542406
60.82567409646007 52.1113685741326 61.465625753253974
57.91332691018831 52.31205376542351 62.320851529968145
56.23988353839111 51.024009516173074 61.134308188286404
3.2558296956053856 42.968250360718585 38.02969396415981
2.776074931616338 40.4324693746105 37.52322150905065
4.475001903897322 39.50684667343901 35.78674251981981
6.021321155340735 40.70270797473352 34.28462140090303
4.9970117655460236 39.97428013200461 39.39486379624742
3.683746931700243 39.57345467771746 41.41896458810757
0.8656700008585417 35.69899162535262 36.58703421891568
2.129859375197318 37.2075258449075 36.597320292203534
4.331704756612864 37.457407249918475 38.381508007208396
4.04251214862209 36.82873277001865 40.42949043332827
19.0091810444587 75.82021577877258 50.29912366390337
18.527307337230614 74.79546737453735 48.54754637239551
17.00275335330584 75.97843592187333 46.94868932229142
13.646970733587336 81.64707611723142 52.9380253178777
16.067625921943502 80.92507541592653 52.12056327469553
16.513270140871974 79.48819989256059 50.083667962904926
18.636556821331155 82.94203623458648 48.61383627878751
17.01919791995892 82.98142511184754 49.91697680882987
17.340501275803238 83.7406920610212 52.50101988153424
18.654450735779232 84.74857275708965 53.33178225047596
19.348365463837837 82.19052823557527 54.34225857717754
17.496392633205673 80.49765079562827 54.49674665973661
15.164134373766661 81.76033004598565 55.901393589263854
15.508688503827479 83.66581774467835 57.20333007205915
32.00857162691524 66.05470822765017 56.657817035327675
32.8414183416469 64.72024671400008 54.771269650303616
35.10118494553813 65.87681860783056 53.63902274815107
11.79190987160406 81.14884141352606 48.96979535708445
13.713631991488318 82.05487973024049 47.553670354972624
31.845335537190905 63.56444892208629 58.41853615866917
32.62247046212582 65.91496316248873 59.36582805469265
19.435320262156043 71.59866874903878 44.81453399933075
18.11734646810476 73.57143694790331 45.66784716551723
16.681015650494842 75.05929740724415 43.74319189087833
21.397316010189897 83.1875038890425 50.773580592069045
21.096121012425005 81.64718223428925 49.44583514062966
19.50455494087491 79.63104832304577 49.83343327919667
19.14239252122461 78.70506616874118 52.63379610388475
11.185583181308045 83.2895472998227 52.32246496521837
13.805986100888594 83.8679511946722 51.41669287882913
14.370777877226397 84.07072433449547 49.16264029371687
36.17285376672072 52.48447363595492 35.17438147904611
37.560744709622234 50.95918410712533 36.33316155541167
39.88713541416298 51.844596111109034 36.94349305393624
40.82233205405202 54.13987306799359 37.792265204947796
1.296425815780971 17.44981006885624 74.34256356640303
13.425337827986999 10.348665076792203 40.280850333548784
33.876675988901475 62.292264701922356 56.0177102505715
35.52912370589441 63.65394620557741 55.33983187186482
36.5113354482926 73.24008313222213 41.17941557420826
39.68988162956749 51.697824645980596 39.83187164990564
0.7362775456748453 14.57955856089691 78.05777930217009
18.7144163125048 77.2944611455877 44.58936663347936
16.546993334329237 77.60287691284252 44.85162232785854
15.639783622694654 79.69351874536913 46.77986711376661
16.69064415172772 81.4133328247296 47.47020639235516
5.7476169859138455 36.223730392088235 31.284070615820482
5.657159593257492 38.56913695399545 31.844587526233767
7.706009107010574 40.196828839585756 31.975084358641514
10.17957435306858 39.4777849594745 32.49006263709552
6.42398457643131 27.465046992899033 52.42798442043842
3.6137943276621356 33.47018626350079 32.49297125057811
4.025373473895428 34.23299492379578 34.46115868354202
4.147827499488066 36.51805095317846 34.82466993892268
3.248639594776361 38.3916407212805 33.28911655411388
6.564525023495489 34.34553895036959 33.435480309329755
6.941951198251021 36.54327316655801 33.94686087148834
7.253173334083702 38.011815796632995 36.32605329011353
7.10820499509764 36.91464151835979 38.70440069814608
2.4692941142242906 42.13340486140812 40.71176996056169
21.221976086427553 75.26136660598536 45.48358407462742
19.97920536679517 76.38299724600284 46.88131448644692
20.67335759318141 78.81859448270806 47.19186197414846
22.797508461964892 79.96444514614888 47.294986151595175
12.687669647564324 4.298905739325259 62.740840996340175
13.884316708069978 2.8847990236592387 63.803845244450784
17.59818927510553 9.127731443705315 46.60101650687949
14.79862093402168 10.119693804358626 45.853808531554606
