49.92748914084618 23.69392583782653 36.10273610399305
25.079068950985285 17.6160968793177 15.138442947857655
26.7710514578638 17.052655631363123 16.634487773283833
26.737411026490612 14.416926716743422 17.39873815702606
25.167284363341075 12.68220749288206 16.68823971364071
26.687841782987736 35.42390479574658 32.19913221501961
26.523825436994542 33.20253634699182 32.13391813751793
24.117658784043112 32.02212951002074 31.914436773796723
22.043025993292524 32.82324957753312 31.19600320876398
31.75728553330117 17.453646842900362 27.501168569688595
32.8657544284508 15.666189707591833 26.26277136541326
30.82416033241115 14.64588403567063 24.811156221003788
28.42859507674443 14.725023583244143 25.288048351254552
33.390093316177925 43.069748269679884 43.99246124598689
32.40156277618904 45.093984463751134 44.137971831654944
33.84449643883291 47.15082439126579 42.84786820605917
35.85983015832143 46.8914209143832 41.59009130474923
38.47630519740154 39.150047411306396 15.432244393472068
38.32833020502786 36.89901779692024 16.08646211649577
36.035081458262646 36.009094476018596 17.300382765228523
34.1810793146383 37.04795402223692 18.035483135353132
33.60379438815313 17.98067001674742 23.996838463210445
32.691796886536615 18.95526513551107 22.2239179806726
30.463456254582965 19.044909531976824 21.91243413961376
28.39077065139104 19.441755417331482 23.420254964362375
27.357700635258315 43.050695156833484 74.04788108059817
26.158184427391628 43.258541510239176 75.60578192949816
26.641939088841845 41.25446176333667 77.83415322936743
28.58232671820183 40.24712754171292 78.24228347523922
53.16721882698182 34.571080489893866 32.968902216241666
52.80447072311224 31.773487692322867 32.42192377668346
50.14948150266259 31.50489048827413 32.789746288979856
48.57654548666136 33.27854066887454 33.383739408312685
43.32603724906807 40.03098419717223 12.824011314477483
41.554571248898824 39.091999475929555 12.130159828754923
39.98614251283132 37.47083596355503 13.180656333599568
40.40099174181437 35.6026946031113 14.811438995761632
23.259128530739087 26.169407100323344 6.172183302846853
21.979118516710063 24.58576287087765 5.028696894713055
19.710401444398197 25.117215542140077 4.194326465614927
18.065509841982713 26.852859040492344 4.993648616814986
46.70188771533791 31.924496938473784 31.44782891710116
45.80718656819137 29.819719824532466 31.805439017430125
47.887492011246 27.790845034491642 32.17541943812494
50.063678665442005 27.832212286096063 31.14827353282465
35.19093396258317 34.303509456971824 22.538663928346285
34.580109056162115 35.778745766964775 21.10449603879205
33.583082981723024 34.53816132313832 18.62143623723847
34.66676053591655 32.81371973347463 17.304358083660514
16.424141086388044 19.787955506885297 3.774218066866419
17.22797732556201 21.644499382123588 3.009381401904539
19.89450006801024 22.310741893352017 3.492063765910232
21.18072923903045 21.28127343135975 5.152018907107024
35.487884338574005 33.35275877533954 9.930195135907768
34.2781900849549 34.37551822756107 11.54339907660921
33.38402656522328 36.6716455915665 11.192811613975527
33.03695908088412 37.41756011929665 8.529936159055875
15.965431407428303 23.717055651390535 0.10029883236371465
15.681700892603628 23.811434622520615 2.8761168885602766
15.861688077482468 25.209856998888423 4.187294947532882
17.933467459556134 19.453438910487193 0.9875517258673211
37.860351874058644 34.439084471576365 8.174449759413212
36.94288558698549 36.68139292666114 9.692138302380501
38.93863477925616 38.11284911221141 10.573756496774646
41.30577636623056 38.43415636125799 9.680936564750867
57.12215119924841 16.98676124510243 10.528147755708423
54.7117256182047 17.007277014626045 10.409550123150373
53.071288082692476 17.98147611264505 9.196038457144752
52.853202016786064 19.211633749849103 7.012498107833989
41.86912814246397 74.36339154306876 35.45165842091701
41.11542386552574 76.6768168198712 34.94740570019569
41.702941909611354 77.52073356744503 32.41191915681659
42.751446811909254 76.32391149262122 30.663167356100157
52.42824389820672 26.54182632250725 33.1396167440151
51.959323040272636 28.730142542563968 33.42233159792747
49.721503872664066 29.271435997780973 34.43640631403695
48.315437522434536 28.221144981296245 35.89757463211114
33.97457546031284 73.59361178741736 38.08502458024734
34.81628109553476 72.10835285568088 36.939394295385995
34.53767103570821 72.00963874557262 34.40330163730249
32.41351475911056 73.03587175795072 33.125265850973015
32.37081785015279 14.83207687945751 69.35991330505665
32.97071570288976 15.655381030472148 71.8800601921477
34.821208591500884 74.55908543031943 33.00819470837145
36.46953829022304 73.7534573239722 34.237277487999066
38.88147274634892 73.36706848076179 33.17898380193626
39.213649928649446 73.8677924550601 30.729720720130995
36.95444331539626 74.21709468435395 36.910487843539585
39.15838385657597 74.06090514539531 35.74185675913559
39.6057238792955 71.16731630473791 35.60453026701473
37.7117071994486 69.55132955924825 36.95742485845146
35.048388766570554 9.827293521596184 0.4593662350821794
26.302889149860587 36.702873784542895 79.08042766853148
24.66085227877906 37.11678969076525 77.0068670033287
24.314306746797012 39.084036816813146 75.96966168034875
36.62200338463901 70.09398948137988 34.34174614278296
38.55556524040571 70.54796872887721 33.20100184733772
38.85280531707585 71.23668259541908 30.573399245297153
37.32608955965001 71.50392498942486 28.843131059137345
44.59931165855963 59.46009446233759 6.520579635690247
43.160194337857526 61.211305348335586 6.2109158239813675
44.427285139085505 63.55071661280488 4.985896584053961
46.306396582894365 63.63969093172611 3.930292720505215
22.622603096832663 28.377720055713166 37.25322455910341
21.254800928835277 27.619671575943574 39.1197105563894
19.209521519176867 29.330050636154656 40.03172831939882
18.86954517121405 31.438314914034354 39.280570302045255
12.35707944003202 11.759781772413104 42.483955617208345
11.430010228150413 11.148414429816938 40.45287111379571
25.417721630980367 27.804328364617806 53.894865935978906
27.937345185091928 26.912427078501157 53.567548648700416
28.098902580062887 24.291248728394013 53.13989784615531
26.56856061755016 22.513632857569103 53.62488212898057
35.361635452502 27.216603603694928 49.68482595164751
33.210432327455656 28.193654982791575 49.59153321747801
32.198625339774296 27.181987260948745 47.98330206810985
33.32515819897986 26.117870003257178 45.599251071577356
12.413331863731662 14.592804137030045 43.33174476153543
10.509291041419278 14.027160173900818 42.61242109296706
8.865611707988995 15.480540197432035 40.80955504104318
9.315883847388506 17.66926538666748 40.18962577330051
32.22092945825486 22.01211499307004 53.16038383490803
30.49856444109677 22.903889766715793 52.40442299140401
28.710193278399444 21.92745427427221 51.27064083695029
27.784629229141185 19.30826379957327 50.94308982058317
7.029270289766125 15.316150695647613 43.80972527402949
6.203447460157446 15.548677446388758 41.652881964816444
6.5061833194220595 13.48542667139905 41.0189800006159
31.196902901343485 83.71533729193361 13.063196182786688
12.178887347637337 9.895763299913947 36.93763450199094
34.22566733113972 20.224121439964232 52.55231833670281
33.272592109035635 20.71341044443227 50.915839124655804
32.98115643779361 22.835330488773973 49.838752309162764
35.015081132034254 24.557897482106032 49.02292756020244
64.27518894963316 76.30849377775509 17.860642918576858
62.06821936383846 76.02268944962712 18.929471631704686
61.235795929137055 78.24763754976631 19.798534639748432
62.9355014334851 80.19553593719402 20.77149133065284
59.02176585645316 26.04651261747953 80.87367634910927
58.69967717117363 26.575382520895957 83.07070939721774
56.08050037436517 26.03072011186531 83.96182856794218
54.514302947764286 24.476033886243023 83.19079213863343
44.13066445290267 84.92748858256194 59.96717278205048
42.13513240677876 84.27376283867565 62.263630165818526
39.9105183747928 84.96064899037573 62.489261124602734
36.27582512494085 83.90306737349403 63.31085870980452
20.63304494328609 33.85005593254652 74.4975901348868
22.90668063756486 33.81501713877449 73.91149206223753
24.436460611204787 36.074811810091504 73.26358053794492
23.660803344053544 38.05802761198716 73.63618600005402
35.21042030853721 72.57401964408852 24.18862695682446
36.49942047719344 74.34785290443068 24.520705830675528
38.39665294525082 74.58194895849978 26.141296116487446
39.237827934007676 73.11973481909722 27.406599496324027
31.79968821619566 27.057057867161433 78.16395489241344
30.369741806863 27.4937377348335 79.59590881901342
29.59691824151175 29.991670659392216 80.07400027102342
31.19317774166848 32.12872963318055 79.56789798505251
20.53588088137391 31.003619547928423 75.80931327470559
22.51729590631334 29.749528877140378 76.39097380055046
24.271815334788617 30.351587057028993 74.56793393623663
23.305673489600355 31.30358684615508 72.20075785349727
15.949585522211631 21.280673371808593 61.38306351853011
14.409541090028968 19.24222446346331 61.65713144675194
14.689390396648475 18.29908818869051 63.89237448721129
16.51274334694912 17.420317043921187 65.00502415616901
24.26085412149505 26.046645335508288 76.374697982677
25.329305772218525 27.824444695378137 75.59084146974185
27.76039844825173 28.64395756784 76.6431075833273
29.572756188217674 27.64968840781233 77.11716026423385
22.35800380291094 35.2697049936521 76.71004287738565
22.652951174607615 33.290257700028896 76.48188666348007
25.012952111559382 32.01757921829904 77.45484285611754
26.582447740833356 32.86310608474901 78.70411486557965
45.86080839013695 83.96405593595871 61.72933713610459
44.50738760051024 82.37787907986564 61.06123669148023
43.07642069813307 81.1053919002004 63.36840068865575
55.53022089111656 2.15652466077138 25.389829977191614
55.56478968298311 4.047639719982919 27.277270398413716
58.073191990684 4.50236663984103 28.047370915470843
60.045753325567425 4.449188048859801 26.837791937055776
48.9001296323613 64.3969361372227 9.372768766564304
48.02054547654177 62.49850339417806 9.60800841675569
45.558146767240274 62.11288308162192 8.516225596066173
44.09302485577209 63.81343326601922 7.921125449626873
45.46852900945475 59.13250613564851 10.138895766187588
44.39323722732037 60.81683482983631 10.655273368735466
42.580603662631496 62.058101512579654 9.473293214845652
40.869767964388174 61.09224888584362 7.725961361151307
52.74222409568596 66.10016918324759 8.64655155859185
51.39871520237287 65.08745278070427 10.026594910570815
50.770359602570885 62.131161029941296 9.627259857505642
52.27721701339181 60.64429107751264 8.725278583890068
8.135920865305279 17.744919724482322 35.502803894494704
6.144413439433724 16.80091533819403 36.142349594749405
5.530684616510304 17.175690303084266 38.80108622263287
6.832477068875002 18.69022054231665 40.18110830568242
53.90734588787064 82.86148291097474 17.18323300717272
54.17499835722104 81.56394417274271 15.266659173863767
57.018060783253546 80.88014213703966 14.751761057984888
37.47649924359423 3.9260416814411374 40.936864771266826
54.22497785454359 74.37661730682329 15.591788093546151
56.17800930586595 75.49143891442891 14.554396778085719
56.549414907861824 77.99538798380087 15.628345281725307
55.18284940692282 79.45008514361116 16.738494145283727
25.187196623626527 14.179951183630545 19.773070433773615
26.72728639371839 15.598945495968044 19.677405281066154
28.03785659624014 16.820228452850216 22.075615484115154
27.217677210099808 16.664628766872532 24.262997529559645
40.74180685101803 69.40718037299592 8.515414164171656
40.087743166536406 68.21712713933127 10.14425776287268
41.99610691343177 66.47134670842415 10.824122040008506
43.976623519469534 66.6210899713883 11.666364786822928
56.675264259617215 74.9626904267182 24.815210393560417
57.000464822797554 77.09410001340801 25.971433557770492
59.73057446265198 77.05223627341886 26.63672596911978
61.29759312890877 75.14261983508494 26.872192663294218
26.134748898683252 10.513512015792658 27.6203942888839
27.873441359000314 11.907540064491034 26.597424163426624
27.47948729619268 12.884754493593531 23.817311593482273
25.28183919799912 12.538783467373143 22.404078219142978
2.175677672284796 24.836921052720285 18.581353492099552
3.5146698924234085 23.088911917554775 17.785119378054624
3.366286379713188 20.76463634215069 19.46666959384824
2.3559604647423122 20.322930579981414 21.56689190936022
32.27272141349036 18.952276890377554 48.93610633370926
32.66013596718802 21.018670348893682 48.09577486305301
30.538226407190738 22.93185015789835 47.99001788523383
28.170934748304134 22.407876370049102 48.65179741206551
32.68133675622086 5.555713738673918 29.757447063043696
32.38940162408804 6.237178558104217 27.83901025510669
32.010488604178725 8.511602332157706 27.00674190945327
33.47813159827162 9.952640214887317 26.551994273529733
53.216178298728074 11.443174601897162 12.42408461251179
55.1352200610734 12.682997733619802 13.039600732188232
55.5522630613751 13.710249856824332 15.4400426699217
55.73046616825753 13.121426410194225 17.462158997000703
33.4819279228707 15.762436190351433 21.859262565834943
31.269902862222022 15.38392278880785 21.998781478110885
29.41725398781172 14.485447191257968 20.390342588390176
29.357185940380617 14.103798839700692 18.338277593249177
9.531224702956973 57.73711796682821 37.13953300637275
7.902302787503629 57.16173470914896 38.6918848959246
33.03406847298345 71.09341315256738 25.410112869996198
34.8497037936957 71.40180058744457 26.609068876328568
35.195758490775724 73.05335669341338 28.15261904639126
34.59864035312042 73.46156024825868 30.53172282115229
10.463358510379681 52.47285719382041 34.48525441191645
9.743779596094177 53.94690591386481 35.8318004241777
8.530585921066418 56.197098049767526 35.00381414111446
8.473478908391472 56.48727421113812 32.08495429266487
5.7460814807889555 55.693751248646805 39.126776384782296
6.726668824930678 54.9242334054124 37.61070991154474
5.985116017907748 54.64314241286822 35.00624506317369
70.64579063941605 22.281666242896 35.450300108513915
68.63901129813215 22.527935812933627 36.54277728732906
67.16269708756651 20.43440224408741 36.56430797065337
67.54944984878657 18.239647590347314 35.102981323596765
73.34581056784434 60.42966121019412 50.30840901782985
72.53924003169877 59.75533528542574 52.19685134549422
71.80738191683136 61.40225303483001 53.886541675264866
70.93508028475935 63.816340219729554 53.77204776322932
75.6937969119265 14.627655210312449 66.91134137028591
76.11032633374695 12.863185880806 65.88033976558336
74.96665381154375 10.861334639297114 65.39739442612975
73.11360589724087 9.749491771432808 65.99177263163945
22.62832695822034 68.81808027899777 48.16933922273398
22.134571632289838 70.98546943389977 48.44436704917487
20.7481301113284 72.50679403851038 50.13298990702254
18.982304098722828 71.95762510907463 51.66979250811126
13.085460016336546 74.55351287847513 28.754192142944934
14.09831934594817 76.19349921746498 29.91602420419062
14.138601887386066 78.86988886106725 29.310750492809436
13.58079989407138 80.13009321053762 27.36260078896433
5.3995089180883475 50.023344439185166 32.14907102372895
83.86451324458329 33.66917818054728 49.428508349939534
7.202237556320812 39.65957608890257 11.451295680156909
8.736423213047503 38.94552021693675 12.83247673927643
74.93090368904247 66.75157263505959 58.49282502420983
73.50700721987545 65.04799153876068 58.18071849579532
73.29540470077421 63.77421071063055 55.82043013332647
73.68302935311769 64.47126207143518 53.835352553729834
16.765741223781234 76.80655493298643 30.91580730645284
16.843017889989632 77.92740473726619 32.89415014997739
15.271909140172427 80.22063612547332 33.04274238866683
14.49987284522551 81.45486810775138 31.315673131527923
82.9798870167403 42.98944911504344 26.759692103651776
82.30658282948056 44.08530189986242 28.310793171403077
80.44360472509334 46.362876588029984 28.467183161224764
79.86324518358234 47.74941313766904 26.835283965065585
12.60345603423509 73.70181350965181 31.334969950369814
12.601472940948051 74.95599465387116 33.38750401280894
15.07633170538939 75.37967902209829 34.661138098155874
17.23667417855051 75.35977136611473 33.79880838679491
47.021657344783534 53.30742715268319 24.27102603006267
46.62351078777982 51.19061644116917 25.4554080177707
48.43128696940326 50.589320051386345 27.03215300303741
50.774640763320356 50.43756426458811 26.955580485337148
75.37594020984494 40.67170777902507 29.548701521704537
75.74859713028772 43.013236464030925 29.490614611105233
78.42525702152005 43.38414141273443 30.35363156132224
80.32789166968979 42.46326398388291 29.64256331404909
83.40618681503706 51.68395344266354 32.72704964046569
83.67582151149256 49.53247172376096 31.797113030459904
81.98171054112613 48.49820508053504 30.03775751615448
80.13887748829403 49.888998905596594 28.758051515125455
10.861887009198398 76.07843455280951 31.627706826789044
27.761687198788948 57.951379852335094 22.436097439909506
27.730105372566047 58.82061179702368 24.88145624578459
25.57381199431024 60.055924512286175 25.050895492332735
25.11211875468758 62.01839974914288 24.150379733942895
84.37632828283778 34.27810126994461 1.2512152766590199
84.70549483129763 38.28850507690463 2.092678865186629
82.8386582597993 39.25738233449485 0.9281462340604216
5.409027017925333 57.072485699951216 66.06128549131095
3.0385025901401006 58.47665735086322 66.62692069792205
4.339672716008385 60.56534655205995 67.87800466481573
6.036822429539923 60.52122177466011 69.32962971422543
6.034642451270926 63.45195460516108 63.0854864801808
4.451999991876781 62.61881555940744 64.176054582252
3.9877422852058846 63.028816244573285 66.8229236759689
4.116277847164584 66.68175528590369 65.22437235909906
4.620953967255943 68.73149688661286 64.32795677975561
7.298725371259927 48.48431825921358 34.213296218013944
7.214451082073562 50.56585284504303 33.941439245696436
7.340201740341132 52.57084477545821 35.599051465964344
7.913516241604797 52.47068734750344 38.220273124790424
75.71437211871465 59.291744731432914 50.10972796831238
77.17269983992 59.289899496423324 52.10563409223426
75.67654590615338 58.06010964241823 54.34496297867966
73.97906488881485 56.33966153089021 54.37294789458838
66.68667188055645 60.8919652179615 56.32094405160377
68.64445992702798 60.64057411329669 55.3718063501226
70.88010401428912 61.804969265931845 56.48067103676881
70.79980774010575 63.287839528549625 58.37321559113428
24.506843016566748 67.70414935958166 46.69478894565213
26.586582649706113 67.68510458363126 48.12921357468167
27.346414419772536 69.98272888055175 49.046039343317325
26.630795588970397 72.35469619767683 48.3769519375266
67.53814282770729 58.63587117149569 57.25950774566365
69.92646219218999 57.84801750107976 57.38675937639902
71.43544038360758 57.417315078713195 55.10807615383249
71.05055117613091 57.487553773536995 53.10379316450836
13.877573542036316 82.50446996544358 54.71699363351198
12.509243929985862 84.12203448542435 56.00939250605783
9.812091040319698 84.68773473715828 52.197856644593095
75.6099265017817 61.850039897431095 49.89287386337462
75.07772230759609 62.03264215264695 51.843117970235625
76.30209514943758 63.11112515806351 54.064487342005194
78.95190297601684 63.406077067138305 54.196106709827966
77.6990468583986 60.74468474483373 64.64500355037433
78.46085404463855 62.64491764179832 63.5450927203168
78.69214903383563 62.5480906665035 61.255260088366555
79.82838931178243 60.55657474098132 59.88521096786326
14.574674609689326 81.54223859136208 51.70457870079844
14.470399142867363 83.46679884523678 52.27587406727033
14.361658816305072 84.49378435832298 47.83216049594091
72.29724711196991 10.692350249114 41.686109487293876
73.80875471213331 12.123527099763368 41.31830832314169
74.48361481213225 13.627006339515464 39.39109842851861
73.68648079520196 13.666565213479162 37.28240187646349
41.475559201356496 68.49780944649068 4.8658235684948785
42.451544938369466 68.38754670255135 6.939824182576838
44.79559396228871 66.62159329112733 7.049473137452945
46.00362238073375 65.8483485773814 5.5978262010466935
11.150488181471538 39.609047158043104 13.782528532239775
10.071968211811825 41.383015623258316 14.099497832027385
11.50487538750207 41.99030942927562 12.082548404357892
13.307291787250573 43.298788096239385 11.605288531293883
21.421250360865304 52.51042229502234 26.924306475021144
22.056907156685494 54.395420021328874 26.005437449388495
22.01368342302201 56.921785212958305 26.738678014128723
20.647753193994454 58.265457480263095 27.865601650630214
39.163791624948274 63.966374092702836 10.101165512723265
40.092112497761335 65.57019190563433 9.185940378209779
41.55982750228379 65.87860373179461 7.114040583418351
41.925050701185526 64.47052859775104 5.342205822601581
73.65288454131792 46.68033223124366 35.74965123226524
75.10578010979 47.85454548576327 35.1529424476643
75.64509219442522 50.4483674608931 34.488040011261965
74.6173950898728 52.35086361724178 34.82330391223957
7.382553584941474 62.26270256257109 41.5539377331487
5.879453117765217 60.09106356705684 40.63978547335212
23.438885931297726 69.82193808187418 7.103428612483596
21.840078648199874 70.65218587525797 5.929073256053706
20.883402617938877 69.80928852853476 3.1906243921995423
21.563888379103847 67.81514889874771 2.099053030836701
6.140247203590836 37.37268083155329 10.200571687672179
24.162269278394824 54.52585208771367 27.935150540733137
24.765019459498347 56.49885836445632 27.87839195119729
25.45412776239432 57.3387287503 25.646016922734976
26.987541036933386 55.782528995575476 23.82219066364415
22.222047032906897 67.52523222977969 7.915272117232735
20.262187147830506 67.02404947058169 7.177770570829676
17.93304369855015 65.96397733145677 8.468992360676904
17.744516258393414 64.81296930131501 10.328384825384308
73.43518069760171 44.1532377194413 30.86893978908264
74.61843742156333 45.95908175055293 31.428918659462624
76.44396950301268 46.51473188517948 33.4312026120772
77.58797890153508 44.92113763214332 34.94065029932242
82.95126647978667 40.4125650139587 8.566141308181935
83.72293291056681 39.10921984028151 7.293236398645236
83.22149597879233 36.297505016621066 6.816710152677453
83.72269506049642 37.2600004623657 4.893059955050175
4.670898338429427 32.43610405638905 44.29515070218175
2.4262952684344 31.49139914288271 43.353656517800204
0.8439264102143071 31.2551044914668 45.10718614481171
1.0468046954379457 30.360158823663962 47.67412193016518
20.939228790864153 70.01770770826953 53.49075397889331
22.93290820011529 69.21844953669611 53.50729666507373
24.82949138671669 68.72023019895323 55.45283246781402
24.675663549826588 68.69981577907737 58.13031319793972
0.8622186957348108 36.25435823034096 43.51327571792344
0.8588682503882871 33.913302328491845 43.70702443302947
80.98507721240838 16.027629162301174 59.81255141646574
80.33906243440877 17.120603010175287 61.63656172549376
7.023523034727584 45.547992495491464 58.654443239218516
8.626425242102382 46.48630193079644 59.65872602154557
10.582579200832646 45.21439920917868 59.771146630249135
11.091058617465185 42.9218987394909 60.410212518507265
13.521066533837717 1.9845220144096598 2.9200772073075743
12.978096734375445 0.3822228216467755 4.259509238073894
71.04467301217561 41.56953658822004 67.10304506645296
70.04619566567304 39.75286825481235 67.09717635927264
71.05614118193827 37.80838065675304 68.52390411484392
72.00115273081718 37.7082952676798 70.73963631025968
14.181279122051896 84.68702410399635 24.706792296660606
13.680419502157704 82.56226966200552 25.57413734767217
13.582072788619199 82.71006225271097 28.456813081453213
14.887662127260489 83.74049811664554 29.896094929973305
19.802940569744326 37.696033053238125 61.49436441043311
20.304403059951902 39.934817460591674 61.54817608603584
18.854619652660464 41.79010079980324 59.84965374827331
17.280746978864997 40.977054781047705 57.853305195674956
6.793943391862487 58.76094273499456 34.12585598092154
84.96698479794873 39.40240752032483 47.23910184716962
84.72679635362655 39.03079023866207 45.01392168507137
75.93116368989867 8.199796602654077 61.46090356056534
75.2400364290306 8.790124457650217 63.27555814883212
73.91895211012621 11.28113988767216 63.20527137134777
72.77286118313734 12.199432220396405 61.3751264273749
63.52337740129822 27.46734300440523 35.62624941563908
65.71497742775 27.126306690578406 35.15247116212398
66.93185027944469 25.119631098405314 36.49506264039538
65.97237345480781 23.063575916251203 37.39366885952054
6.3375203134746165 44.719828765457535 55.01561470013957
8.204120467632517 43.395189903297975 54.98980973570748
10.411141112991356 44.56295983348206 56.45565008432346
9.993737331657128 46.68266447713666 57.41559762953094
14.70689305196846 53.360193775891325 41.0007570475716
12.50880401260123 52.44279535322867 41.20007996292312
10.254748653082743 53.368857025124264 39.957230521509835
10.292212963624069 55.18392972098475 38.184222208523664
60.679970562131935 0.719884097713238 25.060481385836646
61.67187187596353 0.8199733895787878 23.23488260394955
80.82689992199344 33.13378137014568 49.30396525601471
80.23483744594297 34.82366199515886 48.51811505754518
81.34423613784337 37.233767259444264 49.75881417544298
81.34362776872527 37.62295870540124 51.81710348526046
4.960342119290659 59.21040242149879 43.360879877197384
6.951274424266042 59.24941017452051 42.820432209342094
8.418055462054797 57.342149013892964 41.837079126566415
8.325837341344856 54.86917539984954 42.030295805167306
71.06305460787053 13.793954707569004 38.50864758125788
71.11517510602775 15.633231001128035 37.131013201028516
69.42546373474956 17.60858405675463 37.177909363504014
67.24340607008284 17.783580615353156 37.965907717363926
82.95560462614068 40.75595336248256 47.747485857783055
83.00883687752285 39.45877866158599 49.63137436027127
83.84217261239695 40.16681771517444 51.98241883010063
84.21733782960023 42.63032956479221 52.601400329552504
76.57749862167417 22.835077776781574 41.15448665168314
74.87383479503058 22.561668484797437 41.59032224445829
73.68467905629406 20.320988752332667 41.42328500275474
74.74777387832833 17.919585041846208 42.121363259643566
53.03126167244835 14.468478960472211 49.368985992056935
55.038055790314395 14.609901538495112 50.957058613394814
54.92682369478904 17.34239003544088 52.14300374834852
53.11578863512001 18.585485318954643 52.53495084147618
6.7571642545378605 54.33155193816983 32.48447351585496
8.542403534223801 52.663240471109155 32.49817822618926
20.76559562882498 38.186095610725324 28.88304508624515
19.47130934877903 37.627551097779545 30.303223448628753
18.70157859711849 35.197539871118934 31.290848180922698
18.237134191365385 33.568557332517514 30.527458946484305
33.81797895342801 54.74037845252365 68.66943182948806
32.72225227393 57.33251039273985 69.77257046269038
31.894318801247973 56.92799863096999 71.90619316371453
32.35158639242286 54.68715334342828 73.35570282700387
21.848529386042124 27.217415457682723 2.829065681129349
19.83796726496123 27.00798848686931 1.7491162326798277
72.93002355080685 21.833931966770947 81.77449246557833
74.1996621374859 23.59760805642858 82.62531479262717
76.07207932099851 23.402926901354444 84.16801116588543
77.72665348848143 21.367536507759006 84.43311429327775
72.38823507721688 12.77262241842683 15.43787802530347
73.43674530986112 12.091515653697016 17.12761783784129
72.65670969319645 11.634788156025593 19.818960662979052
70.26722978614299 12.134242598920816 20.74880980783551
4.232263703793095 66.62049987774571 59.47940887239983
84.79465073921897 48.75566184281053 75.078954014009
3.1655984520549665 63.49906846906412 61.73377142527149
4.253216782927769 61.57243643318523 60.518076017764514
6.934418440067429 4.467666501004914 0.1435228649589447
7.7658058684080755 2.54000378370439 0.7924099178603848
10.231351084144922 1.9259565491235964 1.084391024901486
12.150358540826762 3.2830103823744623 0.6865100591165954
80.30552069019963 21.397308477543366 58.99606162600847
79.60263518375444 19.261888654663203 58.85499938609141
78.12768689341131 18.344910753411494 60.6744508408418
76.33636230106613 18.91972160894102 61.96192038507651
19.864863962412723 18.200023623327294 2.465523851680635
22.466465199208304 17.95106070843065 2.650494850262061
23.920972459137626 16.316790904188412 1.7636073382406805
82.08385951032196 49.125761408446046 75.75791910676203
83.53592598954967 48.94756038138107 77.48274088902
83.96109109777196 47.20916079760108 79.35275763612417
82.5570675838974 44.82219257908848 79.64471718271321
63.81567485958225 36.80154866508844 65.10617902205988
65.61684291874538 37.57757961388069 64.5107867394321
68.02365461699603 37.94668231292998 66.22577988608191
68.39216642186773 36.98020006617668 68.25820430529747
4.989289903949684 69.48189345799058 59.627811822111546
4.302043607796671 68.57072652104097 61.63945167901695
84.27024621437434 51.384882980827 77.21530090593824
81.71599612328438 52.2524109122699 76.59203554114237
6.701210491986163 67.37322919846483 59.85034964441529
6.417766726221625 65.61957465052062 61.68681969237111
6.836816833892378 66.41017651330547 64.35368158867972
7.63781636475311 68.57964735276684 65.17143936475784
62.64628441227292 32.145368996853584 63.09957219923097
64.33179948808359 32.46600015070539 62.97810054495994
66.13711561450741 32.34183593529319 60.767240060115014
65.70961783268302 34.350244602106784 60.78060429033066
73.7148595250754 37.56737268018481 66.66936974601184
73.5589101994951 36.74944840512331 64.65793077832403
71.93058960612741 38.28928338980119 63.06667908549608
70.96576519571555 40.609381113360214 63.98325371342348
66.99431299558306 31.474993522240975 68.4890335218199
67.13493299290228 33.267254378179665 67.19484548999819
65.27417225069831 34.37525822219473 65.64193003834184
63.32874325008542 33.92432526079244 65.00088310218624
1.0400366118462752 60.40132944580289 67.14445911403466
15.116874677341075 45.66197997021444 59.57982301211274
13.289254053383955 44.56067491177047 59.473270803739055
12.76019203160185 43.28720755390636 57.13810061301308
13.465745627533181 43.660561019268634 54.91394113985528
3.141057707492248 15.348732718486334 24.06215786262889
1.5247857444666646 16.90498044096656 22.415946112158547
3.347676303318912 17.94597715030248 20.43429548722335
5.6919719329126695 18.760944667742933 20.75115980142907
42.16975530762515 41.343287192902416 7.659647369062692
40.359708179025404 40.71297774341881 8.581658389498097
39.7454025220977 41.062579817093265 11.177887482541845
41.825709642211564 42.20392090275289 12.654659290400637
6.699199099748733 10.287015546277107 18.740056517334626
6.2216694036795825 12.134028621713384 18.063504690533687
4.986934164131524 14.294863500195397 19.690409658969994
3.898374221796719 14.27833030430883 21.534934603929464
25.752486967740534 37.486177239994234 33.18208436704682
23.796694043599217 37.022461957000964 33.25388170415198
21.392604147286153 38.032674883896796 33.478207989888055
22.153520183806883 37.57676907835645 31.030028682827176
79.70128465246755 2.495814312304287 35.315890342393686
82.26903287089063 2.1608398152393113 35.0875205972092
0.756857901251079 17.234534435322484 19.322834024848614
65.81961834976245 28.107968988928295 37.73080657675898
66.98894214396228 26.74202093895055 38.64119927453434
69.2702739618586 26.24415511651209 38.94660294794441
71.08762798366833 27.637469520555257 39.6524300960224
6.9208129683306705 13.438086225629482 14.964390479147756
5.774870239547973 14.091161768230512 16.633387180581913
3.141819310388575 14.376244696042571 17.02076444247612
1.466746371140156 14.990894019383779 15.827223316338674
13.3824555244848 37.21037136453495 33.93162531979951
13.931952892288912 37.29898021953703 31.758835021512752
16.60342864829159 37.50313417974433 31.023972951053654
18.429747522592212 38.365367523306325 32.999690801983014
84.35370116470745 49.131149390571984 34.34119484443346
83.10974866861775 50.06542063867999 36.221251059304485
83.34766151148479 52.580169875368824 36.720526290130046
28.4526909915621 35.75740161664133 34.197891630437276
26.712327004281573 36.76181227012813 35.687307484646745
24.214307789854733 35.41519997798325 35.30103736528054
23.61613264137464 33.280484283268045 35.65820974098809
15.264049468616458 29.590536488885956 36.36220106618573
17.38915051579093 30.230076843352748 36.8790094009612
18.99725503269296 28.398235045692754 36.564852921511445
19.161004252966436 26.383298789732066 37.374807906243646
79.45444509048586 17.168107524465924 21.528084214708375
78.63757222450013 15.027671870175036 19.888583939342944
76.65988900353237 13.73183768906463 21.547735832833357
76.32924401126763 13.820369380232044 23.684415958008177
9.39243651782093 50.98074752366292 10.70617143488658
8.40024914417497 49.481544983109444 12.715825147360789
10.58391239259746 47.65626939290736 13.752902913781593
9.009970473881602 45.84254666911869 12.696791438105993
8.157539660992088 43.7264376220929 13.622381028705902
7.055947974218362 43.39619699905695 16.010757192098247
70.67286940147393 9.551362880155613 22.117333504644797
72.75931173556107 9.786372677360625 22.208565889901667
74.6581061436012 8.653729794684683 19.938491772694906
73.79796454338862 6.959035150403866 18.69727078435531
16.191968439863157 41.950502649146195 9.058935486590734
14.04267205315232 41.636001812878135 9.728360591971715
12.614455516107128 39.759029590610396 10.742221813080606
13.583883910480509 38.60684413744025 12.109803028420922
77.24055159777215 18.354836397492377 16.603734833913773
77.94313192115881 16.487938099120683 17.563949453462577
78.82089630741571 14.772611790145678 16.29691735514559
80.25852702306604 14.96977705761522 14.03802261274615
75.56425511339657 7.386784164398515 21.93205739523918
77.44110887002444 8.913806233647438 21.049750257682344
77.27605036409423 11.117929671871803 23.109595772828545
76.13841623538724 10.618969882569795 25.459372079613292
12.417175911543515 34.91831895605833 11.873288616537451
11.036325113195092 37.18986093018298 12.496094172129457
9.934641109447108 38.3161652684817 10.35467700500678
8.913443068467036 37.3460426578972 8.447417137283646
23.2386193380806 20.361580025921114 1.3828346728336087
21.433902441118995 21.729035826938116 0.7455525150640808
21.544935646311092 24.56275512357473 1.2695199226490608
23.475409652348624 25.2446744760437 2.930956392089164
12.811064816630509 79.35346982348648 36.016711789165505
13.299150666557452 78.1187278815866 34.13657145742694
12.11840971435041 78.34355534210748 31.587468767215814
38.82307491396893 42.39326868080168 54.88440376424528
39.6776632436371 41.930238131383504 56.753718510584676
39.53477687710378 43.464569547372406 58.33731708332494
37.519122137840675 44.99443680625137 59.283447216417585
17.663885090498926 81.8721982078944 33.78554773767594
15.261804389906974 83.27218584060883 33.70336105621328
13.541109178584579 83.11736366598898 35.4329369066759
13.897015285452378 81.61260376175274 37.64195650544036
76.312328422083 80.71907558819636 55.39454038490965
76.40901888446801 81.38447827661804 53.321665981416274
76.68783757167922 78.96378359645048 51.37606407958272
75.26534941030033 77.94358468311003 50.98965148837024
3.1609547378969514 21.373728858120447 59.330029743898734
3.5109131371270696 21.085878411963986 61.52075129236743
74.9992102174661 17.991977081210997 65.82941965153627
73.85752593233111 16.641746026992816 66.55694732582498
72.93486034996253 14.355457818546252 65.18625881443678
71.7590350706697 13.94145320718921 63.56968203249973
14.578580669743916 46.773031903097376 12.117734612617708
12.522007817496563 46.230588000477425 11.942109816818816
10.656093159765394 46.862024181367666 10.064588295251815
10.204284457397714 49.01571077315674 9.148131155298854
0.8541870895883724 27.079145076104933 44.33679405299725
0.2812975765028184 28.955483471220028 43.6775766074045
79.54316301199688 12.356525128106522 59.13769862953679
77.82862495894405 10.54531412467685 59.59207522429197
68.76594822247706 0.18380326032295907 49.43861791366502
76.92572528542648 17.617367561403942 64.07585308437085
76.35097251360443 15.610383104269603 64.21604788239321
77.32529103628734 13.868777417180956 62.65618141711169
79.8343867330817 13.702628887560552 61.62172825314039
76.60602947657243 16.9120334001221 58.87781990329171
75.32609996748714 16.44674009359972 60.73669773939114
75.21131623761863 13.549052397879414 61.02167715201353
75.2960393424174 11.914883447108561 59.15872354718687
69.12777917064578 13.12099473206714 68.36631489786998
70.71125981098146 14.046899711183425 66.7904178670776
71.52744867330117 11.814776053469966 65.21203717265611
70.48675327102926 9.873380687021072 64.55715583459028
80.3899846982574 73.86430723970764 25.002202847036866
82.54917149171575 74.78615514498213 25.018523967170655
84.44768471269248 73.10496385694073 24.020545425084187
84.20773990957777 71.71744187433552 22.301081262252513
0.49928033756174034 30.550655737790166 41.153948059090666
80.01877998171268 12.907021642282944 55.55023350068315
78.56225839647816 14.331510197893817 57.344972734832176
79.17691637865843 16.77968328923455 57.951528139457544
9.007168256327859 11.028510432527279 36.34634854777329
9.904557490039291 13.391677347755365 37.332084075938425
8.775819106358256 15.358528222435528 38.138202886726006
26.943375531733412 38.426120543782766 69.25361381069925
26.312454291795046 37.34737363442065 71.61242860757132
26.132622254168137 39.230340027092794 73.45919150832168
25.375559888391248 41.31099922016013 73.34545372313843
83.5854407187453 31.347785715602747 10.93524281356884
84.32016257386368 35.93281676134476 12.82211436283052
13.433618333935739 65.40583867389738 2.164669575320283
15.860260296943437 65.5064204633644 2.1705173136644134
17.48512132561864 65.39949592637603 0.29446777150065134
1.2778094298102383 32.11581265240144 75.5067005155245
3.141074667703912 31.43065631504613 74.28553469176009
18.90457873831975 77.01071855391338 35.08764736733502
18.124279199816772 78.92870547797779 35.106363025061626
15.957110112929914 79.50348520093821 35.98818321534783
14.558647653423613 78.96333552715768 38.16152904630494
21.940019409178202 70.32890105908382 0.7302995849214979
19.955143919903488 71.27749796179688 0.7246398089905969
17.30239327939776 68.30823502910914 0.10531979121087984
2.7209547734003667 26.783339092799174 75.78490510213697
3.2934107241837745 26.989757029912926 78.12838824224747
4.408950781198508 29.485847049068813 79.01705272212506
4.681288518325194 31.455093544453355 77.60984156599253
78.17921654562126 77.0008906664273 50.493256597953106
79.94329449128205 77.38208543323834 49.729557364352765
79.7341613685055 78.76658270015277 47.76338984272438
79.62358441201003 78.10044071165774 45.73458846446149
9.136795220752962 0.9634952498664682 3.5603475664296127
10.867546555547879 2.3475159326404964 3.666024613047405
84.14633954031045 81.52444841644072 48.217679964388296
84.08698655060763 79.59453743804696 46.08761971026691
82.76832104743572 77.74366136344455 47.276963970166264
82.53495460813723 76.93952249988189 49.53717531650616
80.59381505552852 84.5637442142536 48.233489635542156
82.48739333306749 84.1800385120084 47.302426532583844
82.3205059918305 81.48544468488868 45.80823210327743
80.68209596378675 80.45043844360073 44.83118256539166
83.90898239852955 75.26436408409185 47.77592662222472
82.05476265321168 74.61997614266642 46.310309164390404
82.40156805146322 74.53442038598445 43.33886077422846
75.78956910700641 26.326912450747436 82.57170379865478
73.70618429971363 26.589774384133882 83.09729959422778
12.801740191955378 20.37221483309616 65.1457652509717
13.65262613084688 67.28211806701803 4.058625481087587
14.780607051336872 69.00163570574685 2.473952386113892
26.286246956144197 24.565376454930117 46.97601254072444
25.888620480172875 25.706868975379773 48.58269816149193
27.559642808413106 26.0311975650159 50.7805823754329
29.766427397512256 25.178744423669155 50.81288453544593
20.487877374958792 65.26654697203453 4.5509541146330506
18.850246321487393 66.0429779169691 2.669119910785139
17.276102570275793 67.92908416516435 3.4999786500648047
15.891501623085093 68.13326879522839 5.453212028326547
29.907978104510764 7.981938785489586 21.60837956614485
30.232238664109786 6.500455770264804 23.173501984989386
32.30583711452346 6.327663648142264 24.848856653302978
34.335762510682606 7.957662784416423 24.81492237987706
15.783824368360547 62.33380730311105 9.158857329507697
15.43904045366822 64.03583384842065 10.758973672721797
14.036444651468548 66.37841598045073 10.028341391999994
12.896430541691972 66.70703725267066 8.194440573030862
22.301235126375456 69.69463633062685 9.610216119779492
19.69855926045378 69.40460743466691 9.576533743331517
18.415874502861314 70.7362487526467 8.135426088389805
18.05386886689639 73.1021974246052 8.056756974789764
12.572880787374356 15.68484964419021 34.183714081636865
11.045050755988807 17.07543658789193 34.88243920486665
10.565418898862362 17.333994870966485 37.328412100005195
12.029545315586464 17.28733636586239 39.403070420235274
1.9595190731183383 20.241517349590776 17.225894377617497
2.147347348775709 17.65653811019886 16.875315290986165
4.133307980681807 16.74604548466357 18.03369095805967
6.420146018180247 16.75161028304233 17.5986942624262
11.236076996986943 84.2389774615114 49.92691817250292
9.606167422131048 11.086089606250976 33.13116859824022
10.806790801823713 12.224089512808485 34.683474661435554
9.861779207760508 14.727469990598077 34.990898999793195
8.588734090056436 16.262378578936293 33.00501609948133
10.379606735262016 19.27208664010379 19.671826436786407
8.67637925114084 19.992725961758563 20.909856807179324
6.577859628757682 21.01977793720228 20.131805522105566
6.055399429204646 21.627319708305887 17.658721680308428
27.548736502029595 51.967407513225844 3.897612709204034
25.91766902097083 50.27218407662693 3.1326094815556913
25.454849193102678 50.01349213501162 0.49096921048884756
7.0720609273772475 16.25023317405178 21.046968282662075
7.997446887338187 17.460837099379155 19.687447916947086
9.607615008814395 16.976094923479174 17.796161739443896
11.241801081769857 15.102087808723049 17.442176867769803
11.210364907701344 10.21030570480568 19.459433505133273
9.327022484481812 9.427923405782279 18.165886711859763
8.150884123063529 11.1126721060574 16.292331691392704
9.250360730036327 13.673827775584288 16.154997808932535
29.69082313641949 7.17124744749307 28.060733224324355
29.465389320029665 8.968596762348934 27.376878857907997
28.778716453082108 9.871786769602982 25.13725442308793
28.004023416030186 8.797028303094311 23.20038790958676
64.04052084622388 57.33279283339533 78.09895065613686
62.30562497849434 56.29799261342875 79.44937828993818
60.065293918534564 55.6012857129766 78.22516073496227
39.393937737186306 61.90722096144931 79.87653332908705
40.102967904655394 63.32037277679575 78.14882858384567
41.68727890150199 64.86171878132735 78.19053762759854
43.80386864079103 65.37114700490447 78.98433997266399
65.26339902511276 74.47194364780222 75.03700839292415
65.56397685132016 74.55615368937349 73.06658039037534
63.95884724102219 75.28712333192843 71.4063030843322
61.6173451145106 74.60661523978978 70.92139147952923
64.50372346459903 82.84770257627143 73.34936568930773
63.589830682521395 81.73096553344621 71.52930172296698
64.99779144400677 81.17760524619126 69.44313875179195
67.19814200789311 82.59599250099173 68.64923903293115
65.6005640656037 78.74530044276482 77.42790054549462
64.22520532923326 76.77407619222363 76.32135266454632
62.82146282778701 78.05580358753825 74.37471274693512
62.80303162694511 80.48066390710572 74.16341199940194
41.173201003120724 71.89848221989968 78.68263994233962
43.55198619056645 72.23199707231278 78.27682420017105
45.09637148915988 69.97320586630518 78.28080907749471
44.67788748356029 68.17727457898954 79.3929074889808
44.37805006110986 74.20368170239003 73.91772825644523
42.73326275688962 72.9687018882949 73.45895027444152
40.476183769465734 72.98550150221755 75.13637991545708
40.139906453836275 73.84900007708248 77.21296412358805
78.50952998134716 69.58234249900808 82.08416141972255
79.83293714880891 67.63628383271036 81.80779047535657
82.09347516106524 67.18306681810711 83.17378527000143
61.634739508249275 48.94383715813476 80.09051352257796
62.86531864781414 54.00964538659994 77.66946447692115
67.0599038790698 52.503801204736284 83.5994596052296
64.89068273226098 52.586507438659034 83.7235883513875
63.57327723268118 53.986595748132714 81.65717534525047
65.18857821681614 55.295760056757864 79.75656926866637
67.8033410370945 51.9341874137243 79.53939462786394
65.22218407302068 51.050358450869886 79.82327483984645
64.5057614388272 48.541918849782014 79.7016738543374
43.73797769211448 42.099506926325766 81.70577375950205
44.71374764993364 41.38860059673346 84.124379948798
48.38546927125257 70.21725040661231 77.99844620177686
48.14400106177636 71.53013815846263 76.0005371794675
46.09556680601608 72.79034774500991 75.81486523747209
44.783057785586635 74.29299837985606 77.0529223329017
59.048245837298296 78.64927322284156 69.03254173201353
64.10021475157271 83.56294933007952 67.12337086002395
62.706017900006394 81.8950368413255 68.300945476872
60.22582876803072 81.80360393889609 68.5941167495855
65.27213229132335 77.08182702414149 73.3418420386819
64.24897148531967 78.64834825877492 72.19915434891115
64.10340255907656 78.76022413354859 69.64801055598821
60.35239928173359 81.93444971358237 73.1383460405503
61.06134090308441 81.14724106346651 70.95561195900387
61.55482064701845 78.33262139734337 70.95766935304688
60.90801619466991 76.93052452588304 72.7163618644013
81.9579647316311 83.45346732124014 75.39689652008867
82.76818241845028 82.06491185260333 74.35200071749006
40.02918222672688 81.86257188292446 68.2340637008762
40.93341946552297 82.43223776232837 66.21266749241036
46.175928384534544 65.38433982884483 76.74558242799993
45.61337413682572 67.32716905524354 77.25000701933845
46.435948483842154 69.32302439291998 75.77005534744147
48.2278567375666 69.25805987214011 73.68918028172726
20.370389174610185 84.60593175338789 71.2222666755537
20.213734100023828 82.23066146841649 72.23251401813475
21.57351182046576 81.96639653436488 74.32758842314361
21.59091590161547 84.00382952869349 76.32911555802553
45.76924865825162 63.53154094656024 74.35885965120944
45.2543759143172 65.82614339273957 74.12002727920661
43.42791495082117 66.9150326429493 75.3086474098057
41.20942192765572 65.90806800624695 75.88980382782091
36.948296079590186 65.81695332793733 79.8937603307872
39.12564011772119 65.69578221028726 79.06123392347506
40.50658442898141 67.4981447361609 78.18614680845195
39.89357268889471 69.74937199251612 77.6029693669552
41.70465230735016 82.86507992739654 70.6300752768069
39.998077276784805 84.54537772761618 69.05071217859296
23.67710587911685 81.3963844940773 80.03136529064825
23.1480781466745 81.897012219481 78.00010341718794
25.177963738000127 81.02788122077655 76.52983684876835
27.223458234265717 82.2021108361132 75.84109895030312
19.08335270347841 76.81632068270721 81.49543375302204
19.95713756375994 77.20682778764012 79.40880375753973
20.497061094297052 75.4803683992495 77.36363998784554
20.767603726279166 73.34036862628865 77.28307146190325
17.97528064096259 72.26384808294823 74.6037234582906
17.560300639728357 73.8632094714366 73.47935441043563
19.03297095174381 75.67962373794497 72.3401442468052
21.550622446223436 75.82852729991188 72.11531673668298
23.178233785282448 84.53948910596303 71.93511123139035
24.055422505968814 84.73121259284807 74.49242541537393
45.39824785086275 68.26896817094611 72.44102911876664
45.65813132392498 70.19364569831535 73.53214803662293
44.016716062122654 71.33748217222575 75.29915867484648
41.57990631981014 70.49329817663006 75.97282628234016
15.535711688766844 47.371413659297836 84.40138174552105
17.78288765844059 48.18232042110855 83.3140633667716
20.08160037894836 48.335034076828165 83.81710847927363
30.900501339184235 59.34352555706067 72.69456094688968
27.054047039966182 54.61526950212252 76.57518733303607
28.397383843151992 54.26828734332784 74.85758183897106
14.114381689957991 53.398085916716646 84.59066352964099
11.845664617646124 53.92953858797907 83.75629310054286
