26.414191702812055 21.20023892962505 84.27311581358724
24.810308447772172 28.62562763767312 81.25999826733596
23.1624289163472 29.718279183039353 82.22965773540066
20.997498176706568 28.669300539391163 82.09833156560418
20.005202917490987 27.365737754563607 80.22623042927958
17.479275814988107 22.18220513683511 82.56303932220378
18.33630834350151 24.132213171847024 82.00594361580029
18.80617590824 24.971886743689563 79.73083827110791
17.513075344547765 23.963333633529803 77.27710469684871
26.111075398641695 25.394575154702817 84.83145284831292
24.34009066430916 26.524893288361593 83.9592868899345
23.185964324014112 28.67724189355812 85.02226311916652
0.12030816512733263 8.843703755323208 60.43946393766898
22.087679094793298 19.37785458349172 67.86798488356854
21.295839633945477 17.37719781733845 67.13406930742615
19.458463243989293 15.93697114222883 68.09839173033622
17.48995532485486 16.56465224902431 69.50811222955998
4.031649996633054 22.48923387538514 75.09561753499702
1.3992727467794315 22.847456317158922 76.23706622684433
0.08040554735802188 20.196165726022326 72.7101297527692
22.62182561131579 21.40886860542163 82.82448499200048
20.524557751695745 22.9180546753191 82.77209616291107
21.520321639970778 25.493635361058548 82.1958583315141
24.09666753142229 26.064424285739253 81.44199544373191
1.0711839282319329 81.6872522047249 82.7997328666509
0.9928501384391902 83.87092458011739 83.21159194408115
28.088760040293888 35.91293093719153 45.851121961280136
27.70885595765249 37.277001837447116 44.478630223162895
25.611845227404658 37.78439050800191 43.33035812794139
23.873482277113773 36.35794494940112 42.21736949659225
26.335929304182983 20.054002833296 70.38483399876081
24.087180957535054 17.564241482787946 66.66252604574132
26.41959544446714 41.008181698536745 39.564924878914695
24.50719530925279 40.93381230058649 38.802396492236454
22.41992961903309 40.48859566948522 40.20963893890543
22.857402440794186 40.645431263396596 42.58668844955378
1.4773823410920948 26.972328559162566 48.55770597971584
2.163486991871994 26.148810634274664 50.28173235490274
2.713227434627265 26.994950275591 52.59883935697533
4.34256545832676 28.237297563834876 53.05817671883422
21.678949025347922 35.799772895843844 43.89282809884725
22.260765021892286 37.209900391888816 45.73156299518155
20.88725351969452 39.120050668132194 46.16288406069596
18.39812247502517 39.493625158857235 45.91455472952072
4.086147293727013 50.01158021479544 43.99170163064588
4.359796748509299 51.10000355032751 45.90400034111773
2.5397371320929656 53.19306054068743 46.68366758506408
0.11642481636542647 53.47989322270639 46.23645011938824
34.65410031666576 40.91429946890475 19.456839666756895
33.76644648920017 42.908533117491956 20.417970097613082
32.270994479761 44.29734539417691 18.487550353088057
7.483404345195514 28.17449946433249 52.756548283521845
6.555028898820849 26.502249824271306 51.45736148935253
7.995571922548915 24.235713788705393 50.53929713296717
9.764709056582896 23.053720976602737 51.64558228534754
10.410493864045279 40.462213045318634 63.842629940385464
9.978337695967483 41.30189964451849 65.91655636643118
8.364294245361176 43.4530171334276 66.54218295482283
8.034476670607054 45.26976391722799 65.4527748172743
21.36875594544211 37.99478967521783 37.9676677392384
22.40814952251628 37.22550092442032 39.904745308314304
21.157465416953308 37.65936843288523 41.930515273750046
18.855788261526733 37.55563752307061 42.39992013715369
48.47077134324129 45.3613120050442 51.68775212602175
48.80692403128589 47.053765278490374 50.323764034519485
46.81590345960806 48.44462096963795 48.959156721884256
44.45494552084537 47.64312310576447 49.19188722133584
2.1436970522692707 52.35653366184199 37.92783634166205
1.9152667471302154 51.12428887619169 39.36337226709607
3.396329015286712 51.008714893582095 41.38712242538653
5.377945917104144 50.971491391530556 41.8379408775748
4.1636653863160715 39.876537007811095 68.44821209413742
4.624856022354555 40.924036384635684 66.72725388353629
5.467052781130334 43.63656865476046 67.06776321668211
4.072757926785125 45.296634465972154 68.1631189877893
29.33124341881343 56.350764891604975 52.4465090419739
28.798203812171938 56.93509427517098 54.9647782992577
29.61317024810092 59.54524100046827 55.68274847373535
31.259743887860157 61.18066343700688 55.059698916887555
10.68202868503849 35.38907264657496 74.66506679279178
11.728294659619348 36.25296941547399 72.24804852363242
10.863941345729083 38.665170405146945 72.04476849910647
8.916511150811255 39.63208906969029 73.1192213361522
10.945724214615653 39.09922128140611 66.59723244499897
10.894498740529347 39.187972405657014 69.19480390473495
12.25564118653525 41.40152373417294 70.09918754191693
14.280406261814967 42.176224469425215 69.0629674300665
24.537027751151122 56.418014241941385 51.93088313776151
26.775345658883065 56.86129467108423 52.425078151924446
27.420743572900296 59.177188769520704 51.31269477396586
26.511674144412403 59.926778410918644 49.30415337249446
8.710102518074011 52.45922966118892 63.99133383757131
6.484757231587904 53.14890666538087 64.89052081224222
5.747433501906541 50.4725246628 65.8151883219728
7.21190833350293 49.013215768157835 66.40030546032061
19.299966376028674 62.034739503642065 49.986394447782054
21.681266462970033 62.17335287940645 50.68713356434134
22.727551676232867 59.75536153160674 50.95595064275833
22.43041375604989 57.64418773135996 49.39358814987227
17.921122828435546 61.418040484289534 58.94688061412596
19.307190939927036 60.77762830838787 57.36575653764952
22.017119731477692 60.647187862431046 57.63525779976157
23.438876306780635 60.737233077277295 59.43067306827391
5.2604931819009675 52.07830696068685 69.58635027660097
4.502199849156396 50.367725286280994 68.43375784752024
5.420436067495745 48.031734173868045 68.50090558702856
5.872661650793353 46.37286901171004 69.84013742136915
36.96250819675193 39.136448639442015 60.91134144978226
35.97562672518432 37.0883338297941 61.09242799917613
34.28102766754095 36.42199409800448 62.721552505962705
33.720589749614554 37.47701721028126 65.00798520556485
0.42345440407739027 26.673878724730976 26.472308667854215
2.0415290932026413 28.032470413805353 27.4093672875203
0.9468804360479668 30.30394365973291 28.06126022781335
0.5881393646136329 31.769340967889235 34.73351757263174
0.5575301016021253 30.835625141762172 32.951705341214414
0.03462945893583072 31.888523683084156 30.500039653133868
3.0538107466603814 38.46433240452098 34.12796198332688
1.5810549093334823 38.6820694522447 32.4175996773402
18.91244483013453 42.085281850226146 34.58878987539806
20.954100764589718 42.86700205725138 35.16205506523549
23.052251743444337 41.55294439292986 36.08792633157496
23.16897052347139 39.48992351742333 36.49082442634079
4.210184157426199 56.089700970095045 44.85695969959956
2.2859291318648065 55.93627262782324 45.86793092437614
0.05753165959484964 56.671255908658004 44.78084503277019
5.377617111148523 18.262067806810197 52.55206250385925
3.46326043148228 18.50170350680998 50.83622840086226
1.2964758553347242 19.767419997108057 52.026513870183116
0.6834488726304927 20.054892591917692 53.991128879403554
1.1274767485019679 52.223567284575736 41.938281064369406
2.133644818975351 54.49620392667592 41.96124233673179
6.263500840673206 48.747356091486694 43.797487925516144
7.964733115124258 49.82682507281171 44.6995836852085
8.147051300308732 49.91081993900826 47.47236088720317
6.014285508845059 48.95703018907797 48.92974973577419
0.3238799412692159 51.42201684824745 48.528254403685
43.12412736691351 55.58505370614241 45.79906763934672
44.44961568341505 53.97514882017848 44.86579357656827
46.62529086338022 53.41156466014078 45.796481758520024
48.18629487027896 55.09526701811563 47.2973175465538
43.60955861625657 28.032596048031298 72.78550621198706
42.05064048094389 26.115515441096147 72.81529397160736
41.646015853486794 24.853489288303194 75.4304430364521
42.010081209269885 25.39450832187929 77.16791214649474
43.692857292747455 47.05825327545182 46.226570707420905
44.59413987474141 45.50331397553212 47.466020003783335
47.04515357223512 45.20339731350342 47.20912481498945
48.57746293398739 45.46111230441187 45.3805921678496
29.796082671516583 37.10299489903975 58.85616429073442
29.41369354341481 35.54744787629432 59.75805032804071
31.17300452280785 34.008216482052845 60.78087040526505
32.41754023171537 32.29246654874664 59.75329452394676
44.2633737332764 26.97831949566418 82.2934040088273
43.4879043197514 25.95588632993755 80.3210585265632
27.354247638199453 59.711702807722936 57.88029232553399
25.48989645652124 59.86005361227626 57.251119286069695
24.311278231501547 58.6770236784318 55.1333204462518
24.004330166127954 56.5914888046235 54.66404070389293
48.57020057505463 47.99149484762847 43.97755320289239
49.79122239745302 47.9937587927686 46.0506420585094
50.09560324092664 50.40921591256702 47.372105053999235
49.60060627095288 52.56817021086285 47.00797650049787
29.541225572343105 42.15757284531841 59.26699806835624
29.75569900631754 40.371911775278804 60.43118459300363
27.974710221688312 38.23478861993752 60.67752821983494
26.144556187549167 38.051408343332824 59.098041776041434
30.56295183574754 44.79329081101038 79.29828974604398
29.822061500625445 46.0791475432074 77.63350964981008
31.171400066656684 48.08365510178313 77.15906596148524
32.489985556013494 49.6504160242192 78.62052560983722
53.794399098184975 48.33656436743984 46.01269781047498
52.96153258722752 50.03073530483557 46.86001819799539
52.6731115800257 50.515665702698236 49.56305434313316
53.87826006858205 49.536015878509296 51.210370151486224
4.612529178474338 28.566041177064232 28.251869040563303
3.605353645526817 30.832063307333847 28.092111014370328
2.9137582045171984 32.04738839906003 30.249815499706624
3.1581362999773877 31.430418756014948 32.783173547906955
32.935504078258475 28.797977121301106 60.528236943543334
31.331000656789165 29.85011052619509 59.43762049100534
29.894692089493656 31.366019148086608 60.518972849449696
28.610569942376383 31.408104021035573 62.60863829413468
36.60627807736174 55.20897296918058 77.82682781137002
37.615889691489706 53.712310090579805 79.31793499209496
36.04913552279461 51.49956217840534 79.80145043716465
33.470168486622946 52.01065424193832 79.60197437504944
21.51407761048415 59.52286638901911 81.54132320008378
21.306531675174707 56.7039492911251 81.75625742166973
20.58948139682306 57.82058948460009 83.96916081356885
39.83998469722245 53.08603301417461 76.33363297980623
39.05351800612217 55.128317632130305 76.8039023035848
34.78138639927897 49.302948654093996 80.6306947261357
34.328577191198846 47.99300931680133 78.93184370714911
35.64463992711136 48.2408859032982 76.91325841674458
38.17830044617119 49.01199541318123 76.68488179362323
39.595573253816866 48.61376496197212 70.01402785116952
37.61462385670586 48.4780958701902 70.23973728412447
35.784841512619394 50.54655539180942 69.84187169155808
35.489961848093415 51.78753146642126 68.11904804143052
23.879127135930172 23.36551134126918 50.55865273436906
24.157504522469534 21.173357550558165 49.78334131420202
26.892790520211772 20.88136311340802 49.15277182481852
28.6052934255764 22.65540900261687 49.76711905012377
16.228436773972923 18.984792180710535 15.873178210638725
17.22731122797434 20.911067126008092 16.23638256125502
18.620672625043166 21.31738146468242 18.446902199602473
18.177608358953254 20.67793624019868 20.621452539699185
8.96690563525617 48.221337625953105 15.78975235177063
9.015733340693554 47.899023493897175 17.81436028730816
10.690675338873616 49.77519224349875 19.566400170653434
11.857419920033392 51.499060630159896 18.573910560945116
27.729550733177543 21.491346589202294 16.925130405719013
25.40556279782359 21.74664093359375 16.59707386073199
23.714691424500693 19.729859695062963 17.316053158644017
23.801672845379674 17.58188593234135 16.667905195742545
22.73717440404699 43.856704759587515 45.537908816256824
21.733915822241784 41.894746035109954 45.86477240774891
20.461082404823845 41.08292770113815 44.03465147764546
19.03542914043447 42.312528840434425 42.319238124523935
29.519865011524566 43.241878938962735 21.03571982126319
29.5490441457253 43.90848821536067 18.665358748296217
30.433252268498883 42.00057946080172 16.930439123468407
30.203878223463363 39.37694422815754 17.04815356658111
22.03277708662165 26.571499855403964 17.41698259505729
21.786725856689166 25.904529508680117 19.460259090992356
19.870925568625168 24.82427862043106 20.67585464246168
17.612781284278707 23.957966179341764 19.339950445626613
26.023281513609053 37.628393830326516 46.54017500058609
24.46188950288 38.84042312195139 45.40190322448265
24.140431424014064 41.28536061070222 45.034778275402154
25.53497744678796 43.308272799282456 45.965720905045195
29.508979896224194 59.49402149122324 29.06961602798938
31.05184407317317 60.49630352478099 30.415055086183262
33.518717418423954 60.991330330767546 29.795502174693638
34.36137606804075 60.546870628772 27.269928244031178
17.04245582811371 39.67758809083964 35.569857035808454
18.774581796869164 40.49466088806915 36.74662108572712
19.63930601323936 40.08146406625458 39.035505920158585
18.48886975387671 40.13050286988284 41.242893559566774
28.242130510064044 42.7122633800468 40.81606906797692
26.640391550321112 41.88694969473399 42.24036781045067
24.514565642516132 42.99500671461017 43.00876184499364
23.797454731690923 45.179572157925094 43.35301311828256
36.160346419755534 65.83649359490462 26.282889932551424
38.54081430347259 65.8318544195846 26.7632331206611
38.54854443547144 66.59539121711575 29.659071148414164
36.22467383078503 66.98004361025308 30.66304787903774
24.135655188052365 43.74084778333953 34.44484257847795
23.490458653132404 44.291650373105405 37.09977518791834
25.31926153189079 43.72238243169465 38.742354546000925
27.79531854913376 43.049390193804385 38.10968130251003
39.45229849186242 62.584238049970196 36.00084859687789
40.63015141054977 63.05899324309175 34.08669328668795
39.760298413232626 63.78997160833828 31.702457163536124
37.78919657316933 64.12551586563713 30.766120338310657
41.42770087155777 65.68254964707927 31.20861666614864
42.59673415119718 64.37276957609929 32.70298967833243
44.079398037995624 62.28958303095477 31.518958760179416
44.388121064260204 62.46255704672956 28.86464241308821
19.98056602946846 42.6690232756583 37.73936086722685
20.501417811147583 42.40026185582393 40.10495107947854
22.013870481302583 44.01592734892112 41.66630575003049
22.61463317443219 46.10003386492503 41.2210834689389
49.626076001923714 32.362884336190604 25.945839821168864
48.99622331408136 31.556730693194186 27.54291638868283
48.45502285149688 32.25890001771706 29.681239192685382
49.48434586380619 32.400035951459 31.315625297677474
8.007931230154385 27.216376485446027 10.442579569024618
8.519395961409094 28.276281127361653 8.886693558870876
8.587159039240737 27.221595452081424 6.198488845749081
7.2123805881686085 25.1384238575312 5.634247549497034
8.60130496580919 11.408901516341812 42.00985581635465
10.330079993631953 10.636779086599095 40.757491959683875
10.602727788654569 11.016846571714703 37.96893113280224
8.28644362360058 12.00967592550392 36.9520654739737
1.0634518689375514 26.778968864551555 8.8660878472901
3.5735502914470767 26.125211304795837 8.77434478861829
4.612948121399501 26.666882259686705 6.19650785137801
3.5274416705930483 26.76372974420513 4.260792429382853
2.7708539970290955 9.142083732845014 13.05887137836608
0.6895305665896123 7.819551249025954 13.433467308141296
0.4508671985439302 8.577172767824415 17.73521591426528
2.6292284281528095 31.081188273416085 36.39718475377189
4.473700342242037 30.52230857652345 35.20100547068756
4.331745608481879 28.035635214597452 33.742647580376634
2.5379544256422495 26.762122535076834 33.69883407305178
3.5561239215754576 29.20521236177048 8.536368608641869
5.745176361172473 28.663067396584374 8.388425925476138
7.01453825278011 29.98068294225346 6.645081243255316
6.832586576266889 32.09015151834947 5.738064019326074
32.856847141648736 47.86873506663961 18.964193725885973
28.882322224425046 45.98660322089295 16.749412085513733
9.305259324489805 50.974509874143415 24.61137487212788
9.57370543896858 50.810384445747054 22.408520894137418
8.308589712862874 50.34037404704435 20.573587166708858
6.103118526802452 51.97798532261779 19.543272788457077
4.2314219365672425 36.754412600949166 32.45684983339864
3.222576233243668 34.96810583773928 32.20135857020732
2.3838503762472056 33.64024292129993 34.26790085162616
3.2475674784348727 33.69870494583804 36.75267711876933
0.6951074539562202 28.326812271551876 31.584015604630235
11.277874875304937 43.455889497428885 17.5872639006254
11.67903455125946 44.89020369598019 16.04037515111044
9.818096553340213 45.899967335011524 14.601513805718406
7.228951370272706 45.24662691876342 15.590231190660809
10.440259642681632 48.6776692211868 24.13644803882917
11.104483561222251 47.84704841920886 21.87467343025123
13.155293890903287 49.06403572945122 20.605775960338814
15.044462938061042 49.143106385636074 21.519281944916372
14.767539666104149 46.73773245709936 12.70968514397183
13.569669699242333 46.41427018584628 14.493854554205083
12.009439938859629 48.16593859169589 15.691335813801821
12.883023734468923 50.90426317201776 15.409291821900075
1.1364157557933092 23.039224777601557 28.8555835583103
1.0231120726681142 25.162164433843962 28.586304678691818
2.422849018758485 27.066653664268564 29.956662046035845
4.4343844829377606 27.291676360781086 30.85352451995002
22.47246687137212 26.979098352910455 28.4499494334235
21.661659982747704 26.933823972208327 26.586613988767105
21.90714228166514 25.263409519567887 24.38296562965887
23.4172911855702 23.946289283721516 23.661625328424314
49.8312717514868 27.24029968965813 59.44836152095044
51.79471157494698 27.02934476392138 60.62877979050098
53.365783027690505 29.00655258107752 60.4499621160311
52.91693475933565 31.4228889462735 60.438483463729625
46.815867802583135 30.485492106000287 38.45012403858486
47.834476500827535 29.37863867721308 36.85062277458386
46.611127050916636 27.21828587988935 35.24484950940922
44.23294488091689 26.925646683569205 35.30042867236151
50.0372438451367 49.99082615721449 27.03801062867841
32.31970187032339 62.60788588584808 32.0123354315691
34.427506734058205 63.24151854260427 31.175198612862015
34.99915050258792 64.68546354415098 29.10141609317845
33.42679968823162 65.5898564941495 27.234341948483497
54.0810717763817 54.331785963189695 31.64962294579675
56.395036095568976 55.21560667117918 30.693196527405274
57.12408864532056 50.77178003540158 30.145969509822443
41.5593669521563 34.37823615467987 35.13161402526829
43.659360423889986 34.34968889860135 35.9654285193368
44.38484667423616 31.88516920442958 36.9726173813636
42.743929469343826 29.935333911309904 37.15001094232817
51.47732161106724 56.72238732542317 50.04373577314873
50.499660477137 55.20020032368188 48.679294652666336
52.31188199808002 52.89513731523439 47.967468442075976
54.46664053832935 52.79907651053844 49.01243647247523
4.011362609479701 29.677794736781895 4.459793411431752
46.02362060949109 34.49348060348348 31.477570062585222
45.04358129938002 34.045331463735835 33.24302344228568
42.82290695878845 32.58503187898028 33.162794045469106
41.83198451698953 31.871844913406267 30.95221548058927
48.70860160538843 42.687137682398074 46.52750519190485
49.736549661151116 43.00427561632725 48.47621250281606
50.7680859147233 45.41490319391109 48.94453179159022
51.86602436935952 46.689968554989285 47.54188214630181
44.04121182373839 40.99695907076336 47.05557185598719
43.75080343968037 42.59526229389351 48.34793218291071
45.712212202649106 43.943109432816534 49.50719556445276
47.83631756315297 43.28389498590746 50.30932678304798
43.065552234892984 52.90304803548118 42.618940292407984
45.22086734129364 53.2549779649286 42.09526212983668
46.81760177631891 51.675842610655174 43.45314352042241
46.587560844180985 49.53723063712354 44.53946335913711
48.17790787466207 54.31251009938551 50.0857977128913
47.63666892407686 52.57585674896926 49.492441743568
48.76685394624227 50.27118147282644 49.66252328995176
50.35602407202224 49.40682866645748 51.06600445724259
0.9935463197810959 14.482425688169386 7.843507027358504
8.080729038344332 39.27748158806789 63.32762787253898
7.21178044602733 40.347903104797055 64.6146542346087
7.353849013832295 40.263496942106286 67.37171312706872
7.901649546164011 38.584241893052095 68.71717184702045
0.6303293889192679 71.95475100676428 18.679693209641673
0.6458086313433757 72.76989459587662 20.89132627818645
8.180709554218843 44.94129317142535 73.08804181113516
9.495860680276198 42.84750565260415 73.95251700677582
10.028535819161968 41.31001836928359 71.5157684863923
9.091697941379213 41.455576854491646 69.28213613141432
10.973487853996824 46.17090616565592 73.88058224369581
11.729472534644188 44.31450569661427 73.00395405431081
13.236542550703021 44.38336338816717 70.64404820364908
15.289025487057488 45.57446690061674 70.33107012094392
4.985199520930642 50.11180368257021 62.92957434830426
6.154345949986446 47.94046851982602 63.9840945121116
5.720339620751895 45.78076620696358 63.902233854564685
4.093549317443437 44.55215930482486 65.02719264369725
6.3502153809120685 43.76889022481108 59.99495358996212
6.82600013117928 42.962529989666294 61.575398696260734
5.809344649132417 42.72692192328295 63.70383331900045
3.730079913682596 41.56333351398806 64.36456742361496
50.60722695118438 42.922567923832176 51.08104696139434
52.44374316363277 43.816151425074594 50.331824150740296
52.753710799492865 46.782961630278194 50.950184596321705
52.32826571651948 47.64426545359768 53.04960173698368
32.06162686040601 38.685689208455564 18.620727000486408
9.467901794149599 60.912231773186825 84.50777678206914
11.170636663151713 61.05610525687538 84.86551389245055
12.806758833163407 63.31022264716825 84.62312641213842
12.763561567567278 64.82258433163955 82.97205062874082
33.966745604671615 44.41940133502694 23.16232905636808
33.867300320760805 45.461985008357615 21.34936715470612
31.340377337416964 46.19472747565722 20.409220291832955
29.21649450117098 46.76503338871486 21.899472774832862
34.01058469128599 42.13703546696842 25.299374047769803
32.20221234152554 42.670225620538474 24.135980185773338
31.732569727306515 41.57533762435091 22.00683369294974
32.698844372805695 39.21566109306922 21.196131796658264
18.81134823649576 27.32118364447271 84.83467998104767
21.339217307579453 26.729245540553663 84.58115994282075
12.600261103210347 47.426471531503125 69.42104588581492
12.93484315474432 44.91801264672004 67.8207678553337
10.416710812794497 44.107445118115294 68.1028370687465
8.201066032930504 45.498532099021205 68.32861350761067
31.550604096995276 47.91785509250923 71.15176802468248
33.31900218301893 48.5423398415888 72.04518595973326
33.81577543674725 49.32860606048179 74.36918094231955
33.02005834794069 50.63471709162021 75.82878897016371
4.6305972582416555 34.76850572748767 5.143342767816027
39.44153407258921 56.39324040195635 71.2335639327503
39.270403344390346 53.84012891598 71.74834434795234
41.29185156764493 53.01589260220831 73.27617139013269
36.519350139594366 53.5504654204546 75.85241342788484
35.59633782966653 51.29752184955382 75.82334642829807
36.3663702998348 49.454501190779965 74.09047509002633
37.90649004745718 49.68084165267157 72.56493785655746
30.96254689133313 45.68391632057831 74.74089911992016
33.04436674567611 46.15134747112887 74.64008290925781
33.41257020972153 46.71780840247304 76.78295167875123
33.23606582061422 45.357588783332226 78.88532714479547
42.677664544622615 50.35263220732652 72.45705926386982
41.218972990793944 49.1847817537224 72.50008495920244
40.33869418705704 50.46227120728514 74.07754611621591
40.43640737769109 50.42026932962588 76.69662252814179
20.03947086661761 31.096156028533105 82.80508964941833
21.777986684395614 32.307026788874886 81.62990132739463
50.457439504961926 49.56165664641498 29.740766792721022
51.94631967813761 50.57658803978491 31.41248949460816
53.85090227426574 51.380194404834235 29.97140943144581
51.36611791541786 52.45707859874412 27.910103401257548
53.217951632717856 53.617925566253994 28.90579177625328
53.88783175235905 55.90038349336101 29.189258769737997
83.41520427118643 84.68111498317464 12.936767780991028
56.59889626894166 82.58082495611255 21.999307777428253
54.772711626849734 84.34090897975882 26.60179095886304
55.44023395571816 83.99284609936086 24.2119391088489
56.29824874749008 81.23106423630091 24.349360515495512
57.35328631186133 80.15454596506972 25.6410716696343
80.72802038846692 84.73135130155028 12.038765383292725
82.4519808929194 56.06149489409923 32.848424686032104
80.7212292194549 55.82800926154728 33.93262488627663
79.68308040491706 57.46559665264927 35.2466687954484
79.2374896954744 59.88490559819885 34.920228088819
69.99605503766968 65.20939343422022 21.454118258870174
71.742148238043 65.49480601070115 19.453469911923722
71.40075571581824 67.72741910441032 18.374489790094913
69.06565155267602 69.37498627345578 19.053014049790473
72.71682067559048 66.70167995071166 13.418961869828246
72.55374851168146 68.59032875937893 13.848601193029081
74.05229447471234 69.77261341298502 15.716432365988863
76.01602672316938 68.48594824701048 16.74661272449028
68.4942149363576 73.72418024663733 11.939173370051389
68.88050441287466 71.66252100134773 13.636356547274199
71.54458068672423 70.97160683859319 13.541958531454307
73.25848604429034 71.66406263089053 11.716436461091465
72.0591003092252 81.8531064388656 37.31469644248529
70.6779726670064 83.79245067010146 36.73655186056538
68.61144957331138 84.15516083015461 35.209833019701875
66.80452282404772 82.95041859195227 36.307711290673666
73.16507862476996 84.05661415007505 37.840137101959236
74.3955357683286 84.96604465437888 35.88253187159144
60.70136553940978 77.19852490620586 25.13440259232791
59.97524330643097 78.8400271215239 24.009300048319755
57.19926210855723 78.7474825700386 23.27683373189894
74.41985878946984 64.93324343009648 19.67659044696353
74.28816472854088 66.35835574000043 17.939823075314706
72.89728445943241 65.73365282946233 15.709725146443528
72.09273567894635 63.92069858945189 14.592336862479858
84.59165359196386 33.187130245489506 7.728416970316771
84.72123584291876 48.57981300594771 14.754321527187484
85.04003933032976 48.92362772546533 17.565967788199213
81.8023446654299 42.75662282342073 15.365173138513292
80.04424759633751 43.60661617067356 15.185511132391245
79.80555459774679 46.31592037745965 15.076883570697486
81.20426195687962 48.148059609182674 14.568966050505184
82.73981030055334 46.90051699439569 22.405150872108486
82.22851648545836 45.68532710592827 20.88587144564603
82.42125648081695 46.55017627537168 18.09843542548783
82.39327487225384 48.63750827741503 17.25275769476658
84.37079592022657 45.618845587674684 16.184468623200665
83.87779464289756 43.336217899928954 17.368496460671878
79.64717177097012 41.790462937196644 17.530968904746526
77.46345368231725 41.20603093960262 16.510468003640614
77.81143259217298 44.47351703518039 14.348886996085422
77.93411574591549 46.11902657627518 12.836022356656063
69.8274814673272 72.6166552358241 16.026561437039902
72.11936198709792 72.20197730065304 16.023287651375924
73.5016714740349 70.87335369665978 18.058936866907132
72.4156159638602 70.03336937210993 19.81750396914948
79.12038313623734 54.91576153619673 36.40849219344063
78.46782283540801 55.790638403054345 38.21335447290883
76.83347682339735 57.847917120231955 38.3233448259975
75.39319340514028 58.63833851191508 36.33573295569232
80.60803200196938 63.61128454276526 41.57825428943786
82.04515749018556 63.6741223608188 39.90361244116852
81.10291708076856 61.931957315507994 37.81421688386468
79.32246181151446 60.49119337712938 38.115532095932025
73.85508394309252 59.48967373169244 38.140039441853375
77.16304956392543 61.94013702322773 38.710093757756766
77.18798981385595 63.11589207589827 36.581719729494246
84.46505913557286 44.1244744736243 19.805045754572525
76.01748462405035 43.45991771383807 17.163907082963522
77.03507176764958 45.66504585468914 16.8494167889341
79.65100408496436 45.944710518435805 17.91171165469358
80.76320154993977 44.12678268098864 19.367872665428685
84.50744420099703 55.58688810255755 35.792750150427956
82.67026788835429 56.16427328016457 35.6481427279339
81.01964958665137 56.73124991957607 37.43008200043594
81.02257040561267 55.95088826541924 39.909580448867736
78.33927536497247 65.15735036786484 33.93994491429349
78.72271210753075 62.96864101847515 34.443455984927986
81.12240391427301 62.192628129933816 35.173746637920026
83.43480774807632 63.02237443539375 34.640762357928566
84.60899692686506 64.15555622890479 39.52718832197833
83.19387903104207 64.41291503134649 37.46658604282907
77.82268596696815 49.61269936923958 18.497729100287604
76.16440454692076 48.78121434092583 17.356045336757234
76.71343863387975 47.945580363032406 14.814862585126674
78.77908145300066 48.44402181356527 13.57332252082137
83.72115066987298 58.50347820537785 34.62986768125509
83.20413419510002 60.406968331523984 35.290939952127005
84.03389630262062 61.28106269365561 37.90455774753967
80.8317646472648 65.60036560731182 38.503608364869145
78.90797620789097 65.48721079469816 37.080121620819966
76.28747220234007 65.6941782046132 38.10302053258803
73.65279531665531 67.06255109776492 21.67923636709591
73.5889428765248 69.4805689720668 22.19270524839008
75.24965722339104 70.70150237200367 20.298242548453075
77.06610847002993 69.97113396446765 19.15836862307139
67.35578080387431 70.18203919202345 15.136615603848243
69.22776738772143 69.43064287636018 16.159803446709557
70.94960889541483 67.46743099941993 15.683679300059739
70.09281487997418 65.26900241814118 15.587214495302941
79.03632925692298 71.75932508695928 18.51990131124053
76.61417734507933 72.17865998430162 17.67807403538391
74.83273881879676 73.66211467034631 18.09200971713988
75.04935533726558 75.66929140430513 17.787659309305
77.08869963272278 75.9479067949831 13.573107904954854
74.97746190689233 76.37274008527892 14.670917143770385
74.1329607003841 73.79812061778829 15.394961192707338
75.54176670438567 71.74607638843267 14.8500463332442
46.21724941210412 41.49137741273341 0.22462045962646598
45.24686695718463 46.188838226188146 0.03200972124168561
68.11101956136224 77.60457506041156 0.24349018380058313
15.256555804693619 72.53782979554704 7.40332018834037
17.61461737916782 72.38733795729804 7.590913476648828
17.895554474094517 70.28705094733155 9.112093072032396
16.794223693114695 69.78534263527642 11.403995032036258
18.405797905670006 71.5749861312175 4.74014983486078
20.183742536366058 70.48691502491536 4.75002456195797
20.30845747495837 68.92643032632566 6.765548826583833
18.081871755512115 67.8604222021036 7.950550832523854
21.15576674766517 64.47704547049564 12.051453415151162
22.56460236056237 66.67852377015059 12.013185031640983
25.50046166562695 66.17512257624729 11.714890932196191
26.52569337242828 64.22840007381694 12.588667220710182
30.228071863195797 66.13158856041792 10.217409041151795
28.151501785224905 65.82887220893018 10.68924669503762
26.199869159018753 66.01800788548692 8.9550473297394
26.93355945623874 66.37872142198452 6.195670670719016
54.95258679590656 76.4893202348573 26.086610260301118
55.244866278586116 78.38245482125046 25.630677931666074
53.15615575824563 80.51076649283878 26.057632351039583
51.30074642050022 80.25267793612889 27.440319304327524
22.688424520158392 62.40677182441684 10.47875452083054
21.673943793887727 63.806862766528475 9.5631311166921
22.7145919046759 65.92434807474241 9.252090423495023
23.19558442292954 66.8353780586315 6.7528394634443565
54.593595707154854 82.16124812058389 22.410341359294232
53.39241180524195 80.2829894782415 23.057401101527955
53.68690361372709 77.96171175500477 22.164639607390242
48.08016484609465 76.0737149912556 17.01603574995153
48.22873154211134 76.94344468107977 19.011343346696208
50.37409087791536 78.7342666823798 19.530791968469156
52.583262256488744 78.6854124981605 18.147223377225213
46.37628634447664 79.2502088621074 26.47297432096157
48.54536915534029 80.7191508253597 27.22251854024526
43.542971538480295 80.20935254509577 25.22683451085989
45.15755419407817 80.2409908557902 24.029325382399733
46.28509379209973 78.43864224265359 22.334633567130236
45.66047605375953 76.43591911675203 21.735943492748483
1.1334410034477809 56.50713246565496 0.320511964336188
31.91380183808576 35.07070147586988 14.026465514971745
32.35067801667288 37.202404895588415 14.346074929073458
30.664831709733487 39.359288038416345 14.489737705513116
28.757644712206158 39.67523461031294 13.136148431258382
19.099012419471244 63.01827390875022 10.672313615377085
19.240541244047932 64.22331906948014 8.558596890462457
20.162670885667612 66.67471957512385 9.018708405018545
20.36083434357516 67.81268696325445 10.962573286252145
20.11984524947998 52.25513162921723 2.4282299682551924
20.225046433240713 51.50660476297956 0.005094913457833047
24.975064185929806 73.47201205836305 5.9640925906521005
23.067312930945413 72.25987970294567 6.276538837418935
20.40282321561681 73.19179458242384 6.402804110493611
19.481042159755194 74.13134242634482 4.020878757655854
20.24071016112923 70.74190334959287 10.472313100948778
20.99578043995487 71.1802708503722 8.334424025642038
23.036392570696194 69.84407214020375 7.6517764241470685
24.824638521955713 68.75024080806092 9.247335532111146
27.395814641830007 67.30861981268686 3.7706387104467165
27.083355898490346 69.69973835029204 4.161924131209916
25.017840358971334 70.71777457780345 4.812788706797322
22.63807808946342 69.86141874083792 5.114217637293888
30.4242852982609 68.53090902939391 11.618650435458648
28.2448871112868 68.77941882925207 11.961853436504601
26.616726374556315 67.4873286478397 13.814284373556136
27.384113262033868 65.58481152239449 15.01861547953599
43.469382456909265 82.9756306278807 6.12692964728371
42.77052855272713 85.03994559710017 6.02862565777648
29.561593051677026 68.65836576529634 8.563008142796432
28.164567293472054 68.78651600422045 6.881929487186588
25.97554510151514 70.14325193712187 7.426035412720493
25.45803816903652 72.18395235846224 8.452691132519416
51.58847835322023 57.90277414413125 4.062323901299774
53.721130537895675 58.84517548019597 5.027998293880351
51.317143258759415 60.46473788866027 6.090907703932522
50.87763684800901 62.56106624023305 5.308543195942586
4.432682355425019 63.88570858938876 1.6535705091970112
2.0342617733288875 64.3933142514746 0.636628270666678
1.0137989172199902 51.08901968401613 1.9735347094166042
0.7211136929984805 57.47277801506426 3.5428998513607968
3.0424132767384227 54.67804181925633 4.642051800010905
2.119777232764757 53.29252739522558 2.498975368890547
3.3502343763233866 54.20195789952941 0.5413701385227508
5.1626012643223325 55.89878215515821 0.5261220776923151
53.843109434423596 47.750731695283086 20.600290231977947
55.25053900436395 48.558618673555394 22.030821689957858
55.164259101973066 48.042969938026424 24.478462299669133
54.38681347741707 45.915387077073 25.694776671835612
51.52487516086622 67.31231984243298 7.011527778677632
51.63556266205035 64.75101736383986 6.427477321500237
53.3987245264879 63.03048925865559 7.605200171272032
55.34738154727204 63.48167537402229 8.927654824676898
48.38729177333936 59.45070773056141 10.397510780502076
50.87648018891611 59.50861603269117 9.588638820402252
51.403744482089095 61.72830972632876 8.720419211490851
50.019171370196204 63.68683722616332 8.344417828103344
47.29267012628154 78.60228171102997 14.050131702325633
48.769079346939115 78.41392214945515 15.147222454835303
51.59360480539086 78.8063218168219 14.827562251319376
52.65659539786123 79.94110912022647 12.981539859160591
43.41064853645717 69.14127260969127 8.024336055260736
43.91116276321661 66.95491091707233 8.99842399493973
46.29329207923039 66.88874668247367 9.984121975792181
47.8435484584916 69.06919894683438 10.22169020521842
46.737135412058635 83.86053934690044 24.407319755123932
45.44765170464543 82.60097702387891 22.595858565694137
46.46663662051461 82.34316142806404 20.145737869715063
48.2391585497534 83.55723924452708 18.92588925861224
47.45615755790307 81.0671430835162 15.125378440663848
47.98753217146203 81.27581746919756 17.131265944814277
47.38171590793552 79.80137689488168 19.09078616096394
45.70984857026072 77.63259058802542 18.60830981565721
55.744944097902746 76.90791014581015 23.587561241251098
49.17830150220078 76.99143056664623 22.11286942430615
50.9843625807691 78.09494746111137 22.096989728495362
50.62077412599248 80.76826373909083 22.364682305569467
48.885207748806025 81.9126799772917 23.643744161700578
49.34036829356703 83.88680382311803 26.317750617737154
50.87045152598662 82.46246278561536 25.589465290784734
51.80413828225613 82.93597176292255 23.4736976186247
52.82109431073862 84.54272951475195 22.648292780377986
52.86455993156473 56.44891537144485 9.529392004324455
52.37054465846046 58.01176543742327 7.871304525457637
53.63129649403885 59.921327992030996 7.85987211397078
56.09507817657174 60.607978914166125 9.049558815402442
79.87098488358902 33.165446023674825 11.469708238284303
53.53085175397248 36.038937351546124 6.097020500279456
52.82168254316659 34.149311475744426 6.595694144418879
53.318548143096116 32.15424339357122 5.144581672823102
53.698546665496025 32.03072283910483 2.6291498501357564
41.18236789029196 16.852278561486283 11.62633419120462
43.95988562699334 19.780916782447942 20.30676575905288
44.97416742740098 20.662759901947126 17.805976079891106
72.46350649533798 31.003375004427067 24.262216823849432
73.13870545791652 31.01852850543811 26.641100854852038
23.403110529057766 9.306375474287979 4.370174609000996
23.901403714896464 11.701261438701824 4.154205736043805
41.68659637192305 21.529571518471762 14.31932464379071
41.500318714979805 19.10840718849053 14.76172983865652
39.551477538804704 17.852825020898496 15.806261474296333
37.43698715031674 18.627587139141923 16.490410764327244
66.72046598134038 30.969079578945234 29.101691765329907
68.15661548705566 30.60874213352941 27.56860893879683
70.59599298070592 29.990960780503748 27.59734430717461
64.49951805153822 33.115467387194705 25.340594353882956
64.40188613434064 31.649076906678488 27.164928844559284
65.87002735199071 29.106993546143617 26.905628382851443
65.83311635071496 27.83600874523822 25.162783319160113
79.7516275261754 38.16289943120774 1.9436062783660202
80.38313790883288 36.86068535927355 0.620478766564365
80.76665935878201 34.02630111144746 0.912874739071774
80.52194683516903 32.75077171396458 2.2695091393826057
59.83936294171141 25.482603244324928 11.536022534398407
59.36884304340198 27.68141385744384 9.811704626771087
60.96251957703986 27.163344208766713 7.6393209326130735
62.668094223716864 25.773276887414674 7.412179882354735
61.06421096867698 33.19866559546274 4.399062336103455
59.416331437252005 34.29131714082898 5.3687218041681595
57.25140069761138 33.24233849718079 5.237395634371686
56.25910543839579 31.938775712353234 3.36529449804708
53.733178335892916 26.75524309462473 5.702103390971271
54.59021086440632 28.705251129636647 5.145007684567794
55.06007842914481 29.544924701479186 2.8699023398754084
53.766977865452574 28.536371591319426 0.4161687656162157
62.364977919546504 29.96761311249244 7.970516917080418
60.59399318521397 31.097931246151216 7.098350958702002
59.43986684491892 33.25027985134774 8.161327187934017
60.467811778348285 34.316620908403316 10.315157696049079
3.34672245126034 57.604394648952706 4.127041790982916
4.239075263003547 58.310019342961986 1.9790114424371559
3.116438570572487 61.00203360160668 1.4324953192797567
1.7649035222876672 62.00959256765469 2.607740198946335
16.77739149268642 8.325148283237967 1.6172869738145568
31.79632395349993 26.364384539029327 3.221964658286027
33.51197357334858 27.9852549442369 3.3902078940327396
35.802984170976636 27.081393874288874 1.8471098984960916
35.80246051328729 25.0963166047971 0.8429530988421443
31.808859283927255 25.62715929312019 0.6140658339102114
24.0844125328011 12.498154640541228 0.9373724569831293
24.96164456896103 10.290504835088125 1.5796614616899343
20.96071183900073 8.294672463542149 0.9810697974788231
52.38179574144734 81.15790533239844 15.72568351755367
50.76373545597684 80.7789938517387 16.895348701817614
50.85067038520326 81.18577129479513 19.665592484120246
51.125385596554935 83.05125995358867 20.56941003459145
58.875728132220594 25.981906563211254 5.9635490607679715
56.778460272600555 27.491092633108725 5.91116023167856
57.77422416087558 30.06667331884817 5.3349224002816
60.3505700523271 30.637462243528876 4.581059512499421
69.30442475506018 33.140669661635165 25.8866918416198
67.78868161613826 31.968145923778216 25.265850000046715
68.20176232088527 29.712476905774803 24.352100501791323
68.73253188084414 28.781518004706832 22.274966341521793
76.68408370135586 39.45139372260627 15.02199332823169
77.67161360204703 38.01746577349038 13.95750395472351
74.90708936122066 42.03703221308455 12.507356803918162
75.82563620481146 42.53584616234308 14.522675145319177
32.247342102558925 44.097259122303086 16.13260609417541
78.26398373017469 29.967546279668912 0.3069762152622421
80.51727625418121 31.551357453453804 5.432468077594796
79.74180684065621 30.528924287727172 3.460122595330698
66.81685435665234 49.3663287688 2.4373538148114733
66.07596402153025 50.65218550099702 0.7725737185775858
67.42530258756149 52.65669305957275 0.2981300302527431
68.7438880769183 54.22345398200882 1.7595896786047134
72.86018059826655 59.7820109269702 0.96589188013753
73.86979221239451 58.28534804836943 2.4569990608624512
72.30303804369942 56.072600136194964 2.9405145059321396
69.72407100752775 56.58369219972794 2.741038443816932
57.76798013138896 64.09590434680872 4.680387268851278
57.56043419607952 61.27698724891472 4.895321490437222
56.84338391772786 62.393627442389715 7.108224882336345
58.74183065109405 62.9202693131963 9.152249341772178
71.03528892018377 53.87598661188362 3.769758794903194
70.58247971210366 52.56604727459095 2.070907775916618
71.89854244801617 52.81392386108782 0.052322485512090955
29.687632825784178 47.32776786349864 6.408843023266457
28.164342752914056 46.11390294796669 8.061835444643405
29.489534556133364 43.89137812307918 9.326427799135226
30.805106549856184 42.51664680059159 8.543097831107335
32.781283236465434 43.24643278533045 10.458715540222292
32.91962603338772 40.953825417917336 9.924722659284711
33.36712268011094 39.42828265340356 12.498723492979956
33.09250902168066 40.512563074024534 14.753415327496734
30.675404964932618 47.85455255123135 11.410432162712445
31.532745632575057 47.133402966937645 13.332050822744984
33.98711535413625 48.684176474944316 14.33508111934388
34.926064194663795 50.08219832316103 12.620049483409085
36.42598155206014 38.175116662571305 12.550436266970436
35.050142845727954 38.23509447220845 10.806648893750015
33.36860396491391 36.372863468328894 10.21162412096088
32.74426165989049 34.42806080551737 11.563075915102651
60.02948987826561 53.7423778907636 30.58366480407187
60.40187134590969 52.50396784958617 29.15760443213649
62.226885182576396 51.07614646645411 27.841865135317104
64.73622991573237 51.05439188871523 28.2225281491469
8.07508174423212 24.15167478134726 1.067330460371942
7.422521443402806 25.026551648204876 2.8721927398401506
5.788175431392142 27.083830365382482 2.982183092928816
4.347892013135069 27.874251757065615 0.9945712226236364
9.562730609964165 32.84719778791579 6.237092556369172
10.999856098180347 32.91003560596933 4.562450708099836
10.05761568876336 31.167870560658525 2.4730551507959984
8.277160419509253 29.72710662227991 2.7743703628633427
32.89142723321688 47.69700141846106 16.6649716515817
31.034776569634246 46.25563144525175 15.848521178147575
52.93423895641601 49.69106621945834 22.534773241340588
53.6756076051282 50.216114218015356 24.85451321220782
53.571014575094225 51.96400313625606 26.471511895600592
54.8675263612554 53.81634108426859 26.56323151736307
61.41737506098921 52.02386919463587 23.31991499046947
60.4241394385873 51.78285901714532 25.39153117837298
57.98936103406258 51.75357230985702 25.281059653652633
56.85306020501924 52.584815976151184 22.890056498568523
51.3992251767118 47.37501452950208 22.512233655280827
51.82207053369622 46.77438816032246 24.752057909009668
51.743478626211875 48.45270875802499 26.334005407137813
57.62009573684742 53.04302743844863 29.75326221466207
64.83557144468752 48.525210024411535 28.040291114069547
63.41814881539642 47.13769673609982 27.406537662080524
62.03229330938347 47.415794045161505 25.172731269925688
62.564863165637775 49.34363633124897 23.594292595945088
2.8097825510873142 28.725586976842973 2.7988777087846928
6.117748171920219 31.17605026837826 3.368932024688078
6.142688421850742 32.3518053210488 1.2405579964255633
34.71367496148916 29.30491782730227 0.6251923389120202
36.60539892504663 48.84450401243491 14.326194881128018
36.1128863417699 47.043974642447196 14.99326214366081
35.42132784614557 46.25627688926695 17.293118179960594
35.552069542109685 47.481291290847686 19.489388713338347
27.808651236452235 43.26353420587843 15.592661549830703
29.123195908154784 41.98965481893077 14.646543535801547
30.701942227477616 43.154294744729185 12.469790193984572
30.698282725175584 45.00287939482992 11.53501883405423
51.07254704398086 68.24948447115457 9.53239122710416
51.63186090386163 66.14359721959944 9.648772758695586
49.683308122952276 64.55279928820374 10.76539020147487
47.5739816998245 65.60235054009503 11.85255215994845
34.52765550720128 35.968418022390345 15.125659149007182
35.37826346124044 38.0327853229327 15.262152637301204
33.87242512498142 39.722096012877664 17.15590154282096
28.961733061663892 37.52736305568811 10.456057184492531
30.104334737827205 39.304866190088674 10.621308328798833
29.394779380209066 41.36230455219225 10.471042820160017
27.218279068898024 42.350843846206935 8.897575252420856
45.721804315054406 65.48526973097646 7.646840850836649
47.42453918405652 65.629143214665 8.004577961218047
49.060661354068216 67.88326060495788 7.762190480905921
49.01746408847209 69.39562228942917 6.1111146975083095
53.378846127366145 55.07999370579487 12.401093086220165
53.865831037554074 57.15253447997612 12.074250515153839
52.09617196721648 59.276390965479216 11.938350142784149
50.10751390687985 59.78024359981127 12.805247887656826
43.028454635008394 64.9196163858613 10.119647590550883
44.3018639667042 63.56105072388474 9.132479942853658
46.69118795174392 62.18412131051977 9.636108428712774
47.94726966288371 62.16541738297239 11.601572535095219
53.70303253284712 31.086362524461343 9.211995857951313
55.06525075740057 31.894221602262334 7.9737440498151635
57.59311982848426 31.302283498343286 7.720224011588243
59.00499482252121 30.233557286292992 9.147504499276641
21.525609887993845 11.668756584141223 3.0947660467758245
20.35413564954486 9.738701099133591 3.2600273597081695
19.016580397618764 9.03393494868055 5.500399669398969
17.469487969587128 10.152587174939784 6.268907199363968
13.462142808991821 24.82280134770808 0.45158841735926775
11.624966496349082 25.400186525315103 0.3069809948652136
9.974348194646154 25.967163164726607 2.0889202673672544
9.977269013607465 25.186801510569765 4.568418715799053
17.1862738276458 35.30905069117739 3.108914243183999
15.825396359537379 34.53627169502899 4.843713994849659
13.56369553485985 33.39146947405531 4.186026588909645
12.14857763903686 33.648828276497014 2.1254243097603847
12.988594910615403 30.516975938806144 2.563396014470986
15.129974413688409 30.804469226698423 3.055751048396136
9.78646325525959 34.83627885246234 3.1624466318004605
7.862674815885765 34.723124039848685 1.738959887751279
5.242170810334858 34.93009144976373 2.761858799519349
29.06288288615353 26.40193094725121 2.3268584461522406
29.601516152564162 27.144511245687077 0.5157756120173942
31.497781606120043 29.420008409216976 0.39404506729828215
32.162778134014815 30.377367488404037 2.5584273582281183
43.5221618126157 23.149599344738178 18.504751025716576
42.79480566767389 21.840780401308354 16.730727585540905
