81.18971195427076 40.73195502818316 72.38186175212894
81.50573163158401 39.53286456535403 73.95140660369202
82.78303646330338 37.00673129541627 74.26956905167403
83.67358634606052 35.605245299321005 73.07487944306222
57.10775910077337 19.93535674387386 80.29054982853441
57.81229318058978 21.183106206525597 81.99141910764179
15.317025669348133 73.94978613833442 84.91901486176225
62.489067337076655 25.646100451154233 78.08102080256191
62.248842111400975 23.919115664725375 76.42070264434096
60.48024186938173 21.85893504852978 77.07279173901331
59.25062311202627 21.655096428820908 79.0294184751578
33.73407160648246 8.020034050515303 81.21032510735509
55.73399198703713 19.475074195962122 77.0927216419045
63.584506260310135 28.19674364464693 77.69087271673757
61.9985125508063 29.35111620811263 75.60568903928049
61.333534631635516 27.51307538830351 74.31211177590598
62.49137460989856 25.156841426900034 74.02657881444725
53.09689180724826 21.709083199077668 80.9541858942632
54.620918698472224 24.084266806724692 81.64524403028568
56.609768208665045 23.33504066325418 80.84652219972116
57.397313679969244 24.10603533738479 79.04088290201933
57.908680938021696 26.89659617496439 77.21026800179008
59.326340653341276 26.407189342141987 78.77283668729748
61.27035495834251 27.561721588595795 79.94998788994019
62.10424635661849 29.807864743563652 79.64827886943034
36.07488987502376 7.464231087793592 82.82488398917594
83.30636477072474 34.25248100853478 77.16880860500389
74.27094240517319 29.029716978671633 77.0071400343962
75.8438516023753 30.64275759958417 75.31727027550059
76.20110651531711 39.246529627035464 77.60794441694256
77.24577610879118 39.636159497855424 75.71745980947041
78.98478525372734 38.06724922723339 74.8948511436124
80.38440064638822 36.54682292722448 76.18636728715764
74.43821143561348 33.02504856440843 74.37352304849388
75.24942903363203 34.920763639315865 74.55263731894928
77.81355970355162 35.339471203880905 73.98222629735105
79.20673659477727 33.41561914163766 73.21778663805159
39.77934555503881 10.311885614557946 84.2638585356467
37.90845594768026 11.44601116906067 82.89944614846198
37.32255876445875 9.763043189189904 81.31638813226594
31.119910163409557 6.262220020519821 80.22093806812128
81.08820869693092 34.27954283152545 78.61802769551285
79.42275374612272 34.20343037589877 77.2892484273624
78.94029904948559 32.15391172912533 75.68552270969893
73.61528842194171 41.99279658562579 72.64794724126611
73.36556340204372 41.83108265124114 74.82024028540533
74.51159898088981 39.419388893907886 75.76212459064531
74.5469741571312 37.38120638237803 74.45959853229115
33.742632296823764 65.48306702101229 84.58973006058507
36.50055480158063 72.52540980609949 84.52596201430707
52.745269545371 84.15159248926784 83.0364824247556
53.237412392594436 83.1208887979134 81.09183047575164
60.923023708185085 23.34709959995653 82.47473432616299
59.50645413967956 24.743085947587698 80.94038100439332
48.37469028360607 77.532696903666 78.41943696196651
50.360896326058814 78.14471531031498 78.88682319505173
52.67231753636593 77.50909824425405 79.11531339621634
54.126133307923126 75.25779294634668 78.19712560178198
27.39960452641141 8.991070569778362 82.66247188197342
29.6400438601108 7.803237862635395 83.5096975027061
30.352330324737316 5.287131484992422 82.67409328015945
49.358737575235956 84.58540451884828 80.41044666645803
54.634520177631586 75.73374602677858 81.55459089618167
56.287754969432356 76.08322498485884 79.89462332137899
56.31263758757084 78.63362895131648 79.20888392515604
56.12024727432 80.56917066277947 80.92716012575825
58.737636814224494 75.3573348883435 79.24856200058154
58.48717225370313 77.125651560738 78.12535883054163
56.49993718917368 77.28328301624339 76.55117881235553
55.41467421748367 75.07072266883908 75.567916700223
53.7595960068493 78.18830507332078 76.12502536154443
52.17054706508001 79.88620024578154 76.82154522467187
53.59483711688775 81.49995356782274 78.48997796757531
55.75195789430204 82.34564823921704 78.11445284539234
52.81935840278726 78.2409573381429 81.67383118679341
53.00827090427437 80.56219244429717 81.78184085924893
50.7781156620612 82.38709594809563 81.06384244743509
48.9476551876616 82.0777476189775 80.5888953367813
50.65771206706217 82.30721769901476 78.09484425270402
52.12408250335552 84.04197580378052 79.07545077534516
49.30568950418741 34.10819663882692 33.93598724595016
51.32035748671683 35.44755715122555 33.35665880126126
50.600926967011894 37.97482535662773 32.754570242867864
48.93492823428046 39.09542590785511 31.611101446817813
23.9139016848126 82.55039422722257 37.88181068845129
26.050390400252862 82.10052206127153 38.213122660550226
27.437983922398992 82.55351077882915 40.1192589090568
26.776505856927244 82.60936911813093 42.71853174973288
29.292803956583413 42.03145566405934 25.299972917475632
27.46665822863761 43.466970620804005 24.64704577037899
27.344975110659878 45.901287647429484 25.734545521430263
28.85047095634832 46.76619605697804 27.65543297888222
32.8032790072673 58.21521220498575 11.879672547866397
31.642656207840353 60.430269725472435 12.147388904563217
32.548948735470354 62.55344494509871 13.462379221735368
34.72871570048683 62.90862758459327 14.82398971603991
27.605985904508795 51.22979936843478 28.01751979332804
29.235092375353055 50.762183009534766 29.726744500466523
31.50523845466312 49.31978633038747 28.644109504525993
32.350266326307505 49.48266898704378 26.39292925306752
38.40790080895774 38.27701106313557 12.16858048078907
39.49657597533324 36.19358881842768 11.687741227106097
42.100681082428046 36.043653418298156 11.942191731949634
43.589028082568966 36.301219831605614 13.433006496896514
32.52013440097473 44.22829415471105 23.92046696639182
32.19943147638904 45.50935815728526 25.511799353961013
30.67092499743201 47.77390213442961 25.408944131715554
29.86106748879331 48.88319096548485 23.38992360754045
32.03843685924945 65.8299238897998 11.163094304310604
32.79966664386863 65.18801319097354 13.295723289517325
31.134658029858407 64.53426426872933 15.19024045538144
29.010183357991774 64.52802373036356 15.43575247025416
50.47998729124937 65.85777687840854 27.81326290073257
49.48608116828992 63.928020098510835 28.142798063115688
49.50775504227817 61.4780476411166 26.95008253926726
51.55233572627943 61.44814708506277 24.904009078905005
24.49542112928088 46.082442741445476 31.678276311160264
25.145213138844362 46.772053519370125 29.908791160442238
25.36129919456062 46.10673013568218 27.587662288270845
24.12815117691652 44.534705790269925 26.250524089105806
42.44759334336129 42.574035659602245 58.2509873745944
40.783284008759715 43.38709811438183 59.44916806880439
38.25480592625059 42.35625488779979 60.028715853516914
37.63598234474496 40.13541387992706 58.58419466051821
28.250916416722813 59.16367244477742 17.812426950762728
29.047873651048228 60.274017823335996 15.920698806533027
31.110080583335844 62.08004226851471 16.109151221595976
32.05133006589759 62.49038193924869 18.683112481610298
51.37262057601289 58.97730450643762 27.36785386393795
53.53000271749681 58.912840489182116 26.63189295858056
54.669732519453014 58.89213754992121 24.437774597338937
53.50713222544963 59.48055472269785 21.910509627901188
45.80620157460176 42.350477306726276 37.19950488972032
46.38138838983441 40.18578782610836 38.153869546458495
44.23621262063658 38.67466268329503 38.83220089358621
41.91439129293425 39.839825613048866 39.561988035330835
62.44624194564472 53.28548802515335 22.495717071997216
63.24176469846528 54.45722669893382 20.44137502918017
60.86474227503819 55.20830634346058 18.83243628420643
58.681852856079246 54.412158282087546 19.45107390034326
73.77825666425889 58.10806747665447 34.29562920470403
74.99897269817049 56.326535559275214 33.84917682304352
5.620403858036894 15.581763392779614 50.413565577854506
6.218577423654733 17.786685566498363 50.17602740365813
58.496306757279086 40.77261759355811 33.21727321513536
57.33726483340023 38.79935647599293 33.26053866129218
54.73844984530923 38.46950906499117 33.58630679856523
53.236397049156565 40.59553420439525 34.76819137621003
62.17560608161093 57.00550986942836 21.065507445959394
60.382329202710544 58.09047350152646 20.51994499339794
58.96910776657546 59.52563368274204 21.92435632294637
59.29409987409628 60.953974236374485 23.925153756688104
51.22240636836002 36.08513403005732 41.32618511707015
51.13853483506947 37.251084857515586 39.49339318931007
48.46944633885441 39.12707450166781 39.50351989322922
47.39068408670585 39.244049078873346 41.205709516825124
50.82121650672058 34.66726280494273 38.4633784220511
50.81394837433191 34.83104584171552 36.34157689781476
52.264792800082255 36.973850447904056 35.49449616139882
54.322354343445376 37.69750210336063 37.10303413512056
56.79471753780831 54.85667012534435 23.41268612048963
58.39522421608534 55.20293241231631 22.051225996287766
60.94333105988616 55.89770202422456 23.170569470367834
61.824861024153705 56.00112744080876 25.276800152994053
30.040206428822508 65.41428411439352 40.69576125029134
32.21174118816517 66.5287224464349 41.17069028604537
34.624127311907685 64.62231370852992 40.74575616332225
34.27091124936902 62.3121446098422 40.49633393033586
17.156834485304433 45.47764045099609 3.0528802046917822
17.198241057785022 44.236781020847246 1.4521856900673333
18.79527797422899 42.066788405762765 1.0560542644975852
21.075147883031384 41.54761941974068 1.704199908224428
33.937330522672546 38.35404567669456 78.35891044102014
34.2084607110095 41.149622489055325 78.64086610203086
52.017166161327566 61.07956267131059 4.987976462124185
53.43470275444869 60.572996841546555 3.614393139132468
53.49021407586238 60.234491711832376 0.9802768317300711
57.614400302787764 50.165455295307105 65.42987976550049
56.52461785392672 49.572342808074694 67.14315773288752
57.419946494382344 47.14994169318838 67.94418227278163
59.69302576820793 46.12957286297966 67.40480532206111
24.66186415201218 45.61092744704447 3.8051248328012077
23.899646044699942 43.985468570629536 2.6634633809951365
24.02471659237798 41.24323089078584 3.019606402034979
24.910137829167013 39.966679115750665 4.28165392988485
42.77838852905903 65.3175508793145 65.4619456563217
42.99694140063548 64.56322421040764 67.40320726944948
44.10122333499978 62.37245539548543 68.08967634947031
44.6725096251786 60.40926254743646 65.9903572982599
26.615237828450816 41.25346086421127 1.1073976119929867
24.115946134329423 42.058682737093385 0.4663638211049089
34.28699888194352 43.35759056224403 30.435161262324712
32.520355232824066 43.90162009907057 29.56604740363353
31.577316528384344 43.31931574153484 27.130211397668347
32.31256319899042 41.980831858980764 25.263966770531404
44.3854547305294 59.38972584602295 71.64894134458814
43.41352974881414 60.6255558746013 70.07598088116521
40.9803241596537 60.36864170969876 68.75609547142196
39.09617693579391 59.074484310607126 69.47675543703045
31.26963136106028 56.53546918237712 5.552729733256239
30.61201425446628 58.836881525671394 5.434925171805216
30.657676431684074 59.81961812117537 8.058306758727594
30.498488955258082 59.20920637417988 10.03677246666581
45.65374409231776 35.6142531408223 8.997146253957713
45.91990377212758 36.934743292855615 10.94505826608059
47.860109549783864 38.35384187022198 11.343762594849439
49.85250847571818 38.146708543658406 11.016709270475205
51.280440042676716 67.19632365009689 2.6146707868658834
52.0590768147035 65.11769953946134 2.44178490807535
51.49448962905063 63.485100416547525 4.11059455061637
50.730422518775825 63.49151819943262 6.41415607103855
49.9022679418503 66.08995498170907 0.5679843024115289
42.69210716353624 41.867454034759334 6.77063042082214
41.506575347290045 41.473106650878606 8.741395185131925
42.05172717564161 39.400750984100256 10.220839804209247
43.22918963387745 37.29391050697502 9.812409520312364
57.81208090529737 62.30105635223773 0.703655126189445
55.68401903215539 62.53969016352981 0.48778817951539044
53.985864441985434 62.98866119138893 2.4558558715107104
54.91899817289813 63.589296359250305 4.96346293502425
48.68645590081265 44.86323037720516 15.107732427979965
48.45675617145505 45.935795339212355 13.04705982466308
46.44661299375845 45.64378857025771 11.910076038709805
43.92653075424147 45.64597524206836 13.157790733057412
45.843874059483674 43.07075604132345 15.36382613406411
43.46605329762882 43.31813178010609 14.17344862178581
43.548644878676996 41.53999315822219 12.377551307385321
44.6155036285132 39.68020795669318 11.956876867140235
57.17925121469331 77.29059600399181 9.271029644370351
55.6095144799958 77.47768021515873 7.127720374375363
55.562237105942394 75.98810739161665 5.255917134408387
30.55664655368536 65.43310387405465 8.838047847360711
30.615595521354496 63.716834827515015 9.992076659571564
32.304214968394035 61.764008302649685 9.527875268951234
33.74313429667059 61.42783721705685 7.759817257351407
31.894357103965845 27.00999421805205 71.10145995504433
31.779595288777386 26.95912415663875 68.72711096308575
34.08329379652393 27.924468580843087 67.23071201059075
36.1483627932988 28.57082650976073 68.24681088735038
51.804986363956374 78.01384522980948 44.95798273535484
51.4878744272151 78.38691268818425 47.67718461320119
48.950209969422204 77.49152686102576 48.28466673095958
47.22382434718438 76.32401993638736 46.57199016377689
38.683247973397606 42.86981023952282 53.45384445858395
38.26974974384485 43.2384343860293 55.42198783916577
39.44471906014431 44.68083458349784 57.42301251502562
41.49528439873007 45.30003917064116 57.43860232590871
37.37204644945784 63.63386649823672 41.96541241427954
38.999322342964234 63.70562743796279 40.33366139239759
38.728478058245514 62.11975686574603 38.12444022279454
37.176573721628074 60.20337160157459 37.779759013658214
36.29533558324191 48.787404820931755 61.11614362517922
37.37285903313834 49.18075827193089 58.88985024955982
35.72097965131679 48.38689354862382 56.860026767437
33.56697329305001 47.88199937717713 56.81716765079749
42.890400377152154 34.72228789438511 43.86157109212825
43.60109919411669 36.99944833936385 45.4705926885428
44.98991963972292 38.156414014577635 43.46748516540839
44.97001866325566 37.427901673719276 41.087647252084004
36.979801901833206 43.20898899164094 62.28489291848597
35.71723466064383 44.78969396250661 61.13434847351485
37.177128618469354 46.223496954118055 59.05778019070661
39.44516140000359 46.70418730041415 58.87822096951589
47.474146164382745 41.980221942806 34.97111332668241
48.43829461379517 39.72413486367338 34.071496717844845
50.24299522691522 38.599352990008406 35.76268080656116
50.88312557689023 39.44835701573293 37.993203406274944
61.997806718527116 54.56448420460517 44.00671979841734
61.592620821429875 56.97279901019085 45.37452492193614
63.21661178320622 58.50838225378843 46.31000789274706
65.3429819205258 59.650255252255626 44.86949230918838
30.240866852628542 44.29931188318119 60.04593543259525
32.74259474259874 43.968859563291936 60.47574934493271
33.709606099538455 46.8407300033735 61.263941638483374
32.25217139113598 48.46182378016992 62.02351212727024
36.657536498014146 43.22483203548388 76.59769313677972
33.818728012951745 63.9428111806835 34.11308913503955
35.554308743191 63.78082506441041 35.70028540307924
37.9340351207762 64.50516632822675 35.6788660231443
39.287212343426745 65.91645880841872 34.371506828839486
56.44030241713635 65.35565087991907 45.889196238720494
58.148379579845916 63.87362059284668 45.84015620273965
60.41099221002573 63.79605572654609 44.429662211645876
60.722238323088064 64.81726855403417 46.585693679106775
57.94630048798974 60.00081794057571 49.91659608218504
57.008822743179834 60.761061296297726 47.964470444042696
58.216042701537496 60.19323281638663 45.867317666265016
60.80022807721674 59.796146577678776 45.398713530330014
63.1147215406143 55.23556778201999 50.898836075852756
62.67778648504386 56.260887319992875 49.15382482237505
60.0653003972938 57.30621256712527 48.27643554614578
58.215864883113156 56.22375840658624 49.39651849506839
51.446305471342086 39.16026449644655 70.00125626089421
52.470116268934916 40.60482734779656 69.0637338848846
55.00304718962289 40.850265500358624 68.82526179757764
56.70411583872948 39.66269187775727 70.32180002240717
14.850112382401235 16.1305381879568 46.788051137889596
13.244703890734822 17.390627430701315 47.82034952150949
12.045868790824244 16.470651086963397 49.71163250783685
12.384691212400853 15.338385579765262 51.792759699395276
75.14519558628294 39.600868031221864 53.24607339407002
74.58176788090617 38.91345827129744 51.13484359736412
73.30379948202686 36.81596067594783 50.67826040431441
72.95803354827025 34.85241015089914 51.762359056016656
57.06189167033746 26.915752753831782 73.24944404764614
63.47999711591832 65.90138536906896 45.61501653205247
62.93211323641384 63.21654891134755 46.60501408344064
62.9735615437699 61.680696003500415 44.19008737864768
63.36964420367697 62.836926100579014 41.74735523276137
52.49088777008781 66.54834625570112 69.88382629656617
51.09391042975118 65.32312206233779 69.2560369073871
48.664100757963716 65.91061018025209 70.50209259966128
48.22052968410798 65.5980586391223 72.82550962437388
9.730139357787941 40.30378694299282 38.19748778728836
10.87058672821072 40.1963195810872 35.718550206733276
11.727762453748106 37.462172014496055 35.24055264317895
11.778672946995227 35.73506226551058 37.10644524507271
8.565226399702073 83.9740203573146 29.224727116077908
10.947642831276221 83.3599800390945 29.69763319987471
11.205746236646815 80.64788720429733 29.505885907227615
9.718228686891107 79.18090006338444 28.154122629738
52.21829873363778 79.39942829044108 9.499575251031944
52.86109179648406 80.61985135819162 7.570451749301133
14.571276871235037 41.092732603006134 15.528708238449427
12.548891751096598 42.40963655776044 15.640080540137745
12.6856078950969 44.980452862386976 16.407700218590737
14.920364996496502 45.983549783159894 17.55060466450665
4.162016507634288 30.113243823975726 32.06659565979892
4.531521496400869 30.39441159098439 34.194423264370464
3.152106211244917 32.59849871442833 35.514920957058685
1.4746629287059883 33.60740700354258 34.99306396833975
32.50044002432148 27.43242500842508 14.507216392820318
30.725216303183906 27.870281092078763 15.262805002068136
28.597959282970436 26.162763087087875 15.75352486719656
28.55100041338034 23.76522598789276 15.443224315050385
13.046507956226046 31.528606586340555 33.24054947972989
11.20930300717726 30.068073932248254 33.94716030119003
9.481077324848808 30.699309391800337 35.91500928896864
9.448059853635659 32.90235466259434 37.359474759678555
0.2735972322783454 49.752121072974056 21.066444035136943
2.713442578659188 49.50636744614568 19.95883001683057
3.4162004849518315 50.72756040411875 17.804587304448642
44.74838127631881 34.50856359805268 45.84836890364328
46.04377306362637 36.001774492998614 45.6035523871892
47.469961583688715 36.752975024670846 43.63272810388828
48.971259398308455 35.349124143031794 42.031684384922094
11.106639334926147 30.356367736199847 24.858797153085213
11.652634305840722 31.13143415225355 27.04981879921217
9.483278854658806 31.112709909180143 28.72945436904898
7.523284992759094 29.73262151068002 28.681450817721707
10.715507046186069 36.27596798738531 64.32749754063138
12.572341905317964 35.47392951852129 64.12451459232014
12.994216382266973 32.90199817361991 63.32111830875797
12.617362014880346 32.817370571570635 60.86508657235083
6.922639977150503 53.61175614575199 19.78485926999851
5.65929371854369 51.72465628351707 19.110228308488065
7.080263955048056 49.88439901736832 18.41736864735573
9.470138769667503 50.0404536606522 17.657713136008727
16.251327420545973 52.52773594637945 15.931970997687193
13.296810872621865 52.09274027691451 15.491353795982652
12.61043480364082 51.1088789507873 17.991188666650498
13.55859909097585 50.55368294167523 19.646818184957045
27.722436513963665 29.511560467911675 43.154826599590436
27.85244312547147 29.006055412256785 40.94910350397801
28.704759207050145 26.67486184886346 40.72955057795496
30.45430170487909 25.682408316252054 41.61089688528875
36.64569642335755 44.97892120259796 31.132611537934565
34.118973515970744 45.55932230993268 31.58957382723153
32.73886862937421 46.786364704018105 29.612970864030835
33.30436624216579 47.502203470374226 27.791645276957347
27.847716910525634 50.202250030285924 32.25642596142929
26.51017618902211 48.75177628055757 31.239641401768196
25.113586783269643 49.2306042939351 29.179096262129033
24.554800552659252 51.645878688932726 28.36646908983493
28.18325319260686 16.08238167887572 44.0705301273
29.68243244073028 17.61515701091497 44.44031824624593
30.060829735493133 19.993473324883727 43.47979202312322
29.748652716780093 21.14639454057297 41.79526717151919
23.133459420196115 47.97709983841833 24.944738749111288
23.99997478479089 48.52616575357249 26.687024658319558
26.794533588666738 48.632970252227494 26.898864152457442
28.19892583003351 49.798024971676895 25.520619458361697
31.728810478523677 25.168604045369012 44.076385129842706
29.72762544302185 24.900688583527693 44.20918134987818
28.991551043768247 22.613905810778874 44.67767043662333
29.319645049519778 21.155591800241936 46.38991859279385
24.904794820712404 28.31757136947279 16.673448896265665
26.28159571729118 28.137848035038754 14.385151093897491
26.415991150086345 25.598227883351402 13.956633162817235
24.971295802740368 24.225001632449615 13.377737152880531
32.65583625610298 47.82303577390917 33.11310445485785
31.487248935164995 48.53431316666676 31.432053423350208
29.03707875995798 48.06651992448851 30.486400175288907
27.629857419966697 45.9881933651137 30.476482459366174
7.932955763465581 52.664574663361456 49.40208601809425
8.58711010204387 51.01892900540759 50.88015523182713
10.19252206093714 48.721010698215096 50.38735720902959
10.590044380695488 47.901140831496726 48.56200462785
15.910992741046329 61.62864552744188 5.9029674831579815
13.897104536069044 62.25500076765293 7.08744032729315
11.874483960148964 62.65783768887743 5.018558978305305
12.363435862932011 62.027827303850884 2.6311560726407754
5.925072228883388 32.42152973407498 5.882189445941456
5.136794246924159 31.43245522944353 7.915719408585285
2.737889944768761 32.579935109011394 8.660281088052514
1.6630961668103 34.420209791455235 7.615186221138113
22.805886255260898 48.091530369493675 76.99061371798982
22.156795417621378 50.04577018919837 76.64619527563671
19.976598544911802 50.3458259528508 75.31471937686415
18.69322629532742 49.201932368366286 73.81793185506805
2.6112472959772495 24.287071115832067 4.565917475124668
3.4683029334278817 25.503342297749658 5.887327654364078
2.349898332403371 26.452988683811594 8.40998876760415
0.2990232443370176 25.854062696451713 9.287192916861924
35.20729142008027 21.443588723202836 70.82985038523627
36.91904567602543 21.12225671702725 69.07871289292797
36.386126580374835 22.24717811829756 67.31673504945765
36.59175728089503 24.215882488676208 66.59524173778064
22.032946657535053 51.55367073990441 80.86193721880625
22.94252417585565 49.77815702194872 79.2820367026138
20.62912600967777 48.111512372034724 78.31504815087624
18.3574670307977 49.24897072410642 79.23601147677768
1.2479040771580177 30.861347360032592 3.1978678164661933
3.0990107343172926 29.963174681337332 4.370666958289046
2.9372931033328817 30.087366635240112 7.146604493303619
1.0905907718492138 30.406052333974117 8.501515008983858
8.300422166015554 38.27319656394557 35.74224347364609
9.294538548443304 37.25624056614136 34.11719750968526
9.079318562405758 35.033028470991546 35.58558167662644
7.130296919390947 33.97286632170647 36.271115868291425
19.071582400787367 46.818003036674256 76.4462810259813
17.260710414074424 47.27144767156768 75.04686334383189
15.813490918833155 48.919277778900025 75.74142094170568
14.66129243942476 49.363743922858646 77.99625328954725
55.81748958955561 57.29452595764192 31.05465831367803
57.3484434890225 57.913696000541215 29.21150983535771
57.19996368402077 57.31120648491176 26.634602018618423
55.591151296731354 55.8503886074886 25.51505168187025
18.460557675403034 35.905001546236676 4.083496179394946
18.18014529161558 38.06931588691455 2.321113541010538
20.312379703165643 38.752543751714136 1.9514901823186526
22.405060384676155 39.02134916956501 3.4056414619195845
29.99778444195541 27.948193213508493 22.814965989750156
30.794214948197215 27.75446105395387 21.083936708101316
30.288910513274605 25.954212906198936 19.411148474892574
29.945663484606555 23.232566744288047 20.09316596231973
15.010056865006346 45.06084484847983 1.4245524964674583
14.330786856586213 43.369188181854675 0.09025943393953775
16.499953085808485 39.91158793490084 1.0895234964425304
26.822387753721056 26.93120883207926 37.14697539403006
28.876865335507578 26.344530564661547 37.819254040718256
29.47807298235843 24.122762796887105 39.3733034976777
27.985843039225706 22.49722877908782 39.9341024541232
27.50989669238833 24.995209328490006 21.464768999735107
27.247845474325118 24.054028262242575 19.382165221882737
25.950695564452715 25.54434042295318 18.20387014287284
23.708619232535657 26.32902462351753 18.274597202904655
26.53482557283069 37.61616087751601 0.6072494396186043
25.268505645817804 39.0778226854205 1.807565691759264
22.808803784200535 39.40221553917342 0.5799051144348377
9.61979893386676 46.281386617070275 12.662259381022928
11.621455625501214 45.72416607043436 14.021020067173044
12.156618525831062 47.842441797044366 15.724962742042145
11.171120974547144 50.26934760000685 15.311210770265731
18.456696293392447 35.81684230521136 67.37655284766322
17.18610605963761 33.974692024749054 67.70396367891705
14.285685975799183 33.96599547285534 67.71049742595596
12.83370558924676 35.14208751975671 66.64345389364247
19.687578272586627 35.19465020937151 62.93242889332562
18.37028981272586 35.34350795724817 64.4604294751711
16.79425423621043 33.33916738138285 64.90882658543829
17.05163944234721 31.15262721007606 65.39156303590427
7.812897407114093 70.40557480616954 32.738999000568995
8.243569054183675 72.05203353330218 31.435501790916206
10.312332378695377 73.40310196849939 30.49046198680621
12.494886052949147 72.34452705525122 30.66142198249669
9.620710500865309 29.61269028713789 67.55620010504275
9.950517574527035 31.258507642046965 66.31280206667331
12.334054655360008 32.45262615085093 65.80356519980273
14.62472849597664 31.46468936635999 66.55564644880648
24.808997986052198 31.811870671441277 42.04049978664791
25.231619714252286 29.813370698288992 42.003620094559736
25.205175922095926 27.81857694026395 40.27807749380049
24.29934999654233 27.165042860235253 38.45440259772315
32.92320072966943 22.553652512398067 72.41922773859211
32.34454007378521 22.218251091851617 70.50850789674116
30.85471218547187 23.307738387685088 68.85399103069146
29.74003718642754 25.123887537931548 69.09321042073122
17.334315071285683 46.3618630874247 44.1978730569043
16.675907797802694 48.35937516287106 45.05900967018683
16.0524012018081 50.56103355110521 43.35872741036432
16.825935524394346 51.24104176941901 41.496519848557206
37.821136742238984 57.01917575210156 54.70204111891536
35.47819704954576 56.026732816110595 53.23270492674527
35.58804506559628 53.29938100940025 53.91024298646151
37.1632157238206 52.15507364889616 54.68228163904232
14.693748071061782 28.896716559058618 69.62921262313446
15.498558339461974 31.34488864066534 69.46747889862333
17.211611621023135 32.41612768829462 69.74759851355611
20.062907169364706 31.740435701658246 69.62596760541791
5.503364143767893 13.391075451154986 11.426678109781815
6.068506612857153 11.517463095113213 12.785503697339086
4.378783716451889 11.72099456402389 15.051949408911387
2.425600789062408 12.906863573783191 15.400840132143118
14.576003360524497 46.12538435286781 50.96413831399931
12.578377222035655 47.145838012539365 50.11496282043583
12.71817561800086 49.93996920749368 50.68200754060729
13.58826258829026 51.314227192820255 51.97668526126513
35.42240837094207 38.442608188772596 58.36285058850095
33.6827012414203 39.27288992408679 58.4876700785101
33.38720592049243 41.38082084408399 59.99084481204954
33.95230881438345 41.912778240807576 61.89641363694725
36.26132381868772 19.346372596585972 66.72691353848371
34.31175711660778 19.420541583758418 65.47193031217118
32.47000146486267 20.245926947298518 66.70305686775475
32.01791790467799 19.775511957600795 69.6374121163694
32.34775129526524 43.31840156619232 54.75755665455761
33.80843300042717 44.828063888487726 54.665632514967406
35.824736085183154 45.16055633165428 56.72192513985519
36.16349682836447 43.55395612699991 58.24389781146292
39.986592547184515 51.55797476289133 58.71243392616813
38.370190443370824 50.98003821118231 56.86445044586246
38.059278338013726 49.05391376142824 55.30437026749489
39.45754338026408 47.95557263332568 53.76526676620328
27.762259421445815 22.34186691497622 65.1341226415619
29.20770383542712 22.795746364550887 66.68376613299877
30.005637897412175 20.823251826600078 68.12964995187575
28.694841345903686 18.92676076352463 68.97432089727918
34.46227524538028 51.76074071380643 50.79604456664454
36.58953459997583 52.89181497112093 51.490383987502604
38.5017393784935 50.45906957177089 52.11686562972593
37.44011443777944 48.23978814075325 51.33374075108639
43.59105615858257 21.11774479564339 64.6350552077583
43.348021860968295 22.600514054362122 66.0729263147503
40.878671742627205 23.56847358212388 66.11105564295022
38.82450025724302 22.43199406461875 65.7571026176176
29.068197589001052 20.3718827859665 63.9001759139131
30.295865037174508 18.87460022325195 64.9493026303143
32.778210112902805 17.98952363790988 63.858002586644965
33.38176179729058 19.642389932010328 61.74184348816651
33.61617832638012 41.84565263749683 50.4042057793161
33.825160626459045 42.71088204901934 52.510243796445216
35.94741018653435 43.993415565189736 53.33269200877171
37.660065705151084 44.90347746789092 51.83192269743571
20.601514687408642 54.81683504253383 72.2444486614913
19.45740488309228 54.928897079236144 73.84945001366191
17.96430872817991 53.29793947472513 75.15030037522435
16.951855011183394 51.19307549945989 74.4792271855853
58.767113112451455 56.92875401288037 18.104740316967945
58.121573664027196 58.57897874687942 19.20913371916653
56.223599058434026 58.38288673001293 21.36495086496813
55.23485545550044 56.48203539001731 21.834796541593786
59.06382870050755 61.18006663995742 19.437956480112366
59.163807724716435 62.12352257007227 21.200186918472614
57.071534383723396 62.196108265846185 22.664117866690013
54.83011787720439 62.348328567203374 22.038240155455487
51.86960539450564 84.1408728099312 7.985962480606115
51.409670649108875 82.78453434395314 6.334043438605617
53.16273440102901 82.18117872107476 5.092085156715237
69.54716916864821 48.1633801411678 7.253466766127837
70.99653326473873 48.04386837765124 8.906223133628394
70.68428101101317 49.69853786784438 10.947037536621806
69.03401600173521 50.06142248433232 12.351665912924036
68.45983172030854 38.47155471244806 25.751317289176967
67.4411235343786 36.657007413493126 25.380702061178837
68.0375660136891 34.1938416964207 26.08229248273039
69.09438838257094 33.449345730543094 27.8174320047158
1.795164799027288 34.21797526456505 38.31052938354283
3.1995419133990253 35.66208933082204 36.94660247076697
5.5362692476889785 35.899537368058 38.29946192262468
6.1627440527857384 35.20509176452725 40.3782615327408
50.85502482480893 80.37229934524659 3.0540270743497553
50.32086163695749 80.4852575090477 5.426679896707488
51.44274142195239 78.22337116792 6.968242728618241
52.72838436247183 76.52724309659625 5.9710127184725765
11.63020154749422 36.02761507987494 40.54001125823604
10.268463006765451 34.79006119438127 38.9088375501758
8.379089349506959 36.44892036088049 37.86777451111301
7.216098173144824 38.34022425428543 38.7651927082235
3.8172899378804654 15.239851123474843 15.42446534349828
2.0682483902175015 15.374124807337374 16.471121246834045
2.9173021806094677 15.169393778399893 18.89324625749945
5.241597089217771 16.18689636350806 19.696708109936097
56.137615148746626 37.84662636461416 63.54540843476469
57.412605107799656 39.731536623553886 64.66126715181247
57.26960163772659 39.50123620472888 67.48104817229104
56.45850507942266 37.637010589449844 68.58226386761334
14.86846201354006 31.89616010986178 31.358564582175962
12.828178614096736 31.911503789956367 29.898573186731685
11.219986695713452 29.786468465075043 30.423299150892404
11.704795643951899 27.6463436287723 31.468489365309484
77.07106047824307 48.440160777601946 31.456644807288196
77.57682206802403 50.76976315501312 30.908945318487422
76.45263181900127 52.9642958339998 32.153514873088895
74.91880556656932 53.61397585184368 33.26024156915188
1.8152182124145466 32.86791664638948 41.14376736856408
2.9654488640160848 31.889972706216177 39.22594956817715
1.3963802628960822 30.59162758809983 37.26310660216083
6.103261212319544 28.91544047427314 36.28775379631929
4.627321124995997 30.201406127388125 36.93374920969913
5.479438942066416 32.542064126859636 38.2478153053054
7.361727465516126 32.85683189591776 39.42823351714251
9.216894078386417 19.708658877279515 52.10901028375927
9.494884811099356 18.037690695752158 50.913256810826034
8.568214969402328 15.786987279069162 51.16169361679791
7.284127929663956 14.66567350331768 52.73841429187685
15.746292076591358 36.049765214209835 30.96411586149841
14.085547524020601 34.645141988588605 30.132395616345054
11.949338728960088 33.54432718292076 31.807819108934318
10.896339287570251 34.612710844200535 33.17412104633853
3.4825966628566465 18.078964562420595 53.26848036730221
5.881047914198377 18.357295501657724 53.35038512944494
6.66690511639111 20.33430599399691 51.67894539600178
6.674081889700327 22.392841291532378 52.00868756160205
11.986974308394215 15.789205164522933 46.27557588586511
10.172403412841305 14.853438382562967 46.970706363626945
8.23406143934928 16.53171435451275 48.18037709496125
7.946675678646167 18.657712368395735 47.82480125822932
18.250576023630586 56.946766878135385 49.06671557014369
16.492086356952424 56.16489071254804 48.77422185552717
15.360550693873257 54.42690759138265 49.985732590115845
14.625382244315167 54.14705523200057 52.39754327336463
65.77551536241228 67.36463612046661 57.54514302844099
65.18201357167514 66.58916475392071 59.602376075040475
66.39157242361578 67.93557964432955 61.810862944906226
67.69251942721678 70.0270419960304 61.400137581968956
58.29911101499018 59.84828986014221 0.1001271086189177
56.185931989860734 59.35441431685389 0.34716113083659395
15.356365685982711 15.378858188761978 79.14158960929349
16.01971821761111 14.13102766373252 76.98330024479985
14.214867506758512 14.751234302560025 75.11178346863628
13.3404299006073 16.459569127068107 74.41072226020809
48.40463218451301 65.25631697341103 2.538884636552335
48.63463427548382 63.29674889984056 3.892169534377345
48.626257637985766 60.95908573539396 2.368467332150206
65.37400970505573 68.90462303775762 64.11706094985325
66.44928025932153 70.59992035356132 65.68379706906366
67.67927370837609 72.73274786667758 64.68431971337618
66.86830298512574 74.46526912914992 63.583449351937396
5.572256114870104 28.416807508250553 2.6249688789893484
4.488250369405165 27.54284568519024 4.333797033030658
4.811427093710681 28.15823402894779 6.691259200412451
6.455487294998684 29.12456634915116 7.929941617016496
55.14327950980492 58.29918259432611 4.749253897175086
55.83127044318702 59.4636016909171 3.0059539094884538
58.09988223981586 60.87185088710301 2.8735777152155517
60.275778546094045 60.50090652237228 3.4806544930234797
54.080423962315635 64.50955316649646 23.59219001613259
53.336096999667525 64.17423178282482 25.82719964304484
53.85211889375147 61.72104602265826 26.57674370404388
56.046269170936576 60.21300326476739 26.164368515376836
70.94313122802352 72.01766025474483 65.68900283043662
70.53820435037446 73.48749339277745 64.65760500226536
69.4173274445084 73.29495277630072 62.06237595920583
69.67620020360361 71.62740528446174 60.62822053224612
6.328769634253281 30.51863456989201 1.2944405970640336
6.026397577436639 31.140217508845616 3.317948407641591
4.019444055629559 32.49089885296694 4.012343826440111
2.772835489963754 34.17491561968517 3.211742448172416
68.99789076050496 53.57524545202956 9.54321176339501
4.767586772355323 22.995507418881346 11.318875222218507
4.113651302664569 25.264705134077424 10.30828928066675
5.62463114812936 25.874636669278022 8.423600489578726
8.116153611104592 24.927291253909296 8.036064715184104
8.439325185920026 27.603917201183037 30.419320080356457
6.874848317401469 28.587851546846125 31.359157909113875
7.376647737943242 29.328232887841505 33.92134398098596
8.731455905306664 28.29150865272198 35.43087169563644
70.47440185036493 46.130072296315454 14.417664322775735
70.12115836459353 45.19135276327994 12.202149471816462
72.16655550320036 45.860865262040576 10.61729136920981
74.50277261039868 46.32470257501896 11.290295936350347
2.3631058730541845 9.763918153419414 15.390786247789688
2.69623078023216 9.183604219233054 17.575042510702804
1.4213167466542977 8.414383249778462 19.532740397547606
70.6132451972267 49.963998362815744 2.19570475680011
0.9515040330163425 35.241121434378506 5.309975213631171
0.3099684953973913 32.717267027478584 5.035353281872147
52.71233401289309 63.11089873230287 29.0790965422544
54.89444540511623 62.356959434561205 28.891805084348846
55.397087337155014 59.89015030433578 28.938572460600184
53.675824146341625 58.03336541947434 29.423121671012403
56.6870133687899 57.852932312913495 51.8093828019664
55.195452529533924 56.95885312065399 50.126781391216376
55.4763728946343 58.59005656682937 49.126157402355496
53.730948826407285 59.60730996181601 47.84018284827526
0.6781509259909049 59.187279728121496 61.68534919230701
66.43837583040143 58.63434049962068 47.67834189098492
64.53492484932107 58.01870073073468 48.519698554161046
62.56557780059504 59.785001014295084 48.942784546228204
63.242423771961555 62.53285774277595 49.39837403142577
54.009602111662645 56.27219482562244 47.760095579162986
55.471603528787476 58.173759922616796 46.11739976840266
57.75363157732521 57.62619001576657 45.649580024465
58.972376627679715 55.15708567177547 46.68696516787882
10.562031791954796 24.396668536915175 49.33690894347892
9.020621625480338 23.141265763814832 49.78437479173976
9.586938738236924 20.314570534626373 49.39072344007836
11.887334041245127 19.517833961705172 48.69835040812013
59.75009581385312 57.033084605061 43.00349209856643
60.79042184357321 59.015430885209504 42.78271393958092
59.792845437385914 61.51209667896741 42.87998555622593
57.611423655234766 62.27906396928003 42.767415779199524
63.84799440783242 73.85081405443077 38.29434225043017
64.58884854984024 75.09982808525409 36.891560697200376
63.71902699088593 75.9122319532637 34.22158091066459
62.156894311879775 74.85115974813411 32.97766371265627
8.466175595554368 36.13402269569466 66.31069134991306
10.033486249928446 34.85311059206774 66.94669571601267
10.065563669192214 33.07118652277554 68.55782148579159
8.728906423385833 33.14023082048252 71.09526371320295
53.711481928716765 62.597322406636444 47.89211223929917
55.52392855012238 62.99231829196111 46.67550895767673
56.24888821901307 61.597801990203784 44.79349455858346
54.88942898129835 59.72177933628863 43.60292285680185
61.1095933483127 79.06766947476659 37.30930635864911
60.94742459842124 79.32306067561571 34.994429673113316
60.559075983915996 76.62140689433994 34.01849754358536
59.528659884869896 74.94662374747934 35.22846927803278
32.721888942186894 40.442075501469816 53.56695743728907
32.88830744138141 41.00733380716259 55.66689483951587
35.303816084609295 41.06129873642765 56.95940711364822
37.4031853414262 40.656936783847506 55.928977569840484
81.981504150937 52.89012099131949 61.98560023850278
80.2782663033424 54.826403096208175 61.032115145081065
10.112433585199865 15.341133873453243 77.88135086019493
12.66932010653305 14.658159961393329 78.48200392324696
16.26018797489859 32.11301498291301 72.5199162999845
14.256933065825363 31.168413140837004 71.91182726845204
12.21967114063582 32.476814714476625 70.6582518624801
12.506586675658223 35.21785732419589 69.87200114385946
64.31460588724421 77.12674890541788 59.4077540739097
65.55255519953771 77.24724620839955 60.867109918073076
64.96541257490078 77.13756178453055 63.78457284976762
63.61861013307105 78.459863161907 64.6184953405173
13.609896038778546 12.324759269120142 83.64658331550612
13.57873550152109 12.427306101549561 81.60197528406601
15.743437279056165 12.034762163744228 79.81557319530299
18.00836744522841 11.643258023921033 80.45380923501172
14.901898348324265 37.91204126212163 62.97468104212697
15.362352316825739 35.902052464387204 63.66711059342771
15.313371296590995 33.85248800947281 62.41835898622101
15.438627941757467 33.39859714923561 59.86521190287221
11.383365727216034 12.512673223898537 69.11995370488263
12.46683178447003 10.258047859742938 69.12848064609393
83.05477072391933 50.32357187614409 53.60272792038115
81.0729457787916 50.52812461293483 54.63096640882672
78.72416256764546 51.02532165204688 60.979322127154155
80.10833529170121 52.142155008475974 59.788842871765766
81.28513627835783 50.54385245550672 57.69473947780927
80.37703124264827 48.597729272994336 56.86296104651892
13.809101734858508 28.245701760347934 59.659223157285965
13.153079086117742 30.06746531049869 61.11390959576272
14.979117868785945 30.14631735737014 63.284938769958316
16.55140550237008 29.023040774306075 63.68289721139943
64.7348342850708 70.09313821999567 58.52311976555618
65.79673672125912 71.7328524167749 59.69871759354788
63.93876526710563 73.13764561150242 60.90303939829293
61.52855615709709 73.31883710754792 60.44524662008857
59.73927540174026 59.07139520753449 26.959397096339913
59.26617601837137 61.26225175883862 26.915749187151622
57.89639256200688 62.40611189408765 29.145053418720654
57.339075135997845 60.85680146183652 31.020383758606933
24.04465018408165 83.7764745863743 16.164238725874046
38.26046777111578 41.8289161390359 8.777239949798455
39.310413010689935 40.638070345346144 10.478819344233399
40.36080565818107 42.09300976403072 12.772732737214914
40.38620439689756 44.452586784000076 13.058991401664944
5.967447475094195 13.647775329979089 18.980029414578127
4.2424070796072 12.904799675558836 17.726550095213028
2.2246761857171165 11.65251278940751 19.402305113704102
2.6387473657289195 10.323093513010708 21.355754365324163
31.750637289359457 32.8511139392963 36.415391523536286
32.19900814581218 30.872042621970575 37.15661364690489
30.299662288141047 29.692635347232677 38.74422294009508
28.115957184574135 29.16645179188316 38.23646118112592
42.807347999528304 45.803812401788335 5.625834031805292
43.98873751686452 44.07651310157438 6.817128132821563
42.99800010974417 43.71704788590938 9.324281758071733
42.398074254299694 45.20677452438138 10.762323062276096
26.736924748188446 83.0215504593252 45.247723828398144
5.094398349959061 12.98796291710504 22.42746193848608
2.8626771130568693 12.537755050276353 22.88080316523312
1.3958772860977637 11.90397308377153 24.970577516840958
2.0218884467711553 13.331904009989021 27.285065082811535
60.5906674834179 31.982258754502222 15.288676403252536
58.56587084935017 30.55586685712745 16.490670074439333
49.908919761753936 84.64239022338276 49.78770198017214
48.47870373195482 83.08641514542055 49.57047834595798
49.33330216830426 80.863921488315 48.53162294551088
50.385136237203646 80.25976370409212 46.23554924856651
30.00393294281513 82.8019808321799 40.11892089476778
64.46529917898899 32.92289679624857 18.533490250000845
52.7759960458907 40.7359552994882 31.71578378211053
51.65505316350119 39.20901161646701 30.492586774310766
52.44908846799844 36.8347519529721 30.103465017224792
54.81474063473823 35.61571510449603 30.60069678922758
45.51689310828305 40.18632407168301 6.537057506186977
46.52998085131703 39.4269463200086 8.481742629425101
46.46784090090451 41.03027703157834 10.408137227583017
45.69066386570965 43.438707120925706 10.64516887377518
51.71675518422995 37.46748120873236 67.4488402098658
53.72284733511534 38.63673517773615 67.11652030623527
53.7968364638505 41.13503191318432 65.95924823665202
52.152677380810836 42.04989405665194 64.47453991933433
31.373201250837703 21.015429093337133 0.2245965747459527
33.66931405839732 19.950810584514972 1.0257531313941461
35.536279548575045 22.014186759824057 1.247877751738521
35.184752377427216 24.344066542735952 1.6376890656166045
37.30989978292419 21.367059401959835 3.2782582685618484
62.94427724321044 48.95963335383213 61.204606055237065
61.494591013160324 49.55230570661447 62.62245851707101
59.83140315638852 48.42298939338549 63.903742768668636
60.151827509121254 45.975666650248364 64.85552159659048
44.252337295945914 22.137623611476876 28.7769125350392
44.32693827536098 20.487550147096474 27.354794645161803
57.54575992821533 42.03080710470458 69.51599577870927
56.68702866228667 43.22714323907036 68.25028233554475
56.75738663903263 43.33673663721959 65.43652058477518
58.533504487491804 42.280117164426166 64.18540864785653
34.766618767580496 57.913737193794105 36.982388188586214
34.347690206801396 59.799349424901244 38.29560127830571
33.986749126543515 62.03347202069379 37.60948287880618
31.967540916093366 62.9099861746504 35.83201491754991
68.92125169931607 50.60519592974579 5.59639294829616
70.07746819364436 52.28728838788802 6.785229247357822
0.047244634605187685 12.811882172785296 20.542330749474836
45.55671994773362 35.26483374898015 15.578569207020196
46.13055956199881 37.62069241731446 15.579056563098373
48.370520503503506 38.018277217987404 13.863618622121438
50.356114807922246 36.707187455839836 13.74085822600673
11.634810034305584 81.22932556515046 56.88018820286204
11.368002556119572 82.85095427384725 58.239392007879545
62.86031585836339 76.726572147664 29.50432742555388
8.0886194490894 84.43278969277458 61.1958486377292
12.386586345107323 84.52101849140013 60.752470286431226
13.413917201518341 82.76272915220244 61.66007929883013
68.38494820218779 38.27732565310825 22.568408645656458
67.70777320910635 36.771986205236345 20.95493861434225
65.62659509212396 35.484469636881585 21.421692379597904
63.738892042858296 36.02421940553727 23.045542752983383
52.85889948670679 22.25176439434802 51.51329190031887
63.137551722507446 35.160445491261285 19.27999832016962
61.85102324294636 34.485913209022435 21.491333231813137
61.27710382758502 31.788765057818942 21.493178299291383
60.60873126288722 30.393618031964944 19.312316515389156
66.7908821930183 37.04020855127983 61.42939604902449
65.81787739288897 38.1831029295853 59.22984959178581
67.14588078753874 37.53773448221086 56.976870922819465
69.09922164858034 35.602453351940596 56.620260431665606
46.82997029591835 19.220135968388828 45.864642773953996
46.87349127538522 19.373132312998834 51.5300607578118
45.08311460493466 43.16781075863346 34.16955230368948
43.63827830492561 41.91652141900662 35.96263364857979
44.82203166727442 39.670487298428526 36.0555909787185
46.050183463314326 38.51482059002195 34.16634949341262
68.79570658750582 35.98574642612686 45.50462495044044
70.91844508499844 37.05731720709135 45.76640930535434
71.31400555663691 37.88226923828556 48.32117486273485
69.86188809440604 38.983598614150274 49.73664230676769
72.72915613824354 42.82952997933383 47.01110060825581
71.9851050505731 40.40105504442005 46.962216919361765
73.03093827991353 38.74225240444092 45.081173152160666
73.84210171638212 38.998296604610196 42.92837065707487
69.43826513542383 32.049441364979444 44.67932783353645
71.43456606184391 32.38285822637309 44.3745305957294
72.99742241322805 34.153754460843786 43.873502607044955
73.13678380489891 36.10701434545446 42.86836742180067
5.223156213113068 13.492822900992342 48.30787323253593
7.472683115876674 13.893010702641549 48.039001441846
9.258342721668027 12.195200727111846 47.11946969572065
8.831782706850944 9.888862764331126 46.06288635025117
67.48370523826675 31.708414982795816 53.370303160585614
68.51368194267931 33.31965581244902 52.24609837747629
70.5551509179929 34.953289260346 53.190530396501764
