45.057405309817526 31.917815448714034 74.86489375587246
45.41749090882408 32.685987027493 76.94733732969596
35.845498364109915 1.8129203974870047 8.647990001356629
35.625083391820866 2.2174940870825286 11.192141171386448
39.04460182608221 0.5002494050415073 20.42274220913201
36.51457212600249 0.48020303084326327 18.86252201411578
41.550958410888896 3.1623311147755944 11.571216151857843
40.50136333182635 1.1810537495488294 11.474815050417831
38.49202464664257 0.7566063930648282 13.56326506459923
37.50597671856387 2.5134517261427263 14.940360146412159
15.875104996790789 8.146495051610492 6.224027129642131
17.198962494311164 6.126241184753239 6.837132912819939
76.32273556823591 12.424556154553684 50.873070360173
78.12624414557176 12.518347468655474 49.349880719999945
77.91167002652672 10.301320022502008 47.321000540016584
76.07285888707624 8.698757492628452 47.29503156661665
83.49391397201951 7.096677786747981 49.729983832987315
82.71821742442789 8.198884263551696 48.22964127987785
64.1599843669867 1.1735351783873071 46.06881525955592
62.87722133390945 0.2784992322512588 50.16400285577892
61.52251250166568 2.1708159864408767 50.77923264518657
59.310629939280076 31.521236265178377 68.96980299658942
39.49428272452142 9.735338424144057 84.50885242984849
18.06190777335477 3.9042781624321887 32.6320659855274
16.200252615033577 3.452226185451186 33.27268139928114
14.272290016081612 4.687946741742286 34.03477667743952
13.933268678138564 6.473684834147093 35.81041650667861
72.60992964113389 6.645689370177344 64.72445127641991
74.46604222039913 6.5746005577413875 65.83710307271735
50.97581706931846 13.984234649078996 14.696382336563207
51.88799631075232 16.304612270713218 14.7591384878372
54.33223179666225 16.274326647886447 13.398998568707693
55.3461274058314 14.584009240952174 12.332298102844423
67.31339477012091 3.2014822976353328 49.84863121094459
66.71223206294434 1.6528700385013717 48.232047887720206
46.159000610190176 0.7100195143174945 61.955986936405296
46.13909030912313 0.41036885566277226 64.0042760110147
81.75435042078212 35.098060273858145 41.611514574562094
83.68191176999814 34.59576429504801 42.646908330007605
84.82440047384007 32.20168611240475 42.56129062696988
84.26751468608792 30.32068869680995 40.89518330349923
44.32995334891857 12.678041818097256 35.51360082229259
42.33225673894613 11.41709725401627 36.763832527716346
42.55983239240824 12.869631319413426 39.16233224626948
43.508222659411494 14.915482724450992 39.49494868595881
43.72600340848591 8.56861427046241 84.3072529534136
67.24525201629002 3.2105983052199822 28.951273219168417
69.335297240057 2.4201247265606916 28.239506260952304
70.96982315123849 1.934484822402749 30.61482278386547
70.04499493327486 1.764287579478038 32.87631523465836
82.51973948423665 37.484590024314635 40.275622921101984
84.28665066345194 37.39126380061458 39.23988633923996
9.733802674957037 2.125871346431768 54.68743974068696
10.630540708052488 3.122409394302236 56.280514881754826
10.650758102848691 5.391454144791352 52.03602612112754
11.426258401405045 4.249768649095579 53.70364806770254
12.25879886237434 1.3636697719626523 53.24275581893466
12.418344321493079 0.28053813834409225 51.144534545160624
83.7350873512642 31.17067213693292 44.805374968066836
30.67562635451118 16.634922914773977 26.175355550788186
29.664035068105328 18.373440047739308 27.767431051703483
28.08423092999721 20.194145811596208 26.314964421402795
27.501777429037098 19.999520367989902 24.22533144261054
83.4778487926135 12.781889812282035 25.539537214251457
43.49380475310957 3.0407398077353456 84.75961411761774
12.556139920040795 2.7464113836967474 35.80223368371566
10.236986538424 2.2265721039011215 35.31122020559374
9.721419655645997 2.2600864177212325 32.665925280129066
11.148398590694613 2.0356288250838337 30.91126884622913
73.94469534544059 22.908402931014216 20.86688448711874
62.02872434192292 3.552397305935448 53.630138144710905
63.39763426341124 4.329143429103924 51.5890074467969
65.04305446486013 2.5179530655325357 51.41477114416589
66.53920207215654 1.6592449760855081 52.99681209142537
41.090348178547444 34.61208353451232 72.5751790897974
41.80444330252025 32.58696163878867 72.29127741209894
63.823764987681095 32.600704472540585 66.23617373571501
65.53206805089614 31.296644450475707 65.61807828944556
66.37077090209536 29.77610738593531 67.94450937165605
65.86019405922168 30.278933513960723 70.02913621645573
68.16937462293083 22.47205659262381 71.63977094471711
66.70062833867941 23.840589413782116 71.35593109212569
65.26367378145058 24.925773081252174 69.25606846781335
65.02952364766249 24.441464742713325 67.00501056788343
75.21645006396987 10.462238915630293 7.657517887842294
74.71211867545 10.628777886529209 5.3416060144980575
77.83133091349902 5.006821184349145 8.251427188062065
78.77465226921386 3.9802470220489843 10.381866439920973
73.311071774626 12.139395146326233 3.221975342229573
72.60973935575936 9.526849304072625 2.544823217553799
73.7096975392704 8.156486893328946 1.257520775200381
65.60080370084225 24.101280821560515 64.2374207960728
67.13456026756081 25.156462043653896 65.53193949770146
67.24140943115121 27.890016771261863 65.91382699202907
67.13606806161019 29.699111340944974 64.53112446166622
62.70796978685421 22.071077865192898 69.27291717449516
62.486591461455426 24.478069994451644 69.2310473198253
63.154290827307406 26.01675868323916 71.2106788229865
63.80570887271281 25.542175878636137 73.38125385367964
62.31394202154001 29.026995267616147 71.81495773405311
63.30975543227591 30.934539513191243 70.86414364962742
62.533960806438785 33.09397255928068 70.50927259411469
69.32169516413792 25.94020630827314 72.07865206243186
67.67472077120044 26.305302323421657 70.4433110705582
65.36957269174297 27.617311349731374 70.65490021804972
64.36278255899869 28.17777377966078 73.18234113720894
64.75570357120365 23.709925508164844 75.72529982196163
65.91135420083815 23.68574175577269 74.12307777154764
68.66765076385953 23.769058506204583 73.99427212527266
70.3550250120137 22.671970843775473 74.81971973098298
76.47719343251389 1.5318184927776695 1.5646525284327
78.14174738613956 3.1047897306653685 1.0769132156992696
80.08287798143978 0.7511969330530853 4.539442496072359
74.42833625455211 1.8163237240758874 22.899946002240377
77.09970749604486 3.8150693131876006 26.80928299014736
81.5662367047975 4.506783898945439 32.77481985685871
81.70030171361122 2.3216425923530664 31.89726269647173
80.70679300725473 1.6035668164363979 29.497922224829455
80.08797032755969 2.7907390735640365 27.619047904188562
68.69458079491591 30.332635594934068 66.91729378300478
69.0555923472892 28.941847577026266 69.00421827046988
68.7931902352329 26.93966439498302 68.0909028634901
70.18620434101821 25.614324730741508 66.12549070188723
84.94238761914401 12.149416748435897 82.66106395978468
83.3427145180911 12.848725600160076 77.2791503761777
76.04640507940542 6.8195904569782275 2.632355366008641
77.4497941111068 5.091134752962135 4.07745118791349
84.93208731215921 14.963825348033778 77.31221619435466
65.64411113446513 14.08554644954762 78.20461244010889
65.84177225125711 15.598527287318591 79.46576400157015
64.31429860612234 17.31533594950769 80.82489092431341
66.73594253016834 15.602302714969122 81.99388364147379
71.66427380639861 5.2881923914495506 4.278774656124014
72.89063137844467 7.085726509275036 3.674318237553268
75.15333330630098 7.850921971818689 4.939127835932195
75.74623314814785 8.018625354896903 6.935020691329231
76.22088514402165 2.5079055113403883 9.458359525013929
78.55883555931078 2.3401895668932626 7.830798708344064
77.8107385895097 2.6086266428002456 5.337706093807282
75.66666575536476 1.7480514027943397 4.187158687012971
78.28892882484908 0.7362935001465024 28.19830976325535
70.68706838961107 1.5100000448016624 1.0022164723087648
71.35634538504543 2.347021746337122 3.187715134487874
73.85865419371146 3.6326906248243094 3.464014169021055
75.50785447784881 4.0236935716403535 1.551353319937298
67.97751555140844 2.01390680425273 75.34224621872805
83.34187997884955 11.482088501581535 74.91320481371254
84.96460749307992 11.316060148804642 72.77561441589016
66.664343838338 0.5205725723646752 79.3202888126087
63.31389738537878 25.854938136746693 65.42027899562521
63.239772258717785 28.266852229186824 65.62557833495458
62.91578725744987 29.319272632577942 67.97280881421268
61.38704653782041 29.165896425092367 69.14990598522476
69.99265634289438 0.9811294603555697 82.3870421823667
73.04177127814962 25.00069038215961 67.32588561328997
71.5051889766918 24.415250298931397 68.2453463446174
70.72736414911981 23.77747592930518 70.79206455005928
71.80891762352317 24.44375634139416 72.9645360326859
69.98677150774274 17.951179303892943 66.65510210796381
71.93341966005879 19.93750479897629 67.13094221704547
70.60321655929147 21.837675828727317 67.97570314306468
68.99533466374113 23.144086720899782 66.75849712067445
60.6610344209356 30.67891736935194 63.71093144303817
61.91352549125361 31.299054768529885 65.03332448559084
61.62463818503182 31.763978247567945 67.85634459170358
59.42118788341377 47.06344338452092 57.22260436637328
61.179591842946564 47.835737944918755 53.34611439837409
62.933284061255755 48.78018751564356 53.51765907173046
72.11812550572435 1.5017566885116123 75.10584363333383
72.74425664986792 0.541579909012798 77.09519554707931
70.69564913079297 0.3659133414367447 78.84498949905968
69.0847854218021 1.8810403782954284 79.71406543360733
65.64215013745334 48.90394564210809 52.806483201468325
72.38414617467205 0.8012986471187843 81.02615232925389
73.18816385624764 1.46203842324519 83.69915523922023
84.95561639845904 21.229511325352586 1.9602593984462429
72.01546424923721 32.71847551474971 5.640394409655838
71.30913925612799 32.78644247705708 3.2944579649877386
72.52131569508666 33.78378485562272 1.4774589928607669
22.79096687582418 32.82235798312065 69.46146438937261
38.113543345031 28.847448978872663 72.14621860933873
37.16717925833891 30.91551227744577 72.70627496846005
37.38238903284928 32.39207031622387 70.73438342706093
35.08510790842839 31.472456912232026 69.32652699331739
11.366397779687857 6.160406100922341 6.0098759159802775
40.3990469742364 23.83110620639493 69.55269665723868
42.24473398909986 24.89915357049683 70.46806990213535
42.02617072442053 27.175228729320718 71.12570303287089
40.00804760712846 28.91740819376275 70.18881452600499
41.159001128430916 21.343259183853892 73.48152452454352
41.48319531849037 23.121268863106 72.42230182833174
41.81841520374724 25.68302720925403 73.59577126206013
44.43803134254702 27.367552579527512 69.79771220356282
43.67686740047853 29.102917098962475 70.4302574229622
79.16490487307313 35.30358020000234 70.0996755769063
80.91804837162937 34.789511221033756 68.3542472017004
80.52799859348916 32.19228692798374 67.45603358192983
79.24645621280872 30.50439734712351 68.25860277387638
17.858534392746353 19.320527852839135 79.11710407352325
19.67520247723489 18.501858289228526 80.02587668747661
20.244654598926797 18.112026334396766 82.61206827218656
85.08746153589313 26.057188553349754 70.99002406099817
79.76985239265713 31.315667847104223 62.625937930676635
80.26337266755449 31.73504529167756 64.742619801351
81.21147237961408 29.887901396618627 66.22288180833462
81.34326355727414 27.548886683271068 66.02346820702877
78.49489553491404 52.12254986911519 69.28325288170853
24.290839052585714 16.350761871953587 82.10681564387052
24.55781397991576 14.383265509611348 82.86213467017811
11.973041138816019 9.157584303350674 76.89315921788324
13.60397649610053 11.282850082599888 76.63928012700082
13.81927271141571 12.316831512599245 78.9603430972061
12.355957488197172 12.662758221124362 80.57502614057924
82.52862628764122 31.998404748650067 59.0492095611101
81.85672991469437 30.32260987473868 61.086965770462236
82.17680039550868 27.743615581538783 60.59998786767656
22.11352931393534 17.278812100892527 76.91378085654826
20.990195898784776 19.112487414622677 77.60587885267012
18.262492162943488 19.300671884234937 76.34349746088384
17.423363599998495 17.319623452230203 75.05194464480009
80.2149081063928 34.16559857840557 62.60888348854163
82.20960614316712 33.82965830506614 61.38478651505277
84.39157877972559 32.884251851958346 62.735660824822865
85.01360854220229 33.65178641341881 64.68738528193877
22.234209493753767 19.589924935049854 81.5186205377664
23.205295492348448 19.67814871587989 79.47171556283995
82.97297925030459 31.47959298077359 67.41028156872966
82.62895712602443 30.797281044475085 69.79514474186328
84.75580229096835 18.672169703677813 4.287031066237748
76.4392824490419 49.28719255012081 70.56538874680274
68.7144327860656 24.922429263649544 0.2556001387877493
70.07192655761482 26.694677619067964 0.8086744682357051
72.81119596864724 26.686376405745687 0.6286266530957091
73.26840954440782 31.264319600585242 1.6423868138155406
72.76625807841879 29.37107966104156 1.0978532641772618
43.3069706526936 7.088292034707754 78.7977091917093
42.8398688388742 8.08634060142173 80.75941512136926
42.593309904001536 6.528845168686612 82.95374213164544
74.01585270467233 47.253569407009955 70.7046597128138
73.67789696470744 49.36778684532809 70.58361402861033
27.11740714712022 16.79306194386646 82.35776067227769
27.3313881020587 14.22372783451016 81.62504575918808
16.097742082886466 10.3410029280457 76.55597200695281
16.62696237965839 11.942537781108662 78.11295668067334
17.991775179305293 11.958257843705347 80.32616282685568
17.802066439164285 9.900075274011769 82.22268976001973
39.90935141229548 3.47133977250267 75.28922048014218
40.154590418727224 5.240635589052781 77.00493854448041
41.70938023302955 5.045196491278964 78.8899333139779
43.554211715409565 3.3970099838139696 79.09634506439792
15.792404677042642 14.352644891546708 80.01672024642772
16.573540136391163 16.025951293435472 79.11258868254139
19.080977680152937 16.361669223072113 78.68097710580935
20.904554956076062 14.954954221853875 79.69721461957158
44.873181698194486 25.054911894770438 71.44186650010067
43.97707748442893 23.12464969930655 71.81521411066828
17.080957358819656 13.007043082604936 75.69713240711195
18.37617422353481 14.790552946452193 76.0716443666645
20.952201580189616 14.47070697627507 76.97942503691547
22.58614618472467 12.745549404210601 76.75078096860071
69.2766270742143 33.39032782299401 0.939331391117465
38.632070547401824 11.089598880049055 79.49795000621674
37.62845139122729 9.799878193707086 77.91647500372274
39.279142006112245 8.043800705808998 76.74918128421082
41.53334963495234 7.91458735824348 76.76050218119211
25.498381582346756 13.125086940525078 76.38736184779094
24.8494101238686 12.631807867149519 78.71709089600046
23.629030647645063 14.245636708495399 80.00132821529651
23.378451484634038 16.836831899543238 79.7298777362565
53.322849824551405 12.809562444208076 64.97360924692151
39.75969422873903 9.92444071454059 81.70763577281562
41.45580644551117 10.58679111669666 80.54440292532526
34.88784650512771 1.8558417948234076 77.43251020681818
36.74395908439295 1.7847529823874684 78.54516200311562
38.14296562387444 4.3429485501484075 78.91910281994336
37.504593902454225 6.618934993070879 78.0599549812085
37.0149253415399 3.425018613567659 84.19555183873842
39.78197171837543 6.8906436946299685 83.64773025620535
40.23356150283932 6.975730252233999 81.64157155030232
39.919521960247096 35.47417325038456 70.50290533056264
39.97505707228582 33.10998715589781 70.00875365892914
42.3194872428159 31.648724997182 69.26034141158661
44.618419320644485 32.87334311394699 69.03223097385272
70.39806736531973 27.128188582811955 3.866992632617332
71.565228948504 29.142611617406125 3.5133110634613676
70.18440166031084 30.99719572176119 1.6236120604211701
67.94491317776459 30.627156126832908 0.9171871319903833
84.16587120995283 23.923262653700817 69.14646224614913
83.62692383420757 26.275435529815 68.54343434786406
82.8450871592653 27.66844486500216 69.99623751306207
80.77398365355079 28.32266638345052 68.50234920122669
25.214684408769777 11.467966069729385 81.43539386075206
22.995237961097263 12.38864110548179 81.74919060706226
21.00093398995408 11.651572050743265 80.15763493012949
20.88149117360729 10.299615684773737 78.48785981493756
15.60130809349592 18.649994662566886 76.77446771621403
14.372171075583289 17.287851682424087 78.39053686066619
14.066246061328743 14.79828177663963 77.91299059255633
14.322679687912304 13.498281872349047 75.89443977650792
83.59118631832983 27.3649376634894 64.81436384554793
82.26573770261362 25.776244765428757 63.511757973381116
53.67559465054368 9.457711257738204 65.90542837880847
85.00018069312861 30.54271561007225 60.79850078149648
84.98027039206156 30.24306495141754 62.846789856105886
79.60557890209496 4.359152720307989 7.8323191001533745
83.00311544193714 3.7490779826759666 7.753973737990011
39.44106277482039 2.5890933223129786 84.93983373114266
41.91165966345792 1.9019201441818805 82.82704667256007
37.092376329084544 1.8614562231782865 81.50824455443023
39.46601264684251 3.1111476454624913 80.88663593273006
41.497927241134455 2.2090881134376863 80.24599042299855
41.22835623683068 30.209108309220635 72.63322741946493
39.39749656922035 29.265897484498563 74.33788109935487
57.32545208863642 45.358371659996465 55.17835583242969
82.2401978418106 14.375765758646923 46.712205030031
81.94660742314477 11.111448124718603 27.980011045921252
83.91933122288921 12.312621502685214 29.72666254806043
83.34694058838606 14.58480359124239 49.52227599400906
84.46866706689595 16.686899978928427 49.94775960713612
84.5800706062597 9.910191190391087 24.46232523943164
84.30633101406583 10.728214601469622 26.816090704800928
83.80663367628357 8.974607955130141 29.00709594010073
84.94321047774694 15.49414959769616 53.03394028755991
84.80896836417968 13.116509791739908 52.086555156961374
84.0334097933124 9.85227241257357 46.97764027474819
80.92014212928166 2.212077664039635 7.48036536056956
54.04500366288853 60.12463865601468 36.065141305307094
25.613918326009895 61.916553961178465 66.50448677934254
59.96624018700857 58.08247067811944 35.6263194279954
62.01170605996712 63.09569410628878 35.738519604830266
60.187740303637035 62.09456124065827 35.17826388580028
59.28602242676643 51.70658790946637 14.722866350981997
71.09385750514572 56.36250530044723 48.42260888215693
61.852168980716726 62.25396043681332 32.955075530105184
72.10546301832626 54.59635125592589 46.50063357882351
73.74511663393903 53.36025355906497 47.4525567405025
72.23988167438237 57.42245685204113 46.19162017581433
72.85148338464586 58.14266102851039 48.28404817779488
75.8802529433342 55.10708206695682 48.68366147161411
25.098306239747703 39.90025153066946 37.79620859661661
23.138539376366218 40.547018860040794 36.899165621685206
21.09434047014674 40.90429961404437 38.04879450669994
20.13549624671196 40.01648082757839 40.07053443161697
41.00643303571639 50.760832954761405 39.91819190303156
39.35671290756461 51.83116564796255 40.70145011204363
39.75500808591458 52.907081823743454 43.34020846536603
41.15437103746554 52.194991115797215 44.92015105090199
19.437875792079293 41.351513221336155 42.32476208042366
22.05823592161704 41.48707597377691 43.03627730165319
23.72553613825201 43.029467718206824 42.6699283532553
28.08444270369948 41.90906210944147 38.18025428157867
26.36157104599567 41.3971602627336 39.9624024342624
24.256611799799725 42.994923973778214 39.65041565535478
44.067726117227075 55.156873541493496 40.67719588877413
42.20307443687565 54.91315408410843 41.60314400476363
18.185529885230952 37.679003901425425 36.2786335815404
19.181436403930984 39.452983808856544 36.680575973958284
20.878690746102574 40.9522439333447 35.2996393824649
64.53728146273988 54.579679394513384 8.122813501769942
65.3759843139391 53.05914232997298 10.449244583980429
64.86540747106541 53.561968457998375 12.533871428780117
44.22413390244319 40.50615670300209 27.977664336741622
46.336257540919995 39.324700062950775 27.938369919498427
45.90486166767013 36.63608021580312 27.365917709263986
44.06317734409067 35.40245059509016 28.24612225852998
49.34227041696393 36.76948693281275 18.816297623942027
49.30807507910874 36.698560178172066 21.21716846474146
47.48156520856822 34.53981934667142 21.80727339330576
45.31559339371746 34.09860275775844 20.456290002867227
60.467085776557596 47.391484169813 50.986434803435074
22.515436500020698 37.70673845564019 45.906381394690435
22.029779528737638 37.710529803422304 43.528629566411404
23.81794677132832 39.36376685760852 42.166361844406865
26.381819679487855 39.887816149304115 42.874810777045454
46.46398741929066 50.20335152464479 45.43509480039898
44.930981433791665 49.142836623182454 44.20388722190203
43.10327312259554 47.46287834650223 45.72199711949737
43.43318858146649 47.127449397044536 48.15930609987445
60.41646821834669 46.9270365955171 43.28429795249669
58.23651659008312 47.55648325608321 44.552939690155455
57.25909738110735 45.515403203356726 45.47730591938795
37.65664984980226 37.15844230649891 52.23636650744854
35.460697094812396 39.3227813396667 49.742700329847345
35.57772733662952 36.9881375420429 50.43054396472498
36.349166441340856 34.85474568296802 48.909711550760925
35.86780786236979 34.15439116354986 46.574769072565346
47.05476907361102 53.651417695223834 38.630245662864134
44.72251441166643 53.63379944549355 37.99770276505404
43.37380791384691 52.30565745420846 39.84625740759196
44.269391511598876 50.778133994341964 41.31429083558144
51.15882222806153 65.38792875811889 41.52941405015131
51.78405896232831 63.52543306058342 41.22755569674379
52.121303978291614 62.48647309550789 38.931288766207565
43.45043216898355 37.86962121943768 21.60072360602468
44.44144501818775 36.17369912129953 23.09552283080568
46.2658501182882 37.51518912443175 24.823417068196196
46.28567682430447 39.739554927126925 25.376699116169167
67.17458803477456 45.75509153666148 14.144506157041485
65.70584175052315 47.123624357819786 13.860666304450048
64.2688871932943 48.208808025289834 11.760803680137725
64.03473705950621 47.72449968675098 9.509745780207798
30.155312337152118 39.38285452264972 16.65149165783099
32.10451718652813 39.497620222816465 17.661660642174972
10.680305323409899 28.81560178386338 20.609846814298475
8.765870962432963 28.467268977733976 19.952697556648943
7.820487178700289 29.353313786536408 17.55347690729911
8.964404246411583 29.322394927490485 15.224596224783205
30.406799316164616 26.12256013691795 30.196501930954202
28.084572005412724 25.212625098815344 30.989034674117516
26.18754619564927 36.18087374908076 15.966522001952594
26.919955102438 38.179162865759224 15.834684874930803
28.6971781105767 38.5033268298629 13.793596379737268
30.492829048279518 37.09933198206275 13.031422915153756
0.16763709966530396 25.930721040012884 44.82348187265497
1.5729335333513925 26.06589424526234 40.64579563865016
4.070915571904553 25.87105446908645 40.892513732195134
25.41478611905602 41.67717326661959 44.69839267422051
25.318353829959474 39.95976756141683 46.40542369645741
22.96889455678291 40.19658989982285 45.6299469304751
21.25755430969551 41.63713348403258 45.706192427364044
16.778859698928997 38.263777626617106 41.06362160911501
17.384018952896128 38.818453562288774 39.05524667826036
18.16918879380833 41.184763674464534 38.347455721719996
6.632101435852404 19.119600605679683 46.750070671151875
6.909075360554821 20.85287870179677 45.16039571324213
7.77294002885319 20.568867810321084 42.49279547167392
3.543045987710809 24.973138051931848 45.452320631373254
3.36740008174595 22.808286780077065 44.479432956128015
2.7825179491944527 20.475303308731732 45.41739117287474
3.7258393049093006 19.44872914643156 47.54783042473364
28.49553860219382 23.726199318369645 21.713552216138442
27.326564341492137 22.860273090867768 23.879314847496886
24.955720067633383 22.11163121960442 24.298015741013767
23.45540314226754 24.138037788667177 24.18532095206364
20.31761849094475 38.81786324058581 46.9132616105265
18.997600146597705 39.83718921734669 45.65668349864054
18.424194859921627 39.0801123739847 43.29238545925042
17.08575862337111 36.93372084650733 43.70344095947537
31.041827173825226 21.59162930614222 1.1192708144291539
31.68226374756097 21.391973795365175 3.3251068904678696
30.922676126384765 20.741644015930454 5.198943369116197
13.66088655790062 55.124500506296734 25.095060116217415
15.935308958007425 55.62376224262448 26.402558250594055
17.6855407988057 56.68912518241926 25.212946086105337
33.65715818105267 22.1447357356492 0.4942570937964314
35.43209940640936 22.071781945813814 2.0785097185005927
35.25654471612258 23.166289563393867 4.481095693192669
33.72024544099505 24.83888390574991 5.348123239586737
52.986792795833594 41.4758207628836 6.371052621089405
54.12890744146933 41.32937738350914 4.615932260869427
56.1033016898592 43.13771884503682 3.668280379835595
56.537710556397656 45.50610229323788 4.980444321849284
39.86727140620557 23.746628646618728 8.760813132167208
39.62440923430754 26.073308359628456 9.160408689605115
50.5199416445246 38.78102481168031 9.099256622811373
52.24447074344099 37.183799304486065 8.303680258372506
53.489123982517405 37.37780343284024 5.79588474683982
52.91868914174153 38.71319459119988 4.193623317142091
49.38565473891279 35.711853813866085 26.81880718144817
48.80439545525946 37.73773173726368 26.064492759031776
50.63882497717784 40.131628063566986 11.529228699604543
52.004226939331886 41.63336765331977 10.753491006956146
53.573859028923735 40.798526082616085 9.245346595399177
54.86403008889729 38.42355352984648 9.571423105845412
48.6732532372041 39.988267633577514 29.65672820724859
48.59540765891017 38.10251919847253 28.639116962801438
48.2757616475496 35.737284789539956 29.720503704207
44.03384361169421 33.4364347541119 30.19899118161517
45.83221386010239 34.504724110640694 30.067771793257364
47.495585055836 31.579612509798643 22.69870015653211
50.105716271688465 34.099732298997566 22.273371136117397
51.29144484747786 34.37646535657315 20.51498334837666
25.49276772418718 27.15981125133411 34.53244261881435
25.278240513835275 25.593304828458383 32.819540410885786
23.936850413699982 23.53712064269288 32.24987797663447
22.152344117428104 22.288106387610544 33.643781672587814
44.23404929153855 34.75668912620939 25.48920152288658
46.105542590042525 34.368654655920025 24.445881795293538
48.31698980576699 33.466672543861435 25.840490763900743
19.808397893710456 21.3221295203791 29.349382146044032
21.515033750568122 22.023350074757538 30.638480638728424
23.429204653489126 23.274328193283715 29.214578049255227
23.186704081444898 24.33594906748061 27.295437529747325
35.035612007011544 50.59363911634505 11.527225095723576
35.82598061931991 52.576080129981044 11.537351616692181
37.822322050589456 53.18895995716094 13.191588416190644
0.4880133908008732 28.141337097548874 39.451879295384494
19.435880434183733 12.891295117077684 5.8643758529761
60.25630607067138 42.96568935160695 1.1316006270590606
59.485641506540006 40.77988828495366 1.5369125809155575
11.575069086095095 9.232703586901014 6.367019132412275
17.236376186569807 15.766807213146375 15.80344053990551
18.981065405574384 15.506062948011065 14.891041561625409
19.367242312127157 13.991065796879868 12.971909476021064
17.948559353050847 13.516098505230358 10.854812614859066
64.60601711268598 47.38431576559819 6.742156008397168
66.13977367940456 48.43949698769155 8.036674710025833
66.24662284299497 51.173051715299536 8.418562204353442
66.14128147345392 52.98214628498263 7.035859673990578
5.674368616715359 26.9129703790063 14.659432575869017
6.166742462178313 27.71456404818439 19.291138967485495
6.042172635833224 27.4164178735299 17.12658483504342
61.71318319869795 45.354112809230564 11.77765238681953
61.491804873299145 47.761104938489304 11.73578253214965
62.15950423915113 49.29979362727683 13.715414035310854
62.81092228455655 48.8252108226738 15.885989066004022
61.31915543338374 52.31003021165382 14.319692946377469
62.31496884411965 54.21757445722891 13.36887886195179
68.32690857598165 49.22324125231081 14.583387274756218
66.67993418304417 49.58833726745932 12.94804628288257
64.37478610358673 50.90034629376905 13.159635430374081
63.36799597084242 51.46080872369845 15.68707634953331
44.68591777020361 55.416290533659044 61.568899253301495
62.004263677233574 48.02632145950283 45.43950953177145
62.19956883431315 46.97262337890715 47.230261424883736
60.119654543112425 45.969573988204765 48.41564829566831
57.767579121938404 46.64298892167725 48.179576392473265
40.69516495549304 57.495504240715285 62.05144614815092
36.84013259662991 25.26970443571031 5.045835833745376
38.069737841524635 24.79531937860257 7.341232129932872
36.510952326200886 23.375665090694532 8.695963767765537
34.123347743608726 23.624711597129522 9.03680364953941
38.627398929478446 54.05776061030247 63.717870107986265
41.21344919665911 55.133015669932256 63.742156588180485
43.128927039759716 54.268031159529556 63.607144193722604
37.9624785061573 24.323971670458057 2.712715848476537
38.03856094187925 22.086329263160472 3.15834208979948
10.56075426135757 9.765243079028693 12.140180995671411
12.183170064943342 10.336390868387104 10.657562444378149
14.22267073804891 11.772078658322034 11.000124129288768
14.508834211088676 13.621915994771518 13.044528703247247
35.48430331970962 26.860372757860336 13.082616486039363
37.28903955765102 25.536843025388784 12.374048754914378
36.77601436271098 22.78782412594006 11.407558964307256
27.338599586434647 24.309997007330917 5.578154032471553
26.316550453182277 23.88365532959519 2.912691375445494
28.546013188276866 23.736204524346793 1.4311394504494896
30.869929750654588 24.327439873556614 2.484088477077911
8.420543793043292 30.79306331723979 21.238775880625532
32.30837823340522 19.366081599477987 7.178669220404871
33.763384774963086 20.31252761951476 5.5157350501471445
36.065990335263216 21.061957513991604 6.317739788332928
16.928026974449903 17.02819114712581 2.7058866054537125
18.011709928217915 15.304026178391343 4.076476223759523
16.20553590953557 13.092356176806925 4.585322171290253
14.13822633514657 12.882886286508894 3.211082779614494
33.585075025517035 19.515251149522324 1.3193520979413011
34.99083574570754 19.649759943751125 3.279372594785344
63.76091698304737 46.9929604522025 18.230035034285997
64.91656761268187 46.968776699810334 16.627812983872005
67.67286417570325 47.05209345024224 16.49900733759704
69.36023842385744 45.95500578781313 17.32445494330735
56.19891902717474 52.154372663514195 69.85486319614564
41.92486536741572 61.86934205511469 63.089975518127446
40.34717329278403 60.033538316975296 63.0742525658246
38.18626974412037 59.49815213262707 62.290560142802185
47.831389841331564 60.69003853818347 56.61248423947331
46.59104538386652 59.473437812019405 58.73424181760833
43.89178008403855 60.044579833732236 59.088496141617426
12.33714260081313 70.65000481602479 45.84084069052411
1.4283804682093146 17.00030061716025 38.73061651324537
3.092934421834978 18.573271855047953 38.24287720051194
5.016784251998062 18.415522247305567 39.883557037941316
5.034065017135219 16.219679057435666 41.70540648088503
36.48133447228539 80.65222580141743 5.84309491746587
35.120309077911585 79.86817895660737 7.632793975056205
34.17436138022934 77.65521633849954 6.865959012540468
35.16355928562671 76.66293960262858 4.6293577751673345
3.7174159316109607 74.52760359897027 40.70288460939071
4.210936206508296 74.94698104354362 42.81956648006508
5.159035918567898 73.09983714848468 44.299828487048714
5.290827096227956 70.76082243513711 44.100414885742836
12.69688440281777 80.81162478547168 13.078457943440851
13.519154041296483 80.61964871181031 15.194550907358037
15.629046334547564 81.5873395571669 16.14672429994571
16.742431516795357 83.5299813079463 14.910028966279407
7.60486889369793 77.47139384615289 17.786171804066367
9.005914352223332 79.36379413101771 18.62924336277549
10.210500857306604 80.6925293228816 16.39777053597289
10.289452936825732 79.69949598946963 14.266584875482556
14.283454811831191 84.89389665587538 13.902596196198775
12.617040212654212 83.41602457721162 13.648106836650424
9.80090272729062 84.46704074110258 14.377804027233422
28.53350147126714 67.2621062430996 32.218201917263684
28.752048312700737 68.00416028982379 29.75217344586104
27.810820645429757 70.22466873830534 29.216548158084343
27.599863001464364 72.23833322332194 30.52806010264657
5.103767810111909 81.46340327968262 13.372582099823884
7.227331806124159 81.91046261596118 14.15428866164063
9.40213148700173 82.34763982815397 12.855236233719895
10.06484278137827 82.48394551761416 11.00200560660846
11.312857855050284 80.48125903581163 19.806993612588528
12.543548067297321 80.38581894189392 17.579361419697367
12.254660991000186 82.79892627308513 16.298731116129773
11.700240772765637 85.07812472894797 17.54861966589728
6.270320465091769 74.11040723255589 34.82637711755791
6.476189826595032 75.21034050051611 37.1261562398242
5.804293453648192 73.53454562660473 39.16391244917632
6.12436393446248 70.95555133340484 38.67693454639062
4.162471645346615 77.37753433027162 40.68583016725571
6.15716968212094 77.04159405693218 39.46173319376686
8.339142318679409 76.09618760382439 40.812607503536945
8.961172081156107 76.86372216528487 42.76433196065289
10.776199702623993 73.35854352775901 44.64814597032516
9.26728989642501 74.56047424184622 44.022572887980466
11.715047860757737 12.870793375356415 5.467764459581498
11.536043665102953 12.059295843761745 7.822579950231494
13.809448814353267 10.94935016286564 8.57414045632078
16.094737426884766 11.128018122122945 7.342276671397162
32.11494936753602 34.988595370600486 50.548977278657865
33.362935303542045 35.999432907432585 52.04794778826886
37.86812062308654 69.75263820303073 4.788526245052438
37.63248493707626 71.74986714253153 4.145985658965382
36.09736488588619 73.27044334767339 5.9058872287550415
34.04951716207112 72.19744681430373 7.311168302150095
37.432095601176776 73.37917816727075 1.9610275586753572
38.361531182342254 74.61987107082321 3.9630708077936787
34.24381607213786 72.00017359026772 10.184762001315551
36.13590878168947 72.5013390305871 8.854202932791948
37.01571900441414 74.94538959830672 8.529723901915109
36.05907327640825 76.9741091710263 9.713247232377048
31.07478015175897 80.80970221628255 7.334821048889891
31.48205457511524 78.56664307602325 6.609145079532605
32.43286217979559 77.8890255602571 4.026562531339593
32.36815087239794 79.31611135257675 2.0416505064566004
40.289544158837785 82.4564274584528 21.606435498726466
42.082387605270625 80.45695270965732 21.391193472243238
44.20112260329507 81.35300340720308 23.028062702777248
44.242600465238084 83.5226253114768 24.09927930662527
6.992649232710087 80.7405305748036 19.533899836280117
7.466043904734755 82.88009859497748 20.63277679250394
9.074754833509731 84.37453227682302 19.157553633325282
9.005533213165625 84.84751114510115 16.797562259748574
24.30779342167346 74.83653414135789 33.14495108543216
24.75448216551036 72.45630503505524 33.4014985693955
25.11134128891803 71.51783554748859 30.718051864645478
24.52340037039471 72.06435401629513 29.03068674717791
29.802666728795636 80.12642279015844 26.411344817535827
27.90020656850776 78.54615468906296 26.575243526653466
27.479669469813462 76.60558719771046 24.803682758412346
28.101896955349293 76.48041897562995 22.411528107644674
67.69979420675965 53.615670538971735 9.42202899532915
68.06080575913295 52.224882521063925 11.508953482794242
67.79840364707663 50.22269933902068 10.59563807581447
69.19141775286194 48.897359674779175 8.630225914211605
29.797035266854277 74.27307128259373 21.787625572276433
30.91667650613948 72.88200788771255 23.007407570094205
30.1514414801422 70.54378899231371 23.766680513132403
28.635081656666433 68.98104096466088 22.812494990516697
25.654388537220402 63.664628928873 33.33245857521341
26.581281382110397 65.64864509426788 34.39441500913205
26.095513329592038 68.11898883526567 33.269846603082605
24.610268399071103 68.85001280191779 31.529232693969284
41.85742193664442 83.65295544055124 28.1973984956518
42.88571920770466 82.92708351502894 26.430704348642614
45.68804751111134 83.00741837510576 27.1729035269411
46.62861302362792 82.88394701581576 29.178547798440967
27.767806277434552 43.089898423270405 35.255205312913326
26.128168439358493 41.86047203876415 36.170429663194504
23.792258445773278 43.37422739420054 36.2978092967379
27.0503354358527 23.485006652421145 29.27363616517083
25.38737745932838 22.572396354823162 27.397658263356682
24.29625188390282 28.35443633193452 32.48988242259966
22.798481653596 26.173051390022092 30.877462465535388
24.949826549236853 25.635210676736783 29.19671201359512
27.196289923969402 27.080106386848033 29.23384495312769
35.388786169222904 36.88641997963453 54.044097918450866
1.5896634536015977 24.221712766351114 38.84631151829301
0.9975921151008574 22.28807258136081 39.79831935082131
2.4009811468022275 20.559616877344723 41.24341517272615
4.235308902848575 20.345963135628015 42.236223560827455
15.106668422897839 69.53121412028226 8.072655086385097
16.213918019597113 67.9804735738464 6.852247604119181
15.360897837735365 67.17509278343896 4.770640202438437
14.393592208591954 67.9491335237624 2.8641282378593336
10.773313308878171 83.4397750076483 20.859170452040477
9.566230631040447 81.52217164044393 21.77938149020836
2.6542432024780425 65.82846380687312 20.42844756533616
0.1946265620902349 64.7220327127821 20.64037111852923
9.41103166196734 22.762396915178833 45.151144588099605
8.455338313969662 24.931487705667145 45.76489000522416
6.218928054351356 25.67801669697543 44.30207805103214
5.177291912436376 23.997052895738918 42.857083892968035
33.89985188530256 81.947658822533 10.409578702147193
34.53046701818149 79.92630949642098 10.418417834905625
33.20279672016395 77.69249567906932 9.948098940513033
30.556193939939085 77.76680617535858 8.990837257114435
73.17872406103865 55.379218186940825 27.579193555629605
0.10452034199640893 23.319404096201275 42.10509182074486
0.6974201838432841 23.48710747927949 44.1009846761419
34.20287403796017 83.5836726199187 3.1797729043290377
33.95513984649315 81.97913823300067 4.965101241325272
33.997838068958956 82.45371350287219 7.585216139324659
21.761890780134962 63.948042794029455 5.769396040977182
20.83583036446936 65.50456433615476 7.344109975714587
19.154536084863516 67.37937282989749 6.431830750393758
19.374952248339543 68.8416272666971 4.7261676962744135
1.1720721797170819 17.976387635722975 46.624323509826596
3.5100225950062063 17.808671691275844 44.99676269315673
2.761925625205139 18.077108767182835 42.503670078619955
0.6178527910601856 17.21653352717692 41.353122671825645
38.06207113051401 70.19049947268091 7.827874288572457
38.84146710880251 72.02323091630309 8.797027310757677
40.559257713529135 74.00566832941554 7.274791155611813
22.41760180877163 61.08141985717934 6.19445524670397
21.06880026978307 60.27153299088308 7.781290002682887
20.044520525935905 62.11439032581536 8.765824944398716
20.874463217908048 64.1551522699333 10.206457139401847
33.379756385578474 77.54995730805543 0.11967520312318544
35.01941000119123 76.3138596111945 1.071598364802175
34.86414730449907 74.70827666481357 2.9065907875253023
33.22468669868116 73.07990511783382 3.607841046495511
12.501387653800206 60.31264060752958 11.128404946255163
12.573995743309702 61.924515652692 9.543214026552432
13.193722594999509 62.00558081299849 7.383284973570018
12.763819035381763 60.83012149643692 5.393523639751224
20.14562259961661 57.52577502923945 8.893063424874216
18.611849993712834 59.457556801332665 8.582633145346861
16.497336467402793 59.70974019252123 8.91450419167845
14.897096140872703 58.98422136218463 11.138593527944947
34.125776751898066 81.09626708063993 1.9030898020945672
35.58121182113811 79.52953088102441 3.056015707561071
37.15454631058642 78.06068811908636 2.302703095913777
72.20151864425112 51.601025840292934 24.30263537181435
72.87079563968547 52.43804754182839 26.488134033993457
0.45904151354424416 19.492175696022944 38.71731730474997
7.01953241304311 78.11728152407754 60.421975687669466
15.182625198381778 13.737828443034562 16.61393679799278
62.319110797222514 49.137973080784356 7.925014207949565
62.244985670561526 51.549887173224484 8.130313547278941
61.92100066929361 52.60230757661561 10.477544026537059
60.39225994966415 52.448931369130044 11.654641197549132
29.84729160445401 21.483755095716546 10.305553556939607
31.820122921492413 21.987815976893547 9.581366104728927
32.37188472244185 22.65214994149987 7.034560069533719
30.94381002877464 23.54354242860729 5.512205636067885
40.4201781701939 81.3058191954774 39.50062207354919
40.66541717662563 83.07511501202752 41.216340137887414
17.896439268334955 10.884586098144405 4.2005157702747615
15.888589667871887 10.113698721860043 4.756532010589212
52.440177500369366 30.288695159696573 1.0462784488317238
40.70041364841898 83.34595187012282 24.240461063821854
38.861602508968495 81.74338934024925 24.214492090421917
46.282657593911765 80.14130963436878 26.64944435679258
45.50696104632014 81.2435161111725 25.149101803683124
72.04698468999337 48.28372532619728 9.83062082561433
70.51040238853552 47.69828524296907 10.750081556941783
69.73257756096355 47.060510873342835 13.29679976238367
70.8141310353669 47.72679128543183 15.469271245010262
68.99198491958647 41.23421424793061 9.159837320288192
70.93863307190252 43.22053974301395 9.635677429369837
69.6084299711352 45.12071077276497 10.480438355389028
68.00054807558487 46.42712166493745 9.263232332998802
26.948727988878954 74.21816702600812 22.988275783361185
26.868339300908296 72.89352222608272 24.58486114256386
25.66596495580171 73.32313107987207 27.083463379584185
24.311256123557932 75.21544783406168 27.69869316899183
2.2830263464136684 82.77997027176487 61.42831295365376
35.39867326302614 79.69032121779814 41.64391180022518
37.25478584229138 79.6192324053622 42.75656359652262
38.67152701613881 54.973570632755376 49.25413919735075
39.17732183334564 52.70054420231899 50.35535420017666
41.57942622505231 52.06025689338003 49.26942357959376
43.25826966794637 53.12669230015047 48.61806456186351
8.113434748906638 67.13519840556687 47.22340892486321
7.574487373161401 69.48737128168105 46.62038102657815
37.05133762425364 53.84483085600357 21.66183763636812
46.25871800238282 53.55263525977207 41.93323625784252
45.53468927684793 51.784790736315124 43.367830984981595
44.00688033890732 52.43391120429346 45.612887371033494
43.37362923150677 54.39891742891243 46.49980876712794
30.102138392013153 76.24611414525614 26.768091734749856
29.50097568483659 74.69750188612218 25.151508411525473
29.212273633125374 72.14487408473137 25.91508107736429
29.648768998869027 71.07035519838188 27.67679742231931
44.734451721565016 61.32059106931284 65.63705414647362
44.58215624419276 62.83482091587875 63.82855756652154
44.99525531925827 61.67815084274809 61.34947321125218
45.50410381348996 59.17641446562841 61.33299675006786
49.54855056435497 52.41280322279749 25.613789742391326
30.73902371039179 67.13811128020365 22.35829228744251
29.79042359085532 65.94711152505063 24.14194420785493
29.570405467209973 66.97762404141888 26.62802270900008
30.493817699908636 68.58304888681005 27.707628204805673
45.716951732723885 48.76209960636123 50.36279222788016
43.720105562963724 49.77064136418314 49.19218456223538
45.227178458003344 51.27713467645729 47.82520851244959
47.305699286160994 52.80236732688255 48.262003964404634
10.050465054072 67.93543808113625 45.3710263135054
9.745138406605724 69.88689543122199 44.577019710708264
7.538749857283649 70.57687341535545 42.89131052426202
6.213301241567426 68.98818051729481 41.5887046520952
37.01914514296633 49.7824176495542 43.74263984996432
37.403292210799215 51.87803075564455 44.24422154205471
38.6215193316436 52.42306245586024 46.00070923483401
37.613670634092145 52.98947848110964 47.70549012285571
40.73862823804523 56.1739312722968 47.644536639354385
41.4516296258764 55.59413725493571 44.83436000161682
42.24999609476921 51.18448032437196 37.333237912843465
41.19749125476972 57.983272031613744 17.36772463450596
40.999797812453046 55.974885035892825 18.52164799635851
38.677144803752896 54.80070441501716 19.40955030285531
36.446052313257866 55.80555924673099 19.240864273613376
45.68545301376414 66.84795950728613 35.121442328314
46.485894713644925 65.56860802737545 36.5255168833596
46.79593706213246 63.48089573198797 35.334913844346296
45.54622157741265 61.49113284866432 35.2206067622075
34.001976839314096 55.35223570240455 19.095485411932955
33.59338329988505 53.20137521827775 18.06112089993019
35.51079559844604 52.633775388167756 16.229716464017223
37.32541111084719 54.3192868722629 15.649860453249538
46.17341971663804 66.5702325448984 32.52168885211396
47.63967633785091 65.24843915735346 33.51202196076436
49.98285551153884 64.30781804819259 33.066836328138486
38.62242127110165 60.28069754283172 67.02061048523257
40.72599654639492 61.027137191447295 65.52006000421535
42.32406181798405 62.573892834472886 65.62161287873347
43.26542143680992 63.294441439749576 40.30432745063204
44.10004431485849 65.25207034465666 40.815153911379134
46.42491891643246 65.73731745863974 39.52644910612073
48.092192471119816 64.57857669798454 38.96897085450277
29.03251316895071 64.40638273144464 26.23163224585047
26.893529551061995 65.79408169757357 27.01536313981839
26.653248628698297 66.09096620925264 29.720039994802963
27.58263128007208 64.90579857005304 31.627117789522547
8.94774423208243 73.7546513619383 38.87544746021056
8.92783393101538 73.45500070328357 40.92373653481996
9.964316091711236 71.70002099588557 42.47535998449094
12.4089980062024 71.30357019629 42.82211810585559
2.7273415211466268 79.61865170347485 63.12568197265591
33.75141072416268 40.780247769411716 9.36275908779663
0.5110243697297369 68.02372066514778 24.38717962379525
5.121000360838379 84.46172910163708 13.683293051521614
3.7822004364346986 44.81092567605043 3.076290794074046
3.5406626202002216 47.35667474804734 2.2026986776876676
12.535205490441724 63.74391218760487 5.348385187080596
13.954644650438096 65.35360585527748 6.162941184033665
14.275206535539056 65.96455461497926 8.551830422320567
12.940326008441835 65.14625917534039 10.548358214303002
52.58682420364077 41.823693464452305 2.2632722605926703
54.547344232467246 42.97243698831993 1.2321665532204202
56.62066008888121 41.60415224506109 1.244966570302219
57.09988572243677 39.393734858866786 1.0244890819571184
18.04920914351254 62.36263716627467 10.930305786685274
16.25333599418015 62.31924718864139 9.950262842365628
16.070640497793107 62.79762510893346 7.514725858917432
16.36432938001498 64.62975219065737 6.772373974834352
15.021092200409013 59.28682993352959 33.41678240872828
14.174713242110952 57.78581409474652 31.75038964108928
17.271887661164055 56.74609733303399 28.56792993287015
5.641201463359568 79.59650077627175 62.687544363492734
6.514747030378157 81.61324611808321 61.22671347721886
15.646831407529914 60.30887254703595 4.848759526180782
17.243407272295965 60.33492767468014 6.462434433682835
19.544834199040473 61.58422922837215 6.203878962484022
20.373347207825798 62.44054043032971 3.9022817872987643
11.845046759412986 57.34403389532673 25.900952047728723
13.585656948665195 56.98300426260142 28.113229609666565
9.890701280243501 57.27328118159119 30.739645473049972
32.971767462261454 37.59815523717145 12.94871976139261
32.75134117149686 38.42715312226267 15.128301939724391
33.18522604974444 40.971032992894926 15.461259266749943
35.14872932041183 42.25308993286084 15.48974018283681
30.55344988886095 39.804571516847105 11.823971840155725
32.508070881671316 38.719595093252934 10.608434420269335
24.678147995088658 67.60524178626942 29.06112049236296
25.240259892569316 69.68787316728123 28.58926076139531
26.288891982935205 70.85388810152766 26.38786580370929
26.92669522898169 70.07459891487687 24.523969657162596
33.84905428248975 42.59077216750351 18.28612594624717
30.03399563818228 76.25523015284078 5.870733742973682
32.124040861949254 75.4647565741815 5.15896678475757
33.758566773130745 74.97911667002356 7.534283307670737
32.833738555167116 74.80891942709884 9.795775758463627
59.42249841715387 63.31999801866081 62.07923495771421
