55.6682168252863 8.953062779997527 25.267936784496893
56.279779555430835 6.6153276422507865 25.17641548588745
68.52877634366794 10.907227385956986 37.699743983895225
68.77577679377049 9.6633685070626 39.07423496906298
66.86769864154414 8.130733827925956 40.715331196753205
64.72190452210805 7.650133381004469 40.01934148933636
66.7045575147586 3.7129991338116977 49.903443164033895
66.89555057473034 4.687762710555894 48.13818592035309
65.15899191907216 5.482743031066627 46.604020398749306
63.03785594560756 4.16075387689879 45.647785770200116
76.31177583610932 35.92148170650485 44.08674017668346
74.4995650333725 37.001580939850506 43.53539103860097
73.33251476933576 36.45488672128943 41.126838199318755
74.13506315925645 35.14878615186261 39.40238963383757
68.06612066840772 36.580604488279626 38.768832389363375
69.06046376525946 35.01948178014607 37.357988755326986
54.18508451293695 17.538368256722638 83.87345132304962
70.88683569325022 31.088102930195532 36.701302391385696
69.1761016980261 32.067022890771376 37.32969912540201
56.09317641190973 15.029894553535703 29.662490783584097
55.21407463547816 13.156366945950507 29.11005701462645
56.08682221422507 11.587837060506542 27.82731933113509
58.907368666635605 11.606241963202896 27.108364157798523
0.5414481498848728 3.102000445423585 79.16743614652208
40.79647441333325 25.51630196583112 24.258964657567624
38.79715278983898 24.98591071816794 24.85166598572466
36.77339316141643 26.558317586992267 25.134216280099686
19.252072117329245 17.117765928942102 82.53044427264955
20.082271320446093 17.05174417426212 80.58382871838899
18.69507140442936 18.08559895376148 78.47952470627985
16.485197544224636 18.44272879833601 78.51840046257219
30.077106815425044 21.49650058160795 32.47793675038957
31.762724329989666 22.926263560331815 33.187419976376226
34.40542435677143 22.78964104151653 32.308262282416635
35.53897315083285 21.35026071758252 30.841002521640487
38.12116368598442 21.726980881014633 21.232188325262253
38.44613050905912 22.306875626988468 23.381667334044902
40.28895503996774 22.870800225440938 24.86760500984974
2.9859858373564148 13.047804579548867 55.39347658830002
1.3116134934848849 11.636762036008456 55.53863934298748
2.005415252330318 9.560752969944785 56.50519958692113
2.842678867755657 9.203436494530939 58.96871872137159
47.5004887228868 33.06940706728951 47.13613954396833
47.24003159757734 30.682856125089355 47.19833319757604
48.18101206694367 29.022094200674687 49.08252005371648
49.49420801871861 29.81510234205571 51.48647113763529
48.70306569231366 45.13508425361399 33.02204005541603
53.93136962364379 48.50250209269808 35.58378630971169
51.85923419983662 50.757462977783646 35.60529390314603
20.04773473145297 18.700973729694695 73.87404870791052
21.367107315013165 16.981729536179458 74.23388304628719
21.83522093875553 16.213338427820872 76.69604837901413
21.95997916023179 17.180558413905825 78.65567865857813
14.541052398002645 15.190954399438509 76.28642052974654
16.310443462266655 14.563596010945071 75.0419310144197
18.09864897236092 16.490387531356237 75.2961970227054
17.89784443790522 18.837724149475413 75.7331571829165
69.94294914663986 29.86198967260777 38.92517586406035
71.39970134203682 30.91394260352187 40.37145294935227
71.69323451298281 33.05349516584693 41.255445013580996
70.14710301887753 35.012328687970665 40.80614448268558
20.336965771789195 14.56794529071854 82.05074389953066
20.26554675123064 13.159204370441797 80.35894512715625
21.75026997512227 13.614162582612968 78.18839507298374
23.926113373961932 14.786998575417327 78.11426564861416
11.097869283224263 16.88728559272843 83.46548726582564
12.042469679848963 18.263772734625686 82.11577246315103
13.954872610078441 18.018115936824234 80.0786035729526
14.54547975443574 16.17517602277488 78.96914998424334
37.039855916680374 23.230665780454935 30.07310682012496
37.1853508783931 23.76748743325719 27.75875353273096
37.640762119435955 21.511669369196888 25.960323386560685
38.06464778858053 19.589074599299813 26.398018244797505
21.16213200483552 5.754485473434378 12.535618123650442
22.21923408230601 5.258815540852294 14.542055595152954
24.33711529648716 3.3709535980379135 14.187245123564443
24.380914701060163 1.7169556720655492 12.500883687978943
22.397976746196782 3.7251347034368947 18.08597087284988
24.330961754643763 2.9256104697022605 17.507550043328074
26.27470676216883 4.176744165659174 16.11843083859656
26.742008405293582 6.525442422336561 15.817205229596484
32.365343243395735 34.55465732018381 84.82590405858976
47.48849145665227 47.69073621015017 32.87913086414727
19.413414610285383 24.38296100103633 52.87943975988766
21.2870775937962 23.335052693664935 53.871111311935934
22.44218340970465 24.55990732127537 55.52382836324083
21.761167437041422 26.671632882211696 55.935983514460276
1.4181448241020147 8.474284418329617 80.06428352996184
0.34266509712549803 6.404856343030641 80.91665905252823
1.011469888472693 2.567916486557359 76.37336743429456
30.68355674679643 44.14562779933048 43.808875555044345
30.095479731613693 43.12626201433662 41.520060200542275
27.321616538886843 42.75675582183095 41.725185146823186
16.383127069166015 14.372851385518793 29.326004093897666
14.329203772437134 14.780665854485704 29.00622198654901
12.974140393234839 16.84232624151367 30.283074326021907
13.9266057429466 18.447168892785363 31.651800388975186
7.508334667732947 1.189295139091208 11.174927582753693
4.393497314325657 0.4951182955279719 13.513207725379454
5.3483241037957905 1.272396438679886 16.11157501012955
76.63609649040666 29.44065455758338 44.54297368267557
76.60898481993118 31.948550492622445 45.439943466060825
75.98776121783844 33.360759546810094 43.54800814514107
76.61024002056739 33.31676782992827 41.301422365286946
82.97152065595841 6.891368166187152 73.37028538131767
82.18981256379327 4.975798673011992 72.8734712037469
79.92122614815852 4.218180242959004 72.61702307268622
77.63452167516986 5.114021696262647 74.3285328373732
80.93971438866458 44.30362119700599 72.2825577426327
79.96924396042671 42.952211331107485 73.72646277504721
80.34469414752826 43.84837769883857 76.64616645583912
81.43302515322952 45.63412923988202 77.29647072660146
48.307291057943495 35.26446374818818 84.97080863785351
75.9587282267058 51.652677805347835 79.91938784306737
75.85057145701843 50.57171580658225 78.0300137363062
77.44631771298911 51.87292665293903 75.98620628457256
77.819956267741 53.760754625696734 75.49044407234688
76.05760901442838 42.804218210651065 82.41725941875313
77.92870604969725 43.42683769686151 81.99414290430427
78.4385808546512 44.9101047223566 79.82262997386161
77.86680498323656 44.54428705622138 77.62067643739466
74.71036235697787 44.37129605204838 75.1176686006086
76.25486007325708 45.659403394384825 75.92910607374483
76.48310993245943 48.464717422130505 76.24312755101205
75.35246120146536 50.14950219559551 75.27869559876724
76.66835473567643 41.747315930314315 68.9585056594932
78.48530801347364 41.931149952141006 69.92995537358101
78.14519304649471 44.11529356513498 72.06288556553099
76.41511469034941 43.92033576016181 73.17713930572756
50.60492962749321 38.8338381649014 82.10375422237702
50.30936094480126 37.33253785735084 83.68415257708153
51.77010300899941 35.99342060222968 84.26155846835772
52.61281382880065 33.70236031793494 83.0838647755328
59.118743836214946 37.94437787387238 72.1374311529946
57.3570381781291 39.13579693784608 73.2235916976508
58.16875598702395 40.81992177857574 75.07413670797403
59.8403528177168 42.29456437043096 75.15327284214365
76.80782374415043 55.00567781651336 73.1516648884276
78.51662241843033 53.33071755273179 72.36375737627067
77.33782025975914 50.768146518321394 72.37667734335386
75.26973372182536 50.24606044214169 72.58713738923892
58.39008673124395 34.955755391152856 75.51988365314246
58.10276813173587 37.30702928863461 74.9226795276992
57.26773240480401 38.61914791639456 76.7886597097324
55.45002543885586 38.37680540849288 78.37621662085115
79.49191500210253 50.31892074810269 82.515944077991
80.09859657392224 48.784339096989 81.0500365350493
78.51226761756915 47.75387235042029 79.024701682863
75.7797058596603 48.11275234752027 79.10526850985514
72.96453271033812 17.72228170750293 83.10882490929374
75.79237274716832 20.183346901009923 80.74497601700699
75.63397583268795 22.136399252041453 81.92478253477113
61.91088123104583 37.011460730185995 73.22138125425822
62.20930084170592 37.932794058147934 75.17454857570861
61.272878383656234 37.16177658352948 77.55737635161321
60.431804859178584 35.17363066955407 78.40637213686057
78.12518130102602 28.481049213234733 81.11922841821092
78.47919732133516 27.191372929675396 79.38907025986406
80.60353940624456 26.03553020822324 78.62888855556297
83.1066299831278 26.80317941053845 79.1450522785085
76.09496828282205 24.36539994648076 75.6785558402622
74.20410315708098 24.13896485500573 77.36736838752263
74.00596988019436 21.807949824072857 78.50327189019666
75.21651599693055 19.731532915559356 77.99085437657682
81.86303877047547 15.357553023174951 83.88804890976719
80.71273032168781 16.964090074557962 82.87072730406985
81.63952459530081 18.491042254885482 81.13148818014422
83.99148229121269 19.609640258759594 80.9694211520092
72.23163083632389 25.346223998969474 79.68255879861023
73.83096153059941 26.52425846727591 80.71974243008256
75.96509053590233 27.823390152036442 79.68586505045826
76.89242189358838 27.167156625693476 77.30353054158238
76.28962768767538 49.19142970013766 70.29162652124359
75.75776057932252 47.54216927460132 71.53517836019992
77.73760554157285 46.467435844143274 73.44403135737211
80.18771588630649 47.05117640674858 73.3903698599357
29.658592899260103 54.12153869457405 77.71417102067558
56.6676433985046 57.672789262494135 77.95742587431299
56.41417612062333 59.98148203956589 77.45592248917048
58.33413164005917 61.70828294296916 77.99510712178005
59.99886861165246 61.32797210564377 79.50289381457384
59.271109826733145 61.96880272714542 71.1814167503775
57.83635107342316 60.992911100653245 72.89889865819198
58.85522244248407 60.329271315496385 75.44045709053015
60.82751115431078 60.1376587133072 76.24630051468759
59.17772514560968 56.750655308618775 77.29993163801309
60.16246969383343 58.4327483251568 78.02887694451829
61.459052620460945 58.910010513657056 80.09303995786614
62.938804842224634 57.59251799260752 81.26802343055547
32.59180199160711 54.67958357453129 84.64499028328088
33.398107993016986 56.169653627826506 83.67608098304807
31.94301839167767 57.627725469604066 82.09924183713048
54.46910977592931 62.32622087333501 77.99752200227442
53.924305336894655 61.181273560549236 76.39171786195959
52.498009594934445 61.89090964231158 74.28071114181454
50.735877354010476 63.198151198690475 74.1621534570212
60.68472478167171 40.235980429136575 77.04923689750767
59.57738931936797 39.3677993218587 78.381345278556
57.45616615378407 40.46120332342177 78.96987675498222
56.56166236786526 42.375301903687415 79.25115746592286
32.50427587668472 51.1056632443589 82.68656356765614
30.47933925877629 52.03430358254152 83.99549537132114
28.458360509132206 52.97427551200082 82.27970465496242
27.85158188811662 52.56920753197897 80.35698296155559
54.42696911363402 37.486193741389044 84.49067111966747
54.98129233404325 40.23361624108299 72.69648860456218
55.611631037591835 42.32787619156528 73.65950103770014
55.26122341432173 42.509959941591454 76.43788791096726
54.33687382483336 40.76351772219612 77.72882341797019
51.83902869624586 42.76085139631735 80.23753709516201
51.881186326861595 41.7072378189206 81.95697921138863
53.609104190485766 39.89341601318684 82.42623957953256
56.04012223505077 40.146461983208575 81.41017606447801
51.04018777965585 40.73382331270127 84.25829222136505
77.72442826468139 23.04404265179402 77.79850224631427
77.5746423799349 20.75258845850949 78.6359144461498
79.3222922913517 20.754645465222445 80.9636203047232
81.17751836132962 21.4372560621116 81.11844870328939
75.2487080228387 16.672209827328754 84.16037663448984
77.3430142660615 17.115326762023702 84.12073495801121
78.44010842948028 18.456636272556516 82.47106326401898
79.18118857968537 18.04061271807505 80.07589995218605
84.2635265728632 21.83911229483855 83.9989661961154
83.71423840855985 22.66721679139962 81.5614168620064
83.02503776671193 25.225879207019908 81.3337374402833
76.68483208776607 19.725494579077232 84.51072308531182
77.71560361264851 21.10992970656069 83.46144267937775
80.25913253993323 21.830962221298705 83.60946311255553
81.72065014603781 21.781230420168967 84.85612913730013
80.7859206691611 24.364138097206006 83.35559683834789
80.26863371568356 24.638283900657665 81.475234955511
77.8955782044186 24.771120080444746 80.09112941555051
75.66946275506997 24.520328515566764 81.14353617040615
34.41614501821278 55.9358068018555 77.0839982379519
32.53042761937677 56.97886102102835 78.2921654179472
31.54632158897846 55.468809373648035 80.09235047012527
32.38882758316201 54.124483762019274 81.77877857747129
80.34355253339773 64.58201948579325 69.34341229477513
79.82320588308458 66.46631756964094 69.60372358844882
80.76818802032203 67.70670401083805 71.79178213343198
82.0495852549864 66.60788214729975 73.59792466876108
73.61969428811676 69.87862789968008 73.8817134951674
74.74066540638191 69.08858560714002 72.04504099136955
76.56118752247464 66.88570324761999 71.85233995152183
78.45325476796603 67.76293742941849 73.61868085870412
72.17488655250206 69.76927471219919 68.34566506344154
74.39049430662189 70.1079897903765 69.48901783691365
73.88758242242427 71.69223943513639 71.71514400125946
73.02103213219925 73.21173472425244 71.72567030009915
54.30715274540324 66.73016726776892 70.88653315314536
54.0754140542867 65.89433908838613 73.18930416528478
55.04846588876179 63.136197358095636 73.14594157141819
55.853950761167575 61.965250484462906 71.40386458750064
57.399515633368985 51.57444083321535 57.493765893964465
58.00878743071429 49.215040579430934 57.00749780911502
60.670187822594485 48.812028662153594 55.900990339607304
62.88109157565611 49.95078203181863 56.349622503223316
84.93935478802783 57.33889442420926 53.36102334591927
83.46218029311952 52.14742602568218 48.25537017477481
84.74006593973763 52.92344321965231 50.01806956273014
84.54581200201459 55.54021034979055 50.88604644094821
82.97215712157977 56.75106589063775 51.1701967801796
80.45144204173471 43.194450191710025 79.73322871899832
80.59955080457377 44.59165327660952 81.74826693149139
82.03532273382096 46.72510241524697 81.83556012768486
83.70806883130271 47.39982879745582 80.19243032687096
76.38941484252219 72.40569937901154 71.817326322148
77.79895397276458 70.8162855492499 71.86361523150002
78.4318795508282 68.76032407575188 70.06315359780494
77.75400812719148 68.5292965686563 68.03960830848621
62.630027485813734 56.98133135725905 55.313875287742384
62.290539701988344 54.785938801322516 55.16518532963805
64.0084487914311 53.04579386350786 56.5284086843871
66.30443534497329 53.556729795150424 57.08953510440866
59.7585218584679 59.551538675351075 60.167439980928386
60.46993047056877 58.74642727279858 57.6722074680985
60.78981525228999 56.02922046712505 57.33173504656627
61.79356661605592 54.51665298429435 58.506635682716166
66.198457131878 49.13115594135619 51.61869251055247
66.34270257383875 50.47553636711008 53.52999164795167
67.18493212103414 49.17818690898728 55.8996709821433
67.85354156293538 46.91310649085381 56.15667524711472
58.16779199629048 45.377575938044515 53.91001118427832
59.521910386261055 47.06061093592796 53.39969350416761
58.84721195701196 49.689063206861526 53.22486841817359
56.72466519448587 50.72718016879641 52.87840325184373
82.600500904509 32.035392348351365 62.37307566682374
83.89927459696854 33.667438050338816 62.22402471078465
67.90099018764984 48.62048837569567 58.68619850289361
67.86892666411889 50.48418618962383 59.36240168299803
66.25603920360739 52.426216765550244 59.499989724949344
63.690265257164356 52.48656124463524 59.25229307900697
82.57317333472683 52.88540023337072 79.01410735991212
81.4317427422728 51.92052609686859 80.85297881733864
78.60182578356957 53.0178521001338 80.83034014900639
78.1590255836953 55.299752663147565 79.75159446803491
78.50945350444505 35.0196571789087 47.598390690595984
73.32690300287851 37.370873789161 47.470082869318055
83.07519401527198 35.73543411786565 58.63781850196861
83.95479020339982 36.49213986389291 60.868447576259804
71.23316145830863 29.5594595056296 64.39390050106094
56.385492222303036 76.31748561504493 59.18523142989324
56.79983084704536 78.26941163725809 60.11719120908758
55.5202978600604 78.82266272682095 62.64263872198501
53.87147278397394 77.39451815416143 63.44743004204099
55.79465391313188 84.7000190846681 70.37222604214486
56.35111083231867 84.89858334444088 68.32904636085621
54.92356520173085 83.68460687222071 65.97877422218447
58.252515780276745 76.20101200189345 61.377710261730655
58.493154386248044 75.9547942298044 63.56421057472433
60.72935905589103 75.78602044862615 65.02664244279701
62.35042599509311 74.29647534155316 64.47355827132183
78.09689888119202 73.01850513926617 77.74465878799519
77.10303471483745 70.95995531394655 76.45982842372068
76.31733166343118 71.37632467689596 74.39532631377229
74.46368325150141 72.65232716311979 74.26491790559108
55.74582523348569 84.04299565327162 63.59111249702539
55.59332982385385 81.68449725616986 62.887814206669916
53.547380206388056 80.50503679388201 61.76929935375765
47.17487887943282 70.6420081292268 53.616136041681884
46.22897630985554 68.71467998328778 52.98572432405928
47.34927516955523 67.58764486256841 50.51149650764703
48.72535456032775 69.45287361803608 49.21541973555731
71.62847250707496 72.2372092819688 49.122971682934335
80.74114060434171 68.31566947850911 75.37143787608592
79.31471115696668 69.97630093002999 74.9002428299497
80.43275432821842 70.6921499823315 72.79875355767587
82.71243501959671 71.72076255488655 72.32607660270597
80.10345432149694 63.468244623739544 65.15722211152557
81.57323000123796 64.44768739633516 66.51477255549298
81.38666796913456 67.07165635141195 67.40113196708022
79.76093409366375 68.9412920858706 66.2912004299426
72.96384948716964 66.39795579446157 53.55413450347756
71.8987738522697 67.5506585357714 52.12815406229953
72.5597834388102 69.74953848765543 50.68821077824313
74.74659195874247 70.93967923048665 51.054119453056394
82.75123805185089 63.135501183273 69.46391784397501
83.49707210593574 65.01125101885042 69.93972393247043
84.55310402468837 65.95960435126806 71.93013584871501
75.38345847324275 66.8965885599083 50.9369425383728
76.13362026754785 69.0202451363991 50.05697420189657
56.8671567934352 63.94547606833556 78.22242687772179
56.29942251390643 63.796885158099066 75.75230647107611
58.429150484407316 63.95600071244128 74.02105133625663
60.31153603274236 64.4471912202842 74.32811992256107
59.47899798806126 75.14606598014997 67.49780729806449
58.041850105017296 76.48818441916643 68.17473362590405
56.20167585308863 77.38716470869787 66.25015432154186
55.75476200393174 75.81666731302127 64.3010708475646
76.86297722299584 84.07140486469089 63.18130949626134
78.62205943110568 82.76780018166166 61.53576869723455
83.49849589948256 82.5862793833349 58.23159744386538
81.58153996014744 83.62956652424332 59.12711798494949
79.65588238882222 83.91698870500262 57.92557929378025
77.79089528628056 81.80151558909878 57.29751772459363
47.71326106604876 69.64017108804974 43.89407843168124
48.3721692750692 68.00943447025998 45.77767729546714
49.91663341216304 67.79698834618895 47.60373334542412
59.2458916743775 37.139341356292384 80.12312032869525
57.24614601111147 38.082961162942844 80.43361715486293
54.86171744140611 36.95153171486807 81.17679491633538
54.84308029744945 34.323833290962234 81.42807912413407
42.784578673046106 61.34869746806317 49.44146298588528
44.927068400609734 62.33577408998669 49.87349770078572
47.051269617381024 62.15781852139413 48.043464124924014
46.317286431628375 61.3609040364469 45.43437682184264
62.07154726466152 62.74636487500003 78.06918297086483
63.29900423385502 61.431575216834936 77.14750241586438
64.216920723518 59.330788072115176 78.28623100489857
64.98618533487374 59.083975016268546 80.611266770187
46.3071013926248 68.2725995659995 47.49670559613508
45.88287154763754 66.13100830521022 47.85798462280837
66.57516164225768 70.50646804887062 46.51716261090503
67.98553277064305 70.77952882243414 48.91257278559725
69.04136207061542 72.69654911456156 49.72268525997773
84.16656052107112 67.28125284515893 67.41062938880461
84.84175380268356 68.2288128173428 69.77341213770062
82.71745600449091 69.41882338246276 70.76688763847261
80.78020782230247 70.22392000099543 69.69677429940612
60.48127398919153 45.39457124908106 55.278196165823566
62.00765569467195 46.547896214022096 56.65777389226892
64.24660732967813 47.85195632663247 55.240005650606676
64.19291656595678 47.57492463363485 52.660679448590834
47.076307653716576 71.972035333111 50.77940138225148
46.413232185708665 70.66549113038525 49.226143873777126
48.5071740775684 61.34711434576103 73.83069372476048
50.11495594974845 60.68972132742118 75.27792223599029
52.06123882988756 59.147534329593995 73.974658753484
51.55584906139473 58.135557283002846 71.35088289377238
56.70398231911126 45.715671440872725 56.209465127105105
58.76140741667626 46.829039884417554 56.79761877192699
60.28588101821757 46.667973090701445 58.65353008999434
57.718356159423024 55.88997010143498 74.87031480085444
57.26098051956019 58.365442124963096 75.12456968643919
55.75282251470383 59.976430914963984 74.48769602173235
54.425057331426856 60.28265639772607 72.95719839011785
70.85543256939121 49.98610390384992 55.86449308914009
68.77215660960461 51.087040006189035 56.719455996149236
68.22537229021714 53.1688223525282 55.575134435500765
69.95782569450988 55.120375563982684 54.65767793810497
56.91895213280575 54.03509576133492 55.81869520286817
58.94267979637274 53.906425659853745 56.306412424352445
60.530677354339026 52.79408202341865 54.317339857729486
59.69217405283424 52.50716741764129 52.10848945505271
54.248453212800676 53.19272290145444 56.296918517200076
55.489073429819605 51.56575507717627 55.597352843479776
55.65821581819079 48.86151824896287 55.853982489107004
54.42043553823 47.507572955159496 58.16360774813462
51.643576590972614 61.82144213357029 68.47794563147346
51.60825938158159 61.58534543393616 70.8867533731943
52.02141915555518 64.29651308480331 71.93251032263171
51.47700262815327 66.38196339719367 70.23398577546665
73.11575957137538 65.61157057177739 50.21019159508489
73.92141774796937 66.28782501100929 47.978245581091926
70.27316458775617 69.27312217948038 48.09044602691194
52.203070980644725 79.65793833647022 63.731439355540985
52.959409526055836 81.02582188864739 64.96643756868163
54.30676143388306 80.28960472481435 67.2937830434119
54.254954328493355 77.69266560880206 68.13218398720552
60.84160463616895 84.91472423040511 67.82324133032817
61.807885011269086 83.22579929702506 66.87448198925472
61.93144405171563 81.0456281984115 68.67694826687054
61.472772944315764 81.61267253220963 71.23200378386507
55.324971180336604 82.37609092332288 71.53138029141283
55.919228138630274 81.5554688218108 69.6198158072229
57.07480300177327 79.21115383048065 69.21018520555882
57.63550309002967 77.32564491975613 70.87763411010185
57.10424718238645 83.4722848977032 74.65422433327853
57.78847304818804 81.9596746416626 73.25316272888577
58.51671453638827 82.47509286078738 70.87858730309907
58.715785804602945 84.84916302156206 69.67810030720523
83.25119335306623 32.97522972617385 56.650170728413826
84.8249775654144 32.844481390345855 58.29512938455701
83.92391003663265 29.789178507685346 61.56453185396746
84.43659516752133 39.32982556232219 62.46074156730614
84.13315938447116 37.29434032694906 63.51220559988514
40.57387233270805 61.40932728342885 47.14290429991305
42.52385154936404 62.891675042158646 46.52303323162384
60.59685671958227 76.89913056325535 72.57911409378586
59.997185498911286 78.75752518298452 71.34175228934852
59.88854541954871 79.20653288272749 68.83150312726336
60.44535681896132 77.66248034135587 67.13401848951722
41.02935111237472 64.70700873384118 53.305584891858764
41.55902464532369 63.521963627695406 51.55110255923667
43.23115996870071 64.49807969549744 49.62525898682791
44.60774010726715 66.8359418107967 50.11816734663345
49.205201001808106 68.07294198911198 42.13208636839059
49.9370190228586 66.80103696319043 43.83457609992731
49.49379574388234 64.02191153438257 44.32808584689615
46.903294815534004 64.14688637717619 44.86949482170747
79.4060791613624 51.60325463989387 74.37620878540835
79.57008232906901 49.308987966292584 74.61042428563842
80.24037299170402 47.98957466627372 77.04254720528242
81.59138683580939 48.77862822928426 78.72366660920459
81.29160404037732 83.67429751238681 61.83777337862289
62.32289493308119 48.48994436821274 50.94267081955941
61.57242701233574 49.56976829204446 52.55205929369078
62.84185482189729 51.19840923714461 54.00943990668184
64.88076025595782 52.74611772354369 53.28289465620764
64.38908825663232 69.83970838652138 47.97537325747583
65.4461903341028 69.3440384539393 49.981810728978346
67.56407154828395 67.45617651112492 49.62700025738983
67.60787095285696 65.80217858515256 47.940638821804335
65.62493299799358 67.8103576165239 53.52572600667527
67.55791800644056 67.01083338278927 52.94730517715346
69.50166301396563 68.26196707874618 51.55818597242195
69.96896465709037 70.61066533542356 51.256960363421875
59.61008332096281 78.4580742986058 64.76575922772305
57.556160024233925 78.86588876757271 64.4459771203744
56.20109664503163 80.92754915460068 65.72282945984729
57.15356199474339 82.53239180587236 67.09155552280058
50.73529091952974 65.27451805217821 46.61468271657908
48.98134137334024 63.947469345651264 47.040943927561145
47.62045356612245 64.58034120861498 48.952962859204845
48.57528035559258 65.35761935176689 51.55133014395494
39.43907374747776 61.91202047025264 49.564034153893544
1.0671772641017427 54.755173553239594 70.21144895773682
0.8069168401398861 55.16780476824537 67.9303128556523
0.15944516291506544 53.61080069519024 66.23984548253644
6.853011797097302 68.84354745144121 70.56854391668607
0.2532696612497358 79.78654678600005 51.68223037512932
0.46592677356009987 81.97031555096999 52.45535668071565
10.797039056309933 29.29045327478634 74.1645213974313
11.415504183146872 32.17045437961528 75.12967824309821
11.667179390173667 34.065721683665366 73.8382108883751
13.895080275016259 35.2307481985233 73.1676359009883
16.011305694013714 37.60860749990445 61.59310919299215
17.72732864831118 38.288748368501615 62.661239345228175
14.845790128196105 40.563038001334064 24.667032077328336
13.682541379499643 40.261182858452315 23.15962784044751
10.869053638947063 41.27857486448643 23.292692863113274
10.00434382676737 42.38623379348613 24.84472916147662
12.405822902013117 38.13296266220141 63.56695014118438
13.5226408122469 36.68095603878153 64.75838525066226
15.489646113916272 36.48350134354225 65.82359174512358
17.578876843446263 38.074682443192344 66.27917842258073
24.83156652293762 53.2357427132542 73.82755138288451
9.947503311082862 36.49731402909793 51.718799346279425
8.231279148719855 37.428073312311966 50.638960308972784
6.013289836937338 38.46658230194235 51.763919588951204
5.402406805203351 38.53335502210339 53.9983619674723
1.6990703998569225 42.632946620575375 48.66190344323222
3.0040746429364225 41.66597312110853 46.90150768803365
2.4315760418124697 39.60343552889461 45.89217620522529
0.249246638067746 38.26192899429191 46.20243356732199
2.4485224540859636 31.599457931475897 53.00009079194417
4.496053199031992 32.03796232457038 53.469737525395225
5.289387361898973 34.75878905807464 54.12551304472495
4.058489835251381 36.386577051964004 54.62697518625157
11.687073561083897 58.01883326762905 56.18182053447659
11.666133583306543 56.028229374488184 57.18187656958851
12.039304996976743 56.33687562481193 60.00300110564998
10.87507631883097 58.15520764353712 61.362323869607465
16.983529115519953 37.7524095986053 72.24075848165839
6.97144204230912 50.76596961939323 82.97685364772263
7.203103097182386 48.934648998044935 84.36216557267639
11.260454291811453 36.16129629650809 72.05180383218251
12.014912381512762 35.87684029914428 70.12705840020172
13.63930925410249 37.281341942512135 68.48780116945731
15.465278709592862 38.473032488546394 69.23104702697408
4.953784529384582 29.129015642155583 46.08531445691793
3.1915987186226618 30.519563219707372 46.48324411337107
3.2818120388356977 31.91288736444152 48.935838802055386
4.207914172284605 31.31757850753397 50.91511665573962
14.148367078166881 34.56361832326601 68.23903628755342
15.022449389993886 34.68423643268713 70.80838782419343
11.04445676700696 31.00361263264284 64.77328775581209
11.350773331561141 30.89715349015436 67.32040742220241
11.789216006928733 33.439216246486254 68.13243423632075
12.104896206384929 35.395075632302046 66.37259543938448
0.6085357044328472 43.874997828894344 40.50195861254006
2.6019650088209287 44.30260381590453 42.34104793102708
2.80007566748898 41.853360130229866 43.51695400809083
2.165662268695145 39.775011970468114 43.0844317876044
1.1899786208386494 38.38615625925459 55.31140968589483
2.8144607904375603 38.45514394785317 53.64673453830047
2.362367531873703 38.89069161488962 51.17183325348994
0.5122881126157351 40.032622496843025 50.01496934920411
8.636707463460894 30.038269347579266 72.81501717882101
9.985239468596848 31.819549604909085 72.79131904853685
10.675359313640874 33.469241881431 71.26277441798516
9.475740245592814 34.20495760571052 69.32002285456427
13.364807933981314 61.439617072772606 50.68272035193484
14.920174766339594 60.89043786545344 52.305332709012596
14.064494515883327 59.86488584799448 54.34691206402321
12.392837086185432 60.73596920844689 56.19042601176677
20.67414791185591 49.678805922109895 81.8631529702992
22.384852148157073 49.59942708387052 79.5577660487546
22.39701105482308 52.29648419394171 78.56748397880295
21.33730437224067 54.0864693821024 79.37306270343154
14.77338729397122 56.595044622467206 49.69624895347861
14.89128339237617 58.38460804156404 51.29777598494312
14.843983244146509 57.31777051301075 53.834113963835
13.44594195998798 55.89128211584219 54.93229255980626
20.92890658307774 54.475481433799644 62.37358990181838
18.875168977082275 54.5228783064136 61.008874215928806
19.248662861937127 56.054014668521795 58.65320038649465
21.495183956072882 57.14838348274516 58.14524883816706
17.736773871050865 61.74045064572232 52.39334065577253
16.96578584468986 60.86000380233737 54.592306775139804
17.919623322975028 60.31748303260759 56.72545026177379
20.03148749242573 60.36799796101675 57.655064224891404
1.5547763516954367 56.93757089098306 39.714811873507635
2.174524259793353 58.73655178707478 38.76998755341186
3.1423573732852184 58.74143285024168 36.09297260967994
4.275326486406958 56.57542856997905 34.9949551750671
9.268446478330768 29.97544684326264 50.65367434870715
7.0045637288396225 31.01203883881058 50.28080074113318
7.026841314476675 33.67661803973612 50.79341318659221
8.05276991939166 34.8674660835768 52.492414868853814
5.607208868404872 40.28957058793825 44.242912885599694
4.528204808441721 38.51156565484575 42.51383723392481
4.211245450663087 36.074476942037144 43.68413304586917
4.90543288701894 35.34085155985675 45.951656649538926
5.753348942531539 83.88126616271352 28.052748591429
7.313391930715194 83.2724403267794 29.63834719325974
3.950612783391166 78.05968566629939 50.734233717589156
2.3596942321286978 77.64851523017089 49.81897662203093
0.050510454874245395 76.53296542876471 51.26709630732503
0.20366900910542193 75.72988524097302 53.39390942391355
7.627895343974076 57.74113702160315 30.750987654048185
6.5921343607652805 58.95784121172658 29.286301902301688
3.7834268242941893 59.59760892270817 29.693264331074225
2.323065886672418 58.46935826961514 31.007220141493125
4.1773992401118685 81.86464752303584 46.40857604583651
2.9707043673147053 79.74970428723985 47.37854231225778
2.4041747706277903 80.2863283136845 50.088960822364335
2.858173663593127 81.97023043472198 51.41162576972557
12.70189458592277 36.464217469140195 19.291395498954273
13.713429349132698 37.676322709913364 21.245462225901182
15.576160489192823 39.58544013859653 20.963290621556443
16.877381827654617 40.2662190554747 18.797772711660105
0.251472569380965 59.70364060142813 40.62416680280452
4.591397862512607 62.49971327740019 38.0417447243808
5.3556827370645 60.30280099565239 37.46610061235909
5.369925785605757 59.70855911504589 34.72966098212266
4.689979976288919 61.39880924327559 32.98006101262603
0.36598175319365206 37.264840295675114 49.95303820636742
1.7742726595273006 36.353076503395506 47.95963101239078
4.387174695743926 36.411361869888296 48.61678879262582
5.450112389797381 35.95137338626054 50.597183768239574
10.119778869844223 78.43791966516851 32.44762792257494
9.561786955706086 79.47778897164275 30.559181217375066
7.132757734444097 80.5463585655686 30.33952824338179
5.517235942563305 80.50787869349215 32.27643522648645
6.515887227873141 79.66606560916192 26.365851531533565
5.024059334717954 79.33469101020636 28.813496501039577
4.200201320036858 77.15702755156386 29.470708576366622
2.3939479117412747 79.45584299515974 53.2612551176318
0.1425207647672966 78.23271375884383 54.18318588464689
9.344450289014322 19.43574862450396 30.452585438881393
10.179717033667648 21.374579598339814 28.49769533243717
25.75475890667779 40.967902690249886 33.37865692665039
21.729132263644313 41.54393042937394 38.039047272875465
23.32805551181304 39.988015847793626 38.89993234646793
9.15087865094925 38.97487202407586 22.90991572275985
11.19337871296921 38.542575934502786 22.085748320231847
11.914286709042939 39.08959653132006 19.504608670559307
10.949371267168143 39.762557985799646 17.748989552690638
4.3402217309796525 7.721224310911809 8.981584141395636
0.027660173716235623 5.954488008274208 10.42995163677579
1.93719982156713 6.004977282862123 10.809754755995032
1.167257653300702 9.877875643540875 16.815093878165698
1.8285524671564952 7.47592514240343 17.13417533601025
0.31984896300348314 6.849704485467283 13.277770020959045
2.5486380594192295 32.87034294778538 41.54329651417721
3.340003457234683 32.00925859923765 44.06193976243013
5.99162118357258 32.888452876657354 44.411191089530185
7.7501906976869295 32.67851299646202 43.38968317326733
23.31501339881554 63.329504380068194 40.04527602696232
23.9495874225793 61.218709391054894 39.53692556685323
26.10354266712195 60.89563142391915 37.75063229607619
27.615933154205333 62.20623449008831 36.93128475113659
7.12928993137047 30.79918832912723 45.863315752991525
7.286756255786359 31.22552691076588 47.743728186983745
6.987236581061919 33.7156847376607 48.2443904542636
8.513154454470843 35.7617079011354 47.32643871130915
27.61678895921904 45.08025908884432 38.84325316304282
25.159163674543226 41.461366316841875 37.91583411705591
24.081976274285815 41.217622524317534 36.186385303346384
1.3427959571145662 36.92194498829258 42.387079836488624
1.6635075932449757 36.55394202264652 44.48017896091412
2.058156469361436 34.59972498532494 45.73776230634556
0.9655501767592636 32.12887224787834 45.73404825697176
0.8598766242575692 29.135046017935245 10.43219569281823
0.6768949728320357 31.324202726934672 12.244426841813066
0.14317829233091356 75.7617404785365 56.74300590402786
11.390301462418389 32.79276915065587 62.719013270419815
12.61971742141647 34.91470509436235 62.09502610948326
15.059872886435752 35.26096511410982 63.157201975237236
2.2886007757646296 65.15800575641433 28.108400506512744
2.668587943145561 63.24306874093177 29.154474700048738
4.322557907963737 61.98820646761126 30.476405883181503
6.40209736025151 61.854728119155865 30.61199842132311
18.526349541242205 55.08529736938748 56.47493787270243
16.453445779738207 56.20398247107796 55.70386785758006
14.741645874217204 57.030080634656635 57.74969156822548
14.750441147625768 56.41871196091319 59.861875324888054
1.4807349375815813 60.73715159428335 32.72324219061301
20.612854507473582 67.52658460201617 35.72765931292723
20.603456437982032 65.68028145093561 36.96140960236031
23.07264218683688 64.63637914439084 37.869726424419355
25.144041662511317 65.90106496708349 37.98965230953287
0.7179503691754713 59.00704355931216 34.57221355562879
21.204414532216745 55.71682029243134 54.94345060127511
19.673285315836253 57.329970036150364 55.25210580310011
17.783759721605207 58.43342914996898 54.11213549772529
17.50065422899732 58.91399786789081 52.16552788615863
18.772163315403443 61.75803248712125 61.954033890338806
18.65673870894452 60.692154387316315 60.063040490693766
18.056520336159092 57.99192929748452 59.82313636136256
17.96544229523239 56.76665860312971 62.305822844092326
25.596831246748923 44.22491039580141 45.81716759294721
12.210410230017654 37.227985611875766 16.45818371897402
21.013475411396055 60.164115166455616 37.80746966374762
20.295094194434522 62.09975385815959 37.23510040403614
19.706505286971634 64.05796193196608 39.062257672516104
20.29178878831213 64.04734939992713 41.22537937533172
15.360506952670546 44.052922125796954 28.0583924424883
13.518505097887923 43.4763703293034 26.62786873476997
12.208043282904448 44.76953868011486 25.064832709292254
11.021268080507472 47.065978893749545 25.023213654694974
7.922464358152199 41.51066765144204 23.24210398983176
8.26311081294419 42.18324309641542 21.077706881168954
9.258340991099447 44.98897948617936 20.901770367728204
9.773061569488531 46.36195634546224 22.890170739243576
4.412469540166445 40.573672998611144 51.57872938058776
3.4283536223452407 40.96358949497218 49.83285932582269
4.513118787356536 39.478432559524855 47.55527624195479
7.100844993107719 38.779080271171466 47.63837652741638
1.7480480676655463 63.53544543648689 35.23146174551502
2.1900855020641594 61.29082272100211 36.89159265495218
1.6026070794196345 61.33906195973002 39.24377143486587
24.921399524447757 48.63316800162963 75.67004094202146
23.18182493064718 49.61477507656467 77.07981109506821
21.192876655737976 51.05268572666007 76.12340700101205
20.582999093960087 51.122230079332795 73.5165932818272
6.2091174168824255 84.48941358856199 32.78700744763722
6.639732630397833 82.39728817188981 34.3292945900152
27.403836179383287 58.24638952539245 37.63190577561154
25.86418878772764 57.33393562433611 36.466396626612585
23.187173871589845 57.69200175801862 37.46926840831534
22.71471461204782 58.67845664342637 39.71944525120643
18.169038799099024 66.97758705633882 30.923804941653376
19.504937579545533 67.41525523941006 32.4405299097898
20.782286681212806 65.46476521183016 33.744887442919904
20.17842096511787 63.404500297226086 34.554948147981676
24.552287971900956 59.60219654970842 35.05667804811898
23.327620316202786 61.11573549631733 36.282623916252305
22.843886098654245 63.355815832437166 35.53338112347413
23.205374634706207 64.5796004915693 33.55376717017322
15.825885557885437 60.667523642364785 61.866402095113195
14.086752291212465 59.34748312028544 60.97819097803659
13.965205338384745 59.62346335735135 58.19189434681071
15.402847570509524 61.126348360140035 56.78728356694534
1.3304271751725045 61.97611387446396 27.316464713199277
1.5774276252750372 60.73225499556958 28.69095569836703
5.014666884889472 44.3203300407228 80.49853115774751
5.402303591267403 44.67109171673265 82.6715619315661
3.932259469715613 46.21309534807973 83.8238063941161
1.4474384233056121 46.394057479118004 83.54718710014998
3.688486524754774 82.15698941870251 26.31802312068975
1.9777525295306515 83.13590937927835 26.94641985470607
30.90300628910393 57.65720030811064 31.07236575245289
30.93044304733099 59.87881761226961 31.911783845509895
28.721645321719933 60.52348616919744 33.52175196391456
27.621783773005617 58.792301838359684 34.83600566201808
20.049065424058874 53.71002307736763 77.03002852078765
21.65813390496722 54.01074053171923 74.89315614017674
32.68125014274733 63.798867428710835 34.07095748309386
31.016740133127367 65.26709179239143 35.48821837520629
30.021795421735927 62.90877873562656 34.95552530335968
30.04122520280458 60.927902273990455 36.29907971336252
2.7445999781444086 80.93087616111475 28.541896593364402
4.201352173541375 81.98282909202885 29.988173678656327
4.494885344487367 84.12238165435392 30.872165742885056
10.207873377455494 47.56555540744309 19.7634535753982
12.148992151235117 47.43678837955751 19.84340649175591
13.742423051079454 47.65357542190137 21.776561348497815
13.369443521610403 48.80256565266349 24.12497667904476
7.993239021079703 42.189530652346185 18.170573247610953
10.072455252583529 42.18155227003046 16.85346738990339
9.051290987537593 56.52010369305431 84.32873339871315
8.341360298905364 53.85493979259993 84.20962838853443
6.399611595547718 52.92769151193371 84.54993076521151
2.49282705796586 19.665888000966213 10.808814014329196
3.13664029993113 20.72345198734346 9.018167160423987
25.7349511443692 44.38449290990338 42.93182231760264
27.206186952429643 66.66109952309397 31.494167424649767
27.62082995949112 66.62195035757 33.91702697453292
26.68398242663587 64.48461250939613 35.020630963061656
27.148113525480323 62.50249820798518 34.389102707320696
29.509722815373756 69.6265353116154 35.05331529874893
29.90393440790895 67.60241417521664 35.21648224536074
28.726132697624486 65.79899615239106 36.73723561779143
27.584026313309387 66.14557498291606 39.08485211385531
21.94489328857108 68.61548030966769 33.59280100391172
23.234444568746603 66.99238657051299 34.50381606482306
25.710518213546184 67.424148075015 35.573924499774236
26.551756132382238 69.86072456971748 35.58629155173729
14.563838744548907 43.102484606602026 23.47825852181628
13.230151367957736 44.75827329987176 22.612354391590582
12.254050448189624 44.249085623131144 20.15982506935903
12.43274460333426 41.99029605399802 19.040227483219702
3.9862588400355214 27.921913486343485 11.545582633477606
2.9245706943293084 27.52507824227775 9.896499856310816
1.6163208960338522 25.37966682146445 9.334564520322939
1.862914940762041 23.02991331071 9.580373011014732
7.639412842543378 45.95532929944718 84.23128024981857
6.27298527148083 43.80874635434081 84.99016564282543
9.437747321911218 80.50954104609036 34.15969441197963
9.410635651435737 83.01743698112942 35.05666419536488
8.789412049342996 84.42964603531708 33.164728874445125
9.411890852071938 84.38565431843524 30.918143094591002
0.8194840938075029 51.1910496125469 80.37781329354894
0.7062513918718695 49.77325148701113 81.70479776992894
2.987893590955995 48.83032732410561 83.47990869070802
5.089075552203668 48.72186623602663 82.86958881406044
15.773171487462974 57.96025465469413 62.98700611062173
14.99146339529783 56.04468516151896 62.49019193305095
12.722876979663083 55.28706673146598 62.23374380199028
10.436172506674424 56.18290818476963 63.94525356667726
30.906009771467986 79.69822244548037 75.25022057423567
32.98993512711598 79.0006649528571 74.52406064878535
33.418056751110996 77.00558129021381 72.64496582611558
32.465592725537725 75.27407197902384 72.20115203781276
5.766183541842677 68.7911681960099 72.7255456385978
8.594023578672877 71.2522333895169 70.36169674631105
8.43562666419251 73.20528574054843 71.54150326407519
10.926832132530574 79.5499357017417 70.73594914751497
11.280848152839711 78.26025941818237 69.0057909891681
13.405190237749114 77.10441669673021 68.24560928486702
15.908280814632368 77.87206589904542 68.76177300781256
8.896619114326615 75.43428643498774 65.29527656956625
7.005753988585536 75.20785134351271 66.9840891168267
6.807620711698913 72.87683631257983 68.11999261950072
8.018166828435099 70.80041940406633 67.60757510588088
14.664689601980026 66.42643951168193 73.50476963907124
13.514381153192371 68.03297656306495 72.48744803337391
14.441175426805364 69.55992874339246 70.74820890944827
16.793133122717244 70.67852674726657 70.58614188131327
40.408490729200956 71.17237752393505 68.43509238490093
38.45702710074837 70.38738683091812 68.88273730963469
36.2399705357602 72.01133052234948 69.07271364582856
35.80270574374001 74.11120855009888 68.53710391447
23.16363625499095 80.7879450760901 48.42473031841614
21.94008703703096 82.24890196426244 49.40125277138282
20.040311220975536 81.74023797889036 51.299355051946925
19.15876182579534 79.6966690457633 51.87562164107964
5.0332816678284376 76.41511048747645 69.29927952791428
6.632612362103974 77.59314495578289 70.33646315938662
8.766741367406887 78.89227664054341 69.30258577976232
9.694072725092939 78.23604311420046 66.92025127088642
27.806429129745958 57.310519061198974 74.48507741255212
28.425594774932108 58.32317684067837 76.31857058514954
29.69048992416237 56.369986388331355 78.1325072207597
23.634003678005232 54.878952862092866 80.62635374756103
23.90819173584121 57.28900268476156 80.19778618749915
26.806097357645225 58.08672787665295 79.96924346520889
28.56769171412059 56.74005530919299 80.47888389749119
29.692323520459137 58.279836783580365 82.1823738330691
26.273320988215595 54.760045128759714 74.95866054012653
26.511110692348716 54.79324734142297 77.69435774210709
25.371828652443632 53.429593039600675 79.19592754345338
37.88287880070299 80.25257146191339 71.39833703538491
37.22379836006029 78.01988163313399 72.28278973643005
35.46236243035841 78.39994074128981 74.55264567926093
35.318015559405744 80.09504776140878 76.03537734378014
36.32078016419059 82.45478182092451 70.9963068641755
34.89224072851628 81.92786285266216 72.76055000547346
32.340149256302404 80.65100978160893 72.06358468902835
31.77435203475507 80.2141810478972 70.07152596994388
32.86327647009706 72.78049839219943 69.0746495231747
31.456582301252215 74.30041065070188 70.07678344434866
32.02111948040153 76.67109884398826 69.85233424673854
32.63999407015098 78.02600480060967 68.2358970131803
34.520166372415666 69.20741760142191 70.65462542432827
35.84382668534727 70.83238620594311 71.50539894998192
35.548238997555885 72.94872805998983 71.97657543520826
34.13109818049004 74.25067532499943 74.07905609983706
10.526079096185942 74.11292914030099 67.41522297561832
10.376293211439465 71.82147494701647 68.25263517545386
12.123943122856252 71.82353195372941 70.58034103402724
13.97916919283418 72.50614255061858 70.73516943259345
8.050358854343253 67.74109631583573 73.7770973637939
10.14466509756605 68.18421325053068 73.73745568731526
11.241759260984832 69.5255227610635 72.08778399332304
11.982839411189927 69.10949920658203 69.69262068149011
17.087332740720857 74.26017867137111 75.42185223629933
17.065177404367756 72.90799878334553 73.61568692541947
16.515889240064407 73.7361032799066 71.17813759131046
15.826688598216483 76.29476569552689 70.95045816958736
38.89201117403024 65.21257301415676 66.83994707110953
39.90864126550156 66.83030130986039 68.29905070557646
38.4157068933858 68.03750953810203 70.22139113622099
36.59633361050019 67.70293853005457 71.18591376026896
9.486482919270626 70.79438106758421 74.12744381461587
10.51725444415307 72.17881619506767 73.0781634086818
13.06078337143779 72.89984870980568 73.2261838418596
14.522300977542361 72.85011690867594 74.47284986660418
22.823207286139112 57.836381705882786 73.90870778886001
24.84038268018378 57.39833776331969 74.38318013429648
25.630331798143946 58.58044644370322 76.43619681551655
25.131264596639554 61.20242560152367 77.06666175808058
13.587571500665659 75.43302458571299 72.97231756765196
13.07028454718812 75.70717038916465 71.09195568481505
10.697229035923158 75.84000656895172 69.70785014485456
8.471113586574536 75.58921500407374 70.7602568997102
27.768626286465413 61.67066104899241 77.7637151972352
28.206981153485 59.89454320439854 78.49237725023555
30.468335817649958 58.87882868035082 79.08252016115858
32.315816268450256 59.49458807393942 80.09713494844026
15.402151736013556 83.10427883685834 51.9897963961278
16.700925428473095 84.73632453884579 51.8407454400887
20.362165095417115 83.05432548665166 53.59110030653103
26.10624615499475 78.13792757993198 57.632286676267725
27.263180800666834 78.46528601901554 55.61237459169862
26.06291134368176 77.26182820199223 53.44816776215741
25.190516761424373 75.12110570180485 53.35631958339841
27.419913353922816 75.21904686925494 51.32617331598947
