42.77309949727797 39.74104077994814 39.70450306614416
43.084688712180046 40.60731215673741 37.57039286768287
45.58279139310956 40.82211429657571 36.14412321446056
33.99827166973091 57.38858932807469 50.066884432602535
32.99043683270447 58.63620473810447 48.70860518894633
34.24865716338063 59.95543805504282 46.93731056224666
36.425034308188074 61.051955749312285 46.78600560247376
30.81236627948741 56.54379926395639 45.78953505662666
33.34829610613171 56.98059759801845 46.6416317479216
51.57569837407482 24.525241797263035 54.340136940042676
49.99482654104089 24.761790389021154 56.02679422994093
50.72568447166367 26.193584392986605 58.38400156985355
52.35707730624384 26.71742119373416 59.18163413082888
65.80711903073687 10.03503004985017 52.301413649157176
64.76552814146672 7.546908213174452 51.35428880497967
65.35085604924342 6.658816411262485 49.65190923664084
46.58979993787258 30.055773545505005 53.09575201474242
48.372858255570556 29.00001506876646 53.386882052912625
49.24531191937964 27.256555324420155 55.459284201542424
48.372366098311346 26.504189130229257 57.17904730270337
57.488349231859225 4.14179343349864 50.05415982820711
59.23175752157413 5.434633932923271 50.38621724889161
60.697553170473924 7.203005837314339 48.36106180704797
60.38838653643696 7.644734780421254 46.45115971594955
51.9434058538406 30.1041481464366 60.57338591812333
51.01669135690991 29.02685189035482 58.38469104345562
62.20264660068134 6.326557527271556 43.89297696392354
62.798153412693814 5.851130263677998 45.83534770895045
64.02400091955417 6.948595352879264 47.41909314192372
66.02367793810416 8.390463675397305 47.2642554285911
56.32811686935851 10.148734949593365 57.672352698420724
57.484714782624835 10.033931497970546 55.999732429083835
60.01582285200793 10.102156150450357 55.73792275584449
61.69426705538111 11.149412560799727 57.70824670890298
72.06090467745643 22.16842140369006 61.774200186884
71.74664811078546 29.490974921929652 61.0292587419807
73.4878446890326 28.440059857657886 60.83653390486086
74.37186953844726 26.447345002834556 62.56651284041416
70.61041911979773 23.985161000292095 59.85635611458176
72.54663006064582 24.96791982563948 60.70898576748847
74.37617366881116 26.299319388017018 59.41493160334684
74.33077354300102 27.2164656074582 57.2891944150821
49.800274722579445 22.30846787138335 59.66747092577938
62.38916965806707 9.264983621908527 47.67552576437609
63.85691343336183 9.198084024432605 49.38159061032055
62.96433060793916 10.075161743389884 51.991470145521724
60.83592083786144 11.017704230172145 52.49808625889279
64.10128734734103 39.123838925686705 44.633330990262
62.76888835446526 37.069825883005365 46.32652384484159
61.53748349045473 37.661073669659494 48.59346222663309
49.5758164087717 12.874846903616927 41.02741481180866
49.31357518933903 14.283078751339001 39.383194042083566
47.585602441836194 14.311842807260543 37.42091995010359
45.48271537852132 12.117000213926845 37.261252799247366
53.382928369112705 34.317769542107264 56.75812329893357
52.4012127600415 32.84069589748449 55.25456827476369
52.38890864825349 30.515422951683753 56.441577022944294
54.33943418761105 28.97620384732502 57.112956567300735
34.692226634947296 12.816718604956472 49.05734420665342
55.246422460338366 32.42460530877541 61.82123025991895
54.58356646472638 31.412548806422677 59.84836974428591
54.03921847737745 28.672776197179047 59.97596692819575
54.75919398090324 27.217265013734 62.00359708977804
52.55491401076873 26.64310195886817 52.991460587721996
52.194313211175306 27.994267084565177 54.745940028732306
50.544081842103566 30.164360010297127 54.419873679085036
50.78152803436019 31.938446875361507 53.0140233530553
50.786489450424725 34.65438523533428 57.52844900490504
48.903391186539025 33.559304345835876 58.22027795800368
47.58907546043107 31.998539405634524 56.48509729079428
47.62764447219434 32.221540932510514 53.981621011114186
46.045277378515685 25.109315978412923 56.296049362781275
37.82510485479463 34.978031278348276 33.471802209040455
37.07412147916708 35.57722158246601 35.53009905982951
38.92556836360686 34.725854224680255 37.56849076542597
40.339027267033764 33.17740044021581 37.58077965385975
37.24707166384903 3.8530166405846558 38.39028010991572
36.87408388460665 2.261168443862216 40.241421376604904
38.77546801010903 1.198786012322458 41.72477680696301
41.330481700133724 1.6827501016326898 41.63905813747411
51.75103116431698 33.026874383344655 59.496897685489486
54.14745688236374 33.958089730050474 59.31186053613514
39.045981544327695 30.56333423671894 38.803956446194334
37.90778562704737 32.363608419359 38.72451411568261
37.82570704115175 34.19239967440528 41.08974972493324
39.02091107180858 33.73239180812731 43.26968337175766
33.34065138811401 56.24308702472715 41.67220126585219
32.2787647410877 56.81139902455617 43.62412741545021
32.905341815271164 59.178114830536096 44.71166017654558
34.95728451376381 60.46329589838268 44.18413333085938
37.41968153636069 35.69318622911308 44.84358188906486
38.008018707900554 37.01293974001834 43.28683801281774
40.49546424194726 38.004990221164924 42.531951427121804
42.55690319643944 37.035383605694136 43.57703271377569
43.14496873087984 39.168445789203425 35.11805006231745
40.478734575743026 37.991019104312976 35.072273925013754
38.608999652970816 40.20500289922331 34.66677018224657
39.132890761189614 42.57164246915573 34.11684656894408
24.452900039642795 1.3142527017889423 84.80502338597093
26.35298932312154 0.26637419460763956 83.96526371321242
19.944716399665296 0.7632959295524437 81.68871939836889
21.078868767861042 2.916225239311698 80.8499645504176
41.491467033233356 24.400388150522296 72.77570789466081
36.19716916514389 41.694177853558614 33.38568825172392
35.47937234289046 41.84716878299308 35.49534703904822
36.429950356783074 43.796647270882026 37.24667836780102
37.294857094551375 45.917376191329865 36.95300926606244
6.639152999263029 3.5159226399151553 79.69394452585398
74.17876666910621 21.935432647766444 59.792048739926834
72.51141978909989 22.47811129674561 57.64689110511295
0.3683449052599076 5.568597036409357 79.4577122880359
0.4017584458133603 7.549597579274493 78.54146704856281
11.357102117998306 13.81185732716584 76.0897719233362
9.044521836478957 11.057632667638966 76.71087688949558
25.4351937742286 4.477037287703085 80.79184889198287
24.333414325733028 3.325483881250755 82.89988302225035
21.887905667853982 4.228888228666175 83.81591025915816
1.4968240188009099 12.429148294644044 78.7136369136009
0.8629529595001211 10.157806560217013 79.08822258893846
2.1703933083113416 8.534174373910963 80.76594096679794
3.996705849980205 8.758868089154078 81.67654374965477
10.12924188952475 36.54609576073364 66.48121704953536
26.34424481747542 24.337096100863057 84.63753097041645
28.27946866382274 24.964114759399255 83.97443943024243
19.764832332732546 26.78076534553832 81.6671836536861
20.291348772791483 26.4043424538399 83.730251958921
20.63450129326116 24.035657497187593 84.24355781433155
19.101146710269965 21.893809623705653 84.00004337454735
10.446783128648898 9.209906949717402 79.45888710791614
8.581864721861566 9.779062598074686 79.54431489544365
6.491903099037043 8.23142605354573 80.04603484435576
6.1579082897786845 6.736156352178072 81.99088290508574
14.388249143265314 32.33765555448603 70.93014895468811
13.138987744380916 32.8137145890527 69.32541777083657
11.691036937337786 30.62359296035339 71.62523171711572
11.040879196124642 30.607749590081735 69.50327978116165
9.570721068407213 32.524952054132946 68.26246279234947
8.177225006012087 34.23460814946986 69.48665739598309
11.369393501125485 37.51506145685339 73.05972795787612
9.656183088564472 35.73299848845067 73.8306861057874
10.830925717686126 33.20121385061246 73.35194793662296
13.485697655030178 32.6725803289298 73.28268020842656
26.92716467693535 2.694066757555443 83.59580440265438
28.7650515385916 3.4614600758777336 81.91444996595497
28.632572885292962 36.60888216565921 75.36602059368637
36.62273324337496 21.176289322160947 73.8429285447987
9.028963278998683 13.774439426489513 77.49059815291514
8.428070542606598 12.635307043299054 79.20583823242198
6.218301403939727 11.211927909495476 79.2629279212259
4.218395074013355 11.443134967960818 77.38180326163581
63.631297081297475 23.44382278992928 73.94443743669368
14.9348878316596 30.370100823874726 75.58443048596087
16.336366447152916 30.542512518736437 73.87419325255327
15.2734066811408 29.798011278757812 71.40277164342054
13.273641521848441 28.54826070986301 71.02042270327436
8.309135673684438 38.76372432537848 70.23240712470519
9.786611425084432 36.23292300697555 70.74886550616198
11.438634668819882 35.4966843761349 69.13197266999676
28.105306167837234 17.93332826271836 20.319623418214412
25.798512184055962 18.507619776262846 20.695481362282333
26.64929120825991 15.019627699632911 30.662059468900253
26.85084157838605 17.399300674609933 29.59689838820915
25.999933636586967 17.51732171611299 27.034864156506657
25.830746635754984 15.899044547263298 25.332423493372502
42.62125783745724 6.468163600224226 84.28145957052305
44.84903851187567 8.03976329009998 83.25858984206148
63.650390553796285 23.095596288174363 78.0401966870326
45.46549149001279 43.505963608173936 34.93705072880651
44.40228651890648 45.33841648694825 34.59052619209445
42.039368227697125 45.59513721553825 32.867863446211366
42.36339094036179 45.10103584382154 30.857513308882552
43.71990886568968 1.501850936262218 30.404484332006927
41.46911004816807 0.7377835827563939 30.320218482092116
40.003701306654314 1.236457863520249 32.47930903565219
40.217565546417596 3.3367552528987408 33.846727156919684
58.821025575575185 7.522054099118472 54.83238225325676
59.74039125400345 6.749340838994774 53.377775698743676
62.55901430359385 7.592887781194932 53.02573497229069
30.157465262538246 19.75597657239775 30.530731419831227
29.39602541353817 21.940455434023292 30.554439455707037
26.836450970084073 21.983647611524827 29.759788154096178
25.797703563925666 21.063647053640196 28.04941274444119
43.9278134583518 19.061094788744004 41.273170624683935
45.91165470030335 19.69102860420806 39.987752664099865
46.8737509292545 17.758315841577343 38.21725253152629
45.644850728121355 15.910474734544612 37.250864986516774
65.6559375003878 33.78066551360564 46.15608539189813
64.61388890602798 36.38197259425281 49.54623597554625
65.12626102866273 36.42575551396946 47.335366412542406
66.22429597571545 38.29402496110816 46.107313182074556
49.43180228172868 28.605990987096302 51.13155723404636
50.83089600970609 26.253541035486155 50.856425588763805
50.05636774157023 24.56505494695975 52.15007155717205
47.63358613311179 24.96940142807221 53.89870605147534
55.31354318955023 5.487226784740082 52.32152239487771
54.4355882243779 7.587310798703839 52.5141553185649
54.997363333254114 8.824901980636742 54.70225688767453
54.06402605653689 7.312246263494949 56.77234240831088
63.89777396972016 9.920307258232533 56.22387689998443
62.59797424169941 11.748221884116791 54.754183033554845
63.74987936766003 12.854493123410228 52.59120225640692
62.61634195697661 5.779676293270823 50.06885754323441
61.556021623222605 4.712698228657638 51.614609327175764
56.2543756140838 10.636198028985609 53.386396867752424
58.54191685778573 9.962131623307334 52.79002113616982
58.56713931208855 7.693341312491386 51.38774293249855
56.643161647936196 6.803374471177426 50.1415885934421
43.64482070350964 23.507838927975893 74.86550126929544
41.80245609761639 23.200317554159003 75.19593555025912
40.26802903959354 21.207348820817938 73.87179035751379
5.737013251190068 41.54778050718244 84.40567276206829
4.556261663838542 43.27786447935984 84.49559530910538
38.96506875552969 0.04428350870672956 44.54690834067426
25.05832838066178 24.598511695977813 82.34451880361168
23.11087459193307 24.62436619819451 83.20067465472476
22.611379679486877 22.34805855783351 84.66126133862757
23.62187563080852 20.440514673357455 84.90350041491745
24.382039060490737 16.55985026342902 32.08164618994566
25.006139653682453 20.876206624077533 31.647820772978058
27.432004778216324 21.10455176864024 32.57762412919308
36.32247179044153 17.638224290216616 50.379247233018816
36.071588714614144 16.49438281560331 48.776398383933355
33.47800115584627 15.614553196515718 48.199230780372496
25.785103547710733 17.534066446884495 23.315795251350213
48.94603411779992 18.970306939012357 40.354479212149435
49.03083465811395 19.10312393469473 37.84164702321646
50.630469256007814 16.673780548714966 36.95444560662588
52.58546484167367 16.472867840598095 37.63115865087125
44.03921758527145 19.16628007057636 30.732690225341806
44.874150232932124 20.08586474922298 32.426049196656706
44.31138171872869 18.882534151037888 34.85448285876334
43.11284444618361 16.67046913896223 35.07246645114012
44.45220663992673 44.071870885036425 37.588852397347914
42.56008342841988 43.08270781356118 38.21027451873032
40.3884683406402 43.631545565679 36.265822069843296
40.032925006486046 45.60254017024406 34.99502890998395
50.68614760754702 13.294162773763986 37.247337200790646
50.35808211556617 11.93117697032691 38.51104886646385
41.97006127328823 33.16553248620387 39.780153011854125
42.006356831722904 35.29770581109368 41.53980832184088
41.33630939701138 37.419452442270206 40.269079702314016
41.40567873432596 37.97420111801173 37.72763236444617
50.21452181447554 14.239445759819006 34.57407354472163
48.233151028757796 15.686435939888016 35.17952704376278
46.04415332664232 15.932845515628962 34.44269958242004
40.124875651526146 40.66588964227894 43.13151311675503
40.9813297897561 41.137229730692354 41.03583809359192
39.885619304133996 42.18630564667695 39.045474485377945
38.7083701734226 44.29426556034533 38.7194776056033
37.608626892761684 39.61716480087422 31.6657598488782
37.70741664036198 38.09813135252579 33.328614964913235
35.578398248768366 37.72362954894079 35.04476408830046
33.381773035736416 39.18761774145656 34.89288407543403
46.859677375975814 18.04417575530731 32.4981793000353
47.174228655249884 18.391017218535787 34.884688371654846
24.149989178366564 14.04134082069645 28.93438853203482
24.469283600448435 13.149016498330159 30.77947887942271
38.810596787177694 1.9953140820090893 36.443588761923
6.939040085120328 37.77482297114019 67.31870161191145
7.728629533768213 35.8497273199173 67.3205818710572
36.16131832942738 36.15548395380368 38.07692443639462
37.99699666593808 37.10108993822989 39.70808616853399
39.18076131098584 39.3815515539862 38.69810796745215
38.292504649851736 41.07793133974858 37.10520510857394
50.49764647584693 28.82621007738881 84.80398746879536
51.0591721888744 28.977846292247687 82.02473575588952
50.452581268619184 31.562041944167483 81.21902775187279
49.226123231990776 33.403587768165394 82.37479717957449
7.263733814472959 43.96189095186584 84.95840858411984
33.09392461779502 30.77485353837979 57.51621055919938
31.4642540542588 31.289852003166413 55.946597021575776
29.297068387559705 33.00868253374135 56.89297872494654
29.100817171501944 34.1743189568652 58.64581724820824
31.887464592890623 29.981109052009877 51.72135238471947
31.673431052440225 29.1197340458407 54.001636070580055
28.982762453128757 29.234514342214194 54.85696689927823
26.88248851054492 30.148574585361935 53.55916537789427
58.49251588966199 5.078879102890671 74.32175580387717
59.08803509056588 6.826785130779133 73.57247617145177
60.54128199592563 6.949863170022743 70.97023745770582
60.57996888415777 5.013540709139308 69.6741798829225
29.85962626988598 33.4700677753702 47.91501572715432
30.765053916203247 32.99065917099581 50.73247720941182
32.853627110686446 33.006544513256785 51.38643734306172
34.6078692115858 33.06301534858523 53.79556345566568
35.572289647719806 31.875586480124166 52.118555467341196
35.162658883070364 29.237266397120642 52.35592240227899
34.16534563833075 28.006941274339074 54.58884493139961
23.022767010206696 31.511104057364697 51.650327120464475
24.100448608837812 33.51704234661776 51.854345141246306
26.3972148154423 34.610801907754535 51.36241664143046
27.83304544692562 34.147585820231576 49.90803989542249
27.09953481460045 31.957852023997933 58.74213927055018
27.468524009715207 30.92210948759479 56.56864022407594
26.89201379835316 32.710558452237734 54.28507911334636
25.372183448633184 34.77148652761491 54.53002240591406
60.769940452294136 4.043539465595971 74.76485496787171
62.47273480205396 4.50672589476425 73.67354870755426
64.69918375142271 4.817905319379102 74.8716194900533
65.5356624602262 3.997078016235759 76.99036920794089
68.32991883032268 7.471286869625688 79.09427338719746
66.53185482080134 6.186852182770576 78.19939728972709
64.345509593981 6.3949805249052725 77.86873764752434
62.34089552841496 7.07141063815278 78.93545712380687
59.92989610694039 4.904809329890444 66.39873167151744
55.71704831836716 6.6235492711749915 77.82178917816607
57.82906665548054 5.679935912528309 76.88794345633231
60.16898647764334 6.237489956974636 76.97722999040393
61.450427491952226 8.550116927248531 77.11865110995721
69.29164505097818 7.957056582345185 73.15624102348308
42.224736736263075 45.43738240395 63.315098215721605
41.08405586878317 46.30014953243733 61.66904991260978
41.96522486973421 48.17966055563296 60.60066531774143
65.29374966443173 5.195915044867662 70.78370610344687
62.849955054808454 4.534985108065999 71.05492020319525
43.45935647868933 42.90465083952435 59.66715155150786
43.679817546318816 45.14114346419304 60.7474059264263
44.18258655961863 47.009904467132316 59.112803729081946
18.943176689991816 52.151124859314585 59.50751643837501
24.161490453561832 53.46800227519687 58.041380013396505
20.99851572366274 35.42689539346487 48.829587736887994
23.438599208554617 35.131333876736136 47.876361358715
25.350183221504732 36.31283320353796 49.69225567070839
24.879490862125476 38.08731590482735 51.484022039897866
28.01999194195114 35.62824937130497 56.16268383851293
27.942105911989245 35.91116373600277 53.87761676179153
29.383927974954805 33.74456224667451 54.11658792275191
31.786848022749137 33.46975665828075 53.67878754527807
43.25084364893806 40.59550178977053 64.31589314655616
44.19332663275902 42.84172913080244 64.53577065732993
45.74705826444498 43.63957008777822 61.989981737397706
46.89886616210502 42.309871302646684 60.70722500570225
29.839652402311774 36.44280869551748 48.671631914488344
28.429915500662815 36.634995583632985 51.00594041970184
27.551253621516 38.228444600814555 52.24142989742513
28.59856965807182 36.50501240637484 46.203195257207184
27.060929585313314 35.97173319014851 47.770538326902056
25.81982319347938 33.649463564248315 47.612055929326644
25.93965565117372 32.19803880827558 45.70169976753469
67.38816663207578 4.011948331578536 72.46654316965193
66.95223508353932 5.8513887326939376 74.4137563466419
68.32409376549217 6.439917885444801 76.27906663058249
65.35012987837356 8.008539775390455 75.79220760003611
63.41551434790615 7.550285877019365 75.57021203988205
62.16477444808599 7.037453252335499 73.4379111345557
63.34122429464515 7.293426220147532 71.09832201017463
25.91354143227903 51.40640977355452 54.969184800846115
24.768568647293815 50.46208995073921 56.88416862703195
25.850389607849646 50.561455645704015 59.25170381755257
28.16264520844533 51.43566294487631 59.87797211090773
22.27364958063249 53.71687701698412 54.79533985103595
24.024441496925323 52.86549632890841 53.577233700748735
18.74797031656471 53.65228582088901 56.570332742514246
27.286857870473117 54.00112530624505 56.56862748555135
25.256237970764243 54.24329595479605 55.68194941647697
23.79987185252747 55.95106655727704 56.855534575897636
24.090117355555755 58.41224015326972 57.34030461827219
23.346672596926815 36.44763052768144 53.32608985822306
22.134761830133137 35.42183189014141 51.64595255450702
20.671853122466498 32.94027302456454 52.44282033160736
21.278618967102073 31.997879468533274 54.87019125092996
49.052944377595644 44.15191085421295 60.593015245853806
27.420193972927812 47.058896745821016 60.14121965037682
43.160084595450314 3.6773482283499663 59.32304916212098
42.41928640144837 3.2680351424063074 61.38042987993817
41.98492090846415 0.9190446399961125 62.239960658510576
50.525958819231874 1.686585166768243 59.96728426265268
48.780141850722565 0.6135592757093714 59.85046919772656
45.56317891672793 4.55506620330243 59.94515494188201
46.88438127056459 2.7619667426656185 60.09428752548703
45.83770260186641 0.8392272441892922 61.77194909790005
44.4129419348936 0.8893433845800356 63.58379900166407
45.21794403972992 1.3254163968454118 58.59296383199819
45.32367438122995 3.911101769905054 57.34172627251142
52.55776919426172 2.773233445640052 62.023780584267755
1.2676988964530156 5.917701767065096 28.115384518229835
58.01106156028312 33.847586845855744 74.41269614627505
10.213932537525586 18.255790818110754 46.22372443953046
10.402122924469328 20.484605357600394 46.66099609757165
10.233353655460585 21.43928299842013 44.370368758416085
8.640905726587699 20.69653779325843 42.59353147415549
22.37792887766264 16.294096948505423 54.51897797624348
22.012674677489777 14.756500150011895 56.02927657820133
21.668983794903372 12.319770705684606 55.030345883151426
20.527065391146685 11.580650884017672 53.29466756973084
27.35831063751269 1.325963690198356 59.41251886170674
26.004770376470038 3.1558232416399763 58.42853739511508
26.3875862151161 5.614010255084017 59.06146582160611
27.488783402575887 6.730413418317814 60.63646452760777
19.868016267060053 12.798841470430178 57.42956938395744
20.372445435231004 10.457115334243865 56.714862723732935
20.66278352873551 8.826320730509847 58.66084718206065
19.937542421223352 8.608476707760653 61.01210676858684
16.557369878994734 22.697209037729266 39.01712454764596
15.689316698731576 22.06770740838143 41.002482190917135
14.523866900430118 19.816689271545084 40.72325995306798
12.70225190464497 19.150651486478175 39.89333401474911
11.912830027263555 16.354353464357406 39.416454244144006
12.47717801288317 17.54432767420445 37.611372388486
14.830080826455708 17.746363681733406 36.389167463832266
21.41553636354557 8.319092892619803 63.663974274380365
22.68261992486582 8.742786464452138 62.20565124710628
25.13272469828785 8.0716393656008 61.53465643287634
27.231976048168953 7.768246040866803 63.03811671969906
9.85962809140429 17.882142795678696 35.46180964296515
11.947858731339391 18.378750167328683 35.06305555762301
13.23748389453699 20.568275604443638 35.66238019545934
12.026475378036272 22.520244890125163 36.81299753354067
18.453795857808707 2.1654133534947504 38.297785148610856
17.2223909937982 2.756661140148882 40.56472353040237
8.03628163605659 14.729451098104564 43.47474168638295
8.700037258670891 16.68180066951918 43.78452362819291
9.79324370632304 18.472091638400496 41.938432916222254
9.800514391315497 18.440213589153764 39.57751761902769
50.09852873719559 42.58064031597403 65.38595112987662
49.83628751776291 43.988872163696094 63.741730360151514
1.3119530748651205 16.9578380817472 56.057097278277375
0.44476484837599606 17.01397989586519 59.82204163123614
17.406042060700738 15.360130708041098 43.385193139687345
15.874662476810515 16.414864240008086 41.613777519412615
13.757436476286049 16.96691453809543 41.32729737244866
11.64718160080288 17.3253021488484 43.33350931877649
15.263707205351983 23.464008913438672 43.95360802737862
13.567540144136611 23.102712980492665 42.65763617528752
12.382943157516964 20.511940411311436 42.80167704721984
12.463055926705932 19.237867166224742 44.87130303801732
9.332269145755854 23.839111293331403 43.28977784059434
10.823893120388343 24.165532493629648 41.68077639994671
10.503889796364964 22.546117953354063 39.26699234623872
9.142746560969758 21.037159510314787 38.81422552236145
26.742119893632985 0.22470094246779734 81.55717422969573
22.35935154251969 3.3943859299702037 78.53400563973489
40.34141697848626 23.050456674132455 71.55473125588124
38.154450265568165 22.418476452857455 71.17981851173921
36.10634035500734 23.43258455455914 70.76054070713568
48.307841709505944 0.4055308034950221 62.38053664109915
36.775448871464924 16.49949400801993 62.43276669785269
35.53904599717308 16.35436775302314 64.37698446192634
36.84428383260916 18.096726339743203 66.45354453753039
38.98002730475347 18.657432516604235 66.32599393815188
26.633745675942514 20.825858116968508 71.67358672897909
28.701294905786767 21.31272187590282 72.00520809325924
30.54244666779908 19.502133779491384 70.79505910872442
30.394728057131204 17.421024536687653 70.17021168536954
35.010592477646775 15.573072928518762 67.54394639466881
35.35984609058582 16.84322628809236 68.74619149192947
34.3390400065928 17.955603322267237 70.90070605199458
32.615933969591914 17.14661771621444 71.82927418060555
43.57203532705531 19.92953853684009 65.7117088520597
42.30750784657989 19.468490240321554 67.2658580893017
42.57095629284663 19.91690769860408 69.76624442202287
44.74186613465715 20.487983267963433 71.12924287160912
27.91772982946565 15.818705319286847 65.92521016888495
29.125598513523357 16.1183500578835 68.01319923125878
31.502464533324993 15.504917204012791 67.9339705321734
33.10420516767175 14.915207438047842 65.61575751763927
58.896645457688024 19.038935858804873 74.5359150906025
60.16248958295567 18.01589494587308 75.44425230936324
4.77004357883184 2.3202435888338306 78.34197780665758
3.3333500054282883 4.2523392032327845 77.54611319065823
2.9843442905728144 6.530635061154005 78.07800746254507
9.758786164750049 12.62396870580455 75.37552675263629
9.757810239953015 8.375133282038181 76.9831795273968
24.022443967251654 5.444408954335622 79.45400811131081
10.672243152839394 34.447590589418304 66.83097411845931
11.217857305243133 32.368293811021104 65.30773444074713
11.432234451393384 32.09936289728145 63.210056648451534
24.555493446508624 4.104592999732693 77.24901523507863
25.350277221004532 2.4069946851081268 78.70197273297316
27.76475611788648 1.7658712068491478 79.43128956701118
29.74717946298729 2.762910428591324 79.05745990043178
31.47367904793729 1.0952451546239428 77.53711268043463
31.40836883625385 0.2310576855677695 79.3522726931625
20.01700437590943 6.337784836899821 62.727549380187135
22.434974066745937 5.524249571158118 63.10168061422493
23.971891443945356 5.73314826442283 60.853074369653406
23.80128624593129 5.30969357439942 59.01702967161067
13.14687148423741 32.26145697740869 67.05292882904573
14.17427460367064 33.13962563841753 65.3046673104621
28.049023423098074 7.842281439572003 55.570191762794806
27.05747212493031 7.4610834006524485 57.340986843306816
27.187646465008008 9.333163965407234 59.39039577478206
29.09976493802561 11.13486055788774 59.13870313521079
16.926784689723224 27.087272211010774 70.13733492178041
17.81878330523393 28.04231282737452 68.26151562613596
15.977971976200452 29.524591836285726 66.67553475058065
13.338003910179594 29.398488883204397 67.64285722171972
30.282732893953096 1.5392693730884772 81.25411880013448
42.01854213014917 22.133706697140916 66.57955521884676
40.782824656060356 24.322576694092707 67.23294614262025
38.44766756923286 24.19266362215708 68.24168304060271
37.2760322344211 21.563121424256433 68.75893149610792
12.686121087630987 30.35664225893884 59.500086874848165
13.488563230014398 31.49322316219677 60.628309858598946
13.88453338294107 31.05639323133869 63.40137256426112
14.407091043386808 28.813678213104005 64.557994439539
27.815087067781693 11.060293774741519 55.665397440404014
27.25182495709971 12.209520478675206 57.45957099665228
25.549789457892516 14.444854430940225 57.442346938815454
24.660974862644405 15.499590625925908 55.966550540741125
45.40287452610238 23.07150708411702 72.3166698749231
43.422064498622184 22.98334651120433 71.339624292865
42.4590223058098 22.916492335695775 69.12609353980172
44.5346810963528 22.449713810994417 67.09304851524985
25.734097488911807 9.022303302226792 54.45958064745059
24.143033949026314 10.623607712447035 55.04213436199304
23.279060692233877 10.31244829981503 57.62471234089457
23.350068671615997 8.423312183354664 58.7748164238261
34.27931921128415 21.66534243028504 69.3314278536372
33.105315694575175 19.819272973433904 69.47959729593225
33.57881635251679 18.222546616530675 67.26510639798494
34.60133103477307 19.041280198556436 65.18587392419683
38.258465687373445 18.83280940038332 73.80803897691956
36.74135864009211 18.5910716676489 72.20976678868597
37.2604384630063 18.61112700446551 69.66766317720457
39.96695842717425 18.685358259466124 68.7712804431264
34.6809617814012 21.867722790941322 72.68112191714522
32.1802094689571 20.466928964373896 72.69174608630713
31.73821123906739 18.63181862046574 73.77953945426889
22.957725639812118 14.610881103697412 58.55902334793873
22.08139701823365 12.625865274026776 58.761124312276735
23.69070240572619 10.61706451206783 60.29292274237511
25.71027951879157 10.699385470339521 60.91855414636023
9.266522372274883 1.874749609246349 76.15630331651542
8.1014115072935 2.683068606187628 77.64219583490086
8.437839170332602 5.083424801428125 78.17367745081643
10.703535739939097 6.446711349956744 78.59364450901687
4.83515062568037 9.931123256269192 74.86281312544936
6.368822272175005 9.925481020713683 76.19505240846875
7.145829723254375 7.44355571352586 77.04231110776738
7.04313778468139 5.3944005062532465 75.87827591611969
4.247077468426667 4.441495188218015 71.62856473780252
2.981511075476442 3.5332554057461203 73.45089397981596
2.0354700747880616 5.42478314108072 75.38223167388377
2.6695838479987715 7.996792757293638 75.21323204182632
19.841748463285782 15.43688885335636 41.33093035504745
18.708267037901827 16.63618161203677 39.95063778321646
57.950455464241884 21.19577503371213 72.02527350710596
58.52100013431128 19.258915770466814 71.30871099521075
61.03843337186237 18.324328544871044 71.82616913487118
63.10059911647832 19.363517938082204 71.19648781464089
63.225932324189756 23.522202776943836 71.36006345046933
0.4066157102702407 19.82949844598094 60.617239997602724
59.009033445216296 16.445396653885577 73.43481447510295
56.757661052449166 16.91061274607962 72.50473273151938
8.990294735907838 28.925341212096654 58.6498140999479
10.172610459688286 29.87288755916115 60.24095158811364
8.74022031657657 31.42198021817786 62.15665887458113
6.570963080284223 31.292591201849646 62.5879731765715
1.0745506755409029 1.6731507459524446 74.21693133461942
0.752470100354158 3.3968080123906557 78.10380897455576
1.9679621184536478 1.2003095044571157 79.01440411882547
10.858276859572353 32.27507367367956 59.29070066216021
9.121305942218887 31.948902183207014 57.38345333992103
6.7823374781506205 33.0896905732805 58.60084014198669
6.877210966914084 34.68440319608648 60.29046494043648
58.98822346766196 16.580713802973616 70.58599828202478
61.24747573605695 16.45739043587361 69.82130700074643
1.1503989933562333 8.601551078663327 26.908312032575783
0.08719402224991535 10.434003957437643 26.56178749586373
47.396463257678384 47.46410925393443 62.57578884959423
19.948203031248305 17.28531557456886 43.5506626829388
18.217573115152337 18.06444060497522 42.12172866509869
17.40615046392541 20.029527025413618 40.75956513706212
18.81843462408597 22.220513837179404 40.350110665481914
20.298796409371423 1.477560064742196 41.517497279315535
41.257111065330676 19.33657479089905 72.50474753198984
36.84518411886544 47.344017702573716 74.73778355108675
0.13711414327017404 9.167458355525804 29.56011370111719
6.270858753903626 3.478907144330295 73.4591966370877
6.547380553718788 2.9131419709878354 75.49406529923807
4.097352454640937 2.1618144046423238 75.4666258428361
3.170754873900354 0.019914400389057042 75.18020550810952
8.083778281668808 34.19894344246581 65.37070238232471
6.579415208411924 33.882097176263564 63.134425142657264
7.299931800298038 31.889007614561553 67.05879430443515
7.62224760061076 31.282047258787816 64.99883034647503
9.803349384331874 30.275427179796647 64.58716103350434
11.276385401056697 28.783518585814488 65.94285875306504
42.16542277049594 3.2464755683552293 81.81284209275036
44.3536095403507 3.451259945464283 82.14210690881613
44.05814954525443 0.6021356719144343 82.52713267509884
45.403969744945336 1.3053529455409645 83.79531998531263
42.585200216823715 4.195791503584938 84.39009169560981
41.16101749275243 0.8796165828934622 82.68090233687268
22.250058343786804 55.89060524720082 79.07447666210898
20.386812231057498 59.16020367598881 76.22776235212622
54.18059951071599 50.65656277036442 44.265188987679295
40.540092319864854 63.22731642093206 40.535085284379285
54.62991939505299 48.613144116164264 47.63018888841311
57.259657288956234 48.17830386437631 46.64957432412531
78.28355696678062 15.379736268629474 83.48827941959428
75.76653296228463 19.40249346156142 79.63580065387391
78.07231070100576 16.59577157088453 79.31534078651916
47.57878072423565 36.57846133474202 79.42475515449549
14.84553741442421 59.175244330732276 75.2067696234833
13.862454450826965 60.8089787912623 76.85573264711006
25.972002037515455 57.5530150857479 63.93059029109779
24.572866073275517 57.007404759784194 62.41151982613797
24.329586459463833 58.16153521862884 60.127002910880336
25.4941595992738 59.761895732600735 59.33277979782294
20.178410501453424 53.64413583613235 60.60213118607746
22.524771045925654 54.59868668750447 59.13733581939421
24.90849495484045 42.36067703522285 79.26157968281487
26.66648481281461 43.9607337581081 80.10705311830051
26.292851708247586 46.71023541368537 80.03242301938029
24.400540598938893 47.52158723214686 81.07701957349947
26.86958498153754 52.78083876617182 65.26768602589847
26.86060721631554 55.04553881517888 64.4766882990137
26.522987344942536 55.39684824029241 61.74377421250945
25.593172887652983 53.99166355403472 60.28945350405213
30.047993806072153 53.53199408574486 64.9463238676407
29.43501942057047 55.62643169294336 63.60371226745674
36.809535283742846 44.571221441102 76.68127724425615
34.92814198397295 45.640996147436255 77.38700678712708
33.140665042622224 44.8701072971357 76.4817866257249
32.09185812819346 45.34881482916409 74.57112820856891
33.31256950228169 43.548833286061935 82.20105029557106
33.0725839025361 44.129789937615 80.11479432252914
34.66986439345266 43.26425436037888 78.5298564554068
37.27608791520982 43.01514786665397 78.75528299212539
29.040412442475454 38.39638192359877 76.8477120540954
27.809562606164143 39.923655675483865 77.17480614949844
27.379018636303886 40.54947296665785 79.15413961359586
23.173845236609825 44.78653577390474 76.3926968919488
25.359357260352827 43.93050061256585 76.80837339390905
26.296907063951995 41.744070987328676 75.7470227661317
25.788737337236704 40.44605824994536 73.8691309616696
29.08910086857952 57.93458439551619 61.77919838627221
27.898595201161598 57.01712284516031 59.65935761794211
28.15162277140797 54.39242282184273 59.74535739940292
30.26263571795534 53.235495110828154 61.302778820754874
19.391605983207583 55.95269305857857 59.517649601003
21.503748880675868 57.76128992665497 60.645624161432444
22.175909383785168 55.890274820939524 61.99429842664456
8.647992791356957 39.83118019421429 68.52517756223683
15.465775086999416 59.13370713583992 78.79919279476518
31.74201192191967 46.64755028636407 78.26498612304434
29.191751341993747 46.39988312983428 79.25840345725112
27.949985814061236 44.7164238044575 77.58483903028754
28.160607935530372 44.378691269100536 75.0680055687647
32.920572476912966 40.88015721805858 78.60450496506732
30.962595736569117 40.66818489529518 77.56931747397913
29.20329928844127 42.475252900152775 78.49715963918993
29.48915199972043 43.77504292345521 80.52975248857898
31.414574150458805 42.53483745542268 74.10629005109938
29.513158563705844 42.099848570896626 74.47314638295943
28.20658099957023 39.71962219101669 74.32951776195168
28.38112228516231 38.02268919172869 73.02959114085357
37.82475903414187 40.412455607705795 73.46481541506478
37.823376677365225 41.650037205844306 75.35628177199142
35.589656198060595 42.48915456539132 76.17025191090258
33.11670046907811 41.54547357797476 75.7926449507576
28.990186075525262 50.9120769820792 64.392504260643
26.977334925649348 50.274615869578575 63.743203937401894
26.14673688980183 49.014523498606835 61.66376903386213
80.06982135432791 13.484335163146616 61.85478250388737
78.648258522429 14.493768983115347 60.55762253958294
76.16176288006436 13.26343195989818 60.05257678435211
75.73526607351677 10.611131890356829 60.20618209616454
81.52885774323715 4.331270969755477 57.45646765798047
78.88259966965869 7.65677639219707 61.10175118367433
66.90496986354692 12.129248147302803 61.723796359321135
68.31491044695025 11.859062519333833 63.71025910098612
71.00704915236592 12.322986997569917 63.63859877767111
72.13096486785065 13.528990603421583 61.87949209166937
74.81091203661246 12.399640229327636 66.11413505634127
73.98532309781592 12.38657661033068 63.83956542906364
74.94481898066948 14.427984799115208 62.02332177390614
76.25790953653198 16.36026328250032 62.37507951128753
76.83736716611212 8.610001850872456 64.22462306559514
75.51591766359287 9.713524316164285 62.525152628635325
73.71516132548236 8.478960069419976 61.40352794859137
79.38196024267309 20.25912472501091 64.68473893768146
77.94789318771801 18.31056306824565 64.71942074488672
78.88770087571349 15.815911567738882 64.63917341011565
81.19797949923138 15.261925322126523 64.26910671166235
74.58195403762826 17.531750802804147 60.28358277224505
72.61364207624169 17.068999104542844 61.04607987393738
70.57412592839431 15.899717762702936 60.40645683493307
70.29125732615302 14.68368730655444 58.061742828171354
77.72400239281215 13.023714497242121 65.96888509638595
78.0578919690186 11.724135089783603 64.00111286426348
79.05867486307709 9.79610482763764 63.36387472520381
80.37746399553343 7.907191525511702 64.32218208599004
71.5966107027001 9.383969202523417 63.688309345955396
74.06306494641996 9.883798408539638 64.67061076698222
76.30907617535429 10.48144040578448 56.36959818026544
75.29262615087163 9.277838404397349 58.01731758772618
73.3544411790802 10.439366741642374 59.33820454547979
72.54417940572091 12.858761401731734 58.49603248637614
81.55323800531747 4.205449823556017 59.98829260265526
80.36108273720754 5.64355171571602 61.71307896407404
31.245605349813623 52.50159668593633 41.2334173673748
30.623318490188925 54.21410712920899 41.61191060133224
29.5707457683499 54.993947395580726 44.04310775891568
28.28003061166246 54.24987531945437 45.550148566374695
81.99703586635668 0.745906418216017 76.56068511810848
81.3527380898155 0.6258903265672958 78.43250092707251
81.95400610329281 2.3538315258269757 80.27539829087182
82.32786546330398 4.50534300694686 80.30389152960521
84.0713649232211 1.3010330241191146 75.2830403362249
14.187811254229626 0.7237391904355668 18.61323023655055
12.027755222346457 0.29004289930388005 18.559091450800338
10.284523798051135 2.1136316451481907 18.498865273926107
10.804588376910159 4.884237818444051 19.14747944545409
9.41223733440569 9.45890835561508 22.712869088796815
10.451945126035394 9.433409420428381 20.91696663327161
9.655801830198826 8.070266676158532 18.49815390972672
7.8748153910712375 7.4227568416566125 17.838872260561608
11.035294754830616 0.15324092662001068 15.210562747161106
9.027828224193026 0.9186900644578841 14.584212797924252
6.928749515296031 0.6897053791696333 16.616098447411954
38.310149123893424 63.19505941406047 42.80702954363806
6.128248252330512 10.023893935056625 16.966569181024617
5.4869867319795365 7.967747915031497 16.40934065118631
5.7212494992129805 7.156053101157812 13.75670308377626
6.400849413884357 8.461355425072316 11.97894517551396
1.8639746532103743 0.1605243946407393 14.97497506865257
3.8795174393362157 0.6886002926233601 15.79447848090982
8.451414496226645 6.762095973387224 13.383189365549926
8.077798842430326 6.295615627317877 15.615139185799475
9.649091060485686 4.037942355180514 16.910664066428634
11.162588206390213 2.7323079854835175 15.74463945483241
56.35305787583046 46.00965065787571 50.645040028092005
3.0413622644091123 2.967890226528561 13.69155065453092
4.409565383965334 4.557325180777599 13.322194159409234
6.573322150434426 4.408923206992881 14.238317923418869
7.157203532723796 3.2561734893915415 16.855109786201066
23.532982683569582 17.139583362824528 20.996007790185796
22.702457330533214 15.60710249171483 19.828501472133684
22.950233527654316 27.14151838313913 34.16202334954815
22.383341199396536 25.622153088551784 32.165598064982845
23.551476774004787 23.45896302787969 32.272495936595625
25.40470323235863 22.81447982410966 33.95945727838741
19.426541698305 17.529504087985618 21.42532484038954
19.73090068520617 18.041857001786507 23.65484171800232
22.06290564758998 16.919491577968188 25.006634638108824
23.215907227562553 14.996297238829834 24.715122692676957
20.26349940568775 20.814378297794377 34.77426503549429
21.958443602770643 21.346919446628583 33.407791338948435
21.67873684833753 21.82881126306094 30.812673142453388
19.79353024532018 22.519118954889805 29.465131747531196
21.923814740798083 17.621274285504246 17.24868904056301
21.43781728463096 17.879587329391246 19.383872842421237
22.5341513771311 19.592560517487954 21.187567400741987
24.51753255970099 20.82689433794769 20.534168501896456
78.10442155134156 6.64299798239859 63.38279213188843
5.007410504007299 2.0550229044452197 11.980205466094358
7.1680248815069225 2.602098671786695 11.925472207891751
8.068193483231356 5.0375254956212325 11.274896611321653
7.395876405135622 6.768023250885042 10.108162528823653
69.84989742827926 9.600621642662185 65.27118394287882
75.13596205652087 9.056581569349573 66.62958772267851
5.7628891158170035 14.231973590943548 23.57204557618924
6.562312624824901 11.698313529817797 24.064602607513585
6.728145913365374 10.266440427565428 21.675531594364312
7.331014134092461 11.103204500206582 19.5983747563142
63.178532450640645 0.1845149145672109 53.08774382248974
60.09623171083007 0.07783549044950633 52.488522264351246
19.817963038989937 20.126968982483607 21.43176147356264
21.187975917607233 20.187869348440994 23.4729472124624
20.75470758944428 21.384032030216733 25.677876334167724
18.873001250073756 20.96272620665231 26.87543536548347
23.472541933846802 18.892615388184872 31.855469577162737
21.731492068557383 15.988887663214372 27.59147815772938
23.019210399554954 16.750083756561658 29.26988684917925
23.968612684796987 19.207342225843007 28.88865315098881
23.05800861254806 20.957510348133937 27.565070689866484
25.10423688870949 22.51310910384992 25.74146794438539
23.43268755865739 21.28346890779557 24.591763482117376
23.79263553041829 18.63071747765068 23.4790165567865
22.359762080337706 23.672303121623205 25.52864833990622
21.98999577721655 23.218039348159763 27.68632728424622
23.484935229144945 23.648173816910898 29.650790958721906
25.841309785279584 24.78657881425648 29.809302311282536
17.9269035656728 0.5474857400125908 34.61760683486849
21.415334302339648 11.479612070816081 26.773427424323454
22.787977085729555 13.53355554435009 26.682627600671275
19.183822770484863 2.014395600879689 38.162395134933256
20.466477910755696 76.13401754870725 20.846154066485738
20.74468984579203 78.26055612559743 21.763192258574318
21.000423652501443 80.54336552210209 20.575829318383942
23.031079389507944 81.01838154528818 20.766692689860815
32.60636686853837 63.228291763280076 48.211264027911746
11.417710903216614 65.29928234076986 17.35148176799336
10.376120013946453 62.811160504094154 16.404356923815854
10.96144792172315 61.923068702182185 14.701977355477025
3.0989411043389685 59.40604572441834 15.104227947043299
4.8423493940538735 60.69888622384297 15.436285367727798
6.3081450429536705 62.467258128234036 13.411129925884154
5.998978408916705 62.90898707134095 11.501227834785738
7.813238473161081 61.590809818191254 8.943045082759724
8.408745285173556 61.115382554597694 10.885415827786636
9.63459279203391 62.212847643798966 12.469161260759899
11.6342698105839 63.654715966317006 12.314323547427284
1.9387087418382511 65.41298724051306 22.72242081725691
3.095306655104573 65.29818378889024 21.04980054792002
5.626414724487675 65.36640844137006 20.787990874680677
7.30485892786085 66.41366485171943 22.75831482773917
17.671496549936172 77.43267369460976 26.82426830572019
17.357239983265206 84.75522721284935 26.079326860816884
19.098436561512333 83.70431214857759 25.88660202369704
19.982461410926998 81.71159729375425 27.61658095925035
16.22101099227746 79.2494132912118 24.90642423341794
18.157221933125566 80.23217211655918 25.759053886324654
19.98676554129091 81.56357167893671 24.46499972218302
19.941365415480764 82.4807178983779 22.339262533918287
7.999761530546811 64.52923591282823 12.725593883212277
9.467505305841573 64.4623363153523 14.431658729156737
8.574922480418902 65.33941403430958 17.04153826435791
6.446512710341173 66.28195652109184 17.548154377728977
0.36978585338298187 82.48151730465369 27.053665208614227
32.32042844840669 61.32657477666554 39.15803906224241
31.91300586366228 60.692083543773954 41.156047489646774
19.78935854158595 77.19968493868615 24.842116858763017
18.122011661579624 77.74236358766531 22.696959223949133
9.241888953777213 78.70807508084899 38.99450555552986
9.260982426276026 78.35984857909406 43.090264805868784
4.431617448054926 62.78630639003817 19.882450372092944
5.350983126483191 62.01359312991447 18.427843817579866
8.169606176073584 62.85714007211463 18.075803091126875
0.924135062029977 60.75147907565978 17.371590513713894
0.0461800968576404 62.85156308962354 17.56422343740109
0.607955205733856 64.08915427155644 19.752325006510716
9.508365842199904 65.18455954915224 21.27394501882062
8.208566114179156 67.01247417503649 19.80425115239103
9.360471240139766 68.11874541432992 17.641270375243106
8.226933829456357 61.04392858419052 15.118925662070593
7.166613495702349 59.976950519577336 16.66467744601195
1.8649674865635408 65.9004503199053 18.43646498658861
4.152508730265472 65.22638391422703 17.840089255006003
4.177731184568294 62.957593603411084 16.437811051334734
2.2537535204159385 62.06762676209713 15.19165671227829
4.103107762141729 60.34313139381037 39.37182392271335
4.69862696304562 62.091037421698836 38.622544290287955
6.151873868405367 62.214115460942445 36.020305576542
6.190560756637513 60.277793000059006 34.724248001758696
6.380532324773877 59.30779175651567 39.81492308670791
8.0833266745337 59.77097818568395 38.72361682639044
10.309775623902457 60.0821576102988 39.9216876088895
11.146254332705952 59.26133030715546 42.04043732677707
3.552406095285801 38.21070074887836 49.11978228207859
4.486690822997214 39.84428398793184 49.932068913719206
3.434069888833608 41.432177616350245 51.623182688743306
1.5378416721465769 40.854307823819845 53.52136701523904
13.940510702802426 62.735539160545386 44.14434150603365
12.142446693281089 61.45110447369027 43.249465408563275
9.956101466460753 61.65923281582497 42.91880576636052
7.951487400894704 62.33566292907248 43.985525242643064
5.5404879794201305 60.16906162081014 31.448799790353625
1.6045328829878782 45.31083681685188 43.1298874379988
0.6850921747224287 44.73072061205626 45.25080206545859
1.1384969558907898 41.943248075021174 45.94927127143648
0.9007273366423102 40.01741224749619 44.690411257574816
0.3360394944138074 42.61573601607714 54.87619405263872
1.7233243495949926 45.258485062464295 52.1722279171286
4.079600707221625 45.579725089693724 52.35174207262701
2.2475475353133834 37.58035844138613 44.252102480043355
3.0825690271773434 39.275568847470595 43.33207615521206
4.2344385803704645 40.95464713259026 45.353750699042656
5.4551640891578135 40.323398010735204 47.20928141289084
6.027759894343933 42.87504164254995 45.12145586104312
4.994516266847747 44.75679074024602 45.42327435361012
3.172746551532004 44.6762188673221 47.068023477006186
3.176186509082893 44.36266031248676 49.49818373285074
1.3276401908469027 61.887801562094694 42.87185729700226
3.4396585279602796 60.94418820344801 41.93801157516849
5.779578350123081 61.501742247894335 42.027298109240114
7.0610193644319645 63.81436921816823 42.1687192287934
14.90223692345791 63.22130887326488 38.20630914231926
10.904341536911478 60.46016733578736 35.833774222283054
8.460546927288195 59.799237398985696 36.10498832203143
22.258889137836157 56.81153271211746 54.48279494462639
