5.5218744620803335 25.16952572452672 47.843493149411785
4.625284917515537 28.311866311762156 51.43855950484796
3.858187576633599 26.524445214022876 51.68335078229859
11.680253920717917 49.7671910336774 43.067753821015444
11.848688668135427 52.05800076040932 43.17183283010803
12.339507617097702 48.03077803346406 37.71923664630662
6.479004992941261 16.116853032114964 34.49107452612136
5.283549380184905 15.060837291690314 32.65530333686349
6.862954891116139 14.291006385129704 30.736643256634338
8.786780216416357 12.684238562328517 30.675386613884104
30.635434352369796 9.739271293864313 44.31768915231173
33.11261314792653 5.07575534602199 45.88435742784079
40.53250323125145 1.9284344956798884 62.94749891120913
40.956209258986995 3.9863970309843633 63.90020008744423
29.126159703657468 22.583308397601623 47.5089214468535
8.30528780832143 19.327374263423483 42.53752089669883
5.274443346025388 15.002221572453823 44.170331318635185
8.177220237701054 11.424723264225792 37.4388600887845
9.896944664077822 9.818663472064106 38.635869248671064
7.916620426713833 13.367006376623577 41.017526462370796
10.518703768812859 8.95388710123044 35.580691292543214
12.34897858490026 11.727061103562908 32.82511752057845
10.375916554524792 12.918127328409884 38.239633727231144
9.328173145476493 6.716577709040063 32.690131971638465
12.746777342549906 9.349206481859104 31.22676954779411
28.924924776954477 9.892416282262705 42.16294002180873
29.674152653348184 12.194556990471568 43.29234452674508
12.771320072032276 5.740005126690829 54.09414559006975
14.267268094995055 4.997098250738413 54.665234705273704
15.11474455431075 4.601031938731985 56.97168180730246
13.983682292717766 4.5677957734059955 58.91516009899455
22.154673705052577 36.652234150043505 42.935537408095506
21.208865392578062 36.242759711422025 45.892931668133556
21.7517555386605 34.18061726434309 44.89140726835919
22.3307049784797 31.978007179192016 46.94241503419544
21.864630100227053 32.120720818724614 49.033452908680594
32.46343602439276 22.830445691522517 69.02262930126824
34.570525684953324 21.248759204944882 69.20700761739187
23.103887913903222 33.402735697665754 42.55624781118271
24.71719879334643 33.76459826008592 44.87547490639314
24.33778050104519 30.817691464924515 45.13721639539465
25.69889989090305 29.307211910579372 45.70079744144446
35.284742211699985 9.082761023530662 47.897399035572555
13.909831155096098 10.282746949527157 62.547909487962514
13.20045048291107 9.383801630582052 60.64647400490988
14.61641568772278 7.256701030766197 59.74395405073946
16.7486705918181 7.047970719783927 59.645140145949114
8.465152605108655 11.056346004123071 58.42655585835365
9.937995423247026 10.030215675090899 59.51744158134515
10.86828940348251 7.825726242413849 59.117588349479675
9.852039894545678 5.791031204895467 57.604050799823675
10.663756459474845 8.787767592874307 62.437404492589685
10.208394940213156 6.751864904422187 61.72508989907809
12.233019890837483 4.921660222683413 61.474306473878585
14.108667291569366 4.611137622809033 62.89001258928655
19.66897316503632 4.414696470915347 55.39458413963395
17.971280155262075 5.045146632070178 56.782952943979446
16.22998255762555 7.385123146434223 56.386921555646744
16.52046298407114 8.919090733513245 54.38738054473336
39.29103175956035 0.2450530625120545 58.91927834252195
43.17824622238928 1.0921713287734969 62.141781168884144
8.684457902431246 3.3028440825976624 57.51346802593311
9.69001373509256 3.332439661277817 59.26394144365012
8.785356739286383 4.392378416421478 61.534129193389205
6.328467403942209 4.854748748918223 62.13520990958972
50.75161268267858 1.580763344309802 64.72735209403383
37.728091927159745 19.875268666861075 66.07858410291716
36.281989899667835 20.586408189695916 67.22389683876303
34.16866675248063 22.15757585932322 66.36161002418348
34.0371242691573 22.950635209119035 63.93922059724491
51.33174529866325 5.840668000536031 65.77500563348289
49.991251203137125 4.299856059274748 66.08561289116984
48.78844974230603 3.3224867102373667 68.008708359531
49.076742442502436 3.733892762812209 70.49187509657551
30.27434511713041 14.637942985816426 63.426078008044904
30.434192322181936 16.325021310979075 62.079624109986625
28.862154828340827 18.19194621058483 62.56554155154162
26.5865262727895 18.035140610451908 63.368751754366336
24.469147814987085 17.835724847692106 64.99436321658686
25.1445021189687 18.715526730317023 67.06942020575836
25.91730165265317 21.0012533881818 67.47607294373957
25.96753917793457 22.648638752709836 65.79511124306924
3.5678593941365717 28.89259332998872 55.74325516811745
3.425671909802866 31.35218675161126 56.354834458440955
24.336400420580095 24.146667581100022 45.706001838039704
26.595048821191487 24.346504300517314 45.62887277831498
28.905460500724754 30.05458197191329 48.06305764401096
22.79684610512581 29.14814133776872 48.08698008654832
24.111818141299796 27.730593306137948 47.13619714323587
26.774619184256974 26.853046504029102 47.74463603107032
27.906333275328844 27.93042224951412 49.53583436849929
28.183489821959956 21.72353079771697 49.79325485254878
27.853587217137868 23.639897229245314 49.47732317312465
25.86821888456677 24.424310477807833 48.16907202224138
22.974477953385353 23.542310404694163 48.67647486702485
19.202554131683982 2.069224629933762 57.405556581225426
17.155219705051554 1.516945790601213 58.6249747111737
15.73655857054422 2.9403295676033654 60.06879838766814
16.45760027356837 4.973129720077359 61.611545244690625
20.62369363744559 2.6816487003988883 52.7838320364824
18.775604319698967 3.5688381598133017 52.68201603143191
17.07996497801896 3.4915559633259488 54.387328732741345
16.093689144376352 1.9485304385262523 55.95070940286458
6.515270502283745 29.4838517775423 55.1939146397257
8.88388513088719 29.830849080209106 54.884176581040386
10.806632331726613 2.882249865063542 62.07690342725346
11.954376460085443 1.657948730805127 60.17191886907217
14.324767253626048 0.3801552920702063 60.24459016762736
4.852112441004104 27.093876678633055 62.68454027742493
5.351183289448609 26.85971639640462 60.61324362185596
3.9221095567523867 27.79300361591924 58.703726273517695
1.6832553292381716 28.320476788898407 58.54583990644602
11.510192137298997 8.276365181019317 53.49575377400117
11.237833813988942 7.397689941562332 55.44861770305707
13.192691396765722 7.794944427875601 57.5707292702509
15.090974853088074 9.472963064461428 57.369910631375646
8.084683912893695 25.75672155286132 59.11748344216004
6.449960426049193 26.767492298178556 58.211140733622
6.185256901882095 29.564607960792305 58.13316704901128
8.070004921725362 31.107247124385257 59.05411892124944
8.035971883359123 25.866797855158463 61.78712197878789
8.802484184194341 28.048357574396572 61.55405562884387
6.76234064028803 29.44719411070592 62.209496307886376
13.729942828155766 8.824612000790099 51.530202076270896
15.459459573264033 7.363703108539003 52.79108811735107
16.819249486817174 5.645713996308471 52.24935625206084
17.85058619440432 4.596031385024276 50.42445080517725
43.713721355878256 3.768113828936526 63.19187609660596
44.93747281100158 3.7774522639328385 64.87146167768331
47.2774605957639 2.0963593892291184 64.8626208303259
48.1268139023994 1.3612466043743296 63.04125892008982
34.77328469598521 1.131674123342025 62.22444341797021
37.383876781736944 1.1154406617217165 62.70542618983573
38.58685996985455 2.355189444028325 60.840530000380866
37.44093891989161 3.438563699664297 58.65820042695026
46.51762802618207 4.351105004770704 69.24432315648598
44.70692860363216 4.21294642112502 67.88798534105133
43.977193674942484 1.9328184784309903 66.82807666065209
27.204981457911654 20.889660151250315 63.6230520150315
28.420923127234772 22.331251766957568 64.65826053816012
31.01559740461636 21.524519914296597 64.76302278069397
32.463086040014325 20.313643741241133 63.274683601792965
12.954817996198345 16.687851122168706 77.06702813861673
10.869370507293374 17.44621800863102 77.3622522452192
10.68551671118649 19.404625034939514 79.00203883852366
29.825758650131547 16.43484410045084 65.38170563795693
27.741855257305374 18.043060385913773 65.8914243385431
28.501699199422916 20.267952412600412 67.03857886778768
30.195845934710277 21.14797712438986 68.08547946416533
26.846931408932488 25.578292597579882 65.76327026124301
28.346884888211815 23.079342595859924 70.00620959860485
50.855115986017516 0.5650118570946825 67.83157265733081
48.73110814220643 0.6538396892517343 67.9502623183177
49.48575619717535 6.713994450542265 63.68357194471929
47.70204175453991 5.654776733151901 65.40737303490096
45.92542310698686 6.506255178235846 66.76088283754164
10.876713790352674 14.461009486364752 83.8693788117421
10.702818545847522 14.603410692509902 82.11286716684117
9.641189650399243 17.11271702962519 80.70481468878918
9.0482203087508 18.833919672659086 81.38054054107477
8.319983216032748 17.918570082423532 78.39039346745076
8.500443690173501 19.626666352112867 77.09429014422565
37.68729432536368 13.97151527785775 84.21989656740698
38.175715129553254 11.833094005466467 83.35335859342452
20.40573565806362 30.18600382745483 46.44784109629014
20.9550478142515 30.40715582366225 44.55823157430606
23.008271524009693 28.5273488341758 43.849060116027445
23.12648243530678 26.375804136990357 45.10883945157872
8.285378361804236 32.70312659063779 54.15539450046817
7.3180688177055115 32.03837625668344 55.96225578103884
3.225036191175711 29.422307881404613 63.38122013667027
31.666680495489214 23.872799467743853 65.71771548837172
29.721913579470247 24.5468100840732 64.9239370852371
19.80500075615319 14.2894346067613 52.20635419948665
19.984248094838538 12.510144362233685 50.56799355174767
18.127153610584145 10.296681143759539 50.92351833301827
15.984671023718668 10.440537772373528 52.110650442823534
12.055568152812008 10.748463374977366 78.74713755639033
12.871138573067714 13.30186224238575 78.95656580294143
11.556801821303512 15.201454803714642 79.1359083197006
9.184543801979556 15.418216682037826 78.90848166779432
12.950668084359595 12.782484464197113 83.41636371861493
11.213415557419795 12.120918528564749 81.36793653470144
14.568364622614821 14.768841923428829 84.45813625664105
13.960483757302544 16.811114200404205 83.26361968386153
13.637420671848856 16.73902361316167 80.85047094699927
14.511219994363325 15.657921625295666 78.96922025594661
24.245887302529333 60.68396654001379 57.7810954389676
2.286051740472236 31.681354940644145 58.73063075790629
4.376620872391751 30.468174397696167 59.92536384762172
52.244859019603076 18.509716074035257 73.40269096174823
55.68709062549537 15.710243910408396 76.64773567632069
35.28694642916473 7.850355175358732 83.43264005236438
34.896681949872224 12.978982242560262 84.33392729198975
33.0225320684333 15.145903700370814 62.550539403102334
32.2115728228846 17.50486962392649 63.66918646526665
32.808735118872434 18.471514826604423 65.99310675914549
35.00229010928421 18.324810536528993 67.29067074168783
20.43314627732066 1.2846021956029077 77.60048740134442
31.467261239638468 19.760265501742378 84.84227407424315
25.427629452075617 45.19529560661552 84.92196036830549
24.55481225945295 42.671374405383155 84.25732829933521
22.2446325413146 41.698968415910265 84.7751884600582
26.53657238676393 38.35643579541364 81.33160283345347
26.645580217438894 39.229546729195526 83.53003434716318
32.40819904777272 15.734191694024824 83.04057991584592
31.969166835662396 18.094287936400345 82.45674781256712
32.01939789017244 19.421675809638113 80.17748021182791
34.44108571801133 25.067401211889724 85.03228073026426
33.6113876664952 20.874599521051774 83.575183804492
34.08418134796887 20.938080324781428 81.48367670541482
44.57800006473669 47.63597236503666 76.88909844310288
44.819207977600854 46.47281934359514 75.25639181402505
44.681074018873765 43.70021229989137 74.57203027129424
44.33575806582887 42.08673482450155 75.44356944776806
5.654958496793535 49.95634581641262 36.29244784513967
4.79893288222541 50.05795428485749 38.14409402393695
5.722770639907319 51.57464121969777 40.41257979937003
7.761517367006076 52.54132183025987 40.47745774621199
30.140437936978227 16.41302636009725 84.28131608927693
41.49201258955056 41.81736830307917 74.99076951294661
42.20152786777746 40.06516716178785 73.70772356059531
40.79397784936296 39.62225456602123 71.4985231396321
38.10315564002459 40.31515874077255 71.1496372696412
41.5626727126458 45.997280143839745 71.42605636844105
41.62174517047077 44.05803297299651 73.02473520597792
43.714894241433555 42.19366741172579 72.43854456645487
0.7565003209493771 43.32689164985802 72.07624520011947
8.504203271624103 49.15033168839456 44.40262659192145
8.72988812383264 48.26778444986718 42.34283385080469
6.613839521242008 48.74774751784432 40.91146611318889
4.149091547524407 48.46024236710836 41.568239456786344
12.927637250565617 26.28676781652119 81.25144015902083
10.570490959445905 25.93197867275078 80.01213476895921
8.846134411665311 26.231228395184175 81.79507197077604
8.859617714525086 25.761874963299263 84.12462811159892
6.474157464975891 23.999737666428118 74.2017790705343
7.116927804643776 22.48388999232538 78.16407735095909
8.573926286627481 24.200112953876836 79.06754963219915
10.770946887556509 30.490022825808634 78.64165775074656
10.295906586010611 28.51862564619634 78.51567086558653
8.177875960761506 27.323124904096392 78.72046075829321
6.198756328664361 27.572683493530562 79.46883865670387
28.54855818009762 36.17484279027536 79.57269278189328
28.45979843544609 36.106024162349314 81.96357007617587
28.717353692366554 37.47391332587378 83.64954921470081
30.430937802453155 39.035687834108266 84.54660414178586
29.193005299407154 42.04921784776531 83.71189863628936
27.16735666369479 42.13402655225957 84.52048985349215
8.691460404886099 40.4110340700102 64.01673775845325
7.20001623126039 41.67652007621574 65.15743695506826
8.415493781147013 43.02229624334892 67.48976951771867
10.643110848268455 42.275310122401685 68.28743118430991
10.534762734262197 29.627934966987244 73.18246008737867
10.585726128639296 27.98346720930354 75.80794262965416
8.56702884047125 26.51056371250917 75.61388203116267
6.384241553024569 26.68041937283855 74.49024941510703
13.567078589307153 50.089062089117526 65.5722808814033
15.312884675970693 49.30204324546433 66.22737148457794
15.084628558084896 47.82212765007443 68.6319965572878
13.443338055130477 48.19362366008087 70.25138664663703
7.51524269299884 61.9974487885431 60.447373488482455
2.1101641557864173 62.64521469804674 59.56545220431206
11.06055079567279 49.14078966573043 65.24308606639205
11.382456200951907 47.399739677142584 66.40677777465513
10.148119763376593 45.15580229978529 66.71830588740475
8.523209155488097 44.34380432798162 64.8306885204259
0.4885859895736827 49.21373443733921 37.45435555222939
1.469825693988005 51.18074965787871 37.70420430415737
2.6785008216446107 52.172169119507274 40.12104915594524
2.765544339856057 51.23753734226289 42.27959950755747
0.5055272654916875 53.036829778950754 78.53821466951183
0.7960909082832993 50.316154686580575 74.13683568765939
8.74488702565424 45.06428513861433 41.35471340207962
10.703993105573206 46.680728919509775 41.05711372847654
1.1360833452762744 43.595184161063706 76.40146733219613
2.2333212814040024 43.468541756317975 74.16111041527643
4.903137014370328 60.76558076851294 54.09193363199238
3.9408659077026176 60.79081576515072 56.629567996462875
3.548520612164281 63.20893877971052 57.237513328366404
2.7800346007899406 64.95780522340053 55.89833802620197
3.6449774188468007 54.1598748468738 42.19572192459778
5.765769692923199 54.45860224444697 41.75652555689859
7.840439801738535 53.01641791754903 43.27889582785684
7.391374439661415 51.598180396582265 45.0973528177363
0.32023499015870904 14.944128545602602 10.602507984373883
1.597013699474182 45.686069329523654 71.84875611876987
2.0180431992502585 47.375172745921425 79.84693649462945
1.2381027529422852 49.02665621725481 77.7211221176567
1.1157783504150658 47.81415951869987 75.54678184522287
2.8029749750321247 46.12440235393897 74.55949781151129
20.40861483724152 42.7976994179302 69.5671064443469
18.899302172365427 44.51808781110576 69.54856382803257
16.772296995443494 44.21444600614911 71.3387175853868
16.33788652028722 42.149875919790205 72.85993621934382
1.5982093563785644 44.48596330516752 78.97615511206327
0.07792358024109552 64.31117754173346 57.45488029720264
6.085012504817394 63.480615869103225 58.42812862442651
18.73941724579062 3.2586420045886677 72.25981020797454
17.69358805128394 0.9916028126547226 72.19490337663316
17.983226418501513 0.6019324020380706 76.54759500405902
21.539147301711708 4.185847764285206 74.02885030339806
20.660445281865464 2.4906069447088948 75.21815409120507
20.88625596717313 0.048402585725990516 74.2040941210075
25.224910945519344 2.022724573559184 80.81641765869261
24.31698248047003 1.2554431501582135 78.71345643035973
2.1759188215521794 12.306358651769363 10.887831111107214
3.3189117058827375 13.902919564032427 11.337681002484768
3.5024511849536006 15.198787064092201 13.849365949276955
2.756499584273718 14.56361963773564 16.05434419611348
0.3533839769379633 2.5036760748520672 81.22481783286946
0.17209515864972552 3.060266129150247 79.05286703410239
9.460189069515845 1.1095076156330075 61.933823776742244
19.891149466983542 48.155517042383934 69.9385014486902
18.338675368804886 47.63567929604538 68.61941521068798
18.240525200603088 47.32842726515464 66.13176120450035
20.215832595435984 48.07888296898537 64.06965227880313
47.706709689318586 41.85038386214443 77.61896719486072
43.297985731128364 37.49603683870018 72.95271572877455
44.57629750506191 38.63958278355371 71.68394430216394
46.51644305096648 40.598435201625044 75.46550933725501
39.04721109393138 17.774827839941082 84.85465176462863
37.437623120558705 16.31430397844738 84.9708441482569
35.08397851093268 16.907065966743183 83.52922092006284
34.76517493489687 18.530722147556332 82.12953303013518
26.490331117156554 19.320539611522182 84.07210573338321
27.974117083467124 18.42572506980003 82.1212571478652
30.098926230752056 19.988921875301635 81.8910431513485
30.39789233403733 22.00348072987815 83.40020382316125
13.940083868890445 49.89160930329182 62.58140437189701
12.257516768534547 47.83604080448687 62.331421390993306
12.59155924215706 46.08209512881255 64.38491053794495
14.377169374017958 45.143253074843884 65.3426423924835
42.4758531184516 49.297168500791194 75.50008726819026
42.2980920775924 46.861505763648445 74.41688331192464
40.28253528121463 45.28338908513813 74.94417000562017
3.77204836917204 20.99567061116971 81.32652959226921
13.315570462540833 47.005509593311444 73.56332269404841
14.594160094979603 45.63529345990378 72.260026614989
16.39094201699343 46.912441492051265 70.96071712390962
18.46167995963937 46.787036578035035 71.96076583555504
29.231284310001712 32.70142914203932 71.49774957507864
19.397391702060176 44.860152702295544 66.68108396990853
17.470551458344048 44.499331421644996 65.88414774122114
15.879222686478721 42.34592742586473 66.90421789310277
16.71597731412804 40.70243885736925 68.60913991414967
9.599335424284707 43.067259103334706 62.60576124722175
11.011178087300603 44.35246777058352 63.437545515761755
12.05288160378897 43.72800348115969 65.90137035476532
13.008345944375252 41.569474064366204 66.60353329220338
6.092549091113064 26.818235122832284 82.08847082956015
6.685057649004118 24.411043226948216 81.483040360531
6.32052543475733 22.16630616346869 82.41518719598628
5.634278776432403 21.369453796900647 84.6202702476066
3.8169308426707405 26.36338173755081 75.79935510250701
5.172428202637211 26.10678150823725 77.58293329708385
5.124275560924572 24.18951673531442 79.23748676945476
3.055855411770298 22.913765293049522 79.58302904089658
9.416169677824463 21.89260770536032 79.97224546787429
9.028075048929015 22.14709449433536 82.5456608185483
11.555194430097814 46.6646696368085 71.29878899330376
11.430155396539178 46.534307378004684 69.27422684722991
13.543709877028254 45.533012053859665 68.07008488289294
14.890150874218879 43.914699435766465 68.94952974785258
3.044036351625149 1.996674350035675 81.02409540082645
1.0810325165312284 0.4727355752137642 79.1644738187676
41.92059386293278 39.6074833674359 69.12461707776737
13.854939550822824 12.020469972924765 85.05068673921718
10.358345602878257 10.563924874160744 80.82209403907562
1.261501978888242 54.118761148294965 38.67765540436793
3.369485299609703 54.686925284138674 39.44692508257301
4.703388860595407 56.330992233320465 38.74514541286356
4.389449845632969 57.12374699124888 36.29749349047593
6.536597321641117 56.94690670384266 41.02389914977664
7.73963404303172 56.11818159344342 39.70012127208838
10.145127060016327 54.542405531210456 40.25012766618211
11.150355605606164 54.549826790496205 42.61654114108337
3.3116554028454157 47.90506149723864 37.664332614125286
4.115356811366877 46.62202288128906 39.346319927873246
6.924161562524331 45.969362349763266 39.44670201107706
10.156082332905605 52.832672442012175 44.70233367424034
9.27960860759877 52.59602975601524 46.82009338114538
9.993396584384266 48.256149002929504 38.42220522791445
9.29307358579409 50.0273583355828 40.230942506156104
10.404845603803606 51.73153830546499 41.11188402766822
6.146536151155348 81.8240447709967 10.520475928345386
4.685001438263166 80.03730544276257 10.205190975390165
3.7046978820188468 79.7641414495079 7.632457511755121
4.237558257832745 80.99324961247392 5.901579781284229
3.418687364051655 77.13434387408509 4.099292330206023
4.12672880479362 79.02268667502692 4.132836736073326
4.512493624603323 83.79378269969648 9.51256775534182
3.089167180736789 82.51034296814917 10.567730570813039
1.1702583444705963 83.99778538109967 8.334171724538045
0.2964993770646492 81.82437199817691 9.176760247605602
4.013699519585074 84.4547483161027 6.800249987494176
0.49051605984247 76.30692251749777 3.8772238278633555
0.11047079428262063 80.60081888569447 5.419810706596924
1.174912001657569 80.41512159799282 7.208538619003801
2.3381667056337805 82.79414541559457 5.101041814647837
1.7722601265032316 76.80303616400913 1.457914237214977
2.0124419562517097 79.16791473201515 2.205955209718001
17.530272662221954 71.1753904028515 24.50356704147372
15.984619082546512 71.81214417765455 17.784074745029717
13.929350785030339 70.1643063158944 18.76565585764193
14.109668039614375 70.09202886552825 21.457489452385587
16.042312080452792 70.08154557746687 22.692666981224157
15.349410444480815 74.96234674609425 22.050997600964322
2.4859997225407287 63.82258301340999 17.09243596351072
1.143835599110161 62.26515897668077 15.795631983695733
0.565344559172176 60.08273187860437 17.519983064774653
1.4017420532560625 59.17509087934046 19.365901215042324
0.5640082436117891 61.31985314944232 13.287759011437158
3.536658918309991 57.530393012592306 21.608048987007848
3.709245287830326 55.27223705510343 21.252027328725973
3.5326222065934507 54.40143404669337 23.826344578763553
5.067905509392098 55.65006601735146 25.979563478645918
1.8893296914587097 57.27808030894483 24.134498983989086
3.1973268649703597 58.99404958417667 23.82112846858031
2.8848351601395343 60.74111405508797 22.356535939522903
0.6620045358076976 61.98014607411169 21.787897266581226
3.2227542826301665 63.5928556896356 21.693008368626504
3.239477176110054 64.48183654239244 20.00914324089267
1.2728411063573013 63.72421474456709 19.545133509721353
16.66418764769619 78.38206151406665 20.104667129418573
0.8187619900918742 54.75616703293772 22.5415875702828
0.9215533210108735 56.96227944222236 21.53035608194395
9.34759744638467 58.7527425305171 26.997100485412368
7.198406512787949 59.401142689626695 27.704493054825715
5.3406473651359345 59.90981699995142 25.609939634054058
6.124312606630689 61.727722709070385 23.970755599151854
13.467381292902616 77.86129034061962 19.24767535032338
15.180917985043985 76.70158387880419 18.608632424363698
14.848605164664706 73.98200500275549 18.961507193465703
12.779708048782421 72.86839919964589 19.533869102463818
14.325443893446511 69.43288498164547 24.83392434646702
14.30552065471039 72.55848249250379 23.049478034821277
11.913393004236573 73.50476883827008 22.34116725133112
9.522708117878944 37.56279827366506 15.299775639152513
7.7119436112378885 52.29883497814282 23.174134863861145
11.763247943748706 42.35720419345041 13.669459137895831
10.940429964115719 40.32087468742438 14.73984246595496
8.289005428180479 37.60182111427378 12.85326377969481
9.810049412344 39.42736450806857 12.326595022331901
12.47238647996573 39.20111866183614 12.770985971792276
20.557901948216774 77.8391364555571 27.48296472209086
19.979798247778863 73.33718957499492 27.008629951137028
19.818390264831624 73.03118680253321 29.84309619477578
8.31861369951941 46.607621247648666 0.4249512420805535
11.426437679342069 46.534181963203515 0.5426398025728398
1.4583106945107098 57.40788652568092 0.5644975594167838
1.713281199880564 51.61098875245809 22.015663808338786
3.7698084923102844 52.3001916211216 22.329067412020763
5.401938704528815 51.80871740339229 24.481959689950212
4.8482163040210615 50.79653817658952 26.343975991606687
11.689886659854393 43.93068741785494 2.204021411007009
4.772379585619189 53.271172646197236 20.1567490671402
6.218371627290284 51.23694480676266 19.12953643950008
0.20249447989376224 53.16821434880912 20.0223218297772
2.329952774231687 54.67126145381635 20.88599806203662
17.357233833892828 81.27684464441042 23.135103974024734
3.153185512496775 76.55125188878002 35.17097699236004
2.986678864252127 74.70938840769662 33.717800121792
24.980291806758284 76.38426721934233 0.5146758496856165
29.201539020888276 71.13731356338319 17.64128707567828
22.578972577839583 77.06492843137225 2.0749627347003003
24.297089417873167 75.27304143456197 3.809462949003419
23.69509600206917 72.9820893492773 4.30200941323558
21.874635950381823 71.49850031681966 3.682720436781154
29.608186362696443 74.4211287447027 0.10522324552406315
19.7078463886314 79.5177371172873 25.31973422655898
19.59969063707549 79.4299945727699 22.882835055844204
25.338464239709392 69.21053324220973 19.183025151912414
27.57097767811094 68.9835711679092 18.896933935703608
23.82918959099707 82.05457034594704 22.37425744645418
23.946907449928215 83.57309649986382 20.453983161686743
27.011982197611438 75.46286722524431 3.483866990253523
27.511785188917763 75.42716337074178 1.626661428944755
25.16903627236493 71.64231167368747 0.4933546973567361
22.54575152615235 72.77990106954374 0.27816440060268055
23.627954664294084 69.36367823060813 17.02827602140941
24.37718254068778 71.665818938817 18.15768052634576
26.80991541260491 72.37174361283024 17.136956880068954
27.73937875199133 72.02777950992919 15.121541056534081
1.3094106153428653 15.782210028020035 4.95830025907326
2.5749450944113113 17.97073636648808 4.660407515075695
4.190766233217579 14.85403682012507 4.244138258613449
3.5082240692308133 16.72357909234815 2.392239229637018
17.332880912345846 71.13199755943714 29.144426236997138
17.623980252234652 72.2542161451677 26.792638719413652
41.68424851556435 75.77211415696837 8.335632594309756
15.385480887041412 73.6811996511211 26.947940621834434
14.91988417078394 75.31732468398283 25.461325215074154
15.840048326508706 77.69258032386179 25.585782461728883
17.724010375748506 78.48763769172673 27.19601324700566
18.773350082875915 76.55384363974845 24.265169498693055
16.612934179802433 76.73301163360559 23.065286729387356
13.355172369766004 80.61269382412034 23.17006977577518
13.83318129406679 78.66384413303481 21.85777432594102
13.042701513112275 76.63141659871802 21.566346786105143
12.682697952383904 75.70284459812953 24.188616349951396
20.325399981019444 73.40875855593379 9.416938188362593
21.661013071181863 74.19033922707759 7.8692202126197035
23.688921013627635 73.41550019063118 7.13379947121014
24.394239814497443 71.26080754306054 6.375665829644275
7.610216200894523 68.25122062096494 2.7037342014556316
8.322050298693762 70.23367424763657 3.8423164877494607
19.0394303079197 83.61792952944543 20.571337837640378
21.298078708531087 83.81776624886275 20.494208777915645
22.460293718462363 85.02386770340334 18.42174663117664
22.886519709299566 81.19479274606239 24.65859085214945
29.967260268243063 68.11695366622158 13.647385873718566
28.437982652536288 69.41543551068436 15.368201374735797
26.122208912002776 68.12332044074729 16.433998702508113
1.249492378393274 18.475102560549967 7.960356174174844
3.348233692742822 17.492624063434018 7.22228835185686
1.1988501269147043 15.956920026804857 1.2051511078104158
0.23215585746961587 14.280408155555497 2.1062601355509365
1.5843014393554022 12.546495229128997 3.413238162966038
4.04917797967621 11.911636095350692 3.177094801769365
16.488225892876066 79.18502015420309 22.26848008034887
19.303721126282124 75.71000246441164 26.799199659797885
17.74045038604354 81.19901921450072 25.920551603363602
15.707965867802097 81.94634993146204 25.07077954470788
14.755677076137136 80.10115360299824 25.494589461781338
14.950454081187987 71.7582682417253 25.117665725220714
17.324083723373395 46.6400573602214 6.013682195946142
19.745771551212282 52.28578276247302 10.868482714382482
19.38886718116982 48.15646187536472 7.319878689533062
20.06986076809782 45.74910369813964 7.9657350142534105
23.809338944260734 48.9216546094491 26.77704495267546
27.38197006894428 52.03810091635851 21.128072866058584
30.1175005312512 50.546990493894874 24.00074928504305
24.37340983594619 55.57827946991478 20.151453236085363
22.686672356631206 55.84183475050682 21.180988470074848
22.111598916346434 50.77500100807739 26.104095111072812
23.721384430099228 53.32614242174772 21.846104757643364
22.961611271867003 54.51370205546637 18.341554301163235
24.801710100159823 51.67806490034952 26.042996681919767
27.75326589249806 51.29404837754747 25.517665633846974
28.127977149350517 52.90751083016357 23.68496195852571
27.020919224068482 55.20015729924439 23.12554224061164
19.647286061031107 54.74420434308415 20.70691321927561
20.64577031945168 56.06564883327207 18.507764562900928
61.69175349439209 44.82740397537696 63.46359018572723
60.23021878149991 43.04066464714284 63.14830523277201
59.24991522525559 42.76750065388818 60.575571769136964
59.78277560106949 43.99660881685419 58.84469403866607
35.452248799847006 53.5924989157626 54.61419891158175
34.942212641667844 52.863263177072966 52.28814114213918
32.44985930284867 52.56422564470544 51.59591760298519
30.567187223073233 52.92798745536018 52.833472115732775
58.9639047072884 40.13770307846536 57.04240658758786
59.671946148030365 42.0260458794072 57.075950993455166
36.03320882480247 47.99569421752105 46.26227396551576
33.947761335897496 48.75406110398335 46.55749807211821
33.763907539790615 50.71246813029186 48.19728466542267
35.636398561981146 52.45724575543516 48.796209438898444
38.69541818597479 53.26067781633964 49.194525181500964
37.69203019777433 51.59328024351162 50.20298838027735
37.12909533819087 51.432428640951926 52.80220820292836
38.1439679393962 52.958275315867695 54.9055702713191
33.955104618956796 45.76885258171709 53.06462463864111
33.78120937445164 45.91125378786222 51.308112993740174
32.719580479003376 48.42056012497753 49.90006051568819
32.12661113735493 50.141762768011404 50.57578636797377
31.39837404463687 49.22641317777586 47.585639294349775
31.578834518777633 50.934509447465196 46.28953597112466
30.856249475898874 53.38677476838919 47.3776853748174
29.874663270919772 53.72851071700208 49.80095894615778
59.45748190382065 50.69753268563606 63.97804734379954
61.11623286555008 49.11800713633628 62.899923368496935
60.057710967840066 46.797141904076746 62.45568201272366
58.63438452397353 45.51370217252944 63.510844828194884
35.13395898141614 42.0563064703297 47.94238338328934
35.94952940167184 44.60970533773809 48.151811629840445
34.63519264990765 46.50929789906698 48.33115414659961
32.26293463058368 46.726059777390155 48.10372749469334
36.02905891296372 44.09032755954945 52.61160954551394
34.29180638602392 43.42876162391708 50.56318236160046
37.646755451218944 46.076685018781156 53.653382083540066
37.038874585906676 48.11895729575654 52.45886551076055
36.715811500452986 48.046866708514 50.04571677389828
37.58961082296745 46.965764720648004 48.164466082845635
40.13659270928037 58.0781257544796 45.180616481211516
38.3612307452892 56.682783746178615 45.40899687840776
37.73713212230904 55.4834528255321 47.29867019538214
37.68482607509243 55.5718909572977 49.59775529541204
34.52909899398365 57.81008717961221 46.75354200640225
35.42335438832803 56.1401148975527 48.191570469400766
34.5326580398863 54.61327679530251 49.64408958559723
32.30849721180588 54.82423988088121 50.32125251551611
35.2580145291224 52.46706795136014 57.04503335941623
34.27102843946277 51.27996236547222 55.7068327120475
34.511919479499966 49.35576796553528 54.25862228011759
35.44777982443033 47.25997101952397 54.54030281314833
54.76242917514332 47.35425023718503 57.44371562652053
55.9040972903817 48.548626315450306 59.003151405029485
56.71547568770734 47.00114458547995 61.27728598191989
55.84171672030139 44.82773120255719 62.11987450498744
59.55891686282182 47.45810752048297 59.74336424487602
56.03573340307921 39.31028172187805 56.8203380852452
54.82803095227862 41.648964736188084 56.47650206444428
55.65568813751936 43.60417809007475 58.36292496397877
56.72012934489431 43.4184808023731 60.15165287638565
57.883384048870525 45.79750461997484 58.04415607202968
57.31747746973997 39.80639536838941 54.40102849459682
57.55765929948845 42.17127393639543 55.14906946709984
73.07549000545869 34.17874960723177 77.44668129885557
71.52983642578326 34.81550338203481 70.72718900241156
69.47456812826708 33.16766552027466 71.70877011502378
69.65488538285112 33.09538806990852 74.40060370976742
71.58752942368953 33.084904781847136 75.635781238606
70.89462778771755 37.96570595047453 74.99411185834617
48.30330177412346 33.33056766891152 50.011663485591626
58.03121706577747 26.82594221779026 70.03555022089256
56.689052942346905 25.268518181061044 68.73874624107758
56.11056190240892 23.08609108298464 70.4630973221565
56.9469593964928 22.178450083720737 72.30901547242416
56.10922558684853 24.323212353822587 66.230873268819
54.07851248797494 24.232762032804416 66.12347256340713
52.935430237811474 22.619077976618644 68.09351426797438
59.08187626154673 20.533752216972577 74.5511632443897
59.25446263106707 18.27559625948371 74.19514158610781
59.077839549830195 17.40479325107364 76.7694588361454
60.61312285262884 18.653425221731734 78.92267773602777
55.45547457590598 28.420959553844344 69.96861634726304
53.53555798670756 28.169722950287426 69.19943599512708
52.816863917636134 27.35511378994287 66.76598950764198
54.35259485827299 26.975395803055623 64.83438950008373
57.43454703469545 20.281439513325104 77.07761324137093
58.7425442082071 21.997408788556942 76.76424272596215
58.430052503376274 23.744473259468243 75.29965019690475
56.20722187904444 24.98350527849196 74.73101152396306
58.767971625866906 26.596214894015873 74.63612262600834
58.78469451934679 27.48519574677272 72.95225749827452
56.81805844959404 26.727573948947366 72.48824776710319
54.20558577160446 27.90416983466264 72.81555167085094
72.20940499093292 41.38542071844693 73.04778138680041
56.363979333328615 17.759526237317992 75.48470182766465
56.46677066424761 19.96563864660264 74.47347033932579
54.690112191806506 21.364844353741894 73.14688507939351
44.391357575252066 39.58987268476681 69.12680801148268
81.62095758752433 55.57215712325728 4.000702480007441
82.37740062497936 56.57706190221139 2.063143852874494
36.93333037942695 43.32831306827709 54.24593256611619
33.436736431482366 41.871767969513066 50.01733986597465
50.71213125087532 24.616599156375294 69.41139869023549
52.69345645226337 25.54429570244801 69.44110635714021
54.308868349229066 25.040828990719916 71.42885060133845
53.92940878677487 23.96591714619041 73.5871786863148
50.86452412238825 21.733204132504724 69.92654376095857
64.89281478962141 21.75610173489737 79.94021474279421
62.74362385602469 22.404501894006966 80.64760731220755
60.88586470837268 22.91317620433169 78.5530538914359
61.66952994986743 24.731081913450655 76.9138698565337
69.01259863613936 40.864649544999885 72.19078960770523
70.72613532828073 39.70494308318446 71.55174668174554
70.39382250790145 36.98536420713576 71.90462145084754
68.32492539201917 35.87175840402617 72.47698335984566
52.3480206714076 25.6777052723084 63.29715947087404
52.02727696361018 23.886953301466136 64.3776823268951
50.84462676748037 23.132034350602012 66.14908309400984
48.870144562627786 23.959890425792015 67.44807612671009
69.87066123668325 32.43624418602575 77.77703860384887
69.85073799794714 35.56184169688406 75.99259229220311
67.45861034747331 36.50812804265035 75.28428150871297
20.022846067977557 23.88436356608058 0.3135404868064161
11.84339847084124 32.3191157162478 18.286021279621277
13.350511233891494 34.73618815659908 17.773080650879123
14.303592926605635 35.630390955453095 20.11452158595758
15.301566862141666 34.49981611668799 21.842065564655982
16.777941623726143 36.19235139126316 29.299424003610664
16.722621453670847 35.309417570368154 27.678976863692874
14.53659531226662 35.425808102881966 25.51939326203525
12.42247957084648 36.16432069031417 25.92515003156084
15.606663991788515 43.43782136748599 18.05562991497614
15.473567200290805 41.490121650545824 18.9244414547153
14.618083908703188 41.3029086089573 21.801132880211686
14.778051702240198 42.83193036233367 23.328748837223902
18.051375314762115 37.99694961632 27.61603111793672
17.64719884908879 39.52309096199541 25.84861003110107
15.918250957932818 41.07257138813759 25.33752896246932
14.07730882665613 42.19265537685277 27.403238833660957
9.48553433018213 34.011114175466325 20.150612100184347
10.912664258267217 35.493655839043754 18.95425002163169
11.15820901356654 36.69682523476843 17.079217665755724
65.06792546111568 0.5661574780453301 68.24288989653435
13.308371594630946 30.523024820088622 23.835914840335718
14.056423884566792 32.96280279503043 24.347458380424225
12.621364548157295 34.949012452703414 23.286983099552703
10.397707515504358 35.00136850565689 22.550244884849146
63.25716095447463 15.302194182523092 76.11724912124299
13.465207374121269 40.438341691816966 24.077453881069847
13.58117781041223 38.2730902184896 23.858244421616668
12.754072575888886 37.20833852173471 21.37633767137092
11.47027180244335 38.57337447418031 19.78833766140696
67.30846528698545 5.360563397830683 66.61257339527768
66.48564730735247 3.3242338918046492 67.6829567233368
11.633900504643158 39.48256884296575 16.862975660855962
12.785245692198185 40.72502086039205 18.930058868132456
63.83422277141722 0.6051803186540561 65.79637803707665
65.35526675558074 2.4307237124488457 65.26970927971374
68.01760382320248 2.2044778662164126 65.71410022917412
13.930735252179803 37.57531200450767 12.478243569671223
17.197251686500223 36.21428156963583 25.344683327311724
15.9919766704268 36.20959312995839 23.496959679211344
15.728960735731231 38.3174482706984 21.927607728654174
17.17640031966749 40.65803730678824 22.771342196592933
15.624789220244269 20.492823504233687 0.3793223290891948
16.856116989316472 36.7663276444588 19.873737922151875
16.036197028696243 38.8042840855001 18.72924178819768
14.253724349097604 38.398555505827005 16.72829648492257
13.919727379861902 36.384426128505005 14.992793390440786
18.55591798536934 39.54592551101805 12.493740668639873
16.639542062606072 38.661179904778244 12.981701362664394
14.742809925853736 39.88946137953857 14.37176006753518
14.698475533021512 42.29078391715267 15.210830842191347
6.86118970481261 17.381839696842103 13.338394004804986
9.167832180498076 16.162128467876634 12.921518291585809
9.56894620882901 16.067396862892434 10.027459562039251
7.408163976731136 16.874031756879873 8.87338397987736
23.717746151239922 64.95823973654304 38.168117536702546
23.581073026799018 63.847006812230575 40.300124222292624
24.381849663139537 65.5026850229898 42.229389680642576
26.085487972165556 67.00051605886688 42.34640619667396
14.656795835475403 0.3732402888314335 7.309225610601822
20.05261181119924 62.443484535950034 41.46449415672692
20.124832952235227 62.411287147152436 43.63478922101379
21.998268430479957 63.42401274773644 44.87084660058686
24.7567136083342 63.466355485070395 43.960248141314956
19.828744384279684 66.61741120372334 50.10434327145267
26.16946479522869 17.605723505822436 18.268702415639833
27.460019791307374 15.774485230184649 18.6738382783964
34.02044805610227 64.08465847901905 34.28689875500775
32.52900388247656 65.35014448522458 35.42759795162278
33.74448143236319 66.69592065235777 37.759930514273165
35.97209849948463 65.94893453141052 38.557592180864404
73.70977220056325 70.77484178516094 8.829806097654348
21.168864169235977 65.02758743162923 39.194394325764804
21.27325966266027 65.08221726252975 41.27678222472636
21.91143212760211 66.80251813082644 42.947239697350405
22.052248612121055 69.30150158232719 42.84133228361646
16.62050368189625 3.0577452343181797 7.006744024554283
14.743748198335147 2.7873827259985156 5.646846485518123
14.77015241773663 1.0032584616700049 3.763889508231127
16.91106732468787 0.3370701419480021 2.6053650427018207
24.899491113020797 63.18437140481438 47.014784890662504
25.290748127343104 65.01079716295226 47.88161508105095
26.46507099649244 67.26880857007257 46.67162832875065
27.562308932620173 67.14216616532684 44.43127141183093
19.910231509581603 62.289414231705855 46.639166176593584
19.637197912409906 64.51157825929806 47.98138188910184
22.23142681145504 65.4859746121156 48.76497431096671
23.840193247112417 64.14195985962532 49.838418526851555
25.085484949345133 70.2209305396678 43.19054353681483
26.926001350690353 69.35969373853251 42.11891711532436
18.13326890252263 66.09006761257305 42.22947580023542
19.2335203846383 64.95807781340143 43.5925408704952
20.5070101331419 65.8392974056072 45.45246588221606
20.077468799792186 67.70432466494067 47.193658428270844
8.016259831083875 16.076539221144273 6.21634051322958
6.70195941666887 12.245297772536755 5.4073767987104135
8.487015497538353 13.258298591966083 5.0541960579080785
9.92176157473624 13.752435504636871 7.561366361632407
9.142554754561264 13.229240588877648 9.700560719317847
17.799150945675176 68.91892238895203 29.956289721622433
12.040377416380476 17.06544189281207 11.454315519480893
12.115681689833078 15.78581378589213 13.297931365812774
11.6364887057366 13.099838160818956 13.084563042690911
11.731270453198357 11.722725021333085 11.218987710616414
23.110873848402974 12.461377460249812 19.384899673901753
25.676235222954464 16.63206551444536 20.932891589273655
24.209230123105748 18.862906630662465 23.474635731775653
25.132271722462622 19.26929125546879 20.730578393731285
27.676310486253165 19.6166812172289 20.903481086788773
22.38527795363526 9.605009831957812 18.36148921876046
24.97599023630357 11.173150234603456 18.0448813846176
7.965586787780993 13.734454374145761 12.002921104070642
9.226000349735344 12.188453413937205 12.368530007603747
24.41539667424078 69.0542703136427 45.567455717335015
76.10311929145351 40.84249565993737 80.4260789794727
75.5250155910156 36.3405487793752 79.95174420851887
75.36360760806836 36.03454600691348 82.78621045215762
30.974631141122313 21.799085397162248 23.42214685298848
31.907080547833388 19.872588126032735 22.78900790010856
31.224847427102898 17.63042754423021 23.66250756096537
30.277261919418688 16.9130052709969 25.649339850084942
32.62055008459838 18.547700649967727 17.39974074027299
34.69139764013441 19.511698095030482 17.442977116793063
39.05799022517801 11.423288569560796 45.05649650458835
38.26009821999235 9.76521515034375 43.95986497820776
35.79939243332168 9.847642511843215 42.91393492129789
34.49850913354867 11.666051615037764 42.775951076077604
27.87594269049998 17.593666483026823 27.20962673509962
29.594059530533563 15.80177948621656 28.944126949402744
28.99206611472957 13.510827400931879 29.436673413634903
27.17160606304222 12.027238368474237 28.817384437180472
38.17730299775202 0.08097597004265165 24.899051496846702
34.905156475356826 14.949866796357266 25.239887245923384
33.29023163377575 15.59001595527526 23.780282618315248
33.72471575296221 18.0102174230976 21.960152349549396
35.829399261075324 18.837691867584372 21.30806536203755
35.02956858362098 22.259991779814182 18.924753610694847
31.88797885808589 20.57230665183367 18.923124475921124
32.86794779077133 9.512309219563784 44.03159793610293
34.19466927295874 7.241407435013844 44.74464382172635
29.24387756258861 24.101834551518397 45.58864716208606
29.497984311548255 26.43881223309491 46.13270113133681
31.113961222859317 27.632935366027738 47.15513854171181
28.815057644826336 17.65187578185994 20.09588853911772
36.28725098449171 14.956001031450363 17.81168530547663
35.302255758412436 17.027016730142297 18.56404158473315
32.982735600287526 17.22270011251149 19.57568066144879
31.192785868902515 15.795008182019645 19.612470779098846
32.308952310271835 15.991605276898888 28.618530990652868
32.80875530157817 15.955901422396362 26.761325429344087
31.6079140065756 13.981627447698685 24.927394590480105
30.466006385025327 12.171049725342039 25.62801869775606
28.278660863933474 21.70596839720333 24.394233265229857
27.842721638812755 13.308639121198322 25.41282840100201
27.873576390630653 15.293314296578393 24.49941328567084
29.34543890676586 15.737415062551728 22.070470928336132
30.878889553354632 13.923696081802735 21.309153938863062
32.10688552526532 12.900481664484804 42.271620880468284
33.03634886465172 12.55651756158378 40.25620505693341
46.981218628224745 16.30085220862296 33.470296594709076
48.85520051571551 15.247494212215578 33.041565741675704
63.86383104275615 9.610980452028938 53.368065499462396
64.83864247384213 8.154990215370663 52.21518374248476
64.82742316884978 7.8413672222726865 49.83936024292291
63.31113678703956 8.659483270143799 48.06483343430861
66.97165502257882 9.53754116758379 53.48575405995468
64.52600532251546 4.958864634619587 50.893867768698414
64.23088622436028 5.028719213176355 48.538200758653716
57.00352803774745 20.411245730061196 53.50761181679863
55.20747717964792 21.156780972714557 54.5707314966575
53.49852526613995 22.262891249865795 53.30246737878635
53.755242244149464 24.704989307529225 53.39500817288849
76.69961407707409 27.26958897700672 2.068707658468834
78.19556210003687 26.52668210105431 2.639796773672782
79.04303855935257 26.130615789047877 4.946243875701538
77.91197629775958 26.097379623721892 6.889722167393631
23.09183752185154 36.32627978946285 40.88527700118232
25.883222683774985 36.022725970738804 40.589831676438465
27.37194001726313 36.286048073929685 42.22233744427589
41.791581841319385 34.45202573777854 31.663298156798643
32.14214510945649 32.031820107527686 41.877419276601195
30.758999358090556 32.028658581989816 43.10170272651705
27.9990003764129 32.827906200054926 42.66585215104778
27.14468662083912 33.50405234417285 40.52562192455475
39.41677640032183 10.778471627369926 38.97760892318998
37.698632244203495 9.88932914219128 39.89903853366383
37.94397966754336 7.905459631405458 41.755251981911584
39.33515904235622 6.539316557365347 42.205195028182665
24.727449716304406 28.55501424217454 41.90850133217594
26.14441393373926 30.451268755099093 41.476765007413725
24.955522180960255 32.743124467471894 42.335943787976476
42.77073977164412 3.9492289237978193 48.11105485230243
41.95825624396637 5.647288504123003 47.27767842965716
40.94251848369163 6.000836085490185 44.92752455365516
41.29188540053784 4.191127242466465 42.96159518146717
51.556355408567256 29.39948745913556 53.493104483423295
26.887560788614067 34.42000002258319 44.62608753057009
36.40975766097078 9.008445811129663 45.94626965840199
38.33161489002356 6.752099962923868 45.50435915944336
39.08223722972936 5.419063154097197 46.91322171918858
47.00354693103101 20.876070516087346 47.35073441561123
48.397227565796044 21.723675002146095 48.273520531732856
47.912993206060236 23.557788264342378 50.5655312456705
45.983383403801604 25.038284328536932 50.614856028771165
57.68072696608354 17.600853717329674 52.63256735499135
56.50718573866503 18.827596297058633 51.37741150680919
