79.55477976108556 39.441177110220295 23.227424415122233
36.786603007257675 33.15125137059528 54.29151279721869
37.30495382154916 32.43198217603377 51.635904745949944
37.24648512941192 30.363084298073215 50.46138661272192
54.36235858482844 42.124910818055405 49.22878313210273
55.774449085391105 41.68240072997124 51.36344595516654
58.50953612503357 42.193611638424386 50.98547416173394
59.72637207806645 42.4217958730973 48.62929249238012
63.3666747125494 62.59764429944385 28.73934942733308
64.45000837018802 61.27498201595996 30.07337188628902
64.52927402270839 58.45667353212006 30.029639383114525
63.07448445898954 56.988481027786165 28.949876966003504
57.7870658565072 47.52144486629952 58.722011653097645
56.85980242747085 47.181049579976424 56.68307838691117
55.252499292478916 45.76397268621172 55.52661714488345
49.78509518366642 49.17047677704616 53.8280393714546
51.618030127570734 49.65768717192134 55.08208344043701
52.92722296123373 47.606496339364035 56.3808576957676
51.97243195142788 45.61837220353099 57.33774886422858
69.75848198739654 59.00142707419599 38.393039576391914
69.8432775767695 58.829136200412385 36.06345577587641
67.63976185574975 57.29397876882274 34.86491807738777
65.9612838556846 56.313018088571454 36.17560452801842
60.84152423992864 48.33167295484245 51.08959155249178
59.3853989607788 48.69333152394443 49.38936747557705
58.675727429123 51.2911978792495 48.5598336543188
59.75966602608192 53.13773337432707 48.386358104595516
64.39773331979114 64.83174789862156 30.43403685796463
64.34183563699062 64.92628494742706 32.66851846261918
66.40824113041293 65.03532625201906 32.99884297992577
68.07590971427409 67.55873658622258 32.95698101296579
69.54461520301129 53.7715382924463 29.99332083391196
68.57491613568881 54.88639904919587 31.380703717565616
67.74773441639066 57.25188930277202 31.255032038574964
67.05017952311192 58.64104429792286 29.41187122244041
68.65713978464218 28.75344469235069 47.129346346314215
67.76055302130884 28.54556239525264 45.292535043799745
29.342029754458228 41.659672041088406 20.51254542019134
29.46670134845699 42.99910990871396 18.532418060651672
31.6573260884919 44.30396296712039 18.5696121538197
32.84207952417744 44.96771045338999 20.517034412377022
17.912169353713658 32.43856835185551 35.516044817460795
17.368143576390104 33.90802111979428 33.95194257077923
15.7014498192571 36.17053305232241 34.95145808941656
13.9405701481381 35.968028292029786 35.76976240100141
20.300608971337557 37.022631804184165 37.9580142159162
18.436945751328818 36.600611491823585 37.19050215339359
16.273682933305572 37.71510703818003 37.067143520753234
15.692626543177724 39.57239398877027 35.20361826195971
11.733663242890904 43.14628666751427 31.912850172562873
14.110065241386227 42.572202370321776 31.75862051362928
15.638529882093934 43.46276817427523 33.006819070680315
15.300258806192256 58.91143591468469 51.712860945710915
15.906677111178178 57.33144633181303 49.93545020776144
15.551325401303972 54.53005998669877 50.11488282912796
35.26028277599499 47.90433510906526 61.15759731334075
34.00971164510034 49.769330385602295 60.32131559866386
31.632058756070254 49.23550503629325 60.12453371539496
30.4340855861422 46.88858015072606 59.3499838123175
17.987383884204363 46.34287475180416 29.84436246838779
16.757611879971787 44.58710536245265 29.420972377957327
14.207593827913763 44.60859751816867 30.254907784160697
12.847259196714184 46.03134020152181 30.4545787158541
51.78978603034294 43.6406591754622 27.851781446192494
50.871919766643764 44.17418959405866 30.138486892770974
53.13636368132327 43.616236798610494 31.694300497281663
55.37305917988868 44.274325229952424 31.304849679297785
2.9267097425842037 6.906224262344876 11.150487681201874
5.278497373372434 8.56682518499759 11.415844037308975
7.343866098432158 7.9295582527389366 11.873574578061463
33.38546653757943 51.256694853865824 62.72070631817862
30.770258378576997 50.92196169253528 62.03919915868281
28.92455804636729 50.08628706527813 63.704918079768866
29.29390078076768 49.039055433016046 57.64640298072405
30.7891972118503 51.1252936769086 57.70938790388516
29.124060418790005 53.53062179994443 58.22945565750058
27.79314962586689 54.50088459674195 56.81737910940676
42.94841080040294 58.40798252968603 34.7526707685957
41.42267732661821 58.734161464961296 35.73502791254119
39.954840043359404 57.03293117534445 36.17653054844305
38.63938400331493 55.32453910657324 34.6497209322924
35.66205214465414 56.21131359077818 58.13422216789597
35.23809027367498 54.7061719837765 59.29607438182706
34.165147842211255 52.23507651737731 58.9930892568801
33.21136345520046 51.138297326277 57.22128688060146
28.389199899841646 73.17502523537237 37.27122177521331
28.22196493618214 72.13410632273181 39.598954279081234
29.33568576489379 73.76254951916904 41.23716991446522
31.468675688923707 75.31932176829271 40.71290685383264
31.764780183245023 52.92148977038071 37.726357746179424
33.74247013767402 55.265961086128854 38.09030092381262
35.94724799129313 54.761135491492276 37.052511795430384
36.24983184798862 52.76290149052731 35.23935846829492
31.983551085345777 53.275950252540724 60.677954101429115
32.334949925509925 34.3907782073927 55.681856172599645
34.47264433872373 34.5893102426027 55.079051962374876
71.61698496089481 15.710734941516822 9.618723453099154
71.76313386898582 15.759729413061098 7.71776947628875
73.32220046581857 17.38592062638784 6.187343109359995
74.31685160511547 19.527092941171432 6.724339831019032
77.1675353534364 83.16593563592544 11.72846785266787
76.84495724153642 84.5262628079933 9.5862286511709
75.21465933982438 83.57052943376077 8.223082001630027
72.98761521849904 83.71218502175853 8.186552508849841
50.141609255926916 7.249397573792392 2.2778138472108584
50.008550850080475 5.798634046213794 3.85030575625122
69.74498780033794 23.135679199828893 23.375696641488858
69.60121976919976 20.330013094261265 23.190915197008838
68.81141569184194 19.577107992976604 25.791680370954666
68.51574561584506 21.005477148328932 27.783664644997003
79.41501549879278 12.41577063105147 1.3426148736819403
77.79063259007084 11.316424161587975 2.805438571169913
76.20925947867457 12.90840278361898 3.7541487702986047
74.72694472402904 14.901146513301294 2.7967124653717903
63.05269956083069 42.85708929968217 7.3411319106629325
61.949080882124115 41.310241105975834 7.947067320349244
62.81739437541219 38.383237242266375 7.462487917658573
64.89910379232656 37.93149190635399 6.028441605484457
72.76224577550573 24.717353993569247 0.2056088365089106
59.89846455780769 18.302561280928494 29.763690654971654
61.96789016451638 17.832571342594512 30.502646406444487
63.71250489429073 17.17851522462854 29.046765835409513
63.54916333503781 16.06075809492839 26.91864171622937
75.34982229741622 19.24467052974795 1.488570068508999
74.02000227629178 19.710340264287915 3.2331557272995077
20.227993801664674 32.02302000479562 4.506075777450091
20.61963025826598 30.234042752786316 5.580219931497785
20.2385646356903 27.860488557175486 5.21226153146569
18.279058442796575 26.916537381639653 4.341695387735214
67.74877678978015 14.657844109864506 20.526667057581278
66.91684766140337 16.041307803781514 21.88081549270908
68.81600670217257 17.641531433042545 22.96287572062916
70.81809826084363 16.95514970673392 24.19346500756313
67.92017439246779 24.163527257274506 31.186518789242708
67.57461077619595 22.450452884245752 30.289245700174302
68.3017556526067 19.838470765651007 30.353215332875234
69.49166758009618 18.4920517460727 31.61550882623761
77.41854190222978 44.18130252960817 20.92192619089017
79.4438514728587 43.04522041075542 21.254585204766002
79.52846032505458 41.95631633943651 23.687113344163038
78.92748762363479 42.522668965942 25.84841519795689
81.35481591855381 43.57807099458826 25.31943971479891
82.23429748133412 43.41715258915545 23.564520344175744
84.05768483374092 41.318415489447474 22.77195399713005
85.10885042747195 39.844622162692545 23.79975341256231
82.53379139805587 33.863608828027104 4.248269194091245
82.98246984523988 35.09359815575826 2.39777293481354
77.88477451337448 39.11546723341704 28.786431208491393
77.89776856063904 37.62474479132019 27.018532942629843
80.14850087554191 37.78985053295786 25.48626275978894
82.42251999878386 38.61234045223426 25.79856658403281
63.73111989138296 38.96691512810983 1.8980333484261722
61.78659138810937 39.105004671260254 3.5824942835499596
59.32611185669273 39.82933131702195 3.099001933786425
84.26487006535507 44.4765990078603 20.96878983895663
82.22995699806232 43.263227601905605 19.62343353292395
82.49877628661743 41.606044085792774 17.794301709370203
50.44858288126855 25.680965736670633 22.16566379774212
51.94847553464228 25.07065411831844 20.463861421076842
50.952882654873754 24.187363490248224 18.181580615087427
49.02823070562566 23.181023767823216 17.559827683029383
43.753877349733045 20.34446965550207 11.229093046289037
45.61159109619775 21.657146471650364 11.289243061101574
48.14298355491952 21.27956436363959 10.722846695059403
49.54021526780805 19.40341330800113 10.623930792758161
36.009412165793 24.887229427104838 22.107658837739415
35.62017370397674 22.472089886820953 22.575453550621784
35.10322559888071 22.445174435541656 25.533385903998113
35.40080323365761 24.221494089451223 27.057238320320337
46.78117796210821 27.22380214456102 12.742343980456953
47.81489807621615 26.62054183044314 14.760284718415921
50.479399881067984 27.196218474687505 15.502878990754926
51.842675240004695 28.671014371187308 14.834382461125191
31.874159930723362 46.34413725586072 12.686183184635853
29.86123117970568 44.589976368485914 12.499154311419844
29.069468527643153 43.920398766522275 15.144900124754297
29.25766506836987 45.24056144879649 17.092159786365226
29.569123797583046 24.88370422499001 26.978773067380384
29.75722315006692 26.144636378240893 29.018432542076884
29.923294588139086 24.555296946684784 31.294533623404313
28.997681319089764 22.47273600339319 31.607601697516824
43.27580206350673 43.202202109505365 33.88218502617573
45.16116886948107 42.110190519424485 33.4159377681198
46.63492041226099 40.59269784931201 34.8105002661791
47.6803493799211 40.8837820131958 37.22300369773173
43.705022955120526 25.918159299708186 12.016840295450065
44.682039918668536 24.049349448719305 12.198618683509608
46.20010898838622 23.598995927005678 13.850710145895599
46.395989678935614 24.683963033908498 16.33783122171097
71.58606816585444 22.956957150425087 7.186273795497197
73.25928324580913 22.708330612282946 5.7551985178632545
72.50613644614396 21.93633033499997 3.2303973605438965
70.41197701756211 22.071055415139277 2.327272868383984
30.444401697631033 16.947799477604093 27.452903605972537
30.545391916375248 19.289788055821173 26.870753694083035
31.473782141724488 21.196861488736754 28.652746160238173
31.392238380149635 21.098635343594935 30.97161796262504
51.101016341768364 38.70694486263624 27.54063244009877
51.348691898893634 41.04250026840831 28.08032677273169
50.84403733923245 41.41867486910647 30.70756275133789
49.45725219083048 40.336466595975764 32.07376161761484
82.93565435930975 45.06842045589486 40.81122932749876
83.53514658012412 44.71938097238881 43.2545152170895
82.92971847213721 46.51795689045416 44.90986047427283
82.11218712686967 48.753510018369454 44.535516851565006
53.189707596453296 35.83599781633001 32.745619743514304
53.8419605383844 36.200508891187134 30.539148225037707
51.76122308069872 37.38826662342914 30.096679912523093
49.720024212942846 36.58215739711485 29.20804998999596
56.00266322464838 43.20429470120283 33.57474455097898
55.75057358058701 41.45720390992502 34.62835349141631
53.42986686854712 40.71191667174975 35.469971702300846
51.61012132053607 41.85584192563865 36.23825783016464
58.18987414179398 38.745293396096 8.401583903379915
59.96494536210034 37.28960556383412 7.7410978326101665
60.18499531151961 36.9024937225173 5.052558345997869
58.98603388651109 36.367736220072814 3.551263522456516
45.268261704513264 35.336596994724104 34.94476493533501
46.677532103257576 36.86566760419569 34.49174832802926
46.37004206565179 38.81520000943512 32.98499341359167
44.12536011879717 39.746639223648415 32.20876604243614
70.26877955417797 37.14388444216826 3.842795952681499
68.61424551971724 38.53256878898763 3.812391790484659
65.84333548954224 38.31364324325014 3.313849988827239
64.60907876921077 36.72460136017915 3.086782546036935
61.670667984039746 35.985794603783525 9.256775155054921
64.23160396924494 35.892973925302684 8.483123853715963
64.1434960546186 35.45492683599346 5.574424048257972
62.1505578011969 34.276266805538086 4.517144837188442
49.64505727738863 32.37901224231628 33.45859323299822
49.430571664653016 34.46723956675892 34.12790645657253
48.78297908373591 36.27221501461036 32.28044225013596
47.10852087113489 36.26503041267839 30.617845397110543
64.74268275862843 19.65163569010624 19.539781870766628
65.77120050894304 18.684719615358272 21.385012069207885
67.0926728329547 20.51936111422976 23.104263155528407
67.38736313951382 23.077370750820606 22.3961206131659
17.86204985315732 30.991185254626018 11.78478777836273
18.763412313065547 32.09263518641779 9.723990048678397
18.53226089593679 30.711197685354502 7.5672299092635855
18.934189433895206 28.24433355523047 7.4071759977922
18.116038966120737 22.12255874581745 12.158663177668828
16.552932087196254 23.70359218047612 12.675254633017246
15.65147618037298 25.523292241107555 11.082947126025632
17.269422542279735 27.291851765832227 10.419307250373366
12.638519449346742 25.80713981082105 10.452207115687115
13.696192200836485 23.941500254316352 10.797651239420388
13.057664278783516 22.166154967328044 12.708531587445647
10.789077263879294 22.046290864933113 13.887571505406187
13.627831007352183 22.2871398094526 15.349659981489685
16.149417865103942 22.14358940165598 15.374275224829406
17.0776450340845 19.92546706988854 13.918010688452217
15.843279878596872 17.978744290121856 13.382056995845822
19.677420167691807 38.75368498986177 26.965928616072915
20.01803133607577 40.87582384835122 27.190036594250028
17.97343139317601 42.69693396306927 27.535157027634877
15.892787486102701 42.69379249074732 27.091902146383717
20.249739271862797 25.074023223781104 4.301103549216658
20.67978195640208 23.574200171669546 6.340741199018482
18.356727222872117 23.48794783638976 7.900862413941558
16.241411025821563 24.44419208093307 7.219828454931618
13.96014898476332 36.45814099694758 39.120698610171736
12.58798743838482 37.29834291998209 37.722348209254406
13.127146202172122 39.9432722635834 36.75150991465212
14.812188204232273 41.49564160252448 37.819477166317114
30.92300220481977 40.220711226153725 14.051153731100818
30.483802356116264 41.400506957209004 15.502967499594561
31.549093144975497 41.1475184222506 17.95257955163305
32.02093651608694 39.210538162001576 19.119412136647334
23.72829984284231 40.427078982243096 31.261243887685637
21.63645017230068 40.66427933289748 30.622085787824084
19.768714710164737 38.78043185017055 30.268932795767643
20.218437747966203 36.12131109711249 30.441401321477763
22.115896015908255 35.86872130483877 32.543186369959095
20.278431272192556 35.411814536799284 33.37574519457318
19.639119931389065 34.69356517167215 35.67516963505977
21.397206279402216 34.59479567127422 37.62367012321465
33.33684942962243 44.380502871406556 28.325654935627508
33.22729426969497 45.36005873561087 26.026610595671496
33.94152310185254 43.75725129661444 23.943752586256227
35.41536248765803 41.936378314350215 23.963197812966683
20.588827410693597 36.01886145544079 41.52105215844426
18.364076721248125 35.68354829224235 41.964599240865006
16.930063991769778 34.678602058908474 40.00071601155244
18.320837304051498 33.60447046038736 37.97940458988894
35.12143837676982 44.57795215202224 19.111274173767296
36.19899488011926 42.84503860452094 18.096799585276766
35.43176699034702 41.27220718119971 16.189519360501013
33.212923069600926 41.38188889661559 14.995643241551
36.993728357083214 46.366827344160114 24.216977729489457
35.35165884033518 45.51711652340938 22.46799558981326
36.688259793712405 43.28928272871499 21.445698592186172
38.69434084206489 42.66455075889716 21.587978024155277
17.69403772350998 36.357166787190025 31.295958578399773
15.75838025027266 36.82758794708074 32.3988495395532
15.165586289705319 39.698134355935984 32.23213022265233
15.905808117944575 41.030694419463636 30.85100483097976
34.49386005591517 18.926995639632835 22.428404794219748
33.13330113573826 19.298255077907687 23.91651765353286
33.366393758569934 18.950092488494853 26.720611772298607
35.10891210702782 19.07172195661648 28.061284727621548
81.14174782070339 44.535919701077795 48.73171786334987
82.10668769862308 46.05745308249281 47.92673474565224
81.42012483948005 48.72952666338222 47.554062171108384
79.50806595725722 49.61068382925158 48.71308716987411
83.92367647889124 45.85137086158427 54.97170926838784
83.96250492476304 46.47818980046271 52.91579675891746
81.84458099371369 45.80569794723262 51.26062265403064
80.76374793549935 44.11788168204054 51.151157053206006
54.513717220445685 0.2891528482507517 3.426359105142672
54.25651836104872 2.0463595198176963 1.986493188304461
52.850218469506416 4.362103054876581 2.9982649695131602
51.67782718428122 4.220511245398734 5.103877957683217
78.87398818029189 11.781977211791464 9.25108857069306
77.81688569047458 13.661323368332267 8.242727715310943
77.98449932133076 13.789529048378537 5.370106307049934
79.54757943711176 13.238594862163016 4.0714148368240775
59.52480121344884 6.98710965838631 4.8956053298102855
57.41786686495052 6.551658083427108 4.879332772193732
55.46513016310705 7.384130145179451 3.0692798362711695
55.53963341274007 8.98167200114254 1.7032533141418011
76.33345528452061 21.32527674725956 5.291768970762606
77.20327651216596 19.966447662249863 3.4900203783945667
77.0854962210273 17.18852757052599 3.822125262629856
76.34870032092859 15.986985732312482 5.759971151252344
40.88697957713151 56.39529110465961 38.440368338082884
39.04172084708783 55.610124543795614 39.4170818681454
37.62147344552321 53.45923342818192 38.60163177128976
37.977124538992264 51.87050568157246 37.18976662432732
48.54476084522036 8.98202414375075 3.1714176505668954
49.51569805703025 10.033412799275814 4.836941524087069
50.623573705307486 8.039722846645216 5.295938945775505
50.05664357468025 6.104220307921067 7.017528056349177
75.50647135607339 23.92333509711061 4.068377474500871
74.71974920534669 23.487402929180174 2.1742589236816547
75.76568390815558 21.77322173589396 0.681409193863207
78.14245898375586 20.80479194990913 0.7911370245292674
76.43354240152533 11.318532092717202 10.442949979312436
74.6267987241832 12.19015339387424 9.95150096002909
74.20625553361273 14.739704542539647 9.91351237009129
74.79242889513358 16.592217196819664 11.199885186156894
79.84477748256323 16.044095164526365 3.667402624414496
79.51389752977474 18.134027588870886 2.5278359365192746
78.07876620835474 17.736010362982075 0.44710108644758983
69.23815020810594 14.646628513847793 4.066113772951708
70.06887592698068 16.168300553622885 5.234396302395808
69.94073730659034 19.100182530573107 4.579631966294435
69.24749560675369 19.80939488314843 2.111522787803951
57.097671108961116 58.60436742796917 50.224034031637196
56.27447589257196 56.97707593512935 48.840446069630666
55.27212982997252 54.79934130842485 49.158711290414
55.21029493971689 53.27295951941948 50.59653791562347
54.22958056379564 58.39001800426115 47.46507255975641
53.024530902345425 56.54414395847565 45.605678813032554
52.18928324081956 54.134956958619675 47.18723260709597
52.66131126576327 54.07358257045181 49.606369571716115
28.57277635380721 8.312343071342502 12.694601625876315
28.341915199552066 9.087519117595026 10.766689841288997
30.389849221533424 10.63404355694267 10.199924949586217
32.03142652897485 11.968829189460156 12.163246832988964
59.4540761169416 47.23287224831063 55.75363255551588
60.356512631645664 48.255932024617074 53.72026965863591
59.26830033861798 50.35260952374668 52.95972198854049
58.41362815469866 52.3271818037734 54.33341248597443
52.22368280297253 47.95736128237915 52.370621319943915
54.2243676492914 47.77708292221399 53.70137499809317
56.30822041497029 49.107913038345906 52.82140922570505
56.79252817583412 49.952296662397565 50.75579841682619
40.56206111984388 6.519277459477499 9.034121683311861
38.57946970978853 8.146998356981621 8.340720158102082
36.14402929116003 6.852444164053917 7.775973371653423
35.35204053653957 4.981046442074906 8.388051967905799
48.758524447716084 19.91488101168409 13.306433577119543
48.22445620132242 22.08692040184323 13.340149939995658
49.03368087864488 24.337729251606934 14.147061023605483
51.49964426170458 24.929007615923922 14.511957674337959
56.304995952275256 55.11061809669401 46.14735967165301
57.078836734641506 53.625863516078645 47.51465210851758
55.78936508006741 51.778131274374424 48.53915357278356
53.155507086610854 51.26075407500161 47.67033626555297
84.66488207515022 42.37204233065923 50.04270987679997
83.87607287792099 43.97261464033049 48.838402298436804
84.62729155311712 44.80833734367354 46.35930072694468
34.101033731180465 13.243896985152217 8.960962428856174
35.380366892972624 11.820300976002038 7.6696125530286405
35.357871031174156 9.142607671810465 8.434641297449724
34.49500961586012 8.349275216607012 10.61100570444152
49.85340830863971 22.460645273464113 8.88836076530866
50.076824872301344 24.496224929168594 9.601625130594487
47.883229966820934 26.244446165398355 10.353548708795778
45.636752983220305 25.572028659692755 10.261991087001634
50.618877903828135 27.541413465188032 20.322042008299267
51.00504546765061 26.982356486278803 18.362627634527218
52.956394076231746 27.262898301690008 16.827614208900144
55.005305219825296 28.696870160471676 17.13079555895527
54.51678481232602 25.84768902563246 20.559302374369192
55.85205549876217 26.572151184010053 18.90188936849558
54.81679611406069 25.512666588453094 16.81525925097367
53.927707347073486 23.254236871713086 16.4466919369166
54.91481611791395 23.155181752633506 13.870009080252366
53.86890000922851 24.425678463635528 12.393442034960058
53.26663420382656 27.113496195346556 12.8804692019562
54.568468679661926 28.561434568060008 14.184058924123937
51.30376709048308 19.00592569682108 8.734456409702265
52.06050523971802 21.226377365763778 8.075564863709705
52.64760957568033 22.51323631149769 10.10319456076791
52.988887866192144 21.898652646582104 12.46544773123581
78.17874813772072 51.93130358510555 48.41470720935992
78.5147555929076 53.771973735711406 48.839592873002246
78.36372340398702 54.46100373162073 51.7038550710684
77.18867794565442 52.48746746005383 53.19854965141905
27.858767342870287 47.63060839222162 63.119797737845936
28.562557431375424 48.08795777961831 61.28427021539108
27.64805129508046 49.80669558503161 59.71253394310041
25.72531484188737 50.38371564248236 59.21752500485458
33.46299009730227 58.33263242773242 57.96522605557512
27.74928407469444 58.816049230456905 56.53165414071286
29.493674850469233 59.074529165691196 57.58632835044759
31.126915997422802 57.080240533360644 58.20118732736309
31.466280015011538 54.89419356623659 57.56580587573416
29.02849013169314 54.531540362409245 60.852036736700505
28.404371662897663 51.80079545288859 61.36446021665654
79.80914699163492 1.6234407864974802 0.45582660583344475
17.35816596606287 37.63937818434699 5.158831026279163
17.08678383915223 36.49430889496144 7.631249038299535
17.425852994448466 33.98808568723333 7.369824043442872
17.57286700262262 32.52538904845547 5.1674630663319885
23.45367049027788 52.61021903852258 59.98221479187968
25.43550393379987 53.035667990661025 60.06403455323464
26.388357780106087 55.65592242939715 58.98341969417563
25.391684646460924 57.55650884791406 59.03384010224584
54.53180383682026 49.09433321159773 57.8086960434316
55.77583625880111 49.44211526256342 55.89738107105268
56.13045823135751 51.3677236992534 54.20970515545935
54.396570587451905 52.81192327033459 53.72507289557676
3.3291502540749107 6.636633962872847 7.146126304771954
10.552608461368472 40.415948315379644 31.3392692740308
12.605849953944542 39.613246599424386 29.867339099997086
13.87334366310277 41.22212300130372 28.58560653316665
12.99390241632688 43.71164493409569 27.99821995987309
10.876025108374396 25.80578091628767 14.158261119477066
12.60521578515233 26.876067554709355 13.15398037766863
14.975961104619106 26.29669062847072 13.751824515280656
16.09867615056401 25.108777858147366 15.510321967384836
27.033533830719506 1.881103354236968 4.622634027447752
26.2449369021382 4.215871618657089 5.225902256768839
25.786536741315814 4.8955596912960795 7.976916011072735
33.48532150238094 27.911865979663986 1.836998490843819
19.92094589109224 34.04300865990052 8.027717254150033
20.86789359209797 32.19430743796021 7.3406278319663905
23.17341679177226 31.276046906508153 6.710950977934302
25.375775598191897 33.05841512885682 6.059157071229075
18.642434102838507 20.32853917197444 8.854984904022496
17.15680622071206 19.879120926506204 10.882105853473654
15.083554700564024 21.36504005638151 10.643557865799014
14.193840157837027 22.196988144082784 8.524636234400024
28.160494354368765 5.885795180059913 8.770523547796348
29.847534777558053 8.312869901271615 8.654261784249204
32.28204773681381 8.350961764077269 8.917042958003176
61.78030857071315 77.27808233150985 23.20717619850707
60.22964828954126 79.08036342333784 22.27075460865661
59.36586428727363 81.19279985018699 23.993228657529098
60.04408165399082 81.79611256822896 26.254940396244727
84.37595657287685 49.82543664450591 51.50183975589737
76.01460690477326 62.10172908256779 18.193411389394317
77.34520527562043 63.15510939355808 17.058219537299422
79.63205256324237 63.313800462100915 17.312931796146664
81.34592310802618 63.418773297455566 19.19811530439463
50.12609803213044 67.57323680598239 44.83535379348831
48.891133718773666 69.68900423747313 45.326401379989385
50.29799192465379 71.91295337012055 44.52626592961857
52.74805025482716 71.96816198992371 43.7074644937964
61.01538651866172 82.45737573792951 21.98412541814053
62.48758544368596 80.83423868164483 21.282257776926862
65.07456685565563 81.52213266325714 21.182023148620406
65.9898039297867 83.90479201395028 21.16411238881017
84.63214754812323 63.986131890886945 19.1145503614219
84.71083045551883 62.67424980531393 17.014511899447907
82.62221702504613 62.98166297793685 15.295109372908435
81.0271903338495 64.30158802702782 15.375690375516948
77.01389819039478 60.83754852526236 15.468451365147233
78.29710070780443 59.713634354368104 14.341507548135986
80.58881628046285 60.57682178134271 13.579994482137185
81.17579367768441 62.83838948206969 12.83294138710168
68.98934825863806 64.17698887779748 32.79541582357457
68.75481493510593 64.97452755577261 34.9243684852737
69.04333200314392 63.548128484266684 37.19716816691994
70.08280110822578 61.611319906150015 37.722850269914744
84.49317565245462 37.00102902140859 0.2189678344892287
81.90060069967754 36.61809809117293 0.27712514559500295
27.662852393195166 68.21436190213994 22.84736655063748
26.363017658329166 66.89989894738692 23.846382495356135
23.911082847561367 66.43210239851462 23.110157565761163
23.201147029730418 65.8832935523247 20.841388643301055
69.48500548318655 61.55884588390701 40.528471697049135
67.9676308704856 59.97327251443634 39.982558410170626
66.67794472270849 60.37812820373314 37.916021017495616
65.63034005129676 62.34429910090532 37.006409959988204
62.91659685129158 72.87697412218554 20.78996774918269
64.10534120274966 74.73327071865587 21.813154131583104
66.39485524532385 75.1152585182559 22.64231806417079
68.05656026094425 74.16765658406462 20.964557191314192
84.7458963311384 65.45052447116812 40.68340804733722
18.053661591711457 84.71127975962928 31.165006569399292
15.372791061492725 61.20893640528839 50.31534417752341
15.172187793294972 61.88744705727499 47.89758203391798
16.717026730038675 60.28780639299339 46.370737426300074
18.853385547086926 59.12366566533714 46.879281291974806
45.448385752662574 54.40020827760663 13.06567741979682
47.716260422550334 54.251264177039545 14.280821144218372
48.84773864290059 56.88952499442246 14.082504239952623
48.79384330306246 58.24807379188598 12.587354728201827
64.81363553302882 58.773850778061615 36.55626430960594
64.60780500068707 58.29937800368368 34.11690921195372
65.69250997806154 60.30369363209047 32.63222808899645
65.41401884819268 62.4552724318218 32.73752265712242
48.85226357892254 69.67915331790077 8.16807354543182
49.342058382828775 68.89363673064257 10.436458287102377
48.7641520000825 66.1268979114808 10.700096063746631
47.6543419126628 64.93159391196288 9.323721956954238
34.723411165623524 51.32338781353746 44.30630954554364
35.2988272625315 53.37687429165358 44.048674411053426
37.0691014751383 53.42775461493532 41.827134346564144
38.245061832048506 51.328793902524055 41.10154692690912
43.53883869514111 61.60534862612453 8.10862296386741
45.682700248339856 61.638217684383704 8.698471029696734
46.33507314695849 59.911441630822765 10.144713851412973
45.201746708844524 57.77562047110361 10.691542334083465
41.70254227523528 62.94512210555766 13.170849679430386
43.48894352419612 61.398009730061986 12.342826121598568
45.422575601116584 62.9368445820792 10.995854493449324
44.93615652002727 65.43527196587658 9.998611257893945
36.97505937626173 55.396386091832284 46.1725874948827
36.254366947806616 55.95038816128397 43.90242498495703
38.40532291660222 56.1350486629859 42.333051719280945
40.7812406394347 57.03296727482007 43.17913152658578
49.877196376348 80.34055234876818 35.875292873484064
51.56234788362502 79.24909140485133 36.528872288896146
52.308959506285824 79.57495492023253 38.79919003129981
53.63296362699431 81.29478287290809 39.81551061785947
43.379615971396774 62.61586427833122 22.78890237528253
44.25370876131446 63.186087246618065 20.504130434102866
46.2374475083462 62.691364526581594 19.34788876231684
48.44683542469552 61.83755211834722 20.224329665910822
78.25625079115063 57.238118239836695 13.427380868847331
80.79943250459871 58.208662023802425 12.356833965812694
82.64091181836541 57.642832127680975 13.891600591053303
83.28036405102296 55.68466601668923 15.17668509463664
36.6599962548962 57.2078522238999 36.50514440678445
37.920561427553764 57.94076288770957 38.29153778914192
37.25940146254457 58.07882580156883 40.90893608955252
35.272336768421106 57.45285354513067 41.84904395616508
69.22371553410221 78.9186892523957 25.105107277965878
69.50180681438194 79.15064946677319 22.70996260711971
70.57428445813485 76.95998187753948 21.130138073496948
70.9336470222991 74.60915111961489 21.92495539659073
47.31193923368158 72.03022259393308 45.51870686786735
61.56147445452148 73.10577174557531 18.23461191904042
63.02474809421642 74.4607992890556 18.42279618261552
63.17930806598305 76.23544100523924 19.711427624791167
61.78429315361828 78.07081634631686 20.370976295686322
51.710702330689514 74.93574220465965 33.99066224487085
52.728578457496646 74.77500220411137 35.71508906181067
52.13387303256786 75.4251603720517 37.797405725781836
50.07748614096519 75.79832252305116 39.27141664223226
15.615671547035657 36.488817218219275 59.989722291805805
65.91870281388252 81.78165469922592 25.451943255462655
64.14134690996045 81.04076824251962 24.485044887871876
63.88211772980112 78.72120745424955 23.03300525883937
64.48455759242891 76.590818595685 23.763158723122675
72.22014387353232 54.767859677511346 30.222803275270856
70.7438931355235 54.31007040406905 32.73416685462071
69.9587157059583 56.64223383790628 33.25943651959627
70.8441188172826 58.52816274468748 33.528423505088206
20.049035390979505 62.08075463276825 24.400708453566633
19.413631740399033 64.01366986825668 23.17195557052093
21.161636537982197 65.3220702326944 24.23762926869275
21.319564221533103 66.52618554809443 26.419215526955792
5.7752878288939336 14.856738212524863 14.779735438923527
5.595508604098445 15.349679849283104 12.768176361963484
3.6151451459035293 14.446988998085825 11.44480577017089
84.82554479271282 2.5066540574835607 0.4122431936782389
20.43489124547285 65.7660994636208 14.178535619459925
19.78555177393185 65.23411875147886 16.054557913279886
21.370286600612417 65.0033896571101 18.096868834203402
24.16996921485274 65.02159955630297 17.641756450099802
17.274640711049965 64.85389630369147 21.274014459277367
19.167703782706997 65.91079100595182 21.548372532143286
20.491439644211926 67.12017987119073 19.52752559914151
19.84416156827133 67.79189371528297 17.561546429585224
25.640279430261547 66.73133458348298 28.506818860012874
24.028120498623625 66.88427081806941 26.815683329961498
24.596569268881012 68.73443459380103 24.861771885147085
25.765594577837664 70.60173940042866 24.990652354223773
84.98506488622715 66.02738756500527 35.90426101736044
82.90496917770618 65.46562109875391 36.35209162764241
19.26179103985763 60.302923277704636 15.782058514605675
20.14017763336928 61.48817711081862 17.731765486134236
18.27708946433019 63.20861044658166 18.923696228851124
16.358488506247728 63.59938383665273 18.64682496110233
48.792064617506405 67.97019706121837 15.56629136603169
48.46002675783182 67.52895551917258 13.512579622779054
46.68786136307465 65.71463102723142 12.725010479659195
44.21038028735273 65.34805357789834 13.25098956139979
25.435911041090414 84.37382553220718 43.687910179499895
25.857216637921493 81.96779842477113 44.97057919060321
23.274120083998994 81.00935405679307 45.38836686832787
32.74427494783379 84.81453092561583 23.538709666621788
23.078006463933388 82.61435899264832 42.43359379592967
23.69435401928331 80.6802890768123 42.769362644783556
24.203742575244476 78.75928253473595 41.03996725251736
24.1985435684516 78.68217844988949 38.51491038093306
36.91133991654783 84.16181303765306 14.900145593763154
36.717558540049566 82.40184339478967 17.33125583952008
39.60677844886233 82.06504958825779 17.812297738283664
41.0626295003578 82.10719254821043 16.352875156764217
43.62885286224137 83.07044402095504 17.243578414879174
41.80100928088289 84.28673871216792 17.88701130071586
41.582042672995776 84.93825554113536 20.55200320619014
34.20690430888168 83.90387865710021 28.1194204855483
31.56436780422723 74.3543105125973 47.85450522845464
29.79575676543531 75.12192504623087 46.622746384818186
29.013471467642297 74.674573726266 44.08617865010945
29.988103074087338 76.51034699498176 44.0443927681351
32.40132494965358 51.002763250552164 42.98961171049646
32.468342091466376 51.1816553318436 40.78468618961362
33.85641181767537 52.98885724256166 39.738742345093925
34.784840278392416 54.97742453213046 41.401589357948815
74.77030901096673 42.51636462248346 18.007354241597305
76.52038166997777 42.31562422086364 19.09460858401566
78.25842419370011 41.08297535727721 18.760987771677136
79.32325622269062 40.32217029673759 16.274339253365845
66.23176660406233 40.212230456325905 1.2373904407347929
67.34253891905429 40.78230458515205 2.9591895011947917
66.02790681690611 42.05109488658426 4.877529587480097
64.4155779608183 43.76459883433531 4.883558657188873
62.69885964329424 45.66449456231731 3.7244373756025877
61.80473588077525 44.27248545291981 4.812635179694293
59.821111328446285 42.387452399953816 3.642222859535085
58.755087095592565 42.47559216022324 2.0483823044975504
22.56427180091489 48.41063116506229 0.5871779545143337
21.41964087333684 48.323763516330644 3.122314783908861
56.19306641302866 41.26557283565581 9.217905776536126
57.506117029015506 41.071771448068766 7.288041539015966
59.3601929864008 42.45959564450376 6.541146000035617
60.686104996301765 44.45125254920358 7.236618165165047
63.78763517442615 61.15568293034698 4.122908561333991
65.94978546384617 61.90923421920687 5.5584226484898345
67.97938094437758 60.17094563848021 4.6190882137891665
67.68378182914091 57.86842314122738 4.82237468531082
11.7107032427616 68.69598497996479 1.813527514698613
9.842324211373823 69.34973082528762 3.2045267784858793
9.65233341670134 73.3716523483382 1.0559583663668943
82.94317093245101 56.35714773726336 10.44108949762162
84.39703335394104 57.52379736803994 11.88115743353925
84.69808199003306 59.96410913565042 12.435385884721684
83.45520573476219 62.064868409367044 11.886546670230231
75.38533719314518 59.757864261642304 19.46376256276596
77.37596056625713 59.79383989903048 18.931708172835744
78.57278208651438 58.81619804837227 16.892947803417126
78.34635041625553 56.60173316009317 16.02593932160887
85.05569242651923 57.297604204607964 16.326821302158706
85.05664105791827 59.25078273982923 15.869194100634695
83.03680740727599 60.394205156812525 15.58095753600745
80.92271409999324 60.79401727797827 17.227288562196417
11.533856683627937 74.74638005410908 5.813569056846012
12.269806162565327 77.14634347278266 6.7046412831695665
66.80132269296233 53.05269453417655 32.74406816004183
66.58698847217859 55.00763863667989 33.13786532631302
65.1128543521211 56.40753480968133 32.098378967849314
62.33260066735075 56.06855419481894 31.47600856872833
7.843246187696352 47.45849681053936 9.272511750704224
57.00335048811374 40.0815350197019 29.186661511273922
55.80968396664629 41.8138203340022 30.21591286652011
54.05528271691118 41.277324778571206 32.27250494734547
53.13540816045481 39.41423203262907 33.087632499252045
41.264996211638696 42.56583463972949 14.268123653144945
38.64011426742123 43.544125862445135 13.664095790443927
36.830553898080005 41.505632011075214 13.970373200713839
37.47315544906636 39.07142326056355 14.162058104034392
58.56881959447877 64.7264220696893 0.6469451560506868
60.72274625116826 64.7685255349694 1.3243938977512224
62.34226714916172 62.25834860126783 0.9457151984785993
61.26988046581716 60.355721514935915 0.4260437375432922
37.214882701528374 39.89895063850092 20.563900921926308
35.57689430115899 39.97160177082346 19.140324240597778
33.699461176264045 41.69047943606959 19.643842723632055
32.7484548239211 42.302201270441635 21.81736900716947
51.51089389445963 66.87788938596891 10.308864996652588
52.81428764147911 64.59575968110777 11.542511895321544
51.87693267791565 64.41741292978057 13.815544767685243
50.57196737354122 66.11512180961509 15.211241355426576
35.219096093757756 38.678975922182445 12.699538779883735
33.360005519879024 38.93365305447142 14.09503779322875
34.243915068055834 38.68262269532052 16.791179367144977
35.20846177164738 36.872942178969595 17.74685158242682
57.88087848260691 39.230947957361565 12.966622146964392
57.94098654722905 40.11153921032006 11.01925447800179
60.5161035494569 39.99934830213988 9.579535377682614
62.37557300778998 38.708752379219675 10.283212096917609
42.661397928152205 61.28175734646854 18.578482336506596
43.00809262087043 61.6787617635774 16.489500411856742
44.448056195068986 63.791958167311776 15.465427602896796
44.62852490683545 65.96003967268875 16.66859749585104
45.34075702902806 60.33240013908696 17.699142195866912
47.117318276873355 59.90726861257242 16.018287285049595
46.055942511763696 59.813078178196314 13.436349539015444
44.07842746990679 58.877128158093306 12.88501402328437
53.415327471797156 59.11435790269215 14.781269975181372
53.06190922026953 61.25260392464687 16.486825514269512
50.67829854860165 61.244864845529804 17.76185601608705
49.03416092696805 60.05666558460048 18.07265753210499
63.89121334963623 57.29580351830543 2.181892902740987
63.6230779281452 59.588278598094035 1.6552638510529116
65.20962398724568 61.355664530725115 1.0352880811636354
70.93543257462059 58.193715371496296 3.399707931374094
69.26869409717347 59.0240439717636 2.216322335786525
68.65081440147644 61.456677511803555 1.4694854883567514
69.62534853183588 63.08527547264641 0.7806971312942841
50.35050386653001 66.7894235002385 17.639545300374138
48.47176953225052 66.44033389025222 18.30561091702036
46.70443877612058 64.49275158063486 17.377580865183553
47.07442668151384 62.88034127648501 15.814554417054287
55.645153966354435 41.12718933575435 0.39421366779240063
56.183535920279255 42.196414016138014 2.109917993613433
56.50169557167186 41.20715503507359 4.415352267132011
55.49497220061275 39.69465833245031 5.577755110132692
24.31247630042743 57.05579752003298 3.446171542026871
23.90434531398133 55.711095091838416 1.8731047646674095
20.306860992512327 58.21416254434909 0.08717087812791233
22.135764493641542 43.43084763197708 30.006183687771777
20.285189597325125 43.601887644034655 29.236952258093837
18.15863949324484 42.533761219700025 30.315710089864858
17.92628241055796 42.0959596057376 32.67599721321931
26.794380364869735 55.15333559226617 1.9183901059141069
24.29706378601427 59.06376856483165 0.17631756014050484
85.07833184802536 64.44382802181316 13.296186244677363
26.495375701587243 65.28277618243887 26.24267025649627
24.731592711369064 64.46038465822927 24.570252509173066
22.468172781712852 63.41093889841876 25.513381968204527
21.87126930889217 63.47148487527753 28.060951698490005
17.564564592050775 52.028173714898315 0.04813552666975114
30.98681417598389 71.8594608415062 25.316254845019138
29.1883036949874 70.7845913457315 24.470191941650334
27.80634384063594 69.20179570492992 25.658035883087035
28.49730948811311 67.61549544312797 27.79411332376339
9.409224363123466 53.452686931134885 12.613097612156142
10.025494042056339 53.08574813404488 9.836670893555123
9.022239341373286 50.28029708445452 9.752372194716502
8.704137825817396 48.949227974294274 11.891860286603979
24.83585927667553 62.22508601231857 22.311877635293282
23.74224796924434 62.851259605082724 20.758028270588266
21.2513026239311 63.04424803005544 20.401244366536066
19.333445345954036 61.89657762170953 21.299837796036787
23.37506808461809 71.17290211009283 20.757731659844676
22.0772676681431 69.1518541708939 20.367636406506666
21.600153781799214 67.7061569015147 22.476019494171666
21.897642564323082 68.62412021725595 24.776006626935555
42.080111093799765 73.60907596422622 2.5019558272952915
41.53771408799743 75.63556280203282 1.4277000108251388
39.42235386335002 76.98584951029703 1.0572163238762218
34.33904137275868 76.36176272976515 1.835087272156867
25.537499030482063 71.84122435839194 19.374571970596406
24.955551584338274 69.53524105062601 19.443110093584608
23.544252247555402 67.98430324972776 18.05423617761991
22.411507680037 68.17130374978221 15.826302167069896
35.93559466794095 40.690389352943384 10.985938567455625
35.0812031531046 42.46561811681143 12.32871424227398
33.12281775680627 43.86583373996809 12.342265992679106
31.31008135078811 42.48892688475945 12.77336356942538
82.48671691966501 66.42586446658802 39.36413108319569
81.77697358352428 67.77655355616935 37.53414406856388
83.23779224275297 69.70267451349176 36.600733873645
84.36063337769723 71.45827092009081 37.60377593729327
82.02521382666056 42.21041071014289 0.2988241098983112
84.64459019571999 39.32891838960255 1.7823176162235208
83.87657331674316 38.804619705726104 3.5933762299879684
81.14367904561904 70.22219974652104 31.61927079280167
83.13079295003372 70.44668509155531 30.726642400990745
84.62302560272134 72.70568383235927 31.686492522659602
83.6756219394522 74.17421947138119 33.52945019594118
82.23851173052219 81.0932932787319 34.25767551147029
84.6059040243906 80.77302383696546 33.72444969794169
85.06093557377078 77.73112913314714 34.37717530981305
83.08056250434093 76.51249955031025 34.990651180455565
82.87751729396314 73.13133417380938 36.25822626852778
82.34231159641382 71.3962742299408 34.600617393415284
80.09993279361703 70.0650933993656 34.2294467850609
80.54510872928016 67.71139791952282 32.64329766864382
81.79776491553092 67.58751259626109 34.482981509964205
84.34502296845095 68.36111226471276 34.666503477172135
29.494238140837364 79.56257991181413 45.58066024266181
35.4802199268909 47.808215594533706 36.64673983434398
35.511508109821875 50.24545760474183 36.392294831466636
35.792819854254915 51.2432940167832 39.174889198956706
35.053276536990815 50.2111782722213 40.973838417165354
49.769385595980694 28.036369108749522 8.519724037147212
51.712871103223655 28.99720720068666 9.797959730783187
53.626865004938935 27.2641265373481 10.37436585558129
53.6710419282683 24.90776723116515 9.469528374806673
58.08812959049064 77.08007772571807 38.695245118173986
55.85137177975763 77.4142327771704 39.09361431714916
53.73308987971543 77.46954801157392 37.97946121443395
53.228931344332885 77.49289542696602 35.231442524825596
50.41879994106501 78.31540607184989 40.51348967834684
49.43456922379426 78.32014892718058 38.366994871588105
84.54469404874854 68.19087399654705 28.1837665438477
84.74973387251664 70.60359453581566 28.505584036478886
52.695604302289354 73.18137507199444 39.15073372082414
52.30343458968831 73.02524509213137 41.452498218987046
52.18793852842998 75.37177323272523 42.53835277478718
53.4350501689808 77.07886116318579 42.52188114763407
14.79735612422021 31.823968687982273 6.885486847483128
16.27190212082077 30.436629168905032 5.910994110162043
16.414036312917986 27.706613338552472 6.449786226769926
15.468167430920275 26.669995250251638 8.132299291710115
26.1589984253464 77.59459107623098 50.091189556432305
27.42151771779414 78.0295124163339 48.47702204104415
26.81718147750164 78.34768881442336 46.2209071371943
27.292967341149538 76.97528858378597 44.79866522702527
34.4906875465532 80.097544005665 45.86461417243959
32.95472727540945 78.5548289538026 45.27280270334082
30.997762265175837 79.67820246167094 43.35254040197383
31.397538302726034 82.01114674531038 42.59351613011532
22.780037602780325 76.47611869796046 38.70368412539771
25.0345921942557 76.26895278689346 37.63244539666264
27.20311820943732 75.64490587053591 39.4725817172123
27.134007497511316 75.42064382876698 41.5720022866769
42.98513975854038 80.46059248910332 18.09008075407803
43.73135552520853 81.18524044625669 19.90624505697803
42.282642502141535 81.69457608423293 21.911404376885848
40.30414071548688 80.63335096833795 22.841299683844234
37.88133779402857 37.96531233140422 18.58449585707514
37.83606877009413 39.84104742526527 16.83414796011688
38.86387323349619 42.36305936459354 17.835096776953375
40.42311950549045 42.67829634495459 19.45590150222034
26.353753681757414 49.412432474137304 0.6609429928837642
26.33288268420884 52.08038864968982 0.8586826276669198
24.19495353906697 53.51416387399929 0.5246182273611412
21.954000763740176 53.12458781531697 0.9954960019873215
76.5214346453764 76.19172013027772 0.9488941642792975
75.30410466353077 80.27741539924905 1.0805278559349853
73.23893636828045 80.24817291055797 2.0743754396167886
83.83119462320703 74.8707229256282 29.09369834427613
83.87971053758427 76.54360265519931 30.946331446953298
79.48050276054235 75.4994692575739 6.189772558647507
79.13705851707319 75.71602835629638 4.318807277388953
76.9572437333369 76.85555352914105 3.475741219830175
74.8508083181344 77.14370830719449 5.519459659992304
78.08542948646908 80.5334893001051 1.582631555274796
78.1381243184558 79.20582673252385 3.442476123089128
77.02161508836845 79.4291924391103 5.8625637020709345
76.10641685986275 81.20061932277999 6.762902725574203
8.705534732241956 21.57249627608543 35.45131143634517
74.2562815102356 35.895805482748884 43.06905831176596
72.30794296141252 34.705643963007894 41.97884615460439
70.08171972441538 34.7749527980197 43.5412146960959
69.83314900697074 36.12519162818419 45.520175785776864
67.78497626728462 82.42847701551264 19.12048639581904
67.40681048830355 80.8200591603408 20.551303286552837
67.813134796053 81.08230350907482 23.35331244079199
68.31143788404864 82.96652813225543 24.431228395976483
79.16503567467932 81.44486344416524 11.777033621442778
79.54899088581666 80.08606870882399 10.28011890509819
79.2031917427861 80.86980216648003 7.787901825159315
78.71937698918153 83.55599046680373 7.588688161769388
27.157615743046595 83.86633584756407 4.962409686760909
67.0992234393429 31.358610998904336 49.833798766223545
66.93144412140819 31.98285713887937 47.685413276682695
69.0500943749044 33.58360070735089 46.646688664564046
70.47936856254915 34.92352063945984 47.62445427702577
18.192805990734804 37.08465536136853 58.042174507124194
15.396694253218213 37.626927777887545 57.65308816234205
14.473828738327393 36.333904593548816 55.28982174875581
15.47888355230671 36.22851948473598 53.24673502044163
