74.29881064502949 46.36424267388558 9.180384741861902
73.26595468804364 47.66610035184916 10.692384251424658
72.95474845599237 50.13957055242594 10.282131791231047
74.00939944778912 51.63218291085269 8.43948900984864
58.882927455860944 31.780818371406585 18.970922152336165
56.99822820509824 31.48981234030591 18.443727387779884
55.54766682022091 31.34344008548525 15.77484725813966
55.99605496695644 32.498919158929624 14.282639341003819
49.8792345728539 26.813072335607732 20.32381008316378
51.70853280259203 27.74965839403349 22.294684389951453
54.10913890407497 26.213705447739493 22.115177614914227
54.60346283845687 24.368728582318933 20.97554559755753
60.81745556345962 66.06823626554633 1.578212873932204
59.69639135552457 67.51960014875058 0.6046853187474943
57.71770296733999 68.77555571878486 2.2419450596950536
56.481406604814666 67.65089022910924 4.146060603792204
73.68598522150039 11.963594560492602 34.72977991705312
73.40061126468609 12.157682666519035 38.682283299401405
73.91275815624664 14.456958679876724 39.48631449323326
39.926102932332206 55.47036951222857 17.29042647235044
41.49461723342377 54.2023226352139 16.31522056530516
41.02825532552457 53.28527683506166 13.958121634717966
39.280506619709996 54.476816565189885 12.304330493575835
58.21823619424058 37.8565192224435 14.182035674521398
56.05179422774521 36.58520965750013 14.582129567435535
56.1668281985133 34.49970169447344 12.378602073966459
58.36236909727431 34.887030814180086 10.696052271656468
52.29889549466287 51.24238377212244 35.24977756570969
53.97395455039815 50.333040091196025 33.88265430894986
53.17427418575704 49.89438051103391 31.303053114462017
50.57681601083324 50.104263462423994 30.554625950702494
52.90586013538593 62.46091878614648 9.91120123496882
52.87636891418823 64.20153547838162 12.266448001574586
54.13887026030059 66.28553196740944 11.464382297323672
56.338204319761694 66.53244328297541 10.048887240486248
52.69101230938808 38.35107787364131 11.77008182001456
53.26459418748929 36.225742513208424 11.592740231044003
53.633095916317025 35.01614177107921 14.079992162006917
52.479768011481106 36.03709086428105 16.219965878118412
54.23423198681395 47.809165005758814 28.012531715960467
54.48159836266769 47.76642520071625 30.320214766952073
55.14216809129454 45.87927779944465 31.361934967298836
53.33924814839448 44.27345886089777 32.96064875029194
62.96858121204466 45.22447030643497 14.413082258798653
64.70018614927534 46.479162118001796 15.715923454442342
66.61827110541536 47.98921760794963 14.027754860734785
67.64710801504775 47.20352340454492 12.343453560273389
63.30160622999592 69.12205131381651 7.901759237455333
61.79804892450397 70.0181932690292 6.28468680409405
61.10305370607572 68.31694372512048 4.673340705245021
62.06990862785954 66.04248696596807 4.118769504861279
60.001389957459914 68.90553287086146 9.559559900985445
58.442518994142254 68.22185780299318 8.856543277180183
57.4324359244781 68.86394463383897 6.382010910616887
59.17087415827513 70.30659589234163 5.000837913726749
59.33284294199352 71.95588932230771 0.6932454444609063
59.58754057034644 70.41594310798291 2.302163697307015
61.59357694190764 68.70165400417675 2.1106647682459387
63.8935825020931 69.5542860874944 1.459861286190189
73.74142514929711 78.55909252048755 3.391183114241992
74.21746200770895 79.01080800466163 5.736967191629205
72.37540444144868 78.69517738092908 7.6542249115293535
70.2735438441401 77.61506865335025 7.647238599087033
69.10485425177062 51.977187986553666 17.016739780758236
69.34160199219424 50.32685502799883 16.021059923021113
68.04331184619872 50.39424579267197 13.475754610205541
66.40279263292116 52.19484541792817 13.052570219448167
39.9186244875078 18.418453390991363 16.63919871723248
37.79991288108251 18.57959938330547 17.658957642573206
36.21643524321 20.718231555139912 16.786794490310278
37.047548512118546 22.762407925535022 15.15985631355503
31.490264318660174 37.662629169208984 31.266867170629098
33.747863513064694 38.993637024501034 30.09126700437529
33.793095117204174 40.95503211303408 29.227805668515643
38.29082938255208 37.438470134512166 33.414610251929126
36.63850124850224 39.01624287223858 33.78465648108002
34.968352525633115 38.502442834028194 36.133830853326145
35.512317837762254 36.66528701554346 37.59262300767178
38.01529428970904 36.06110343405183 28.71117870798762
37.6364498835908 36.78099025388813 30.826866662165703
36.184736407774786 38.913112739784744 31.24003610749163
36.292164551485214 40.98693764248699 30.66863770183209
37.181090440931484 30.946604904072053 34.78763226300028
36.394413763976495 32.62810199449016 33.325236013413125
38.136542784476404 34.65206626296713 33.00037158494269
40.03808360041098 35.130855172175245 33.63448302487324
51.885294935987964 30.14763587100546 23.793023303016454
53.138110685512245 30.498645924601146 21.664817467574576
55.32941580905961 30.73383530318169 20.868408481182957
57.65053051861359 30.63178983708499 22.30975621369806
33.083061595560295 62.403546279596114 31.12228481517006
30.24499362132856 62.15959974434812 24.67219531444413
29.57034258013272 62.517753068718434 27.002017716569814
31.449509488828934 61.871416141401085 29.107292585162348
32.91817379750472 60.369627171423346 29.261350104083874
40.001858424249626 43.11304858793917 14.774459557780746
40.113482649861865 45.412184548960425 14.787368352151393
40.213985002127245 46.75343137346142 12.678708427275383
41.46934124501576 46.336818723424194 10.31427058554645
21.30161644668765 62.602903773800634 6.853556287627797
19.547122757031175 62.92615578053142 7.880712981711056
17.319246542633973 61.46214143991477 7.8081921476960625
17.167128614007584 59.30423734431118 5.919538596281872
37.880738186171605 37.59053092210309 4.56472752990426
38.85502737124711 38.29399072330058 2.741366538900165
38.14136316931112 37.31908843950545 0.13800624803772266
36.44901026823015 35.4463105271593 0.20021824059965063
54.5765787326896 58.93829246187009 28.0025421012216
54.172072261676675 57.09996437974621 28.99205307429646
55.98871715179104 55.35791043038842 29.327358116295297
57.58111589561345 54.153945828370574 27.624032711225606
82.95743055592372 12.720042217267833 1.2700227936142623
75.21678252681349 77.13348910603392 11.235268879266199
73.90625536768898 78.68614074898791 12.287674124118855
72.87163499256278 80.52534260086526 10.747521205662803
73.9788811582532 81.09948665080785 8.372140011167296
66.4176457116381 21.208050647232923 12.513061653101929
68.17806565854274 20.830111227339273 14.059214202736042
69.45506316453134 23.219148364933492 14.66222450341813
70.58508033736621 24.10543620257734 13.052060629645021
79.43912408220503 16.180208445517657 24.236356525561913
78.8377890249501 15.705755037164652 22.005014203983386
76.73260444947475 17.726647647405496 21.036994968587816
75.95804144610139 19.39782530616131 22.644987285278518
69.16004896079028 10.89784959231884 3.8214830756464617
71.53446938422773 11.405044149057193 2.915348285172865
72.95658060939653 9.223108482776068 2.4155799820359802
72.48228368404976 7.330269970607795 1.8197749097102196
39.75978096409145 10.497592337515497 41.3844660356467
78.6954861246249 23.12479965194441 20.751713393403936
77.44619219448495 20.996916567676877 21.168112104092977
75.1486589099219 20.998619436637316 19.491644956467205
74.31772991064022 22.50894631327482 18.36761011826168
76.33388571851312 29.824747891849 16.35169483516817
75.46691840356691 28.284308082199512 18.005207184546585
75.89511177218473 25.608489493801063 17.24102588522285
76.52274873143661 24.86455173896332 15.181313477392683
81.33638934474057 36.16099382099257 1.8796592731880013
77.34560729920996 31.82740370118983 2.322100205590347
78.80961791967857 33.435102334571496 1.1907141424971825
78.13587678892083 35.66158405198629 0.6415438158827553
77.06964612015956 37.36976615542575 1.6027654814447652
60.83602492120358 8.267797842599837 19.4614376188784
62.27904389369862 10.235110865426606 18.702809122984725
69.78636611773915 35.73812338296163 24.47349790513722
71.41999384566782 35.31414413571483 26.36299723380555
70.30872013179703 36.248371614161215 28.630096322792294
68.12461335421536 36.86750012402287 29.05269774677934
55.94457138404593 13.714403632195058 17.18128533123222
57.502204418201494 12.486076598047413 15.959801654153853
59.82271068038414 11.474971358289832 17.55746090796136
59.90873529391857 11.806928909986972 19.98022938748646
54.217487218021304 25.057744394249298 34.276626142684215
55.51405025947762 25.90382702734732 35.70540413451005
55.34949096715581 24.87265800641588 38.376016943221686
54.069009959352556 23.146002664947005 38.824433512709746
53.21472361157485 7.76803105314919 14.250679770608466
55.70806580039725 7.731156921439914 14.447131264713553
35.3505846371393 14.595325850801418 11.453431951854611
33.70502792858433 16.018833618098423 11.449496696148021
33.462577634938796 18.51299370369861 12.629471966617121
35.08506797097805 19.318989041487647 14.614643182456007
59.16697172798902 24.821593106790356 33.55505922306715
57.06178603699637 25.029945498820187 33.83006328394726
55.34513640908446 22.513024520338504 34.75496920344994
57.23141613280117 20.73668844512093 35.47168278726092
50.802395364860075 33.157637845245986 15.037345614499737
52.7707432698842 32.6338691119216 16.30241749642579
53.29071136800436 30.85436381848288 18.061034253267707
51.987518783573734 29.14236281859385 19.204229244395368
55.458436234392025 9.254776921261294 20.06841040995158
55.13512693393077 9.976185817394374 17.774150402621245
57.192615520380535 9.389428959442307 16.270776659122753
59.24924398613228 8.341905622331247 16.8356261536397
83.32163066275061 10.347167567898499 3.2450283250287026
81.55616297725766 10.799433634688679 2.833645960933248
81.68513689340277 8.353429360557724 1.4226519447130483
81.0918275894345 6.536412957511077 1.8017204599979828
54.147541651047106 20.76465657101055 36.73711968089849
54.121328514788075 20.61661527618181 38.71251589842885
56.1031975532227 20.611487415879584 40.244131840144945
58.428710964294524 19.514194982199328 40.00860655012345
53.22154121992699 34.67592386300221 23.560411174976576
52.41668282799543 33.17172799010521 22.115298161686468
53.49680517988561 32.476354945533934 20.157155618794963
54.35987393194627 33.46077461936413 18.29304289167307
54.82101689015835 27.21788688947804 11.788176337950745
54.73301502313211 28.946603792071652 13.136407250020216
54.78154912540736 31.100809869028804 12.38517843691553
56.08704603832298 32.43382332743866 10.783353338164758
52.100364410258756 28.545781608912367 12.851575324170994
50.96866408401444 28.766880789446372 15.192949479465579
51.43742281525729 27.319033222310427 17.264190680167005
53.32972624449 25.64543272196534 17.69794230724274
57.76540050560796 29.368871497403894 20.12553648109832
56.06808031520298 27.98591556518028 20.343416800484704
54.54777998923665 27.911176812750092 18.16700938325166
55.3222687195437 28.51010756378185 15.897447619627593
52.432247243080695 34.87695785831178 9.264287230713549
53.51662098131228 33.92014041496355 10.5096546518417
52.46550691254225 32.55956465396168 12.623673083402936
50.941389903309016 30.86464274212054 12.783646838426362
68.2289016374347 23.98235659295326 17.514002786669053
68.6088894822031 25.580216528092958 15.540662623189453
71.08375792718977 26.276624751780137 15.240128699453164
72.95482021707087 25.35467196785718 16.742686114075177
40.74706430352698 14.394613581592285 36.952589844569644
40.77855874626009 12.13797663124334 36.38243444894805
41.642866977660844 10.116362269406862 37.94552070013593
35.94519473787081 14.501071606827479 36.76951036813837
38.14899301918244 13.727034663791626 37.11380022822182
38.16168788070896 11.106240369350074 36.96110147167543
37.15219234671856 9.70147678605533 35.541235234634414
39.444040192890476 13.748837463832775 13.705506555402115
37.34047847343409 14.283105062661068 14.354914950643003
36.468389367372836 15.406111532504674 16.79953946590042
37.639728944067656 15.865757998638914 18.614870027011776
41.862969442721166 9.320126225365934 34.47158789722708
42.36555016671049 11.564536572691495 34.31695564666859
41.427661435372116 13.268027045517272 32.29071573490444
33.653315607262726 32.85949992730406 27.092036350230195
33.73177407530522 31.720546800568034 29.218205980464422
35.32532181123273 32.843985437533675 30.67801144191935
37.296996938611485 33.92037681987962 30.437744689330497
31.225172133050567 14.732230012421933 11.834193441219501
30.766559408816445 14.082352117717782 14.06508390695336
32.79805028489464 13.623294813201825 15.371473761736029
35.15244268815817 12.702246775677638 14.774716762637922
34.20291724820801 37.42059726742829 33.119610027084164
36.64652128248756 42.34823359086462 33.65345093590085
35.73852304564256 41.56320867573356 35.73434593441766
34.142206763007685 13.374248582786574 21.478876637212586
35.11203618242655 14.37595970445879 19.727791459996304
34.8331633106594 13.067299674752325 17.68472349884674
34.63914999572468 10.596792893842268 16.956699722300982
27.620805022538978 24.172577966559597 11.027394603160724
29.313116650938497 23.84347478454974 11.7554544673491
30.27714724014307 21.84260082758715 12.502807410806126
31.40947428901854 19.871322727588602 11.079009454735251
31.863597978246414 12.767711050722692 19.107602238642635
31.67937416753925 11.52912691759747 17.152633037499946
29.45468548730516 12.37443602096955 15.608915753413362
28.0348591641663 14.206398811509168 16.003269954032408
56.08818673292459 28.434860084521453 44.198962351877334
57.62194712593713 27.600709936420095 43.257888938397905
57.931335435049085 25.676621164841215 41.338815021965495
56.49278619499143 24.048469184632687 40.57353737927419
74.85412182781579 81.47239299751823 15.24798590163999
72.88786435354683 80.22958834304195 14.391350455328775
71.33200833816666 81.41464425487797 13.104829709800445
70.07203751949031 83.3959118425016 13.471699813124982
83.70254165263864 6.7495090981532915 1.935368557197858
70.21298082068571 78.4699325918297 15.558829141391271
71.59067892058 77.02831227933173 14.835064131602254
71.62567715339038 76.41995723260628 12.241607378372379
69.69051587493725 76.94412744653023 10.737356462238074
84.65580775488326 9.212384127960044 1.450780839975857
35.69986071336726 46.64525978884926 12.166051577213493
37.78772873926433 47.589188917313614 11.280984408320252
39.07794808623262 47.46426021992075 9.07488594401941
38.92459540038753 45.65005073602717 7.167662393595645
74.84107955779594 83.46087043150382 12.363467217565365
77.12501632667674 82.36789174535737 11.031739601661416
74.73045875073298 12.303442772446212 0.6182093147429192
74.32184441416486 9.772949740388388 0.10842986852145867
77.9012175974 16.962663028348615 0.6634729125558082
76.4895778675817 15.320955593895938 2.17922239031081
77.4688137998252 12.770231823748007 1.324900910481151
79.66893940682073 12.38798104203036 0.7599664922866465
52.98417271145211 63.959197831386994 7.6384346806780465
54.33359028357084 65.71847118455239 7.319173388886785
53.892260162571304 67.80096607738892 5.823854229170878
51.48868551329929 68.31191869760549 5.016984815746099
70.00652545037221 15.048425784818965 42.12030390160702
71.8347067813746 14.206881996767871 41.5335555776498
47.89889004765408 68.42408889550653 7.571760518966738
50.21117366272005 68.07751894478614 7.503322798503483
51.54991296405603 65.95843935611515 8.9749695444578
50.78441214103429 64.49242468394455 10.242470163659398
42.93702145006737 72.05788751801593 26.526348268788425
44.36077453337252 71.58477133193242 24.67822927221094
46.45327108535654 73.47563891110552 24.53539549836338
46.494336767905 75.37592164895095 26.00250258831067
56.77680152503007 71.76462434762598 0.3234621789795148
55.513380422638924 69.9098951658102 0.8415349964694481
54.34044440031322 69.13011581849156 3.430747951054482
53.45019240508397 70.73565260505472 5.089957826622748
38.00929374913795 81.39708465712673 5.2604397134017695
36.23551125680559 80.55648701078736 4.704278953538012
34.681464556012564 78.98092732134464 6.676288034189862
35.620148169336865 78.82415177759633 9.133226298768198
61.46462942534233 66.46798090937565 8.773113900100062
61.69440375587227 65.3148278426284 6.744458335494742
59.477569850903315 65.31464575519381 5.5605370464793955
57.10888068567497 65.84264977109693 6.967571399664341
48.83595181668038 72.157258297403 24.97506378152961
50.716321370701756 73.09760034374554 24.716337524415575
51.354141340579076 75.62398595176518 25.49225602975415
50.95051153607521 76.7927304365218 27.37927463798479
51.40124194802807 11.528603648237972 16.829508058421617
52.68818797935996 9.681340972933906 15.935806018828313
55.12541275734459 10.579563012692512 14.923103553931462
55.61968453438019 12.464994877380935 13.705201842817413
51.28159660395757 77.72796752064127 22.390289588143485
51.467413401374564 78.4766741838538 24.348268125168477
49.12528336033251 78.31548816451534 26.32671305597067
47.16025759342237 78.15685073179651 25.85091042759526
51.269380396102 13.886099607248868 18.568757921147196
53.019451372740455 13.347505332965918 18.158663605405245
55.03226377230918 12.180993592856971 19.20339250079805
55.477693173592556 11.668507977900493 21.413379237522
55.48045117148049 6.755509336416296 8.56057016385976
55.10488095324566 7.047688306425459 11.01766434556071
54.32176769960737 9.26928691647481 11.834538522656665
53.63767338365828 11.110097063518284 10.752838055527475
74.88292553642887 6.177716037273511 0.7514437371084047
59.764020151144265 11.074232353071178 23.251305489486704
58.00817648078547 10.894154052440383 21.590453996913
58.11920313685102 8.48341069907191 20.79202160038879
35.33639807688966 59.52577147120084 30.119780677171644
33.809013721525645 59.27938648402604 31.509119135553085
36.24870557135748 58.99490722190855 35.34533112683758
28.178745408030522 64.88318416791114 26.515981018778664
30.25957540485941 65.385131403269 27.739361377650162
32.0405977262541 67.26771652238813 27.15941896277178
50.95616722580176 69.75110468958671 9.402141577156492
52.69055728797951 68.13180731309127 10.259894312110644
54.8498327505915 68.56402806963607 8.482165722597687
55.40186740068355 70.47992656074221 7.035533546159736
31.155634585731946 32.04828901249898 32.855323927764175
32.89131458950668 33.79391471522872 31.339375862858414
32.060729442445925 35.57565400031321 29.565487856851266
39.30507687481746 72.86004509543221 5.206362667217755
37.386078332496595 74.48146124246118 6.08386521776941
37.36830968638433 76.54341220257501 7.317866918512843
37.942719815762935 77.1776692665075 9.204501423286874
50.49754060519542 76.40546746050494 32.42759355576758
51.295778439289 77.91546124645502 31.019237977755143
52.79993131055861 77.0355989901017 29.040209181479344
54.4655773259557 75.69929773638559 28.923079877489673
38.33178424469111 78.60000817803088 1.323075808978801
37.604527333908166 79.91638639124143 2.5515745827069587
35.41241099241358 81.90371747459875 2.17447117279459
33.91244988798944 81.75303331681975 0.32451838083109585
39.30268183657919 13.489631056091659 41.32434225184713
38.25408283350661 12.808461682787152 39.582309411477716
36.180808609634425 11.271232677861112 39.62661785794839
29.61508605291689 75.70609925123301 12.560354881963994
28.618216895199915 76.8536684769524 10.767332242552934
28.98236488432925 75.60875937459929 8.378180040500451
29.834325815158195 73.18447746976663 8.03364386577844
36.9354398077464 71.44814899585987 7.67505453338543
35.76701298969218 72.99170762084329 7.968145195101617
33.03132261000238 73.06094885191413 7.819073305865543
31.52575410963073 71.17441514728282 8.168135259243831
34.3612504239114 12.193694695740525 37.71439360449583
45.446262828095 74.15153571426748 28.540322305114014
47.537465836516105 75.16131171855966 28.953887610605808
49.1778019728143 74.8785039211052 30.728008404688794
49.07608256908199 73.83304113108402 32.9635386568499
17.12515784776119 31.806055878353646 8.684305310094654
15.711618236017136 32.82263493799471 10.242248159626325
13.244071959440733 31.840096093205414 10.66139781243958
12.335780753368562 29.39565406049593 9.814483472181895
36.8804570073429 43.44825337101295 15.010068935276042
37.1790081472496 45.29612045716703 13.97353530204466
37.90902155434627 47.50157711641228 15.672113507872373
37.56018045263043 47.8045861726549 17.900009500828617
34.035252898939724 58.42220767341097 15.640574860695084
36.16038631374233 57.95273691962349 16.43373802596969
37.27849089736882 55.54993446164698 15.651973403934836
36.692114987145345 54.09400364818326 13.814706357213431
39.669700648559434 50.07693536986177 10.458378072596268
39.80346013841679 51.604364759378456 12.287408981780148
37.694214423346416 50.98096819242753 14.34282410251162
36.164762779007226 49.21983819828318 14.125257654023367
9.849460260616283 25.57851555188931 8.424022168260407
9.885304137205534 27.57848264391584 8.422022672313265
9.306045979007017 29.173843666946112 6.548343112459088
9.418759431201432 29.29580317482918 4.358102681004134
15.285842076634536 37.10484282798299 11.387628356403773
12.848469231974853 36.41227188297366 11.455203340651048
12.383573812880146 34.59639695748965 9.183814819155154
14.577622215815438 33.76419835773154 7.850157879575126
28.825827985736062 56.58072527959586 3.7945625877604936
27.498712680328694 56.577299360367086 5.711763645302948
24.94702725441913 56.721081917606185 5.913526133805696
23.26510706482667 57.18770076431548 4.277084998754418
14.20472664474947 31.101323586386496 13.249906658014147
14.911266774374573 60.32879036590654 11.271821503533205
17.400558077076496 60.96831065092032 10.341259547691514
19.703457603344187 59.73412436114315 10.900183773731914
17.08456745608355 64.80855237098034 12.94523326913116
16.02704766246736 63.533573958072076 11.367500902479675
18.390098645683608 54.01979431173645 5.388452277498398
17.59112395702085 55.295657498111034 6.589601670260751
18.771422345447963 57.561571027467394 7.209670121128145
20.983771597973256 58.242124274555536 5.503339168563487
35.22480191395792 49.21967136906802 18.707474077429275
34.272825588814 49.537408124211915 16.490576728533036
35.560231157935725 51.91626232147512 15.577333083098264
36.85928918011268 53.325350090894325 16.895422154954215
13.71121370607471 7.7237939270242615 12.963482922404657
11.825740522691646 8.688879336681186 11.463338275456817
43.49482728812212 52.38930408875615 14.748476243605998
43.099934192039015 50.27614273449482 15.365869933082369
41.817047973022 48.57133898667736 13.401392337631705
41.96059035030285 48.95961061202717 10.857868336780047
30.064884292543084 22.185903916586913 15.436094053674093
31.559019847625766 20.628468422632558 16.025031514629873
31.861233423482798 18.061676298223322 15.115690400073246
30.4338371640984 16.66728101948284 15.248789373210217
31.991675888839847 15.039437075660938 20.217273172922102
31.580521756367137 15.46728956350741 18.02705102289252
33.11603555214836 16.211215439408196 16.16672294872788
35.135556319733354 17.53807245853027 16.356651433656666
34.04338767460384 9.37789845300243 1.1890996011245663
32.48941674247607 7.409762263647365 1.0844451064195433
34.305992789757354 5.438275161285391 0.6933503198841782
36.729093586447306 5.1299695254567785 1.3819105020915303
31.794244540415633 24.900044189962514 12.123049418586838
32.632969126778995 23.13663861348683 13.105589140034853
34.65679768941543 21.406696430719393 12.554215631780703
36.939497880952025 22.10163665829012 12.593899221132231
39.51860000012087 40.65063235024338 1.1144291758772036
36.86752495246181 40.4060210971303 0.028787306372360016
40.758961830882555 36.34944875362663 1.7037021430549406
13.823728173909846 5.26744958040394 7.554018762456197
15.464019867349498 5.686023654112208 8.967380954458356
14.953343031555104 7.016554308449342 10.642075186573889
13.956577218480383 9.727391997838625 10.595039252845313
21.816016447234954 5.577660776981792 15.929988616591372
17.306869755706998 4.967611942752977 17.031270599987433
13.183666554567171 3.0358826506491505 9.795158246729988
13.534106119285862 4.782673107063515 11.06422967613795
14.760840326316481 5.113640488045219 13.239147584035745
11.342010827611164 4.698723380503894 8.980894196947418
11.048964102574041 5.970426819023766 11.575855036682203
18.280439050632324 37.014483497917816 11.447691936841839
16.918190685144857 35.06045332007081 11.419889560239785
16.065451971406873 33.505640986229125 12.827373217047247
16.601999021435155 32.11952480902375 14.407207250778429
16.554071727688523 33.83664336860563 5.719494735541718
17.400503674966536 31.679152713227264 6.037825383371921
15.268902464720234 29.8408150030157 6.790136532737495
13.21944579297982 29.75367815309195 5.5688507603769075
17.972132747049457 37.133140265911074 6.565423855995459
17.87443665717529 36.5722109574595 8.85248460632986
18.425873631739947 34.02090335519244 9.299819145605392
20.053924998887684 32.355788074550965 7.423206811301095
28.66577316658476 26.74572900146483 12.14696747286443
30.187236007163797 27.35918300536807 13.355915209396114
31.341546903746302 25.557554426131933 14.933301686371708
30.33450513385804 24.529930860038224 16.96567521615775
25.317481180610358 58.87175838625656 8.364297684465214
23.69338731512519 60.69475444214193 8.278714346870112
21.176585267930037 59.596550429586436 8.154192716004896
20.994732994414957 56.97854195803 8.98585706900608
38.695647084742625 52.1970826648105 19.032800125945926
39.57679052527446 52.29067986742345 17.124140666412835
40.408772088323246 50.358072566662386 15.434478411445344
40.513801442090774 47.96199896068892 15.890122884277368
61.500547978106695 8.671235532503387 15.018953245107367
60.41751421844303 7.661555847694844 13.438366323853767
57.98634164695624 8.080339720850997 13.05414238361647
56.947062947521644 9.965428925265407 12.923255552564278
28.78526507273292 78.11107492122936 0.25204998140814594
31.16534375225387 77.45268786021825 0.047952595686651445
32.838663436796516 78.29097695635924 2.179660391385312
33.136203407549104 80.29517364707424 2.8166310325977553
32.65592543913206 74.41739623277432 4.9102750035144105
34.01286224473059 76.20741030292903 5.546404048982938
34.92503240843178 77.86029358518671 4.449022317084811
37.2686292657096 77.93115941757425 4.368570304032956
34.75926484561023 77.85510852230854 12.590616046267252
36.65633798912189 76.55787763709341 11.44530208109149
35.57455555154294 75.23901337287447 9.363290689555633
33.37068409334554 75.44643380621277 8.530028064781426
32.29255263297881 3.6479442791710714 0.7669469513847008
35.38972737420621 84.14591632580692 22.761997349375076
14.539610691033452 61.84194496561407 6.417545210872475
14.001930460423171 61.31454232818805 8.496645886317575
14.6090830322021 58.64783110023333 9.292001928276521
15.381022930481615 56.82600273443452 7.976756242371196
21.09087241091811 52.67232205420859 4.97405359058396
21.655620954895582 54.88347127370256 4.836213890687504
22.499447532985776 56.09232030807088 7.098557435321207
22.95632521531201 54.78100288201991 9.35079417430388
19.74098735724691 53.29007836432726 7.965430456133679
19.874594730130358 54.50322449097994 9.80724196771195
17.723050768759183 55.68163424187584 11.136004734358423
15.542627002065073 55.85964378340577 10.550381501675863
14.46921976230228 84.70214959746072 0.8662927881135533
15.536091917214721 67.20750919076315 10.691340307242784
18.280027061807502 66.90794103231853 10.257173735571682
18.308423593086527 65.65770494230814 7.913252943840279
16.865526991638028 65.48239245875153 6.312685635057368
56.173842841702566 14.083846133250209 56.14942503460899
54.90579627292921 15.11570519487541 57.44829138773158
36.14825495981306 25.203004100436843 16.446557692214352
33.994934351856756 24.837065243541964 15.315538317247162
33.39747176536169 22.52756073412938 15.655911697083225
33.75451472817105 21.117591006699005 18.312036559029263
18.68104209159834 8.008288596792216 7.607900665466928
17.452846091155262 8.207384870847397 9.64149693523996
17.772854407142237 6.416329630166099 11.557355045207569
19.79900486547224 5.0245914341388485 11.92920544070516
33.16649729771181 79.08266799835724 10.553442035522659
31.35029484624408 77.63829154920279 10.165038123579908
31.338201866766465 76.85657841021823 7.647619512158828
31.643494960649733 78.02396075335425 5.6003613783395405
70.66781310016005 57.986438735737146 9.773641138855032
69.60367758796102 56.548232854123555 9.089497965553194
67.19667171129959 55.91538199304635 9.65626181754423
65.53620554277039 57.48423195073868 10.112773431021651
63.35732820864749 44.23195394672218 46.97363257720599
61.46099374795463 43.88682392146954 47.80446210226044
60.85924430065572 42.687343162882584 49.814563614560576
69.409935680731 54.16207961680435 14.437396351423498
69.00035509093055 54.697862552827374 11.914098171264062
71.42844163529206 55.789993329295896 10.90248405209902
73.06673460244548 56.91507060625595 12.510663491441347
59.723614061024485 49.087890742361665 31.879017682838505
58.339276639781154 50.007301304576906 31.1220632997288
56.56915455764422 49.208385925999444 29.227351136299383
56.88722324158993 47.581482115641364 27.503253907571455
76.84319028586759 43.221222650804215 26.977520540386504
75.45853793098678 42.90729786430711 28.78385902157999
74.42236362952781 40.740954600682926 29.427836683555896
73.84716949635356 38.89964803230039 28.3116009331015
69.32903273901256 39.15648737329118 33.42589188944415
70.43916209515181 37.97669236684769 32.16736489459319
71.67343188762196 38.3804682687636 29.85338364303256
71.46857130189954 40.41640562840267 28.506079661336297
52.03649839896503 58.82112151503762 30.06499653776681
52.14584410903309 57.54962196835916 32.04257565285328
53.922531631875806 56.578471815463146 31.924699935221096
56.42184035877471 57.46226678268301 32.04669830305923
77.76784314410158 42.824285360677884 30.321778221172902
77.5415945160315 43.25084861193049 32.28496580515494
76.35756073463561 45.68260976646441 33.31285719408589
76.53592222670318 47.45631334173579 32.677410779944985
49.24539392329563 81.7392711077212 31.946412897718687
49.43140374765173 79.61757571645741 32.37768137330028
48.63319383479887 77.67456005576263 30.438343779936726
47.49861688367486 78.00799945610291 28.486862114349723
74.16628515263982 44.12350269485075 37.79315109216125
75.55036394623758 45.566735912351504 37.3278015630072
75.48867623587134 47.21668688706413 35.17200125065353
73.7176577670546 48.40613074302776 34.175507056257274
73.47619954617902 55.463244108557554 4.152434216331054
73.13515687186194 56.05576967736282 6.946158667844239
70.71655834515657 55.00256342138444 7.278113125004938
69.75716922182113 53.21854820867318 5.5240893195898
65.73532806297334 51.015418810961904 10.599420147954572
66.48101394174165 51.75658029749899 8.731533912972537
65.9740497753712 54.05776512816921 7.589831189639637
64.187118818203 55.585629100958215 8.35434358779026
70.43209666132111 71.71448343907319 35.92700033756496
69.1111834698478 55.18262175382266 3.691690672033967
67.5381511436019 57.06208093865689 3.7277244034117247
65.24991334686511 56.506896518445025 5.16911913227272
64.22014140791516 54.40416292368406 5.334702088651379
75.0498788500877 70.5478807538948 31.44270878248146
75.61662946927636 68.5763977162721 31.95222900628385
73.81587256812247 66.31809091637389 31.803811137455103
72.052726165226 65.93023652513455 31.09650770657672
76.58864029857254 54.10152088757382 12.73100197789526
75.76679246101926 53.133544270242034 10.708671196750393
73.84637564940066 54.74440305844715 9.524004018775472
73.74622251437523 57.340516027078685 9.606651634411635
68.36051637684211 45.3164798429979 15.319245336047342
68.97472359741622 47.38209563325945 14.96810310234391
71.1986303291075 48.46240766579525 13.582751052726083
73.47400506774524 47.38166119592003 13.50387885525584
68.26976728490132 72.39646279946518 34.30771287698204
68.4157224022628 70.3449478055038 32.986726993760676
71.02285799608032 69.98670319668874 32.325593270197814
72.64337150907467 71.68765720934167 32.335135904595674
14.00182903178415 65.29649989170267 9.335910530826315
14.197061146639792 64.6109127084629 7.073246722072646
46.81330766095153 37.514758451984676 49.077133733010534
47.53801038211938 35.657573809476055 49.960443239695785
49.62835270567336 34.160960586631255 49.21363453745766
50.898281034229406 34.045784101954915 47.369655155628365
24.48276513068755 63.440356446710375 10.785885660347768
22.757780958579755 62.92749192569874 9.374835075384317
20.063534881945507 62.365724160801015 10.445745347291894
18.93467332845678 62.92342924871506 12.031525785600438
71.53410548854356 35.204511230937115 1.5082197176297443
73.54573538177902 34.81237460393307 1.3621498726511718
74.80523591469135 32.07874872713713 1.5717166172379635
73.94834783017319 30.16350193867441 2.092671377856771
46.70401541500781 64.43294232665647 46.21834459714239
47.47712163369511 63.29000149709817 47.96775593241811
49.91500152932538 63.94309092951121 49.19120959742024
51.672553314737414 65.01392866900868 48.40712444116299
54.61668561091995 35.80461225809752 46.100844852445626
52.83620198005417 36.57657062241645 47.61117837465148
53.59294999959379 38.72854417457622 49.2136645190152
55.54373126199315 38.903349952626314 50.36018376332345
73.22049348145025 44.58386408028462 29.49198499906803
72.58187571592262 42.5728570583347 30.06145670188348
73.3702058882593 41.43235017721155 32.43723468745758
74.37687225423495 42.586306462020765 34.3810341832144
50.52769446327126 59.988892433069104 47.64864650135487
50.341486511052146 60.79747927873117 49.679088037990816
51.98639561785103 62.757235132873625 50.19977920441253
54.236188137140466 63.35318319046905 48.657983757364896
47.08877187609433 53.26983272524684 32.07663306174842
48.7502324072519 52.565481485537845 31.06794134882906
50.90926404492701 53.81695494911297 30.895717999255627
51.634274866830154 55.72594571103494 29.996926398083886
55.211682652375764 49.576638291335854 26.196739954675365
56.394280608890995 51.306034569621794 27.21750588741456
54.96588843616305 53.046825378980834 28.820320118310175
53.137418244426094 54.0562532040445 28.146145486824942
51.39420863926598 81.01643609585591 30.564254961894207
52.10569634751407 80.2347489985415 29.01776883807023
50.744890544045454 80.37744869393006 26.81960538721692
50.001696038347355 82.33536153968336 25.48857506792602
53.88265961221423 54.868818141152985 34.15984235762327
53.97000397260204 53.00375101108275 33.67593423246694
55.49501243094255 51.860263932054444 31.565383335224983
57.27184386031964 52.42137135231601 30.616406826930454
55.4049559789256 46.566190664691014 34.38104328206702
55.72954949509037 47.994347413447315 33.121065494928494
56.903185218104554 50.253698661055104 33.373557864886244
58.65748140085762 50.99376418884102 34.80887051985912
49.980508826191254 65.77904961833607 51.76767673731714
49.11730867355959 66.60374671914086 50.2384727074485
74.62907316746856 17.385107469448624 19.31882962587241
73.9983550201478 19.12798974155282 17.68816931247121
75.86255723151973 20.1019242444692 16.192865862225247
78.55742825258707 19.30159498840963 16.79451199097144
34.480296732565556 84.51145529351831 25.45392775597901
74.26996001843486 6.777956628320379 4.117258967567012
77.41053379053018 8.052039641547307 1.622335279359918
77.19907534680793 10.113146147687875 1.4553746420199944
67.83006681591225 13.668364056156683 43.891361370342864
69.6471828219131 13.638048066631393 44.64674690245894
77.26774045161572 12.412397143848835 34.16438194836276
76.3334453982951 12.34612837621819 35.81415302491446
60.07865833742746 27.25553975269633 44.30470822417075
59.824454319433734 25.16371649873217 43.10620806917133
60.63812463085857 25.30243317096083 40.754794617482595
61.86387469053814 26.49965719404083 39.61570486323997
76.65178562594431 15.818100092032745 39.893921200853455
76.99105828642513 13.805482582334369 38.86721291200249
73.58697400741374 36.84512290271691 34.86554694263336
72.25612633607652 38.24916598432406 33.79567080531605
71.68124459784553 40.750511026895786 34.37325926737029
72.63089486895039 42.10602478098964 36.300284147282895
72.0605377638861 33.67888877471066 29.949467633472878
72.72889013128571 34.7913628480577 32.43268232120484
74.18935163489068 36.88396442014898 31.994360076034052
75.58990985711758 37.563070510155136 30.104557841493
75.99856295181634 22.568157307804732 13.657492997231184
74.22300544815994 23.549807655420878 14.307981560767717
72.31071713012862 22.85347517460019 15.757807489516512
71.6893998816605 20.64994364252592 16.29565532531676
76.36200632662856 40.81309805473317 36.61555032926162
76.51028621912153 43.42261825467126 35.48650473170246
78.69394416408122 44.444173883971914 35.01842184390955
80.30091249920525 24.75436755095324 18.95712842837513
78.37689980217874 24.710164384482628 18.59526932668235
77.16431212807925 23.074183693018337 16.85029873710474
78.14250597387276 21.566041739793146 15.339503356008965
73.52116512334138 19.54580908262335 21.439521907869786
73.0591736234723 21.587735231139714 21.407123970672675
72.05217442035476 22.898248654136605 19.81162352969926
70.1750574469434 22.2726917998753 18.06866327045525
79.58382434081211 16.976411747586877 19.864383147755976
78.97730607039001 18.797347071803884 19.50023299217138
80.30952706129824 21.210408231667426 19.30156379663212
81.87507703871866 22.264136748582114 20.583332814087296
78.04011590896708 37.308124617594565 35.9795734854133
75.97658802926891 38.10399897916293 35.54441593308709
75.22976753214189 39.7436802449825 33.411099928898125
76.35134518928815 40.71559895350898 31.752762191592417
57.03317997828692 15.499175379505886 60.891362120168125
1.389507427341276 1.4704119687936374 0.1883712563257243
12.0813435567483 32.69393748441579 6.616479851581705
10.907315411543188 31.039676935086028 7.062171231230025
55.223994140346726 19.521940844655838 58.16595720107106
55.12882492858502 19.55123794859063 60.7203085916825
71.59228205192335 16.462075412144856 44.086389991935135
72.4183708811574 14.93991184746569 45.53565957354536
74.69648379784566 13.692275858354195 44.80776762488797
75.60102472814106 13.616151538265834 42.64548869039406
58.73964632125702 44.81569057761979 50.15767143917628
58.96161686906775 43.92293488479616 52.1826624501695
57.01598806573299 42.662791079173566 53.52956188363302
54.608255916021456 42.78572265783388 53.096388105893325
55.83759566619543 18.968770379111934 42.6946535759087
55.93742464284485 20.352603461715912 44.44972380737095
57.45114890743711 22.332781852441055 43.92223277646082
59.46287690986903 22.510908943731074 43.04851511614565
56.77637262455552 38.13259856203231 55.92663151943194
56.01353342975343 37.772993674821166 54.18789876209639
53.83057862139345 38.43815787998225 52.57996434462732
52.32728957137454 40.02253224533958 52.62219668824508
50.71645839542418 43.33110043475741 49.21404458974468
51.25351649589565 41.60506722905155 50.50757228545768
53.89258358297925 41.110059203973016 50.782336396851726
55.68435943945499 41.82375404854108 49.47649644295171
61.02259666717638 25.413272149938283 37.31921697284087
59.4231378746412 24.87172728532759 36.263373068434724
57.778969081234976 22.645974610742385 37.57895405108032
58.698892503126984 22.20277789744857 40.093618821940844
57.37182188886504 40.596851199144176 47.42684419778856
58.27814038901915 43.08456321132 48.143332097216835
58.58549366267878 44.995374499527 47.224837561688965
58.94200395232848 46.050954250366864 45.01695705667769
53.88475512155223 22.078359947942488 43.62900073473136
52.83340881685389 22.15256368256329 41.3816951721525
52.07316192384519 19.799025278538647 40.247313727885576
52.269615573991764 17.62980326113163 41.26556215517194
61.57001967070203 28.846443433449252 38.080456291048534
59.83215265025975 28.27009869753932 35.98376932479396
57.84368790019954 26.78962056168793 37.170462843716955
56.706772089738514 27.064380082857156 39.01626770387238
50.867843565859836 34.41874673953258 51.442138395315965
51.78166231012325 37.07050936219189 51.06506084903041
50.38817697674993 39.06485930894045 51.0197798279895
69.03082079978618 84.69755866507458 9.2712027213846
70.55151035036633 83.7415183486662 10.864449060575192
72.9721442895109 83.816454749977 10.693498774464723
59.49885234469499 38.277500389650115 48.59432390066984
59.598418529851834 40.29278085973375 49.39492690410637
58.93402865997266 40.91246800893607 51.95391942599943
58.35887661242938 39.17372368247848 53.75505114867629
54.780302767452135 70.86292779363868 25.404214727288917
54.03631977792365 72.87538559580426 25.407934467019906
55.01105838967583 75.13473053403936 26.32707894326333
57.1086160354533 75.28696781574956 27.47558018360068
68.95262773996592 60.99461819607456 34.80092623724717
69.90942850627383 62.56221678200812 33.440870374461305
69.89326763255599 63.1753510690335 30.96953417926768
68.6194225053363 62.827833354703635 28.9470175683957
70.60274928549462 62.204433794616044 27.416166092460816
69.71027572416429 64.23464369833044 26.71386322621322
71.0067156358255 66.07774225782745 27.463733026191246
73.63654783767832 65.95992839287986 28.288955653177908
50.75300542269746 55.92060149531989 37.435050415504726
51.6398619196459 56.49645531993382 35.16135557713585
51.19271458947681 54.08004324843566 33.5766133455081
49.69370344444664 52.46223417485958 33.87073410190129
67.2586327089979 64.36521862539794 25.35633582644051
68.1798198534302 66.22794563675261 26.112590141277344
67.96391477101992 65.85113310926994 28.868745161193587
66.12807185236883 64.53545873908294 30.00896740473928
65.96949672843172 64.20462180112388 32.69555170725735
67.87046056369596 64.36363411696837 33.74891784128962
69.61509389430981 65.9180748909302 32.32344832956993
69.0132112844582 67.7189875934766 30.826840135709062
71.02873794472757 81.10084551530367 4.665888016330368
73.39433854730711 81.39233953434386 4.621762113762472
74.36605276413304 82.62900855732927 6.155599310093121
75.026848202913 84.56656382806057 6.363903024538468
68.0248265676384 82.83660583913822 11.111404878326953
68.79082804021348 80.28275623787128 11.448852134308586
70.45160164098806 79.57539797792568 9.74020233717546
70.91293889614268 81.4448566232305 7.428736257201247
71.26068081172284 14.349546294855582 48.41692298497647
75.17944692170295 81.07065845753358 2.7035246026884625
76.10009111381818 82.97899392667398 3.9259298636288396
77.2637253685753 82.07081746184238 6.357057575112643
76.98638101876412 79.3776250790066 6.394535438580799
75.57750168863039 72.74973098666847 8.156915725487794
75.57804389699544 74.78832450998306 9.021595303520073
73.23494243612875 76.24246351709495 9.163175119023968
70.94610681220988 75.40369939904268 9.083308235713819
51.3151038580776 70.89011469326793 47.70436246840923
48.82574502043594 70.09081489637663 47.514195760895994
53.23309342543544 65.47147708570844 50.88868900028234
52.51038153996691 66.72285228351032 52.927440651949645
16.05745997772354 10.7314453586582 11.701368636787267
18.145108808103934 10.42707745406126 12.39478614225887
18.47854268940208 8.30183513199199 13.345508359829473
16.381833419688906 7.101162631257418 15.10238713266931
51.865403610084506 67.93684869665702 50.306330307110414
52.04441572404621 67.58195266437188 47.98588459592421
46.42036287194907 67.61730274505645 43.890938614710855
46.33177214434677 68.18104204061218 45.6378883685608
57.45315801546792 17.31930011983755 58.798668713926965
55.98197724001834 17.486779858385148 56.83534084476353
72.14802238687723 62.534073281801405 29.707474289308305
73.68157646406712 63.89729844856428 30.477933142111787
73.41328177642175 64.33800164346577 33.4387085631163
72.29700321782046 62.52308306555037 34.96435969139472
68.41779327936605 64.7534481824539 36.50965616430285
70.1630478070535 65.214772054779 35.585200517505626
70.4089451106642 67.95209727328394 34.82166082575086
69.20308151583724 69.42541605036222 35.67892831515863
57.814168500544305 20.973352658320213 57.256251482860954
50.4058294423087 84.80564896113758 21.446149366092754
51.978449533478184 82.85348118029546 23.164765227534517
53.96133385255848 83.70455136589078 24.65113638899539
55.087863790740585 81.11544232724944 22.277710851428715
53.55289718962325 80.25725445274202 23.464865285289363
53.381064476544715 79.81868082338958 25.912627626085474
54.70944187008285 78.68389300594546 27.453899637628066
46.16672535531388 72.02258222653731 21.439612929298256
46.2848687317575 74.27453039324976 21.722025316266347
48.29250388685739 75.31637631783461 22.675400662381954
50.67461107901801 74.94068502964264 22.609259170651594
44.04835176143034 66.00076829560932 41.3458541863446
43.64240152905979 67.10757846520771 43.12377991138667
14.12812691741679 82.19499678074949 3.474304671810689
12.790985389202412 83.82820265564509 3.0268492953937276
10.262282361698327 83.13943343071956 2.021866151005461
9.17182086108845 81.12207797178017 2.422284003632057
28.030812012535268 77.69796597895149 2.9253806215684266
29.795226117328188 76.91593178865504 3.9849127369369026
29.880564818384823 74.59313354259776 5.30687649930385
27.7673604319887 73.09157840136953 5.858465319636861
9.571645353205897 48.56118039300655 26.386529329145127
9.264690762071702 50.920627168316194 27.019147096227897
9.152156032462026 51.91508186942299 29.402039726067574
9.44302590373658 51.13786210277589 31.64070184987393
7.622675037528815 37.641196644895324 51.81398692915393
8.988394595013688 37.099995039934754 53.83746637558849
10.788301202415612 38.63552574356281 54.57454970354262
12.194354235242738 40.36297888785256 53.5062877707768
3.6148659012479745 54.1452879252552 65.48867070546926
5.391345596953584 54.500297783826284 66.88927894494012
6.842680062749331 56.84771873422529 66.84230295829
6.835187433502901 58.29610265765621 65.06046000095905
15.359430878027363 42.896411474501676 56.18745154800676
15.59414461671265 42.98514091053973 53.977541368217075
13.303092970831694 44.122862138148385 52.422576082975134
11.349538261610116 45.100534404545556 53.5097027877365
6.227678450617569 43.02887979096757 52.82805979611227
8.65511707573564 43.01503393032204 52.37850079784388
10.517924441878366 42.56014269899545 54.38621291104337
9.980284280219175 42.48189988517307 56.998567443454135
7.875540262245693 59.48406577156225 70.50673093882551
8.91511859952344 58.914246442855315 68.70193515814627
10.137707806566125 56.456913361256575 67.87903954925306
10.403823190489788 54.828077146252326 68.96161726474327
15.734769328792652 69.15033937117865 51.324488937548495
16.308475530797395 67.15350482675191 50.2905751400355
14.50647984980647 65.80706377070457 48.84688095108892
12.182798007739711 66.641460880102 48.61276308399206
15.948200970476506 36.07426478529076 52.21416760641462
15.259814424473374 37.292003395877956 53.683750972937624
12.850418131984732 37.07963634208475 55.05809378274757
11.287540792247107 35.3896533175145 54.85978042007988
10.02175515266183 51.355517657920714 64.61321071835839
8.98889919567597 52.657375335884296 66.12521022792114
8.677692963624718 55.130845536461074 65.71495776772754
9.732343955421463 56.62345789488783 63.87231498634513
12.034224724156408 64.15347604578989 47.2518434197485
11.09334035114928 65.22967886837657 45.6390650441885
8.788526393164588 66.8855181840722 45.532321209563776
7.147172195545646 66.89771377928328 47.74021665665432
16.112975173124326 49.32652594343263 34.43484813263648
16.285651853582866 48.4907280267358 32.51080460836005
16.5452061938643 45.85465033044022 31.753032440972884
17.51442309795283 43.92161832707067 33.55864284837482
4.254295863427103 68.99025281115799 37.377922358294306
3.3639677451685075 71.23281051738086 37.93360878824774
2.634965939660754 70.51460259524413 40.91853789970482
2.5748700875329917 67.89643889433543 41.43584733127221
16.948867582594726 76.4271095817758 27.400682600272834
14.89750236144559 76.5520091918188 26.234776516644644
14.575690560642284 79.03187383850968 25.480347964268287
15.560545188121736 81.20308892177088 26.66611059853059
10.090126376127849 56.76203561856449 26.318332902152697
10.602967373799519 54.106620494528116 26.552360570378493
11.042534809910544 53.86199336809235 29.23300211511538
11.248884675049664 55.75841888996343 30.953454798924575
5.349231418700685 71.73803634324004 40.1379759001247
5.346008974425042 71.16431705248783 42.20136349796506
7.8152474428667285 71.03930229803613 43.55425339562581
