85.496 16.704 31.245
83.372 14.956 31.381
81.086 15.13 30.395
14.751 23.172 11.114
14.081 24.784 12.067
11.622 24.894 13.329
10.077 22.97 13.34
21.208 22.276 24.446
23.395 21.663 25.197
24.698 20.798 22.58
24.74 22.148 20.743
9.432 23.322 10.579
7.511 24.902 10.1
6.279 25.306 12.544
5.61 23.112 13.532
1.891 14.687 26.452
0.183 14.342 27.559
0.4 13.249 29.942
1.957 11.776 30.763
14.569 5.436 19.705
15.784 5.263 17.989
15.258 3.301 16.43
15.005 0.977 16.894
12.688 31.319 7.192
11.566 30.954 9.253
11.631 31.613 11.421
12.796 33.234 12.812
11.168 19.443 75.952
13.64 20.318 76.409
14.149 22.406 74.999
12.832 24.163 74.427
83.534 11.758 29.484
82.118 12.27 31.31
83.318 12.566 33.81
85.194 12.018 34.834
12.271 5.515 17.925
10.4 4.938 16.116
9.777 7.045 14.823
10.317 9.518 15.373
29.097 23.736 3.791
29.04 21.801 3.474
28.323 20.835 1.047
26.829 21.983 -0.468
7.845 3.434 9.921
10.069 4.283 10.578
10.354 6.845 11.515
8.885 8.629 11.123
30.757 67.749 6.658
30.347 68.588 5.035
29.694 67.648 2.606
29.54 65.555 1.91
30.062 25.524 2.057
29.111 25.652 -0.233
30.346 26.424 -2.571
32.568 26.944 -3.155
18.393 86.096 14.402
16.387 86.467 14.516
14.194 86.154 13.164
13.452 84.249 11.668
25.081 14.454 3.128
26.553 15.81 1.976
26.647 18.625 1.935
25.174 20.173 2.889
36.227 25.667 80.625
34.877 25.487 82.438
34.015 23.889 83.798
34.232 21.081 83.547
21.877 2.985 18.518
20.256 1.276 17.554
17.977 2.704 16.633
17.829 4.925 15.937
-0.862 16.073 77.128
-0.216 14.137 77.564
0.506 14.175 80.138
1.979 14.986 81.299
14.236 27.748 38.969
12.582 28.149 38.039
10.11 27.282 39.306
9.781 25.264 40.363
66.501 4.501 53.674
66.195 4.514 51.684
66.98 2.405 50.446
66.878 0.068 50.916
10.552 34.926 32.148
12.177 32.864 32.106
13.429 32.553 34.449
13.771 33.712 36.132
12.555 0.606 39.243
14.695 0.807 38.955
15.977 2.692 37.672
15.183 4.654 36.725
71.76 58.557 36.323
71.027 57.718 38.363
70.972 58.643 40.897
72.844 60.218 41.985
24.45 17.324 52.275
25.419 16.258 50.92
26.551 14.267 50.875
26.305 12.013 52.252
12.233 26.087 47.216
13.707 26.338 45.287
12.109 26.107 42.929
9.668 25.124 43.157
4.545 22.025 53.365
3.387 20.353 53.675
2.814 18.995 55.728
3.853 18.871 58.03
12.058 2.211 48.648
13.062 3.641 47.605
14.012 3.075 45.193
16.01 1.385 44.591
12.546 34.191 40.657
12.514 33.553 38.403
10.951 31.235 37.644
9.079 30.465 38.341
7.837 35.771 15.35
9.99 34.339 15.494
10.437 32.44 13.744
8.906 31.542 12.033
81.968 17.459 63.636
83.7 17.709 61.688
83.828 15.467 60.185
82.792 13.063 60.833
18.975 82.636 38.109
18.763 85.009 37.945
17.296 85.973 36.105
16.34 84.665 34.057
26.992 18.117 33.733
25.269 17.626 31.784
26.178 18.353 29.425
27.958 19.814 28.846
9.59 4.787 50.425
10.777 4.689 48.796
10.802 5.329 46.173
8.834 5.404 44.522
12.184 10.534 45.126
12.833 8.335 44.997
13.449 6.5 46.579
13.88 6.233 48.977
27.689 14.975 25.15
29.692 15.187 26.575
30.923 17.538 26.641
30.878 19.107 25.133
13.815 83.076 39.428
16.406 83.658 38.987
17.538 84.848 40.742
17.307 84.67 43.097
24.219 19.536 20.012
26.893 18.922 20.827
26.865 18.043 23.417
25.248 16.585 24.488
29.713 17.935 33.521
28.894 16.952 31.934
29.771 17.507 29.119
31.425 19.198 28.663
6.283 72.967 24.164
4.771 71.671 24.908
2.18 72.605 25.262
0.79 73.561 24.13
4.127 16.269 26.737
3.856 15.209 28.644
2.914 16.119 30.646
2.918 18.635 31.362
25.769 38.587 47.892
27.065 40.155 47.073
26.566 42.849 48.154
24.621 43.275 49.409
69.03 76.312 70.458
70.927 77.53 69.952
72.184 79.109 71.688
71.779 79.386 73.838
11.127 23.865 70.198
12.743 23.509 68.143
15.126 24.965 68.355
15.761 27.038 68.981
78.627 8.356 2.447
79.652 10.608 1.884
81.291 10.743 -0.142
82.497 9.784 -1.379
20.247 34.31 70.298
20.539 32.899 72.183
21.601 30.532 71.642
22.712 30.142 69.172
27.558 15.155 83.838
28.158 16.205 82.322
29.807 18.025 82.302
32.105 18.41 83.364
17.649 24.385 69.451
19.405 25.502 70.405
19.836 27.861 70.448
19.676 29.455 68.605
33.455 20.801 76.765
35.493 20.946 77.261
34.789 22.473 78.953
34.591 25.126 78.756
15.827 85.925 66.476
15.493 85.429 68.433
17.393 85.741 70.339
19.668 85.787 70.099
22.46 29.521 74.041
21.504 28.534 76.116
19.518 27.055 76.326
18.312 25.39 74.799
17.172 32.136 40.501
15.361 30.796 40.62
13.386 30.694 38.821
13.347 31.017 36.585
81.616 8.23 81.491
84.121 8.038 81.16
84.52 9.559 78.889
82.899 9.898 77.2
85.42 68.414 79.288
83.758 67.433 80.796
84.234 65.064 81.831
85.74 63.19 80.409
14.006 79.294 70.426
14.295 81.384 71.68
16.239 82.981 70.829
18.337 82.59 69.673
20.254 3.439 69.89
19.593 2.613 72.296
17.545 4.518 73.03
17.208 6.521 72.908
12.917 7.314 73.658
14.746 6.131 73.444
15.5 3.769 74.56
13.96 2.483 75.959
26.879 22.057 52.195
26.556 20.331 53.42
28.242 18.476 52.969
28.028 17.223 50.932
18.978 84.83 77.201
17.636 83.312 76.357
17.232 82.881 73.548
18.91 83.843 71.815
27.642 5.66 56.438
28.016 6.502 54.382
30.561 7.773 53.689
32.28 8.22 55.42
34.567 8.518 52.906
32.6 9.357 52.862
31.969 11.702 51.93
33.644 13.653 51.163
14.402 83.131 73.673
15.177 84.505 74.823
16.196 86.462 73.747
15.827 87.522 71.447
5.604 15.924 59.515
3.643 15.987 58.02
1.454 15.561 59.489
1.081 14.153 61.25
15.058 53.988 21.631
13.528 54.876 20.08
12.374 57.175 20.413
10.762 57.57 22.018
77.253 31.642 10.249
75.368 30.786 9.654
72.948 31.128 11.015
72.86 32.891 13.023
5.924 70.557 30.83
4.598 68.369 31.216
2.138 68.937 32.015
1.43 70.448 33.422
82.065 34.338 21.646
81.383 36.302 23.053
82.614 38.588 22.485
84.336 39.332 21.341
21.753 54.381 13.654
20.089 54.741 15.082
19.475 53.225 17.396
21.072 52.161 18.588
30.211 46.322 31.677
30.835 44.984 29.869
31.742 42.792 29.984
31.527 41.112 32.379
8.557 58.938 11.387
8.956 59.367 13.821
9.423 57.136 15.018
8.598 54.675 14.144
1.723 47.929 23.883
0.859 46.172 23.648
2.178 43.599 24.078
4.132 43.358 25.559
15.231 25.803 9.514
14.481 27.882 10.112
11.894 28.675 10.973
9.636 27.617 10.481
8.985 53.521 17.086
11.468 53.784 17.989
11.866 56.642 17.913
9.957 58.17 17.621
17.473 53.389 77.752
17.466 55.711 77.18
16.303 56.553 75.157
14.205 57.025 75.638
85.607 43.146 19.376
85.517 44.855 20.756
84.479 44.211 22.89
82.555 43.233 23.584
-1.629 44.335 30.516
-0.417 45.914 29.759
1.48 45.48 28.256
2.771 43.061 27.957
35.463 45.182 0.493
33.801 45.132 1.45
32.525 46.475 2.922
33.061 47.458 5.208
16.827 31.102 17.597
14.913 29.856 16.74
14.61 30.942 13.915
15.701 32.469 12.896
17.806 28.727 16.653
17.81 27.355 14.764
15.422 26.63 13.622
13.574 26.382 14.503
25.071 41.64 6.652
27.139 42.438 6.303
28.083 44.694 5.387
26.77 46.603 4.388
21.316 32.667 18.463
19.398 32.198 16.822
18.806 30.431 15.086
20.084 28.631 13.967
33.498 49.918 4.027
32.572 49.083 2.135
29.859 48.355 1.958
28.127 48.823 3.609
34.8 40.896 24.398
34.723 42.987 24.584
34.094 43.714 27.246
34.527 42.582 29.215
17.84 32.469 10.689
18.335 31.549 12.628
17.153 29.328 12.716
16.888 27.497 11.217
83.014 36.956 83.95
84.511 37.91 82.227
83.831 39.483 79.958
84.575 41.206 81.009
18.496 63.781 39.749
19.796 61.273 40.024
20.248 59.991 42.258
19.559 60.357 44.611
72.436 33.465 34.96
71.667 34.486 37.195
70.884 32.925 39.048
71.383 30.326 38.833
23.31 57.366 46.263
21.263 57.919 45.577
20.019 56.957 43.437
21.272 55.118 41.908
79.479 40.672 53.105
81.658 41.137 53.603
83.835 42.295 52.754
84.037 43.468 50.574
16.33 54.718 38.346
17.646 56.024 39.349
19.86 56.336 39.863
22.252 54.752 38.837
28.914 38.823 50.498
28.349 40.207 49.331
28.848 42.521 49.265
30.45 44.086 49.807
57.929 75.015 34.017
58.205 74.921 31.912
60.379 74.596 30.589
62.958 74.641 31.943
3.771 50.067 56.859
3.372 50.162 54.97
3.158 48.224 53.649
4.223 45.924 54.149
10.015 29.323 50.708
10.347 30.518 48.895
12.382 29.885 47.049
14.341 28.265 47.394
14.849 61.68 46.693
14.558 61.291 44.852
12.549 60.229 44.184
10.162 60.763 44.437
10.069 63.169 14.286
8.611 61.799 15.185
8.567 60.57 17.07
9.941 61.2 19.395
4.527 45.958 57.384
3.252 44.603 56.13
1.916 42.535 56.786
1.599 41.662 59.082
14.687 31.369 46.703
13.825 30.744 44.813
13.671 32.181 42.213
15.191 34.347 41.865
10.758 9.087 9.203
12.301 7.956 9.749
12.897 7.602 12.195
12.746 9.47 14.101
7.983 27.965 36.885
10.018 28.536 36.882
11.1 30.214 34.945
9.906 31.583 33.186
16.111 29.581 45.219
16.128 30.114 43.224
14.806 28.541 41.605
14.59 26.241 41.648
33.738 44.422 20.2
33.174 43.725 22.079
32.887 41.074 22.848
32.202 39.624 21.989
8.265 29.473 44.643
10.218 29.34 45.483
12.256 28.904 43.593
12.302 29.424 41.525
32.093 45.351 33.312
33.069 42.837 33.934
35.657 42.724 32.757
36.459 44.763 31.479
29.84 41.117 28.407
31.646 40.033 28.91
33.233 39.0 27.291
32.89 38.47 24.571
4.87 28.707 46.904
6.3 27.737 45.444
8.872 27.247 46.631
9.276 26.992 49.228
5.035 43.065 22.061
2.764 43.067 21.594
1.596 40.844 21.933
3.298 38.503 22.414
18.298 63.816 69.924
18.494 62.51 68.24
19.485 60.284 68.508
20.978 59.356 70.597
72.888 34.023 75.549
72.151 34.035 73.141
72.35 31.874 71.48
74.337 31.271 71.548
17.624 56.167 62.099
16.88 56.047 64.07
14.704 57.698 64.719
13.935 59.398 63.179
2.54 38.301 82.968
1.894 40.184 82.431
2.37 41.708 80.487
2.008 39.916 78.063
12.732 59.253 74.177
13.656 60.334 72.262
15.692 58.867 71.238
15.429 56.584 70.589
31.763 45.247 9.668
31.978 44.626 7.144
30.593 46.4 5.832
28.564 47.526 6.338
14.167 61.4 69.735
14.122 59.314 69.075
16.028 58.606 67.073
17.796 60.202 66.082
11.5 44.999 83.205
9.252 45.835 83.411
8.17 47.167 81.339
9.192 45.584 78.984
21.11 33.871 75.555
21.073 31.935 74.813
19.325 30.205 75.387
19.255 29.446 77.338
13.708 61.37 75.431
16.347 62.246 75.907
17.505 62.485 74.063
16.34 62.123 71.323
28.668 65.654 23.765
28.443 67.319 24.83
28.109 69.936 24.27
28.466 70.759 21.683
3.887 48.398 82.444
3.08 47.411 80.794
4.699 46.752 78.895
6.791 47.776 78.105
14.046 21.809 69.816
13.483 23.008 71.772
15.492 24.144 73.176
17.748 24.387 72.38
30.737 44.72 57.758
31.18 46.093 56.449
30.518 45.473 54.014
30.583 43.386 52.75
15.672 36.259 69.767
17.059 34.906 70.138
17.698 33.606 72.123
18.411 34.185 74.566
17.599 31.492 64.202
19.897 30.583 64.541
20.504 31.434 67.185
19.112 32.902 68.378
26.036 39.355 50.621
26.562 41.47 51.709
28.506 41.664 53.518
29.74 39.64 54.959
17.988 29.116 62.838
18.443 27.685 65.455
16.43 28.488 66.447
14.043 28.127 65.826
33.375 45.595 46.962
33.97 47.413 47.903
33.308 48.342 50.334
32.014 46.85 51.809
27.211 42.752 45.438
29.419 42.713 46.34
30.977 44.687 47.231
30.798 47.022 47.255
15.644 33.234 66.718
16.506 31.028 66.94
17.038 30.304 69.23
16.82 31.363 71.239
2.805 40.749 65.094
3.042 42.547 63.451
0.631 42.601 61.832
-0.909 40.858 61.737
17.184 3.298 12.999
16.316 5.349 13.875
14.013 4.952 14.746
11.951 4.244 14.051
72.63 61.98 20.279
71.195 61.195 18.827
71.484 59.557 17.27
71.492 56.894 17.476
7.357 86.032 10.87
8.815 85.283 12.322
11.099 85.79 12.231
12.605 86.611 10.123
6.725 74.445 29.047
6.153 73.37 26.94
5.699 71.138 27.991
7.065 69.269 28.696
29.849 -2.371 24.71
27.95 -2.415 26.118
28.095 -3.698 28.212
30.505 -4.318 29.23
46.135 81.588 11.392
45.056 82.86 13.239
42.941 84.107 12.936
41.285 83.819 11.233
10.011 2.083 16.932
10.073 1.536 14.623
8.82 3.093 12.648
7.183 4.436 12.666
83.828 63.201 25.911
82.166 65.094 26.004
83.125 67.261 27.165
85.291 67.646 28.45
14.844 60.904 14.018
15.879 59.059 14.498
14.327 57.083 14.436
12.108 57.178 14.388
33.748 68.097 25.923
31.043 67.999 25.649
30.128 70.448 26.335
31.233 72.492 26.399
33.131 22.539 55.106
32.994 20.465 53.562
30.388 19.157 54.259
28.818 19.881 55.186
6.429 77.506 29.845
4.382 76.421 28.816
4.564 75.52 26.404
5.807 76.501 24.398
12.968 62.68 12.721
12.164 60.968 13.0
11.583 58.645 11.851
12.842 57.829 9.976
31.848 72.364 7.383
30.005 71.275 6.577
29.873 71.325 3.843
30.587 73.0 2.433
17.667 54.923 21.216
15.781 56.573 20.516
15.589 57.275 18.051
17.271 57.03 16.099
15.953 59.44 11.285
15.211 57.138 11.519
17.155 55.327 12.623
19.194 55.489 12.608
25.436 69.879 81.595
27.261 71.746 81.842
27.363 72.624 84.387
25.463 72.047 86.225
17.751 53.537 14.461
16.641 54.095 16.319
14.316 55.002 16.576
12.151 54.359 15.164
29.138 73.5 80.237
31.966 72.138 80.469
31.449 69.471 80.665
29.721 68.455 80.331
31.505 64.138 80.186
30.842 65.991 80.536
31.732 67.336 82.775
33.265 66.221 84.189
2.51 44.208 74.584
1.757 46.551 75.714
4.121 47.652 76.379
6.419 46.794 75.791
-0.958 70.166 3.56
-0.034 69.256 1.758
-1.768 67.447 0.228
-3.175 66.017 0.912
12.563 8.773 38.023
13.551 7.187 37.546
14.936 5.923 38.901
17.131 6.188 39.768
68.148 61.532 48.396
68.266 59.267 48.058
70.473 58.15 49.442
70.94 58.201 51.439
15.969 6.315 34.909
18.149 6.302 35.313
19.536 3.998 35.141
19.095 2.041 33.886
5.388 68.919 61.528
4.921 68.482 59.645
3.711 70.241 57.887
2.429 72.262 58.61
15.823 5.149 46.186
16.117 4.156 43.936
14.815 5.909 42.152
14.469 8.356 42.557
23.71 72.94 54.109
26.009 72.435 53.758
27.052 70.274 53.169
25.62 68.019 52.882
10.053 9.221 44.021
10.812 6.984 43.656
12.156 6.086 41.842
11.937 6.1 39.571
1.133 65.388 48.998
1.46 66.805 50.496
3.882 67.681 51.608
5.861 66.733 51.784
13.827 56.516 46.206
14.255 58.197 45.146
16.632 59.421 45.333
18.353 59.205 46.648
19.708 2.816 37.548
18.237 4.255 38.376
17.004 3.916 40.969
17.786 2.214 42.506
18.295 7.519 14.513
16.208 7.813 13.98
14.163 7.688 15.364
14.059 7.903 18.067
6.93 69.475 54.985
6.177 70.889 56.548
4.328 72.798 56.563
2.685 73.406 54.352
15.896 64.255 39.346
15.952 62.816 41.421
14.026 60.984 41.875
11.82 61.197 41.389
36.09 74.018 28.581
35.441 72.302 27.054
34.366 70.257 27.904
34.566 69.008 30.213
16.948 62.698 37.371
15.777 61.068 37.699
17.334 58.925 38.628
19.723 58.839 38.36
15.952 54.961 41.158
14.193 56.152 42.009
14.391 58.436 41.971
16.501 59.592 41.262
9.953 56.424 10.786
10.702 54.655 12.052
13.265 53.605 11.949
14.905 54.589 10.377
7.633 58.663 42.685
9.668 58.515 42.049
11.691 57.334 42.516
12.455 55.744 43.937
24.654 77.288 25.553
26.685 77.2 26.315
28.688 78.696 25.165
28.681 80.433 24.081
27.747 72.999 20.471
27.998 73.307 22.383
29.448 75.071 23.881
30.086 77.354 23.229
10.004 56.951 39.438
11.504 58.733 40.046
14.191 58.53 39.341
15.27 57.175 37.944
7.221 10.58 12.928
8.313 9.249 13.593
7.398 6.741 14.132
4.911 6.171 14.356
17.205 4.142 64.53
17.364 3.378 66.438
17.965 4.785 68.766
18.673 7.057 68.841
72.797 49.779 77.445
70.727 50.365 78.046
68.985 50.981 75.918
68.797 49.605 73.71
15.846 2.944 81.49
16.18 3.53 79.071
16.049 1.63 77.258
15.505 -0.58 77.641
5.777 77.315 78.105
5.492 75.763 79.575
5.196 76.548 82.38
6.67 77.796 83.157
17.656 6.112 75.776
17.296 4.187 76.687
18.408 2.056 75.73
20.788 1.731 74.727
29.962 63.818 82.338
29.907 65.46 84.132
28.377 67.727 83.645
27.049 67.934 81.368
11.313 6.75 69.846
13.346 6.379 70.952
15.309 4.706 69.509
15.18 3.357 67.929
-0.068 72.412 1.88
1.063 72.5 0.143
3.09 71.134 0.061
4.913 71.476 1.374
19.841 51.699 70.617
18.201 53.012 70.495
17.005 53.848 73.144
18.351 52.682 75.226
16.417 8.334 67.543
16.053 7.365 69.318
15.753 8.413 71.861
14.229 10.514 72.514
11.092 87.913 45.062
10.685 88.956 43.043
12.535 88.791 40.645
14.748 87.51 41.169
1.336 66.291 85.973
0.253 66.315 83.914
1.343 68.308 82.196
3.613 68.208 81.821
13.207 27.126 75.652
13.623 26.355 73.684
15.78 27.053 71.834
17.364 28.665 71.972
30.386 69.433 58.124
32.125 70.367 57.174
31.914 72.643 56.008
30.388 73.662 54.685
15.947 56.39 60.022
13.777 55.947 60.571
13.331 54.614 62.873
15.34 53.563 64.083
81.704 71.69 48.122
83.622 72.649 49.758
82.641 72.106 52.3
80.934 72.608 53.428
35.278 74.877 52.674
34.693 74.473 54.697
32.444 75.358 55.645
31.086 77.213 54.169
19.202 55.365 74.709
18.683 56.197 72.903
18.756 58.888 71.995
19.365 60.905 73.184
23.854 75.385 55.564
25.12 75.183 57.087
27.839 75.075 56.321
29.004 77.119 56.045
28.553 74.634 59.048
30.068 73.144 60.11
32.29 73.213 58.916
33.647 75.671 57.992
17.915 57.281 79.115
18.618 58.386 76.902
16.106 59.321 75.903
14.068 59.073 77.712
83.314 70.225 53.743
85.615 69.349 53.312
86.375 69.72 50.714
84.883 70.448 48.848
55.253 10.729 32.069
56.96 12.347 31.877
59.46 11.974 32.385
60.626 10.556 33.553
10.167 81.263 13.994
11.476 82.935 13.24
12.36 85.091 15.067
12.271 84.982 17.5
50.392 31.302 14.018
50.927 29.211 15.009
50.823 28.509 17.581
49.625 30.001 19.511
35.651 1.051 43.228
37.923 1.931 43.418
38.521 4.09 44.828
36.812 5.616 45.733
62.21 13.329 29.185
60.855 13.505 31.012
61.317 15.806 32.74
63.226 17.098 32.961
43.172 28.042 13.867
43.897 26.577 15.556
46.702 26.577 15.748
48.206 28.469 14.785
39.653 28.421 11.07
41.484 27.51 11.938
41.704 25.487 13.428
40.29 24.432 14.992
22.373 19.019 25.049
23.646 18.111 26.379
24.161 19.372 28.515
22.916 20.304 30.195
30.295 63.178 29.472
30.605 65.418 30.158
32.492 67.032 29.662
34.471 66.928 28.461
50.003 23.993 11.731
48.848 24.637 13.792
47.876 23.665 15.601
48.068 21.136 16.581
43.518 24.09 69.398
42.636 25.686 70.338
40.907 25.817 68.091
39.308 24.693 67.53
23.503 14.361 27.705
24.857 15.906 27.225
27.529 16.504 28.2
28.655 15.066 29.7
64.077 12.154 38.317
63.727 10.966 36.307
62.188 12.668 34.66
60.615 14.402 35.103
58.12 11.463 4.598
56.244 11.952 3.224
53.935 12.978 3.462
53.225 14.534 5.599
31.868 72.044 31.481
32.383 70.661 30.063
30.595 68.84 28.947
28.161 68.925 29.406
47.733 83.622 14.089
47.15 85.626 15.222
45.298 87.336 14.209
44.472 87.311 11.801
77.168 79.408 72.156
74.793 79.43 71.879
73.407 81.52 73.489
74.192 82.587 75.314
37.707 9.786 6.97
39.04 9.175 8.387
39.875 6.843 8.428
40.192 5.124 6.549
57.609 18.573 82.355
58.064 17.408 84.123
60.509 16.545 83.806
62.25 17.152 82.751
54.676 13.906 1.081
56.454 14.247 1.806
58.78 13.986 0.425
59.295 14.413 -1.815
41.963 8.799 18.537
40.121 9.188 17.116
39.794 7.271 15.251
41.142 5.253 15.109
32.086 18.555 77.781
31.333 19.066 79.94
33.385 20.057 81.393
35.924 20.042 80.382
44.577 32.183 46.393
43.542 31.233 44.874
41.055 30.699 44.666
39.019 32.307 45.334
30.711 21.695 26.199
29.621 22.292 24.644
27.179 20.82 23.951
25.615 20.152 25.127
45.979 27.503 36.567
45.09 26.771 37.962
46.037 24.921 39.733
47.132 23.065 39.304
35.725 13.266 53.649
33.57 13.688 54.341
33.028 16.524 54.151
34.359 18.216 53.929
41.927 26.825 48.243
41.291 28.513 46.471
40.052 28.097 44.356
39.403 26.001 43.468
54.901 10.265 60.188
55.178 12.518 59.716
56.788 13.606 57.858
57.607 12.732 55.925
44.712 21.797 40.324
43.579 22.884 41.536
44.244 24.605 42.954
46.288 24.983 44.123
30.815 16.912 56.277
30.155 15.066 55.274
27.677 15.052 54.213
26.182 17.271 54.148
48.538 82.799 43.66
46.063 82.673 43.474
44.384 84.312 44.612
44.542 85.941 46.022
49.169 30.572 43.054
46.968 31.067 42.769
45.546 32.81 43.815
45.918 34.396 45.758
48.815 22.856 18.844
50.012 23.914 17.634
49.198 26.579 17.688
47.886 27.584 18.745
24.679 9.366 51.754
26.502 8.624 53.702
28.546 9.512 53.169
30.021 9.248 50.918
49.651 -0.753 41.897
47.562 0.425 41.747
46.395 1.163 39.502
47.758 1.555 37.353
59.582 21.04 26.524
59.062 19.862 28.621
60.276 17.417 28.608
61.017 16.035 27.097
62.128 73.556 24.964
63.143 73.447 26.836
62.245 74.973 28.87
61.217 77.019 28.926
43.207 83.813 33.908
41.937 85.529 35.474
42.272 84.808 37.944
43.429 82.827 39.043
62.097 16.808 35.62
59.964 18.114 35.536
60.314 20.643 34.107
62.065 21.621 33.651
45.637 82.166 33.785
45.748 83.417 35.2
47.744 83.635 37.14
49.924 82.313 36.976
79.966 13.208 84.677
80.887 13.787 82.555
81.138 11.643 80.935
80.064 10.185 80.393
57.896 19.202 30.85
58.756 17.016 30.567
58.594 15.026 31.95
58.247 14.451 33.946
31.308 80.219 24.934
31.819 79.697 27.067
31.626 77.252 27.522
31.526 75.266 25.521
35.017 11.255 30.478
34.606 13.524 31.175
32.612 15.02 30.193
31.122 14.3 28.621
45.367 33.373 70.667
44.948 31.329 70.509
46.084 29.432 72.53
47.506 30.123 74.28
80.915 71.19 84.937
83.06 71.253 85.382
84.915 70.501 83.282
84.526 70.213 81.139
44.809 35.03 72.81
46.87 35.344 74.314
46.553 34.501 76.749
44.515 34.836 77.85
47.258 85.315 19.583
47.971 84.388 17.646
45.709 83.338 15.927
43.376 83.018 16.771
37.788 28.741 65.56
39.42 27.758 66.615
40.583 28.242 68.98
39.821 29.486 71.063
63.082 13.75 80.328
62.408 14.267 82.119
61.107 12.706 83.942
60.683 10.498 83.89
35.725 22.388 65.123
37.395 22.003 63.416
38.919 24.482 63.061
38.226 26.334 64.436
48.75 4.041 16.468
48.135 2.089 17.196
45.427 1.729 17.265
43.715 3.129 17.696
49.892 1.122 75.916
48.874 2.71 74.509
47.331 1.925 72.379
46.982 -0.538 71.719
41.158 32.729 65.284
40.719 31.436 66.854
41.467 31.621 69.729
42.56 33.17 70.808
42.531 26.73 38.447
43.638 25.447 40.16
44.065 27.287 41.981
42.46 29.099 42.782
31.308 21.532 78.221
32.295 22.657 79.702
31.409 23.661 82.395
29.426 22.852 83.412
41.597 1.3 67.919
43.609 1.25 69.057
44.187 3.1 71.02
42.98 5.318 71.447
55.156 20.59 53.775
56.228 18.633 54.61
55.723 17.766 56.89
55.361 18.598 58.847
45.498 76.746 76.759
44.084 77.347 75.112
45.646 79.299 75.694
45.751 81.081 76.823
41.109 3.713 75.017
42.574 3.412 73.412
45.032 3.047 73.578
46.526 2.67 75.835
51.182 15.454 58.294
53.24 15.901 57.418
55.42 15.783 58.968
55.607 16.045 61.6
38.462 4.142 72.841
39.995 3.065 71.637
39.832 0.84 70.227
38.24 0.502 69.02
58.239 14.94 51.879
57.302 13.466 53.371
55.431 14.132 54.439
53.478 12.276 54.415
51.332 13.969 53.036
52.682 14.936 54.722
54.244 16.801 54.092
53.546 19.093 52.424
49.085 81.648 73.087
46.858 81.392 74.002
44.765 81.137 72.523
44.658 80.388 70.096
26.89 10.97 54.987
28.241 12.376 54.662
30.825 12.658 54.732
32.412 11.697 55.869
50.741 54.596 14.318
49.933 56.362 12.796
48.732 58.526 13.877
48.041 58.839 16.162
7.93 27.216 13.448
10.111 27.061 13.157
12.198 28.808 13.625
12.092 30.629 15.273
59.856 78.465 5.355
59.532 77.454 3.469
60.046 75.264 3.359
62.491 73.906 3.774
37.915 45.675 29.176
38.538 43.597 27.983
38.822 41.303 29.515
38.287 41.562 32.161
45.082 62.72 11.396
42.767 63.259 12.139
42.56 63.495 14.665
44.205 63.656 16.435
72.831 46.27 41.493
73.789 47.662 40.626
75.172 49.525 41.771
75.602 49.216 44.72
41.483 61.239 23.545
42.89 60.843 21.567
42.006 61.229 19.091
39.823 60.793 18.244
32.552 36.516 30.114
32.219 38.723 31.192
34.418 40.392 31.36
36.65 39.765 30.602
41.396 23.541 17.078
42.627 25.232 17.521
45.561 24.611 17.883
46.258 22.517 18.507
48.382 60.278 10.363
47.188 59.212 11.811
44.204 58.901 11.898
42.922 60.82 10.532
49.204 58.461 69.62
47.215 58.433 70.418
44.751 59.186 69.529
44.231 60.687 67.968
34.653 47.326 26.098
35.858 46.056 27.486
34.609 45.393 29.53
33.03 46.292 30.949
59.235 44.001 21.233
59.163 45.502 22.908
56.914 46.698 23.668
55.209 47.639 22.781
59.428 37.444 3.069
57.08 38.136 2.582
54.801 37.626 3.391
53.851 36.044 5.042
43.24 23.372 14.765
45.433 24.379 14.59
45.878 25.708 12.451
45.05 25.543 10.394
52.821 23.797 15.912
51.481 25.694 16.115
50.692 26.506 13.955
51.993 26.156 11.579
58.85 48.645 0.726
59.797 46.845 2.358
57.29 45.301 3.441
55.448 45.988 2.908
49.04 24.737 8.956
47.961 25.458 10.558
48.329 27.772 12.083
49.226 29.501 11.769
50.836 38.962 6.487
52.607 39.073 4.951
54.937 39.735 4.934
56.181 41.331 6.377
49.788 44.169 5.717
51.418 42.761 5.54
53.438 42.698 3.694
55.153 43.611 4.586
35.749 18.981 24.459
33.725 17.967 24.84
33.771 16.509 27.462
34.837 16.48 29.031
28.538 51.499 86.373
28.306 48.991 85.253
30.463 48.411 83.922
32.093 50.15 82.707
49.297 60.494 38.122
48.635 59.64 40.328
47.874 61.349 41.878
48.03 63.78 42.18
5.408 28.573 37.724
7.173 28.934 39.103
8.23 28.238 41.219
7.59 26.838 42.938
48.825 56.84 49.243
49.614 56.342 47.043
47.595 56.746 45.05
45.194 57.258 45.457
34.541 47.616 55.028
32.425 48.387 55.438
30.857 50.343 54.941
31.042 52.204 53.495
43.837 60.493 44.762
45.842 59.464 44.117
48.063 59.604 44.065
49.46 59.702 45.722
57.779 41.473 61.156
56.912 41.459 59.187
58.334 41.481 56.993
60.901 40.962 57.081
49.714 41.384 25.28
48.675 43.205 27.107
50.086 43.159 29.214
51.507 40.823 29.97
26.458 45.438 47.728
28.435 46.024 49.194
28.322 44.993 51.645
26.098 44.199 52.669
48.088 25.245 41.232
47.517 26.896 42.688
46.061 28.912 41.296
46.288 29.312 38.654
45.325 57.913 36.394
46.777 58.97 37.499
45.967 60.141 39.624
44.586 59.488 41.62
40.466 60.285 15.424
42.066 60.619 13.993
44.497 60.055 14.227
45.361 58.771 16.459
27.016 43.186 61.349
28.557 42.178 60.516
28.944 41.689 57.76
28.132 42.928 56.004
50.236 48.831 25.767
50.208 46.77 26.905
48.82 45.529 28.436
46.234 45.066 27.33
32.228 46.746 25.504
30.808 45.339 27.261
30.55 42.795 26.435
30.379 41.989 23.906
37.536 29.948 44.659
37.735 28.651 42.585
39.531 30.137 40.873
40.052 32.366 40.974
37.045 36.364 43.906
38.763 34.799 44.652
41.063 35.414 46.001
42.23 37.531 45.624
59.402 73.233 25.656
59.035 74.82 26.934
57.918 74.483 28.984
55.984 73.721 29.858
44.188 38.922 43.559
44.48 36.357 44.292
42.657 35.038 42.896
41.867 35.464 40.425
50.045 48.094 22.945
52.479 47.941 22.882
53.22 45.72 24.401
51.591 44.244 25.686
57.803 49.987 27.263
57.298 48.374 25.787
54.558 47.706 25.498
52.888 48.806 25.277
43.251 29.364 37.728
42.007 29.876 39.361
42.63 31.575 41.325
44.282 33.215 41.631
35.791 49.16 21.19
33.623 48.02 20.842
33.825 46.059 23.188
35.971 45.261 24.026
42.207 52.073 66.281
42.425 52.415 68.177
43.011 54.602 69.524
44.299 56.609 68.298
16.602 28.624 78.004
14.716 27.591 77.716
15.097 25.145 76.697
17.136 23.716 76.955
40.208 54.455 64.979
39.56 55.571 66.826
39.764 54.547 69.212
39.997 51.908 69.574
28.475 45.157 81.521
29.348 46.26 83.26
28.595 46.233 85.625
26.302 45.334 86.505
40.339 52.745 72.391
41.823 53.73 73.735
42.571 56.274 73.057
41.394 58.105 72.116
50.325 40.033 3.819
51.524 41.553 2.128
53.769 40.751 0.983
54.5 38.381 0.671
41.332 61.46 67.045
41.99 59.258 67.48
42.261 57.073 66.579
42.52 56.15 64.127
47.513 31.325 10.208
46.501 30.215 12.453
45.026 28.149 11.99
43.55 27.646 10.042
45.901 26.056 70.038
45.109 28.003 70.553
43.147 29.551 68.888
42.636 29.248 66.865
45.684 64.541 73.461
47.186 63.95 72.155
46.309 62.711 70.075
43.895 63.074 69.069
48.927 59.185 30.41
49.815 59.06 32.207
48.512 60.069 34.571
46.317 59.857 35.031
28.295 42.018 80.21
27.322 42.387 82.26
29.204 42.929 84.13
31.38 42.099 84.595
40.19 22.756 64.731
41.197 23.047 66.531
43.182 24.928 66.887
44.102 26.272 64.705
52.739 46.683 58.644
52.996 45.23 57.094
55.601 44.251 56.502
57.626 44.982 57.203
30.814 44.449 80.948
32.456 43.316 82.222
33.295 44.199 84.106
32.884 47.125 84.662
47.728 25.204 77.043
46.255 27.772 76.85
45.224 27.709 74.838
45.269 26.229 72.705
50.785 38.864 57.804
52.527 38.869 58.786
54.347 40.828 58.408
55.359 41.605 56.5
43.495 31.525 75.079
43.012 31.428 72.804
42.832 29.213 71.673
42.626 26.901 72.724
64.494 46.26 59.463
62.09 44.773 59.833
62.864 41.856 59.76
65.175 40.982 60.006
65.177 45.145 55.299
63.106 43.405 55.733
61.411 44.432 57.337
61.248 46.831 58.096
48.705 30.697 80.789
49.065 31.987 78.806
47.202 31.916 76.739
45.665 30.577 76.497
28.472 45.856 56.713
27.808 45.705 54.64
28.441 47.249 53.019
27.145 48.793 51.903
41.841 9.03 9.592
44.218 8.223 9.904
44.337 5.66 11.164
43.169 4.782 12.417
32.129 42.908 2.231
31.202 44.379 3.787
28.852 44.689 3.018
27.554 42.893 1.181
35.979 2.782 5.23
37.401 4.501 6.257
36.429 7.056 6.254
34.682 7.973 5.089
33.982 79.034 29.005
34.385 77.073 28.101
33.35 75.031 28.817
34.131 73.66 30.249
37.137 7.282 9.038
37.629 5.363 9.298
38.883 4.395 11.238
39.132 4.635 13.532
49.34 75.346 59.126
48.857 72.912 60.431
51.546 72.193 60.669
53.403 73.554 61.712
38.582 83.973 8.921
38.722 85.925 7.457
36.971 87.926 8.258
35.618 88.038 10.062
26.067 66.432 30.571
28.027 66.406 30.202
29.201 66.268 27.842
29.159 64.342 26.663
47.795 61.994 36.029
46.982 62.552 38.048
44.14 61.718 38.097
42.845 61.975 36.549
39.03 -0.149 11.748
39.059 1.89 11.644
41.23 3.112 12.888
42.34 2.66 14.666
39.748 81.016 69.067
39.854 82.868 69.664
42.431 84.137 69.72
44.478 83.11 69.108
30.694 74.884 32.41
28.896 74.148 30.65
27.712 76.129 28.795
28.99 78.241 28.226
59.967 38.952 86.235
59.233 40.767 85.665
56.956 40.842 83.924
55.742 38.979 83.327
58.503 75.903 5.631
57.597 73.71 6.156
55.912 72.866 3.793
55.401 73.97 2.082
40.883 63.019 9.956
40.562 64.606 11.321
40.33 64.505 13.64
39.238 63.055 14.964
46.21 65.445 19.385
46.953 64.007 17.846
45.98 61.76 17.356
44.796 60.093 18.667
52.919 75.622 82.474
53.999 74.758 83.861
54.367 72.461 84.915
53.285 70.664 85.548
39.291 63.574 17.519
41.492 63.287 17.784
43.506 64.762 18.712
43.764 66.377 20.012
60.675 71.878 2.306
58.498 71.965 1.979
57.398 73.453 -0.071
59.108 74.595 -1.746
52.433 70.169 3.028
53.321 71.902 2.78
52.239 74.39 2.703
50.501 75.402 3.726
49.141 64.104 16.639
48.589 61.284 16.841
47.321 60.855 14.092
47.292 62.111 12.623
27.284 66.905 1.179
26.949 69.369 1.335
27.311 70.48 4.018
28.01 69.361 5.969
33.383 15.85 49.934
31.582 17.441 51.381
29.705 15.976 52.544
28.946 13.898 52.345
9.588 52.147 41.577
10.64 54.171 40.944
13.075 54.699 40.252
15.129 52.869 39.601
39.546 84.703 39.43
39.892 86.471 40.667
42.671 86.903 41.346
44.564 85.012 41.466
36.762 71.789 50.488
34.519 72.633 50.701
33.632 72.514 53.258
33.88 71.056 54.997
38.471 5.86 41.659
40.362 5.098 43.191
42.521 4.584 41.95
44.15 6.582 40.671
50.495 70.137 55.227
52.488 71.116 55.421
54.551 70.618 56.623
55.213 68.814 58.24
50.596 81.224 41.318
49.263 82.216 39.553
46.897 82.339 39.846
45.327 80.644 41.31
24.189 70.729 56.313
25.335 72.473 56.574
27.517 72.548 57.629
28.534 70.673 59.519
42.259 57.601 45.856
42.903 57.175 43.552
41.922 57.874 41.315
40.004 59.349 40.911
43.982 5.954 37.935
44.466 3.918 38.84
44.744 1.439 37.486
44.58 1.059 35.22
43.54 -0.025 9.069
41.298 0.038 8.742
40.172 2.533 9.19
41.026 4.482 9.303
32.277 74.555 51.814
30.089 75.222 52.591
28.148 73.474 51.991
27.897 72.122 50.453
51.862 55.716 45.706
52.332 57.537 44.293
50.246 58.442 42.923
48.078 56.899 41.997
58.32 77.783 26.984
58.542 77.457 29.274
56.323 76.472 30.251
53.983 76.475 29.458
50.424 56.929 51.346
49.91 59.05 50.555
50.903 59.876 48.031
52.757 58.596 46.826
57.477 68.343 60.695
58.487 69.898 59.689
58.606 70.523 57.511
57.941 69.101 55.235
60.85 71.667 27.2
60.04 71.758 29.061
61.837 71.907 31.392
64.546 71.184 31.2
51.748 62.367 48.561
53.631 61.337 47.838
53.746 60.626 45.014
51.965 61.848 43.225
69.591 69.981 30.547
67.691 71.366 31.188
67.493 72.744 33.505
68.229 72.388 35.562
60.803 71.093 33.737
58.982 72.045 34.435
57.118 72.378 32.737
56.998 71.11 30.39
41.527 61.663 40.56
42.986 61.74 42.37
45.417 62.839 41.774
45.997 64.318 40.134
26.471 72.229 24.136
26.976 74.395 24.973
28.626 74.576 26.763
29.497 72.935 28.396
39.707 5.216 46.932
41.938 4.973 45.702
42.492 2.94 44.252
41.865 0.831 44.162
15.331 52.975 67.085
15.175 54.474 68.475
14.26 56.621 68.009
12.188 57.17 67.536
39.681 81.0 71.809
41.042 80.384 73.788
43.115 79.109 72.636
42.861 78.337 69.984
47.303 84.46 69.002
46.024 86.119 67.781
46.307 88.625 69.003
48.224 88.916 70.544
45.599 5.971 71.48
45.234 6.085 73.615
47.313 5.743 75.259
49.719 5.389 74.702
59.393 78.454 86.055
58.326 76.954 86.265
56.027 76.328 84.919
54.959 77.781 83.113
25.755 76.245 4.834
27.619 75.222 4.129
28.367 74.103 1.651
29.683 75.484 1.613
23.488 74.246 8.411
25.698 74.329 7.467
26.467 72.727 5.46
24.643 71.142 4.134
42.453 48.541 70.274
42.381 50.794 70.432
43.405 52.475 71.844
45.066 52.356 73.76
48.976 7.087 77.201
46.935 5.857 78.15
47.573 2.936 78.486
49.42 2.129 78.271
58.261 20.096 58.971
57.123 19.107 60.862
58.315 16.841 61.731
60.441 15.978 61.45
33.346 68.434 0.859
31.821 69.511 2.148
29.484 70.005 1.02
29.175 70.252 -1.55
37.374 57.722 67.097
38.662 57.354 68.607
40.47 59.054 69.886
40.07 61.717 69.889
55.962 72.419 63.185
56.148 71.476 61.155
53.967 70.175 60.452
52.213 69.075 61.859
70.273 59.277 61.967
70.793 60.786 64.051
69.568 59.09 66.312
67.811 57.508 65.64
44.066 52.001 79.971
41.799 53.032 79.533
41.607 53.968 76.7
43.953 54.343 75.34
54.832 71.575 51.703
54.824 72.01 53.713
54.268 74.281 54.709
55.576 76.197 54.612
49.728 64.233 65.714
48.751 62.784 67.109
49.238 63.275 69.939
49.672 64.945 71.107
27.123 51.68 51.152
28.982 51.295 52.161
31.118 50.19 50.978
30.786 49.525 48.568
53.057 77.746 54.476
51.24 77.235 55.926
51.674 76.211 58.12
53.65 75.883 59.671
48.885 57.779 72.668
47.966 57.161 74.525
45.27 56.023 73.913
44.657 55.227 71.804
29.78 70.819 62.234
31.491 71.846 62.425
33.283 71.299 60.687
33.645 69.168 59.252
69.273 33.581 16.881
68.218 32.519 15.208
69.451 33.311 12.538
70.987 35.131 12.21
47.681 4.16 13.738
45.805 4.634 13.298
44.072 5.741 15.19
44.213 7.621 16.457
72.868 30.404 21.677
74.355 31.252 20.606
76.016 30.52 18.904
76.441 28.494 17.917
73.795 25.723 8.307
73.792 27.715 9.232
75.493 28.75 11.322
77.638 28.71 10.396
1.676 34.923 0.563
-1.047 36.316 1.236
-0.717 38.702 0.73
1.843 39.835 0.16
77.614 15.708 33.924
77.936 18.134 33.501
78.0 18.822 30.571
77.133 17.604 28.914
66.296 58.144 11.999
68.155 59.378 12.443
70.017 58.355 14.094
69.555 56.456 15.586
64.605 21.624 31.139
62.495 20.913 30.938
62.348 18.339 30.663
63.328 16.966 28.793
69.144 0.52 11.615
71.144 2.059 12.114
70.481 4.23 13.321
68.65 5.677 13.09
70.211 26.6 6.246
71.309 27.119 7.849
70.367 27.649 10.143
67.914 26.345 11.452
72.654 33.8 69.583
71.15 33.674 68.442
68.685 33.34 69.38
67.732 33.844 71.312
1.528 17.145 25.398
0.168 17.263 27.128
-2.61 17.079 27.059
-4.023 16.439 25.397
66.069 1.42 20.642
66.051 0.034 19.491
66.268 0.027 17.208
65.06 0.78 15.363
1.782 10.659 80.944
-0.25 11.446 81.076
-1.87 12.267 82.963
-1.249 13.15 85.246
73.904 81.109 13.262
72.326 81.059 14.512
71.499 79.535 16.361
71.572 77.383 16.666
75.704 7.943 17.924
74.825 5.828 18.052
72.277 5.177 16.805
70.674 6.826 15.889
23.911 18.782 84.813
26.2 17.751 84.426
27.489 19.532 83.384
26.973 20.857 81.287
75.905 81.577 15.298
74.111 82.716 15.734
72.236 83.18 17.423
71.688 81.961 19.447
79.699 16.973 79.939
81.603 16.133 80.335
82.988 14.114 79.328
81.964 12.129 78.219
4.882 11.115 75.92
3.152 11.74 77.6
0.669 11.387 77.289
-0.733 10.695 75.204
71.174 6.864 12.996
73.275 6.646 13.21
73.32 4.544 12.731
73.243 3.244 10.583
58.173 9.638 -1.064
57.172 10.853 0.849
58.95 11.828 2.123
61.123 10.934 2.985
80.939 18.975 59.807
81.034 17.16 58.738
83.127 16.167 57.669
85.146 17.326 56.917
44.196 5.894 44.365
45.031 3.302 44.997
45.709 2.252 42.697
46.396 3.594 40.722
74.701 27.891 45.366
73.003 28.839 46.05
72.299 29.805 48.481
73.084 29.134 50.661
39.817 3.867 33.977
41.499 3.42 35.414
41.644 3.362 38.058
39.607 3.827 39.775
72.632 32.571 41.453
71.846 30.812 42.238
70.4 31.18 44.594
71.096 31.555 46.438
83.83 10.393 55.116
85.972 11.495 55.59
86.32 12.557 58.031
84.989 11.978 60.223
67.556 28.499 49.203
67.99 28.49 47.212
68.046 30.847 45.621
67.333 33.005 46.305
58.747 13.225 64.706
58.465 14.225 62.917
57.953 13.242 60.682
58.853 10.836 59.787
0.42 78.073 53.834
-1.476 76.932 53.376
-0.956 74.251 52.417
0.548 73.521 51.207
72.515 28.255 41.633
72.496 28.196 43.478
70.394 28.395 44.981
68.174 27.469 44.576
66.544 27.968 17.189
65.499 29.661 16.465
66.333 31.019 14.078
67.796 30.582 12.477
56.627 11.892 65.459
56.04 13.651 63.88
54.159 13.712 62.087
53.007 14.8 63.655
81.211 13.046 35.386
79.917 14.425 34.264
78.948 14.298 31.889
78.524 12.154 30.603
78.039 17.457 25.497
79.575 18.897 24.294
80.079 18.489 26.774
79.595 19.751 28.731
57.461 24.504 28.224
59.096 23.867 27.987
60.282 22.085 29.42
60.107 21.577 31.686
65.539 83.086 49.588
67.391 82.564 48.468
69.222 84.429 47.53
69.053 86.45 47.509
85.474 16.468 36.517
84.319 15.031 35.212
82.304 15.917 33.914
80.508 17.501 34.436
79.799 3.668 44.992
79.155 1.659 43.611
76.461 1.548 42.855
74.958 3.715 42.966
76.906 13.328 28.074
77.935 15.24 27.434
80.447 15.447 27.619
82.307 13.758 27.688
3.887 14.005 31.923
1.893 13.671 33.239
1.14 16.499 33.809
2.561 18.219 34.61
74.364 83.621 49.162
74.34 83.583 46.805
76.275 85.205 45.539
77.809 86.281 46.01
67.53 82.777 51.788
69.089 84.171 52.017
70.559 84.253 50.014
71.615 82.514 48.867
84.834 41.436 78.238
86.494 42.941 77.985
86.789 45.226 79.001
85.46 46.43 80.896
47.587 85.84 80.242
45.904 84.816 79.348
46.133 83.827 76.826
48.321 83.404 75.714
70.697 24.72 71.72
68.783 25.575 73.063
68.637 28.247 72.925
70.362 29.667 72.787
62.213 12.822 1.227
63.036 15.266 1.549
64.289 16.273 -0.729
65.302 14.77 -2.658
40.565 86.33 73.712
41.24 84.719 72.35
43.732 83.792 72.512
45.283 83.738 73.794
-0.138 13.404 5.496
-0.275 12.465 3.68
-2.66 12.188 2.263
-4.539 12.932 2.898
68.587 24.019 70.053
67.721 26.125 69.886
65.805 27.362 70.504
63.378 26.975 70.789
70.623 31.229 2.905
69.699 29.784 4.416
70.791 29.654 6.942
73.45 30.03 7.543
72.157 81.173 76.028
70.072 81.126 75.208
71.158 83.046 74.119
71.355 85.289 74.728
61.416 29.21 71.234
60.985 28.06 69.2
62.519 29.109 67.496
63.015 31.606 66.909
73.071 33.866 51.743
72.341 32.064 50.233
70.356 32.738 48.754
69.761 35.072 47.777
66.442 16.713 77.306
64.214 15.749 78.361
63.957 17.024 80.816
65.775 18.431 81.915
76.603 -0.354 74.609
74.259 0.038 74.263
73.761 0.931 72.034
74.54 3.23 70.861
79.382 17.404 61.581
79.589 15.005 62.827
78.656 13.169 61.035
77.844 13.706 58.827
2.312 70.413 80.617
3.91 71.155 81.387
3.866 72.925 82.985
1.562 74.553 83.21
72.286 5.071 71.304
71.461 2.773 71.622
71.696 1.327 69.186
71.614 1.826 66.96
3.913 22.256 62.544
3.122 21.896 60.323
1.89 20.04 59.462
0.023 19.665 60.442
2.569 76.21 54.788
1.541 76.143 56.53
1.949 75.052 58.87
4.143 74.023 59.576
83.839 12.87 53.836
83.889 14.186 55.419
86.311 15.14 56.516
88.25 16.158 55.466
80.818 9.429 55.431
80.312 10.085 57.384
80.282 12.524 58.493
80.386 14.531 57.946
67.241 76.079 66.818
67.151 77.85 68.592
69.455 79.474 68.325
70.539 80.008 66.247
59.956 12.588 57.427
59.479 14.173 58.776
58.462 16.691 57.295
58.377 16.546 54.713
75.506 50.25 9.95
73.448 49.871 10.776
72.704 51.157 12.823
73.689 50.715 14.66
54.809 12.191 29.855
55.249 14.409 29.482
57.341 15.557 28.326
59.46 14.299 28.11
77.104 53.899 6.937
76.697 52.867 9.147
75.263 54.561 10.878
74.396 57.049 9.88
58.179 42.145 29.735
57.451 40.693 28.223
55.012 39.324 28.282
53.431 38.945 29.91
72.296 51.431 16.958
72.183 52.909 15.645
69.862 53.119 14.016
67.781 52.773 14.698
82.598 48.864 26.182
84.436 47.797 25.361
84.948 45.388 26.089
83.48 43.836 27.411
72.037 63.203 12.903
72.347 61.609 14.475
73.425 61.513 16.733
71.871 63.627 18.129
59.247 43.325 24.581
57.898 42.787 26.304
56.575 44.409 27.797
57.116 46.799 28.311
71.654 34.145 18.55
71.978 32.775 16.633
74.225 31.708 15.36
76.441 31.561 16.278
64.531 52.55 11.776
65.184 54.02 13.538
67.715 54.947 12.895
68.506 55.875 11.151
74.039 51.942 78.07
74.172 53.529 76.602
71.667 53.796 75.457
69.412 53.787 76.655
55.689 43.478 30.167
53.444 42.884 29.206
52.265 45.133 28.09
52.789 47.305 27.971
69.491 33.449 20.773
71.225 31.913 20.436
71.455 30.644 18.399
69.516 30.692 16.54
20.144 54.812 70.611
19.634 56.909 70.334
17.481 57.322 68.831
16.982 55.42 66.777
78.408 27.144 12.885
76.208 28.596 13.975
76.669 31.269 13.492
78.767 32.324 12.737
66.445 27.961 9.217
67.131 26.556 7.083
67.663 28.003 5.249
66.615 30.364 4.485
2.272 42.601 -1.09
2.045 43.792 -2.8
4.184 44.843 -4.3
6.515 44.848 -3.634
71.479 34.43 9.608
71.911 32.076 8.785
69.833 30.241 9.516
67.357 30.601 9.665
3.463 40.238 75.868
3.566 42.282 76.031
5.285 44.03 77.369
7.211 43.512 78.713
19.722 50.353 20.272
18.351 52.567 20.19
16.268 52.593 18.443
15.182 50.646 17.336
74.213 27.671 15.927
72.843 29.342 16.495
71.422 30.894 14.651
70.746 30.595 12.517
56.172 40.77 81.111
54.777 42.388 82.49
52.749 41.019 83.53
51.633 38.642 82.681
75.489 49.56 38.868
75.373 51.972 38.32
76.508 53.511 40.303
78.241 52.84 41.873
47.854 28.847 44.972
45.778 29.71 45.562
43.921 28.288 45.444
43.673 25.77 45.771
74.048 51.263 44.068
73.236 51.165 41.83
73.745 53.425 40.603
73.279 55.765 41.115
57.68 46.062 52.562
57.757 45.604 54.33
59.59 44.045 55.593
60.742 42.414 54.847
70.549 48.284 40.807
70.372 50.668 40.709
71.863 51.799 39.004
73.138 51.162 37.024
1.863 44.585 50.41
2.252 44.982 52.402
1.973 43.175 54.116
2.9 41.458 54.605
67.806 52.317 37.46
70.111 53.051 37.36
71.029 54.399 39.7
70.228 55.728 41.093
51.654 41.145 60.025
52.819 42.644 60.016
54.877 42.913 60.57
56.224 42.855 62.861
65.95 34.743 40.565
66.397 33.692 42.165
68.319 32.12 42.831
69.279 30.22 41.446
76.942 51.487 44.313
76.492 53.447 43.955
75.004 55.037 45.478
74.891 55.599 47.64
74.403 53.048 7.425
73.314 51.792 8.797
72.229 49.199 8.585
70.156 49.568 7.792
56.747 45.726 60.484
58.852 45.611 59.585
60.018 43.497 60.774
60.315 42.506 62.883
65.374 27.783 44.743
66.368 29.409 43.779
65.721 32.244 44.194
63.727 32.938 45.301
1.189 48.018 29.786
-0.147 49.689 29.747
-0.512 50.772 27.275
1.122 50.557 25.305
63.581 35.495 44.181
65.263 36.771 42.338
67.536 36.251 43.513
68.485 36.884 45.404
67.72 36.895 40.38
69.58 35.21 40.366
71.045 35.03 42.601
71.169 37.162 44.477
-0.547 41.512 28.149
1.789 40.729 27.194
1.201 41.202 24.649
-1.08 40.803 23.592
68.873 34.552 51.378
67.744 32.798 50.435
68.942 30.297 50.662
68.864 29.064 52.407
79.344 39.107 23.154
80.754 38.943 25.21
81.428 41.242 26.295
79.959 43.647 25.465
3.977 39.742 28.583
3.803 38.834 26.785
4.296 39.817 24.729
5.995 41.943 24.294
72.185 26.09 51.796
70.885 27.775 51.248
70.196 27.994 48.793
70.128 25.919 46.963
56.647 43.424 23.587
55.157 44.111 24.644
54.005 43.152 26.682
53.047 40.756 27.096
75.776 60.654 68.818
77.155 58.655 69.03
77.216 57.751 71.347
76.22 59.389 73.446
38.032 30.871 62.914
39.494 30.57 64.497
41.034 28.569 64.841
41.235 26.44 63.107
72.211 62.88 65.146
73.162 61.351 67.09
71.91 60.736 69.181
70.188 61.562 70.156
58.919 42.008 82.189
60.406 42.822 83.734
59.586 44.99 85.05
57.806 46.768 83.927
68.961 58.376 72.439
70.827 57.447 73.554
73.476 58.857 72.825
73.567 60.872 71.387
82.857 35.891 79.443
84.985 36.453 79.909
86.546 35.061 81.607
85.128 35.44 83.229
76.501 54.135 72.034
74.439 53.49 71.536
73.24 51.999 73.615
74.107 50.886 75.453
54.859 45.796 82.174
55.113 45.443 84.314
53.346 44.039 85.75
51.304 43.088 84.852
83.452 17.872 80.731
84.901 16.923 82.391
83.656 15.643 84.456
81.658 15.63 85.388
66.139 56.509 67.643
67.015 56.725 69.591
68.304 58.777 70.118
67.393 60.935 70.21
70.424 63.754 49.593
72.06 61.884 49.017
72.678 61.916 46.646
73.179 63.607 45.285
59.569 40.282 3.38
57.708 40.383 4.376
55.756 41.259 3.056
55.821 42.53 0.713
70.964 25.637 69.057
71.976 27.418 70.072
70.854 29.782 70.239
68.805 30.619 69.077
84.51 45.986 58.966
84.643 43.649 59.399
84.234 42.658 57.129
82.51 43.642 55.247
72.847 35.29 65.575
70.432 35.091 66.005
69.592 32.788 66.185
70.603 30.751 65.485
64.906 34.29 71.455
63.681 32.513 70.19
65.317 31.634 68.259
66.738 32.715 66.795
84.925 39.709 59.092
86.584 38.857 57.251
86.425 39.305 54.848
84.884 39.82 53.313
62.892 31.314 72.688
64.268 29.779 71.452
66.965 30.346 71.373
68.265 31.592 72.816
84.558 45.308 52.395
85.036 44.774 54.674
85.913 45.999 56.637
86.547 48.401 56.949
3.722 48.961 59.422
2.81 47.323 58.94
2.176 45.175 60.536
2.319 45.325 63.379
68.088 30.558 64.403
68.527 28.272 64.961
67.162 27.105 66.662
64.686 27.787 67.643
48.298 43.151 54.979
50.001 41.871 55.573
51.686 42.818 57.58
51.064 44.665 59.17
75.866 6.574 15.398
74.524 5.204 14.913
74.304 2.705 15.473
76.283 0.873 16.137
23.765 39.391 23.004
25.359 39.475 20.8
28.07 39.892 21.298
29.302 39.026 22.822
68.293 85.249 21.733
69.952 84.466 20.474
69.59 83.029 18.114
67.073 81.957 17.668
61.203 73.641 35.217
63.323 74.592 34.773
64.738 73.23 33.632
64.86 70.295 33.726
71.505 3.899 18.86
70.054 1.713 19.33
69.867 2.554 16.695
70.925 1.38 14.73
85.408 70.688 24.077
84.677 69.42 25.797
83.004 70.52 27.703
82.106 72.635 27.656
68.694 79.989 15.518
69.721 81.833 15.168
69.277 84.264 14.177
67.171 85.162 13.674
68.824 75.177 31.974
66.687 74.647 31.885
64.936 75.128 30.08
64.248 77.231 28.98
65.947 50.75 13.672
67.948 50.622 13.267
69.002 49.723 10.736
68.333 47.665 10.035
75.167 86.545 12.992
74.551 84.839 14.137
71.992 83.606 13.645
70.886 83.819 11.495
76.361 30.983 69.728
74.138 29.504 69.51
72.559 30.589 68.007
73.365 33.05 66.85
69.586 73.788 29.854
68.298 75.078 28.419
65.774 73.664 27.906
65.267 71.51 27.464
72.709 46.809 11.19
71.053 48.172 11.246
70.553 49.444 13.213
71.653 49.062 15.43
81.815 64.52 80.97
81.161 66.68 79.928
80.774 68.726 81.474
80.836 68.707 84.126
73.052 61.489 10.878
73.086 59.257 10.94
70.712 57.947 10.843
68.672 58.647 9.978
68.913 62.931 19.059
68.186 61.263 18.21
68.767 60.38 16.018
69.605 61.255 13.877
7.922 73.291 -0.023
6.917 74.929 -1.391
6.016 73.886 -3.425
6.716 71.994 -4.748
73.952 59.641 13.3
72.644 58.622 14.874
71.916 55.835 14.59
72.734 54.159 13.148
6.483 79.331 0.152
4.261 78.503 0.067
4.136 75.711 -0.068
5.277 74.128 1.343
77.742 69.462 1.834
79.851 69.173 2.588
81.603 70.676 3.169
82.093 72.234 4.433
70.967 56.694 7.834
72.609 55.356 8.384
72.586 53.849 10.373
70.94 52.656 11.573
56.394 69.055 79.493
57.497 69.232 81.614
56.729 71.61 83.056
56.563 73.637 82.329
74.359 1.638 49.107
72.956 0.671 50.574
70.176 1.851 50.486
69.546 3.553 50.065
38.558 55.46 37.821
40.265 55.971 39.826
42.193 57.329 38.739
42.311 59.098 37.287
76.608 81.043 38.67
74.849 82.061 40.076
75.184 83.296 42.262
77.426 83.194 43.867
59.145 72.805 58.812
57.387 74.378 60.118
55.048 73.42 59.571
54.076 72.752 57.641
69.538 81.64 46.988
69.271 82.998 45.296
71.62 83.541 43.713
73.931 82.477 44.575
3.148 24.104 54.431
1.618 22.636 53.805
0.101 20.935 55.658
0.117 21.093 57.732
75.68 84.139 38.543
75.706 86.691 39.091
73.893 86.703 41.257
72.29 85.122 41.621
72.401 80.461 63.747
74.309 81.844 64.868
73.442 83.152 67.005
71.139 83.713 67.457
71.474 61.089 44.023
70.524 60.111 46.353
70.652 57.678 46.301
70.995 56.104 44.139
65.424 8.673 46.229
65.845 8.62 48.61
65.436 6.02 49.821
65.818 3.84 48.54
68.33 5.655 15.571
67.537 3.543 16.565
68.063 3.207 19.104
69.404 5.133 20.467
67.205 81.368 74.519
67.89 79.246 74.763
67.459 77.095 73.2
66.311 76.749 71.537
71.767 55.69 51.174
72.835 54.596 49.11
71.397 54.574 46.834
68.809 55.638 47.054
80.454 67.152 28.454
81.425 68.838 28.777
80.889 71.039 29.804
78.357 71.32 31.213
76.575 60.141 45.168
76.084 58.117 45.346
73.517 57.545 46.382
72.444 58.968 48.057
49.338 73.167 52.208
50.675 74.967 52.742
51.813 74.74 54.981
51.491 73.353 56.833
2.981 67.157 29.312
4.012 68.696 28.605
3.068 70.161 26.654
2.754 69.757 24.7
75.19 58.92 40.055
74.663 58.227 42.435
76.536 56.193 43.582
78.368 55.349 42.87
1.834 75.736 26.878
0.461 73.669 27.054
1.965 71.866 28.731
4.203 72.751 29.7
83.082 67.697 30.584
84.823 69.114 30.646
84.97 71.64 31.495
83.603 72.888 32.64
72.506 53.805 36.463
72.485 55.699 37.493
74.346 56.493 38.991
76.541 55.851 39.275
54.344 72.043 31.313
52.664 73.653 30.334
52.423 75.948 31.687
53.673 76.31 34.17
77.085 80.042 69.621
75.037 80.712 68.638
73.032 78.813 68.786
73.1 77.024 68.19
51.396 69.009 16.641
50.793 67.985 14.707
48.553 66.21 14.883
46.882 66.066 16.355
68.835 82.155 72.387
69.533 80.939 70.71
72.287 81.366 69.833
73.639 83.134 71.133
51.557 61.369 70.803
49.991 60.032 71.513
47.699 60.302 73.25
47.232 62.161 74.446
74.136 0.642 66.647
74.676 1.274 68.801
75.866 -0.712 70.021
76.997 -2.353 69.378
7.987 66.39 -2.38
8.618 68.676 -2.428
7.98 70.529 -0.891
7.238 70.716 1.146
79.098 0.595 73.417
77.575 -0.28 72.038
77.591 -2.914 72.197
79.648 -4.481 72.026
55.771 67.208 83.504
55.014 69.473 84.22
56.352 70.429 86.527
56.003 69.115 88.341
65.489 54.937 72.093
67.223 56.187 72.259
69.698 54.953 72.027
70.521 52.949 72.956
70.406 1.063 42.803
70.43 0.59 44.765
72.098 1.467 46.925
74.115 2.847 46.57
67.459 9.557 55.577
66.291 7.501 54.736
66.588 7.287 52.076
68.541 8.799 50.693
60.637 73.754 6.396
59.669 72.816 4.73
57.784 70.674 4.552
57.238 69.217 5.807
72.383 58.824 66.533
71.771 57.973 68.318
72.914 56.742 70.295
75.025 56.259 70.865
7.182 70.666 63.034
6.314 71.889 61.321
6.984 74.391 60.432
7.254 73.111 58.84
57.154 14.055 66.814
55.05 15.275 65.603
55.862 17.36 64.037
58.273 18.447 64.321
78.277 55.932 73.59
77.175 54.505 74.97
74.885 54.924 74.472
73.153 56.19 75.065
82.56 74.2 54.761
84.685 74.247 55.405
85.888 71.957 55.97
84.577 69.963 56.307
72.956 52.527 69.318
71.911 53.901 70.453
70.031 55.822 69.595
68.984 56.114 67.59
9.739 70.987 56.504
9.915 70.193 58.766
8.071 68.295 59.628
6.504 67.208 57.588
5.616 65.405 55.878
5.146 66.982 54.426
