74.25169614500888 12.57620461837398 33.09657997584828
75.2377135581378 14.803275088864831 33.541551437464946
73.38959655406732 16.306086207255277 35.00359499484881
71.70739121175974 15.450332815666933 36.66790063837135
51.9844597896495 16.52918558324717 45.45526458418282
50.243178525710114 16.932255132251758 45.59423166978923
49.191901433416945 19.521967399712118 45.73610976228576
49.68650420260508 21.247344598427862 44.716879531907495
43.95322027439597 24.524780764856832 48.20605061496885
42.93955852920995 23.396342537024232 46.44550574700838
44.835820118486666 21.199898938226735 45.52270488909212
46.96476307589577 21.408734157378433 45.0356595942089
66.26454697585562 16.235186368789687 39.53169930965637
66.13812107373589 15.948150364121606 37.06246589520897
67.73915513170662 16.586810524504223 36.19751703300604
69.7472104415225 15.109802241481741 34.88255573578797
25.87882222121274 0.010614208865002934 49.27007229882101
62.876874154413265 38.92752315403593 49.54853632959048
64.73609600327714 40.12679678310798 47.923653269721164
67.04876408472515 39.14821280791813 48.778667124248734
67.86382652221153 38.71613039574349 50.59257537135788
48.69691638712708 18.560632330194277 81.56162377665083
48.56735141368713 16.208498831257433 81.18073232516126
50.085529466531014 14.599399871053233 79.68927286572765
52.093607765159824 14.76103398516 78.83291783618792
67.14023410479452 27.759751516915333 49.46753542970132
69.01396496928044 28.397879606432372 47.84045342278153
68.58113383474657 30.211827084508947 46.11519666335141
66.65994258388218 31.398021610579775 45.505498257435555
81.43394253145901 31.525425214051587 36.883795745906916
68.4767830438078 41.83859557238551 55.36415997599504
68.00356913380907 40.52555366691446 53.4728724128303
69.35598243176894 40.44065431764207 51.881830070244824
68.92453927741549 41.02514689067168 49.66071260423352
71.41372171409603 39.11207118111778 49.41011349445243
72.53487189362848 37.304648071848426 49.56592766993219
71.10322273013588 35.49799739788888 50.67951691524483
69.00475328705583 34.581814852020514 50.499971306395715
72.2507949175084 40.784059847018746 53.55151137541182
72.1231300160813 39.321805301106686 51.90537660058361
73.50950689340266 37.180893525930585 51.9600634853701
76.21620112511013 37.19054229976728 52.65730288633596
44.40364851092394 1.329204548717499 11.403701612343001
42.30573257990202 0.8618514608352025 11.577521177788178
41.98440472629992 0.8669485936531763 9.34742983177808
39.60269936805217 1.910118695504193 8.49072379564499
63.137120719323995 8.063323433962845 82.61037822938417
61.7822502089194 6.751177699152871 80.98690629893858
62.16746210047966 4.09155719737728 81.44911594444991
63.991465767045646 2.7763734941125815 81.67965529562755
43.63218145243246 10.790678357783182 77.50454622921629
42.680677118278204 12.473300763161603 79.01539377751727
41.864152917613936 14.556871687833738 77.91040976598192
40.791669310114656 14.742545843136545 75.47994181358887
50.63172729338428 20.39349566858398 76.33555884964817
49.907640389229385 19.48030700087774 78.08669069052829
48.12925128077039 17.403424771981257 78.18815447381311
47.45845730607487 15.97708820182489 76.30478646692696
64.66367359663772 35.223068710738936 22.46121958741603
64.38283051474029 33.898837956956 20.943080783975947
63.14347062646521 34.91001688242303 18.731211523908495
63.37447405008472 36.943316110768166 17.80113648526391
57.902508700689 0.4040227160969465 82.63633757240486
60.38143849362674 0.4045633959905489 79.32090884126713
61.18542008770802 2.241632919136488 79.12417489266944
45.32960036416288 3.13222008900622 62.307372428946415
43.10573152703278 3.2847224803128703 61.33560523083824
42.30654319610683 0.675236620674606 60.30436158557829
46.124143350286246 5.998006568368159 67.86369668925151
46.28253947310553 3.8989333316053263 67.17965487570719
44.24998335051202 2.9585509669587085 65.5775386778327
42.88554002103714 3.868426566864243 63.942474883595466
24.714236029688873 4.507204507722754 71.69198966144675
25.755137716641997 3.6081945409469025 73.31121734526675
25.324882887790707 1.321680770573412 74.31297044333768
28.191970214368496 5.90944047260011 76.1469102864873
26.90978730088989 6.383362584739817 74.32231669061723
24.391850482228293 5.822317315485708 74.15930778664473
23.37418901645804 4.626258011689636 76.04397095459917
65.31517664998697 23.84846213674503 7.117586449272609
67.36342928498685 22.8693493939831 7.3450724678907635
68.28529201545986 20.60249470980572 7.802546947644593
67.97985637633751 18.964953364708187 9.397233577486173
68.8473500023341 26.82174773456517 9.186669397493128
68.65648033952617 24.722235182151017 8.926026774985814
69.13627483850108 22.71171809085655 11.07216315081366
70.64601576440482 23.52762423600174 12.822475100988436
69.38607927153129 23.042276335679848 4.356307905133286
69.80348698723687 24.640739840321913 6.143861739934616
68.91720462455781 26.859220423065565 6.613672619278614
69.29018009128842 34.92456038889174 83.8250050417792
68.02699488402467 37.12506036650206 82.4632280971425
70.1784220663681 38.44180858718377 81.24527914909818
75.44043796054616 23.82549414000271 10.004936273952566
74.44408446184374 24.601695562184126 8.587249194023158
71.80489734504252 24.30977874411571 8.649380900913561
70.3884325576466 22.186266884408987 8.705635664584209
82.66126536999982 8.652007589071077 69.34219996823603
82.76392839166783 9.341256490449847 71.46130627276322
83.5754922371355 11.630376481058242 72.56477541791327
84.0242154689836 13.638825577814245 71.72278603883764
64.57984045379825 16.25545014660185 57.065567857703655
64.00793793588011 16.2061159745859 59.055991977079564
62.449987849784996 13.860202802050503 59.74902106621691
61.42702340411889 12.599415817400992 58.18803289359098
68.92287685117694 19.881593876661665 12.133993621443171
70.38623443954052 19.206686328189445 11.007726895086654
73.07338868245066 20.286307549070422 11.197019382392575
73.83316856064614 21.66732179096283 12.809795815311174
43.07203130233232 0.8747487612676084 6.949734224526216
82.06005039269738 15.52680444137874 72.52812326708941
82.87463328552683 14.868738658778279 74.43775014935663
82.3996019137716 15.76013207392843 76.81977760214524
82.37285869320878 17.77021929032775 77.87046804729228
68.64937318719741 13.194778169634109 56.75392695266197
67.69566805217862 12.495840546560467 58.79423508780785
66.90937391441662 14.028234771817848 60.66446575162645
66.50868437895815 16.60104086625066 60.32944466039428
51.284555157449006 26.187690113964205 72.36076943713567
50.145333489838634 26.10061894216964 74.40394559008016
48.85996144497716 24.082110963278325 75.49418620060297
48.09344157138251 22.041726421753747 74.70211339456232
54.76455779161514 17.232795499279284 63.367976280126356
53.93529620099954 17.07915549788442 61.382982807037976
55.46810055499699 16.550311525737847 59.62784355152514
58.07615503050023 16.784164800380708 59.57691009899603
59.834690861188484 13.96594482506069 67.11328575816944
60.54533963053976 16.13862595457915 66.94204552356116
62.629400298141654 17.409580080638364 67.37681628293932
64.30496923293326 17.39510341017161 69.39820406186752
43.01157604555485 1.7196909188803347 56.81676560256363
41.25722098732483 2.5598117151924176 58.288813590656375
38.91557336036772 1.3544595675061142 58.4538791047763
37.597612497086 0.08478894257525975 57.235136599140915
70.59682501593885 16.525090781503284 66.16748640265489
68.86715508506815 15.145615686884685 66.06455835375759
68.12296476309568 13.942184024952553 63.70782319814508
69.35961180668124 13.283327263688092 61.923090342547475
39.71022978101689 13.459437771173976 81.07658162368307
41.37914390071141 15.139917905390984 80.5286988286611
40.4417088325043 17.478749290860083 78.73446457711766
38.35521805068372 17.87487903236178 78.0411247786404
49.500552259309885 13.690927110272217 77.16658385048959
47.59120685959176 13.794344539447163 78.02584902987758
45.25778217439251 13.124284369163696 76.7401102747497
45.07257500203187 11.059654789681185 75.40420600701569
67.16260579151702 9.712026046607763 54.77480108567446
66.98128674352556 11.220603999424645 56.097498371328676
65.15152773221749 11.84381931782615 57.77431692539752
63.27957773035504 11.73452516847988 56.57613943951437
29.45732111854259 1.9090482870941767 72.42487912167209
28.69591592738645 3.539523995134245 73.57355775019505
27.49852245377849 3.2945700109979437 76.06392501480788
27.798309179657966 1.589924604454306 77.60376416833887
73.29825268497272 28.02157811124362 5.641693682725958
72.0200551361652 26.609165162690992 6.4129185003512665
71.53645849665223 26.765550450618647 9.355021085825761
73.55924809694054 28.616504658537227 10.305227868968004
65.46314312422776 35.162772790956076 76.43928488015378
64.65080937361074 37.50190243417027 76.93843138837539
62.085874151967765 37.532457819920864 78.1690081613393
60.34114518777102 36.23903863379923 78.20862140359041
81.72390207215958 28.743176090047413 64.9745714840598
83.32376226461862 27.202935777982127 65.86936420375588
78.99400203398413 13.000690344526715 81.53035962841274
80.28887229365904 13.883500048898883 82.87433600074297
81.80550384205995 12.630831475110577 84.8627169058544
69.40726596520909 38.99895975884689 77.23967657996124
67.33516246228818 38.5721000847585 77.32084879177995
65.84975916981578 37.138872901336654 79.14521793634653
66.61842053619019 35.30350393345045 80.59753232510015
54.851632079259254 44.0080693666778 79.46480093605766
56.60335372372479 43.070064383163356 78.15568008771288
55.827757277143284 41.24132608988647 76.06851340035655
54.12662394083088 40.86544618502164 75.29592019938387
57.61060611032934 38.02947073281526 76.83823624462167
59.134132387493956 38.786050321882186 78.13050032859168
59.31426661200322 40.7670842849264 80.13098908022698
57.15578583717488 42.22664271375762 80.84071194454116
79.23150001598009 12.22824908370214 77.99770867109906
79.95180505745111 10.5453502134355 76.62332139616285
81.30477797620968 11.348244393446674 74.2657217008158
80.98430656546104 13.338689132071567 73.0938136112231
52.80608150969786 41.23232351437807 7.860210662781424
51.95593773921662 39.838190066981085 6.220389814110158
50.2014722861947 41.46258893926936 6.323743422502411
48.07924103401353 41.494843069861886 7.821123756073343
42.68871606218502 18.121325513721562 26.73532870814791
44.40608387930311 18.786683894047375 25.1857963764466
44.212583654027405 17.533287683610926 22.704131927972508
42.08253606922695 17.174115427108514 21.374085986231957
52.26199260294378 24.268362580341318 75.89360721396855
52.61622963685412 22.26411280554586 77.3107284778197
50.55960573187382 21.72775317440183 79.2093194799116
48.42564377530181 23.235205122988248 79.66608835496355
64.47182883899431 52.17320831676628 37.16410935146901
3.9751507749570405 0.4325454705306183 34.35102704596948
43.24222847272759 22.06379730405296 21.656106070600778
45.01021367083401 21.755432136192393 19.765114030260758
46.61915810606415 19.714134214390555 20.023551392085796
47.00515205955108 18.327977637005034 22.535183437288666
37.60345500451092 20.435782741308746 77.19295441168968
39.22159670674961 22.321190652224857 75.93055190777453
41.41196462886461 21.01943783075869 76.70813842704008
41.764082617510425 19.767209149975205 78.80050182624835
31.185513137966105 18.84951756654844 7.653658704043582
30.14878923919601 18.32327762226896 5.769725166993389
27.766981945815925 18.801385244388168 5.648128700929266
25.852538801520645 18.724632518605134 6.709102917677909
24.455104613635033 16.99987544413317 83.94652832819236
22.0734533155234 17.086985234775295 83.39359263897344
20.966895717988937 19.685548241507703 84.04821937952295
22.72248593650029 21.431493475333223 84.94042652818808
27.45905760261169 0.20146910939582946 12.391394219388987
25.657128122612797 1.7485004088716596 13.228110517095862
24.93913168224121 1.673586278159008 15.594007719146395
40.44209449067749 34.79572634332069 34.42882979737365
41.91418521773325 35.96343997062276 35.27932183021969
43.20259875304394 37.989415407257134 34.20829232492426
43.377244104989074 38.88444539453222 31.966095052535813
46.43737239342393 22.922612362355387 17.845916936373097
46.51754902906497 20.774438581994527 17.563091213891283
48.78748871091194 19.13960481754262 17.072538080138386
51.1250014137067 19.746107569579074 17.529127860458853
60.32902439409371 33.75842701798403 25.219935936809033
61.31197028124687 35.223657170252665 24.181124943282555
61.53490689016223 34.82923018907064 21.298325700710745
60.98841663626727 33.03369022905396 20.149274598329164
58.155947039229815 31.71303835090056 25.941645058356553
57.81627040690367 32.680198586700875 23.82542280084879
57.83754241497953 34.618361360090894 23.960240451389993
55.9102384162429 36.61026127365152 24.23398203199775
43.52334701974857 36.938629456279735 1.675612397796704
42.196726734814476 35.126398268803776 1.2095764385789547
25.034114408704802 20.39768704164067 26.9257243575911
26.28052682330667 20.858643084627964 28.512645413931775
28.12132675340981 19.634385497896982 30.09332205130132
29.38416581218191 17.81485406465265 29.826279549377222
58.0528737290317 45.43992591085944 24.387970974089697
58.95956347715394 43.3504008725409 25.510937420568506
59.02116849566536 41.29307017926195 23.609786894329233
58.08580477152769 41.209417715235936 21.400731085008914
55.25452508687407 43.7859469084494 8.717981847177754
54.2931196195524 45.4480439110991 7.776518178920135
52.74991067810093 44.83885042595175 5.889520429331713
52.82185079367889 42.60958158418811 4.655650028544641
48.47370555976673 35.735937717975645 8.709989978300971
48.09824672644603 37.813453654094204 7.762545948260355
46.03152148214336 38.122312443577464 5.975479317040305
44.0740218911677 36.69382304087742 5.6896315184097315
43.711644174270944 14.84233319438761 74.70586159712032
43.04050923249203 16.95200543152927 75.46978105227394
43.86511578267784 19.39152855523142 75.16910005069893
45.675913845118046 20.506594343559687 73.5123472488893
41.330048643822096 8.041323509283677 11.91000446108875
43.34880674813579 9.60387783129036 11.170906811892504
45.219113856050996 10.17281856924385 12.596157013762248
45.44719967184961 10.89715834628913 14.792353621127925
3.8940858838485766 4.109374213972015 30.83673988689869
1.0993197675857789 1.2206192899256063 35.26933897743374
2.4702213786552294 2.9828366998492504 34.38767268795767
5.411668730821596 5.580162508992305 32.77192899840058
7.678400924469681 6.3931708930401765 32.98261102562074
4.346095474000093 0.9017140071642031 27.39872317520543
3.8140176778281827 1.2719204431507878 29.286931848407505
1.5204066332449162 0.5115838903233381 30.84655425207842
25.6609370042563 13.719024507622873 0.6975111075057253
25.101449128094625 16.204560440939133 0.40965295674241514
26.843429056211686 17.772950409101625 1.893694823892221
28.29283942646682 17.04873592911522 3.7020363195823136
7.136987997001574 6.6338310327599155 36.054875156122264
4.7169864603549545 4.5365961761696605 35.853481044322784
4.579314330471184 2.6913673239604843 37.659364291582484
26.608350070025658 5.521487322034552 14.176673154379321
26.159826328257417 5.600275041941701 16.121053593396702
23.889179572498794 4.8694881827183485 17.431615124554927
22.298437576320513 3.2724026719678836 16.309407711619354
1.770414259649678 1.0068454513474254 0.1024473806708783
22.560381368354392 6.550921882075329 72.228730230795
21.741673843639667 4.504344474752014 71.44779490659879
21.302801331164652 2.688103280354546 73.0107593405517
20.423693815352046 2.3021027938381606 75.16891235070715
57.708745171823395 34.29507852896687 21.292510079354233
59.15060048413386 35.15869737664387 19.451704225258133
60.21044166979463 37.63824586004039 20.67036706637731
59.38523366451892 38.68632532649246 22.308243583250935
45.29086027311669 7.026405429098358 31.632483668647325
47.22754634706887 5.993942778054115 31.700483139661703
47.07845792053521 3.6993653053486537 30.31909292307317
46.611214291060264 3.2105992429318495 28.278369530627575
38.77858657169682 14.810908298217589 40.367706514726315
40.55375666053188 16.23513475013608 41.109191240199415
40.18828424121316 17.247019353029685 43.711806629629635
37.69873331405117 17.861718651861906 44.61908015104842
29.61912262660111 19.42437356188222 59.53327942415261
28.83457589372918 20.08422067634388 57.183639715441224
27.971031875186764 22.469413083351508 56.7396118442149
28.4490382104159 24.492382984486188 57.3064077464435
83.67934385435501 0.33814690307939627 59.17808401986792
78.59357510958944 0.942821138872588 57.8198175652276
48.224631953400184 15.340982561060747 44.43440227073064
47.236759959227726 17.354831142091957 45.03344620329358
45.75932235377662 17.707260356651503 47.17390962437012
45.34378749170812 15.74441767748537 48.90515571797605
30.044320473230165 20.663343058214704 32.34555107504454
28.470257348182376 21.83316275481985 33.26327777826901
26.535311725225394 23.235290976578828 32.145433670895514
28.738489612660427 22.91085344940342 54.00052305090438
26.4395959129338 22.751446116473915 53.229374516272365
6.729138262142432 0.2742789164148034 59.03506666742358
7.230781992779604 1.1029070558808458 61.21149510205669
4.572783607703126 1.539698282868356 62.38857948605141
2.7197465003411896 0.4668042740647993 62.07006946463549
45.136790463391236 23.251518887589025 51.19956855339248
45.85368479559625 22.263021190476376 49.32546981262871
44.58621349584953 20.14004001171738 48.5206269647538
43.868557585391976 18.313108808816125 49.677591789610254
27.178453925918088 24.179073867184833 34.574249800240814
21.76718413350313 18.8427716199495 29.413709541869977
23.827122171142832 19.516126835069837 29.40341150123096
25.218239331921648 20.60602369377156 31.608365711561003
24.2340168425348 19.981837420797966 33.97962323895706
50.16599648568174 16.086764051682497 12.604288855012463
49.007426972619605 16.535125743532497 14.497116285029904
49.85569263765944 16.099734594571036 16.709456404872142
52.46620059785337 15.756757980420058 17.434814996503306
19.311967913214765 2.7333199391533025 47.6124884301243
18.816569526641157 0.7375161077804382 48.57110491805935
53.326368830573514 38.51536599417214 53.85403115918393
52.241638353277565 37.23998403913375 55.587624364772026
52.20829071408423 38.675285949137226 58.03305310996119
53.43908518707434 39.97326874938212 58.88648584603119
61.202144097884656 19.410873344830303 32.70095895549496
63.184602311940225 18.896393546963626 31.87704462399963
65.69398861392285 18.527797733805315 33.398996435270995
65.93795338570754 18.636050844130516 35.63703872246088
51.92851020292196 34.94559402132462 59.661492581590295
51.70031144790875 35.98901378064257 58.033290605989585
49.54405214565707 37.72222943916608 57.98245880587871
47.502152269433935 37.556325758035264 58.77684672398033
76.40837839670472 36.05943707690496 50.168099248534055
74.46455809547246 35.01762330721375 49.295798598064614
72.99127796116683 33.59489730145309 50.74628898620721
73.30971109089232 32.26019622645191 52.56723952271579
48.40122121027781 41.02900086664706 64.24587810427819
48.300599802651256 39.30799470309671 62.99036846392536
49.63819653899952 39.079565535366186 61.02668949851871
51.97159060594113 38.914215337312655 61.12714100095684
69.60717719302032 39.27745583852006 55.04842682989713
71.73002105090202 38.594253004161 54.90698752832437
72.07128765190298 36.076720208567245 53.789623935335705
70.59318526902672 34.29417499335145 53.16104616381138
48.76198354407046 37.826014079676504 51.35546479139698
50.75572668079172 38.09212011692827 52.96125425520213
49.85724791844414 38.62723255062271 55.33930759534286
47.10642163018935 38.21455352958798 56.108146066215056
21.337510120650947 21.361717866885453 64.68616215479958
73.27207120147834 31.219883612257288 49.40751043842033
70.94952470011776 31.196654142592244 48.67936814355067
69.24310860686641 31.891484350661784 50.51936148653597
69.73773050542252 31.86414534191191 53.067445895869696
43.31822395172264 24.120235003203586 53.437295004030126
42.53648367776775 22.705222439881712 52.216844461835855
41.908702336417065 22.40989519901172 50.00836175748862
40.62948937838177 23.875115983570467 48.24578755473919
47.61284579743179 37.42191141439524 37.38717010390454
48.57812715584261 39.724527895914946 38.51517066288477
46.95009780201697 41.58717406421802 37.51523411277133
47.79121169595861 11.58604264229271 48.92267505953088
48.108522595662805 13.8009028189265 48.36825390099093
49.68927021063048 13.966367216323569 46.096202666651244
51.758394082866964 12.555304276501591 45.358604089614005
79.95335470055052 35.54353556312714 26.42041663812863
1.0907346000713705 2.0601679783577334 60.69203039063765
0.2704016689315324 0.09063717881407433 60.09441600487044
8.84920794248705 3.7267759223605457 56.44910039350915
7.472611742197194 2.625954118164534 57.537935941570176
5.657765071586137 3.6787991246054 58.907873589174585
5.645208207215081 5.63265342276429 60.309786402737714
26.97877131679215 18.427628066040526 36.86251480446734
26.847184494564516 20.28760856660946 35.4013407641894
27.348912328097278 19.429330627775368 32.72038744580385
27.95587509339292 17.24879796386081 32.02190356759727
6.65703203519653 0.7445396580630812 33.34684946985942
7.216189638678806 2.9873112517038716 32.280021067554465
5.929160516080695 3.4243965086690533 55.11160677075921
4.4715829800455555 5.34532542709793 54.39460024486728
7.736891727176471 7.8521539880277 56.50020290073637
48.84049786899746 39.15369938721154 48.94447970991958
50.16132425192585 41.07439053435644 49.11794386153268
52.548437489919536 40.82877813292556 50.4060186401432
53.80381397918619 39.28103941174864 50.55768748516721
28.575767727253105 0.42001061096120684 39.584692748215225
26.51429124886678 0.17643604590415585 43.26224721072527
25.98712319893235 2.5014078545377085 42.870730205754136
23.60445751704829 0.8508518383037219 42.68721329424803
11.033374283052334 4.668888719980217 35.7766927313248
9.087694904535528 4.819585660300858 34.80525431518776
7.0586180458425645 3.1315761608430583 35.42337855369657
7.082840372233515 1.1967147427664886 36.83943274113683
61.813660378196275 52.48401831069809 37.8161637214863
62.93428604465061 54.27075050629358 38.662379165497185
61.89811206060125 51.81263794311679 35.1595824113915
63.525844155137314 53.4591705835842 34.50220863103939
65.07133808805786 51.15237571930007 31.08608701470212
74.04953108798125 33.06459400352124 47.36852848216198
71.54311235546771 33.91581911591088 48.04494162583796
69.57588974067552 34.13555408916805 47.05341078836878
68.46426747972268 34.05576007091247 45.04595353198727
31.69739650083366 20.88903114876918 6.04103596372084
30.68101408178105 21.8061591619306 4.413175707826053
30.058312299256674 20.64021718904681 1.7697675450184547
30.03106760175822 18.318852908944255 1.4025859944329866
28.058012466552256 0.4940621905520045 47.744703189917686
41.526233290106134 22.28035759789349 73.37860914627849
43.86517732894309 22.24923594563842 73.73699335831007
45.713148605571504 24.263029769407968 74.35134731202795
45.7864405992681 26.307300359344268 74.12066600357976
27.819776779352715 21.577091121489808 5.470696455408388
27.624353919728787 20.926565541540036 3.4627171377908197
30.231499018664156 25.98525226544149 7.431414833350375
30.38985071968372 24.259822456596353 6.624850760901531
29.750944024275505 22.146500124903 7.519249623639979
30.49348412356049 20.81601637736745 9.406679886906545
43.55839173328059 22.533244690123198 76.53885616044745
45.341261660091455 21.760131367351566 75.99190678147848
47.35200569636529 20.694309699721483 77.33987565625135
47.604247694639284 19.768372661983786 79.4353145393698
53.26436816443805 41.07065210815376 52.902703682010014
51.75271577099158 41.41468989475211 54.840954449495584
49.173548663327146 42.334677077295225 54.35070645754081
48.356357947835136 43.27720504757485 52.32426261851837
27.72672404516962 23.483381668805713 10.463548305560117
27.75882284805494 21.256834798159154 9.260534155372126
25.958332329498326 21.261411264026624 7.212202034573803
37.2665198127504 17.081984256977 75.35463038348776
39.19809876733833 16.866292044131498 75.60608254537738
41.11571436490317 18.74801974591154 75.2575713487596
41.73872910508962 19.655483634689165 73.43875224991505
26.557593653399987 25.050521911710263 58.75336369652756
25.77270752634158 22.959542413131405 60.31677667061787
24.392777447094275 23.07758755668459 62.28392867380822
30.456667466212306 18.5624878246217 54.60440815130621
29.02155001443348 20.13090145529462 54.365742387583644
26.742400059420593 19.92885897913014 55.32023149083839
25.197262952024268 17.903531011739314 55.58688911843733
28.450493046365732 19.625895203444294 61.93889381462352
26.682275694984135 20.631815312603276 61.03285780661467
24.223528407484583 20.25918463309183 61.99215322470651
23.670485629645338 19.237954772918492 64.33642953712045
29.305462688074797 16.92052302404172 62.565160398299376
27.240521088123913 17.216953887457038 62.28947068946198
26.167395481834927 17.963288118606414 60.13738288110659
27.228670892478195 17.766763585786837 57.7278540765976
63.521988320683505 33.19562530282806 16.558722427474674
63.403853237245734 35.605057160363415 15.298573305225098
60.84557131896867 36.73508756782618 15.73926394927512
58.88450660687019 35.58146629027488 16.759694545204123
63.6017170398466 11.24512260921031 60.27665431281369
64.66747617665891 12.774318606853488 60.86199201607518
64.46092827803388 14.340477123408979 63.45433365131335
62.931441818990244 13.935701023552026 64.90352806915452
45.29058733927256 34.73872616265203 3.826376313848708
46.526008584596326 33.625147485140836 5.896631485930397
59.19145778044903 42.7925175378823 77.41468536104225
59.00233247804155 40.90439797611278 76.25514935613951
61.39740422034074 39.19910583025809 76.19702034239626
63.61101556932405 39.86406259703543 76.68594118256124
46.227232018130756 38.34220851126565 3.2545184049708635
55.76733048715179 38.787215426143185 74.55452519133846
57.32293511799441 37.07555553351199 74.3879608560283
59.75168099413666 37.30857054089617 74.40725297363998
61.251394034478224 38.91040243984914 73.77177740718903
43.56684604789025 39.68929427474255 57.831323631973106
44.917039564560575 39.66776105262638 55.24275558242018
45.79009353824576 41.36793118439499 54.19028542692895
49.07232163675689 41.14582764080208 3.8301635520418436
24.151289489516575 20.451044930218202 2.241616531327666
25.256417648264886 19.316765830757802 3.89101494196507
63.77472131279622 44.570716317299514 81.65988350186484
63.18857431571145 42.85907440582857 80.2333722784881
61.083595312301185 42.74181242817973 79.29773564285526
58.851437565713695 44.153830925852105 79.8380551805855
55.11522729108249 34.52056756163066 63.52122499601535
55.28237733296032 36.93219681772344 63.195225453574054
54.26110299600922 37.42158066775484 60.688997392439305
54.35663405478238 36.18335316085335 58.691026932857106
46.81971836700073 41.8120021576465 61.53599110361922
46.57519560064667 38.94682152515176 61.20792760809324
44.87985601668668 37.70589575942699 62.21282667411621
47.50375785533578 36.854247916328276 63.9285262095671
48.69665553468001 36.33811492898635 62.04448455118948
51.45645213986802 36.262860411494145 62.16762608889561
52.7505236840005 36.01176007678636 63.93018018066299
46.324158510402334 42.572300218946424 59.02320661716156
48.45478589770173 40.585194598006844 58.91893926305713
50.53921159134953 40.936136696668044 58.44871955141568
46.55122761696645 14.217738297445033 81.14904226926215
44.93418167634684 13.930666789547725 79.28958338244664
44.3731289349 15.84465583725322 77.6916305486257
43.45161281842977 17.470629876600924 78.32469646906108
48.67886435385911 35.030668295383855 4.512658674145816
49.84393743375399 36.47658113468785 5.6211187291594245
50.52816872118977 38.28985356725271 4.305043500389236
52.67574217579416 38.9502568124457 3.717674160286471
6.9539567507791435 1.1790201173658499 3.449501423185816
9.079471313018228 0.9281358180525286 7.095739282165587
6.999556591647349 2.261283882709421 5.875626661932349
4.646452721556722 1.5440022315500768 6.380443016484719
19.408075493991447 3.4770802706827313 70.38775365319914
18.902703777436525 1.661892449654618 71.38019304063585
17.543841091530663 3.5691410679037836 77.414873487578
18.066796248983653 1.5703240759936263 76.7551351079281
17.8057487292453 0.6509952169011188 74.24129682362403
16.127229823575583 1.4256536967837785 72.59866741366507
7.863402633271752 5.174890665240722 3.0411011693748544
9.83592181540112 4.443381922633482 2.599831487071966
23.570019322962093 5.232557501894467 83.47914528745542
24.342425392953057 6.821071239794671 81.91415767590905
25.416366453148672 5.463886715440418 79.72059376994984
25.837743280565803 3.196920094528996 79.50546231606776
3.7395315490897967 4.469456288999447 64.97980130644005
4.711729369155574 4.247218071842574 62.61939722945631
2.581930084540441 4.5917936011422595 60.722751149849785
24.77542275062695 16.188121486748617 63.15110562856478
24.723478242142697 15.694658531443983 60.74470403626642
22.660652177666826 17.43799361462878 59.732580546816166
21.830908529228363 19.23480288986065 61.29842499661944
5.781477740637586 0.300912521151035 64.62339014012467
7.8022015260173045 1.4723747838785937 63.9357857890784
73.13353873526492 33.83418229221417 55.01805217692333
75.34364797429015 34.72110753922591 54.562733067861174
75.72544394289548 37.26945094560564 55.60087515463978
74.1372123227918 38.40949408094143 56.45266924529662
4.918938207777651 0.617674013288572 56.142519191443185
3.396920051321511 1.165572752575003 57.533730842913016
1.265921893879845 3.0746823409991775 56.66435800349409
60.36797663632884 37.25263693593049 80.72973487198018
61.518709235102584 39.385953310423396 80.23818467945563
64.00926066146341 40.2176263186933 80.53537112944313
66.01303271024109 38.60052303049175 81.54946837140496
61.10708151622439 1.3372499219033949 14.457879346493632
67.68473146517337 4.196946769979154 15.88561904635528
65.83455936606951 3.5730913663294883 16.832991337849222
64.1241336489693 2.027636020363579 15.889551301473732
63.555772541254896 1.0657400402145139 13.935548650040543
19.765082512937433 1.9595834826458218 16.873322769595443
19.303773238975012 2.1693469619328045 18.888337744288172
20.476096712466706 1.413119604454988 21.379390568250326
22.77326508069134 0.3632420156459752 21.028588280416283
83.28056619285191 8.59949454222136 24.368818759698442
37.56931910645645 33.236141716856665 83.56448812707605
37.453334352639324 35.62227335428065 83.48521627777434
40.05653746648839 36.651458733307265 84.01030131204068
41.77723082424303 34.42003461343853 84.47587486164313
51.97711019547212 44.550347969028486 9.096298042743395
50.9504136374237 43.665304525534374 7.585847903960112
84.7494177287766 1.9737287751528922 37.67224328936304
83.80063601665358 0.2363246138176316 37.781038720694156
82.79237040845675 18.240967203064482 82.03075667562626
82.07705217707895 16.260842613552224 82.3102440191287
80.94882691409695 14.87532187459648 80.4708067515723
80.06130936585294 15.596668401283345 78.34494589582386
58.134298847055035 3.7272150278832807 18.50144496041774
59.26815859643325 2.10939919879878 17.71085636707032
61.6702564517302 2.7412728571355567 17.015299355813877
62.635821414730124 4.786468136454322 16.06870144805996
59.55327735253168 2.278919326338589 20.482087210886494
61.02268977552545 0.6928317522260872 21.505805431015187
71.28824548026283 0.8412006162619785 24.019622724467983
71.49507611759601 1.8326845584476186 21.978677885162792
71.10487281726203 0.5604915232389561 19.704454890188998
2.8856032970264462 4.035036763133264 83.62533610880233
3.1145287931473336 1.0843348513547182 83.79297193576433
5.293357365577521 3.887888134831506 2.1778616420810555
3.9951027129282353 1.8609028479095682 1.2212614598427363
77.56679790099045 32.277808722029995 71.21924733258219
79.52021327460497 32.97607952868571 70.32678111165303
81.3911487336934 30.10149673033921 67.45541929477712
39.620453556403575 0.0028038153401049714 60.67470310058852
46.06220982816802 37.50626304062219 32.261064123838494
45.67586834305773 39.15909533853886 30.960728727085314
74.27118909478138 0.002626247470655093 61.43844936723641
82.33066372128252 20.95584163012736 50.71549204814789
84.14268203686649 20.504637635229166 52.000503294481305
83.84851303810814 23.82068502897816 55.062838667767195
81.23774352656328 2.3091639059514653 64.98586358146983
80.68187137817462 0.41526456660674715 63.3093173816224
78.93740302107904 0.0572908537037515 61.58091410098093
77.44899832837673 1.910619682567301 60.3152564249226
58.4350103693175 3.4461159223886257 44.15755025821819
59.07924256287896 1.7135585123632522 42.64167001127796
61.56711862988073 0.5160897521520962 42.48741721979348
63.489393666855904 0.9685704155759527 44.02649780520605
78.08858576118594 0.8570355873937096 34.66460757588326
54.64289933708051 1.1738278560364737 44.77347074467708
60.869824309088315 0.3819868543341357 46.487834407170595
58.323550142130806 0.7119214750378701 45.24921194905517
57.05095343449984 2.325574458740525 46.052169564887755
64.61055560821569 50.803955604288255 27.25725129402436
63.93173015539886 52.66086353206109 28.302727976470326
83.5100335840176 20.786127076310184 57.24812320919699
35.602794097573835 22.11084981257346 43.85795984934223
37.51649574763307 20.569514486332267 44.67392949790057
39.869602704915835 21.096531525600827 44.458214865106264
41.45215204172481 23.11495784077427 44.05740107915313
60.53103932414303 6.509123506167948 83.28502504087741
59.94162364965695 4.84518246227601 82.35516848190821
59.903709807260334 2.2037026347191704 83.16262114511768
58.94946635108855 1.642356564888271 84.95676722641113
43.34902481113257 38.94084042963971 49.75570259856073
44.20574131897586 38.57062711563205 52.48140806733115
46.80130276920738 39.62505719013855 52.17284786995319
47.66851970252583 41.056309550250084 50.49563090188998
84.45436010796672 3.2340323261317563 59.41629726985878
82.8705248427942 2.6463934866762004 60.43652389560925
83.18333266925973 1.4065287732394973 62.3564824420526
84.27523362333612 2.1271411542050163 64.38602356169113
73.9078534191142 1.6245065869882152 59.3180777640775
75.63865797048354 3.8651750616907057 58.95689115357993
20.967352166513287 20.474124506284998 58.43167278388587
24.614463957633763 22.602335562190788 57.94970773526073
25.80910305009217 20.929585475638664 58.04572080253407
84.67640779810439 18.148295741580345 79.63377238070262
84.94953565414741 13.2727637614623 2.129260742804785
84.56941482660612 15.444968315338134 83.41883541889088
84.0097549734463 13.955975163472429 84.59212831015144
80.44863540386213 10.687377377740471 80.2584810220871
81.97927777712651 12.373110715521173 80.78463081358507
83.54380190443338 13.747263565678558 78.86337177422004
83.89553861268456 13.403142948444776 76.81602674803425
4.687375650802377 0.7281938910470631 67.75461377353538
4.086132464135504 1.7547902109342348 66.005645266621
1.8870041093049614 2.174232721801811 64.53896416638374
64.82142128761053 42.08167185138088 78.14980902999774
66.08857735013534 40.54645494225936 78.43935624487932
68.59669677585534 40.128753370086706 79.51948084274483
67.66801233695179 40.651859369431456 81.65647931180595
80.53682504457939 60.397563110324505 28.309573699041348
81.79782521125725 59.47556800303933 27.706512320484897
81.99617058847589 58.74444455949581 25.12020955753589
81.15229788739197 57.13191571339373 24.01816411516892
84.68058500463374 41.52908995028659 31.634492234679687
82.33629221359637 40.370125501025164 31.53509016367025
81.05150915034301 39.23811029452575 33.184785530415304
84.23829326295743 58.420737543883746 27.145277876240424
84.66814578989049 37.02644962804941 26.015263008375506
81.76937552125202 60.156716676944754 22.343995939898
81.96027803510702 61.42910299071564 23.905149983851487
84.56053698778219 60.827059543341115 25.05312609168969
84.66710654010403 41.65633121480577 25.87120627575421
83.07341925019043 41.3147037077705 27.13870073399982
80.58116694881572 40.39665476694697 26.71908693119824
79.59312307411832 40.272799674796225 24.278704018682866
84.07333899041282 38.61053410733831 22.555032824433024
84.32436383398627 40.904029686831905 21.61951582656936
83.91669210736764 51.959583985820956 74.53717952904852
82.44722208707555 51.75766136197247 76.68711436135064
80.86436148875322 54.035570689005446 76.74601593953561
79.52867552495583 54.373467971104276 75.20967118108571
72.9629400628104 62.8623597582391 8.18193706516094
72.63697926385424 60.2977221004358 9.744797854897424
70.478635113521 60.07415765819496 11.184646244888924
81.68137156772003 62.34956599054715 26.51638648877059
83.79630332518637 63.22298880665885 25.914574623785334
79.44780399784308 40.776712715099045 65.42118046523831
81.45444998565257 39.78526660239365 66.22022014851672
82.1982401739372 37.51440539218238 64.46450643012521
81.0024201083693 36.71343336790936 62.43609739938993
84.64144442536626 49.957307252925354 48.44086751601607
84.96610558106977 51.590249000232696 53.7637548453116
83.97249201246308 59.13492219309663 48.18791302181682
84.20091806575667 29.899939992605983 67.94765317535568
83.65808086188176 38.05052708362816 60.676147856236256
81.37025548605526 38.13029993777585 22.39296708016014
80.88420780339885 37.46216177111937 24.25983519096243
82.31857224398836 35.67660856426971 25.397444087949612
83.08917880808144 33.67556184233036 24.58311907078644
84.93953478080286 37.70037002404688 28.6604396291299
83.17021103460362 32.881758646437234 35.63699157716725
81.8252206583139 34.13606857807455 31.08817757121903
83.55965201583358 34.1564387816759 32.96364895185649
81.24744573882464 34.17361395256458 37.736519199247766
82.62322300491793 35.44574265136881 36.8252070497718
82.72058628874329 36.098067708607616 34.49118030285134
81.00556838664383 36.50213923939357 32.658596063389226
80.7346719418007 37.62884166029077 73.49078294334284
80.19565259557307 35.15376880454347 71.93632101917295
81.55729975530139 35.46191030789317 70.18324449259957
81.5701683284037 37.19700241724734 68.15093781010403
80.07701755971571 43.07785245886069 27.69755234821301
81.2936898496719 42.43814552228358 29.589344624759903
80.65157274735509 42.72190174041903 32.239493000884075
78.76835797095677 41.049423918402546 32.872704212222615
82.88538953812659 33.291532789599756 70.54813470168284
84.29801359634169 32.70994808265014 68.63604225598303
84.53610607174357 37.30122677886885 67.9923342739965
84.94787162166591 37.3179488666902 65.07561768965357
84.19289061061589 38.77668073917863 63.48117783232466
65.98597480263822 52.77172128779007 35.87665447875526
67.58306275460241 54.76586953807728 36.056484494886334
68.17371918523457 55.99069971747906 37.993158148087645
68.0926542941261 59.66752846092045 34.478870989016855
64.11291430265196 56.253410683928266 40.81713099107641
65.29788817786331 56.77877353687405 38.911470079551904
66.66878978893276 58.54099094679769 38.02980379007583
69.61023714109912 61.13831675594074 36.414060100518746
71.87696933474722 61.95132513998862 36.624742127738905
68.54466388427763 56.45986825411264 31.04085427732359
68.0125860881057 56.830074690099224 32.92906295052567
65.71897504352245 56.06973813727178 34.48868535419658
63.39323642472169 56.05236227562358 33.89057450866986
74.39115613661288 46.70336410868826 6.118817415119711
73.93728351282826 48.063636897623525 4.5217902726832095
72.52532564345039 50.051823640356524 4.961176390692637
70.93426235417478 50.26173713509547 7.428619912405917
71.3355564072791 62.191985279708355 39.69700625824043
68.91555487063249 60.0947504231181 39.49561214644095
68.77788274074871 58.249521570908925 41.30149539370065
65.9689826699272 56.564999698295864 3.744578482789041
66.72539226836015 53.81650848570892 3.872582165011936
84.62226222562957 57.8602570407866 78.8110434528253
72.0325793997963 49.76905394769823 10.02722634444699
73.73682011159818 49.95759246894354 8.586288873579496
73.73543236224045 52.69789577337043 9.2040173767034
75.19511233753656 53.957898728209216 10.80212780798973
70.92770667241996 55.83243316336324 62.677197769541735
71.42935040305713 56.66106130282928 64.85362620417484
68.77135201798066 57.0978525298168 66.03071058816958
66.91831491061872 56.02495852101324 65.71220056675365
83.51053632349229 58.291474186101745 51.254619532242465
83.01513793691869 56.29567035472888 52.21323602017751
84.42271179355095 55.26862457464781 50.76878427548862
84.26213937208806 54.99286012244688 48.00624251142505
79.02468913776505 37.53047610401523 26.269537810560333
82.28999227435007 35.77176859661305 28.299450981946357
82.29937525491447 37.06873056617471 29.978827224801062
65.2893030103489 57.61832222530617 64.33416149275581
64.46897007920906 55.64879142576251 63.7365471069886
73.04777635276457 59.284930169308986 60.09123149562731
71.67118015247472 58.18410836511298 61.18006704368833
69.85633348186367 59.23695337155384 62.55000469129275
69.84377661749261 61.190807669712726 63.95191750485588
69.73151896945507 54.31624103584992 33.09057411571048
70.50920882510381 53.91116365616079 35.36116755293022
70.85560044547405 56.30269390501152 36.988980571977585
71.41475804895633 58.54546549865231 35.92215216967263
70.12772892635823 58.982550755617495 58.75373787287737
68.67015139032308 60.903479674046366 58.03673134698544
71.935460137454 63.41030823497614 60.142334002854525
69.46090400481292 51.223831172495075 30.45916684415684
67.92358590174683 51.66232355985941 31.712131638420313
67.94956568282585 52.05581691607555 33.9546729995865
69.52509708966232 50.90383717930839 35.93546739256921
75.23194269332987 60.22704296692866 39.418823833442964
73.28626331481306 60.3777399072493 38.44738541730592
71.2571864561201 58.689730407791494 39.06550965581473
71.28140878251105 56.75486898971493 40.481563843254996
63.60234152346133 56.11175936303008 37.04500474523832
65.3979220569256 52.57565629850858 32.43366262578261
70.07134415179374 53.89135737816104 9.153133062509955
68.75361425364164 55.46913924705734 7.659041609687613
69.31589619423289 54.87912868746995 4.904791238631357
70.52668703780517 53.33210751150233 3.778056615841962
80.36704793426944 34.464156544948246 67.41866862240131
81.90659946288365 35.46248702995841 66.18741385670695
83.78322670782885 34.01506074183521 64.9644048697964
84.07121710912149 32.018694560797684 64.6292214033283
76.09837917597828 54.80405690345007 4.908442625799632
74.73409620245793 53.89611858865262 6.5711752580845415
72.44892204433862 54.6418409168095 7.383800570769315
71.15252516105667 56.73717436431429 7.091632525303979
72.97601716923838 54.7993448436454 12.372717973757595
73.27803972329576 56.486290065000965 10.737870384283749
71.19812500192488 57.81943812965786 9.517757764050513
68.84502113183426 57.102156478498515 10.022574118602881
75.2160695853894 51.041603421620735 6.294248811995413
75.75818372495408 49.042690337942396 7.001651924454901
83.60664390426898 59.03523451763117 74.02988475531731
83.10127218771406 57.220046696603056 75.022324142754
84.34650645314447 54.775987956809956 74.34958558649565
84.63471297930472 53.97898264247169 72.584367673251
81.7424095018082 59.12729531485222 81.05700458969618
82.26536465926118 57.128478322942065 80.39726621004627
82.00431713952283 56.209149463849556 77.88342792574218
80.3257982338531 56.98380794373222 76.24079851578324
72.06197104354928 60.73304491218916 6.683232271493017
74.03449022567865 60.00153616958192 6.241962589190128
67.93809995936732 60.027610535947886 68.62193240855821
68.91029777943311 59.805372318791015 66.26152833157448
66.78049849481798 60.1499478480907 64.36488225196794
71.29962864706825 54.25545110853545 71.87087908198096
69.74481275336151 54.06550728886476 70.20933105354244
69.98004615091511 55.859066768099474 68.26552124224284
72.00076993629483 57.03052903082703 67.57791689119657
69.11750661805517 56.17582826023701 59.78465029356134
67.59548846159905 56.72372699952344 61.17586194503118
65.46449030415738 58.632836587947615 60.30648910561225
83.96365092321496 57.51773772959426 20.515453871713603
83.50234164925254 57.72750120888124 22.530468846406336
84.67466512274423 56.971273851403424 25.02152167036849
69.49192577585505 59.44604238177995 5.819992744199218
68.19367112320576 57.419057094858005 4.863392561960898
81.17785399591588 32.191952364300526 68.72530139693586
65.55800518438548 53.975945283952896 29.927157878387014
68.27144238575444 53.90264538882075 29.927564307060102
63.45743572993624 54.04981261389862 67.29637746148175
64.2082485213122 53.63872749005612 69.10577973272751
66.73299086297514 53.39135468668985 69.58119955022121
68.1174369748377 51.89478659119794 68.82368436990117
68.88594406107991 56.2863481379955 71.39674487565354
68.28470087441303 57.31294445788267 69.64777636873917
66.08557251958248 57.73238696875025 68.18109526850189
63.98792137167306 56.85907393593115 68.54650241626024
30.35595107965022 55.14280699702193 1.6252126480098377
28.591775862139514 54.9653226749031 0.1974998985062628
26.804058139827934 56.336771271349065 0.568982627699782
26.63747078416111 58.48435037972974 0.4474327768576023
16.38842725397729 84.02410193466575 1.0128175353672788
23.317172088569823 23.12158477323044 0.635952973170167
45.06865189582547 40.25830842508696 0.350657173583499
43.44288467017471 42.17915316690459 1.7596119477928711
45.48616736458361 42.78827934846111 2.2760837860678578
47.89107287782022 44.247365024526786 1.2085870742911298
6.148864540359257 7.421891579551276 0.17624249658203545
5.09737969647767 43.24006127929893 0.010639471978806521
27.147421592635798 52.729003573057234 1.2295078098267833
8.403770817678522 44.7926035499021 0.12978879720937758
7.905503902102652 46.990933207678715 0.06413288944665739
31.26836743978135 60.98316298676252 1.3534505370767211
29.056413319082196 61.46662149750883 1.2362287247874455
65.63536776080966 57.88721866456582 1.821616013394228
64.23671293207788 60.5470946613036 2.046598670068886
67.02213906699 60.049206753543494 2.9616116473267113
70.34743295063679 62.98004582649971 3.818373598700198
69.696013491785 60.65922725220451 2.38217168667183
74.73403528451865 79.40018506750431 21.312878572412895
72.57426151258777 78.90558859724021 21.33601126825643
71.63102018873865 78.42131434564119 24.37379162216031
72.80844869253522 79.1401943119889 25.995421849995164
51.24254808907241 76.30805719816907 3.990440603886722
52.072781881943534 77.35109061831709 5.783770548141084
54.1721144535719 78.51010636774954 6.746988526692833
56.39965146693492 79.57078883805991 5.573840210784888
71.25450688556109 64.24683116384463 8.61390162618965
45.21039873973721 77.1705798896514 37.19605183548552
46.84232446697237 78.67919854835056 36.305311399111034
48.29755352327748 78.96205585077122 34.31498000319193
48.61754944972091 77.01260318044169 32.20995023239149
83.71142998900459 79.62306255062042 5.964665522517962
83.99986120857363 78.10294978458202 0.7599446373313854
51.700317930784315 83.1197119062778 79.55871525686541
53.80607316569441 84.19584981702002 78.59320343642015
45.629367289325785 78.63750134068677 62.8948388444542
46.83865710561312 76.81865413912232 63.79462461864104
49.505365591959084 77.41321521097866 64.13716248770896
50.77640314943885 79.04114596833051 63.70443966341133
84.27597540622807 81.21646016632408 37.13101755467325
84.74237298755982 76.23745047507173 35.40124960063884
84.51793165216831 83.46579130755845 34.999102101297616
66.33580526620541 75.46244763030639 26.656194099342777
68.40595930548356 75.42367138028577 25.10284640836785
68.28984438358951 74.72484903779822 22.480216887980124
66.37206076968536 73.65720885967553 21.33288779322545
52.114564976953076 82.6107856287294 8.857083403047882
53.29354316303919 80.55463862642098 8.264504352396791
56.08395494176129 80.28617673805645 8.555248240881427
57.607159016270266 81.95933497701776 9.264240208814387
66.21792287353907 77.91892716796276 24.370581314355
68.3239118802343 77.83937133556704 24.020968024639142
69.89887968197527 77.77221056814912 22.202880138184774
70.26161035691402 79.34411675064773 20.2026174970244
61.700523554537 75.16882409694188 18.297508920200556
63.58386198162275 73.4562478773008 17.967756189764
65.97586996203255 74.65965871756744 18.484501177287786
66.42062913565293 76.6939657279104 19.837681926624953
63.81380630405849 62.22007402175483 36.034964877431634
