53.92884965803962 26.864907056743515 62.06903402650889
44.64845951682941 28.9921366008294 61.67928887157801
46.35460913189193 29.212129016127868 60.98062010812752
48.32499128563172 27.298560282488502 61.12895229443643
48.25408872141381 25.11027487249161 61.023020496299615
50.41447351639876 23.546388727173973 64.21048587057977
49.782462711740216 24.978174094009567 63.17356911367396
49.82423937162369 27.4646892495759 63.555966642803206
50.12742560034369 28.42567701757503 66.30174437404331
32.57935997343944 43.53217065777591 53.820606705917776
32.022146241697676 44.04285196354856 55.60948363736304
30.814557367539084 42.559209660353126 57.3606741600776
30.701274026514987 40.359817619384266 57.49810156821899
66.61814001725389 2.560497766613201 74.86657029365321
65.00215960075968 1.75592008784129 74.10195432225433
63.936000756911156 2.8704516551379307 71.73986381098383
64.36288294984531 5.185330078187201 70.69857731707654
59.76166437935097 5.8895222013418405 68.6986584391165
60.62486421836953 5.36100767998295 70.71636378604698
61.37242293930293 2.72855428196534 71.39765067070068
60.04968910838852 1.198395645144132 71.31475258421797
70.09340565110801 0.47567826614962494 71.94265216433577
69.57297277382564 1.5654653660738482 69.98932785536276
68.31853100079637 4.123422575206077 70.16357136957397
68.3689622751361 5.686027336166556 72.12369020957574
64.89599664214269 11.458808722842294 65.35676774138902
64.01471532669608 8.668998461299102 64.81955200218852
65.88123771922994 7.003625199221859 65.25284066143777
59.17930400816197 1.5977767824013844 73.75393044708856
61.10121912534889 2.2853428131773192 74.95264643599788
61.64707151316765 4.9313590746338285 74.35323544971322
60.32379864303792 6.6529806111471865 73.57888373298012
65.71978700444868 11.796495086098359 68.58264975551776
65.39028703331996 10.166698428896153 70.07409315510561
66.80317857228671 7.931252807643357 70.15847799128929
68.8323378409263 7.237793848532775 69.95142611098053
38.90184591038763 0.4329605718013886 69.66792792914657
39.44638915068441 1.9111484162817924 70.98720192965443
39.461577666314625 4.422301019757139 70.067018791564
39.102070172798214 5.0555897247310835 67.69070712936164
19.035453543036628 35.01251675705256 68.81920805770538
18.261093375664146 36.36017060916471 70.19611610318269
27.4358760301344 18.141539231368117 61.63355425120474
29.545836131995134 17.953931338911616 61.54526355318986
31.580125018307246 19.551861373081493 62.338640055454064
31.42181251921888 21.290945943149573 63.52418276584895
14.42815032902973 32.3130180013708 80.07695039530391
13.054484499376692 34.64279969008853 80.21705611727586
13.797417941880356 36.304172931422855 78.05043936471091
15.88584356071474 36.44798627148945 77.1229874090156
27.531773316343454 42.076966025951265 62.61101050557327
28.14584976801396 41.03396053329565 60.506303512165736
28.141835876025976 41.52103777814513 58.069029968246625
29.123292818648316 38.42024973453914 61.00890229261025
29.867121735696852 37.26077761139277 59.08571234606125
29.056585881320796 38.33285595487153 56.78315927682262
26.579254545203554 39.3557643424644 56.61050223448595
31.703579261526034 16.502031273249898 60.714261841239576
32.48779801129854 16.88465502563459 62.47357134449948
34.910533987998356 18.1667445135442 62.82609058149666
36.9406820676319 18.450531777718602 61.24285265326027
20.00254498685317 17.49050332153362 60.38733855760871
21.348411814469884 19.715925296228125 60.691609275085064
23.823298774401838 19.121031720456106 60.141121224559065
24.971636923924503 16.853835564954444 60.205002552755545
26.02247113536153 14.964745795159125 84.99851290763505
40.35100911925471 11.08288633446142 42.60907648147901
38.84250319774182 12.672023861243556 42.41618611702571
36.47133232903299 12.099075206207727 43.2815053366565
35.81376143759715 10.105372351021625 44.36818854167081
31.23722461607148 9.730749269753082 82.61683515103529
32.102026752766356 9.589573651498315 84.59422343022831
29.67553735271728 18.775895056260683 80.81317355212934
30.07907960270501 17.120730094377407 82.22327724739996
30.507562951484196 17.678240677022835 84.97435544086215
38.15987535046095 6.888090494935999 73.29311931147501
39.893371198106735 6.271588984972815 71.92735940082675
40.19423349974907 7.148104662892722 69.30174839048667
38.59666570358888 8.670769261641407 68.28337740417392
48.89795192646781 24.730307533676946 58.258767630742874
50.93583237150531 23.482257561902863 58.61851555854888
53.26372970514094 24.990206014900235 59.4154937767405
16.974906337053664 39.1865540424175 76.72604570465705
18.314649265464222 36.67978512920563 75.89009989316426
17.97215379997131 36.28428288021302 72.91050440276716
37.09055937358572 3.5798932971656052 76.8318813008823
37.717854026666934 5.115617511670875 75.24107777813599
39.47618087941541 4.025435750918788 73.26471471661505
41.317944113096885 2.5674200224195802 73.39229168683762
49.701920878014846 19.139268789849293 63.39607952735187
51.23308435593549 20.91453645294637 63.393328807497156
50.495923424383285 22.969625649388995 61.41426077391458
48.24810151143317 22.43869559480098 60.066560536172716
10.432900890315693 12.533435147007742 70.8467320087611
9.248492031920172 11.242122602752445 72.04872972501937
9.159283616119694 11.16665067286835 74.67551032905195
10.790742829674402 12.106894519839644 76.29358174961514
52.47467630494221 30.740084625811942 63.35423606258892
52.39088873781969 28.42721305571778 63.546795479060165
52.56003242821118 27.364749559638742 65.83077669663597
41.152748368837635 10.009514180291248 68.14989564719504
42.55381909534408 8.039567483208174 68.2047552196258
41.9657001134498 5.971731043116922 66.63532609809374
39.87777091234821 6.120276242816068 64.98885728632928
34.74582645465004 9.881966748307995 37.86455659144587
35.04119554700452 11.150052489417991 40.43135003546654
34.923332718024156 13.31895140690443 40.94244152141707
9.057948134761467 4.766377299622111 29.421260867941395
10.438155180612457 6.194417854196168 30.304231704941554
10.409581649103473 7.349340030666992 32.68246463295593
8.895709641684796 8.196910047487412 33.908771120683014
28.186381776477397 83.98215712939532 3.260277071706859
26.437025258132667 83.87993588052277 2.0903666145221824
27.742574461172804 24.851360896142246 1.0653101093020914
32.43949029943465 28.190163666510767 1.1383033604297723
31.629337527828277 45.72967521101499 2.1829500975027316
29.676019310336372 45.92254985266982 1.09486372777834
43.75616989246654 40.946831285359174 14.777156330372934
38.0310219048303 83.99565743891195 26.91077731072538
9.876657407351017 37.90415547141691 13.87254822103749
11.199475421008806 39.10936523380917 15.260560911473537
10.73780127250555 41.58148636047826 16.08490055246633
9.010743425432052 42.90439408776712 16.368673340938766
28.95888238737124 67.88243998090849 45.75024045668544
0.4687432606126657 62.61394675788321 4.655432492603982
10.844880379445462 40.14178445241463 8.307642982542287
11.591359706666825 40.43779510692279 10.344215312835244
13.890034485904273 39.65520354402563 11.202840776110541
15.567810799604946 38.38444536444162 9.598565951631548
43.41734896456355 52.295506028517266 40.67590859361887
44.498431581112676 54.25172221721675 40.8221817140211
47.01862823591573 54.56046573254746 39.147056943146964
47.454163145162795 53.40063124037595 37.088167650545714
5.532093417108091 11.203106685511584 9.581951303731614
20.781611356443754 20.608044781507726 0.48549469796324174
17.014854770502147 25.004098593750424 3.752060444616333
18.03489906525432 23.056612517784693 2.9746524254031352
18.321241559284893 23.270395982030468 0.16048191995148103
17.311223496570463 36.401428651307256 9.677035520587058
17.882325464738173 34.707762570963496 11.362850108310845
17.176748921919707 35.52991695550231 13.821325193391434
16.7479714364882 37.9905136192001 14.570236528409266
21.454935468044578 27.026423514111077 4.215420164085669
19.92301585001422 25.068379924375765 3.2506810270126647
21.290833992050743 23.39315412767703 2.095136033134256
24.06868901905596 23.26279213479489 2.0094421843588206
15.75360692016314 34.319594996142385 8.948203143369188
13.946602748528283 36.00344833519067 9.906920783461752
11.419075851450442 36.42362539611035 8.894425775512588
11.237462225704359 37.623371925789925 7.195969181662965
15.629959176487358 41.54848141983344 17.635973893854132
13.68896434081435 41.97440543478475 16.670489841847992
13.03454143952655 41.46949959169187 14.23942203611574
14.303252858311229 42.08820499701664 12.158535551341288
34.381880768174625 81.34008643027862 20.307818821302636
36.114168320325376 82.74526774553325 20.855615460661234
37.10736805364689 82.52727705087128 23.39059803582605
36.243782707551944 82.10403011992382 25.307253731549803
6.522678227257347 16.573985481872125 11.92267061057525
7.243387715032379 21.561017471030258 10.855358855978544
7.583892038602723 21.324600658999213 13.46760050830376
37.29058194956789 64.21934949230696 9.217624748206006
39.33872708474265 64.20023603009015 8.81742755768088
40.79826941351727 63.79268417937187 10.824084105394375
40.29925586469746 64.52331531283056 13.354693266058623
21.069545438192485 62.5340477843315 13.366876257385679
22.065326650525602 60.11283901297186 13.702291980173431
22.112280835690946 58.66268528695358 11.480752796878097
21.292656386719386 59.500575514578095 9.353553940566421
49.805305873366336 61.81198454549259 20.992928712817974
50.24020956507828 62.87391692380379 18.8788123441793
48.62002000639129 61.68907607725434 16.900732582411823
47.80600017900051 59.66877642633803 16.74871619530835
21.08977770947396 57.950957169067415 18.698241206881317
22.100468017773608 58.3400658344737 16.807366336033795
21.97453523118523 57.36054042699418 14.269305973678962
21.496449602520865 55.42984161147275 13.490234736465784
22.32605034002026 64.50567530617039 14.984814262893288
24.698975299353975 63.53151108322095 15.311950874054018
24.89649598838741 61.34621527894425 16.769314291460688
23.406751305217444 60.444186632390654 18.453787469378383
0.10699610612387109 76.20900709310081 4.639447472228053
2.635051975785979 76.59026784235714 4.919469350501958
4.050639339760827 75.79775980698328 6.796400588366641
33.68356276914702 60.56740447172629 12.954752669696033
34.7537182305259 62.03921666066832 11.151902253224767
36.985749395055976 62.89908296665868 11.58656008035551
38.45556437960292 62.66762058376383 13.982842096001107
24.06829953268773 81.62297535088935 6.975400633529076
25.31656242759517 81.86246695607582 5.254706082131414
24.22039786579092 82.37870221815186 2.908447426082184
22.05401160581891 82.21097788539907 2.259907161477058
19.39986184005885 83.33239522793174 4.980169405176638
21.231394532846167 82.5735737111697 6.507569635356334
22.201770191151102 83.12169190674545 8.232709016429745
21.501486797816508 84.85820644256319 3.309516786848358
20.214681384032293 84.05293379112025 1.4450249124212473
33.448853400718185 39.00020219386041 28.06997788813911
32.43932689874939 38.55059630420662 26.163800032153155
33.43127816017086 39.81237478082556 23.94732542558039
34.51173919189656 42.31161001390731 23.90586977212381
36.28597963946514 44.20973594211191 16.41732757335155
37.75848807243046 43.40386038715905 17.957452344831257
37.033761416356406 41.76488444710048 19.837612071058984
35.39824864507384 41.50322946812178 21.052597840633457
37.43603428479687 37.79358134505311 18.88960045909119
36.85915494090319 38.93912793104689 20.497301213525656
35.54256595852455 38.1062578459852 22.881089860188084
37.21227496286728 42.036152921641055 23.08211927430315
37.794444631335054 40.07009528968519 23.61345999748051
24.89693853802615 58.2302945464295 16.328303458206054
24.611064215755224 57.276851905575874 14.350193457560245
24.690878770891118 58.5786729933293 12.124783392254267
26.52593481420472 59.65230334260253 11.202690624220814
51.876072856829026 47.17677549546297 0.9532223935023749
37.45144162795255 59.879806173530305 14.536758769318283
39.64984454182802 60.362434618043665 14.176803830317407
41.68718045308211 58.582634832032355 13.55598059958106
41.62796090569923 56.29907333336376 13.619956893584789
38.78722306268165 61.74676034627731 10.244727809624026
40.16383594525023 61.31253532704108 11.631368028165932
42.77679665386645 60.20000337994407 11.449524203733885
43.92025734293539 60.06722087734421 9.78286314980127
47.25622284507953 62.862564759269446 11.056595389185063
45.654215262106874 61.933480816656804 11.304133068266355
43.5127240601083 62.705201624577626 12.939224614928971
42.972973077174764 64.91951761064924 13.398337251533496
1.173945834092716 83.19961840613301 10.31042121474884
0.9673171514192977 82.0507994052524 8.552450479508
2.8074613661379204 80.83062223723321 7.071571227196794
5.213741257052923 80.68376658091685 7.2100462733063075
0.9475296280971551 81.32628487249748 12.219868564537043
0.6407634326004045 79.65464668906492 10.102379667792906
1.8271875628546732 78.1155153316855 9.059865102614458
4.3485043301175255 77.13929262933907 9.381864117817896
6.797243803705843 79.2193269030645 9.234104768912722
6.9497453070203274 77.05417415630937 8.942497813529696
6.858028091170931 76.01561504158661 6.881476182044893
7.721469165279711 76.54576695772923 4.588749354952166
1.9434313177729075 78.0388736676995 0.8175846937458375
1.9788212246126764 79.23439630214413 3.0527515273708525
0.08775456792613925 80.21414832462824 4.511687570922654
5.008218547964335 71.75773461987491 8.852869032565986
7.5518894237425265 72.7526019179344 9.624447857682842
6.967174490071775 75.0115293029295 11.112017622609882
4.617437862246586 75.7528925551952 11.909550349779439
39.394966487499474 43.09118597624111 15.710030517579664
41.492723966117524 42.073252823085234 15.80160082770937
40.44502712399754 41.406784300508264 18.023070345220322
38.533360826921154 39.84253639625545 18.416115764050343
7.9086923938747296 41.70089891098291 10.156997979667242
9.016947891020761 40.423292563248985 11.955722526013085
9.689710442660914 37.86947354341668 11.298415986300629
8.344465698283035 36.539620696768004 9.239825003537703
4.882720420584378 54.83471424047052 27.32132149631724
12.272978645743015 33.77136041012925 11.219234459403552
11.299577363145458 35.72354934615599 11.470409988047049
12.56132675110612 37.62895029397171 12.835450615156642
14.165256874061066 37.36592573515357 14.586106324333999
26.210043099139938 51.75734762842388 9.711802967088682
23.550685991327914 51.48361555395355 9.982382004438232
22.71715782373177 53.250431848093655 12.070464232425023
24.535555485504727 54.97325853057793 12.875161194831916
17.83353663024333 38.56439275505903 18.765764600242097
16.683482997788985 38.64297373100117 17.02294484753919
14.119945929376703 38.98151813799536 17.069840412268533
12.450211646363512 37.96567580186862 18.415083971544004
25.219521765240476 48.06941096078677 27.534801226203335
26.451495307335787 49.514754870879116 28.878288610805374
25.138747450653753 51.35381296178681 30.489348121786893
22.800269564916107 51.99846100750498 30.200073956245074
14.466955423081009 74.49420499492555 30.14229289023082
14.122647617292072 77.19676214981578 30.019850538155065
15.942489901716801 77.96923600171273 28.009416466318182
18.019634651790003 77.0090511895755 27.594717875201038
18.680124657070596 57.47998279519914 10.480740763925766
20.36491227956042 56.732572122716945 11.551326363824177
22.311132589119996 55.36495553051274 10.393446248220316
22.41062485645821 54.09602743345024 8.075497177593801
21.53149051112907 65.05755598712176 12.254374083326027
21.940593087070074 63.54733822373882 10.914485158136658
23.733885481923938 62.270784626478964 11.250685102703851
25.45244095317622 62.462244038035784 10.511760923877992
13.049542571459439 73.48494067495831 22.953240802416076
12.389121006965537 74.74791464765819 24.477700258044354
14.288111053497465 75.1899614428382 26.205084325815427
15.896589193717496 73.29044536619165 27.369126083071095
26.203787498287706 64.2185591208665 7.0883789797424095
25.863431020046306 62.08407420950728 7.6138317546947505
23.52864921783613 61.33961773996175 8.51500298680931
21.29422626132867 62.01662075325958 7.9512743479077495
12.936539551104161 84.51571449469685 27.339361517522832
14.492039340517877 83.69990230120091 28.35640369192564
16.836069932422177 82.25368916891964 26.402007220948175
15.293414440747256 81.50626772236694 24.565168564897693
16.88214308174141 73.81538271563791 21.028552495189608
16.05181079648588 73.49218342267692 23.05295067184266
17.28213226114115 74.76177927455605 25.36864542782509
19.141761267845535 75.18277730127507 25.703018732857252
0.5903270135718999 57.40675608515418 6.135116173611484
0.12635456602645334 62.22211813351467 7.307010475589397
21.364066505833 31.737940598279845 28.14539396164332
23.04366625543274 30.73318315796382 28.922179715862498
24.4762740263764 31.59390338850379 31.06591415474242
24.42245825070454 33.78910967270916 32.27042028240304
29.73435520830652 55.91235813074658 36.52876699795202
28.148070974699714 55.170549948623204 35.539164816802455
25.707618450865112 55.017250629933976 36.06531553369369
24.62996855150081 55.00877332594837 38.28902847199651
24.39277289196141 52.75373120202367 35.23245384964143
25.06847235576812 52.61276556801833 32.94647855534727
25.15503093588375 54.98183512286729 31.63919269236522
24.326723006771374 56.913619718165066 32.40441994549845
13.913078742723805 40.736815290082596 19.616726804329037
11.630689095880467 40.336945034451446 19.476574745916974
9.70268533965118 42.44841109518175 19.32318839297135
9.747647595977202 44.69196579298679 19.772091296058235
44.12867353999604 43.43762579051368 18.498055451187728
42.36407463312562 42.43564226567784 19.808780588455978
39.90858299534799 43.83267591956427 19.40578253850593
39.75559875456004 45.59720409388709 18.409267972219826
44.70506221352444 46.29385154464233 12.319390269164087
44.16405344000608 44.37730694915239 13.71010543898002
43.00223847302861 44.35118560028898 16.10339957894141
40.77250613077239 45.69580940535637 15.586288784582376
23.318498344922062 61.27186364695691 34.28500227870768
23.26234211424943 59.289453921753385 33.828063129932204
24.49840809629689 57.89687884307273 35.452013155232876
24.442628528777718 57.849345466044966 38.14529602228803
27.65309445910366 51.68177598263381 29.473144616040855
27.91494346108068 54.1100645010993 29.782073592895568
27.885463224430705 54.65933324962976 32.37169358435826
27.464592619347634 52.874602935400944 34.074027187829394
16.578492585315175 30.551246225976968 16.420906118084567
16.363427254216592 33.049112415259295 15.973985080361985
15.181434614975268 33.80386736297628 13.405307911978483
15.07446861948846 32.919120610591854 11.608842851075044
9.609622490641414 79.13261956379554 31.162463599392524
9.279765172948762 79.3695407793258 29.14831464569154
10.843137116154193 77.8373402359546 27.24903729513438
12.417905674071442 76.06069334079655 27.910517822377503
26.65865937794484 59.36425245163727 7.3479333161823766
24.253979297888627 58.94516533557405 7.10871158391472
23.33053811511966 57.46655088056082 9.13729463823926
24.78005792974846 56.24850217232428 10.703356804548095
5.040038854497197 75.78911898104117 1.5439740130480872
5.248849308263256 77.20256586759922 3.753693685247341
5.111301443916045 79.79004846793912 3.945185808627206
0.8894855821222686 75.46801124004594 0.5978725582539414
2.4437409986167844 75.56179122489658 2.293837909029487
3.1762653004243813 73.82786847871243 3.7830726187727137
8.23875614565355 71.77106636004903 7.0724491025923815
6.790551678909217 73.22391810605095 6.464818296221259
5.924184157661154 73.9493522636572 4.233613730356462
6.748079456370183 73.56222547460956 1.9897896690013384
14.470466384655422 75.66946000619089 22.756868892250417
15.310441619327019 76.86779439013424 24.390132462337725
14.7788220114647 79.03566449445968 25.826058176394337
12.525761825031294 79.8003080241672 26.267556463520954
3.7027163387553506 57.409906914317794 24.69316121508257
6.074850073626842 58.17281125479904 24.037128894931463
5.689478227209959 59.40226042288637 25.371362460696762
4.974001151902117 58.58931377688282 27.56008020097649
6.154649878580317 56.617106986755 29.238253269183865
56.75171205504449 55.13639581137975 4.327032824580072
54.29128616515425 54.49539063395798 3.1131372849410885
54.92847123533301 53.410427186935856 1.0178760341342206
53.91823637823542 50.987141018921115 2.31322521585825
53.765502408309096 49.35204077447047 0.7672830625728676
25.81375350434367 35.24695565803054 36.72730675528108
19.176410512485642 30.427702620557653 28.85799262472062
60.787167171450996 69.67374249803711 1.2991584705285275
59.37552355320475 70.78635865164338 0.6998810929063246
3.345024988063499 63.23069110853972 27.971114845553444
3.948729162758473 60.971829263424816 28.2369023010416
36.79125907393091 73.58942208667843 28.427062757596733
35.19377048858129 73.9650057427904 29.659761381138807
35.18442600782536 76.31883277282749 30.667214977564974
37.39171730026801 77.59242980013605 30.75998440614741
36.31133458214376 75.95178645959562 22.85052907891932
35.59193545049698 75.33752412669382 24.973518761505375
37.3760921924272 75.90393175688455 27.02079782014674
39.52433352371823 76.57546778466303 26.888056134822676
33.22112424490304 78.76556805507383 30.53156900573664
33.54486708172727 77.57800924045421 28.426591589667183
35.913827887146574 78.27111088707778 27.093644668762312
37.2673193014888 80.04910697078584 27.25832334117238
49.2553616223356 65.6480777325252 18.39648403505974
47.52675539648795 64.01218828804382 17.770172660421235
46.535341689114574 63.59200487145273 16.044899686478264
44.53251318766364 64.29610462922162 15.7734543151468
36.16202241357636 80.02785221532436 18.837151201333743
34.63625682736529 78.76206376655055 18.238883537454615
32.31138066817784 79.29879047414789 16.75089657081631
32.02852847170924 80.86837987903421 15.19587163305789
49.13628714871821 84.68219099798493 7.405502093562463
51.01812862348491 83.24276690572628 8.864654624775927
53.21747208593174 83.10011584086398 8.78488751014876
24.227435802270858 83.54912446207878 0.051457108190954885
51.31887532060683 55.16292403151717 0.19963851487640683
46.24665729759196 52.52754120134591 42.17204725731216
47.21419041442714 54.33746122989727 41.96695442628911
49.416146457226006 54.32910827154536 41.15715176462752
33.01609876805594 78.9940117966011 20.91371737929659
34.32056545416134 78.7726952897597 22.6821498523313
33.98496478321697 77.76412381033454 25.175381743731553
32.36642568531133 76.64149614963908 26.185106777808418
45.64113167535 61.686227392330196 18.0303604605588
44.59903333919475 59.72280002540125 17.770585346312394
42.991328875198626 59.64789426975884 15.784777906414606
41.8360520599773 61.5626682719632 14.678470700231896
66.5974272589286 60.28484739645635 16.192183700740014
66.43459935591198 58.913698851527585 14.165919875643775
24.41623300113228 85.03133268484112 9.913847496711542
24.503944568888414 84.64718454353425 7.795971882012993
26.313812400371013 84.13237617998858 6.099547661121592
28.527497008889995 83.50725862902564 6.199897741870809
34.974329601368844 77.41469100111674 33.29299421818257
34.4663543885338 79.70226441175171 33.23224678713818
36.04537271549716 79.8941008254378 31.860974801909123
30.27543867743824 78.8782469121584 6.024079194681376
29.55008258995365 80.91409945712786 5.540825163650138
28.0468563354472 81.5480137706247 4.284382644942757
27.366375402095898 81.02265857031394 1.702942602138545
46.31398171310477 58.00035443945554 14.912825467897706
45.32433965856846 59.40122415726687 13.729014109110105
46.78480995127652 61.94640488368633 13.575745853261434
49.22860408619528 62.1236864781548 14.258730681379433
17.85131332835214 70.3933466791443 45.06867631799387
33.85154684014948 59.63693183276018 35.98400596561241
32.424943079773676 59.76228327634181 34.58753958843788
30.665544727313076 58.03001897758681 33.388501404269235
30.542147209425057 55.684569810840685 34.05809960998202
59.976841507676966 84.05834220954654 11.69754993440574
54.76418503683713 83.79840847211706 10.776875571497735
23.029378296810773 54.952030625153846 29.82837360247181
23.904515161862424 54.10255423373587 28.11236177252907
26.26108586690142 55.27447084697342 27.370923844610527
27.085606868420534 57.56058568448143 27.0779583402605
39.84285845784978 77.45350100939396 29.337784723111366
38.98964660860568 79.5714236064032 29.7215619781111
30.21466454245616 59.90944327039026 36.41916421216309
28.835830037066227 58.61817936125038 35.83307848163426
26.642323267922453 59.05610097449065 34.330883809829686
26.03176808339298 61.06882940558573 33.02582789752465
30.414723145955872 73.19423896907975 25.907534985574788
31.66435266137729 74.26171056353378 27.33286099983871
34.02090742618635 74.13480321946811 27.13137505856987
35.69851652069717 72.09641317940599 26.52542926738641
32.312359277035505 75.55986406368875 34.78472799124251
32.23932362397333 73.60930918227548 33.51726954487978
32.57681174350655 73.7901788568717 30.78751788486257
32.085600167382154 75.66895164791248 29.53632940796707
40.071579384289734 81.53805942342875 23.915288316050372
39.60023915519765 79.50911314821992 24.671172695889503
37.51696324338331 78.20929871924918 23.174261026589875
36.720321674682914 78.51702848200055 21.15842467102334
9.479878103667701 81.99370270920467 29.43664530624281
11.313935236562841 82.23494633913712 28.347304390938707
13.540549773768696 80.69298849287178 29.09611800538952
14.311414878292599 79.94591274773548 30.8257072983772
51.59277718146826 53.12738955800793 30.685877952063247
51.38167768470942 54.39324685850776 32.67412905999121
50.16879441139664 54.49470016635118 34.61765351067786
51.120508362475235 56.97633099810103 33.943434964060614
52.017831267607725 58.03949475822971 35.85151391109304
51.11080781522532 57.24015232344276 38.06166238539
48.80545045266834 56.368503569363305 38.65136146424503
53.99463468327054 56.028276399215464 34.49624607007108
53.6838626781924 58.305009729877625 33.09081085581096
48.18490164936395 56.98389641221885 41.33764494355136
49.880949361044834 56.393050446069395 42.66420771124552
52.0141764155259 56.20708501169796 41.676057767529876
29.05044230381588 56.46328027059394 28.6706502942716
29.41616861101848 56.516212729079975 31.22632055175317
27.269320050772304 57.58346042297867 32.12727863765517
25.757517687418503 59.505465269855584 30.6409676440867
1.14954497415994 82.68089132972011 5.209464331965573
3.2775443630426535 82.79323904947427 4.612106861538629
7.076659814432457 81.50311992832633 27.917506717662636
8.06635341753971 80.3076913352763 26.543344503025647
10.45968930332294 81.25153442667214 24.790352555981222
10.906373746778911 83.5787814978671 24.82644983637293
17.83134058290292 82.91851274243936 23.709792393465648
17.339203750679516 80.92223779658718 22.891912428052237
17.807740767182253 78.6080731814958 24.138353138743437
19.554869757636148 77.95841312345794 25.885098987226495
7.518583106522983 79.89380308566034 23.0322210286815
9.67421370960982 79.26636151354276 22.770010701256886
10.73160335064682 77.44667102973773 23.391304430067688
9.918106412251817 76.26340227507555 25.33000912048683
16.749190549657925 80.38167266439892 33.3921701212145
16.116865311607874 81.63147698209264 31.959541051243043
16.371780549029115 81.11893783064036 29.268485689644557
17.890958708069054 80.52757060861626 27.926502745379274
49.855820590759194 83.0968238775033 11.476059673452518
11.553515860592833 44.597863715602614 16.032644781137645
13.13773479342488 45.13489806703181 14.071271474163254
12.322122659970553 43.808934448545436 11.792143485206811
10.173801068275358 42.66968184217993 11.489908618414704
55.18942906597965 73.08069347520588 10.806860055469725
53.92175521743475 74.2209575607343 12.146935051598003
53.395685955074285 77.05640205079044 11.357401707914777
54.800075762957476 78.39901869958312 10.360441170200954
49.74960005571878 77.71218987312875 12.100016858764311
50.08762841536548 79.9540750187568 11.534781272743276
51.72071299401119 80.7212947090551 10.180134256648161
53.26747420650518 79.9887330022582 8.412613843268433
53.2177491373664 76.87643645541915 14.131864417183332
54.91245797873913 77.96342581906194 13.546619189337973
54.95418655568063 80.39485175886284 12.413054912974497
53.001118187268474 81.98547832821478 12.171670884497292
15.059453394140304 75.76289396036034 44.39485402824873
63.28978321282987 62.09932325748212 20.49990612049351
64.41465433029664 61.55599913984215 18.351094988215106
64.28946465770653 61.89450062663489 15.783190745596931
62.40819769882076 63.921806354234604 14.626286819640681
70.74014181382306 61.609976108144174 10.887057872249075
68.86862173998993 60.94456521908415 9.48677483507311
66.51921424789128 64.8851785252273 20.926014747666326
66.88812661055813 63.193606179968256 19.334432604038856
68.10354890447165 63.77869853791359 17.21471817090414
69.22430708163651 65.401485809757 16.659101114553692
65.01345523033173 63.606256277315296 13.634363572117227
66.45656335278622 63.29231862869375 15.03988144802601
69.36476662037491 63.08786277090919 14.4947762721257
70.30882302561635 63.93090774650706 12.606759803128861
46.62499733763599 83.67832647294456 5.956771945989247
48.34521975865778 82.21966303816977 6.04342694018497
49.0804728956258 81.33551961180414 8.326685483462182
47.77871646403596 81.63499869979388 10.636116657098658
31.712498347509257 47.469067984373474 48.76744546337942
71.33515879434212 65.67562413084978 14.932926156044974
64.66676228919646 56.930125722789384 9.959408673277876
65.54058251006253 58.33250161843653 11.382054836179316
66.34150491252628 60.312039911501834 11.804790190866987
66.84926426250034 62.512226911667945 10.21473350656653
65.85049478034598 3.3399114199086988 9.80797754409374
63.31001594001276 2.730149639212974 9.222486855088071
63.43461123747942 1.9561407475587764 6.737447166096653
65.55749064869973 2.034607445929302 5.1183792432527175
80.20891312418141 20.07036205897043 24.4396498144908
78.45955660583667 19.968140810097882 23.269739357306122
76.32942451551956 21.407874748031116 24.092633431584524
76.12216157250195 23.065009080920778 25.60106245274816
31.383025747479035 6.210643996853919 1.6612246262750954
31.115626712987275 8.286848236963015 3.7222268463849764
60.9243961233021 1.3699374978438825 8.11722855506927
59.236186668704704 0.7538275476162092 12.228626667164495
59.519552352053175 2.7418553778861376 13.136748145762992
77.45949272776424 57.573044003661714 10.828395034386414
75.51336117268487 58.52706045710683 10.701792018131624
73.63692288165245 58.53467626109302 12.42122870098986
74.02168334609951 57.91814112552949 15.175756449412589
51.335786414766254 28.438849435057463 0.5975377966196638
49.282621910729695 25.198369847883068 0.3213944803476037
46.28353124386911 25.52103369017719 0.07650745649890603
31.876420714252884 18.912001193010912 26.89802127815265
31.644130385029282 17.887649443017924 24.851532285439017
30.035020422309145 17.484710936835842 22.92382368869098
28.345106806882153 19.208820690992606 22.30226862125539
32.95132052299472 2.88339647405999 5.445165652849334
32.2055147477408 4.552268900101392 3.615464255007505
34.07660127865422 6.286370420154368 2.745921686296146
35.88658034863323 7.165774068678321 3.565143386177177
44.92168317815732 6.92312992223357 4.929348163010634
42.74488281171128 6.2919823892816105 6.254436317227917
42.41027649467996 3.805090668475836 6.124136744003586
43.39526397999202 2.3665132200376475 7.089090671684969
68.48179561671422 1.0734388765884397 14.173900539098973
42.93819934356808 6.597796412707235 1.0378860910104983
42.94370446217088 5.807821191236616 2.951192741825246
40.67430695909549 5.088741177609279 3.840627523686066
38.261736120631156 6.020256205098005 3.321503341173754
46.648705475598234 5.350242031396741 1.4688173059553256
45.27109007491822 4.482761368904983 2.978092222920596
43.22059729588008 2.6306008817015756 2.3451881645530657
42.983937462971184 0.9840370414884977 0.9105400914903251
50.73208602885258 23.33047386725219 4.699240112058901
50.22846216715044 23.579460340478903 2.867102867383723
51.72223301987078 23.900128271619185 0.515146177236836
53.99511950981022 24.561263828973377 0.4144833983770665
74.4475516009867 19.308628050218566 6.732510674604413
72.81746442273905 18.158376511582592 6.164641191328015
70.25944931786015 18.752293728838595 5.928080111663013
69.22058767102132 20.665603638430987 6.628501424539807
45.120547788254775 37.7127048771138 12.308517148530083
44.20236320893602 38.50608317901653 13.764145926643367
46.26521805323569 42.22243858692297 14.805696768487858
80.98141373507524 3.9706449104836024 66.92961319946937
63.025255050282915 1.1677085314324644 16.487917352209337
61.656759384408524 1.4529135787486165 14.511117411416874
63.08505866618319 1.2604863886896869 12.362559728937564
65.40178882865457 1.8955205065778742 11.958907114477789
48.87197067358298 0.44897497246799956 26.184326880351865
33.77070889665844 22.965149248086902 24.279901525639325
33.18628109056828 20.96951812440544 25.313668447660785
35.108334046590585 19.165366404363702 26.42912803933681
37.38218985703424 19.559751680201902 26.485294364527004
67.6056895219818 37.99021932805912 44.82045494379271
66.41116134096178 36.07164452992825 45.68510132431066
34.18763953128762 12.814498927058684 25.973200805069787
32.94578875485349 14.970112527555132 25.191650160665514
34.67014837985798 17.152685782162752 24.862758290274808
37.11969211973108 17.256257238676138 25.31718928300724
42.57388735842081 0.8031789235650546 4.156034789576806
33.46027432262432 9.324133040622089 2.7162913096395274
32.957908329502956 9.951050926266666 0.619427524369119
33.08218901567509 22.809348911504678 21.519719302707692
31.385680592686903 21.494960553675234 20.579540867938633
31.408168789319717 18.68568374915491 21.08201051509993
32.82949867718049 17.645156868423953 22.389286543200335
39.59262706664956 1.0336726133185783 5.151982771008486
38.97090151048836 3.177608808954646 5.130013658715184
33.71460966519275 11.141355164270811 21.672365310063995
33.80019834604413 12.84055285944915 23.106605160867243
34.57931844284274 15.03380591952455 22.524416313323055
35.73682836333293 15.799999755181183 20.233739780265466
37.01406435098733 0.20120838584436934 5.803848115818598
35.922127031738526 2.1739116486072145 4.777029579140745
37.10698911242107 2.758996378816865 2.2783640480181795
38.47059592057531 1.0929132106573158 1.1085549715645424
29.416528958159184 15.45654070038116 15.490445202246464
29.30688369098046 17.651446383624258 16.132135293476974
31.138652815190362 18.11563253754008 18.284278172520743
33.25929882976437 16.735987111630976 18.614116782223167
35.15623260367779 12.016778861375636 18.450979491085842
33.20282423338116 13.447764032097973 17.34303207445594
30.986251089146172 11.879884603940335 17.44160013918789
31.254634945889723 9.308969418437535 18.22813154055739
27.302229861457725 1.9699722406644513 0.5953855396673994
32.179701183435455 3.908989358876717 0.5324493201987128
50.93255296508658 21.266629424907993 6.174388349873116
50.35331369399904 20.75227759708594 4.0925771228510825
49.052722338044035 19.212598626024793 2.6169041544894256
47.31234483537473 17.89233463470065 2.899647325923649
74.34858168772426 0.5938802357455069 36.16418700567723
50.57822417507586 11.281348828199421 27.04986120190243
52.129527453827876 12.29721202267592 25.818820215011993
54.65758332348998 12.67847277193226 26.0988420932859
56.07317068746483 11.885964736558398 27.97577333115058
76.09083088039174 17.71118028046447 28.154773376313017
77.33909377529918 17.950671885650934 26.434078824915353
76.24292921349492 18.46690714772698 24.087820168866124
74.07654295352292 18.299182814974188 23.439279904261
70.27726155300944 21.372046851622425 26.075041533188642
71.42239318776285 19.420600157506858 26.15954214796058
73.25392588055017 18.66177864074482 27.686942378140273
74.2243015388551 19.209896836320574 29.412081759213685
70.90943617272085 23.75693251363808 25.17059579827761
72.84685552031154 23.36121947271007 25.71779251757635
73.52401814552051 20.946411372138307 24.4888895296323
72.23721273173629 20.141138720695366 22.624397655205186
49.09502794369821 21.501826617258708 0.7314205216900349
51.374257600342055 19.820694831411334 1.1680381536102276
35.902798026573876 38.1028078695592 27.44951277225334
36.73447276700503 37.72789176027122 25.524751021034113
38.993723839413065 38.004347726248945 25.208693953921163
41.22101748568078 37.44159371335297 26.62884147663465
65.41995336089597 44.18918676662621 17.408547538733412
64.34377822196342 42.42088752407848 18.387719796754137
64.44162807525831 39.950925490802675 16.86063089709932
65.90360610649041 39.87198988163554 14.803080438870298
36.64298353870889 35.677999665032225 23.581030391288074
39.08807214840682 38.645769676413266 21.894796541019023
40.833799313918185 39.26869131341983 20.322171925902424
54.85929729389634 30.85254244476916 1.9783718495614502
53.22511937261285 30.552633382631754 0.21827660585905287
53.196477181796716 19.28782333570813 31.489793957532783
52.989848499123305 18.139004334827522 29.73182322229194
54.829992713841925 16.91882716680833 28.250943969980735
57.23627260475693 16.77197151049197 28.389419016090248
52.97006097580116 17.414489802072595 33.399241307320985
52.663294780304405 15.74285161864004 31.281752410576846
53.84971891055868 14.203720261260614 30.239237845398396
56.37103567782153 13.227497558914182 30.561236860601834
84.024408586369 6.809614415511536 8.030335357301405
58.81977515140985 15.30753183263962 30.413477511696662
58.97227665472433 13.142379085884492 30.121870556313638
58.88055943887493 12.103819971161727 28.060848924828832
59.74400051298372 12.633971887304341 25.768122097736107
77.22090110407227 24.086392746669702 21.581346630918567
75.64831242763357 22.468542208057496 21.522125342791643
73.61388307532198 22.119657974716016 19.693462519443344
74.94044797364056 21.377396552286733 17.34880608226129
53.96596266547691 14.127078597274618 21.996957436529776
54.00135257231668 15.322601231719256 24.23212427015479
52.11028591563014 16.302353254203354 25.691060313706593
49.95030634671112 16.41011272637703 25.371981148114692
66.98232256796376 16.564508048118682 4.0452704714139855
68.76811845460135 15.856756840904547 3.0390035058475595
70.5256004496293 17.197750948755203 2.5036166178999113
70.01496761970401 20.01789596815228 3.0159910404765964
57.030749895668336 7.845939549450028 30.032241775349924
59.57442077144653 8.840806847509521 30.803820600466782
58.98970583777578 11.099734232504616 32.29139036539382
56.63996920995059 11.841097484770325 33.08892309256338
64.48510045486552 39.72573434295513 11.876128868734389
64.04301279904256 41.63797553442958 13.610292980723152
61.495909359145365 42.05720465328145 13.876361365580745
59.49615822605331 41.43858429973377 12.450178933037579
62.58925718610928 33.776415128635136 14.798153106391156
61.76830755377577 33.772065137722834 17.142986205806796
61.229953440660026 32.06149139137838 18.795237163950713
62.43228365075683 30.021593531053654 19.597194731876787
61.70929207208888 32.59930517144546 21.434266584735216
62.215405649732375 34.83503852050307 21.87180754093682
60.69334373411825 36.58986778512921 20.38030450993496
58.52832462998131 36.6149136429476 19.836049251024594
65.9202284293759 47.51070895444259 16.018777960511894
66.15383606224292 45.39166645651573 15.217179578095326
64.40035599145718 44.22165897013667 14.635655968145022
62.29004823418048 44.643250259569776 13.450285734499767
65.42478646054958 15.099413570950896 7.563681701528353
66.80985207078682 13.424941786624352 5.910070234771877
69.13281477880396 14.671703938070888 5.404736086480122
70.34051277072035 16.29488023313858 6.814204550874761
66.489486770785 10.582409924500674 51.32166563301476
66.14517896499608 13.2849670793909 51.199223280939
67.9650212494208 14.057440931287847 49.18878920910212
70.042165999494 13.097256119150625 48.774090617984974
73.55402185883307 1.145760916696872 33.43374682610997
65.07207391916344 9.573145604533423 44.132613545200016
64.41165235466954 10.836119577233315 45.65707300082829
66.31064240120146 11.278166372413311 47.38445706859937
67.9191205414215 9.37865029576677 48.548498825855035
78.22631884599171 0.30676405044161964 28.26775172252635
64.95907089880816 20.60391942427197 48.51873426030677
66.51457068822188 19.788107230776017 49.535776434709575
68.85860128012618 18.34189409849475 47.58137996373211
67.31594578845126 17.594472651942063 45.74454130768164
68.90467442944541 9.90358764521303 42.20792523797355
68.07434214418988 9.580388352252028 44.2323234146266
69.30466360884516 10.849984204131161 46.548018170609026
71.16429261554954 11.270982230850182 46.88239147564119
44.179008718000375 21.746716229721226 5.269711193267021
44.95033569356768 23.89916056455769 5.443229232550962
47.07447658462179 24.39121771595149 3.6510020487315002
47.42918942807783 23.316210916216157 1.5645460370468545
27.010931119847665 13.904212504869575 14.12770717037479
26.580927178306364 15.047153222911497 16.190320378430027
26.9739411775151 13.372341404407598 18.50305814523698
27.65186741601882 11.553209805960408 18.507415983513177
43.51215589144596 30.691619576474576 42.22426507556952
44.8051707050708 31.68457493527418 41.24920287489271
43.51585862798336 33.61797828043616 41.73354232470052
43.18473650226339 34.7860563301037 44.21568458612781
31.08744276073923 10.225988268673007 22.326008255612617
29.946455595942815 11.247853351789637 20.338120917685167
30.65752787990767 13.638351021262832 19.509925617277556
32.23896653405016 15.465675075846741 20.705791311667255
43.07402626658993 33.574783515570616 14.775578287621705
43.742687406811406 35.89196989521145 13.982998689959087
41.93941735253295 37.57724232275204 14.976978509850355
39.91407793583003 36.62274042378869 16.66167453112712
30.567421167418555 26.181759261221544 20.606664060617916
31.442005995110087 24.514839956526078 22.583918648331757
30.092127485681196 22.37412145808772 22.653578144387097
27.56778658639659 21.88523067710867 21.85485138171504
43.183484187957596 37.60990932841572 19.89387484677574
43.95170404583793 37.80922611866723 17.712498199430083
45.046094062528695 39.54338223252264 16.730161492380535
45.74868265438424 41.536696295449026 17.456078829848675
48.9402139815059 35.8678960673838 12.352304650005808
48.11677135155077 37.696009319110644 13.134213470545012
46.458128417758466 37.868428876207915 15.03294510083158
45.19266326943298 35.94056351980119 16.453561340945157
39.69973004996485 3.6157244304149025 0.7007252839232337
37.75511157044078 5.239647831565335 0.8403719207279545
50.35288917209779 0.538523856171425 28.947554028712087
43.99081986520007 16.887783084798905 44.850327332196585
61.63215383834542 15.220824493370664 52.341836342176464
61.30229652065277 15.457745708900925 50.327687388475475
62.86566846385819 13.925545165529714 48.42841003791832
64.44043702177545 12.14889827037166 49.08989056516145
56.247127217478834 13.134413510734078 20.814384567965412
57.0625702022012 11.87732391061628 22.723346755832026
57.271380655967256 13.290770797174337 24.93306642803128
57.13383279162005 15.878253397514234 25.124558551411145
54.231496520881116 11.593781489645764 20.208341784435166
52.91201692982627 11.556216169621052 21.77724530103788
54.466272346320785 11.649996154471694 23.473210651813428
55.198796648128386 9.916073408287545 24.962445361556654
40.08725971853411 31.856701835203204 39.98722777403239
42.12122458085495 30.800110952847476 40.09072920704434
44.180939182233516 32.596615116880834 38.99435397145256
43.57806839921298 34.59541732064409 37.56412487564605
60.26128749335756 7.8592712896241474 28.25182184537632
58.81308302661322 9.312123035626058 27.6441910390052
57.946715505365155 10.037557193232319 25.4129864731404
58.77061080407419 9.650430404184675 23.16916241178528
52.01087349815607 33.70651773333226 39.7833239341135
49.92038873379065 34.12593208606894 39.49883048260434
48.42629034298347 34.671356195879945 41.769483249922324
48.44660324879832 33.76052249526984 43.667352375775685
49.021202697526356 12.447378242270329 29.053874139822955
50.98311744193674 12.785644451712757 29.248900840509002
52.00750496541168 15.11529631064785 28.10227193567029
51.08062526801856 17.239819999739264 28.011997859077457
48.53306227309609 33.13548225303267 37.41084356849439
46.731425122773324 32.87554896939713 38.91852554704102
46.199036681026534 35.20830115815217 40.12270092741818
46.62941134310408 37.395145526220624 39.277045272717494
50.13449363005812 36.74744758170957 39.04178042430001
50.373651320115975 38.52684133760309 40.457346992573285
51.74285486680557 37.065658451671446 42.59978706995778
53.317777131510134 34.971522504213546 42.00552847154076
47.689171682891754 11.675608655205291 26.461462678356707
49.297081998871995 13.284686374985943 25.51960283159699
50.53486944398626 12.384826659802226 23.347334937000838
49.94960040789756 10.536579958489297 21.762613467348423
30.965444748171738 20.27339742613291 15.394535827980862
31.09618024051199 20.664955093032596 17.291495925344908
29.32486617719145 20.90016475569855 19.017674457982153
27.01159802425815 22.13248797505053 18.90119523373
84.8938002515838 1.7617173351605908 14.344681067399708
82.85882006940952 0.8864680987192222 13.230951330804304
84.13047142379946 10.20321208931247 18.195288889337725
83.66681623527465 8.335599265332524 16.19718133050938
84.45681581055327 8.107638042572068 14.119201067693496
83.41482252761638 6.968652708753024 18.926203524501904
85.05778181899936 6.204433836262601 17.9597760030776
82.58852596983746 5.417293077082867 15.868607110951128
84.14867174378408 4.0257294926887015 14.919882030844184
84.93502473153944 6.1967598409689195 10.890311762588675
70.69005917581016 22.039560173060348 1.0024670523732304
72.37363976468396 23.42339469449095 1.1997204373190418
66.49299773235943 11.757664935766012 43.93624163503436
67.33297296703103 12.955999319709356 45.569505205121665
66.8013533591687 15.1238694240348 47.00543091917827
64.5482931727353 15.888512953742305 47.446929206304894
54.149123769241235 17.25536324501583 1.3025459334208624
54.00776149358292 19.470650881731665 1.842613285045698
53.395470734441716 20.71397633420478 4.209968248476552
53.38112553154788 20.021515413346886 6.622950103271774
25.689799751109792 0.27979685938955895 21.99320564625171
75.65263988902824 16.875437061611134 1.5802667616869843
73.81507044587383 17.75236609787655 3.710336744274548
72.97855087118633 20.333204456305744 2.854772813036012
74.4317349292265 21.723658636001122 1.757799459278968
65.21737531838103 18.872687861247098 10.17935581130071
66.79994596172284 18.073462453126805 8.657037135166773
67.251682945689 18.66748570163294 6.146137869049113
65.34288278778581 20.405403233355734 4.850482645727697
72.26665522365323 13.415490482777697 0.9226907977449824
72.92276561157861 15.609020820545222 1.6196981635793575
72.32163780859699 15.870989034187128 4.3768941158733
71.67313536684632 13.994958348892519 5.724060527263364
76.19801130424963 26.039854528693066 3.048019216801768
74.74473692873987 26.112690746315128 4.672081824355397
73.76586650983425 23.791338259772157 5.523070426689088
74.67871947449605 21.517074371523265 4.918734061807775
60.11955878150302 35.67762251796019 16.93172614198605
61.170601162076544 37.40577029201391 16.668454847713367
62.18892904179514 38.67696398180559 14.359390865015715
61.98485535564439 38.10104374415848 12.102321039467121
26.740115007392813 19.572837563611916 19.65374741392503
28.249796529766467 18.283460856226387 18.647241678684924
28.82639549782343 15.506846116714609 19.482141269886046
27.9711559014613 15.17404334843346 21.739605887998263
81.57107478510987 50.89041569410545 0.5821047384799014
81.50356338381425 45.20104436287705 0.33198578639191517
45.45979016158316 12.893728868973003 45.090356629056956
40.65725749272614 14.77131485800503 43.45391284819479
84.33391201588185 15.38699540372301 37.93026931360025
84.05105981941324 16.956584808609325 36.37524437584183
65.26798893489935 35.944613642474245 36.50747092928315
64.57631040909142 36.40272736439231 38.37960567592032
65.18021573975236 38.036668183660744 40.14360893174916
65.98670830822617 40.22386521654467 40.40795634347414
68.71517076857464 0.24324160039360787 11.617676665935736
66.28973390014514 0.4775845790745634 10.171281318150724
