3.267181414056953 31.520124537449785 11.961979163264902
42.70616702986231 45.60090869479006 57.33779512649435
43.632866127015255 45.00126703991816 55.838770784385055
46.40757971340692 45.42455380392147 54.90722437549616
47.523685015653236 47.15273522480938 54.94162182217183
0.7123905370336691 24.47108540769544 18.789793682271753
2.977268565684432 26.23086637350526 17.944857818045012
4.717781566720471 25.801060217129976 16.34145877461619
1.0024886693596637 39.5474667705156 4.892956991439949
0.655040750065994 40.75443138098389 3.2692302818412715
0.753950088996802 39.682271521072614 0.8057081975327518
1.2108283184832922 37.084979131176844 0.6029873423202474
6.922968261722365 29.223742747982456 20.208978975637084
5.437728075497065 28.032175693045126 18.641175237058054
4.592269352931669 29.485507308603832 16.860385105768138
5.144060178883458 31.552116973121688 15.589107640287397
1.0842380481299456 25.15855297302284 21.172881803021028
2.031476932256613 26.910405372570256 20.34090283888051
4.02142407018959 28.346786498311964 20.985449552973204
5.835583142171953 28.37796084260276 22.574704882845154
65.87876383107657 47.184692193871875 42.47286777462587
65.93085126381644 48.35480091965982 44.53070578995765
22.05020286743942 22.911129775997548 4.938533702211689
20.123178783178435 22.526017250454398 3.5137892580689374
22.068173210944416 64.43882915333742 11.898974399684457
24.090597042214085 65.65462189425294 11.566828751557624
26.52383897357523 64.01825340491094 12.310058630573275
26.044022691674197 61.83188138785081 13.961908282410118
24.135681535934246 68.40000492522636 4.1231811981869475
25.948459467865582 68.92819277053763 2.825490582116757
27.704106677274176 70.91534000463344 3.976152722493046
27.059935358625395 72.90940566921807 5.455508907662205
28.15804153056518 66.28062118864946 2.053467712903757
29.925311778334837 65.27817698022083 3.295662982905339
29.025392904327237 63.99626400339877 11.849719179829581
29.00283062093624 65.31460137953869 9.659359562664415
26.906863435988512 67.06021119417488 9.854039658189102
25.872645452455238 68.04400584102859 11.76432309954379
21.80362441590044 42.14699209226167 23.280143669306092
19.956271726944607 42.748896099980335 22.91545717715757
19.58564343055092 44.95769218234617 21.790319182908192
20.912698198087952 46.163782912002986 20.366816433009493
7.238338134419587 67.67718677019407 12.806137762118915
7.314569985615202 66.0024297857632 12.03825075643323
8.695682949584304 64.2532289801193 11.122292247176528
10.20926133612354 64.24112927031895 9.215992046335868
3.6828358120256484 57.33996277638698 8.649789623508028
4.270914450996255 58.524932281977456 10.21336599616371
6.454611814713244 60.41537829135969 9.757328960217905
8.151072806316598 60.31392221791325 8.309343707986159
3.81875219515788 67.4802587748881 12.603624123816822
2.498316522187755 67.37280234793376 10.620583584520023
0.4747803696829921 66.4163187759945 10.377851129118543
9.268201409193637 60.677798750681205 15.49853531420347
8.828483773965312 61.55413965181198 13.527747477983356
7.423609451665946 63.645126938293465 13.284249288323293
6.950371632462867 65.59527422875863 15.116696075839725
27.062661251082865 16.684125031023097 23.619158373253182
26.49955408868206 18.424800057037437 25.146849056807444
25.748128797604863 20.969804045392618 23.59526162401961
26.496749561311987 21.541189247615154 21.87518620594864
19.354324607637352 22.038400781541743 6.0841417265253845
17.80507258097382 20.296111538247267 7.386646846798902
17.074554857248955 18.390600052125382 5.505802236283453
19.160560150995533 18.175069135375768 5.4586943956818335
20.47477007820296 16.66280677770709 24.073647194164877
22.439722082747217 17.747729898373834 23.89405540814111
23.30182165883605 19.72401761887068 24.173825586064673
24.508690634825456 19.824557362691564 25.935504057639662
0.788105378512146 33.47537465383305 20.269122056814343
2.78379222502831 33.05652412088146 18.703898529940602
3.4827934679119994 33.98389527357909 16.61931012854898
21.38807493280018 27.182710246208583 24.399593746016034
20.61537610391591 27.10997287327418 26.62969794101879
20.160373630588392 24.84716006171482 27.71646411266911
20.77938684133293 22.666017993504827 26.389392102446248
1.937481272663713 24.965557264633734 13.887040784638664
2.3263223257730146 25.187741715415058 11.532644024210596
1.0832748830054797 9.6766109711093 9.188916041470328
16.262922845001523 25.12329362881556 32.256193713395
18.289607005062418 25.343461464967138 31.350269328668663
19.088947810975526 26.623389698016513 29.426325578688104
18.559081883028348 28.196273178381883 28.18571433605898
26.28658587956361 70.01198693656272 9.929292533801297
26.283148804397587 70.24860691772876 7.642733399825247
24.578289077224944 68.26778412240215 6.5730442827281665
22.859893462233092 67.20845933644067 7.352839774502042
9.000512565011215 19.999863337986305 2.9472391121211508
10.623311059427358 21.764332792019818 1.9352814365723512
13.210712064075178 21.056881736078868 2.5539139398267885
14.134132363834985 20.09077127655989 4.3507674302624135
63.86786407756826 24.425527359607806 40.124879445019786
62.678043714706874 25.65329584099672 39.140472888077184
59.81294292188428 25.351484700463022 38.74543130923279
58.60835227175296 23.407579459406506 38.8225641165027
0.23648399675901785 12.231308447950422 10.514150776153052
56.825544200575216 26.012700976607903 61.17598785856293
15.170264366559499 81.38434549665827 1.9766532885101105
16.24968361862578 81.59025891731717 0.2396761215079446
20.652426113953755 83.18908419133136 0.8064970418740305
51.50565956672207 44.292626881915126 26.36920591794757
50.99245510134394 46.06239849405845 27.997197472229114
48.82397185651307 45.771963821689745 29.208037998309624
46.697193934217175 44.8461535641825 28.425587547002667
70.5950446666371 57.9836186401074 28.451401887885872
67.87468845743346 58.62592196839734 28.80358531441729
66.80341982223196 59.043668558272074 26.229503214538205
67.50940163714107 59.294644543848555 24.317565628601546
41.57927082892807 48.78361773099268 14.854477821586977
43.51882698733334 47.605631072180635 13.721253918796227
42.995990403215835 47.19263394279489 11.212942308233643
40.6171333262709 46.448541984872485 10.211465291297253
52.73480069001126 38.19148122150153 35.37872660555721
53.29331762668499 38.96669197625716 33.612582859068596
52.3683012051344 40.70632870854864 32.332073199993154
51.1926908436159 42.95103339096404 32.86755105164686
26.935499457940235 59.07335083573806 29.11026661347661
29.001232045788885 59.75358209886715 27.90956512532256
31.196156270990947 59.12781642885246 29.183891586798612
31.542616811049925 57.424008777799756 30.956791694643226
46.15055290279785 48.81987559113252 35.886259166523445
45.83627796221259 47.183750556726885 37.037203448761524
43.46300824392876 45.968905655694115 37.058584458564184
41.21357007341206 46.90813891400243 36.376101968109595
45.314331010367624 51.84135473602504 3.3401296668956264
47.37464377899796 48.660471177720844 7.392067688016302
3.3315957903130244 34.973384405353336 20.897312660662383
5.0537225566914366 34.498210114611 18.80045217425841
6.645381300831994 32.49432102944977 19.462641238585352
7.148460439728366 31.612877562506224 21.495797601123584
48.33342660702193 46.5901943847605 37.129825082226354
48.850849331816555 44.34329893259157 36.70425242691243
47.2823560833449 43.524840779262675 34.42891137476879
46.83039209734284 45.04845194274637 32.4076829802295
36.453188231169186 23.086344092247916 52.73250482280541
38.0751814308941 21.937582332233653 52.25513379102923
40.332149836240006 23.157208399035028 51.60162108471377
41.37195581294864 25.373106556402654 52.37347687202497
49.54798751531624 44.73522322342924 14.105302130026015
47.75269491718265 46.644428049990964 12.94125345096064
45.351319427845816 45.915013024373025 13.20758886642743
44.313344706003434 43.34405857162299 13.171572631439057
37.468077547312625 45.24224535263941 7.3004218048730065
39.31091386643817 45.612612203863165 7.552694749749266
41.45947748815885 44.86416612402295 6.306297651376606
41.733848276054196 42.877670575678 4.7531033098752475
16.71343887413695 44.00911676798248 43.10062553623492
18.55850389560739 44.53536638750366 43.6285316267372
19.387385884866905 45.96378537517 45.27110380538928
18.290108964112335 48.121729537017586 46.45825619629795
16.964074017479998 46.76728519830931 22.516795722901453
16.96862033517957 44.57617311965423 21.338586005297913
17.441703218593293 44.663410416744426 18.95345433367329
17.18460478966809 46.32611362975154 17.346260615816007
13.926037999530683 42.90612739829364 17.419479478611738
14.027696600561123 41.93638212415005 19.607199238751637
16.1876956428854 40.42820658001383 20.126925767553708
17.954287441311294 39.802411584053665 17.87843879662369
23.207208716686917 44.25365343742374 35.83821976128553
23.115559624096946 44.16617008479304 38.110867075885615
23.84461812986142 42.935292491064594 39.75749708432869
25.73265899296096 41.01298574234114 39.985441766805735
20.101580310288846 46.652767600002754 14.3849856022303
21.06813980633283 44.45218514058922 14.733181753731392
19.470209903032252 42.7158201308443 16.237145636348956
16.604607550201344 43.43708518433175 16.37930086219718
14.100598199397233 44.04051593717589 45.567455064035954
15.144923505348258 42.529424837794885 44.4129539689977
17.691656673765795 42.195338102047174 44.81714445663641
18.81145718464355 41.81403778440314 46.62720221399188
32.59747962251439 61.070878344529454 39.99543900497121
32.17017447504926 59.32506287001572 38.26353891295617
30.966696407795315 60.80425493729362 35.86549751324281
31.824162617043598 63.07837726589073 35.22049037757808
12.018470501045988 40.51637185209351 23.834571636565222
13.101920115905482 41.75187571182756 22.121018660072078
15.676694626153381 42.4196688107273 22.075884509523068
17.25280010715295 42.07298708125672 23.78023945544643
47.33549759172986 64.38198981627407 11.281514395763647
49.58810958238893 64.74211560192272 11.892197150411876
49.90881297875421 67.38440944846072 12.97113619532376
48.20558913886165 68.96120288399786 12.996746799969394
55.63212183122725 69.57393818448908 19.920769275133644
54.30206053345536 68.15937362443225 19.225499030071003
53.77681532635247 65.78140660126247 20.464806748503474
55.10387466923386 63.99714032790553 21.262628835233674
52.47998365469171 76.70045876311782 5.566444924168933
54.12333261571995 76.51026027507692 3.51970383359155
52.1835427675873 76.30017678373896 1.4623942814756903
49.77817723142829 76.19467886594613 1.7150506750968606
48.475323656563965 69.94057237192567 18.297136524417397
48.37898281301158 69.01570366435897 16.660483835554984
47.30400698526431 66.80960503474112 15.508215632492897
46.40588081570048 65.00676791028835 16.709652978274352
41.88870176308787 84.4731021067202 66.87137475477073
40.10772665835354 82.88448024877692 67.1191242839914
38.65343786681552 84.23027663559002 67.48576157859762
28.9132264996123 70.99004168160367 1.0611905798530417
28.896295207182096 68.81112058190442 0.5730579306978046
52.14267482401501 71.5461073748817 20.489157229475165
52.10294590789245 69.6426380041645 19.319755500015997
50.885330730855465 69.11066961248126 17.601655920200017
51.53058975054161 68.58174276839611 15.51243578835674
44.96033043180767 47.80615295018687 28.675534581678562
44.88039642689062 46.54303079282273 30.5065006374961
44.541581108171485 47.34873125684376 32.72791148614822
43.72358139270594 49.334883565937574 33.4942732844242
30.898947450208546 68.11801826114083 8.75505699919664
28.38019035307248 68.53506566987112 8.330793818000654
27.455898411465697 68.16343442691546 6.157982599713265
28.495019198439092 68.14900165215072 4.060127807191271
5.442732318068241 40.67777747246568 7.626328895351164
4.406125026394945 38.97484288280604 6.1778222356993995
3.540395465842033 40.44172538578137 4.140648872541319
3.2345010165073567 43.06406890873171 4.1226486885601075
30.532443034744396 63.30550344786754 5.1016788537386235
30.998367152695387 63.678310103508615 7.3705662541111305
31.95668634529787 65.86334460692517 7.685645378910468
33.71583654336118 67.22880003004595 6.596412295999702
23.056167575363514 65.11086529186144 5.557701550528186
24.24701205387444 63.6432717256666 4.48509537838288
25.971499798724295 64.73269727710972 2.8709065246653567
25.353779706794224 66.65638499780079 1.3989921614796261
32.146064019554856 62.72480384785577 27.125848512275322
33.04783368115162 60.74905174082555 28.237785229876707
32.95408783759691 60.52745631910568 31.05222465539662
32.823740937784635 62.322107743270514 32.61958367292642
31.35178949001107 69.1586983479426 0.9208568454174897
32.093142619259716 70.8030680735133 2.132267627213056
32.12594997524701 54.62450070327679 35.63366431005395
31.366101844620562 55.6289560372086 33.62997753421722
31.67965351148739 58.401440325131574 33.57503497030928
33.12165803510147 59.96624832497895 34.59992775783654
34.75658298807707 58.544034753589244 26.168798194386955
33.862334014194374 56.913611465744616 27.70573446205615
34.34717498670762 56.79992839710527 30.480321104102416
35.04037672307031 58.65127908786256 31.749851005690285
33.80641502847842 64.19913094870925 1.3051042168201934
32.289821906520906 65.29374908617245 1.108315416270643
31.788885857070802 67.26978275034729 2.745251540484717
33.51464617916187 68.53338385741972 4.192314490908715
46.99122702120756 51.093286057306855 13.380836839609607
45.44853947204548 49.441093844870785 13.448670214594026
42.86420084084187 50.55252655487341 13.15492650815802
42.08236737827663 52.58232008907386 13.8530797440417
36.95799266454903 23.237055025096193 44.84172380742873
35.64011899048948 24.390193644951157 46.657538621872305
37.111744139023024 24.026452303138218 48.969430651212406
38.46340836657644 22.060791855598477 49.53290613938596
43.89191179301351 20.37297339610193 45.0471211310261
43.15436833590937 21.75121597905974 43.51340507237506
41.16641839770872 23.492584949059633 44.20522818410538
39.80392968639374 23.448146381169387 45.83716616722975
42.34110699743751 26.824371993762863 44.19308336660725
43.34418440826499 25.251244191416657 44.09437198871139
42.98016834916533 24.48744260037567 41.82158625635726
43.71000897912309 25.37713438135517 39.821419094476354
22.97936995159831 41.832761799335 47.66495411822382
21.552525283530073 42.40078137480232 46.04982981654585
21.678665596893573 44.59091915160597 44.43182156087919
23.39178109307255 46.5068645171371 44.796651817395606
38.874700405544125 24.60781074484886 38.50842744328252
38.83206174870766 22.725352226118734 39.93863168394501
40.72872946711556 21.830565156404695 41.263215104264994
43.05533380978144 21.396771374273737 40.90162412281078
0.38904242723648685 62.13114817174257 77.40158731315402
24.185191821088956 21.025664460848198 33.23035160115001
22.806004755296833 21.44989324003063 34.63198878648696
20.891051472827115 22.984051860010613 34.65874703249584
20.448506078020934 24.782053947763078 32.894324683563724
42.223850955228166 21.863787529433413 52.24801014019594
43.344963774292445 20.41331282434995 50.40775127994414
43.7437985609981 21.62048561909922 48.218892325126546
43.05105865946862 24.072441516635156 47.716341441001454
51.219448242919206 70.12762166088073 50.301516156889164
51.25672577616375 68.39700403252895 48.85774994893246
53.730971813568644 68.00204858546799 47.680331401926054
55.69257302540463 69.15791387569173 48.02485482614352
40.00216771303183 27.95971103738462 18.41588204171846
24.990012433944088 18.80785374705777 19.136774540903666
25.146675633501356 20.873459197888995 19.554862782678654
23.980789626604512 21.73288582321823 21.255072405955563
21.659293843336943 21.180649946119456 22.134824891500234
38.41371740474851 84.08791551105344 9.753363278981174
19.805503293161138 17.969026113805146 32.40757470596873
21.157254239240793 19.856236024960648 33.14470071128349
22.3984256148575 20.97128923144762 31.145127158256535
24.010614010831077 20.04556530354491 30.405615735146093
23.90778161966538 15.882631608139887 29.261562365465497
25.084183241867233 17.02773210126082 27.426727144975573
24.370122555485775 15.868665742534507 24.65394136310775
22.479706799395498 14.508509838733097 24.33901821243626
31.533005856067202 84.29974182266737 13.454162816403924
31.117879376764872 82.10269019653038 12.237493122802789
20.292738218322874 15.832870390278966 20.957886597282208
21.896642700887913 17.34409458098289 21.190649371405822
24.360136225870427 17.34805543138073 21.334126046162297
26.265103100784174 15.65550141874056 21.15982723909197
32.42854146283122 83.41037254148273 15.808518498814188
34.408860912726475 82.3384789168 16.00534740098066
36.969063733398926 83.39975309336269 14.567566558396496
28.73126941755298 82.69009949264714 12.547654115415497
28.61129191644775 83.63364935903445 14.750716401181155
29.886146317443973 82.28106885111613 16.497210866104584
31.141705603438663 80.0691761953568 16.204334531194014
25.99475681405681 21.025675595747337 27.936655375596693
24.882395155158544 22.27502790118483 26.81790266210149
22.988777026158136 24.115741774561297 27.906609570284413
22.59792854016409 24.68699685083786 29.861826167111037
55.92038107781208 76.28853230483801 1.4859470124847616
5.4347563755590285 39.865460474973176 0.27253914852596833
3.75165118526405 40.31986939640441 1.7044609442798841
2.0595873184665185 42.375894214949916 0.8279236663458642
11.345778986090925 75.48096039426038 66.50822361508928
10.725337402058832 74.00605842777024 67.78468784904015
12.506848698397484 73.49277987057994 69.75144632471738
14.486622774594537 74.63279368891038 70.08257597108258
70.372586306722 54.63999360340582 24.10136358376832
68.24218392330386 56.2166870309405 24.056038259405288
67.75691266965954 57.536280550110845 22.011393545455466
59.42953770359284 66.34217912095716 39.17181228542096
56.945805184436715 65.2683574959908 38.540313176308814
55.295887522259065 67.19706345385458 39.45353589671346
55.49150406888385 69.5516260830745 39.25912044443421
52.284879196375634 36.9374629998799 27.877325145211532
50.98500484447061 38.70194890803603 28.64396822345778
50.49711483504624 38.99079036896536 31.48386109222848
50.797721142396774 37.68152560002938 33.19983920711232
67.38716851504869 49.955326844390584 26.542394486289762
67.48855285957391 51.92941499342204 25.50867559571216
66.42602344931538 54.34404561606923 26.121486330314973
65.28959084825715 54.93477133668951 28.27734559582976
44.934538052656094 43.49116020879675 30.23461155343335
45.796293988355345 42.36772626450717 32.39255441161304
48.47767456682644 41.97838106844927 32.4499545514658
49.751911397379125 41.71775949072853 30.82502142052672
51.54857202887596 73.02395576166457 49.438008595638635
52.77306742379311 71.86963321799597 47.97694735784511
52.79908629955302 72.73454355561947 45.26867141248899
52.062223661218155 74.47301653361103 44.428154495000584
65.40569426404086 61.170774008117746 25.62297896912386
63.28095673709353 60.6234067624764 25.301089377996913
64.3416152752112 58.6689369436852 24.14825151187295
65.26871167298191 58.37623073845406 21.86324187745583
42.03480645287459 44.543403691846876 31.986602520583215
42.57591522694014 45.53985569275777 34.083614548371195
44.43393165927793 44.18736200457222 35.23292790490105
44.78484360835381 41.75502749054838 34.90762925294839
49.20265676426578 44.61281330916947 54.08755486344065
49.03910751534594 42.310884204196846 54.34134708756041
48.1002457774534 41.343757705834875 56.53594374801505
48.4234419294874 41.74477484593936 58.52846292055909
52.971550982213586 39.06730448622733 26.20354148531569
52.38733513011477 41.2639168194981 26.195171353640337
50.36228462916698 41.76530788287341 26.756179082596482
48.33573874599693 41.734143155953035 25.6831236651983
49.074034664667316 35.82745690716446 34.12199730533569
47.3972881080553 37.274029923798516 33.00146637633106
47.37971355938184 40.05072256667839 33.99746333627225
48.59328047733143 40.83209940649699 35.834509978335234
46.69230487128397 39.367803876964466 58.19317355708716
44.996391699548134 39.03133775326297 56.85080619921402
43.45031635513332 41.022390628686594 56.13798796908141
42.572125417178036 42.92865626154959 57.358766251641526
50.68379777726618 47.7313660267144 31.75790622604039
49.811442228667865 48.297743982914625 29.38317128252001
47.01555487916516 49.09759663860993 30.472704957798822
46.66778631954154 49.77916306512973 32.79970470769364
44.64422383276851 36.78500974329514 53.81845017481385
43.716466156500445 38.601278134183254 54.13059593082913
44.371112480942124 41.1017430319542 53.77307962833203
46.48039396534887 41.97901608209439 53.26566546558344
41.32848975822841 38.12293997761468 55.181334729063764
40.70079289720282 39.95571706054807 56.251164235363596
40.75051328484805 42.502889065030075 54.876291510126904
40.99799732802737 42.786235950484105 52.74038332159577
66.82839535933816 31.840639150359255 43.56081554615755
65.42478590443956 30.142338572982638 44.86288798728806
62.715088041916154 30.512606737864758 44.31603165129918
61.5843516561651 32.25645088554886 44.006496604111135
70.40496291664982 78.94493904642057 8.140907133479852
69.9653315356106 79.7396822554546 10.040525787125983
68.1875431621328 78.90044841965842 11.707257763383645
66.12365795880527 77.49309605881629 11.149474305523942
66.0813593901946 71.33410956167099 17.728969270401155
66.47882499196582 73.58474397650099 17.507506786555336
69.09931930368079 74.10168334045197 16.403783987219292
70.05886882122113 73.14775148766992 14.621882016546298
53.683448841005124 64.75426776222325 18.02332083962595
52.60201084466105 66.56837653703204 17.63643018744885
49.9494030819759 66.36039154497915 15.754591483026152
49.388250303829686 64.78881540731146 14.742774071732276
5.417196326808028 36.31147121045632 0.29671703244598946
4.115330484258206 37.72128050017603 1.6928601442364923
3.033033443078366 37.52510683005314 3.884215061337507
3.159835012351412 35.381432448714854 5.503259887582143
67.68451093570627 80.6662703368804 16.85322963256301
68.64583934541089 78.99501843413275 17.444118471145366
68.66619381488876 76.67715428795572 16.196612026537554
68.04719070620739 75.97479551019845 14.14998114371234
52.421773744876944 65.24022332479706 22.62410304717553
50.6082305179577 65.27629515579207 21.430454457476817
48.95909886990855 67.27506717508126 20.478205593654256
49.737243130614566 69.71515255873456 20.542602986232925
46.69866437879317 73.39086909596205 47.442617208807185
48.26004096804926 73.22941642997574 46.11889396875647
49.2404770637739 74.45105357840683 44.10820468597738
48.768965078883916 75.84106458235502 42.699968918146126
44.91883853997148 66.09119231057797 11.711550875568074
46.205687615545436 65.6272651383302 13.34501803818188
46.373450168922304 63.21178585639311 14.903933814374005
44.57573268411736 61.58066756104035 15.05429893715098
45.581043869827646 61.671314875726374 11.172059471563484
45.624565239188115 60.3872377011446 12.964179095166955
48.17199285375633 61.04231320429616 14.18720528165545
50.35487299035338 61.929618296884115 12.97910116236999
44.62512060905807 45.56914277842917 39.46399806067392
46.781034060782936 44.782790525182776 38.95800211755775
47.16391628684769 42.402362154723924 37.42738804417848
45.52188521559725 40.576818131393445 37.2474437294349
51.084967691273064 60.614041653150416 17.408731470176132
49.76676201232727 62.276842255156964 18.165747226332186
47.5442349959225 63.06898033798101 18.080593876153007
45.1889302760141 61.57818392574937 18.065506481931852
60.25206593865055 64.12264109081106 43.18720182955588
58.074755254152755 63.85974992188958 43.89209554624761
56.17486922923699 63.52433003221703 41.58246304038597
56.88854397603528 62.64717857646805 39.54125654458839
58.154971815468485 68.16869820046998 48.83316195404523
57.24672138569611 67.23862643045362 47.320174012766955
58.36942894202716 66.73784210318813 44.8381128430847
60.78373892726754 66.6298363005862 44.44469311990147
53.82353928651204 62.392093957922526 23.955521361764077
51.473435577247834 62.424610670244064 23.481703122261525
50.92122387864577 62.660976410126786 20.650204823455045
52.69467671701928 62.39957154681153 18.89986383730179
1.113208998679426 10.906053093740361 4.782714775384543
0.174062138061456 10.321636369709411 6.470788210674432
5.773642240055372 48.21541858164649 80.44599107170161
7.774738566153054 47.07104645493146 81.39606725721276
7.924821665527227 47.14191525955754 83.87351778526455
53.68831553259118 20.926523417465706 65.61914725007833
65.92793411543185 34.44518332412948 36.89033788408574
67.56850038695802 33.325621215341585 37.80676177987173
67.03263593659544 31.97959025962471 40.388639807107985
65.12695935178165 32.63749560089588 41.64438561456857
44.19688060520753 48.26981895508458 50.3905668530804
44.95489688394596 47.53079919586055 52.71792016143303
43.99264143099392 45.56515937218599 53.29431763078185
43.8595684360533 43.27177854006822 52.32257386577598
57.318167844753496 25.09058754205213 58.625320146580215
65.29900736820596 30.70035984275959 37.057380347102416
63.671111409350594 32.85009159338596 37.15506900068582
62.0027438576789 33.34270695678343 35.022014416417505
30.969980144243713 26.546676254393354 51.700383332887206
32.001248077292544 26.2067621063533 49.347694407963985
34.660482363487034 25.491939373916686 49.50190770075857
36.03023336832247 25.560342733564486 51.53954182272361
63.61398921314727 26.048533285806062 42.256165003287165
63.4402082574585 28.402757885476127 42.89772028358713
61.52672602777174 29.68164897672648 41.45351902963581
59.73096158447019 28.869011504584616 40.19594499961272
23.433896774680203 27.07509095260999 25.914583704401547
24.189218297802054 26.571968355804277 28.156010339455854
22.876919107871906 27.809443405696236 30.313465519263616
20.978415314046707 29.471076448184068 30.13939304629137
57.55928951287167 84.62826807757013 30.215899782250563
56.9321735396792 82.36715262762937 31.2228932516877
41.490676447751284 27.49086142926339 41.156912615303575
40.01868395646752 28.028582253070724 43.07204561880412
38.87349534769263 26.06126474500957 44.040788148308216
36.79988276343087 25.58251251923866 43.22931734893802
57.81136197479139 83.73775912444802 24.43558173993383
30.54076017032085 23.974407518347576 51.007031202795645
31.62186774827903 23.23992653628997 49.624668390510514
34.08832513550083 22.098086735524564 49.92475026429551
35.03896096081555 20.71923278373113 51.84854427770106
63.24363089614686 82.84244573240606 29.67299577585527
61.27679456353565 81.75263168053598 29.246398737693617
59.29966646411409 83.35083283409222 28.746074471787637
46.11003475233534 20.326838355272468 47.862566340006204
46.674279570415244 19.965075745719876 45.27035290286626
45.785157982741204 22.595745401194748 44.21519771645708
45.31293581983442 24.37104778851192 45.969513893892696
73.74585592285801 77.84079075848152 9.76057806648306
71.52847530664545 78.42731783321436 11.68050119848612
70.16369739814431 76.86835684538735 12.842260815702437
62.56360972095509 50.183168795441816 47.97167720737242
2.997129945748706 59.5900378680469 30.197406947518218
1.7771536743866314 59.10119179554482 32.22423351560934
1.4350021425479698 54.83429937225963 35.170834021851874
3.0244391443711005 56.41714731729999 36.062701560647774
2.616794727014338 58.66701906748161 35.10547215416196
5.525879581584122 59.406778568228475 30.611516420731533
6.565951458626972 57.85639539507595 31.309135600642882
6.224583237264493 56.95280740281287 33.86561253943652
5.394727405229927 58.35685943811644 35.85524320461152
0.25236680422681496 63.97968771479875 13.403316503242243
0.5731291285509037 63.52663220946849 11.168397992948867
1.0949891384943444 61.32231802361835 9.770693670108148
1.6715193818097205 59.211005541350204 10.230578027644071
47.072707596507826 73.71805577168188 50.179718140104995
48.84564731154533 73.0988839778136 49.18346680685582
49.57894312232805 70.83124977966854 48.21862315413884
48.18496495965894 68.48578834762297 48.02020971331318
25.90769966825106 46.21216330555394 44.7613820800238
24.948414852583138 44.76185079106905 43.48749161063778
24.06873197086905 45.24748773698005 41.388759517266855
24.90440465250845 46.06443808855546 39.20474700912275
0.8209686280415062 56.749497109921805 6.786783871550138
2.4695904966027276 57.953228603140374 6.269005278641737
3.474553130505955 59.62870781938706 7.286317841706881
2.686179533337709 62.10639777594492 7.5885784986496745
52.08821631403957 67.38898503258036 35.73166302267156
52.398200694357975 69.95686003576942 35.96848462492692
53.07571757013217 70.70574652029065 38.42443012297688
52.64079936305269 69.4703844462149 40.50333852492019
21.32009291650313 80.50055584213125 20.68290472224497
20.315210810443773 78.52458069488752 21.63126078340568
18.16722317694878 78.4393487777211 23.110422970421492
17.357364864275496 79.97405422915786 24.40537809214067
5.634343706486891 61.83642694713164 7.11915693415178
7.178577897912919 63.14992219620388 8.929813446294428
5.574248657946349 64.12033790778852 10.767985548619443
3.3380987160911006 64.75629890592754 10.85816967766935
11.124390979472697 84.45132504505888 35.7868718833617
10.561084163212618 84.37339466650656 33.10605893872565
12.890009760650118 83.84651149764238 31.912427187212263
14.922427070882176 84.74434798360922 31.83228779911478
17.661880739287056 85.03493850181778 28.446352002659495
18.279988786169934 83.30019689444123 26.680544673821814
20.212484561414055 83.29217032526599 24.925193947814492
15.157586454404692 85.01354898171226 27.358322768991894
9.455731505565664 83.82336971033033 19.590749069930016
10.896910762799516 82.96325413914897 21.06458225650653
11.054255608018533 81.16812737277971 22.69393324452537
10.01139812495498 78.91473390880056 22.994361688911372
8.787791523712963 55.40876053658924 30.91673157896557
7.533105045718444 55.073355430711295 32.37285477174814
7.35140149828996 53.448730878364785 34.48646626643714
8.815000150768924 51.77474387775134 35.29002419150839
38.51587690288222 83.06906890599893 65.05796667780635
39.30203177097958 81.36033589609421 63.8764420306546
41.25241120935725 81.1796453101309 61.88044151144081
13.893354871317161 17.15762966022096 4.870484183470159
15.578251405806403 17.49053052043691 3.7549018349839987
17.86117597928274 16.049684821380374 3.8767337859530575
18.306876566878742 13.865233227779642 4.544773730119478
58.62844565541285 68.19091964018102 42.55649944928853
56.84694802219762 68.7705005767959 42.14341033304323
55.183995706230775 69.22849544423126 43.656736078789976
55.15586943986618 70.60017444221648 45.87027963678075
9.586937542016038 57.50355647443523 15.672447964137747
9.720866163618476 58.39196541819591 13.488430216898617
7.532080524629247 59.236300868063644 11.961939422767205
5.287811727365358 59.09761203216348 12.586205113879204
3.452827327614785 30.819743730898196 43.071599051047286
2.592616990995448 32.267055450892606 44.31149952582198
0.4444815294177141 30.5970538032714 44.11625509186596
53.10698911401924 27.311680000076123 36.16485293735021
53.36665608964189 28.40008199152765 38.196829359008134
55.69767153006093 29.870929805369425 38.96123009087156
57.405352571519906 30.793427249653845 37.65448548608725
3.530039437758177 31.752201719225326 53.731337804740164
4.8926602221648885 32.02344739035417 52.01500742336259
4.281372180152136 29.6394285693752 50.23890657973386
2.8660688412115043 27.79853348092238 51.78624346370008
3.0853972648122014 34.37893354464733 46.24086535632322
1.1278167545946027 33.03359249970593 47.043141255603416
1.2396953384079055 32.4569365616593 49.74170344469558
2.351784471198494 33.197655400339826 51.391397136735904
7.447441000243096 32.42085368288601 50.22870320658584
5.8082739859152595 31.658576596717293 49.525777616875196
4.675415608823942 32.42752541324622 46.95973274238446
5.866264846368345 33.30029240793211 45.23271767039516
8.605261892621687 83.18356639697129 29.515371110600793
9.988642935514019 83.59891409645569 30.59808990220011
11.821353504668714 84.8930223754443 29.552221361003454
1.3641667997986457 28.09760253655664 16.985220409461853
2.2862021140397704 29.943111493032898 17.92305197125621
45.456012109276976 40.45361411250463 72.06012494625014
43.36507173974024 33.507858713239244 74.3997314195234
43.51054094125634 34.99278152234597 76.27039014416933
43.44015841586709 37.4398066721954 75.54660835355737
42.53747877613365 38.528341497974694 73.68667365228325
28.277313932553813 59.927359975095435 53.23089095029604
29.839433724154535 60.47732258234048 55.08090997845155
32.365435017965616 59.78057646205416 54.53360552949389
33.18095877089129 58.6940765650778 53.00362877016366
20.159803662612976 48.76076810830898 24.732482632889653
19.781740541757543 46.76796054942892 24.126008102054
20.078274445346764 44.82256164243892 25.227819686587935
18.003669441113892 43.380260083084025 26.196106658014642
27.25323507420166 54.17040383701095 76.88596382888758
28.908912910287224 55.424819775632336 77.19370519533095
30.717991412217206 55.162423640794216 79.39566184897362
30.327422241690698 54.50096860137118 81.38170062027044
29.426487663347586 59.03044435776422 36.86222279599581
29.54335987014874 57.332420741821124 35.821718290884554
28.950544946257704 57.24088709308084 33.369311352079784
26.69916033829 58.40460022913898 32.21169313968853
28.612706262757946 66.20031658219686 52.70459961687055
30.606783266766165 64.76866527912979 52.05241653334044
30.9114440863964 62.229602706227475 51.34067125316252
29.423058310066697 60.622165873437474 50.717129586648646
35.97568278302153 60.134409496313154 58.56269491807822
37.06499332908983 61.254410963389276 56.76572583293148
36.31658045237665 60.80244022988757 54.27710804835953
35.7010001010115 58.677937355283 53.15914549428448
25.624111415432132 61.151321861310386 32.68395709753422
27.116202098867134 61.21398679708019 31.19992389718491
29.719344113602006 62.52598577044553 31.901360517500954
30.326114393448908 64.2281859268904 33.19582511787609
9.096501254155946 48.471982685510284 33.39528005929528
7.216102278448082 49.96882425425783 33.602975760818936
6.072763121444289 49.92563279257354 36.07939510162631
6.247303560990048 48.47146232373426 37.87491796153925
28.453035279931594 65.17576967387228 55.511664347847656
27.870292845163544 62.68584425104966 56.08251350730438
29.206904435033568 61.50869340350138 58.0475185916983
30.214981472530443 62.69873277659176 60.05790440047797
23.06758373832418 31.811246246163634 61.950258655326664
23.916875786920496 29.54735699240806 61.217408411147794
21.81899088624402 28.1945312330668 60.03316649049266
19.65632674833659 28.768681860288904 59.692526990864536
30.767503314374533 64.7706409323188 26.367751082116694
30.364097443190367 64.30171764504011 28.17859300235201
29.02110141024241 62.523830629024744 29.040510349061563
26.59450414939125 62.07087837994829 28.682396887708737
16.922816743337627 70.66321378286764 40.826447383771495
15.49563465832113 68.88486194762447 40.39364614706742
15.739072951031583 66.7638372617841 38.88634617007424
17.9286278305173 66.32959696843339 37.17165594675627
10.53788344741355 47.3599115174455 65.84701424236334
10.1137896346894 48.554392356705854 63.94123896226052
7.9962124457130885 50.075439002344446 64.09363750284851
5.987378648078571 49.731430140727994 65.68048228479505
7.989517932966859 51.62374307488163 37.817679941780845
6.061887602814186 52.63931181225366 37.009522946925074
4.804482377572026 54.55237550082254 37.068740106466066
4.907052090545218 56.69106402569043 38.05401551710581
3.8540864061606386 58.43492376299948 27.858887508087278
4.350287671514572 57.14315142105297 29.640342106192552
6.0395769059916615 54.88029163556134 30.025251075024148
7.876433779217006 54.4099275257209 28.62102048496712
19.14112111392272 52.54250819395451 62.349354378620916
17.35550617283006 51.58347192009479 61.44068643994332
15.040979370902004 50.95461461076206 62.77020001697178
14.840716156173068 52.16753050054772 65.32596456942255
5.454446192165791 52.29432933289046 31.46056036371746
4.790544519800312 52.85635473602244 33.64358266238629
4.070659445031937 55.172490657053025 33.909629550004375
3.110336823702342 56.55081524290762 32.32517649704426
14.096673825418918 54.88520665708065 63.6640800037179
12.85836420512234 53.62036944774515 62.79967763685184
11.448876421905819 52.15044209881284 63.65698544731439
9.574849966041896 52.32755980644673 65.4288008660714
4.973863200498257 51.66520618034085 61.19781771345067
6.030778562977424 49.7926064991848 62.119966384492685
4.727358747108067 47.2938659664429 61.600508926309764
2.465874370577384 47.19888065566436 60.86165628415756
12.087373293651455 57.31734972669317 10.705509555727616
9.806358280956204 57.86499714138787 10.078459198397782
9.368816802207208 60.684109107629126 10.782911315424958
10.687693326179616 62.211436274433446 11.090117731341506
24.63529307813795 39.54678946499452 46.7684846696765
25.89806386743385 41.72947297043997 46.2476955526314
25.16707334652139 42.09027072701804 43.57464954860911
24.217369153403915 40.45328382522074 42.04907238971821
34.41570652951988 83.18326535997589 45.12965638207639
35.411370222379574 83.38195408026783 43.21832286990161
35.41929924721115 81.16484330086166 41.66852005180921
35.642113237572445 78.91461891701829 42.090302142268776
27.080385170094218 63.407043413212506 9.548517037077191
25.140485449245954 64.86502062773313 8.955968382270397
25.742108225433725 65.84736811750498 6.343697994821546
27.42278393170547 65.29372251346653 5.021902317613553
35.14644994244817 80.64469142877668 18.80347651502793
36.11960667382673 82.48474208915998 18.3010820725962
38.0549174796997 82.03247217505343 16.615492069646535
39.10446576930336 80.21222337093636 16.03923025408781
38.21726983299821 78.92940651337322 37.04387796794081
38.84880945972305 80.69667340227812 37.901119214309176
39.419380424976076 80.7067907737538 40.77127429091568
38.465894523870354 78.50787371158137 42.028372463638114
13.855611441661303 78.55731455022321 45.96818344219079
12.95476514160782 76.55320652335325 45.096389532570534
14.586143299865416 74.80928785388662 43.78640215382255
16.242728968728446 75.04809711143444 42.40924206057773
35.28547476665601 80.31295216103535 9.756120487553803
35.402657215972724 81.810226583867 10.869330600572816
34.93645737772142 84.52879261139906 10.990369578144852
10.08742593676772 81.99231774569654 35.167607254195296
10.735881168989103 81.59799720476762 33.37350032577589
9.72716200544797 80.98388452862095 31.116411609626905
7.276171412342785 80.3532733890437 30.85537547295004
32.6099368925973 84.28393988095536 43.297002881150384
33.84157684977782 60.0917916903048 60.554716574550916
32.376079918957075 60.86361843071739 59.21995827748603
33.59948063346911 60.163308207648 57.565617241210425
33.56642549526459 57.98111861171202 56.250511120597345
40.57397090623653 82.50277933520942 15.52333583021616
39.78437017005651 83.9684584903871 13.57556441298371
37.80846853118282 82.67332629540212 12.117553895444065
37.51105835505908 79.91691875330687 12.305487396380823
12.822745018125117 71.10017802824439 47.12306539356628
12.983396925038829 73.29437934496622 46.622186800629635
14.074241664586358 75.5339556680935 47.822501234225506
15.315353331696206 75.57275017383888 49.76889746561063
30.474360931781288 61.52270382648642 22.276205242577536
29.951607511693993 61.806207817227346 24.583137466954767
30.87361123644866 60.24771109990138 26.284587030634672
31.468217976067535 57.983791559900524 26.48474482744353
12.94331217771619 84.86635276592953 24.571173461771142
13.401802565647127 82.65089352050926 20.349164747464375
13.79129288711311 81.62751440288449 22.09722130773049
15.985029910214214 82.04542323990944 23.78280902575861
17.656844466957036 84.04421445944152 23.400473704502534
42.96016547562385 82.9267338767946 64.24311580770716
43.1484040454824 80.57519204586893 64.0369002389972
41.872944125567386 79.7731436294189 65.8933125254892
42.24987020778617 79.72132388330603 68.11956396863619
16.61173490708533 77.8622454227769 25.858152541757118
14.064066516326367 77.04684914173447 26.145824237998486
12.684107048127485 78.17558567124213 23.83096680780222
13.445190755190312 79.00802012259783 22.242339747329165
18.75533482689576 71.61148951070375 42.68584875537004
17.508836438152713 73.02627567844905 44.03482583216535
15.685324172434939 72.21030312691248 45.87769893686034
15.245022035151276 69.81975931919777 46.72027968884586
16.75795948593895 65.68952912524198 40.8957625912141
16.948980463726073 67.53822870435766 42.123586637611304
15.216438644330019 68.77216921130766 43.22789452430457
14.020170894668498 68.33709967932958 44.97642640346577
8.786414278581988 80.13596893811217 28.66865443291194
8.738234739951368 81.6796273856741 27.131470286025035
10.418058455985939 82.66134196455232 25.387233338082428
12.840886802384185 82.2240698370412 25.171579533630034
30.1543901503115 67.5616107847849 34.73824071306497
28.90396210673397 68.57904534737614 32.970648143738856
29.102975526266892 66.72630387826852 30.731066282268742
30.993282961155202 65.06909783855096 30.764332544907827
17.26068433578032 31.100219671037802 67.44156972225147
15.799819967371967 32.83608632170816 67.85734532690519
18.626098758052418 20.72761261666312 33.48780360529723
18.52827662820472 22.76475578258177 32.62671212765147
19.960320729995427 23.465790038038516 30.71870685528295
20.7320512931541 22.056261017173476 29.273438989618644
30.831091254943775 40.776322145748075 38.80131180807088
28.915188550502414 42.057563741825206 38.596907421006904
27.715648025734136 42.53804356360436 40.83309827066606
27.90879920250353 41.611778773438644 43.04547308470973
1.0573474480983138 49.51787103742808 55.93608763491696
2.2021923436595006 48.893671353506825 58.27240460956157
3.861528943316674 50.69579499355885 58.840399136748694
3.0228801819472473 52.88165915423391 59.011863087811044
17.211239427143873 35.08484555454775 67.78372199853267
19.242615122936865 35.66602402507435 67.1130149676378
21.293214392926888 35.97931939524728 68.81647608756496
21.32556473401804 36.026520554360275 71.14996666917719
1.0903103912169754 53.10131510985405 40.23098753477122
2.377117059093571 54.12809393611752 38.77967382213681
2.6174245517246013 52.79264994361732 36.14733347419004
3.422877300214711 50.65342917662046 35.80925508877576
0.4395209678291612 26.516334126251728 44.97462876446966
2.405539531088092 28.33000134642972 44.150287359275275
3.375582606398423 28.18947298681401 42.215543560966935
21.257443260017233 32.93856288118542 63.2784832426839
20.54430083307459 30.789488034668434 63.67273100730851
19.782617214678673 30.141708031796988 66.3420421406921
20.467107863323744 31.754142009525754 68.0983707755392
29.19260420096712 84.5732497465145 44.83352999179968
30.57711946077793 82.54169949320578 44.303045330960046
32.27550272647309 81.23082911130354 45.86163302858165
19.34348252950659 39.6625736520754 44.36071052416387
21.26815068014822 40.39550391793475 43.87506890621368
22.124890062797544 42.341592157407156 42.113547095258845
20.966077937065858 43.086123659190676 40.20668454192134
17.78359510474895 38.830306762108066 47.171414646934636
19.400786414280613 39.68417043092383 48.3313653472699
21.95545199762943 39.35203127480357 47.59407601449325
22.36262619978761 38.443765884757376 45.31468382508375
2.284966404143513 25.848839703023675 47.2510523281081
2.042723640125977 26.781651965664217 48.99948803076546
1.726160603686535 29.694706347290545 48.91572463798711
2.167484479441544 30.81305211023836 46.61408747978105
0.1812447248816241 29.150533136207493 51.71019296003905
1.2828566936908121 31.00120522031718 52.3818300294568
39.757876258338854 83.5497445233116 18.225812383319283
38.19031998852666 84.980794664966 18.201405881099713
19.795399833659555 49.52745400286084 42.620364533585104
20.961457523036948 47.584667535075596 43.81315448762487
20.883171056845846 45.457491817477056 41.80902775409364
21.295945194015125 45.73287227760307 39.40824213753938
55.72985338427153 72.07686115825287 40.93137769614996
54.24282109366956 71.51186735450014 42.30140628963873
51.78750082693655 72.41423459095583 42.78977309338916
50.22196837524269 73.47219230554384 41.46828211933991
48.94086729783937 71.4735670065736 43.38504539681285
48.66026167261207 70.54848173717563 45.350321005426224
50.98124766672009 69.58083155823319 46.49483237358381
52.79017374538896 68.70939683577618 45.568259018977564
31.342053529849547 78.95575313470131 45.026682766292424
32.91264950583506 78.44237130636837 44.025039759174874
32.78160759172708 78.56221406641455 41.40399146128448
31.636231660175806 77.38362711684933 39.92929613925301
55.934570607394086 62.67736769467844 36.8383176090425
55.30065598234248 64.56034320632794 36.22242050155456
53.73056301410091 66.06994647920902 37.3667184632595
51.951983962458755 65.68025629164947 38.986151330737925
15.091396732954754 51.93615198316533 58.46400409487244
12.998743438540723 51.717200083685775 57.98624713158154
11.012489257242652 50.505711453594735 58.92834078623812
10.764019665793311 48.728764790102225 60.67798749982723
26.43182364737788 51.303148883337634 76.18177227047347
28.397957939227773 51.72435050589421 77.43314157294182
30.45180644550493 52.40708231025923 76.1555771372169
30.81989043858884 51.605909276572135 73.58045579750807
32.70000826376254 63.052236678238664 60.73125503810079
32.848953726096276 64.49601595945745 59.31603687052961
33.71630130985628 62.808705793458074 57.83363079766579
35.15868468602081 63.09337974391176 56.568415669566704
31.634012313986272 59.64674687689452 46.91437499257131
31.67910814850172 60.30301519311016 48.993610327972554
33.6450701737544 59.98369550411595 50.45955972654891
35.86223752466695 58.20696161410296 49.75049979879503
25.641929381339448 53.20067497819588 74.62281348592055
27.555333293575394 52.363535540911215 73.16035027492518
29.665587802451977 53.76745726731744 73.49133092812798
29.6774515774342 56.325241984024466 74.54052489597258
30.722433471912545 65.75472432203709 54.565437210541326
31.68898974091466 64.45382840808792 56.40221179097815
33.3155772265151 62.34257253352675 54.9319884318666
34.01070553413342 62.35722862537773 52.65755991917306
32.366781303680554 54.54080759810752 73.05721902330012
31.53362527551401 56.351871713312995 71.8425467772915
33.27055633666917 58.54680954222618 72.27162008385945
35.77029872044906 58.340745817628175 72.91211808108893
30.419176664417208 48.27362320455087 78.8333544280281
30.70605866919388 50.587015403122805 79.33175675040485
32.738532037995334 51.631755717192675 81.28711897640413
31.48582782285724 51.79936060965503 82.6961438568885
31.647521876006277 67.113213064997 49.462605810545874
32.73103435751379 65.54948412083185 49.82315324947438
32.2071672256978 63.12130242906081 49.198088478126095
30.333183240826102 62.38885213793309 47.69044166312561
50.3345152923671 39.70350184313823 57.52082674701129
49.99380010558848 39.43161823710976 54.83769037806187
47.96404355655407 37.877123922614146 54.33851071444163
46.47512543199961 36.76849758262847 56.32607111928284
46.767701613589296 66.65852271816588 22.326299647551913
46.55485389525735 65.14802969051838 20.716858280007813
47.34349446579623 62.53391736408426 20.762629409988115
48.67199535597249 61.71551513234884 22.871793071360095
60.403150428567876 83.99869910061622 34.73065952058741
59.00947083810456 84.63745052826573 32.66642606802939
63.18870292543287 82.98127900847172 34.30538446697869
62.036802931536094 83.1020736351294 32.53264377229185
59.91739496648616 81.99396420044829 31.58214971834402
58.81097646369737 79.96347147844907 32.09437947755004
34.239222230756326 84.90872818781254 33.07284021962063
35.65184155856128 84.86117970514849 34.58440050373627
35.74566664814732 84.7252458371347 37.29547509536641
33.94168372810528 83.90879238319707 38.77032245894827
42.2537575827987 84.64217691779405 40.99453825580724
41.606546554986004 83.45259785864424 42.908405909583934
39.304461560950145 83.00537293390647 42.586338994661176
37.45599069680734 84.41472684515846 41.80538178367122
41.354590433060906 76.18405428919914 69.49091289090848
43.04767350211048 76.78943163373137 67.97381721676909
41.89896546171363 77.17297100507916 65.32583368963124
40.16394818469685 76.17758920174516 64.3208368745603
40.91633955317208 84.7372815963319 34.1996829806221
38.76534358214253 85.03895543026192 34.679747198681376
