7.61 33.149 14.812
86.286 18.077 30.885
85.969 16.044 31.787
83.209 14.906 31.757
81.259 15.855 30.953
15.811 25.953 11.89
15.669 27.785 13.469
12.87 28.578 14.073
11.118 27.407 13.143
26.33 20.632 27.845
27.705 21.277 29.186
30.282 22.205 28.247
30.976 22.075 25.978
10.236 26.376 10.82
10.243 28.405 10.364
9.212 30.374 11.459
7.376 30.711 13.037
2.051 16.651 26.538
-0.071 15.942 27.605
0.043 14.138 29.536
1.651 12.559 30.163
15.754 5.772 18.742
18.26 5.964 17.755
18.853 3.649 16.41
17.466 1.468 16.407
15.567 33.889 9.987
14.022 34.389 11.476
14.557 35.825 13.549
16.769 37.149 13.77
12.781 23.092 75.432
14.506 25.461 75.398
14.489 26.556 73.041
12.621 26.776 71.402
84.744 10.932 29.32
82.595 11.472 30.593
83.273 12.689 32.971
84.926 12.242 34.409
13.645 4.291 17.035
13.507 4.76 15.013
13.813 7.277 13.771
13.908 9.274 14.882
27.766 24.718 -0.205
27.403 22.824 0.938
27.181 20.586 -0.531
26.054 20.084 -2.597
14.984 5.392 8.995
16.342 6.977 9.961
15.828 9.3 10.713
14.166 10.869 10.411
31.324 68.5 1.724
30.818 69.836 0.016
29.942 68.989 -2.032
30.831 66.711 -3.399
29.261 23.935 82.374
29.514 22.618 80.134
31.897 21.388 80.005
33.704 21.518 80.86
22.252 87.864 14.792
20.626 86.611 15.687
18.53 85.734 13.9
18.508 85.647 11.952
28.572 17.642 6.843
29.622 18.28 5.087
28.76 19.634 3.371
26.76 21.582 3.446
36.146 20.086 82.074
34.315 20.46 83.473
32.562 18.295 83.403
32.81 15.999 83.42
25.256 4.357 19.281
23.56 2.789 18.075
21.261 4.186 17.142
20.912 6.324 16.965
2.964 16.676 77.622
3.822 15.39 79.549
6.309 13.907 79.51
7.611 15.091 80.388
13.037 28.431 36.639
11.507 29.616 36.574
9.0 29.511 36.727
7.71 27.418 36.851
62.877 82.823 52.64
62.029 83.755 49.916
64.437 83.272 48.288
66.285 81.989 49.077
13.027 39.441 34.619
12.591 37.228 33.186
13.014 35.228 34.332
14.694 34.536 36.189
13.576 0.938 35.254
15.641 -0.022 35.185
17.845 0.997 35.943
18.31 3.401 36.562
72.03 60.326 37.903
71.548 59.087 39.723
71.655 59.438 42.375
71.413 61.26 43.78
23.64 17.853 54.635
24.406 16.2 53.699
24.729 13.663 54.853
23.57 12.635 56.49
10.205 24.923 43.597
11.34 25.124 41.278
9.556 26.406 39.364
7.224 26.978 39.697
0.632 19.976 54.258
0.44 17.942 54.884
-0.532 18.514 57.003
1.146 19.309 59.383
8.076 85.606 44.633
9.748 86.24 43.696
11.752 85.202 42.749
12.808 83.032 43.114
13.171 34.606 41.524
13.42 34.251 39.007
11.428 33.225 37.944
9.116 34.055 37.931
14.174 37.657 18.699
14.639 36.289 16.471
12.383 35.641 15.456
10.071 36.451 16.068
-0.96 16.245 61.929
-0.011 17.019 59.764
-1.754 16.232 57.748
-3.416 14.617 58.509
15.65 79.735 37.45
17.168 81.499 38.035
17.851 83.528 36.303
17.215 83.45 33.662
30.218 18.707 37.112
28.206 18.186 37.187
26.429 19.358 35.565
27.041 22.062 34.511
7.448 5.316 45.014
8.712 3.517 44.365
10.338 3.817 42.589
9.777 5.102 40.279
14.532 5.607 44.32
13.265 3.543 44.553
11.396 2.804 46.156
9.598 4.374 46.816
31.003 16.294 29.579
32.282 17.897 29.853
33.097 19.66 28.674
33.187 20.166 26.024
10.696 80.476 37.34
12.977 80.607 37.039
14.532 81.439 39.27
13.923 81.23 41.5
26.228 18.559 25.762
28.497 18.371 26.901
28.662 17.239 29.354
26.552 16.192 30.414
33.92 19.63 36.476
33.076 19.67 34.125
33.93 18.444 32.148
34.405 16.168 31.692
2.049 77.012 21.871
2.903 75.096 22.394
1.691 72.869 23.657
-0.566 72.633 24.062
3.917 18.165 27.645
4.052 16.934 29.179
3.764 17.784 31.484
4.465 20.257 32.409
27.655 34.786 50.415
29.075 36.428 49.836
28.104 38.863 50.449
25.439 39.719 50.479
70.745 78.757 68.928
72.317 80.189 69.64
71.875 81.587 71.997
70.67 81.067 73.75
14.733 26.455 67.006
15.743 27.799 65.04
15.586 30.406 65.45
14.36 31.414 66.867
0.477 9.876 3.271
1.852 11.305 2.352
3.785 11.058 0.544
4.132 8.954 -0.707
16.102 38.522 70.2
16.43 37.376 72.066
18.032 35.442 72.161
18.934 34.485 70.049
28.872 14.502 5.028
28.053 13.895 3.343
29.187 14.04 0.944
31.736 15.104 0.637
17.791 29.564 68.088
17.316 30.996 69.521
16.832 33.485 68.574
17.599 34.444 66.656
35.134 16.669 80.053
36.03 18.732 79.497
34.797 20.438 78.445
32.334 20.26 77.399
11.096 88.107 64.52
12.711 87.181 66.359
14.645 88.633 66.583
15.894 90.156 64.967
20.142 32.838 76.942
18.579 32.31 75.944
17.95 31.642 73.478
19.069 31.916 71.612
18.041 32.058 37.441
16.459 30.459 38.357
14.016 30.465 37.745
12.702 31.767 35.835
85.534 8.226 85.407
87.008 7.651 83.534
86.909 9.803 81.992
84.939 11.148 81.749
84.491 67.412 83.538
82.324 67.308 84.447
81.903 65.339 86.574
83.543 63.697 87.15
13.569 81.579 67.401
13.844 83.799 68.157
15.08 85.85 67.114
16.501 85.957 65.125
18.04 3.932 66.472
17.799 4.769 68.682
16.459 6.924 69.303
16.728 8.828 68.762
12.039 9.734 71.098
13.851 8.299 70.72
14.635 6.173 71.818
13.937 4.781 73.488
27.452 22.096 56.582
25.796 20.777 57.301
26.152 18.356 56.303
26.681 17.619 54.272
19.087 86.769 72.814
17.042 85.144 72.281
16.26 85.719 69.401
17.656 86.881 67.841
23.569 5.582 61.326
23.019 7.332 60.125
24.674 8.936 58.577
27.485 8.275 58.117
31.922 9.42 56.86
29.484 9.497 56.662
29.076 11.567 55.052
31.229 12.925 53.95
13.656 0.309 70.445
14.719 1.713 71.651
15.243 4.053 70.475
13.368 4.953 68.284
3.728 15.071 54.309
1.127 15.478 54.188
-0.275 14.447 56.141
0.244 12.875 57.911
20.273 55.221 21.156
18.189 54.553 20.228
15.89 55.11 20.536
14.657 56.825 21.537
78.604 31.649 11.294
77.79 29.757 10.459
75.137 29.261 11.221
73.61 30.77 12.195
8.445 75.893 26.725
9.211 74.188 25.465
8.987 71.399 26.731
7.478 71.292 28.974
84.23 41.055 21.504
85.453 42.354 22.158
87.999 42.739 21.958
89.82 41.515 20.598
24.403 51.596 13.788
22.357 53.351 13.371
21.402 53.848 15.663
22.296 54.063 17.844
34.019 46.574 31.244
33.564 45.03 29.346
32.394 42.536 30.516
31.894 42.192 32.363
10.847 60.498 10.659
12.562 60.025 11.765
12.28 58.701 14.201
10.715 58.969 15.844
5.013 49.651 24.831
4.398 47.653 24.081
4.134 45.312 25.787
4.673 45.393 28.302
16.042 29.671 11.098
15.687 31.626 11.279
13.625 32.41 13.007
11.578 31.354 13.058
13.429 51.631 17.399
14.664 53.165 18.751
14.792 55.619 18.144
13.322 56.905 16.703
13.004 55.563 75.672
12.918 58.038 75.414
12.374 59.028 73.185
11.272 58.232 71.391
2.975 44.21 19.204
4.124 45.032 21.364
2.386 46.044 23.224
0.259 46.445 23.041
83.971 48.665 29.691
85.884 49.654 28.793
88.06 48.092 28.733
87.886 46.035 30.117
32.742 43.75 2.222
31.934 45.536 4.028
30.501 47.427 2.83
30.304 48.204 0.792
17.992 31.86 18.291
15.773 32.347 17.4
15.855 33.909 15.172
18.035 34.864 14.308
19.261 29.508 18.795
19.274 28.527 16.789
17.252 28.713 15.299
15.036 29.449 15.92
22.008 45.716 2.221
23.159 45.218 0.668
22.86 46.747 -1.686
21.526 47.81 -2.443
23.416 32.242 19.346
21.642 31.001 19.013
20.185 31.398 16.497
21.246 32.548 14.534
31.211 52.651 86.472
31.512 50.549 85.114
29.239 49.751 83.691
27.221 51.341 83.105
32.759 38.93 25.393
34.064 40.697 25.126
34.456 42.309 26.699
35.359 42.207 29.168
17.851 32.989 10.267
17.64 32.65 12.658
18.604 30.917 14.146
19.807 29.022 14.054
82.39 38.976 2.071
81.4 39.561 0.012
81.796 41.695 -0.875
83.19 43.558 0.817
22.409 61.979 43.137
22.486 59.774 43.42
23.176 57.968 45.646
21.576 59.278 47.821
76.628 27.222 36.503
74.944 29.101 36.269
72.852 28.607 37.897
72.792 26.801 39.834
26.984 54.139 47.335
24.942 54.966 47.126
23.963 55.667 44.628
24.855 55.971 42.589
8.393 40.421 50.472
7.039 41.931 51.327
4.898 41.409 53.117
4.852 39.295 54.491
21.83 53.387 37.715
22.594 54.331 39.231
24.934 54.499 40.525
26.806 53.734 40.14
30.068 36.377 54.754
29.995 36.453 52.605
30.68 38.714 51.18
31.517 40.576 51.84
55.129 76.503 32.059
55.214 75.75 30.336
57.492 74.375 29.721
59.816 74.728 30.472
82.553 50.128 54.921
81.452 48.755 53.167
83.479 46.783 51.947
85.79 46.859 52.522
10.762 25.648 47.741
11.135 28.009 46.816
12.561 27.907 44.573
13.364 26.045 43.443
16.692 57.662 49.629
18.723 58.155 48.101
17.975 57.605 45.706
15.606 57.722 44.644
14.04 60.98 16.53
12.669 59.564 18.257
14.962 58.148 19.389
16.907 58.823 19.619
0.541 47.001 55.717
2.054 45.364 54.906
2.673 43.244 56.481
2.82 43.14 58.988
15.089 29.225 43.876
13.635 29.808 41.943
14.056 31.81 40.228
15.921 32.904 39.639
16.301 12.375 9.95
18.501 13.592 11.239
18.436 12.177 13.694
16.525 11.703 14.775
7.92 31.336 34.878
10.114 31.992 35.097
10.927 34.445 35.483
10.384 36.348 34.361
15.556 27.21 42.382
15.476 28.415 40.464
13.688 27.512 39.064
13.035 24.838 39.043
34.283 43.908 20.402
33.769 43.494 22.436
32.345 42.144 23.905
31.174 39.637 23.107
8.458 29.57 43.028
10.336 28.495 43.42
11.596 28.073 41.157
11.383 28.914 39.344
35.537 43.938 32.539
34.472 42.203 33.796
35.564 40.167 32.727
37.899 39.913 31.711
29.632 44.442 27.953
30.763 42.571 28.384
30.562 40.16 27.022
29.307 39.835 25.063
5.141 29.222 46.134
5.915 28.589 43.838
8.1 26.711 44.147
8.731 25.587 45.63
7.565 43.343 25.79
5.833 43.976 24.352
3.84 42.347 24.372
3.877 40.156 25.507
17.675 65.564 68.098
19.274 64.109 67.501
19.422 61.963 69.228
18.75 62.021 71.477
74.081 30.21 80.818
73.596 30.616 78.6
73.68 29.155 76.619
75.725 28.731 76.641
19.157 59.775 61.211
18.319 59.694 63.621
15.927 61.204 63.524
15.247 62.374 61.939
1.835 39.749 85.423
1.058 41.681 85.388
-0.671 42.411 83.307
-0.464 41.901 81.09
10.57 62.865 71.334
12.255 63.644 70.033
14.465 62.341 69.662
15.022 59.842 69.587
28.142 45.895 2.877
26.696 45.665 1.32
25.62 47.049 -0.098
25.602 49.755 0.046
13.42 64.861 67.513
13.978 62.66 66.94
16.281 61.966 66.177
18.192 63.634 65.303
8.905 48.96 82.777
6.286 48.192 82.766
4.827 47.618 80.899
5.2 47.882 78.217
16.657 37.512 74.753
18.203 35.273 75.086
16.268 33.335 74.52
13.892 33.964 74.101
12.114 64.174 73.129
14.148 64.682 73.954
16.198 64.716 72.247
15.605 64.866 69.607
32.776 66.766 24.348
32.011 68.522 23.199
33.865 70.168 21.694
36.149 69.292 21.318
84.862 48.754 83.692
85.861 48.138 81.78
87.643 49.399 80.549
88.135 52.179 81.108
17.639 26.914 67.809
16.049 27.885 69.088
15.891 28.602 71.457
17.398 28.788 73.469
29.194 42.154 60.005
30.061 43.658 59.01
30.268 43.936 56.607
31.22 42.333 55.031
11.191 38.099 69.042
12.852 36.768 69.874
13.689 36.009 72.109
12.93 37.438 74.651
15.461 37.225 63.592
17.902 37.163 64.96
16.932 36.892 67.693
14.661 37.373 68.155
27.293 36.495 53.1
26.274 38.837 52.906
27.51 40.225 54.923
29.336 38.765 56.618
16.423 30.466 61.943
14.119 30.952 63.332
14.782 33.158 64.819
15.937 34.748 64.542
35.167 41.782 48.919
35.312 43.771 49.726
33.841 44.666 51.84
33.342 43.844 53.8
28.471 40.383 48.402
30.171 39.592 48.754
32.509 41.053 49.153
32.684 43.762 48.604
12.444 37.665 64.172
13.565 35.805 64.626
13.63 34.932 67.045
11.77 34.588 68.567
0.535 43.422 60.627
0.914 41.395 59.791
-0.141 38.977 60.075
-2.282 38.497 61.404
20.798 5.737 14.061
19.63 7.137 14.586
16.947 6.192 14.972
15.781 4.708 13.834
70.615 59.446 20.875
69.258 59.452 18.98
69.632 57.776 17.214
71.421 55.654 17.74
13.298 85.91 8.843
14.534 85.772 10.384
16.454 87.388 10.71
17.315 89.006 9.363
2.187 79.184 25.833
2.221 77.375 24.719
3.387 75.595 25.551
5.895 74.854 25.685
31.343 81.815 21.228
30.967 79.5 21.206
29.987 78.022 23.164
29.538 79.129 25.486
50.305 82.671 11.703
48.971 82.86 13.265
46.62 83.588 13.419
44.757 83.126 12.188
11.347 1.456 13.705
12.224 1.193 11.818
12.887 3.392 10.153
12.775 5.659 10.798
2.318 66.528 21.262
4.196 68.215 22.129
6.025 68.101 23.372
7.392 65.712 24.249
16.304 58.33 9.356
15.724 57.089 10.801
15.218 56.942 13.347
15.074 58.849 14.925
33.704 68.454 29.052
32.773 68.07 26.783
30.73 69.776 25.793
29.977 71.619 27.692
33.513 18.756 59.007
32.608 17.626 57.421
30.243 18.738 56.495
29.972 20.928 55.472
85.153 80.513 27.811
85.609 78.407 28.162
85.355 76.562 26.372
83.745 77.23 24.253
14.464 60.014 6.988
13.725 59.978 8.913
13.184 57.577 9.89
12.828 55.42 8.243
29.304 77.348 3.298
29.878 75.701 0.954
29.141 76.188 -1.3
31.135 77.566 -2.585
20.643 56.266 18.782
18.278 56.992 18.55
17.128 55.752 16.526
18.482 55.206 14.138
16.333 55.675 8.421
17.046 54.631 10.38
19.419 53.454 11.04
21.504 53.418 9.765
23.73 70.234 -0.03
24.184 71.628 -1.926
25.394 74.161 -1.704
25.264 75.637 0.524
19.999 51.967 13.272
19.056 52.694 15.195
16.723 53.04 15.898
14.56 52.144 15.036
26.029 74.45 80.069
27.65 73.713 79.017
28.014 71.296 78.14
26.097 69.587 78.214
31.05 65.314 78.622
28.574 66.035 78.207
28.057 68.056 79.366
29.266 69.858 80.136
82.973 49.977 75.247
84.687 51.577 76.417
86.236 50.204 78.169
86.527 48.094 78.438
84.639 72.721 4.52
85.784 71.674 2.877
84.44 69.651 1.35
82.452 68.549 1.819
17.141 6.499 40.768
17.408 5.19 38.783
18.13 2.979 39.122
20.1 2.495 38.851
65.847 59.13 47.514
65.83 57.29 46.471
66.729 55.03 46.909
67.086 53.849 48.71
21.027 4.254 36.878
22.161 2.617 36.977
21.809 0.334 36.167
19.728 -0.136 34.294
3.766 74.007 57.37
3.822 72.559 55.815
1.207 71.737 54.686
-0.747 71.839 55.509
14.283 86.063 45.018
14.683 85.419 42.725
15.805 87.709 41.288
16.681 89.749 42.643
22.633 76.804 54.922
24.561 76.244 54.665
25.52 74.307 52.661
24.445 73.45 50.764
12.976 7.428 42.751
12.729 5.501 42.137
13.738 4.01 40.398
14.912 4.716 38.312
3.226 66.679 48.454
3.38 68.236 50.071
4.846 69.96 51.049
7.241 69.624 51.856
18.601 53.29 45.786
18.712 55.104 45.711
20.934 56.741 46.587
22.517 56.533 48.653
19.682 84.114 37.966
18.288 85.471 38.889
16.367 85.211 40.139
15.668 83.337 41.614
21.075 9.447 15.686
19.204 9.724 14.629
16.894 8.993 15.722
16.268 8.492 18.236
5.279 73.067 51.246
3.517 74.049 51.991
0.785 73.788 51.257
0.184 71.733 49.793
19.712 62.219 42.771
18.627 60.574 44.063
17.147 58.724 42.536
15.55 59.181 41.445
29.965 73.4 31.975
31.398 72.641 30.65
31.484 70.099 30.337
32.926 68.731 31.683
21.185 60.609 41.126
20.633 58.719 40.489
22.788 56.896 40.291
25.158 57.558 40.034
20.645 53.145 40.524
18.97 54.228 41.143
18.736 56.593 42.28
20.465 58.107 43.109
11.629 56.953 11.893
12.645 56.175 13.294
14.669 54.293 12.594
14.771 52.756 10.579
13.836 57.089 41.269
15.265 55.585 40.45
16.33 53.486 41.622
16.47 53.139 43.827
26.862 73.482 19.448
27.836 73.898 21.735
30.473 75.448 21.416
31.245 76.741 19.915
33.945 69.298 17.301
32.718 71.555 17.277
33.236 73.256 19.507
35.616 72.115 21.122
15.346 55.949 37.435
16.212 57.85 39.14
18.776 57.419 39.618
20.616 56.272 38.585
9.24 12.984 12.639
11.485 13.162 13.176
12.877 10.918 12.92
11.906 8.495 12.452
10.134 7.766 61.549
11.579 6.117 61.934
13.117 6.512 63.716
15.39 7.828 64.13
74.99 52.115 75.776
73.139 52.005 74.469
72.943 53.03 72.275
74.4 52.921 70.119
16.64 4.934 77.181
16.487 4.422 75.251
15.882 1.944 74.29
16.007 -0.292 75.704
3.271 77.029 79.161
2.878 76.996 81.585
2.664 78.809 83.093
2.924 80.964 83.1
16.608 8.234 71.482
16.586 6.657 73.402
17.424 4.467 72.657
19.287 3.89 70.975
28.497 66.404 82.411
27.457 67.863 84.014
26.262 69.713 83.398
24.826 69.973 81.117
10.148 9.418 69.116
11.779 8.435 68.48
12.374 6.771 66.515
11.085 5.609 65.137
83.538 76.58 0.403
85.137 76.191 -0.363
87.485 75.178 0.936
87.653 74.248 2.776
17.487 54.352 69.719
15.757 55.849 68.622
14.113 56.591 70.535
13.746 55.266 72.905
12.552 10.941 64.377
13.16 9.412 65.831
14.289 10.103 68.335
15.246 11.983 69.215
10.465 86.494 40.772
11.408 88.135 39.49
13.535 87.326 37.684
14.843 85.235 37.952
1.342 67.741 0.425
2.852 68.521 -1.073
4.563 70.913 -0.273
3.935 72.279 1.403
12.528 29.489 73.528
13.119 29.292 71.297
14.531 31.223 69.641
14.045 33.253 69.489
27.937 69.726 56.219
29.686 70.617 55.989
30.001 73.189 55.624
28.764 74.947 54.207
16.196 60.467 58.498
14.639 60.157 59.77
14.74 59.033 62.061
17.195 57.615 62.657
81.359 65.674 48.791
81.512 67.491 49.849
80.43 67.808 52.012
78.234 67.29 53.125
33.282 74.508 52.846
33.056 73.867 55.087
31.451 75.691 56.205
31.048 78.102 55.666
15.327 57.165 73.979
16.41 57.729 72.271
16.397 60.453 71.664
15.975 62.149 73.296
23.921 77.094 57.274
26.199 76.071 58.298
28.187 76.466 56.629
27.738 77.952 54.007
27.542 74.12 59.791
28.276 72.0 59.763
30.849 72.136 58.361
32.232 74.359 58.314
12.738 59.612 77.729
14.405 61.276 76.874
13.389 62.14 74.354
10.99 61.317 73.721
83.691 66.701 53.068
85.733 68.184 52.723
86.129 69.352 50.21
85.345 68.871 48.134
53.382 9.595 31.479
54.174 11.811 32.245
56.88 11.932 31.569
58.159 9.712 31.208
14.144 83.281 12.223
16.033 84.619 12.464
16.169 87.048 13.818
14.892 87.518 15.679
46.951 32.18 13.568
46.936 30.234 13.674
45.563 28.555 15.114
46.005 28.429 17.314
34.191 4.537 43.802
36.53 5.135 43.723
37.887 3.619 45.884
36.892 2.803 47.657
61.435 14.111 27.735
61.029 13.227 29.775
60.48 14.927 31.737
60.852 17.464 31.764
39.027 31.707 14.866
38.407 29.604 15.916
39.688 27.762 16.062
42.02 27.388 16.23
36.989 29.166 11.818
37.769 28.468 13.573
37.691 26.275 14.841
35.907 24.294 14.647
21.824 19.063 31.292
23.717 17.2 31.695
26.052 18.547 31.715
26.383 20.797 31.645
32.078 63.003 30.947
32.208 65.749 31.428
31.441 66.53 28.97
31.925 65.43 26.819
48.32 24.527 11.326
47.051 25.4 12.794
44.764 24.664 13.96
43.97 22.93 14.848
41.008 22.145 72.184
40.016 23.991 71.463
38.431 23.906 69.869
35.82 24.129 70.333
26.092 16.432 33.651
27.776 17.499 33.845
30.605 17.265 33.907
31.696 15.411 32.095
61.444 11.041 31.407
59.759 12.009 32.158
58.658 13.132 34.18
59.915 14.045 36.111
57.0 11.676 7.099
54.956 11.324 6.008
53.55 13.384 5.357
54.551 15.991 6.105
27.175 73.054 32.07
28.402 71.01 32.503
28.435 69.688 30.463
26.854 69.996 28.308
51.445 -0.61 14.623
50.351 1.101 15.367
48.116 1.994 14.389
47.074 1.672 12.315
76.555 82.073 73.533
74.543 82.236 73.045
72.546 83.09 75.067
72.991 82.781 77.319
36.095 6.786 10.089
37.919 7.122 11.202
40.222 6.857 10.504
41.421 6.433 8.876
59.491 18.956 1.527
60.737 18.018 3.09
63.289 17.864 3.094
64.704 19.29 1.819
53.882 15.273 0.44
55.182 14.294 2.292
57.24 15.521 2.986
57.823 17.434 3.437
42.569 7.43 18.11
41.823 7.225 16.074
42.305 4.843 15.106
42.722 2.726 17.024
28.243 11.518 80.721
27.416 13.794 81.593
29.542 15.456 81.9
31.7 15.041 81.338
48.221 32.914 48.962
47.017 31.408 47.375
44.548 32.369 46.244
43.516 34.708 46.655
32.827 21.929 32.611
32.328 21.551 30.512
30.213 19.658 30.026
28.601 19.187 31.255
46.688 29.232 36.059
46.409 28.335 37.894
47.294 25.761 38.729
48.043 24.159 37.324
34.417 10.91 55.597
32.882 11.904 56.807
32.22 14.505 56.252
33.388 16.078 55.342
40.897 28.826 51.324
40.881 30.49 49.4
43.109 30.505 47.837
44.73 28.822 47.527
57.016 9.451 62.305
56.595 11.754 62.292
57.406 13.33 60.173
57.924 12.77 58.042
46.503 23.351 39.689
45.338 23.769 41.271
46.44 25.285 43.156
48.893 25.227 43.731
32.981 15.753 59.043
31.186 14.039 59.017
29.299 15.224 58.123
28.597 17.603 58.29
46.675 83.002 44.502
44.411 82.898 44.939
43.618 84.85 47.13
45.142 85.721 48.748
51.439 29.149 43.422
49.813 30.494 42.247
48.227 32.212 43.895
48.9 33.098 46.048
44.096 22.208 17.922
45.566 23.736 17.185
44.673 26.044 17.233
43.326 27.128 18.918
22.278 11.733 54.119
22.541 9.158 54.488
25.186 8.814 55.768
26.916 10.318 55.809
48.389 -0.208 43.764
46.604 0.755 43.828
45.385 1.829 41.934
46.281 3.135 40.072
56.555 20.03 25.677
56.344 19.475 27.586
57.798 17.696 28.718
59.266 15.941 27.611
60.318 70.005 24.989
60.715 70.712 26.718
59.991 72.697 27.774
60.791 75.15 27.73
40.754 83.415 36.091
39.955 85.4 37.693
40.961 84.87 40.086
41.207 82.974 41.191
60.781 16.095 34.548
59.084 16.691 35.426
57.73 18.771 35.44
58.294 20.83 36.088
45.347 81.412 35.312
43.59 82.383 36.914
44.686 84.197 38.852
46.701 85.745 38.723
83.946 16.471 0.427
84.678 15.384 -1.416
85.53 12.611 -1.167
85.077 11.001 0.485
54.9 17.425 29.854
56.176 15.663 29.616
57.778 14.774 31.461
58.173 15.449 33.422
32.431 77.208 22.439
32.526 77.176 24.712
32.108 74.698 25.648
32.576 72.627 24.279
37.894 12.857 29.564
38.011 14.972 30.821
36.533 16.987 29.639
35.697 16.91 27.284
44.85 30.733 70.993
43.867 28.972 71.483
44.084 27.622 74.145
45.538 27.763 75.681
80.983 73.271 85.046
83.104 73.836 85.343
84.825 72.034 85.012
84.8 70.266 83.659
43.636 33.775 71.767
45.07 32.941 73.069
44.998 31.765 75.241
43.007 31.876 76.948
50.804 85.099 18.409
51.644 83.406 16.985
49.85 81.974 15.614
47.492 81.993 15.709
37.341 27.184 66.307
37.473 25.977 68.001
38.682 26.65 70.283
39.108 29.071 70.959
61.391 16.843 82.467
61.072 17.561 84.704
60.141 15.325 86.654
59.1 13.648 86.178
33.964 22.572 69.039
35.928 21.335 68.909
37.812 22.553 67.427
37.596 24.211 65.483
50.915 4.855 17.204
50.777 2.928 17.621
48.611 1.516 17.45
46.235 2.261 17.752
48.565 0.669 77.513
47.444 2.57 76.932
46.047 2.297 74.697
46.118 0.578 73.159
41.422 30.08 64.956
41.018 28.968 66.799
41.242 29.429 69.331
42.282 31.253 70.857
44.121 28.201 39.341
45.402 26.697 40.493
46.748 27.878 42.505
46.133 29.567 43.955
31.58 16.006 78.388
32.085 17.572 80.254
31.1 19.2 81.34
28.56 19.95 81.564
37.856 0.212 70.445
40.042 -0.633 70.836
41.827 1.019 72.314
41.636 3.192 73.391
55.029 19.449 56.902
56.635 18.211 57.939
56.262 17.376 60.168
54.81 18.6 62.191
44.95 77.296 78.033
44.804 79.552 77.393
43.346 80.825 75.551
41.253 80.567 76.083
39.4 2.364 76.17
41.512 1.446 75.844
43.761 1.508 76.613
44.79 2.786 77.733
52.433 13.445 63.0
54.303 14.149 62.152
56.198 15.761 62.933
56.712 17.048 64.772
33.448 2.764 75.92
36.07 2.434 75.419
36.613 0.794 73.361
35.549 0.139 71.609
56.559 17.026 53.848
57.196 15.62 55.649
55.784 13.218 56.326
54.293 12.007 54.979
53.567 11.9 57.716
54.353 13.317 59.568
55.298 15.102 58.675
54.699 16.538 56.791
45.87 82.759 71.357
44.333 81.891 72.848
41.745 81.127 72.109
41.448 80.034 69.886
24.626 11.643 58.835
26.071 12.841 57.624
28.743 12.778 57.407
30.084 11.531 58.733
49.718 54.768 11.692
48.111 55.352 10.034
45.337 55.371 10.644
44.389 54.464 12.855
8.751 30.82 15.523
10.639 29.853 15.136
12.978 31.206 15.636
13.248 33.173 17.094
57.349 77.185 3.851
58.815 76.478 2.557
60.788 74.7 3.227
60.742 73.406 5.556
42.849 43.208 32.049
41.37 43.044 30.288
40.145 40.87 29.437
40.323 38.567 30.233
45.462 57.911 7.568
43.631 58.672 9.079
43.712 61.028 10.128
45.218 63.203 9.643
72.604 46.498 35.312
73.306 48.623 36.368
73.938 48.998 38.63
73.878 47.621 40.899
42.82 62.023 21.731
44.088 60.418 20.276
43.321 58.991 18.427
41.794 59.566 17.042
29.983 38.24 29.093
30.823 39.884 30.013
33.591 40.096 30.681
35.017 38.567 30.8
36.587 25.087 17.074
38.013 26.48 17.914
40.872 25.739 18.041
41.579 23.289 17.474
45.331 55.238 7.963
43.843 53.792 9.105
41.709 55.467 9.562
41.295 57.505 8.071
48.645 56.886 69.923
46.266 55.977 69.475
44.886 57.552 67.789
45.707 58.833 65.698
38.329 45.229 25.628
38.462 43.497 27.218
37.098 44.166 29.655
36.438 46.033 30.39
59.581 44.219 22.945
58.676 43.91 24.658
56.599 44.038 24.766
55.196 45.616 25.902
56.616 38.396 4.68
54.865 39.16 2.909
52.666 39.068 2.524
50.804 37.972 3.426
39.078 23.977 14.803
41.345 24.133 14.842
42.136 26.123 13.818
41.313 27.603 12.067
49.257 24.857 18.063
47.694 25.864 17.157
47.529 26.763 14.85
48.882 27.86 13.449
59.173 48.106 -0.515
57.917 46.907 1.146
55.485 46.475 1.394
53.539 47.041 0.219
46.258 25.824 9.922
44.345 25.786 11.554
43.829 28.32 12.655
44.836 30.347 11.995
47.744 42.008 3.349
49.692 40.494 2.618
51.94 41.734 2.861
52.937 43.404 4.185
47.762 45.212 86.156
49.322 43.565 86.574
52.028 43.605 86.137
52.782 45.213 87.569
38.086 20.521 26.053
36.824 19.327 27.474
35.885 19.521 29.87
35.444 20.832 31.431
24.476 51.292 82.319
24.052 49.131 82.922
25.803 47.242 82.262
27.673 47.58 80.59
51.258 58.667 38.149
50.999 57.556 39.93
50.539 58.291 42.394
50.872 60.18 43.507
6.601 33.16 37.286
7.93 31.656 38.336
7.739 29.851 40.216
6.174 29.136 41.208
48.096 53.227 46.745
49.185 53.001 44.476
48.032 55.436 43.298
45.619 55.949 43.708
33.588 46.082 59.112
31.388 46.519 58.254
30.981 46.493 55.578
32.628 46.478 53.888
45.029 59.128 44.546
46.902 58.072 43.941
49.229 57.887 44.599
50.369 58.09 46.511
61.703 41.022 64.649
61.064 41.199 62.751
62.827 40.986 60.571
65.035 40.681 60.695
52.303 39.99 21.913
51.056 40.864 23.593
50.09 39.774 25.86
50.59 37.155 26.365
26.47 41.886 49.596
28.546 42.822 49.804
29.624 42.694 52.157
28.789 42.555 54.043
49.687 25.435 40.882
49.666 27.322 41.905
48.73 29.052 40.483
49.38 29.503 37.823
47.487 56.522 36.569
48.78 57.545 37.795
48.264 58.926 40.08
46.47 58.779 41.379
40.912 58.89 13.853
41.912 58.087 11.831
44.83 57.885 11.9
46.276 57.779 13.911
26.823 41.869 58.637
25.599 40.175 56.836
25.125 41.622 54.908
24.65 44.208 54.695
54.242 50.579 26.357
53.542 48.486 25.896
52.588 46.512 27.502
50.275 46.757 27.239
35.975 45.824 24.556
35.058 45.652 26.586
32.447 44.286 26.839
30.813 44.222 25.353
41.058 31.124 46.066
42.647 31.011 44.769
43.729 32.762 42.984
42.877 35.306 42.64
39.794 40.041 45.934
39.842 37.608 45.218
42.298 36.867 44.988
43.977 37.711 44.229
57.954 70.764 23.299
57.53 72.23 24.97
55.444 72.506 26.546
53.622 73.539 25.633
46.733 37.489 45.441
46.942 35.271 45.365
46.107 33.891 43.3
45.201 35.073 41.317
49.781 46.649 24.161
52.111 46.399 24.487
53.274 44.162 23.115
52.536 42.858 21.446
59.03 43.318 27.491
56.941 43.415 27.367
54.929 44.735 28.513
54.572 46.64 29.558
44.407 30.513 38.319
44.187 31.056 40.548
46.559 31.706 41.862
48.412 32.775 41.238
37.58 45.988 22.102
36.16 44.52 22.241
35.82 42.468 23.702
38.066 41.561 24.987
40.706 55.072 65.159
39.569 53.632 66.904
39.988 54.528 69.426
41.833 54.972 70.577
16.389 32.459 77.42
14.907 31.594 76.262
15.1 29.214 75.035
16.717 27.371 75.841
39.446 57.594 63.374
38.991 59.024 65.199
38.905 57.945 67.637
38.102 55.983 68.236
27.175 43.423 79.017
27.258 44.816 80.778
25.855 44.266 82.953
23.233 43.186 82.899
37.015 52.914 70.128
38.698 53.129 72.336
39.562 55.537 72.148
38.096 57.326 71.003
49.681 41.172 85.386
51.359 41.741 84.286
53.723 40.561 84.253
54.32 38.232 85.36
43.641 61.818 64.571
41.975 61.567 65.938
41.451 58.927 66.718
42.554 57.129 66.243
42.427 32.244 8.789
43.179 32.716 10.909
41.845 30.919 12.764
39.671 29.861 12.257
43.383 23.748 72.166
43.37 25.846 72.109
42.441 27.316 69.95
42.625 27.057 67.672
40.333 64.022 71.206
42.416 62.552 71.934
43.762 61.989 69.716
43.792 62.822 67.756
51.187 59.21 33.07
50.72 58.551 34.969
48.094 59.076 35.357
46.589 59.294 33.464
27.843 40.946 79.565
26.121 39.703 80.953
27.341 39.442 83.27
29.609 39.381 83.762
38.038 18.841 68.137
39.045 20.264 69.466
41.226 21.811 68.881
42.1 22.071 66.435
56.575 46.164 58.449
56.814 43.909 57.438
59.069 42.506 58.036
61.165 43.373 58.776
29.262 42.718 81.052
29.663 42.365 83.011
30.82 44.178 84.968
28.959 46.014 85.131
45.12 23.234 79.107
44.702 26.006 78.686
43.185 26.31 76.592
42.82 24.8 74.599
54.812 39.547 60.211
56.135 39.179 61.75
58.298 40.198 61.776
59.988 40.58 60.18
41.401 30.342 75.812
41.496 30.308 73.446
41.388 27.77 72.488
40.651 25.661 73.373
66.839 43.678 64.519
64.991 43.457 64.239
63.397 42.171 66.083
64.512 41.185 68.317
70.022 43.929 61.124
68.491 42.721 61.577
65.816 43.229 61.649
64.483 44.609 60.425
45.854 27.653 80.897
46.668 29.246 78.956
44.519 29.593 77.233
42.222 28.462 77.754
27.661 44.403 58.459
27.916 44.79 56.231
27.189 47.086 54.572
28.645 49.542 55.704
42.785 8.561 9.882
45.353 7.594 9.882
45.775 5.419 10.714
44.749 3.689 11.366
29.338 41.708 1.195
28.135 43.201 0.616
25.327 43.311 0.071
23.704 41.814 0.048
39.477 85.215 6.942
39.562 87.519 6.551
38.252 89.19 7.583
35.999 89.09 8.528
31.689 78.763 26.996
33.449 77.305 27.446
32.446 75.129 28.423
30.017 74.65 29.303
36.423 3.963 11.299
37.764 2.589 10.865
40.435 3.286 11.633
40.564 5.391 12.814
48.961 74.831 56.102
50.713 73.398 55.537
52.378 71.592 56.721
52.607 71.844 59.22
42.748 81.756 10.376
41.541 82.719 8.49
39.896 84.713 9.523
39.005 84.655 12.174
26.448 67.571 29.603
28.899 67.327 29.326
29.427 67.106 26.637
28.008 65.981 24.888
49.967 60.726 36.513
49.271 61.225 38.664
46.341 60.841 38.948
44.634 61.548 37.42
42.644 82.835 14.015
41.99 85.379 12.725
43.796 87.37 13.531
45.523 87.358 14.896
35.221 79.882 69.241
34.978 82.496 70.445
37.087 82.809 71.216
39.535 82.258 69.946
27.263 73.406 28.541
27.326 72.326 26.631
28.479 73.684 24.236
29.036 75.534 24.035
57.612 39.009 2.026
57.04 39.809 -0.237
58.046 40.0 -2.056
60.063 39.243 -3.407
56.468 73.394 3.794
54.882 72.58 2.314
55.15 73.922 -0.037
55.511 76.218 -0.462
40.363 59.996 7.247
41.235 61.802 8.316
41.02 62.023 11.062
39.716 60.878 12.493
48.163 63.793 15.599
48.234 62.237 14.42
46.456 60.551 14.507
44.616 60.168 16.265
61.011 71.329 77.548
59.902 72.349 79.173
57.819 70.853 80.479
55.833 70.029 79.772
41.124 61.978 14.837
42.97 61.177 14.183
44.766 61.637 12.636
46.381 63.014 12.655
62.293 73.483 0.481
61.46 72.819 -1.112
61.532 73.619 -3.448
63.545 74.381 -4.855
52.677 70.372 80.905
54.314 71.451 81.694
55.043 73.682 81.894
53.9 75.928 82.415
50.146 60.95 12.746
48.06 60.197 11.712
47.437 58.016 10.413
48.368 57.946 8.456
28.174 67.904 1.416
26.429 69.853 1.131
27.654 72.152 1.566
29.778 72.619 2.688
31.718 15.278 52.891
30.733 16.591 54.742
28.442 15.928 55.688
27.291 13.77 54.78
14.526 52.408 39.243
15.976 53.446 38.54
18.45 53.445 38.535
20.223 51.285 38.644
38.91 85.695 41.407
39.144 87.414 43.292
41.51 87.371 44.318
43.391 85.509 43.973
31.722 72.015 49.005
31.176 72.452 51.421
32.042 72.042 53.505
32.757 70.166 54.477
37.971 7.393 44.85
39.406 6.175 46.111
41.527 5.236 45.207
43.207 6.142 43.838
49.521 69.312 55.968
51.415 69.47 55.161
53.705 68.993 55.886
54.641 67.298 57.624
48.369 82.719 41.897
47.068 83.814 40.932
44.116 83.462 41.325
43.43 81.221 42.545
22.112 73.397 56.0
24.314 74.434 56.628
25.968 72.973 57.622
25.888 70.657 58.984
43.153 56.759 44.739
43.186 55.649 42.602
43.281 57.082 40.515
43.372 59.476 40.089
41.835 5.551 41.252
42.843 4.025 41.893
43.097 1.618 40.237
42.425 1.398 38.018
45.573 0.246 10.453
43.648 -0.133 9.915
41.678 1.64 9.989
41.114 3.547 8.614
31.53 75.266 50.906
29.951 76.447 52.28
27.235 76.32 51.847
26.001 75.657 50.18
51.887 52.504 45.605
51.287 54.556 44.793
52.047 55.911 42.47
50.941 55.097 41.036
58.906 76.239 24.535
58.194 75.062 26.786
55.937 74.848 27.634
54.55 76.436 27.803
48.191 52.667 49.327
48.498 54.997 49.297
50.711 55.571 48.014
53.012 53.98 48.055
57.22 68.103 57.214
57.776 70.035 55.738
56.464 70.247 53.552
54.974 68.177 52.424
58.002 70.695 27.357
56.979 71.603 28.949
58.273 71.971 31.557
60.02 70.894 32.186
52.682 57.351 49.601
54.557 56.508 48.362
54.59 56.573 45.49
53.123 57.944 44.265
66.762 70.347 34.451
65.241 70.416 32.702
63.211 69.073 31.782
61.751 67.317 32.561
56.596 72.071 33.901
54.684 73.388 33.764
53.617 73.793 31.57
53.749 72.406 29.408
44.277 62.044 40.373
45.241 60.973 42.371
48.086 61.031 42.56
49.391 62.364 41.189
31.746 69.383 19.595
30.978 71.659 19.624
30.367 72.512 22.313
29.879 71.481 24.14
38.54 4.775 48.545
41.019 4.977 47.946
42.039 2.5 47.02
41.021 0.347 47.284
15.602 56.261 65.355
14.847 57.77 66.729
14.328 60.065 66.135
12.885 61.1 64.364
37.102 81.233 73.715
38.67 79.924 74.634
40.365 78.648 73.213
40.142 77.692 71.101
46.194 -1.186 68.965
44.054 -0.266 68.087
43.451 1.694 70.005
45.03 2.524 71.682
43.235 4.56 70.821
42.312 5.708 72.894
44.046 5.448 74.986
46.291 4.944 75.111
58.35 76.398 84.858
59.359 74.727 84.59
58.963 73.295 82.37
57.569 73.729 80.532
25.175 79.723 83.825
26.107 77.923 83.772
27.366 76.398 81.842
28.732 77.968 80.747
24.459 73.433 5.685
25.205 74.451 3.799
27.622 74.498 3.234
29.557 74.555 4.502
40.382 50.035 66.928
38.911 51.464 68.378
40.009 52.076 70.355
41.442 51.085 72.151
47.36 10.311 77.047
45.152 9.395 76.622
44.329 7.056 77.154
45.869 5.296 78.178
59.098 18.883 60.697
58.057 18.121 62.54
58.941 15.529 63.412
60.889 14.434 62.304
32.244 72.06 84.551
30.833 73.415 85.094
28.141 73.517 84.287
27.284 72.026 82.985
37.76 61.282 65.768
39.598 61.289 67.215
39.938 61.612 69.592
38.346 61.63 71.563
56.84 74.097 58.937
56.574 73.659 56.719
55.239 71.426 56.327
54.413 69.781 58.343
65.629 59.403 62.514
66.167 61.308 64.053
66.766 60.625 66.822
66.892 57.948 67.453
39.687 51.274 74.244
38.965 53.394 75.179
40.428 55.19 74.519
42.969 55.031 73.965
58.006 73.743 50.241
56.707 73.344 51.694
57.682 73.16 54.196
60.059 71.989 54.902
48.763 63.156 64.954
46.354 61.75 64.813
46.144 61.188 67.353
46.981 62.423 69.277
28.365 48.738 52.213
29.365 47.332 53.293
30.55 45.181 52.059
30.483 44.764 49.698
51.125 75.519 59.546
52.863 74.295 61.702
53.771 74.649 59.532
54.659 76.657 58.391
48.114 56.792 72.51
45.831 56.965 72.741
44.255 55.492 71.911
44.429 52.754 71.446
27.529 68.878 60.451
29.488 69.637 60.883
31.41 69.691 59.143
31.614 68.086 57.236
69.074 31.33 14.662
69.159 29.103 14.37
70.931 28.435 12.629
71.801 29.71 10.546
49.262 4.659 13.452
47.411 4.757 12.923
45.415 4.941 14.663
44.889 6.113 16.273
73.085 32.153 22.127
73.13 33.19 20.485
74.413 32.56 18.192
76.242 31.5 17.852
81.666 25.703 10.402
79.766 27.284 10.731
79.222 28.905 12.607
80.899 30.948 12.263
0.449 36.959 4.589
-0.583 38.667 3.693
-0.036 40.326 2.704
0.52 42.656 3.533
76.112 14.254 33.391
77.807 15.769 33.72
78.433 17.068 31.63
76.88 17.8 29.552
64.444 57.174 13.0
66.461 58.344 12.526
68.555 57.202 14.349
68.224 55.629 16.282
60.121 23.114 27.223
58.324 21.459 27.296
58.455 20.123 29.543
60.485 20.076 31.205
68.76 82.64 12.046
71.572 82.725 12.031
72.471 85.296 11.893
71.832 86.964 10.635
78.656 22.51 8.902
79.381 24.228 9.794
77.749 25.355 11.269
75.556 23.938 12.256
75.16 31.849 75.397
73.587 32.36 74.254
71.127 31.947 74.533
69.764 32.17 76.696
1.991 19.628 26.604
0.648 18.781 28.083
-2.337 18.264 28.206
-3.794 18.409 26.61
68.899 6.119 17.894
68.73 3.909 17.947
68.58 2.389 15.709
67.925 2.838 13.648
7.115 12.277 81.465
5.292 10.826 82.265
3.255 12.165 83.261
3.038 14.426 83.693
72.494 79.169 17.497
70.917 80.277 17.738
69.778 81.014 19.64
68.25 80.11 21.291
77.779 4.803 15.951
75.768 3.969 15.443
74.27 3.895 13.325
74.632 5.044 11.273
26.403 19.164 1.872
27.481 17.573 2.241
28.374 16.438 -0.069
27.194 16.44 -2.235
74.454 79.537 19.666
75.228 81.741 18.908
73.596 83.46 17.885
70.996 83.486 18.519
82.582 16.726 76.841
84.783 16.919 77.666
85.98 15.899 79.283
84.937 14.476 81.348
4.829 12.075 77.184
4.543 11.971 79.604
2.134 12.074 80.458
-0.098 11.246 79.002
74.391 2.38 10.432
76.801 1.101 11.026
76.503 -1.54 11.35
74.279 -2.864 10.869
58.375 11.005 85.269
56.9 12.294 86.192
56.441 11.984 88.842
57.393 9.857 90.154
80.196 19.512 56.696
80.656 17.78 56.078
82.742 17.089 54.566
83.664 18.288 52.558
44.099 5.032 48.66
44.578 3.204 47.783
44.904 2.821 45.225
45.364 4.324 43.571
73.616 28.651 47.291
71.785 29.02 48.087
70.627 31.335 47.968
71.415 33.326 48.404
36.359 2.913 38.485
38.793 2.442 39.097
39.612 4.105 41.114
38.593 5.933 42.136
71.821 29.367 40.862
71.99 27.969 42.463
69.555 27.775 43.786
67.659 29.544 43.776
81.44 9.38 52.454
83.48 10.3 52.528
83.678 11.764 54.757
83.082 11.086 57.094
67.862 28.071 50.662
68.57 27.551 49.012
67.807 28.592 46.346
65.757 29.568 45.936
59.488 13.121 67.448
59.058 13.715 65.536
59.246 12.59 63.286
60.645 10.797 62.298
78.932 72.746 51.921
79.317 70.198 51.223
81.803 70.021 50.233
82.727 70.8 48.623
72.509 25.74 43.745
72.294 27.302 45.287
70.074 26.744 47.202
68.617 25.317 47.12
69.13 26.736 16.077
68.994 26.671 13.786
71.1 25.395 12.175
72.288 23.496 12.73
58.129 10.223 68.285
57.187 11.482 66.891
55.274 11.546 65.357
53.446 11.108 66.324
81.07 12.403 34.372
79.521 13.606 33.727
79.462 13.681 31.232
79.139 11.432 29.714
77.033 20.217 27.942
79.284 20.182 27.569
80.995 19.936 29.777
80.011 19.693 32.088
54.237 23.687 29.376
55.049 21.74 28.755
55.543 19.901 30.332
56.356 20.261 32.873
67.536 81.35 46.789
68.481 82.797 45.349
66.818 85.064 45.24
64.897 85.359 45.147
84.748 15.952 36.66
83.819 14.822 35.294
81.725 15.22 34.139
79.834 17.067 34.88
77.453 82.746 44.745
76.476 84.372 43.171
76.079 86.588 43.747
77.436 88.097 45.18
78.536 15.185 29.087
80.343 16.069 28.272
82.415 14.781 28.538
83.265 12.709 28.161
4.282 15.021 31.65
2.513 13.905 32.514
1.733 14.551 34.879
3.029 15.838 36.658
71.597 2.0 51.396
72.353 0.347 50.237
74.404 -0.038 48.439
75.12 2.522 47.068
67.319 84.143 51.061
69.433 85.382 50.56
70.673 84.294 48.384
70.409 82.038 47.444
80.84 42.459 81.79
82.635 43.805 80.879
83.761 45.924 82.208
82.97 46.373 84.897
47.562 81.06 78.084
47.431 83.137 77.173
44.96 83.857 76.229
42.819 83.125 77.183
69.151 22.603 74.418
67.556 23.442 76.083
68.807 25.784 77.377
70.866 26.529 77.051
60.151 11.55 2.378
60.966 11.436 4.529
62.242 13.423 5.355
63.556 15.183 4.405
37.85 85.136 76.172
37.703 83.468 74.861
39.846 83.097 73.222
42.13 83.701 73.389
5.363 14.279 4.695
4.043 13.386 3.133
2.534 14.107 1.427
0.954 16.106 1.874
67.827 23.975 72.581
67.914 25.843 72.312
66.434 27.518 73.848
64.592 27.186 74.795
76.785 24.858 4.484
76.85 24.948 6.871
77.845 26.256 8.518
79.964 27.938 8.138
68.976 79.778 75.911
68.15 81.409 74.904
68.772 83.679 75.368
70.746 84.089 77.363
61.685 27.807 75.94
62.388 28.476 73.488
63.156 31.017 73.286
62.859 33.023 75.252
68.04 36.304 47.762
68.07 34.092 48.015
67.141 32.287 47.091
65.888 32.003 44.222
67.162 16.251 81.593
65.283 15.301 81.825
63.403 15.475 83.871
63.61 16.006 86.04
76.663 -0.552 76.807
74.447 0.006 77.406
73.587 2.161 76.405
74.764 4.161 75.566
82.136 19.717 62.426
82.24 18.08 61.046
80.742 17.292 59.035
78.403 17.835 58.272
0.014 70.601 78.974
2.192 70.526 80.433
1.727 72.763 82.077
0.918 74.833 81.281
69.429 1.187 76.63
69.196 2.396 74.936
70.179 4.481 74.014
72.331 5.528 74.799
1.057 22.85 61.924
0.619 21.064 61.136
-0.422 19.096 62.42
-0.641 19.117 65.034
83.057 74.046 50.788
81.678 73.956 52.532
83.058 74.2 54.921
84.996 75.618 55.566
80.428 12.157 52.706
81.305 13.491 54.073
83.407 14.706 53.866
84.552 15.671 51.904
78.079 10.702 56.663
80.427 11.97 56.711
80.091 14.82 56.282
78.493 16.133 56.47
67.735 78.597 66.637
68.353 80.823 66.651
70.39 81.785 66.491
72.374 81.314 65.319
60.785 12.958 58.3
59.895 14.547 59.773
58.935 16.858 58.93
58.953 17.705 56.714
74.868 52.845 9.735
73.127 51.546 9.28
71.497 51.631 11.263
72.029 50.693 13.224
54.576 11.976 28.673
56.209 13.239 29.103
58.566 13.447 28.803
59.234 12.308 26.637
76.979 54.944 8.737
75.903 54.934 10.659
74.052 56.349 11.175
73.473 59.031 10.595
58.76 36.615 25.697
57.257 36.565 24.231
54.716 36.913 24.281
53.342 37.158 26.398
70.367 50.391 15.353
70.632 52.567 15.111
68.338 53.531 13.942
66.417 52.414 13.797
85.707 51.672 23.902
86.795 49.474 23.368
86.238 47.728 25.178
84.422 47.972 27.003
71.933 64.588 17.073
72.061 61.968 16.688
72.124 60.653 18.739
70.257 62.014 20.603
58.68 40.985 22.652
58.023 39.026 24.114
58.508 39.205 26.701
60.032 40.516 28.012
71.573 32.77 15.402
72.732 32.066 14.201
75.184 31.999 14.39
76.506 33.764 16.083
63.445 51.614 10.097
63.742 52.594 11.694
65.471 54.864 12.054
66.232 56.518 10.48
77.491 55.484 75.13
76.224 56.783 73.581
73.773 56.138 73.14
72.266 54.661 74.547
55.91 40.635 27.716
54.428 39.929 26.421
52.633 41.833 25.495
52.052 44.035 26.451
69.391 33.014 17.43
71.348 32.543 18.182
72.232 30.558 16.987
70.954 28.477 16.558
18.605 56.928 70.589
18.571 59.434 70.631
17.139 60.203 68.583
17.135 59.208 66.406
82.588 31.864 15.888
81.069 30.147 15.754
78.691 30.401 14.655
78.199 32.923 13.778
74.204 21.3 9.942
76.208 20.651 8.736
75.812 22.878 8.118
74.377 23.768 6.094
1.42 44.074 1.244
0.318 45.42 -0.346
1.703 45.736 -2.619
3.949 45.494 -3.07
73.662 29.202 8.728
75.389 27.788 8.731
75.006 25.196 9.758
73.216 24.025 10.176
84.466 41.781 78.137
83.281 44.344 78.324
85.198 45.943 79.638
87.289 45.661 79.661
22.331 50.584 19.199
20.679 52.244 19.61
18.686 52.034 18.033
16.64 50.83 18.068
76.589 29.411 16.124
74.813 29.721 16.309
72.935 28.77 14.566
73.563 27.26 12.575
57.87 40.332 79.851
56.097 41.405 81.159
53.762 41.236 81.762
52.07 40.511 80.882
75.916 49.931 37.117
75.836 52.132 37.069
75.055 53.358 39.294
76.254 53.175 41.186
50.338 27.3 44.937
48.893 28.511 45.156
46.201 27.403 45.892
45.919 25.286 46.208
71.531 49.403 41.024
71.721 50.377 38.833
72.546 53.064 39.03
71.942 54.624 40.656
63.516 43.248 53.234
62.717 44.562 55.098
63.544 43.941 57.631
64.718 42.204 58.536
70.757 49.8 35.884
70.803 51.794 36.59
72.644 53.347 35.95
74.16 53.339 34.492
5.942 44.581 51.192
4.105 44.777 52.783
4.475 43.451 54.539
5.4 44.056 56.516
67.534 53.551 36.279
69.37 54.152 36.195
70.681 55.141 38.174
70.096 56.661 39.886
55.149 41.607 62.417
57.044 42.585 62.457
58.861 42.655 63.647
59.627 42.74 66.24
66.019 26.594 41.771
67.57 26.253 42.935
70.116 24.893 42.576
71.231 24.589 40.896
72.629 48.927 43.58
72.547 50.948 43.998
71.122 52.275 45.926
70.402 51.579 47.993
74.587 55.682 6.509
73.426 54.824 8.188
71.513 53.606 8.582
69.646 52.643 6.952
59.741 45.449 61.059
61.721 44.411 61.651
62.364 43.641 63.749
61.838 44.602 66.025
66.042 24.3 46.755
66.561 25.576 45.314
64.828 27.547 44.108
62.702 27.868 44.127
2.886 51.247 28.679
1.833 52.644 27.661
2.405 53.414 25.138
4.527 53.242 23.76
63.589 32.725 43.487
62.624 30.563 42.797
64.542 29.037 41.847
66.593 29.368 40.928
68.058 29.131 34.744
69.539 27.121 35.768
69.501 27.51 38.438
69.122 29.616 39.569
84.429 46.057 28.773
86.06 44.357 29.134
87.135 43.759 26.765
85.945 43.791 24.496
66.731 35.078 49.958
66.88 32.089 49.939
69.583 31.457 50.454
71.485 33.007 51.382
83.962 45.011 18.581
84.649 44.233 20.165
83.532 44.27 22.612
81.199 44.451 23.437
2.379 43.441 31.293
1.854 41.615 29.706
3.451 41.82 27.719
5.815 43.122 27.971
72.145 30.16 53.97
71.395 30.238 52.195
70.884 28.301 50.47
70.605 25.666 51.053
57.936 43.078 20.811
55.949 43.506 21.933
54.659 41.323 23.057
55.551 38.951 22.766
70.915 65.288 67.963
73.03 64.686 67.58
74.139 63.081 69.669
73.341 63.375 72.054
38.526 27.545 63.058
39.579 27.968 64.647
40.196 26.013 66.44
40.204 23.825 66.006
67.423 64.044 65.25
68.794 64.309 66.445
69.06 63.141 68.782
67.303 62.693 70.696
59.826 41.686 81.544
59.97 42.274 83.672
58.646 44.845 84.298
58.134 46.455 82.427
66.906 60.129 73.681
68.657 59.112 73.917
70.961 59.473 72.565
71.742 61.313 71.364
84.075 38.11 83.689
85.531 37.642 85.761
85.943 35.483 87.025
83.927 35.082 88.391
76.274 59.332 68.349
74.851 57.836 69.299
75.05 55.501 70.395
76.996 54.334 71.481
56.674 44.118 80.608
55.804 44.91 82.463
53.19 44.627 83.561
51.894 43.246 82.155
1.965 18.615 79.057
3.76 17.923 80.31
3.296 17.012 83.04
1.646 17.079 84.419
61.454 58.075 69.602
63.272 56.628 70.076
65.71 58.031 70.166
65.937 60.626 69.81
68.108 60.115 49.046
69.138 58.264 48.708
71.058 58.24 46.528
72.598 59.67 45.863
57.085 41.147 4.417
55.001 41.526 3.847
54.591 42.211 1.073
56.133 42.761 -0.468
70.438 24.42 72.898
72.46 25.125 74.22
72.347 27.445 74.967
70.764 29.102 74.651
83.124 42.459 56.059
84.715 41.895 57.536
87.036 40.636 56.543
87.116 40.025 54.316
73.129 34.398 72.547
70.791 33.588 71.925
70.618 30.992 71.337
72.421 29.44 70.512
67.135 34.266 76.99
65.509 32.889 76.355
65.791 31.443 73.991
67.966 31.817 72.365
2.908 39.677 59.329
4.68 41.226 60.03
6.506 41.717 57.93
6.971 40.567 56.25
64.21 30.172 77.314
65.697 29.545 75.811
68.552 29.158 75.838
70.033 29.159 77.397
3.418 42.29 51.014
2.419 42.422 52.903
0.36 43.458 53.996
-1.621 44.162 53.614
82.424 47.084 55.576
83.578 45.413 56.288
84.049 44.198 58.688
82.957 44.051 60.493
68.276 32.073 69.821
68.309 29.343 69.478
66.242 28.048 70.84
64.489 28.715 71.396
51.659 43.795 57.88
53.142 41.599 58.873
55.372 42.501 59.869
55.904 45.045 60.801
78.064 2.356 14.261
76.779 0.527 13.783
75.61 -0.69 15.601
76.385 -1.069 18.357
29.288 37.085 21.736
29.401 35.222 22.88
30.331 35.044 24.853
30.284 36.529 27.089
66.174 2.42 21.055
67.554 1.998 19.345
68.171 -0.738 18.907
67.907 -2.422 20.464
56.516 75.328 34.394
58.352 76.187 33.794
60.349 74.632 33.436
61.018 72.517 34.215
73.349 4.204 16.787
71.403 3.191 16.616
71.148 0.432 16.399
72.491 0.037 14.651
85.222 71.1 21.7
86.774 69.354 21.9
86.955 68.893 24.209
85.035 68.877 26.052
67.739 81.751 17.766
69.213 81.762 16.149
69.66 83.951 14.286
68.283 85.273 13.415
65.382 73.104 33.937
63.593 72.325 33.865
62.45 71.576 31.652
62.388 72.418 29.452
65.861 50.453 11.887
67.647 51.067 11.271
68.884 51.184 8.965
69.036 49.527 7.27
76.546 82.119 14.151
75.356 81.735 15.943
72.604 81.837 15.947
71.136 80.796 14.223
77.585 27.83 74.527
74.877 27.323 74.244
74.126 29.758 72.828
76.099 31.628 72.663
67.048 72.121 31.518
66.091 72.807 29.427
64.69 71.132 28.206
64.82 68.717 28.243
73.292 48.478 7.885
71.595 49.292 8.187
70.477 49.537 10.453
70.515 48.031 12.541
78.829 65.695 83.262
80.343 67.357 82.874
80.667 69.773 84.203
80.178 69.96 86.57
71.86 63.141 12.932
72.292 61.083 11.803
70.193 59.721 12.653
67.97 60.541 13.208
67.574 61.777 19.689
67.248 60.68 18.044
68.788 60.885 15.763
70.186 63.154 15.274
5.804 76.917 85.709
4.316 76.873 84.181
3.753 74.81 82.726
4.829 72.826 82.348
72.784 60.164 14.261
71.211 58.923 15.083
71.01 56.097 15.021
71.976 54.447 13.674
4.862 83.223 1.192
3.013 82.224 0.481
2.521 79.487 0.502
3.861 77.924 1.866
78.127 71.718 2.06
78.643 71.31 4.002
81.379 72.108 4.405
82.544 73.704 3.044
70.503 58.613 10.06
71.704 56.926 9.588
71.09 54.842 11.201
69.324 53.947 11.581
59.543 66.646 82.892
59.774 68.673 83.751
60.532 70.853 82.372
61.656 71.086 80.502
71.384 3.208 48.004
69.6 2.958 49.511
67.292 1.833 48.597
66.324 2.233 46.652
40.549 57.005 35.954
41.581 57.158 38.213
44.395 57.415 37.637
45.278 57.996 35.983
74.791 81.653 42.409
72.942 82.401 42.712
72.452 83.798 44.798
72.978 83.277 46.947
54.35 75.447 52.619
54.426 74.713 54.463
52.748 74.902 56.475
50.943 76.541 56.946
66.204 -0.784 42.175
68.365 0.353 43.02
69.971 -1.455 42.939
70.108 -3.341 41.827
85.664 22.866 56.92
83.801 21.508 55.995
82.31 20.512 58.379
83.121 21.607 60.684
75.939 82.751 40.373
76.144 84.864 40.31
74.083 86.269 41.47
71.893 84.951 41.482
73.097 -0.998 65.663
74.105 0.468 66.373
73.448 1.588 68.727
71.463 1.891 69.774
69.497 59.271 44.259
68.296 58.157 45.873
68.901 55.731 45.625
70.069 54.623 43.807
63.998 4.467 51.008
65.294 2.958 49.958
64.338 1.03 48.042
62.554 1.152 46.849
71.699 4.624 11.332
70.41 4.22 13.039
70.591 6.02 15.231
72.309 7.982 15.116
65.683 81.688 73.393
66.274 79.642 73.325
67.7 78.709 71.019
68.175 79.689 69.014
64.862 53.11 46.663
67.889 52.069 46.728
68.693 52.474 44.348
67.283 53.343 42.343
84.201 67.629 29.584
86.031 67.961 28.424
87.695 66.732 26.828
88.618 64.86 26.811
73.81 55.789 47.092
72.316 54.348 46.751
69.919 54.336 48.454
69.667 56.173 50.171
49.695 70.482 53.018
51.498 69.303 52.37
53.608 70.148 53.332
54.586 72.438 53.117
7.991 69.5 23.751
7.355 71.405 24.617
4.909 72.3 23.507
3.832 71.523 21.5
74.566 58.158 42.005
73.199 57.951 43.945
72.457 55.784 44.393
74.19 53.335 43.513
0.264 73.365 27.191
1.177 71.508 26.096
3.919 71.153 25.905
5.407 72.516 26.65
7.943 65.896 27.128
7.895 67.784 26.117
5.493 68.798 26.093
3.792 69.263 27.748
72.064 56.023 35.743
71.804 57.325 37.619
73.329 56.978 39.604
75.625 56.075 39.678
51.878 74.387 28.751
51.577 76.751 28.838
51.279 77.956 31.171
52.014 76.11 33.262
76.546 84.041 71.343
74.835 84.642 69.959
73.466 82.888 68.345
73.888 80.61 67.404
48.842 65.401 13.783
50.441 65.116 12.289
50.346 63.269 10.916
48.937 62.548 8.923
68.175 -1.67 72.256
70.044 -1.694 70.646
72.26 -0.621 71.713
72.62 0.45 74.065
48.152 60.215 70.032
47.12 59.145 71.43
45.358 59.957 72.936
44.904 62.26 73.651
71.836 4.858 69.856
72.34 4.576 72.107
74.229 2.512 72.904
76.096 1.863 71.954
6.018 70.919 3.724
6.532 72.744 1.932
5.638 75.127 2.622
4.906 75.722 5.187
79.55 3.245 75.252
77.463 2.639 73.982
77.268 -0.104 74.167
78.927 -1.661 74.598
57.798 65.629 81.032
57.774 67.714 80.898
56.51 69.47 82.554
54.823 69.17 84.169
66.243 55.964 71.969
67.543 57.246 72.119
69.901 57.411 71.302
71.679 55.816 71.037
70.434 2.541 41.414
69.564 3.148 43.518
70.672 1.668 45.388
73.345 1.037 45.621
62.508 4.661 53.481
60.968 2.767 52.668
62.378 0.616 51.87
64.687 0.108 51.976
58.2 71.463 4.391
59.852 72.196 2.955
58.413 73.215 1.591
57.022 72.297 -0.652
69.061 61.789 65.692
69.613 60.519 67.587
71.906 60.369 68.906
74.171 60.943 68.211
3.908 76.879 58.289
2.282 76.309 56.835
3.153 75.833 54.767
3.529 77.041 53.017
56.924 11.329 70.425
55.215 12.038 68.805
55.435 14.094 67.127
57.549 15.424 66.93
76.617 61.81 70.12
76.88 59.758 71.033
74.977 58.749 72.097
73.506 59.22 73.413
79.565 70.292 54.028
81.282 71.154 53.205
83.73 69.876 53.484
84.251 68.11 55.209
72.024 55.178 65.249
73.044 55.754 67.625
71.454 57.364 68.943
69.324 57.886 68.67
5.959 75.517 53.434
