43.667316306504674 31.302268973097018 13.93300455179938
22.483503654021142 54.43449573297641 41.655736547316124
21.482911023766132 55.348662746802475 43.16665138047726
18.743791412564907 55.37463509213873 43.573547843441645
44.30131998256853 50.496797740894124 71.16050183201416
43.172500502568 48.222981095052575 70.04140293924665
41.01102428590887 48.65534306643199 68.63771855860969
38.926229787859775 50.015946363457104 68.93978625265959
23.41029950920054 45.264653372848805 5.255604085006379
23.14471752367289 46.271138342107754 3.113122154262456
25.250600889008577 46.33788800584694 1.566649762134021
27.628650459660623 44.904771930843324 2.249776827098887
20.08684103809972 81.5394033290283 2.4267154723405278
21.66146790876702 80.46057006676928 2.6186748064147123
23.46768965193924 80.92168116236266 4.5923137916464745
22.999655605057434 82.1358031454102 6.653720449489279
46.853345022410664 51.381061423043604 70.89154578995782
47.2036493317516 50.36795194178042 69.17469753423195
46.052639124118286 48.27864364342978 68.5844127158877
45.591262771405766 46.27413375090306 69.99964702808063
1.2968526108829503 63.882529907457496 14.752865702357653
3.1558795318193353 65.12106787374543 13.0360756559689
3.522892813041793 63.2211488784073 11.269192873950725
3.809346565446022 60.67481167680386 11.979482023163209
60.26025170097915 50.34788795691686 4.772419184793166
58.311277934315825 49.04622478686116 4.063620805060847
56.73090493223304 49.832600903628304 2.621420116327028
55.82558159852937 52.25793499763434 2.3470021539416175
48.31337181200241 62.163803400789604 15.026241118305064
47.126051272049956 60.73392415362864 16.608975144936903
44.491738548233606 61.431701978545554 16.735977298451264
43.28768802361943 63.6510475877509 16.075216965814793
49.36288531354788 65.16577594792307 11.52481784051815
48.56707191511409 63.27541258040934 12.19334806541433
46.43518335069966 62.75944417457984 13.288248855545055
43.9215749105699 64.11292830247288 12.898319572660549
39.70119955000257 61.63261742250107 19.973684816344655
37.890592906436474 61.437957324080664 18.40321442497571
38.36973301710485 60.754172706951714 16.246344304527355
40.69835208408894 60.76639101255475 14.972661032242904
46.30282313548231 77.30871110937032 77.26099931562047
47.14065495339674 75.0995853894157 77.70350423497631
45.44906492587711 73.53059722416657 77.37069362486298
42.9660842606595 73.29532625362495 78.32797495794485
36.239912487295236 31.948547382871805 72.63267154718113
35.2376158754958 30.86754572380039 74.3627458975335
35.79558777101452 28.195951185702587 75.0787478419691
37.15566090885372 26.744431766389553 74.19234832884754
35.336272406761715 33.54054229546909 79.95998968904263
37.439060765947545 34.27093411591242 80.00429022624917
41.34055318601672 33.569522207543734 17.358263275404028
42.004233279144486 31.269561799626864 16.904061123511518
41.30517801938977 30.37038064009333 14.535578497486247
39.11022858284665 31.20725881761468 13.414028508336651
40.801357812847755 28.885020894093444 73.77140204049567
39.94172344807268 30.34926484264682 72.23450989092039
38.873552512004956 32.4627655916675 72.74632250157768
39.18724927376814 34.29872641711134 74.65054354489625
20.081683215303094 55.60102607343496 16.68405456960887
19.09647500592773 56.54218284184653 18.38955771023107
16.207675830873352 56.675585353533776 17.96986067360192
14.993661537784247 55.65039526760694 16.46778280466229
67.72484911080328 34.677485607841184 71.48667489776896
68.57314869207764 33.32386593357982 73.31622026513581
68.95126380860424 33.42277024329702 75.83779252865813
67.69372278378393 34.75440271143975 77.6018721975104
47.66777464692344 36.12001910275128 6.85387069109669
45.44400582506266 35.94529988515496 7.085639519046726
43.84381283763401 35.063783859570776 8.946314790113965
44.50130570708568 34.181221700851935 11.210018778444761
63.80546709720067 27.476017161535644 73.26283213148142
64.08711728712562 28.565543744162465 75.20191981394362
65.00801546137008 31.145258547132276 75.18558270696589
65.9648539656497 32.56469902323091 73.3839750800133
59.844047089016186 27.737462789068132 1.5838045445256494
59.442385366481474 25.069283306941216 1.2634344946142029
40.9202738520567 28.06891764138908 9.30317514971151
40.45562827997887 29.934841716305815 11.205023543644879
42.639621074839 31.192332176687515 11.47041344042499
45.225382733881155 29.934770364494373 10.433513882787414
63.25134310057165 29.91264172680359 78.69713340309232
65.51604930957312 28.53790331607001 77.65603755377953
66.64079472364541 26.997631925639045 78.85443246531598
43.176157958792245 34.14132002539604 2.694260175493025
42.617032894025996 35.96630895844325 3.139494059858043
43.963307540045825 37.668905309161566 4.601047049569548
46.38620110221257 37.69349201583706 5.01426406445402
42.6700899026102 28.85987002989543 7.621570647369135
43.9377549406648 30.82575486361887 7.968778432509198
44.12724238467352 32.39097494851735 5.728776092468359
44.17197985510071 31.699221565350747 3.380777942756018
58.615184773152706 33.20491015561483 71.97441728107107
60.481153288062565 32.183625226202736 71.00136228506
61.99633390970822 31.57317902723625 72.65020580138201
61.63525059864028 29.960648273450335 74.52513229811544
42.129385703186664 50.81681352639508 62.68044618067026
1.1282091808736507 61.967343899548396 9.967943089329545
1.2815209377982621 63.784042684157136 8.877782708383656
9.908669481777105 58.487484542447994 33.3462160166214
8.257815407361706 58.992252835659166 31.09256921359595
8.183220905597686 60.350755538152285 29.44768185718275
17.425739493014014 70.29165916929328 77.26278974459571
18.887372446581217 71.89629201899989 76.0397014006836
19.493158650639664 71.94688780189844 73.75206451041754
27.614607680070787 83.69712512951658 4.66789639906034
27.782541750771525 83.84437072088703 7.013369609117631
25.316751449615243 84.82743306840939 8.092620811654921
14.304717374662651 61.857682202569244 13.338236793875367
15.903650197354844 60.90606421564302 14.17867725484238
16.17045584470017 58.134790968153766 14.644895135770817
14.542730968195016 56.61172614353569 13.901442325874022
69.60909195035283 37.2053285543074 8.045085061490123
70.57244886745048 38.96408723049163 9.104157291022096
73.04938399167571 39.63678637033442 8.179390212632594
73.55805571152132 39.94687528095308 5.676306908096696
19.366236873467603 71.11897049932408 79.12914919477119
18.534453209988143 68.86248955235466 79.3971730598537
27.22899811922262 78.20783193082126 2.7762889855354436
27.56291114434973 77.89106609319656 4.804614292489021
28.37428297853291 79.71997491783658 6.646589685946633
29.822839998683445 81.83069182557732 5.863869411886277
23.835328900180247 84.8177559427934 12.467095243267961
24.05394828741231 83.84694826596129 10.342378824770446
22.155361477748745 84.13533944158073 8.341657433796353
29.198079850869508 84.38122559896755 12.516399461129255
21.67956795251053 76.54971875291727 2.322203680434774
23.379012014710824 78.24843016444896 2.4720767846325264
24.8244846360441 78.00123001783014 4.406209766975825
25.174923094732964 75.51453951387292 5.700124323083567
4.431742600381232 37.15956262871086 6.44393142933284
2.436070314907631 36.46179055326265 7.716963614527476
0.5631493051775598 34.821352915659304 6.34713611880802
1.0320368607325978 34.106212727716894 4.013552899611986
1.518185516980616 36.56247497068461 1.7701310295893349
0.5789186717756344 34.61703913476664 1.3176023559002414
30.350914148086844 46.22409446928585 0.3697754795545025
0.16586163546420676 57.254372460063514 10.291456978541818
1.7456877517706797 59.0688146569629 10.386885118201238
1.1939897539264783 60.369182469300235 12.449160098198313
1.3830700551130666 59.80390644666882 14.831983815477695
22.660838414820667 46.981203711888334 0.35798489000051353
18.535927570655883 64.96422371498856 20.809052731762403
17.046026618430083 63.72130668005639 21.147442007166546
17.48329047466918 61.333349409540084 20.272982450612705
18.149285922920853 60.56482831969525 18.041169705458884
28.69661450988472 46.21294595249778 4.324071282879441
28.213781099920755 48.18439388281556 4.417578478742532
29.132515464937597 50.25450795034734 2.563788698154686
31.374803377012956 49.82207658657773 1.0039908126305397
29.669646892995928 53.026060031494794 2.432731697742425
27.92483895782237 53.91406904250806 1.528305947661322
30.477898787342944 79.42626472231986 8.51820833698342
29.30199170970889 80.10517152671294 10.316962875329432
28.388768124076915 82.97131608172869 10.143201697526374
29.538261685367097 84.61373372551253 8.968328218603945
23.03646827870111 54.42438707333254 1.956079370286868
24.478795248237724 49.491825312023046 0.592781573590895
17.016731031025095 58.56407609589152 24.285461890316807
17.55132160161025 61.039477759777306 24.723157022918695
28.09302249878084 61.228323258874134 79.11555780375535
5.0423014703024 65.14727529717449 8.498012557917257
3.6094886742520673 63.558429665982594 8.072229883172175
3.633850794891815 60.94510769226244 7.839161813928835
4.72676890691649 59.615143139842885 9.691773556272187
4.143309354158189 10.8198049054394 1.8673608463944569
11.622627839308645 17.110019435078634 82.60026384228885
13.413418299551969 18.317732718622125 82.47156270937872
11.651436630118114 23.201727804442417 78.94087586377961
12.518992711386671 21.091048552408314 79.53292126872411
11.504607030747913 19.6735904624208 81.1117317576156
10.660676820431373 20.08364774883304 83.45096572887971
12.365005598897445 12.493733386006614 79.62271716578964
13.66329526588131 13.437191848900312 81.01824606605926
12.540900424148417 13.811851464538458 83.59993882816958
28.201596872807894 16.877722823125644 8.699261956416613
10.76116382191097 19.395757384558724 78.38025497971373
9.950933196822954 16.74650517190353 77.12615140215534
10.80484717924739 15.16020945613507 78.72514529646128
12.699464580459697 15.733414809773917 80.58733407867597
30.47004530984107 31.580689753487686 81.07234417821323
33.12006049753391 30.92086348111936 80.78169987716045
32.403455820750224 29.581726418145504 79.45134935571784
9.140990208469699 13.544288680539623 80.35302960422764
8.474534178499445 13.765446511337794 82.35607426169696
7.8543362770253315 15.985988969867478 83.26697473356505
6.087016044170433 17.05456970427584 82.65814691016934
0.0724432581096727 36.427957506245015 9.253865590114822
64.0428029791276 31.782756906281843 71.09485712987619
64.67066741657635 33.824066294946185 71.34445894555881
63.236869259569715 36.146482517288675 70.68078071550924
61.22468994814355 36.03998245267008 68.80784462976317
12.526218715458873 24.7620183761563 17.48956838055705
11.383260813203 24.161936697183304 12.543489345861277
37.57550825855653 35.89976816809031 71.57907481344127
37.411159027610786 36.20850770804619 74.0087004879133
35.889952731669396 34.36933433384811 75.12719795826595
34.17659721915071 33.060037024755665 74.15260378826079
32.96040911188807 26.265031058005736 79.43155601342917
34.077543664307555 27.59894133077234 77.81680822139396
36.75107673919318 26.72948157689407 77.18429951650458
37.68952208573556 24.596885830123085 77.61301783586678
19.565468046627313 34.17120992872781 10.631752614277886
20.192737996227446 34.348730998004235 13.205243342670789
42.96879123658458 27.334898633267674 78.7082594383886
40.39235400406062 27.50770056568552 78.51413189965598
39.44260745122148 27.10806432454627 76.33485102772654
40.10644245719909 26.309924543587144 74.2476035708862
73.29105241775282 62.94853375534947 39.115916167704015
73.01261042383211 63.65846329238699 41.261234870838756
71.08758762561017 62.49869062530229 41.0686780411516
68.69889618375377 63.45844950391579 39.53702556103804
61.306687326930984 75.62987400795232 31.67133221973911
59.6663659289687 75.21195986876828 30.076316447198664
60.09639827427441 72.9120311090227 28.906344162282508
61.821581110810904 71.8068590603155 27.965802216716604
2.4819704630342847 36.68541448557127 24.96723364328172
1.7933859201066413 35.30097711960333 26.625363742710498
3.1865003077225267 35.371798476674094 28.81356195087392
5.206946355909659 36.668272527921864 29.14973261559798
53.73144820466093 76.39148823635968 26.056819809438533
54.83562234758976 76.44520641167182 28.280498307967072
57.404512887696455 75.11955040758373 28.56847134043715
58.82792729070623 74.29629947966467 26.897178464165485
50.98565515500377 79.05409306166423 29.906410763508035
52.27957985431992 77.00161109263723 29.609334699782323
51.703386301048084 75.39329693151672 27.44445903970302
49.57723990341398 75.78386250297977 25.96752321540883
58.20540108464008 64.3441727496244 13.313855684322895
60.446387164942365 64.35060026356066 12.64613392350964
62.338300618689516 63.448887230448946 14.197368439214507
62.47361597612385 61.49097444693057 15.470359759281488
22.708267728688536 61.69833917619944 15.48363798721724
19.951977584693502 62.29319197010801 15.011483516700883
18.71820422705167 60.11446732467811 14.790613291942154
19.11968797309307 57.84809190983032 14.431367685371287
58.33256199877604 18.94029734819714 13.431796500812009
59.290233154993025 21.12367427782844 13.703988568860812
59.5153918643578 21.86566383879442 16.146452894302556
59.720456324792856 20.686090585606344 18.365413036478312
65.23910163382895 62.96573680119996 18.81275652201913
66.33645243787842 63.1433295362622 17.281594629600118
66.15446360753505 62.073893699917704 14.818641676807967
64.89123235976415 59.98986439539038 14.35176086499969
68.34073035078052 62.909273963123454 42.48266456890673
70.00245831772868 62.27268753782023 43.59716112357329
69.42550741841848 83.76419310292793 47.800515254736744
19.365076231807695 57.22163403112695 24.75298347634249
19.93926638380636 59.56645470450963 24.51663018334322
19.68107305223954 60.6401615285409 21.707756739728644
19.926672534252337 59.47289391587795 19.781692092929756
1.2557944025071324 55.89360448438746 32.491716436542134
3.006692494188159 57.675106013419985 33.84742658537787
3.110455307188035 57.908328527033625 36.344106799404415
1.2774305222194653 57.671024857159544 29.76455409172497
1.3723838398011368 59.42978636729124 30.699589257594923
3.953865790688444 60.10913554826073 31.919885630682405
5.6032191338879676 59.94435072224073 31.117086759033764
52.892283771927865 39.12154787181343 35.13612553715605
51.78072837431535 40.993810146672985 34.16405668345075
53.29850974695292 42.55723749385917 32.5158397084549
55.44615944584181 43.55701377337196 32.84771952344057
68.63567625834132 62.07381649462919 14.2811460718586
68.675060294955 63.75042664221984 15.76057037953805
69.96844698867044 66.12433915436 15.156378056129418
71.60778898251418 66.53230385861016 13.392644805989148
57.90804046503832 49.28863090918616 30.759785981188408
58.746173074611505 47.92825389508142 29.908869556048863
58.694150857570854 44.98142241665627 30.151675506752415
56.968911725616856 44.59228045535032 29.367613863064506
72.90794167952039 41.55021533275229 11.05818935781853
72.97051529518723 42.702172615594165 9.199967614766534
74.67072792559242 41.61258433558186 7.457923288434648
77.09451152216481 40.98965923556302 7.55918396821243
50.395358806113485 38.4897455458658 32.54153596707159
52.55657623407324 38.83454861314725 31.989242893823103
54.368987907593024 38.16820395976973 32.85130644212962
55.78343926145199 35.81821146634138 32.744446471118245
79.50527315327412 35.03841802442589 37.33554532771742
78.0042028736136 34.5818939025917 35.74206908812515
78.39905578572198 32.87740834518549 33.86717525957975
79.9298705684917 31.212269525654374 33.2379403958386
54.816431790954105 43.57048908630811 28.179332230354554
54.62620118658163 42.36191454583926 29.744089414088748
53.866976526293655 39.98447083463782 29.761633349439062
52.40016729382557 38.80395284756736 28.50792104821808
79.55827605309725 34.955847164191695 8.37006445106205
78.43349454491477 36.5053758257013 9.448588706119633
77.30294147477997 38.42993524343056 7.6058601928822664
77.77654916709928 38.79687002746693 5.596209637107167
5.774751599595581 31.761712449676352 34.12233428400243
5.664846888676585 32.48395206053304 36.33246790656116
5.177589642734247 35.0664188994106 36.8883274220844
3.9290855662950093 36.71674687913686 35.082344567291365
57.53614783464373 42.67414827015544 31.382199286306243
56.80116796181852 40.80724110283054 29.771529489260534
57.96768150018849 41.278247205249826 27.20315756167227
59.78415955520567 42.82729821154252 26.898155457651736
51.523864902368544 72.58147374326025 27.558513016629018
53.6566731555122 72.1540078624009 27.862535020392965
55.03202072428677 73.91121108777827 29.694888657744453
54.18538323282726 75.05748424413953 31.221159402671617
75.58048385519801 32.27590720548376 9.985257362854453
77.134978647682 33.93183104313026 9.3627156771109
77.86024823223488 33.399950428962185 6.708763034671243
77.9603393745973 31.629093262850805 5.384128665461961
67.61387576033424 58.222655218929354 44.930307048719015
66.4345567581 60.05488908363753 43.30805574595627
64.6044069362367 60.139582294120395 42.138293943856766
21.875958360293073 60.97319497188562 46.09359106577254
22.37491509359838 59.61799080951137 44.58318485443316
23.420163234328555 57.347192595903856 44.97185474879373
24.729277985429285 56.6684179988456 47.1633949500127
0.16809808545418195 36.35425687576567 21.22014002779609
0.05632564436847425 37.41356250781112 23.5129787077621
66.61345380658328 62.307083564677725 38.41510924521418
66.3797160645074 61.2983264691824 40.65018556869893
68.63197908357158 60.35202172593488 41.39605940594208
70.65883768589788 59.66010295737288 39.872790422994655
2.9335262573310183 29.532333880231885 27.920106300358043
4.543092475174636 31.054421540937483 28.820274566885583
4.404831475921989 31.834361166074636 31.727959917467974
3.608469315472899 30.266229842856983 33.55702512135594
75.39622920318988 57.81048306504904 39.64311589536902
73.71416978103863 58.934810904316684 40.204359634304616
73.60024138752674 61.0451954903503 41.93560691463794
75.55584137337853 61.98791934523746 42.896402903928774
15.645128265166129 59.37502489513283 19.216129185881076
15.73265691297354 59.13984759988427 17.165894460519056
64.08952780727039 71.96285228522348 11.587251177413476
65.0288988076326 69.76275899724477 10.64168630946994
66.54471381307162 68.55401149968009 12.708832904110922
67.66522039145396 69.13824781739582 13.87780774386273
57.430833055430135 16.109809728775435 19.898317865098527
60.11279543471344 16.72164296247999 20.077500229452088
61.115661670268544 16.50367019168438 22.399487136906547
7.073282658312563 62.914997015158576 29.540203252116413
4.81777677947471 62.416352218328356 29.622078352336043
3.908677429300495 62.72152359802569 32.35513268590912
4.4867429388604165 64.16120836687843 33.72045564500871
59.86240081569983 19.627163062372542 26.40654292012249
61.22096280870287 18.053262187027833 25.561541037449455
62.39647425644143 18.66055606980308 22.987466571504942
62.92683409093651 20.720510435980685 22.215654798056573
58.909104696012605 26.221346060540174 17.071422797913964
58.945386151004335 24.906787101671824 18.656702308156632
57.3676915040421 22.629318699858782 18.216395827908798
55.21788854171067 22.50730287561547 17.303010178876836
1.425444829693673 61.502914772464564 32.12238915260584
2.024057473787235 60.15787775753637 33.8071470286599
0.6139196199523516 59.414597612545634 36.08308311923219
1.6629520342336848 2.402064410965898 21.592802603186907
64.81911929149034 18.2529544707515 21.201705727798632
59.20637887015415 49.74621102743305 27.899319045018245
60.581543547769925 48.211754357282324 26.649212553379172
59.649816959605744 45.62253522909626 26.453675074316745
57.74587198696603 44.7888424269347 26.914587109534164
14.592211507840686 4.581774941998769 18.570127669686972
13.300798297790465 6.793005812727516 18.109789347013823
2.659350598233176 11.780501986397955 37.69834234804711
1.8126450894230821 12.699745310787055 39.784313428458525
81.51270663287391 32.705738695758114 31.785602412345813
80.53586355238379 32.9042208758553 29.664435776412322
2.976729366276348 79.17282421785954 40.86993462832561
4.979265043379096 79.50359467043494 41.54384914629368
7.139254813697933 80.38187783945392 40.04423838133071
7.280229737735566 81.20659630521783 38.10608754370395
80.37907831978525 24.29085378823078 28.504547092087996
79.23375721188674 25.936535232845827 28.61814875737306
76.58700450773833 26.703677747812666 28.52531724708922
74.94684213796414 26.066422776299426 27.213609714338357
73.38228104318414 26.758644020130294 29.600234630072595
73.38783356736737 26.683053799887926 31.7228226409963
73.38503244828537 28.77884609611685 33.14435139114881
72.38319318450498 31.0355084062675 32.48507551534094
81.0069283883644 36.668533364936216 35.766690072841286
81.8682895988314 35.330471054524914 34.24360555190471
81.11757132237888 36.09989524928514 31.85756876178115
80.18072883774025 38.95829369464977 31.647238500803724
83.7959040909306 21.59154347288301 19.305948040335476
2.6817479122848287 1.8379465269480997 24.77629517220763
75.82999148183946 33.691071725136275 4.494147096011737
76.37476972456093 35.53816043745519 5.433990154191795
75.10421318303464 37.97656353378076 4.8225963924805955
73.95247594795366 38.72353058094086 3.184895353966984
33.12928803534706 80.56956035611987 40.86349648410952
31.896788143166603 79.30141149528326 39.095837566421274
31.19890076946932 80.51725221751455 36.82014109396801
30.64783795269295 82.78190791951137 36.26020702882005
54.651819467259564 79.95410714859278 1.3879667401394047
51.984035393337635 80.49484538207963 1.5594215195595789
50.299249306268194 79.34668804292883 0.39579665310024686
11.450953202982495 69.9226655702314 54.46954359563894
14.07112041895747 78.96125043540395 59.189805274362215
15.066652642375123 77.22503514243935 58.27892346516817
37.61264341412538 60.099201521384856 6.197145868406258
37.386323420345505 60.27315361572302 8.761345340529271
39.60046934480763 59.39296763815287 9.930294161924472
41.30948513214786 58.13295656778151 9.221128073168483
28.52218619770007 74.34809237021011 29.584488415982616
28.958489643642487 74.77390685849402 31.83883999118561
28.298990468628052 77.10986100890109 33.00034595428027
26.400416935718862 78.28384670317413 33.10756978746609
36.33330077901189 44.35772662534269 46.9516146688193
36.12426871640811 79.52091237727801 38.80398144514512
36.71669132752729 79.99683144358202 36.096122390491644
38.68273732173826 78.41362649178943 35.20059183422646
39.42547181278259 76.71510595224939 37.56259891916477
46.577740103745874 60.21288539642308 11.484254514092589
44.37656318212933 60.94947834335927 12.139996975413254
43.55485240167354 59.75092838565166 14.263944304557322
44.677235375352545 57.69538408483665 15.190773356461115
52.28248974527638 70.35118372052972 25.95667706515542
54.30963978124344 71.8137532154677 24.824074293622342
53.57631953490412 74.29681133843346 24.314654576573815
51.73924874884646 75.20788507724914 24.321454640945422
25.604599927427017 76.17595220098362 35.1909017115693
27.82490136356193 75.70105920102029 35.53253677262825
29.198664888324053 77.9906608972086 36.20078418980667
28.61498465684489 79.82902938300442 37.42477742864933
35.823464141567015 13.17080494234244 20.36221898943312
41.91766289300716 59.20496837601524 20.797752635250898
42.54378653098942 60.315087245740784 19.066247697700625
42.1552964191676 59.3114822274582 16.68836630763042
41.135563840502336 56.61552149376579 16.56895636339292
44.30010224221621 67.9048260238446 41.85931166938379
44.79609158218532 65.53259657264732 41.273668669707874
44.70361133014599 65.0447332588741 38.6455477353555
44.16177591484232 66.71237841127606 36.743997664550136
50.061673903146826 78.15467619915583 52.93307055965737
60.42070449088946 71.95274499040046 25.559819070086743
58.266220848678294 72.52069652723819 24.911238648882062
56.716984962526595 72.2755486055524 26.39822893951001
55.88921666664667 70.23141610930976 28.020975111734128
60.349631787800696 77.02274093886004 35.05488039699176
60.5826989388159 74.77072980649913 34.163612567172216
58.651147015673885 73.7711994410984 32.547046889149414
56.31258229143046 74.22177214341546 32.460465721127115
53.9306906005405 81.6505636951055 47.967705680041604
52.613060373787604 80.72067471683646 49.36517195267371
52.81590286679984 79.4724591314365 51.59535293671889
53.82772118350278 77.39600330983257 51.97322932220467
66.90583855268397 74.58171291498425 34.51557095884275
64.53782775105577 74.83216505692752 33.32662706105132
63.131743466280454 73.47336494663752 32.117556249277484
63.277680611103364 70.92670053036964 31.15518465964559
57.987232834731834 83.08080936077945 50.34593462076545
56.053190479051786 82.11629593634315 50.58428519174396
54.85949250472933 81.31513944612065 53.05060454368944
70.25283104381435 69.71217457004192 10.889446344570729
69.55671782348655 68.0790052406696 11.919754992475532
67.90188412353314 65.87883129916213 11.504109984733395
66.8103034019619 65.42805093753795 9.506029225978939
31.64475660699948 46.88597446704033 35.1696600263214
32.15991031657631 47.87959599454349 33.03241895671888
34.06735857873102 50.09433251731653 32.864791196150804
35.28928035940206 51.26316021393039 34.352764188901645
70.3351783833343 41.56881709848679 9.790602673948898
68.83637704471285 40.279519876352225 10.7172277612319
68.59267285372445 40.096416877710496 13.708619565516274
70.80927253117854 41.28348841160148 14.881637680435642
36.154221421755985 41.53567126878673 22.382819864483764
36.03691424898354 41.59370053763061 24.33679389088718
35.26907050360843 43.61999479521045 25.90627099472544
36.008103560554666 45.73048622507793 25.57653795127759
40.42363763231279 34.143438346709644 2.972936617601964
38.864957602576176 32.689451871951924 3.6390707608409563
40.84324723983666 31.456357593385544 3.931943000403696
42.139819875791815 29.967360947568167 2.6620592543256008
31.824770662077487 50.98635700552288 31.329233614486274
33.360986380933326 51.32608189379536 29.021038102895854
32.294880296497595 50.51514077038032 27.27763896312701
29.859523376219553 50.66008905362163 26.13955789426109
48.281338405333365 27.594499034593518 35.02077025994046
47.44029658774106 26.48260003054903 36.74213816466822
47.73679480909052 27.41834622511718 38.98803023440848
48.13529525851729 30.166896856956843 39.68925195868781
49.61339423814777 57.188093226449745 47.5022778432621
49.115995636884946 58.4876892674322 45.604232832670995
47.854782055402005 61.02109354721276 45.68701558296754
47.42928136466287 62.3545577825605 47.429168548564206
38.89271686242262 28.801265816091146 7.647832905624304
40.53850621899199 30.18328933560825 6.440845701359087
41.683879627315214 32.00675907419404 7.540108541511009
41.520397207888855 32.8976708280611 9.832704904641139
61.389282006809395 44.190535489120755 19.8208353519065
61.96674794956749 44.783341841591046 22.158905850076096
60.109086460859054 46.11765495101073 23.969514580632154
57.9196199719421 46.694657951388045 23.318853869323732
28.307516170683424 47.83686494942093 28.62812702494174
30.539407487049516 47.621694965349654 27.80010062297301
31.880132840088226 46.314649466206674 26.489176009386583
31.439640648681358 44.42788621274287 24.843144381035888
37.20381313654911 79.92507194558078 32.81042631104957
35.36510593876522 79.6916200635941 31.693265025262537
33.337705835823826 80.41954945309176 32.923398461090606
33.132474941724226 82.25111585353011 35.11560126756466
48.98989803942275 37.93268465836619 11.064684022922647
47.99108091774969 35.858506527814875 12.575651724949562
45.35052097749293 36.5279915542464 12.492542963049813
44.60232660864227 39.05717979387802 12.046586522975128
48.87316974694654 67.31815185742099 46.4535016586507
48.93040339930609 65.74068218578104 45.47101329914212
50.29018417059041 64.63627045006383 43.92570459469133
50.91113034599946 65.1259456103458 41.756239445001476
38.966379784337846 58.649503732134505 20.0572208435721
38.595790018608525 57.06392888391695 18.324776450199696
37.20510929616701 57.958932094842915 16.36655063587192
35.79565436853954 60.39850097736085 16.961893606112948
64.93439871467059 43.470106798890214 28.112030727091668
62.68043125905534 43.395441881584965 28.275052036440254
61.042989704410125 45.367435444958915 28.733894499491225
61.151597526940904 47.29571854637996 29.653063898454207
66.36114149738799 51.28042397311884 28.871225126485868
64.80110055731949 49.46989278238858 28.732548424536056
62.40255914196601 49.68702083080235 28.959183642502033
60.93271553894309 51.52134447382647 30.393914428116744
18.16831956931584 57.89867412784099 43.40592384634641
20.211909667091145 57.5216684377854 44.65165897707109
20.64233903388441 58.2704437355436 47.14067910894898
19.396013975401672 59.36989070038405 48.59279940945816
59.36983250807028 40.04856959403276 25.185533689031644
60.27669780909732 41.90194858330788 24.422379804390758
62.947496070988066 42.87511146531218 24.931630146712347
64.46181478309153 41.79101971094214 26.04195426155574
54.56845733078096 62.68999393186582 46.68511555107891
52.545068091565945 62.583901372352074 45.35305784160395
50.37315831498367 62.9339138788803 46.36702523420407
49.55684123552611 64.4439704807803 47.967758676255656
45.9817557115763 62.726456917118895 39.903398598650334
47.81873332194002 61.73303042501168 40.89267973447407
48.119816166810416 63.07768335138488 43.37752836173426
46.64460305567651 63.85238752757471 44.872885485285366
67.28525120494561 43.23643155448691 21.903855090630437
65.34490175175533 42.49314311227643 23.37542464291763
63.29184946760732 42.18655863975879 22.08450196032772
63.17363356690316 42.277777883028854 19.237407556884005
50.0798446787471 55.76027022033068 14.174961384149647
48.20598781357804 57.07658067377636 15.67203996167667
47.85755030456616 59.07090655667586 14.227750919234724
49.3550300121216 60.54597549204617 13.08064147248307
67.33055045694593 30.336323085621785 78.4535848865883
67.61960099763675 31.041018526993504 76.11080931222735
37.84647644660171 21.927147607829934 24.08465288596153
36.8765758834954 19.853136395100528 23.57135271712823
37.55885160717363 17.567578670101913 23.351933184278824
39.48013479989384 16.325781980265443 24.960344616090822
31.667659427776748 13.060274340065947 27.35170580553779
33.08466508853708 11.58042171616962 26.824855350260492
34.67772390295414 11.914805660111856 24.80987376804703
35.830129470980275 13.700298025145873 24.097663197071185
44.161716468579876 80.99003611098878 55.18872842338378
45.18107330172832 81.55338479770603 53.30656667898422
46.83822623757313 80.25426755536435 52.037798596626104
47.553656165082074 78.07393596552751 52.08308601902166
31.803018274692278 13.246183789197298 20.475244945876153
60.88412456340807 71.48831236725665 33.119341182912656
60.62728376776522 70.41487461935976 31.0544719881703
57.932212333982775 70.8132923249397 29.97462647199267
56.236003412006106 71.66121836230094 31.31777232220975
61.923400072769624 24.36884169110117 16.871995153655277
62.67817997887487 22.622730237982577 17.548957849073844
61.73053501481169 21.647153246439032 19.708499079691258
60.83281015394372 22.90425632883134 21.84721624702229
31.15079252826458 12.295802075337756 24.56509382683733
28.356701020815883 12.088601303236782 24.488208721861984
34.373178929415666 41.67613875970292 31.95431528907472
34.44718424554791 44.2147923891861 31.602033390924127
34.64033059023609 46.31323162829288 32.95874644717409
35.15494462292028 46.359028962321986 35.58539068989259
59.61858796119745 26.623364442864187 13.95929535193813
59.69244900989296 24.77465678881842 14.817663801969173
61.7497900988635 22.937656309512917 14.613987812684162
62.76422915490288 22.54991329092357 12.546829448300844
49.59409085742828 21.26715189457039 37.030946412313725
47.70202329223154 23.420450892884716 36.22729795955516
46.059063788387 24.25741945311052 37.84087488521566
64.47048832486529 17.38292421633637 24.018247286209483
62.67572158870308 16.104562486163378 24.563910136207582
54.35533519613261 18.109757043912502 15.243031495082269
56.49120040082055 17.296057205659146 16.56174745928906
57.055116776254806 18.792963707551795 18.545657542116366
55.55137058968443 20.593363721489524 19.33737237631367
52.41785973460206 19.696463209814524 13.78040216044772
53.5115573074334 20.7517418530076 15.256649097044802
55.812581800237645 21.150329251423745 14.888271810594116
56.80284467169903 22.649777039914603 13.666126164145865
48.93850318193223 39.45307202110564 6.028239773780537
49.13889662652985 38.877520505839286 8.147018573535547
46.74128058588748 38.00392585970406 9.241369236488481
44.64914264306708 39.008408685017116 9.273364581671707
4.873146741797561 61.053030530675834 42.1972590616665
5.711790405679146 61.89963068743553 40.317961217132215
7.732094221940472 60.57737405184543 39.078473268667416
9.562396584593165 59.216340895490895 39.68584469040979
16.985224662957243 65.01862565635253 25.68579540758095
17.434420956453355 64.46366507268613 23.813737284232584
19.913447775023947 63.20680006756698 22.543444289900453
21.162623256540062 61.85542627495591 23.905166158358057
8.52943996142902 57.3676993615504 37.914044236361946
6.585549520838281 58.398736592494735 38.13727119691429
5.530646433554816 59.951512166218265 36.3565484117369
6.232270521739204 60.55970013661721 34.12673598695457
3.635023260421302 58.41621270906479 43.4114714414765
5.13957968066681 58.29474731656639 41.96061429522281
4.120303980324009 58.43985592253805 39.52568437088988
1.181796586385283 58.315153849196065 39.40593180533483
21.273981944447716 64.96826789171837 21.01783027662295
20.943952826726914 64.60009882645188 18.879922397605117
21.189882579345444 62.44187695570788 17.554042111073898
22.147078720234532 60.29461852110886 18.101326969639313
31.847227796140743 41.710761642753326 30.664861996366014
32.271325251498105 43.549685126931195 29.580291027770386
31.490526773601868 46.247893432190935 29.78344014928368
30.249819628715812 47.339801540217444 31.346713391218568
2.8967214352007855 61.579997784358795 40.38256105075742
2.04414664139562 60.9253754538167 38.52971669631362
3.216207838067736 61.664866571709766 36.37166431655996
2.6680404233234385 63.82136885020714 35.696947155810896
9.095531156791512 5.343319335601881 18.93628039828811
11.071807989969756 5.548614293036394 18.935293322752035
12.568518823786263 3.7720179538355363 20.43377576384677
14.798234568334339 62.61937313956537 26.77910735330725
15.310969315742145 62.527412208646986 23.754812117144052
14.558263671104156 62.89221560115597 21.656712116283984
53.387736349043976 83.12856547455972 50.34241474197857
53.29159219536731 83.55936351589669 52.613276236529884
51.370848552731196 82.47505795838173 53.98759450488746
49.13166250785792 81.55196083404228 52.76829573121598
13.483040186899439 81.04434295594174 57.661179491729
15.479655683851803 80.19220266005522 57.41871160775226
17.440854758665115 80.97574714674197 56.546956530553736
18.36357372597735 81.88386180972269 54.42590770156167
28.574635683558157 81.4378013199418 35.279769759516086
28.619831077270128 79.72303080621981 33.91091334543232
30.13344329810127 79.17167404515872 32.24163921374041
31.595911130370094 80.93184979899479 30.872686695730007
30.791419373341895 69.59675060605873 34.71887127428393
30.8530410603962 71.93607604620374 34.493943464445366
32.558743959246556 73.56812993031181 33.27195940636489
34.56148362457629 73.53051063770148 32.252642756593296
13.917904571909911 83.17680605759091 59.74090242498002
29.481287817374888 76.46614810946079 27.982749710550358
30.115076205033155 76.90902536515657 29.83250383424404
32.93702146971031 78.0222458166635 30.401204770117708
34.34498614557922 78.93073356252107 29.026534484760422
18.217726960681155 84.18873991861655 59.25143233856172
18.04534923728435 84.26846070620356 56.67031954045739
16.204341047113235 76.75775763572986 51.037194396766175
16.438601928633098 78.35273848662509 53.09080079697742
15.948347015119426 77.37976296200343 55.611866382758016
15.379598116284445 75.24124338171079 56.083757400649716
32.028199404299336 75.20858877323036 26.105145611140035
33.83944918810323 74.4369151864218 27.103898718643368
33.17247793060128 73.94077559043738 29.90643693975331
30.89733593584217 73.14061369068116 30.745958722425772
9.027969011752687 84.88476354665305 23.549313251687426
6.448060764540653 77.10334194524927 21.101688033180167
73.36900448536299 43.55774707570965 4.528623988673965
73.65176862573519 41.78828715063754 2.810547579973244
75.92178681869592 40.521938674890606 3.229398970248632
77.84126284850302 41.41399041868579 4.975642712441249
25.16511096609522 55.52335176101236 3.5771706520781725
26.82796603494536 53.87317192069499 3.9478100852072693
29.271402507599745 54.163697320813725 5.1301008826593275
30.441591417918538 55.6839867333068 6.32180433010361
0.6845068629335316 30.15702343894149 40.82944089294595
2.4927244099695365 31.389663697663885 41.043020043655304
4.113740235616747 31.77022370687346 38.90723527297107
4.013588393357802 30.188243904234575 36.52181513527079
1.4960132553814525 31.98109167072382 34.0322598678751
15.586464605929896 17.510382396564633 34.89668569917739
0.31215133596164374 38.17693224339288 33.280384651852536
0.6830590437194952 35.28500274861016 30.252543766737872
2.410823965704646 33.810759565087345 31.846116038755756
21.501527774036102 32.44372612926357 16.730448838177605
39.84470569005749 46.55308958823586 28.985573376425915
37.932921642334364 46.3061872255123 27.872488737255082
35.9568834004215 44.66329349446454 28.980783205122187
35.97350413202203 42.338140261012775 29.622560275574077
10.594784507763103 62.14195244306346 35.21698346352657
8.680137596188274 62.24292523117472 34.06082061039695
6.215397439569064 63.11283949828018 35.48470262801531
6.559652347432687 63.40917108345407 38.16583539357511
35.27195443101783 41.78288206225922 19.81917240141687
34.69959428744725 43.410233171684204 21.240853348441757
33.236535201576665 42.63071460099414 23.108773361506746
31.006550745317305 42.08477701632413 23.243259304624708
20.524678380870924 61.125907015308464 53.33766342842495
19.614378742238966 61.78243757819053 51.2761394153276
21.056533128854976 61.42090758555219 48.93508083134236
23.326977513559292 60.95874963908133 48.91967942642058
38.08389716170892 48.60900494073625 29.549958133290275
36.24233156540243 48.82882506437447 31.0478038032609
34.00197787725447 47.45661690052964 30.510968055321584
33.68307062124471 46.603324626791576 28.349539077966867
21.556451651244465 50.277671258625126 39.50692904185928
20.586722160345616 52.06768263128378 40.345365813752785
18.62763035928113 52.01431947918037 42.538242997027965
33.21829194756773 46.53011475990457 20.648615648858755
33.86242400934474 45.87224570885 22.740428065553335
34.03401923475342 47.563740578603905 24.836742562776845
33.799521687139915 50.02852529555268 24.77574424838688
21.19634174063664 49.347229907459514 49.83169179025334
22.091584481285437 51.12676154796019 49.38662693740862
21.481723730719818 53.40209932700403 50.70825532246165
41.07851756402985 46.76567876376324 31.753268103492015
38.94346569924774 46.861947851443425 31.598923614886424
36.928261583112175 47.443345012480805 33.123510369193646
36.940609400198795 48.985146244732604 35.166666984466886
14.775606043419925 57.54979992444523 21.03978686014629
16.994831454622656 57.08533792875975 21.97329449337491
0.8363890149167195 31.049122384369923 30.60966234838646
2.020125740585576 32.15562659658521 28.121051250407795
0.724681488835989 32.56907955325991 26.132888133161764
37.49071571582242 37.887136086256206 79.60494553946477
37.02348376533732 36.38957714380943 77.6846133888458
34.784932951972365 35.66859676614763 77.39638951350703
33.506128510678586 37.47973951750142 76.39083274923554
2.7655837538587735 81.06868590624552 42.98322441368858
0.5331739985704401 80.08907376850904 43.28536248079704
83.42316273486281 24.906853680537644 18.869598369783613
3.684346526929085 3.8359236882778966 26.171716403747983
4.49724855420478 4.13988108117652 23.62773803650137
3.682871300336093 5.244043909428715 21.793871688992727
0.16841909126792906 78.87847985776106 40.85398029838373
35.774871889233175 20.944133499288924 26.04869264984208
35.875357949012184 18.55474181623699 26.06949212470748
33.32239923702946 17.466512736453602 26.072375806679922
31.311513582962345 18.671834233824164 25.69862219172035
15.320705670374219 5.068861597039937 22.286373219616067
12.848178184366294 4.6860265673415995 22.728345678058364
74.90317537282918 28.703868926157458 27.780503268601585
75.5839477640087 30.078787030217 29.744505647142578
78.37147073863082 30.27171973177179 30.14744199822907
80.03241218366205 30.467180535921177 28.388808310002844
29.72642534419398 17.82758175566606 21.493637794378955
30.978232756091092 16.081307622181715 21.45526261309763
31.621820833433482 15.004682718110509 23.648084096317483
30.48869938925419 15.747458324839895 26.035224513041058
24.471229056121416 30.795362798029004 35.22338563118421
23.36525726255275 32.88915042453473 35.51811181227747
36.69850180414942 77.3367953348289 28.71789750127081
34.88067971456997 76.22179724587832 29.48374854341677
34.32689659840018 76.24354801046655 32.25359854538669
35.96952839711022 77.54186585091259 33.905224173772304
14.896665107588559 20.879277195335938 39.175533564524905
15.323132906675914 19.206457577803622 37.85454208029374
32.88593616440786 19.500279169860622 21.065797465627192
34.48443788376435 19.390163517604247 22.40125102991757
34.943296006293984 16.88151760352577 23.474026801580088
34.09830233467934 14.784131558741365 22.36285003653152
41.86672344879082 38.23962164682095 8.257855538768036
43.04215627954879 37.065181423278325 6.900533217192412
42.22788107171755 34.65208007400594 5.883867603829737
40.228984995961 33.665519125450516 5.87053328090443
37.64429444990861 12.081174839824552 31.00884067823506
37.01418359210508 13.24779473533736 28.275708957237434
37.76622742063181 15.42779151972906 27.776160176260618
10.539933093988616 60.43119565802382 37.619477157996926
11.021063138130753 58.49129442411091 36.24632383343994
72.68918731392836 62.27946810636452 44.267551617189085
73.69251626468876 64.3401189440133 43.77246646210585
0.8544660161356238 78.61673315170223 66.26617040476435
2.361173216321327 78.02079943552648 67.45562780966463
72.12131446743986 75.6791313230158 66.49740625864476
73.54714627225238 75.63991756401252 68.39356223080685
5.502627447729579 79.5410675985253 67.40447966221993
5.450474473290639 77.17647587007134 67.47487386327799
6.392786411253184 75.84683826731343 69.61220599125608
7.667006203214922 77.17678797922602 71.55358961509562
4.299792644341908 74.1247587135442 70.0344207559049
4.032529932240217 76.14292441355553 71.11294551599161
1.828485586940586 77.37664866755304 70.17422767729444
67.72362109386336 56.80716360968812 65.84054099717501
69.48731386963489 56.1769429592435 67.21093691003234
71.88023444793161 57.72157023952253 66.82752297823944
72.53050691013726 59.060010319258936 65.18949673515965
1.8578917278645821 33.64670779522651 39.606415802259995
3.0357241533444252 34.088093664540175 38.030874250886846
1.7622119656481001 34.78446414016688 35.676471397791836
0.08714782351340887 36.345524174031766 35.4715854625849
2.015874703844148 39.55354975764501 24.670129744425424
2.127363592660626 38.67007267598996 26.879006344299434
79.42072021328705 57.06162324008813 61.85017459331967
79.13608127983537 54.911391231681904 62.384739306518874
76.6533313850615 54.0689760164177 63.43694610993624
74.48805970860275 55.684634556674375 63.436895188831166
56.74006135024368 68.2973999334412 61.6651982863896
78.17511217419964 26.327529720547712 31.410505275822956
75.9821334656196 27.3997325802685 31.371561361340376
75.92684513971629 29.600246965300133 32.75031940627259
77.10361444281398 30.47052424332277 34.53554797986661
57.44547205236655 61.19247493761198 62.18704570170212
57.298316909828976 64.8120879551551 60.84177189471244
58.02012129882614 66.1217892548949 62.84486819443082
70.58129058059625 32.741419141578206 33.72948452181434
72.1923496330282 34.6255129791361 34.20229146014878
74.6619480521667 34.01082874618592 35.32090656699817
75.4234193830251 32.32629072382781 35.67752438020233
73.62871762985841 82.17809140957631 73.8925830248448
74.0490202684213 81.41679360244152 68.05705648045935
72.47453183032607 82.7801546529089 67.97388149659025
67.44297593041838 75.61158116562153 71.68453950728835
66.18176194958204 76.85912379865951 70.07885251493116
67.03394293766151 79.41599750148823 70.28106866739975
67.87384411897646 80.51680975211991 72.25560160328521
11.844755243368745 9.167544030456865 18.309626857333207
10.212477439650684 8.133355023716572 19.203887020107334
10.243663778380608 7.119651508831801 21.84986819067287
12.482694958458701 7.38787486327872 23.3341066977675
57.46475473081771 84.13668353574394 71.64270374711445
56.48886356119882 64.92360265339371 65.1447024632166
54.3506418048757 65.51701418868156 64.5960021770486
53.02801136954545 63.34740894159905 62.86537403680413
53.70019574041417 60.87912844187175 62.91732398294607
80.51287193130321 52.425832358751066 61.09497216893679
78.78760864194837 51.9770863480355 62.15917984927119
78.40702078453113 51.88618152884132 64.92680558235479
80.01191483861075 52.03652926068279 66.71434315298632
72.67852161323137 51.764853638405306 70.45882517554945
71.65458605162007 52.811296403211905 68.51913898053434
73.11656375031089 54.83423949339448 67.24309055099643
75.27808555544591 55.700970560766045 68.14877176222825
76.85187476690832 49.12023748831364 64.09184289223057
76.0782478075045 50.075409114085716 65.69502520435027
74.28896980701036 52.07664476889529 66.28397752339018
73.57819553324883 53.545521618058814 65.01634722038729
72.72943768252416 45.643062834637824 69.40005282513579
73.70406961487613 48.07850275526844 69.67884068172555
73.22223259146834 50.23256166325258 68.22087062796989
71.8244808641577 50.32557513184377 66.39625031663584
78.16641337476926 39.52672548561976 38.46663375699562
78.97426969681308 37.704701575032416 37.25171650878463
78.6528992114266 37.174248439047716 34.90059450684677
77.25534309618594 37.97498226225578 33.23352066917941
69.21796696801465 56.173513969539734 43.83098800933239
69.44329377926667 58.221282391684944 42.90095885794563
71.65071974250397 59.455750317226055 43.88671152922704
51.21455437970741 56.25606865230315 45.66469361658203
51.80468839057797 56.90612600640917 43.48792752103594
49.82932725413516 57.79400113187444 42.81400514002536
47.1295783140569 57.08080658686264 42.92189958320262
27.663682658297354 28.74224264163441 40.94967963769115
26.279737833195608 27.343109469571342 40.230813620306684
24.939617270195818 27.607950518549664 37.938604550933555
25.618166674796445 28.424073482853945 35.90994712138861
42.86516827096456 66.79453813815606 70.88321552566529
44.17229438471761 66.69440446831149 72.8222404265156
43.170427950607966 66.94643987956584 75.25977060584185
40.48708122140436 66.73433588242001 75.83197290725404
5.882827514083219 75.22757770543647 65.67477434264188
4.60574428796312 76.27577087049575 65.13239816469316
2.2370002091233245 76.0765239786046 65.11219856257712
0.7643032116189695 74.46399535262627 64.96356032500736
49.00606083901688 67.17963410176225 35.953574924573665
47.22351493591535 67.21291865559003 37.53402477041007
47.35682767245498 65.66562473354104 39.5989396996848
49.07888677213421 64.17768220901628 40.04542141693885
52.3372726290069 56.93991433484132 47.79495666876422
51.67246199466313 59.128198443630744 48.01072412019794
51.498213210955896 60.16226497467245 45.61974804590329
52.657966677684875 59.603564778667696 43.43370627930168
32.01241879449188 34.809870661470995 76.66498636646934
32.840223920155374 34.298305778887446 78.45854122993295
33.83007878497759 31.79235927827077 78.18094515359817
33.15594686925132 30.047799059284394 75.8196311547838
25.26168672674176 78.99777661477135 11.564635944495507
24.62022492430137 81.24807060941461 10.844160827331976
25.916513719118438 82.14771803339619 8.546098711179436
25.773396901118126 81.39486946376675 6.653673104282835
44.62813375226433 83.81584741756255 55.10048285253934
47.06249413469974 84.32908563931355 54.87296209737785
55.456137485231814 40.96660192153724 26.07443690476027
55.82136396487754 42.725887030504026 25.612895684113703
57.74922445303543 43.979956263777254 23.871332031793344
