6.106 6.136 4.607
6.406 5.936 4.472
5.911 6.104 3.946
5.971 5.974 4.167
6.192 5.711 4.153
5.963 5.773 3.725
6.075 5.945 3.964
5.985 5.524 3.890
5.931 6.047 3.895
6.087 6.056 4.164
6.013 5.967 3.767
6.062 5.767 3.861
6.202 6.038 3.615
3.667 0.692 6.097
3.929 0.633 6.361
4.072 0.436 6.284
3.929 0.706 5.870
4.218 0.606 6.127
4.442 0.068 6.147
4.649 0.826 6.207
4.550 0.659 6.102
4.805 0.288 5.992
4.906 -0.069 6.315
5.136 0.503 6.235
4.793 0.848 6.014
4.699 0.563 6.127
5.279 0.117 6.229
5.166 0.220 6.040
5.119 0.574 5.953
5.141 0.286 5.998
5.317 0.223 6.145
0.109 1.329 2.558
0.079 0.925 2.364
0.053 3.718 5.403
0.046 3.710 4.712
0.215 3.583 5.007
0.171 3.846 4.510
0.165 1.694 2.503
0.531 1.253 2.659
-0.012 1.557 2.129
0.475 1.360 2.376
0.268 1.461 2.126
0.238 1.310 2.349
0.178 1.322 1.820
0.231 1.154 2.013
0.022 0.856 1.830
0.270 0.899 1.324
0.124 0.670 1.333
0.155 4.326 5.176
0.209 4.014 4.969
0.254 3.812 4.976
0.762 3.574 5.134
-0.042 3.927 4.911
0.274 3.709 4.803
1.066 0.222 6.128
1.082 0.022 5.966
1.263 0.506 6.283
1.299 0.109 6.194
0.082 -0.060 3.861
1.201 0.121 6.458
1.551 0.145 6.201
1.979 0.148 6.221
1.768 0.206 6.215
0.273 0.144 3.225
0.257 0.179 3.363
-0.014 0.123 3.156
1.653 0.150 6.336
2.119 0.040 6.184
2.025 0.015 6.260
0.265 0.317 3.124
0.527 0.325 3.473
-0.054 0.492 3.017
0.051 0.336 3.171
0.262 0.187 3.154
-0.033 -0.045 2.889
2.183 0.004 6.190
2.759 -0.097 5.974
0.359 0.589 2.927
0.342 0.453 2.970
0.205 0.844 2.678
0.289 0.707 2.582
0.579 0.433 2.888
0.628 0.384 2.752
0.055 0.613 2.520
0.019 0.533 2.595
0.266 0.420 2.570
0.607 0.242 2.600
0.267 0.469 2.410
0.452 -0.046 2.361
-0.057 0.228 2.092
0.191 -0.075 1.990
0.169 0.270 1.864
2.515 0.530 6.291
2.395 0.132 5.956
2.789 0.037 6.052
0.180 1.281 2.915
0.437 0.660 2.904
0.281 0.974 2.692
0.561 0.777 2.449
0.490 0.481 2.792
0.971 0.456 2.795
0.158 0.837 2.286
0.221 0.523 2.393
0.417 0.370 2.527
0.933 0.214 2.570
0.167 0.687 1.921
0.520 0.434 2.189
0.431 0.222 2.298
0.835 0.136 2.301
0.190 0.667 1.846
0.086 0.242 1.870
0.673 0.073 2.066
0.125 0.628 1.636
0.143 0.045 1.475
0.451 -0.056 1.626
0.084 0.078 1.326
2.805 0.409 6.035
2.872 0.061 6.198
2.970 -0.057 6.226
3.341 0.253 5.933
0.579 1.391 2.594
0.826 0.956 2.633
0.592 1.198 2.560
0.875 0.686 2.360
0.983 0.669 2.388
1.221 0.623 2.668
0.423 0.993 2.363
0.522 0.822 2.260
0.888 0.668 2.136
0.950 0.422 2.311
0.318 0.930 1.811
0.752 0.662 1.931
0.845 0.284 2.110
0.899 0.117 2.039
0.527 0.825 1.881
0.491 0.351 1.728
0.879 0.136 1.715
0.867 0.283 1.945
0.067 0.425 1.503
0.449 0.393 1.490
0.419 -0.032 1.779
0.151 0.520 1.328
0.456 0.099 1.190
0.662 0.177 1.381
0.298 0.358 1.187
0.186 0.242 0.831
3.234 0.458 5.966
3.447 -0.049 6.180
3.156 0.038 5.800
1.026 6.188 3.258
1.459 5.724 3.448
1.354 5.640 3.399
1.856 5.512 3.734
1.973 5.169 3.416
0.968 6.385 2.988
1.282 6.009 3.023
1.400 5.853 3.262
1.467 5.758 3.314
1.720 5.375 3.465
1.611 5.202 3.151
2.161 5.053 3.362
0.584 6.243 2.861
0.675 5.917 2.568
0.977 5.872 2.793
1.194 5.822 2.840
1.279 5.566 2.836
1.430 5.072 3.115
1.763 4.800 3.140
1.976 4.976 3.127
1.951 4.479 3.153
0.707 5.995 2.640
0.851 5.931 2.371
0.758 5.747 2.717
0.981 5.642 2.598
1.175 5.206 2.785
1.671 4.929 2.629
1.628 4.949 2.924
1.797 4.633 3.076
2.156 4.566 3.042
2.373 4.146 3.224
0.366 6.104 2.064
0.552 5.938 2.147
0.614 5.877 2.230
0.794 5.802 2.214
1.273 5.286 2.420
1.277 5.179 2.446
1.238 5.114 2.370
1.459 4.630 2.405
1.656 4.398 2.691
1.785 4.310 2.561
2.155 4.180 2.676
2.331 3.868 3.075
2.318 3.870 2.715
0.431 6.140 1.736
0.628 5.861 2.154
0.574 5.748 1.919
1.056 5.273 1.905
1.104 5.100 2.353
1.090 5.190 2.058
1.534 4.800 2.175
1.411 4.822 2.440
1.825 4.526 2.328
2.077 4.035 2.647
2.228 3.929 2.412
2.066 3.854 2.710
2.346 3.394 2.491
2.844 3.146 2.690
-0.086 6.367 1.779
0.412 6.131 1.491
0.290 5.666 1.762
0.443 5.347 1.796
0.943 5.377 1.905
1.017 5.155 1.853
0.995 4.773 2.162
1.394 4.795 2.028
1.667 4.300 2.017
1.627 4.320 2.047
2.021 3.952 2.176
2.240 3.837 2.373
2.360 3.853 2.312
2.386 3.284 2.355
2.516 3.163 2.619
0.183 6.114 1.545
0.168 6.107 1.443
0.141 5.907 1.607
0.299 5.826 1.495
1.570 4.163 1.828
1.757 4.125 2.039
1.826 3.840 2.126
2.100 3.664 2.017
2.126 3.394 2.052
2.403 3.286 2.202
-0.190 5.877 1.192
2.051 3.739 1.878
2.256 3.531 1.747
2.256 3.084 1.783
2.584 3.070 1.864
2.227 3.359 1.660
2.102 3.207 1.666
2.253 2.735 1.780
2.285 2.882 1.592
2.298 2.541 1.429
2.406 2.757 1.060
1.275 5.948 3.809
1.758 5.893 3.897
1.177 6.044 3.475
1.444 5.968 3.543
1.426 5.685 3.664
1.770 5.400 3.319
1.799 5.095 3.625
1.370 6.402 3.100
1.590 5.993 3.063
1.538 5.890 3.275
1.805 5.710 3.211
1.300 6.106 2.807
1.555 6.090 3.196
1.745 5.514 3.122
1.683 5.642 3.237
1.832 5.460 3.321
0.876 6.080 2.617
1.348 5.986 2.729
1.307 5.602 2.949
1.676 5.467 2.730
1.821 5.272 2.983
1.892 5.258 3.107
2.306 5.121 2.856
1.057 6.141 2.548
1.087 5.995 2.270
1.400 5.468 2.626
1.524 5.569 2.431
1.670 5.017 2.640
1.828 5.100 2.937
2.193 4.659 2.938
0.692 6.272 2.101
1.148 5.856 1.942
0.989 5.633 2.148
1.356 5.355 2.124
1.336 5.486 2.348
1.712 4.894 2.572
1.860 4.906 2.625
1.820 4.753 2.379
2.408 4.358 2.684
0.501 6.447 1.790
0.707 5.920 2.036
0.959 6.038 1.836
1.140 5.571 1.941
1.417 5.555 2.103
1.509 5.326 2.237
1.427 4.786 2.079
1.981 4.714 2.072
1.966 4.630 2.241
2.115 4.460 2.402
2.245 4.255 2.285
0.490 6.105 1.393
0.768 5.856 1.549
0.686 5.825 1.813
1.091 5.681 1.904
1.010 5.271 1.956
1.498 4.899 1.730
1.648 4.991 1.998
2.113 4.189 2.129
2.415 3.733 2.250
2.647 3.412 2.241
2.868 3.168 2.196
0.194 6.278 1.323
0.258 5.877 1.222
0.511 5.901 1.338
0.625 5.379 1.296
2.515 3.868 2.160
2.628 3.284 1.922
2.795 3.342 2.106
0.057 6.286 1.147
0.280 6.258 0.918
0.420 5.837 1.169
2.276 3.395 1.654
2.825 3.257 1.702
0.032 6.096 0.958
0.280 5.805 0.525
2.415 3.166 1.555
2.730 3.019 1.456
-0.118 6.046 0.804
2.631 2.709 1.550
1.805 6.106 3.500
1.424 6.102 3.098
1.495 5.997 3.458
1.915 5.995 3.490
1.875 5.553 3.298
1.820 5.986 3.216
1.811 5.996 3.147
1.979 5.882 3.238
1.617 6.162 2.647
1.886 5.965 2.733
1.770 6.026 2.762
1.862 5.641 3.005
1.518 6.218 2.525
1.733 6.013 2.557
1.746 5.541 2.725
1.784 5.704 2.679
2.247 5.364 2.840
1.265 6.303 2.162
1.324 6.071 2.443
1.421 5.704 2.511
1.574 5.640 2.353
2.057 5.272 2.547
2.262 5.224 2.595
1.266 5.973 2.127
1.322 5.701 2.235
1.361 5.776 1.998
1.618 5.507 2.401
1.741 5.322 2.464
2.175 5.057 2.359
0.809 6.359 1.680
0.924 5.776 1.955
1.184 5.723 1.803
1.345 5.617 2.050
1.526 5.167 1.883
1.690 4.971 2.219
0.795 6.333 1.409
0.648 5.852 1.645
1.131 5.712 1.695
1.334 5.514 1.652
1.570 5.358 1.839
0.735 5.998 1.333
0.692 5.909 1.061
0.859 5.922 1.366
3.069 3.389 2.183
0.549 6.197 0.678
0.621 5.979 1.051
0.781 6.001 1.014
2.871 3.249 1.778
0.225 6.273 0.939
0.309 6.258 0.594
0.441 5.986 0.527
3.000 3.239 1.389
0.174 6.295 0.429
0.373 5.758 0.164
0.095 6.267 0.427
0.324 6.162 0.336
0.095 6.210 -0.136
1.556 6.128 3.331
1.903 5.761 3.291
2.123 5.692 3.072
2.062 6.064 3.183
1.921 6.254 2.730
1.925 6.115 2.822
2.080 5.897 2.953
1.747 6.189 2.269
1.936 6.057 2.474
1.946 6.018 2.624
2.420 5.563 2.666
1.405 6.279 2.000
1.779 5.981 2.272
2.179 5.719 2.432
2.304 5.682 2.512
1.299 6.246 1.843
1.523 5.856 1.840
1.678 5.681 1.979
1.741 5.399 2.069
1.333 5.906 1.460
1.519 6.036 1.767
1.589 5.784 1.763
1.698 5.511 1.990
0.947 6.087 1.382
1.053 5.915 1.256
1.345 5.812 1.263
0.796 6.339 0.933
1.142 5.861 0.941
1.013 5.771 1.368
0.857 6.324 0.795
1.078 6.089 0.974
0.727 6.295 0.588
0.620 6.151 0.683
0.687 6.116 0.621
0.498 6.294 0.339
0.608 6.104 0.216
2.167 6.101 3.052
2.482 6.225 2.811
2.511 6.069 2.788
1.889 6.127 2.210
2.363 6.032 2.619
1.827 5.925 1.995
2.110 5.974 2.101
1.655 6.227 1.850
1.911 6.096 1.711
1.698 6.183 1.575
1.588 5.932 1.531
1.722 5.749 1.681
1.526 6.218 1.370
1.089 6.103 1.133
1.198 6.259 0.621
0.945 6.259 0.509
0.856 6.360 0.046
0.813 5.969 0.319
0.466 6.277 -0.081
2.490 6.197 3.110
2.503 6.095 2.390
2.579 6.168 2.355
2.024 6.177 1.978
2.150 5.956 1.598
1.735 6.219 1.604
1.827 6.105 1.361
0.979 6.009 -0.029
0.338 4.042 4.612
0.235 3.919 4.521
0.571 3.542 4.889
0.580 3.405 4.730
-0.041 3.894 4.342
0.135 3.919 4.508
0.667 3.779 4.695
0.190 3.686 4.009
0.089 3.777 4.075
0.454 2.028 2.858
0.587 1.781 2.783
0.125 2.177 2.365
0.400 1.786 2.383
0.498 1.387 2.509
-0.166 2.296 2.120
0.213 1.954 1.947
0.440 1.615 2.050
0.612 1.410 2.201
0.141 1.682 1.892
0.299 1.720 1.896
0.555 1.171 2.116
0.043 1.816 1.714
0.252 1.268 1.819
0.590 1.273 1.647
0.019 1.502 1.518
0.271 1.173 1.639
0.269 0.926 1.383
0.281 0.958 1.078
0.387 0.761 1.092
-0.087 0.821 0.791
0.122 0.655 0.850
0.365 0.737 0.715
0.215 0.574 0.374
-0.091 4.383 4.802
0.177 4.175 4.797
0.444 3.886 4.909
0.462 3.902 4.828
0.760 3.735 4.918
0.213 3.923 4.444
0.226 4.097 4.492
0.597 3.830 4.773
0.911 3.339 4.806
0.209 4.834 4.493
0.108 4.431 4.409
0.306 4.349 4.517
0.659 4.001 4.491
0.682 3.984 4.735
0.930 3.465 4.848
-0.014 4.275 4.265
0.367 4.160 4.319
0.414 3.975 4.194
0.860 3.528 4.559
1.042 3.651 4.486
0.143 4.198 4.005
0.262 4.010 3.905
0.629 3.641 4.173
0.505 3.532 4.087
0.602 3.478 4.245
0.110 3.970 3.948
0.448 3.492 3.814
0.721 3.288 3.825
0.627 2.460 2.945
0.767 2.243 2.611
0.849 2.129 2.929
0.481 2.647 2.640
0.533 2.316 2.521
0.527 2.006 2.423
0.710 1.901 2.788
0.454 2.532 2.318
0.490 1.996 2.422
0.739 1.811 2.270
0.889 1.611 2.549
0.116 2.146 1.803
0.295 2.008 2.180
0.536 1.722 1.964
0.799 1.387 2.165
0.221 2.040 1.535
0.379 1.757 1.927
0.531 1.847 1.642
0.509 1.464 2.073
0.192 2.095 1.650
0.271 1.893 1.652
0.617 1.503 1.697
0.488 1.329 1.734
-0.007 1.649 1.299
0.062 1.730 1.398
0.285 1.523 1.360
0.609 1.346 1.469
0.060 1.679 1.210
0.200 1.151 1.095
0.459 1.277 1.348
0.089 1.183 0.975
0.205 1.005 0.634
0.575 1.090 0.804
-0.016 1.262 0.396
0.001 0.925 0.520
0.549 0.776 0.820
0.074 0.976 0.478
0.025 0.747 0.106
0.239 4.731 4.488
0.308 4.401 4.471
0.373 4.508 4.891
0.517 4.105 4.919
0.585 4.133 4.712
0.868 3.618 4.939
1.130 3.467 5.079
-0.023 4.775 4.266
0.081 4.410 4.443
0.392 4.057 4.547
0.540 4.251 4.733
0.587 3.914 4.525
1.001 3.524 4.591
0.128 4.948 4.275
0.113 4.716 4.239
0.548 4.477 4.232
0.417 4.434 4.558
0.627 4.003 4.291
1.013 4.125 4.402
1.043 3.925 4.711
1.235 3.645 4.704
0.323 4.764 4.104
0.359 4.697 4.122
0.606 4.229 4.031
0.826 4.182 3.998
1.070 3.731 4.035
1.049 3.606 4.182
0.130 4.456 3.923
0.448 4.336 3.915
0.367 4.324 3.868
0.486 3.950 3.998
1.007 3.765 3.785
0.976 3.586 4.115
-0.122 4.580 3.368
0.218 4.194 3.661
0.227 4.147 3.686
0.643 3.749 3.684
0.599 3.710 3.935
1.092 3.466 3.728
0.165 3.810 3.544
0.404 3.761 3.247
0.496 3.641 3.526
1.079 3.418 3.609
1.176 3.184 3.453
0.652 3.498 3.366
0.669 3.176 3.082
0.956 3.222 3.329
1.168 2.750 3.289
0.744 3.154 3.070
0.877 2.804 3.017
0.984 2.870 2.999
1.028 2.612 3.301
0.531 3.235 2.708
0.508 2.919 2.636
0.810 2.733 2.796
1.249 2.534 3.094
1.321 2.202 2.919
0.490 2.905 2.707
0.993 2.497 2.439
1.123 2.347 2.585
1.193 2.297 2.706
0.582 2.683 2.219
0.742 2.302 2.312
0.844 2.375 2.612
1.027 1.804 2.508
0.382 2.470 1.875
0.719 2.093 2.299
0.889 2.250 2.015
1.015 1.951 2.234
0.090 2.608 1.680
0.458 2.376 2.023
0.621 2.296 2.033
0.922 1.913 2.042
0.795 1.796 1.923
0.078 2.657 1.454
0.433 2.109 1.544
0.545 2.166 1.461
0.608 1.923 1.496
1.052 1.494 1.803
0.117 2.341 1.291
0.290 2.129 1.459
0.444 1.963 1.329
0.872 1.528 1.563
0.946 1.614 1.344
0.024 2.324 1.090
0.368 1.925 1.116
0.559 1.896 1.084
0.678 1.594 1.122
0.826 1.513 1.097
0.130 1.999 0.775
0.259 1.861 0.893
0.460 1.623 0.827
0.763 1.447 1.174
0.791 1.012 0.843
0.268 1.560 0.719
0.356 1.554 0.482
0.325 1.312 0.658
0.845 1.153 0.639
-0.044 1.651 0.345
0.460 1.291 0.483
0.585 1.389 0.644
0.482 0.995 0.592
0.207 1.282 0.240
0.203 1.404 0.104
0.291 0.923 0.199
0.184 5.285 4.522
0.469 5.035 4.307
0.310 4.553 4.571
0.792 4.434 4.422
0.665 4.412 4.468
0.822 3.930 4.855
1.037 3.790 4.619
1.228 3.798 4.810
0.188 5.005 4.095
0.409 4.832 4.359
0.328 4.684 4.274
0.461 4.535 4.454
0.952 4.037 4.289
0.962 4.139 4.667
1.108 3.696 4.650
1.505 3.586 4.680
0.308 5.284 4.085
0.282 5.021 3.953
0.563 4.754 4.100
0.769 4.432 4.131
1.097 4.349 4.209
1.113 4.232 4.544
1.181 3.916 4.485
1.362 3.708 4.430
0.126 5.199 3.722
0.175 5.042 3.641
0.696 4.639 3.758
0.860 4.377 3.880
0.822 4.208 3.852
0.902 3.876 4.312
1.396 3.653 4.033
1.665 3.727 4.078
0.339 4.880 3.706
0.339 4.563 3.504
0.689 4.604 3.795
0.792 4.464 3.581
0.825 4.136 3.940
1.114 3.971 3.891
1.155 3.768 3.768
1.595 3.260 4.138
0.097 4.504 3.260
0.489 4.458 3.375
0.827 4.099 3.464
0.638 3.889 3.399
0.833 3.938 3.626
1.331 3.497 3.879
1.398 3.308 3.545
0.210 4.285 2.907
0.424 4.375 3.212
0.374 3.900 3.129
0.758 3.905 3.308
0.712 3.572 3.322
1.241 3.213 3.481
1.201 3.358 3.420
1.565 2.936 3.490
0.380 4.209 2.791
0.507 3.731 3.112
0.591 3.804 3.237
0.704 3.339 3.157
1.236 3.370 3.354
1.208 3.270 3.054
1.408 2.808 3.219
1.447 2.444 3.390
0.587 3.972 2.934
0.612 3.640 2.808
0.868 3.406 2.707
0.847 2.981 2.848
0.948 2.812 2.977
1.207 2.730 3.154
1.667 2.363 3.282
0.539 3.495 2.767
0.927 3.336 2.625
0.754 3.007 2.708
1.178 2.605 2.812
1.083 2.421 2.829
1.484 2.557 2.690
0.749 3.295 2.322
0.993 3.094 2.519
0.905 2.705 2.580
1.304 2.327 2.627
1.523 2.413 2.681
0.474 3.190 2.192
0.848 2.975 2.078
0.753 2.715 2.182
1.104 2.258 2.304
1.301 2.202 2.264
0.325 2.905 2.070
0.770 2.523 1.939
0.688 2.590 1.918
0.977 2.098 2.091
1.272 2.200 2.123
0.341 2.793 1.607
0.764 2.307 1.557
1.006 2.209 1.726
1.067 2.227 1.939
1.003 2.005 1.959
0.464 2.553 1.509
0.896 2.017 1.508
0.812 1.950 1.622
1.183 1.543 1.443
0.472 2.277 1.113
0.704 1.856 1.472
0.928 1.738 1.314
1.076 1.597 1.504
0.576 2.304 0.949
0.585 1.887 0.850
0.931 1.538 1.201
1.022 1.296 1.187
0.095 2.410 0.640
0.442 2.129 0.726
0.621 1.639 0.736
0.798 1.565 0.906
0.827 1.163 1.065
0.188 1.910 0.238
0.413 1.859 0.406
0.450 1.793 0.678
0.866 1.244 0.685
-0.043 2.091 0.171
0.475 1.580 0.085
0.318 1.444 0.206
0.545 1.221 -0.116
0.207 5.246 4.214
0.426 5.267 4.343
0.515 4.756 4.257
0.988 4.774 4.542
1.045 4.324 4.496
1.117 4.158 4.708
1.472 4.185 4.473
0.345 5.337 3.966
0.461 4.953 4.052
0.541 4.581 4.145
0.817 4.628 4.035
0.930 4.257 4.379
1.288 4.292 4.561
1.157 3.736 4.344
1.542 3.865 4.682
0.589 5.135 3.975
0.606 5.239 4.106
1.047 5.066 4.105
0.893 4.715 3.973
1.129 4.632 4.010
1.419 4.321 4.339
1.647 4.090 4.296
0.428 5.088 3.718
0.582 4.934 3.569
0.755 4.877 3.709
1.071 4.775 3.814
1.164 4.226 4.039
1.170 4.083 4.083
1.420 4.045 4.256
1.612 3.577 4.157
0.496 5.099 3.527
0.725 4.996 3.349
0.670 4.530 3.488
0.852 4.420 3.567
1.069 4.147 3.850
1.180 3.988 3.933
1.492 3.892 3.870
1.551 3.724 3.780
0.431 4.998 2.972
0.549 4.784 3.400
0.725 4.653 3.428
0.808 4.495 3.262
0.996 3.941 3.487
1.132 3.966 3.618
1.275 3.648 3.486
1.675 3.432 3.794
1.886 3.439 3.511
0.492 4.701 2.784
0.403 4.203 3.232
0.932 4.039 3.128
1.045 3.925 3.068
1.131 3.739 3.160
1.139 3.407 3.312
1.603 3.530 3.206
1.786 3.124 3.500
0.496 4.657 2.644
0.680 4.292 2.746
0.813 3.893 2.927
0.763 3.902 2.909
0.877 3.552 3.037
1.156 3.455 2.941
1.312 3.300 3.298
1.392 3.094 3.081
1.917 2.941 3.130
0.460 4.056 2.808
0.987 3.740 2.639
0.876 3.502 2.672
1.372 3.097 2.610
1.455 3.219 2.864
1.474 2.662 2.960
1.628 2.580 2.821
0.615 3.617 2.540
0.783 3.457 2.567
1.061 3.113 2.437
1.175 2.994 2.690
1.452 2.558 2.813
1.605 2.574 2.579
0.517 3.295 2.366
0.972 3.354 2.193
0.861 3.043 2.355
1.360 2.880 2.455
1.510 2.809 2.479
1.434 2.545 2.433
0.983 3.089 1.985
0.991 2.764 2.148
1.150 2.881 2.002
1.492 2.513 2.121
1.488 2.065 2.421
0.648 3.124 1.680
1.051 2.916 1.750
1.085 2.511 2.064
1.429 2.424 1.991
1.674 2.055 1.842
0.987 2.671 1.700
1.000 2.466 1.679
1.430 2.060 1.525
1.343 1.904 1.776
0.911 2.378 1.332
0.962 2.283 1.546
1.164 2.181 1.326
1.445 1.835 1.412
0.900 2.510 0.977
0.987 2.247 1.160
1.255 2.128 1.058
1.247 1.919 1.267
1.074 1.954 1.031
1.080 1.781 0.984
1.364 1.684 0.831
0.495 5.362 3.947
0.910 5.457 4.343
0.868 5.141 4.242
1.240 4.886 4.226
1.156 4.756 4.269
1.447 4.232 4.529
1.559 4.071 4.339
0.687 5.375 3.859
0.734 4.969 4.045
0.811 4.902 4.217
1.157 4.862 4.122
1.004 4.508 4.188
1.502 4.090 4.375
1.381 3.877 4.454
0.524 5.621 3.807
0.988 5.308 3.830
0.966 4.836 3.969
1.290 4.904 3.929
1.553 4.700 3.961
1.752 4.577 4.052
1.834 4.126 4.108
0.641 5.735 3.361
0.841 5.172 3.465
0.958 4.982 3.575
0.827 4.978 3.671
1.131 4.786 3.622
1.329 4.692 3.960
1.661 4.376 3.838
1.831 3.998 3.913
0.539 5.403 3.402
0.453 5.299 3.121
0.815 5.171 3.160
0.872 4.742 3.619
0.905 4.517 3.630
1.189 4.318 3.529
1.599 4.349 3.779
1.579 4.037 3.714
1.629 3.778 3.938
0.398 5.449 3.140
0.487 5.141 3.022
0.490 4.862 3.277
0.850 4.751 3.207
0.922 4.604 3.292
1.428 4.307 3.388
1.467 4.019 3.485
1.753 3.664 3.385
1.717 3.714 3.304
1.985 3.204 3.757
0.376 4.922 2.934
0.608 4.697 3.066
1.004 4.736 2.828
1.138 4.472 2.970
1.324 4.164 3.192
1.257 4.080 2.974
1.623 3.672 3.280
1.752 3.531 3.305
1.911 3.375 3.144
1.975 3.011 3.507
0.520 4.679 2.498
0.380 4.417 2.658
0.784 4.255 2.752
0.896 4.165 2.612
0.991 4.054 2.847
1.217 3.811 2.978
1.447 3.443 2.788
1.443 3.382 2.920
1.693 3.322 2.944
2.042 2.775 3.142
0.628 4.128 2.468
0.952 4.228 2.297
0.988 3.875 2.630
1.335 3.438 2.484
1.503 3.257 2.815
1.468 3.146 2.641
1.722 3.116 2.681
2.125 2.648 2.872
0.869 3.871 2.044
1.100 3.780 2.098
1.235 3.472 2.359
1.283 3.330 2.325
1.583 3.029 2.585
1.484 3.041 2.721
1.818 2.450 2.675
0.946 3.641 2.252
0.903 3.190 2.183
1.176 3.236 2.293
1.371 2.799 2.184
1.532 2.728 2.331
1.867 2.736 2.365
0.877 3.088 1.802
1.196 3.073 2.019
1.173 2.895 1.853
1.666 2.538 1.976
1.794 2.232 1.956
1.057 3.038 1.827
1.427 2.902 1.920
1.504 2.578 1.698
1.548 2.273 1.751
1.071 3.000 1.553
1.407 2.588 1.489
1.527 2.351 1.563
1.411 2.168 1.695
1.338 2.395 1.294
1.392 2.320 1.430
1.422 2.212 1.201
1.448 1.951 0.894
1.657 1.862 0.947
0.998 5.589 4.256
1.004 5.113 4.167
1.180 4.899 4.295
1.513 4.737 4.407
1.839 4.737 4.321
0.838 5.359 3.703
0.731 5.266 3.664
1.130 4.874 4.021
1.346 5.014 3.772
1.243 4.690 3.942
1.493 4.591 4.260
1.721 3.999 4.194
0.817 6.038 3.413
0.849 5.657 3.538
1.298 5.382 3.717
1.369 5.171 3.671
1.550 5.174 3.683
1.566 4.883 3.959
1.933 4.474 3.841
0.711 5.492 3.214
1.038 5.655 3.423
0.930 5.296 3.391
1.197 5.100 3.523
1.456 4.856 3.661
1.437 4.448 3.868
1.681 4.591 3.712
1.953 4.157 3.585
0.217 5.875 2.933
0.685 5.715 3.114
0.860 5.201 2.969
0.978 5.020 3.153
1.193 5.069 3.201
1.334 4.778 3.562
1.366 4.346 3.233
1.767 4.360 3.601
1.920 3.907 3.605
1.825 4.055 3.533
0.375 5.557 2.724
0.654 5.428 2.941
0.527 5.277 2.839
0.870 5.052 3.125
1.013 4.682 2.875
1.196 4.667 3.206
1.266 4.406 3.288
1.690 4.193 3.420
1.688 3.842 3.449
1.762 3.641 3.350
2.122 3.370 3.533
0.185 5.551 2.422
0.505 5.403 2.583
0.528 5.203 2.587
0.673 4.941 2.544
1.182 4.578 2.616
0.984 4.256 2.889
1.331 4.321 2.995
1.412 4.204 3.010
1.640 3.946 3.120
1.796 3.450 3.231
2.094 3.542 3.146
2.402 3.376 3.117
0.268 5.167 2.373
0.499 4.867 2.455
0.797 4.779 2.469
0.751 4.642 2.479
1.162 4.394 2.572
1.517 3.993 2.753
1.413 4.010 2.934
1.842 3.614 2.648
1.747 3.667 2.728
1.996 3.459 3.113
2.008 3.193 2.902
0.848 4.718 2.370
0.954 4.420 2.111
1.252 4.332 2.185
1.391 4.170 2.474
1.321 3.968 2.335
1.583 3.719 2.468
1.809 3.222 2.482
2.000 3.260 2.705
2.005 3.086 2.728
1.193 3.942 2.260
1.231 4.024 2.355
1.356 3.719 2.126
1.407 3.365 2.138
1.660 3.433 2.456
1.860 2.971 2.301
1.891 2.759 2.426
1.107 3.699 1.878
1.292 3.714 2.179
1.552 3.217 1.910
1.503 2.907 2.269
1.851 2.794 2.387
2.170 2.647 2.367
1.369 3.286 1.871
1.352 3.172 2.008
1.789 2.982 2.076
1.960 2.900 2.092
2.019 2.514 2.041
1.290 2.927 1.462
1.542 2.888 1.658
1.527 2.565 1.859
1.969 2.251 1.596
1.297 2.520 1.427
1.695 2.512 1.394
1.687 2.169 1.506
1.690 2.584 1.140
1.644 2.146 1.141
1.106 5.686 3.792
1.117 5.477 3.878
1.533 4.978 4.093
1.762 5.049 4.252
0.750 5.981 3.554
1.037 5.413 3.631
1.232 5.336 3.869
1.420 5.090 3.873
1.429 4.894 4.055
1.706 4.695 3.755
1.773 4.667 3.999
0.955 5.836 3.508
1.056 5.682 3.443
1.283 5.654 3.700
1.493 5.276 3.496
1.826 5.186 3.659
1.931 4.860 3.976
0.558 6.075 3.195
0.702 5.911 3.234
0.905 5.526 3.094
1.381 5.622 3.411
1.317 5.226 3.440
1.714 5.158 3.572
1.952 4.949 3.416
2.035 4.721 3.509
0.268 6.099 2.769
0.526 5.961 2.781
0.689 5.868 2.811
0.857 5.679 3.216
1.269 5.113 3.157
1.302 5.072 3.156
1.629 4.727 3.314
1.760 4.817 3.330
1.801 4.583 3.428
2.068 4.216 3.443
0.204 5.921 2.710
0.768 5.792 2.867
0.755 5.686 2.688
0.899 5.338 2.753
1.086 5.009 2.683
1.091 4.992 2.814
1.679 4.899 3.040
1.499 4.651 2.890
1.729 4.360 3.089
2.170 3.961 3.224
2.203 3.698 3.409
0.230 6.167 2.413
0.507 5.902 2.425
0.371 5.520 2.288
0.590 5.375 2.665
1.059 5.205 2.447
1.123 4.850 2.507
1.216 4.965 2.824
1.373 4.476 2.727
1.720 4.296 2.689
1.834 4.064 2.961
1.769 3.786 2.785
2.089 3.882 3.045
2.383 3.546 2.960
2.616 3.401 3.036
-0.083 5.987 2.132
0.148 5.688 1.939
0.482 5.614 2.090
0.805 5.508 2.084
0.789 5.148 2.370
0.928 4.892 2.458
1.298 4.887 2.409
1.417 4.626 2.532
1.357 4.083 2.353
1.602 3.865 2.764
2.030 3.891 2.464
2.222 3.535 2.761
2.277 3.462 2.926
2.536 3.362 2.774
0.704 5.334 2.083
0.950 4.794 1.939
0.829 4.847 1.904
1.167 4.588 2.287
1.284 4.303 2.104
1.672 4.161 2.114
1.572 3.900 2.518
1.780 3.877 2.261
1.902 3.399 2.580
2.342 3.085 2.465
2.524 2.872 2.474
1.059 4.070 1.954
1.552 4.197 2.213
1.428 3.924 1.932
1.560 3.572 2.176
1.775 3.550 2.301
2.128 3.260 2.437
2.438 2.891 2.197
1.415 3.619 1.711
1.542 3.389 2.071
1.904 3.295 2.038
1.980 3.073 1.965
2.152 2.657 2.237
1.841 3.150 1.763
1.717 3.015 1.641
1.812 2.694 2.008
2.384 2.865 1.665
1.706 2.916 1.551
1.763 2.841 1.422
2.108 2.447 1.795
1.946 2.617 1.175
2.238 2.620 1.346
1.440 5.622 3.806
1.330 5.427 3.908
0.963 6.085 3.509
0.920 5.577 3.640
1.368 5.464 3.751
1.414 5.358 3.545
1.494 5.116 3.790
1.696 5.000 3.972
1.112 6.170 3.275
1.502 6.071 3.500
1.681 5.864 3.584
1.857 5.418 3.376
1.743 5.319 3.561
1.042 6.158 3.224
1.202 5.977 3.155
1.097 5.898 3.060
1.486 5.442 3.312
1.766 5.377 3.250
1.690 5.149 3.284
1.826 4.836 3.333
0.831 6.477 2.869
1.062 6.139 2.610
1.019 5.766 2.685
1.253 5.758 2.796
1.254 5.469 3.096
1.714 5.265 2.886
1.863 5.132 3.237
2.072 4.799 3.202
2.060 4.436 3.318
0.420 6.256 2.589
0.925 5.831 2.357
0.858 5.820 2.426
1.233 5.644 2.620
1.410 5.337 2.812
1.527 5.181 2.744
1.721 4.982 3.019
1.930 4.729 2.957
2.156 4.240 2.962
2.428 4.240 2.983
0.190 6.329 2.080
0.635 6.109 2.384
0.667 5.921 2.095
1.048 5.575 2.364
1.036 5.196 2.555
1.473 5.217 2.488
1.359 4.821 2.377
1.628 4.653 2.393
1.644 4.385 2.458
1.843 4.276 2.686
2.373 4.245 2.881
2.550 4.042 2.972
2.621 3.844 2.806
0.286 6.177 2.034
0.349 5.938 1.779
0.649 5.620 1.969
1.044 5.596 1.997
1.180 5.233 2.215
1.199 4.939 2.292
1.255 4.666 2.233
1.671 4.440 2.209
1.884 4.470 2.523
1.966 4.271 2.444
2.214 4.107 2.714
2.074 3.707 2.620
2.353 3.382 2.578
2.829 3.282 2.900
0.014 6.166 1.666
0.283 5.893 1.591
0.244 5.763 1.580
0.471 5.473 1.676
0.641 5.244 1.671
0.945 5.284 1.827
1.206 5.088 2.167
1.434 4.670 1.930
1.290 4.519 2.235
1.717 4.348 2.224
1.709 4.136 2.064
2.223 3.913 2.382
2.378 3.469 2.326
2.423 3.551 2.337
2.423 3.132 2.420
0.255 6.249 1.714
0.068 6.041 1.433
0.206 6.068 1.470
0.300 5.449 1.512
1.788 4.339 2.041
1.998 3.777 2.161
2.052 3.771 2.111
2.061 3.687 1.905
2.161 3.220 2.234
2.493 3.276 2.136
-0.120 6.107 1.306
1.929 3.559 1.983
1.971 3.226 1.820
2.437 3.166 2.109
2.476 2.860 1.847
1.848 3.433 1.499
2.314 2.880 1.683
2.325 2.967 1.710
2.103 2.786 1.365
2.155 2.586 1.411
2.217 2.727 1.047
1.557 5.964 3.623
1.750 5.916 3.735
1.283 6.033 3.440
1.236 5.803 3.540
1.344 5.585 3.365
1.890 5.660 3.714
1.846 5.338 3.793
5.006 1.435 4.650
5.287 1.479 4.712
5.196 1.243 4.866
5.534 0.797 4.883
5.741 0.848 4.781
5.887 0.399 5.141
4.626 1.751 4.321
4.846 1.503 4.249
4.882 1.371 4.399
5.261 0.996 4.561
5.390 0.688 4.597
5.742 0.563 4.784
5.621 0.563 4.597
6.019 0.236 4.824
4.223 2.004 3.861
4.419 1.503 3.938
4.651 1.410 4.083
4.842 1.345 4.468
5.193 1.166 4.245
5.265 0.875 4.410
5.630 0.506 4.662
5.693 0.471 4.639
5.721 0.171 4.446
4.380 1.937 3.627
4.542 1.723 3.655
4.389 1.582 3.718
4.578 1.239 4.041
4.741 0.955 4.085
5.109 0.851 4.062
5.176 0.465 4.146
5.627 0.366 4.194
5.534 0.219 4.328
4.150 1.714 3.848
3.942 1.839 3.613
4.463 1.607 3.535
4.278 1.553 3.682
4.791 1.248 3.713
4.691 0.974 3.819
5.153 0.539 3.982
5.022 0.532 4.100
5.297 0.140 3.946
5.738 0.186 4.234
3.663 2.266 3.201
3.981 1.816 3.246
4.159 1.740 3.483
4.131 1.441 3.093
4.127 1.527 3.438
4.559 1.052 3.380
4.799 1.007 3.329
4.734 0.765 3.571
5.027 0.388 3.378
5.152 0.462 3.564
5.494 0.051 3.872
2.869 3.032 2.998
3.010 3.026 2.782
2.993 2.576 2.951
3.150 2.349 3.074
3.560 2.150 2.984
3.656 1.973 3.069
3.737 2.048 3.159
4.053 1.506 3.459
3.888 1.427 3.169
4.299 1.282 3.284
4.362 0.998 2.973
4.492 0.774 3.123
4.829 0.829 3.347
4.970 0.322 3.287
5.113 0.337 3.430
5.210 0.230 3.498
2.676 3.188 2.428
3.076 2.581 2.420
3.197 2.506 2.615
3.308 2.503 2.785
3.382 2.033 2.764
3.780 1.878 2.778
3.984 1.888 3.050
4.125 1.723 3.209
3.765 1.532 2.753
4.221 1.265 2.939
4.380 1.165 3.081
2.488 2.717 2.499
2.709 2.746 2.551
3.212 2.564 2.589
3.047 2.038 2.663
3.456 1.851 2.451
3.498 1.634 2.848
3.625 1.632 2.819
4.144 1.228 2.835
3.867 1.366 2.582
2.498 2.939 2.029
3.017 2.527 1.962
2.985 2.138 2.229
2.975 2.180 2.229
3.155 1.716 2.402
3.553 1.846 2.402
3.587 1.534 2.651
3.886 1.267 2.334
2.703 2.479 1.796
2.713 2.238 1.871
2.781 2.273 1.939
2.890 2.079 1.829
3.372 1.888 1.965
3.509 1.473 2.283
3.442 1.333 2.181
2.679 2.395 1.701
2.494 2.218 1.648
2.694 2.047 1.877
3.225 1.800 1.766
3.363 1.719 2.027
3.567 1.622 1.971
2.453 2.555 1.410
2.711 2.149 1.573
2.952 1.965 1.493
3.062 1.599 1.357
3.220 1.578 1.509
2.533 1.857 1.168
2.941 1.774 1.152
5.162 1.419 5.248
5.333 0.923 5.166
5.100 1.820 4.642
5.102 1.270 4.588
5.396 1.040 4.717
5.467 0.928 4.735
5.686 0.985 5.069
5.940 0.385 5.132
4.857 1.878 4.301
5.260 1.987 4.725
5.288 1.553 4.806
5.654 1.555 4.602
5.825 1.040 4.947
5.733 0.767 4.685
4.734 2.019 4.195
4.862 1.653 4.221
4.959 1.566 4.488
5.065 1.602 4.236
5.552 1.185 4.502
5.663 1.215 4.692
5.609 0.783 4.708
5.776 0.515 4.449
4.309 1.960 4.059
4.502 1.771 3.943
4.941 1.722 4.049
5.046 1.559 4.165
5.037 1.498 4.106
5.271 0.908 4.228
5.682 0.699 4.215
5.632 0.675 4.139
5.743 0.257 4.298
6.272 0.259 4.560
4.271 2.054 3.766
4.468 2.119 3.682
4.422 1.941 3.725
4.794 1.672 3.923
4.830 1.284 3.836
5.243 1.268 3.876
5.295 1.001 4.073
5.435 0.746 4.195
5.788 0.496 4.135
5.956 0.283 4.049
6.201 0.232 4.153
4.294 2.175 3.670
4.448 1.904 3.471
4.430 1.998 3.281
4.467 1.668 3.637
4.570 1.550 3.567
4.881 1.457 3.633
4.987 0.972 3.662
5.039 0.940 3.714
5.348 0.473 3.572
5.699 0.531 3.812
5.799 0.105 3.723
3.689 2.726 3.131
4.183 2.538 3.236
4.373 2.241 3.189
4.320 2.015 3.193
4.397 1.770 3.144
4.499 1.420 3.103
4.749 1.339 3.400
4.829 1.001 3.257
4.891 0.817 3.195
5.201 0.821 3.529
5.261 0.488 3.440
5.675 0.428 3.702
5.653 0.041 3.725
3.213 3.152 2.882
3.170 3.054 2.695
3.421 2.951 2.893
3.407 2.494 2.701
3.647 2.298 3.119
3.800 2.088 2.961
4.003 2.072 3.205
4.356 1.610 2.985
4.425 1.794 3.024
4.602 1.294 2.827
4.767 1.389 2.963
4.897 1.190 3.172
5.109 0.587 3.164
5.122 0.375 3.340
5.086 0.189 3.276
5.597 0.367 3.523
2.850 3.306 2.498
3.315 2.941 2.346
3.531 2.836 2.620
3.547 2.298 2.673
3.707 2.094 2.731
3.851 2.159 2.767
3.914 1.783 2.981
4.064 1.563 3.011
4.016 1.562 2.830
4.133 1.376 2.774
4.567 1.264 2.581
4.763 0.836 3.032
2.764 3.052 2.307
2.991 2.851 2.278
3.148 2.771 2.300
3.272 2.316 2.480
3.699 2.067 2.644
3.970 2.070 2.483
4.102 1.543 2.723
4.095 1.571 2.587
4.074 1.604 2.558
4.231 1.251 2.315
2.702 2.736 1.803
2.845 2.576 1.807
3.297 2.407 2.173
3.258 2.404 1.986
3.486 2.042 2.225
3.886 1.813 2.121
4.069 1.497 2.323
4.077 1.303 2.431
4.022 1.384 2.312
2.921 2.752 1.571
3.117 2.347 1.886
3.271 2.432 1.765
3.423 2.230 1.870
3.329 1.984 1.886
3.619 1.536 2.053
3.913 1.292 2.055
3.915 1.164 2.081
2.900 2.558 1.567
3.081 2.533 1.540
2.963 2.104 1.730
3.228 2.147 1.655
3.562 1.748 1.896
3.669 1.735 1.571
3.638 1.208 1.814
2.785 2.463 1.008
2.973 2.092 1.119
3.184 2.121 1.534
3.386 1.815 1.389
3.226 1.812 1.628
3.519 1.338 1.625
2.852 1.764 1.000
2.974 1.532 1.243
5.239 1.863 4.748
5.481 1.309 5.033
5.022 2.083 4.651
5.104 1.597 4.400
5.453 1.619 4.744
5.549 1.407 4.669
5.794 1.206 4.730
6.005 1.115 4.779
5.055 2.169 4.285
5.021 2.109 4.554
5.456 1.810 4.428
5.444 1.810 4.433
5.620 1.560 4.759
5.942 1.367 4.815
5.942 1.138 4.758
4.909 2.577 3.999
5.094 2.136 3.963
5.163 1.815 4.011
5.428 1.710 4.111
5.289 1.368 4.353
5.760 1.553 4.438
5.877 0.940 4.237
5.823 1.143 4.238
4.739 2.527 4.007
4.714 2.320 3.622
4.697 1.913 3.903
5.248 2.026 3.769
5.221 1.756 4.024
5.598 1.541 4.195
5.643 1.392 4.256
5.887 1.084 4.323
5.829 0.649 4.039
5.923 0.589 4.397
4.544 2.333 3.507
4.884 2.116 3.777
4.449 2.375 3.426
4.873 1.817 3.620
5.095 1.573 3.742
4.955 1.538 3.663
5.139 1.523 3.673
5.399 1.124 3.903
5.842 0.818 3.922
5.805 0.647 3.819
5.954 0.359 4.210
4.354 2.523 3.469
4.306 2.521 3.340
4.676 2.061 3.608
4.605 2.011 3.182
4.838 1.661 3.306
4.826 1.419 3.401
5.178 1.439 3.650
5.380 1.368 3.704
5.386 0.811 3.471
5.800 0.630 3.771
5.786 0.633 3.903
6.172 0.406 3.561
4.144 2.710 2.861
4.347 2.364 3.243
4.539 2.228 3.385
4.714 1.888 3.155
4.570 1.870 3.119
4.648 1.750 3.050
4.723 1.562 3.170
4.981 1.090 3.323
5.245 0.961 3.415
5.341 0.682 3.147
5.535 0.585 3.593
5.544 0.347 3.535
3.702 3.137 2.628
3.575 2.707 2.649
3.835 2.518 2.899
4.217 2.516 2.684
4.387 2.237 2.968
4.356 1.832 3.207
4.512 1.933 2.833
4.638 1.761 2.832
4.794 1.242 3.067
5.148 1.261 3.064
5.120 0.905 3.000
5.298 0.769 3.037
3.040 3.365 2.165
3.365 3.006 2.354
3.713 3.058 2.513
3.605 2.750 2.652
3.818 2.263 2.556
4.280 2.299 2.683
4.399 2.070 2.569
4.447 1.664 2.960
4.459 1.806 2.327
4.626 1.519 2.567
4.745 1.238 2.525
4.758 1.149 2.674
3.014 3.186 1.964
3.264 2.786 2.168
3.460 2.754 2.378
3.505 2.408 2.151
3.853 2.268 2.307
3.877 1.961 2.374
4.026 1.874 2.386
4.248 1.711 2.320
4.438 1.535 2.283
4.682 1.330 2.319
4.854 0.936 2.489
3.099 3.102 1.997
3.252 2.956 1.860
3.403 2.747 1.897
3.598 2.441 1.907
3.828 2.025 1.916
4.038 1.967 2.272
3.924 1.954 2.297
4.483 1.571 2.311
4.386 1.287 2.149
4.525 1.224 1.917
3.050 2.999 1.534
3.002 2.581 1.648
3.263 2.624 1.714
3.463 2.055 1.891
3.495 2.178 1.763
3.793 1.928 2.043
4.253 1.787 1.940
4.367 1.354 1.888
4.201 1.317 1.580
2.742 2.775 1.319
2.909 2.365 1.465
3.313 2.406 1.566
3.643 2.017 1.607
3.736 2.049 1.368
3.758 1.701 1.836
4.015 1.486 1.765
4.225 1.209 1.923
2.718 2.532 1.228
3.087 2.419 1.187
3.372 2.009 1.182
3.232 1.839 1.110
3.480 1.660 1.517
3.930 1.551 1.348
3.915 1.224 1.272
3.120 1.921 0.818
3.502 2.079 0.940
3.454 1.586 1.056
3.587 1.268 1.251
5.107 2.254 4.574
5.454 1.900 4.670
5.437 1.922 4.850
5.840 1.609 4.618
4.919 2.374 4.148
5.361 1.981 4.233
5.325 1.842 4.489
5.392 1.785 4.462
5.762 1.295 4.463
5.984 1.321 4.671
5.951 0.974 4.796
5.173 2.682 4.288
5.208 2.324 4.025
5.350 2.353 4.147
5.417 2.018 4.381
5.826 1.952 4.441
6.092 1.607 4.369
5.886 1.237 4.543
4.900 2.613 4.067
5.120 2.733 4.018
5.321 2.434 4.140
5.495 2.165 4.146
5.494 1.976 4.153
5.764 1.721 4.244
5.818 1.299 4.263
6.051 1.111 4.441
6.187 1.030 4.425
4.990 2.589 3.662
4.827 2.475 3.744
5.263 2.018 3.709
5.346 2.084 3.704
5.375 1.874 3.649
5.664 1.721 3.674
5.889 1.436 3.767
5.915 1.030 4.043
6.349 0.921 4.257
4.624 2.593 3.434
4.810 2.292 3.503
4.663 2.370 3.271
4.982 2.102 3.567
5.345 2.075 3.595
5.374 1.877 3.755
5.762 1.328 3.845
5.872 1.117 3.867
5.929 1.037 3.688
6.110 0.662 3.995
4.474 2.667 3.082
4.861 2.410 3.217
4.967 2.145 3.497
4.622 2.065 3.195
4.774 1.796 3.069
5.216 1.945 3.456
5.483 1.492 3.483
5.691 1.542 3.511
5.466 1.225 3.259
5.702 1.058 3.622
4.254 2.810 3.018
4.201 2.588 2.926
4.682 2.322 3.060
4.729 2.009 3.083
4.814 2.127 3.054
4.988 2.040 2.977
4.876 1.604 3.143
5.097 1.246 3.227
5.363 1.406 3.020
5.749 1.052 3.370
5.931 0.583 3.153
4.008 2.928 2.820
4.355 2.846 2.755
4.370 2.475 2.607
4.622 2.235 2.728
4.909 2.189 2.997
4.697 1.839 2.511
4.719 1.835 2.650
5.179 1.572 2.950
5.391 1.348 2.932
5.537 1.071 2.995
3.708 3.107 2.040
3.761 2.800 2.252
3.873 2.896 2.396
4.069 2.627 2.236
4.168 2.325 2.347
4.447 2.069 2.601
4.640 1.754 2.665
4.430 1.771 2.216
4.797 1.606 2.315
5.048 1.585 2.589
4.924 1.055 2.747
3.613 3.242 1.869
3.839 2.893 2.206
3.847 2.810 2.269
3.888 2.493 2.276
4.056 2.343 2.167
4.277 1.849 2.530
4.750 1.918 2.494
4.446 1.495 2.112
4.526 1.351 2.378
4.787 1.155 2.068
3.125 3.382 1.876
3.351 2.883 1.891
3.508 2.954 1.759
3.925 2.423 2.002
3.822 2.193 2.107
4.232 1.950 2.187
4.489 1.829 1.896
4.734 1.879 2.252
4.401 1.526 1.929
4.605 1.445 1.964
3.405 3.022 1.338
3.193 2.867 1.440
3.454 2.422 1.617
3.897 2.377 1.649
3.910 2.343 1.788
4.228 2.051 1.819
4.166 1.858 1.907
4.440 1.618 1.890
4.486 1.321 1.833
3.203 2.834 1.322
3.319 2.818 1.163
3.654 2.579 1.465
3.489 2.319 1.386
3.866 2.170 1.598
3.862 2.045 1.348
4.273 1.497 1.701
4.288 1.319 1.470
4.452 1.443 1.421
3.212 2.751 1.078
3.351 2.505 1.283
3.670 2.200 1.199
3.853 1.881 1.097
4.146 1.742 1.385
4.217 1.316 1.464
4.232 1.236 1.188
3.191 2.116 0.660
3.477 2.226 0.755
3.896 1.946 1.104
4.050 1.414 0.868
4.304 1.367 0.868
3.639 1.698 0.477
3.542 1.720 0.691
3.764 1.386 0.782
5.466 2.723 4.428
5.599 2.476 4.302
5.511 2.307 4.425
5.665 2.026 4.630
6.185 1.698 4.622
5.017 2.866 3.926
5.411 2.612 4.387
5.542 2.124 4.276
5.654 1.904 4.197
5.838 1.682 4.241
6.003 1.559 4.263
6.094 1.484 4.374
5.214 2.563 4.295
5.404 2.959 3.858
5.377 2.541 4.145
5.600 2.575 3.930
5.825 2.048 4.156
5.975 1.813 4.152
6.140 1.815 4.430
5.368 2.885 3.891
5.213 2.669 3.846
5.225 2.617 3.853
5.350 2.406 3.674
5.693 1.862 4.020
5.737 1.886 4.167
5.916 1.610 3.990
6.304 1.377 4.023
5.166 3.068 3.659
5.241 2.521 3.876
5.292 2.402 3.695
5.104 2.205 3.700
5.375 2.186 3.538
5.527 1.741 3.764
5.738 1.625 3.861
5.811 1.720 3.863
6.390 1.338 3.681
4.937 2.940 3.514
5.148 2.630 3.300
5.224 2.556 3.263
5.268 2.167 3.279
5.348 2.187 3.560
5.666 1.934 3.347
5.613 1.546 3.591
5.749 1.236 3.625
6.258 1.150 3.699
4.668 3.051 3.104
4.869 2.755 3.076
4.996 2.352 3.259
5.106 2.175 2.966
5.057 2.123 3.119
5.384 1.866 3.190
5.498 1.532 3.257
5.548 1.412 3.332
5.706 1.085 3.306
4.475 2.578 3.011
4.829 2.661 3.099
4.832 2.421 2.946
4.942 1.993 2.711
5.240 1.796 2.770
5.405 1.950 3.041
5.640 1.614 3.152
5.745 1.233 3.029
5.782 1.011 3.255
4.422 2.728 2.439
4.373 2.821 2.682
4.885 2.344 2.680
4.883 2.132 2.953
4.965 2.069 2.644
5.046 1.973 2.674
5.185 1.557 2.504
5.515 1.496 2.782
3.772 3.234 2.150
4.284 2.979 2.073
4.517 2.544 2.487
4.472 2.705 2.169
4.733 2.365 2.434
4.989 1.965 2.438
4.862 1.902 2.333
4.909 1.550 2.376
5.321 1.433 2.508
3.855 3.223 2.020
3.909 2.625 2.104
4.219 2.667 1.896
4.624 2.528 2.060
4.404 2.245 2.135
4.768 1.822 2.095
4.525 1.696 1.915
4.955 1.490 2.252
4.913 1.526 2.118
3.808 2.913 1.686
3.701 2.919 1.818
3.913 2.634 1.820
4.269 2.402 2.024
4.387 2.429 1.901
4.544 2.102 1.823
4.697 1.735 2.060
4.645 1.782 1.674
4.825 1.554 1.695
3.549 3.034 1.286
3.828 2.826 1.339
4.129 2.548 1.484
4.338 2.246 1.434
4.232 2.258 1.486
4.565 2.083 1.645
4.510 1.480 1.771
4.801 1.610 1.567
4.848 1.215 1.674
3.347 2.939 1.246
3.683 2.541 1.360
4.090 2.260 1.179
4.058 2.080 1.330
4.234 2.000 1.518
4.545 1.669 1.522
4.647 1.499 1.662
4.432 1.304 1.109
3.630 2.628 0.967
3.694 2.328 0.802
3.750 2.104 1.109
3.996 2.164 0.954
4.315 1.830 1.192
4.340 1.664 1.315
4.430 1.500 1.184
4.667 1.192 1.026
3.451 2.526 0.479
3.703 2.172 0.724
3.589 2.255 0.554
4.122 1.804 0.937
4.008 1.937 0.963
4.291 1.695 0.848
4.463 1.511 1.130
4.320 0.993 0.905
3.572 2.093 0.278
3.911 2.020 0.307
3.691 1.614 0.473
4.027 1.438 0.849
4.255 1.574 0.540
4.246 1.234 0.963
3.712 1.655 0.270
4.111 1.421 0.597
4.040 1.302 0.303
5.459 3.013 4.379
5.459 2.829 4.508
5.816 2.438 4.446
6.042 2.142 4.584
6.224 2.154 4.352
6.305 1.876 4.613
5.216 2.933 4.335
5.056 2.961 3.986
5.605 2.822 4.189
5.530 2.297 3.990
5.969 2.082 4.275
5.850 1.796 4.305
6.004 1.889 4.407
5.404 2.720 3.791
5.495 2.811 4.064
5.601 2.941 3.768
5.960 2.666 4.065
6.160 2.415 3.849
6.342 2.066 4.142
5.337 3.379 3.673
5.488 3.111 4.040
5.587 2.745 3.454
5.620 2.835 3.836
5.867 2.516 3.922
5.917 2.141 4.017
6.187 2.015 3.722
6.207 1.973 4.035
5.236 3.104 3.767
5.493 2.641 3.797
5.381 2.699 3.485
5.619 2.709 3.648
5.599 2.158 3.658
5.716 1.915 3.389
6.216 1.784 3.643
6.203 1.871 3.870
5.111 2.874 3.220
5.147 2.933 3.198
5.423 2.712 3.064
5.585 2.548 3.029
5.746 2.138 3.275
5.881 2.123 3.247
6.105 1.766 3.179
6.256 1.505 3.488
5.183 2.666 2.932
5.369 2.586 3.017
5.119 2.279 2.949
5.587 2.072 3.148
5.727 2.035 2.841
5.907 1.961 3.116
5.936 1.747 3.114
5.964 1.565 3.377
5.018 2.832 2.822
5.063 2.631 2.625
5.174 2.378 2.949
5.281 2.440 2.456
5.115 2.173 2.784
5.688 1.999 2.637
5.525 1.500 2.832
6.044 1.556 3.044
4.603 2.936 2.251
4.710 2.881 2.612
4.795 2.465 2.763
4.921 2.397 2.767
5.201 2.034 2.367
5.051 2.199 2.472
5.633 1.980 2.488
5.554 1.625 2.764
4.163 2.909 1.983
4.389 2.852 2.283
4.584 2.504 2.160
5.035 2.274 2.244
4.912 2.182 2.261
5.110 2.139 2.098
5.363 2.070 2.054
5.191 1.733 2.113
4.101 3.297 1.617
4.202 3.044 1.757
4.299 2.682 2.031
4.646 2.589 2.125
4.876 2.464 1.927
4.809 2.173 2.223
5.086 2.120 2.054
4.987 1.888 1.743
4.019 2.825 1.624
4.354 2.980 1.445
4.352 2.471 1.838
4.509 2.317 1.906
4.809 2.139 1.711
4.749 1.976 1.968
4.768 1.745 1.531
5.136 1.566 1.861
3.753 3.212 1.264
3.803 3.021 1.281
4.059 2.691 1.383
4.269 2.496 1.481
4.703 2.239 1.511
4.864 2.117 1.651
5.080 2.006 1.533
4.939 1.729 1.331
5.125 1.351 1.484
3.951 2.990 1.099
3.901 2.971 0.981
4.302 2.376 1.279
4.349 2.376 1.024
4.436 2.061 1.345
4.641 1.922 1.511
4.924 1.612 1.573
4.730 1.683 1.016
5.074 1.305 0.993
3.664 2.834 0.567
4.061 2.671 0.871
4.172 2.306 0.888
4.287 2.246 1.000
4.325 2.159 0.836
4.481 1.792 1.114
4.888 1.438 1.017
4.707 1.533 0.931
3.587 2.586 0.565
3.660 2.584 0.398
4.136 2.140 0.452
4.281 1.992 0.835
4.272 2.036 0.771
4.653 1.708 0.683
4.636 1.333 0.861
4.472 1.223 0.687
3.580 2.266 0.197
4.078 2.050 0.432
4.130 1.926 0.241
4.320 1.950 0.411
4.624 1.582 0.727
4.722 1.112 0.651
4.704 1.177 0.260
3.762 2.329 -0.027
3.652 1.937 -0.057
4.065 1.753 0.194
4.121 1.537 0.320
4.260 1.433 0.485
4.366 1.188 0.427
4.452 1.271 0.247
4.741 1.007 0.415
4.186 1.573 0.101
4.334 1.391 0.201
4.484 1.157 0.017
5.636 3.301 4.028
5.692 2.801 4.127
5.658 2.879 4.421
6.225 2.434 4.148
6.312 2.112 4.284
5.398 3.090 4.011
5.366 2.942 3.858
5.653 2.621 3.850
5.956 2.512 4.031
6.162 2.384 4.148
6.304 2.325 3.958
5.120 3.233 4.014
5.455 3.042 3.688
5.619 2.992 3.785
5.850 2.780 3.630
5.876 2.499 3.917
6.021 2.365 3.814
5.686 3.183 3.678
5.849 2.914 3.545
5.638 2.910 3.503
5.571 2.919 3.548
6.163 2.389 3.630
6.044 2.161 3.728
5.559 2.983 3.672
5.440 2.781 3.133
5.842 2.574 3.300
5.832 2.390 3.477
5.936 2.098 3.228
6.294 2.204 3.330
5.461 2.868 3.209
5.427 2.844 2.856
5.522 2.674 3.048
5.918 2.136 3.141
6.105 2.205 3.336
6.382 1.807 3.388
5.452 2.917 2.821
5.540 2.528 2.863
5.681 2.439 2.906
5.878 2.274 3.087
5.989 1.799 3.043
5.406 2.868 2.792
5.623 2.643 2.755
5.442 2.424 2.421
5.388 2.313 2.680
5.589 2.122 2.445
5.086 2.901 2.626
5.362 2.523 2.397
5.361 2.564 2.384
5.257 1.978 2.255
4.967 2.802 2.081
5.082 2.686 2.180
5.277 2.481 2.444
5.038 2.195 2.156
5.363 2.121 1.979
4.761 3.004 1.806
4.948 2.709 2.084
5.159 2.596 2.032
5.149 2.206 2.080
5.277 2.181 1.828
4.245 3.001 1.316
4.498 3.027 1.697
4.792 2.951 1.701
4.875 2.606 1.566
5.036 2.167 1.865
5.106 2.112 1.573
5.271 1.892 1.391
4.094 2.873 1.318
4.319 2.692 1.378
4.671 2.538 1.503
4.545 2.292 1.463
4.810 2.310 1.491
4.921 1.857 1.404
4.853 1.910 1.362
3.749 3.321 1.011
4.274 2.775 0.883
4.274 2.878 0.848
4.663 2.485 1.254
4.473 2.405 1.065
4.648 2.153 1.400
5.098 1.774 1.280
4.836 1.808 0.865
5.315 1.695 1.278
3.940 2.937 0.756
3.924 2.697 0.480
4.325 2.594 0.731
4.344 2.321 0.700
4.539 2.124 0.851
4.637 1.782 1.129
5.070 1.738 0.899
4.893 1.570 0.645
5.299 1.212 0.920
3.841 2.828 0.524
4.215 2.739 0.398
4.407 2.637 0.659
4.342 2.202 0.430
4.681 1.837 0.564
4.889 1.869 0.711
4.794 1.591 0.734
4.699 1.385 0.361
4.923 1.199 0.772
3.709 2.929 -0.046
3.910 2.735 0.388
3.995 2.172 0.108
4.135 2.249 0.149
4.297 2.021 0.573
4.597 1.762 0.357
5.001 1.299 0.434
4.966 1.227 0.406
4.888 1.119 0.495
4.040 2.192 -0.043
4.056 2.049 0.248
4.531 1.815 0.184
4.605 1.447 0.182
4.660 1.144 0.382
4.856 1.034 -0.079
4.887 1.208 0.280
5.021 0.576 0.011
4.687 1.408 0.148
5.559 3.349 4.003
5.907 3.124 3.944
5.904 3.004 4.324
6.182 2.486 3.980
5.465 3.312 4.099
5.560 3.093 3.971
5.666 3.146 3.927
6.048 2.970 3.655
6.063 2.578 3.895
6.037 2.632 4.043
5.284 3.414 3.535
5.652 3.051 3.555
6.034 3.285 3.636
5.992 3.074 3.764
6.073 2.784 3.824
6.011 3.432 3.622
5.968 3.267 3.538
6.093 3.004 3.405
5.993 2.811 3.531
5.956 3.174 3.564
5.710 3.192 3.080
6.007 3.003 3.111
5.997 2.467 3.357
5.628 2.854 3.135
5.893 2.812 3.110
5.938 2.641 2.837
6.409 2.375 2.871
4.952 2.870 1.462
5.195 2.536 1.668
5.236 2.465 1.511
5.449 1.979 1.518
4.219 3.258 1.194
4.738 3.134 0.983
4.960 2.751 1.015
4.862 2.488 1.317
4.990 2.401 1.197
5.138 2.285 1.366
5.264 1.845 1.129
3.991 3.470 0.796
4.236 3.063 0.972
4.549 2.854 0.907
4.853 2.565 0.898
5.027 2.274 0.992
5.184 2.378 0.890
5.391 1.962 1.322
5.021 1.710 0.908
4.109 2.946 0.503
4.465 3.067 0.767
4.362 2.572 0.524
4.531 2.540 0.826
4.937 2.320 0.796
4.898 1.879 0.755
5.294 1.986 0.697
4.967 1.813 0.737
5.203 1.549 0.774
3.842 3.021 0.093
4.042 2.915 0.176
4.371 2.704 0.208
4.737 2.161 0.281
4.756 2.139 0.565
4.938 1.816 0.782
5.099 1.594 0.810
5.047 1.586 0.218
5.068 1.258 0.456
3.902 2.860 0.204
4.232 2.846 0.228
4.359 2.503 0.132
4.664 2.069 0.233
4.737 2.116 0.459
4.892 1.667 0.246
5.024 1.705 0.367
4.961 1.389 0.247
5.088 1.290 0.347
5.394 0.910 0.251
4.655 2.011 0.179
4.655 1.716 0.116
5.140 1.517 -0.004
5.320 1.103 0.007
6.063 3.478 3.679
6.124 3.331 3.723
5.920 3.688 3.934
5.841 3.544 3.855
6.075 3.212 3.645
5.871 3.116 3.815
6.242 2.737 3.615
6.070 3.112 3.581
6.081 3.539 3.612
6.249 3.058 3.707
6.079 3.517 3.290
6.057 3.071 3.119
4.604 3.274 1.057
4.938 2.762 1.081
5.316 2.550 0.920
4.492 3.140 0.514
4.863 3.174 0.562
5.077 2.561 0.929
4.926 2.519 0.824
5.461 2.217 0.739
5.537 1.909 0.621
4.288 3.436 0.550
4.715 3.148 0.323
4.894 2.870 0.370
4.717 2.742 0.719
4.979 2.514 0.590
5.376 2.166 0.838
5.249 1.848 0.686
5.447 1.917 0.568
3.981 3.217 -0.065
4.234 2.970 0.187
4.334 3.015 0.335
4.701 2.795 0.410
4.683 2.468 0.118
5.007 2.339 0.295
5.041 2.124 0.443
5.398 1.954 0.456
5.223 1.765 0.220
5.479 1.347 0.393
4.593 2.657 -0.076
4.710 2.250 0.121
5.100 2.264 0.232
5.293 1.788 0.127
5.365 1.692 0.352
5.011 1.804 -0.012
5.564 1.284 -0.123
5.440 1.137 0.273
5.360 1.443 0.016
6.012 3.587 3.544
6.257 3.687 3.878
6.007 3.296 3.600
6.259 3.193 3.345
6.286 3.214 3.390
4.848 3.431 0.363
5.143 3.035 0.780
4.989 3.078 0.625
5.514 2.606 0.599
4.479 3.675 0.100
4.733 3.594 0.188
4.910 3.386 0.260
4.812 2.916 0.524
5.068 2.606 0.341
5.361 2.653 0.505
5.273 2.238 0.497
5.634 2.019 0.415
4.580 3.230 -0.009
4.983 2.684 0.301
4.933 2.806 0.357
5.084 2.514 0.338
5.330 2.098 0.517
5.632 2.164 0.480
5.322 1.717 0.121
5.823 1.588 0.140
5.292 2.133 0.011
5.442 1.974 -0.002
5.357 1.829 0.254
5.772 1.269 -0.173
4.892 3.323 0.379
5.341 3.434 0.547
4.363 3.897 0.138
4.566 3.534 0.297
4.953 3.348 0.198
4.910 3.162 0.316
5.086 3.063 0.109
5.396 2.888 0.583
5.225 3.186 0.156
5.054 2.726 0.069
5.589 2.381 0.278
5.732 2.574 0.407
5.832 2.071 0.031
5.731 1.929 0.209
5.036 3.643 0.042
5.382 3.504 0.292
5.308 3.582 -0.144
5.478 3.312 -0.058
5.413 3.237 0.017
5.810 2.766 0.142
5.206 4.044 -0.070
5.197 4.118 0.273
3.406 0.122 5.622
0.886 1.400 2.786
1.006 1.187 2.588
0.763 1.331 2.540
0.867 1.364 2.225
0.891 1.077 2.338
0.896 0.651 2.522
0.687 1.114 2.116
0.736 0.808 2.105
1.099 0.712 2.031
1.170 0.303 2.349
0.404 0.884 1.904
0.718 0.804 1.978
1.059 0.377 1.986
1.250 0.141 1.873
0.746 0.849 1.544
0.597 0.587 1.751
0.694 0.507 1.782
1.290 0.156 1.854
0.456 0.718 1.404
0.851 0.591 1.469
0.827 0.379 1.493
0.295 0.395 1.238
0.671 0.521 1.244
0.810 0.203 1.220
0.206 0.575 0.911
3.416 0.341 6.201
3.565 0.380 6.209
3.714 0.213 5.801
3.816 0.085 5.637
4.087 -0.122 5.876
3.780 0.296 5.477
1.118 1.725 2.888
1.358 1.466 2.910
1.019 1.429 2.647
1.258 1.240 2.421
1.284 1.066 2.579
0.845 1.419 2.225
1.336 1.291 2.355
1.403 0.916 2.508
0.985 1.279 1.893
1.259 1.160 1.942
1.402 0.891 2.265
0.814 1.127 1.575
1.020 1.026 1.722
1.132 0.775 1.943
0.939 1.190 1.353
0.899 0.725 1.563
1.043 0.442 1.724
0.791 0.930 1.158
0.745 0.476 1.110
0.692 0.595 1.157
1.017 0.555 1.123
3.810 0.194 6.023
3.813 0.105 6.063
3.609 0.029 5.680
4.088 -0.011 5.626
3.884 0.286 5.496
4.284 0.006 5.447
3.736 0.227 5.219
4.005 0.126 5.469
1.456 1.742 2.897
1.318 1.690 2.915
1.121 1.876 2.453
1.489 1.678 2.728
1.124 1.763 2.341
1.197 1.274 2.517
1.435 1.154 2.438
1.248 1.330 2.042
1.310 1.201 1.932
1.582 1.059 2.237
0.904 1.388 1.720
1.318 1.166 2.029
1.545 1.113 1.822
0.918 1.052 1.447
1.142 0.983 1.642
1.544 0.663 1.743
1.064 0.959 1.141
1.172 0.885 1.235
1.098 0.906 1.086
0.917 0.786 1.105
0.765 1.056 0.795
3.955 0.666 5.850
4.332 0.096 5.816
4.351 0.043 5.832
3.870 0.414 5.745
4.001 0.196 5.802
4.192 0.707 5.623
4.415 0.190 5.660
4.487 -0.087 5.549
4.042 0.361 5.420
4.433 0.078 5.421
3.878 0.185 4.955
4.267 0.053 5.236
1.594 2.106 3.024
1.453 2.318 2.732
1.769 1.771 2.965
1.647 2.102 2.640
1.634 1.714 2.614
1.464 1.761 2.519
1.717 1.714 2.571
1.670 1.673 2.784
1.511 1.979 2.348
1.511 1.415 2.189
1.642 1.253 2.162
1.260 1.649 1.912
1.440 1.273 1.905
1.938 1.108 2.221
1.443 1.519 1.783
1.556 1.293 1.771
1.665 1.007 1.871
1.413 1.567 1.596
1.628 1.018 1.699
1.352 1.135 1.209
1.465 1.116 1.343
4.159 0.763 5.684
4.276 0.263 5.880
4.415 0.083 5.807
4.208 0.713 5.455
4.429 0.118 5.652
4.574 -0.002 5.640
4.212 0.781 5.378
4.743 0.411 5.319
4.767 0.135 5.412
4.855 -0.195 5.313
4.538 0.476 5.083
4.428 0.115 5.065
4.725 0.197 5.228
4.312 0.421 4.988
4.406 0.381 4.781
4.408 0.296 4.503
4.592 0.091 4.848
1.727 2.473 3.051
2.254 2.062 2.988
1.657 2.502 2.680
2.184 2.207 2.965
1.717 2.058 2.406
2.098 1.970 2.558
2.140 1.735 2.908
1.884 1.940 2.345
1.880 1.773 2.304
2.161 1.518 2.547
1.723 1.866 2.200
1.633 1.654 1.961
2.138 1.623 2.174
1.491 1.721 1.838
1.717 1.611 2.067
1.769 1.387 1.906
1.647 1.709 1.419
1.661 1.279 1.627
1.743 1.094 1.532
1.629 1.655 1.427
1.450 1.140 1.500
4.626 0.895 5.781
4.696 0.494 5.807
4.663 0.219 5.693
4.848 0.230 5.740
4.487 0.506 5.378
4.537 0.265 5.567
4.950 0.068 5.661
4.914 -0.146 5.397
4.538 0.856 5.090
4.981 0.495 5.432
5.038 0.317 5.528
5.303 0.186 5.348
4.570 0.922 4.846
4.682 0.769 4.788
4.826 0.328 4.947
4.979 0.428 5.104
5.032 -0.148 5.085
4.176 0.694 4.535
4.368 0.454 4.657
4.562 0.118 4.661
5.003 -0.089 4.904
4.164 0.611 4.530
4.624 0.326 4.487
4.747 0.305 4.572
4.370 0.481 4.183
4.760 0.181 4.454
4.218 0.176 4.068
2.249 2.867 3.270
2.002 2.547 2.759
2.381 2.534 2.871
2.545 2.309 2.934
1.980 2.509 2.687
2.347 2.283 2.616
2.196 2.118 3.017
1.779 2.206 2.458
1.970 2.292 2.712
2.425 1.797 2.446
2.578 1.846 2.429
1.791 2.390 2.128
2.156 2.154 2.363
2.425 1.736 2.280
2.517 1.682 2.233
1.680 1.944 1.854
1.971 1.978 2.051
2.394 1.605 1.926
2.369 1.630 2.061
1.733 1.757 1.627
2.092 1.699 1.919
1.946 1.479 2.012
1.928 1.893 1.377
2.032 1.534 1.370
1.473 1.598 1.406
4.790 0.761 5.309
5.258 0.590 5.381
5.285 0.412 5.436
5.319 0.211 5.883
4.750 1.001 5.113
4.779 0.444 5.237
5.065 0.380 5.419
5.169 0.183 5.599
4.841 1.080 5.209
5.034 0.899 5.111
4.921 0.535 5.180
5.234 0.704 5.342
5.553 0.089 5.469
5.715 -0.094 5.423
4.588 0.888 4.709
4.608 0.905 4.816
5.080 0.649 5.061
5.290 0.565 5.021
5.369 0.141 4.991
4.435 0.958 4.517
4.385 1.074 4.575
4.863 0.571 4.632
4.717 0.341 4.609
5.230 0.420 4.515
5.350 0.010 4.657
4.322 0.780 4.252
4.497 0.635 4.388
4.534 0.701 4.188
4.981 0.525 4.549
4.932 0.077 4.375
4.058 0.989 3.785
4.606 0.651 4.192
4.702 0.584 4.148
4.651 0.163 4.224
4.371 0.631 3.613
4.669 0.259 3.902
4.711 0.138 3.819
2.373 2.916 2.941
2.421 2.478 2.921
2.429 2.582 2.788
