2.668 5.646 2.709
3.234 5.522 2.837
2.977 5.617 2.835
3.190 5.688 2.599
3.106 5.506 2.723
3.071 6.393 2.796
2.994 6.028 2.670
2.926 5.832 2.581
2.848 5.527 2.447
2.937 6.333 2.646
2.594 6.081 2.328
2.589 5.689 2.587
3.596 5.392 2.590
3.327 5.578 2.433
3.342 5.358 2.621
3.412 5.867 2.656
3.377 5.831 2.598
3.102 5.297 2.364
3.489 6.321 2.270
3.402 5.849 2.608
3.113 5.551 2.313
3.087 5.671 2.407
3.185 6.340 2.368
3.066 6.242 2.328
2.834 5.742 2.393
3.020 5.761 2.415
3.033 6.196 2.460
2.709 5.773 2.423
2.603 5.659 2.188
4.006 5.025 2.504
3.795 5.537 2.382
3.708 5.163 2.266
3.675 5.910 2.182
3.478 5.705 2.382
3.614 5.362 2.122
3.789 6.208 2.375
3.606 5.819 2.428
3.253 5.477 2.352
3.111 5.255 2.164
3.248 6.037 2.292
3.351 6.122 2.326
3.062 5.714 2.389
3.051 5.493 2.108
3.188 6.343 2.231
2.975 6.024 2.205
3.186 6.030 1.985
3.078 5.744 2.095
2.868 6.109 2.150
2.703 5.880 2.014
2.797 5.853 1.921
4.030 4.990 2.182
3.829 5.172 2.087
3.728 5.078 2.077
3.645 5.206 2.357
3.759 5.342 2.206
3.555 5.590 2.219
3.555 5.534 2.230
3.560 5.334 2.210
3.469 5.958 2.196
3.599 5.885 2.176
3.277 5.580 1.938
3.283 5.254 2.087
3.415 6.284 1.951
3.411 5.978 2.160
3.142 5.686 1.858
3.327 5.463 2.040
3.197 6.364 2.036
3.279 5.857 1.930
2.911 5.729 1.784
2.893 5.561 1.915
3.019 6.275 1.850
2.857 6.101 1.880
2.938 5.720 1.919
4.152 4.856 2.236
4.195 5.296 2.224
4.269 5.092 2.208
4.067 5.089 2.201
4.089 5.055 2.006
4.095 5.432 1.864
3.901 5.532 2.038
3.914 5.004 1.991
4.074 5.776 1.833
3.948 5.787 1.998
3.759 5.546 1.838
3.584 5.209 1.929
3.646 6.167 1.874
3.425 5.642 1.941
3.693 5.723 1.889
3.439 5.422 1.622
3.390 6.157 1.798
3.413 5.868 1.977
3.495 5.891 1.704
3.376 5.475 1.772
3.296 6.199 1.767
3.449 6.049 1.815
3.206 5.662 1.563
3.098 5.419 1.780
2.969 5.977 1.856
3.061 5.850 1.667
2.970 5.747 1.728
4.601 4.666 1.818
4.460 5.163 1.832
4.508 4.773 1.876
4.617 5.284 1.729
4.240 5.137 1.718
4.314 4.788 1.916
4.075 5.295 1.859
4.149 5.344 1.699
4.205 5.074 1.967
4.195 5.424 1.929
3.839 5.538 1.941
3.699 5.244 1.559
3.923 5.779 1.847
3.887 5.545 1.578
3.691 5.594 1.849
3.643 5.307 1.489
3.615 5.879 1.615
3.804 5.952 1.829
3.553 5.522 1.696
3.663 5.370 1.715
3.518 6.261 1.785
3.548 6.155 1.480
3.620 5.934 1.743
3.459 5.700 1.502
3.242 5.585 1.359
3.233 6.235 1.473
3.498 6.111 1.678
3.114 5.604 1.582
3.018 5.663 1.381
3.212 6.094 1.350
2.962 5.809 1.374
2.758 5.903 1.452
6.091 4.677 2.247
6.311 4.694 2.096
6.181 4.553 2.219
5.227 4.589 2.070
5.188 4.640 1.825
4.774 4.667 1.767
4.864 4.513 1.772
4.919 4.909 1.693
4.917 5.022 1.794
4.611 4.891 1.756
4.754 5.109 1.581
4.615 5.143 1.575
4.654 4.821 1.876
4.688 5.171 1.819
4.364 4.954 1.612
4.108 4.917 1.600
4.479 5.536 1.518
4.216 5.151 1.488
4.226 5.104 1.690
4.114 5.433 1.390
4.081 5.418 1.640
3.992 5.080 1.468
3.867 5.876 1.433
4.060 5.841 1.370
3.627 5.290 1.639
3.727 5.191 1.481
3.772 5.937 1.605
3.760 5.878 1.253
3.761 5.424 1.439
3.724 5.277 1.405
3.804 6.030 1.438
3.416 5.701 1.362
3.440 5.873 1.199
3.328 5.621 1.445
3.625 6.248 1.257
3.288 5.966 1.226
3.383 5.942 1.104
3.062 5.420 1.150
3.363 6.398 1.300
3.177 6.044 1.132
3.245 6.028 1.293
2.775 5.689 1.384
6.218 4.437 1.916
6.231 4.094 1.955
6.304 4.909 2.068
5.996 4.521 2.026
5.907 4.462 2.063
5.945 4.443 2.057
6.010 5.182 1.940
6.183 5.139 1.778
6.072 4.712 1.894
5.794 4.640 2.038
5.648 4.204 2.036
5.760 4.295 1.672
5.901 5.071 1.680
5.947 4.849 1.936
5.589 4.508 1.955
5.709 4.625 1.653
5.325 4.199 1.667
5.739 5.306 1.801
5.686 4.815 1.906
5.634 4.666 1.799
5.241 4.580 1.786
5.231 4.457 1.603
5.467 5.154 1.817
5.349 4.755 1.610
5.081 4.612 1.730
4.978 4.479 1.692
5.301 5.298 1.615
5.314 4.877 1.596
4.921 4.940 1.555
4.918 4.396 1.690
4.846 5.021 1.635
4.781 4.738 1.468
4.853 4.685 1.508
4.892 5.343 1.334
4.638 5.092 1.412
4.610 4.704 1.359
4.754 5.407 1.358
4.616 5.265 1.349
4.178 5.084 1.559
4.529 5.555 1.550
4.406 5.153 1.276
4.088 4.888 1.435
4.257 5.513 1.264
3.929 5.393 1.392
4.145 5.132 1.408
4.062 5.824 1.279
4.032 5.283 1.131
3.827 5.262 1.313
3.822 5.871 1.034
3.754 5.732 1.319
3.787 5.440 1.336
3.898 5.892 1.087
3.817 5.932 1.157
3.588 5.692 1.055
3.438 5.501 1.173
3.455 6.027 1.302
3.361 6.085 1.185
3.517 5.765 0.937
3.342 5.384 1.217
3.408 6.417 1.127
3.090 6.012 0.932
3.304 5.932 0.974
2.969 5.823 1.114
6.105 4.080 1.961
6.155 4.465 1.898
5.937 4.538 1.555
6.134 4.372 1.800
6.052 4.009 1.781
6.173 4.951 1.555
6.027 5.039 1.883
6.060 4.625 1.720
6.022 4.393 1.545
5.730 4.391 1.756
5.532 3.950 1.770
6.127 5.313 1.817
6.055 5.128 1.661
5.789 4.952 1.716
5.890 4.796 1.697
5.881 4.480 1.584
5.808 4.257 1.476
5.706 4.215 1.656
5.974 5.224 1.433
5.884 4.957 1.655
5.769 4.765 1.432
5.501 4.572 1.546
5.514 4.355 1.515
5.500 4.240 1.467
5.427 5.113 1.572
5.668 5.222 1.380
5.325 4.910 1.571
5.365 4.802 1.569
5.082 4.335 1.394
5.138 5.166 1.377
5.184 4.882 1.318
5.061 4.624 1.265
4.805 4.681 1.510
5.088 5.433 1.209
5.165 4.899 1.247
4.944 4.801 1.347
4.760 4.587 1.143
4.925 5.389 1.506
4.983 5.039 1.217
4.579 4.834 1.131
4.650 4.830 1.383
4.471 5.415 1.133
4.312 5.013 1.406
4.314 5.080 1.104
4.324 5.549 1.290
4.221 5.355 1.154
4.396 5.066 1.294
4.245 5.531 1.061
4.095 5.480 1.115
4.039 5.258 1.226
3.985 5.425 0.951
3.974 5.589 0.950
3.807 5.113 0.837
3.968 5.816 0.953
3.644 5.654 0.944
3.576 5.391 1.097
3.657 5.787 0.880
3.455 5.465 0.935
3.517 5.555 0.831
3.101 5.506 1.006
6.322 4.244 1.669
6.211 3.754 1.610
6.260 4.520 1.532
6.364 4.213 1.363
6.138 4.138 1.549
6.145 3.908 1.465
6.262 4.944 1.331
6.074 4.880 1.322
5.918 4.661 1.533
5.803 4.320 1.527
5.687 4.107 1.241
6.136 5.364 1.342
6.304 5.213 1.472
5.852 5.011 1.435
6.051 4.885 1.522
5.732 4.466 1.311
5.511 4.293 1.362
5.494 4.323 1.257
6.240 5.362 1.482
6.061 5.385 1.459
5.934 5.237 1.190
5.794 4.998 1.447
5.782 4.807 1.181
5.659 4.391 1.471
5.395 4.259 1.438
5.681 5.495 1.441
5.595 5.325 1.335
5.512 4.904 1.232
5.331 4.825 1.433
5.366 4.486 1.302
5.164 4.386 1.334
5.328 5.452 1.186
5.329 5.348 1.399
5.198 4.795 1.341
5.290 4.706 1.169
4.847 4.561 1.210
5.067 5.377 1.327
5.116 5.012 1.256
4.812 4.759 0.955
4.842 4.870 1.128
4.895 5.177 1.125
4.856 5.088 1.084
4.778 5.133 1.045
4.689 4.867 0.938
4.677 5.082 0.845
4.431 5.275 0.865
4.567 4.696 1.001
4.609 5.501 1.123
4.273 5.286 1.031
4.464 4.868 0.857
4.279 5.689 1.097
4.306 5.322 0.959
4.106 4.940 0.981
3.874 5.555 0.910
3.981 5.066 0.817
3.597 5.301 0.592
3.285 4.885 6.236
3.408 5.465 6.218
3.345 4.997 6.203
3.158 5.450 6.332
4.056 5.094 6.298
4.241 4.994 6.458
4.125 4.878 6.383
4.259 5.572 6.212
3.871 5.081 6.214
3.921 4.899 6.393
3.820 4.925 6.266
3.728 5.126 6.062
3.739 5.035 6.207
3.194 4.992 6.190
3.354 5.321 5.996
3.134 0.218 6.286
2.889 0.036 6.104
2.973 1.174 6.173
3.116 0.829 6.352
2.819 0.822 6.215
2.901 0.269 6.137
2.520 0.377 6.208
2.683 -0.024 6.369
3.471 1.646 6.102
3.134 1.526 6.404
2.958 1.194 6.274
2.946 1.045 6.086
2.988 0.779 6.301
2.563 0.863 6.274
2.768 0.415 5.995
2.717 0.308 6.252
2.259 0.176 6.154
3.383 2.075 6.169
3.078 1.673 6.159
2.918 1.818 6.377
2.887 1.349 6.311
2.832 1.345 6.204
2.747 0.897 6.246
2.502 1.031 5.916
2.252 0.558 6.284
2.238 0.310 5.891
2.357 0.380 5.908
2.060 0.048 6.188
3.502 2.347 6.363
3.057 2.038 6.072
3.096 2.024 6.120
2.716 2.040 6.238
2.907 1.585 5.957
2.568 1.675 6.052
2.765 1.417 6.124
2.296 1.236 6.245
2.402 0.763 6.202
2.401 0.914 6.056
2.057 0.659 6.160
2.141 0.254 6.185
1.958 0.243 5.994
3.241 2.626 6.100
3.136 2.570 6.186
3.187 2.182 6.286
2.829 2.289 6.240
2.719 2.354 6.272
2.663 1.915 6.245
2.539 1.783 6.160
2.385 1.664 5.932
2.530 1.533 5.952
2.160 1.430 5.836
2.321 1.046 6.044
2.269 0.687 5.996
1.776 0.806 5.974
1.833 0.456 5.810
1.779 0.399 6.016
1.785 0.265 5.747
3.928 4.116 6.464
3.986 4.193 6.352
3.570 3.783 6.193
3.783 3.631 6.143
3.419 3.441 6.326
3.308 3.065 6.304
3.150 3.086 5.989
3.088 2.736 6.017
3.113 2.497 6.292
2.811 2.381 6.065
2.975 2.115 6.005
2.519 2.144 5.855
2.592 2.329 5.883
2.413 2.122 6.059
2.236 1.908 6.075
1.392 -0.009 5.951
3.858 4.511 6.318
3.880 4.131 6.062
3.630 4.120 6.108
3.451 3.846 6.245
3.331 3.664 6.238
3.197 3.458 6.055
3.280 3.408 6.174
3.115 2.978 6.049
2.958 2.783 6.241
2.737 2.753 6.126
2.696 2.679 6.037
2.793 2.454 6.172
2.397 2.585 5.891
2.436 2.339 5.783
3.778 4.503 6.112
3.731 4.605 6.249
3.262 4.199 6.078
3.208 3.862 6.130
3.327 3.757 5.957
3.237 3.740 6.060
2.828 3.303 5.894
3.016 3.211 6.149
2.878 3.115 6.061
2.656 2.865 6.204
2.387 2.654 5.834
2.436 2.449 6.094
3.373 4.910 6.089
3.540 4.402 5.994
3.361 4.452 6.258
3.197 4.133 5.874
2.870 3.845 6.184
2.894 3.589 5.944
2.760 3.625 6.029
2.743 3.409 5.939
2.485 3.319 5.813
2.320 3.099 6.006
2.556 2.814 5.816
3.275 4.698 6.121
3.221 4.474 6.061
2.956 4.301 6.150
3.137 4.354 5.874
2.660 4.195 5.824
2.677 3.781 6.019
2.763 3.834 5.875
2.392 3.514 5.938
2.320 3.172 5.929
2.270 2.873 5.763
3.150 4.742 5.842
2.794 4.826 6.156
2.735 4.545 6.046
2.725 4.407 5.743
2.617 4.054 5.847
2.696 3.833 5.814
2.596 3.558 5.690
2.462 3.428 5.683
2.214 3.446 5.938
2.215 2.970 5.795
2.778 5.151 6.091
2.672 4.921 6.046
2.794 4.532 5.718
2.476 4.378 5.899
2.660 4.208 6.043
2.349 4.068 5.643
2.455 3.744 5.855
2.064 3.800 5.855
2.005 3.457 5.713
2.346 4.814 5.770
2.407 4.384 5.997
2.297 4.318 5.899
2.157 4.091 5.849
2.130 4.052 5.800
3.597 0.849 6.367
3.464 0.315 6.238
3.745 0.114 6.248
3.621 0.001 6.019
3.845 1.119 6.241
3.826 0.891 6.070
3.673 0.908 6.259
3.452 0.614 6.061
3.482 0.302 6.270
3.234 0.099 6.035
3.536 1.489 6.247
3.438 1.381 5.975
3.557 1.197 6.272
3.267 1.052 6.231
3.150 0.727 6.110
3.373 0.312 6.239
3.236 0.453 5.951
3.070 0.049 5.947
3.795 1.614 6.013
3.383 1.458 6.291
3.264 1.522 5.908
3.422 1.027 6.106
3.067 1.152 6.170
3.162 0.830 5.978
3.158 0.761 5.899
2.936 0.486 5.863
2.758 0.171 6.149
2.577 0.136 6.083
3.543 1.724 6.104
3.634 2.068 6.061
3.181 1.831 5.948
3.362 1.395 5.929
3.288 1.343 5.936
3.043 1.080 5.987
3.037 0.756 5.946
2.822 0.550 5.862
2.623 0.495 6.041
2.449 0.286 5.907
2.460 0.090 5.717
3.484 1.999 5.937
3.557 2.039 6.056
3.211 1.820 6.020
3.195 1.972 5.822
2.965 1.655 5.832
3.011 1.387 6.077
2.671 1.379 5.972
2.734 0.912 5.761
2.438 0.900 5.967
2.541 0.819 5.993
2.271 0.572 5.954
2.244 0.121 6.005
2.304 -0.011 5.819
3.431 2.565 6.230
3.216 2.039 5.911
3.105 1.811 6.127
3.071 1.924 5.874
2.821 2.111 5.768
2.871 1.828 6.001
2.876 1.437 5.808
2.850 1.305 5.915
2.579 1.039 5.683
2.532 0.830 5.734
2.196 0.900 5.757
2.403 0.552 5.818
1.956 0.402 5.979
1.926 0.079 5.574
3.443 2.940 5.866
3.599 2.858 5.917
3.236 2.755 6.068
3.447 2.623 5.998
3.385 2.268 5.998
3.065 1.966 6.057
2.763 2.084 5.941
2.882 1.860 5.898
2.696 1.888 6.040
2.551 1.639 5.645
2.535 1.437 5.682
2.399 1.208 5.814
2.437 1.063 5.847
1.995 0.746 5.844
1.968 0.515 5.772
2.126 0.386 5.552
1.618 0.461 5.529
4.015 4.120 6.134
3.677 3.907 6.001
3.932 3.832 6.149
3.765 3.566 6.024
3.388 3.539 6.186
3.636 3.011 6.007
3.321 2.814 5.974
3.139 2.832 6.101
3.212 2.488 5.883
3.088 2.354 6.017
2.888 2.127 6.079
2.612 2.388 5.808
2.492 2.253 5.813
2.557 1.839 5.711
2.345 1.856 5.831
2.328 1.411 5.678
2.321 1.479 5.611
4.016 4.493 6.007
3.835 4.463 6.128
3.555 4.042 5.876
3.465 3.790 6.029
3.272 3.639 6.048
3.479 3.615 5.778
3.252 3.299 5.757
3.208 3.138 5.990
3.232 3.098 5.861
2.961 2.555 5.758
2.755 2.718 5.796
2.750 2.170 5.952
2.644 2.284 5.628
2.528 2.327 5.783
2.384 2.225 5.782
3.903 4.531 6.073
3.794 4.447 5.741
3.414 4.214 6.063
3.218 4.076 5.784
3.116 3.608 5.907
3.092 3.669 5.850
3.202 3.431 5.786
2.902 3.200 5.799
2.735 3.035 5.846
2.601 2.831 5.904
2.582 2.686 5.629
2.529 2.412 5.850
2.540 2.662 5.644
2.252 2.358 5.726
3.589 4.613 5.892
3.298 4.492 5.841
3.197 4.503 5.668
3.253 4.021 5.992
2.934 4.071 5.680
3.172 3.684 5.921
2.869 3.554 5.586
2.701 3.135 5.783
2.555 3.217 5.578
2.752 2.882 5.905
2.276 2.762 5.817
2.378 2.712 5.534
2.265 2.779 5.535
3.168 4.918 5.695
3.143 4.672 5.803
3.234 4.559 5.944
3.035 4.219 5.867
2.946 3.876 5.584
2.967 4.011 5.771
2.772 3.637 5.743
2.756 3.347 5.902
2.679 3.174 5.569
2.251 2.950 5.821
2.366 2.936 5.831
2.000 2.469 5.611
3.113 5.078 5.594
3.136 4.830 5.689
2.750 4.376 5.790
2.921 4.230 5.539
2.832 4.214 5.507
2.610 3.864 5.736
2.405 3.728 5.829
2.290 3.520 5.756
2.269 3.436 5.523
2.208 2.977 5.731
2.247 2.894 5.636
3.043 4.774 5.578
2.758 4.811 5.564
2.841 4.241 5.623
2.660 4.114 5.791
2.368 4.003 5.696
2.394 3.853 5.607
2.046 3.574 5.772
1.943 3.268 5.514
1.946 3.462 5.356
2.540 4.760 5.466
2.365 4.619 5.418
2.259 4.257 5.534
2.318 4.167 5.541
2.282 4.138 5.358
2.191 3.799 5.622
3.598 0.608 6.265
3.562 0.506 6.029
3.599 0.228 6.247
3.482 0.248 6.327
4.154 0.990 6.177
3.883 0.946 6.016
3.941 0.716 6.033
3.602 0.303 6.077
3.693 0.269 6.101
3.438 0.186 6.049
4.048 1.399 6.211
4.032 1.342 6.048
3.604 0.908 5.925
3.459 0.849 6.039
3.615 0.598 5.915
3.403 0.380 5.776
3.348 -0.002 5.747
3.816 1.719 6.028
3.869 1.534 5.923
3.738 1.216 6.005
3.658 1.220 5.733
3.471 0.885 5.849
3.374 0.544 5.965
3.218 0.338 5.932
3.141 0.482 6.026
3.059 0.049 5.727
4.034 1.602 5.844
3.641 1.905 5.805
3.661 1.732 5.779
3.561 1.208 5.971
3.359 1.253 5.933
3.382 0.877 5.739
3.178 0.975 5.964
2.940 0.714 5.781
2.841 0.554 5.752
2.964 0.383 5.778
2.782 -0.127 5.916
3.871 2.105 5.966
3.517 1.768 5.725
3.677 1.700 5.763
3.611 1.747 5.939
3.377 1.605 5.828
3.078 1.121 5.788
3.208 1.098 5.682
2.942 0.893 5.619
2.926 0.647 5.756
2.573 0.634 5.615
2.480 0.332 5.857
2.408 0.185 5.493
3.595 2.101 5.778
3.812 2.265 5.678
3.458 1.725 5.658
3.334 1.881 5.648
3.101 1.824 5.610
3.166 1.790 5.610
3.005 1.400 5.805
2.708 1.325 5.771
2.780 0.811 5.893
2.509 0.708 5.589
2.630 0.642 5.576
2.523 0.390 5.535
2.199 0.250 5.720
2.209 0.171 5.630
3.805 2.482 5.945
3.681 2.248 5.652
3.415 2.316 5.737
3.205 2.042 5.770
3.029 2.054 5.906
3.122 1.728 5.616
3.035 1.634 5.824
2.881 1.631 5.564
2.867 1.497 5.592
2.631 1.100 5.468
2.593 1.036 5.693
2.311 0.670 5.493
2.141 0.397 5.591
1.990 0.355 5.646
3.812 2.883 5.811
3.712 2.918 5.865
3.568 2.770 5.645
3.393 2.616 5.805
3.128 2.298 5.639
2.975 2.113 5.733
2.873 2.313 5.765
2.682 2.156 5.814
2.860 1.629 5.679
2.750 1.730 5.512
2.698 1.453 5.560
2.489 1.294 5.409
2.249 1.004 5.396
2.071 0.970 5.612
2.167 0.513 5.526
3.957 3.611 5.994
3.832 3.746 5.872
3.620 3.292 5.913
3.342 3.181 5.646
3.405 3.077 5.763
3.263 2.879 5.526
3.088 2.465 5.762
3.212 2.534 5.564
2.920 2.037 5.670
2.792 2.298 5.725
2.625 2.130 5.606
2.753 1.984 5.528
2.513 1.536 5.387
2.348 1.364 5.487
2.178 1.341 5.566
3.787 4.268 5.921
3.569 4.015 5.861
3.549 3.849 5.871
3.572 3.359 5.523
3.119 3.202 5.604
3.058 3.007 5.618
2.915 2.987 5.761
3.018 2.609 5.751
2.848 2.495 5.650
2.788 2.275 5.407
2.787 2.493 5.620
2.288 2.100 5.469
2.298 2.132 5.540
2.188 1.799 5.569
3.616 4.184 5.635
3.500 4.288 5.614
3.515 4.043 5.783
3.462 3.651 5.528
3.331 3.428 5.495
3.126 3.361 5.636
3.088 3.095 5.445
3.010 3.093 5.602
2.743 2.913 5.589
2.697 2.715 5.558
2.530 2.353 5.726
2.556 2.435 5.376
2.313 2.463 5.268
2.261 1.997 5.591
3.686 4.366 5.616
3.265 4.299 5.790
3.116 4.184 5.589
3.104 4.099 5.512
2.880 3.698 5.410
2.953 3.373 5.633
2.987 3.167 5.498
2.911 2.940 5.368
2.575 3.049 5.560
2.638 2.822 5.577
2.214 2.519 5.395
2.304 2.673 5.539
2.245 2.503 5.451
3.250 4.633 5.747
3.102 4.364 5.392
2.887 4.005 5.486
2.972 3.922 5.373
2.757 4.005 5.419
2.910 3.647 5.488
2.593 3.273 5.586
2.579 3.178 5.615
2.258 2.836 5.418
2.510 2.717 5.518
2.073 2.647 5.226
1.876 2.925 5.223
3.237 4.810 5.370
2.910 4.312 5.397
3.006 4.246 5.601
2.929 4.039 5.305
2.796 3.851 5.494
2.664 3.682 5.628
2.518 3.432 5.445
2.250 3.401 5.332
2.146 2.955 5.546
2.264 2.795 5.454
2.221 2.589 5.504
2.856 4.753 5.419
2.863 4.362 5.254
2.582 4.057 5.560
2.433 4.170 5.253
2.401 3.804 5.212
2.225 3.829 5.172
2.362 3.617 5.165
2.050 3.241 5.179
2.136 3.250 5.319
2.547 4.658 5.346
2.336 4.385 5.240
2.470 4.076 5.457
2.201 4.142 5.285
2.271 3.718 5.448
1.929 3.458 5.293
2.038 3.529 5.145
1.962 4.102 5.352
2.135 3.853 5.414
1.880 3.975 5.174
4.196 0.620 6.242
3.872 0.513 6.069
3.635 0.313 6.250
4.109 1.204 5.985
3.810 0.927 5.851
3.929 0.572 5.958
3.820 0.396 6.087
3.717 0.113 5.962
3.654 0.058 5.888
4.245 1.290 5.877
4.308 1.130 6.006
4.062 0.661 5.768
4.088 0.587 5.746
3.886 0.411 5.811
3.632 0.091 5.762
3.389 0.129 5.602
4.180 1.457 5.930
3.766 1.112 5.966
4.017 0.827 5.924
3.711 0.809 5.788
3.775 0.536 5.787
3.395 0.187 5.868
3.258 0.168 5.788
3.973 1.786 5.674
3.872 1.492 5.644
3.552 1.273 5.913
3.498 0.902 5.580
3.501 0.929 5.698
3.593 0.803 5.789
3.121 0.417 5.810
3.279 0.253 5.515
3.257 0.151 5.538
3.962 1.771 5.646
3.770 1.883 5.711
3.531 1.720 5.814
3.482 1.458 5.513
3.521 1.205 5.794
3.467 0.828 5.637
3.258 0.632 5.509
3.204 0.710 5.396
2.942 0.377 5.721
2.998 -0.002 5.588
3.924 1.932 5.698
3.738 1.724 5.528
3.742 1.761 5.440
3.670 1.807 5.531
3.224 1.301 5.739
3.123 1.334 5.748
3.084 1.001 5.757
2.930 0.798 5.738
3.025 0.577 5.331
2.748 0.463 5.557
2.856 0.150 5.356
2.425 -0.044 5.323
3.923 2.130 5.691
3.795 2.230 5.545
3.703 1.972 5.509
3.225 1.902 5.735
3.486 1.898 5.590
3.012 1.611 5.517
3.177 1.270 5.434
2.859 1.057 5.497
2.848 1.072 5.542
2.898 0.654 5.579
2.527 0.620 5.560
2.456 0.347 5.517
2.459 0.126 5.501
3.571 2.567 5.460
3.643 2.306 5.712
3.481 2.103 5.585
3.387 2.055 5.600
3.103 1.939 5.398
3.008 1.727 5.692
2.985 1.840 5.515
2.700 1.668 5.335
2.893 1.417 5.615
2.682 0.914 5.513
2.535 0.917 5.586
2.485 0.902 5.262
2.323 0.557 5.372
3.750 2.953 5.751
3.824 2.672 5.599
3.431 2.506 5.635
3.372 2.330 5.714
3.292 2.309 5.627
3.217 1.917 5.345
2.835 2.241 5.405
2.996 2.170 5.512
2.631 1.699 5.313
2.753 1.543 5.226
2.543 1.211 5.409
2.404 1.203 5.377
2.314 1.123 5.272
3.584 3.335 5.752
3.515 3.208 5.373
3.504 3.029 5.583
3.278 2.633 5.450
3.311 2.570 5.400
3.018 2.489 5.373
2.949 2.081 5.602
3.002 2.400 5.350
2.630 2.156 5.564
2.684 2.046 5.247
2.650 1.838 5.336
2.295 1.576 5.411
2.394 1.200 5.482
3.729 3.676 5.438
3.730 3.504 5.576
3.558 3.501 5.452
3.194 3.328 5.520
3.392 2.973 5.474
3.327 3.080 5.504
2.987 2.837 5.225
3.140 2.611 5.475
2.971 2.299 5.490
2.703 2.409 5.440
2.692 2.278 5.398
2.607 2.082 5.225
2.415 1.914 5.338
3.714 4.245 5.411
3.429 4.156 5.618
3.246 3.790 5.648
3.200 3.491 5.372
3.043 3.367 5.416
2.929 3.372 5.505
3.177 3.140 5.409
2.682 2.649 5.543
2.958 2.544 5.316
2.850 2.491 5.237
2.392 2.526 5.374
2.344 2.238 5.241
2.344 2.205 5.269
3.409 4.476 5.319
3.174 4.169 5.260
3.077 3.743 5.393
3.155 3.541 5.227
2.818 3.598 5.540
2.873 3.341 5.382
2.956 2.912 5.220
2.673 3.090 5.191
2.730 2.563 5.138
2.268 2.585 5.165
2.250 2.590 5.279
2.034 2.392 5.062
3.327 4.260 5.316
3.140 4.154 5.400
3.156 4.088 5.362
2.916 3.696 5.117
2.668 3.795 5.471
2.810 3.214 5.175
2.490 3.325 5.187
2.343 2.983 5.098
2.460 2.997 5.143
2.425 2.730 5.295
1.983 2.713 5.208
3.022 4.553 5.227
2.885 4.421 5.322
2.814 4.232 5.126
2.893 4.062 5.407
2.805 3.781 5.323
2.628 3.674 5.018
2.553 3.307 5.032
2.330 3.278 5.135
2.245 2.866 5.306
2.033 2.832 5.082
2.929 4.370 5.163
2.807 4.016 5.140
2.468 3.982 5.123
2.453 4.006 5.105
2.327 3.517 5.056
2.264 3.240 5.309
2.222 3.424 5.066
2.214 3.208 5.291
2.773 4.351 5.292
2.562 4.183 5.143
2.292 4.198 5.125
2.366 3.931 5.203
2.018 3.813 5.186
2.078 3.527 4.963
1.910 3.456 4.959
1.965 2.960 4.854
2.118 4.281 4.885
2.121 4.056 5.165
1.802 3.947 5.122
1.701 3.606 4.908
1.608 3.568 4.921
4.210 0.981 5.786
4.188 0.842 6.020
4.266 0.451 6.062
4.106 0.168 5.950
3.898 0.073 5.853
4.392 1.213 6.053
3.982 1.019 5.653
4.042 0.770 5.710
3.861 0.526 5.995
3.746 0.404 5.682
3.590 0.231 5.619
3.605 0.039 5.698
4.272 1.232 5.673
4.057 1.156 5.799
4.133 0.700 5.585
3.958 0.727 5.763
3.777 0.536 5.766
3.650 0.076 5.642
3.436 0.147 5.524
4.282 1.336 5.737
3.955 1.159 5.719
4.120 1.034 5.672
3.757 0.783 5.391
3.623 0.563 5.649
3.571 0.726 5.632
3.356 0.492 5.391
3.404 -0.010 5.369
4.165 1.631 5.585
3.915 1.761 5.624
3.799 1.391 5.573
3.766 1.235 5.383
3.594 1.187 5.327
3.743 0.810 5.519
3.645 0.683 5.303
3.189 0.375 5.318
3.268 0.275 5.319
2.960 0.205 5.378
3.967 1.785 5.471
3.908 1.813 5.463
3.771 1.680 5.385
3.881 1.441 5.642
3.691 1.273 5.403
3.542 1.276 5.592
3.229 0.820 5.396
3.145 0.642 5.281
3.290 0.635 5.343
3.002 0.415 5.468
3.088 0.307 5.302
4.123 2.107 5.646
4.016 1.688 5.312
3.456 1.989 5.549
3.360 1.752 5.417
3.495 1.522 5.378
3.432 1.150 5.397
3.197 1.126 5.305
3.165 0.894 5.357
2.914 0.688 5.146
2.954 0.641 5.476
2.853 0.192 5.212
3.879 2.239 5.506
3.770 2.190 5.306
3.639 1.860 5.536
3.459 1.965 5.184
3.262 1.740 5.419
3.247 1.528 5.427
3.185 1.510 5.357
3.210 1.361 5.428
3.035 0.943 5.278
2.718 0.582 5.224
2.750 0.720 5.041
2.622 0.246 5.153
3.606 2.673 5.339
3.509 2.477 5.247
3.770 2.249 5.274
3.310 1.948 5.328
3.369 2.043 5.306
3.303 1.748 5.218
2.961 1.534 5.363
2.758 1.471 5.350
2.786 1.340 5.129
2.806 1.064 5.326
2.428 0.691 5.203
2.663 0.508 5.194
3.808 2.974 5.560
3.481 2.673 5.230
3.535 2.363 5.446
3.330 2.280 5.502
3.076 2.203 5.431
3.184 2.145 5.328
2.798 2.097 5.270
3.003 1.582 5.361
2.764 1.518 5.045
2.731 1.190 5.070
2.422 1.049 5.342
3.492 3.142 5.512
3.375 3.145 5.278
3.364 2.867 5.221
3.354 2.506 5.294
3.058 2.288 5.300
2.959 2.205 5.346
2.785 2.423 5.035
2.932 2.037 5.052
2.811 1.699 5.006
2.502 1.567 5.037
2.299 1.681 5.090
3.667 3.557 5.347
3.633 3.446 5.469
3.394 3.235 5.109
3.349 2.903 5.044
3.213 3.055 5.246
3.093 2.692 5.306
2.920 2.538 5.331
2.975 2.250 5.144
2.743 2.537 5.038
2.593 2.204 4.970
2.595 1.840 4.999
2.522 1.910 5.188
3.425 4.152 5.420
3.605 3.879 5.248
3.298 3.537 5.202
3.360 3.438 5.360
3.169 3.031 5.103
3.030 2.926 4.994
3.040 2.842 5.114
2.946 2.776 5.131
2.637 2.559 4.924
2.586 2.608 4.947
2.304 2.474 5.166
2.189 2.128 5.200
3.425 4.156 5.328
3.224 3.875 5.118
3.233 3.627 5.062
3.269 3.609 5.013
2.940 3.237 5.167
2.795 2.982 5.064
2.902 2.962 5.049
2.577 2.656 4.901
2.518 2.475 5.007
2.171 2.510 4.967
2.195 2.597 4.884
3.407 4.339 5.016
3.046 3.983 4.961
3.083 3.839 5.101
2.888 3.575 4.971
2.863 3.199 5.111
2.793 3.058 5.093
2.745 2.955 5.022
2.547 2.628 4.929
2.496 2.669 4.888
2.132 2.611 5.020
1.999 2.500 4.936
2.918 4.324 5.104
2.779 3.889 4.895
2.975 4.064 5.178
2.681 3.601 5.211
2.572 3.640 5.137
2.576 3.192 5.111
2.413 2.966 4.812
2.441 2.833 4.918
2.289 2.768 5.086
1.814 2.836 4.830
2.800 4.361 5.130
2.929 4.253 4.899
2.547 3.813 5.157
2.710 3.964 4.820
2.343 3.582 5.020
2.464 3.403 4.800
2.285 3.301 4.766
1.957 2.872 4.821
1.789 2.875 4.833
2.679 4.142 5.014
2.394 4.052 4.769
2.250 3.942 4.823
2.331 3.704 4.878
2.132 3.560 4.684
1.997 3.477 4.659
2.081 3.198 4.746
2.320 4.592 4.994
2.258 4.325 4.779
2.196 4.091 4.718
2.189 4.003 4.677
2.024 3.628 4.818
1.856 3.269 4.817
1.669 3.225 4.887
2.104 4.148 4.822
1.902 3.768 4.797
1.573 3.925 4.853
1.631 3.359 4.660
4.411 0.877 5.786
4.511 0.711 5.888
4.504 0.462 5.607
4.414 0.040 5.677
4.591 0.942 5.586
4.508 0.988 5.663
4.278 0.795 5.630
4.328 0.423 5.851
4.217 0.151 5.509
4.115 0.253 5.571
4.323 1.213 5.666
4.008 1.104 5.567
3.875 0.918 5.773
3.865 0.778 5.525
3.844 0.625 5.699
3.591 0.326 5.548
3.647 0.058 5.347
4.431 1.424 5.451
4.412 1.103 5.237
4.431 0.969 5.350
4.241 0.716 5.491
4.165 0.674 5.457
4.101 0.494 5.531
3.991 0.410 5.218
3.743 0.074 5.157
4.395 1.202 5.388
4.395 1.413 5.224
4.072 1.438 5.374
3.983 1.148 5.391
4.128 0.915 5.456
3.758 0.531 5.126
3.529 0.651 5.272
3.494 0.448 5.192
3.514 -0.014 5.326
4.136 1.672 5.393
4.049 1.587 5.168
3.948 1.228 5.378
3.705 1.120 5.319
3.883 1.084 5.369
3.663 0.823 5.179
3.538 0.716 5.208
3.354 0.436 5.394
3.476 0.218 5.249
3.233 0.080 5.245
4.232 1.610 5.404
4.052 1.803 5.150
3.774 1.852 5.463
3.673 1.432 5.166
3.604 1.442 5.241
3.394 1.135 5.191
3.628 1.055 5.118
3.458 0.646 5.070
3.371 0.361 5.156
3.232 0.268 5.102
3.057 0.117 5.162
4.132 1.868 5.219
4.072 1.683 5.397
3.518 1.638 5.152
3.407 1.636 5.379
3.311 1.452 5.139
3.541 1.396 5.234
3.360 1.168 4.975
3.205 0.772 5.286
2.976 0.612 4.974
2.981 0.314 5.241
3.796 2.285 5.162
3.937 1.918 5.179
3.607 2.022 5.198
3.525 1.882 5.130
3.532 1.902 5.174
3.331 1.555 5.048
3.128 1.269 5.252
3.170 0.986 5.183
2.954 0.958 5.165
2.750 0.577 5.084
2.727 0.670 5.206
3.703 2.512 4.996
3.699 2.311 5.253
3.464 1.968 4.975
3.668 2.135 5.297
3.338 1.852 5.052
3.251 2.028 4.983
3.082 1.689 4.987
3.006 1.591 5.076
2.892 1.397 4.905
2.956 0.923 4.893
2.732 1.034 4.987
3.791 2.957 5.193
3.625 2.702 4.945
3.706 2.574 5.222
3.284 2.112 5.029
3.438 2.068 5.119
2.952 2.216 5.208
3.016 1.874 4.979
2.928 1.587 5.027
3.025 1.769 4.964
2.538 1.185 4.943
2.616 1.219 4.868
3.735 3.127 4.983
3.582 3.060 5.084
3.520 2.582 4.892
3.418 2.599 5.083
3.287 2.163 4.946
3.147 1.985 5.058
2.863 2.405 4.782
2.898 1.970 4.983
2.721 1.805 5.060
2.781 1.602 4.870
2.654 1.285 5.031
3.540 3.253 5.041
3.345 3.301 4.980
3.226 2.980 5.026
3.123 2.945 4.967
3.239 2.709 5.044
3.266 2.615 4.798
2.823 2.364 5.124
2.943 2.407 5.021
2.681 2.344 4.783
2.475 2.111 4.696
2.345 1.939 4.724
3.493 3.552 4.839
3.318 3.375 4.890
3.475 3.303 4.859
3.192 3.229 4.904
3.191 3.137 4.947
3.040 2.908 4.805
2.698 2.714 5.004
2.685 2.556 4.789
2.714 2.472 4.791
2.416 2.314 4.971
2.410 2.206 4.663
3.353 4.011 4.988
3.237 3.591 4.866
3.096 3.476 4.884
3.151 3.161 4.837
2.792 3.074 4.795
2.762 2.908 4.918
2.810 2.700 4.954
2.703 2.527 4.675
2.395 2.577 4.749
2.137 2.449 4.581
3.380 4.143 4.952
2.973 4.012 5.055
2.982 3.817 5.077
3.148 3.659 5.009
2.830 3.268 4.918
2.640 3.274 4.672
2.485 2.791 4.610
2.317 2.929 4.699
2.401 2.659 4.854
2.360 2.692 4.901
2.293 2.639 4.535
3.032 4.166 4.812
3.143 4.016 5.021
3.015 3.925 4.764
2.839 3.848 4.900
2.611 3.555 4.968
2.639 3.260 4.708
2.508 2.991 4.860
2.276 2.858 4.731
2.097 2.857 4.824
1.932 2.911 4.510
2.807 4.361 4.711
2.629 4.134 4.669
2.647 3.972 4.694
2.709 3.787 4.693
2.444 3.630 4.552
2.475 3.389 4.818
2.332 3.244 4.808
2.104 3.170 4.651
2.157 2.643 4.546
1.822 3.022 4.399
2.802 4.336 4.656
2.401 3.898 4.619
2.309 3.728 4.648
2.464 3.541 4.624
2.258 3.545 4.439
2.023 3.230 4.490
1.858 2.936 4.527
1.844 2.885 4.649
1.489 2.890 4.467
2.541 4.327 4.683
2.269 4.311 4.527
2.076 4.059 4.678
2.061 3.891 4.601
2.008 3.477 4.413
2.029 3.548 4.661
1.959 3.165 4.716
1.613 3.202 4.652
2.064 4.487 4.689
2.214 3.921 4.654
1.799 3.736 4.593
1.746 3.841 4.550
1.623 3.466 4.545
1.722 3.316 4.518
1.866 4.329 4.592
1.865 4.052 4.589
1.554 3.905 4.449
1.403 3.536 4.578
4.730 0.732 5.793
4.684 0.633 5.649
4.512 0.156 5.609
4.477 0.054 5.364
4.645 1.170 5.484
4.748 0.709 5.347
4.662 0.763 5.500
4.346 0.403 5.330
4.318 0.113 5.553
3.986 -0.123 5.287
4.670 1.209 5.451
4.384 1.269 5.662
4.506 0.734 5.614
4.255 0.889 5.432
4.370 0.380 5.282
3.987 0.207 5.351
4.074 0.071 5.226
4.827 1.462 5.619
4.429 1.264 5.395
4.455 1.308 5.334
4.067 1.179 5.235
3.977 0.917 5.284
3.868 0.520 5.308
3.824 0.302 5.505
3.624 0.213 5.204
3.794 0.180 5.294
4.565 1.455 5.352
4.401 1.334 5.183
4.571 1.113 5.383
4.404 0.986 5.075
4.169 0.822 5.180
4.174 0.499 4.987
3.930 0.207 5.317
4.065 0.095 4.964
3.576 -0.133 5.282
4.632 1.512 5.392
4.477 1.659 5.025
4.145 1.413 5.065
4.036 1.172 5.198
4.051 0.809 5.217
3.703 0.564 5.004
3.942 0.381 5.214
3.847 0.388 5.152
3.507 0.073 5.161
4.331 1.629 5.193
3.999 1.689 5.176
3.947 1.222 5.179
3.879 1.009 4.921
3.643 0.917 4.890
3.871 0.713 4.921
3.788 0.498 4.871
3.307 0.574 4.859
3.502 0.126 4.962
4.253 1.603 5.077
4.127 1.474 4.992
3.957 1.554 5.080
3.996 1.401 4.871
3.918 1.308 5.151
3.516 1.206 5.023
3.405 1.070 4.905
3.456 0.913 5.137
3.125 0.524 4.826
3.171 0.382 4.768
4.233 2.001 5.182
3.979 1.609 5.004
3.930 1.958 5.117
3.669 1.591 4.848
3.633 1.285 4.813
3.388 1.172 4.774
3.456 1.030 4.798
3.350 0.875 4.845
3.186 0.562 4.745
3.767 1.969 5.055
3.625 1.744 4.989
3.644 1.921 5.066
3.534 1.730 4.807
3.567 1.479 4.945
3.343 1.355 4.805
3.287 1.213 4.826
3.185 0.982 4.772
2.972 0.659 4.648
3.880 2.153 4.824
3.756 2.193 5.071
3.580 2.052 4.970
3.295 2.124 4.870
3.182 1.859 4.931
3.298 1.576 4.759
3.080 1.284 4.976
2.832 1.363 4.602
2.716 1.182 4.696
3.629 2.602 5.109
3.710 2.462 4.715
3.558 2.218 4.731
3.404 1.902 4.907
3.273 2.232 4.631
3.165 1.989 4.919
2.875 1.849 4.596
3.036 1.461 4.674
2.932 1.182 4.922
3.739 3.082 4.786
3.392 2.550 4.836
3.534 2.471 5.036
3.473 2.312 4.984
3.408 2.040 4.967
2.881 2.143 4.699
2.844 2.209 4.626
2.947 1.688 4.642
2.694 1.485 4.807
3.593 3.176 4.668
3.503 2.866 4.735
3.346 2.970 4.960
3.297 2.621 4.914
3.108 2.430 4.757
2.957 2.364 4.568
3.013 2.231 4.480
2.574 2.246 4.491
2.558 1.777 4.666
3.394 3.657 4.911
3.504 3.219 4.670
3.078 3.091 4.592
3.212 2.974 4.679
3.151 2.574 4.562
2.778 2.686 4.637
2.819 2.166 4.746
2.628 2.498 4.707
2.678 2.293 4.440
3.351 3.646 4.913
3.374 3.569 4.548
3.011 3.124 4.501
2.966 3.050 4.660
2.817 2.687 4.472
2.836 2.769 4.652
2.706 2.332 4.785
2.622 2.466 4.444
2.168 2.497 4.509
3.381 3.749 4.858
3.199 3.590 4.832
2.949 3.535 4.759
2.992 3.313 4.825
2.869 3.116 4.497
2.735 3.095 4.679
2.463 2.632 4.638
2.470 2.541 4.601
2.387 2.724 4.314
2.167 2.420 4.651
2.898 4.231 4.760
2.821 3.860 4.568
2.698 3.777 4.575
2.631 3.431 4.761
2.768 3.279 4.352
2.638 3.035 4.495
2.545 2.774 4.416
2.189 2.563 4.607
1.906 2.640 4.521
2.688 4.221 4.465
2.698 3.976 4.534
2.712 3.845 4.454
2.332 3.548 4.464
2.610 3.559 4.660
2.275 3.307 4.445
2.389 2.966 4.348
1.953 2.839 4.478
2.102 3.105 4.422
2.494 4.372 4.568
2.724 4.274 4.330
2.376 4.076 4.312
2.438 3.881 4.441
2.222 3.332 4.297
2.074 3.187 4.333
1.933 3.203 4.210
1.834 3.067 4.478
1.569 3.009 4.117
2.415 4.193 4.615
2.278 4.291 4.531
2.172 4.069 4.218
2.310 3.873 4.398
2.247 3.642 4.467
1.771 3.241 4.158
1.834 3.048 4.468
1.603 3.112 4.339
1.695 3.162 4.077
2.217 4.488 4.287
2.164 4.295 4.264
1.943 4.211 4.469
1.974 3.924 4.198
1.737 3.524 4.349
1.695 3.655 4.249
1.703 3.162 4.256
1.582 3.138 4.350
1.510 3.283 4.078
1.837 4.496 4.126
1.900 4.217 4.330
1.656 4.098 4.386
1.803 3.952 4.374
1.466 3.730 4.156
1.566 3.253 4.324
1.548 3.381 4.215
1.608 4.133 4.068
1.611 4.293 4.042
1.595 4.085 4.068
1.547 3.589 4.083
1.230 3.374 4.011
1.319 4.031 3.946
1.152 3.740 4.284
1.288 3.597 4.277
5.224 0.597 5.680
5.239 0.393 5.470
5.179 0.451 5.336
5.217 0.881 5.604
4.983 0.464 5.606
4.876 0.446 5.564
4.754 0.101 5.588
5.252 0.895 5.457
4.778 0.832 5.401
4.951 0.505 5.554
4.645 0.310 5.361
4.499 0.120 5.161
4.343 0.133 5.170
5.168 1.038 5.326
4.978 1.211 5.320
4.750 0.865 5.196
4.808 0.648 5.277
4.574 0.554 5.298
4.339 0.201 5.225
4.274 0.032 5.077
4.756 1.276 5.276
4.615 1.254 5.280
4.515 0.940 5.301
4.672 0.992 5.403
4.321 0.537 5.153
4.102 0.405 5.382
4.139 0.280 5.120
4.131 -0.070 5.331
4.669 1.353 5.142
4.536 1.228 5.180
4.557 1.015 5.026
4.202 0.828 5.137
4.208 0.921 5.019
4.218 0.514 4.965
4.162 0.342 5.127
3.962 0.355 5.127
3.877 -0.168 5.052
4.590 1.532 5.194
4.729 1.236 5.141
4.636 1.058 5.089
4.437 1.144 5.141
4.296 0.952 4.830
4.190 0.579 4.915
4.220 0.463 4.759
3.760 0.046 4.856
4.628 1.487 5.205
4.496 1.562 4.994
4.359 1.205 5.131
4.080 1.036 4.890
4.097 0.893 5.102
3.878 0.695 4.916
3.791 0.430 4.976
3.855 0.126 4.812
3.791 -0.003 4.711
4.365 1.524 5.094
4.248 1.737 4.946
4.138 1.543 4.776
4.062 1.152 4.821
3.744 1.096 4.826
3.765 0.976 4.811
3.522 0.662 4.834
3.409 0.483 4.848
3.348 0.112 4.628
4.283 1.445 4.767
4.059 1.567 4.693
4.011 1.404 4.744
3.849 1.126 4.633
3.714 1.150 4.633
3.677 0.755 4.844
3.322 0.737 4.869
3.397 0.418 4.550
4.205 1.621 4.756
3.916 1.902 4.937
3.839 1.585 4.745
3.590 1.384 4.630
3.525 1.279 4.921
3.460 1.000 4.572
3.341 0.906 4.667
3.030 0.694 4.682
4.116 1.844 4.684
3.725 1.737 4.759
3.727 2.001 4.828
3.737 1.730 4.845
3.575 1.581 4.874
3.141 1.454 4.722
3.216 1.195 4.744
2.922 0.801 4.775
3.609 2.285 4.928
3.735 2.061 4.600
3.405 1.821 4.742
3.525 1.851 4.629
3.216 1.609 4.416
3.170 1.524 4.754
3.657 2.345 4.754
3.475 2.092 4.604
3.456 2.185 4.802
3.400 2.326 4.497
3.260 1.846 4.751
3.157 1.816 4.506
3.686 2.450 4.656
3.359 2.470 4.551
3.366 2.235 4.574
3.280 2.414 4.716
2.808 1.987 4.442
2.683 1.999 4.306
3.429 2.801 4.448
3.358 2.516 4.750
3.237 2.462 4.434
3.030 2.159 4.455
2.743 2.284 4.464
2.894 1.998 4.300
3.439 3.166 4.563
3.511 3.298 4.634
3.118 2.837 4.366
3.148 2.902 4.328
2.847 2.410 4.403
2.709 2.450 4.659
2.583 2.394 4.256
2.590 2.358 4.216
3.299 3.608 4.316
3.124 3.321 4.579
3.022 3.188 4.635
3.013 2.958 4.572
2.855 2.883 4.385
2.803 2.484 4.513
2.606 2.543 4.349
2.618 2.628 4.454
3.328 3.735 4.512
3.065 3.576 4.597
3.163 3.496 4.550
3.013 3.331 4.291
2.616 2.770 4.432
2.836 2.566 4.531
2.616 2.682 4.478
2.470 2.556 4.392
3.226 4.000 4.390
2.881 3.966 4.236
3.077 3.673 4.222
2.691 3.624 4.509
2.788 3.426 4.254
2.694 2.876 4.351
2.485 2.808 4.384
2.272 2.476 4.205
2.304 2.875 4.351
2.743 4.318 4.302
2.744 4.154 4.476
2.642 3.919 4.265
2.443 3.498 4.137
2.523 3.465 4.436
2.461 3.330 4.434
2.381 2.849 4.067
2.288 2.625 4.127
2.030 3.084 4.293
2.840 4.263 4.206
2.574 4.022 4.207
2.512 3.955 4.414
2.506 3.608 4.202
2.496 3.438 4.349
2.207 3.398 4.261
2.120 2.896 4.286
2.091 2.707 4.085
1.719 3.185 4.233
2.487 4.537 4.391
2.333 4.370 4.087
2.493 3.850 4.167
2.135 3.584 4.272
2.112 3.686 4.266
2.202 3.306 3.962
1.725 3.352 4.208
1.892 3.077 4.206
1.612 2.982 4.064
2.543 4.389 4.343
2.152 4.088 4.215
2.325 4.079 4.129
1.871 3.711 3.995
1.789 3.548 4.114
1.757 3.675 4.003
1.557 3.500 4.071
1.710 3.004 4.145
1.559 3.329 3.835
2.030 4.570 3.915
1.928 4.158 4.018
1.876 3.862 4.000
1.732 3.711 4.120
1.737 3.729 3.807
1.476 3.253 4.009
1.459 3.231 3.942
1.269 3.299 3.951
0.990 3.005 4.020
1.857 4.328 4.128
1.851 4.391 4.036
1.809 4.118 4.160
1.597 3.833 3.957
1.259 3.709 3.844
1.149 3.639 4.125
1.171 3.343 3.999
0.868 3.308 3.765
1.009 3.199 3.909
1.702 4.397 4.125
1.286 4.314 3.773
1.399 4.210 3.742
1.390 3.903 4.050
1.233 3.584 4.042
1.031 3.348 3.760
0.734 3.601 3.669
0.667 3.357 3.875
0.626 3.053 3.848
1.052 3.956 3.833
1.196 3.976 3.827
1.049 3.874 3.995
0.666 3.477 3.635
5.830 0.728 5.640
5.733 0.500 5.358
5.834 0.195 5.324
5.967 0.940 5.343
6.046 0.622 5.313
5.967 0.426 5.344
5.897 0.580 5.480
5.509 0.616 5.180
5.668 0.513 5.398
5.281 0.186 5.423
5.790 1.082 5.289
5.971 0.862 5.461
5.706 0.790 5.473
5.671 0.903 5.134
5.547 0.697 5.215
5.274 0.544 5.176
5.025 0.251 5.273
5.225 -0.001 5.267
5.548 0.902 5.428
5.411 0.769 5.145
5.247 0.750 5.229
5.249 0.551 5.171
5.071 0.475 5.091
4.902 0.271 5.327
4.996 0.137 5.356
5.570 1.174 5.399
5.483 0.821 5.115
5.194 1.133 5.405
5.197 0.747 5.282
4.796 0.458 4.987
4.747 0.391 5.326
4.727 0.438 5.181
4.671 -0.041 5.196
5.199 1.116 5.136
4.804 1.020 5.328
4.981 0.811 4.930
4.687 0.899 5.036
4.646 0.676 5.154
4.456 0.216 5.087
4.378 0.280 4.875
5.048 1.348 4.971
4.901 1.220 5.076
4.821 1.061 5.183
4.718 1.042 4.960
4.272 0.738 5.075
4.376 0.493 5.166
4.278 0.463 5.074
3.993 0.122 5.037
4.649 1.199 4.922
4.396 1.496 5.102
4.535 1.056 4.836
4.186 1.123 5.148
4.293 0.818 4.974
4.232 0.485 4.781
4.200 0.578 5.055
3.992 0.305 5.024
4.510 1.404 4.877
4.557 1.297 4.835
4.371 1.252 4.839
4.277 0.776 4.577
4.304 0.627 4.907
4.147 0.740 4.767
4.060 0.351 4.534
4.121 0.195 4.602
4.579 1.259 4.741
4.470 1.274 4.877
4.174 1.090 4.685
4.074 1.179 4.820
4.100 0.909 4.681
4.110 0.876 4.721
3.928 0.537 4.622
3.841 0.453 4.485
3.499 0.161 4.812
4.653 1.524 4.659
4.395 1.680 4.775
4.360 1.289 4.574
3.957 1.080 4.715
3.901 1.045 4.687
3.700 0.953 4.790
3.683 0.595 4.740
3.709 0.303 4.717
3.658 0.369 4.448
4.239 1.545 4.822
3.978 1.795 4.789
4.078 1.575 4.624
4.044 1.342 4.514
3.645 1.144 4.522
3.557 0.750 4.351
3.565 0.589 4.590
3.485 0.593 4.695
4.083 1.790 4.493
3.928 1.396 4.661
3.686 1.264 4.344
3.704 1.285 4.387
3.360 1.004 4.390
3.381 0.694 4.445
3.639 1.614 4.507
3.305 1.355 4.468
3.193 1.129 4.333
3.477 2.942 4.437
3.110 2.531 4.469
3.097 2.328 4.129
3.473 3.564 4.185
3.132 3.387 4.406
3.302 3.191 4.365
2.905 2.830 4.252
2.739 2.750 4.286
2.705 2.407 3.979
3.397 3.736 4.307
3.212 3.383 4.405
3.195 3.386 4.329
2.869 3.080 4.327
2.685 3.101 4.028
2.777 2.894 4.290
2.661 2.733 4.155
2.336 2.504 4.081
3.110 3.897 4.231
2.888 3.722 4.318
2.759 3.824 4.197
2.841 3.521 4.048
2.684 3.272 4.303
2.480 3.112 4.164
2.365 2.710 4.221
2.558 2.782 4.132
2.353 2.859 4.091
2.921 4.068 4.012
3.049 3.954 4.153
2.937 3.783 4.216
2.554 3.585 4.096
2.467 3.485 4.071
2.461 3.301 4.085
2.351 3.098 3.969
2.157 2.707 3.992
1.880 2.846 3.933
2.832 4.298 4.170
2.633 4.032 3.967
2.544 3.927 3.967
2.490 3.707 3.941
2.390 3.574 3.869
2.324 3.402 4.119
2.099 3.224 4.129
2.164 2.753 3.907
1.785 3.166 4.007
2.669 4.252 4.181
2.536 4.211 4.073
2.568 4.002 4.105
2.189 3.650 3.910
2.169 3.761 4.033
2.059 3.210 3.895
1.918 3.005 4.018
2.043 3.051 3.772
1.761 3.040 3.832
1.362 2.980 3.610
2.491 4.654 4.024
2.142 4.228 3.910
2.072 3.913 3.978
2.111 4.033 3.995
1.857 3.619 3.926
1.732 3.584 3.679
1.712 3.194 4.012
1.514 3.167 3.774
1.677 3.127 3.674
1.570 3.002 3.795
2.037 4.682 3.902
2.114 4.187 3.689
2.213 3.979 3.872
1.944 4.165 3.827
1.791 3.759 3.839
1.757 3.485 3.752
1.447 3.329 3.868
1.522 3.293 3.695
1.440 3.119 3.876
1.276 3.235 3.848
2.080 4.451 3.788
1.841 4.464 3.689
1.549 3.949 3.698
1.658 3.733 3.894
1.696 3.827 3.660
1.355 3.627 3.817
1.414 3.118 3.637
0.978 3.325 3.644
0.993 3.284 3.730
0.867 3.201 3.732
1.653 4.592 3.820
1.607 4.560 3.541
1.682 4.357 3.843
1.305 4.103 3.602
1.140 3.923 3.734
1.120 3.543 3.825
0.955 3.505 3.465
0.995 3.640 3.463
0.999 3.327 3.506
0.650 3.328 3.476
0.608 3.047 3.550
1.352 4.354 3.485
1.296 4.489 3.751
1.212 4.094 3.736
1.027 3.859 3.760
0.897 3.690 3.460
0.970 3.440 3.586
5.801 0.617 5.188
5.649 0.467 5.328
5.905 0.367 5.293
5.711 -0.196 5.164
6.272 1.301 5.112
6.020 1.060 5.279
6.070 0.975 5.234
5.820 0.534 5.144
5.960 0.897 5.346
5.679 0.516 5.071
5.463 0.476 5.282
5.236 0.025 5.269
6.033 1.094 5.083
6.121 0.987 5.030
5.791 0.992 5.374
5.872 0.727 5.207
5.740 0.609 4.934
5.539 0.568 5.128
5.230 0.439 5.016
5.063 0.376 5.211
5.285 -0.018 5.118
5.719 1.399 5.230
5.484 1.019 5.030
5.739 0.801 5.168
5.401 0.848 4.942
5.432 0.668 5.106
5.032 0.467 5.199
4.916 0.294 5.180
5.144 0.203 4.949
5.388 1.099 5.138
5.555 1.065 4.969
5.097 1.196 5.172
5.118 0.917 4.837
4.831 0.765 4.757
4.682 0.482 4.857
4.750 0.359 4.812
4.566 -0.045 5.030
5.363 1.405 5.038
5.256 0.898 4.939
5.061 1.130 5.013
5.022 0.854 4.787
4.858 0.861 4.747
4.853 0.578 4.820
4.493 0.188 5.039
4.658 0.034 4.900
5.142 1.511 4.996
4.899 1.250 5.016
4.760 1.238 4.793
4.740 1.216 4.834
4.585 1.026 5.034
4.342 0.615 4.753
4.234 0.509 4.912
4.302 0.067 4.766
4.371 0.141 4.697
4.996 1.412 4.754
4.752 1.294 4.819
4.702 0.977 4.745
4.229 1.046 4.966
4.227 0.643 4.830
4.047 0.655 4.585
3.980 0.428 4.811
4.150 -0.006 4.833
4.480 1.221 5.001
4.718 1.517 4.570
4.725 1.189 4.734
4.356 0.756 4.398
4.493 0.617 4.544
4.343 0.675 4.501
4.149 0.482 4.355
4.190 0.309 4.598
4.642 1.389 4.602
4.421 1.602 4.381
4.432 1.354 4.508
4.412 1.067 4.387
4.379 0.825 4.642
4.056 0.848 4.290
3.990 0.312 4.460
3.821 0.390 4.242
3.666 -0.102 4.350
4.454 1.259 4.625
4.270 1.385 4.364
4.179 1.163 4.311
4.038 1.030 4.279
3.712 0.681 4.220
3.668 0.767 4.531
3.600 0.241 4.251
3.886 1.199 4.459
3.901 1.164 4.405
3.899 1.066 4.139
3.586 0.867 4.145
3.081 3.650 3.961
3.085 3.145 4.142
2.837 3.010 3.983
2.676 2.857 3.825
3.299 3.647 3.849
2.904 3.589 4.135
3.058 3.286 3.857
2.950 3.148 3.928
2.522 3.024 3.774
2.752 2.949 4.050
2.299 2.727 3.716
3.122 3.994 4.073
2.962 4.039 3.726
2.921 3.545 4.076
2.709 3.370 3.681
2.629 3.435 3.913
2.323 3.316 3.833
2.588 2.871 3.641
2.222 2.647 3.974
1.938 2.857 3.560
2.742 4.275 3.895
2.869 4.067 3.681
2.624 3.867 3.761
2.609 3.621 3.976
2.268 3.503 3.768
2.190 3.216 3.948
2.381 3.097 3.655
1.907 2.710 3.643
2.094 3.048 3.528
2.867 4.570 3.945
2.517 4.450 3.856
2.619 4.222 3.585
2.286 3.775 3.607
2.152 3.692 3.675
2.311 3.717 3.805
1.982 3.514 3.711
2.208 3.354 3.736
1.915 3.086 3.473
1.588 3.259 3.671
1.559 2.933 3.383
2.548 4.478 3.944
2.467 4.563 3.599
2.452 4.279 3.632
2.369 3.891 3.651
2.299 3.812 3.738
1.894 3.506 3.727
2.117 3.514 3.773
1.833 3.186 3.432
1.721 2.956 3.745
1.529 3.170 3.361
1.623 3.108 3.649
2.392 4.731 3.599
2.250 4.470 3.846
2.235 4.510 3.637
2.090 4.044 3.729
1.857 4.147 3.751
1.977 3.730 3.666
1.696 3.732 3.585
1.569 3.494 3.621
1.534 3.216 3.437
1.179 3.480 3.637
1.233 3.095 3.272
1.009 2.992 3.351
2.277 4.764 3.512
1.862 4.664 3.747
1.962 4.413 3.610
1.906 3.893 3.513
1.731 4.080 3.604
1.491 3.738 3.468
1.514 3.346 3.366
1.319 3.443 3.558
1.342 3.331 3.254
1.045 3.274 3.218
1.051 2.923 3.260
0.668 2.667 3.389
1.956 4.931 3.480
1.795 4.697 3.539
1.709 4.249 3.607
1.500 4.086 3.359
1.478 4.108 3.371
1.312 3.851 3.532
1.475 3.731 3.390
1.327 3.469 3.469
1.098 3.524 3.521
0.750 3.302 3.271
0.766 2.958 3.281
0.615 2.961 3.199
0.360 2.556 3.311
1.687 4.606 3.501
1.612 4.441 3.321
1.359 4.256 3.232
1.473 4.119 3.257
1.324 3.829 3.275
1.285 3.713 3.238
0.916 3.355 3.204
6.208 0.413 5.052
6.082 0.488 5.069
5.842 0.003 4.995
6.061 0.923 4.883
6.202 0.574 5.016
5.939 0.583 4.878
5.873 0.690 4.871
5.554 0.435 4.788
5.504 0.386 4.947
5.686 0.147 4.986
6.433 1.616 4.963
6.147 1.433 4.985
6.158 1.205 5.065
5.963 0.902 4.798
5.663 0.618 4.789
5.438 0.950 5.008
5.715 0.425 4.991
5.555 0.448 4.770
5.409 0.349 4.696
5.333 0.109 4.705
6.052 1.558 5.052
5.700 1.030 4.992
5.868 1.065 5.074
5.791 0.768 4.825
5.293 0.951 4.949
5.302 0.652 4.871
5.281 0.570 4.896
5.092 0.271 4.761
4.896 0.205 4.720
5.771 1.246 4.684
5.720 1.083 4.679
5.476 0.884 4.856
5.271 1.197 4.902
4.966 0.907 4.635
5.198 0.443 4.700
4.852 0.333 4.707
4.995 0.284 4.598
4.669 -0.024 4.606
5.455 1.378 4.821
5.146 1.210 4.935
5.117 1.154 4.828
5.002 0.723 4.605
4.774 0.787 4.861
4.694 0.567 4.490
4.452 0.427 4.816
4.493 -0.045 4.648
5.352 1.287 4.894
5.264 1.054 4.748
4.753 1.085 4.458
4.675 1.150 4.764
4.643 0.755 4.558
4.604 0.475 4.703
4.434 0.400 4.639
4.267 0.429 4.543
4.430 0.203 4.579
4.693 1.089 4.828
4.521 1.516 4.570
4.512 1.066 4.670
4.450 0.966 4.751
4.466 0.664 4.710
4.209 0.378 4.578
4.242 0.232 4.534
4.113 0.297 4.359
4.682 1.197 4.399
4.678 1.119 4.332
4.515 1.046 4.369
4.493 0.771 4.453
4.237 0.495 4.470
4.344 0.419 4.233
4.014 0.268 4.261
4.575 1.191 4.385
4.401 1.023 4.086
4.365 0.955 4.226
3.959 0.633 4.186
3.861 0.374 4.340
4.072 0.087 4.123
3.778 0.166 4.164
4.167 1.250 4.072
4.121 0.942 4.097
4.052 0.875 4.186
3.880 0.369 4.184
3.230 3.686 3.882
3.052 3.482 3.638
2.934 3.256 3.841
2.623 3.090 3.756
3.096 4.134 3.672
3.037 4.096 3.759
2.732 3.663 3.580
2.592 3.528 3.829
2.674 3.184 3.601
2.369 3.297 3.769
2.653 3.086 3.507
3.041 4.299 3.653
2.794 4.063 3.626
2.838 3.722 3.648
2.397 3.766 3.436
2.680 3.436 3.387
2.460 3.117 3.354
2.256 3.112 3.493
2.005 2.867 3.550
2.880 4.633 3.617
2.534 4.434 3.702
2.665 4.316 3.669
2.630 3.753 3.642
2.249 3.870 3.463
2.439 3.578 3.337
2.373 3.522 3.640
2.095 3.093 3.524
1.995 2.859 3.376
1.675 2.986 3.292
1.521 2.980 3.230
2.724 4.797 3.555
2.614 4.435 3.314
2.462 4.346 3.559
2.311 4.131 3.655
2.354 3.887 3.488
2.056 3.479 3.344
1.937 3.645 3.304
1.799 3.377 3.567
1.682 3.202 3.572
1.714 3.297 3.325
1.363 3.154 3.305
2.592 4.702 3.592
2.232 4.491 3.579
2.394 4.436 3.391
2.175 4.207 3.230
2.194 3.809 3.472
2.075 3.696 3.450
1.812 3.452 3.498
1.730 3.310 3.535
1.558 3.195 3.450
1.248 3.146 3.425
1.202 2.905 3.342
1.059 2.991 3.057
2.285 4.673 3.402
2.156 4.811 3.283
1.905 4.577 3.533
2.122 4.434 3.159
1.819 3.974 3.344
1.843 4.027 3.449
1.752 3.568 3.460
1.603 3.582 3.441
1.546 3.401 3.167
1.261 3.450 3.056
1.102 3.050 3.105
0.916 2.872 3.017
0.981 2.885 3.028
2.177 4.851 3.435
1.891 4.662 3.514
1.903 4.630 3.449
1.842 4.371 3.113
1.862 4.051 3.074
1.592 3.908 3.229
1.325 3.741 3.170
1.248 3.778 3.071
1.398 3.206 3.264
1.114 3.627 2.971
0.986 3.264 3.049
0.993 3.135 3.156
0.734 2.960 3.068
0.504 2.634 3.107
1.603 4.913 3.308
1.592 4.623 3.399
1.659 4.280 3.130
1.494 4.455 3.113
1.390 4.181 3.202
1.087 4.059 3.157
1.056 3.796 3.001
0.992 3.642 3.032
6.222 0.551 4.842
5.863 0.514 4.820
5.762 0.359 4.926
6.084 0.873 4.907
6.030 0.629 4.804
5.754 0.521 4.875
5.636 0.578 4.835
5.579 0.215 4.710
5.553 0.172 4.700
6.331 1.361 4.983
6.145 1.005 4.767
6.175 0.688 4.578
6.048 0.479 4.735
5.642 0.707 4.841
5.547 0.418 4.553
5.606 0.348 4.780
5.208 0.056 4.780
5.882 1.491 4.897
6.014 0.984 4.856
5.707 0.936 4.726
5.633 0.805 4.594
5.514 0.800 4.814
5.438 0.559 4.509
5.188 0.481 4.452
5.181 0.455 4.416
5.064 -0.082 4.697
5.766 1.222 4.793
5.609 0.890 4.757
5.390 0.983 4.707
5.462 1.043 4.501
5.309 0.734 4.637
5.242 0.752 4.361
4.970 0.296 4.423
4.799 0.090 4.296
4.876 -0.000 4.418
5.636 1.177 4.701
5.455 0.891 4.486
5.073 1.261 4.659
4.900 1.097 4.457
5.015 0.805 4.532
4.801 0.438 4.628
4.736 0.481 4.538
4.464 0.308 4.591
5.375 1.114 4.400
5.018 1.242 4.425
5.128 1.109 4.561
5.013 1.065 4.257
4.841 1.004 4.245
4.590 0.807 4.436
4.444 0.438 4.182
4.443 0.132 4.298
4.264 0.224 4.439
5.069 1.280 4.322
4.684 1.130 4.521
4.747 1.110 4.380
4.595 0.816 4.352
4.194 0.681 4.467
4.103 0.385 4.107
4.000 0.229 4.460
4.788 1.060 4.308
4.566 0.838 4.234
4.516 0.571 4.044
4.234 0.414 4.123
4.175 0.267 4.265
4.353 0.197 4.081
4.348 1.082 4.104
4.289 0.789 4.208
4.213 0.804 4.077
4.191 0.441 4.150
3.929 0.395 3.871
3.240 3.801 3.543
3.098 3.832 3.282
3.040 3.401 3.447
2.540 3.431 3.484
2.697 2.926 3.531
3.173 4.377 3.611
2.939 4.033 3.401
2.803 4.067 3.343
2.672 3.769 3.483
2.771 3.627 3.328
2.410 3.254 3.173
2.623 3.059 3.185
2.149 3.223 3.157
2.863 4.613 3.532
2.699 4.445 3.216
2.781 4.017 3.266
2.510 3.805 3.454
2.437 3.740 3.374
2.431 3.372 3.156
2.083 3.522 3.364
2.105 3.014 3.099
1.825 3.013 2.992
2.915 4.788 3.468
2.877 4.686 3.156
2.452 4.521 3.106
2.582 4.319 3.417
2.290 3.848 3.372
2.290 3.965 3.283
2.278 3.667 3.335
1.974 3.355 3.296
1.811 3.066 3.236
1.990 3.214 3.035
1.801 3.022 2.975
1.421 3.081 3.209
2.689 4.788 3.443
2.415 4.528 3.224
2.392 4.329 3.313
2.508 4.346 3.060
2.228 4.160 3.169
1.990 3.814 3.028
2.186 3.623 3.330
1.968 3.479 3.305
1.953 3.449 3.286
1.836 3.343 3.064
1.380 3.214 2.879
1.413 3.252 2.862
1.422 2.872 2.994
2.397 4.902 3.209
2.181 4.715 3.082
2.378 4.694 2.991
1.937 4.525 3.199
1.959 4.266 3.294
1.999 4.099 3.220
1.956 3.661 2.918
1.735 3.553 3.224
1.733 3.305 2.913
1.606 3.120 3.213
1.445 3.315 3.135
1.064 3.008 2.793
1.075 3.072 3.028
0.882 2.924 2.815
2.411 5.063 3.144
2.339 4.834 3.227
2.078 4.595 3.035
2.028 4.621 3.053
1.702 4.506 3.224
1.913 4.331 3.130
1.504 3.857 3.201
1.406 3.606 2.999
1.410 3.428 2.850
1.329 3.182 2.841
0.977 3.472 2.870
0.930 3.411 3.008
0.735 2.922 3.017
0.891 3.041 2.944
0.593 2.862 3.023
0.458 2.361 2.640
1.927 5.200 3.107
1.734 4.940 2.990
1.591 4.833 3.099
1.586 4.478 3.093
1.469 4.432 3.128
1.405 4.037 2.887
1.158 4.042 2.835
1.403 3.635 3.025
1.032 3.323 3.044
6.283 0.388 4.506
6.071 0.546 4.411
5.876 0.143 4.500
6.386 0.572 4.514
6.054 0.548 4.659
6.071 0.507 4.653
5.741 0.327 4.387
5.648 0.087 4.678
5.476 0.223 4.386
6.158 1.259 4.643
6.181 0.976 4.668
6.063 0.783 4.401
6.007 0.658 4.417
5.715 0.941 4.387
5.767 0.534 4.392
5.693 0.392 4.546
5.637 0.335 4.411
6.021 1.177 4.639
5.956 1.286 4.434
5.949 0.886 4.430
5.669 0.761 4.504
5.765 0.778 4.229
5.405 0.527 4.453
5.435 0.646 4.540
5.308 0.168 4.454
5.041 0.240 4.479
5.660 1.257 4.558
5.632 1.073 4.593
5.761 1.029 4.298
5.382 1.033 4.435
5.113 0.896 4.245
5.111 0.557 4.204
4.893 0.336 4.121
5.047 0.098 4.356
4.678 0.159 4.422
5.351 1.015 4.346
5.382 1.059 4.494
5.212 0.921 4.169
5.135 1.010 4.286
5.102 0.597 4.283
4.734 0.612 4.202
4.617 0.276 4.234
4.772 0.257 4.381
5.364 0.969 4.113
4.822 0.911 4.171
4.885 0.988 4.201
4.797 0.462 4.295
4.600 0.321 4.347
4.588 0.084 4.223
4.225 -0.137 4.258
4.723 1.090 4.029
4.754 1.026 3.956
4.340 0.852 4.134
4.267 0.484 4.113
4.257 0.233 4.255
4.036 0.087 3.871
4.835 0.981 3.845
4.715 0.827 4.070
4.452 0.410 3.936
4.218 0.428 3.886
4.054 -0.012 3.799
4.078 0.743 3.970
4.090 0.548 3.723
4.107 0.181 3.932
3.038 3.837 3.365
3.214 3.731 3.430
3.016 3.351 3.028
3.054 4.392 3.188
3.007 4.284 3.207
3.026 3.869 3.088
2.973 3.865 3.265
2.586 3.616 3.079
2.642 3.211 2.974
2.426 3.344 2.958
3.180 4.546 3.145
2.814 4.466 3.062
3.042 4.298 3.134
2.860 4.063 3.160
2.803 3.991 3.264
2.675 3.571 2.960
2.244 3.624 3.195
2.351 3.391 3.032
2.099 3.241 3.069
1.975 3.145 3.132
