4.869 5.859 3.010
4.636 5.880 2.914
4.626 5.479 2.682
4.505 5.443 2.715
4.513 5.094 2.632
4.325 5.041 2.525
4.411 4.731 2.418
3.483 6.200 1.774
3.572 5.782 1.892
3.374 5.749 1.669
3.275 5.554 1.630
3.871 6.100 2.042
3.865 6.032 2.053
3.557 5.875 1.860
3.547 5.648 1.849
3.455 5.461 1.771
4.014 6.258 2.475
3.915 6.010 2.301
3.871 5.820 2.292
3.703 5.546 2.189
3.810 5.509 2.009
3.642 5.225 1.951
4.145 6.152 2.463
4.176 5.825 2.401
3.914 5.855 2.436
4.031 5.531 2.325
3.907 5.443 2.034
3.712 5.109 2.043
4.330 6.292 2.865
4.282 6.031 2.744
4.075 5.749 2.572
4.012 5.568 2.407
3.952 5.475 2.298
3.870 5.238 2.247
4.001 5.019 2.163
4.350 6.178 2.886
4.395 5.984 2.791
4.271 5.572 2.863
4.214 5.464 2.600
4.213 5.179 2.526
4.015 5.042 2.533
4.115 4.809 2.227
4.726 6.046 3.237
4.542 5.860 3.127
4.409 5.799 2.962
4.329 5.478 2.878
4.272 5.337 2.906
4.398 5.238 2.822
4.167 4.993 2.605
4.193 4.836 2.472
4.751 6.299 3.571
4.692 6.098 3.351
4.729 5.733 3.352
5.070 6.164 3.722
3.534 6.147 1.941
3.377 5.952 1.941
3.168 5.809 1.775
3.311 5.393 1.653
3.511 6.167 2.396
3.677 5.894 2.145
3.526 5.706 1.942
3.292 5.471 1.977
3.351 5.294 1.816
3.757 6.300 2.613
3.622 6.066 2.317
3.780 5.928 2.349
3.601 5.658 2.231
3.550 5.356 2.093
3.446 5.244 2.047
3.968 6.093 2.655
3.750 5.947 2.528
3.814 5.718 2.581
3.711 5.413 2.487
3.639 5.231 2.310
3.481 5.091 2.199
4.201 6.163 2.810
4.076 5.911 2.853
3.933 5.860 2.768
3.973 5.671 2.746
3.836 5.488 2.402
3.751 5.155 2.443
3.720 5.090 2.342
4.145 6.205 3.118
4.135 5.982 2.876
4.122 5.631 2.937
3.992 5.626 2.691
3.983 5.420 2.668
3.944 5.009 2.709
3.942 4.855 2.545
4.558 6.104 3.267
4.398 6.048 3.236
4.322 5.703 3.207
4.238 5.505 3.071
4.157 5.294 2.940
4.169 5.066 2.787
4.744 6.258 3.700
4.614 5.957 3.464
4.603 5.903 3.302
4.551 5.706 3.200
4.868 6.112 3.861
4.852 5.904 3.536
4.896 6.253 3.940
5.103 6.374 4.201
5.401 6.143 4.328
5.387 6.162 4.714
3.145 6.034 2.253
3.048 5.895 2.100
3.202 5.757 2.091
3.137 5.498 1.795
3.516 6.251 2.395
3.500 6.066 2.309
3.261 5.802 2.144
3.246 5.664 2.224
3.240 5.285 2.128
3.516 6.268 2.775
3.596 6.085 2.660
3.428 5.948 2.399
3.485 5.548 2.295
3.259 5.510 2.292
3.349 5.249 2.108
3.687 6.003 2.863
3.721 5.837 2.823
3.514 5.823 2.742
3.618 5.506 2.404
3.436 5.395 2.536
3.337 5.255 2.297
4.020 6.303 2.953
3.989 6.120 2.961
3.933 5.677 2.937
3.739 5.585 2.799
3.637 5.510 2.708
3.587 5.127 2.475
3.497 4.918 2.359
4.210 6.243 3.235
4.193 6.072 3.325
3.997 5.923 3.226
4.065 5.648 3.068
3.961 5.603 2.956
3.787 5.266 2.904
3.724 5.200 2.706
4.222 6.226 3.524
4.337 5.838 3.376
4.098 5.784 3.316
4.153 5.688 3.140
3.969 5.292 3.057
4.371 6.317 3.607
4.404 6.089 3.680
4.224 5.759 3.504
4.175 5.739 3.453
4.512 6.010 3.934
4.606 5.984 3.682
4.793 6.140 4.049
4.849 6.121 4.028
5.073 6.212 4.274
5.044 6.007 4.374
5.116 6.036 4.455
5.439 6.272 4.772
5.174 6.348 4.870
4.986 6.014 4.742
5.369 6.073 5.018
5.181 5.886 5.001
5.453 6.170 5.260
5.377 6.061 5.358
6.369 4.139 6.202
6.128 3.929 6.166
6.105 3.677 6.022
6.290 3.641 6.158
6.192 3.341 6.200
6.138 3.141 5.853
6.270 3.010 6.214
6.174 2.854 6.090
6.297 2.660 6.095
3.050 6.281 2.279
3.172 6.125 2.394
3.094 5.922 2.299
2.978 5.566 2.128
3.351 6.259 2.511
3.093 6.049 2.375
3.232 5.795 2.409
3.181 5.606 2.310
3.568 6.242 2.887
3.473 5.923 2.778
3.374 5.878 2.729
3.266 5.708 2.514
3.151 5.417 2.334
3.662 6.201 2.980
3.483 5.828 2.910
3.525 5.647 2.888
3.320 5.500 2.738
3.306 5.216 2.439
3.744 6.229 3.089
3.606 6.106 3.096
3.684 5.928 2.944
3.534 5.561 2.925
3.468 5.330 2.827
4.059 6.309 3.366
3.919 6.054 3.246
3.776 5.772 3.181
3.711 5.671 3.301
3.568 5.571 3.063
4.130 6.096 3.689
3.991 6.084 3.548
4.025 5.829 3.323
3.980 5.570 3.358
4.352 6.342 3.875
4.135 6.119 3.679
4.256 5.897 3.800
4.428 6.070 3.969
4.363 5.786 4.051
4.554 6.305 4.341
4.560 6.060 4.109
4.880 6.359 4.431
4.850 6.040 4.534
4.720 5.951 4.366
5.038 6.274 4.645
4.991 5.845 4.555
5.239 6.277 4.913
5.116 5.893 4.784
4.991 6.280 5.151
4.871 6.077 4.962
4.893 5.902 4.980
4.998 6.081 5.157
5.003 5.945 5.185
5.263 6.173 5.614
5.317 6.008 5.436
5.058 5.850 5.177
5.488 6.128 5.658
5.330 6.026 5.654
5.395 5.815 5.588
6.002 4.240 6.323
5.989 3.999 6.039
5.889 3.822 6.394
6.010 3.747 6.210
5.873 3.388 6.141
5.894 3.423 6.346
5.817 3.171 6.180
6.185 2.967 6.226
5.884 2.787 6.172
3.049 6.391 2.429
3.000 6.160 2.493
2.939 5.946 2.239
2.684 5.567 2.247
3.007 6.078 2.796
3.127 6.069 2.689
2.817 5.708 2.537
2.762 5.473 2.434
3.311 6.299 2.853
3.300 5.929 2.754
3.171 5.712 2.810
3.024 5.692 2.697
3.334 6.036 3.159
3.292 5.809 2.957
3.309 5.780 2.843
3.254 5.601 2.756
3.728 6.156 3.387
3.650 6.078 3.298
3.495 5.830 3.239
3.360 5.520 3.037
3.667 6.182 3.613
3.637 6.092 3.418
3.709 5.916 3.454
3.475 5.738 3.353
3.835 6.234 3.769
3.732 5.816 3.695
3.794 5.754 3.572
4.139 6.288 4.144
4.102 5.988 3.969
3.866 5.871 3.892
4.254 6.197 4.177
4.285 5.905 4.160
4.414 6.285 4.480
4.452 6.092 4.350
4.680 6.304 4.786
4.606 6.020 4.539
4.574 5.934 4.504
4.847 6.060 4.923
4.615 5.978 4.755
5.065 6.080 4.992
4.847 5.902 4.858
4.718 5.721 4.998
4.676 6.285 5.240
4.647 6.015 5.156
4.583 5.711 4.924
5.043 6.409 5.477
4.866 6.170 5.441
4.893 5.768 5.300
4.779 5.634 5.190
5.188 6.051 5.725
5.124 6.028 5.656
5.102 5.804 5.302
4.778 5.686 5.400
5.364 6.202 5.985
5.258 5.936 5.731
5.230 5.896 5.647
4.979 5.760 5.574
5.105 5.345 5.367
5.448 6.061 5.959
5.423 5.795 5.905
5.383 5.691 5.829
5.276 5.612 5.834
5.642 5.896 6.235
5.507 5.736 6.012
5.386 5.695 6.067
5.385 5.384 5.972
5.462 5.468 6.167
5.458 5.371 6.037
5.659 5.038 6.116
5.640 4.713 6.134
5.566 4.725 6.080
5.454 4.442 6.106
5.521 4.217 6.179
5.662 4.161 6.228
5.744 4.011 6.187
5.764 3.827 6.079
5.605 3.581 6.108
5.813 3.601 6.088
5.613 3.294 6.092
5.746 3.037 6.308
2.894 6.255 2.626
2.789 5.992 2.514
2.634 5.927 2.607
2.926 6.039 2.969
2.723 6.068 2.749
2.835 5.850 2.590
3.172 6.166 3.125
3.096 5.979 2.942
3.013 5.833 2.860
2.813 5.746 2.834
3.170 6.099 3.233
3.252 6.004 3.099
3.057 5.575 2.955
3.328 6.308 3.590
3.319 5.982 3.326
3.389 5.679 3.403
3.706 6.285 3.864
3.659 6.039 3.540
3.580 5.954 3.643
3.678 6.139 3.967
3.776 5.912 3.741
4.019 6.101 4.166
3.843 6.015 3.961
4.137 5.986 4.375
3.893 5.865 4.148
4.375 6.104 4.452
4.254 5.886 4.364
4.552 6.300 4.854
4.379 6.055 4.755
4.420 5.799 4.617
4.707 6.141 4.870
4.530 6.041 4.831
4.684 6.157 5.214
4.842 6.042 5.235
4.733 5.884 4.947
4.651 6.217 5.345
4.537 5.950 5.158
4.429 5.776 5.245
4.903 6.239 5.707
4.813 6.146 5.472
4.720 5.973 5.435
4.710 5.679 5.278
4.993 6.152 5.722
4.805 5.829 5.631
4.919 5.827 5.510
4.677 5.446 5.578
5.142 6.256 5.943
4.925 6.103 5.897
4.919 5.830 5.797
4.957 5.566 5.802
4.936 5.448 5.647
5.336 6.083 6.053
5.220 5.951 6.101
4.989 5.699 5.927
5.021 5.526 5.899
5.043 5.210 5.675
4.894 5.129 5.654
5.232 5.906 6.101
5.172 5.597 6.222
5.163 5.339 5.952
5.232 5.260 5.855
4.957 5.091 5.786
5.212 5.168 6.250
5.274 5.106 6.125
5.230 4.960 5.995
5.008 4.673 5.820
5.303 4.830 6.255
5.191 4.822 6.173
5.301 4.499 5.989
5.112 4.429 6.060
5.401 4.489 6.125
5.298 4.137 6.061
5.159 4.027 5.925
5.510 4.241 6.335
5.460 3.916 6.273
5.276 3.802 6.093
5.376 3.490 6.160
5.424 3.316 6.213
5.477 3.294 6.207
2.578 6.198 2.893
2.455 5.959 2.793
2.442 5.749 2.601
2.637 6.224 2.906
2.756 5.828 2.868
2.538 5.816 2.694
2.806 6.249 3.227
2.926 5.948 3.221
2.769 5.789 3.036
3.165 6.030 3.349
3.081 5.929 3.180
3.132 6.059 3.560
3.258 5.851 3.622
3.459 6.333 3.804
3.274 6.172 3.835
3.455 6.030 4.137
3.863 6.102 4.178
3.675 6.123 4.100
3.941 6.252 4.580
3.768 6.022 4.335
4.033 6.043 4.780
3.980 6.037 4.484
4.325 6.195 5.083
4.266 6.134 4.774
4.446 6.030 5.053
4.461 5.808 4.902
4.566 6.306 5.402
4.489 6.074 5.163
4.354 5.775 5.081
4.501 6.178 5.487
4.356 5.919 5.351
4.208 5.679 5.337
4.700 6.206 5.637
4.486 6.131 5.738
4.600 5.782 5.495
4.305 5.711 5.427
4.692 6.055 5.930
4.593 5.847 5.700
4.710 5.646 5.753
4.548 5.444 5.577
4.599 5.243 5.505
5.025 6.149 6.048
4.835 6.013 6.141
4.692 5.743 5.947
4.630 5.715 5.762
4.583 5.411 5.820
4.597 5.313 5.771
5.051 5.819 6.305
5.008 5.612 6.128
4.851 5.380 6.108
4.814 5.208 6.007
4.812 5.228 5.833
5.007 5.650 6.316
5.014 5.384 6.092
4.812 5.247 6.202
4.859 4.927 5.880
4.800 4.881 5.857
5.057 5.093 6.255
4.925 4.741 6.057
4.890 4.722 6.012
4.717 4.487 5.856
4.925 4.574 6.129
5.070 4.251 6.139
4.765 4.193 6.108
5.035 4.293 6.310
5.038 3.994 6.236
5.047 3.869 5.951
5.147 3.799 6.133
4.902 3.410 6.027
5.167 3.260 6.133
2.515 6.189 2.862
2.460 6.041 3.011
2.265 5.904 2.851
2.526 6.198 3.129
2.343 5.803 3.016
2.753 6.096 3.520
2.742 5.886 3.222
2.989 6.243 3.741
2.779 6.033 3.595
2.924 6.088 3.706
3.128 6.355 4.140
3.738 6.262 4.782
3.862 6.090 4.783
4.013 6.331 5.016
4.102 6.095 4.906
4.293 6.155 5.335
4.220 5.893 5.152
4.453 6.305 5.617
4.394 5.989 5.382
4.414 5.888 5.245
4.264 6.258 5.662
4.179 5.852 5.454
4.042 5.884 5.577
4.430 6.302 5.854
4.388 5.971 5.873
4.260 5.744 5.613
4.353 5.782 5.505
4.634 6.007 5.976
4.397 5.991 6.086
4.533 5.636 5.910
4.445 5.443 5.727
4.204 5.238 5.543
4.741 5.933 6.276
4.558 5.935 6.096
4.494 5.627 6.064
4.590 5.348 5.904
4.328 5.114 5.912
4.700 5.650 6.196
4.799 5.509 6.100
4.520 5.168 5.956
4.649 5.226 5.926
4.558 4.893 5.781
4.759 5.073 6.292
4.553 5.023 6.205
4.513 4.876 5.987
4.396 4.695 5.939
4.892 4.862 6.242
4.722 4.704 6.091
4.778 4.458 6.129
4.505 4.204 5.972
4.741 4.413 6.130
4.625 4.168 6.178
4.639 4.041 6.138
4.843 3.800 6.305
4.687 3.681 6.197
4.835 3.568 6.196
4.723 3.256 6.089
2.278 6.372 3.114
2.117 5.925 3.161
2.337 6.122 3.321
2.298 5.997 3.067
2.552 6.147 3.621
3.974 6.254 5.207
3.944 6.225 5.375
4.005 5.823 5.186
4.159 6.292 5.723
4.239 5.867 5.526
4.006 5.714 5.496
6.303 1.800 0.491
6.297 2.295 0.582
6.223 2.058 0.436
6.338 1.782 0.392
6.328 2.135 0.804
6.178 2.001 0.666
6.139 1.873 0.547
6.290 1.728 0.845
6.106 1.428 0.795
6.299 1.364 0.950
6.180 2.963 0.822
6.174 2.767 0.667
6.098 2.587 0.592
6.141 2.685 0.919
6.231 2.556 0.793
6.131 2.405 0.682
5.938 2.141 0.637
6.107 2.244 0.824
6.182 1.860 0.717
6.018 1.877 0.704
6.164 2.723 1.203
6.297 2.462 1.075
6.049 2.390 1.020
6.055 2.122 1.035
5.872 1.839 0.778
5.844 1.703 0.814
6.212 2.158 1.177
6.161 2.006 1.184
6.024 1.707 1.140
6.112 1.596 0.796
6.244 1.649 1.137
6.144 1.593 1.092
5.162 5.511 -0.063
5.310 5.307 0.227
5.120 5.117 0.148
5.949 3.331 0.806
5.774 3.096 0.864
5.857 2.903 0.783
6.106 3.440 1.084
6.123 3.098 1.111
5.952 2.899 0.939
5.964 2.779 0.990
5.792 2.469 0.796
5.828 2.516 0.767
6.246 3.320 1.325
6.086 3.078 1.178
6.183 2.929 1.199
6.074 2.682 1.078
6.104 2.578 0.990
5.868 2.312 0.912
5.931 1.997 0.800
6.293 2.809 1.180
6.226 2.573 1.094
6.111 2.447 0.959
5.966 2.261 1.027
5.981 1.851 0.880
5.897 1.787 0.666
6.261 3.084 1.636
6.061 2.929 1.380
5.976 2.788 1.312
6.044 2.435 1.317
5.871 2.380 1.229
5.865 2.088 1.231
5.840 2.027 0.920
5.651 1.867 0.932
6.401 2.796 1.595
6.227 2.567 1.540
6.071 2.447 1.547
5.967 2.350 1.288
5.973 2.124 1.291
5.970 1.942 1.181
5.812 1.522 1.192
6.350 2.207 1.715
6.095 2.208 1.599
6.134 1.871 1.503
6.109 1.693 1.282
6.095 1.482 1.282
6.288 1.894 1.629
6.048 1.698 1.570
6.003 1.454 1.389
4.847 5.401 0.055
4.898 5.309 0.142
4.842 4.662 -0.036
5.094 5.163 0.394
5.089 5.058 0.163
4.975 4.790 0.003
4.878 4.769 0.059
5.091 5.162 0.587
5.181 4.954 0.329
5.213 4.821 0.218
5.351 5.016 0.553
5.371 4.762 0.646
5.683 3.517 1.014
5.612 3.518 0.869
5.564 3.139 0.761
5.376 2.906 0.610
5.818 3.537 1.030
5.670 3.361 1.090
5.612 3.134 0.851
5.617 2.844 0.973
5.679 2.735 0.729
6.041 3.548 1.467
5.911 3.298 1.211
5.789 3.178 1.245
5.789 2.889 1.046
5.826 2.754 1.019
5.644 2.653 0.975
5.653 2.423 0.679
6.141 3.595 1.316
6.181 3.356 1.642
5.983 3.390 1.355
6.039 3.062 1.359
5.947 2.824 1.185
5.768 2.770 1.184
5.847 2.596 1.095
5.774 2.350 1.050
5.772 1.967 0.976
6.195 3.344 1.528
6.283 3.165 1.518
6.093 2.952 1.515
6.185 2.799 1.412
6.088 2.470 1.352
5.892 2.274 1.102
5.763 2.158 1.171
5.833 1.868 1.146
5.620 1.878 0.798
6.029 3.340 1.926
6.090 3.111 1.797
5.846 2.997 1.704
5.804 2.647 1.653
5.733 2.434 1.465
5.848 2.434 1.471
5.666 2.130 1.283
5.495 1.817 1.100
5.588 1.865 1.104
6.118 3.414 1.962
5.973 3.401 1.726
6.285 3.332 1.966
6.279 2.973 1.943
6.018 2.728 1.777
6.075 2.638 1.782
6.067 2.406 1.691
5.809 2.246 1.447
5.730 2.115 1.414
5.779 1.792 1.415
5.712 1.652 1.149
6.135 3.250 2.083
6.248 2.819 2.083
6.106 2.474 1.808
6.029 2.237 1.689
5.916 2.115 1.538
5.872 1.978 1.687
5.960 1.778 1.433
6.295 2.266 2.014
6.193 2.303 1.897
6.075 2.036 1.777
6.176 1.890 1.760
6.002 1.563 1.613
6.140 1.982 2.005
6.270 1.539 1.877
6.014 1.582 1.680
4.526 4.830 0.122
4.818 5.451 0.322
4.587 5.136 0.327
4.727 5.063 0.047
4.447 4.827 0.064
4.729 4.591 0.221
4.623 4.342 0.124
4.812 5.175 0.527
4.877 5.131 0.430
4.800 4.777 0.218
4.590 4.619 0.245
4.767 4.509 0.218
4.764 4.313 0.352
5.123 5.133 0.601
5.040 4.879 0.431
4.782 4.697 0.324
4.955 4.516 0.364
4.898 4.293 0.354
4.842 4.324 0.488
5.085 5.067 0.864
5.102 4.803 0.731
4.962 4.532 0.580
5.035 4.475 0.430
4.991 4.316 0.722
4.925 4.044 0.410
5.284 5.017 1.012
5.136 4.680 0.856
5.250 4.473 0.800
5.043 4.243 0.600
5.157 4.152 0.770
5.265 4.003 0.584
5.064 3.723 0.455
5.478 4.530 0.880
5.370 4.410 0.877
5.104 4.240 0.803
5.221 3.983 0.892
5.236 3.916 0.745
5.272 3.736 0.761
5.127 3.517 0.733
5.436 4.355 1.120
5.337 4.061 0.831
5.465 3.857 1.081
5.436 3.831 0.957
5.395 3.620 0.806
5.212 3.455 0.900
5.136 3.113 0.745
5.464 4.200 1.074
5.479 3.891 1.210
5.646 3.696 1.294
5.627 3.746 1.161
5.480 3.491 0.949
5.426 3.309 0.893
5.273 3.054 0.933
5.140 2.808 0.732
5.787 3.988 1.416
5.601 3.753 1.144
5.824 3.808 1.471
5.546 3.411 1.263
5.514 3.255 1.155
5.447 3.005 1.156
5.518 3.014 0.946
5.282 2.605 1.020
5.307 2.601 0.884
5.915 3.929 1.487
5.806 3.675 1.388
5.921 3.617 1.436
5.678 3.284 1.390
5.766 3.055 1.309
5.651 3.073 1.244
5.560 2.817 1.256
5.524 2.617 1.174
5.324 2.266 1.046
5.269 2.146 0.722
5.885 3.706 1.753
5.955 3.479 1.670
5.949 3.472 1.693
5.788 3.323 1.537
5.745 2.979 1.527
5.670 2.927 1.315
5.602 2.671 1.285
5.668 2.389 1.114
5.661 2.355 1.093
5.489 2.065 1.110
5.927 3.651 1.735
6.031 3.464 1.773
6.131 3.391 1.787
5.967 3.213 1.847
5.970 2.819 1.683
5.905 2.740 1.502
5.940 2.451 1.426
5.858 2.247 1.453
5.706 2.075 1.162
5.597 1.924 1.068
5.475 1.868 1.164
6.295 3.513 1.950
6.087 3.223 1.848
5.959 3.403 2.037
5.952 3.163 1.846
5.733 2.891 1.707
5.588 2.691 1.608
5.751 2.452 1.681
5.587 2.440 1.505
5.399 2.144 1.471
5.558 1.951 1.249
5.242 1.750 1.115
5.993 3.601 2.012
5.941 3.373 1.869
6.059 3.148 2.057
5.858 2.900 2.164
5.937 2.760 2.060
5.881 2.712 1.867
5.778 2.345 1.660
5.632 2.273 1.634
5.736 1.898 1.530
5.544 1.931 1.334
6.148 3.342 2.276
6.125 3.093 2.053
6.052 2.991 2.262
6.005 2.789 2.075
5.938 2.582 2.119
6.019 2.355 1.900
5.936 2.204 1.957
5.801 2.099 1.764
5.639 1.837 1.595
5.739 1.779 1.575
6.335 3.184 2.482
6.055 2.965 2.213
6.213 2.831 2.266
6.238 2.680 2.199
6.223 2.372 2.177
5.981 2.044 1.930
6.031 1.970 2.019
5.939 1.795 1.922
5.846 1.683 1.697
6.297 2.308 2.393
6.258 1.932 2.237
5.984 1.897 2.087
6.105 1.745 2.121
6.230 1.965 2.341
6.294 1.792 2.358
4.516 4.846 0.190
4.441 4.600 0.117
4.498 5.431 0.348
4.590 5.064 0.468
4.358 4.908 0.308
4.311 4.862 0.150
4.650 4.548 0.289
4.361 4.368 0.351
4.734 5.282 0.511
4.549 5.106 0.425
4.550 4.832 0.426
4.468 4.553 0.212
4.723 4.428 0.357
4.612 4.456 0.264
4.808 5.025 0.671
4.660 4.873 0.548
4.726 4.667 0.463
4.593 4.562 0.498
4.863 4.507 0.645
4.588 4.170 0.407
4.520 3.943 0.418
4.904 4.966 0.914
4.887 4.888 0.899
4.724 4.652 0.819
4.696 4.541 0.518
4.808 4.191 0.847
4.935 4.070 0.559
4.853 3.991 0.609
5.062 4.832 1.195
5.021 4.625 0.902
4.848 4.579 1.007
4.798 4.230 0.837
4.909 4.235 0.857
4.839 3.999 0.781
4.851 3.885 0.646
4.842 3.627 0.580
5.221 4.644 1.295
5.055 4.668 1.013
5.041 4.295 1.081
5.157 4.174 1.002
5.187 3.990 1.081
5.196 3.806 1.096
4.948 3.526 0.984
4.972 3.428 0.906
4.863 3.243 0.748
5.420 4.735 1.300
5.363 4.498 1.349
5.324 4.351 1.152
5.231 4.103 1.079
5.280 3.977 1.185
5.083 3.630 1.102
5.102 3.489 1.063
5.024 3.216 0.952
4.924 3.055 0.818
4.861 2.861 0.758
5.313 4.229 1.482
5.270 4.220 1.401
5.382 3.952 1.333
5.309 3.739 1.517
5.277 3.529 1.177
5.273 3.541 1.301
5.105 3.082 1.152
4.999 3.067 0.932
5.103 2.849 0.965
5.008 2.579 0.864
5.551 4.284 1.562
5.479 3.923 1.555
5.522 3.787 1.348
5.556 3.737 1.476
5.441 3.508 1.417
5.528 3.183 1.386
5.334 3.004 1.229
5.218 2.951 1.232
5.187 2.735 1.014
5.045 2.559 1.015
4.984 2.170 0.793
5.540 3.921 1.593
5.409 3.760 1.408
5.721 3.461 1.571
5.629 3.339 1.576
5.557 3.201 1.436
5.356 3.037 1.503
5.321 2.835 1.418
5.419 2.520 1.247
5.293 2.501 1.152
5.081 2.289 0.890
5.801 3.727 1.920
5.548 3.503 1.663
5.710 3.387 1.715
5.668 3.200 1.643
5.532 3.063 1.714
5.602 2.859 1.576
5.403 2.601 1.459
5.328 2.468 1.268
5.386 2.258 1.237
5.410 2.003 1.150
5.919 3.593 2.002
5.913 3.475 1.912
5.951 3.443 1.923
5.929 3.240 1.776
5.783 2.981 1.811
5.722 2.674 1.609
5.702 2.558 1.478
5.661 2.259 1.452
5.594 2.247 1.513
5.535 2.024 1.393
5.416 1.864 1.287
6.017 3.649 2.227
6.008 3.245 1.987
5.736 3.315 2.118
5.568 3.244 2.019
5.527 3.012 1.990
5.612 2.662 1.943
5.428 2.569 1.761
5.301 2.305 1.581
5.373 2.238 1.439
5.191 1.797 1.505
5.075 1.835 1.262
5.807 3.393 2.337
5.850 3.253 2.204
5.895 3.091 2.334
5.878 2.945 2.125
5.632 2.697 2.141
5.703 2.512 2.106
5.633 2.442 1.880
5.527 2.274 1.789
5.528 2.116 1.751
5.259 1.909 1.596
5.918 3.283 2.330
6.037 3.127 2.436
5.946 2.797 2.302
5.837 2.808 2.375
5.657 2.443 2.218
5.663 2.262 1.960
5.685 2.119 1.992
5.596 1.811 1.955
5.542 1.682 1.759
6.111 2.964 2.427
6.067 2.836 2.532
6.109 2.671 2.509
6.108 2.602 2.480
5.955 2.279 2.356
5.839 2.056 2.166
5.834 1.902 2.096
5.701 1.641 1.888
6.193 2.949 2.523
6.348 2.790 2.793
6.072 2.515 2.780
6.086 2.315 2.546
5.941 2.352 2.485
6.045 1.914 2.308
5.940 1.821 2.241
6.327 2.947 2.658
6.324 2.304 2.807
6.202 2.004 2.620
4.306 4.738 0.401
4.226 4.576 0.138
4.397 5.480 0.512
4.224 5.189 0.618
4.198 4.977 0.541
4.079 4.866 0.319
4.380 4.685 0.446
4.293 4.479 0.492
4.427 5.182 0.889
4.600 4.998 0.788
4.316 4.846 0.668
4.267 4.530 0.540
4.529 4.461 0.521
4.300 4.428 0.460
4.452 4.107 0.530
4.703 5.186 0.997
4.630 5.010 0.904
4.570 4.702 0.643
4.360 4.612 0.688
4.682 4.444 0.700
4.447 4.203 0.666
4.492 4.097 0.504
4.768 4.942 0.946
4.726 4.861 0.993
4.606 4.602 0.749
4.564 4.470 0.805
4.848 4.251 0.816
4.573 4.196 0.877
4.462 3.857 0.614
4.398 3.805 0.517
4.883 4.783 1.338
4.925 4.556 1.116
4.782 4.515 1.034
4.747 4.179 0.828
4.843 4.254 1.137
4.814 4.005 0.919
4.676 3.874 0.855
4.586 3.612 0.887
4.632 3.462 0.628
5.091 4.666 1.458
5.066 4.671 1.186
4.922 4.259 1.142
4.975 4.045 0.992
4.897 3.985 1.212
4.887 3.754 1.159
4.708 3.534 0.989
4.739 3.546 0.865
4.786 3.123 0.813
4.578 2.969 0.676
5.142 4.756 1.561
5.060 4.309 1.365
5.067 4.157 1.375
4.952 3.959 1.222
5.214 3.945 1.344
4.962 3.674 1.154
4.937 3.495 1.150
4.764 3.272 0.966
4.908 3.049 0.957
4.655 2.977 0.908
4.569 2.644 0.849
5.206 4.400 1.623
5.152 4.295 1.527
5.051 4.076 1.522
5.230 3.983 1.506
5.172 3.766 1.557
5.070 3.515 1.551
5.212 3.450 1.404
4.918 3.155 1.345
4.867 2.980 1.154
4.765 2.855 1.091
4.735 2.636 0.933
4.822 2.473 0.963
5.403 4.280 1.792
5.190 3.919 1.501
5.142 3.714 1.404
5.279 3.552 1.576
5.317 3.562 1.606
5.261 3.230 1.557
5.132 3.166 1.359
5.090 2.829 1.271
5.006 2.616 1.294
4.862 2.512 1.180
4.956 2.346 1.115
5.565 4.047 1.917
5.339 3.890 1.812
5.266 3.632 1.696
5.496 3.602 1.718
5.404 3.262 1.633
5.465 3.278 1.543
5.348 2.920 1.454
5.280 2.635 1.373
5.050 2.615 1.214
5.020 2.432 1.317
4.946 2.064 1.056
4.899 2.011 0.930
5.540 3.878 1.846
5.586 3.523 1.709
5.607 3.438 1.983
5.534 3.239 1.783
5.477 3.104 1.793
5.324 2.881 1.734
5.329 2.516 1.633
5.276 2.571 1.574
5.232 2.334 1.504
5.189 2.013 1.233
5.057 1.940 1.247
5.602 3.616 2.131
5.669 3.433 1.904
5.784 3.294 2.188
5.546 3.161 2.019
5.612 3.009 1.990
5.509 2.647 1.816
5.512 2.481 1.744
5.332 2.263 1.576
5.248 2.040 1.434
5.372 2.023 1.466
5.107 1.745 1.365
5.767 3.491 2.247
5.635 3.298 2.218
5.586 3.256 2.157
5.525 3.162 2.220
5.475 2.819 2.113
5.252 2.703 1.989
5.218 2.423 1.783
5.302 2.213 1.894
5.190 2.061 1.649
4.954 1.964 1.550
5.111 1.793 1.619
5.618 3.376 2.230
5.726 3.299 2.560
5.564 2.992 2.419
5.468 2.900 2.139
5.405 2.525 2.077
5.509 2.519 2.032
5.227 2.081 1.990
5.339 1.923 1.934
5.204 1.666 1.659
5.614 3.105 2.529
5.681 2.768 2.498
5.714 2.605 2.517
5.500 2.438 2.202
5.452 2.390 2.322
5.517 2.075 2.185
5.478 2.005 1.980
5.908 2.770 2.647
5.841 2.433 2.604
5.670 2.280 2.434
5.658 2.041 2.405
5.487 1.929 2.203
4.020 4.684 0.475
3.919 4.672 0.279
4.266 5.244 0.852
4.292 5.158 0.605
4.163 4.947 0.568
3.963 4.848 0.434
4.127 4.536 0.615
4.146 4.328 0.529
4.034 4.267 0.476
4.299 5.178 0.923
4.256 4.953 0.689
4.298 4.873 0.800
4.172 4.625 0.546
4.372 4.553 0.871
4.166 4.339 0.710
4.238 4.177 0.518
4.582 5.172 1.132
4.403 4.990 1.040
4.447 4.839 0.836
4.383 4.500 0.655
4.330 4.419 1.023
4.394 4.208 0.924
4.218 3.884 0.661
4.087 3.867 0.656
4.664 4.901 1.116
4.547 4.860 1.155
4.508 4.629 1.007
4.284 4.435 0.875
4.578 4.202 1.129
4.594 4.090 0.927
4.405 3.886 0.766
4.216 3.633 0.774
4.175 3.467 0.675
4.667 4.776 1.460
4.752 4.687 1.220
4.633 4.525 1.165
4.644 4.361 1.094
4.625 4.167 1.247
4.620 3.897 1.136
4.494 3.695 1.006
4.426 3.523 0.852
4.334 3.482 0.832
4.281 3.245 0.806
4.930 4.859 1.468
4.704 4.482 1.373
4.832 4.368 1.291
4.635 4.087 1.305
4.662 4.004 1.390
4.830 3.952 1.167
4.589 3.578 1.045
4.557 3.568 1.034
4.583 3.344 0.871
4.363 2.964 0.790
4.316 2.891 0.830
5.054 4.501 1.574
5.019 4.434 1.673
4.794 4.120 1.500
4.813 3.971 1.261
4.976 4.041 1.526
4.731 3.722 1.546
4.843 3.485 1.277
4.612 3.340 1.101
4.722 3.141 1.083
4.597 2.971 1.058
4.491 2.695 0.887
4.490 2.465 0.904
5.073 4.429 1.921
4.953 4.346 1.769
4.927 4.013 1.561
4.839 3.902 1.440
4.949 3.849 1.581
4.945 3.478 1.619
4.809 3.478 1.491
4.718 3.300 1.448
4.823 2.944 1.236
4.732 2.870 1.285
4.701 2.592 1.077
4.507 2.342 1.046
4.455 2.292 0.946
5.364 4.332 1.956
5.242 4.231 1.877
5.111 4.102 1.733
5.171 3.804 1.723
5.141 3.765 1.893
5.154 3.488 1.815
4.926 3.385 1.619
4.862 3.116 1.551
5.005 2.798 1.470
4.717 2.796 1.237
4.875 2.486 1.327
4.562 2.268 1.268
4.588 1.993 1.131
5.380 4.007 2.144
5.124 3.871 1.895
5.085 3.619 1.734
5.193 3.612 1.912
5.355 3.460 2.002
5.157 3.177 1.676
5.177 3.025 1.593
5.114 2.859 1.549
5.035 2.578 1.455
4.991 2.399 1.365
4.939 2.180 1.368
4.662 2.020 1.159
5.378 3.794 2.029
5.360 3.590 1.925
5.490 3.301 2.120
5.284 3.129 2.028
5.270 3.019 1.980
5.287 2.885 1.787
5.124 2.503 1.867
5.000 2.475 1.599
5.061 2.330 1.538
4.851 2.137 1.479
4.761 1.937 1.423
5.474 3.737 2.348
5.351 3.365 2.024
5.550 3.221 2.417
5.357 3.111 2.176
5.377 3.021 2.140
5.234 2.643 2.116
5.252 2.462 2.013
5.160 2.316 1.766
5.252 2.087 1.641
5.016 1.831 1.624
5.118 1.850 1.521
5.637 3.253 2.226
5.395 3.303 2.323
5.409 3.020 2.286
5.147 2.994 2.107
5.175 2.659 2.085
5.092 2.581 1.968
5.133 2.310 1.956
4.874 2.113 1.736
4.790 1.957 1.651
4.913 1.781 1.551
5.489 3.279 2.356
5.444 2.976 2.408
5.371 2.878 2.486
5.278 2.676 2.416
5.347 2.283 2.145
5.221 2.231 2.120
5.112 2.044 1.979
5.033 1.814 1.837
5.509 2.666 2.424
5.414 2.568 2.550
5.309 2.198 2.415
5.153 2.063 2.293
5.291 1.914 2.042
3.870 4.752 0.577
3.791 4.652 0.401
4.184 5.357 0.938
3.933 5.049 0.730
3.866 4.937 0.639
3.770 4.683 0.506
4.078 4.641 0.713
3.968 4.482 0.733
4.257 5.096 1.029
4.058 5.131 0.974
4.072 4.906 0.876
4.081 4.677 0.766
4.184 4.610 0.913
3.983 4.353 0.741
3.909 4.111 0.713
4.254 5.025 1.278
4.152 5.002 1.172
4.113 4.779 0.993
4.036 4.389 0.987
4.336 4.346 1.127
4.108 4.271 1.061
4.132 4.049 0.872
3.954 3.827 0.886
4.527 5.067 1.429
4.462 4.820 1.369
4.246 4.494 1.274
4.351 4.426 1.115
4.446 4.136 1.123
4.212 4.141 1.202
4.278 3.871 1.065
4.173 3.786 0.789
4.148 3.395 0.805
4.104 3.226 0.721
4.492 4.915 1.531
4.480 4.547 1.475
4.371 4.569 1.317
4.325 4.230 1.238
4.549 4.066 1.287
4.502 4.016 1.170
4.360 3.634 1.048
4.391 3.608 1.018
4.145 3.259 0.976
4.053 3.258 0.769
4.131 2.909 0.895
4.768 4.730 1.604
4.504 4.509 1.516
4.442 4.305 1.496
4.434 4.277 1.338
4.497 4.013 1.497
4.449 3.889 1.425
4.481 3.732 1.441
4.403 3.528 1.186
4.354 3.284 1.078
4.282 3.046 0.989
4.234 2.895 0.928
4.026 2.717 0.747
4.692 4.705 1.757
4.758 4.501 1.634
4.696 4.156 1.567
4.555 3.975 1.462
4.848 3.940 1.795
4.677 3.757 1.447
4.485 3.533 1.573
4.542 3.284 1.486
4.347 3.126 1.358
4.368 2.874 1.071
4.280 2.601 1.121
4.218 2.639 1.089
4.304 2.430 0.833
5.057 4.373 1.986
4.832 4.365 1.801
4.748 4.095 1.654
4.852 3.796 1.775
4.837 3.792 1.845
4.887 3.558 1.593
4.671 3.293 1.662
4.659 3.127 1.523
4.551 3.020 1.387
4.573 2.726 1.202
4.452 2.699 1.258
4.413 2.308 1.110
4.210 2.218 1.056
4.267 1.877 0.851
5.153 4.316 2.068
4.942 4.268 2.135
4.918 3.919 1.954
4.892 3.868 1.948
4.903 3.721 1.927
4.918 3.455 1.784
4.923 3.334 1.899
4.797 3.029 1.756
4.594 2.860 1.601
4.683 2.800 1.375
4.602 2.530 1.321
4.486 2.227 1.355
4.363 2.016 1.218
4.399 1.766 1.147
5.147 4.039 2.099
5.121 3.927 2.016
5.064 3.763 1.972
5.215 3.549 2.132
5.119 3.340 2.155
4.994 3.206 1.817
4.905 2.870 1.895
4.807 2.659 1.859
4.821 2.456 1.662
4.608 2.240 1.535
4.760 2.034 1.439
4.683 1.958 1.344
4.410 1.850 1.127
5.085 3.636 2.247
5.117 3.648 2.173
5.138 3.521 2.367
5.190 3.324 2.155
5.092 2.941 2.018
4.906 2.695 1.867
5.072 2.711 1.988
4.825 2.301 1.685
4.873 2.138 1.620
4.762 2.054 1.667
4.624 1.839 1.449
5.216 3.352 2.304
5.360 3.392 2.404
5.236 3.173 2.280
5.268 2.939 2.358
5.189 2.749 2.027
5.098 2.613 2.046
4.945 2.405 2.065
5.084 1.979 1.752
4.927 1.932 1.848
4.923 1.650 1.546
5.352 3.349 2.431
5.017 3.062 2.582
4.997 2.774 2.367
4.949 2.588 2.335
4.785 2.487 2.134
4.946 2.309 2.166
4.725 2.032 2.109
4.775 2.030 1.953
4.665 1.598 1.670
5.289 2.859 2.476
5.114 2.500 2.361
5.168 2.419 2.443
5.028 2.051 2.342
4.985 1.954 2.069
4.955 1.824 1.964
5.192 2.188 2.374
3.663 4.873 0.712
3.881 5.399 1.170
3.770 5.013 1.060
3.789 5.053 0.923
3.587 4.765 0.806
3.708 4.699 0.932
3.799 4.360 0.891
3.871 5.315 1.128
3.820 4.932 1.162
3.967 4.945 1.069
3.855 4.690 0.880
3.915 4.472 1.081
3.727 4.296 1.073
3.810 4.235 0.881
4.132 5.129 1.384
4.185 4.799 1.316
4.022 4.590 1.177
3.929 4.457 1.163
4.125 4.249 1.230
4.016 4.142 1.021
4.015 4.001 1.044
3.908 3.860 0.919
4.291 4.860 1.490
4.300 4.674 1.284
4.003 4.580 1.259
3.992 4.435 1.130
4.296 4.200 1.294
4.129 4.094 1.206
3.927 3.957 1.078
3.967 3.654 1.126
3.781 3.474 1.085
3.954 3.172 0.835
4.486 4.915 1.620
4.184 4.579 1.464
4.138 4.528 1.496
4.115 4.304 1.282
4.339 4.158 1.501
4.311 3.950 1.473
4.244 3.795 1.385
4.192 3.585 1.270
3.999 3.258 1.237
4.033 3.179 0.911
3.863 2.975 1.012
3.887 2.659 0.758
4.488 4.704 1.858
4.396 4.537 1.594
4.387 4.446 1.674
4.337 4.027 1.629
4.347 4.109 1.694
4.476 3.791 1.660
4.305 3.739 1.363
4.343 3.380 1.395
4.040 3.176 1.330
4.028 2.922 1.085
3.925 2.881 0.937
3.962 2.571 0.965
3.965 2.410 0.783
3.831 2.286 0.846
4.689 4.613 1.828
4.663 4.465 1.953
4.434 4.329 1.857
4.540 4.142 1.642
4.502 4.028 1.695
4.613 3.569 1.774
4.498 3.489 1.618
4.370 3.176 1.440
4.183 2.982 1.513
4.239 2.977 1.288
4.123 2.743 1.177
3.938 2.489 1.187
3.867 2.387 1.058
3.974 2.125 0.870
3.926 2.031 0.703
4.814 4.470 2.040
4.735 4.232 1.993
4.645 4.207 1.914
4.559 3.861 1.761
4.741 3.798 2.097
4.635 3.590 1.753
4.624 3.485 1.748
4.428 3.244 1.748
4.509 2.927 1.664
4.234 2.729 1.514
4.337 2.692 1.397
4.233 2.351 1.165
4.205 2.253 1.061
4.144 1.939 1.179
3.916 1.883 0.925
5.008 4.297 2.238
4.859 4.164 2.184
4.845 4.038 2.174
4.717 3.790 2.021
4.730 3.697 2.214
4.721 3.585 2.049
4.644 3.334 1.962
4.671 3.184 1.727
4.516 2.851 1.760
4.407 2.688 1.564
4.472 2.571 1.482
4.364 2.169 1.343
4.127 2.044 1.422
4.244 1.918 1.259
3.992 1.760 1.174
4.979 3.943 2.411
4.749 3.871 2.326
4.681 3.741 2.106
5.028 3.607 2.389
4.751 3.215 2.187
4.914 3.197 2.014
4.664 2.958 2.003
4.565 2.613 1.975
4.469 2.409 1.843
4.447 2.450 1.607
4.547 2.177 1.650
4.260 1.845 1.587
4.182 1.858 1.472
5.035 3.680 2.372
4.833 3.410 2.170
4.935 3.398 2.377
5.113 3.251 2.293
4.973 3.127 2.229
4.812 2.724 2.190
4.667 2.553 2.118
4.644 2.424 1.829
4.728 2.251 1.890
4.620 1.890 1.626
4.375 1.698 1.595
4.385 1.613 1.537
5.164 3.420 2.305
5.253 3.136 2.353
5.135 2.825 2.289
5.036 2.619 2.227
4.890 2.435 2.243
4.958 2.343 2.164
4.751 2.161 1.990
4.597 1.828 1.985
4.744 1.814 1.912
4.750 2.964 2.441
4.868 2.800 2.356
4.629 2.498 2.385
4.718 2.322 2.173
4.499 2.065 2.054
4.393 1.973 2.103
4.481 1.745 2.045
4.321 1.535 1.823
4.875 2.660 2.474
4.759 2.331 2.376
4.907 2.087 2.361
4.664 2.047 2.397
4.776 1.787 2.187
3.643 5.250 1.063
3.534 5.243 1.147
3.651 4.848 1.039
3.665 4.674 0.944
3.864 5.153 1.464
3.672 5.052 1.290
3.651 4.817 1.236
3.562 4.612 1.072
3.710 4.368 1.202
3.712 4.325 0.991
3.638 4.032 1.064
4.078 5.112 1.518
3.787 5.014 1.484
3.855 4.796 1.328
3.762 4.577 1.263
3.911 4.330 1.240
3.871 4.257 1.205
3.702 4.060 1.212
3.761 3.799 1.039
4.161 4.950 1.693
4.101 4.810 1.478
3.851 4.605 1.485
3.852 4.502 1.378
4.035 4.161 1.530
3.901 4.091 1.279
3.844 3.723 1.301
3.739 3.597 1.155
3.631 3.575 1.050
3.571 3.168 0.976
3.564 3.171 0.834
2.942 1.279 -0.076
4.129 4.902 1.688
4.198 4.529 1.661
4.183 4.424 1.565
3.871 4.324 1.422
4.221 4.041 1.579
4.014 4.022 1.629
3.882 3.757 1.465
3.827 3.478 1.419
3.759 3.256 1.234
3.705 3.135 1.128
3.720 3.057 1.008
3.562 2.692 1.076
3.574 2.670 0.821
3.411 2.266 0.772
2.954 1.021 -0.041
4.364 4.854 2.057
4.293 4.537 1.749
4.105 4.364 1.698
4.018 4.203 1.557
4.378 4.059 1.774
4.173 3.804 1.775
4.160 3.534 1.706
3.984 3.309 1.473
3.903 3.169 1.513
3.861 2.946 1.252
3.809 2.732 1.331
3.719 2.543 1.236
3.809 2.459 1.005
3.686 2.157 0.842
3.497 2.144 0.824
3.503 1.924 0.629
4.498 4.656 2.145
4.502 4.520 2.035
4.247 4.185 2.038
4.221 3.995 1.921
4.418 3.817 2.021
4.360 3.734 1.859
4.221 3.425 1.883
4.184 3.333 1.640
4.112 3.200 1.465
4.116 2.969 1.522
3.838 2.633 1.413
4.012 2.415 1.347
3.695 2.292 1.163
3.754 2.226 1.104
3.568 1.816 0.870
3.678 1.725 0.739
3.452 1.388 0.705
4.595 4.571 2.126
4.532 4.161 2.105
4.521 4.042 2.078
4.422 3.936 1.830
4.630 3.840 2.146
4.367 3.544 2.072
4.233 3.249 1.967
4.199 3.223 1.886
4.341 2.991 1.680
4.196 2.772 1.561
4.093 2.685 1.504
4.100 2.451 1.306
4.067 2.070 1.257
3.801 1.858 1.110
3.798 1.803 1.161
3.618 1.487 0.929
4.605 4.295 2.260
4.554 3.977 2.081
4.591 3.851 2.141
4.728 3.573 2.137
4.444 3.397 2.107
4.610 3.129 2.123
4.433 3.092 1.920
4.449 2.801 1.756
4.342 2.542 1.740
4.204 2.450 1.670
4.262 2.374 1.472
4.023 1.926 1.572
3.999 1.893 1.286
4.039 1.691 1.244
3.989 1.347 1.236
4.748 3.716 2.331
4.720 3.647 2.143
4.854 3.632 2.548
4.700 3.357 2.410
4.673 3.059 2.292
4.553 2.815 2.123
4.409 2.731 2.018
4.316 2.641 1.869
4.290 2.336 1.951
4.381 2.109 1.651
4.126 2.030 1.575
4.086 1.761 1.565
4.152 1.428 1.399
4.720 3.504 2.325
4.781 3.170 2.519
4.720 2.902 2.361
4.776 2.891 2.348
4.594 2.697 2.078
4.502 2.520 2.003
4.366 2.181 1.995
4.467 1.900 1.959
4.373 1.823 1.842
4.328 1.506 1.775
4.148 1.396 1.514
4.921 2.887 2.498
4.873 2.591 2.465
4.714 2.482 2.376
4.541 2.207 2.315
4.717 2.111 2.119
4.489 1.999 1.918
4.375 1.655 2.032
4.335 1.408 1.761
4.617 2.796 2.473
4.672 2.574 2.454
4.350 2.386 2.387
4.396 2.132 2.399
4.433 1.997 2.163
4.370 1.630 2.184
4.223 1.405 1.975
4.487 2.152 2.651
4.650 2.038 2.296
4.375 1.746 2.436
4.389 1.601 2.191
3.534 5.404 1.308
3.333 5.184 1.294
3.288 5.049 1.125
3.586 5.327 1.425
3.483 4.879 1.412
3.390 4.896 1.345
3.436 4.477 1.241
3.389 4.177 1.148
3.638 4.953 1.686
3.674 4.757 1.428
3.605 4.703 1.476
3.595 4.586 1.359
3.761 4.424 1.415
3.738 4.169 1.393
3.463 4.044 1.249
2.882 1.885 0.322
2.682 1.489 0.194
2.511 1.453 -0.062
3.923 4.914 1.894
3.773 4.805 1.692
3.851 4.604 1.497
3.554 4.444 1.475
3.850 4.371 1.688
3.802 3.946 1.592
3.636 3.848 1.473
3.604 3.732 1.440
3.580 3.390 1.180
3.510 3.248 1.097
3.267 2.955 0.957
3.055 2.029 0.661
3.065 1.819 0.345
2.907 1.588 0.273
2.866 1.499 0.128
2.819 1.358 0.108
2.626 0.942 0.007
4.016 4.896 1.915
3.984 4.706 1.832
3.954 4.487 1.645
3.906 4.231 1.691
3.862 4.083 1.743
3.747 3.925 1.656
3.822 3.715 1.639
3.823 3.657 1.377
3.541 3.273 1.421
3.625 3.130 1.380
3.551 3.032 1.329
3.572 2.849 0.997
3.504 2.516 1.016
3.330 2.435 1.030
3.134 2.244 0.704
3.086 1.883 0.593
3.214 1.678 0.557
2.934 1.554 0.630
2.982 1.271 0.298
2.944 1.147 0.368
2.739 0.986 0.104
2.766 0.763 0.139
2.650 0.484 0.028
4.194 4.770 2.080
4.202 4.409 2.059
4.010 4.391 1.911
3.880 4.004 1.853
4.148 4.070 1.930
3.894 3.736 1.751
3.851 3.495 1.755
3.776 3.427 1.772
3.886 3.266 1.562
3.590 3.015 1.400
3.698 2.816 1.349
3.451 2.700 1.303
3.525 2.429 1.185
3.557 2.128 0.952
3.341 1.983 0.984
3.190 1.821 0.747
3.188 1.578 0.672
3.215 1.374 0.534
3.036 1.209 0.595
3.071 1.120 0.347
2.930 0.922 0.243
2.893 0.581 0.203
2.709 0.338 0.207
2.783 0.278 -0.031
4.373 4.638 2.205
4.163 4.413 2.051
4.084 4.104 2.096
4.079 4.012 2.024
4.148 3.945 2.121
4.238 3.678 1.946
4.022 3.386 1.881
3.904 3.366 1.779
3.938 3.108 1.581
3.819 2.919 1.547
3.676 2.633 1.486
3.623 2.462 1.327
3.570 2.395 1.292
3.523 1.966 1.321
3.426 1.798 1.139
3.442 1.589 0.895
3.307 1.522 0.873
3.393 1.256 0.742
3.133 1.048 0.598
4.377 4.600 2.374
4.383 4.314 2.288
4.161 4.026 2.099
4.216 3.824 2.064
4.346 3.714 2.321
4.126 3.464 2.128
4.279 3.421 2.037
4.123 3.261 2.072
4.039 2.981 1.931
3.949 2.820 1.767
3.809 2.597 1.779
3.864 2.433 1.468
3.690 2.114 1.553
3.703 2.032 1.347
3.662 1.689 1.391
3.679 1.634 1.128
3.484 1.303 1.072
3.373 1.167 0.973
4.420 4.040 2.272
4.331 3.796 2.216
4.555 3.546 2.431
4.305 3.525 2.206
4.296 3.226 2.133
4.247 3.153 2.187
4.112 2.717 1.942
4.175 2.667 1.973
3.914 2.554 1.690
3.925 2.331 1.826
3.805 2.147 1.711
3.936 1.740 1.407
3.783 1.526 1.536
3.600 1.582 1.369
3.496 1.206 1.179
4.398 3.581 2.339
4.512 3.349 2.376
4.564 3.004 2.432
4.470 3.052 2.239
4.265 2.600 2.044
4.118 2.628 2.161
4.141 2.449 1.869
4.165 2.063 1.780
3.965 1.844 1.651
3.869 1.618 1.656
3.893 1.632 1.479
3.879 1.332 1.435
4.470 3.128 2.396
4.460 2.766 2.380
4.340 2.602 2.398
4.244 2.452 2.164
4.261 2.258 2.251
4.329 2.072 1.913
4.270 1.721 1.953
3.942 1.497 1.760
4.133 1.351 1.602
4.706 2.581 2.692
4.572 2.435 2.386
4.599 2.388 2.487
4.447 1.962 2.385
4.464 1.768 2.230
4.242 1.571 2.127
4.145 1.526 1.950
4.252 2.461 2.500
4.283 2.268 2.419
4.335 2.201 2.432
4.277 1.868 2.388
4.012 1.790 2.121
4.101 1.539 2.050
3.955 1.331 2.078
4.450 1.925 2.569
4.397 1.772 2.423
4.128 1.488 2.336
4.095 1.463 2.403
3.420 5.250 1.411
3.373 5.271 1.685
3.501 4.898 1.593
2.591 2.001 0.136
2.463 1.657 0.190
3.542 5.158 1.702
3.512 4.846 1.677
3.481 4.724 1.584
3.604 4.308 1.570
2.750 2.104 0.526
2.674 2.086 0.381
2.636 1.697 0.343
2.555 1.697 0.140
2.494 1.333 0.107
2.323 1.213 0.163
3.620 4.832 1.994
3.592 4.819 1.763
3.665 4.564 1.686
3.485 4.244 1.595
3.713 4.323 1.662
3.515 4.099 1.659
3.596 3.896 1.725
3.353 3.733 1.605
3.237 2.746 1.003
2.984 2.692 0.875
2.953 2.492 0.957
2.868 2.226 0.676
2.815 1.933 0.755
2.787 1.740 0.669
2.617 1.771 0.482
2.700 1.442 0.460
2.610 1.171 0.228
2.449 1.112 0.124
2.540 0.987 -0.022
2.239 0.534 -0.104
3.894 4.902 2.070
3.767 4.635 2.036
3.776 4.440 1.800
3.760 4.151 1.769
3.653 4.054 1.957
3.709 3.823 1.956
3.650 3.653 1.715
3.585 3.421 1.699
3.349 3.390 1.424
3.350 3.205 1.468
3.365 3.019 1.454
3.177 2.645 1.198
3.279 2.526 1.061
3.186 2.237 1.166
3.146 2.151 1.001
2.917 2.023 0.767
2.824 1.675 0.872
2.746 1.551 0.657
2.811 1.315 0.625
2.645 1.152 0.474
2.557 0.928 0.398
2.583 0.731 0.314
2.366 0.411 0.050
2.519 0.472 0.189
4.078 4.767 2.207
3.882 4.606 2.234
3.867 4.326 2.139
3.631 3.992 1.958
3.925 3.966 2.101
3.825 3.779 1.915
3.827 3.716 1.934
3.774 3.279 1.688
3.501 3.235 1.609
3.567 3.035 1.616
3.540 2.850 1.446
3.396 2.493 1.323
3.205 2.495 1.174
3.313 2.226 1.106
3.163 2.000 1.022
3.234 1.935 1.037
2.948 1.599 1.013
3.041 1.419 0.928
2.982 1.144 0.602
2.777 1.000 0.624
2.765 0.727 0.450
2.812 0.637 0.420
2.566 0.424 0.253
2.529 0.181 0.159
2.558 0.003 0.037
4.141 4.477 2.411
4.027 4.463 2.361
4.048 4.171 2.139
4.005 3.880 2.105
3.888 3.856 2.207
4.037 3.723 2.076
3.897 3.572 2.079
3.869 3.350 1.833
3.620 2.998 1.842
3.721 2.877 1.780
3.691 2.647 1.605
3.407 2.609 1.482
3.399 2.211 1.383
3.315 2.189 1.384
3.214 1.908 1.174
3.298 1.578 1.130
3.069 1.551 0.963
3.182 1.177 0.961
2.914 1.035 0.841
3.065 0.805 0.792
2.881 0.567 0.609
2.946 0.462 0.460
3.974 4.068 2.447
4.011 3.848 2.315
4.113 3.737 2.500
4.186 3.648 2.363
4.061 3.259 2.101
4.021 3.070 2.182
3.954 3.051 1.918
3.727 2.681 1.915
3.768 2.654 1.855
3.560 2.361 1.815
3.698 2.255 1.699
3.563 1.917 1.642
3.370 1.828 1.517
3.296 1.646 1.256
3.276 1.428 1.333
3.108 1.255 1.105
3.056 0.883 0.956
3.100 0.816 0.898
4.200 3.694 2.529
4.086 3.358 2.361
4.240 3.131 2.317
3.924 3.132 2.370
3.964 2.943 2.211
3.820 2.531 2.135
3.944 2.537 1.859
3.649 2.154 1.804
3.674 1.997 1.769
3.719 1.884 1.769
3.458 1.578 1.457
3.451 1.562 1.419
3.545 1.160 1.393
3.298 1.173 1.153
4.329 3.179 2.459
4.082 2.798 2.343
4.080 2.655 2.321
3.988 2.553 2.325
3.937 2.255 2.231
3.771 2.106 1.964
3.832 1.943 1.794
3.801 1.733 1.704
3.570 1.541 1.613
3.675 1.441 1.653
3.431 1.180 1.525
4.298 2.850 2.591
4.344 2.467 2.384
4.272 2.332 2.420
4.067 2.232 2.212
3.947 2.008 2.263
3.974 1.831 1.974
3.938 1.501 1.976
3.897 1.368 1.795
3.736 1.135 1.738
3.597 0.957 1.540
4.485 2.600 2.728
4.172 2.374 2.421
4.334 1.949 2.506
4.190 1.953 2.272
4.088 1.648 2.286
4.019 1.486 2.072
3.884 1.379 2.117
4.054 2.333 2.595
4.080 1.937 2.459
4.103 1.934 2.453
3.777 1.670 2.317
3.761 1.352 2.212
3.863 1.145 2.252
3.825 1.076 2.030
4.175 2.011 2.824
4.203 1.796 2.667
4.029 1.426 2.599
4.021 1.368 2.472
3.854 1.256 2.439
2.214 2.112 0.075
2.059 1.925 0.219
3.197 5.064 1.815
2.422 2.105 0.425
2.396 2.002 0.275
2.143 1.618 0.267
2.083 1.534 0.043
2.145 1.375 0.036
3.434 4.992 1.829
3.431 4.964 1.961
2.645 2.391 0.820
2.463 2.158 0.622
2.517 1.845 0.577
2.378 1.812 0.545
2.260 1.642 0.419
2.151 1.355 0.367
2.091 1.297 0.309
2.112 0.976 -0.018
3.660 5.046 2.115
3.415 4.807 1.918
2.965 2.666 1.183
2.724 2.351 1.082
2.860 2.365 1.054
2.597 2.144 0.856
2.506 1.771 0.793
2.627 1.758 0.726
2.595 1.396 0.552
2.348 1.319 0.471
2.454 1.081 0.381
2.140 0.858 0.337
2.243 0.706 0.151
2.038 0.324 -0.010
3.768 4.876 2.270
3.503 4.533 2.015
3.290 3.339 1.683
3.177 3.067 1.722
3.197 2.818 1.608
3.114 2.603 1.461
3.134 2.603 1.222
2.889 2.296 1.320
2.862 2.198 1.029
2.936 2.046 0.869
2.812 1.739 0.917
2.560 1.481 0.768
2.560 1.261 0.775
2.560 1.002 0.734
2.504 0.803 0.389
2.477 0.690 0.296
2.364 0.417 0.372
2.267 0.349 0.237
2.070 0.091 0.111
3.798 4.657 2.475
3.620 3.546 2.027
3.431 3.291 1.892
3.410 3.304 1.953
3.406 2.984 1.772
3.270 2.775 1.693
3.189 2.538 1.430
3.078 2.512 1.581
2.983 2.068 1.466
2.987 2.107 1.178
2.950 1.825 1.173
2.932 1.528 1.021
2.704 1.499 0.896
2.639 1.259 0.822
2.660 0.983 0.634
2.603 0.830 0.703
2.393 0.669 0.680
2.487 0.394 0.478
2.253 0.231 0.244
2.342 0.106 0.213
3.750 3.561 2.286
3.615 3.342 2.009
3.533 2.960 1.946
3.502 2.991 1.834
3.333 2.573 1.830
3.458 2.477 1.615
3.275 2.223 1.609
3.178 2.199 1.462
3.004 1.831 1.462
3.063 1.707 1.369
2.970 1.379 1.185
3.017 1.282 0.990
2.858 1.206 0.889
2.648 0.987 0.962
2.783 0.795 0.903
2.665 0.532 0.712
2.556 0.401 0.638
3.749 3.299 2.427
3.763 3.260 2.317
3.739 2.910 2.271
3.490 2.738 2.051
3.579 2.456 2.054
3.473 2.471 1.826
3.484 2.156 1.676
3.315 1.854 1.673
3.198 1.877 1.535
3.313 1.527 1.488
3.084 1.392 1.422
3.014 1.111 1.194
3.013 0.857 1.285
2.830 0.741 0.958
2.828 0.652 0.923
3.746 3.054 2.412
3.755 2.938 2.422
3.680 2.615 2.264
3.792 2.386 2.081
3.533 2.299 1.940
3.462 2.103 2.023
3.348 1.757 1.681
3.388 1.718 1.679
3.193 1.384 1.636
3.270 1.320 1.560
3.211 0.951 1.394
3.194 0.956 1.277
3.901 2.949 2.653
3.859 2.685 2.452
3.834 2.509 2.467
3.919 2.303 2.382
3.784 2.031 2.234
3.678 1.787 1.946
3.601 1.634 2.077
3.516 1.428 1.877
3.397 1.327 1.720
3.349 1.084 1.658
3.351 0.821 1.648
4.113 2.646 2.556
3.956 2.392 2.421
3.809 2.199 2.527
3.962 2.033 2.374
3.782 1.668 2.133
3.698 1.625 2.042
3.607 1.457 2.079
3.679 1.248 1.953
3.455 0.973 1.843
3.469 0.839 1.737
4.129 2.315 2.663
4.065 2.002 2.674
3.983 1.857 2.485
3.830 1.626 2.259
3.839 1.372 2.258
3.698 1.225 2.227
3.813 1.197 2.037
3.806 2.297 2.891
3.904 1.993 2.673
3.726 1.929 2.616
3.797 1.547 2.579
3.566 1.381 2.321
3.614 1.390 2.395
3.629 0.984 2.199
3.470 0.875 2.118
3.934 2.005 2.791
3.975 1.848 2.764
3.775 1.546 2.774
3.726 1.242 2.583
3.637 1.206 2.428
3.512 0.853 2.488
3.885 1.135 2.677
1.754 2.183 0.168
1.817 1.838 0.133
1.983 2.270 0.425
1.956 2.102 0.208
1.928 1.825 0.309
1.955 1.644 0.037
1.703 1.482 0.123
2.245 2.249 0.775
2.061 2.172 0.524
2.045 1.828 0.601
1.990 1.800 0.506
1.849 1.529 0.231
1.911 1.393 0.194
1.869 1.184 0.206
2.503 2.296 0.974
2.386 2.228 0.853
2.303 1.976 0.735
2.339 1.678 0.522
2.052 1.524 0.538
2.131 1.434 0.340
1.893 1.193 0.360
1.972 0.934 0.207
1.923 0.641 0.047
1.691 0.609 -0.067
2.645 2.760 1.208
2.673 2.425 1.311
2.598 2.350 0.963
2.553 2.095 0.917
2.332 1.864 0.920
2.255 1.712 0.886
2.355 1.389 0.590
2.127 1.109 0.699
2.143 1.059 0.494
2.204 0.732 0.293
1.902 0.590 0.358
2.036 0.455 0.195
1.767 0.310 0.223
2.881 3.036 1.697
2.980 2.587 1.615
2.720 2.467 1.523
2.789 2.349 1.243
2.797 2.219 1.139
2.623 2.029 1.273
2.632 1.760 1.094
2.450 1.452 0.817
2.297 1.187 0.856
2.455 1.172 0.656
2.373 0.837 0.593
2.134 0.723 0.616
2.154 0.469 0.499
2.019 0.370 0.308
2.103 0.063 0.279
3.068 3.004 1.786
3.061 2.703 1.917
3.119 2.617 1.706
2.895 2.342 1.611
2.847 2.127 1.453
2.763 2.079 1.510
2.725 1.791 1.180
2.751 1.513 1.122
2.543 1.388 1.040
2.582 1.322 0.923
2.397 0.945 0.823
2.466 0.723 0.759
2.386 0.660 0.602
2.233 0.388 0.641
2.105 0.235 0.601
2.140 -0.039 0.356
3.440 2.940 2.118
3.335 2.946 1.960
3.321 2.597 1.991
3.178 2.503 1.877
3.210 2.250 1.708
3.130 2.135 1.741
3.018 1.869 1.474
2.783 1.600 1.511
2.764 1.400 1.479
2.864 1.334 1.280
2.573 1.016 1.212
2.648 0.995 1.167
2.633 0.556 0.948
2.460 0.468 0.794
2.357 0.188 0.846
3.615 2.950 2.409
3.393 2.627 2.198
3.240 2.423 2.145
3.184 2.440 2.095
3.114 2.179 1.965
3.041 1.828 1.833
3.026 1.766 1.816
3.127 1.454 1.718
3.065 1.421 1.610
2.780 1.229 1.526
2.792 1.074 1.184
2.705 0.705 1.336
2.703 0.550 1.179
3.691 2.776 2.517
3.682 2.671 2.324
3.492 2.334 2.187
3.298 2.125 2.049
3.295 1.906 2.017
3.149 1.889 1.834
3.256 1.525 1.823
3.151 1.365 1.753
3.003 1.361 1.568
2.889 1.069 1.488
2.884 0.925 1.382
2.781 0.547 1.449
3.843 2.662 2.687
3.685 2.533 2.441
3.719 2.313 2.328
3.591 2.120 2.300
3.480 1.947 2.183
3.308 1.714 1.979
3.315 1.460 2.096
3.338 1.416 1.823
3.163 1.153 1.696
3.164 0.887 1.624
3.061 0.687 1.715
3.726 2.277 2.746
3.661 2.158 2.514
3.780 2.070 2.361
3.588 1.897 2.367
3.420 1.544 2.263
3.537 1.334 2.197
3.292 1.291 1.985
3.323 0.989 1.931
3.174 0.844 1.802
3.937 2.134 2.736
3.964 2.018 2.756
3.688 1.919 2.726
3.671 1.755 2.465
3.642 1.555 2.429
3.516 1.386 2.426
3.401 1.137 2.314
3.572 0.857 2.087
3.792 1.918 2.914
3.529 1.801 2.697
3.430 1.693 2.604
3.506 1.345 2.620
3.359 1.344 2.380
3.375 0.972 2.399
3.193 0.835 2.190
3.261 0.706 2.047
3.831 1.847 3.032
3.870 1.731 2.880
3.626 1.660 2.769
3.521 1.372 2.753
3.606 1.096 2.704
3.516 0.985 2.567
3.484 0.723 2.285
3.359 0.568 2.385
3.862 1.403 3.036
3.792 1.183 2.901
3.624 1.003 2.719
3.712 0.840 2.766
3.615 0.550 2.599
1.610 2.138 0.301
1.504 1.858 0.162
1.485 1.643 0.173
1.539 1.605 0.023
1.946 2.210 0.690
1.841 1.998 0.414
1.719 1.910 0.361
1.521 1.633 0.288
1.498 1.426 0.200
1.438 1.134 0.089
2.063 2.161 0.928
1.875 2.005 0.659
2.030 1.770 0.597
1.940 1.658 0.596
1.907 1.557 0.457
1.680 1.196 0.369
1.577 1.013 0.107
1.440 0.784 0.190
1.599 0.716 0.160
2.259 2.270 1.159
2.116 2.125 0.908
2.037 2.030 0.969
2.037 1.749 0.823
2.105 1.495 0.742
2.025 1.241 0.650
1.936 1.155 0.365
1.665 0.936 0.427
1.702 0.729 0.268
1.621 0.447 0.210
1.578 0.400 0.110
2.515 2.342 1.312
2.343 2.235 1.182
2.335 1.952 1.207
2.278 1.719 1.110
2.119 1.747 0.975
2.052 1.455 0.889
1.959 1.341 0.748
1.963 0.963 0.558
1.816 0.767 0.481
1.949 0.587 0.513
1.824 0.496 0.347
1.582 0.273 0.112
1.692 -0.041 0.180
2.837 2.761 1.803
2.757 2.407 1.718
2.575 2.412 1.512
2.497 2.203 1.414
2.375 1.788 1.198
2.245 1.597 1.185
2.363 1.403 1.220
2.189 1.333 0.886
2.289 1.221 0.878
1.983 0.894 0.825
1.990 0.717 0.767
1.894 0.570 0.655
1.776 0.365 0.573
1.699 0.100 0.496
2.859 2.784 1.973
2.914 2.560 1.749
2.677 2.470 1.702
2.761 2.305 1.723
2.649 1.886 1.656
2.666 1.857 1.547
2.558 1.565 1.443
2.462 1.445 1.162
2.466 1.159 1.096
2.183 0.944 1.170
2.163 0.896 1.029
2.137 0.696 0.901
2.211 0.301 0.856
1.998 0.080 0.756
3.209 2.812 2.168
3.042 2.718 2.175
2.935 2.582 2.119
2.793 2.184 1.772
2.960 1.990 1.894
2.672 1.927 1.655
2.718 1.738 1.501
2.638 1.593 1.586
2.577 1.223 1.372
2.611 0.964 1.226
2.423 0.882 1.315
2.281 0.555 1.032
2.181 0.459 1.009
3.251 2.680 2.385
3.242 2.582 2.308
2.988 2.301 2.142
3.018 2.028 2.129
2.918 2.021 2.059
2.972 1.686 1.780
2.942 1.623 1.714
2.857 1.382 1.553
2.632 1.248 1.549
2.537 1.029 1.370
2.600 0.643 1.362
2.437 0.436 1.227
3.290 2.604 2.500
3.229 2.425 2.375
3.198 2.200 2.210
3.088 1.965 2.069
3.149 1.788 2.004
2.976 1.646 1.972
3.004 1.368 2.009
2.879 1.284 1.738
2.751 1.019 1.818
2.855 0.726 1.507
2.546 0.586 1.542
3.543 2.578 2.622
3.390 2.307 2.631
3.471 2.049 2.459
3.284 1.829 2.268
3.283 1.731 2.293
3.084 1.430 2.165
3.091 1.424 2.086
2.919 1.027 1.952
3.054 0.941 1.856
2.752 0.789 1.639
2.809 0.457 1.604
3.626 2.472 2.772
3.462 2.061 2.599
3.583 2.004 2.554
3.316 1.659 2.602
3.325 1.537 2.360
3.172 1.494 2.320
3.077 1.104 2.264
3.203 0.917 2.176
3.066 0.801 1.968
3.007 0.560 1.979
3.700 1.951 2.761
3.743 1.928 2.814
3.421 1.748 2.665
3.471 1.344 2.625
3.304 1.157 2.387
3.200 1.116 2.420
3.326 0.912 2.336
3.077 0.544 2.189
3.621 1.934 3.085
3.483 1.802 2.975
3.318 1.573 2.818
3.350 1.497 2.595
3.184 1.193 2.710
3.267 0.920 2.574
3.079 0.876 2.466
2.983 0.723 2.279
2.991 0.402 2.134
3.728 1.932 3.097
3.547 1.643 2.946
3.382 1.568 2.845
3.389 1.282 2.965
3.302 1.151 2.642
3.313 0.988 2.532
3.180 0.632 2.577
3.009 0.504 2.382
3.780 1.596 3.196
3.547 1.316 3.105
3.605 1.328 2.880
3.378 0.979 2.977
3.517 0.698 2.841
3.393 0.675 2.685
3.315 0.291 2.503
3.751 1.062 3.212
3.682 0.772 3.104
3.641 0.608 2.948
3.579 0.536 2.908
1.478 2.056 0.550
1.338 1.849 0.255
1.325 1.760 0.212
1.255 1.515 0.101
1.145 1.321 0.084
1.624 2.313 0.843
1.589 2.011 0.723
1.639 1.777 0.657
1.565 1.536 0.532
1.448 1.387 0.197
1.425 1.069 0.289
1.350 0.960 0.250
1.191 0.905 -0.007
1.768 2.230 0.960
1.723 2.138 0.993
1.722 1.782 0.658
1.606 1.654 0.802
1.493 1.561 0.607
1.421 1.187 0.556
1.538 0.972 0.405
1.412 0.913 0.159
1.220 0.614 0.267
1.349 0.508 0.041
1.988 2.059 1.068
2.004 1.857 0.987
1.942 1.634 0.964
1.756 1.539 0.789
1.774 1.409 0.838
1.727 1.021 0.579
1.611 0.841 0.522
1.527 0.690 0.402
1.394 0.461 0.430
1.419 0.271 0.310
1.307 0.211 0.188
2.309 2.327 1.451
2.128 2.033 1.198
2.042 1.794 1.275
2.004 1.510 1.214
2.011 1.503 0.876
1.843 1.176 0.975
1.910 1.146 0.842
1.737 0.789 0.789
1.531 0.650 0.528
1.562 0.532 0.396
1.485 0.205 0.475
2.570 2.364 1.655
2.517 2.251 1.582
2.218 2.063 1.506
2.180 2.000 1.453
2.071 1.727 1.294
2.012 1.368 1.303
2.083 1.356 1.005
1.975 1.223 1.087
1.940 0.941 0.927
1.792 0.695 0.775
1.853 0.482 0.868
1.814 0.203 0.545
2.695 2.525 1.868
2.646 2.450 1.957
2.542 2.042 1.763
2.537 2.077 1.663
2.504 1.772 1.691
2.346 1.681 1.406
2.254 1.422 1.460
2.292 1.227 1.399
2.164 1.092 1.300
1.947 0.885 1.143
1.874 0.571 0.895
2.000 0.287 0.925
2.736 2.530 2.325
2.836 2.512 2.051
2.609 2.195 1.916
2.579 2.042 1.884
2.714 1.726 1.744
2.396 1.661 1.709
2.351 1.490 1.575
2.397 1.318 1.612
2.384 1.052 1.366
2.167 0.740 1.340
2.085 0.768 1.187
2.008 0.389 1.189
2.893 2.573 2.273
2.846 2.254 2.182
2.873 2.096 2.220
2.878 2.012 1.998
2.660 1.648 1.870
2.557 1.584 1.802
2.570 1.277 1.750
2.455 1.096 1.788
2.377 0.913 1.703
2.420 0.628 1.371
2.375 0.628 1.279
3.095 2.479 2.546
3.240 2.369 2.502
3.009 2.276 2.401
3.096 1.992 2.387
