0.495 2.035 6.056
0.742 2.143 6.028
0.989 2.098 5.919
0.444 2.445 6.200
0.689 2.399 6.125
0.983 2.444 6.096
0.159 2.296 6.018
0.388 2.290 5.988
0.683 2.397 5.939
0.928 2.400 5.832
0.177 2.613 6.237
0.364 2.683 6.196
0.643 2.728 6.145
0.894 2.746 6.087
0.054 2.565 5.997
0.371 2.612 5.901
0.653 2.595 5.882
0.903 2.643 5.745
0.616 3.020 6.261
0.873 3.035 6.254
0.116 2.856 6.131
0.366 2.899 6.061
0.605 2.993 6.045
0.868 2.993 5.930
-0.014 2.740 5.878
0.316 2.792 5.808
0.537 2.896 5.761
0.857 2.879 5.675
0.357 3.282 6.238
0.602 3.295 6.229
0.853 3.284 6.157
0.028 3.105 6.032
0.272 3.192 6.032
0.531 3.243 5.908
0.828 3.205 5.890
0.249 3.091 5.721
0.040 3.502 6.201
0.299 3.542 6.171
0.585 3.548 6.165
0.848 3.570 6.105
0.530 3.473 5.899
0.778 3.979 6.261
0.184 3.785 6.083
0.479 3.848 6.071
0.781 3.877 5.945
0.448 4.150 6.200
0.774 4.172 6.191
0.735 4.103 5.934
0.464 4.404 6.155
0.719 4.408 6.109
5.925 5.618 6.227
6.162 5.705 6.217
5.654 5.521 6.084
5.840 5.493 6.028
6.104 5.609 5.950
5.868 5.430 5.681
6.069 5.502 5.661
6.029 5.440 5.387
6.214 5.406 5.050
1.207 4.644 6.211
1.504 4.690 6.189
1.753 4.655 6.113
0.939 4.522 6.006
1.220 4.525 5.954
1.469 4.566 5.904
6.240 5.695 5.280
1.988 5.109 6.251
2.266 5.148 6.160
0.935 4.787 6.219
1.183 4.836 6.140
1.417 4.903 6.128
1.717 4.923 6.063
2.026 5.028 6.018
2.217 4.998 5.910
0.918 4.729 5.995
1.187 4.829 5.931
1.453 4.827 5.822
1.714 4.818 5.746
1.063 4.650 5.605
2.859 5.553 6.274
2.498 5.428 6.055
1.444 5.285 6.281
1.715 5.280 6.198
1.981 5.347 6.198
2.199 5.411 6.094
2.465 5.384 6.017
0.845 5.041 6.119
1.098 5.084 6.063
1.367 5.157 6.064
1.686 5.160 5.918
1.896 5.276 5.954
2.165 5.261 5.896
0.852 4.998 5.929
1.071 5.080 5.845
1.316 5.046 5.728
1.664 5.133 5.709
1.847 5.143 5.654
2.128 5.172 5.619
1.057 4.988 5.558
1.321 5.013 5.540
1.549 5.051 5.423
2.520 5.714 6.243
2.739 5.745 6.119
2.466 5.760 6.254
2.408 5.671 5.946
2.706 5.746 5.869
1.082 5.470 6.242
1.383 5.516 6.207
1.694 5.548 6.170
1.964 5.625 6.087
2.147 5.662 6.048
2.426 5.679 5.924
2.415 5.581 5.735
0.844 5.367 6.104
1.066 5.408 5.970
1.315 5.414 5.958
1.623 5.438 5.884
1.896 5.509 5.876
2.150 5.536 5.761
2.353 5.614 5.733
0.805 5.211 5.783
0.998 5.308 5.741
1.333 5.326 5.705
1.570 5.376 5.642
1.783 5.409 5.604
2.076 5.489 5.475
0.961 5.239 5.464
1.245 5.259 5.421
1.509 5.290 5.370
1.764 5.280 5.345
1.514 5.191 5.129
2.387 6.001 6.167
2.742 6.064 6.084
1.936 5.875 6.223
2.126 6.011 6.160
2.486 5.953 6.109
2.343 5.911 5.846
2.665 5.929 5.854
0.819 5.692 6.250
1.084 5.745 6.147
1.296 5.736 6.159
1.620 5.765 6.121
1.829 5.802 6.054
2.104 5.875 5.953
2.439 5.901 5.852
2.311 5.832 5.618
0.739 5.610 5.947
1.056 5.645 5.908
1.315 5.684 5.863
1.556 5.754 5.837
1.779 5.785 5.745
2.098 5.814 5.724
2.386 5.785 5.675
2.347 5.699 5.361
0.724 5.476 5.721
0.964 5.586 5.701
1.256 5.589 5.611
1.544 5.596 5.564
1.789 5.647 5.522
2.071 5.728 5.426
2.298 5.780 5.382
0.935 5.429 5.416
1.159 5.457 5.357
1.511 5.528 5.337
1.743 5.609 5.202
1.987 5.635 5.166
0.895 5.338 5.200
1.132 5.428 5.098
1.437 5.414 5.001
1.657 5.516 4.976
1.964 5.587 4.949
2.416 6.255 6.084
1.627 6.111 6.268
1.828 6.197 6.241
2.166 6.202 6.151
2.359 6.216 6.122
2.318 6.212 5.802
0.969 6.006 6.115
1.241 6.048 6.055
1.582 6.005 6.032
1.780 6.086 5.941
2.039 6.166 5.895
2.287 6.197 5.807
2.244 6.071 5.524
0.740 5.811 5.922
0.962 5.906 5.826
1.230 5.978 5.757
1.515 5.960 5.735
1.793 6.060 5.725
2.066 6.012 5.638
2.263 6.122 5.613
2.231 6.000 5.265
0.701 5.787 5.682
0.961 5.810 5.612
1.181 5.826 5.577
1.461 5.887 5.523
1.761 5.934 5.457
2.008 5.956 5.345
2.207 5.963 5.353
2.176 5.905 5.044
0.668 5.699 5.421
0.929 5.765 5.312
1.156 5.755 5.240
1.389 5.831 5.253
1.638 5.881 5.166
1.955 5.913 5.102
2.168 5.954 5.075
2.201 5.857 4.809
0.879 5.663 5.061
1.055 5.715 5.058
1.410 5.726 4.988
1.596 5.775 4.906
1.842 5.815 4.873
2.164 5.819 4.810
1.082 5.597 4.825
1.360 5.664 4.669
1.577 5.681 4.618
1.861 5.696 4.625
0.954 6.237 5.994
1.270 6.264 5.967
0.875 6.188 5.816
1.143 6.146 5.699
1.396 6.238 5.642
1.676 6.315 5.565
2.176 6.250 5.258
0.634 6.045 5.639
0.884 6.059 5.549
1.089 6.112 5.489
1.387 6.183 5.429
1.618 6.227 5.388
1.969 6.241 5.338
2.217 6.291 5.199
2.101 6.216 5.014
0.560 5.986 5.363
0.834 6.006 5.245
1.099 5.985 5.223
1.393 6.040 5.121
1.640 6.130 5.115
1.914 6.139 5.076
2.132 6.185 5.008
2.093 6.083 4.693
0.745 5.920 5.054
1.064 5.946 4.981
1.306 5.942 4.886
1.527 5.966 4.870
1.810 6.069 4.757
2.069 6.079 4.744
2.040 6.000 4.468
0.762 5.794 4.776
0.975 5.856 4.685
1.255 5.865 4.682
1.536 5.891 4.599
1.775 5.979 4.493
2.055 5.959 4.444
0.481 6.153 5.296
0.768 6.255 5.193
0.985 6.225 5.132
0.441 6.157 5.000
0.773 6.154 4.991
0.956 6.213 4.930
1.216 6.279 4.820
1.493 6.226 4.746
1.977 6.273 4.348
0.381 5.998 4.792
0.664 6.097 4.733
0.965 6.133 4.664
1.200 6.179 4.616
1.443 6.184 4.481
1.706 6.263 4.438
1.950 6.216 4.384
6.088 3.018 5.314
5.748 2.910 5.126
6.092 2.992 5.023
1.340 2.255 6.094
1.592 2.295 6.094
5.683 2.869 4.870
6.042 2.862 4.765
6.230 2.929 4.716
1.238 2.130 5.884
1.515 2.234 5.818
6.150 3.473 5.722
6.125 3.451 5.454
6.051 3.359 5.272
5.684 3.224 5.008
5.943 3.229 5.020
6.260 3.235 4.934
1.241 2.508 6.006
5.652 3.105 4.742
5.929 3.131 4.675
6.198 3.237 4.624
1.190 2.430 5.782
6.200 3.889 6.196
6.064 3.836 5.927
6.019 3.717 5.653
6.066 3.632 5.450
5.969 3.543 5.186
6.218 3.575 5.090
1.244 2.904 6.264
5.706 3.446 5.005
5.966 3.478 4.916
6.215 3.533 4.833
1.232 2.822 5.980
5.630 3.379 4.679
5.847 3.393 4.595
6.156 3.451 4.543
1.117 2.736 5.704
5.832 4.173 6.192
6.094 4.160 6.060
5.750 4.076 5.868
6.044 4.104 5.892
5.772 3.985 5.627
5.994 3.998 5.595
6.304 3.990 5.529
5.991 3.946 5.289
6.187 3.927 5.300
5.921 3.804 5.109
6.184 3.912 4.973
1.157 3.165 6.166
5.863 3.768 4.864
6.169 3.806 4.734
1.169 3.033 5.920
5.788 3.621 4.579
6.113 3.750 4.514
5.537 4.380 6.180
5.804 4.382 6.125
6.058 4.414 6.022
5.753 4.294 5.843
5.987 4.328 5.741
6.305 4.397 5.723
5.694 4.210 5.593
5.982 4.303 5.520
6.216 4.298 5.451
5.954 4.202 5.299
6.152 4.195 5.164
5.878 4.087 4.961
6.119 4.094 4.906
1.121 3.365 6.038
6.106 4.051 4.664
5.744 4.724 6.257
6.013 4.815 6.220
5.509 4.646 6.071
5.725 4.618 5.991
5.998 4.717 5.979
6.254 4.733 5.848
5.635 4.574 5.726
5.938 4.604 5.662
6.173 4.589 5.642
5.901 4.475 5.392
6.196 4.590 5.358
5.809 4.472 5.138
6.150 4.455 5.111
1.076 3.726 6.226
1.417 3.800 6.216
6.123 4.390 4.893
1.033 3.621 6.049
5.471 4.975 6.276
5.682 4.970 6.176
6.008 5.034 6.175
6.241 5.043 6.078
5.367 4.880 6.008
5.669 4.852 5.894
5.930 4.942 5.842
6.220 5.029 5.798
5.637 4.770 5.706
5.847 4.849 5.634
6.114 4.848 5.612
5.850 4.807 5.330
6.107 4.782 5.302
6.097 4.734 5.099
1.087 3.986 6.154
1.342 4.009 6.176
6.233 4.679 4.781
1.018 3.906 5.886
6.216 5.380 6.285
5.086 5.187 6.189
5.358 5.161 6.161
5.646 5.205 6.128
5.892 5.288 6.044
6.221 5.301 6.045
5.601 5.201 5.848
5.867 5.169 5.847
6.112 5.224 5.741
5.874 5.089 5.569
6.077 5.173 5.519
6.094 5.046 5.281
1.541 4.412 6.232
6.285 4.998 4.931
1.047 4.202 6.100
1.236 4.251 6.034
1.567 4.271 5.982
5.945 5.589 6.280
6.129 5.641 6.206
5.576 5.537 6.076
5.916 5.502 5.957
6.125 5.579 5.959
5.815 5.472 5.742
6.102 5.519 5.687
6.027 5.413 5.389
6.272 5.337 5.093
1.300 4.651 6.224
1.475 4.604 6.189
1.740 4.724 6.113
0.965 4.475 6.052
1.202 4.556 6.019
1.456 4.533 5.932
1.266 0.553 6.100
0.946 0.685 6.089
1.207 0.755 6.035
0.965 0.648 5.891
1.185 0.678 5.840
0.335 0.924 6.175
0.652 0.897 6.106
0.887 1.022 6.068
1.130 1.007 5.938
0.303 0.834 5.886
0.576 0.864 5.792
0.899 0.882 5.745
1.123 0.987 5.706
0.256 0.773 5.606
0.567 0.782 5.575
0.803 0.825 5.476
1.042 0.863 5.479
0.044 1.110 6.178
0.303 1.156 6.126
0.556 1.193 6.053
0.843 1.268 5.955
1.116 1.251 5.863
-0.002 1.079 5.908
0.276 1.074 5.855
0.585 1.135 5.739
0.784 1.165 5.672
1.034 1.228 5.619
0.235 1.018 5.534
0.516 1.031 5.538
0.790 1.083 5.407
0.974 1.087 5.435
0.229 0.913 5.349
0.475 0.938 5.289
0.007 1.426 6.035
0.245 1.435 6.003
0.560 1.437 5.974
0.771 1.522 5.835
1.073 1.539 5.847
0.229 1.384 5.714
0.460 1.422 5.699
0.722 1.425 5.593
1.017 1.426 5.535
0.183 1.240 5.508
0.413 1.314 5.419
0.684 1.291 5.364
0.950 1.383 5.359
0.139 1.135 5.209
0.441 1.157 5.160
0.626 1.224 5.078
0.034 1.104 5.003
0.134 0.167 0.846
0.085 0.077 0.602
-0.003 0.034 0.335
0.224 1.646 5.915
0.461 1.748 5.866
0.719 1.747 5.784
1.014 1.761 5.783
0.153 1.573 5.694
0.386 1.637 5.646
0.676 1.682 5.586
0.945 1.688 5.541
0.126 1.496 5.371
0.357 1.568 5.341
0.619 1.605 5.267
0.890 1.576 5.195
0.095 1.458 5.133
0.294 1.512 5.115
0.550 1.460 5.027
0.002 1.354 4.926
0.307 1.345 4.797
3.279 0.013 5.904
3.305 0.012 5.962
3.206 0.285 5.862
3.525 0.292 5.784
1.897 0.086 6.109
2.175 0.076 6.095
2.417 0.155 6.078
2.695 0.244 5.979
2.925 0.221 5.865
3.213 0.269 5.895
3.236 0.237 5.635
3.479 0.264 5.575
3.699 0.293 5.527
2.128 0.048 5.827
2.395 0.081 5.745
2.613 0.111 5.710
2.960 0.108 5.649
3.147 0.153 5.575
3.165 0.057 5.359
3.417 0.145 5.312
3.714 0.223 5.252
3.981 0.194 5.207
2.595 0.007 5.497
2.871 0.078 5.377
3.138 0.111 5.383
3.092 -0.001 5.053
3.342 0.059 4.988
3.593 0.101 4.969
3.877 0.120 4.914
4.113 0.202 4.836
3.148 -0.020 5.091
3.605 0.002 4.709
3.882 0.039 4.690
4.131 0.050 4.565
4.346 0.121 4.549
4.101 0.026 4.325
4.326 0.089 4.326
4.506 -0.001 3.982
3.848 -0.003 3.521
4.121 0.061 3.435
4.365 0.144 3.382
3.162 0.545 5.788
3.474 0.576 5.671
1.557 0.317 6.113
1.830 0.331 6.035
2.082 0.422 6.005
2.407 0.410 5.976
2.657 0.493 5.883
2.956 0.446 5.873
3.203 0.558 5.805
3.174 0.473 5.504
3.432 0.503 5.414
3.633 0.528 5.391
1.824 0.218 5.856
2.092 0.248 5.732
2.373 0.377 5.694
2.640 0.414 5.681
2.921 0.397 5.572
3.138 0.436 5.554
3.080 0.354 5.280
3.327 0.451 5.182
3.664 0.400 5.101
3.888 0.526 5.092
4.164 0.480 5.019
2.047 0.176 5.482
2.284 0.231 5.441
2.612 0.244 5.356
2.797 0.282 5.371
3.132 0.333 5.262
3.034 0.309 5.017
3.309 0.304 4.931
3.567 0.352 4.901
3.806 0.360 4.850
4.074 0.425 4.798
4.383 0.469 4.712
2.266 0.199 5.186
2.545 0.181 5.173
2.792 0.214 5.057
3.054 0.310 4.975
3.043 0.203 4.748
3.277 0.245 4.662
3.482 0.232 4.594
3.795 0.350 4.586
4.057 0.315 4.498
4.326 0.401 4.454
4.541 0.414 4.403
2.468 0.109 4.884
2.734 0.171 4.816
3.014 0.152 4.738
2.960 0.065 4.485
3.235 0.173 4.400
3.442 0.176 4.414
3.759 0.226 4.277
4.033 0.225 4.274
4.277 0.319 4.168
4.536 0.368 4.138
2.720 0.052 4.518
2.971 0.120 4.520
2.886 0.075 4.220
3.219 0.113 4.181
3.386 0.069 4.173
3.669 0.152 4.106
3.965 0.200 4.004
4.183 0.225 3.931
4.536 0.242 3.906
2.931 0.075 4.251
3.410 -0.017 3.833
3.680 0.056 3.784
3.912 0.098 3.783
4.207 0.167 3.646
4.404 0.154 3.658
3.886 0.039 3.483
4.113 0.055 3.417
4.435 0.054 3.408
3.251 0.144 3.584
3.577 0.207 3.524
3.827 0.320 3.460
4.037 0.353 3.395
4.390 0.361 3.253
3.525 0.117 3.179
3.766 0.240 3.126
3.171 0.756 5.736
3.342 0.787 5.677
1.569 0.589 6.107
1.786 0.630 6.040
2.113 0.592 5.911
2.292 0.704 5.878
2.630 0.759 5.809
2.892 0.719 5.738
3.104 0.823 5.707
3.126 0.755 5.482
3.297 0.795 5.432
3.610 0.802 5.312
3.890 0.867 5.268
1.493 0.432 5.850
1.719 0.488 5.726
1.984 0.525 5.683
2.335 0.625 5.650
2.516 0.670 5.548
2.784 0.712 5.466
3.048 0.741 5.423
3.002 0.586 5.219
3.264 0.635 5.148
3.571 0.659 5.106
3.783 0.712 4.965
4.065 0.743 4.939
1.721 0.440 5.514
1.951 0.460 5.405
2.215 0.548 5.324
2.480 0.576 5.345
2.799 0.605 5.244
3.018 0.632 5.191
2.955 0.512 4.941
3.203 0.616 4.864
3.513 0.609 4.838
3.735 0.631 4.755
4.027 0.672 4.733
4.330 0.766 4.612
4.612 0.756 4.572
2.218 0.407 5.107
2.444 0.484 5.085
2.697 0.471 4.973
2.994 0.495 4.932
2.921 0.421 4.681
3.232 0.539 4.618
3.468 0.577 4.603
3.719 0.559 4.506
3.958 0.642 4.466
4.268 0.601 4.430
4.549 0.672 4.356
4.837 0.742 4.251
2.409 0.394 4.797
2.729 0.393 4.703
2.956 0.457 4.690
2.897 0.366 4.455
3.191 0.398 4.325
3.403 0.427 4.279
3.699 0.455 4.274
3.906 0.546 4.190
4.257 0.558 4.078
4.517 0.635 4.101
4.725 0.684 3.967
2.654 0.300 4.512
2.897 0.414 4.376
2.817 0.255 4.164
3.086 0.324 4.060
3.428 0.325 4.028
3.598 0.381 3.945
3.951 0.416 3.880
4.181 0.496 3.873
4.394 0.564 3.806
4.731 0.540 3.716
2.881 0.294 4.205
3.076 0.208 3.870
3.375 0.235 3.795
3.619 0.300 3.765
3.847 0.369 3.645
4.087 0.349 3.570
4.367 0.464 3.598
4.640 0.487 3.489
3.265 0.244 3.587
3.580 0.186 3.524
3.771 0.259 3.384
4.083 0.306 3.373
4.299 0.318 3.317
3.510 0.515 3.388
3.744 0.549 3.367
4.029 0.521 3.284
4.324 0.569 3.189
3.102 1.042 5.615
3.281 1.125 5.590
1.483 0.796 6.007
1.757 0.877 5.965
2.062 0.931 5.879
2.262 0.964 5.857
2.563 0.946 5.759
2.786 1.024 5.723
3.026 1.062 5.630
3.053 0.971 5.421
3.254 1.014 5.316
3.592 1.035 5.277
3.837 1.098 5.171
1.406 0.694 5.698
1.660 0.730 5.686
1.937 0.792 5.588
2.217 0.847 5.602
2.524 0.878 5.455
2.791 0.921 5.467
2.991 0.982 5.361
2.958 0.853 5.136
3.264 0.923 5.078
3.457 1.006 4.966
3.730 0.996 4.969
4.051 1.033 4.853
4.300 1.115 4.851
1.409 0.684 5.429
1.649 0.711 5.379
1.885 0.689 5.374
2.219 0.731 5.330
2.456 0.767 5.214
2.694 0.802 5.193
2.927 0.857 5.152
2.911 0.759 4.902
3.242 0.850 4.770
3.430 0.884 4.701
3.683 0.872 4.714
3.986 0.957 4.664
4.226 1.022 4.565
4.524 1.011 4.545
4.813 1.067 4.393
1.829 0.611 5.096
2.189 0.652 5.000
2.413 0.722 4.940
2.623 0.766 4.955
2.923 0.792 4.858
2.875 0.703 4.624
3.177 0.727 4.579
3.448 0.818 4.496
3.640 0.803 4.390
3.991 0.849 4.367
4.203 0.917 4.273
4.480 0.996 4.277
4.770 1.028 4.185
5.029 0.984 4.154
2.334 0.591 4.742
2.612 0.684 4.681
2.871 0.703 4.596
2.835 0.577 4.343
3.126 0.669 4.340
3.349 0.671 4.237
3.604 0.716 4.206
3.888 0.825 4.097
4.167 0.817 4.080
4.427 0.897 3.942
4.726 0.925 3.912
4.930 0.914 3.902
2.831 0.635 4.399
3.036 0.601 4.000
3.302 0.669 4.000
3.592 0.630 3.939
3.808 0.698 3.809
4.136 0.754 3.745
4.352 0.820 3.693
4.591 0.789 3.714
4.948 0.810 3.608
3.056 0.538 3.799
3.270 0.539 3.769
3.499 0.535 3.625
3.781 0.612 3.558
4.117 0.700 3.552
4.322 0.701 3.483
4.592 0.721 3.456
3.470 0.482 3.422
3.798 0.555 3.336
4.013 0.591 3.251
4.329 0.571 3.258
3.711 0.797 3.312
3.999 0.804 3.159
4.193 0.914 3.182
4.467 0.951 3.083
3.046 1.294 5.548
1.402 1.072 5.924
1.653 1.070 5.839
1.967 1.094 5.822
2.208 1.158 5.746
2.514 1.264 5.629
2.727 1.241 5.604
3.005 1.313 5.521
3.017 1.201 5.262
3.258 1.228 5.230
1.399 0.995 5.620
1.641 0.976 5.631
1.896 1.013 5.587
2.132 1.118 5.490
2.446 1.120 5.376
2.746 1.145 5.342
2.924 1.258 5.275
2.877 1.089 5.049
3.228 1.180 4.934
3.495 1.187 4.966
3.702 1.253 4.883
3.967 1.265 4.767
4.195 1.367 4.736
4.484 1.344 4.725
1.385 0.938 5.419
1.559 0.980 5.388
1.892 0.948 5.259
2.148 1.019 5.187
2.439 1.023 5.121
2.657 1.109 5.103
2.872 1.085 5.041
2.863 1.007 4.745
3.175 1.082 4.740
3.443 1.110 4.666
3.639 1.119 4.650
3.960 1.222 4.519
4.184 1.226 4.479
4.488 1.284 4.409
4.744 1.340 4.341
5.014 1.391 4.266
5.270 1.446 4.209
5.561 1.456 4.192
2.120 0.946 4.923
2.307 0.994 4.903
2.608 1.058 4.887
2.845 1.098 4.838
2.865 0.981 4.516
3.096 0.974 4.503
3.319 1.045 4.368
3.595 1.042 4.394
3.841 1.168 4.253
4.156 1.144 4.268
4.387 1.185 4.212
4.653 1.275 4.107
4.904 1.318 4.031
5.248 1.294 3.979
5.491 1.332 3.953
2.574 0.917 4.559
2.845 0.983 4.514
3.051 0.877 4.183
3.285 0.958 4.141
3.546 1.037 4.094
3.828 1.054 4.056
4.131 1.097 3.988
4.403 1.104 3.954
4.583 1.145 3.905
4.912 1.222 3.759
5.140 1.200 3.732
3.217 0.879 3.888
3.535 0.897 3.823
3.803 0.973 3.779
4.070 1.014 3.670
4.365 1.009 3.709
4.629 1.036 3.557
4.894 1.137 3.499
5.072 1.126 3.513
3.247 0.824 3.667
3.459 0.826 3.536
3.732 0.908 3.485
4.048 0.920 3.424
4.258 1.000 3.400
4.524 0.966 3.356
4.756 1.052 3.269
3.695 0.823 3.279
3.988 0.815 3.209
4.273 0.888 3.164
4.516 0.875 3.062
3.882 1.128 3.086
4.166 1.169 3.121
4.482 1.173 3.035
4.685 1.174 2.920
6.076 2.016 4.759
1.351 1.326 5.837
1.598 1.346 5.736
1.869 1.369 5.719
2.216 1.479 5.660
2.476 1.519 5.606
5.575 1.878 4.636
5.799 1.873 4.560
6.080 1.939 4.537
1.332 1.218 5.565
1.627 1.314 5.534
1.827 1.351 5.423
2.129 1.354 5.405
2.373 1.444 5.368
2.603 1.449 5.312
4.167 1.573 4.662
4.402 1.617 4.582
4.721 1.680 4.506
4.971 1.666 4.490
5.191 1.773 4.445
5.544 1.793 4.323
5.743 1.850 4.325
6.058 1.850 4.199
1.263 1.103 5.334
1.504 1.209 5.257
1.859 1.273 5.230
2.072 1.241 5.168
2.300 1.263 5.079
3.071 1.298 4.692
3.387 1.426 4.569
3.598 1.389 4.533
3.828 1.427 4.433
4.115 1.544 4.451
4.354 1.581 4.371
4.641 1.584 4.341
4.897 1.618 4.241
5.227 1.698 4.198
5.408 1.736 4.072
5.704 1.789 4.048
6.023 1.775 3.954
6.270 1.782 3.979
3.342 1.259 4.293
3.575 1.323 4.309
3.831 1.429 4.228
4.067 1.450 4.195
4.351 1.492 4.065
4.626 1.461 4.061
4.841 1.564 3.982
5.099 1.560 3.918
5.377 1.670 3.834
5.668 1.698 3.754
5.987 1.698 3.692
3.256 1.266 4.119
3.470 1.286 4.035
3.803 1.254 3.982
3.999 1.360 3.889
4.321 1.362 3.836
4.533 1.386 3.824
4.812 1.492 3.751
5.091 1.517 3.663
5.372 1.509 3.602
5.632 1.574 3.508
3.463 1.161 3.748
3.750 1.240 3.687
4.040 1.274 3.643
4.266 1.296 3.539
4.529 1.362 3.563
4.743 1.416 3.450
5.052 1.363 3.403
5.327 1.409 3.297
3.671 1.162 3.468
3.989 1.188 3.409
4.171 1.193 3.358
4.483 1.272 3.297
4.760 1.328 3.180
4.967 1.360 3.130
3.873 1.052 3.114
4.149 1.137 3.099
4.409 1.182 3.035
4.714 1.154 2.972
3.841 1.310 3.086
4.097 1.374 3.025
4.344 1.445 2.930
4.647 1.420 2.869
4.860 1.486 2.868
5.550 2.251 4.765
5.848 2.220 4.697
6.075 2.250 4.696
1.333 1.567 5.765
1.550 1.570 5.679
1.837 1.635 5.628
2.074 1.650 5.536
5.184 2.125 4.619
5.461 2.151 4.567
5.775 2.123 4.479
5.972 2.161 4.446
6.243 2.250 4.328
1.312 1.491 5.555
1.560 1.537 5.498
1.776 1.609 5.406
4.674 1.878 4.452
4.931 1.950 4.460
5.183 2.042 4.342
5.457 2.023 4.317
5.684 2.049 4.209
5.970 2.150 4.167
6.238 2.123 4.081
1.193 1.410 5.214
1.484 1.463 5.228
3.841 1.709 4.356
4.108 1.734 4.313
4.358 1.835 4.287
4.576 1.821 4.218
4.898 1.911 4.152
5.176 1.960 4.054
5.382 1.956 4.082
5.619 1.952 3.977
5.882 2.012 3.936
6.209 2.113 3.829
3.812 1.677 4.175
4.062 1.674 4.058
4.292 1.752 4.058
4.609 1.772 3.966
4.870 1.760 3.947
5.098 1.837 3.858
5.391 1.911 3.749
5.642 1.921 3.678
5.835 1.978 3.692
6.122 2.046 3.596
3.463 1.562 3.934
3.768 1.511 3.933
3.975 1.589 3.787
4.287 1.652 3.806
4.543 1.720 3.708
4.746 1.740 3.599
5.075 1.711 3.583
5.310 1.827 3.519
5.584 1.784 3.446
5.801 1.836 3.385
3.674 1.431 3.638
3.961 1.533 3.578
4.235 1.561 3.493
4.507 1.622 3.488
4.728 1.674 3.349
4.967 1.664 3.363
5.287 1.737 3.290
5.559 1.785 3.221
3.654 1.373 3.369
3.940 1.424 3.322
4.192 1.479 3.240
4.392 1.519 3.160
4.731 1.529 3.127
4.986 1.566 3.083
5.213 1.610 3.040
3.887 1.336 3.025
4.155 1.400 2.993
4.419 1.377 2.978
4.665 1.442 2.847
4.918 1.492 2.853
4.096 1.618 2.938
4.349 1.666 2.869
4.562 1.737 2.770
4.819 1.706 2.724
5.080 1.794 2.680
4.260 1.640 2.583
4.546 1.594 2.506
4.791 1.698 2.472
0.356 0.193 0.863
0.382 0.148 0.554
0.631 0.221 0.535
0.293 0.103 0.271
0.618 0.126 0.231
0.550 0.005 -0.011
5.489 2.442 4.685
5.731 2.479 4.641
5.990 2.554 4.654
6.310 2.570 4.549
1.260 1.846 5.673
1.530 1.885 5.615
5.178 2.361 4.567
5.392 2.349 4.504
5.734 2.419 4.414
5.975 2.420 4.394
6.268 2.542 4.326
1.253 1.719 5.384
1.518 1.758 5.338
4.578 2.201 4.429
4.899 2.211 4.296
5.132 2.284 4.298
5.341 2.271 4.268
5.620 2.392 4.159
5.931 2.397 4.070
6.223 2.433 3.999
1.199 1.664 5.153
4.276 2.044 4.233
4.603 2.128 4.182
4.796 2.184 4.074
5.051 2.225 4.052
5.314 2.186 3.989
5.582 2.228 3.927
5.881 2.286 3.794
6.159 2.371 3.794
3.950 1.926 4.043
4.231 2.004 3.904
4.528 2.052 3.838
4.750 2.065 3.829
5.060 2.052 3.744
5.259 2.143 3.670
5.531 2.213 3.651
5.793 2.174 3.559
6.098 2.260 3.554
3.914 1.832 3.774
4.152 1.860 3.643
4.495 1.910 3.595
4.702 1.920 3.562
4.974 1.985 3.492
5.264 2.056 3.434
5.536 2.076 3.418
5.807 2.109 3.368
3.900 1.804 3.468
4.162 1.788 3.470
4.386 1.872 3.395
4.704 1.839 3.289
4.899 1.901 3.207
5.221 2.011 3.213
5.432 1.960 3.088
5.749 2.033 3.080
3.809 1.690 3.198
4.084 1.727 3.220
4.363 1.719 3.098
4.618 1.774 3.044
4.868 1.815 2.967
5.167 1.851 2.904
5.412 1.893 2.848
4.092 1.651 2.972
4.321 1.626 2.873
4.601 1.714 2.777
4.857 1.717 2.774
5.079 1.838 2.637
0.161 0.542 1.027
0.045 0.493 0.850
-0.012 0.325 0.600
0.188 1.890 5.904
0.452 1.934 5.818
0.727 1.981 5.726
0.925 2.015 5.690
0.100 1.837 5.635
0.422 1.907 5.568
0.591 1.932 5.469
0.871 2.013 5.433
0.039 1.751 5.298
0.296 1.838 5.286
0.585 1.814 5.193
0.874 1.834 5.126
-0.029 1.678 5.138
0.286 1.718 5.050
0.100 0.783 0.960
0.054 0.747 0.723
0.056 2.163 5.821
0.396 2.247 5.692
0.645 2.263 5.691
0.839 2.305 5.578
0.077 2.125 5.487
0.340 2.169 5.457
0.561 2.137 5.416
0.885 2.216 5.378
0.034 1.999 5.317
0.301 2.057 5.183
0.557 2.122 5.162
0.218 2.007 4.958
0.065 1.120 1.196
0.060 1.010 0.967
0.057 2.458 5.656
0.331 2.504 5.633
0.572 2.499 5.634
0.792 2.520 5.486
0.252 2.370 5.340
0.493 2.453 5.340
0.199 2.283 5.124
0.045 1.425 1.398
0.026 1.434 1.146
0.227 2.703 5.602
0.046 1.846 1.523
-0.016 2.184 1.729
3.000 3.855 2.403
3.268 3.937 2.352
3.593 3.960 2.239
3.824 3.959 2.191
2.722 3.713 2.136
2.976 3.733 2.078
3.280 3.823 2.038
3.531 3.874 2.014
3.801 3.871 1.967
4.084 3.990 1.887
2.454 3.642 1.933
2.725 3.696 1.944
2.952 3.693 1.824
3.162 3.743 1.847
3.506 3.816 1.725
3.759 3.864 1.707
3.984 3.816 1.637
4.281 3.945 1.560
2.130 3.478 1.804
2.402 3.505 1.736
2.639 3.537 1.665
2.929 3.586 1.623
3.209 3.660 1.551
3.471 3.672 1.522
3.705 3.764 1.409
3.982 3.805 1.400
4.228 3.804 1.303
4.433 3.876 1.254
1.813 3.385 1.631
2.088 3.434 1.564
2.281 3.435 1.473
2.571 3.477 1.378
2.836 3.538 1.310
3.081 3.549 1.295
3.382 3.645 1.198
3.607 3.647 1.186
3.908 3.654 1.071
4.209 3.738 1.060
4.428 3.735 0.967
4.734 3.830 0.935
1.778 3.388 1.581
1.797 3.329 1.325
1.969 3.355 1.227
2.251 3.390 1.205
2.495 3.366 1.175
2.785 3.400 1.059
3.041 3.490 1.062
3.287 3.534 0.977
3.644 3.572 0.898
3.826 3.617 0.879
4.101 3.674 0.754
4.383 3.638 0.694
4.603 3.724 0.681
4.931 3.787 0.567
5.209 3.839 0.565
1.528 3.236 1.402
1.745 3.296 1.317
1.663 3.197 1.049
1.926 3.238 1.045
2.186 3.271 0.981
2.490 3.349 0.921
2.801 3.386 0.791
3.067 3.421 0.815
3.262 3.439 0.687
3.591 3.435 0.639
3.796 3.483 0.553
4.074 3.585 0.514
4.317 3.625 0.482
4.617 3.687 0.369
4.845 3.650 0.393
5.154 3.751 0.247
5.443 3.711 0.265
5.661 3.767 0.157
5.972 3.789 0.126
0.100 3.002 1.394
0.352 3.004 1.373
0.644 3.079 1.340
0.925 3.072 1.306
1.177 3.078 1.145
1.397 3.183 1.102
1.752 3.152 1.031
1.656 3.144 0.841
4.563 3.574 0.190
4.819 3.642 0.128
5.099 3.623 0.018
0.064 2.836 1.221
0.328 2.931 1.082
0.561 2.989 1.042
0.878 3.033 0.992
1.144 3.013 0.907
1.444 3.122 0.840
1.708 3.148 0.810
0.049 2.817 0.964
0.328 2.864 0.877
0.611 2.913 0.790
0.799 2.916 0.786
1.104 2.957 0.714
1.309 2.968 0.594
0.285 2.780 0.595
0.510 2.753 0.558
0.730 2.783 0.465
1.092 2.832 0.471
0.209 2.636 0.327
0.434 2.745 0.246
0.763 2.741 0.241
0.191 2.534 0.117
0.436 2.671 0.085
3.066 3.891 2.395
3.261 3.907 2.309
3.574 3.908 2.282
3.801 3.998 2.189
2.722 4.060 2.387
3.026 4.142 2.330
3.288 4.197 2.236
3.510 4.203 2.147
2.439 3.954 2.202
2.686 4.005 2.144
2.941 4.056 2.000
3.201 4.118 1.953
3.484 4.118 1.878
3.711 4.193 1.865
4.029 4.172 1.760
2.083 3.820 1.981
2.400 3.857 1.910
2.600 3.925 1.858
2.888 3.917 1.828
3.151 4.024 1.748
3.421 4.048 1.620
3.633 4.047 1.601
3.933 4.127 1.543
1.830 3.693 1.741
2.081 3.773 1.707
2.288 3.820 1.600
2.532 3.821 1.603
2.802 3.912 1.540
3.097 3.884 1.466
3.326 3.975 1.410
3.615 3.964 1.372
3.872 4.053 1.254
4.184 4.036 1.269
1.822 3.696 1.779
1.773 3.636 1.530
1.984 3.684 1.424
2.223 3.695 1.383
2.536 3.745 1.323
2.777 3.829 1.237
3.078 3.782 1.242
3.330 3.835 1.189
3.574 3.949 1.118
3.806 3.949 1.023
4.084 4.031 0.974
1.443 3.628 1.588
1.717 3.599 1.491
1.728 3.565 1.213
1.990 3.581 1.198
2.255 3.609 1.149
2.499 3.684 1.038
2.760 3.653 0.995
3.053 3.721 0.975
3.317 3.741 0.901
3.562 3.799 0.793
3.830 3.893 0.819
0.599 3.409 1.509
0.864 3.435 1.487
1.124 3.422 1.423
1.480 3.455 1.354
1.724 3.556 1.218
1.611 3.492 0.956
1.926 3.518 0.941
2.163 3.551 0.928
2.462 3.587 0.806
2.719 3.600 0.766
3.002 3.608 0.662
5.894 4.078 0.060
0.077 3.235 1.373
0.313 3.241 1.250
0.644 3.320 1.195
0.811 3.386 1.136
1.127 3.424 1.152
1.423 3.399 1.011
1.689 3.455 1.009
1.642 3.354 0.725
1.874 3.463 0.728
2.110 3.429 0.637
-0.020 3.145 1.135
0.272 3.212 1.083
0.544 3.165 0.992
0.832 3.281 0.895
1.087 3.268 0.862
1.322 3.354 0.810
1.639 3.392 0.733
1.592 3.251 0.466
1.788 3.291 0.400
0.265 3.070 0.806
0.494 3.127 0.722
0.779 3.208 0.636
1.046 3.186 0.609
1.267 3.231 0.555
1.571 3.244 0.502
0.229 3.022 0.489
0.442 2.997 0.512
0.766 3.129 0.390
0.942 3.159 0.323
1.248 3.187 0.264
0.185 2.923 0.231
0.381 2.964 0.226
0.726 3.025 0.141
0.932 3.025 0.117
1.211 3.045 0.067
0.104 2.849 0.044
2.683 4.065 2.381
2.939 4.083 2.289
3.231 4.151 2.234
3.552 4.189 2.224
2.421 4.264 2.367
2.640 4.386 2.314
2.943 4.345 2.245
3.223 4.379 2.178
3.408 4.427 2.064
2.098 4.202 2.111
2.388 4.179 2.054
2.639 4.223 1.980
2.916 4.268 1.956
3.117 4.328 1.952
3.366 4.353 1.861
3.625 4.458 1.755
1.735 4.011 1.988
2.015 4.144 1.862
2.277 4.088 1.870
2.547 4.143 1.740
2.810 4.225 1.690
3.127 4.303 1.646
3.401 4.271 1.622
3.621 4.331 1.552
1.792 4.020 1.901
1.754 3.969 1.726
1.980 3.975 1.611
2.300 4.045 1.529
2.559 4.117 1.473
2.753 4.175 1.474
3.053 4.205 1.395
3.275 4.225 1.308
3.606 4.248 1.323
1.477 3.957 1.743
1.768 3.992 1.713
1.706 3.837 1.425
1.967 3.962 1.378
2.202 4.007 1.304
2.447 4.030 1.284
2.707 4.048 1.244
3.041 4.040 1.162
3.266 4.129 1.036
3.485 4.124 1.027
1.176 3.802 1.605
1.463 3.886 1.543
1.660 3.907 1.431
1.672 3.780 1.166
1.918 3.805 1.154
2.128 3.856 1.110
2.399 3.969 0.969
2.668 3.941 0.964
2.998 4.047 0.867
3.180 4.027 0.868
0.563 3.689 1.404
0.818 3.693 1.359
1.116 3.730 1.319
1.366 3.761 1.268
1.628 3.810 1.194
1.644 3.747 0.932
1.863 3.734 0.838
2.072 3.836 0.765
2.336 3.802 0.780
2.669 3.906 0.658
2.866 3.869 0.621
0.059 3.429 1.246
0.288 3.545 1.261
0.521 3.580 1.167
0.768 3.611 1.145
1.060 3.623 1.057
1.362 3.642 0.942
1.572 3.751 0.927
1.537 3.615 0.664
1.817 3.636 0.595
2.122 3.708 0.595
2.380 3.763 0.448
0.253 3.391 0.983
0.499 3.466 0.923
0.763 3.503 0.830
0.985 3.588 0.800
1.323 3.603 0.776
1.514 3.629 0.688
1.459 3.550 0.442
1.727 3.630 0.354
0.160 3.366 0.688
0.409 3.397 0.612
0.699 3.416 0.561
1.018 3.462 0.546
1.240 3.555 0.519
1.472 3.519 0.367
1.463 3.474 0.194
0.139 3.272 0.443
0.407 3.323 0.394
0.645 3.354 0.359
0.981 3.345 0.311
1.245 3.384 0.269
1.422 3.418 0.145
0.082 3.217 0.219
0.316 3.256 0.116
0.595 3.245 0.052
0.836 3.336 0.067
2.346 4.302 2.388
2.626 4.308 2.256
2.959 4.338 2.247
3.201 4.413 2.120
3.432 4.411 2.117
2.124 4.478 2.341
2.338 4.597 2.217
2.651 4.572 2.207
2.819 4.683 2.164
3.138 4.704 2.130
3.359 4.753 2.017
1.801 4.371 2.143
1.989 4.464 2.075
2.259 4.434 2.033
2.545 4.558 1.927
2.856 4.540 1.893
3.067 4.615 1.804
3.335 4.633 1.783
1.789 4.411 2.139
1.756 4.289 1.870
1.960 4.372 1.846
2.294 4.374 1.772
2.503 4.469 1.733
2.766 4.435 1.607
3.038 4.489 1.554
3.307 4.575 1.495
3.592 4.592 1.432
1.683 4.300 1.849
1.714 4.245 1.668
1.919 4.287 1.532
2.207 4.343 1.521
2.474 4.340 1.427
2.699 4.348 1.359
2.986 4.405 1.310
3.266 4.493 1.258
3.531 4.481 1.238
1.457 4.191 1.716
1.673 4.182 1.660
1.611 4.165 1.396
1.941 4.181 1.253
2.122 4.239 1.264
2.414 4.282 1.222
2.676 4.322 1.147
2.925 4.383 1.099
3.216 4.420 0.996
1.080 4.019 1.518
1.405 4.111 1.467
1.655 4.092 1.352
1.625 4.099 1.143
1.809 4.057 1.098
2.158 4.087 1.031
2.378 4.128 0.877
2.621 4.221 0.863
2.884 4.233 0.856
0.777 3.912 1.313
1.036 4.025 1.193
1.319 4.046 1.211
1.630 4.100 1.149
1.560 3.982 0.854
1.793 4.044 0.750
2.095 4.074 0.683
2.315 4.052 0.635
2.552 4.153 0.567
0.213 3.789 1.109
0.468 3.842 1.133
0.789 3.822 0.982
1.005 3.915 0.950
1.225 3.962 0.901
1.556 4.012 0.814
1.447 3.858 0.599
1.710 3.958 0.573
2.020 3.988 0.499
2.328 4.031 0.410
0.140 3.699 0.919
0.404 3.708 0.794
0.670 3.727 0.824
0.934 3.779 0.671
1.240 3.885 0.664
1.468 3.851 0.574
1.492 3.790 0.390
1.699 3.894 0.251
0.150 3.576 0.598
0.346 3.651 0.607
0.665 3.683 0.476
0.902 3.732 0.510
1.184 3.713 0.401
1.431 3.788 0.363
1.439 3.769 0.075
1.703 3.802 0.069
0.094 3.561 0.346
0.394 3.528 0.315
0.610 3.616 0.225
0.848 3.671 0.188
1.102 3.704 0.183
1.374 3.672 0.056
0.054 3.448 0.088
0.322 3.457 0.072
0.616 3.551 -0.033
2.434 4.649 2.538
2.619 4.645 2.413
2.924 4.703 2.404
3.141 4.728 2.347
2.068 4.508 2.338
2.389 4.524 2.255
2.624 4.580 2.222
2.903 4.653 2.165
3.137 4.685 2.097
3.410 4.719 2.050
1.797 4.711 2.353
2.022 4.739 2.249
2.251 4.768 2.226
2.531 4.854 2.110
2.760 4.923 2.064
3.053 4.915 2.023
3.311 4.925 1.901
1.762 4.747 2.278
1.709 4.601 2.079
1.924 4.684 1.973
2.195 4.700 1.977
2.529 4.761 1.880
2.807 4.859 1.816
3.013 4.848 1.712
3.273 4.899 1.711
1.753 4.689 2.023
1.692 4.520 1.838
1.887 4.574 1.739
2.148 4.678 1.658
2.475 4.644 1.666
2.751 4.741 1.588
2.977 4.742 1.490
3.283 4.796 1.428
1.636 4.536 1.806
1.590 4.470 1.531
1.894 4.488 1.522
2.162 4.563 1.470
2.426 4.606 1.339
2.716 4.620 1.257
2.940 4.673 1.198
3.203 4.678 1.152
1.354 4.392 1.652
1.573 4.447 1.585
1.620 4.352 1.259
1.860 4.457 1.269
2.071 4.500 1.118
2.325 4.558 1.089
2.605 4.557 1.077
2.919 4.616 0.944
1.051 4.364 1.396
1.346 4.398 1.346
1.617 4.385 1.300
1.528 4.338 1.007
1.792 4.354 0.975
2.075 4.425 0.873
2.306 4.434 0.827
2.629 4.427 0.818
0.700 4.217 1.245
0.993 4.201 1.202
1.283 4.286 1.087
1.510 4.364 0.988
1.459 4.214 0.822
1.791 4.222 0.674
2.055 4.313 0.634
2.293 4.359 0.640
0.418 4.119 1.041
0.723 4.104 0.975
0.976 4.189 0.858
1.266 4.140 0.787
1.471 4.222 0.746
1.445 4.138 0.491
1.662 4.162 0.454
1.928 4.201 0.449
0.116 3.977 0.813
0.361 4.030 0.729
0.695 4.009 0.656
0.878 4.109 0.627
1.176 4.097 0.578
1.407 4.097 0.512
1.349 4.101 0.271
1.667 4.105 0.241
0.076 3.901 0.575
0.313 3.943 0.471
0.596 3.907 0.429
0.875 3.986 0.368
1.094 4.061 0.305
1.404 4.015 0.230
1.359 4.014 -0.004
-0.002 3.780 0.319
0.301 3.836 0.236
0.532 3.904 0.180
0.798 3.881 0.085
1.061 3.961 0.088
1.312 3.994 0.053
2.409 5.022 2.675
2.687 4.980 2.603
2.864 5.050 2.568
2.086 4.882 2.544
2.341 4.907 2.416
2.561 4.953 2.394
2.818 5.000 2.371
3.082 5.067 2.295
1.801 4.691 2.331
2.070 4.800 2.272
2.250 4.827 2.161
2.590 4.813 2.103
2.770 4.929 2.072
3.052 4.909 1.999
3.308 5.005 1.962
1.800 4.776 2.279
1.706 4.985 2.264
1.959 5.009 2.206
2.252 5.088 2.156
2.441 5.097 2.015
2.784 5.118 1.949
2.990 5.198 1.941
3.312 5.231 1.833
1.703 5.006 2.248
1.669 4.865 1.992
1.949 4.959 1.890
2.188 5.013 1.834
2.457 5.020 1.808
2.680 5.032 1.757
2.930 5.105 1.719
3.230 5.188 1.637
1.660 4.907 2.000
1.633 4.813 1.732
1.845 4.840 1.675
2.180 4.904 1.645
2.422 4.918 1.588
2.614 5.022 1.494
2.911 5.028 1.408
3.140 5.065 1.369
1.590 4.868 1.711
1.548 4.772 1.473
1.817 4.743 1.438
2.137 4.807 1.299
2.327 4.869 1.289
2.614 4.861 1.221
2.919 4.903 1.209
1.255 4.701 1.550
1.538 4.769 1.420
1.541 4.629 1.231
1.824 4.659 1.113
2.006 4.716 1.053
2.349 4.787 1.020
2.607 4.836 0.968
1.305 4.636 1.283
1.478 4.640 1.191
1.428 4.566 0.964
1.687 4.622 0.908
1.963 4.605 0.860
2.273 4.695 0.729
0.955 4.474 1.056
1.216 4.546 1.054
1.468 4.621 0.970
1.389 4.464 0.750
1.705 4.532 0.653
1.994 4.578 0.574
0.618 4.356 0.926
0.915 4.457 0.834
1.143 4.431 0.717
1.396 4.503 0.744
1.366 4.409 0.452
1.667 4.463 0.409
0.284 4.291 0.655
0.584 4.248 0.641
0.822 4.303 0.610
1.096 4.345 0.487
1.338 4.411 0.424
1.361 4.336 0.177
1.603 4.324 0.083
0.035 4.113 0.446
0.270 4.126 0.444
0.563 4.233 0.419
0.790 4.260 0.299
1.068 4.291 0.218
1.362 4.315 0.149
0.215 4.079 0.159
0.547 4.134 0.115
0.742 4.198 0.086
1.290 5.560 4.458
1.580 5.596 4.424
1.807 5.671 4.377
2.176 5.360 3.196
2.421 5.422 3.093
2.145 5.247 2.898
2.316 5.282 2.863
2.635 5.382 2.796
2.921 5.431 2.785
2.050 5.208 2.721
2.276 5.289 2.666
2.532 5.235 2.590
2.800 5.366 2.500
3.073 5.330 2.413
1.738 5.103 2.495
2.039 5.103 2.483
2.266 5.132 2.372
2.535 5.195 2.342
2.776 5.208 2.256
3.073 5.230 2.166
1.733 5.033 2.518
1.703 4.955 2.224
1.970 4.999 2.141
2.259 5.054 2.082
2.444 5.089 2.088
2.766 5.190 2.038
3.067 5.217 1.912
3.254 5.210 1.844
1.685 4.990 2.241
1.651 5.218 2.146
1.871 5.309 2.061
2.185 5.348 2.072
2.404 5.393 1.991
2.716 5.361 1.891
2.942 5.459 1.863
3.199 5.484 1.783
1.611 5.203 2.174
1.560 5.192 1.861
1.904 5.228 1.890
2.119 5.284 1.784
2.352 5.250 1.739
2.639 5.345 1.624
2.895 5.367 1.607
1.597 5.184 1.948
1.590 5.051 1.613
1.847 5.101 1.622
2.126 5.174 1.539
2.366 5.155 1.486
2.600 5.266 1.405
2.826 5.314 1.332
1.583 5.077 1.679
1.549 4.998 1.410
1.769 5.080 1.347
2.082 5.093 1.260
2.324 5.108 1.258
2.573 5.181 1.121
1.478 4.997 1.440
1.469 4.925 1.121
1.713 4.905 1.082
2.022 4.987 1.021
2.212 4.995 0.926
1.438 4.883 1.093
1.432 4.786 0.917
1.680 4.831 0.861
1.947 4.899 0.756
1.401 4.837 0.858
1.338 4.718 0.651
1.081 4.712 0.641
1.360 4.743 0.598
1.374 4.620 0.339
0.837 4.577 0.510
1.027 4.576 0.412
1.373 4.632 0.335
1.293 4.617 0.141
0.266 4.365 0.405
0.469 4.485 0.321
0.767 4.459 0.218
1.042 4.504 0.159
1.315 4.577 0.132
0.223 4.341 0.088
0.414 4.388 0.031
1.999 5.958 4.227
0.940 5.797 4.458
1.251 5.845 4.390
1.497 5.843 4.368
1.755 5.875 4.271
1.965 5.899 4.205
1.943 5.817 3.913
2.210 5.879 3.878
1.172 5.731 4.163
1.463 5.766 4.107
1.679 5.830 4.059
1.917 5.827 3.956
1.879 5.710 3.660
2.132 5.815 3.641
2.394 5.826 3.531
1.431 5.671 3.851
1.685 5.670 3.791
1.867 5.760 3.727
1.825 5.660 3.423
2.162 5.707 3.422
2.397 5.778 3.312
2.649 5.742 3.294
1.646 5.605 3.512
1.902 5.647 3.469
1.795 5.588 3.219
2.109 5.657 3.138
2.383 5.645 3.039
2.568 5.709 2.985
2.847 5.716 2.933
1.592 5.566 3.196
1.826 5.605 3.140
1.804 5.491 2.956
2.041 5.569 2.862
2.282 5.589 2.852
2.560 5.639 2.746
2.857 5.618 2.731
3.079 5.692 2.604
1.783 5.454 2.971
1.760 5.405 2.672
1.994 5.415 2.650
2.268 5.523 2.604
2.572 5.542 2.486
2.767 5.578 2.405
3.029 5.642 2.347
1.728 5.373 2.686
1.716 5.310 2.418
1.998 5.393 2.364
2.209 5.386 2.266
2.443 5.444 2.241
2.783 5.515 2.165
3.038 5.553 2.086
3.313 5.588 2.062
1.663 5.287 2.391
1.608 5.200 2.149
1.940 5.314 2.091
2.177 5.330 1.993
2.397 5.365 1.971
2.673 5.457 1.954
2.990 5.442 1.820
3.266 5.462 1.782
1.662 5.297 2.149
1.562 5.510 2.133
1.871 5.514 2.050
2.097 5.544 1.924
2.344 5.653 1.891
2.611 5.678 1.833
2.946 5.745 1.812
3.147 5.720 1.758
1.570 5.505 2.106
1.842 5.472 1.758
2.029 5.461 1.679
2.375 5.522 1.623
2.605 5.595 1.569
2.846 5.585 1.523
1.734 5.406 1.501
2.033 5.438 1.409
2.312 5.471 1.431
2.602 5.525 1.372
1.952 5.362 1.185
2.240 5.397 1.178
0.174 4.545 0.035
1.983 6.213 4.176
2.259 6.182 4.023
0.599 6.001 4.426
0.862 6.020 4.392
1.201 6.052 4.280
1.415 6.112 4.278
1.660 6.094 4.189
1.967 6.177 4.144
1.862 6.141 3.843
2.217 6.126 3.804
2.469 6.226 3.775
0.814 5.908 4.145
1.124 6.006 4.061
1.342 6.044 3.993
1.617 6.022 3.961
1.923 6.073 3.843
1.859 6.041 3.668
2.083 6.090 3.573
2.363 6.135 3.522
2.640 6.157 3.431
1.081 5.922 3.754
1.372 5.938 3.732
1.626 5.939 3.670
1.857 5.996 3.590
1.781 5.899 3.344
2.095 5.949 3.329
2.361 6.020 3.260
2.582 6.083 3.162
2.833 6.125 3.156
1.269 5.803 3.512
1.545 5.855 3.412
1.783 5.974 3.415
1.752 5.806 3.102
2.038 5.932 3.096
2.252 5.907 2.971
2.567 5.913 2.927
2.815 5.992 2.825
3.043 6.032 2.812
1.513 5.828 3.157
1.754 5.845 3.070
1.713 5.775 2.808
1.939 5.816 2.794
2.288 5.889 2.776
2.493 5.925 2.720
2.774 5.869 2.662
3.028 6.007 2.593
1.493 5.767 2.938
1.742 5.777 2.901
1.659 5.713 2.630
1.971 5.721 2.583
2.174 5.802 2.436
2.516 5.824 2.454
2.701 5.866 2.329
2.978 5.849 2.318
3.215 5.927 2.246
1.652 5.668 2.618
1.605 5.633 2.302
1.929 5.635 2.308
2.147 5.665 2.180
2.455 5.755 2.177
2.688 5.790 2.148
2.936 5.774 2.013
3.228 5.870 1.976
1.647 5.560 2.393
1.624 5.512 2.125
1.822 5.521 2.027
2.071 5.584 1.926
2.339 5.658 1.932
2.681 5.712 1.856
2.920 5.689 1.814
3.208 5.792 1.694
1.549 5.517 2.087
1.818 5.787 1.996
2.084 5.802 1.891
2.305 5.904 1.797
2.569 5.916 1.766
2.864 5.963 1.744
3.110 6.028 1.644
1.773 5.726 1.710
2.059 5.807 1.650
2.287 5.765 1.614
2.495 5.880 1.548
2.822 5.882 1.488
0.270 6.163 4.420
0.542 6.263 4.392
0.825 6.278 4.255
0.511 6.178 4.128
0.846 6.163 3.993
1.016 6.241 3.949
1.281 6.269 3.899
1.777 6.264 3.498
0.747 6.110 3.812
1.026 6.136 3.714
1.261 6.199 3.648
1.539 6.251 3.654
1.799 6.268 3.517
1.800 6.169 3.342
2.021 6.235 3.272
2.322 6.288 3.212
0.971 6.048 3.451
1.225 6.113 3.384
1.539 6.183 3.356
1.742 6.207 3.294
1.681 6.147 3.054
1.930 6.129 2.992
2.283 6.150 2.882
2.514 6.181 2.850
2.785 6.262 2.834
1.206 5.978 3.162
1.422 6.081 3.137
1.756 6.070 3.044
1.629 6.039 2.732
1.887 6.053 2.679
2.183 6.076 2.664
2.503 6.100 2.618
2.766 6.182 2.500
3.013 6.265 2.468
3.287 6.244 2.447
1.455 5.954 2.801
1.667 5.993 2.755
1.582 5.978 2.506
1.850 5.935 2.453
2.126 5.992 2.446
2.410 6.091 2.394
2.628 6.117 2.235
2.916 6.096 2.193
3.221 6.177 2.183
1.582 5.977 2.483
1.617 5.804 2.306
1.861 5.895 2.192
2.072 5.944 2.186
2.383 5.993 2.082
2.628 6.042 2.077
2.886 6.084 2.000
3.189 6.108 1.929
1.540 5.868 2.292
1.815 5.821 1.984
2.093 5.887 1.912
2.276 5.878 1.834
2.567 5.927 1.767
2.818 5.974 1.693
3.149 6.025 1.653
2.014 6.083 1.820
2.285 6.146 1.787
2.523 6.173 1.697
2.808 6.204 1.590
3.087 6.240 1.599
2.197 6.042 1.524
2.435 6.063 1.416
1.130 6.244 3.054
1.644 6.265 2.750
1.389 6.205 2.812
1.647 6.316 2.660
1.588 6.212 2.498
1.860 6.248 2.436
2.056 6.266 2.376
1.542 6.156 2.422
1.827 6.171 2.179
2.056 6.165 2.042
2.267 6.220 1.978
2.542 6.257 1.953
1.972 6.122 1.843
2.219 6.147 1.718
2.574 6.224 1.652
2.802 6.217 1.596
3.080 6.283 1.534
4.035 1.869 2.882
4.251 1.918 2.826
4.561 2.012 2.735
4.764 1.997 2.684
5.069 2.057 2.590
5.363 2.121 2.551
4.257 1.799 2.539
4.439 1.930 2.439
4.756 1.947 2.364
4.982 1.971 2.334
0.309 0.532 0.768
0.253 0.426 0.522
0.259 0.354 0.213
0.533 0.337 0.203
5.461 2.722 4.610
5.702 2.745 4.606
5.968 2.785 4.525
6.191 2.806 4.504
1.184 2.116 5.621
5.082 2.587 4.496
5.382 2.683 4.415
5.648 2.714 4.301
5.946 2.719 4.303
6.206 2.808 4.202
1.201 1.966 5.333
4.851 2.501 4.261
5.033 2.543 4.218
5.336 2.604 4.111
5.549 2.644 4.044
5.901 2.646 4.009
6.080 2.726 4.010
4.529 2.332 4.057
4.754 2.389 3.988
5.045 2.485 3.936
5.300 2.514 3.862
5.598 2.565 3.840
5.766 2.547 3.789
6.078 2.597 3.724
4.203 2.257 3.851
4.484 2.304 3.826
4.672 2.356 3.793
4.929 2.380 3.726
5.224 2.382 3.632
5.494 2.440 3.534
5.783 2.518 3.477
6.060 2.552 3.439
3.841 2.132 3.682
4.173 2.135 3.595
4.419 2.206 3.607
4.659 2.228 3.459
4.978 2.274 3.400
5.220 2.300 3.385
5.494 2.385 3.357
5.750 2.375 3.255
6.033 2.410 3.226
3.815 2.062 3.371
4.101 2.061 3.330
4.372 2.058 3.258
4.668 2.106 3.215
4.869 2.233 3.135
5.151 2.250 3.105
5.442 2.230 3.046
5.702 2.267 3.027
3.759 1.950 3.119
4.017 1.970 3.145
4.279 1.972 3.072
4.563 2.103 3.016
4.821 2.051 2.906
5.141 2.119 2.828
5.392 2.151 2.813
3.959 1.879 2.879
4.255 1.941 2.812
4.493 1.980 2.754
4.793 1.987 2.660
5.076 2.027 2.591
5.282 2.089 2.502
3.995 2.162 2.793
4.219 2.172 2.708
4.444 2.251 2.692
4.707 2.225 2.597
5.002 2.269 2.584
5.244 2.357 2.499
3.865 2.107 2.504
4.138 2.150 2.461
4.443 2.173 2.404
4.733 2.201 2.295
4.941 2.195 2.315
5.259 2.316 2.199
4.105 2.055 2.172
4.367 2.071 2.105
4.656 2.066 2.060
4.922 2.157 2.059
4.625 1.970 1.795
4.832 2.068 1.746
5.373 1.685 0.025
0.277 0.751 0.722
0.241 0.626 0.374
0.212 0.582 0.164
5.414 3.022 4.613
5.614 2.980 4.503
5.913 3.070 4.456
6.150 3.137 4.411
1.112 2.321 5.555
5.302 2.943 4.330
5.605 2.925 4.216
5.862 2.991 4.217
6.132 3.010 4.172
4.986 2.811 4.131
5.245 2.856 4.029
5.580 2.876 4.030
5.767 2.854 3.962
6.087 2.936 3.879
4.701 2.641 3.899
5.006 2.719 3.915
5.195 2.766 3.835
5.476 2.770 3.774
5.763 2.767 3.646
6.021 2.885 3.655
4.347 2.571 3.708
4.664 2.588 3.698
4.924 2.638 3.575
5.186 2.649 3.521
5.474 2.677 3.532
5.672 2.731 3.467
6.012 2.771 3.354
4.131 2.358 3.531
4.380 2.443 3.498
4.630 2.453 3.429
4.888 2.541 3.384
5.114 2.531 3.328
5.408 2.648 3.202
5.689 2.615 3.134
4.092 2.344 3.309
4.284 2.400 3.260
4.525 2.437 3.193
4.809 2.432 3.150
5.131 2.474 3.008
5.395 2.503 2.941
5.608 2.585 2.971
4.036 2.216 3.060
4.245 2.296 2.934
4.518 2.335 2.865
4.825 2.315 2.866
5.001 2.377 2.836
5.356 2.397 2.725
5.559 2.520 2.632
3.938 2.198 2.749
4.188 2.149 2.713
4.508 2.205 2.668
4.778 2.277 2.619
5.048 2.259 2.584
5.312 2.332 2.495
3.874 2.372 2.705
4.131 2.463 2.686
4.383 2.469 2.546
4.684 2.486 2.540
4.960 2.579 2.464
5.198 2.613 2.420
3.867 2.330 2.455
4.103 2.391 2.355
4.340 2.420 2.303
4.646 2.452 2.248
4.901 2.469 2.253
5.146 2.530 2.156
3.763 2.191 2.147
4.060 2.324 2.161
4.313 2.355 2.042
4.580 2.369 1.988
4.830 2.445 1.961
5.145 2.415 1.927
3.975 2.151 1.898
4.318 2.271 1.857
4.572 2.302 1.731
4.765 2.321 1.738
5.053 2.373 1.678
4.249 2.177 1.567
4.521 2.226 1.516
4.755 2.194 1.486
4.999 2.221 1.400
4.753 2.116 1.212
4.947 2.212 1.114
5.262 2.179 1.090
4.892 2.096 0.868
5.173 2.112 0.848
5.184 2.020 0.540
5.430 2.126 0.466
5.699 2.116 0.387
5.086 1.968 0.249
5.424 2.055 0.255
5.604 2.019 0.125
5.945 2.108 0.143
5.048 1.887 0.084
0.303 1.088 0.882
0.238 0.954 0.646
0.220 0.951 0.369
0.178 0.820 0.128
5.610 3.288 4.455
5.827 3.333 4.370
6.151 3.318 4.301
5.573 3.158 4.141
5.827 3.252 4.111
6.019 3.317 4.073
5.239 3.082 3.964
5.445 3.115 3.906
5.750 3.112 3.851
6.024 3.228 3.837
6.322 3.277 3.792
4.885 2.906 3.775
5.180 2.946 3.731
5.424 3.012 3.651
5.686 3.090 3.620
5.971 3.097 3.534
4.595 2.832 3.652
4.893 2.906 3.513
5.145 2.875 3.489
5.410 2.918 3.437
5.691 2.938 3.318
4.283 2.681 3.381
4.539 2.707 3.380
4.790 2.786 3.243
5.069 2.835 3.231
5.350 2.848 3.200
5.590 2.866 3.080
3.956 2.581 3.256
4.292 2.653 3.166
4.492 2.668 3.093
4.763 2.649 3.041
5.058 2.756 2.933
5.282 2.770 2.901
5.580 2.794 2.891
3.927 2.499 2.958
4.184 2.508 2.849
4.435 2.577 2.837
4.748 2.568 2.808
4.987 2.700 2.738
5.248 2.672 2.652
3.854 2.359 2.675
4.121 2.427 2.619
4.383 2.519 2.581
4.652 2.490 2.471
4.998 2.587 2.424
5.178 2.599 2.359
3.847 2.627 2.663
4.100 2.739 2.574
4.364 2.698 2.527
4.605 2.789 2.396
4.938 2.808 2.401
5.151 2.845 2.319
3.792 2.602 2.417
4.093 2.624 2.328
4.300 2.688 2.211
4.536 2.725 2.178
4.855 2.695 2.151
5.118 2.756 2.058
5.365 2.818 2.033
3.782 2.460 2.153
3.986 2.580 2.022
4.233 2.532 2.018
4.541 2.567 1.913
4.757 2.626 1.824
5.103 2.666 1.798
5.319 2.729 1.716
3.695 2.396 1.893
3.956 2.497 1.833
4.193 2.462 1.763
4.535 2.560 1.721
4.709 2.609 1.636
5.040 2.634 1.540
5.255 2.612 1.485
3.931 2.347 1.538
4.149 2.410 1.500
4.465 2.421 1.424
4.708 2.536 1.407
4.934 2.516 1.302
5.203 2.570 1.272
5.464 2.591 1.210
4.107 2.275 1.183
4.365 2.364 1.201
4.628 2.356 1.113
4.929 2.396 1.038
5.209 2.444 0.938
5.445 2.564 0.970
4.351 2.324 0.940
4.665 2.301 0.835
4.849 2.367 0.800
5.163 2.433 0.745
5.440 2.395 0.716
5.715 2.438 0.614
4.603 2.254 0.632
4.847 2.297 0.577
5.121 2.342 0.432
5.405 2.376 0.443
5.647 2.425 0.362
5.910 2.390 0.287
4.798 2.218 0.314
5.049 2.201 0.180
5.361 2.288 0.112
5.561 2.284 0.089
5.859 2.309 0.016
4.774 2.113 -0.021
0.226 1.468 1.033
0.220 1.307 0.781
0.220 1.297 0.509
0.167 1.138 0.245
0.109 1.116 0.050
6.058 3.569 4.292
5.093 3.134 3.426
4.472 2.947 3.282
4.740 3.028 3.213
5.053 3.060 3.193
5.328 3.162 3.134
4.204 2.912 3.083
4.474 2.886 3.013
4.706 2.961 2.987
4.947 3.002 2.902
5.240 3.018 2.845
3.842 2.764 2.913
4.114 2.804 2.794
4.371 2.816 2.770
4.661 2.839 2.746
4.968 2.934 2.637
5.181 2.942 2.632
3.837 2.618 2.615
4.079 2.659 2.515
4.357 2.715 2.531
4.616 2.775 2.494
4.934 2.838 2.350
5.163 2.868 2.344
3.769 2.945 2.544
4.086 2.967 2.519
4.333 2.982 2.453
4.592 3.032 2.343
4.828 3.072 2.357
5.062 3.097 2.285
3.511 2.796 2.342
3.766 2.876 2.327
3.956 2.887 2.220
4.307 2.892 2.126
4.571 2.961 2.072
4.831 3.018 2.019
5.064 3.003 1.959
3.476 2.682 2.078
3.730 2.796 1.989
3.964 2.770 2.011
4.188 2.795 1.948
4.463 2.847 1.894
4.781 2.865 1.756
5.003 2.933 1.781
5.250 3.026 1.723
3.618 2.680 1.768
3.944 2.683 1.685
4.143 2.793 1.671
4.478 2.738 1.608
4.737 2.836 1.564
5.004 2.819 1.446
5.197 2.943 1.396
3.562 2.622 1.543
3.903 2.639 1.438
4.085 2.712 1.452
4.434 2.749 1.334
4.682 2.710 1.255
4.890 2.786 1.252
5.231 2.854 1.128
5.475 2.889 1.114
3.790 2.502 1.238
4.121 2.537 1.194
4.332 2.590 1.138
4.653 2.661 0.989
4.859 2.658 0.939
5.139 2.730 0.928
5.415 2.745 0.850
5.670 2.834 0.813
4.026 2.530 0.896
4.278 2.562 0.841
4.525 2.617 0.805
4.831 2.563 0.710
5.066 2.690 0.664
5.323 2.695 0.597
5.606 2.699 0.487
5.901 2.754 0.451
4.233 2.441 0.613
4.506 2.470 0.509
4.745 2.559 0.477
5.035 2.564 0.412
5.322 2.575 0.384
5.563 2.638 0.314
5.827 2.716 0.247
6.062 2.749 0.123
4.480 2.407 0.303
4.751 2.429 0.190
4.982 2.492 0.180
5.227 2.544 0.118
5.541 2.561 0.031
0.240 1.724 1.190
0.246 1.693 0.980
0.136 1.598 0.691
0.420 1.663 0.614
0.122 1.520 0.439
0.050 1.422 0.245
4.434 3.149 2.978
4.663 3.228 2.912
4.978 3.292 2.810
3.818 3.019 2.793
4.064 3.040 2.754
4.323 3.083 2.718
4.580 3.164 2.581
4.890 3.195 2.532
5.149 3.168 2.499
3.816 2.881 2.576
4.055 2.981 2.517
4.287 2.994 2.432
4.562 3.067 2.339
4.841 3.062 2.306
5.122 3.088 2.207
3.740 3.139 2.477
3.953 3.222 2.392
4.229 3.291 2.346
4.526 3.343 2.305
4.825 3.338 2.250
3.403 3.092 2.311
3.708 3.068 2.221
3.955 3.106 2.151
4.243 3.184 2.053
4.504 3.253 2.073
4.751 3.228 1.950
5.020 3.260 1.880
3.327 2.925 2.073
3.603 3.053 1.975
3.912 3.097 1.924
4.151 3.038 1.876
4.455 3.169 1.781
4.677 3.126 1.695
4.990 3.194 1.640
5.266 3.238 1.653
3.342 2.932 1.770
3.636 2.964 1.725
3.854 3.006 1.692
4.163 2.970 1.570
4.390 3.022 1.549
4.653 3.104 1.497
4.860 3.104 1.435
5.198 3.138 1.346
5.390 3.162 1.297
3.236 2.801 1.494
3.557 2.856 1.445
3.782 2.841 1.349
4.063 2.920 1.347
4.304 2.982 1.301
4.649 3.016 1.195
4.878 3.077 1.177
5.084 3.116 1.097
5.362 3.134 1.065
3.536 2.759 1.168
3.768 2.776 1.143
4.013 2.840 1.066
4.248 2.870 1.026
4.586 2.880 0.998
4.860 2.963 0.894
5.055 3.029 0.830
5.306 3.057 0.742
5.653 3.068 0.673
5.858 3.069 0.614
4.025 2.705 0.825
4.229 2.834 0.765
4.528 2.790 0.695
4.818 2.868 0.638
5.021 2.930 0.602
5.343 2.916 0.521
5.527 2.994 0.494
5.813 3.008 0.416
6.109 3.059 0.327
4.210 2.702 0.495
4.503 2.708 0.445
4.729 2.825 0.408
5.002 2.863 0.331
5.265 2.846 0.255
5.526 2.948 0.185
5.830 2.945 0.150
6.048 2.998 0.083
0.222 2.154 1.371
4.384 2.625 0.180
4.674 2.682 0.088
4.917 2.726 0.041
5.210 2.768 0.010
0.230 1.988 1.155
0.484 2.112 1.124
0.162 1.964 0.880
0.373 1.971 0.855
0.139 1.833 0.648
0.382 1.864 0.556
0.108 1.811 0.365
0.307 1.801 0.272
0.028 1.671 0.163
4.058 3.284 2.652
4.251 3.305 2.640
4.544 3.422 2.510
3.724 3.200 2.465
3.959 3.194 2.423
4.291 3.231 2.371
4.556 3.347 2.276
4.783 3.348 2.228
3.672 3.485 2.393
3.911 3.473 2.383
4.208 3.526 2.232
4.428 3.547 2.170
3.315 3.310 2.213
3.622 3.383 2.104
3.911 3.436 2.099
4.192 3.425 2.000
4.460 3.452 1.970
4.638 3.545 1.861
3.057 3.188 2.038
3.320 3.276 1.966
3.558 3.237 1.906
3.862 3.322 1.783
4.116 3.344 1.766
4.375 3.397 1.709
4.671 3.401 1.655
4.855 3.431 1.542
2.972 3.112 1.776
3.298 3.097 1.743
3.571 3.186 1.652
3.802 3.198 1.539
4.033 3.306 1.504
4.366 3.346 1.464
4.594 3.387 1.363
4.876 3.389 1.331
5.165 3.436 1.274
2.951 3.017 1.456
3.261 3.030 1.403
3.498 3.067 1.354
3.792 3.119 1.309
4.037 3.183 1.219
4.230 3.212 1.207
4.540 3.277 1.160
4.790 3.258 1.070
5.046 3.306 1.001
5.322 3.354 0.934
3.221 3.005 1.205
3.476 2.978 1.091
3.672 3.056 1.033
4.002 3.089 1.026
4.284 3.163 0.964
4.490 3.163 0.926
4.749 3.241 0.821
4.997 3.270 0.770
5.315 3.330 0.657
5.543 3.334 0.650
5.823 3.368 0.574
3.697 2.964 0.817
3.915 2.993 0.702
4.238 3.003 0.723
4.468 3.046 0.654
4.721 3.100 0.548
4.980 3.196 0.494
5.267 3.196 0.414
5.545 3.271 0.412
5.755 3.241 0.330
5.998 3.347 0.252
0.232 2.404 1.587
4.120 2.942 0.470
4.385 3.020 0.360
4.652 3.014 0.301
4.904 3.102 0.235
5.223 3.093 0.148
5.421 3.112 0.096
5.695 3.219 0.092
5.969 3.209 0.026
0.236 2.316 1.340
0.475 2.411 1.314
4.334 2.962 0.082
4.665 2.918 0.063
0.138 2.310 1.072
0.443 2.287 0.987
0.673 2.385 0.944
0.090 2.166 0.857
0.380 2.230 0.725
0.590 2.227 0.728
0.056 2.137 0.525
0.304 2.176 0.462
0.580 2.200 0.438
0.046 2.051 0.315
0.294 2.022 0.199
3.638 3.397 2.414
3.910 3.423 2.340
4.152 3.544 2.290
4.509 3.566 2.259
3.346 3.647 2.425
3.650 3.730 2.348
3.848 3.705 2.266
4.093 3.744 2.237
3.009 3.497 2.205
3.306 3.546 2.151
3.539 3.574 2.027
3.795 3.662 2.033
4.101 3.684 1.935
4.324 3.743 1.891
4.638 3.802 1.836
