4.549 6.330 4.764
4.827 6.089 4.552
5.079 6.253 4.050
5.214 6.231 4.376
3.130 6.353 -0.013
4.935 6.329 3.580
5.379 6.168 3.736
5.337 6.164 4.150
5.332 6.375 3.266
5.564 6.162 3.883
5.460 6.110 3.860
5.347 6.110 3.181
5.752 6.331 3.318
5.690 6.245 3.578
5.809 6.126 3.858
5.713 6.114 2.480
5.625 6.305 2.882
5.757 6.076 3.026
6.072 6.308 3.407
6.151 6.241 3.734
5.426 6.216 1.697
5.467 6.284 2.019
5.742 6.376 2.458
5.803 6.228 2.551
6.070 6.299 2.927
6.399 6.408 3.080
5.833 6.242 1.546
5.982 6.358 1.946
6.048 6.247 2.183
6.110 6.056 2.386
5.718 6.115 1.181
6.158 6.151 1.728
6.057 6.400 1.768
4.519 6.315 4.971
4.881 6.113 5.163
4.847 6.304 5.308
5.621 6.093 5.395
4.998 6.241 4.552
5.256 6.109 4.910
5.369 6.278 5.303
5.603 6.370 5.372
5.840 6.179 5.329
5.342 6.401 4.396
5.230 6.343 4.979
5.570 6.416 4.955
5.646 6.185 5.210
6.162 6.069 5.190
6.275 6.320 5.655
5.499 6.044 4.596
5.522 6.122 4.608
5.943 6.167 4.871
5.861 6.111 5.104
6.097 6.218 4.921
5.746 6.261 4.270
5.961 6.367 4.558
6.140 6.079 4.743
6.209 6.395 5.043
6.242 6.183 4.145
6.057 6.133 4.561
0.495 0.632 6.187
0.187 0.219 5.975
0.391 0.396 6.137
0.339 0.006 5.946
0.467 0.060 6.168
-0.074 6.129 5.697
0.118 6.090 6.089
0.574 5.958 6.274
0.074 5.593 5.914
0.220 5.712 5.995
0.289 5.746 6.086
-0.095 5.313 5.601
0.365 5.471 5.886
0.333 5.476 6.119
0.498 0.569 5.645
0.429 0.477 5.944
-0.057 0.309 5.119
0.113 0.393 5.635
0.441 0.412 5.682
0.528 0.464 6.112
-0.070 -0.049 5.268
0.088 -0.118 5.663
0.315 -0.064 5.712
0.702 -0.127 6.042
0.082 5.846 4.860
0.214 6.172 5.422
0.470 5.993 5.500
0.481 6.106 6.006
0.822 6.167 6.138
-0.095 5.753 4.879
0.151 5.740 5.447
0.323 5.828 5.641
0.439 5.618 6.017
0.689 5.755 5.970
0.213 5.493 5.173
0.133 5.397 5.175
0.226 5.492 5.437
0.565 5.462 5.819
0.762 5.535 6.145
0.131 5.108 5.003
0.104 4.937 5.211
0.521 4.979 5.476
0.187 4.572 5.087
0.171 4.702 5.197
-0.147 4.605 4.900
0.190 3.841 4.741
0.518 1.020 5.562
0.337 0.566 5.322
0.703 0.493 5.580
0.704 0.588 5.674
0.761 0.483 6.094
1.077 0.626 6.183
0.253 0.344 4.985
0.407 0.456 5.350
0.723 0.258 5.608
1.028 0.518 6.126
0.878 0.323 6.390
0.176 -0.071 4.830
0.555 -0.133 4.969
0.632 0.152 5.542
0.668 0.198 5.834
0.967 -0.165 5.787
0.860 0.120 6.164
0.035 6.152 4.554
0.447 5.852 4.970
0.514 5.871 5.214
0.495 6.005 5.399
0.940 6.156 5.575
0.843 6.166 5.791
1.032 6.089 6.320
0.009 5.720 4.310
-0.019 5.752 4.676
0.366 5.662 4.781
0.320 5.851 5.037
0.656 5.726 5.294
0.962 5.865 5.846
0.917 5.780 6.042
0.933 5.495 6.048
0.136 5.468 4.715
0.453 5.424 4.823
0.480 5.489 5.277
0.767 5.319 5.389
0.968 5.544 5.868
0.750 5.534 6.129
0.122 5.051 4.496
0.470 5.133 4.770
0.655 5.047 5.151
0.473 5.089 5.432
0.776 5.223 5.512
0.191 4.932 4.593
0.472 4.633 4.994
0.314 4.822 5.275
0.162 4.319 4.521
0.163 4.292 4.779
0.195 4.243 4.431
-0.008 3.930 4.406
0.207 3.692 3.844
0.082 3.678 4.148
0.382 3.908 4.554
0.170 3.466 3.881
0.330 3.609 4.297
0.283 3.409 4.406
0.747 1.159 4.844
0.806 0.983 5.188
1.045 0.931 5.397
1.191 1.008 5.619
0.787 0.572 5.057
0.983 0.654 5.347
1.074 0.532 5.609
1.158 0.669 5.753
1.246 0.750 6.122
0.422 0.331 4.666
0.754 0.523 5.134
1.002 0.428 5.326
0.832 0.274 5.440
1.004 0.458 5.615
1.468 0.364 5.927
0.234 0.121 4.570
0.672 -0.086 4.882
0.522 -0.008 5.012
0.810 -0.114 5.184
0.833 0.208 5.493
0.976 0.066 5.796
1.385 -0.100 6.247
0.612 6.091 4.444
0.769 6.162 4.757
0.709 5.849 4.916
0.837 6.016 5.367
1.237 6.104 5.610
1.218 5.967 5.735
1.378 6.098 6.074
0.292 5.514 4.309
0.404 5.704 4.371
0.410 5.506 4.845
0.790 5.585 4.975
0.801 5.839 5.271
0.991 5.615 5.343
1.149 5.657 5.734
1.358 5.604 6.189
-0.079 5.433 3.842
0.459 5.293 4.307
0.286 5.337 4.557
0.652 5.448 4.814
0.765 5.280 4.829
0.831 5.188 5.378
0.958 5.475 5.342
0.062 5.048 3.905
0.441 4.895 4.209
0.350 4.946 4.428
0.439 5.118 4.736
0.844 5.075 5.024
0.721 5.145 5.316
0.045 4.848 3.959
0.072 4.634 4.129
0.268 4.916 4.320
0.546 4.606 4.892
0.557 4.714 4.812
0.010 4.401 3.999
0.286 4.409 4.000
0.252 4.373 4.352
0.532 4.301 4.588
0.747 4.597 4.998
-0.076 4.056 3.802
0.175 4.293 4.068
0.522 4.164 4.487
0.514 4.011 4.761
0.100 3.722 3.958
0.267 3.908 4.298
0.397 3.992 4.368
0.222 3.808 3.229
0.188 3.666 3.372
0.296 3.813 3.630
0.609 3.992 3.995
0.774 3.705 4.317
0.882 3.799 4.375
0.216 3.475 3.412
0.212 3.413 3.715
0.449 3.349 3.871
0.532 3.428 4.097
0.213 3.276 3.606
0.446 3.257 3.729
0.566 3.005 3.890
0.636 3.199 4.388
0.380 2.882 4.106
1.200 1.703 5.184
0.782 1.187 4.941
1.223 1.143 5.204
1.162 1.452 5.538
1.416 1.347 5.673
1.002 0.814 4.891
1.249 0.960 5.250
1.244 0.978 5.184
1.502 0.945 5.681
0.780 0.628 4.367
0.812 0.546 4.939
0.980 0.606 5.140
1.202 0.458 5.183
1.460 0.607 5.661
1.428 0.749 6.062
0.813 0.367 4.629
0.960 0.217 4.638
0.961 0.417 4.929
1.370 0.503 5.410
1.412 0.443 5.804
1.415 0.511 5.947
0.936 0.092 4.438
0.803 0.132 4.929
1.085 0.089 4.989
1.086 -0.114 5.526
1.381 -0.114 5.554
1.606 -0.051 5.912
0.564 6.050 4.273
0.989 6.019 4.688
1.028 6.129 5.013
1.168 6.049 5.118
1.521 5.899 5.434
1.598 5.955 5.682
0.362 5.761 4.034
0.605 5.748 4.241
0.906 5.703 4.489
0.884 5.660 4.964
1.124 5.853 5.133
1.373 5.807 5.491
1.530 5.810 5.532
0.285 5.371 3.848
0.600 5.213 4.166
0.651 5.517 4.350
0.793 5.372 4.582
0.907 5.534 4.867
1.311 5.538 5.260
1.443 5.249 5.340
0.356 4.961 3.351
0.480 5.065 3.902
0.685 5.115 3.952
0.681 4.966 4.143
0.787 4.885 4.528
0.950 4.995 4.720
1.262 4.918 5.107
0.192 4.913 3.542
0.558 4.672 3.631
0.508 4.887 4.146
0.545 4.572 4.391
0.688 4.767 4.458
1.113 4.614 4.683
0.137 4.540 3.179
0.157 4.499 3.468
0.558 4.502 3.918
0.468 4.601 4.053
0.824 4.428 4.272
0.876 4.612 4.456
-0.061 4.146 3.110
0.212 4.281 3.504
0.377 4.006 3.617
0.639 4.083 4.188
0.669 4.304 4.320
0.957 3.950 4.577
-0.128 3.667 3.335
0.029 3.672 3.479
0.341 3.835 3.715
0.641 3.703 3.998
0.724 3.696 4.445
0.651 3.793 4.473
0.403 3.946 2.890
0.586 3.923 3.198
0.496 3.783 3.651
0.918 3.947 3.771
1.054 3.711 4.148
1.269 3.883 4.247
0.310 3.499 2.910
0.567 3.674 3.389
0.790 3.476 3.707
0.922 3.676 3.702
0.821 3.386 4.140
1.160 3.486 4.218
0.633 3.036 3.222
0.560 3.140 3.527
0.608 3.097 3.785
1.101 3.163 3.956
1.032 3.355 4.575
0.630 2.919 3.424
0.438 2.888 3.623
0.807 2.946 3.847
0.907 2.762 4.211
1.248 2.884 4.365
0.746 2.703 3.689
0.802 2.451 4.277
0.919 2.576 4.506
0.917 2.181 3.972
1.177 2.100 4.202
1.180 2.116 4.585
1.220 1.771 4.295
1.278 1.833 4.671
1.453 2.053 4.769
1.163 1.586 4.570
1.135 1.775 4.765
1.472 1.420 4.798
1.603 1.537 5.158
1.535 1.511 5.673
1.114 1.184 4.537
1.182 1.126 4.522
1.380 1.283 4.917
1.699 1.324 5.361
1.860 1.205 5.525
1.146 1.003 4.556
1.097 0.877 4.670
1.537 1.093 4.778
1.457 0.816 5.207
1.493 1.036 5.438
1.743 0.769 5.942
0.945 0.677 4.390
1.330 0.613 4.773
1.355 0.710 4.746
1.405 0.633 5.048
1.769 0.649 5.593
1.767 0.754 5.584
0.967 0.235 4.306
1.307 0.473 4.560
1.176 0.309 4.960
1.446 0.266 5.087
1.774 0.244 5.329
1.886 0.422 5.802
1.140 -0.007 4.487
1.336 -0.007 4.472
1.525 0.141 4.846
1.519 -0.002 5.123
1.792 0.149 5.433
1.308 6.121 4.329
1.440 5.919 4.621
1.270 5.915 5.107
1.510 6.055 5.296
1.953 6.039 5.532
1.189 5.683 4.583
1.412 5.626 4.601
1.361 5.858 5.121
0.902 5.232 4.228
1.214 5.268 4.360
1.230 5.302 4.767
0.765 5.047 3.889
1.012 5.184 4.166
1.269 4.956 4.357
0.455 4.798 3.176
0.516 4.643 3.542
0.846 4.597 3.956
0.801 4.699 3.958
1.100 4.757 4.546
0.523 4.461 3.225
0.766 4.578 3.429
0.645 4.619 4.026
0.849 4.392 4.309
0.974 4.484 4.473
0.429 4.103 3.130
0.602 4.215 3.201
0.659 4.285 3.481
0.808 4.028 3.885
0.832 4.079 4.263
0.964 4.160 4.205
0.389 3.824 3.078
0.366 3.944 3.193
0.520 3.767 3.596
0.861 3.846 3.904
1.071 3.807 4.111
1.227 3.695 4.453
0.648 3.982 3.009
0.583 3.620 3.195
0.957 3.892 3.351
1.222 3.801 3.851
1.178 3.929 4.026
1.258 3.650 4.199
0.748 3.537 2.933
0.680 3.499 2.963
0.990 3.512 3.270
0.916 3.612 3.553
1.098 3.513 4.116
1.330 3.433 4.133
0.713 3.247 2.708
0.646 3.168 3.304
0.983 3.186 3.531
1.226 3.090 3.808
1.122 3.125 3.999
1.446 3.319 4.194
0.799 2.897 3.058
0.905 2.884 3.345
1.170 2.944 3.605
1.084 3.017 3.932
1.232 2.769 4.137
1.362 2.916 4.554
0.601 2.605 3.161
1.050 2.607 3.297
1.026 2.529 3.628
1.152 2.442 3.977
1.321 2.511 4.221
1.641 2.380 4.440
1.685 2.657 4.959
0.996 2.275 3.329
1.108 2.374 3.601
1.112 2.332 3.917
1.535 2.285 4.066
1.451 2.367 4.408
1.830 2.025 4.840
1.672 2.135 5.117
1.135 1.951 3.841
1.011 1.748 3.824
1.306 1.734 4.245
1.316 1.816 4.537
1.589 1.721 4.742
1.907 2.004 5.036
1.807 1.736 5.164
1.080 1.607 3.980
1.220 1.477 4.077
1.316 1.710 4.591
1.497 1.554 4.753
1.871 1.555 4.913
1.996 1.592 5.500
1.499 1.414 4.381
1.377 1.282 4.633
1.495 1.282 4.619
1.914 1.173 4.862
2.089 1.213 5.364
1.974 1.138 5.510
1.276 1.153 4.372
1.488 0.991 4.546
1.764 0.954 4.793
1.690 1.085 5.039
1.868 1.073 5.343
1.984 1.075 5.745
1.239 0.681 4.095
1.467 0.711 4.615
1.648 0.725 4.589
1.748 0.560 4.998
2.038 0.776 5.406
2.046 0.479 5.619
1.349 0.164 4.670
1.519 0.501 4.942
1.748 0.247 5.130
2.134 0.397 5.306
1.559 -0.019 4.648
1.647 0.125 4.639
1.934 0.025 5.215
2.062 0.175 5.408
1.592 5.879 4.782
1.143 4.822 3.870
0.681 4.402 3.220
0.878 4.242 3.598
1.141 4.366 3.591
1.178 4.354 4.021
0.603 4.081 3.060
0.863 4.189 3.239
1.075 4.147 3.540
1.116 4.073 3.826
0.485 3.683 2.882
0.823 3.897 3.018
0.844 3.974 3.541
0.987 3.642 3.604
1.346 3.610 4.120
1.324 3.855 4.376
0.674 3.965 2.655
0.848 3.622 2.989
1.199 3.669 3.237
1.495 3.752 3.671
1.514 3.657 3.735
0.703 3.525 2.562
0.846 3.352 2.917
1.131 3.652 3.145
1.325 3.624 3.654
1.510 3.569 3.735
1.488 3.355 4.044
0.617 3.320 2.513
0.958 2.991 2.728
1.169 3.107 2.961
1.188 3.042 3.414
1.271 3.160 3.650
1.409 3.136 3.797
1.719 3.076 4.235
1.883 3.226 4.486
0.665 2.763 2.667
1.081 2.769 2.817
1.328 2.667 3.182
1.258 2.838 3.546
1.359 2.752 3.951
1.557 2.853 4.257
1.932 2.903 4.470
0.733 2.670 2.837
0.926 2.397 3.053
1.198 2.356 3.182
1.249 2.713 3.703
1.330 2.563 3.710
1.632 2.686 4.195
1.949 2.643 4.444
1.758 2.414 4.528
1.229 2.272 3.153
1.474 2.180 3.344
1.629 2.156 3.962
1.640 2.034 4.084
1.668 2.349 4.201
1.987 2.128 4.440
2.134 2.382 5.083
1.127 2.053 3.703
1.326 1.802 3.872
1.507 1.875 4.157
1.656 1.881 4.521
1.977 1.958 4.503
2.161 1.926 4.939
2.267 2.022 5.043
2.452 1.961 5.417
1.261 1.621 3.766
1.424 1.394 4.003
1.955 1.424 4.282
1.969 1.589 4.626
2.116 1.665 5.010
2.087 1.445 5.327
2.578 1.446 5.592
1.444 1.123 3.758
1.469 1.328 4.084
1.665 1.337 4.443
1.840 1.291 4.520
1.888 1.151 4.795
2.347 1.450 5.257
2.447 1.321 5.381
2.618 1.305 5.682
1.633 1.025 4.134
1.728 1.092 4.330
2.051 0.808 4.455
2.058 0.970 4.857
2.229 1.086 5.019
2.298 0.986 5.308
1.891 0.536 4.446
1.869 0.808 4.801
1.902 0.601 4.733
2.252 0.656 5.017
2.263 0.690 5.271
1.732 0.203 4.420
1.758 0.228 4.661
1.957 0.208 4.948
2.246 0.159 5.234
1.205 4.130 3.120
1.204 4.053 3.363
1.168 4.247 3.614
1.677 4.266 3.888
0.825 3.711 2.581
1.172 3.796 3.172
1.242 3.612 3.328
1.315 3.616 3.586
1.647 3.882 3.988
1.131 3.899 2.701
1.355 3.968 2.781
1.492 3.645 3.123
1.651 3.816 3.510
1.854 3.968 3.835
1.096 3.613 2.333
1.273 3.643 2.683
1.443 3.299 2.818
1.263 3.503 3.258
1.596 3.638 3.334
1.681 3.486 3.692
0.939 3.143 2.420
1.300 3.350 2.509
1.326 3.243 2.868
1.277 3.083 3.148
1.424 3.016 3.555
1.892 3.288 3.714
1.807 3.002 3.990
0.813 2.806 2.324
0.976 2.820 2.454
1.284 2.738 3.021
1.350 3.029 3.237
1.732 2.799 3.306
1.899 2.985 3.801
2.017 2.822 3.767
2.240 2.741 4.341
0.836 2.582 2.377
1.216 2.459 2.529
1.176 2.487 3.021
1.605 2.417 2.946
1.558 2.439 3.497
1.566 2.432 3.754
1.945 2.477 3.924
2.173 2.575 4.195
2.160 2.605 4.288
2.451 2.537 4.701
1.281 2.051 2.907
1.513 2.113 3.205
1.700 2.365 3.227
1.640 2.152 3.499
1.917 2.351 3.938
1.911 2.037 4.191
2.044 2.225 4.523
2.401 2.145 4.591
2.697 2.063 5.192
1.407 1.720 3.163
1.489 1.748 3.237
1.586 1.924 3.732
2.047 2.058 3.894
2.218 1.821 4.058
2.127 2.008 4.460
2.458 2.022 4.694
2.692 1.825 5.056
2.487 1.789 5.108
2.677 1.912 5.697
1.727 1.769 3.684
2.007 1.521 3.798
2.133 1.402 4.138
2.230 1.591 4.625
2.220 1.634 4.550
2.407 1.444 5.041
2.629 1.494 5.263
2.807 1.697 5.486
1.794 1.383 3.920
2.064 1.241 4.109
2.328 1.445 4.567
2.416 1.402 4.682
2.574 1.208 4.834
2.554 1.337 5.266
2.655 1.425 5.553
2.148 0.893 4.253
2.351 0.885 4.647
2.422 1.082 4.607
2.504 1.013 4.855
2.778 0.998 5.145
2.829 0.972 5.680
1.970 0.725 4.173
2.351 0.544 4.464
2.387 0.714 4.554
2.520 0.584 5.163
2.745 0.803 5.249
2.245 0.273 4.751
1.434 4.189 3.145
1.245 3.677 2.677
1.151 3.615 2.810
1.556 3.722 3.241
1.430 3.937 3.220
1.940 3.615 3.837
1.354 3.733 2.581
1.620 3.823 2.572
1.721 3.614 2.890
1.197 3.332 1.840
1.213 3.555 1.976
1.481 3.332 2.465
1.383 3.395 2.846
1.732 3.460 2.796
1.801 3.586 3.376
1.888 3.535 3.419
1.067 3.261 1.919
1.185 3.183 2.042
1.260 3.225 2.393
1.360 3.015 2.648
1.587 3.204 2.957
1.728 3.308 3.242
2.099 3.237 3.456
2.166 3.008 3.859
1.004 2.762 1.437
0.963 2.936 1.731
1.301 2.787 2.006
1.243 2.724 2.309
1.693 2.777 2.798
1.600 2.930 3.119
1.881 2.712 3.390
1.861 2.886 3.672
2.073 2.849 3.912
2.504 2.943 3.874
0.955 2.713 1.832
1.067 2.646 2.114
1.289 2.629 2.312
1.501 2.356 2.514
1.883 2.345 3.049
1.834 2.535 3.114
2.167 2.477 3.622
2.016 2.562 3.669
2.318 2.424 3.888
2.348 2.534 4.168
1.261 2.142 2.222
1.677 2.347 2.642
1.741 2.115 3.048
1.805 2.048 3.129
1.898 2.259 3.311
2.178 2.342 3.842
2.286 2.081 3.862
2.569 2.332 4.399
2.715 2.077 4.398
2.794 2.168 4.881
2.960 2.331 5.188
1.903 1.827 3.176
1.967 1.730 3.341
2.086 1.750 3.772
2.406 2.061 4.201
2.649 1.777 4.420
2.781 1.977 4.531
2.943 1.892 4.858
2.812 1.922 5.246
3.030 2.048 5.305
0.229 1.888 0.289
1.813 1.527 3.351
2.154 1.562 3.677
2.497 1.433 4.005
2.296 1.417 4.431
2.553 1.616 4.434
2.887 1.476 4.769
3.056 1.614 5.308
2.954 1.631 5.306
0.187 1.626 0.321
0.202 1.434 0.534
2.186 1.092 3.593
2.311 1.397 4.108
2.465 1.211 4.227
2.545 1.169 4.547
2.720 1.313 4.752
2.855 1.229 5.112
3.203 1.182 5.475
0.221 1.352 0.248
2.114 0.838 4.109
2.336 1.055 4.370
2.562 1.054 4.440
2.849 1.111 4.884
2.758 0.744 5.070
3.260 0.865 5.415
-0.003 0.865 0.095
2.761 0.515 4.444
2.740 0.558 4.672
3.011 0.535 5.080
1.462 3.797 2.363
1.380 3.978 2.775
1.695 3.929 2.881
3.124 1.913 5.492
3.098 1.387 5.628
3.507 1.400 6.047
3.258 1.136 5.517
3.356 1.101 5.564
1.411 3.972 2.123
1.698 3.757 2.110
1.777 3.761 2.692
1.355 3.386 1.460
1.335 3.612 1.823
1.450 3.598 1.908
1.487 3.537 2.234
1.653 3.655 2.466
1.886 3.432 2.822
2.302 3.337 3.137
1.273 3.257 1.334
1.388 3.230 1.798
1.520 3.052 1.980
1.613 3.213 2.070
1.689 3.041 2.563
1.987 3.221 2.678
2.000 3.215 2.965
0.931 2.919 1.109
1.236 2.914 1.591
1.495 2.706 1.845
1.451 2.692 1.844
1.592 3.024 2.150
1.909 3.027 2.691
1.839 2.686 2.610
2.204 3.025 3.198
2.299 2.729 3.151
0.798 2.470 0.720
1.159 2.446 1.246
1.247 2.517 1.582
1.284 2.408 1.766
1.685 2.360 1.866
1.600 2.433 2.415
1.692 2.659 2.518
1.842 2.532 2.657
1.989 2.514 2.977
2.369 2.663 3.406
2.473 2.534 3.699
0.802 2.385 0.785
0.876 2.214 0.966
0.840 2.043 1.268
1.371 2.159 1.349
1.250 2.123 1.618
1.444 2.094 1.940
1.825 2.087 2.061
1.757 2.198 2.430
1.940 2.072 2.812
2.114 2.033 3.071
2.358 2.394 3.356
2.246 2.178 3.617
2.425 2.226 3.850
2.620 2.167 4.298
2.941 2.166 4.357
2.919 2.014 4.519
3.390 2.084 5.010
3.498 2.251 5.305
0.370 2.154 0.096
0.736 2.206 0.314
0.690 2.373 0.655
0.902 2.317 0.963
0.769 2.032 0.989
2.294 1.702 3.796
2.427 1.710 4.012
2.804 2.055 3.999
2.760 2.040 4.261
2.953 2.009 4.710
3.123 1.762 5.156
3.330 1.781 5.126
0.371 1.752 0.044
0.700 1.824 0.273
0.753 1.945 0.762
0.843 1.854 0.722
2.597 1.618 3.997
2.559 1.521 4.107
2.962 1.423 4.545
3.061 1.691 4.870
3.069 1.367 4.792
3.490 1.523 5.418
0.465 1.713 0.204
0.428 1.436 0.394
0.792 1.744 0.745
2.668 1.165 4.252
2.889 1.439 4.556
2.924 1.338 4.801
3.112 1.394 5.034
3.253 1.086 5.339
0.555 1.297 0.096
0.571 1.369 0.490
2.707 1.061 4.010
3.071 1.069 4.356
3.017 0.994 4.803
3.194 1.018 5.016
3.357 0.874 5.349
0.291 1.004 0.084
0.459 1.073 0.259
2.904 0.448 4.525
3.115 0.660 5.115
3.196 0.578 5.128
1.526 3.823 1.848
1.794 3.757 2.110
1.921 3.935 2.550
1.570 3.818 1.531
1.826 3.851 1.798
1.965 3.952 2.053
1.143 3.411 1.133
1.538 3.467 1.423
1.797 3.580 1.582
1.973 3.465 1.771
2.097 3.507 1.903
2.084 3.466 2.477
2.195 3.581 2.454
1.144 3.212 0.911
1.269 3.119 1.026
1.489 3.214 1.386
1.575 3.200 1.396
1.746 3.000 1.853
2.018 3.245 1.971
2.267 3.310 2.477
2.198 3.299 2.530
1.042 3.178 0.632
1.323 2.882 0.906
1.196 2.845 1.001
1.414 2.834 1.265
1.775 2.874 1.628
1.704 2.921 1.725
1.878 2.885 2.007
1.909 3.008 2.353
2.214 2.861 2.824
2.458 2.931 3.067
0.805 2.983 0.537
1.110 2.901 0.600
1.206 2.565 0.672
1.384 2.412 0.966
1.369 2.408 1.105
1.548 2.422 1.362
1.661 2.718 1.681
1.851 2.408 1.953
2.265 2.592 2.279
2.391 2.492 2.518
0.966 2.701 -0.004
0.908 2.485 0.610
0.973 2.670 0.918
1.007 2.214 0.833
1.375 2.387 0.856
1.549 2.238 1.432
1.777 2.217 1.672
1.857 2.375 1.947
2.010 2.172 2.264
3.427 2.299 4.744
3.486 2.238 5.155
0.972 2.280 -0.003
0.963 2.416 0.580
1.301 2.085 0.671
1.019 1.982 0.877
1.349 1.837 0.908
1.458 2.031 1.419
3.018 2.059 4.169
3.146 1.798 4.691
3.658 1.696 4.650
3.662 1.712 5.267
0.631 2.072 0.120
0.797 1.925 0.498
1.204 1.759 0.743
1.267 1.587 0.663
1.463 1.493 1.007
3.152 1.405 3.862
3.036 1.395 4.187
3.309 1.440 4.459
3.306 1.398 4.992
3.760 1.528 5.019
0.740 1.730 0.291
0.994 1.529 0.601
1.114 1.420 0.612
1.261 1.464 0.917
3.065 1.273 4.101
3.486 1.296 4.358
3.377 1.057 4.627
3.806 1.084 4.941
0.779 1.323 0.108
0.824 1.246 0.342
1.203 1.294 0.824
3.112 0.831 4.270
3.394 0.788 4.542
3.560 0.854 4.734
3.595 0.939 5.064
0.660 1.101 0.210
1.011 1.097 0.529
3.289 0.681 4.878
3.647 0.541 5.136
1.482 3.599 1.581
1.747 3.687 1.633
2.028 3.738 2.089
1.601 3.935 0.837
1.574 3.939 1.258
1.953 3.620 1.531
1.940 3.741 1.508
2.107 3.749 1.919
1.614 3.503 0.661
1.609 3.656 0.936
1.738 3.604 1.401
1.987 3.456 1.665
2.194 3.372 1.901
2.455 3.625 2.045
1.363 3.093 0.425
1.510 3.073 0.922
1.662 3.021 1.055
1.730 3.297 1.296
2.053 3.219 1.659
2.378 3.294 1.753
2.413 3.277 2.386
1.479 3.315 0.761
1.343 2.953 0.751
1.682 2.841 0.833
1.772 2.873 1.053
1.993 2.999 1.307
2.090 2.789 1.523
2.172 2.873 2.034
2.229 2.851 2.199
1.340 2.691 0.395
1.307 2.860 0.746
1.345 2.391 0.634
1.636 2.339 1.019
1.886 2.397 1.102
1.785 2.545 1.452
1.886 2.644 1.753
2.273 2.354 1.820
2.363 2.453 2.344
0.969 2.479 0.168
1.290 2.559 0.395
1.281 2.371 0.630
1.456 2.284 0.443
1.382 2.130 0.815
1.895 2.376 1.206
1.930 2.361 1.272
2.157 2.267 1.848
4.103 2.067 5.031
0.929 2.186 -0.129
1.313 2.330 0.290
1.272 2.178 0.633
1.231 1.992 0.593
1.644 1.771 0.886
1.720 1.937 1.124
1.738 1.849 1.472
3.614 2.020 4.549
3.805 1.892 4.509
4.032 1.785 5.062
1.275 2.009 0.219
1.182 1.979 0.241
1.259 1.784 0.456
1.315 1.408 0.619
1.540 1.751 0.788
3.438 1.535 4.464
3.828 1.692 4.729
3.752 1.452 4.845
0.961 1.515 0.049
1.099 1.520 0.488
1.341 1.492 0.573
1.381 1.401 0.439
3.415 1.115 4.401
3.889 1.191 4.615
3.906 1.331 5.098
0.941 1.313 0.136
1.374 1.305 0.447
1.576 1.328 0.702
3.594 0.982 4.429
3.904 1.059 4.646
3.852 0.956 5.015
1.136 1.093 -0.057
1.146 0.883 0.203
3.567 0.425 4.800
3.926 0.778 4.993
0.951 0.761 -0.101
1.190 0.604 0.462
1.824 4.149 1.436
1.772 3.842 0.915
1.670 3.762 1.175
1.882 3.672 1.473
2.015 3.845 1.854
2.039 3.954 2.071
1.800 3.925 0.711
2.209 3.602 0.827
2.070 3.922 1.395
2.431 3.618 1.689
2.476 3.592 1.720
1.521 3.625 0.438
1.833 3.603 0.595
1.956 3.500 1.097
2.041 3.300 1.054
2.266 3.381 1.671
2.519 3.500 1.815
1.514 3.647 0.337
1.507 3.259 0.499
1.859 3.179 0.697
1.906 3.024 1.107
2.291 3.193 1.404
2.301 3.112 1.684
2.438 3.008 1.845
2.475 3.062 1.873
1.572 2.979 0.284
1.711 3.099 0.345
1.515 2.834 0.309
1.966 2.979 0.544
1.821 3.012 0.991
2.025 2.669 1.249
2.495 2.891 1.402
2.538 2.937 1.833
1.525 2.914 0.287
1.500 2.665 0.308
1.601 2.520 0.530
1.956 2.603 0.801
2.027 2.558 0.967
2.061 2.652 1.137
2.303 2.709 1.564
2.381 2.607 1.965
1.572 2.503 0.239
1.756 2.426 0.521
1.827 2.102 0.225
1.992 2.146 0.786
1.921 2.354 1.084
2.141 2.300 1.053
1.421 2.367 0.105
1.682 2.391 0.432
1.798 1.781 0.515
1.647 2.087 0.573
1.962 1.977 1.012
4.019 1.891 4.418
4.060 2.010 4.755
1.707 1.781 0.190
1.587 1.956 0.514
1.690 1.407 0.465
1.877 1.493 0.572
3.918 1.425 4.621
4.249 1.561 4.714
1.342 1.532 0.040
1.615 1.576 0.538
1.477 1.192 0.344
1.862 1.100 0.566
4.048 1.164 4.197
4.164 1.406 4.508
4.300 1.367 4.693
1.636 1.103 0.124
1.503 1.082 0.533
1.786 0.938 0.381
3.829 1.007 4.325
4.112 0.900 4.634
1.534 0.881 0.294
1.844 1.050 0.304
4.024 0.492 4.550
4.264 0.472 4.895
1.359 0.497 0.021
4.269 0.165 4.725
1.393 0.395 -0.010
1.954 4.084 0.619
2.118 4.201 1.082
2.339 4.114 1.162
2.181 3.917 1.517
1.721 3.777 0.744
1.834 3.643 0.890
2.171 3.675 1.204
2.349 3.903 1.494
2.376 3.718 1.629
1.804 3.672 0.211
2.021 3.952 0.571
2.382 3.873 0.766
2.373 3.860 1.069
2.431 3.757 1.481
2.875 3.888 1.463
1.904 3.699 0.389
1.944 3.277 0.163
2.198 3.553 0.566
2.224 3.330 0.731
2.432 3.379 0.972
2.533 3.378 1.333
2.751 3.572 1.499
1.887 3.385 0.294
2.049 3.072 0.224
2.249 3.339 0.613
2.228 3.004 0.750
2.380 3.008 1.041
2.560 3.304 1.311
2.764 3.243 1.471
1.903 2.988 0.377
1.922 2.935 0.406
2.136 2.689 0.529
2.333 2.992 0.674
2.405 2.920 1.114
2.620 2.653 1.443
1.823 2.859 0.422
2.040 2.409 0.277
2.071 2.455 0.494
2.307 2.410 0.725
2.393 2.656 1.025
2.495 2.540 1.279
1.811 2.339 0.398
2.020 2.317 0.145
1.983 2.146 0.512
2.305 2.342 0.867
2.432 2.032 1.265
2.050 2.275 0.383
2.120 1.712 0.193
2.098 1.982 0.481
2.210 1.902 0.899
4.302 1.860 4.770
1.764 2.010 0.384
2.085 1.754 0.439
2.254 1.405 0.533
4.496 1.624 4.622
1.910 1.451 0.299
1.903 1.331 0.083
4.319 1.179 4.230
4.569 1.041 4.803
1.755 1.329 0.183
1.795 1.089 0.146
4.345 0.970 4.221
4.484 0.736 4.659
2.078 0.799 0.251
2.056 0.658 0.319
4.288 0.460 4.452
4.454 0.694 4.456
2.068 0.568 0.308
4.519 0.186 4.465
2.195 4.864 0.614
2.310 4.318 0.631
2.400 4.441 0.902
2.393 4.491 1.008
2.721 4.287 1.513
1.951 3.938 0.634
2.182 4.162 0.716
2.526 4.145 0.968
2.493 3.983 1.379
1.922 3.609 0.322
2.107 3.702 0.654
2.143 3.745 0.632
2.422 3.687 1.204
2.733 3.816 1.302
2.619 3.727 1.543
2.066 3.700 0.359
2.110 3.624 0.004
2.316 3.635 0.383
2.536 3.867 0.725
2.650 3.893 1.042
2.726 3.781 1.367
3.102 3.886 1.307
2.084 3.795 0.232
2.237 3.611 0.256
2.367 3.290 0.237
2.699 3.425 0.463
2.700 3.378 1.000
2.764 3.639 1.357
2.891 3.436 1.600
2.197 3.349 -0.037
2.177 3.193 -0.024
2.254 3.053 0.232
2.609 3.279 0.558
2.694 3.117 1.037
2.764 2.999 1.233
2.202 3.261 0.224
2.162 2.877 -0.029
2.214 2.884 0.204
2.553 2.835 0.488
2.667 2.772 0.919
2.906 2.703 1.289
2.411 2.907 0.002
2.365 2.709 0.268
2.498 2.507 0.410
2.579 2.515 0.573
2.329 2.705 0.194
2.191 2.076 0.027
2.195 2.105 0.223
2.187 2.039 -0.067
2.138 2.003 0.219
2.047 2.025 0.075
2.208 1.407 -0.005
4.593 1.645 4.601
2.395 1.424 0.242
2.215 1.171 0.044
4.712 1.291 4.515
2.103 1.414 0.072
2.024 0.820 -0.019
4.449 0.916 4.215
4.713 1.065 4.588
2.303 0.951 0.234
2.185 0.562 0.000
4.431 0.478 4.197
4.598 0.440 4.305
2.175 0.531 -0.018
2.200 0.215 0.012
4.513 0.160 4.262
4.721 0.276 4.569
2.376 0.411 0.065
2.017 -0.065 0.050
2.145 -0.013 -0.066
2.431 6.148 0.091
4.653 5.797 4.413
2.106 6.048 0.058
2.238 5.619 -0.044
2.194 5.598 0.011
2.308 5.501 0.288
2.458 5.476 0.191
2.087 5.294 0.022
2.424 4.857 0.012
2.268 5.142 0.457
2.581 5.059 0.663
2.288 4.905 0.271
2.424 4.846 0.073
2.408 4.556 0.224
2.717 4.686 0.822
2.658 4.713 0.945
3.062 4.680 1.014
2.080 4.641 0.244
2.281 4.323 0.215
2.416 4.265 0.194
2.674 4.249 0.457
2.746 4.402 0.889
2.967 4.413 1.100
2.123 4.448 0.028
2.274 4.202 0.230
2.355 4.098 0.293
2.433 4.248 0.747
2.783 4.179 1.026
3.044 4.226 1.083
3.216 4.061 1.468
2.170 3.949 -0.069
2.214 3.727 -0.033
2.518 3.649 0.352
2.733 3.780 0.559
2.763 3.925 1.093
2.793 3.745 1.130
2.963 3.789 1.607
2.087 3.953 0.161
2.697 3.686 0.148
2.893 3.802 0.537
2.954 3.810 0.875
3.161 3.909 1.085
3.420 3.579 1.127
2.587 3.303 0.254
2.814 3.640 0.506
3.087 3.402 0.678
2.993 3.290 0.894
2.812 3.211 0.107
2.992 3.019 0.512
3.090 3.170 0.887
3.215 3.204 1.179
2.775 2.714 0.621
4.875 1.135 4.178
4.826 0.768 4.251
4.645 0.634 4.122
4.869 0.527 4.478
4.691 0.458 3.846
4.872 0.435 4.336
2.663 6.029 0.047
5.067 6.113 4.163
2.836 5.678 0.382
2.741 5.550 0.576
4.941 5.564 4.456
2.740 5.207 0.043
2.687 5.219 0.648
2.990 5.446 0.925
2.604 5.147 0.236
2.795 4.948 0.448
3.170 5.195 0.760
3.342 4.987 1.043
2.776 4.827 0.229
2.823 4.582 0.489
3.102 4.533 0.923
3.072 4.668 0.952
2.504 4.492 0.394
2.919 4.505 0.375
3.144 4.267 0.874
3.042 4.372 0.940
3.226 4.516 1.300
2.704 3.906 0.320
2.944 4.271 0.339
2.973 3.910 0.900
3.019 4.117 1.005
3.443 4.012 1.218
2.496 3.753 0.154
2.958 3.810 0.582
2.888 3.579 0.571
3.238 3.923 1.018
3.140 3.569 1.167
2.944 3.693 0.212
2.969 3.608 0.380
3.390 3.872 0.582
3.567 3.943 0.812
3.732 3.850 0.974
2.817 3.547 0.216
3.174 3.565 0.469
3.274 3.477 0.662
3.487 3.432 1.036
5.120 0.895 3.998
5.083 0.591 3.957
5.325 0.760 4.313
4.944 0.265 3.988
5.126 0.156 4.235
2.937 6.136 0.186
5.124 5.820 3.832
5.467 5.969 4.313
2.967 5.459 0.015
3.050 5.482 0.199
5.299 5.754 4.064
5.416 5.671 4.015
2.915 5.177 0.169
3.086 5.204 0.454
3.192 5.272 0.639
2.954 5.127 -0.031
3.073 5.203 0.389
3.421 4.882 0.612
3.334 4.973 0.765
3.743 4.975 1.105
3.043 4.695 0.095
3.239 4.727 0.168
3.331 4.635 0.532
3.366 4.621 0.892
3.582 4.821 1.038
2.948 4.480 0.115
3.311 4.455 0.385
3.435 4.535 0.581
3.478 4.576 0.693
3.532 4.361 1.234
3.873 4.374 1.546
3.080 4.224 -0.015
3.191 4.201 0.190
3.101 4.142 0.450
3.389 4.261 1.006
3.560 4.099 1.251
3.084 3.652 -0.047
3.041 3.750 0.176
3.308 3.901 0.690
3.603 3.621 0.813
3.676 3.887 1.005
3.314 3.593 0.201
3.460 3.678 0.577
3.558 3.771 0.729
3.810 3.915 0.902
3.712 3.498 0.512
5.323 0.596 3.534
5.375 0.646 3.928
5.350 0.236 3.532
5.188 0.170 3.857
5.420 0.373 4.013
5.302 6.010 3.578
5.355 5.983 3.723
5.565 5.823 4.065
3.532 5.533 -0.009
3.640 5.621 0.401
5.329 5.730 3.462
5.435 5.415 3.814
5.574 5.592 4.139
3.361 5.354 0.243
3.482 5.483 0.327
3.667 5.365 0.653
5.420 5.197 4.031
3.531 5.140 0.337
3.685 5.183 0.325
3.808 5.070 0.880
3.734 5.128 1.163
4.081 4.899 1.112
3.414 4.826 0.156
3.603 4.709 0.484
3.616 4.583 0.769
3.991 4.692 1.070
3.898 4.706 1.117
3.286 4.469 0.286
3.363 4.205 0.334
3.878 4.230 0.538
3.787 4.544 1.024
3.932 4.210 1.301
3.512 3.968 0.125
3.493 4.065 0.555
3.758 4.030 0.588
3.759 3.926 0.846
4.132 4.190 1.300
3.325 3.678 0.261
3.499 3.687 0.395
3.521 3.739 0.675
3.989 3.895 0.913
3.822 3.815 0.431
4.081 3.828 0.414
4.100 3.653 0.981
5.596 0.742 3.659
5.884 0.750 3.780
5.318 0.327 2.969
5.652 0.367 3.182
5.593 0.132 3.683
5.797 0.364 4.007
5.233 6.045 2.649
5.377 6.047 3.121
5.582 5.798 3.405
5.748 6.007 3.632
5.895 5.774 4.014
3.770 5.463 0.078
5.357 5.692 2.920
5.498 5.573 3.364
5.747 5.721 3.371
5.948 5.668 3.802
3.574 5.377 -0.104
3.868 5.383 0.183
4.072 5.333 0.628
4.237 5.158 0.852
5.849 5.395 3.415
5.921 5.104 3.801
3.587 4.870 -0.042
3.851 5.117 0.376
3.821 5.075 0.692
4.193 5.014 0.721
4.163 4.851 1.085
4.569 5.078 1.324
3.490 4.717 -0.093
3.747 4.665 0.313
4.026 4.573 0.689
4.190 4.641 0.924
4.178 4.574 0.932
4.496 4.632 1.566
4.507 4.749 1.542
3.814 4.514 0.174
3.701 4.413 0.316
4.147 4.351 0.687
4.109 4.525 0.744
4.361 4.475 1.090
4.277 4.327 1.566
3.633 4.155 0.166
3.650 4.201 0.247
4.066 3.878 0.446
4.266 4.030 0.818
4.158 3.990 1.199
4.279 4.186 1.444
3.833 3.639 0.418
3.838 3.879 0.468
4.097 3.699 0.740
4.281 3.787 0.481
4.461 3.866 0.756
4.537 3.865 0.818
5.709 0.634 3.013
5.790 0.508 3.308
6.072 0.752 3.813
5.471 0.243 2.729
5.751 0.077 2.985
5.591 0.447 2.989
5.870 0.399 3.229
6.035 0.092 3.650
5.272 5.983 2.436
5.433 6.104 2.407
5.591 5.797 3.047
5.823 5.989 3.045
6.044 5.827 3.532
5.987 6.009 3.588
5.200 5.773 2.125
5.483 5.440 2.395
5.500 5.523 2.774
5.546 5.776 2.837
5.881 5.736 2.957
5.890 5.660 3.488
5.968 5.587 3.582
3.981 5.444 0.167
4.173 5.413 0.446
4.406 5.230 0.859
4.410 5.405 1.032
4.909 5.243 1.188
5.011 5.120 1.580
5.135 5.346 1.936
5.086 5.157 2.164
5.455 5.222 2.145
5.412 5.281 2.768
5.678 5.156 2.713
5.759 5.122 3.118
6.151 5.182 3.405
6.041 5.442 3.669
4.048 5.176 0.096
4.376 4.875 0.391
4.408 5.172 0.567
4.546 4.970 1.143
4.607 5.054 1.181
4.824 4.811 1.605
5.135 5.136 1.770
5.274 5.032 2.159
4.094 4.675 0.179
4.385 4.631 0.227
4.422 4.859 0.523
4.426 4.622 0.886
4.794 4.620 1.239
5.057 4.616 1.530
5.189 4.793 1.691
4.156 4.278 0.056
4.330 4.384 0.542
4.259 4.429 0.497
4.484 4.276 0.940
4.824 4.174 1.293
4.978 4.199 1.598
4.034 3.901 0.086
4.139 4.060 0.466
4.570 4.078 0.821
4.496 3.983 0.766
4.828 3.865 1.136
4.733 4.072 1.602
4.191 3.559 0.510
4.577 3.744 0.808
4.449 3.840 0.889
4.625 3.911 0.377
4.639 3.696 0.892
4.839 3.540 1.197
5.760 0.494 2.818
5.963 0.723 3.115
6.298 0.593 3.071
5.428 0.417 2.196
5.659 0.313 2.306
5.829 0.211 2.813
6.023 0.409 2.792
6.279 0.201 3.258
5.292 6.044 1.744
5.478 5.873 1.835
5.587 5.901 2.122
5.912 5.821 2.442
5.983 5.927 2.527
6.304 6.066 2.978
6.268 5.786 3.418
5.143 5.667 1.396
5.467 5.574 1.718
5.661 5.735 1.984
5.677 5.602 2.168
5.660 5.588 2.403
6.046 5.636 2.808
6.268 5.551 2.993
6.371 5.617 3.391
4.821 5.172 0.411
4.756 5.289 0.791
5.121 5.257 0.922
5.256 5.293 1.373
5.218 5.134 1.472
5.650 5.309 2.048
5.566 5.307 2.044
5.764 5.131 2.367
6.084 5.281 2.792
6.002 5.237 2.954
6.095 5.180 3.180
4.355 4.910 0.323
4.786 5.121 0.401
4.880 4.996 0.925
5.037 5.013 1.184
5.339 4.894 1.419
5.227 5.078 1.621
5.606 5.047 2.072
5.668 5.006 2.297
5.782 4.834 2.325
4.399 4.678 0.362
4.656 4.827 0.439
4.826 4.700 0.610
4.929 4.550 1.201
5.208 4.750 1.272
5.173 4.476 1.748
5.439 4.590 1.760
5.796 4.538 2.343
4.437 4.312 0.191
4.650 4.357 0.663
4.997 4.386 0.974
4.863 4.534 1.242
5.008 4.299 1.426
5.339 4.479 1.493
5.558 4.372 1.959
4.644 4.081 0.353
4.730 4.184 0.682
4.757 3.890 0.931
4.896 4.074 1.095
5.056 4.121 1.482
5.247 3.959 1.653
4.651 3.736 0.350
4.976 3.545 0.712
4.914 3.819 1.209
4.901 3.843 0.187
5.128 3.717 0.575
5.117 3.809 0.723
5.519 3.844 1.245
5.681 3.836 1.539
5.135 3.542 1.036
6.023 1.007 2.434
5.786 0.485 1.948
6.138 0.442 2.257
6.003 0.376 2.638
5.998 0.384 1.932
5.824 0.406 2.235
6.196 0.176 2.392
5.755 5.739 1.369
5.947 5.904 1.685
6.101 5.862 1.891
6.108 5.948 2.432
6.282 5.729 2.401
5.280 5.650 0.826
5.592 5.492 1.336
5.498 5.732 1.483
5.712 5.446 1.867
5.981 5.561 1.953
6.017 5.620 2.271
6.419 5.626 2.605
5.117 5.292 0.516
5.330 5.395 0.888
5.269 5.335 1.092
5.462 5.379 1.443
5.688 5.228 1.666
6.025 5.333 2.158
6.202 5.330 2.444
6.235 5.355 2.575
4.804 5.131 0.063
4.969 5.067 0.263
5.067 5.033 0.721
5.148 5.101 0.922
5.292 4.915 1.196
5.649 5.014 1.544
5.747 4.912 1.874
5.841 5.004 2.164
6.126 5.135 2.292
6.409 4.809 2.677
4.724 4.525 -0.084
4.925 4.498 0.430
5.057 4.803 0.663
5.095 4.662 0.863
5.471 4.719 0.990
5.417 4.784 1.508
5.851 4.827 1.647
5.935 4.500 1.934
4.769 4.472 0.106
5.067 4.236 0.282
5.098 4.207 0.821
5.404 4.455 0.810
5.586 4.496 1.289
5.536 4.415 1.595
5.682 4.201 1.787
4.729 4.072 0.016
4.805 4.084 0.183
5.274 3.970 0.760
5.433 4.007 0.903
5.343 3.986 1.243
5.655 4.063 1.387
4.914 3.832 0.357
5.071 3.885 0.671
5.091 3.681 0.990
5.392 3.839 1.107
5.401 3.803 1.614
5.201 3.804 0.057
5.361 3.711 0.624
5.427 3.575 0.816
5.641 3.579 1.146
5.801 3.625 1.308
5.335 3.360 0.482
5.386 3.537 0.702
5.691 3.322 0.849
5.660 3.427 1.229
6.031 0.870 1.818
6.104 1.018 1.975
6.266 0.702 1.977
6.126 0.578 2.130
5.783 0.181 1.573
6.013 0.387 1.684
6.280 0.106 2.269
5.698 5.787 1.278
6.008 5.800 1.629
6.143 5.944 1.730
5.829 5.737 0.973
5.868 5.672 1.353
6.091 5.515 1.631
6.342 5.774 1.906
5.645 5.300 0.842
5.827 5.353 0.840
5.968 5.462 1.227
6.144 5.203 1.395
6.125 5.203 1.885
5.192 4.839 0.375
5.298 4.928 0.369
5.504 4.881 0.606
5.541 5.043 0.924
6.006 5.062 1.251
5.828 5.107 1.482
6.365 4.855 1.663
5.167 4.520 0.230
5.296 4.817 0.299
5.717 4.628 0.621
5.805 4.790 1.112
6.024 4.633 1.221
5.836 4.496 1.757
6.337 4.566 1.973
5.372 4.168 0.364
5.371 4.503 0.669
5.610 4.441 0.580
5.539 4.490 1.020
6.017 4.184 1.247
6.168 4.504 1.431
6.068 4.462 1.999
5.314 3.974 0.257
5.441 3.920 0.494
5.427 4.060 0.693
5.633 4.007 0.952
5.836 3.956 1.314
5.938 4.020 1.591
5.181 3.839 0.113
5.386 3.770 0.552
5.521 3.634 0.820
5.614 3.606 1.200
5.999 3.798 1.189
5.296 3.771 0.163
5.800 3.588 0.230
5.760 3.904 0.677
5.848 3.687 0.919
6.254 3.866 1.054
6.138 3.532 1.471
5.633 3.477 0.192
5.911 3.455 0.700
5.833 3.416 0.738
6.218 3.284 1.252
5.648 2.911 0.239
5.962 2.957 0.584
6.065 2.937 0.948
6.200 3.073 1.219
5.760 2.755 0.953
6.244 0.589 1.409
6.094 0.420 1.435
5.970 5.842 0.995
5.964 5.756 0.902
6.160 5.650 1.093
5.807 5.286 0.603
6.110 5.189 0.724
6.104 5.355 1.167
5.628 5.087 0.375
5.978 4.793 0.498
6.042 4.975 1.024
5.992 4.835 1.192
5.812 4.728 0.220
5.873 4.508 0.722
6.163 4.590 0.872
6.125 4.630 1.150
5.619 4.367 0.111
5.707 4.423 0.269
5.907 4.518 0.421
5.812 4.152 1.058
6.224 4.276 1.010
6.152 4.251 1.428
5.678 3.858 -0.137
5.796 4.176 0.336
5.953 3.947 0.616
5.774 4.106 0.710
5.955 3.947 1.043
6.362 4.068 1.267
5.438 3.810 0.055
5.595 3.889 0.360
5.731 3.905 0.439
5.863 3.562 0.854
6.041 3.726 1.089
6.401 3.659 1.255
5.921 3.621 0.222
5.915 3.804 0.596
6.136 3.544 0.554
5.957 3.287 0.249
6.074 3.571 0.413
6.213 3.230 0.530
6.053 2.923 0.179
6.107 3.081 0.371
6.050 2.977 0.585
5.865 2.657 0.317
6.195 2.737 0.341
6.102 2.797 0.556
6.108 2.560 0.619
6.197 5.027 0.894
5.947 4.667 0.088
6.277 4.564 0.364
6.196 4.512 0.554
5.967 4.167 0.356
6.146 4.415 0.341
6.307 4.235 0.686
5.980 4.013 0.001
5.929 3.839 0.365
6.105 4.065 0.634
5.828 3.530 0.035
6.196 3.627 0.513
6.401 3.670 0.839
6.020 3.897 0.031
6.049 3.402 -0.182
6.024 3.204 0.092
6.128 2.688 -0.016
6.278 2.265 -0.065
6.048 4.427 0.069
6.101 4.171 0.119
6.307 3.651 -0.178
1.461 3.847 1.906
1.753 3.769 2.272
1.771 3.686 2.590
1.390 3.505 1.550
1.192 3.474 1.786
1.641 3.411 1.919
1.601 3.528 2.380
1.985 3.557 2.496
1.944 3.462 2.959
1.982 3.605 2.985
1.245 3.016 1.384
1.359 3.219 1.854
1.639 3.183 1.813
1.663 3.339 2.263
1.667 3.156 2.516
2.061 3.320 2.911
2.267 3.137 2.980
0.854 2.721 1.004
1.325 2.753 1.413
1.404 2.881 1.694
1.416 2.732 2.066
1.827 2.715 2.153
1.802 2.806 2.611
1.908 2.692 2.652
2.276 2.807 3.019
2.447 2.765 3.512
0.988 2.459 0.998
0.990 2.712 1.130
1.308 2.631 1.508
1.267 2.394 1.810
1.411 2.436 2.027
1.801 2.640 2.337
1.707 2.620 2.649
2.110 2.516 2.742
2.021 2.424 2.952
2.303 2.604 3.516
2.532 2.576 3.702
0.959 2.450 0.837
1.025 2.259 0.999
0.950 2.377 1.082
1.283 2.280 1.379
1.504 2.307 1.546
1.562 2.119 1.931
1.550 2.336 2.094
1.909 2.101 2.496
2.098 2.120 2.924
2.218 2.165 3.212
2.339 2.155 3.147
2.393 2.101 3.447
2.617 2.284 3.871
2.869 2.152 4.048
2.827 2.327 4.478
3.060 2.325 4.796
3.070 2.040 4.933
3.406 2.210 5.089
0.355 2.131 0.026
0.392 2.170 0.406
0.807 2.212 0.427
0.974 2.244 0.888
0.800 1.838 0.701
2.290 1.940 3.495
2.587 1.746 3.939
2.872 1.783 3.975
2.929 1.868 4.323
3.037 1.949 4.664
3.062 2.032 5.049
3.260 1.874 5.171
0.537 2.068 -0.099
0.592 1.926 0.345
0.619 1.870 0.692
0.935 1.934 0.728
2.472 1.736 3.774
2.622 1.578 4.254
2.879 1.645 4.403
2.933 1.507 4.538
3.220 1.708 5.039
3.219 1.378 5.383
0.395 1.524 -0.113
0.455 1.541 0.434
0.663 1.655 0.467
2.884 1.317 4.039
2.959 1.388 4.297
3.111 1.348 4.562
3.263 1.429 4.808
3.331 1.358 5.066
0.549 1.256 0.198
0.370 1.407 0.169
2.745 0.826 4.026
2.932 1.117 4.289
2.900 0.815 4.656
3.250 1.016 5.066
3.297 0.868 5.128
0.546 1.127 0.162
0.622 0.845 0.436
2.868 0.464 4.845
3.230 0.695 4.970
3.206 0.435 5.120
1.440 3.957 2.019
1.519 3.624 2.440
1.702 3.719 2.334
3.561 2.340 5.600
3.710 2.215 5.714
3.996 2.052 5.962
3.379 1.699 5.353
3.740 1.702 5.618
3.842 1.938 5.977
3.395 1.634 5.545
3.663 1.381 5.612
3.971 1.445 6.084
3.475 1.161 5.332
3.495 1.051 5.895
3.540 1.069 5.488
3.681 0.730 5.746
4.244 3.017 6.186
4.141 3.096 6.153
4.316 2.970 6.079
4.144 2.874 5.891
4.338 2.847 6.210
4.377 2.308 6.055
4.141 2.448 5.449
4.022 2.394 5.757
4.115 2.453 6.227
4.369 2.172 6.059
3.943 1.993 5.268
3.865 2.240 5.717
4.052 2.030 6.054
4.182 2.158 6.122
4.133 1.755 6.146
3.624 1.727 5.315
4.017 1.992 5.757
4.291 1.977 5.940
4.307 1.670 6.263
4.342 1.507 6.352
3.624 1.609 5.225
3.768 1.598 5.784
4.093 1.442 5.901
4.370 1.509 6.142
4.206 1.154 6.337
3.659 1.195 5.335
3.837 1.386 5.747
4.006 1.184 5.808
4.337 1.133 6.267
3.686 0.928 5.267
3.862 0.783 5.613
4.023 0.806 5.860
3.806 0.487 5.236
4.663 3.025 5.981
4.382 3.180 6.022
4.405 2.896 6.024
4.485 2.941 5.766
4.678 2.601 6.164
4.665 2.655 5.851
4.156 2.364 5.185
4.177 2.576 5.554
4.392 2.515 5.835
4.506 2.393 6.155
4.480 2.347 6.144
3.970 2.127 5.250
4.073 2.073 5.455
4.227 1.975 5.728
4.672 2.014 6.058
4.370 2.031 5.871
4.070 1.724 5.019
4.266 2.007 5.565
4.268 2.016 5.907
4.556 1.823 5.852
4.694 1.562 6.028
3.982 1.495 5.370
4.350 1.593 5.477
4.432 1.400 5.602
4.541 1.354 6.013
4.504 1.061 6.080
4.192 1.144 5.375
4.084 1.364 5.422
4.520 1.209 5.614
4.458 1.072 6.054
3.890 0.987 5.345
4.144 1.041 5.386
4.377 0.888 5.765
4.105 0.490 5.142
4.244 0.449 5.465
4.295 0.405 5.645
4.137 0.419 5.232
4.920 3.649 6.211
4.882 3.235 5.946
5.009 3.310 6.242
4.827 3.329 5.892
5.004 2.991 5.786
4.906 3.090 6.013
4.598 3.046 5.602
5.013 2.945 5.710
4.697 2.763 6.033
4.933 2.751 6.264
4.543 2.657 5.446
4.869 2.925 5.756
4.854 2.655 5.780
5.154 2.513 6.295
4.394 2.660 5.254
4.619 2.355 5.559
4.853 2.373 5.714
4.793 2.330 5.844
5.043 2.319 6.155
4.189 2.288 4.868
4.563 2.330 5.338
4.729 2.334 5.558
4.828 2.246 5.706
4.947 1.756 5.968
4.803 1.971 6.092
4.181 2.014 4.879
4.690 1.739 5.222
4.731 1.811 5.748
4.991 1.828 5.985
4.666 1.379 5.919
4.992 1.520 6.135
4.361 1.360 5.091
4.307 1.505 5.309
4.734 1.609 5.582
4.984 1.481 5.969
4.634 1.168 5.736
4.810 1.357 6.270
4.459 1.231 5.127
4.524 1.325 5.153
4.788 1.242 5.516
4.985 1.339 5.692
4.872 0.778 5.826
4.314 0.998 5.188
4.299 0.946 5.251
4.563 0.840 5.711
4.989 1.009 5.877
4.503 0.663 5.168
4.614 0.523 5.202
4.601 0.559 5.723
4.365 0.297 4.916
4.337 0.462 5.231
4.618 0.254 5.446
4.928 4.183 6.274
4.909 3.764 6.121
5.118 3.777 5.873
5.183 3.691 6.124
5.379 3.883 6.310
5.069 3.563 5.579
5.222 3.462 5.840
5.201 3.388 6.158
5.439 3.351 6.246
4.943 3.502 5.845
4.985 3.271 5.765
5.409 3.148 6.154
5.477 2.941 6.117
5.198 3.105 5.635
5.254 2.877 5.842
5.320 2.915 5.869
5.369 2.662 6.087
4.928 2.847 5.450
4.963 2.923 5.842
5.113 2.363 5.783
5.361 2.476 6.021
5.324 2.355 6.215
4.657 2.298 5.025
4.923 2.542 5.276
5.165 2.629 5.698
5.264 2.333 5.531
5.225 1.977 6.134
5.292 2.093 6.096
4.590 2.012 4.925
4.918 2.178 5.338
4.816 2.346 5.590
4.923 1.978 5.604
4.949 1.748 5.846
5.203 1.982 5.988
5.399 2.012 6.204
4.667 1.894 4.967
4.817 1.842 5.011
5.069 1.994 5.556
5.249 1.807 5.708
5.071 1.591 5.770
5.136 1.418 5.888
4.585 1.478 4.762
4.740 1.671 5.255
4.763 1.473 5.347
5.052 1.696 5.535
5.164 1.031 5.743
4.558 1.365 4.827
4.656 1.116 5.152
4.803 1.102 5.530
4.915 1.145 5.867
5.109 1.010 5.558
4.726 0.763 4.950
4.784 0.969 5.342
4.793 0.957 5.586
4.980 0.815 5.840
5.001 0.694 5.783
4.562 0.781 4.904
4.765 0.417 5.138
4.754 0.436 5.486
5.046 0.672 5.682
4.675 0.272 4.758
4.610 0.140 5.245
5.027 0.457 5.319
4.972 5.927 5.085
5.535 4.687 6.271
5.314 4.510 6.097
5.425 4.417 6.285
5.105 3.880 5.809
5.398 3.849 6.138
5.086 3.818 5.745
5.140 3.673 6.029
5.507 3.761 6.228
5.110 3.704 5.757
5.508 3.581 5.438
5.501 3.779 5.974
5.516 3.842 6.201
5.397 3.870 5.710
5.550 3.279 5.461
5.527 3.211 5.796
5.522 3.431 6.156
5.224 3.406 5.671
5.553 3.221 5.681
5.640 3.256 5.846
5.692 3.087 5.952
5.220 3.016 5.498
5.439 2.760 5.586
5.613 2.945 5.665
5.564 2.908 6.124
5.217 2.863 5.676
5.410 2.432 5.444
5.426 2.372 5.912
5.722 2.636 6.171
5.544 2.513 5.356
5.491 2.062 5.519
5.376 1.957 5.707
5.207 2.258 5.302
5.380 2.181 5.510
5.489 1.770 5.436
4.969 1.739 5.039
5.175 1.743 5.310
5.452 1.678 5.444
5.263 1.525 5.467
4.806 1.430 4.841
4.918 1.484 5.114
5.206 1.400 5.199
5.165 1.490 5.360
5.507 1.154 5.564
4.946 1.178 4.834
5.021 1.366 4.932
5.111 1.111 5.410
5.209 1.305 5.384
5.210 0.955 5.588
4.700 1.020 4.871
4.953 0.993 4.918
5.121 0.767 5.245
5.181 0.968 5.364
5.172 0.478 5.440
4.840 0.722 4.880
5.061 0.568 5.016
5.113 0.605 5.306
5.503 0.710 5.734
5.267 0.303 5.454
5.042 0.454 4.639
4.892 0.305 5.005
5.140 0.232 5.357
5.466 0.140 5.371
5.502 6.029 5.564
5.014 5.857 4.604
4.972 5.840 4.995
5.338 6.026 5.207
5.406 5.856 5.689
5.588 5.512 5.383
5.193 5.423 5.073
5.217 5.453 5.276
5.446 5.680 5.736
5.526 5.127 5.556
5.736 5.233 5.691
5.096 5.249 5.380
5.588 5.129 5.537
5.314 5.046 5.624
5.385 4.840 5.689
5.762 4.906 6.132
5.433 4.916 5.393
5.436 4.573 5.427
5.492 4.514 5.750
5.887 4.698 6.186
5.270 4.721 5.631
5.364 4.513 5.428
5.620 4.490 5.819
5.586 4.391 6.086
5.272 4.164 5.691
5.399 4.151 5.440
5.594 3.884 5.700
5.637 4.162 6.268
5.405 3.917 5.656
5.531 3.591 5.473
5.463 3.860 5.967
5.833 3.748 5.976
5.223 3.598 5.720
5.716 3.672 5.541
5.689 3.677 5.710
6.037 3.623 6.031
6.235 3.804 6.388
5.754 3.816 5.277
6.007 3.499 5.526
6.108 3.498 5.882
6.319 3.406 6.207
5.996 3.030 5.722
6.054 3.059 6.058
6.239 3.179 6.020
6.044 2.717 5.958
5.273 1.648 4.916
5.130 1.249 4.696
5.467 1.136 4.987
5.482 1.038 5.031
5.104 0.789 4.494
5.220 0.819 4.657
5.324 0.881 5.166
5.483 0.638 5.545
4.977 0.453 4.754
5.342 0.633 4.893
5.306 0.448 5.017
5.602 0.677 5.347
5.634 0.203 5.212
5.163 0.119 4.514
5.365 0.218 4.999
5.542 0.448 4.939
5.720 0.227 5.506
5.668 5.770 5.283
5.802 6.046 5.522
5.297 5.949 4.759
5.423 5.971 4.935
5.571 5.970 5.149
5.870 5.864 5.371
5.636 5.586 5.552
5.838 5.545 5.844
5.931 5.613 5.927
5.041 5.598 4.550
5.444 5.489 4.737
5.350 5.751 5.181
5.522 5.590 5.559
5.658 5.264 5.553
5.873 5.386 5.831
6.026 5.279 6.114
6.027 5.331 6.028
5.029 5.384 4.549
5.422 5.313 5.025
5.640 5.286 5.221
5.744 5.123 5.236
5.726 4.950 5.230
5.747 4.967 5.663
6.131 4.788 5.926
6.263 4.903 6.068
5.356 4.914 4.751
5.521 4.941 5.076
5.843 4.912 5.558
5.716 4.817 5.268
5.848 4.488 5.767
5.965 4.688 5.866
5.996 4.552 6.154
5.427 4.571 5.214
5.711 4.723 5.386
5.802 4.378 5.331
5.756 4.359 5.842
6.014 4.331 5.921
6.166 4.213 6.093
5.526 4.310 5.270
5.576 4.145 5.429
5.907 4.171 5.727
5.946 4.099 5.776
6.284 3.938 6.354
5.698 4.206 5.479
5.801 3.796 5.270
5.967 3.742 5.834
6.086 3.757 6.055
6.292 3.815 6.234
5.507 3.593 5.327
6.232 3.636 5.487
6.192 3.520 5.919
6.142 3.504 5.506
6.103 3.276 5.878
5.500 1.053 4.424
5.716 1.043 4.502
5.597 0.840 5.146
5.394 0.648 4.496
5.664 0.666 4.559
5.543 0.411 5.057
5.914 0.329 5.245
5.228 0.127 4.486
5.431 0.431 4.772
5.793 0.080 4.842
6.040 0.363 5.230
5.980 5.848 5.236
6.277 6.097 5.332
5.536 5.955 4.458
5.685 6.034 4.839
5.684 5.881 5.079
5.905 5.942 5.087
6.052 5.525 5.393
6.057 5.482 5.497
6.225 5.647 5.627
5.451 5.737 4.390
5.594 5.683 4.612
5.815 5.459 4.893
6.134 5.438 5.122
6.028 5.275 5.132
6.146 5.363 5.540
6.129 5.097 5.785
5.636 5.431 4.514
5.756 5.176 4.529
5.634 5.342 4.843
5.912 5.241 5.177
5.851 5.116 5.056
5.929 4.788 5.654
6.319 5.122 5.850
5.635 5.128 4.515
5.644 4.937 4.835
6.115 4.900 5.324
5.855 4.574 5.379
6.159 4.776 5.636
6.238 4.500 5.657
5.874 4.527 4.967
5.834 4.712 5.394
5.789 4.378 5.244
6.067 4.292 5.429
6.451 4.440 5.691
5.767 4.510 4.833
5.790 4.517 5.316
5.895 3.924 5.233
5.936 4.015 5.628
6.095 4.195 5.594
5.916 3.996 5.263
5.902 3.599 5.368
6.334 3.680 5.711
5.673 0.866 4.208
5.805 0.499 4.158
5.678 0.686 4.422
6.058 0.593 4.648
5.598 0.359 4.114
5.737 0.262 4.494
5.855 0.233 4.704
6.134 5.819 4.982
5.682 6.073 4.312
5.968 5.988 4.566
6.167 5.742 4.741
6.296 5.920 5.253
6.296 5.558 5.112
5.634 5.576 4.157
5.957 5.493 4.398
5.957 5.421 4.941
6.276 5.491 4.917
6.288 5.292 5.169
5.807 5.328 4.078
6.067 5.318 4.629
5.934 5.396 4.649
6.337 5.374 5.134
6.116 5.104 5.039
5.638 4.891 4.421
5.826 4.790 4.384
6.190 5.107 4.966
6.229 5.010 5.265
6.177 4.510 5.266
5.985 4.605 4.767
6.332 4.757 5.094
6.313 4.488 4.897
6.119 4.369 4.893
6.147 0.648 4.218
5.954 0.168 3.919
6.106 0.357 4.552
6.311 0.172 4.672
6.025 6.059 4.112
6.287 5.735 4.367
6.132 5.471 4.143
6.332 5.692 4.308
6.114 5.375 4.142
6.069 5.324 4.445
6.050 5.064 4.357
6.041 0.229 4.009
3.508 2.220 5.589
3.844 2.153 5.781
4.020 2.134 5.993
3.368 1.913 5.415
3.628 1.934 5.766
3.979 2.033 6.144
3.548 1.695 5.556
3.698 1.435 5.861
3.888 1.713 6.010
3.660 1.105 5.551
3.797 1.198 5.922
3.544 0.822 5.502
3.835 0.914 5.672
