5.130 6.206 0.429
5.135 5.942 0.590
5.127 5.911 0.880
5.198 6.190 0.813
5.049 3.380 0.355
5.060 3.338 0.545
5.027 3.167 0.847
4.843 3.711 0.167
4.710 3.474 0.369
4.675 3.379 0.576
4.728 3.082 0.780
4.889 3.979 0.030
4.851 3.901 0.381
4.715 3.721 0.536
4.738 3.547 0.807
4.608 3.371 0.880
4.618 3.203 1.201
4.808 4.352 -0.056
4.886 4.252 0.176
4.778 4.022 0.501
4.820 3.899 0.743
4.741 3.780 0.926
4.654 3.568 1.178
4.621 3.475 1.313
4.876 4.713 0.126
4.715 4.546 0.331
4.756 4.387 0.559
4.760 4.176 0.757
4.741 4.021 1.138
4.644 3.829 1.263
4.712 3.556 1.445
4.929 5.023 0.115
4.844 4.848 0.328
4.806 4.648 0.632
4.747 4.577 0.869
4.642 4.401 0.973
4.727 4.218 1.269
4.592 4.041 1.507
4.681 3.748 1.727
4.857 5.091 0.073
4.845 5.282 0.266
4.788 5.039 0.549
4.767 4.968 0.818
4.800 4.679 0.841
4.732 4.579 1.168
4.721 4.365 1.272
4.750 4.279 1.619
4.803 5.452 0.122
4.754 5.124 0.304
4.769 5.450 0.376
4.851 5.254 0.654
4.742 5.029 0.986
4.809 4.982 1.181
4.648 4.738 1.296
4.956 5.698 0.051
4.787 5.649 0.285
4.845 5.489 0.436
4.769 5.707 0.621
4.834 5.490 0.938
4.807 5.325 1.144
4.850 5.965 0.098
4.889 5.900 0.371
4.760 5.640 0.572
4.847 5.772 0.794
4.887 5.670 0.961
4.897 6.224 0.338
4.866 6.016 0.533
4.901 5.787 0.700
4.870 6.131 0.947
4.937 6.260 0.828
4.914 6.063 0.915
4.778 3.593 0.177
4.712 3.403 0.362
4.700 3.237 0.446
4.776 3.130 0.824
4.449 3.600 0.006
4.469 3.507 0.207
4.545 3.380 0.556
4.332 3.086 0.709
4.459 4.032 -0.047
4.515 3.899 0.237
4.459 3.644 0.539
4.480 3.451 0.648
4.323 3.424 0.841
4.524 4.309 0.116
4.506 4.082 0.447
4.544 3.994 0.593
4.378 3.683 0.927
4.386 3.623 1.058
4.519 4.722 0.059
4.611 4.394 0.464
4.539 4.363 0.530
4.428 4.165 0.892
4.353 4.053 1.103
4.384 3.785 1.243
4.681 4.913 0.047
4.497 4.919 0.269
4.451 4.671 0.516
4.489 4.419 0.835
4.430 4.336 0.955
4.408 4.215 1.169
4.352 4.116 1.417
4.628 4.952 0.178
4.558 5.257 0.363
4.518 5.054 0.390
4.488 4.897 0.689
4.580 4.776 0.904
4.378 4.539 1.029
4.445 4.481 1.377
4.637 5.298 0.090
4.615 5.231 0.234
4.495 5.469 0.460
4.473 5.194 0.655
4.564 5.196 0.816
4.487 4.872 1.155
4.518 4.808 1.255
4.563 5.659 0.173
4.582 5.374 0.406
4.506 5.689 0.552
4.430 5.543 0.845
4.564 5.399 0.971
4.644 6.077 0.189
4.608 5.921 0.389
4.622 5.696 0.633
4.484 5.840 0.768
4.491 5.689 0.914
4.633 6.148 0.357
4.491 6.128 0.586
4.505 5.882 0.837
4.474 6.063 0.827
4.585 5.870 1.152
4.490 6.267 0.638
4.561 6.055 0.879
4.455 3.223 0.223
4.433 3.560 0.011
4.442 3.539 0.269
4.484 3.235 0.591
4.477 3.109 0.694
4.228 3.729 -0.043
4.305 3.444 0.264
4.092 3.376 0.452
4.073 3.115 0.660
4.280 3.946 -0.016
4.240 3.968 0.201
4.170 3.807 0.436
4.098 3.565 0.644
4.217 3.322 0.769
4.198 4.180 0.250
4.233 4.171 0.462
4.198 3.883 0.553
4.105 3.789 0.913
4.236 3.631 0.967
4.374 4.674 0.179
4.247 4.519 0.364
4.323 4.333 0.638
4.146 4.226 0.706
4.198 4.054 1.069
4.076 3.779 1.254
4.272 4.977 0.121
4.253 4.789 0.280
4.192 4.654 0.573
4.270 4.568 0.797
4.136 4.389 0.977
4.075 4.293 1.247
4.246 5.080 0.069
4.320 5.331 0.196
4.272 5.172 0.480
4.244 4.929 0.670
4.215 4.734 0.798
4.243 4.582 1.053
4.266 5.340 -0.051
4.234 5.232 0.279
4.322 5.411 0.379
4.352 5.265 0.529
4.157 5.176 0.738
4.143 4.870 0.974
4.381 5.697 0.107
4.297 5.388 0.476
4.386 5.636 0.469
4.349 5.454 0.803
4.188 5.378 1.004
4.284 5.993 0.056
4.318 5.909 0.352
4.345 5.587 0.604
4.211 5.876 0.769
4.327 5.798 1.024
4.308 6.253 0.247
4.374 6.088 0.469
4.328 5.947 0.643
4.307 6.158 0.864
4.269 6.019 1.177
4.227 6.291 0.699
4.295 6.085 0.922
4.211 3.291 0.086
4.126 3.187 0.405
4.283 3.704 0.124
4.308 3.397 0.264
4.113 3.267 0.446
4.118 3.233 0.773
3.998 3.721 -0.007
4.037 3.544 0.339
3.856 3.368 0.513
3.875 3.240 0.661
3.887 3.827 0.270
3.901 3.653 0.350
3.859 3.536 0.563
3.940 3.494 0.747
3.981 4.363 0.077
4.029 4.025 0.421
3.861 3.854 0.554
3.888 3.708 0.730
3.946 4.701 0.131
4.030 4.591 0.292
4.042 4.348 0.499
3.866 4.220 0.650
3.874 3.948 0.859
3.972 4.945 -0.019
3.967 4.847 0.219
4.020 4.677 0.494
3.896 4.617 0.644
3.821 4.464 0.828
4.128 5.025 0.034
4.112 5.352 0.214
3.912 5.128 0.473
3.913 5.005 0.624
3.981 4.777 0.843
4.067 5.243 0.287
4.089 5.452 0.402
3.982 5.406 0.525
3.968 5.097 0.698
4.139 5.671 0.240
4.008 5.560 0.292
4.013 5.684 0.457
4.039 5.489 0.761
4.170 6.118 0.102
4.089 5.770 0.357
4.067 5.610 0.615
3.971 5.811 0.598
3.916 5.743 0.929
4.025 6.187 0.190
3.949 5.989 0.564
4.075 5.859 0.712
4.020 6.133 0.772
3.920 6.172 0.892
3.976 2.840 0.105
3.908 3.193 0.115
3.981 3.137 0.225
4.047 3.711 0.038
3.972 3.424 0.320
3.845 3.318 0.487
3.963 3.148 0.624
3.619 3.449 0.230
3.657 3.326 0.436
3.668 3.242 0.677
3.771 3.934 0.215
3.754 3.798 0.473
3.563 3.607 0.690
3.712 4.254 0.174
3.721 4.179 0.385
3.664 3.881 0.479
3.547 3.852 0.706
3.724 4.571 0.015
3.638 4.485 0.232
3.717 4.302 0.465
3.616 4.183 0.739
3.729 5.034 0.061
3.761 4.854 0.317
3.758 4.714 0.453
3.726 4.524 0.626
3.786 5.015 0.066
3.681 5.224 0.160
3.769 5.104 0.416
3.747 5.196 0.266
3.674 5.574 0.296
3.791 5.550 0.399
3.785 5.721 0.483
3.907 6.099 -0.028
3.721 5.837 0.249
3.647 5.694 0.459
3.807 6.014 0.599
3.868 6.236 0.328
3.684 6.123 0.484
3.669 5.926 0.710
3.707 6.214 0.919
3.829 6.045 0.819
3.650 2.900 0.049
3.606 3.276 0.085
3.566 3.232 0.266
3.763 3.465 0.300
3.586 3.308 0.335
3.634 3.208 0.591
3.316 3.456 0.181
3.327 3.417 0.416
3.276 3.246 0.633
3.454 3.909 0.066
3.492 3.756 0.317
3.457 3.525 0.477
3.513 4.372 0.021
3.338 4.098 0.347
3.444 3.935 0.564
3.434 3.002 0.086
3.313 2.866 0.333
3.315 3.281 -0.056
3.483 3.119 0.238
3.419 2.939 0.494
3.373 3.616 0.200
3.276 3.301 0.369
3.372 3.299 0.676
3.220 3.606 0.246
3.065 3.394 0.388
3.097 3.122 0.682
3.206 4.028 0.120
3.113 3.798 0.395
3.025 3.530 0.588
3.142 2.599 0.014
3.185 3.032 0.125
3.025 2.698 0.206
3.107 3.244 0.145
3.123 3.085 0.399
3.156 3.647 0.067
3.023 3.432 0.296
2.992 3.305 0.612
2.772 3.466 0.214
2.928 3.352 0.400
2.894 3.214 0.498
2.827 3.910 0.091
2.908 3.687 0.293
2.861 2.669 0.062
2.861 2.473 0.228
2.833 3.044 0.037
2.879 2.892 0.218
2.850 2.697 0.394
2.791 3.102 0.198
2.862 3.085 0.483
2.932 3.520 0.056
2.854 3.380 0.262
2.892 3.286 0.510
2.612 3.636 0.038
2.652 3.481 0.262
2.433 3.312 0.498
2.587 2.166 0.042
2.449 2.004 0.258
2.652 2.648 -0.014
2.619 2.465 0.327
2.448 2.214 0.510
2.450 2.889 0.242
2.447 2.701 0.311
2.427 2.471 0.675
2.480 3.163 0.202
2.518 3.030 0.329
2.546 2.775 0.538
2.517 3.487 -0.005
2.626 3.380 0.309
2.450 3.323 0.516
2.293 3.509 0.022
2.250 3.390 0.233
2.257 3.217 0.547
2.137 1.806 0.047
2.174 1.656 0.320
2.091 1.486 0.540
2.324 2.189 -0.025
2.134 2.005 0.261
2.284 1.891 0.466
2.083 1.820 0.667
2.273 2.390 0.137
2.178 2.343 0.510
2.102 2.117 0.589
2.211 2.755 0.122
2.266 2.711 0.404
2.251 2.521 0.555
2.211 2.417 0.745
2.332 3.134 0.191
2.187 3.060 0.360
2.296 2.943 0.626
2.167 2.750 0.674
2.315 3.636 -0.016
2.218 3.411 0.255
2.220 3.319 0.399
2.071 3.370 0.344
1.913 3.208 0.377
2.007 3.063 0.742
1.779 0.518 0.484
1.925 1.093 0.079
1.986 0.978 0.375
1.805 0.756 0.506
2.034 1.382 0.205
1.811 1.239 0.324
1.933 1.154 0.587
1.749 0.964 0.739
2.027 1.751 0.132
1.930 1.762 0.340
1.828 1.609 0.464
1.781 1.399 0.646
1.838 1.207 0.945
1.979 2.243 0.037
1.954 2.162 0.152
1.853 1.893 0.519
1.850 1.643 0.669
1.858 1.668 0.862
1.847 1.478 1.029
2.000 2.514 0.275
1.969 2.358 0.466
1.943 2.078 0.545
1.932 1.919 0.737
1.878 1.709 1.038
1.912 2.861 0.136
1.975 2.746 0.340
1.982 2.428 0.560
1.952 2.404 0.794
1.794 2.242 0.983
2.106 3.266 0.012
2.020 2.964 0.395
1.891 2.783 0.515
1.899 2.803 0.655
1.811 2.495 0.856
2.044 3.531 0.317
2.044 3.323 0.557
2.001 3.036 0.696
1.696 3.259 0.508
1.765 3.081 0.578
1.597 2.868 0.801
1.667 2.721 1.146
1.527 0.358 0.216
1.670 0.651 0.102
1.686 0.492 0.417
1.749 1.073 0.190
1.616 0.890 0.283
1.582 0.807 0.537
1.699 1.563 0.074
1.555 1.361 0.215
1.607 1.158 0.568
1.525 0.928 0.639
1.666 1.798 -0.057
1.643 1.682 0.162
1.719 1.615 0.443
1.682 1.413 0.698
1.481 1.239 0.900
1.656 2.127 0.285
1.564 1.932 0.410
1.706 1.804 0.580
1.586 1.580 0.831
1.512 1.357 1.010
1.669 2.413 0.117
1.753 2.262 0.432
1.627 2.037 0.597
1.571 2.015 0.878
1.511 1.898 1.107
1.537 1.714 1.141
1.809 2.795 0.012
1.779 2.775 0.277
1.630 2.587 0.523
1.698 2.328 0.739
1.516 2.131 0.946
1.587 2.003 1.132
1.691 3.305 0.135
1.799 3.153 0.252
1.607 2.897 0.585
1.703 2.808 0.735
1.680 2.608 0.893
1.506 2.367 1.162
1.807 3.220 0.389
1.692 3.158 0.566
1.733 2.955 0.855
1.595 2.774 0.996
1.428 3.283 0.354
1.413 3.158 0.528
1.407 2.951 0.784
1.292 2.842 1.104
1.302 2.580 1.183
1.318 3.218 0.933
1.371 0.227 -0.048
1.283 0.441 0.129
1.355 0.628 0.240
1.225 0.598 0.475
1.434 1.050 0.073
1.442 0.893 0.367
1.249 0.682 0.543
1.369 1.448 0.063
1.455 1.341 0.187
1.293 1.209 0.400
1.353 0.904 0.791
1.492 1.774 -0.032
1.348 1.802 0.240
1.358 1.535 0.363
1.338 1.405 0.558
1.226 1.198 0.775
1.498 2.139 0.134
1.464 1.870 0.483
1.283 1.732 0.508
1.250 1.673 0.918
1.319 1.441 1.074
1.489 2.377 0.129
1.372 2.385 0.249
1.384 2.113 0.562
1.418 1.981 0.805
1.412 1.774 1.018
1.189 1.661 1.185
1.497 2.855 0.136
1.330 2.702 0.372
1.366 2.612 0.464
1.368 2.305 0.668
1.256 2.146 0.988
1.346 2.059 1.096
1.423 3.305 -0.058
1.533 3.031 0.201
1.379 2.977 0.504
1.436 2.824 0.762
1.344 2.497 0.871
1.298 2.387 1.201
1.352 2.245 1.261
1.543 3.285 0.428
1.333 3.118 0.642
1.450 3.001 0.830
1.265 2.735 1.104
1.346 2.673 1.308
1.225 3.345 0.427
1.072 3.096 0.541
1.091 2.932 0.833
1.033 2.717 0.973
0.973 2.689 1.253
0.991 2.439 1.393
1.166 3.428 0.768
1.018 3.252 1.023
1.020 3.117 1.209
1.057 2.856 1.365
0.957 4.865 3.668
1.009 0.098 -0.065
1.059 0.416 0.163
1.044 0.740 0.177
0.961 0.586 0.258
1.199 1.134 0.112
1.175 0.931 0.261
1.138 0.842 0.440
1.179 1.504 0.026
1.144 1.321 0.323
1.079 1.166 0.377
1.034 0.989 0.688
1.164 1.687 0.266
0.990 1.637 0.353
0.970 1.329 0.728
1.036 1.235 0.866
1.155 2.129 0.188
1.082 1.934 0.399
1.122 1.853 0.664
1.042 1.653 0.829
1.066 1.433 0.994
1.237 2.567 0.169
1.105 2.354 0.305
1.084 2.257 0.623
1.155 1.912 0.677
0.994 1.759 0.915
0.963 1.581 1.241
1.226 2.835 0.050
1.165 2.684 0.302
1.059 2.546 0.475
1.044 2.445 0.623
0.972 2.268 0.861
1.125 2.030 1.179
1.090 1.914 1.389
1.242 3.170 0.297
1.236 2.893 0.367
1.029 2.796 0.692
1.080 2.664 0.908
1.007 2.447 1.140
1.074 2.223 1.230
1.123 3.208 0.364
1.167 3.160 0.551
1.053 2.993 0.818
1.064 2.777 1.066
1.009 2.746 1.194
0.976 2.432 1.536
0.862 3.387 0.313
0.918 3.094 0.594
0.916 2.888 0.848
0.762 2.905 0.982
0.803 2.661 1.108
0.786 2.477 1.433
0.828 3.481 0.426
0.939 3.285 0.647
0.892 3.278 0.991
0.710 3.087 1.160
0.810 2.779 1.385
0.690 2.688 1.549
0.870 3.666 0.987
0.885 3.368 1.118
0.862 3.188 1.326
0.778 3.073 1.538
0.724 4.566 3.326
0.632 4.773 3.367
0.653 4.873 3.577
0.700 0.376 0.225
0.786 0.733 0.196
0.784 0.518 0.396
0.881 1.183 0.058
0.713 0.969 0.230
0.720 0.821 0.463
0.893 1.482 0.088
0.906 1.343 0.203
0.871 1.270 0.494
0.735 0.946 0.658
0.903 1.825 0.123
0.800 1.553 0.364
0.825 1.305 0.633
0.757 1.281 0.903
0.849 2.045 0.142
0.934 1.890 0.337
0.715 1.792 0.462
0.842 1.675 0.664
0.663 1.415 0.993
0.886 2.543 0.061
0.771 2.340 0.260
0.889 2.176 0.576
0.873 1.907 0.734
0.826 1.770 0.882
0.650 1.637 1.079
0.853 2.782 -0.002
0.800 2.695 0.147
0.837 2.539 0.415
0.841 2.481 0.716
0.693 2.292 0.962
0.698 2.079 1.072
0.826 1.952 1.370
0.926 3.120 0.180
0.947 2.858 0.486
0.808 2.788 0.704
0.908 2.683 0.872
0.858 2.445 1.122
0.848 2.367 1.257
0.965 3.321 0.367
0.785 3.186 0.486
0.795 2.938 0.713
0.771 2.759 0.896
0.777 2.660 1.241
0.785 2.397 1.516
0.608 3.311 0.397
0.651 3.080 0.570
0.501 2.912 0.652
0.614 2.796 0.927
0.475 2.586 1.236
0.377 2.504 1.331
0.724 3.566 0.482
0.691 3.340 0.603
0.529 3.307 0.998
0.615 3.084 1.098
0.398 2.888 1.277
0.413 2.813 1.475
0.666 3.523 0.945
0.648 3.534 0.979
0.510 3.269 1.319
0.446 3.034 1.556
0.407 3.015 1.706
0.489 3.810 0.962
0.512 3.592 1.139
0.479 3.586 1.446
0.390 3.377 1.672
0.433 3.104 1.908
0.602 3.608 1.626
0.546 3.587 1.752
0.385 3.458 2.147
0.540 3.845 2.008
0.495 3.618 2.238
0.381 3.681 2.576
0.308 3.805 2.841
0.303 4.083 2.998
0.377 4.331 3.176
0.377 4.557 3.171
0.344 4.673 3.407
0.442 4.940 3.663
0.534 0.406 0.169
0.457 0.828 -0.003
0.600 0.676 0.337
0.432 0.995 0.338
0.429 0.816 0.545
0.637 1.392 0.118
0.610 1.101 0.335
0.563 1.085 0.653
0.533 1.751 0.224
0.602 1.523 0.343
0.499 1.384 0.480
0.557 1.285 0.718
0.583 2.165 -0.009
0.605 1.986 0.368
0.600 1.738 0.495
0.415 1.615 0.750
0.403 1.524 0.936
0.629 2.478 0.058
0.501 2.305 0.337
0.556 2.134 0.529
0.520 2.080 0.611
0.488 1.790 0.966
0.423 1.770 1.210
0.640 2.789 0.272
0.573 2.496 0.392
0.649 2.366 0.555
0.449 2.284 0.754
0.491 2.089 1.093
0.720 3.028 0.190
0.555 2.884 0.330
0.624 2.741 0.676
0.614 2.708 0.845
0.503 2.429 0.924
0.503 2.305 1.316
0.591 3.245 0.268
0.650 3.255 0.612
0.643 2.921 0.708
0.469 2.744 0.869
0.441 2.700 1.143
0.433 2.500 1.435
0.268 3.325 0.370
0.420 3.098 0.566
0.278 2.937 0.664
0.195 2.940 1.027
0.196 2.640 1.095
0.142 2.506 1.270
0.368 3.496 0.413
0.224 3.335 0.760
0.237 3.153 0.938
0.178 2.985 1.076
0.173 2.953 1.270
0.253 2.725 1.443
0.297 3.778 0.513
0.247 3.577 0.886
0.205 3.480 1.100
0.176 3.195 1.350
0.237 3.085 1.398
0.283 2.897 1.742
0.101 2.786 1.824
0.221 3.918 1.092
0.254 3.726 1.200
0.301 3.538 1.358
0.167 3.431 1.714
0.158 3.143 1.853
0.134 3.080 2.121
0.226 4.088 1.061
0.242 3.930 1.335
0.195 3.755 1.677
0.207 3.498 1.834
0.178 3.359 1.938
0.195 3.281 2.310
0.258 4.185 1.621
0.183 3.885 1.777
0.185 3.784 2.070
0.108 3.632 2.142
0.181 3.398 2.328
0.166 4.174 2.020
0.281 3.948 2.042
0.171 3.837 2.411
0.134 3.664 2.662
0.176 4.180 2.315
0.079 4.111 2.473
0.213 3.952 2.711
0.095 4.310 2.592
0.183 4.005 2.915
0.136 4.389 2.788
0.192 4.309 3.065
0.086 4.667 2.981
0.058 4.455 3.199
0.084 4.752 3.470
0.049 4.944 3.484
0.149 0.358 0.010
0.415 2.276 0.149
0.349 2.229 0.406
0.224 1.954 0.636
0.272 2.672 0.235
0.216 2.662 0.424
0.222 2.489 0.633
0.222 2.245 0.893
0.311 2.162 1.018
0.301 3.133 0.061
0.303 2.990 0.351
0.324 2.779 0.463
0.292 2.728 0.789
0.284 2.488 1.051
0.231 2.236 1.114
0.342 3.318 0.368
0.278 3.141 0.524
0.201 2.923 0.758
0.274 2.752 0.883
0.156 2.708 1.197
0.116 2.435 1.457
6.326 2.763 1.415
6.177 2.484 1.501
6.178 2.385 1.774
6.262 2.239 2.007
6.200 2.960 1.459
6.255 2.838 1.711
6.206 2.643 1.947
6.111 2.386 2.229
6.254 3.433 1.573
6.263 3.150 1.705
6.250 3.030 1.904
6.123 2.916 2.182
6.226 2.776 2.429
6.033 2.481 2.647
6.314 3.637 1.683
6.187 3.403 1.880
6.213 3.253 2.071
6.085 3.122 2.314
6.074 2.888 2.531
6.197 2.730 2.815
6.326 3.701 1.794
6.217 3.692 2.049
6.155 3.421 2.166
6.246 3.246 2.512
6.093 3.155 2.734
6.188 2.887 2.821
6.300 3.943 1.997
6.287 3.746 2.246
6.187 3.598 2.347
6.203 3.569 2.701
6.200 3.274 2.852
6.089 3.244 2.961
6.229 3.943 2.612
6.183 3.723 2.867
6.123 3.560 2.965
6.178 3.481 3.129
6.160 3.942 2.975
6.118 3.745 3.246
5.992 3.695 3.373
6.185 4.161 3.208
6.129 4.016 3.365
6.087 3.832 3.531
6.070 4.247 3.562
6.062 4.088 3.750
6.031 4.464 3.691
6.135 4.273 3.874
6.105 4.533 4.085
5.996 4.678 4.306
6.367 2.341 0.961
6.336 2.083 1.314
6.297 2.505 1.153
6.278 2.281 1.340
6.220 2.275 1.731
6.262 2.654 1.368
6.250 2.492 1.600
6.239 2.473 1.739
6.195 2.293 1.933
6.077 3.069 0.888
5.928 2.870 1.108
6.033 2.813 1.354
5.992 2.575 1.560
6.031 2.387 1.750
6.078 3.362 0.850
5.965 3.328 1.030
6.020 3.125 1.315
5.974 2.877 1.528
6.052 2.798 1.651
5.952 2.583 1.893
5.832 2.462 2.149
6.153 3.780 1.102
5.984 3.456 1.261
6.087 3.290 1.437
5.916 3.229 1.692
5.975 2.951 1.973
5.967 2.881 2.125
5.874 2.635 2.374
5.818 2.503 2.538
6.020 3.806 1.196
6.068 3.690 1.367
5.916 3.575 1.650
6.059 3.457 1.774
5.967 3.229 2.131
5.987 3.150 2.207
5.797 2.902 2.548
5.785 2.827 2.666
5.955 3.917 1.591
5.944 3.880 1.843
6.047 3.695 2.085
5.892 3.530 2.224
5.816 3.232 2.362
5.921 3.048 2.550
5.758 2.960 2.788
6.044 4.238 1.724
5.946 3.997 2.020
6.030 3.745 2.169
5.959 3.681 2.318
5.950 3.565 2.684
5.849 3.398 2.744
5.830 3.132 3.050
5.909 4.115 2.413
5.839 3.916 2.593
5.877 3.750 2.816
5.760 3.524 3.051
5.840 3.446 3.283
5.881 4.056 2.773
5.868 3.992 2.890
5.859 3.697 3.066
5.799 3.579 3.318
5.956 4.238 3.009
5.754 4.053 3.264
5.750 3.892 3.427
5.761 4.132 3.448
5.795 4.037 3.767
5.827 4.349 3.816
5.810 4.511 4.028
6.042 2.736 0.923
5.927 2.634 1.100
5.920 2.287 1.468
6.120 3.014 0.972
5.943 2.881 1.181
5.995 2.721 1.304
5.927 2.586 1.477
6.000 2.508 1.852
5.872 3.045 0.884
5.661 2.903 1.081
5.730 2.713 1.345
5.601 2.554 1.571
5.754 3.559 0.834
5.812 3.282 1.030
5.812 3.175 1.314
5.776 3.081 1.421
5.780 2.880 1.673
5.714 2.665 1.919
5.870 3.790 0.802
5.724 3.697 1.043
5.684 3.440 1.137
5.700 3.276 1.521
5.631 3.157 1.570
5.674 3.045 1.780
5.716 2.901 2.029
5.692 2.728 2.271
5.824 4.018 0.856
5.721 3.946 1.157
5.855 3.665 1.329
5.693 3.661 1.623
5.621 3.451 1.894
5.582 3.339 1.984
5.569 3.031 2.336
5.678 2.890 2.526
5.538 2.672 2.700
5.759 4.378 1.025
5.703 4.171 1.395
5.743 4.036 1.608
5.808 3.709 1.680
5.665 3.642 1.980
5.603 3.465 2.104
5.574 3.344 2.345
5.615 3.195 2.533
5.650 3.005 2.869
5.692 4.265 1.437
5.795 4.112 1.641
5.719 4.073 1.826
5.630 3.942 2.090
5.699 3.756 2.448
5.611 3.518 2.486
5.635 3.447 2.739
5.487 3.220 3.070
5.669 4.317 2.174
5.750 3.991 2.301
5.666 3.811 2.459
5.512 3.741 2.763
5.587 3.658 3.037
5.620 3.326 3.075
5.541 4.110 2.715
5.586 3.998 2.958
5.575 3.747 3.168
5.607 3.648 3.248
5.565 4.275 3.044
5.650 3.920 3.369
5.438 3.838 3.399
5.582 4.262 3.465
5.612 4.089 3.703
5.592 4.277 3.817
5.740 3.186 0.787
5.807 2.861 1.066
5.681 2.828 1.300
5.635 2.598 1.600
5.527 3.286 0.735
5.520 3.128 0.853
5.575 2.970 1.120
5.416 2.730 1.200
5.661 3.666 0.619
5.615 3.443 0.894
5.599 3.265 1.001
5.448 3.178 1.273
5.402 2.925 1.389
5.382 2.753 1.762
5.494 4.027 0.555
5.518 3.891 0.828
5.433 3.701 0.950
5.470 3.461 1.243
5.498 3.370 1.467
5.394 3.151 1.584
5.424 3.078 1.827
5.291 2.881 1.985
5.678 4.274 0.726
5.581 4.095 0.849
5.547 3.915 1.226
5.435 3.663 1.400
5.441 3.552 1.535
5.377 3.434 1.824
5.398 3.236 1.919
5.303 3.147 2.184
5.240 2.929 2.382
5.479 4.468 0.765
5.531 4.325 1.110
5.519 4.063 1.376
5.417 3.999 1.443
5.411 3.742 1.685
5.384 3.745 2.039
5.487 3.429 2.076
5.402 3.338 2.278
5.332 3.165 2.640
5.345 2.909 2.750
5.554 4.518 1.214
5.582 4.327 1.529
5.508 4.275 1.606
5.377 3.951 1.816
5.475 3.851 2.020
5.298 3.778 2.356
5.297 3.585 2.585
5.278 3.364 2.819
5.257 3.279 3.011
5.337 4.346 1.971
5.353 4.079 2.209
5.299 3.978 2.577
5.303 3.802 2.720
5.215 3.628 3.018
5.368 3.347 3.113
5.410 3.928 2.901
5.327 3.757 3.030
5.215 3.642 3.207
5.676 6.131 0.151
5.389 4.111 3.159
5.204 3.942 3.564
5.221 4.016 3.573
5.463 3.334 0.543
5.597 3.154 0.854
5.426 2.935 1.093
5.405 2.768 1.203
5.248 3.238 0.642
5.333 3.038 0.765
5.152 3.039 1.043
5.311 3.769 0.351
5.256 3.742 0.563
5.340 3.422 0.712
5.143 3.432 1.000
5.104 3.127 1.200
5.166 2.972 1.511
5.428 4.294 0.226
5.326 4.135 0.515
5.263 3.950 0.668
5.326 3.649 0.916
5.240 3.572 1.191
5.232 3.371 1.464
5.207 3.323 1.512
5.206 3.025 1.872
5.357 4.489 0.510
5.346 4.177 0.603
5.195 4.062 0.933
5.337 3.953 1.055
5.256 3.819 1.380
5.245 3.615 1.447
5.146 3.492 1.680
5.207 3.219 1.914
5.000 3.090 2.119
5.393 4.828 0.324
5.350 4.673 0.686
5.240 4.403 0.763
5.256 4.219 1.118
5.254 4.140 1.189
5.283 3.976 1.489
5.167 3.897 1.762
5.206 3.626 1.948
5.206 3.410 2.136
5.055 3.398 2.250
5.017 3.128 2.611
5.489 5.233 0.265
5.402 4.971 0.605
5.293 4.844 0.839
5.325 4.702 1.011
5.188 4.535 1.235
5.323 4.369 1.391
5.241 4.264 1.565
5.090 4.059 1.857
5.166 3.797 2.090
5.040 3.809 2.385
5.008 3.583 2.589
5.031 3.303 2.806
4.979 3.201 2.902
5.404 5.359 0.050
5.437 5.276 0.382
5.400 5.350 0.530
5.396 5.329 0.656
5.357 5.060 0.974
5.292 4.919 1.185
5.336 4.657 1.310
5.134 4.635 1.508
5.128 4.464 1.741
5.231 4.188 1.948
5.034 4.163 2.237
5.000 3.890 2.556
5.124 3.748 2.622
4.954 3.562 2.810
5.062 3.498 3.120
5.504 5.698 0.006
5.423 5.574 0.257
5.376 5.406 0.421
5.351 5.643 0.749
4.931 3.648 3.359
5.411 6.171 0.038
5.533 6.037 0.331
5.360 5.875 0.422
5.294 5.689 0.597
5.400 6.134 0.347
5.397 5.962 0.728
5.311 3.226 0.512
5.203 3.136 0.896
5.232 3.025 0.996
4.626 -0.044 5.394
4.551 0.484 5.224
4.617 0.179 5.411
4.648 0.007 5.687
4.635 0.685 5.324
4.638 0.428 5.726
4.599 0.302 5.837
4.565 0.143 6.133
4.680 1.002 5.399
4.708 0.954 5.526
4.683 0.771 5.736
4.520 0.439 6.110
4.440 0.392 6.131
4.741 1.344 5.303
4.608 1.292 5.433
4.523 1.124 5.785
4.627 0.965 6.000
4.556 0.664 6.237
4.696 1.600 5.190
4.605 1.362 5.228
4.594 1.527 5.464
4.707 1.493 5.621
4.652 1.313 5.945
4.468 1.033 6.071
5.043 3.200 3.358
4.884 3.008 3.477
4.998 2.874 3.764
4.804 2.777 3.941
4.938 2.676 4.103
4.855 2.425 4.349
4.701 2.209 4.676
4.847 2.146 4.767
4.719 1.985 5.002
4.678 1.719 5.230
4.693 1.701 5.514
4.733 1.756 5.636
4.980 3.447 3.453
4.862 3.249 3.645
4.863 3.239 3.829
4.878 3.006 4.162
4.773 2.767 4.425
4.825 2.693 4.638
4.849 2.455 4.774
4.820 2.312 5.065
4.676 2.080 5.267
4.759 1.967 5.340
4.640 1.796 5.575
4.923 3.742 3.644
5.012 3.634 3.873
4.995 3.363 4.116
4.844 3.304 4.368
4.829 3.093 4.580
4.817 2.907 4.696
4.796 2.645 5.025
4.690 2.560 5.078
4.728 2.446 5.337
4.590 2.221 5.508
4.938 3.856 3.789
4.866 3.758 3.937
4.822 3.653 4.212
4.815 3.519 4.496
4.737 3.220 4.598
4.870 3.026 4.803
4.756 3.027 5.191
4.688 2.784 5.313
4.638 2.582 5.522
4.962 4.031 4.097
4.825 3.762 4.365
4.820 3.563 4.695
4.892 3.406 4.820
4.871 3.394 4.984
4.842 3.115 5.316
4.666 3.001 5.424
4.969 4.071 4.588
4.885 3.958 4.750
4.762 3.686 4.968
4.858 3.581 5.251
4.659 3.350 5.402
4.329 0.163 5.019
4.240 0.133 5.226
4.450 0.532 4.923
4.302 0.522 5.266
4.299 0.179 5.365
4.307 0.009 5.699
4.406 0.893 5.027
4.400 0.784 5.190
4.295 0.713 5.406
4.245 0.556 5.702
4.348 0.342 5.837
4.343 0.251 6.042
4.333 0.904 4.998
4.362 1.249 5.153
4.471 1.101 5.437
4.435 0.802 5.543
4.333 0.739 5.770
4.199 0.608 6.018
4.159 0.409 6.241
4.512 1.319 4.996
4.429 1.159 5.108
4.491 1.373 5.319
4.439 1.286 5.546
4.376 1.027 5.701
4.285 0.846 5.974
4.340 0.794 6.082
4.522 1.823 4.648
4.549 1.660 4.919
4.328 1.631 5.022
4.362 1.430 5.275
4.462 1.641 5.517
4.324 1.546 5.706
4.358 1.247 5.859
4.245 1.167 6.147
4.525 2.863 4.003
4.626 2.679 4.143
4.494 2.554 4.292
4.454 2.291 4.639
4.471 2.159 4.857
4.357 1.994 4.995
4.363 1.845 5.213
4.443 1.622 5.384
4.287 1.897 5.613
4.265 1.664 5.880
4.414 1.464 5.960
4.678 3.110 3.904
4.697 2.914 4.034
4.613 2.768 4.251
4.612 2.616 4.558
4.562 2.460 4.662
4.450 2.294 4.965
4.431 2.114 5.241
4.470 1.948 5.363
4.311 1.811 5.544
4.368 2.113 5.718
4.737 3.532 3.798
4.638 3.459 4.132
4.678 3.247 4.273
4.627 2.986 4.427
4.455 2.845 4.736
4.524 2.683 4.918
4.503 2.637 5.124
4.492 2.362 5.363
4.477 2.157 5.473
4.432 2.138 5.805
4.648 3.615 4.243
4.667 3.344 4.465
4.566 3.230 4.580
4.569 3.033 4.809
4.571 3.037 5.158
4.454 2.824 5.367
4.514 2.599 5.497
4.479 2.415 5.702
4.559 3.799 4.354
4.610 3.604 4.582
4.600 3.444 4.887
4.515 3.301 4.937
4.580 3.165 5.184
4.538 2.963 5.463
4.366 2.770 5.659
4.471 3.785 4.712
4.456 3.744 4.998
4.410 3.452 5.144
4.499 3.313 5.481
4.486 3.298 5.645
4.019 0.011 4.768
4.038 0.375 4.745
4.082 0.293 5.125
4.165 -0.028 5.315
4.194 0.688 4.796
4.123 0.547 4.954
4.048 0.360 5.221
4.002 0.282 5.386
4.078 0.130 5.718
4.096 0.783 4.689
4.115 0.945 4.842
4.104 0.933 5.061
4.116 0.653 5.330
3.958 0.422 5.553
3.965 0.400 5.847
4.001 0.155 6.039
4.047 0.036 6.212
4.074 1.143 4.806
4.141 1.046 4.983
4.128 1.292 5.133
4.068 1.059 5.324
4.106 0.935 5.537
3.968 0.648 5.762
4.005 0.549 6.019
4.061 0.465 6.268
4.217 1.602 4.678
4.070 1.411 4.874
4.147 1.272 5.108
4.098 1.524 5.334
3.994 1.180 5.448
4.015 1.162 5.704
4.015 0.884 5.983
4.000 0.760 6.031
4.237 1.842 4.521
4.252 1.752 4.738
4.084 1.640 5.134
4.182 1.531 5.327
4.062 1.569 5.482
4.071 1.460 5.606
4.044 1.270 5.938
3.963 1.119 6.048
4.180 2.443 4.366
4.208 2.334 4.525
4.307 2.125 4.766
4.222 2.021 4.932
4.140 1.738 5.251
4.019 1.695 5.363
4.082 1.906 5.577
4.081 1.668 5.839
4.062 1.568 5.940
4.266 3.041 4.071
4.381 2.929 4.206
4.353 2.626 4.550
4.241 2.428 4.666
4.164 2.444 4.979
4.167 2.203 5.127
4.089 2.077 5.324
4.167 1.889 5.603
4.107 2.102 5.804
4.124 1.855 5.897
4.327 3.313 4.300
4.282 3.033 4.415
4.222 2.935 4.749
4.258 2.791 4.981
4.291 2.659 5.021
4.091 2.491 5.350
4.161 2.340 5.587
4.187 2.055 5.763
4.089 2.360 5.855
4.359 3.460 4.326
4.301 3.195 4.537
4.245 3.033 4.808
4.195 2.975 4.974
4.212 2.869 5.207
4.140 2.556 5.583
4.148 2.518 5.761
4.115 2.230 5.902
4.300 3.591 4.621
4.356 3.433 4.706
4.232 3.321 4.962
4.143 3.093 5.142
4.229 3.097 5.377
4.068 2.950 5.550
4.028 2.750 5.846
4.278 3.788 5.046
4.211 3.607 5.157
4.110 3.394 5.456
4.200 3.193 5.658
4.234 3.125 5.789
4.288 3.794 5.301
4.167 3.710 5.564
4.099 3.404 5.813
4.027 0.065 4.936
3.891 0.292 4.654
3.921 0.005 4.842
3.838 0.479 4.704
3.921 0.248 5.089
3.882 0.081 5.137
3.887 0.762 4.747
3.773 0.629 4.903
3.866 0.516 5.250
3.844 0.311 5.375
3.798 0.054 5.568
3.807 0.719 4.786
3.833 0.946 4.804
3.908 0.925 5.069
3.885 0.722 5.420
3.722 0.449 5.462
3.734 0.272 5.815
3.771 0.203 5.934
3.763 0.025 6.102
3.880 1.122 4.672
3.871 0.933 4.993
3.767 1.287 5.077
3.750 1.014 5.230
3.780 0.931 5.494
3.669 0.722 5.768
3.809 0.640 5.925
3.794 0.502 6.161
3.967 1.480 4.719
3.951 1.326 4.859
3.936 1.277 5.052
3.843 1.439 5.326
3.812 1.189 5.466
3.852 1.024 5.561
3.664 0.867 5.812
3.757 0.862 6.096
4.022 1.926 4.595
3.950 1.801 4.734
3.957 1.660 4.911
3.952 1.397 5.291
3.859 1.659 5.364
3.895 1.498 5.592
3.816 1.312 5.856
3.761 1.160 5.959
3.719 0.949 6.207
3.919 2.344 4.464
3.934 2.166 4.665
3.878 1.992 4.937
3.829 1.840 5.177
3.771 1.762 5.372
3.931 1.910 5.599
3.815 1.695 5.756
3.851 1.506 5.983
4.087 2.896 4.182
4.032 2.637 4.405
3.945 2.610 4.695
3.925 2.459 4.835
3.816 2.130 5.075
3.773 2.058 5.245
3.928 1.787 5.548
3.789 2.053 5.695
3.728 1.958 5.916
3.996 3.057 4.384
3.919 2.912 4.627
4.044 2.713 4.823
3.926 2.571 4.985
3.868 2.413 5.343
3.812 2.186 5.407
3.877 2.119 5.776
3.832 2.235 5.952
3.758 2.223 6.053
4.089 3.383 4.555
3.912 3.189 4.832
4.002 2.915 5.042
3.904 2.730 5.190
3.941 2.732 5.530
3.773 2.431 5.757
3.911 2.294 5.943
3.818 2.445 6.092
4.027 3.600 4.835
4.067 3.446 5.030
3.963 3.103 5.216
3.915 3.000 5.499
3.796 2.929 5.711
3.863 2.722 5.751
3.786 2.518 5.972
4.038 3.839 4.870
3.921 3.665 5.124
3.881 3.496 5.319
3.986 3.322 5.615
3.861 3.091 5.699
3.811 3.002 6.009
3.885 3.716 5.201
3.839 3.724 5.525
3.876 3.468 5.642
3.948 3.369 5.956
3.795 0.250 4.695
3.931 0.119 4.758
3.657 0.264 4.507
3.502 0.097 4.728
3.667 0.590 4.535
3.565 0.366 4.791
3.556 0.189 4.948
3.496 0.167 5.214
3.599 0.656 4.447
3.691 0.862 4.630
3.513 0.677 5.015
3.534 0.470 5.094
3.609 0.410 5.323
3.394 0.140 5.601
3.585 0.812 4.710
3.564 0.952 4.808
3.527 0.907 5.074
3.573 0.736 5.295
3.459 0.582 5.555
3.482 0.450 5.724
3.465 0.252 5.969
3.357 0.075 6.193
3.562 1.091 4.691
3.521 0.982 4.888
3.548 1.141 5.100
3.594 1.075 5.158
3.622 0.857 5.449
3.552 0.719 5.760
3.444 0.546 5.828
3.346 0.367 6.197
3.606 1.615 4.610
3.633 1.330 4.861
3.667 1.141 4.955
3.593 1.481 5.200
3.458 1.263 5.510
3.505 1.143 5.566
3.452 0.969 5.781
3.538 0.836 6.095
3.585 1.833 4.724
3.665 1.579 5.029
3.492 1.462 5.284
3.549 1.659 5.372
3.510 1.584 5.505
3.457 1.300 5.873
3.522 1.219 5.986
3.678 2.346 4.567
3.770 2.135 4.787
3.729 2.031 4.993
3.706 1.881 5.194
3.616 1.603 5.319
3.560 1.830 5.490
3.592 1.629 5.651
3.509 1.465 5.989
3.821 2.710 4.516
3.659 2.597 4.574
3.753 2.407 4.848
3.723 2.128 5.142
3.501 2.132 5.387
3.472 1.920 5.598
3.561 2.063 5.713
3.597 1.854 5.969
3.817 2.881 4.614
3.615 2.728 4.879
3.634 2.607 5.012
3.537 2.386 5.205
3.623 2.189 5.530
3.461 2.167 5.737
3.501 2.368 5.852
3.448 2.076 6.172
3.676 3.275 4.509
3.613 3.246 4.848
3.665 3.011 5.036
3.734 2.884 5.247
3.634 2.581 5.355
3.511 2.456 5.649
3.644 2.269 5.780
3.576 2.581 6.011
3.637 3.463 4.752
3.599 3.383 4.995
3.743 3.295 5.163
3.663 3.098 5.461
3.617 2.809 5.655
3.602 2.797 5.853
3.574 2.461 5.980
3.595 2.677 6.203
3.731 3.733 4.958
3.756 3.641 5.097
3.626 3.510 5.348
3.720 3.343 5.478
3.542 3.103 5.721
3.589 2.979 5.918
3.580 2.734 6.113
3.702 3.705 5.176
3.568 3.546 5.565
3.544 3.419 5.795
3.488 3.387 5.909
3.619 3.115 6.123
3.553 0.138 4.550
3.500 0.000 4.867
3.258 0.404 4.402
3.329 0.172 4.513
3.343 0.104 4.705
3.299 0.371 4.426
3.295 0.514 4.579
3.239 0.341 4.750
3.363 0.224 4.965
3.150 0.114 5.208
3.338 0.643 4.603
3.417 0.909 4.623
3.393 0.691 4.935
3.183 0.387 5.106
3.336 0.228 5.255
3.147 0.073 5.514
3.437 0.768 4.749
3.249 1.013 4.909
3.282 0.941 4.964
3.224 0.687 5.226
3.269 0.556 5.386
3.293 0.294 5.773
3.083 0.240 5.968
3.351 1.005 4.901
3.243 1.162 4.911
3.194 1.131 5.286
3.162 0.970 5.501
3.273 0.746 5.685
3.105 0.666 5.794
3.431 1.376 4.734
3.255 1.272 4.968
3.276 1.445 5.210
3.185 1.285 5.335
3.255 1.123 5.538
3.295 1.015 5.712
3.308 1.886 4.696
3.376 1.573 5.026
3.277 1.508 5.171
3.211 1.668 5.243
3.309 1.550 5.546
3.227 1.287 5.753
3.396 2.188 4.717
3.313 2.011 4.944
3.242 1.840 5.073
3.357 1.678 5.384
3.378 1.975 5.408
3.177 1.778 5.793
3.497 2.520 4.599
3.390 2.332 4.894
3.324 2.207 5.158
3.360 1.990 5.334
3.265 1.881 5.512
3.242 2.042 5.698
3.156 1.935 5.939
3.467 2.859 4.596
3.439 2.729 4.802
3.443 2.717 5.062
3.341 2.372 5.184
3.238 2.260 5.359
3.309 2.161 5.637
3.369 2.350 5.759
3.527 3.091 4.696
3.388 2.994 4.873
3.412 2.930 5.174
3.378 2.686 5.444
3.309 2.522 5.574
3.358 2.389 5.797
3.313 2.512 6.077
3.496 3.588 4.632
3.376 3.314 4.886
3.353 3.190 5.191
3.458 3.152 5.368
3.425 2.872 5.539
3.270 2.785 5.778
3.224 2.658 5.979
3.250 2.777 6.088
3.409 3.754 4.841
3.354 3.575 5.036
3.386 3.434 5.311
3.370 3.267 5.417
3.336 3.190 5.821
3.300 2.922 5.886
3.211 2.768 6.253
3.385 3.909 5.218
3.294 3.613 5.461
3.422 3.436 5.673
3.393 3.377 5.838
3.307 3.062 6.159
3.345 0.193 4.077
3.350 0.238 4.100
3.330 0.347 4.362
3.365 0.210 4.464
3.381 0.141 4.731
3.399 0.464 4.355
3.004 0.464 4.358
2.987 0.200 4.427
3.070 0.100 4.646
3.060 0.448 4.231
3.098 0.697 4.394
2.985 0.490 4.768
2.955 0.223 4.831
2.939 0.076 5.191
3.025 0.612 4.428
3.026 0.785 4.655
3.003 0.652 4.902
2.970 0.480 5.083
2.945 0.352 5.385
2.890 0.169 5.533
2.849 0.096 5.663
3.008 0.867 4.653
3.133 0.968 4.877
2.962 0.831 5.021
2.894 0.716 5.319
2.989 0.497 5.428
2.959 0.297 5.698
3.137 1.147 4.896
3.030 1.215 4.934
2.998 1.189 5.226
3.079 0.853 5.464
3.009 0.680 5.707
3.033 1.169 5.034
2.943 1.506 5.175
3.009 1.247 5.354
3.114 1.412 5.134
2.942 1.720 5.369
3.041 1.640 5.357
2.948 1.960 5.410
3.028 2.271 4.984
3.019 1.984 5.153
3.110 1.841 5.404
2.995 2.114 5.541
3.189 2.674 4.938
3.025 2.393 5.199
3.053 2.232 5.459
3.030 2.123 5.699
2.915 2.302 5.849
3.156 3.198 4.766
3.121 2.945 4.927
3.004 2.757 5.162
2.975 2.695 5.328
2.950 2.487 5.606
3.031 2.443 5.774
3.071 2.582 5.987
3.219 3.347 4.892
3.066 3.152 5.096
3.163 3.031 5.226
3.034 2.954 5.447
3.126 2.715 5.695
2.986 2.501 6.000
3.040 2.883 6.188
3.115 3.534 4.983
3.087 3.391 5.283
3.132 3.194 5.568
3.014 3.057 5.753
2.953 2.895 5.933
2.942 2.765 6.124
3.205 4.078 5.082
3.090 3.793 5.141
3.105 3.717 5.502
3.077 3.469 5.621
3.086 3.354 5.761
2.922 3.196 6.123
3.182 0.272 4.073
3.097 -0.077 4.417
3.186 0.112 4.124
2.987 0.394 4.393
2.962 0.167 4.477
3.108 0.008 4.767
3.178 0.299 4.219
2.867 0.479 4.382
2.760 0.182 4.549
2.683 0.148 4.800
2.795 0.451 4.282
2.703 0.413 4.693
2.684 0.230 4.874
2.809 0.054 5.179
2.662 0.637 4.890
2.656 0.569 5.074
2.707 0.273 5.276
2.598 0.227 5.537
2.874 2.809 5.052
2.772 2.684 5.309
2.979 3.358 4.896
2.775 3.247 5.010
2.871 3.054 5.309
2.802 2.834 5.470
2.741 2.693 5.635
2.922 3.695 5.105
2.868 3.412 5.295
2.718 3.307 5.516
2.871 3.098 5.750
2.684 2.979 5.859
2.749 2.972 6.263
2.965 4.040 5.063
2.921 3.882 5.144
2.871 3.605 5.343
2.777 3.455 5.536
2.866 3.381 5.834
2.791 3.169 5.973
2.691 3.043 6.339
2.881 0.259 4.215
2.843 0.070 4.339
2.892 0.240 4.021
2.876 0.456 4.204
2.736 0.211 4.431
2.842 0.134 4.621
2.894 0.385 4.237
2.578 0.236 4.371
2.415 0.103 4.699
2.409 0.373 4.919
2.477 0.207 5.060
2.486 3.262 4.989
2.644 3.164 5.258
2.564 2.836 5.519
2.645 3.653 4.904
2.556 3.396 5.231
2.616 3.403 5.352
2.597 3.225 5.596
2.439 2.938 5.819
2.665 4.057 5.030
2.685 3.910 5.153
2.601 3.777 5.394
2.563 3.515 5.552
2.553 3.281 5.698
2.518 3.199 5.981
2.486 0.260 4.007
2.441 0.076 4.315
2.512 0.199 4.090
2.576 0.178 4.390
2.468 0.106 4.753
2.123 0.097 4.612
2.107 0.057 5.030
2.286 3.642 4.932
2.322 3.461 5.120
2.345 3.388 5.452
2.327 3.128 5.643
2.432 4.106 4.900
2.395 3.802 5.156
2.240 3.733 5.257
2.312 3.522 5.520
2.198 3.314 5.731
2.248 3.167 5.901
2.152 0.061 4.311
2.111 0.073 4.744
1.984 3.646 4.897
1.941 3.513 5.069
2.096 4.260 4.570
2.078 3.969 4.918
1.995 3.936 5.015
2.113 3.618 5.267
1.907 3.461 5.456
1.927 3.408 5.684
2.292 0.015 1.191
2.266 0.163 1.528
2.190 0.182 1.958
1.898 4.276 4.567
1.904 4.030 4.839
1.782 3.849 5.052
1.760 3.813 5.307
1.696 3.555 5.579
2.153 0.276 0.834
2.032 -0.067 1.150
2.098 0.521 0.766
2.149 0.400 1.129
1.992 0.248 1.280
2.034 0.065 1.404
2.027 0.678 1.151
1.932 0.445 1.420
2.033 0.326 1.761
2.057 0.108 1.777
1.708 4.429 4.385
1.560 4.334 4.555
1.559 4.140 4.794
1.522 3.977 5.009
1.433 3.735 5.149
1.750 0.206 0.472
1.738 0.443 0.576
1.785 0.298 0.934
1.783 0.002 1.095
1.811 0.668 0.728
1.887 0.491 0.947
1.702 0.336 1.194
1.779 0.027 1.454
1.875 0.814 0.922
1.722 0.547 1.183
1.684 0.391 1.430
1.794 0.250 1.655
1.604 0.146 1.825
1.826 1.118 1.229
1.695 0.842 1.465
1.263 4.094 4.396
1.356 4.580 4.050
1.376 4.403 4.304
1.352 4.226 4.597
1.275 4.079 4.738
1.279 3.888 4.915
1.516 0.218 0.367
1.565 -0.007 0.756
1.620 0.361 0.700
1.504 0.259 0.914
1.474 0.149 0.985
1.618 0.587 0.871
1.477 0.442 0.929
1.589 0.320 1.159
1.388 0.076 1.525
1.497 0.775 1.040
1.528 0.586 1.116
1.497 0.420 1.435
1.419 0.371 1.522
1.344 0.145 1.826
1.623 1.088 1.039
1.568 0.935 1.428
1.523 0.789 1.603
1.451 1.225 1.192
1.110 4.336 3.992
1.032 4.212 4.167
1.068 4.003 4.316
1.023 3.943 4.531
1.197 4.786 3.926
1.013 4.529 4.178
1.127 4.487 4.295
0.946 4.289 4.577
0.925 4.093 4.732
0.870 3.839 5.024
1.327 0.255 0.371
1.250 -0.077 0.564
1.288 0.497 0.617
1.233 0.160 0.899
1.157 0.061 0.965
1.185 0.709 0.858
1.282 0.408 1.034
1.127 0.373 1.270
1.120 0.178 1.362
1.221 0.872 0.991
1.335 0.746 1.108
1.242 0.477 1.260
1.256 0.251 1.606
1.176 1.060 0.990
1.221 0.942 1.243
1.121 0.663 1.595
1.347 1.172 1.346
0.846 4.194 3.794
0.904 4.084 3.981
0.782 4.600 3.687
0.776 4.303 4.008
0.871 4.203 4.107
0.742 3.986 4.260
0.727 3.953 4.580
0.942 4.717 3.770
0.820 4.614 4.126
0.765 4.450 4.248
0.811 4.323 4.457
0.796 4.191 4.811
1.042 0.146 0.439
0.958 0.084 0.700
1.089 0.468 0.505
1.024 0.247 0.704
1.042 0.108 0.978
1.012 0.542 0.647
1.070 0.443 0.911
0.929 0.233 1.132
0.999 0.043 1.358
0.997 0.828 0.868
1.026 0.585 1.056
0.901 0.523 1.323
0.914 0.997 1.033
1.032 0.818 1.358
1.002 1.287 1.244
0.526 4.126 3.340
0.505 4.024 3.533
0.558 3.793 3.864
0.582 4.411 3.466
0.506 4.232 3.694
0.627 3.918 3.949
0.468 3.942 4.230
0.655 4.490 3.681
0.477 4.353 3.789
0.629 4.285 4.183
0.446 4.127 4.381
0.409 3.947 4.475
0.492 4.775 3.799
0.496 4.526 4.138
0.569 4.534 4.224
0.572 4.328 4.545
0.540 4.173 4.615
0.789 0.274 0.318
0.758 0.116 0.592
0.696 0.502 0.486
0.628 0.164 0.678
0.759 0.152 0.969
0.775 0.625 0.626
0.709 0.392 0.906
0.775 0.411 1.153
0.549 0.231 1.301
0.726 0.874 0.826
0.665 0.706 1.050
0.604 0.572 1.343
0.726 1.030 0.948
0.619 0.991 1.327
0.624 1.312 1.205
0.306 3.692 2.989
0.318 3.515 3.284
0.347 3.859 3.043
0.391 3.780 3.280
0.362 3.546 3.675
0.291 4.085 3.250
0.340 4.009 3.556
0.177 3.886 3.708
0.274 3.694 3.961
0.258 4.408 3.396
0.245 4.286 3.699
0.211 3.940 3.884
0.172 3.773 4.214
0.105 3.614 4.405
0.222 4.497 3.718
0.257 4.471 3.796
0.267 4.246 4.007
0.296 3.983 4.360
0.266 3.853 4.476
0.383 4.703 3.717
0.347 4.639 4.009
0.175 4.444 4.298
0.187 4.310 4.485
0.136 4.102 4.579
0.450 0.205 0.311
0.492 0.012 0.654
0.572 0.336 0.556
0.491 0.253 0.701
0.368 0.196 0.961
0.469 0.708 0.648
0.489 0.529 0.842
0.524 0.958 0.762
0.018 3.344 2.689
-0.004 3.445 2.859
0.081 3.432 2.986
0.004 3.620 2.859
0.025 3.461 3.238
-0.002 3.323 3.279
0.111 3.931 3.072
0.123 3.832 3.338
0.110 3.501 3.580
0.080 4.199 3.256
0.010 3.900 3.569
0.013 3.800 3.631
-0.042 4.345 3.429
0.074 4.161 3.650
0.145 4.512 3.560
0.080 4.443 3.921
-0.029 4.899 3.674
-0.037 4.583 4.020
0.295 -0.034 0.100
0.181 0.195 0.340
0.202 0.019 0.436
0.109 0.373 0.392
0.180 0.369 0.600
6.158 2.815 3.206
6.080 3.025 3.200
5.979 2.849 3.467
6.031 3.131 3.487
5.990 3.047 3.724
6.064 2.856 3.968
6.035 3.443 3.565
6.053 3.299 3.914
6.073 3.124 4.120
5.935 3.027 4.214
6.046 3.618 3.860
6.011 3.398 4.026
5.880 3.405 4.259
5.849 3.210 4.332
5.964 3.096 4.608
5.960 3.815 3.868
6.092 3.742 4.163
5.957 3.614 4.372
5.983 3.465 4.513
5.821 3.144 4.706
6.105 4.171 4.146
6.016 3.948 4.412
5.936 3.790 4.449
6.013 3.510 4.785
5.961 3.415 4.888
5.988 4.221 4.308
6.053 4.220 4.457
5.903 4.029 4.691
5.833 3.862 4.860
5.864 3.734 5.071
5.990 4.575 4.525
5.879 4.369 4.650
5.886 4.159 4.916
5.894 4.102 5.110
5.825 3.837 5.256
5.370 0.171 6.105
5.874 2.811 3.098
5.835 3.018 3.288
5.687 2.812 3.449
5.748 2.682 3.640
5.790 3.326 3.482
5.798 3.052 3.712
5.805 2.882 3.857
5.687 2.749 4.085
5.685 3.501 3.534
5.710 3.195 3.747
5.807 3.045 4.010
5.592 3.008 4.276
5.578 2.738 4.397
5.847 3.590 3.705
5.829 3.505 4.001
5.766 3.243 4.270
5.713 3.084 4.393
5.714 2.969 4.542
5.567 2.791 4.889
5.805 3.876 3.876
5.757 3.648 4.069
5.723 3.614 4.394
5.681 3.440 4.617
5.605 3.199 4.739
5.653 3.163 4.966
5.830 4.168 4.116
5.735 4.034 4.242
5.620 3.830 4.581
5.673 3.566 4.752
5.677 3.429 4.946
5.622 3.191 5.086
5.847 4.360 4.239
5.628 4.236 4.453
5.730 4.040 4.725
5.644 3.908 4.836
5.623 3.655 5.080
5.749 4.440 4.450
5.745 4.413 4.536
5.745 4.142 4.793
5.685 3.964 5.001
5.523 3.907 5.303
5.047 0.033 5.743
5.142 0.337 5.824
4.977 0.100 6.034
5.172 0.415 6.035
5.529 2.904 3.038
5.548 3.012 3.317
5.586 2.887 3.389
5.485 2.797 3.576
5.547 3.204 3.442
5.486 3.053 3.612
5.432 3.006 3.742
5.510 2.764 4.042
5.314 2.547 4.212
5.434 3.564 3.498
5.518 3.327 3.801
5.538 3.049 3.952
5.316 2.938 4.153
5.329 2.834 4.415
5.381 2.714 4.601
5.599 3.746 3.811
5.499 3.579 3.951
5.482 3.378 4.099
5.484 3.146 4.369
5.356 2.956 4.482
5.430 2.838 4.850
5.265 2.744 5.058
5.571 3.866 3.799
5.559 3.818 4.175
5.370 3.645 4.311
5.489 3.494 4.491
5.374 3.329 4.680
5.243 3.139 4.958
5.241 2.967 5.171
5.486 4.160 4.036
5.439 3.971 4.300
5.392 3.768 4.376
5.384 3.668 4.752
5.419 3.431 4.911
5.400 3.198 5.207
5.565 4.357 4.245
5.467 4.227 4.436
5.468 3.976 4.606
5.439 3.783 4.769
5.249 3.754 5.119
5.257 3.422 5.226
5.463 4.185 4.785
5.429 4.090 5.108
4.780 0.165 5.595
4.819 0.162 5.680
4.939 0.382 5.647
4.797 0.355 5.860
4.812 0.063 6.095
4.953 0.717 5.884
4.823 0.525 6.021
4.830 0.432 6.242
5.305 2.894 2.970
4.828 0.655 6.181
5.306 3.064 3.268
5.133 2.811 3.427
5.275 2.709 3.690
5.174 3.249 3.350
5.166 3.124 3.653
5.226 2.975 3.729
5.138 2.685 3.904
5.168 2.584 4.299
4.988 2.466 4.519
5.224 3.499 3.521
5.119 3.276 3.748
5.095 3.100 3.969
5.210 2.983 4.147
5.051 2.898 4.421
4.994 2.576 4.624
5.103 2.424 4.751
4.960 2.239 5.069
5.240 3.659 3.737
5.277 3.631 3.995
5.108 3.366 4.115
5.151 3.275 4.273
5.099 3.041 4.612
5.054 2.937 4.748
5.059 2.793 5.074
4.973 2.518 5.149
5.297 3.896 3.821
5.140 3.822 4.128
5.226 3.543 4.363
5.135 3.504 4.477
5.154 3.265 4.612
5.008 3.063 4.872
5.086 2.968 5.216
5.074 2.805 5.301
5.242 4.154 3.963
5.081 3.957 4.184
5.130 3.730 4.505
5.049 3.590 4.661
5.034 3.571 4.938
5.040 3.378 5.086
5.062 3.044 5.320
5.242 4.157 4.340
5.176 4.058 4.695
5.128 3.910 4.907
5.118 3.766 4.940
5.044 3.508 5.302
4.549 0.011 5.365
4.591 0.349 5.334
4.563 0.234 5.482
4.468 0.040 5.772
4.571 0.649 5.365
4.564 0.530 5.612
4.579 0.361 5.904
4.588 0.240 6.120
4.703 0.944 5.429
4.686 0.946 5.556
4.653 0.648 5.772
4.516 0.548 6.013
4.564 0.368 6.253
4.714 1.470 5.416
4.558 1.151 5.554
4.548 1.061 5.813
4.554 0.874 5.915
4.517 0.698 6.189
4.797 1.577 5.150
4.704 1.423 5.359
4.593 1.624 5.456
4.652 1.439 5.767
4.596 1.226 6.012
4.473 1.110 6.125
4.999 3.226 3.414
5.016 3.138 3.617
4.970 3.013 3.757
4.922 2.737 3.990
4.875 2.585 4.158
4.856 2.421 4.385
4.849 2.306 4.674
4.694 2.020 4.857
4.744 1.943 5.124
4.720 1.727 5.280
4.713 1.724 5.519
4.750 1.776 5.724
4.890 3.487 3.531
4.930 3.259 3.679
4.892 3.156 3.962
4.909 2.995 4.103
4.756 2.930 4.338
4.765 2.605 4.604
4.783 2.404 4.731
4.794 2.269 4.985
4.694 2.095 5.131
4.721 2.096 5.449
4.684 1.913 5.745
5.047 3.733 3.620
5.027 3.597 3.961
4.940 3.474 4.064
4.835 3.124 4.370
4.872 2.995 4.418
4.794 2.964 4.642
4.785 2.743 4.848
4.654 2.648 5.174
4.615 2.346 5.285
4.588 2.311 5.684
5.020 3.863 3.736
4.880 3.838 4.021
4.867 3.626 4.328
4.769 3.433 4.530
4.777 3.301 4.620
4.780 3.050 4.939
4.844 2.889 5.083
4.677 2.733 5.263
4.759 2.679 5.495
4.957 4.023 4.278
4.797 3.901 4.513
4.883 3.559 4.532
4.858 3.393 4.875
4.746 3.223 5.158
4.822 3.220 5.257
4.690 3.070 5.550
4.943 4.073 4.528
4.833 3.864 4.795
4.788 3.676 4.912
4.776 3.529 5.233
4.827 3.462 5.367
0.076 3.278 0.157
0.014 3.186 0.395
0.107 2.981 0.726
0.101 3.541 0.346
-0.009 3.466 0.553
-0.036 3.235 0.861
0.015 3.874 0.511
0.022 3.676 0.729
0.082 3.463 1.065
0.063 4.021 0.789
0.104 3.768 0.992
-0.060 3.591 1.139
0.156 4.294 0.929
-0.060 3.972 1.187
0.060 4.260 1.267
-0.038 2.631 0.385
-0.062 2.503 0.483
0.096 3.004 0.246
-0.066 2.855 0.528
-0.033 2.621 0.820
-0.003 3.333 0.300
-0.039 3.132 0.472
0.078 3.051 0.625
6.266 4.833 4.618
6.200 4.551 4.908
6.285 4.339 4.975
6.276 4.263 5.336
6.169 5.032 4.850
6.219 4.710 4.913
6.256 4.576 5.175
6.137 4.494 5.464
6.181 5.070 4.946
6.278 4.946 5.114
1.618 5.630 4.324
1.775 6.114 4.050
1.642 5.944 4.145
1.578 5.795 4.449
1.636 6.069 4.444
1.708 5.982 4.554
1.627 6.207 4.756
1.391 5.259 4.062
1.509 5.727 3.907
1.319 5.651 4.117
1.454 6.212 3.680
1.533 6.135 3.877
1.440 6.017 4.218
1.374 5.718 4.297
1.392 6.177 4.375
1.380 6.053 4.537
1.455 6.220 4.715
1.225 5.136 3.861
1.183 5.477 3.706
1.168 5.292 3.993
1.285 5.946 3.774
1.114 5.763 3.959
1.112 5.659 4.127
1.265 6.213 3.778
1.206 6.099 3.909
1.071 5.893 4.055
1.041 5.688 4.336
1.242 6.247 4.344
1.163 6.089 4.441
1.163 6.171 4.724
0.915 5.136 3.908
0.950 5.564 3.823
0.798 5.454 3.993
0.850 5.866 3.671
0.912 5.741 3.976
0.938 5.576 4.114
0.841 6.217 3.829
0.975 5.937 4.029
0.911 5.791 4.288
0.777 6.120 4.197
0.855 5.924 4.476
0.854 6.166 4.653
0.732 5.231 3.609
0.580 5.237 3.842
0.604 5.487 3.720
0.557 5.446 4.038
0.569 5.665 3.933
0.491 5.496 4.160
0.679 6.219 3.788
0.630 6.022 4.122
0.526 5.859 4.337
0.582 6.207 4.193
0.615 6.087 4.461
0.477 6.156 4.646
0.316 5.074 3.758
0.406 5.589 3.728
0.342 5.333 3.949
0.444 5.859 3.837
0.321 5.525 4.021
0.367 6.057 3.959
0.388 5.763 4.173
0.351 6.228 4.194
0.270 5.977 4.325
0.348 6.189 4.499
0.038 5.096 3.663
0.075 5.354 3.981
3.563 3.791 5.742
3.618 3.696 5.859
3.604 3.613 6.041
3.392 3.970 5.321
3.458 3.940 5.541
3.334 3.744 5.788
3.250 3.446 5.984
3.234 3.299 6.266
3.430 4.084 5.699
3.260 3.852 6.051
3.391 3.673 6.162
3.343 4.042 6.136
3.192 3.989 5.332
3.042 3.812 5.512
3.082 3.721 5.840
3.079 3.654 5.927
2.955 3.479 6.242
3.150 4.275 5.522
3.043 4.078 5.841
3.009 4.026 5.929
3.008 3.833 6.204
3.067 4.377 6.006
2.989 4.069 6.218
2.847 4.264 5.224
2.913 4.009 5.296
2.812 3.958 5.654
2.830 3.705 5.827
2.684 3.614 6.025
2.651 3.362 6.187
2.975 4.364 5.300
2.762 4.269 5.415
2.753 4.199 5.644
2.874 3.964 5.955
2.788 3.793 6.105
2.834 4.456 5.732
2.892 4.384 5.892
2.760 4.231 6.143
2.708 4.453 5.966
2.677 4.442 6.174
2.565 4.161 5.078
2.631 4.023 5.219
2.560 3.866 5.603
2.576 3.797 5.810
2.420 3.569 5.920
2.484 3.465 6.136
2.692 4.367 5.198
2.616 4.340 5.411
2.470 4.033 5.636
2.485 3.969 5.962
2.442 3.709 6.033
2.559 4.615 5.453
2.589 4.425 5.648
2.469 4.264 5.821
2.514 4.186 6.077
2.505 4.823 5.800
2.443 4.469 6.066
2.528 4.301 6.326
2.461 4.770 6.123
2.290 4.375 4.812
2.319 4.332 5.096
2.401 4.020 5.290
2.302 3.899 5.452
2.214 3.747 5.729
2.291 3.499 5.959
2.175 3.349 6.148
2.457 4.652 5.067
2.389 4.539 5.269
2.393 4.299 5.501
2.319 4.051 5.664
2.336 3.949 5.839
2.133 3.851 6.044
2.418 4.838 5.200
2.390 4.752 5.344
2.277 4.520 5.557
2.303 4.287 5.757
2.307 4.189 6.121
2.146 4.053 6.356
2.383 4.833 5.483
2.327 4.680 5.684
2.256 4.577 5.970
2.255 4.308 6.179
2.236 5.044 5.973
2.183 4.792 6.078
2.155 4.398 4.841
2.044 4.320 5.039
2.131 4.089 5.251
2.033 3.873 5.551
1.987 3.773 5.782
1.983 3.674 5.943
1.899 3.346 6.085
2.113 4.882 4.718
2.101 4.561 4.929
2.003 4.498 5.238
1.942 4.298 5.513
1.924 4.105 5.683
1.934 3.893 5.840
1.861 3.738 6.120
2.068 5.009 4.904
2.111 4.914 5.078
2.039 4.653 5.360
2.099 4.567 5.506
1.910 4.270 5.797
1.937 4.148 6.070
1.922 4.138 6.182
1.988 5.118 5.267
2.129 4.990 5.608
2.083 4.782 5.746
1.894 4.583 5.868
2.055 4.453 6.192
2.088 5.113 5.747
2.065 4.933 5.875
1.901 4.854 6.075
1.841 4.551 4.628
1.842 4.388 4.757
1.831 4.325 5.021
1.735 4.172 5.211
1.696 3.875 5.431
1.655 3.815 5.735
1.765 3.711 5.849
1.935 4.965 4.617
1.856 4.800 4.674
1.799 4.667 4.927
1.826 4.434 5.141
1.812 4.326 5.440
1.663 4.160 5.589
1.720 4.021 5.904
1.720 3.930 6.043
1.602 3.571 6.223
1.970 5.267 4.755
1.882 4.961 4.932
1.843 4.930 5.068
1.714 4.659 5.319
1.852 4.575 5.638
1.699 4.369 5.777
1.730 4.149 5.929
1.710 4.055 6.208
1.962 5.645 4.636
1.904 5.372 4.771
1.773 5.261 4.981
1.835 5.153 5.254
1.812 4.912 5.554
1.838 4.726 5.725
1.691 4.592 5.911
1.617 4.336 6.166
1.968 5.593 5.044
1.916 5.469 5.296
1.821 5.321 5.460
1.717 5.234 5.576
1.754 5.009 5.786
1.787 4.864 6.130
1.596 4.870 4.288
1.670 4.538 4.610
1.537 4.413 4.752
1.516 4.310 5.013
1.425 4.177 5.139
1.480 3.954 5.449
1.375 3.717 5.655
1.690 5.144 4.208
1.534 4.947 4.525
1.560 4.879 4.795
1.559 4.683 4.970
1.611 4.424 5.113
1.571 4.265 5.403
1.421 4.240 5.484
1.334 4.109 5.842
1.631 5.463 4.510
1.659 5.151 4.587
1.573 5.142 4.810
1.481 4.910 5.029
1.443 4.700 5.255
1.509 4.467 5.482
1.544 4.407 5.662
1.522 4.162 5.950
1.415 4.122 6.155
1.657 5.666 4.557
1.618 5.404 4.863
1.579 5.316 4.962
1.595 5.010 5.302
1.449 4.990 5.420
1.404 4.716 5.608
1.543 4.698 5.809
1.508 4.535 6.192
1.706 5.823 4.784
1.634 5.638 4.891
1.564 5.401 5.128
1.598 5.355 5.389
1.501 5.090 5.654
1.439 4.908 5.835
1.424 4.790 6.067
1.642 5.935 4.857
1.642 5.899 5.235
1.321 4.891 4.126
1.322 4.882 4.226
1.351 4.592 4.534
1.249 4.469 4.707
1.191 4.381 4.998
1.273 4.222 5.215
1.238 3.992 5.385
1.364 5.267 4.282
1.365 5.095 4.403
1.223 4.794 4.750
1.303 4.733 4.959
1.296 4.559 5.107
1.178 4.373 5.285
1.123 4.218 5.477
1.417 5.428 4.338
1.406 5.323 4.552
1.274 4.985 4.929
1.207 4.807 5.164
1.330 4.785 5.305
1.202 4.617 5.536
1.187 4.448 5.805
1.289 5.567 4.568
1.396 5.484 4.881
1.284 5.291 4.925
1.195 5.127 5.186
1.262 4.861 5.465
1.286 4.771 5.587
1.245 4.569 5.814
1.331 5.731 4.681
1.422 5.643 5.022
1.225 5.409 5.186
1.357 5.351 5.398
1.307 5.144 5.565
1.426 6.066 4.911
1.343 5.931 5.202
1.298 5.701 5.311
1.372 6.318 5.066
1.201 4.985 4.136
1.093 4.840 4.221
1.100 4.563 4.424
1.013 4.417 4.803
1.002 4.400 4.892
1.016 4.108 5.136
1.135 5.261 4.241
0.999 4.952 4.513
0.998 4.942 4.650
1.019 4.656 4.816
0.961 4.614 5.019
0.899 4.423 5.359
1.135 5.480 4.397
1.090 5.323 4.613
1.093 5.026 4.791
1.011 4.992 5.126
1.004 4.761 5.252
0.997 4.629 5.385
1.115 5.591 4.565
1.036 5.492 4.849
0.994 5.376 4.996
1.059 5.081 5.293
0.996 5.027 5.456
0.847 4.865 5.708
1.002 5.835 4.618
1.149 5.680 4.999
1.043 5.429 5.237
1.047 5.317 5.451
1.121 6.134 4.943
1.086 5.796 5.055
1.023 5.761 5.252
1.033 6.318 5.143
0.913 4.884 4.024
0.757 4.717 4.320
0.819 4.567 4.410
0.704 4.544 4.734
0.702 4.387 4.858
0.711 4.216 5.179
0.780 5.258 4.212
0.815 5.021 4.323
0.808 4.827 4.547
0.645 4.703 4.820
0.673 4.595 5.007
0.717 4.471 5.302
0.754 5.376 4.454
0.706 5.278 4.509
0.844 5.098 4.722
0.753 4.989 5.046
0.788 4.727 5.316
0.803 5.698 4.614
0.740 5.398 4.774
0.762 5.328 5.014
0.676 5.131 5.133
0.731 4.998 5.293
0.774 5.884 4.719
0.788 5.603 4.817
0.673 5.552 5.205
0.741 5.999 4.878
0.827 5.859 5.032
0.547 5.042 3.941
0.581 4.824 4.249
0.609 4.724 4.395
0.538 4.403 4.578
0.501 4.267 4.812
0.576 5.236 4.161
0.564 5.035 4.389
0.445 4.910 4.653
0.475 4.655 4.763
0.432 4.553 5.038
