0.143 3.179 1.619
0.253 3.117 1.945
0.598 3.311 1.919
0.173 3.512 1.498
0.481 3.320 1.593
0.624 3.504 2.015
0.920 3.786 2.115
0.962 3.592 2.274
-0.068 3.772 1.532
0.228 3.759 1.633
0.619 3.711 1.721
0.829 3.792 1.963
1.208 3.955 2.085
0.007 4.066 1.290
0.162 3.908 1.463
0.420 4.022 1.497
0.824 4.335 1.923
1.014 4.242 1.967
1.257 4.467 2.068
0.095 4.046 1.244
0.224 4.311 1.473
0.398 4.428 1.391
0.822 4.488 1.725
1.076 4.453 1.691
1.402 4.551 1.992
1.593 4.820 2.057
0.331 4.572 1.196
0.567 4.755 1.263
0.763 4.598 1.433
0.866 4.742 1.594
1.210 4.901 1.776
1.389 4.936 1.966
1.836 4.974 2.043
2.067 5.332 2.097
2.061 5.398 2.520
2.504 5.364 2.595
3.470 5.759 3.030
1.343 5.205 1.721
1.659 5.331 2.126
1.875 5.334 2.144
2.157 5.456 2.332
2.357 5.602 2.426
2.638 5.651 2.532
2.994 5.973 2.668
3.058 5.804 2.960
3.280 5.890 2.918
1.546 5.601 1.748
1.786 5.841 2.045
2.171 5.727 2.167
2.497 5.990 2.210
2.599 6.144 2.503
2.871 6.021 2.472
3.084 6.192 2.793
1.993 5.957 1.950
2.026 6.004 2.148
2.363 6.100 2.210
0.104 3.075 1.654
0.320 3.136 1.893
0.760 3.164 2.123
0.108 3.340 2.242
0.162 3.693 2.113
0.345 3.737 2.265
0.738 3.774 2.189
0.041 3.934 2.000
0.375 3.959 2.146
0.732 4.034 2.124
-0.001 4.195 1.799
0.501 4.096 1.996
0.600 4.208 1.871
0.752 4.487 2.014
0.184 4.272 1.582
0.398 4.331 1.896
0.739 4.467 1.857
-0.094 4.730 1.659
0.323 4.591 1.521
3.115 5.877 3.226
3.353 5.842 3.421
2.345 5.639 2.549
2.542 5.946 2.739
2.849 5.846 2.842
2.911 5.886 2.975
3.244 6.216 3.297
2.080 6.033 2.414
2.087 5.917 2.631
2.602 6.073 2.526
2.624 6.055 2.748
2.039 6.207 2.224
0.313 3.426 2.238
0.160 3.255 2.240
-0.009 3.548 2.126
0.316 3.855 2.462
-0.128 4.009 2.069
0.345 3.874 2.228
0.130 4.293 2.186
0.226 4.402 1.906
3.002 5.792 3.368
3.145 5.932 3.631
2.653 6.008 3.012
2.824 6.181 3.423
3.112 6.114 3.360
2.298 6.134 2.779
2.511 6.324 3.010
0.175 3.415 2.281
0.016 3.691 2.539
-0.031 4.096 2.608
2.959 6.030 3.749
2.599 6.072 3.608
2.853 6.119 3.796
3.121 2.868 5.803
2.680 2.786 5.881
3.019 2.973 6.023
3.018 3.216 5.912
2.370 2.870 5.969
2.633 3.018 6.050
2.677 3.062 6.128
2.401 3.328 5.828
2.654 3.178 6.143
2.764 3.743 5.928
1.786 2.897 5.878
1.957 2.966 6.196
2.216 2.897 6.219
1.930 3.113 6.035
2.334 3.332 6.262
2.629 3.432 6.330
2.545 3.679 6.018
1.465 2.920 6.150
1.544 3.085 6.057
1.675 3.215 6.100
1.987 3.311 6.284
1.961 3.688 6.355
0.735 2.848 6.109
1.138 2.981 6.032
1.129 3.257 6.154
1.110 3.227 6.052
0.245 2.795 6.027
0.694 2.790 6.129
0.186 2.933 6.010
0.363 2.988 5.901
0.713 2.972 6.122
-0.078 3.213 5.802
0.299 3.266 5.958
0.675 3.364 5.963
0.879 3.572 6.227
0.251 3.537 5.897
0.202 3.183 6.213
0.108 3.376 5.998
0.521 3.589 6.189
0.054 3.753 5.949
0.279 3.659 6.052
0.163 3.932 5.991
1.675 2.597 0.251
1.929 2.667 0.333
1.889 2.822 0.493
2.176 2.934 0.511
2.413 2.886 0.799
2.814 2.949 0.927
1.608 2.982 0.232
2.086 3.144 0.347
2.373 3.296 0.416
2.349 3.227 0.543
2.973 5.622 0.048
3.324 5.711 0.155
3.354 5.878 0.297
3.168 6.107 0.010
3.531 6.323 0.355
3.681 6.290 0.278
2.630 1.038 1.722
3.096 1.043 1.587
3.309 1.393 1.984
3.533 1.380 2.041
3.906 1.298 2.067
3.912 1.542 2.243
4.179 1.678 2.544
2.402 1.300 1.279
2.878 1.350 1.304
3.035 1.526 1.467
3.087 1.664 1.756
3.419 1.646 1.840
3.697 1.855 1.992
4.020 1.869 2.188
2.352 1.596 1.155
2.481 1.576 1.202
2.832 1.556 1.330
2.923 1.625 1.581
3.237 1.657 1.521
3.337 2.049 1.710
3.720 1.897 1.742
2.044 1.711 0.898
2.050 1.751 1.023
2.400 1.714 0.962
2.816 1.939 1.213
2.865 1.939 1.368
3.116 2.118 1.352
3.337 2.114 1.741
1.632 1.743 0.436
1.858 1.866 0.816
2.229 2.085 0.922
2.489 2.136 0.939
2.752 2.085 1.200
2.855 2.243 1.347
3.090 2.391 1.305
1.704 1.969 0.333
1.950 2.180 0.649
2.188 2.254 0.680
2.392 2.396 0.793
2.592 2.411 0.857
2.751 2.460 1.196
3.138 2.500 1.189
1.586 2.260 0.363
1.922 2.488 0.315
2.131 2.684 0.660
2.310 2.706 0.847
2.502 2.801 1.005
2.756 2.915 0.902
1.411 2.707 0.314
1.684 2.771 0.377
1.974 2.751 0.593
2.182 2.753 0.652
2.539 2.850 0.707
2.733 3.081 0.783
1.535 2.684 0.438
1.943 2.780 0.623
2.161 2.839 0.834
2.333 3.134 0.931
2.588 3.092 1.099
1.499 3.163 0.349
1.863 3.008 0.608
2.112 3.392 0.744
2.411 3.431 0.850
2.726 3.449 0.904
1.658 3.509 0.410
1.964 3.590 0.582
2.244 3.724 0.671
2.473 3.861 0.766
2.123 3.681 0.501
2.317 3.745 0.742
2.797 5.383 0.304
2.936 5.665 0.654
3.227 5.629 0.748
2.488 5.703 0.191
2.872 5.828 0.312
3.106 5.990 0.502
3.231 6.055 0.683
3.448 6.212 0.653
2.363 6.092 -0.050
2.821 6.040 0.172
3.079 6.212 0.255
3.126 6.258 0.589
2.901 1.276 2.060
3.223 1.300 1.968
3.361 1.578 2.151
3.755 1.416 2.424
3.806 1.709 2.436
2.582 1.553 1.845
2.839 1.630 1.852
2.950 1.721 1.821
3.435 1.563 2.160
3.612 1.707 2.313
2.250 1.584 1.323
2.416 1.627 1.637
2.697 1.921 1.569
3.047 1.811 1.765
3.197 2.034 2.083
1.988 1.802 1.274
2.353 1.766 1.238
2.528 2.046 1.487
2.902 1.938 1.477
3.050 2.295 1.603
1.723 1.927 1.012
1.847 2.029 1.078
2.166 2.012 1.208
2.422 2.148 1.424
2.795 2.345 1.422
2.913 2.327 1.686
1.574 2.389 0.770
1.851 2.292 1.079
2.222 2.514 1.004
2.563 2.525 1.346
2.622 2.681 1.314
2.782 2.584 1.527
1.445 2.377 0.459
1.691 2.405 0.608
1.840 2.555 0.751
2.012 2.589 1.058
2.335 2.940 1.184
2.619 2.967 1.369
1.698 2.691 0.563
1.823 2.963 0.732
2.206 2.830 0.987
2.466 3.026 0.989
2.645 3.280 1.140
1.519 3.010 0.685
1.751 3.082 1.029
1.880 3.022 0.940
2.146 3.196 1.262
2.413 3.139 1.421
1.271 3.221 0.544
1.623 3.396 0.717
1.786 3.199 0.886
2.032 3.505 1.052
2.468 3.370 1.269
1.433 3.462 0.727
1.745 3.449 0.692
1.830 3.617 0.914
2.063 3.565 0.998
2.368 3.674 0.993
1.453 3.674 0.585
1.742 3.730 0.634
2.087 4.105 1.006
2.335 4.175 1.038
2.599 4.168 1.074
1.795 4.225 0.475
2.042 4.224 0.876
2.180 4.404 0.903
2.688 4.511 0.941
2.144 4.636 0.735
2.136 4.566 0.769
2.665 4.674 0.991
2.757 4.643 0.998
2.367 4.820 0.630
2.411 4.853 0.890
2.861 5.017 0.857
2.851 5.265 1.045
2.296 5.174 0.647
2.502 5.349 0.807
2.572 5.250 0.805
2.841 5.399 0.929
3.066 5.627 1.121
2.552 5.390 0.661
2.710 5.750 0.775
2.916 5.609 0.731
3.236 5.877 0.854
3.298 6.020 1.163
2.356 5.754 0.353
2.776 6.010 0.519
2.916 6.030 0.624
3.150 6.019 0.890
3.257 6.238 0.884
2.438 6.108 0.452
2.624 6.275 0.342
2.887 6.337 0.660
2.955 1.275 2.445
3.234 1.501 2.397
3.397 1.735 2.550
2.858 1.815 2.320
2.370 2.146 1.576
2.726 2.010 1.984
1.821 2.079 1.448
2.049 2.099 1.585
2.264 2.329 1.677
2.666 2.531 1.664
1.528 2.186 1.139
1.718 2.509 1.123
2.098 2.422 1.319
2.346 2.657 1.384
2.539 2.662 1.639
1.564 2.644 0.780
1.786 2.786 0.965
2.107 2.866 1.235
2.097 2.765 1.251
2.425 3.111 1.534
1.405 2.881 0.956
1.706 2.995 0.854
1.936 2.946 1.000
2.228 3.285 1.279
2.578 3.154 1.292
1.271 2.947 0.927
1.675 3.201 1.247
1.924 3.122 1.393
2.013 3.125 1.340
2.201 3.442 1.462
0.890 3.207 0.853
1.297 3.144 0.993
1.469 3.234 0.971
1.624 3.413 1.202
2.004 3.422 1.195
2.205 3.578 1.629
0.891 3.557 0.611
1.175 3.539 0.862
1.441 3.662 1.012
1.840 3.591 1.241
2.081 3.868 1.340
2.179 3.927 1.442
2.587 4.095 1.384
1.233 3.849 0.737
1.513 3.860 0.761
1.631 3.976 0.876
2.074 3.945 1.246
2.193 4.129 1.326
2.549 4.185 1.355
1.405 4.071 0.822
1.690 4.154 0.915
1.751 4.474 1.029
2.200 4.493 0.990
2.516 4.403 1.379
2.720 4.464 1.429
1.657 4.611 0.702
1.789 4.677 0.835
2.046 4.804 1.043
2.346 4.895 1.298
2.654 4.954 1.277
2.869 5.077 1.535
1.698 4.965 0.833
2.187 4.812 0.778
2.232 5.022 1.102
2.533 5.001 1.271
2.873 5.258 1.444
3.009 5.319 1.551
1.700 5.280 0.780
2.149 5.330 0.676
2.368 5.225 0.903
2.687 5.317 1.065
2.663 5.442 1.158
2.993 5.662 1.292
3.377 5.809 1.533
1.908 5.636 0.674
2.334 5.449 0.879
2.520 5.613 1.019
2.718 5.700 1.142
3.086 5.724 1.256
3.351 5.861 1.352
1.844 5.765 0.528
2.359 5.799 0.720
2.368 5.919 0.746
2.703 6.024 1.076
2.878 6.246 0.968
3.247 6.295 1.319
2.238 6.037 0.619
2.442 6.348 0.738
1.612 2.574 1.528
1.771 2.495 1.690
2.234 2.727 1.667
1.478 2.705 1.035
1.589 2.909 1.406
1.721 2.884 1.403
1.940 2.882 1.731
2.179 3.028 1.666
1.344 3.071 0.990
1.543 2.933 1.147
1.816 3.290 1.455
2.031 3.110 1.402
2.362 3.200 1.656
1.017 3.038 1.222
1.276 3.106 1.424
1.305 3.062 1.404
1.736 3.151 1.704
1.903 3.412 1.679
0.744 3.307 0.967
1.098 3.330 1.137
1.287 3.523 1.327
1.447 3.648 1.552
1.749 3.630 1.543
1.975 3.597 1.591
0.662 3.593 0.976
1.164 3.558 0.914
1.340 3.598 1.295
1.687 3.713 1.204
1.766 3.782 1.416
2.182 3.905 1.741
2.391 4.013 1.864
0.661 3.917 0.854
1.162 3.954 0.786
1.374 4.004 1.127
1.615 4.191 1.098
1.795 4.138 1.339
2.134 4.225 1.547
2.359 4.181 1.691
0.864 4.155 0.771
1.323 4.354 1.086
1.631 4.460 1.198
1.709 4.512 1.248
2.090 4.478 1.308
2.188 4.743 1.580
2.572 4.537 1.528
1.245 4.648 0.731
1.604 4.593 0.835
1.696 4.560 1.007
2.058 4.689 1.287
2.176 4.735 1.245
2.518 5.066 1.641
2.552 5.168 1.695
3.082 5.268 1.886
1.403 4.799 0.956
1.656 5.082 1.144
1.877 5.019 1.283
2.214 4.991 1.301
2.452 5.088 1.400
2.555 5.342 1.663
2.770 5.518 1.548
3.112 5.622 1.842
1.572 5.287 0.899
1.870 5.287 0.919
2.272 5.524 1.209
2.284 5.455 1.311
2.526 5.559 1.486
2.749 5.640 1.603
3.100 5.701 1.786
3.505 5.824 1.788
1.988 5.696 0.823
2.109 5.553 0.927
2.461 5.845 1.188
2.463 5.732 1.333
2.993 5.809 1.351
3.035 5.923 1.699
3.338 6.227 1.632
2.014 5.892 0.792
2.290 6.165 1.100
2.691 6.149 1.114
2.841 6.360 1.337
2.148 6.260 0.661
1.517 2.772 1.437
1.588 2.823 1.704
1.817 2.985 1.729
0.814 2.887 1.197
1.244 3.092 1.289
1.474 3.244 1.355
1.604 3.135 1.583
2.024 3.252 1.556
0.643 2.920 1.523
1.004 3.144 1.484
1.354 3.249 1.768
1.403 3.438 1.736
1.729 3.440 1.878
0.800 3.386 1.405
0.917 3.345 1.429
1.140 3.457 1.615
1.490 3.484 1.649
1.563 3.639 1.711
1.882 3.903 1.991
0.251 3.363 0.875
0.734 3.724 1.276
0.754 3.756 1.351
1.166 3.737 1.442
1.391 3.743 1.678
1.536 3.849 1.596
1.798 3.985 1.716
0.363 3.865 0.798
0.510 3.733 1.037
0.834 3.970 1.036
1.257 3.928 1.398
1.473 4.239 1.309
1.593 4.247 1.513
1.847 4.241 1.578
2.237 4.488 1.814
0.727 4.138 0.785
0.862 4.249 1.001
1.152 4.175 1.261
1.411 4.483 1.245
1.588 4.505 1.489
1.703 4.618 1.630
2.079 4.752 1.601
2.315 4.722 1.912
2.702 4.709 2.005
0.644 4.450 0.966
0.924 4.519 0.984
1.230 4.817 1.201
1.510 4.895 1.221
1.857 4.912 1.432
2.034 5.088 1.527
2.190 5.080 1.628
2.419 5.037 1.996
2.823 5.116 2.134
1.326 4.797 1.060
1.529 4.980 1.221
1.714 5.066 1.353
1.882 5.229 1.397
2.205 5.226 1.581
2.426 5.471 1.680
2.843 5.476 1.871
3.088 5.525 2.014
3.303 5.659 2.043
1.431 5.418 1.018
1.694 5.546 1.276
1.851 5.575 1.277
2.273 5.584 1.611
2.595 5.786 1.788
2.852 5.619 1.799
2.820 6.006 2.026
3.210 6.009 2.055
3.535 5.922 2.110
1.592 5.561 1.234
2.071 5.695 1.385
2.121 5.889 1.475
2.525 5.983 1.683
2.627 5.990 1.834
3.067 6.076 1.956
3.096 6.244 1.899
1.924 6.139 1.098
2.140 6.144 1.319
2.275 6.215 1.332
0.619 2.892 1.447
0.873 2.972 1.423
1.227 3.367 1.559
1.538 3.210 1.881
1.761 3.325 2.063
0.694 3.206 1.518
0.876 3.062 1.791
1.153 3.435 1.852
0.372 3.203 1.306
0.390 3.462 1.622
0.830 3.561 1.502
0.908 3.679 1.904
1.276 3.752 2.053
1.564 3.886 2.070
0.353 3.619 1.223
0.410 3.527 1.383
0.597 3.668 1.642
0.911 3.726 1.647
1.352 3.842 1.816
1.503 3.960 2.073
1.863 3.991 2.154
0.265 3.801 1.143
0.477 4.065 1.327
0.580 3.967 1.463
1.040 4.062 1.580
1.146 4.291 1.832
1.312 4.424 1.702
1.612 4.350 2.054
1.890 4.373 2.006
0.029 4.207 1.151
0.382 4.322 1.135
0.738 4.373 1.293
0.763 4.503 1.318
1.162 4.366 1.614
1.489 4.530 1.613
1.772 4.677 1.818
1.980 4.606 1.861
2.102 4.748 2.246
0.520 4.362 1.047
0.701 4.558 1.064
0.910 4.576 1.200
1.099 4.803 1.504
1.425 4.794 1.505
1.631 4.862 1.709
1.906 4.888 1.848
2.065 5.132 2.053
2.421 5.063 2.219
2.517 5.358 2.428
2.924 5.548 2.440
0.989 4.885 1.370
1.260 5.059 1.468
1.556 5.331 1.685
1.943 5.453 1.840
2.213 5.515 1.765
2.423 5.498 1.990
2.504 5.439 2.039
2.758 5.675 2.440
2.947 5.606 2.541
3.426 5.730 2.528
1.534 5.584 1.601
1.959 5.582 1.699
1.999 5.734 1.654
2.235 5.641 1.941
2.663 5.771 2.014
2.811 5.954 2.116
3.034 5.897 2.420
3.268 6.053 2.342
3.630 6.203 2.471
1.852 5.760 1.546
2.013 6.039 1.647
2.283 6.131 1.833
2.511 6.188 2.035
2.792 6.190 1.921
1.964 6.242 1.419
0.618 3.218 1.607
0.799 3.225 1.913
0.985 3.388 1.791
0.275 3.125 1.853
0.265 3.152 1.894
0.555 3.271 1.984
-0.013 3.291 1.515
0.278 3.420 1.839
0.480 3.662 1.781
0.970 3.627 2.085
1.226 3.744 2.111
-0.034 3.521 1.466
0.254 3.627 1.676
0.498 3.839 1.897
0.803 3.976 1.778
0.987 4.100 2.187
-0.100 3.823 1.243
0.322 4.064 1.464
0.546 4.081 1.716
0.904 4.348 1.893
0.902 4.288 1.810
1.309 4.388 2.091
-0.130 4.057 1.277
0.246 4.178 1.474
0.395 4.242 1.464
0.793 4.537 1.740
0.977 4.649 1.657
1.160 4.586 1.950
1.603 4.760 2.091
0.345 4.438 1.167
0.417 4.687 1.379
0.624 4.609 1.658
1.108 4.858 1.770
1.212 4.848 1.683
1.546 4.978 2.084
1.730 5.056 2.048
1.938 5.249 2.374
2.121 5.435 2.425
2.545 5.337 2.654
3.444 5.841 3.133
1.339 5.405 1.985
1.750 5.503 2.123
1.857 5.371 2.245
2.118 5.446 2.297
2.302 5.650 2.432
2.733 5.746 2.391
2.859 5.957 2.700
3.046 6.083 2.718
3.299 5.978 2.940
1.737 5.724 1.726
1.771 5.877 1.965
2.054 5.960 2.107
2.351 5.973 2.345
2.660 5.888 2.544
2.899 6.065 2.444
3.252 6.159 2.670
1.773 6.152 1.956
2.190 6.166 2.059
2.326 6.111 2.113
0.053 3.214 1.608
0.265 3.123 1.900
0.753 3.435 2.030
6.365 0.135 0.652
6.100 0.079 0.827
5.978 0.527 0.764
6.206 0.760 0.607
6.080 -0.062 1.362
5.902 0.316 0.925
6.223 0.378 1.058
5.958 0.624 0.892
6.278 0.525 0.861
5.869 0.658 0.840
6.112 0.906 0.818
5.813 0.002 1.277
5.930 0.053 1.586
5.755 0.188 1.329
6.024 0.299 1.232
6.190 0.457 1.501
5.818 0.713 1.187
6.117 0.835 1.346
6.076 0.775 1.440
5.576 0.873 1.111
5.956 0.877 1.179
6.173 1.044 1.269
5.910 0.094 1.770
6.182 0.216 1.914
5.709 0.324 1.533
5.754 0.353 1.522
6.027 0.606 1.829
5.304 0.530 1.224
5.590 0.810 1.434
5.917 0.879 1.344
5.916 0.910 1.527
5.351 0.973 1.128
5.415 1.065 1.081
5.817 0.972 1.266
5.937 1.228 1.374
5.794 0.434 1.932
5.307 0.367 1.432
5.500 0.535 1.772
5.562 0.575 1.888
5.898 0.567 2.052
4.957 0.525 1.303
5.001 0.533 1.454
5.364 0.887 1.676
5.625 0.851 1.822
5.830 1.038 1.766
4.980 0.903 1.239
5.026 1.001 1.465
5.271 1.004 1.477
5.528 1.117 1.514
5.861 1.173 1.700
5.047 0.478 1.796
5.118 0.492 1.877
5.400 0.756 2.226
5.792 0.754 2.261
4.340 0.592 1.292
4.864 0.571 1.618
5.006 0.725 1.597
5.228 0.871 1.889
5.630 0.938 1.922
5.728 0.907 2.131
4.531 0.815 1.283
4.802 0.949 1.304
5.084 1.133 1.555
5.235 0.976 1.557
5.455 1.155 1.709
5.559 1.451 1.867
4.730 0.356 1.787
4.880 0.697 1.997
5.085 0.553 2.243
5.502 0.779 2.454
3.957 0.717 1.466
4.343 0.568 1.729
4.686 0.859 1.671
4.927 0.749 1.932
4.984 0.946 2.111
5.303 1.000 2.101
5.432 1.122 2.341
4.053 0.812 1.529
4.311 0.851 1.547
4.474 1.168 1.551
4.886 1.237 1.897
4.961 1.285 1.868
5.417 1.160 2.014
5.584 1.241 2.138
4.393 0.413 2.127
3.810 0.482 1.882
4.308 0.477 2.126
4.401 0.418 2.110
4.631 0.596 2.382
4.931 0.672 2.538
3.585 0.442 1.511
3.858 0.759 1.724
4.132 0.647 2.015
4.304 0.721 2.159
4.675 1.001 2.267
5.042 1.082 2.356
5.296 1.130 2.501
3.329 0.789 1.255
3.672 0.963 1.580
3.964 0.946 1.520
4.090 0.904 1.769
4.474 0.998 1.779
4.560 1.220 1.940
4.952 1.401 2.116
5.192 1.226 2.280
3.946 0.244 2.247
4.217 0.186 2.416
4.246 0.340 2.544
4.495 0.326 2.706
3.888 0.547 2.118
3.927 0.448 2.244
4.366 0.523 2.380
4.548 0.848 2.491
4.788 0.749 2.671
3.515 0.639 1.894
3.708 0.584 1.993
4.111 0.849 2.176
4.378 1.017 2.346
4.576 1.111 2.316
4.628 0.997 2.666
3.165 0.688 1.724
3.375 1.009 1.811
3.684 1.126 1.808
3.895 0.987 2.042
4.067 1.252 2.028
4.358 1.363 2.260
4.608 1.408 2.403
5.025 1.442 2.505
6.355 1.279 1.541
6.136 0.858 1.967
6.148 0.987 1.976
5.981 1.386 1.750
6.045 1.257 2.269
6.066 1.466 2.241
6.330 1.431 2.117
5.633 1.601 2.413
4.169 -0.040 5.540
3.381 0.125 5.000
3.613 0.261 5.220
3.957 0.242 5.342
4.118 0.339 5.322
2.536 0.045 4.599
3.013 0.159 4.761
3.232 0.312 4.778
3.340 0.147 5.004
3.632 0.472 5.126
3.721 0.423 5.308
4.040 0.722 5.313
2.500 0.439 4.429
2.827 0.396 4.463
3.215 0.339 4.645
3.402 0.684 4.854
3.637 0.793 4.814
3.707 0.847 5.054
4.203 0.731 5.288
2.750 0.652 4.472
3.184 0.786 4.492
3.315 0.719 4.773
3.498 0.870 4.856
3.738 1.149 4.809
4.031 1.205 5.061
3.010 1.117 4.502
3.317 1.104 4.474
3.402 1.252 4.611
3.806 1.309 4.759
3.656 0.057 5.710
4.127 0.115 5.818
3.072 0.117 5.117
3.290 0.218 5.221
3.420 0.265 5.303
3.637 0.289 5.482
4.146 0.527 5.642
2.805 0.083 4.816
2.912 0.343 5.077
3.185 0.380 5.231
3.321 0.387 5.242
3.747 0.642 5.508
4.078 0.606 5.687
2.596 0.347 4.853
3.013 0.570 4.954
3.148 0.743 5.099
3.411 0.613 5.106
3.568 0.690 5.411
3.789 0.918 5.515
2.928 0.811 4.707
3.059 0.900 4.786
3.278 0.954 5.053
3.661 1.214 5.208
3.741 1.081 5.364
3.017 1.080 4.682
3.497 1.227 4.949
3.617 1.384 4.943
3.806 1.328 5.317
3.610 0.110 5.729
3.813 0.113 6.036
3.313 0.355 5.486
3.735 0.308 5.849
3.851 0.608 5.776
2.994 0.388 5.516
3.197 0.522 5.435
3.693 0.649 5.504
3.823 0.724 5.650
3.156 0.832 5.228
3.138 0.750 5.248
3.421 1.007 5.483
3.648 1.156 5.809
3.026 0.919 5.205
3.363 0.950 5.291
3.584 1.202 5.270
3.758 1.389 5.444
2.897 1.231 5.114
3.327 1.358 5.228
3.297 1.490 5.157
3.636 1.531 5.379
3.540 1.744 5.022
3.729 1.933 5.460
3.682 0.404 6.288
3.484 0.509 6.008
3.553 0.621 6.061
3.262 0.582 5.735
3.354 0.646 6.022
3.572 0.775 5.908
2.720 0.713 5.561
3.137 1.049 5.575
3.471 1.084 5.883
3.609 1.193 5.799
2.828 1.087 5.284
3.203 1.171 5.370
3.354 1.320 5.723
3.619 1.290 5.741
2.984 1.473 5.315
3.340 1.620 5.403
3.581 1.541 5.622
2.900 1.673 5.123
3.367 1.728 5.350
3.443 1.880 5.543
3.097 0.706 5.990
3.467 0.838 6.406
3.063 1.096 5.843
3.042 1.215 5.931
3.382 1.218 6.198
2.931 1.395 5.663
3.181 1.426 5.814
3.297 1.401 6.099
2.739 1.564 5.685
3.037 1.567 5.614
3.394 1.687 5.884
2.976 1.693 5.416
3.053 2.020 5.574
3.340 1.879 5.738
3.194 2.293 5.422
3.200 2.130 5.697
3.113 1.019 6.248
2.603 1.390 5.847
3.114 1.558 6.201
3.259 1.390 6.322
2.736 1.515 5.900
3.060 1.667 6.031
3.053 1.945 6.152
2.576 2.016 5.860
2.972 1.878 6.008
3.266 1.963 6.055
2.690 2.179 5.512
3.018 2.269 5.661
3.088 2.451 5.852
2.968 2.421 5.657
3.111 2.509 5.789
2.630 1.662 6.215
2.856 1.669 6.232
2.539 2.097 5.913
2.833 2.005 6.167
3.054 2.028 6.222
2.440 2.388 5.981
2.701 2.456 6.064
3.043 2.375 6.221
2.419 2.508 5.675
2.642 2.755 6.001
3.072 2.606 5.921
2.268 2.090 6.192
2.192 2.456 6.242
2.567 2.266 6.196
2.333 2.651 6.041
2.496 2.597 5.973
2.776 2.652 6.286
1.813 2.229 6.337
1.736 2.651 6.151
2.168 2.740 6.296
1.339 2.619 6.332
3.914 0.092 2.632
4.308 0.129 2.935
3.743 0.321 2.600
3.872 0.291 2.532
4.306 0.396 2.751
4.488 0.563 2.766
3.416 0.586 2.110
3.546 0.387 2.212
3.735 0.770 2.609
4.143 0.751 2.517
4.332 0.664 2.824
4.701 0.757 3.016
3.157 0.519 1.814
3.209 0.815 2.071
3.579 0.717 2.103
3.845 0.842 2.246
3.952 1.142 2.471
4.321 1.156 2.643
4.556 1.286 2.810
2.991 0.782 1.923
3.261 0.930 2.063
3.659 1.142 2.205
3.773 1.268 2.120
4.135 1.161 2.319
4.425 1.380 2.637
4.532 1.467 2.552
3.614 0.034 2.944
3.707 0.011 2.998
3.985 0.366 3.198
4.302 0.407 3.110
3.108 0.192 2.625
3.527 0.405 2.677
3.707 0.544 2.791
4.097 0.612 2.941
4.291 0.594 3.201
3.208 0.534 2.299
3.305 0.747 2.585
3.742 0.662 2.869
3.887 0.938 2.899
4.139 0.913 2.993
4.549 1.106 3.251
3.195 0.841 2.394
3.329 0.983 2.393
3.649 1.022 2.596
3.813 1.060 2.613
4.036 1.054 2.873
2.904 1.081 2.027
3.069 1.154 2.051
3.514 1.184 2.457
3.777 1.223 2.445
3.867 1.351 2.701
4.080 1.591 2.757
3.938 0.189 3.470
4.018 0.200 3.723
3.070 -0.038 2.855
3.421 0.115 2.986
3.473 0.390 3.236
3.891 0.193 3.431
4.115 0.363 3.588
3.182 0.490 2.934
3.382 0.439 2.804
3.503 0.432 3.010
3.808 0.745 3.314
4.070 0.715 3.445
3.092 0.578 2.741
3.338 0.838 2.695
3.648 0.911 2.893
3.737 0.994 3.047
4.088 0.903 3.267
2.948 0.745 2.573
3.221 0.966 2.626
3.465 0.944 2.938
3.730 1.194 3.080
4.158 1.118 2.971
3.093 1.128 2.295
3.355 1.209 2.493
3.497 1.270 2.604
3.713 1.393 2.943
3.610 0.129 3.588
3.876 0.277 3.760
3.953 0.361 3.821
2.718 0.150 2.881
3.044 0.058 3.019
3.274 0.112 3.315
3.415 0.451 3.339
3.674 0.472 3.486
3.812 0.510 3.791
4.348 0.536 3.881
2.942 0.508 3.008
3.030 0.513 3.058
3.352 0.694 3.284
3.683 0.685 3.306
3.912 0.711 3.577
4.295 0.974 3.739
2.805 0.773 2.777
3.056 0.798 3.082
3.369 0.949 3.308
3.714 0.954 3.440
3.977 1.038 3.601
3.058 1.197 2.853
3.463 1.183 2.963
3.621 1.214 3.326
3.204 1.559 3.062
3.835 -0.009 4.057
4.257 -0.011 4.405
2.960 0.098 3.700
3.235 0.126 3.896
3.596 0.355 3.989
3.775 0.193 4.094
4.158 0.296 4.300
2.753 0.274 3.309
3.002 0.424 3.376
3.415 0.532 3.700
3.516 0.576 3.702
3.906 0.732 3.877
3.939 0.667 4.104
2.774 0.639 3.166
3.033 0.474 3.479
3.266 0.650 3.591
3.457 0.705 3.711
3.823 0.860 3.949
4.069 0.909 3.894
2.829 0.714 3.325
3.185 1.041 3.552
3.360 1.023 3.716
3.862 1.043 3.765
3.555 -0.068 4.151
3.751 0.014 4.528
3.950 0.168 4.701
4.278 0.176 4.753
2.651 -0.072 3.619
2.838 0.173 3.912
3.205 0.316 3.890
3.508 0.381 4.117
3.737 0.391 4.441
3.960 0.498 4.410
4.061 0.555 4.547
2.492 0.398 3.591
2.970 0.552 3.783
3.020 0.496 3.802
3.339 0.636 4.108
3.510 0.612 4.035
3.807 0.838 4.415
4.112 0.889 4.516
2.904 0.788 3.695
3.177 0.625 3.736
3.460 0.867 3.928
3.439 1.046 3.940
3.702 0.932 4.144
2.979 0.973 3.756
3.338 1.170 3.785
3.709 1.355 3.812
3.702 0.027 5.044
3.926 0.167 5.021
2.949 0.005 4.247
3.389 0.128 4.396
3.504 0.077 4.588
3.666 0.239 4.918
3.948 0.398 5.013
4.394 0.351 5.169
2.501 0.088 3.958
2.849 0.203 4.137
3.058 0.334 4.130
3.382 0.297 4.345
3.421 0.502 4.415
3.652 0.461 4.709
3.968 0.575 4.701
4.282 0.748 5.074
2.669 0.380 3.907
3.044 0.581 4.150
3.220 0.735 4.318
3.575 0.790 4.280
3.852 0.805 4.528
3.961 0.796 4.761
4.356 0.938 4.779
2.946 0.968 4.022
3.195 1.032 4.153
3.324 0.912 4.200
3.625 1.179 4.350
3.941 1.109 4.682
4.283 -0.056 5.563
3.391 0.157 4.998
3.597 0.210 5.143
3.983 0.198 5.313
4.029 0.247 5.273
2.638 0.055 4.329
2.792 0.137 4.647
3.217 0.080 4.887
3.352 0.415 4.853
3.583 0.307 4.941
3.966 0.490 5.040
4.128 0.481 5.455
2.656 0.248 4.386
2.743 0.479 4.374
3.078 0.544 4.691
3.265 0.444 4.758
3.650 0.709 4.786
3.945 0.901 4.965
4.110 0.703 5.088
2.804 0.755 4.292
3.199 0.859 4.668
3.268 0.938 4.800
3.583 0.868 4.886
3.937 1.140 5.048
4.013 1.155 5.029
2.897 1.157 4.296
3.133 1.066 4.483
3.369 1.140 4.792
3.741 1.368 4.828
4.912 0.170 6.080
5.263 0.105 6.263
4.991 0.108 6.087
5.038 0.347 5.971
5.245 0.285 6.169
5.370 0.391 6.375
4.453 0.203 5.663
4.756 0.158 5.762
4.985 0.297 6.058
5.016 0.643 5.957
4.393 0.389 5.629
4.691 0.332 5.551
5.043 0.442 5.745
4.370 0.647 5.435
4.580 0.628 5.702
4.275 0.925 5.333
4.312 1.343 5.272
4.649 0.146 6.239
4.680 0.251 6.104
4.165 0.254 5.815
4.387 0.169 6.039
4.834 0.286 6.287
4.890 0.515 6.114
5.102 0.747 6.146
4.257 0.418 5.865
4.489 0.480 6.061
4.859 0.760 6.084
4.717 0.973 6.027
5.059 1.055 6.195
4.317 0.624 5.548
4.471 0.908 5.785
4.804 0.831 6.007
4.775 1.141 5.853
4.098 1.021 5.486
4.290 1.118 5.626
4.540 1.107 5.755
3.992 1.283 5.540
4.512 1.252 5.526
3.979 1.446 5.339
4.299 0.147 6.335
4.202 0.142 6.020
4.059 0.605 6.089
4.177 0.639 6.156
4.594 1.108 6.069
4.138 0.889 5.952
4.332 0.785 5.985
4.594 0.929 6.155
4.419 1.138 6.139
4.076 1.190 5.936
4.396 1.129 5.920
4.400 1.417 6.141
4.027 1.387 5.702
4.145 1.493 5.961
3.821 1.572 5.646
4.302 1.771 5.589
3.922 0.700 6.202
3.964 1.029 6.165
3.768 1.185 5.994
4.171 1.415 6.316
4.253 1.743 6.338
3.729 1.367 6.028
3.953 1.492 6.022
4.253 1.677 6.098
3.702 1.734 5.650
4.093 1.911 5.942
3.751 1.895 5.636
3.877 2.113 5.702
3.781 1.243 6.198
3.544 1.644 6.241
3.741 1.704 6.006
3.995 1.789 6.150
3.596 2.000 6.070
3.845 2.019 6.024
3.642 2.214 5.713
3.766 2.435 5.915
3.630 2.516 5.556
3.362 1.788 6.286
3.463 2.153 6.063
3.388 2.513 6.138
3.544 2.395 6.079
3.781 2.974 6.065
3.285 2.754 5.967
3.548 2.886 6.113
3.867 2.779 6.163
3.297 2.640 6.287
3.186 2.857 6.096
5.932 0.336 6.249
5.022 -0.047 6.134
5.250 0.218 6.118
4.939 0.036 6.072
5.060 0.231 5.898
5.226 0.240 6.184
5.520 0.361 6.208
4.495 0.230 5.684
4.841 0.078 5.967
4.960 0.382 5.846
4.844 0.673 5.902
4.423 0.479 5.461
4.763 0.585 5.614
4.791 0.584 5.916
4.382 0.602 5.556
4.583 0.699 5.521
4.239 0.930 5.367
4.148 1.260 5.079
6.010 1.196 0.633
6.278 1.499 0.716
5.685 1.188 0.849
5.931 1.223 1.152
6.285 1.471 1.168
5.783 1.520 1.047
6.263 1.579 1.086
6.036 1.993 0.833
5.216 0.988 0.966
5.512 1.300 0.981
5.627 1.454 1.248
5.968 1.355 1.410
5.545 1.408 1.005
5.789 1.716 1.169
5.932 1.740 1.153
5.837 1.910 1.010
4.746 1.221 1.081
4.998 1.295 1.241
5.321 1.425 1.305
5.566 1.545 1.404
5.668 1.346 1.684
4.981 1.379 1.060
5.295 1.488 1.319
5.441 1.828 1.293
5.847 1.644 1.569
5.401 1.821 1.119
5.675 2.068 1.524
4.157 0.890 1.059
4.559 1.192 1.047
4.736 1.132 1.415
5.019 1.155 1.470
5.011 1.408 1.530
5.449 1.389 1.673
5.656 1.680 1.869
4.500 1.506 0.925
4.688 1.538 1.171
4.839 1.494 1.310
5.276 1.657 1.539
5.506 1.887 1.666
5.717 1.722 1.616
2.885 1.031 0.114
5.381 1.907 1.397
5.644 2.230 1.635
2.958 1.464 0.272
3.337 1.662 0.309
2.940 1.817 -0.067
3.888 0.954 1.047
3.984 0.994 1.392
4.332 1.341 1.515
4.515 1.385 1.652
4.877 1.465 1.652
4.885 1.510 1.894
5.278 1.521 2.037
5.499 1.783 2.246
3.313 1.242 0.843
3.465 1.178 0.879
3.694 1.301 0.880
3.970 1.452 1.307
4.246 1.376 1.186
4.378 1.428 1.295
4.848 1.775 1.547
5.079 1.659 1.704
5.313 1.945 1.864
5.316 2.047 1.970
2.288 0.928 0.176
2.385 1.072 0.295
2.582 1.327 0.205
2.887 1.270 0.367
3.182 1.307 0.543
3.341 1.508 0.776
3.712 1.605 0.899
3.840 1.583 1.084
4.235 1.725 1.047
4.420 1.725 1.227
4.789 2.021 1.578
2.459 1.475 0.065
2.694 1.508 0.137
2.903 1.473 0.444
3.121 1.643 0.577
3.277 1.881 0.753
3.525 1.714 0.706
2.704 1.822 0.248
2.974 1.954 0.371
3.080 1.794 0.538
3.272 1.917 0.569
2.798 2.258 0.166
2.996 2.234 0.164
2.923 2.397 -0.090
2.478 2.623 0.135
3.184 1.067 0.985
3.418 1.084 1.329
3.485 1.140 1.395
3.961 1.214 1.466
4.103 1.296 1.578
4.226 1.263 1.792
4.629 1.426 1.851
4.973 1.561 1.956
4.948 1.574 2.347
2.731 0.945 0.716
2.939 1.182 0.957
3.412 1.344 1.020
3.601 1.454 1.188
3.658 1.357 1.336
4.077 1.659 1.684
4.159 1.648 1.624
4.419 1.851 1.897
4.746 1.941 2.072
1.887 1.097 0.389
2.149 1.263 0.518
2.675 1.170 0.460
2.893 1.463 0.817
2.898 1.555 0.747
3.165 1.443 0.912
3.516 1.542 0.988
3.790 1.707 1.330
3.868 1.923 1.511
4.274 1.870 1.678
1.858 1.426 0.020
1.939 1.327 0.341
2.389 1.507 0.245
2.632 1.575 0.573
2.783 1.627 0.573
2.943 1.662 0.855
3.365 1.723 0.761
3.533 1.812 1.007
3.711 2.120 1.113
2.034 1.507 0.226
2.291 1.752 0.210
2.445 1.948 0.463
2.818 1.934 0.469
2.947 2.054 0.711
3.238 2.031 0.714
3.426 2.038 0.892
2.234 2.013 0.074
2.467 2.177 0.337
2.781 2.090 0.497
2.939 2.221 0.628
3.278 2.311 0.760
2.389 2.410 0.029
2.582 2.531 0.337
2.739 2.402 0.473
2.746 2.794 0.169
1.988 2.584 0.246
2.316 2.731 0.294
2.335 2.791 0.369
2.803 2.914 0.380
2.213 2.939 0.189
2.310 3.229 0.353
3.437 6.234 -0.078
3.796 6.273 0.301
2.980 1.150 1.419
3.059 1.235 1.325
3.372 1.195 1.503
3.697 1.365 1.896
4.056 1.450 1.870
4.052 1.503 1.943
4.366 1.452 2.230
4.621 1.623 2.267
2.531 1.134 0.933
2.923 1.407 1.163
3.277 1.458 1.464
3.425 1.544 1.478
3.703 1.484 1.635
3.913 1.668 1.712
4.029 1.782 2.037
4.430 1.861 1.895
2.137 1.125 0.668
2.403 1.336 0.732
2.535 1.559 0.853
2.892 1.574 1.005
3.195 1.775 1.213
3.246 1.627 1.252
3.456 1.955 1.476
3.868 1.782 1.667
4.054 2.114 1.880
1.825 1.429 0.410
2.127 1.558 0.642
2.184 1.676 0.563
2.659 1.780 0.740
2.905 1.949 0.984
3.190 2.015 1.133
3.361 1.974 1.344
3.425 2.151 1.284
3.885 2.080 1.595
1.763 1.692 0.424
1.903 1.965 0.341
2.397 2.025 0.676
2.438 1.932 0.591
2.823 2.069 0.838
3.007 2.136 1.141
3.284 2.303 1.216
1.582 1.973 0.037
1.635 1.914 0.234
2.037 2.157 0.212
2.187 2.136 0.584
2.535 2.174 0.661
2.837 2.495 0.821
3.001 2.554 1.024
3.110 2.577 1.008
1.822 2.318 0.155
2.012 2.466 0.084
2.084 2.471 0.425
2.374 2.515 0.568
2.696 2.566 0.492
2.840 2.715 0.663
1.887 2.700 0.023
2.153 2.853 0.190
2.353 2.926 0.346
2.572 2.900 0.629
6.162 1.548 1.524
6.123 1.740 1.432
6.247 2.012 1.152
6.220 2.418 1.144
6.044 1.712 1.871
5.925 1.905 1.596
5.853 2.103 1.409
6.216 2.254 1.597
5.988 2.460 1.402
6.076 2.574 1.469
6.175 2.869 1.425
5.832 1.583 2.082
6.306 1.614 2.280
5.800 1.789 1.845
6.116 1.903 1.966
5.706 2.343 1.779
6.028 2.345 1.974
6.073 2.725 1.680
5.888 1.873 2.197
5.743 2.111 2.171
5.270 5.099 4.716
5.617 4.970 4.873
5.958 5.232 4.846
5.237 5.128 4.221
5.419 5.408 4.526
5.600 5.325 4.560
5.899 5.577 4.658
6.234 5.488 4.950
4.912 5.250 4.078
5.182 5.511 4.191
5.194 5.440 4.472
5.642 5.599 4.639
5.764 5.870 4.744
5.987 5.963 4.896
4.552 5.693 3.859
4.902 5.665 4.069
5.059 5.834 4.090
5.129 5.900 4.213
5.465 5.852 4.400
5.636 6.171 4.438
6.003 6.160 4.815
6.232 6.337 4.831
4.247 5.790 3.685
4.562 5.915 3.854
4.839 5.991 3.848
5.077 5.968 4.108
5.359 6.154 4.212
5.593 6.131 4.358
4.250 5.677 3.569
4.214 6.171 3.549
4.475 5.971 3.647
4.708 6.222 3.611
3.730 5.919 3.227
3.970 5.976 3.234
4.124 5.883 3.451
3.782 5.986 3.156
3.980 6.289 3.295
5.371 4.924 4.644
5.691 4.977 4.660
5.983 5.343 4.834
5.079 5.150 4.773
5.176 5.063 4.849
5.344 5.145 4.863
4.632 5.317 4.313
5.015 5.252 4.468
5.183 5.304 4.732
5.416 5.551 4.895
5.702 5.483 5.047
5.881 5.619 5.136
4.443 5.286 4.066
4.582 5.581 4.363
5.020 5.549 4.493
5.117 5.804 4.600
5.390 5.755 4.656
5.507 5.865 4.913
5.770 6.001 4.992
4.181 5.634 3.882
4.451 5.734 4.037
4.569 5.783 4.104
4.826 5.992 4.234
5.057 5.928 4.557
5.231 6.115 4.760
5.754 6.090 4.743
5.871 6.262 4.782
4.134 5.637 4.042
4.226 5.960 3.907
4.277 5.894 3.916
4.643 5.946 4.207
4.891 6.162 4.256
5.075 6.130 4.377
3.952 5.709 3.651
4.012 5.926 3.891
3.997 6.166 3.613
4.420 6.268 3.917
3.397 5.810 3.478
3.790 6.104 3.498
4.091 6.158 3.679
3.608 6.334 3.229
4.937 4.988 4.700
5.209 4.962 4.995
5.561 5.163 4.857
4.544 4.957 4.783
4.799 5.208 5.062
4.973 5.061 5.189
5.154 5.343 5.322
4.181 5.224 4.688
4.558 5.377 4.648
4.844 5.235 4.902
4.989 5.394 5.022
5.264 5.454 5.153
5.593 5.518 5.395
4.114 5.288 4.209
4.103 5.393 4.593
4.481 5.610 4.498
4.684 5.732 4.789
5.123 5.623 4.930
5.132 5.913 4.977
5.415 6.029 5.087
3.965 5.250 4.338
3.876 5.615 4.237
4.276 5.645 4.219
4.417 5.954 4.320
4.754 5.767 4.499
5.030 5.923 4.671
5.058 6.052 4.841
5.339 6.142 5.161
3.660 5.697 3.963
3.848 5.708 4.189
3.924 5.891 4.064
4.232 6.050 4.257
4.550 6.053 4.428
4.700 6.289 4.604
3.494 5.689 3.698
3.549 5.778 3.851
3.982 5.845 4.190
3.847 6.261 3.904
4.050 6.176 4.216
3.312 5.910 3.639
3.752 6.138 3.921
3.912 6.044 3.927
3.339 6.384 3.708
4.421 5.014 4.764
4.868 5.001 5.073
4.941 5.284 4.984
5.255 5.318 5.327
4.223 5.131 4.967
4.461 5.244 4.972
4.664 5.041 5.161
4.850 5.178 5.394
5.060 5.260 5.502
3.821 5.195 4.545
4.051 5.294 4.678
4.224 5.231 4.989
4.472 5.425 4.968
4.869 5.416 5.249
5.230 5.645 5.278
5.271 5.638 5.593
3.915 5.149 4.539
3.769 5.513 4.695
4.171 5.629 4.625
4.395 5.571 4.676
4.609 5.731 4.985
4.704 5.879 5.013
4.944 5.942 5.360
5.325 6.069 5.294
3.938 5.537 4.539
3.802 5.690 4.351
4.161 5.668 4.605
4.166 5.912 4.630
4.689 6.151 4.849
4.789 6.104 4.855
4.920 6.135 5.127
3.433 5.668 4.312
3.911 5.783 4.499
3.740 6.123 4.454
4.041 5.982 4.405
4.322 6.277 4.656
4.655 6.420 4.828
3.234 5.823 4.029
3.612 6.014 4.180
3.887 6.091 4.270
3.858 6.192 4.217
3.223 6.231 4.057
3.409 6.157 4.108
3.731 6.387 4.203
4.379 4.889 5.088
4.730 5.058 5.317
4.991 5.007 5.444
4.096 5.085 5.048
4.463 5.050 5.131
4.509 5.297 5.121
4.902 5.211 5.183
5.156 5.296 5.514
3.673 4.930 4.888
4.013 5.126 5.082
4.245 5.159 5.393
4.507 5.155 5.324
4.665 5.391 5.446
4.843 5.458 5.686
3.811 4.942 5.012
3.657 5.344 4.949
3.806 5.275 5.186
4.138 5.378 5.211
4.480 5.397 5.437
4.742 5.762 5.503
4.862 5.843 5.532
3.840 5.122 5.004
3.631 5.521 4.789
3.981 5.745 4.857
4.041 5.872 5.204
4.380 5.820 5.173
4.603 5.850 5.443
5.024 5.872 5.549
3.659 5.403 4.642
3.604 5.704 4.593
3.846 5.842 4.816
4.267 5.864 4.996
4.347 6.085 5.133
4.475 6.174 5.295
4.781 6.400 5.432
3.225 5.805 4.680
3.495 5.822 4.544
3.606 6.004 4.559
3.967 6.324 4.791
4.040 6.216 4.936
3.362 5.896 4.313
3.557 6.054 4.610
2.937 6.144 4.172
3.357 6.336 4.212
4.316 4.496 5.505
4.683 4.654 5.781
3.995 4.838 5.263
4.212 5.048 5.518
4.488 5.013 5.683
4.680 5.093 5.725
3.711 5.053 4.872
4.000 4.996 5.158
4.305 5.112 5.406
4.460 5.332 5.504
4.878 5.483 5.492
5.013 5.510 5.574
3.705 4.865 5.103
3.708 5.169 5.146
3.859 5.110 5.443
4.171 5.139 5.392
4.378 5.319 5.671
4.560 5.292 5.842
4.690 5.628 6.096
3.673 5.114 5.170
3.679 5.382 5.196
3.783 5.382 5.419
4.150 5.487 5.483
4.150 5.572 5.671
4.608 5.772 5.558
4.864 5.905 5.981
3.507 5.215 5.256
3.495 5.629 5.165
3.901 5.768 5.305
4.112 5.819 5.390
4.122 5.933 5.516
4.563 5.835 5.448
4.873 5.958 5.841
3.513 5.542 5.169
3.543 5.904 4.896
3.838 6.072 4.985
3.886 6.200 5.296
4.112 6.104 5.201
4.327 6.214 5.390
3.427 5.939 4.886
3.454 6.276 4.657
3.575 6.221 4.848
3.418 6.250 4.858
3.786 3.259 6.107
3.252 2.957 5.952
3.471 3.095 5.944
3.764 3.245 6.110
3.404 3.390 5.861
3.870 4.197 5.724
4.260 4.121 5.869
3.718 4.407 5.474
3.938 4.261 5.861
4.206 4.535 5.834
4.495 4.569 6.122
3.544 4.335 5.505
3.647 4.555 5.461
4.040 4.663 5.603
3.988 4.606 5.827
4.271 4.663 5.864
4.549 4.835 5.976
3.693 4.449 5.397
3.494 4.906 5.366
3.772 4.889 5.407
4.072 5.097 5.692
4.345 5.226 5.845
4.646 5.079 5.928
4.919 5.254 6.089
3.464 4.654 5.232
3.567 5.129 5.188
3.681 5.016 5.255
3.954 5.335 5.562
4.419 5.446 5.664
4.484 5.443 5.870
4.966 5.431 5.870
3.569 5.159 5.253
3.406 5.199 5.478
3.616 5.260 5.601
3.816 5.239 5.761
4.119 5.484 5.972
4.474 5.617 5.946
4.781 5.537 6.108
3.492 5.178 5.351
3.752 5.655 5.650
3.968 5.509 5.503
4.122 5.601 5.836
4.383 5.700 5.992
4.530 5.893 6.129
3.701 5.752 5.260
3.832 6.034 5.496
4.190 5.958 5.669
4.423 5.947 5.908
3.597 5.914 5.399
3.788 6.183 5.322
3.157 3.141 6.155
3.278 3.292 6.142
3.684 3.462 6.058
3.145 3.346 6.062
3.514 3.309 6.181
3.557 3.556 6.060
3.543 3.644 6.163
3.951 3.823 6.083
3.153 3.740 5.794
3.222 3.726 5.955
3.697 3.894 6.141
3.484 4.162 6.001
3.936 4.113 6.138
3.911 4.280 6.139
3.211 4.073 5.748
3.442 4.085 5.889
3.666 4.350 5.855
3.752 4.347 6.136
4.074 4.581 6.019
4.405 4.531 6.312
3.391 4.403 5.818
3.569 4.694 5.633
3.736 4.686 5.769
4.118 4.740 5.954
4.231 4.845 6.193
3.357 4.743 5.638
3.406 4.816 5.663
3.543 4.896 5.690
3.927 4.947 5.930
4.334 5.206 6.053
4.563 5.113 6.302
3.341 4.774 5.541
3.341 5.118 5.452
3.791 5.259 5.603
4.058 5.489 5.802
4.049 5.533 5.770
4.544 5.669 5.921
4.567 5.586 6.145
3.436 5.209 5.360
3.377 5.270 5.985
3.698 5.351 6.061
4.101 5.418 6.080
3.346 5.576 5.876
3.741 5.631 5.799
3.975 5.787 5.973
4.305 5.942 6.304
2.946 3.146 6.309
3.053 3.542 6.137
2.953 3.741 6.169
3.194 3.842 6.220
3.307 4.166 6.128
2.740 4.093 5.798
3.279 4.053 6.071
3.533 4.293 6.055
3.270 4.549 6.152
3.499 4.398 6.072
3.109 4.191 5.897
3.496 4.480 6.089
3.255 4.685 5.865
3.637 4.923 6.110
3.795 4.970 6.205
3.208 4.842 6.056
3.355 4.921 5.897
3.592 5.117 5.909
3.695 5.234 6.219
4.128 5.197 6.271
3.268 4.915 5.870
3.588 5.393 5.807
3.855 5.506 5.997
3.906 5.379 6.174
3.271 5.291 6.017
3.621 5.434 6.377
3.679 5.885 6.326
2.731 4.093 6.040
2.952 4.561 6.185
3.142 4.770 6.304
3.049 4.667 6.342
3.296 5.217 6.203
3.435 5.410 6.223
3.572 5.625 6.204
6.240 4.936 3.787
6.069 5.288 3.565
6.065 4.737 4.120
6.121 5.293 3.882
5.926 5.537 3.734
6.140 5.577 3.627
6.386 5.846 3.715
6.080 5.988 3.594
6.066 4.951 4.003
6.087 5.033 4.397
6.329 5.064 4.467
6.033 5.114 4.212
6.227 5.253 4.312
5.764 5.444 3.900
5.823 5.624 4.027
5.994 5.517 4.106
5.602 5.808 3.807
5.899 5.724 4.075
6.200 5.920 4.178
5.740 6.172 3.729
6.043 6.110 4.040
5.870 5.090 4.196
6.058 4.993 4.285
5.687 4.994 4.443
5.907 5.004 4.578
5.447 5.303 4.151
5.832 5.383 4.287
5.886 5.261 4.436
6.119 5.552 4.617
5.264 5.277 3.929
5.471 5.585 4.008
5.866 5.462 4.174
5.813 5.547 4.387
6.228 5.756 4.530
5.210 5.536 4.031
5.347 5.872 4.014
5.737 5.806 4.156
5.962 5.859 4.165
6.184 6.095 4.478
5.218 5.810 3.634
5.471 6.179 4.060
5.678 5.999 4.151
5.965 6.356 4.330
5.905 5.046 4.398
6.164 5.177 4.537
5.415 4.933 4.760
5.524 5.063 4.608
5.896 5.059 4.799
4.970 5.123 4.320
5.393 5.309 4.443
5.658 5.239 4.789
5.936 5.586 4.663
5.984 5.685 4.775
4.936 5.455 3.982
5.155 5.617 4.373
5.322 5.718 4.379
5.541 5.666 4.670
5.670 5.794 4.568
6.066 5.934 4.756
4.568 5.492 3.994
4.688 5.581 4.028
5.165 5.721 4.171
5.362 5.903 4.369
5.395 6.066 4.489
5.698 5.941 4.501
6.025 6.128 4.687
6.289 6.259 4.926
4.326 5.834 3.741
4.596 5.845 3.697
4.842 5.925 3.808
4.870 5.983 3.977
5.231 6.269 4.264
5.423 6.344 4.435
4.313 5.715 3.537
4.171 5.944 3.442
4.602 6.025 3.646
4.629 6.105 3.699
3.765 5.807 3.056
3.993 5.991 3.297
4.318 6.086 3.370
3.750 6.117 3.125
3.961 6.274 3.311
5.443 5.027 4.653
5.733 5.245 4.910
5.775 5.284 4.950
