6.352 2.499 5.996
6.202 2.719 5.675
6.246 2.960 5.608
6.186 2.679 5.261
6.082 3.132 5.359
5.722 2.362 6.204
5.988 2.795 6.071
6.175 3.052 6.150
6.086 3.148 6.179
5.649 2.529 5.788
5.778 2.759 5.731
5.999 3.010 5.852
6.311 3.177 5.608
5.493 2.730 5.627
5.830 2.747 5.605
5.877 3.202 5.473
5.916 3.338 5.534
6.196 3.546 5.305
5.237 2.250 6.059
5.539 2.581 6.096
5.670 2.928 6.077
5.811 3.160 6.166
5.842 3.609 5.970
5.950 3.839 6.040
5.478 2.284 5.725
5.484 2.713 5.936
5.592 2.951 5.725
5.686 3.393 5.839
5.747 3.345 5.806
6.205 3.625 5.903
5.336 2.450 5.545
5.363 2.564 5.625
5.523 3.155 5.397
5.789 3.394 5.541
5.730 3.636 5.464
6.129 3.948 5.522
4.869 2.108 6.257
5.059 2.615 6.389
5.278 2.887 6.327
5.558 3.055 6.080
5.615 3.429 6.118
5.652 3.445 6.139
5.747 3.991 6.315
5.075 2.442 6.098
4.916 2.558 6.121
5.312 2.798 6.038
5.295 3.048 6.012
5.510 3.416 5.815
5.671 3.773 6.028
5.643 3.831 5.838
4.747 1.916 5.552
4.920 2.221 5.520
5.105 2.639 5.643
5.001 2.819 5.542
5.177 3.001 5.591
5.600 3.289 5.629
5.452 3.645 5.573
5.673 4.082 5.498
5.600 3.832 6.404
4.424 2.080 5.887
4.506 2.027 6.078
4.702 2.357 5.989
4.842 2.700 5.938
4.893 2.831 5.874
5.209 3.203 6.068
5.210 3.362 6.012
5.319 3.835 5.902
5.373 3.945 5.900
4.044 1.576 5.811
4.379 2.088 5.633
4.426 2.285 5.906
4.617 2.470 5.730
4.741 2.768 5.738
4.790 2.846 5.612
4.907 3.144 5.719
5.320 3.497 5.649
5.167 3.737 5.659
5.442 4.211 5.577
3.839 1.826 6.273
4.037 2.086 6.126
4.331 2.402 6.219
4.485 2.504 6.197
4.619 2.941 6.100
4.630 3.018 6.153
4.967 3.347 6.225
4.946 3.793 6.054
5.232 4.043 5.988
5.197 4.195 6.018
3.874 1.446 5.844
3.955 1.809 5.841
4.168 2.162 6.009
4.144 2.238 5.889
4.416 2.471 5.924
4.387 2.997 5.825
4.490 3.215 5.672
4.640 3.365 5.819
5.075 3.778 5.680
4.990 3.788 5.895
5.223 4.033 5.789
3.920 1.787 6.041
3.989 2.273 6.195
4.141 2.316 6.112
4.079 2.714 6.246
4.269 2.878 6.181
4.347 3.364 6.107
4.593 3.595 6.170
4.805 3.697 6.014
4.808 3.921 5.989
4.906 4.132 6.132
3.630 1.576 6.042
3.675 1.990 5.799
3.792 2.335 5.908
3.949 2.461 5.955
4.265 2.796 5.996
4.146 2.861 5.978
4.499 3.128 5.980
4.462 3.661 5.704
4.633 3.835 5.795
4.694 3.925 5.872
3.772 2.345 6.162
3.871 2.420 6.362
3.787 2.975 6.427
4.046 3.010 6.262
4.214 3.426 6.254
4.442 3.608 6.244
4.608 3.957 6.334
4.524 4.162 6.373
3.423 1.743 5.930
3.361 2.046 5.847
3.715 2.335 6.136
3.723 2.780 5.852
3.837 2.863 5.810
4.156 3.301 5.859
4.275 3.501 6.058
4.110 3.595 5.832
4.320 4.102 5.918
3.297 2.314 6.149
3.437 2.518 6.167
3.486 2.754 6.123
3.623 3.082 6.076
3.583 3.419 6.102
3.897 3.670 6.010
4.018 3.873 5.859
6.286 3.894 6.064
6.337 4.110 5.779
6.037 4.056 5.511
6.255 4.213 5.535
5.863 4.073 6.185
6.286 4.467 6.235
6.318 4.686 5.907
5.995 4.217 5.844
6.185 4.412 5.829
6.204 4.696 5.733
6.059 4.592 5.704
6.164 4.899 5.575
5.930 4.146 5.575
5.848 4.277 5.640
6.131 4.685 5.592
5.760 4.367 6.130
5.830 4.161 5.845
5.909 4.442 5.911
5.860 4.968 5.523
5.715 4.198 5.660
5.888 4.482 5.607
5.740 4.900 5.697
5.518 4.598 6.126
5.193 4.313 5.671
2.895 2.677 6.307
3.041 2.832 6.026
3.238 3.220 6.033
3.427 3.437 6.067
3.595 3.718 6.132
2.943 3.097 6.276
3.015 3.395 6.216
3.271 3.646 6.061
6.216 0.179 2.583
6.145 0.093 2.460
6.008 0.150 2.079
6.119 0.407 1.999
6.125 0.392 1.837
6.261 0.517 1.748
5.990 0.257 1.329
6.051 0.438 1.495
6.247 0.717 1.359
5.788 -0.078 1.107
5.990 0.159 1.028
6.198 0.389 1.046
6.120 0.822 1.072
5.957 0.718 1.017
6.037 0.752 0.752
6.114 1.075 0.740
6.139 1.283 0.479
6.110 1.468 0.123
5.817 0.006 2.579
5.976 0.268 2.801
5.786 -0.123 2.538
5.843 0.395 2.440
5.714 0.149 2.166
5.740 0.499 2.127
5.892 0.426 2.000
5.815 0.071 1.871
5.805 0.233 1.703
5.875 0.507 1.708
6.101 0.935 1.795
5.538 0.127 1.706
5.670 0.235 1.614
5.727 0.674 1.415
6.048 1.033 1.410
6.058 1.058 1.451
6.127 1.331 1.184
6.280 1.356 1.144
6.305 1.611 0.911
5.947 1.397 0.595
6.311 1.679 0.769
6.302 1.750 0.499
6.057 2.101 0.104
5.583 0.288 2.931
5.472 0.250 2.382
5.435 0.075 2.046
5.753 0.431 2.153
5.295 0.153 2.076
5.372 -0.164 1.539
6.361 2.045 1.309
6.253 2.343 0.867
5.990 1.988 0.732
6.076 2.242 0.698
6.152 2.347 0.573
5.929 2.096 0.463
6.280 2.352 0.422
6.054 2.135 0.152
6.015 2.570 -0.055
6.167 2.813 0.044
5.309 0.173 2.919
5.054 0.089 2.437
5.272 0.479 2.648
5.247 -0.006 2.241
5.179 0.250 1.968
6.032 2.578 1.440
6.249 2.938 1.503
6.206 2.482 0.989
6.326 2.980 1.053
5.757 2.503 0.652
6.092 2.740 0.746
6.215 2.960 0.808
6.195 3.022 0.861
5.658 2.477 0.636
5.935 2.711 0.523
6.135 2.878 0.439
6.335 3.285 0.376
5.967 2.823 0.132
6.157 2.770 0.304
6.013 3.126 0.171
6.312 3.517 0.301
4.941 0.001 3.266
4.996 0.037 2.823
4.872 0.299 2.522
4.905 0.202 2.251
5.970 2.950 1.497
6.013 3.043 1.532
6.059 2.999 1.133
6.138 3.370 0.977
6.210 3.660 0.970
5.742 2.715 0.776
5.831 3.174 0.678
6.148 3.292 0.809
6.274 3.560 0.923
5.804 2.690 0.493
5.900 3.069 0.407
5.970 3.465 0.437
6.253 3.449 0.514
5.430 2.793 0.243
5.784 2.927 0.252
5.831 3.467 0.144
5.877 3.606 0.220
4.913 0.188 3.186
4.501 -0.016 3.457
4.853 0.239 3.184
4.667 0.096 3.018
4.874 0.176 3.069
4.628 0.202 2.604
4.564 0.014 2.481
6.019 3.596 1.531
5.746 3.449 1.362
5.863 3.567 1.321
5.715 3.027 0.905
5.616 3.353 0.821
6.056 3.559 1.016
5.412 2.973 0.567
5.415 3.025 0.517
5.599 3.520 0.729
5.687 3.619 0.711
5.483 3.028 0.448
5.604 3.319 0.172
5.653 3.383 0.480
5.623 3.558 0.389
5.154 3.097 0.031
5.458 3.101 -0.024
5.496 3.379 -0.031
5.802 3.686 -0.022
4.924 0.330 3.462
4.492 -0.097 3.359
4.659 0.115 3.292
4.419 0.173 3.478
4.472 0.373 3.287
4.243 0.263 2.952
4.431 0.319 3.114
4.351 0.324 2.706
5.849 3.765 1.433
5.357 3.210 0.921
5.404 3.649 1.137
5.747 3.782 1.084
5.238 3.313 0.782
5.320 3.571 0.744
5.550 3.947 0.727
5.130 3.215 0.548
5.398 3.208 0.485
5.523 3.439 0.269
5.461 3.996 0.412
4.933 3.193 0.169
5.253 3.311 0.050
5.388 3.573 -0.001
5.381 3.783 0.214
4.653 -0.116 4.161
4.397 0.187 3.857
4.586 0.193 4.132
4.378 -0.024 3.577
4.460 0.447 3.627
4.303 0.154 3.435
4.553 0.470 3.411
4.020 0.042 3.555
4.286 0.383 3.331
4.419 0.405 3.534
3.970 0.007 3.102
4.244 0.280 3.348
3.983 0.121 2.759
5.280 3.639 0.931
5.300 3.896 0.929
5.023 3.538 0.716
5.112 3.820 0.632
5.263 3.834 0.611
4.708 3.108 0.406
4.819 3.610 0.497
5.011 3.707 0.533
5.398 3.849 0.439
4.809 3.092 0.315
4.857 3.662 0.136
5.120 3.782 0.126
5.317 3.972 0.074
6.002 3.172 5.045
6.180 3.384 5.044
6.270 3.414 4.789
4.595 0.027 4.458
6.363 3.424 4.477
4.268 0.025 4.477
4.564 0.604 4.172
4.135 0.229 4.191
4.586 0.474 3.994
4.133 0.382 3.857
4.477 0.620 3.682
3.890 -0.126 3.458
4.181 0.175 3.366
4.266 0.615 3.508
3.638 0.026 3.688
4.034 0.270 3.574
4.014 0.764 3.408
3.823 0.301 3.146
3.733 0.332 3.224
4.994 3.903 0.993
5.170 4.004 0.942
4.604 3.198 0.605
4.730 3.787 0.447
4.708 3.753 0.554
5.180 4.264 0.541
4.552 3.550 0.394
4.497 3.766 0.272
4.717 3.771 0.119
4.931 4.105 0.392
4.184 3.030 -0.115
4.357 3.383 -0.101
5.554 2.715 5.259
5.852 3.083 5.058
6.180 3.531 5.197
6.187 3.648 5.289
4.159 -0.166 5.029
4.144 0.420 4.982
4.225 0.646 5.016
5.781 3.165 4.944
5.795 3.418 5.056
5.924 3.600 5.010
4.141 0.168 4.736
4.071 0.140 4.825
4.332 0.518 4.638
4.337 0.853 4.562
6.029 3.757 4.438
3.950 0.054 4.373
4.034 0.184 4.530
4.256 0.605 4.331
4.293 0.779 4.297
3.842 0.179 4.075
3.890 0.345 4.161
4.114 0.589 4.198
4.246 0.795 4.025
3.759 0.270 3.856
3.815 0.482 3.742
4.080 0.493 3.848
4.303 1.065 3.991
3.897 0.250 3.695
3.892 0.409 3.570
3.988 0.752 3.390
3.328 0.197 3.546
3.334 0.126 3.641
3.639 0.508 3.583
3.762 0.801 3.715
3.931 1.217 3.520
3.329 -0.116 3.177
3.588 0.380 3.287
3.640 0.659 3.290
4.503 3.528 0.779
4.626 3.795 0.579
4.448 3.883 0.802
4.887 4.296 0.685
4.059 3.128 0.394
4.289 3.658 0.312
4.473 3.909 0.485
4.672 3.891 0.217
4.761 4.256 0.225
3.893 2.866 0.109
4.035 3.296 0.193
4.209 3.682 -0.002
4.425 3.641 0.055
4.395 3.980 0.209
4.566 4.381 -0.087
3.838 0.054 5.372
3.938 0.489 5.434
5.041 2.442 5.330
5.297 2.859 5.292
5.573 2.961 5.449
5.442 3.114 5.203
5.661 3.448 5.237
6.004 3.745 5.382
3.761 -0.006 4.936
4.154 0.275 5.007
4.061 0.533 5.165
4.264 0.925 5.108
5.434 2.951 5.053
5.386 3.169 4.847
5.616 3.521 5.104
5.801 3.973 5.038
3.782 0.200 4.889
3.814 0.376 4.691
4.077 0.705 4.794
4.294 0.858 4.907
4.329 1.273 4.818
5.518 3.527 4.632
5.630 4.014 4.622
3.816 0.119 4.598
3.832 0.482 4.415
4.162 0.663 4.351
4.165 1.154 4.474
4.181 1.250 4.567
3.555 0.365 4.259
3.721 0.417 4.145
3.795 0.887 4.274
4.111 0.907 4.047
4.306 1.166 4.193
3.720 0.414 3.848
3.834 0.663 3.985
3.699 0.689 4.016
4.019 1.189 3.794
3.280 0.063 3.561
3.649 0.202 3.717
3.558 0.597 3.451
3.633 0.644 3.553
3.962 1.072 3.728
2.984 0.052 3.841
3.189 0.580 3.703
3.389 0.618 3.631
3.447 1.009 3.575
3.586 1.243 3.725
3.284 0.629 3.421
3.377 0.596 3.557
3.970 3.611 0.713
4.259 3.761 0.776
4.333 4.134 0.606
4.347 4.558 0.821
3.595 3.084 0.292
3.795 3.236 0.313
3.887 3.598 0.289
4.309 3.980 0.524
4.278 4.253 0.333
4.367 4.420 0.406
3.514 2.850 0.338
3.483 3.128 0.104
3.807 3.394 0.256
4.056 3.548 0.323
4.227 4.104 0.268
4.103 4.378 0.021
4.333 4.628 0.130
3.705 0.226 5.306
3.757 0.599 5.312
3.823 0.741 5.357
3.960 0.973 5.590
4.153 1.428 5.406
4.275 1.497 5.293
4.534 1.826 5.325
4.779 1.964 5.484
4.625 2.364 5.259
4.971 2.480 5.275
5.123 2.728 5.308
5.234 3.184 5.405
5.287 3.348 5.267
5.344 3.824 5.325
5.665 3.856 5.256
3.581 -0.032 5.223
3.580 0.115 5.106
3.834 0.683 5.129
3.706 0.933 5.190
4.018 1.019 5.239
4.010 1.389 5.289
4.257 1.609 5.191
4.339 1.922 5.261
4.436 2.017 5.115
4.748 2.505 4.942
4.697 2.565 4.933
4.857 3.020 5.064
5.032 3.313 5.026
5.348 3.596 5.215
5.353 3.772 4.946
5.628 3.984 5.102
3.458 0.079 4.932
3.559 0.452 4.756
3.589 0.611 4.960
3.730 0.841 5.014
3.840 1.224 4.773
4.115 1.432 4.853
4.256 1.685 4.780
4.340 2.025 4.871
4.372 2.280 4.969
5.586 3.901 4.787
3.248 0.171 4.431
3.424 0.362 4.572
3.429 0.493 4.652
3.638 0.766 4.540
3.749 1.130 4.546
4.067 1.422 4.639
4.028 1.809 4.680
4.276 2.061 4.482
3.240 0.266 4.124
3.242 0.403 4.152
3.652 0.665 4.304
3.670 0.819 4.212
3.802 1.028 4.245
4.019 1.312 4.112
4.186 1.839 4.389
3.080 0.001 4.041
3.339 0.456 4.157
3.454 0.566 3.838
3.463 0.871 4.115
3.670 1.105 3.994
4.030 1.395 4.054
3.129 0.276 3.597
3.410 0.440 3.591
3.279 0.555 3.754
3.359 0.956 3.590
3.609 1.379 3.735
2.690 0.182 3.910
2.903 0.687 3.701
3.032 0.781 3.745
3.211 1.161 3.863
3.402 1.373 3.878
3.507 1.553 3.665
2.933 0.915 3.514
3.091 0.975 3.464
3.765 3.517 0.824
3.806 3.676 0.956
3.867 4.084 0.836
3.957 4.433 0.813
3.497 2.855 0.436
3.635 3.280 0.367
3.550 3.368 0.665
3.639 3.638 0.638
3.966 4.132 0.550
4.025 4.439 0.337
4.300 4.499 0.593
2.951 2.760 0.363
3.369 2.897 0.419
3.249 3.310 0.251
3.584 3.703 0.361
3.534 3.679 0.090
3.962 3.915 0.284
3.823 4.285 0.167
4.068 4.672 0.337
3.197 0.222 5.432
3.520 0.510 5.684
3.631 0.583 5.375
3.718 0.961 5.395
3.938 1.071 5.394
4.148 1.420 5.509
4.042 1.824 5.334
4.262 1.908 5.388
4.273 2.370 5.370
4.399 2.641 5.565
4.594 2.706 5.493
4.879 3.080 5.318
4.978 3.435 5.376
5.020 3.605 5.325
5.077 3.714 5.503
5.503 4.192 5.258
3.088 0.321 5.191
3.459 0.480 5.191
3.520 0.592 5.301
3.657 0.791 5.102
3.688 1.072 5.350
4.013 1.307 5.208
4.183 1.611 5.134
4.133 2.073 5.195
4.388 2.393 5.250
4.315 2.456 5.037
4.742 2.740 5.329
4.842 2.917 4.981
4.868 3.220 5.301
5.010 3.703 4.991
5.242 3.876 5.242
5.303 4.086 5.106
3.068 0.334 4.841
3.392 0.538 4.939
3.425 0.749 4.889
3.539 0.857 4.807
3.618 1.305 4.992
3.858 1.648 4.883
3.906 1.837 4.796
3.965 1.914 5.055
4.349 2.422 4.885
4.521 2.449 5.021
4.393 2.653 4.995
4.805 3.088 4.735
3.013 0.315 4.704
3.173 0.352 4.530
3.236 0.752 4.592
3.570 0.961 4.478
3.698 1.262 4.629
3.709 1.429 4.581
3.937 1.938 4.764
3.895 2.108 4.506
4.218 2.160 4.531
3.129 0.390 4.419
3.113 0.368 4.520
3.333 0.779 4.385
3.437 0.877 4.240
3.386 1.335 4.301
3.532 1.619 4.177
3.802 1.781 4.183
4.114 2.235 4.407
2.639 -0.113 4.146
2.983 0.152 4.158
2.935 0.416 4.087
3.237 0.754 3.925
3.181 1.209 4.112
3.585 1.244 4.195
3.469 1.711 4.047
3.801 1.793 4.063
2.845 0.309 3.860
3.115 0.736 3.620
3.044 0.970 3.795
3.340 1.158 3.709
3.324 1.350 3.805
3.519 1.685 3.837
2.849 0.716 3.750
2.799 0.894 4.017
2.976 1.272 3.957
3.200 1.370 3.705
3.372 1.928 3.714
3.430 1.997 3.816
2.677 0.828 3.554
3.045 1.405 3.596
3.140 1.561 3.700
3.227 1.905 3.662
3.215 3.020 0.987
3.346 3.341 1.064
3.521 3.491 1.037
3.580 3.826 0.975
3.828 4.027 0.893
3.011 2.930 0.577
2.970 3.159 0.675
3.270 3.576 0.624
3.366 3.518 0.775
3.530 3.923 0.613
3.645 4.184 0.733
3.924 4.561 0.468
2.612 2.624 0.289
2.763 2.895 0.410
3.166 3.073 0.458
3.102 3.273 0.291
3.280 3.576 0.397
3.396 4.075 0.359
3.541 4.397 0.400
3.803 4.524 0.390
3.810 4.603 0.155
2.547 2.264 -0.039
2.807 2.621 0.193
2.812 3.011 -0.070
2.989 3.258 0.018
3.024 3.355 0.004
3.156 3.856 0.045
3.185 4.050 0.173
3.441 4.141 0.164
3.606 4.525 -0.081
3.361 1.045 5.571
3.579 1.146 5.581
3.836 1.554 5.476
3.747 1.863 5.633
4.143 2.011 5.413
4.184 2.359 5.514
4.271 2.492 5.403
4.472 2.819 5.572
4.426 3.288 5.544
4.681 3.261 5.456
5.021 3.844 5.370
5.040 4.027 5.597
5.209 4.302 5.636
2.804 0.188 5.252
3.037 0.708 5.343
3.331 0.772 5.311
3.459 1.040 5.385
3.466 1.457 5.416
3.740 1.752 5.254
3.651 1.801 5.267
4.051 2.200 5.255
4.227 2.485 5.149
4.168 2.592 5.416
4.260 2.990 5.383
4.346 3.113 5.289
4.556 3.375 5.187
4.724 3.805 5.183
5.061 4.010 5.118
2.598 -0.007 4.889
3.003 0.203 5.154
3.063 0.487 5.040
3.220 0.840 5.087
3.147 1.261 4.972
3.402 1.545 4.899
3.748 1.548 4.915
3.701 1.935 4.840
3.914 2.261 4.889
3.937 2.374 4.876
4.277 2.759 4.916
4.255 2.886 4.993
4.267 3.308 4.769
2.739 0.222 4.678
2.739 0.261 4.889
3.094 0.574 4.891
3.048 0.751 4.880
3.207 1.048 4.670
3.280 1.246 4.658
3.423 1.604 4.758
3.534 1.960 4.811
3.871 2.100 4.753
3.833 2.601 4.716
4.130 2.753 4.793
2.736 0.233 4.615
2.903 0.663 4.375
2.844 0.883 4.527
3.072 1.224 4.351
3.356 1.313 4.349
3.512 1.766 4.465
3.527 1.978 4.390
3.811 2.124 4.353
3.699 2.329 4.346
2.835 0.565 4.127
2.891 0.658 4.234
2.966 1.047 4.210
3.229 1.372 4.199
3.332 1.464 3.954
3.302 1.845 4.180
3.499 1.963 3.973
3.503 2.396 3.992
2.665 0.781 3.786
3.042 1.077 3.694
3.097 1.347 3.725
3.006 1.565 3.756
3.395 1.719 3.771
3.528 2.029 3.924
2.649 0.758 3.949
2.543 0.971 4.017
2.889 1.413 3.994
2.971 1.520 4.044
3.200 2.039 3.946
3.166 2.199 3.998
3.358 2.257 4.026
2.695 1.141 3.533
2.615 1.413 3.806
2.940 1.518 3.642
3.002 1.919 3.768
2.990 2.320 3.730
2.969 1.838 3.288
3.072 3.109 1.260
3.045 3.520 1.366
3.159 3.906 1.158
3.550 4.075 1.085
2.797 2.931 0.956
2.944 3.135 0.918
3.102 3.347 0.900
3.325 3.914 0.909
3.461 3.976 1.131
3.436 4.334 0.857
2.707 3.009 0.642
2.979 3.310 0.786
3.096 3.576 0.660
3.134 3.755 0.508
3.283 4.030 0.586
3.303 4.377 0.673
3.510 4.594 0.606
2.580 2.890 0.478
2.681 3.022 0.333
2.679 3.347 0.424
2.948 3.460 0.262
2.909 3.915 0.551
3.125 4.004 0.268
3.436 4.302 0.371
3.564 4.708 0.442
2.356 2.605 0.098
2.372 2.867 0.210
2.691 3.103 0.210
2.590 3.242 0.181
2.825 3.436 0.223
2.979 3.744 0.164
2.963 4.132 0.004
3.412 4.564 0.138
3.451 4.651 0.085
3.663 4.968 -0.010
3.201 1.294 5.785
3.201 1.604 5.644
3.540 1.761 5.659
3.670 1.934 5.555
3.633 2.197 5.610
3.758 2.673 5.654
3.909 2.780 5.658
4.274 3.057 5.679
4.322 3.437 5.524
4.595 3.730 5.542
4.480 3.832 5.419
4.663 4.213 5.608
3.046 0.849 5.394
2.965 1.371 5.381
3.217 1.632 5.468
3.346 1.905 5.364
3.648 1.862 5.237
3.797 2.306 5.403
3.893 2.420 5.168
3.791 2.845 5.169
3.946 2.906 5.147
4.141 3.300 5.469
4.388 3.518 5.289
2.813 0.803 5.235
2.989 0.939 5.184
3.063 1.221 5.016
3.024 1.666 5.174
3.153 1.679 4.971
3.430 2.056 5.139
3.771 2.447 5.168
3.684 2.654 5.104
3.970 2.856 4.913
4.042 3.192 5.114
4.099 3.477 5.114
2.594 0.787 4.845
2.732 1.165 4.712
2.910 1.219 4.923
3.014 1.488 4.904
3.342 1.836 4.913
3.239 2.037 4.852
3.581 2.214 4.623
3.665 2.515 4.663
3.689 2.739 4.886
4.110 3.281 4.618
2.491 0.832 4.472
2.873 0.997 4.563
2.907 1.242 4.668
3.097 1.681 4.367
3.112 1.812 4.317
3.371 2.110 4.600
3.349 2.475 4.357
3.504 2.750 4.290
3.695 3.026 4.495
2.712 0.672 4.170
2.555 1.066 4.259
2.993 1.472 4.038
2.931 1.773 4.056
3.040 1.828 4.031
3.350 2.289 4.241
3.228 2.420 4.283
3.704 2.743 4.337
2.459 0.732 3.992
2.610 1.145 3.844
2.703 1.534 3.785
2.916 1.586 3.799
2.917 1.842 3.827
3.271 2.224 3.929
3.336 2.394 3.745
2.319 1.276 3.855
2.533 1.526 3.998
2.808 1.825 3.989
2.692 1.863 4.128
3.003 2.380 4.009
2.963 2.522 3.871
3.043 2.838 3.799
2.201 1.209 3.771
2.427 1.492 3.671
2.695 1.899 3.753
2.784 2.075 3.551
2.984 2.306 3.717
3.153 2.458 3.692
2.362 1.684 3.320
2.452 1.742 3.574
2.667 2.231 3.481
2.754 2.462 3.506
3.063 2.780 3.306
2.421 2.119 3.030
2.772 2.292 3.078
2.700 3.486 1.586
3.032 3.717 1.547
3.194 3.854 1.629
2.554 3.129 1.484
2.572 3.425 1.407
2.884 3.688 1.192
3.058 3.949 1.337
3.203 4.293 1.159
2.468 3.099 0.962
2.672 3.254 1.130
2.617 3.801 0.986
2.921 3.831 0.913
3.188 4.171 1.115
3.244 4.470 1.035
2.355 2.729 0.809
2.465 3.266 0.866
2.667 3.424 0.782
2.864 3.817 0.623
2.744 3.795 0.864
2.953 4.198 0.915
3.254 4.529 0.738
3.140 4.675 0.806
2.251 2.774 0.586
2.453 3.273 0.501
2.669 3.561 0.387
2.791 3.593 0.371
2.796 3.986 0.527
2.861 4.079 0.290
3.157 4.531 0.416
3.107 4.842 0.549
1.946 2.785 0.057
2.211 2.796 0.135
2.307 3.355 0.161
2.444 3.558 0.363
2.508 3.727 0.239
2.776 3.969 0.239
2.751 4.400 0.081
2.995 4.571 0.113
3.157 4.920 0.186
2.968 1.449 5.712
3.260 1.932 5.687
3.193 2.155 5.541
3.390 2.350 5.722
3.783 2.650 5.546
3.634 2.910 5.569
4.042 3.130 5.614
3.993 3.606 5.639
4.054 3.649 5.508
2.970 1.265 5.366
3.126 1.713 5.333
3.019 1.820 5.444
3.128 2.044 5.357
3.557 2.383 5.547
3.427 2.747 5.568
3.826 2.854 5.329
3.899 3.339 5.344
4.044 3.380 5.390
2.597 1.162 5.132
2.729 1.445 5.318
3.016 1.735 5.313
3.083 1.851 5.058
3.256 2.280 5.083
3.404 2.555 5.022
3.350 2.680 5.016
3.526 2.975 5.014
3.675 3.257 5.173
2.546 1.002 4.807
2.494 1.119 4.893
2.595 1.563 4.801
2.729 1.552 4.916
3.114 2.022 4.682
3.082 2.078 4.841
3.305 2.314 4.883
3.537 2.820 4.940
3.591 3.108 4.874
2.205 0.884 4.507
2.396 1.356 4.593
2.626 1.586 4.415
2.715 1.730 4.608
3.090 2.088 4.560
3.065 2.149 4.689
3.376 2.558 4.530
3.471 2.596 4.633
3.399 3.166 4.360
2.150 0.817 4.384
2.274 1.066 4.223
2.661 1.580 4.433
2.767 1.595 4.136
2.778 1.962 4.297
3.072 2.187 4.138
3.238 2.661 4.339
3.221 2.677 4.094
2.439 1.143 4.175
2.651 1.349 4.122
2.591 1.802 3.924
2.629 2.149 3.891
2.803 2.389 4.021
2.914 2.698 3.839
3.267 2.823 3.931
2.155 1.423 4.145
2.114 1.547 3.922
2.398 1.984 4.194
2.494 2.211 4.119
2.770 2.593 3.944
2.735 2.735 4.068
2.797 3.086 3.866
2.134 1.250 3.705
2.181 1.745 3.646
2.284 2.078 3.792
2.533 2.061 3.625
2.707 2.511 3.845
2.890 2.684 3.758
2.845 2.919 3.804
2.213 1.703 3.372
2.352 1.972 3.565
2.383 2.183 3.517
2.535 2.441 3.328
2.521 2.861 3.403
2.708 3.081 3.546
1.991 1.787 3.337
2.070 2.028 3.293
2.229 2.320 3.030
2.596 2.403 3.217
2.664 2.817 3.021
2.886 2.956 3.221
2.270 2.423 2.881
2.525 2.408 2.759
2.402 2.782 2.900
2.713 3.165 2.962
2.355 2.702 2.486
2.565 2.744 2.474
2.653 2.952 2.511
2.234 2.733 2.231
2.669 3.043 2.416
2.614 3.445 2.352
2.709 3.539 2.191
2.334 2.747 2.052
2.523 3.038 2.076
2.716 3.592 2.101
2.573 3.824 2.066
2.892 4.021 2.081
2.129 2.862 1.623
2.220 3.120 1.645
2.533 3.592 1.736
2.582 3.859 1.600
2.719 3.952 1.531
3.045 4.389 1.757
2.215 3.022 1.571
2.294 3.311 1.418
2.609 3.423 1.392
2.750 3.625 1.358
2.695 4.094 1.251
2.849 4.292 1.532
3.003 4.703 1.242
2.043 2.952 1.256
2.227 3.432 1.035
2.222 3.623 1.264
2.620 3.900 1.298
2.522 3.922 1.227
2.821 4.301 1.233
3.120 4.703 0.991
2.093 3.085 0.729
2.308 3.295 0.791
2.332 3.687 0.862
2.558 3.746 0.724
2.534 4.023 0.883
2.589 4.237 0.803
2.741 4.703 0.695
2.059 3.007 0.529
2.242 3.209 0.396
2.357 3.735 0.568
2.366 3.774 0.568
2.593 3.999 0.560
2.609 4.546 0.546
2.730 4.586 0.562
1.636 2.786 0.352
1.928 3.092 0.155
1.931 3.376 0.309
2.290 3.751 0.325
2.176 3.880 0.426
2.349 4.274 0.091
2.502 4.524 0.110
2.856 4.518 0.355
1.729 2.790 0.032
3.012 1.888 5.799
3.002 2.183 5.686
3.178 2.357 5.764
3.313 2.682 5.770
3.467 2.983 5.928
3.536 3.475 5.627
3.753 3.524 5.635
4.038 3.790 5.626
2.587 1.829 5.375
2.755 1.938 5.659
3.104 2.346 5.425
3.107 2.419 5.544
3.425 2.813 5.324
3.576 3.071 5.347
3.527 3.507 5.514
2.707 1.649 5.125
2.795 1.678 5.338
2.900 2.011 5.104
2.913 2.345 5.069
3.183 2.538 5.272
3.077 2.883 5.166
3.553 3.133 5.271
3.629 3.387 5.239
2.252 1.445 4.835
2.559 1.566 5.114
2.449 1.776 4.837
2.803 2.072 4.774
3.051 2.501 5.069
3.176 2.462 4.746
3.164 2.768 5.044
3.209 3.215 4.946
2.357 1.372 4.701
2.286 1.749 4.690
2.682 2.013 4.666
2.760 2.268 4.532
2.960 2.325 4.565
2.993 2.713 4.687
3.264 2.927 4.514
2.241 1.359 4.335
2.300 1.532 4.325
2.426 1.750 4.265
2.467 2.037 4.373
2.826 2.555 4.302
2.829 2.556 4.190
3.173 2.985 4.161
2.092 1.431 3.922
2.084 1.689 4.091
2.507 1.951 3.958
2.435 2.200 4.221
2.737 2.448 3.995
2.948 2.556 4.091
2.863 2.865 4.178
6.221 0.071 1.237
6.080 0.245 1.026
6.150 0.339 0.922
6.129 0.335 0.670
6.113 0.148 2.484
6.190 0.055 2.421
6.058 0.020 1.884
6.252 0.305 2.105
6.223 0.162 1.877
6.255 0.413 1.885
5.842 0.273 1.493
6.251 0.385 1.606
6.287 0.939 1.365
5.889 -0.016 1.282
5.956 0.270 1.301
6.076 0.557 1.014
6.078 0.979 1.326
5.831 0.417 0.740
6.088 0.851 0.712
6.201 1.016 0.742
6.147 1.064 0.732
6.287 1.289 0.257
6.400 3.930 0.528
6.271 3.822 0.096
6.167 3.716 1.749
6.185 3.731 1.355
6.018 4.030 1.150
6.158 4.090 1.200
5.917 3.965 0.864
6.129 4.145 0.737
6.138 4.400 0.496
5.979 4.098 0.535
6.140 4.306 0.519
6.334 4.647 0.533
6.171 4.574 0.269
5.914 3.906 0.435
5.909 4.391 0.166
6.041 4.385 0.387
6.016 4.492 0.165
6.108 4.777 0.111
5.794 3.963 0.119
6.126 4.373 0.158
6.215 4.689 -0.056
6.269 4.379 1.789
6.297 4.597 1.624
5.967 3.974 1.432
6.149 4.349 1.583
6.256 4.534 1.440
6.168 4.486 1.315
5.989 3.943 1.274
6.056 4.162 1.167
6.171 4.525 1.295
6.089 4.646 1.039
5.644 3.932 1.008
5.791 4.441 0.955
6.014 4.453 0.879
6.085 4.549 0.749
5.623 4.239 0.603
5.982 4.381 0.793
5.839 4.685 0.653
5.928 4.545 0.466
5.661 4.186 0.428
5.724 4.424 0.341
5.868 4.773 0.252
6.017 4.531 0.262
6.034 4.832 0.044
5.597 4.212 0.265
5.614 4.416 0.154
5.843 4.812 0.041
5.567 4.368 1.219
5.628 4.494 1.118
5.822 4.793 0.675
5.342 4.151 0.760
5.476 4.535 0.689
5.773 4.640 0.821
5.569 4.800 0.432
5.506 4.096 0.521
5.480 4.586 0.322
5.725 4.755 0.527
5.621 4.869 0.220
5.398 4.283 0.284
5.539 4.652 0.299
5.749 4.897 0.194
6.280 4.790 3.424
6.265 4.794 3.337
6.375 5.034 3.120
5.068 4.421 0.811
5.198 4.574 0.616
5.250 4.597 0.568
5.202 4.828 0.227
5.177 4.598 0.356
5.093 4.557 0.399
5.375 5.105 0.332
6.101 3.997 5.050
6.188 3.888 4.603
5.963 4.051 4.448
6.106 4.176 4.222
6.276 4.303 4.156
6.274 4.438 3.629
6.264 4.677 3.860
6.040 4.696 3.312
6.211 4.740 3.316
6.199 4.923 3.503
6.280 5.268 3.350
6.384 5.703 3.309
4.775 4.675 0.739
4.941 4.520 0.310
4.806 4.987 0.310
4.995 5.211 0.173
4.743 4.543 0.121
4.735 4.707 0.049
4.931 5.113 -0.055
5.975 4.180 5.129
6.096 4.184 5.277
6.318 4.787 4.944
6.110 4.125 4.910
6.002 4.512 4.968
6.072 4.703 4.991
6.204 4.706 4.827
5.739 4.239 4.784
6.179 4.437 4.642
6.000 4.829 4.499
6.082 4.747 4.286
6.275 4.812 4.435
5.666 4.172 4.237
6.043 4.301 4.359
6.239 4.782 4.314
6.021 4.857 4.162
6.271 4.891 3.997
5.763 4.566 3.929
5.863 4.587 4.012
5.862 4.735 3.882
6.052 5.003 3.743
6.350 5.335 3.746
5.977 4.894 3.944
5.972 4.918 3.536
6.175 5.304 3.528
5.810 5.612 3.689
6.216 5.841 3.574
6.338 5.815 3.599
6.060 6.075 3.089
6.378 6.338 3.239
4.730 4.817 0.365
4.445 4.607 -0.039
4.633 4.988 0.254
5.892 4.578 5.338
6.229 4.832 5.154
5.747 4.233 5.444
5.926 4.517 5.448
5.895 4.862 5.466
6.121 4.647 4.984
6.176 5.171 5.149
6.417 5.171 4.976
5.767 4.257 5.113
5.714 4.590 4.914
5.961 4.769 4.881
6.051 4.826 4.585
6.154 5.120 4.566
6.192 5.200 4.547
5.579 4.214 4.908
5.663 4.442 4.834
6.023 4.902 4.622
6.001 4.766 4.299
6.122 5.229 4.403
5.989 5.524 4.384
6.363 5.618 4.376
5.834 4.600 4.321
5.982 4.865 4.556
5.665 4.904 4.081
6.079 5.144 4.267
5.963 5.236 4.305
6.030 5.493 4.120
5.709 4.998 4.281
5.997 5.025 3.918
6.025 5.285 3.693
6.237 5.620 3.840
6.368 5.994 3.958
5.783 5.326 3.633
6.025 5.655 3.727
6.041 6.012 3.373
5.935 5.764 3.754
5.816 6.270 3.728
4.263 4.898 0.143
5.711 4.847 5.480
5.843 5.162 5.424
5.962 5.387 5.496
6.286 5.595 5.392
5.646 4.293 5.236
5.622 4.685 5.286
5.675 4.919 5.451
5.792 4.921 5.095
5.909 5.248 4.991
6.150 5.578 5.148
6.067 5.609 5.175
5.556 4.207 5.016
5.561 4.645 5.195
5.623 4.976 5.215
5.503 5.017 4.679
5.883 5.070 4.637
5.845 5.428 4.839
6.038 5.826 4.618
6.184 6.004 4.795
5.567 4.636 4.833
5.838 4.812 4.804
5.741 5.288 4.672
6.029 5.610 4.586
6.021 5.731 4.561
6.277 5.892 4.367
5.680 5.311 4.098
5.897 5.430 4.117
5.993 5.895 4.058
6.107 5.921 4.064
5.604 5.676 3.848
6.038 5.858 4.025
5.862 6.125 4.062
5.740 5.704 3.547
5.794 5.998 3.745
5.739 6.164 3.753
5.829 5.786 5.247
5.876 6.046 5.116
5.737 5.698 4.767
5.980 5.765 4.936
5.908 5.971 4.719
5.577 5.536 4.533
5.837 5.781 4.535
5.993 6.022 4.686
5.684 5.777 4.385
5.849 6.023 4.226
5.670 5.938 3.859
5.933 6.102 3.972
5.758 6.267 3.721
5.705 6.391 4.778
0.373 1.553 4.424
0.391 1.981 4.514
0.580 2.368 4.644
0.805 2.359 4.495
0.761 2.850 4.401
0.944 2.855 4.535
0.226 1.327 4.237
0.096 1.592 4.442
0.316 1.952 4.406
0.668 2.320 4.095
0.810 2.360 4.280
0.687 2.866 4.262
1.104 2.934 4.379
0.947 3.262 4.223
-0.088 1.369 4.034
0.075 1.848 3.976
0.298 1.981 4.120
0.429 2.146 4.094
0.657 2.579 3.934
0.724 2.832 3.886
0.926 3.114 3.827
1.149 3.297 4.089
1.148 3.441 3.864
-0.045 1.895 3.650
0.246 2.046 3.652
0.338 2.342 3.536
0.448 2.685 3.629
0.700 2.718 3.513
0.673 3.019 3.711
1.062 3.358 3.637
0.994 3.720 3.807
1.284 3.995 3.520
-0.004 1.684 3.371
0.153 2.133 3.295
0.193 2.435 3.316
0.362 2.591 3.477
0.505 2.794 3.488
0.640 2.958 3.326
0.730 3.272 3.481
0.986 3.652 3.295
1.020 3.935 3.247
1.368 4.252 3.322
1.342 4.308 3.379
0.157 1.990 3.218
0.101 2.199 3.081
0.442 2.662 3.243
0.560 3.035 2.977
0.575 3.031 3.192
0.741 3.270 2.918
1.027 3.788 2.988
1.083 4.084 3.124
1.365 4.299 3.103
1.268 4.607 3.068
1.659 4.692 2.908
1.622 4.848 3.118
1.852 5.143 2.964
2.090 5.568 3.055
2.057 5.734 3.126
0.060 2.136 2.785
0.021 2.472 2.713
0.457 2.631 2.754
0.372 2.833 2.708
0.680 3.006 2.854
0.598 3.309 2.670
0.854 3.848 2.684
1.144 3.909 2.833
1.277 4.293 2.607
1.238 4.586 2.875
1.503 4.678 2.792
1.696 5.159 2.581
1.741 5.278 2.763
1.817 5.696 2.595
1.902 5.904 2.603
0.707 3.455 2.444
0.687 3.657 2.541
1.031 4.092 2.343
1.016 4.221 2.343
1.306 4.493 2.375
1.290 4.626 2.600
1.362 4.991 2.477
1.573 5.217 2.361
1.809 5.696 2.326
2.001 5.823 2.281
0.874 4.114 2.357
1.162 4.318 2.123
1.081 4.587 2.313
1.290 4.887 2.032
1.346 4.993 2.263
1.689 5.244 2.180
1.582 5.488 2.195
1.873 6.003 2.298
0.978 4.176 1.825
1.067 4.592 1.875
1.184 4.791 1.823
1.418 5.132 1.901
1.531 5.422 1.938
1.601 5.499 1.819
1.798 5.875 2.003
1.081 4.469 1.424
1.053 4.812 1.655
1.143 5.117 1.426
1.551 5.412 1.571
1.695 5.550 1.729
1.843 5.928 1.396
1.192 4.826 1.457
1.267 5.320 1.401
1.393 5.464 1.251
1.374 5.776 1.348
0.696 2.153 4.947
0.331 1.520 4.456
0.363 2.044 4.378
0.558 2.350 4.602
0.630 2.367 4.598
0.968 2.852 4.526
1.035 2.841 4.589
-0.037 1.944 4.764
0.026 1.920 4.594
0.191 2.472 4.689
0.476 2.630 4.732
0.739 2.933 4.446
-0.032 1.956 4.432
0.429 2.519 4.333
0.270 2.747 4.317
0.506 2.819 4.442
0.736 3.042 4.238
0.034 2.273 4.087
0.028 2.573 3.904
0.383 2.741 3.963
0.461 2.951 4.009
0.760 3.360 4.107
0.278 2.307 3.841
0.424 2.656 3.718
0.436 2.888 3.748
0.698 3.357 3.787
0.753 3.584 3.825
-0.050 2.465 3.402
0.227 2.687 3.294
0.170 2.971 3.430
0.495 3.371 3.519
0.616 3.646 3.559
0.912 3.836 3.419
1.676 5.788 3.541
1.801 6.022 3.499
0.112 2.891 3.152
0.349 2.856 3.124
0.355 3.369 3.265
0.703 3.655 3.129
0.714 3.874 3.122
0.687 4.116 3.044
0.886 4.492 2.974
0.978 4.756 3.213
1.162 4.863 2.984
1.379 5.301 2.963
1.390 5.447 3.012
1.519 5.528 2.958
1.968 6.032 3.068
0.016 2.845 2.890
0.654 4.235 2.782
0.732 4.408 2.834
1.066 4.485 2.987
1.290 5.005 2.861
1.468 5.172 2.928
1.542 5.328 2.870
1.484 5.731 2.955
1.668 5.911 2.762
0.987 4.330 2.468
1.035 4.722 2.576
1.264 4.810 2.420
1.374 5.104 2.560
1.284 5.295 2.416
1.687 5.707 2.541
1.814 5.877 2.580
0.888 4.319 2.261
1.060 4.596 2.364
1.069 4.801 2.266
1.096 5.216 2.142
1.451 5.648 2.299
1.523 5.738 2.376
1.515 6.076 2.130
0.932 4.765 1.854
1.121 5.161 2.080
1.055 5.238 1.839
1.206 5.579 1.994
1.272 5.799 1.855
1.666 6.044 1.853
0.893 5.023 1.755
1.188 5.182 1.481
1.151 5.577 1.684
1.136 5.971 1.786
1.404 6.056 1.794
0.938 5.413 1.498
1.242 5.515 1.460
1.240 5.712 1.413
1.453 5.988 1.233
0.167 1.850 4.872
0.179 1.937 4.882
0.405 2.385 4.805
-0.039 1.876 4.478
0.075 2.075 4.489
0.470 2.282 4.792
0.488 2.444 4.711
0.482 3.034 4.528
0.087 2.563 4.647
0.116 2.903 4.688
0.123 2.563 4.500
0.257 2.876 4.399
0.405 3.146 4.295
-0.095 2.867 4.035
0.270 2.925 4.131
0.000 2.922 3.936
0.290 3.211 3.975
0.294 3.337 3.646
-0.022 3.025 3.464
1.665 5.981 3.338
1.311 5.580 3.117
1.513 5.717 3.036
1.597 6.224 3.262
1.073 5.106 2.891
1.035 5.403 2.737
1.232 5.634 2.861
1.319 5.701 3.033
1.514 6.195 3.012
0.736 4.962 2.503
0.824 5.239 2.662
1.207 5.729 2.628
1.110 5.959 2.480
1.263 6.287 2.746
0.585 4.804 2.445
0.925 5.202 2.334
0.973 5.235 2.253
1.205 5.535 2.442
1.287 5.835 2.261
1.499 6.298 2.259
0.684 5.197 1.978
0.778 5.366 2.045
1.034 5.805 2.131
1.179 5.834 2.141
1.179 6.129 2.000
0.567 5.248 1.879
0.799 5.265 1.747
1.087 5.672 1.816
1.034 6.033 1.608
1.212 6.260 1.807
0.674 5.341 1.455
0.880 5.553 1.573
0.851 5.932 1.393
1.254 6.073 1.441
0.964 6.153 1.229
1.186 6.425 1.163
-0.088 2.317 5.109
0.213 2.553 4.882
0.017 2.656 4.766
0.204 2.866 4.572
1.236 6.230 3.466
1.199 6.032 3.372
1.150 6.093 3.076
0.931 5.515 2.824
1.056 5.833 2.888
1.243 5.946 2.982
1.126 6.122 3.108
0.642 5.443 2.636
0.929 5.719 2.559
1.122 6.095 2.641
1.081 6.276 2.796
0.538 5.275 2.499
0.536 5.574 2.513
0.800 5.708 2.482
0.994 6.070 2.251
0.347 5.387 2.247
0.703 5.554 1.994
0.692 5.698 2.097
0.920 6.216 1.914
0.407 5.434 1.839
0.667 5.649 1.865
0.956 6.017 1.659
0.376 5.673 1.592
0.545 5.812 1.505
0.592 6.019 1.651
0.419 6.014 1.265
0.696 6.305 1.142
0.841 5.972 2.917
0.962 6.110 3.161
0.685 5.851 2.742
0.618 6.178 2.729
0.473 5.663 2.424
0.397 6.001 2.322
0.715 6.224 2.552
0.168 5.547 2.264
0.643 6.090 1.993
0.458 6.201 2.197
0.317 5.564 1.771
0.527 5.887 1.817
0.498 6.257 1.763
0.208 5.636 1.480
0.209 6.127 1.561
0.543 6.364 1.724
0.391 5.927 1.147
0.561 6.164 1.362
0.461 6.217 2.725
0.461 5.982 2.679
0.191 5.829 2.236
0.165 6.016 2.312
0.038 5.683 2.013
0.049 6.269 1.795
-0.006 6.010 1.803
0.147 6.170 1.489
0.113 6.050 2.527
1.753 1.386 4.062
2.127 1.734 4.080
2.231 2.004 4.261
2.324 2.409 4.252
2.444 2.653 4.103
2.510 2.840 4.154
2.805 3.025 4.121
1.835 1.489 3.723
1.790 1.940 3.907
2.035 2.016 3.879
2.268 2.369 3.950
2.502 2.518 3.680
2.492 2.719 3.703
2.548 3.239 3.848
1.685 1.590 3.456
1.760 1.797 3.659
2.146 2.092 3.643
2.032 2.278 3.601
2.234 2.684 3.690
2.512 2.976 3.542
2.465 3.271 3.609
1.943 1.818 3.277
2.007 2.259 3.127
2.235 2.450 3.125
2.216 2.691 3.254
2.196 3.080 3.255
2.399 3.229 3.302
2.800 3.303 3.311
1.795 1.811 2.954
1.938 2.216 2.916
1.847 2.416 3.027
2.101 2.699 3.096
2.346 3.081 3.033
2.256 3.313 3.089
2.512 3.474 3.047
2.040 2.473 2.811
1.967 2.600 2.786
2.225 3.065 2.737
2.231 3.324 2.638
2.373 3.483 2.538
2.484 3.723 2.535
1.827 2.346 2.326
1.951 2.629 2.434
2.001 2.910 2.284
2.295 3.341 2.401
2.450 3.668 2.302
2.542 3.872 2.191
2.753 4.042 2.293
1.816 2.953 1.991
2.032 3.002 2.186
2.068 3.192 2.056
2.239 3.718 2.013
2.483 3.967 2.109
2.592 4.177 1.983
2.752 4.466 2.231
2.086 2.976 1.647
2.212 3.486 1.642
2.407 3.611 1.691
2.512 3.793 1.938
2.648 4.295 1.724
2.563 4.300 1.656
2.835 4.598 1.861
1.863 3.267 1.579
2.081 3.238 1.580
2.204 3.750 1.482
2.382 3.773 1.345
2.450 4.062 1.448
2.525 4.406 1.322
2.593 4.611 1.458
1.876 2.977 1.104
1.962 3.346 1.115
2.097 3.519 1.365
2.125 3.782 1.281
2.256 4.105 1.122
2.538 4.596 1.060
2.550 4.756 1.267
1.667 3.239 0.928
1.987 3.468 1.053
2.220 3.698 0.836
2.156 4.050 0.833
2.273 4.231 1.024
2.503 4.400 0.961
2.538 4.797 0.946
1.700 3.035 0.554
1.969 3.509 0.529
1.937 3.766 0.787
2.078 4.070 0.721
2.336 4.083 0.634
2.335 4.563 0.567
2.612 4.812 0.675
1.561 3.236 0.492
1.653 3.388 0.470
1.951 3.595 0.376
2.179 4.177 0.204
2.358 4.191 0.334
2.372 4.469 0.321
1.641 3.207 -0.079
1.807 3.377 0.060
1.708 3.917 -0.094
1.863 4.168 0.173
2.196 4.288 -0.112
2.905 2.523 5.822
3.059 2.805 6.019
3.249 2.900 5.732
3.330 3.357 5.987
3.398 3.293 5.934
2.744 2.258 5.483
2.658 2.486 5.420
3.058 2.808 5.606
3.219 3.116 5.548
3.128 3.104 5.612
2.353 1.956 5.379
2.503 2.265 5.404
2.790 2.453 5.276
2.977 2.758 5.151
2.826 3.004 5.186
2.974 3.363 5.252
2.152 1.575 4.850
2.246 2.108 5.118
2.445 2.061 4.931
2.566 2.521 4.823
2.661 2.655 4.965
2.867 2.868 4.939
2.079 1.430 4.607
2.246 1.852 4.587
2.228 1.823 4.811
2.323 2.180 4.741
2.480 2.425 4.628
2.537 2.692 4.564
2.778 3.123 4.755
1.765 1.354 4.461
1.899 1.759 4.436
2.173 2.051 4.363
2.499 2.439 4.422
2.517 2.380 4.553
2.737 2.728 4.567
2.681 3.158 4.460
1.816 1.420 4.306
2.066 1.825 4.286
2.255 2.152 4.132
2.337 2.235 3.993
2.328 2.551 4.139
2.534 2.917 4.168
2.563 3.016 4.128
1.495 1.530 4.328
1.898 1.968 4.396
2.036 2.210 4.304
2.116 2.371 4.260
2.214 2.686 4.293
2.216 3.060 4.225
2.427 3.278 4.142
1.502 1.328 3.790
1.602 1.729 3.908
1.740 2.063 4.054
1.945 2.196 3.785
1.868 2.629 3.766
2.190 2.682 3.860
2.159 3.118 3.983
2.370 3.331 3.974
1.356 1.645 3.806
1.739 2.021 3.521
1.587 2.262 3.724
2.003 2.651 3.605
2.116 2.710 3.494
2.247 2.908 3.465
2.147 3.227 3.750
2.468 3.399 3.556
1.234 1.777 3.384
1.480 1.900 3.395
1.688 2.155 3.184
1.877 2.375 3.333
1.984 2.684 3.373
1.969 2.983 3.194
2.239 3.158 3.471
2.528 3.562 3.405
1.530 2.025 3.073
1.698 2.166 3.136
1.603 2.714 2.943
1.783 2.801 2.959
2.035 3.180 3.106
2.171 3.446 3.160
2.410 3.680 3.012
2.530 3.808 3.128
1.488 2.170 2.613
1.797 2.719 2.868
1.668 2.961 2.836
2.055 3.060 2.820
2.191 3.513 2.617
2.246 3.746 2.864
2.543 3.954 2.642
2.518 4.117 2.868
1.737 2.545 2.534
1.851 2.717 2.479
1.790 3.247 2.372
1.987 3.328 2.441
2.295 3.510 2.323
2.225 4.085 2.589
2.319 4.191 2.420
2.535 4.541 2.503
1.584 2.755 2.216
1.768 2.953 2.255
1.860 3.192 2.064
1.971 3.509 2.250
2.247 3.623 2.119
2.359 3.922 2.015
2.437 4.159 1.986
2.551 4.483 2.032
2.787 4.841 2.026
1.747 2.994 1.886
1.717 3.229 1.914
2.006 3.358 1.749
1.997 3.657 1.758
2.267 3.916 1.915
2.451 4.164 1.937
2.357 4.607 1.948
2.534 4.822 1.868
1.665 3.139 1.717
1.787 3.408 1.592
2.052 3.797 1.644
2.006 3.908 1.625
2.223 4.181 1.583
2.265 4.423 1.495
2.653 4.831 1.404
2.501 5.007 1.579
1.482 3.114 1.375
1.776 3.512 1.236
2.034 3.647 1.235
1.908 3.965 1.135
2.250 4.467 1.430
2.384 4.500 1.319
2.589 4.767 1.184
1.405 3.260 1.175
1.796 3.699 1.139
1.837 3.939 0.912
1.979 4.152 0.984
1.967 4.451 1.122
2.261 4.471 1.055
2.203 4.928 0.862
1.515 3.440 0.679
1.624 3.750 0.558
1.767 4.157 0.576
1.879 4.423 0.826
2.083 4.818 0.521
2.171 4.956 0.516
1.600 3.645 0.406
1.510 3.769 0.282
1.678 4.203 0.259
1.784 4.339 0.353
2.124 4.591 0.535
1.415 3.550 0.034
1.616 4.021 0.083
1.852 4.126 0.097
2.582 2.546 5.329
2.172 2.194 5.048
2.352 2.376 5.156
2.313 2.641 4.958
2.626 3.040 5.222
1.779 1.816 4.869
1.891 2.160 4.734
2.066 2.554 4.787
2.407 2.811 4.620
2.516 2.918 4.634
1.832 1.467 4.598
1.856 1.985 4.682
1.910 2.286 4.365
2.107 2.453 4.604
2.233 2.782 4.346
2.461 2.991 4.421
2.519 3.203 4.408
1.438 1.541 4.138
1.589 1.786 4.090
1.806 2.019 4.091
2.106 2.588 4.059
2.258 2.591 4.100
2.449 2.886 4.241
2.471 3.163 4.227
1.395 1.812 4.292
1.635 2.026 4.264
1.766 2.441 4.132
1.894 2.531 4.234
1.858 2.769 4.218
1.887 3.058 4.189
1.249 1.723 4.036
1.148 1.760 4.066
1.463 2.008 4.029
1.725 2.498 4.107
1.720 2.508 4.122
1.814 2.741 3.907
2.079 3.160 3.829
2.156 3.442 3.902
1.040 1.424 3.855
1.209 1.797 3.605
1.315 2.038 3.800
1.374 2.421 3.718
1.500 2.560 3.790
1.681 2.848 3.580
1.970 3.174 3.823
2.083 3.279 3.809
2.188 3.830 3.652
0.969 1.730 3.582
1.196 1.898 3.474
1.115 2.172 3.597
1.290 2.349 3.265
1.600 2.555 3.549
1.719 2.825 3.562
1.784 3.089 3.506
2.026 3.406 3.560
2.243 3.673 3.306
1.021 1.904 3.029
1.089 2.099 3.008
1.433 2.452 3.076
1.394 2.696 3.199
1.497 2.974 2.963
1.911 3.312 3.123
1.744 3.657 2.985
2.108 3.747 3.196
2.019 4.174 3.132
2.258 4.118 3.157
1.128 2.349 3.020
1.185 2.362 2.769
1.492 2.745 2.735
1.430 3.137 2.817
1.644 3.252 2.930
1.790 3.680 2.942
2.017 3.895 2.913
1.970 4.104 2.715
2.351 4.248 2.649
2.228 4.441 2.762
1.194 2.463 2.714
1.193 2.637 2.454
1.633 2.865 2.416
1.503 3.210 2.657
1.863 3.587 2.540
1.894 3.737 2.456
2.210 4.236 2.523
2.071 4.280 2.423
2.291 4.481 2.636
2.359 5.024 2.583
1.424 2.927 2.313
1.568 3.079 2.148
1.587 3.213 2.128
1.539 3.754 2.171
1.898 3.863 2.158
1.861 4.006 2.276
2.125 4.425 2.239
2.283 4.559 2.184
2.344 4.953 2.047
2.690 5.096 2.160
1.443 2.923 1.800
1.558 3.295 1.926
1.759 3.493 1.899
1.924 3.907 1.987
1.927 4.240 2.028
1.974 4.569 1.834
2.336 4.612 1.961
2.385 4.889 1.871
2.352 5.181 1.835
1.497 3.427 1.756
1.432 3.714 1.682
1.592 3.744 1.593
1.839 4.225 1.811
1.888 4.482 1.648
2.214 4.702 1.611
2.192 4.935 1.629
2.239 5.245 1.452
1.249 3.536 1.307
1.405 3.748 1.545
1.636 3.902 1.540
1.817 4.365 1.472
2.023 4.318 1.289
1.902 4.877 1.420
2.190 4.933 1.399
2.155 5.362 1.291
1.335 3.828 1.246
1.523 3.857 1.223
1.550 4.203 1.234
2.002 4.452 1.025
2.043 4.795 0.932
2.001 4.973 1.066
1.482 4.166 0.929
1.722 4.174 0.692
1.883 4.476 0.817
1.973 4.716 0.722
1.660 4.363 0.501
1.666 2.310 4.922
2.075 2.609 4.731
2.029 2.903 4.956
1.422 1.867 4.715
1.524 2.003 4.629
1.605 2.133 4.633
1.794 2.493 4.584
2.109 2.819 4.526
2.253 3.071 4.670
1.516 1.712 4.156
1.576 2.210 4.418
1.505 2.273 4.232
1.730 2.565 4.290
1.793 2.702 4.441
1.945 3.056 4.289
1.120 1.665 4.415
1.167 2.090 4.355
1.340 2.066 4.243
1.468 2.611 4.381
1.625 2.588 4.342
1.683 3.079 4.446
1.756 3.423 4.316
0.863 1.750 4.208
0.928 1.831 3.935
1.244 2.078 4.024
1.345 2.527 3.962
1.276 2.682 4.128
1.473 2.928 4.219
1.837 3.315 4.047
1.771 3.585 3.922
0.698 1.611 3.810
0.734 1.582 3.841
1.019 1.897 3.751
1.120 2.291 3.891
1.250 2.543 3.639
1.481 2.765 3.745
1.525 3.003 3.935
1.579 3.425 3.838
1.959 3.738 3.808
0.461 1.614 3.440
0.571 1.777 3.587
0.842 2.109 3.403
1.003 2.239 3.549
1.281 2.457 3.560
1.220 2.971 3.553
1.416 3.014 3.664
1.691 3.496 3.547
1.642 3.746 3.608
1.897 3.710 3.302
0.469 1.515 3.292
0.724 1.856 3.390
0.709 2.172 3.204
0.947 2.283 3.321
1.213 2.712 3.175
1.326 2.935 3.061
1.437 3.012 3.053
1.415 3.322 3.099
1.694 3.801 3.176
1.797 3.910 3.139
1.894 4.183 3.201
2.101 4.511 3.309
0.631 1.765 2.782
0.741 2.079 3.063
0.862 2.487 2.872
0.920 2.462 2.970
1.097 2.779 2.897
1.470 3.068 2.933
1.499 3.416 2.976
1.677 3.599 2.804
1.718 3.913 2.818
1.992 4.274 2.813
1.921 4.487 2.752
2.296 4.849 2.801
2.368 4.866 2.759
0.843 2.481 2.657
1.089 2.759 2.470
1.170 3.045 2.764
1.185 3.057 2.739
1.291 3.369 2.539
1.465 3.693 2.503
1.718 4.059 2.662
1.928 4.082 2.462
2.042 4.605 2.457
2.195 4.591 2.531
2.104 4.972 2.535
2.354 5.280 2.588
0.903 2.848 2.291
1.061 3.108 2.323
1.466 3.474 2.447
1.577 3.765 2.406
1.735 4.107 2.383
1.766 4.373 2.246
1.702 4.428 2.197
1.883 4.719 2.252
2.240 4.973 2.241
2.231 5.378 2.168
2.537 5.490 2.414
1.060 3.385 1.917
1.389 3.397 1.968
1.389 3.848 2.151
1.667 4.116 2.135
1.701 4.113 1.958
1.672 4.529 2.054
1.838 4.822 2.040
2.101 4.917 2.141
2.108 5.199 1.886
2.348 5.707 2.130
1.289 3.598 1.636
1.344 3.736 1.643
1.350 4.065 1.643
1.624 4.444 1.635
1.631 4.708 1.674
1.702 4.999 1.553
2.031 5.246 1.666
2.200 5.532 1.689
2.416 5.753 1.603
1.092 3.752 1.516
1.244 3.907 1.492
1.528 4.294 1.353
1.642 4.610 1.402
1.863 4.882 1.561
1.911 5.019 1.554
1.953 5.394 1.436
1.292 4.107 1.171
1.576 4.201 1.259
1.745 4.643 1.010
1.836 4.738 1.152
1.732 5.196 1.239
1.257 4.372 0.707
1.547 4.498 0.694
1.313 1.863 4.643
1.389 2.321 4.805
1.343 2.387 4.490
1.741 2.716 4.756
1.755 2.894 4.809
0.800 1.762 4.560
1.234 1.837 4.320
1.072 2.060 4.455
1.385 2.624 4.531
1.468 2.803 4.222
1.549 3.014 4.472
1.809 3.149 4.362
0.576 1.773 4.603
0.883 1.936 4.630
0.977 2.343 4.294
1.186 2.544 4.427
1.320 2.891 4.481
1.458 3.280 4.307
0.614 1.471 4.269
0.729 1.837 4.267
0.745 2.139 4.183
0.958 2.284 4.028
1.105 2.541 4.128
1.303 2.796 4.020
1.439 3.274 4.289
1.480 3.298 3.993
0.440 1.253 3.780
0.345 1.770 4.022
0.516 1.694 3.953
0.634 2.100 3.745
0.884 2.471 3.711
0.812 2.576 3.707
1.092 3.029 3.814
1.431 3.221 3.804
1.359 3.335 3.774
1.455 3.663 3.839
-0.085 1.195 3.521
0.373 1.366 3.718
0.222 1.675 3.762
0.589 1.742 3.560
0.572 2.071 3.521
0.705 2.434 3.564
0.748 2.595 3.624
1.095 3.078 3.718
1.162 3.386 3.603
1.214 3.506 3.632
1.553 3.610 3.526
1.562 4.010 3.646
0.153 1.283 3.306
0.414 1.680 3.319
0.485 1.776 3.200
0.530 2.339 3.241
0.579 2.281 3.336
0.682 2.858 3.249
0.926 3.128 3.182
1.068 3.365 3.424
1.284 3.677 3.420
1.572 3.940 3.298
1.602 4.192 3.130
1.796 4.134 3.380
1.934 4.539 3.389
0.130 1.562 3.114
0.286 1.573 2.902
0.413 1.827 3.051
0.383 2.224 2.996
0.573 2.376 2.891
0.706 2.684 2.908
0.995 3.032 3.027
1.185 3.124 3.025
1.184 3.710 2.813
1.332 3.783 2.808
1.428 4.123 2.828
1.662 4.478 3.129
1.909 4.614 2.948
2.019 4.843 3.090
2.153 5.171 2.898
2.045 5.315 2.974
2.303 5.723 2.848
0.484 2.391 2.885
0.492 2.569 2.884
0.625 2.889 2.575
1.001 2.908 2.816
0.846 3.414 2.595
1.029 3.506 2.817
1.309 3.721 2.643
1.270 4.047 2.594
1.621 4.231 2.784
1.508 4.695 2.684
1.759 4.830 2.561
1.928 5.248 2.752
2.099 5.459 2.508
2.224 5.530 2.720
0.603 3.186 2.515
0.772 3.318 2.433
1.032 3.531 2.317
1.241 3.892 2.402
1.405 4.116 2.292
1.415 4.499 2.235
1.584 4.629 2.524
1.660 4.973 2.374
1.736 5.101 2.531
2.168 5.455 2.502
2.068 5.545 2.488
1.137 3.517 2.227
1.073 3.778 2.161
1.387 4.285 2.211
1.539 4.535 1.921
1.414 4.795 1.985
1.605 4.948 2.223
1.833 5.279 2.196
1.811 5.503 2.133
2.158 5.632 2.041
1.190 4.092 1.665
1.262 4.292 1.731
1.270 4.497 1.900
1.465 4.789 1.712
1.734 4.816 1.816
1.616 5.224 1.740
1.787 5.608 1.816
2.008 5.719 1.653
1.234 4.380 1.470
1.333 4.448 1.417
1.544 4.581 1.371
1.589 5.021 1.329
1.556 5.112 1.577
1.754 5.368 1.345
2.069 5.695 1.327
1.276 4.637 1.370
1.451 4.939 1.314
1.557 5.195 1.344
1.716 5.414 1.071
1.829 5.675 1.313
0.850 1.883 4.814
0.893 2.356 4.744
1.223 2.626 4.588
0.728 1.774 4.553
0.762 1.925 4.622
0.836 2.428 4.439
1.289 2.488 4.588
1.115 2.700 4.455
1.284 2.972 4.312
0.348 1.703 4.546
0.301 1.966 4.695
0.626 2.297 4.664
0.869 2.511 4.367
0.955 2.747 4.399
1.039 3.143 4.591
0.103 1.584 4.230
0.140 1.688 4.370
0.480 1.822 4.219
0.510 2.222 4.236
0.684 2.469 4.143
0.723 2.647 4.357
0.810 2.950 4.099
1.132 3.175 4.368
-0.094 1.436 4.038
0.230 1.761 3.927
0.253 1.902 4.137
0.478 2.139 3.935
0.671 2.490 4.069
0.818 2.701 3.885
1.018 2.901 3.915
1.028 3.169 3.900
1.306 3.565 4.027
0.223 1.907 3.650
0.258 2.037 3.617
0.520 2.292 3.831
0.555 2.525 3.775
0.498 2.777 3.746
0.662 2.966 3.526
0.785 3.462 3.591
1.186 3.561 3.493
1.210 3.940 3.568
0.147 1.750 3.502
0.097 1.907 3.276
0.223 2.439 3.213
0.579 2.740 3.254
0.728 2.767 3.344
0.553 3.201 3.480
0.789 3.526 3.256
0.935 3.506 3.219
1.103 3.826 3.188
1.181 4.009 3.263
1.598 4.366 3.421
0.260 2.217 3.224
0.177 2.306 2.987
0.464 2.770 3.105
0.434 2.901 3.157
0.593 2.995 3.198
0.667 3.423 3.022
1.008 3.643 3.231
1.220 4.068 3.055
1.097 4.376 2.993
1.273 4.516 2.999
1.428 4.699 3.163
1.696 4.934 3.070
1.915 5.372 2.964
1.987 5.360 3.168
2.002 5.797 2.892
0.120 2.072 2.883
0.114 2.546 2.690
0.203 2.720 2.750
0.492 3.055 2.630
0.434 3.331 2.811
0.582 3.366 2.805
0.841 3.626 2.860
1.017 4.069 2.783
1.082 4.264 2.646
1.443 4.365 2.892
1.598 4.662 2.584
1.478 4.858 2.629
1.599 5.457 2.665
1.937 5.649 2.694
2.026 5.826 2.825
0.699 3.603 2.608
0.815 3.602 2.616
1.085 4.011 2.494
1.218 4.128 2.579
1.192 4.679 2.373
1.222 4.726 2.410
1.536 4.995 2.464
1.733 5.351 2.412
1.806 5.578 2.522
1.986 5.703 2.367
0.815 4.069 2.173
1.054 4.369 2.213
1.011 4.540 2.180
1.291 4.731 2.185
1.444 5.243 2.095
1.552 5.438 2.173
1.793 5.701 2.179
1.713 5.817 2.152
0.860 4.456 1.986
0.910 4.436 1.751
1.343 5.001 2.010
1.464 4.970 1.995
1.655 5.395 1.890
1.668 5.597 1.694
1.678 5.789 1.741
1.066 4.670 1.657
1.122 4.795 1.634
1.170 5.253 1.566
1.560 5.547 1.419
1.448 5.586 1.721
1.555 5.904 1.675
0.902 4.994 1.220
1.262 5.182 1.405
1.264 5.429 1.332
1.426 5.738 1.408
0.776 2.037 4.685
0.412 1.721 4.657
0.506 1.843 4.681
0.629 2.178 4.665
0.849 2.631 4.432
0.876 2.607 4.642
0.971 2.931 4.624
2.198 5.915 3.116
2.072 6.159 3.160
1.996 6.191 2.712
2.118 6.175 2.412
2.074 6.082 2.032
1.827 6.311 1.890
1.678 6.049 1.580
2.148 6.227 3.470
2.116 6.187 3.078
1.841 6.277 2.947
1.870 6.247 2.388
1.788 6.262 2.301
1.836 6.234 3.575
2.449 5.939 2.838
2.433 6.067 2.811
2.390 6.052 2.790
2.548 6.205 2.686
2.287 5.865 2.399
2.309 6.150 2.318
2.401 6.122 2.198
2.149 6.039 1.594
2.314 6.110 3.152
2.247 6.210 2.896
2.087 5.933 2.593
2.024 6.269 2.363
1.945 6.257 2.231
1.800 6.205 1.774
1.825 6.127 1.655
