2.921 3.901 5.901
2.922 3.775 5.742
3.018 3.564 5.548
2.866 4.497 6.262
2.733 4.239 5.890
2.958 4.137 5.795
2.904 3.985 5.657
3.014 3.904 5.260
2.943 4.765 5.892
2.951 4.639 5.663
2.798 4.286 5.455
2.912 4.317 5.394
2.980 3.927 4.987
2.750 4.774 5.508
2.874 4.679 5.334
2.941 4.349 5.268
2.876 4.223 4.833
2.942 4.852 5.030
2.736 4.692 4.919
2.895 4.530 4.644
3.301 2.851 6.137
3.300 3.436 6.146
3.203 3.289 5.810
3.250 3.811 6.182
3.154 3.539 5.897
3.319 3.325 5.705
3.103 4.294 6.244
3.278 4.129 6.054
3.271 3.930 5.714
3.303 3.743 5.575
3.067 4.491 6.248
3.042 4.276 5.957
3.042 4.133 5.848
3.034 3.927 5.598
3.177 3.789 5.338
3.080 4.937 6.248
3.100 4.860 6.070
3.055 4.553 5.670
3.123 4.512 5.558
3.042 4.317 5.384
3.066 4.016 5.113
3.026 4.880 5.765
3.173 4.855 5.646
3.094 4.633 5.220
3.020 4.423 5.002
3.021 4.227 4.944
3.036 5.131 5.270
3.165 4.703 5.229
3.208 4.781 4.872
3.207 4.423 4.842
3.566 3.440 6.092
3.515 3.934 6.097
3.536 3.663 5.998
3.598 3.517 5.665
3.462 4.223 6.151
3.376 4.121 5.898
3.436 3.713 5.720
3.454 3.576 5.455
3.524 4.637 6.111
3.479 4.459 5.963
3.490 4.263 5.824
3.337 3.988 5.609
3.401 3.964 5.417
3.278 5.038 6.187
3.517 4.896 6.080
3.302 4.687 5.718
3.320 4.443 5.476
3.557 4.324 5.399
3.575 3.933 5.005
3.368 5.188 6.043
3.339 5.084 5.887
3.360 4.790 5.598
3.367 4.725 5.368
3.413 4.523 5.237
3.368 4.236 5.015
3.363 5.358 5.517
3.383 4.937 5.263
3.280 4.840 5.043
3.351 4.609 4.835
3.357 4.536 4.727
3.709 3.853 6.034
3.810 3.617 5.796
3.660 4.225 6.058
3.746 4.100 6.041
3.830 3.716 5.629
3.893 3.683 5.370
3.664 4.538 6.238
3.786 4.503 6.022
3.829 4.349 5.673
3.688 3.978 5.562
3.735 3.882 5.214
3.627 4.973 6.233
3.773 4.781 5.939
3.715 4.604 5.720
3.717 4.563 5.511
3.583 4.162 5.275
3.642 4.142 5.008
3.632 5.535 6.112
3.784 5.294 6.076
3.653 5.022 5.694
3.633 4.783 5.566
3.617 4.663 5.441
3.827 4.449 5.007
3.696 4.290 4.992
3.652 5.565 5.767
3.528 5.347 5.636
3.525 4.997 5.474
3.637 4.796 5.080
3.547 4.754 4.955
3.697 4.598 4.804
4.095 3.724 6.004
4.064 4.179 6.136
3.976 4.037 5.929
4.087 3.844 5.785
3.996 4.703 6.088
4.093 4.491 5.801
3.936 4.165 5.857
3.995 3.943 5.506
4.030 3.839 5.211
3.864 5.093 6.100
3.857 4.771 6.065
3.883 4.734 5.703
3.870 4.473 5.527
4.022 4.318 5.285
3.934 4.174 5.031
3.869 5.382 6.275
4.051 5.310 5.912
4.086 5.094 5.647
4.060 4.882 5.627
4.097 4.582 5.320
4.095 4.602 5.184
3.896 4.261 4.936
3.902 5.718 6.320
3.863 5.575 5.919
3.975 5.440 5.794
3.924 5.263 5.448
3.891 5.015 5.474
3.902 4.922 5.274
4.075 4.760 4.904
3.955 4.505 4.715
4.168 4.156 6.248
4.397 4.161 6.045
4.227 4.554 6.122
4.317 4.351 5.947
4.224 4.264 5.801
4.259 4.032 5.594
4.198 5.093 6.126
4.183 4.958 6.062
4.216 4.662 5.733
4.374 4.583 5.552
4.319 4.338 5.184
4.283 4.153 5.077
4.155 5.336 6.090
4.221 5.280 5.873
4.319 4.950 5.888
4.268 4.936 5.501
4.288 4.742 5.359
4.352 4.576 5.070
4.194 4.191 4.958
4.240 5.955 6.283
4.123 5.690 6.031
4.195 5.536 5.890
4.151 5.365 5.451
4.265 5.146 5.416
4.121 4.995 5.245
4.151 4.642 4.941
4.292 4.596 4.620
4.715 4.259 6.124
4.580 4.749 6.269
4.431 4.580 5.790
4.649 4.266 5.700
4.566 5.067 6.279
4.574 4.778 6.060
4.414 4.619 5.726
4.432 4.599 5.415
4.699 4.303 5.273
4.581 5.363 6.305
4.526 5.190 5.917
4.631 5.170 5.690
4.602 4.810 5.629
4.535 4.608 5.233
4.473 4.506 5.218
4.545 5.918 6.212
4.614 5.578 6.073
4.599 5.384 5.799
4.501 5.224 5.533
4.429 5.192 5.361
4.630 4.945 5.018
4.754 4.424 6.233
4.880 4.713 6.106
4.922 4.487 5.897
4.778 5.121 6.072
4.696 4.807 5.975
4.740 4.609 5.721
4.883 5.489 6.074
4.813 5.443 5.929
4.758 5.168 5.632
4.782 5.009 5.463
4.850 5.881 6.327
4.838 5.842 6.052
4.740 5.599 5.649
4.813 5.451 5.456
5.152 4.696 6.032
5.007 5.021 6.238
5.199 4.909 5.878
5.021 5.475 6.076
5.008 5.377 6.004
5.096 5.062 5.772
5.004 6.060 6.058
4.929 5.808 6.068
5.019 5.474 5.819
5.375 4.763 6.186
5.275 5.020 6.236
5.411 4.845 5.977
5.446 5.436 6.161
5.290 5.460 6.052
5.228 5.896 6.323
5.352 5.807 6.104
5.766 5.095 6.114
5.704 5.438 6.122
5.701 5.972 6.314
1.505 0.121 6.160
1.527 0.053 6.003
1.343 0.609 6.057
1.524 0.316 5.996
1.387 0.277 5.797
1.528 0.087 5.599
1.318 0.915 6.277
1.275 0.953 6.003
1.289 0.708 5.749
1.303 0.523 5.704
1.424 0.232 5.237
1.436 -0.025 5.259
1.362 1.490 6.319
1.384 1.271 6.038
1.392 0.938 5.857
1.448 0.836 5.698
1.418 0.762 5.333
1.304 0.516 5.087
1.471 0.147 4.965
1.417 0.153 4.872
1.209 1.720 6.377
1.245 1.691 5.913
1.317 1.390 5.760
1.356 1.321 5.667
1.456 1.158 5.459
1.434 0.869 5.184
1.307 0.798 4.882
1.255 0.389 4.703
1.350 0.357 4.689
1.338 -0.004 4.352
1.291 2.214 6.309
1.453 0.185 3.817
1.405 2.186 6.348
1.533 0.206 3.507
1.462 0.282 3.081
1.487 0.130 2.815
1.352 0.106 2.431
1.428 -0.109 2.018
1.673 0.126 6.191
1.598 0.080 5.852
1.601 0.609 6.198
1.575 0.499 5.957
1.805 0.202 5.652
1.680 0.147 5.442
1.687 1.058 6.166
1.607 0.829 5.878
1.617 0.756 5.849
1.551 0.525 5.669
1.631 0.280 5.245
1.712 0.185 5.037
1.626 1.529 6.269
1.656 1.283 5.959
1.550 1.101 5.845
1.613 0.899 5.589
1.549 0.608 5.402
1.641 0.517 5.179
1.606 0.409 4.867
1.566 1.715 6.353
1.687 1.604 6.012
1.736 1.349 5.880
1.679 1.399 5.540
1.530 1.007 5.519
1.621 2.205 6.347
1.497 2.062 5.953
1.560 1.976 5.744
1.705 2.380 6.180
1.557 2.471 6.027
1.467 2.418 6.127
1.814 -0.012 2.607
1.643 0.004 2.173
2.083 0.168 6.295
2.114 0.170 5.983
1.876 0.693 6.227
1.969 0.567 5.838
2.041 0.181 5.637
2.040 0.014 5.566
1.937 1.144 6.155
1.895 0.840 6.020
2.089 0.618 5.736
2.051 0.401 5.548
1.893 0.275 5.448
1.776 1.373 6.232
1.839 1.333 6.148
1.881 1.213 5.857
1.909 1.002 5.677
1.901 0.816 5.483
1.820 1.748 6.199
1.786 1.792 6.170
1.893 1.489 5.821
1.947 1.222 5.743
1.827 2.165 6.260
1.889 2.134 6.089
1.886 1.949 5.723
1.810 2.382 6.254
1.865 2.551 6.100
1.843 2.251 5.911
1.841 2.538 6.026
1.709 2.667 5.759
1.860 2.755 5.804
1.873 0.134 2.638
1.831 0.022 2.158
2.251 0.183 6.040
2.303 0.011 6.026
2.197 0.640 6.295
2.170 0.620 5.846
2.164 0.408 5.755
2.105 1.194 6.072
2.283 0.763 6.012
2.190 0.719 5.820
2.346 0.472 5.697
2.205 1.560 6.210
2.323 1.354 6.058
2.311 1.100 5.666
2.321 1.019 5.592
2.262 1.997 6.137
2.227 1.817 6.045
2.118 1.435 5.839
2.239 1.266 5.619
2.102 2.357 6.361
2.226 1.966 6.175
2.182 1.954 5.925
2.045 2.194 6.322
2.165 2.421 6.057
2.085 2.293 5.755
2.184 2.631 6.048
2.179 2.801 5.874
2.079 2.408 5.641
2.137 2.772 5.813
2.015 3.002 5.792
2.094 2.944 5.696
2.164 0.102 2.217
2.341 0.015 1.781
2.449 0.283 6.042
2.544 0.080 5.939
2.561 0.664 6.299
2.668 0.640 6.055
2.579 0.181 5.776
2.608 0.985 6.264
2.487 0.812 5.884
2.539 0.824 5.836
2.503 1.549 6.134
2.481 1.278 6.028
2.435 1.028 5.710
2.577 1.798 6.347
2.411 1.789 5.960
2.393 1.449 5.760
2.400 2.439 6.206
2.504 2.224 6.058
2.389 1.968 5.749
2.352 2.289 6.235
2.486 2.426 6.160
2.354 2.218 5.784
2.425 2.509 6.071
2.399 2.720 5.893
2.413 2.507 5.748
2.311 2.796 5.954
2.380 3.019 5.714
2.500 3.007 5.667
2.376 3.088 5.417
2.391 0.138 2.125
2.461 3.270 5.492
2.636 -0.025 1.714
2.567 0.047 1.268
2.891 0.241 6.183
2.879 0.808 6.163
2.900 0.625 5.939
2.794 1.077 6.276
2.939 1.045 5.998
2.853 1.402 6.112
2.794 1.463 6.058
2.805 1.807 6.290
2.692 1.717 5.977
2.774 2.461 6.254
2.763 2.099 6.173
2.647 2.404 6.139
2.828 2.462 6.196
2.763 2.391 5.989
2.803 2.596 6.080
2.788 2.677 5.757
2.555 2.653 5.754
2.738 2.962 5.586
2.605 2.890 5.802
2.615 3.105 5.368
2.785 0.224 2.048
2.583 3.149 5.516
2.553 3.487 5.196
2.701 0.191 1.654
2.600 3.417 5.418
2.506 3.522 5.208
2.823 0.364 1.374
2.800 0.167 1.216
2.503 3.458 4.989
2.534 3.787 4.930
2.852 0.471 1.053
2.684 0.168 0.971
2.596 3.707 4.972
2.659 3.996 4.643
2.895 0.335 0.683
2.665 0.310 0.544
2.585 4.097 4.788
2.596 4.305 4.527
2.831 0.135 0.012
2.486 4.341 4.395
3.197 0.287 6.136
3.110 0.613 6.254
3.059 1.122 6.262
2.928 2.373 6.243
2.911 2.476 6.307
3.021 2.505 6.140
3.028 2.591 6.160
2.918 2.747 5.971
3.016 2.904 5.971
2.979 3.086 5.774
2.858 2.941 5.653
3.040 3.111 5.559
3.131 0.208 2.235
3.038 3.167 5.497
2.973 3.278 5.379
2.967 0.396 1.947
3.154 0.086 1.639
3.048 3.317 5.349
2.930 3.524 5.081
3.009 0.266 1.407
2.993 0.207 1.169
3.023 3.634 5.149
2.803 3.702 4.859
2.938 3.687 4.606
2.939 0.513 1.262
3.195 0.383 1.006
3.033 0.104 0.889
2.999 3.920 4.915
2.773 4.145 4.748
2.961 3.772 4.427
2.964 0.595 1.012
2.928 0.361 0.639
2.983 0.277 0.430
3.092 -0.022 0.214
2.900 3.996 4.784
2.834 4.208 4.556
2.964 4.021 4.384
2.842 3.801 4.124
3.081 0.556 0.502
3.059 0.286 0.293
3.044 0.193 0.017
2.947 4.137 4.638
3.305 3.291 5.497
3.314 0.208 1.967
3.089 3.121 5.488
3.142 3.446 5.215
3.441 0.219 2.033
3.298 0.050 1.807
3.189 3.541 5.328
3.077 3.714 4.989
3.272 3.468 4.942
3.449 0.690 1.646
3.279 0.342 1.636
3.352 0.153 1.276
3.207 3.518 5.123
3.272 3.934 4.983
3.089 3.760 4.710
3.421 0.851 1.460
3.469 0.569 1.404
3.479 0.499 1.022
3.360 0.281 0.819
3.482 0.033 0.621
3.233 3.776 4.889
3.036 4.129 4.834
3.282 3.787 4.554
3.131 3.613 4.236
3.423 0.739 1.118
3.401 0.618 0.852
3.408 0.315 0.585
3.476 0.125 0.436
3.462 -0.072 0.274
3.107 3.923 4.604
3.143 4.319 4.564
3.131 4.179 4.367
3.183 3.909 4.216
3.203 3.552 3.790
3.358 0.934 0.753
3.447 0.530 0.557
3.279 0.475 0.275
3.223 0.295 0.067
3.221 4.238 4.610
3.658 0.202 2.124
3.470 3.463 5.372
3.550 0.280 1.888
3.732 0.275 1.800
3.501 3.302 5.160
3.430 3.661 5.176
3.363 3.464 4.935
3.588 0.545 1.682
3.771 0.402 1.533
3.583 0.282 1.413
3.671 0.028 0.997
3.471 3.580 5.066
3.540 3.996 4.772
3.400 3.802 4.811
3.718 0.787 1.575
3.531 0.670 1.224
3.599 0.445 1.201
3.533 0.122 0.774
3.627 0.015 0.771
3.395 3.947 4.913
3.377 4.177 4.700
3.519 3.775 4.634
3.358 3.743 4.309
3.614 0.983 1.307
3.731 0.685 1.138
3.508 0.503 0.865
3.611 0.312 0.765
3.529 0.193 0.548
3.780 -0.008 0.309
3.398 4.195 4.680
3.462 4.200 4.389
3.417 4.177 4.337
3.355 3.949 4.025
3.401 3.703 3.836
3.464 3.621 3.606
3.567 0.900 1.039
3.491 0.907 0.639
3.673 0.740 0.593
3.718 0.581 0.409
3.715 0.361 0.120
3.283 4.243 4.515
3.818 0.127 2.181
3.920 0.626 2.159
4.063 0.314 1.886
3.881 0.327 1.557
4.046 0.038 1.522
3.832 3.745 5.103
3.951 0.665 1.824
3.958 0.514 1.821
4.056 0.447 1.435
3.812 0.341 1.258
4.028 0.017 0.977
3.623 3.625 5.034
3.631 3.776 4.830
3.875 3.684 4.670
3.932 0.937 1.649
3.860 0.871 1.466
3.836 0.678 1.181
3.843 0.401 1.181
3.945 0.367 0.820
3.893 -0.046 0.677
3.788 3.749 4.982
3.788 4.120 4.631
3.597 3.787 4.632
3.639 3.730 4.421
3.997 1.353 1.626
3.918 1.002 1.215
3.893 0.721 1.144
3.979 0.612 0.808
4.048 0.581 0.733
3.843 0.139 0.540
3.962 0.203 0.373
3.720 4.044 4.743
3.807 4.187 4.496
3.641 4.179 4.225
3.760 4.002 4.173
3.782 3.591 3.879
3.680 3.441 3.620
3.986 1.132 1.121
3.968 1.088 1.054
3.996 0.724 0.684
3.894 0.649 0.603
3.853 0.566 0.299
3.921 0.187 0.175
3.807 4.308 4.492
4.200 0.171 2.171
4.198 0.076 1.779
4.088 0.510 2.027
4.114 0.355 1.808
4.096 0.169 1.623
4.360 0.166 1.460
4.170 1.020 2.025
4.321 0.823 1.786
4.253 0.607 1.615
4.154 0.523 1.485
4.198 0.170 1.268
4.115 0.157 0.966
3.985 3.823 4.820
4.230 1.428 2.263
4.243 1.326 2.043
4.287 1.072 1.583
4.059 0.789 1.424
4.197 0.561 1.218
4.158 0.427 0.978
4.243 0.234 0.913
4.224 0.024 0.561
3.934 3.812 4.832
4.047 4.035 4.569
3.979 3.856 4.358
4.111 3.827 4.296
4.037 1.660 1.994
4.143 1.533 1.740
4.268 1.210 1.585
4.227 1.112 1.242
4.237 0.800 1.107
4.255 0.797 0.789
4.318 0.559 0.686
4.217 0.178 0.413
4.250 0.143 0.365
4.051 4.149 4.682
3.973 4.260 4.407
3.937 4.087 4.413
3.981 3.845 4.068
4.048 3.813 3.778
4.124 3.500 3.720
4.019 3.406 3.375
4.184 1.770 1.678
4.013 1.494 1.206
4.248 1.338 1.204
4.297 1.021 1.009
4.192 0.872 0.603
4.279 0.626 0.414
4.297 0.451 0.144
4.247 0.345 0.190
3.968 4.259 4.524
4.396 0.413 2.314
4.545 0.238 2.202
4.423 -0.051 2.001
4.561 0.767 2.252
4.624 0.597 2.219
4.397 0.363 1.761
4.429 0.142 1.712
4.529 0.153 1.594
4.383 1.106 2.320
4.412 0.891 2.134
4.383 0.721 1.820
4.437 0.624 1.790
4.611 0.321 1.544
4.630 0.193 1.407
4.610 0.117 1.099
4.333 1.692 2.250
4.509 1.565 2.200
4.445 1.298 2.026
4.485 1.096 1.652
4.358 0.980 1.527
4.444 0.803 1.360
4.402 0.608 1.060
4.625 0.295 0.964
4.409 0.076 0.691
4.240 4.067 4.828
4.445 2.161 2.442
4.295 1.734 2.096
4.450 1.509 1.961
4.418 1.539 1.624
4.313 1.124 1.521
4.585 1.002 1.373
4.434 0.927 1.122
4.591 0.580 0.838
4.553 0.546 0.788
4.480 0.235 0.399
4.453 0.104 0.246
4.301 4.254 4.707
4.288 4.313 4.423
4.217 4.043 4.202
4.162 4.016 3.993
4.260 3.636 3.767
4.206 3.593 3.676
4.420 3.495 3.454
4.248 3.204 3.225
4.472 2.870 2.965
4.391 2.917 2.926
4.303 2.748 2.565
4.426 2.516 2.393
4.402 2.223 2.202
4.463 2.096 1.869
4.362 1.820 1.696
4.383 1.710 1.482
4.519 1.572 1.238
4.352 1.181 1.059
4.345 1.145 0.876
4.550 0.799 0.644
4.472 0.831 0.464
4.376 0.505 0.196
4.405 0.315 -0.007
4.299 4.450 4.391
4.672 0.629 2.525
4.872 0.349 2.249
4.780 0.204 2.142
4.923 0.117 1.739
4.774 1.124 2.566
4.646 0.725 2.416
4.833 0.771 2.114
4.925 0.541 1.829
4.911 0.210 1.577
4.937 0.138 1.389
4.864 1.511 2.438
4.617 1.130 2.276
4.852 0.954 2.100
4.833 0.771 1.809
4.829 0.598 1.567
4.683 0.392 1.392
4.892 0.218 1.268
4.747 -0.015 1.145
4.579 1.745 2.632
4.691 1.648 2.245
4.856 1.463 2.179
4.810 1.259 1.809
4.728 0.991 1.841
4.652 0.817 1.410
4.865 0.607 1.170
4.800 0.482 1.059
4.706 0.336 0.986
4.706 0.023 0.529
4.652 2.293 2.919
4.736 2.360 2.680
4.679 2.031 2.385
4.676 1.785 2.193
4.693 1.756 1.974
4.846 1.558 1.658
4.614 1.194 1.518
4.687 1.099 1.182
4.826 0.830 1.080
4.799 0.748 0.956
4.741 0.418 0.719
4.732 0.448 0.492
4.603 3.134 3.355
4.601 3.156 3.133
4.631 2.856 2.743
4.639 2.719 2.668
4.767 2.402 2.437
4.545 2.322 2.215
4.668 2.112 1.968
4.819 1.756 1.870
4.817 1.778 1.416
4.621 1.355 1.258
4.816 1.282 1.012
4.803 1.126 0.816
4.658 0.925 0.596
4.803 0.691 0.489
4.998 0.309 2.635
5.087 0.291 2.395
4.942 0.832 2.804
5.049 0.645 2.488
5.141 0.530 2.293
5.018 0.342 2.054
5.042 -0.053 1.862
5.045 1.153 2.672
5.036 1.026 2.459
5.119 0.845 2.430
5.169 0.607 2.012
5.146 0.401 1.855
5.069 0.317 1.543
5.044 0.012 1.447
5.019 1.619 2.873
5.057 1.527 2.662
5.157 1.246 2.226
4.985 1.155 2.112
5.014 0.832 1.832
5.018 0.818 1.606
5.035 0.434 1.447
5.024 0.256 1.240
5.072 1.986 2.764
5.008 1.779 2.502
5.037 1.657 2.259
5.141 1.337 2.129
5.017 1.405 1.807
4.971 1.027 1.757
4.937 0.950 1.571
4.948 0.576 1.360
5.131 0.419 0.937
4.842 2.386 2.773
4.866 2.330 2.662
4.940 1.957 2.386
4.923 1.936 2.277
4.980 1.783 1.867
5.101 1.442 1.731
4.887 1.288 1.436
5.124 1.023 1.385
4.927 1.041 1.094
4.952 0.633 0.777
4.946 2.931 2.947
4.889 2.767 2.942
4.842 2.773 2.656
4.929 2.487 2.466
4.937 2.249 2.295
5.060 2.091 2.047
4.985 1.941 1.833
4.848 1.809 1.588
5.130 1.470 1.399
4.905 1.438 1.100
4.913 1.237 0.788
5.557 -0.047 6.169
5.285 0.775 2.813
5.432 0.507 2.604
5.264 0.128 2.460
5.263 0.119 2.203
5.441 1.018 2.910
5.308 0.865 2.599
5.432 0.796 2.395
5.344 0.381 2.234
5.352 0.253 2.176
5.274 0.197 1.790
5.347 1.408 2.894
5.224 1.198 2.616
5.285 0.964 2.408
5.221 0.947 2.250
5.356 0.674 2.065
5.383 0.503 1.804
5.351 0.213 1.709
5.176 1.893 2.913
5.178 1.771 2.843
5.312 1.456 2.415
5.372 1.187 2.308
5.406 1.122 2.062
5.382 0.948 1.955
5.385 0.600 1.745
5.234 0.398 1.386
5.268 2.185 2.813
5.233 1.772 2.528
5.327 1.699 2.347
5.404 1.395 2.045
5.271 1.186 1.915
5.256 1.039 1.778
5.238 0.912 1.416
5.396 0.621 1.229
5.320 2.468 2.722
5.264 2.366 2.568
5.322 2.010 2.366
5.208 1.891 2.106
5.344 1.781 1.919
5.409 1.399 1.755
5.183 1.323 1.624
5.443 1.063 1.200
5.451 0.958 0.985
5.104 3.117 3.019
5.234 2.816 2.917
5.134 2.799 2.596
5.281 2.391 2.450
5.296 2.254 2.219
5.375 2.176 1.847
5.240 1.775 1.670
5.141 1.778 1.504
5.289 1.629 1.442
5.306 1.435 1.013
5.789 0.170 6.136
5.607 0.155 5.625
5.578 0.662 3.190
5.590 0.419 3.065
5.767 0.252 2.868
5.628 0.103 2.628
5.726 0.871 2.974
5.519 0.703 2.912
5.682 0.577 2.714
5.662 0.416 2.367
5.539 0.200 2.240
5.736 1.388 3.127
5.524 0.940 2.874
5.538 0.906 2.646
5.659 0.814 2.598
5.527 0.367 2.229
5.692 0.351 2.040
5.739 0.170 1.959
5.641 1.557 3.069
5.628 1.306 2.706
5.585 1.087 2.590
5.740 0.892 2.371
5.761 0.794 2.070
5.780 0.499 1.799
5.681 0.433 1.542
5.656 1.949 2.908
5.459 1.724 2.621
5.577 1.434 2.435
5.552 1.244 2.341
5.652 1.148 2.013
5.692 0.974 1.936
5.763 0.648 1.805
5.566 0.488 1.419
5.449 2.184 2.738
5.431 1.828 2.684
5.493 1.728 2.452
5.620 1.604 2.049
5.471 1.228 1.834
5.491 1.177 1.571
5.486 0.831 1.558
5.673 0.678 1.229
5.619 2.508 2.701
5.595 2.194 2.687
5.494 2.211 2.322
5.470 1.813 2.263
5.649 1.655 1.845
5.666 1.529 1.788
5.464 1.454 1.398
5.469 1.184 1.320
5.616 2.787 2.922
5.500 2.715 2.614
5.441 2.535 2.505
5.426 2.222 2.089
5.474 2.018 1.978
5.621 1.929 1.701
5.662 1.651 1.643
5.667 1.454 1.287
6.004 0.238 6.182
5.984 0.447 6.033
5.915 0.263 5.723
5.993 0.282 5.382
5.979 0.067 5.221
5.987 0.381 5.023
6.017 0.047 4.982
5.902 0.116 4.535
5.921 0.049 4.349
5.868 0.118 4.207
5.855 0.137 3.855
5.827 0.335 4.011
5.982 0.126 3.658
5.860 0.023 3.447
5.940 0.541 3.668
6.044 0.443 3.532
5.913 0.145 3.238
5.883 0.202 3.181
5.848 0.984 3.627
6.054 0.737 3.427
5.814 0.422 3.169
5.939 0.175 2.740
5.919 0.030 2.548
5.887 1.024 3.225
6.039 0.993 3.171
5.944 0.549 2.912
6.031 0.607 2.778
5.867 0.277 2.419
5.978 0.212 2.201
5.801 1.283 3.133
6.031 1.158 3.020
5.894 1.001 2.715
5.792 0.697 2.410
5.975 0.592 2.381
5.995 0.243 2.124
6.074 0.015 1.762
5.801 1.596 2.946
5.749 1.329 2.728
5.894 1.058 2.449
5.864 0.871 2.231
6.034 0.649 2.192
5.917 0.482 1.786
5.923 0.395 1.649
5.921 1.732 2.753
5.932 1.478 2.602
5.817 1.448 2.226
5.947 1.217 2.024
5.921 1.048 1.922
5.851 0.831 1.804
5.848 2.038 2.833
5.917 1.855 2.602
5.955 1.700 2.330
5.946 1.560 2.114
5.771 1.307 1.896
5.975 1.220 1.613
6.008 0.891 1.595
5.801 2.332 2.445
5.884 2.166 2.468
5.952 2.057 2.123
5.972 1.740 1.892
5.903 1.418 1.594
5.825 1.264 1.465
5.713 2.648 2.565
5.879 2.638 2.466
5.779 2.282 2.124
5.866 2.250 1.815
5.891 1.965 1.660
5.900 1.696 1.624
6.368 0.377 5.919
6.194 0.558 5.813
6.232 0.406 5.392
6.226 0.211 5.295
6.360 0.720 5.320
6.154 0.494 5.129
6.246 0.191 4.976
6.210 0.611 4.905
6.252 0.395 4.651
6.205 0.217 4.530
6.190 0.168 4.219
6.366 0.511 4.449
6.368 0.482 4.329
6.267 0.220 4.185
6.404 0.023 3.981
6.154 0.715 3.984
6.187 0.519 3.746
6.136 0.310 3.583
6.301 0.203 3.445
6.273 0.847 3.951
6.218 0.694 3.800
6.213 0.374 3.351
6.212 0.366 3.303
6.151 0.116 3.131
6.335 0.755 3.527
6.298 0.714 3.388
6.299 0.409 3.154
6.106 0.399 2.884
6.338 0.214 2.684
6.243 1.173 3.199
6.183 0.915 3.198
6.290 0.819 2.828
6.123 0.410 2.629
6.299 0.315 2.427
6.256 0.141 2.346
6.106 1.203 3.242
6.100 1.202 2.812
6.247 0.819 2.557
6.155 0.717 2.582
6.110 0.424 2.187
6.147 0.377 1.959
6.179 0.278 1.964
6.047 1.611 2.871
6.090 1.348 2.596
6.306 1.099 2.588
6.329 0.968 2.210
6.070 0.816 2.164
6.175 0.633 1.992
6.230 1.686 2.860
6.195 1.610 2.640
6.132 1.371 2.263
6.093 1.204 1.973
6.109 0.838 1.820
6.139 0.676 1.790
6.061 1.864 2.497
6.016 1.622 2.205
6.222 1.469 1.983
6.046 1.463 1.965
6.040 1.079 1.651
6.190 2.043 2.463
6.046 1.924 2.168
6.051 1.866 1.933
6.085 1.457 1.684
6.173 2.398 2.183
6.035 2.141 1.970
0.283 0.221 6.076
0.347 0.219 5.981
0.224 0.188 5.829
0.358 0.410 5.700
0.326 0.237 5.469
0.332 0.333 5.115
0.231 0.134 5.091
0.192 0.109 4.791
0.215 0.440 4.838
0.297 0.251 4.634
0.236 0.094 4.388
0.353 0.323 4.409
0.229 0.128 4.079
0.201 0.078 3.926
0.110 0.552 4.043
0.193 0.118 3.815
0.336 -0.014 3.605
0.116 0.586 3.867
0.167 0.497 3.479
0.249 0.252 3.395
0.279 0.197 3.093
0.158 0.714 3.393
0.287 0.487 3.143
0.271 0.240 3.002
0.301 0.104 2.852
0.165 0.901 3.113
0.191 0.783 2.957
0.191 0.509 2.888
0.133 0.318 2.541
0.205 0.108 2.440
0.164 0.888 2.720
0.310 0.781 2.484
0.168 0.488 2.403
0.116 0.398 2.289
0.256 0.164 1.904
0.104 1.163 2.500
0.102 0.914 2.509
0.076 0.823 2.291
0.107 0.565 2.021
0.443 0.280 6.130
0.530 0.245 6.037
0.658 0.297 5.687
0.634 0.614 5.718
0.589 0.328 5.499
0.541 0.283 5.264
0.690 0.113 5.119
0.643 0.470 5.533
0.442 0.369 5.149
0.669 0.299 4.916
0.576 -0.089 4.860
0.457 0.635 4.899
0.644 0.429 4.820
0.449 0.105 4.512
0.685 0.150 4.222
0.427 0.571 4.402
0.604 0.306 4.231
0.609 0.193 3.838
0.459 0.535 4.099
0.534 0.305 3.769
0.409 0.110 3.535
0.429 0.676 3.898
0.560 0.433 3.550
0.426 0.235 3.286
0.409 0.236 3.171
0.529 0.694 3.431
0.528 0.575 3.164
0.618 0.287 3.066
0.614 0.179 2.788
0.354 0.672 2.876
0.544 0.658 2.810
0.605 0.394 2.623
0.424 0.068 2.370
0.544 0.631 2.507
0.588 0.484 2.345
0.615 0.261 2.017
0.444 0.144 1.976
0.793 0.248 6.111
0.947 0.536 6.191
0.820 0.265 5.924
0.834 0.066 5.713
0.915 0.084 5.600
0.705 0.711 5.997
0.915 0.634 5.792
0.873 0.527 5.483
0.785 0.321 5.334
0.949 -0.037 5.177
0.702 0.765 5.550
0.819 0.587 5.490
0.927 0.295 5.220
0.730 0.229 5.004
0.713 0.109 4.745
0.736 0.758 5.072
0.902 0.376 4.902
0.919 0.262 4.473
0.742 -0.013 4.456
0.701 0.513 4.474
0.911 0.354 4.159
0.855 0.074 4.006
0.823 0.468 3.906
0.934 0.260 3.832
0.893 0.024 3.641
0.740 0.381 3.632
0.713 0.234 3.387
0.806 0.047 3.242
0.785 0.572 3.195
0.846 0.427 2.828
0.683 0.199 2.844
0.741 0.539 2.683
0.896 0.314 2.439
0.862 0.261 2.334
0.799 0.470 2.367
0.671 0.329 2.137
1.102 0.307 6.207
1.129 0.043 6.076
1.069 0.696 6.094
1.033 0.295 5.859
1.137 0.221 5.855
1.117 0.075 5.699
0.965 1.127 6.167
1.198 0.850 5.892
1.076 0.565 5.852
1.245 0.475 5.579
1.012 0.360 5.377
1.156 0.096 5.287
1.114 1.237 6.004
1.119 0.987 5.878
1.193 0.926 5.471
1.228 0.549 5.372
1.067 0.412 5.182
1.055 0.315 5.037
1.177 0.037 4.845
0.970 0.746 5.072
1.062 0.661 5.025
0.969 0.370 4.849
1.060 0.298 4.624
1.066 0.119 4.426
1.128 0.548 4.368
1.052 0.212 4.285
1.045 0.114 3.971
1.029 0.228 3.844
1.078 0.061 3.434
1.080 0.453 3.381
0.966 0.177 3.279
1.133 0.289 2.982
0.984 0.048 2.635
1.020 0.281 2.671
1.214 0.264 2.459
1.460 0.332 6.216
1.404 0.075 5.917
1.435 0.578 6.103
1.296 0.480 6.031
1.496 0.372 5.846
1.508 0.047 5.671
1.418 0.936 6.152
1.503 0.873 6.029
1.364 0.546 5.837
1.504 0.505 5.491
1.329 0.177 5.301
1.467 0.030 5.256
1.402 1.525 6.346
1.333 1.250 5.898
1.449 1.162 5.881
1.458 0.849 5.697
1.476 0.785 5.296
1.524 0.596 5.102
1.517 0.185 5.084
1.379 0.212 4.618
1.266 1.717 6.377
1.275 1.753 6.053
1.225 1.565 5.965
1.415 1.384 5.630
1.425 1.062 5.325
1.422 0.799 5.292
1.504 0.812 4.921
1.274 0.465 4.819
1.402 0.418 4.456
1.520 -0.007 4.469
1.393 2.356 6.167
1.389 0.014 3.887
1.167 2.222 6.139
1.416 0.070 3.577
1.505 0.054 3.041
1.328 0.134 2.687
1.340 0.173 2.467
1.485 0.142 2.217
1.671 6.388 2.972
1.921 6.040 3.126
1.910 6.181 2.935
2.135 6.008 3.277
2.755 4.870 4.694
2.746 4.700 4.434
2.847 4.906 4.234
2.899 5.052 4.045
3.028 5.185 5.011
3.071 4.738 4.797
2.967 4.672 4.527
2.951 5.085 4.686
3.093 4.793 4.349
2.963 5.024 4.132
3.148 5.390 3.884
3.390 5.314 5.052
3.338 5.127 4.868
3.326 4.840 4.870
3.463 4.669 4.444
3.288 4.964 4.436
3.350 4.867 4.422
3.277 5.104 4.035
3.232 5.390 3.915
3.725 5.193 5.090
3.751 5.028 4.869
3.579 4.949 4.651
3.717 4.572 4.502
3.603 5.020 4.649
3.751 4.856 4.427
3.546 5.264 4.228
3.897 5.558 5.354
3.954 5.176 5.233
3.802 4.972 4.991
3.843 4.921 4.618
3.825 4.716 4.452
4.055 5.094 4.450
3.852 4.945 4.314
4.117 6.311 6.195
4.274 6.152 6.145
4.050 5.944 5.745
4.216 5.656 5.555
4.100 5.580 5.389
4.321 5.256 5.148
4.221 5.093 5.067
4.330 4.975 4.788
4.287 4.871 4.624
4.421 6.000 6.002
4.352 5.950 5.723
4.444 5.764 5.643
4.668 6.010 5.925
4.784 6.033 5.655
4.946 6.028 5.928
5.144 5.945 5.855
5.237 6.220 6.096
1.168 4.617 2.426
1.198 4.327 2.316
1.111 4.328 2.125
1.023 4.140 2.055
0.937 4.994 2.591
1.109 4.960 2.229
1.119 4.547 2.245
1.021 4.347 1.846
1.144 4.388 1.793
1.115 4.132 1.600
1.006 5.416 2.598
0.962 5.107 2.284
1.174 4.980 2.260
1.019 4.886 2.046
1.020 4.786 1.872
1.192 4.479 1.647
1.014 4.172 1.437
0.967 4.171 1.141
0.860 5.956 2.611
0.877 5.564 2.514
1.100 5.330 2.095
1.162 5.254 2.061
1.004 5.103 1.644
1.183 4.788 1.682
1.086 4.800 1.302
0.951 4.400 1.205
1.080 4.369 0.783
0.967 4.114 0.593
1.044 6.230 2.560
1.030 6.123 2.299
0.986 5.788 2.147
0.932 5.777 1.864
0.923 5.553 1.906
0.952 5.416 1.649
1.120 5.023 1.287
0.982 4.919 1.221
1.148 4.576 0.936
0.979 4.623 0.693
1.056 4.452 0.564
1.167 4.202 0.274
1.041 6.137 2.550
0.860 6.303 2.287
0.853 6.125 2.006
0.982 5.799 1.859
0.909 5.593 1.650
0.932 5.397 1.329
1.104 5.256 1.280
1.039 5.009 0.925
1.153 4.849 0.874
1.049 4.605 0.537
0.953 4.460 0.317
0.951 4.229 0.149
0.881 6.363 1.769
0.867 6.020 1.522
0.967 5.828 1.536
0.932 5.731 1.328
0.936 5.436 1.047
0.966 5.409 0.632
1.140 5.215 0.667
0.940 4.837 0.323
0.984 4.735 0.003
1.143 4.744 2.430
1.004 4.535 2.257
1.009 4.129 2.149
0.997 3.985 1.972
1.284 4.922 2.666
1.400 4.572 2.643
1.497 4.409 2.430
1.428 4.384 2.209
1.438 5.211 2.881
1.409 4.997 2.498
1.257 4.771 2.424
1.431 4.715 2.138
1.423 4.521 2.015
1.364 4.340 1.859
1.195 5.581 2.833
1.185 5.560 2.543
1.281 5.386 2.400
1.320 4.992 2.281
1.353 4.757 2.062
1.301 4.658 1.780
1.481 4.487 1.457
1.270 4.199 1.259
1.323 5.975 2.770
1.332 5.917 2.729
1.215 5.682 2.352
1.281 5.382 2.310
1.402 5.293 2.047
1.321 4.996 1.668
1.459 4.833 1.652
1.310 4.766 1.272
1.296 4.464 1.182
1.363 4.460 0.971
1.313 6.174 2.752
1.349 6.366 2.501
1.331 5.987 2.283
1.398 5.894 2.195
1.327 5.546 1.958
1.407 5.385 1.687
1.344 5.175 1.502
1.353 5.236 1.283
1.316 4.802 1.068
1.256 4.828 1.000
1.258 4.670 0.695
1.179 6.121 2.643
1.145 6.292 2.126
1.272 5.954 1.968
1.391 5.865 1.730
1.369 5.733 1.496
1.212 5.551 1.261
1.263 5.192 1.098
1.195 5.219 0.920
1.433 4.856 0.822
1.342 6.179 1.545
1.367 5.922 1.346
1.144 5.738 1.290
1.485 4.778 2.790
1.266 4.569 2.465
1.481 4.396 2.439
1.448 4.236 2.098
1.649 5.146 2.962
1.756 4.775 2.840
1.727 4.697 2.640
1.715 4.473 2.205
1.696 4.276 2.023
1.518 5.503 3.107
1.576 5.241 2.803
1.536 5.159 2.602
1.738 4.784 2.318
1.741 4.657 2.238
1.673 4.546 2.004
1.680 4.242 1.654
1.623 5.881 2.915
1.539 5.718 2.703
1.511 5.498 2.471
1.567 5.281 2.301
1.504 5.119 2.166
1.509 4.790 1.985
1.513 4.573 1.650
1.641 4.424 1.528
1.594 5.744 3.107
1.434 6.005 2.691
1.656 6.001 2.698
1.540 5.602 2.512
1.507 5.437 2.252
1.643 5.389 1.842
1.628 5.198 1.736
1.487 4.855 1.520
1.720 4.760 1.259
1.673 6.009 2.897
1.509 6.374 2.590
1.491 6.063 2.497
1.511 5.903 2.109
1.575 5.587 2.025
1.458 5.584 1.708
1.545 5.209 1.433
1.641 5.137 1.434
1.513 5.032 1.058
1.514 6.348 2.691
1.542 6.139 1.875
1.515 5.807 1.721
1.694 5.682 1.582
1.640 5.412 1.409
1.544 5.404 1.213
1.413 6.178 1.498
1.515 6.028 1.458
1.528 4.706 2.882
1.762 4.346 2.730
1.743 4.993 2.986
1.516 4.891 2.623
1.666 4.592 2.446
1.789 4.552 2.454
1.529 4.374 2.038
1.910 5.181 3.172
1.951 5.008 2.853
1.970 4.828 2.721
1.973 4.795 2.442
1.965 4.371 2.273
2.072 4.272 2.238
1.808 5.677 3.285
1.941 5.425 2.969
1.901 5.304 2.669
1.859 5.171 2.578
1.914 4.837 2.254
1.883 4.764 2.206
1.841 4.464 2.022
1.957 5.786 3.178
1.888 5.960 3.057
1.855 5.593 2.864
1.927 5.478 2.585
1.977 5.256 2.438
1.929 5.168 2.140
1.866 4.788 1.898
1.986 4.770 1.737
1.796 5.805 3.003
1.831 6.121 2.800
1.964 5.831 2.542
1.884 5.830 2.518
1.922 5.628 2.192
1.975 5.409 1.892
1.874 4.991 1.738
2.028 5.071 1.473
1.947 6.192 2.917
1.757 6.155 2.465
1.709 5.912 2.149
1.820 5.729 2.050
1.881 5.579 1.893
1.889 5.436 1.564
1.863 5.022 1.270
1.927 6.134 1.907
1.757 5.948 1.693
1.887 5.640 1.493
1.926 5.531 1.369
1.887 6.167 1.635
1.960 6.068 1.416
1.940 4.815 3.065
1.999 4.536 2.901
1.836 4.497 2.655
2.086 4.299 2.606
1.882 5.383 3.272
1.852 5.204 2.894
1.852 4.787 2.807
1.898 4.803 2.675
2.069 4.618 2.324
1.876 4.234 2.020
2.243 5.368 3.419
2.092 5.315 3.150
2.119 5.105 2.845
2.266 4.894 2.787
2.295 4.792 2.469
2.217 4.525 2.289
2.196 4.411 1.992
2.099 5.453 3.434
2.102 5.809 3.143
2.240 5.528 2.857
2.228 5.317 2.700
2.258 5.176 2.594
2.192 4.949 2.281
2.292 4.845 2.171
2.281 4.604 2.021
2.198 5.612 3.295
2.013 6.008 3.056
2.284 5.774 2.682
2.080 5.526 2.633
2.201 5.360 2.452
2.176 5.148 2.259
2.298 4.894 1.905
2.252 4.637 1.739
2.007 5.771 3.014
2.124 5.982 2.867
2.125 5.776 2.602
2.233 5.610 2.506
2.070 5.480 2.158
2.143 5.213 2.025
2.212 5.033 1.888
2.052 4.933 1.460
2.033 6.019 2.687
2.241 6.030 2.319
2.263 6.055 2.232
2.218 5.617 2.031
2.222 5.627 1.853
2.043 5.347 1.678
2.126 6.206 2.022
2.025 6.028 1.846
2.086 5.876 1.607
1.967 6.259 1.648
2.123 4.722 3.525
2.142 4.754 3.251
2.219 4.604 3.191
2.369 4.226 3.007
2.274 5.080 3.236
2.145 4.997 3.104
2.271 4.709 3.053
2.116 4.364 2.841
2.298 4.344 2.398
2.148 5.489 3.495
2.269 5.169 3.265
2.193 5.069 3.037
2.236 4.844 2.879
2.185 4.664 2.529
2.314 4.538 2.281
2.101 4.454 2.162
2.116 5.508 3.330
2.379 5.535 3.353
2.479 5.377 3.203
2.503 5.240 2.973
2.599 4.938 2.801
2.569 4.638 2.588
2.521 4.419 2.292
2.398 4.417 1.973
2.442 5.406 3.258
2.359 5.580 3.167
2.405 5.481 2.991
2.475 5.319 2.659
2.462 5.216 2.679
2.371 4.933 2.476
2.489 4.871 2.144
2.549 4.549 2.049
2.526 5.818 3.053
2.473 5.923 2.986
2.408 5.715 2.722
2.580 5.408 2.596
2.320 5.314 2.469
2.428 5.028 2.166
2.563 4.971 1.971
2.335 5.990 3.076
2.379 6.101 2.777
2.362 5.896 2.585
2.526 5.800 2.371
2.534 5.416 2.135
2.368 5.439 1.926
2.384 5.077 1.799
2.364 6.099 2.687
2.488 6.027 2.268
2.477 5.857 2.218
2.331 5.740 2.037
2.473 5.663 1.860
2.298 6.210 2.024
2.523 6.085 1.708
2.541 4.548 4.366
2.498 4.271 4.071
2.567 4.405 4.228
2.660 4.653 4.277
2.404 4.525 3.985
2.613 4.248 3.778
2.653 4.187 3.493
2.637 4.780 4.228
2.633 4.821 4.054
2.419 4.798 3.807
2.606 4.403 3.434
2.558 4.371 3.275
2.418 4.123 3.245
2.538 4.856 3.982
2.426 5.092 3.674
2.475 4.824 3.421
2.395 4.779 3.338
2.628 4.500 3.240
2.511 4.303 2.869
2.649 4.015 2.728
2.441 5.142 3.751
2.534 5.240 3.649
2.507 5.040 3.492
2.414 4.939 3.198
2.471 4.718 2.878
2.437 4.471 2.619
2.436 4.262 2.520
2.351 5.312 3.608
2.480 5.425 3.465
2.548 5.317 3.104
2.504 5.099 2.976
2.611 4.915 2.609
2.401 4.677 2.576
2.401 4.661 2.376
2.436 4.271 2.043
2.543 5.497 3.445
2.694 5.387 3.500
2.844 5.257 3.079
2.880 5.250 3.026
2.790 4.908 2.651
2.753 4.642 2.627
2.779 4.611 2.314
2.696 4.492 1.970
2.756 5.446 3.411
2.618 5.771 3.070
2.866 5.660 3.081
2.854 5.240 2.643
2.765 5.137 2.644
2.812 4.996 2.425
2.830 4.684 1.998
2.687 5.775 3.285
2.795 5.820 2.982
2.825 5.739 2.808
2.740 5.581 2.458
2.648 5.494 2.435
2.848 5.146 2.170
2.774 5.095 1.836
2.820 6.052 3.068
2.659 6.254 2.824
2.822 5.962 2.557
2.663 5.814 2.263
2.854 5.471 2.253
2.715 5.312 1.975
2.619 6.129 2.852
2.755 6.224 2.321
2.712 5.938 2.204
2.808 5.671 1.868
2.947 4.448 4.414
2.710 4.306 4.027
2.847 4.156 3.959
2.828 3.808 3.675
2.935 0.699 -0.006
2.767 4.589 4.441
2.909 4.589 4.092
2.825 4.592 3.821
2.754 4.333 3.824
2.978 4.095 3.426
2.744 3.768 3.221
2.759 4.672 4.144
2.743 4.938 4.001
2.878 4.780 3.735
2.869 4.413 3.648
2.730 4.405 3.229
2.960 4.179 3.099
2.868 3.915 2.846
2.869 4.909 4.083
2.855 5.048 3.876
2.901 4.888 3.484
2.921 4.711 3.256
2.676 4.613 3.106
2.736 4.262 2.810
2.847 4.188 2.755
2.686 5.059 3.639
2.879 5.216 3.617
2.688 5.023 3.274
2.858 5.023 3.275
2.801 4.740 3.030
2.834 4.468 2.821
2.950 4.242 2.525
2.784 4.170 2.220
2.628 5.382 3.618
2.864 5.567 3.395
2.660 5.186 3.140
2.699 5.077 2.921
2.893 4.982 2.625
2.796 4.770 2.543
2.720 4.566 2.245
2.936 4.236 1.981
2.860 5.628 3.389
3.140 5.657 3.331
3.087 5.469 3.173
2.915 5.179 2.958
2.925 4.844 2.788
3.171 4.760 2.652
3.143 4.597 2.250
3.066 4.348 2.063
3.009 5.537 3.456
3.071 5.518 2.935
3.039 5.285 2.730
3.070 5.179 2.582
3.092 5.021 2.328
3.181 4.802 2.013
2.870 5.850 2.731
3.060 5.475 2.440
3.023 5.454 2.441
3.113 5.204 2.038
3.237 4.565 4.370
3.257 4.407 4.205
3.111 4.010 3.911
3.254 3.789 3.818
3.029 3.726 3.430
3.320 0.731 0.172
3.214 0.732 -0.005
2.993 4.403 4.466
3.005 4.743 4.036
3.045 4.380 3.952
3.035 4.302 3.623
3.019 4.165 3.418
3.071 3.876 3.212
3.037 3.613 3.023
2.998 4.639 4.201
3.010 4.803 4.016
2.998 4.698 3.710
3.082 4.487 3.625
3.179 4.419 3.288
2.987 4.229 3.221
3.126 3.919 3.026
3.125 3.803 2.543
3.200 4.807 3.984
2.932 5.127 3.894
3.163 4.794 3.493
3.065 4.726 3.330
3.179 4.604 3.208
3.155 4.296 2.812
3.117 4.050 2.582
3.193 3.933 2.403
3.062 5.130 3.772
2.910 5.449 3.475
2.933 5.242 3.299
3.123 4.980 3.145
2.984 4.831 3.055
3.048 4.623 2.597
3.197 4.462 2.401
3.092 4.304 2.237
2.978 5.395 3.458
3.059 5.482 3.355
3.041 5.236 3.196
3.107 5.160 2.846
3.044 4.846 2.686
3.124 4.844 2.636
3.030 4.488 2.334
3.026 4.286 1.996
2.984 5.617 3.475
3.418 5.266 3.194
3.297 5.206 3.000
3.224 4.866 2.654
3.376 4.676 2.456
3.305 4.693 2.386
3.258 4.382 2.087
3.259 5.325 2.634
3.319 5.259 2.589
3.362 4.953 2.264
3.392 4.921 2.001
3.373 4.507 4.362
3.385 4.361 4.097
3.366 4.186 3.999
3.565 3.895 3.624
3.518 3.676 3.503
3.352 3.400 3.206
3.535 1.052 0.447
3.584 0.786 0.410
3.674 0.671 0.201
3.360 4.608 4.205
3.278 4.635 4.077
3.313 4.611 4.054
3.496 4.326 3.665
3.469 4.036 3.443
3.530 3.991 3.416
3.381 3.677 3.084
3.383 3.448 2.729
3.340 4.834 4.017
3.444 5.029 4.074
3.451 4.643 3.734
3.382 4.462 3.439
3.459 4.381 3.435
3.394 4.116 3.015
3.432 4.083 2.890
3.385 3.838 2.559
3.359 4.982 3.847
3.431 5.072 3.882
3.224 4.848 3.539
3.367 4.621 3.386
3.387 4.668 2.989
3.371 4.233 2.832
3.535 4.257 2.639
3.362 3.875 2.524
3.263 5.249 3.636
3.256 5.342 3.430
3.369 5.201 3.485
3.261 5.065 3.021
3.267 4.742 2.992
3.252 4.640 2.745
3.310 4.332 2.502
3.406 4.232 2.368
3.430 5.215 3.663
3.308 5.232 3.264
3.390 5.127 2.932
3.422 4.849 2.642
3.309 4.802 2.600
3.500 4.596 2.297
3.261 4.467 2.145
3.499 5.250 2.924
3.738 4.989 2.604
3.604 4.673 2.538
3.692 4.653 2.206
3.685 4.456 2.118
3.722 5.306 2.647
3.745 5.056 2.271
3.587 4.475 4.282
3.789 4.268 4.234
3.631 4.068 3.791
3.795 3.893 3.765
3.655 3.794 3.512
3.705 3.440 3.233
3.854 3.256 3.067
3.982 1.085 0.580
3.906 0.947 0.242
3.806 0.708 0.064
3.704 4.608 4.391
3.570 4.641 4.111
3.683 4.461 3.795
3.740 4.298 3.575
3.582 4.136 3.595
3.601 4.056 3.167
3.597 3.803 3.144
3.756 3.584 2.949
3.773 3.252 2.623
3.708 4.787 4.147
3.596 4.968 3.913
3.662 4.758 3.610
3.749 4.677 3.403
3.618 4.387 3.325
3.729 4.064 3.011
3.637 4.034 2.880
3.656 3.675 2.630
3.735 3.468 2.574
3.555 4.877 3.916
3.760 5.164 3.663
3.585 4.960 3.530
3.638 4.887 3.392
3.752 4.602 3.101
3.792 4.372 2.864
3.570 4.058 2.821
3.607 3.906 2.388
3.670 3.905 2.321
3.597 5.173 3.863
3.505 5.140 3.322
3.699 5.047 3.003
3.621 4.855 3.002
3.754 4.501 2.701
3.559 4.381 2.375
3.573 4.272 2.422
3.759 4.059 2.005
3.504 5.307 3.039
3.554 4.941 2.634
3.745 4.706 2.576
3.728 4.608 2.292
3.785 4.345 2.016
3.930 5.040 2.828
3.937 4.706 2.415
3.864 4.564 2.253
3.900 4.364 2.054
3.928 4.659 4.395
3.966 4.235 4.087
3.862 4.225 4.033
3.996 4.070 3.787
4.142 3.882 3.353
4.034 3.703 3.288
4.038 3.304 3.117
4.041 3.145 2.768
4.078 3.076 2.748
4.103 1.289 0.767
4.025 1.082 0.383
4.263 0.860 0.302
4.154 0.778 0.180
4.004 4.498 4.219
3.900 4.628 4.228
3.826 4.559 3.863
4.080 4.430 3.780
3.848 4.134 3.553
3.914 3.883 3.381
3.939 3.793 2.954
4.058 3.643 2.991
4.149 3.532 2.659
4.100 3.109 2.309
4.051 3.003 2.206
4.030 4.697 3.994
3.823 4.935 3.931
3.834 4.746 3.713
3.869 4.628 3.404
3.916 4.458 3.280
4.008 4.322 3.084
3.911 3.945 2.997
4.124 3.867 2.644
4.082 3.534 2.513
3.906 3.522 2.255
3.947 3.358 1.991
3.944 4.930 3.817
3.871 5.069 3.480
3.888 4.807 3.269
3.889 4.680 3.129
3.860 4.437 3.014
3.959 4.185 2.801
3.858 4.082 2.606
4.098 3.919 2.305
4.041 3.568 2.190
3.845 4.996 3.236
3.889 4.899 2.936
4.036 4.621 2.742
4.020 4.350 2.408
4.091 4.266 2.306
3.860 4.156 2.201
3.916 5.066 2.782
3.887 4.759 2.423
3.805 4.704 2.417
4.054 4.387 2.124
4.181 4.776 2.485
4.104 4.579 2.413
4.120 4.560 1.989
4.173 4.234 1.889
4.171 4.456 4.325
4.343 4.360 4.017
4.316 4.201 3.824
4.180 3.845 3.701
4.247 3.879 3.444
4.290 3.609 3.180
4.224 3.468 3.147
4.370 3.143 2.938
4.323 2.950 2.620
4.444 2.741 2.445
4.333 2.698 2.195
4.412 2.471 2.016
4.445 2.188 1.908
4.310 2.142 1.444
4.324 1.794 1.247
4.456 1.670 1.006
4.343 1.369 0.915
4.292 1.420 0.666
4.364 1.143 0.598
4.574 0.948 0.355
4.365 0.854 0.137
4.160 4.566 4.206
4.238 4.762 4.156
4.216 4.450 4.001
4.191 4.363 3.745
4.327 4.227 3.374
4.232 4.120 3.253
4.291 3.752 3.119
4.397 3.710 2.932
4.312 3.534 2.706
4.189 3.344 2.362
4.418 3.069 2.240
4.400 2.740 1.999
4.246 2.528 1.683
4.352 4.803 4.152
4.281 4.898 3.679
4.197 4.714 3.566
4.269 4.300 3.355
4.323 4.333 2.976
4.386 4.081 2.885
4.378 3.862 2.639
4.422 3.606 2.350
4.374 3.402 2.141
4.251 3.309 2.111
4.382 3.184 1.856
4.310 4.886 3.218
4.292 4.586 2.991
4.110 4.365 3.002
4.254 4.214 2.608
4.341 4.152 2.390
4.195 3.738 2.240
4.357 3.528 1.951
4.268 3.497 1.775
4.222 4.803 2.943
4.237 4.704 2.651
4.328 4.394 2.356
4.288 4.203 2.205
4.178 4.186 2.027
4.328 3.969 1.842
4.101 4.713 2.564
4.173 4.642 2.268
4.194 4.476 1.975
4.332 4.396 1.820
4.504 4.534 2.273
4.616 4.513 2.148
4.508 4.312 1.757
4.475 4.164 1.632
4.600 4.027 3.652
4.543 3.917 3.510
4.463 3.565 3.287
4.623 3.381 3.166
4.686 3.166 2.905
4.603 3.015 2.693
4.591 2.801 2.382
4.530 2.723 2.211
4.585 2.580 1.953
4.651 2.310 1.637
4.753 2.065 1.681
4.584 1.856 1.219
4.669 1.760 1.135
4.616 1.403 0.794
4.468 4.278 3.788
4.444 4.253 3.533
4.662 3.967 3.248
4.524 3.955 3.097
4.464 3.632 2.726
4.706 3.344 2.507
4.557 3.298 2.317
4.603 2.976 2.156
4.713 2.954 1.873
4.738 2.624 1.764
4.747 2.548 1.676
4.742 2.172 1.336
4.532 4.641 3.454
4.510 4.520 3.191
4.639 4.343 3.073
4.655 3.928 2.735
4.606 3.916 2.583
4.446 3.737 2.344
4.537 3.486 2.243
4.611 3.201 2.112
4.671 2.970 1.688
4.729 2.760 1.478
4.430 4.649 3.167
4.569 4.427 2.807
4.604 4.183 2.557
4.523 3.928 2.555
4.444 3.988 2.133
4.699 3.540 1.937
4.466 3.526 1.741
4.474 3.212 1.549
4.375 4.685 2.615
4.522 4.326 2.446
4.670 4.325 2.184
4.664 3.998 2.084
4.655 4.008 1.891
4.444 3.716 1.581
4.586 4.680 2.214
4.540 4.384 2.073
4.598 4.296 1.795
4.521 4.178 1.541
4.886 4.685 2.379
4.910 4.494 1.945
4.765 4.173 1.838
4.882 4.066 1.531
4.952 3.971 1.560
4.806 4.460 1.738
4.682 4.200 1.413
4.977 3.728 3.278
4.823 3.481 3.103
5.011 3.290 2.716
5.027 2.955 2.738
4.807 2.882 2.488
4.896 2.549 2.271
4.964 2.593 2.093
4.939 2.165 1.827
4.861 2.090 1.658
5.052 1.888 1.306
5.094 1.756 1.140
4.725 4.152 3.277
4.944 3.941 2.926
4.810 3.675 2.935
4.892 3.523 2.710
5.000 3.246 2.544
4.890 3.058 2.205
4.994 2.786 2.001
4.791 2.716 1.712
4.945 2.532 1.620
4.813 2.223 1.364
4.796 4.126 3.162
4.784 4.067 2.966
4.939 3.915 2.753
4.895 3.623 2.413
4.859 3.428 2.175
4.898 3.294 1.932
4.843 3.199 1.749
4.986 2.888 1.600
4.890 2.841 1.514
4.940 4.371 2.888
4.706 4.330 2.698
4.740 4.150 2.522
4.874 3.772 2.240
4.856 3.820 2.098
5.000 3.391 1.894
4.957 3.291 1.520
4.864 3.010 1.412
4.795 4.797 2.565
4.803 4.605 2.484
4.916 4.315 2.220
4.947 4.079 2.053
4.855 3.879 1.957
4.772 3.806 1.670
4.804 3.535 1.359
4.792 4.624 2.430
4.900 4.537 2.029
4.920 4.314 1.914
4.871 4.175 1.545
4.854 3.886 1.529
5.029 4.775 2.359
5.123 4.491 1.954
5.092 4.440 1.742
5.030 4.194 1.577
5.127 3.820 1.535
5.085 3.731 1.283
4.950 4.780 1.911
5.126 4.618 1.768
5.006 4.224 1.371
5.117 4.086 1.146
5.289 3.350 3.149
5.224 3.356 2.759
5.134 3.192 2.588
5.226 2.838 2.393
5.111 2.605 2.112
5.273 2.381 2.039
5.323 2.432 1.676
5.264 2.214 1.541
5.387 1.825 1.280
5.358 1.644 1.192
5.015 3.728 3.155
5.098 3.703 2.968
5.027 3.430 2.539
5.039 3.267 2.459
5.241 3.032 2.204
5.179 2.922 2.049
5.139 2.593 1.728
5.159 2.538 1.479
5.130 2.335 1.320
5.243 3.961 2.783
5.029 3.877 2.534
5.247 3.767 2.414
5.171 3.597 2.179
5.060 3.198 2.054
5.309 3.073 1.688
5.060 3.042 1.705
5.073 2.745 1.252
5.206 4.322 2.587
5.072 3.993 2.366
5.088 3.884 2.379
5.010 3.817 1.916
5.183 3.642 1.850
5.081 3.212 1.605
5.246 3.014 1.369
5.266 3.063 1.112
5.089 4.518 2.482
5.029 4.235 2.373
5.202 4.164 1.936
5.207 3.985 1.954
5.126 3.682 1.717
5.232 3.600 1.509
5.170 3.427 1.111
5.089 4.609 2.233
5.188 4.448 2.074
5.108 4.271 1.761
5.123 4.219 1.582
5.151 3.868 1.385
5.119 3.864 1.219
5.271 4.684 2.300
5.506 4.401 2.144
5.480 4.477 1.744
5.429 4.173 1.604
5.362 3.832 1.354
5.374 3.820 1.103
5.543 3.657 0.910
5.274 4.710 1.986
5.461 4.433 1.683
5.384 4.317 1.322
5.511 4.043 1.343
5.333 3.966 0.951
5.412 4.729 1.452
5.240 4.637 1.365
5.435 4.456 1.176
5.467 4.159 0.773
5.494 3.424 2.920
5.501 2.992 2.581
5.524 2.878 2.492
5.522 2.592 2.155
5.569 2.562 1.837
5.400 2.347 1.872
5.642 2.096 1.680
5.668 1.828 1.403
5.394 3.742 2.857
5.412 3.628 2.562
5.429 3.185 2.498
5.506 3.142 2.258
5.574 2.993 1.927
5.400 2.815 1.655
5.578 2.567 1.502
5.499 2.245 1.267
5.284 4.047 2.820
5.510 3.962 2.561
5.406 3.818 2.443
5.463 3.649 2.359
5.574 3.452 1.974
5.480 3.095 1.827
5.511 2.926 1.719
5.618 2.768 1.477
5.496 4.408 2.672
5.420 4.120 2.410
5.433 3.979 2.209
5.378 3.822 2.157
5.387 3.633 1.688
5.475 3.341 1.514
5.533 3.236 1.431
5.514 3.027 1.305
5.506 4.637 2.562
5.389 4.310 2.369
5.524 4.163 1.926
5.303 3.973 1.770
5.397 3.885 1.722
5.345 3.652 1.331
5.453 3.425 1.201
5.458 4.762 2.173
5.257 4.557 1.988
5.407 4.483 1.826
5.455 4.135 1.683
5.281 4.046 1.555
5.306 3.637 1.284
5.532 3.523 1.105
5.603 4.854 2.309
5.670 4.588 2.178
5.679 4.242 1.892
5.730 4.217 1.661
5.719 4.013 1.534
5.815 3.806 1.090
5.581 3.688 0.977
5.738 4.756 1.939
5.700 4.685 1.689
5.664 4.287 1.588
5.800 4.143 1.234
5.765 4.020 1.100
5.573 3.750 0.778
5.743 4.861 1.790
5.622 4.825 1.409
5.692 4.727 1.183
5.707 4.382 0.917
5.618 4.281 0.942
5.565 3.991 0.662
5.544 5.004 1.267
5.656 4.687 0.950
5.693 4.515 0.943
5.703 4.325 0.634
5.721 4.165 0.317
5.638 5.001 0.879
5.597 4.912 0.620
5.595 4.553 0.576
5.524 4.503 0.151
5.541 4.898 0.275
5.704 4.563 0.167
5.660 3.199 2.511
5.832 2.812 2.412
5.820 2.602 2.284
5.698 2.636 2.102
5.870 2.409 1.645
5.792 2.025 1.578
5.809 3.530 2.490
5.801 3.407 2.338
5.876 3.046 2.298
5.647 3.003 1.980
5.894 2.805 1.708
5.850 2.452 1.507
5.770 3.949 2.723
5.607 3.687 2.464
5.765 3.653 2.176
5.757 3.238 1.876
5.734 3.243 1.803
5.858 2.960 1.498
5.800 2.786 1.307
5.736 4.187 2.429
5.736 4.065 2.232
5.783 3.839 2.042
5.640 3.666 1.891
5.868 3.442 1.728
5.819 3.240 1.348
5.614 4.545 2.419
5.764 4.354 2.256
5.795 4.066 1.954
5.610 4.004 1.876
5.581 3.761 1.498
5.679 3.659 1.540
5.685 3.344 1.220
5.782 4.735 2.419
5.567 4.636 2.106
5.777 4.420 1.846
5.665 4.268 1.709
5.634 3.987 1.461
5.812 3.748 1.230
5.703 3.611 1.115
6.062 4.865 2.265
5.977 4.631 1.958
6.034 4.369 1.989
5.831 4.221 1.723
5.870 4.089 1.319
5.845 3.833 1.114
6.122 3.702 1.023
5.796 5.088 2.113
6.018 4.898 1.817
5.918 4.700 1.579
6.057 4.440 1.424
6.022 4.131 1.248
5.966 3.890 0.918
6.083 3.817 0.710
5.985 4.913 1.575
5.922 4.786 1.594
5.922 4.545 1.301
5.807 4.319 1.029
5.865 4.125 0.901
5.944 4.042 0.557
5.880 5.231 1.418
5.988 4.968 1.343
6.037 4.700 1.036
5.952 4.744 0.728
5.863 4.431 0.560
6.009 4.203 0.406
5.836 4.159 0.259
5.982 5.242 1.085
5.801 5.175 0.992
6.017 4.963 0.734
5.938 4.599 0.390
5.883 4.546 0.281
5.945 4.391 0.095
5.854 5.151 0.785
5.922 4.970 0.343
6.032 4.736 0.253
5.857 4.708 -0.061
5.894 5.163 0.221
5.797 5.018 0.121
6.136 2.636 2.130
6.144 2.491 1.947
6.124 3.467 2.398
5.905 3.075 2.194
5.991 3.035 2.036
6.051 2.844 1.811
6.061 3.770 2.383
6.034 3.596 2.222
5.965 3.326 2.010
6.008 3.120 1.929
6.049 3.111 1.575
6.021 4.286 2.387
5.987 4.002 2.224
6.050 3.783 1.926
6.106 3.478 1.952
6.127 3.284 1.607
5.890 3.138 1.453
5.932 4.475 2.243
6.077 4.081 1.939
6.108 4.013 1.944
5.951 3.810 1.539
6.129 3.560 1.320
5.937 3.388 1.090
5.967 4.645 2.189
6.064 4.645 2.025
5.923 4.319 1.738
5.904 4.319 1.531
5.919 3.905 1.396
6.012 3.723 1.159
5.874 3.708 0.958
0.034 3.321 1.098
0.131 3.502 2.296
-0.093 3.315 2.002
0.093 3.272 1.875
-0.089 2.910 1.691
0.128 3.400 1.657
0.141 3.237 1.375
0.102 3.168 1.060
0.113 4.344 2.454
0.333 4.173 2.006
0.387 3.899 1.906
0.176 3.904 1.656
0.175 3.665 1.503
0.160 3.354 1.313
0.245 4.493 2.124
0.250 4.463 2.077
0.329 4.215 1.684
0.381 3.889 1.644
0.209 3.897 1.354
0.227 3.714 0.976
0.238 3.486 0.906
0.289 4.785 2.038
0.101 4.516 1.650
0.164 4.308 1.457
0.108 4.162 1.433
0.226 3.910 1.191
0.307 3.739 0.809
0.335 3.780 0.791
0.317 3.476 0.574
0.224 4.998 1.749
0.251 4.822 1.665
0.328 4.531 1.238
0.213 4.468 1.215
0.124 4.231 0.977
0.241 3.933 0.674
0.253 3.885 0.617
0.361 3.716 0.263
0.189 5.337 1.533
0.252 4.917 1.388
0.108 4.977 1.145
0.316 4.618 1.027
0.076 4.335 0.846
0.276 4.130 0.483
0.355 4.000 0.207
0.269 3.845 0.194
0.248 5.301 1.256
0.036 4.974 0.924
0.267 4.834 0.790
0.095 4.762 0.581
0.094 4.613 0.439
0.119 4.286 0.143
0.232 5.229 0.687
0.197 5.015 0.527
0.158 4.791 0.239
0.053 4.568 0.196
0.185 5.154 0.074
0.307 4.083 2.295
0.226 3.681 2.249
0.223 3.650 1.852
0.372 3.292 1.831
0.253 4.360 2.309
0.280 4.080 2.248
0.366 4.079 2.020
0.186 3.707 1.735
0.275 3.595 1.439
0.289 3.414 1.329
0.397 4.345 2.373
0.545 4.139 2.199
0.417 3.959 1.822
0.467 3.751 1.580
0.614 3.655 1.442
0.536 4.701 2.426
0.547 4.595 2.107
0.448 4.409 1.826
0.623 4.313 1.793
0.585 4.110 1.401
0.417 3.876 1.258
0.419 3.560 0.993
0.411 4.912 2.224
0.531 4.850 1.880
0.485 4.621 1.680
0.381 4.515 1.544
0.592 4.344 1.205
0.575 4.056 1.145
0.607 3.942 0.822
0.505 3.618 0.698
0.402 5.328 1.952
0.577 4.930 1.730
0.445 4.793 1.630
0.456 4.784 1.320
0.465 4.385 1.065
0.384 4.391 0.989
0.462 4.098 0.679
0.523 3.808 0.456
0.593 3.802 0.191
0.571 5.487 1.735
0.447 5.219 1.614
0.390 5.052 1.445
0.366 4.810 1.214
0.375 4.687 0.941
0.412 4.500 0.852
0.482 4.174 0.631
0.498 4.104 0.271
0.440 3.960 0.076
0.501 5.363 1.288
0.430 5.207 1.064
0.446 5.012 0.939
0.540 4.990 0.806
0.590 4.711 0.446
0.443 4.362 0.316
0.611 4.327 0.027
0.303 5.200 0.806
0.329 4.960 0.527
0.581 4.885 0.369
0.346 4.728 0.186
0.390 5.118 0.237
0.608 3.808 2.118
0.438 3.491 1.810
0.582 4.286 2.303
0.498 4.129 2.085
0.549 4.022 1.981
0.646 3.745 1.813
0.672 3.682 1.542
0.937 4.418 2.274
0.781 4.132 2.194
0.766 4.089 2.058
0.734 3.748 1.610
0.837 4.835 2.281
0.836 4.584 2.275
0.659 4.516 1.866
0.679 4.218 1.682
0.818 4.142 1.631
0.958 3.785 1.224
0.789 5.225 2.517
0.831 4.985 2.147
0.887 4.869 2.055
0.680 4.643 1.843
0.739 4.536 1.535
0.817 4.370 1.266
0.694 4.051 1.188
0.702 3.800 0.964
0.841 5.760 2.347
0.709 5.410 2.309
0.717 5.209 1.981
0.859 4.944 1.856
0.807 4.837 1.693
0.888 4.565 1.436
0.725 4.526 1.240
0.744 4.395 0.889
0.689 4.057 0.726
0.808 3.897 0.430
0.830 5.809 2.119
0.776 5.520 2.017
0.805 5.437 1.716
0.601 5.126 1.585
0.832 5.169 1.284
0.694 4.924 1.246
0.897 4.810 0.939
0.807 4.478 0.673
0.865 4.429 0.573
0.807 4.211 0.385
0.674 3.908 0.141
0.724 5.723 1.756
0.670 5.603 1.624
0.703 5.391 1.507
0.721 5.309 1.219
0.722 5.040 0.965
0.838 4.986 0.824
0.622 4.607 0.619
0.666 4.412 0.413
0.781 4.435 0.121
0.796 5.517 0.939
0.634 5.193 0.731
0.697 4.983 0.505
0.776 4.839 0.349
0.676 4.777 0.056
0.642 5.259 0.156
0.770 4.420 2.292
0.912 4.261 2.139
0.725 3.900 1.880
0.761 3.778 1.784
0.971 4.495 2.569
1.006 4.508 2.344
1.159 4.184 2.053
1.010 4.019 2.040
1.048 5.045 2.473
0.954 4.797 2.364
0.998 4.772 2.136
1.192 4.514 1.873
0.979 4.386 1.828
0.996 4.139 1.538
1.018 5.544 2.694
1.109 5.290 2.379
1.136 5.091 2.048
1.012 4.876 1.930
1.038 4.793 1.846
1.071 4.425 1.623
0.967 4.310 1.294
1.205 4.197 1.009
1.131 5.833 2.538
0.992 5.595 2.495
1.119 5.380 2.243
1.112 5.287 1.973
0.953 5.184 1.689
1.094 4.859 1.544
1.119 4.629 1.317
1.144 4.599 1.231
0.987 4.301 0.828
1.047 4.134 0.844
0.899 6.142 2.578
0.953 6.142 2.416
1.051 5.966 2.204
0.863 5.697 2.059
0.891 5.587 1.724
0.890 5.295 1.655
0.972 4.989 1.406
1.050 4.863 1.090
0.930 4.783 1.027
1.178 4.620 0.765
1.185 4.362 0.416
1.016 4.138 0.387
0.889 6.200 2.504
0.972 6.162 2.162
0.878 5.953 1.900
0.903 5.918 1.863
0.861 5.771 1.536
0.907 5.629 1.410
1.042 5.300 1.141
1.037 5.121 0.965
1.156 4.783 0.680
1.061 4.745 0.537
1.165 4.557 0.375
1.053 4.231 0.130
0.869 6.368 1.783
0.839 6.175 1.549
0.889 5.949 1.363
1.041 5.699 1.157
0.995 5.500 1.042
0.934 5.388 0.715
1.109 5.239 0.468
0.958 4.982 0.417
0.965 4.831 0.040
1.020 4.629 2.476
0.986 4.363 2.463
1.003 4.237 2.068
1.033 4.106 2.015
6.103 4.807 2.359
6.337 4.666 2.183
6.310 4.404 1.728
6.331 4.123 1.605
6.328 4.129 1.457
6.337 3.707 1.183
6.206 3.734 0.874
6.229 5.018 2.024
6.238 4.768 1.997
6.204 4.726 1.535
6.174 4.298 1.336
6.344 4.244 1.319
6.224 4.007 0.932
6.137 3.920 0.810
6.182 5.169 2.015
6.217 4.966 1.758
6.120 4.905 1.440
6.322 4.706 1.271
6.318 4.553 1.010
6.121 4.319 0.754
6.197 4.033 0.657
6.167 3.735 0.373
6.066 5.540 1.565
6.149 5.289 1.355
6.215 5.174 1.311
6.154 4.975 1.090
