1.996 2.993 3.560
1.829 2.969 4.096
1.801 2.799 3.889
1.856 2.394 4.246
1.765 2.490 4.410
1.996 2.667 4.815
2.012 3.301 2.665
2.281 3.309 3.032
1.964 3.039 3.238
2.104 3.025 3.316
1.823 2.954 3.926
2.079 2.894 4.215
1.682 2.633 4.440
1.951 2.638 4.355
1.907 2.739 4.586
2.644 3.301 3.040
2.307 3.502 3.083
2.227 3.264 3.383
2.273 3.046 3.693
2.395 3.179 3.760
2.395 3.038 4.245
2.328 3.072 4.094
1.832 2.931 4.442
2.423 2.721 4.533
2.643 3.574 2.930
2.733 3.349 3.048
2.705 3.356 3.677
2.290 3.472 3.862
2.606 2.944 4.141
2.322 3.174 4.074
2.125 3.012 4.300
2.289 3.025 4.638
2.410 3.018 4.746
2.825 3.665 3.597
2.813 3.279 3.430
2.478 3.420 3.642
2.625 3.341 4.081
2.461 3.301 4.261
2.314 3.163 4.539
2.507 3.204 4.872
3.147 3.765 3.374
2.840 3.316 3.583
2.958 3.334 4.044
2.606 3.462 4.158
2.845 3.252 4.576
2.932 3.192 4.746
3.137 3.449 3.813
3.199 3.661 4.189
2.754 3.217 4.257
2.828 3.380 4.421
0.035 1.902 3.813
0.184 2.131 4.067
-0.160 1.806 4.109
0.254 2.194 3.452
0.330 2.133 3.710
0.203 2.004 4.083
0.211 2.300 3.959
0.176 1.924 4.110
0.182 1.712 4.402
0.110 1.958 4.581
0.272 1.537 5.184
0.570 2.049 3.733
0.224 2.016 3.702
0.354 2.287 3.998
0.632 2.378 4.045
0.227 1.986 4.592
0.406 2.035 4.590
0.397 1.730 4.651
0.842 2.588 3.486
0.745 2.368 3.603
0.763 2.308 3.995
0.659 2.385 4.105
0.543 2.329 4.323
0.726 2.052 4.308
0.497 2.184 4.545
0.973 2.666 3.455
0.686 2.387 3.674
0.581 2.495 3.817
0.864 2.457 4.126
0.860 2.355 4.576
0.664 2.403 4.790
0.907 2.535 3.315
1.053 2.464 3.838
0.840 2.491 3.746
0.766 2.547 4.049
0.980 2.606 4.359
0.870 2.471 4.650
1.201 2.532 4.856
1.425 2.691 3.506
1.377 2.764 3.563
1.192 2.949 3.581
1.244 2.592 3.896
1.317 2.580 4.038
1.525 2.895 4.074
1.305 2.529 4.608
1.831 3.041 3.028
1.688 2.959 3.585
1.534 2.852 3.639
1.621 2.867 3.651
1.473 2.669 4.017
1.375 2.781 4.182
1.458 2.723 4.179
1.271 2.666 4.724
2.023 3.474 2.959
1.758 3.003 3.072
1.572 2.890 3.718
1.707 3.171 3.922
1.586 2.738 3.721
1.804 2.771 4.343
1.330 2.911 4.500
1.693 2.942 4.412
2.219 3.491 3.023
1.946 3.372 3.405
1.909 3.128 3.679
1.807 2.917 3.742
1.633 2.956 4.226
1.819 2.996 4.163
1.710 2.714 4.377
1.720 3.036 4.497
2.322 3.385 2.895
2.037 3.503 3.129
2.254 3.584 3.614
2.237 3.207 3.879
2.216 3.269 4.047
2.242 3.190 4.008
1.887 3.267 4.405
2.119 2.926 4.724
2.189 3.123 4.514
2.531 3.825 3.122
2.361 3.604 3.098
2.397 3.525 3.572
2.333 3.259 3.877
2.228 3.416 3.755
2.042 3.420 4.319
2.147 3.128 4.575
2.131 2.950 4.771
2.209 3.331 4.751
2.609 3.613 3.528
2.382 3.723 3.715
2.616 3.579 3.908
2.504 3.518 4.264
2.477 3.352 4.332
2.361 3.074 4.553
2.266 3.319 4.953
2.689 3.384 4.893
2.809 3.729 3.493
2.708 3.561 3.850
2.746 3.694 4.125
2.882 3.663 3.981
2.827 3.481 4.185
2.467 3.437 4.474
2.660 3.488 4.746
2.908 3.561 5.094
2.962 4.028 3.718
2.748 3.998 4.060
2.778 3.524 4.417
2.885 3.393 4.658
2.620 3.399 4.501
2.683 3.295 5.008
2.747 3.594 4.888
3.061 3.969 4.205
2.861 3.703 4.360
2.942 3.912 4.651
2.807 3.781 4.712
2.700 3.599 5.140
3.024 3.748 5.105
3.084 3.745 4.611
3.101 3.895 4.741
3.073 3.590 5.075
2.988 3.815 5.082
3.487 3.591 5.079
3.160 4.058 4.860
3.399 3.693 5.168
-0.186 2.110 3.616
0.106 2.363 3.625
0.154 2.154 3.832
0.357 2.202 3.955
0.266 2.230 4.530
-0.109 1.935 4.571
-0.059 2.248 4.989
0.146 2.474 3.906
0.497 2.390 4.127
0.529 2.276 4.410
0.450 2.402 4.378
0.361 2.167 4.794
0.573 2.546 4.076
0.703 2.401 4.196
0.761 2.577 4.277
0.715 2.557 4.004
0.582 2.486 4.212
0.992 2.963 3.968
0.977 2.862 4.115
1.118 2.586 4.246
1.335 3.004 3.590
1.027 3.138 3.603
0.927 2.752 3.953
1.093 2.559 4.052
1.027 2.893 4.292
1.242 3.041 3.529
1.286 2.919 3.692
1.247 3.007 3.846
1.080 3.040 3.991
1.081 2.833 4.268
1.431 3.143 4.646
1.908 3.581 3.307
1.548 3.321 3.693
1.353 3.006 3.745
1.411 2.974 3.997
1.327 3.309 4.036
1.417 3.216 4.632
1.692 3.042 4.369
1.694 3.426 3.117
1.751 3.708 3.369
1.810 3.307 3.709
1.849 3.448 4.050
1.515 3.181 4.206
1.878 3.242 4.529
1.537 2.867 4.419
1.816 3.148 4.706
1.920 3.601 3.094
2.052 3.658 3.429
2.028 3.361 3.559
1.746 3.484 3.996
2.086 3.511 4.144
1.710 3.245 4.322
2.019 3.288 4.674
2.173 3.092 4.806
2.524 3.937 3.317
2.329 4.029 3.480
2.488 3.784 3.731
2.073 3.703 4.040
2.173 3.552 4.203
1.926 3.517 4.331
2.197 3.196 4.265
1.979 3.086 4.460
2.110 3.525 4.850
2.381 3.753 3.173
2.513 4.138 3.403
2.407 3.661 3.558
2.629 3.846 3.694
2.530 3.798 4.135
2.269 3.641 4.269
2.455 3.702 4.637
2.003 3.431 4.562
2.234 3.425 4.684
2.937 3.841 3.642
2.451 4.003 3.844
2.667 3.709 3.971
2.710 3.776 4.430
2.402 3.893 4.621
2.645 3.505 4.551
2.176 3.518 5.027
2.387 3.736 5.054
2.740 3.558 5.017
2.818 4.183 3.601
3.002 3.948 3.782
2.734 3.853 3.862
2.811 3.675 4.119
2.864 3.838 4.680
2.723 3.666 4.541
2.707 3.588 5.090
2.659 3.558 4.988
2.746 3.678 5.186
3.178 4.343 4.174
3.164 4.256 3.980
2.790 3.895 4.516
2.986 3.897 4.705
3.035 3.887 4.702
2.700 3.830 4.978
2.945 3.685 5.035
2.764 3.626 5.383
3.007 3.579 5.733
3.265 4.257 4.293
3.295 3.988 4.237
3.257 4.243 4.719
3.274 4.026 5.058
3.148 3.756 5.157
3.191 3.844 5.363
3.248 3.940 5.352
3.274 3.679 5.606
3.541 4.173 4.450
3.232 4.335 4.658
3.222 4.231 4.918
3.130 3.820 5.044
1.603 3.714 3.471
1.297 3.596 3.792
1.505 3.223 4.145
1.438 3.325 4.396
1.736 3.554 3.007
1.925 3.476 3.519
1.660 3.407 3.557
1.569 3.447 3.931
1.576 3.616 4.003
1.688 3.464 4.557
1.615 3.352 4.859
1.988 3.848 3.385
1.941 3.777 3.329
1.949 3.705 3.746
1.933 3.811 4.193
1.969 3.379 4.051
1.810 3.504 4.325
1.571 3.252 4.460
1.963 3.403 4.837
2.309 4.303 3.213
2.125 4.168 3.301
2.069 4.032 3.400
1.895 3.657 3.980
2.174 3.814 4.161
1.974 3.807 4.455
1.727 3.758 4.622
1.853 3.561 4.924
2.078 3.629 5.024
2.539 4.236 3.343
2.330 4.126 3.330
2.525 3.902 3.724
2.205 3.935 4.052
2.261 3.866 4.267
2.309 3.936 4.370
2.040 3.832 4.405
2.137 3.686 4.973
2.433 3.623 4.915
2.027 3.739 5.199
2.618 4.455 3.182
2.652 4.068 3.580
2.754 4.359 3.818
2.383 4.044 4.028
2.578 3.796 4.433
2.236 3.869 4.548
2.491 3.628 4.903
2.115 3.816 4.895
2.322 3.906 5.044
2.267 3.662 4.998
3.005 4.566 3.550
2.656 4.111 3.779
2.566 4.165 3.764
2.855 4.146 3.898
2.490 4.231 4.293
2.462 4.087 4.393
2.691 4.058 4.967
2.635 3.817 4.821
2.470 3.779 5.016
2.595 4.006 5.391
2.561 3.849 5.365
3.162 4.543 3.814
3.042 4.505 3.997
2.904 4.465 4.350
2.839 4.150 4.233
2.686 3.872 4.696
2.643 3.901 4.994
2.480 3.724 4.979
2.984 4.237 5.083
2.916 3.762 5.219
2.950 4.123 5.760
2.914 4.496 3.956
2.995 4.176 4.511
2.965 4.357 4.427
2.918 4.216 4.633
2.831 3.973 4.899
3.012 4.038 5.247
3.065 4.068 5.429
3.181 3.997 5.400
2.725 4.211 5.666
2.809 3.778 5.896
3.116 4.543 4.199
3.051 4.565 4.828
3.070 4.307 4.611
3.075 4.455 4.818
3.110 4.208 5.484
1.416 4.054 3.282
1.648 3.990 3.937
1.664 3.855 3.782
1.343 3.832 4.392
2.053 4.220 3.564
1.899 4.090 3.387
1.895 3.982 3.633
1.860 3.997 4.035
1.776 3.966 4.279
1.657 3.760 4.446
1.653 3.673 4.909
2.154 4.415 3.093
2.224 4.117 3.488
1.918 4.295 3.730
1.939 3.990 4.124
1.938 3.968 4.100
1.810 3.963 4.122
1.997 3.880 4.383
1.817 3.522 4.835
1.706 3.706 4.687
2.397 4.524 3.422
2.185 4.367 3.727
2.104 4.456 3.824
2.129 4.165 3.821
1.922 3.856 4.358
2.101 3.922 4.617
2.001 3.780 4.752
1.860 3.794 5.079
2.333 3.864 5.108
1.881 3.786 5.162
2.697 4.371 3.614
2.391 4.505 3.458
2.596 4.205 3.831
2.308 4.143 4.166
2.436 4.317 4.462
2.414 3.858 4.606
2.148 4.107 4.716
2.293 3.972 4.850
2.290 4.146 5.236
2.246 3.971 5.343
2.733 4.700 3.565
2.476 4.623 3.536
2.395 4.545 3.871
2.433 4.322 4.298
2.298 4.487 4.520
2.467 4.276 4.625
2.478 4.104 4.688
2.519 4.265 4.975
2.648 4.350 4.900
2.254 3.836 5.507
2.261 3.757 5.720
3.137 4.889 3.572
2.622 4.414 3.814
2.692 4.532 4.234
2.869 4.357 4.332
2.923 4.205 4.316
2.842 4.345 4.507
2.571 4.371 5.043
2.765 4.303 5.095
2.954 4.102 5.216
2.513 3.955 5.307
2.506 4.226 5.590
2.769 4.116 5.738
2.831 4.779 3.658
3.080 4.516 4.155
2.832 4.639 4.210
3.132 4.552 4.472
2.703 4.522 4.684
2.849 4.324 5.040
2.808 4.118 5.147
2.827 4.265 5.471
3.041 4.261 5.507
2.805 4.270 5.545
2.652 4.025 5.935
2.866 4.020 6.069
3.302 4.667 4.142
2.973 4.892 4.522
3.274 4.404 4.823
3.072 4.418 4.875
2.959 4.438 5.281
2.729 4.392 5.341
1.782 4.164 3.220
1.889 4.274 3.668
1.454 3.962 3.632
1.356 4.129 3.837
1.427 4.085 4.164
1.803 4.258 3.191
2.086 4.413 3.545
1.850 4.230 3.907
1.655 4.303 3.850
1.974 4.328 4.264
1.859 4.219 4.337
1.864 3.875 4.708
1.934 3.937 5.079
2.376 4.735 2.974
2.079 4.711 3.523
2.073 4.634 3.783
2.259 4.481 3.792
2.199 4.402 4.171
1.927 4.087 4.099
2.025 4.325 4.394
1.640 3.950 4.559
1.639 4.046 4.767
2.225 3.933 5.071
2.560 4.959 3.190
2.380 4.851 3.391
2.197 4.474 3.611
2.360 4.550 3.671
2.160 4.595 4.286
2.214 4.366 4.568
1.943 4.206 4.782
2.077 4.051 4.768
1.873 4.307 4.988
2.402 4.388 5.160
2.199 4.166 5.236
2.721 4.778 3.339
2.572 4.993 3.739
2.416 4.760 3.774
2.607 4.734 4.205
2.527 4.372 4.142
2.560 4.425 4.287
2.432 4.196 4.591
2.235 4.330 4.998
2.041 4.183 5.126
2.314 4.500 5.052
2.373 4.083 5.365
2.082 4.140 5.793
2.641 4.903 3.621
3.008 4.992 3.584
2.854 4.630 3.874
2.462 4.529 3.845
2.406 4.621 4.146
2.454 4.592 4.452
2.566 4.574 4.678
2.454 4.595 4.997
2.335 4.492 5.227
2.821 4.321 5.216
2.672 4.379 5.679
2.681 4.256 5.730
2.656 4.429 6.047
2.985 5.252 3.679
3.026 4.804 4.107
3.092 4.787 4.381
2.984 4.876 4.603
2.582 4.878 4.621
2.874 4.813 4.624
2.589 4.658 5.139
2.683 4.688 5.073
2.696 4.388 5.456
2.851 4.322 5.681
2.752 4.591 5.726
2.730 4.117 5.774
2.493 4.120 6.179
2.940 5.201 4.043
2.855 5.116 4.456
2.964 4.731 4.292
3.045 4.964 4.681
3.063 4.670 5.072
2.836 4.424 4.928
2.748 4.705 5.208
1.521 4.487 3.779
1.628 4.184 3.986
1.888 4.521 3.355
1.952 4.459 3.626
1.743 4.350 3.583
1.738 4.524 3.861
1.884 4.158 4.090
1.372 4.188 4.471
2.221 4.789 3.202
2.048 4.790 3.560
2.129 4.549 3.529
2.057 4.527 4.029
2.095 4.621 4.054
2.053 4.587 4.224
1.985 4.457 4.620
1.738 4.352 4.964
2.035 4.196 4.941
2.222 4.920 3.213
2.506 4.831 3.246
2.237 4.845 3.480
2.395 4.634 3.596
2.062 4.758 3.868
1.892 4.884 4.182
2.101 4.710 4.155
1.939 4.323 4.362
1.723 4.237 4.976
1.708 4.162 5.266
2.077 4.321 5.304
2.209 4.524 5.537
2.593 5.126 3.252
2.387 5.075 3.253
2.397 5.090 3.766
2.416 4.970 3.979
2.358 4.806 3.916
2.402 4.645 4.125
2.083 4.574 4.659
2.101 4.436 4.749
2.016 4.354 4.752
2.238 4.639 5.108
2.421 4.582 5.296
2.172 4.609 5.224
2.229 4.481 5.645
2.710 5.250 3.246
2.632 5.273 3.411
2.509 5.010 3.654
2.551 5.093 3.687
2.719 5.053 4.129
2.634 5.068 4.451
2.587 4.912 4.315
2.577 4.475 4.890
2.107 4.503 5.166
2.318 4.540 5.431
2.328 4.707 5.241
2.243 4.639 5.757
2.363 4.402 5.792
2.322 4.399 5.772
2.943 5.422 3.304
3.138 5.093 3.342
2.828 5.115 3.855
2.985 4.914 4.087
2.754 5.038 4.229
2.699 5.089 4.405
2.802 5.107 4.641
2.578 4.784 4.945
2.747 4.580 4.864
2.341 4.873 5.482
2.603 4.856 5.461
2.693 4.760 5.438
2.754 4.658 5.763
2.534 4.428 5.995
2.665 4.653 6.051
3.080 5.301 3.401
2.994 5.483 3.790
3.118 5.322 3.851
2.903 5.360 4.262
2.829 5.123 4.419
2.665 4.950 4.622
2.953 5.158 5.115
2.581 4.757 4.931
2.547 4.839 5.490
2.028 5.202 3.313
1.942 4.696 3.532
1.534 4.869 3.790
1.539 4.850 3.870
1.468 4.521 3.868
1.723 4.412 4.414
1.940 4.976 3.222
2.196 5.307 3.333
1.996 4.782 3.311
1.865 4.978 3.789
1.681 4.966 4.050
1.964 4.594 4.017
1.660 4.687 4.504
1.785 4.704 4.341
2.199 5.431 2.877
2.200 5.093 2.932
2.189 4.974 3.322
2.346 4.945 3.656
1.912 5.158 3.901
2.115 5.044 3.927
1.776 4.835 4.087
2.036 4.630 4.245
1.635 4.742 4.707
2.037 4.402 4.985
1.823 4.501 4.988
2.397 5.677 2.949
2.636 5.451 3.255
2.447 5.267 3.257
2.531 5.000 3.712
2.328 4.910 4.035
2.119 5.259 4.148
2.184 4.755 4.212
2.286 4.947 4.369
1.893 4.935 4.565
2.165 4.926 4.741
1.919 4.619 5.218
2.126 4.528 5.226
1.929 4.693 5.683
2.908 5.553 3.031
2.771 5.574 3.012
2.552 5.357 3.337
2.600 5.574 3.667
2.559 5.457 3.937
2.433 5.094 3.914
2.429 5.302 4.093
2.389 4.865 4.482
2.355 4.962 4.459
2.408 4.710 4.636
2.336 5.039 5.263
2.169 4.956 5.127
2.555 5.005 5.271
2.225 4.946 5.337
2.406 4.759 5.767
2.329 4.736 5.960
3.059 5.903 3.067
3.018 5.618 2.914
2.637 5.738 3.230
2.904 5.631 3.650
2.766 5.201 3.683
2.572 5.481 4.141
2.805 5.216 4.042
2.720 5.127 4.356
2.621 5.324 4.900
2.692 5.020 5.102
2.514 4.855 5.213
2.181 4.874 5.461
2.724 4.798 5.455
2.288 5.107 5.500
2.481 4.729 5.833
2.317 4.721 6.188
3.118 5.792 3.122
2.972 5.596 3.473
2.833 5.438 3.674
2.765 5.583 3.776
2.795 5.386 4.215
2.984 5.474 4.556
2.617 5.186 4.695
2.672 5.364 4.877
2.463 5.341 5.004
2.654 4.858 5.138
2.494 4.965 5.525
1.481 5.456 2.991
1.482 5.299 3.383
1.797 5.099 3.282
1.644 5.052 3.457
1.306 5.056 3.819
1.322 4.901 3.831
1.844 5.370 2.637
2.121 5.269 2.985
1.951 5.399 3.029
1.603 5.419 3.572
1.936 5.052 3.624
1.731 4.866 4.143
1.809 5.008 4.205
1.705 4.832 4.425
2.386 5.461 2.864
2.368 5.765 3.086
1.973 5.685 3.133
2.219 5.331 3.313
1.809 5.329 3.422
1.889 5.429 3.959
1.934 5.027 4.226
1.637 5.133 4.055
1.958 4.958 4.545
1.565 4.912 4.750
2.513 5.736 2.872
2.400 5.672 2.938
2.127 5.806 3.080
2.354 5.356 3.595
2.219 5.262 3.824
2.072 5.279 3.744
1.976 5.050 4.213
1.843 5.172 4.508
1.946 5.165 4.745
2.135 4.982 4.695
2.084 4.693 4.808
2.125 5.140 5.349
2.483 6.022 2.717
2.610 5.531 3.100
2.332 5.711 3.411
2.303 5.446 3.301
2.330 5.454 3.620
2.519 5.266 4.203
2.363 5.193 4.168
2.310 5.107 4.598
2.226 4.994 4.532
2.357 5.122 4.865
2.099 5.078 4.870
2.173 5.046 5.135
2.387 4.857 5.280
2.327 5.086 5.843
2.998 6.148 3.003
2.914 5.910 3.384
2.654 5.707 3.263
2.853 5.662 3.433
2.367 5.601 3.716
2.592 5.680 4.221
2.419 5.490 4.210
2.516 5.245 4.617
2.594 5.435 4.954
2.336 5.242 4.944
2.229 5.104 5.125
2.413 4.905 5.505
2.323 4.971 5.249
2.538 5.013 5.556
2.416 4.862 6.063
2.176 5.028 5.975
3.062 6.268 3.260
3.158 5.967 3.462
2.898 6.060 3.586
3.075 6.036 3.810
2.693 5.742 4.039
2.649 5.808 4.137
2.750 5.585 4.436
2.782 5.265 4.759
2.441 5.297 4.744
2.540 5.350 5.081
2.344 5.297 5.156
2.564 5.313 5.642
1.841 5.608 2.643
1.789 5.677 2.868
1.365 5.545 3.388
1.450 5.509 3.459
1.357 5.031 3.811
1.137 4.962 3.705
1.723 5.521 2.478
2.014 5.654 2.707
1.767 5.335 2.948
1.568 5.510 3.267
1.459 5.556 3.697
1.798 5.206 3.680
1.787 5.029 4.062
1.420 5.249 4.000
1.887 5.709 2.713
1.915 5.709 2.986
1.992 5.848 3.040
1.784 5.816 3.191
2.051 5.294 3.610
1.691 5.583 4.056
1.842 5.286 3.844
1.810 5.133 4.395
1.632 5.298 4.392
2.071 5.912 2.659
2.326 5.972 3.146
2.182 5.628 3.267
2.083 5.804 3.629
2.227 5.737 3.851
2.079 5.682 3.860
1.846 5.535 3.917
1.863 5.544 4.440
2.029 5.475 4.527
2.717 6.194 3.070
2.348 6.126 3.233
2.207 6.064 3.428
2.511 5.900 3.647
2.435 5.785 3.792
2.318 5.793 4.018
2.334 5.344 4.051
2.318 5.474 4.377
2.139 5.453 4.494
2.120 5.383 4.866
2.904 6.322 2.771
2.718 6.055 3.087
2.524 5.944 3.203
2.477 5.785 3.545
2.537 5.862 3.697
2.433 5.622 3.952
2.559 5.438 4.271
2.323 5.725 4.322
2.067 5.719 4.813
2.230 5.467 5.039
2.911 6.431 3.307
2.983 6.141 3.446
2.702 6.008 3.404
2.837 6.170 3.610
2.572 6.024 3.773
2.527 5.893 4.156
2.522 5.665 4.322
2.676 5.834 4.406
2.381 5.463 4.957
1.491 5.519 2.967
1.360 5.528 2.949
1.621 5.799 2.376
1.530 5.913 2.889
1.554 5.552 2.965
1.513 5.648 3.456
1.569 5.279 3.284
1.242 5.353 3.796
1.740 5.883 2.569
1.730 5.713 3.063
1.618 5.712 3.268
1.462 5.547 3.554
1.417 5.645 3.611
1.571 5.481 3.804
1.593 5.628 4.181
1.925 6.178 2.701
2.027 5.812 3.076
1.957 5.699 3.116
1.751 5.972 3.402
1.765 5.661 3.564
1.556 5.801 3.651
1.659 5.777 4.106
1.351 5.347 4.144
2.135 6.098 3.015
1.908 6.040 2.908
1.966 5.965 3.250
2.173 6.083 3.288
1.979 6.015 3.943
1.805 5.546 3.828
1.828 5.526 4.265
1.863 5.406 4.437
2.286 6.245 2.727
2.488 6.189 3.251
2.436 6.212 3.284
2.235 5.833 3.800
2.046 6.092 3.606
2.099 5.639 4.171
2.213 5.946 4.315
1.791 5.794 4.588
2.422 6.198 3.143
2.674 6.145 3.356
2.616 5.931 3.663
2.239 5.950 3.869
2.202 6.043 3.990
2.364 6.018 4.479
2.085 5.608 4.392
2.438 6.030 3.938
2.382 5.899 3.974
2.544 5.970 4.316
2.446 5.822 4.357
1.222 6.117 2.666
1.346 5.616 2.901
1.208 5.837 3.097
1.112 5.859 3.389
1.043 5.424 3.650
1.352 5.794 2.437
1.571 5.765 2.769
1.350 5.982 3.126
1.414 5.789 3.494
1.052 5.848 3.328
0.945 5.413 3.984
1.491 6.032 2.670
1.728 6.178 2.908
1.766 5.747 3.080
1.516 5.861 3.361
1.352 5.868 3.514
1.449 5.862 3.977
1.213 5.759 3.888
1.875 6.037 2.777
1.599 6.309 2.802
1.549 5.919 3.465
1.445 6.088 3.458
1.510 5.881 3.491
1.740 5.641 3.975
1.426 5.877 4.153
1.769 6.066 3.221
1.785 5.951 3.301
2.028 5.915 3.738
2.026 6.038 4.025
1.540 6.134 4.155
1.681 5.696 4.262
2.089 6.236 3.303
2.217 6.265 3.581
1.949 6.007 3.855
2.044 6.091 4.044
1.816 6.097 4.379
2.430 6.238 3.940
2.141 6.246 4.274
1.038 6.045 2.404
0.998 5.764 2.518
0.703 5.982 2.976
0.729 5.593 3.364
1.053 6.099 2.639
1.265 6.172 2.725
1.010 6.092 2.956
0.805 5.868 3.284
0.838 5.975 3.302
1.496 6.127 2.520
1.244 6.286 2.969
1.156 6.071 3.249
0.991 6.138 3.431
1.089 5.996 3.367
1.159 5.694 3.732
1.574 6.443 3.092
1.366 6.134 3.150
1.357 5.909 3.482
1.505 5.872 3.612
1.213 6.071 3.898
1.704 6.484 3.215
1.319 6.247 3.734
1.578 6.032 3.926
1.464 5.805 4.021
1.794 6.165 3.775
1.642 5.901 3.896
1.915 6.338 4.099
0.748 5.974 2.651
0.519 6.041 2.884
0.706 5.717 3.109
0.958 6.156 2.713
0.877 5.994 2.974
0.744 5.994 2.761
0.397 5.725 3.266
0.616 5.897 3.273
0.796 6.212 3.062
0.905 6.145 3.030
1.063 6.294 3.083
0.925 6.122 3.489
1.155 6.176 3.266
1.103 6.328 3.288
0.927 5.970 3.590
0.833 5.786 3.903
1.078 6.287 3.568
1.040 6.157 3.708
0.894 6.085 3.695
1.484 6.453 3.934
-0.050 6.047 2.473
0.245 6.216 2.769
0.373 6.291 2.366
0.295 5.905 2.729
0.391 5.859 2.906
0.416 6.221 2.905
0.399 6.183 3.118
0.268 6.261 2.936
0.740 6.060 3.241
0.288 6.230 3.327
0.482 6.182 3.646
0.554 6.340 3.196
0.591 6.073 3.497
0.774 6.258 3.645
-0.062 6.153 2.681
-0.032 6.338 3.190
0.243 6.344 3.360
0.213 6.484 3.338
2.153 1.202 1.169
2.145 1.286 1.259
2.337 1.335 1.291
2.664 1.321 1.103
2.345 1.219 1.578
2.602 1.382 1.442
2.435 0.975 1.996
1.456 -0.062 5.363
2.782 1.462 1.535
2.702 1.584 1.557
2.757 1.564 1.741
2.564 1.320 2.145
2.687 1.461 2.375
2.862 1.567 1.527
3.018 1.486 1.523
2.747 1.515 1.953
2.838 1.470 1.841
2.870 1.357 2.296
2.522 1.405 2.271
3.249 2.001 1.450
3.230 1.775 1.861
2.944 1.677 2.099
2.683 1.565 1.986
3.054 1.324 2.517
2.925 1.354 2.546
2.644 1.490 2.939
3.387 1.901 1.613
3.154 1.975 1.812
2.936 1.617 2.168
2.916 1.671 2.216
2.879 1.762 2.311
3.153 1.652 2.888
3.146 1.383 2.845
3.452 2.064 1.565
3.435 1.825 1.654
3.234 1.805 2.229
3.440 1.713 2.484
3.320 1.760 2.488
3.222 1.727 2.909
3.322 1.416 2.964
3.463 1.963 1.552
3.491 2.166 2.055
3.721 1.738 2.221
3.673 2.001 2.390
3.693 1.616 2.568
3.473 1.470 3.015
3.463 1.766 3.102
3.699 2.242 1.740
3.953 2.009 2.138
3.902 1.823 2.334
3.756 1.945 2.433
3.854 1.643 2.901
3.441 1.752 2.918
4.279 2.413 1.833
4.130 2.392 2.365
3.961 1.924 2.535
4.137 1.999 2.387
3.628 2.126 2.945
0.929 0.157 4.255
0.812 0.231 4.140
0.701 0.072 4.581
1.273 0.427 4.229
0.934 -0.062 4.725
0.850 0.237 4.751
1.814 1.472 1.043
1.277 0.483 4.511
1.410 0.240 4.529
1.091 -0.010 4.706
1.305 0.175 5.196
1.176 0.177 5.606
2.161 1.457 1.401
2.154 1.376 1.312
1.352 0.204 4.958
1.237 0.128 5.109
1.486 0.393 5.381
1.332 0.093 5.410
1.447 0.131 5.571
2.568 1.820 1.103
2.086 1.633 1.430
2.314 1.715 1.699
2.078 1.273 1.725
1.482 0.423 5.354
1.520 0.004 5.735
1.571 0.003 5.833
2.606 1.748 1.386
2.687 1.489 1.468
2.543 1.749 1.678
2.283 1.611 1.822
2.387 1.542 2.270
2.394 1.560 2.320
2.316 1.371 2.508
1.522 0.235 6.166
2.926 2.002 1.309
2.811 1.750 1.810
2.691 1.602 1.855
2.368 1.564 2.231
2.678 1.682 2.192
2.272 1.234 2.539
2.383 1.472 2.775
2.255 1.249 3.182
2.825 2.193 1.549
2.872 1.746 1.662
2.928 1.619 2.118
2.928 1.689 2.172
2.931 1.676 2.440
2.795 1.477 2.670
2.711 1.424 2.633
2.594 1.635 3.191
3.072 2.153 1.779
3.075 1.842 2.010
2.970 2.099 1.995
2.992 1.780 2.141
2.712 1.744 2.405
2.892 1.898 2.748
2.796 1.742 2.968
2.621 1.704 3.301
3.242 2.032 1.507
3.387 1.901 1.950
3.418 2.253 2.290
3.009 1.947 2.412
3.234 1.648 2.727
2.857 1.593 2.910
2.861 1.917 3.124
2.880 1.693 3.448
3.583 2.178 1.691
3.440 2.167 1.911
3.266 2.310 2.332
3.289 2.248 2.299
3.239 1.759 2.789
3.495 1.931 3.074
3.006 1.695 2.946
3.578 2.599 1.835
3.723 2.253 2.202
3.787 2.236 2.414
3.659 1.958 2.525
3.311 1.860 2.816
3.421 1.836 3.053
3.640 2.167 2.516
3.899 2.293 2.575
0.288 -0.114 4.335
0.161 -0.139 4.533
0.806 0.177 4.226
0.703 -0.031 4.386
0.450 0.058 4.653
0.637 -0.179 4.524
0.833 0.558 4.332
1.005 0.161 4.247
0.873 0.163 4.510
0.683 0.035 4.689
0.639 -0.151 5.112
1.005 0.752 4.091
1.096 0.342 4.412
0.892 0.564 4.624
0.888 0.369 4.749
0.978 0.301 5.022
0.818 -0.002 5.101
0.979 0.076 5.498
0.888 0.111 5.733
1.380 0.748 3.897
1.236 0.448 4.473
1.094 0.471 4.729
1.023 0.483 4.953
1.119 0.177 5.025
1.261 0.060 5.003
1.206 0.083 5.638
1.004 0.083 5.603
0.670 -0.024 5.641
1.827 1.628 1.060
2.156 1.601 1.595
1.396 0.666 4.347
1.380 0.852 4.681
1.161 0.710 4.963
1.546 0.605 5.258
1.171 0.529 5.202
1.267 0.139 5.544
1.114 0.400 5.753
1.120 0.253 5.865
1.193 -0.139 6.150
2.451 1.686 1.218
2.284 1.553 1.674
2.239 1.678 1.690
2.050 1.822 1.771
1.861 1.578 2.218
1.679 0.279 5.605
1.607 0.618 5.758
1.262 0.110 6.008
1.267 0.139 6.046
1.336 -0.031 6.433
2.498 1.803 1.628
2.160 2.049 1.516
2.192 1.580 1.961
2.349 1.540 1.946
2.009 1.649 2.464
2.385 1.443 2.373
2.276 1.643 2.826
2.218 1.494 2.838
1.800 1.330 3.266
1.439 0.594 5.905
2.717 2.226 1.620
2.578 1.992 1.577
2.418 2.110 1.971
2.316 1.971 1.979
2.226 1.915 2.600
2.258 1.719 2.674
2.314 1.383 2.720
2.309 1.308 3.203
2.274 1.466 3.360
2.139 1.199 3.559
2.842 2.062 1.645
2.862 2.211 1.616
2.546 2.171 2.117
2.843 2.106 2.214
2.467 1.789 2.525
2.606 1.765 2.748
2.438 1.665 2.893
2.434 1.649 3.268
2.219 1.426 3.241
2.460 1.554 3.479
2.832 2.404 1.777
2.837 2.110 1.964
3.015 2.285 2.208
2.745 2.192 2.421
2.576 2.128 2.707
2.719 1.784 2.830
2.841 1.629 3.110
2.838 1.748 3.015
2.593 1.427 3.549
3.113 2.470 1.686
3.091 2.314 2.039
3.202 2.349 2.237
3.127 2.071 2.361
2.789 2.010 2.546
2.787 2.021 3.066
2.886 2.028 3.017
3.017 1.848 3.137
2.986 1.524 3.408
3.566 2.715 2.046
3.484 2.280 1.895
3.501 2.157 2.051
3.333 2.454 2.482
3.025 2.231 2.721
3.068 2.169 2.945
3.192 1.857 3.111
2.892 2.000 3.204
3.470 2.424 2.281
3.456 2.467 2.190
3.610 2.150 2.643
3.205 2.170 2.597
3.280 2.144 2.988
3.482 2.130 3.233
0.211 -0.043 4.246
0.135 0.244 4.196
0.577 0.432 4.229
0.194 0.199 4.375
0.283 0.158 4.647
0.424 0.289 4.774
0.121 0.150 4.739
0.672 0.485 3.883
0.325 0.575 4.222
0.626 0.175 4.191
0.217 0.292 4.536
0.181 0.036 4.666
0.295 0.351 5.132
0.096 0.068 5.139
0.695 0.931 3.567
0.669 0.642 3.885
0.517 0.490 4.320
0.645 0.741 4.609
0.586 0.317 4.756
0.646 0.259 4.878
0.741 0.500 5.141
0.381 -0.035 5.408
0.554 0.310 5.395
0.224 -0.125 5.614
1.076 0.735 3.443
1.245 0.662 3.799
0.967 0.813 4.219
1.052 0.637 4.355
1.043 0.473 4.322
1.045 0.431 4.838
0.637 0.344 5.005
0.638 0.557 5.256
0.506 0.328 5.365
0.771 0.360 5.497
0.499 -0.067 5.819
0.288 0.155 6.202
1.317 0.929 3.419
1.379 1.150 3.863
1.175 0.772 3.717
1.044 0.769 3.978
1.011 0.908 4.358
1.056 0.884 4.707
0.991 0.735 4.726
1.072 0.714 5.237
0.947 0.411 5.458
0.694 0.490 5.465
0.904 0.295 5.888
0.823 0.067 6.101
0.920 0.379 6.077
1.441 1.113 3.357
1.377 0.874 3.584
1.432 1.026 3.910
1.261 0.926 3.789
1.466 1.037 4.334
1.490 1.118 4.263
1.411 0.703 4.665
1.475 0.869 4.932
1.267 0.603 5.255
0.937 0.527 5.424
0.994 0.600 5.437
0.853 0.647 5.706
1.002 0.390 6.086
0.837 0.481 6.103
2.238 2.105 1.554
2.094 1.848 1.385
2.068 1.693 1.645
1.842 1.628 1.889
1.938 1.950 2.388
1.814 1.788 2.346
1.766 1.757 2.637
1.805 1.255 3.021
1.518 1.596 2.925
1.479 1.427 3.382
1.367 1.241 3.686
1.355 1.229 3.552
1.833 1.455 3.675
1.543 1.409 3.989
1.690 1.308 4.139
1.659 1.184 4.706
1.299 1.141 4.675
1.550 1.064 5.196
1.557 1.002 5.127
1.554 0.641 5.371
1.492 0.622 5.757
1.244 0.351 6.072
0.972 0.389 6.293
2.485 2.241 1.376
2.404 2.139 1.867
2.124 2.110 2.027
1.993 2.032 2.331
2.198 1.841 2.490
1.878 1.613 2.745
2.116 1.729 2.549
1.835 1.607 2.978
1.882 1.546 3.428
1.911 1.199 3.383
1.545 1.262 3.776
1.921 1.327 3.930
1.728 1.531 3.749
1.718 1.460 4.131
2.287 2.063 1.577
2.285 2.127 1.679
2.483 2.075 2.195
2.475 1.891 2.187
2.307 1.898 2.593
2.412 1.766 2.421
1.979 1.543 2.886
2.003 1.903 2.887
2.098 1.781 3.335
2.171 1.520 3.423
1.810 1.383 3.707
1.832 1.577 4.064
2.015 1.293 4.085
2.603 2.317 1.589
2.405 2.296 1.999
2.532 2.181 1.879
2.650 2.150 2.403
2.641 1.861 2.574
2.567 2.076 2.714
2.509 2.109 3.146
2.376 2.032 3.155
2.082 1.958 3.438
2.328 1.533 3.629
2.105 1.578 3.642
2.321 1.434 3.915
2.724 2.365 1.555
2.929 2.575 2.096
2.603 2.435 1.913
2.511 2.404 2.219
2.481 2.077 2.739
2.831 2.306 2.713
2.377 1.831 3.171
2.373 1.927 3.364
2.273 1.992 3.631
2.360 1.896 3.726
2.221 1.679 3.863
3.242 2.540 1.680
2.859 2.740 2.191
2.991 2.414 2.111
2.700 2.529 2.643
2.830 2.082 2.495
2.843 2.212 2.717
2.758 2.021 3.092
2.548 1.945 3.392
2.511 1.902 3.707
2.781 1.903 3.727
3.348 2.411 2.136
3.275 2.700 2.142
3.124 2.514 2.553
3.145 2.354 2.953
2.831 2.353 2.943
2.909 2.328 3.141
2.753 2.341 3.410
2.803 1.912 3.512
3.502 2.429 2.379
3.089 2.487 2.636
3.369 2.576 3.045
3.407 2.208 2.916
3.220 2.361 3.425
3.035 2.451 3.734
-0.085 0.270 3.984
0.117 -0.114 4.498
5.715 0.516 1.673
5.896 0.917 1.193
5.763 0.788 1.533
6.244 1.101 1.490
6.087 0.936 1.528
5.334 0.469 1.572
5.649 1.008 1.281
5.786 0.851 1.383
6.067 0.947 1.309
6.033 1.087 1.143
5.880 0.981 1.374
6.306 1.355 0.589
6.050 1.227 1.089
6.167 1.086 1.424
6.278 1.042 1.475
6.286 0.834 1.887
6.386 0.961 1.737
5.267 0.962 1.445
5.441 1.039 1.448
5.464 0.785 1.542
5.489 1.176 0.876
5.437 1.218 1.345
5.551 0.847 1.739
5.688 1.228 0.978
5.987 1.298 1.026
5.867 1.236 1.336
5.811 1.290 1.395
6.369 1.433 0.686
6.097 1.660 1.248
6.171 1.449 1.454
6.103 1.174 1.259
6.172 1.168 1.770
6.263 1.562 1.298
6.256 1.588 1.557
6.215 1.489 1.600
4.616 0.816 1.454
4.926 0.954 1.370
5.132 1.005 1.517
5.055 1.164 1.229
5.072 1.225 1.635
5.527 1.138 1.164
5.459 1.126 1.534
5.470 1.271 1.481
5.873 1.332 0.779
5.489 1.513 1.385
5.587 1.220 1.595
5.808 1.242 1.540
5.902 1.522 0.825
5.917 1.529 0.859
5.684 1.767 1.446
5.980 1.481 1.628
5.860 1.430 1.642
6.154 1.783 0.578
6.315 1.661 0.798
6.104 1.968 1.137
6.140 1.871 1.339
6.230 1.438 1.674
6.050 1.478 2.019
4.522 1.115 1.231
4.770 0.994 1.006
4.485 1.060 1.177
4.721 1.109 1.439
4.692 1.262 1.310
5.114 1.451 1.014
5.261 1.329 1.302
5.272 1.175 1.613
5.607 1.672 0.980
5.296 1.276 1.336
5.376 1.519 1.820
5.727 1.741 1.224
5.562 1.779 1.154
5.572 1.671 1.319
5.362 1.423 1.877
5.701 2.098 1.080
5.866 1.712 0.929
5.812 1.651 1.524
5.656 1.595 1.651
5.807 1.826 1.654
6.193 2.012 0.805
6.153 2.143 1.131
5.827 2.089 1.106
5.767 1.977 1.431
5.981 1.846 1.567
5.715 1.869 2.034
2.188 0.243 -0.092
2.478 0.392 0.182
3.928 0.882 1.250
3.957 0.955 1.034
4.494 1.028 0.908
4.344 1.046 1.099
4.473 1.355 0.954
4.578 1.333 1.473
5.009 1.499 1.161
4.836 1.482 1.535
4.943 1.440 0.983
5.000 1.471 1.493
4.781 1.517 1.482
5.036 1.692 1.109
5.447 1.781 1.391
5.127 1.365 1.441
5.597 2.120 0.935
5.533 2.064 1.538
5.368 1.618 1.634
5.570 1.612 1.799
5.513 2.271 1.221
5.791 1.821 1.250
5.681 1.982 1.679
5.721 1.660 1.820
6.003 2.469 1.009
6.083 2.171 1.399
5.829 2.304 1.616
5.815 1.793 1.938
5.883 2.104 1.840
2.084 0.136 -0.125
1.928 0.349 -0.042
2.157 0.524 -0.165
2.164 0.184 0.031
2.623 0.696 0.239
2.492 0.390 0.193
2.928 0.775 0.229
2.532 0.472 0.536
2.792 0.810 0.155
3.087 0.850 0.305
2.941 0.661 0.622
3.310 1.095 0.483
3.265 0.833 0.803
3.447 1.080 0.767
3.483 0.788 1.109
3.608 0.980 0.565
3.338 0.839 0.928
3.611 0.894 1.087
3.806 1.206 1.053
3.984 1.377 0.768
3.910 0.952 1.392
3.936 1.186 0.992
3.917 1.068 1.475
4.445 1.498 1.053
4.309 1.205 1.500
4.360 1.535 1.370
4.411 1.505 1.440
4.905 1.744 1.429
4.851 1.644 1.433
5.069 1.586 1.466
4.755 1.553 1.752
4.909 1.963 1.035
5.268 1.715 1.348
4.824 1.994 1.488
5.207 2.213 1.550
5.224 1.839 1.566
5.460 2.021 1.580
5.769 2.221 1.325
5.746 2.059 1.544
5.526 2.191 1.753
5.534 2.069 1.728
5.739 2.372 1.179
5.779 2.515 1.449
5.749 2.082 1.905
5.583 2.037 1.926
1.868 0.264 -0.189
1.814 0.240 -0.013
1.911 0.491 -0.006
1.776 0.342 -0.003
2.319 0.656 0.068
2.281 0.778 0.368
2.458 0.780 0.289
2.297 0.625 0.381
2.137 0.529 0.626
2.780 0.802 0.261
2.678 0.784 0.265
2.545 0.824 0.373
2.559 0.716 0.839
3.018 1.268 0.137
2.753 0.969 0.110
2.626 1.097 0.595
2.915 0.802 0.863
2.872 1.055 0.417
3.125 1.253 0.656
3.092 0.960 0.422
3.021 1.014 0.807
3.087 1.162 0.127
3.436 1.305 0.689
3.069 1.173 0.775
3.022 1.256 0.921
3.669 1.440 0.439
3.332 1.531 0.778
3.268 1.119 0.898
3.095 1.213 1.261
3.472 1.296 0.781
3.749 1.192 0.808
3.284 1.398 1.164
3.833 1.406 0.931
3.736 1.480 0.830
3.571 1.467 1.001
4.054 1.503 0.898
3.876 1.284 1.517
3.983 1.498 1.322
4.167 1.422 1.458
4.212 1.573 1.190
4.154 1.621 1.413
4.722 2.016 1.319
4.327 1.550 1.418
4.849 1.954 1.378
4.786 1.863 1.733
4.804 2.079 1.601
4.879 2.124 1.630
5.294 2.352 1.478
4.925 2.036 1.819
5.456 2.148 1.615
5.452 2.283 1.813
5.332 2.279 1.714
5.584 2.152 1.995
1.550 0.206 0.058
1.730 0.209 -0.058
1.798 0.377 0.112
1.928 0.551 -0.128
2.065 0.881 0.323
2.104 0.831 0.055
2.045 0.939 0.276
1.974 0.762 0.494
2.289 1.198 0.123
2.346 0.828 0.655
2.291 0.777 0.748
2.427 1.361 0.110
2.703 1.141 0.496
2.371 0.805 0.413
2.600 0.793 0.958
2.888 1.028 0.261
2.913 1.327 0.260
2.823 1.161 0.483
2.406 1.243 1.038
3.104 1.657 -0.099
2.893 1.554 0.159
2.686 1.089 0.315
2.883 1.042 0.916
2.615 1.135 0.743
3.266 1.341 -0.004
3.225 1.419 0.111
2.885 1.478 0.663
3.067 1.542 0.884
2.816 1.188 0.842
3.185 1.570 0.222
3.391 1.709 0.438
3.104 1.471 1.058
3.231 1.528 0.888
3.615 1.807 0.364
3.431 1.745 0.791
3.275 1.480 1.147
3.498 1.431 1.202
3.495 1.627 0.815
3.459 1.479 0.914
3.768 1.742 1.274
3.820 1.688 1.122
3.732 1.610 1.195
3.758 1.482 1.267
3.979 1.640 1.264
4.066 1.601 1.433
4.210 2.051 1.287
4.071 1.930 1.609
4.324 2.197 1.211
4.413 1.821 1.406
4.684 1.867 1.553
4.579 2.129 1.715
1.551 0.395 -0.058
1.496 0.634 0.354
1.666 0.915 0.450
1.857 0.922 0.187
1.540 0.847 0.204
2.201 0.905 0.142
2.015 0.985 0.614
1.692 1.037 0.675
2.398 1.247 0.255
2.296 1.276 0.065
2.250 0.924 0.283
2.259 0.895 0.667
2.626 1.278 0.028
2.580 1.131 0.454
2.452 1.259 0.356
2.445 0.982 0.813
2.393 1.464 0.377
2.352 1.512 0.532
2.573 1.415 0.885
2.692 1.324 1.065
3.098 1.674 0.303
2.743 1.451 0.399
2.993 1.409 0.676
2.944 1.400 0.696
2.733 1.175 0.920
2.927 1.890 0.393
3.121 1.524 0.273
2.790 1.584 0.402
2.729 1.672 0.714
2.697 1.267 1.255
3.239 1.812 0.456
3.415 1.629 0.622
3.080 1.617 0.522
3.338 1.400 0.766
2.940 1.571 1.366
3.404 1.851 0.498
3.160 1.623 0.769
3.224 1.691 1.106
3.402 1.444 1.164
3.448 1.765 0.644
3.547 1.743 0.866
3.410 1.940 1.357
3.736 2.251 0.828
3.601 1.884 1.249
3.693 1.866 1.497
3.855 2.041 1.164
4.013 2.031 1.548
4.125 2.066 1.185
4.159 1.846 1.537
4.014 2.421 1.802
1.606 0.557 0.042
5.977 -0.114 2.308
6.283 0.151 2.311
6.049 0.206 2.509
5.822 0.244 1.972
5.705 0.216 1.884
5.637 0.090 2.028
5.657 0.060 2.237
5.721 0.081 2.411
5.962 0.547 1.735
5.831 0.347 1.805
6.125 0.150 1.996
5.924 0.022 2.546
5.994 0.256 2.778
5.903 0.179 2.598
6.140 0.718 1.602
6.095 0.665 2.234
6.148 0.455 2.475
6.334 0.129 2.709
6.079 0.073 2.742
6.143 0.166 2.867
5.929 0.084 2.999
6.257 0.418 2.947
6.388 0.418 2.822
5.959 0.385 3.214
5.973 0.161 3.260
5.125 0.046 2.036
5.340 0.378 1.572
5.317 0.132 1.711
5.198 0.257 2.025
5.389 0.399 1.471
5.399 0.301 1.829
5.521 0.162 2.265
5.254 0.310 2.026
5.445 -0.081 2.270
5.335 0.145 2.763
5.623 0.411 1.546
5.718 0.210 2.127
5.619 0.126 2.067
5.459 0.314 2.374
5.323 0.097 2.564
5.467 -0.096 2.615
5.475 -0.039 3.091
5.988 0.854 1.604
5.851 0.464 1.956
6.063 0.422 2.052
5.753 0.453 2.551
5.772 0.252 2.571
5.692 0.144 2.875
5.662 0.262 3.264
5.403 0.204 3.084
5.971 0.685 1.645
6.213 0.883 2.288
5.937 0.455 2.229
5.932 0.305 2.694
6.114 0.283 2.648
6.035 0.097 2.996
5.789 0.040 3.066
5.972 0.247 3.362
5.542 0.135 3.767
5.768 -0.074 3.790
6.317 0.543 2.356
6.164 0.491 2.321
6.342 0.613 2.818
5.903 0.333 2.904
5.835 0.587 3.130
6.016 0.399 3.441
5.974 0.128 3.259
6.129 0.257 3.503
5.975 0.098 4.165
5.905 0.174 3.980
4.953 0.232 1.659
4.683 0.343 1.759
4.725 0.358 1.938
4.591 0.157 2.279
5.434 0.689 1.633
5.180 0.318 1.687
5.001 0.240 1.794
5.060 0.084 1.974
5.160 0.373 2.370
4.752 0.240 2.795
5.032 -0.015 2.772
5.413 0.742 1.430
5.498 0.461 2.034
5.210 0.484 1.855
5.116 0.470 2.106
5.242 0.480 2.461
4.935 0.233 2.670
4.905 0.343 2.961
5.251 0.224 3.371
5.807 0.759 1.617
5.327 0.468 1.785
5.736 0.579 2.005
5.643 0.684 2.396
5.201 0.310 2.750
5.536 0.503 2.593
5.092 0.293 3.086
5.377 0.027 3.389
5.366 0.277 3.265
5.701 0.612 1.934
5.980 0.742 2.225
5.516 0.741 2.403
5.863 0.426 2.581
5.800 0.678 2.704
5.513 0.339 2.999
5.268 0.445 3.099
5.357 0.373 3.299
5.273 0.037 3.437
5.340 0.216 3.756
5.872 0.974 1.983
6.009 1.078 2.139
5.950 0.882 2.538
5.696 0.594 2.674
5.917 0.613 2.551
5.694 0.514 2.793
5.788 0.528 3.132
5.824 0.464 3.667
5.432 0.445 3.482
5.424 -0.019 3.992
6.015 1.192 2.212
6.305 1.173 2.110
6.051 0.820 2.538
5.870 0.590 2.862
5.890 0.529 3.013
6.113 0.466 2.964
5.739 0.718 3.176
6.005 0.491 3.742
5.975 0.575 3.584
4.418 0.361 1.730
4.567 0.181 1.900
4.843 0.465 1.455
4.998 0.354 1.698
4.709 0.253 2.038
4.735 0.564 2.331
4.442 0.318 2.469
4.494 0.217 2.433
5.056 0.710 1.670
5.212 0.522 2.038
4.887 0.491 2.027
4.712 0.440 2.066
5.078 0.275 2.421
4.599 0.272 2.643
4.765 0.058 2.986
5.511 1.033 1.440
5.002 0.669 2.082
4.967 0.495 2.338
5.071 0.410 2.173
5.297 0.309 2.764
5.224 0.459 2.963
4.741 0.423 2.889
4.829 0.028 3.392
5.526 0.745 1.609
5.318 1.046 2.002
5.239 0.966 2.010
5.382 0.604 2.237
5.083 0.572 2.670
5.444 0.388 2.932
5.296 0.254 3.252
5.273 0.189 3.507
5.844 0.885 1.755
5.524 0.722 1.990
5.549 0.814 2.347
5.475 0.936 2.623
5.656 0.688 2.697
5.384 0.841 3.100
5.469 0.620 3.376
5.329 0.454 3.616
6.010 1.347 1.829
5.764 1.062 1.954
5.912 0.962 2.552
5.802 0.876 2.383
5.729 0.968 2.723
5.676 0.958 2.876
5.435 0.629 3.058
5.442 0.763 3.721
5.873 1.363 2.077
5.977 1.246 2.101
5.941 1.095 2.548
5.815 0.913 2.500
5.643 0.975 2.759
5.708 1.041 3.024
5.592 0.941 3.327
4.740 0.832 1.478
4.624 0.568 1.621
4.245 0.357 2.112
4.252 0.528 2.099
4.166 0.286 2.512
4.968 1.007 1.561
4.898 0.538 1.973
4.687 0.665 2.098
4.457 0.532 2.367
4.764 0.632 2.427
4.457 0.421 2.874
4.879 1.068 1.805
4.696 0.971 1.901
5.035 0.782 2.242
4.947 0.604 2.297
4.856 0.591 2.540
4.627 0.596 2.789
4.727 0.581 3.064
5.314 1.231 1.950
5.176 1.121 1.724
5.200 0.640 1.959
4.837 0.815 2.606
5.164 0.536 2.714
4.693 0.432 2.776
4.612 0.703 2.911
5.281 1.326 1.649
5.371 1.230 2.202
5.304 1.162 2.138
5.265 0.895 2.277
5.047 0.787 2.677
4.982 0.908 3.055
4.932 0.748 3.097
5.678 1.337 1.934
5.497 1.123 2.022
5.379 1.141 2.268
5.599 1.033 2.382
5.513 0.970 2.605
5.488 0.683 3.113
5.356 0.587 3.354
5.860 1.377 1.931
5.921 1.161 2.043
5.554 1.172 2.472
5.381 1.013 2.462
5.737 1.214 2.726
5.683 0.770 2.980
5.961 1.427 2.157
5.836 1.561 2.103
5.790 1.198 2.722
5.636 1.279 2.804
5.968 1.047 2.739
4.072 0.902 1.322
4.317 0.614 1.763
3.998 0.394 1.652
4.092 0.370 2.198
4.634 1.026 1.459
4.426 1.036 1.683
4.454 0.845 1.730
4.297 0.770 2.215
3.991 0.423 2.301
4.780 0.996 1.498
4.735 1.077 1.773
4.596 1.008 2.135
4.640 0.626 2.454
4.308 0.454 2.241
4.478 0.670 2.613
4.625 0.891 1.882
4.913 1.166 2.070
4.953 1.005 2.254
4.614 0.804 2.167
4.711 0.766 2.757
4.520 0.816 2.679
4.889 1.084 1.922
4.995 1.335 2.091
4.895 0.842 2.128
4.828 0.790 2.613
4.755 0.902 2.636
4.858 0.696 3.080
5.347 1.549 1.993
5.140 1.204 2.282
5.162 1.144 2.220
5.064 1.102 2.660
4.918 0.824 2.879
4.796 0.869 3.041
5.267 1.313 1.757
5.380 1.369 1.952
5.293 1.112 2.144
5.267 1.270 2.444
5.160 1.187 2.852
5.336 1.041 3.063
5.808 1.753 1.998
5.429 1.632 2.398
5.386 1.357 2.551
5.447 1.286 2.886
5.307 1.425 2.743
5.840 1.599 2.106
5.820 1.572 2.436
5.609 1.370 2.385
5.846 1.176 2.763
4.121 0.728 1.385
3.678 0.693 1.561
3.954 0.554 1.942
4.002 1.121 1.642
4.279 1.024 1.494
3.828 0.948 1.971
3.826 0.823 2.188
3.862 0.766 2.427
4.427 0.981 1.521
4.348 0.946 1.900
4.042 0.708 2.106
4.311 1.007 2.042
4.099 0.948 2.385
4.520 1.097 1.783
4.562 1.116 1.649
4.263 0.880 2.099
4.229 1.082 2.302
4.076 0.832 2.373
4.210 0.925 2.604
4.804 1.242 1.755
4.826 1.228 1.741
4.562 1.001 2.368
4.646 0.956 2.147
4.424 0.800 2.495
4.283 0.887 2.721
5.090 1.426 1.565
4.664 1.524 2.165
4.911 1.252 2.428
4.886 1.133 2.391
4.908 1.056 2.551
4.511 1.152 3.028
5.051 1.416 1.945
5.171 1.428 2.197
4.809 1.316 2.396
4.825 1.102 2.544
5.067 1.414 2.990
4.918 0.926 2.826
5.411 1.719 1.878
5.375 1.419 2.316
5.265 1.319 2.592
5.090 1.488 2.589
5.186 1.204 3.022
5.279 1.872 2.236
5.245 1.616 2.358
5.171 1.808 2.539
5.249 1.404 2.821
5.708 1.947 2.073
5.593 1.736 2.215
5.361 1.606 2.491
3.576 1.094 1.241
3.257 0.556 1.389
3.566 0.885 1.236
3.421 0.859 1.689
3.503 0.955 1.775
3.556 0.876 1.444
3.911 0.801 1.685
3.608 0.898 2.026
3.423 0.618 2.242
3.856 1.251 1.575
3.947 0.910 1.913
3.876 0.971 1.787
3.945 1.011 2.121
3.980 0.723 2.473
4.285 1.068 1.686
4.203 1.203 1.706
3.922 0.891 1.892
3.885 0.922 2.287
4.076 0.860 2.687
4.367 1.437 1.887
4.102 1.543 1.653
4.443 1.453 2.079
4.247 0.976 2.246
4.112 0.941 2.782
4.273 0.771 2.872
4.720 1.516 1.637
4.685 1.273 1.993
4.294 1.577 2.205
4.551 1.026 2.585
4.399 1.268 2.531
4.485 1.318 2.970
4.753 1.682 1.838
4.668 1.368 2.287
4.807 1.414 2.198
4.556 1.451 2.588
4.773 1.320 2.520
5.158 1.726 2.141
5.087 1.776 2.040
4.971 1.610 2.586
4.822 1.593 2.426
4.944 1.529 2.587
5.269 1.662 2.251
5.285 1.751 2.168
5.265 1.745 2.366
5.196 1.759 2.484
5.437 2.160 1.934
5.129 1.863 2.133
5.374 1.914 2.367
5.787 1.833 2.082
5.423 2.115 2.322
2.715 0.851 1.196
3.042 0.745 1.283
3.291 1.047 1.117
3.020 0.870 1.463
3.235 1.134 1.205
3.113 1.056 1.395
3.332 0.894 1.518
3.639 1.362 1.493
3.627 1.040 1.440
3.167 1.081 1.991
3.405 0.996 2.118
3.448 1.242 1.250
3.674 1.406 1.703
3.753 0.941 1.947
3.395 1.178 2.198
3.320 1.033 2.312
3.912 1.400 1.678
3.765 1.526 1.748
3.770 1.145 2.120
3.816 0.929 2.077
3.597 1.231 2.435
3.844 1.643 1.688
4.209 1.596 1.614
3.816 1.366 2.227
4.064 1.276 2.444
4.037 1.234 2.542
3.951 0.924 2.815
4.433 1.610 1.716
4.172 1.387 2.003
4.043 1.443 2.076
4.295 1.199 2.323
3.987 1.207 2.711
3.807 1.093 2.908
4.388 1.614 1.709
4.169 1.559 2.011
4.564 1.725 2.416
4.311 1.239 2.329
4.147 1.239 2.669
4.544 1.630 1.752
4.625 1.607 2.102
4.562 1.726 2.354
4.273 1.498 2.774
4.577 1.633 2.803
4.690 1.873 1.834
4.825 1.990 2.067
4.552 1.759 2.377
4.805 1.595 2.541
5.256 2.123 1.954
5.075 1.852 2.239
4.910 1.996 2.451
5.348 2.191 2.189
5.007 2.071 2.346
2.400 0.717 0.729
2.507 0.897 1.193
2.657 0.990 1.025
2.622 0.944 1.127
3.172 1.009 1.453
3.049 0.902 1.356
3.024 0.776 1.621
3.097 1.240 1.094
2.889 1.324 1.687
3.227 0.909 1.956
3.032 0.855 1.746
3.149 1.354 1.290
3.183 1.493 1.434
3.238 1.017 1.891
3.190 1.317 1.876
3.043 1.128 2.413
3.440 1.541 1.269
3.266 1.252 1.748
3.585 1.334 2.023
3.369 1.271 2.081
3.180 0.939 2.203
3.230 1.267 2.816
3.730 1.618 1.592
3.539 1.650 1.969
3.832 1.533 2.217
3.520 1.214 2.236
3.630 1.081 2.574
3.232 0.984 2.761
3.697 1.593 1.620
3.734 1.647 1.724
3.977 1.387 2.098
3.725 1.572 2.374
3.759 1.289 2.360
3.658 1.476 2.775
4.257 1.794 1.965
3.868 1.810 2.141
3.910 1.706 2.323
3.881 1.623 2.440
4.140 1.711 2.558
3.638 1.513 2.627
4.432 1.835 2.006
4.095 2.059 1.998
4.449 1.932 2.233
4.323 1.690 2.442
4.025 1.623 2.735
4.349 1.779 2.158
4.656 1.820 2.351
4.335 1.659 2.390
4.536 1.967 2.542
4.341 1.504 2.795
4.616 2.258 2.080
4.733 2.167 2.047
4.729 1.830 2.310
2.106 1.226 0.975
2.259 1.352 0.983
2.526 1.106 1.237
2.657 1.348 1.408
2.702 1.203 1.594
2.559 0.998 1.405
2.766 1.335 1.290
2.943 1.460 1.470
2.933 1.268 1.559
2.669 1.149 1.865
3.195 1.530 1.367
3.007 1.217 1.502
2.889 1.435 2.027
2.889 1.300 2.029
2.857 1.172 2.044
3.027 1.516 1.431
2.935 1.416 1.755
2.974 1.320 1.758
2.874 1.478 1.984
3.019 1.205 2.418
2.806 1.210 2.586
3.618 1.624 1.600
3.157 1.580 1.761
3.331 1.361 2.209
3.117 1.261 2.123
2.990 1.194 2.375
3.209 1.447 2.491
3.423 1.850 1.833
3.704 1.633 1.739
3.315 1.698 1.848
3.649 1.703 2.169
3.150 1.606 2.377
3.288 1.443 2.786
3.599 2.055 1.912
3.722 1.590 2.142
3.869 1.846 2.307
3.668 1.630 2.347
3.623 1.646 2.706
3.464 1.681 2.643
3.803 1.808 1.970
4.175 1.771 1.915
3.948 1.797 2.396
4.011 1.984 2.520
3.899 1.620 2.901
3.911 1.665 2.719
4.019 2.335 1.821
4.373 2.057 2.219
4.050 1.930 2.187
4.205 1.741 2.513
3.900 1.787 2.664
4.608 2.166 2.183
4.366 2.290 2.052
4.290 1.864 2.459
4.276 1.829 2.459
1.638 1.936 0.326
1.595 2.007 0.432
1.724 1.869 0.244
2.016 2.089 0.301
2.063 2.376 0.281
1.682 2.181 0.530
2.023 1.780 0.932
1.959 2.258 0.266
2.009 2.095 0.408
2.073 2.065 0.533
1.796 1.988 1.010
2.085 2.110 0.857
2.306 2.427 0.151
2.470 2.261 0.464
2.085 2.212 0.248
2.197 2.266 0.643
2.007 2.053 0.886
2.343 2.027 1.154
2.656 2.465 0.014
2.631 2.437 0.451
2.340 2.463 0.530
2.340 2.205 0.675
2.409 2.419 0.781
2.135 2.459 1.244
2.691 2.683 0.801
2.635 2.433 0.982
2.599 2.352 1.393
2.812 2.469 1.398
2.925 2.252 1.326
2.949 2.654 1.617
1.730 2.563 0.091
1.695 2.307 0.112
1.860 2.467 0.217
1.968 2.623 0.198
1.878 2.608 0.482
2.146 2.631 -0.087
2.383 2.602 0.434
1.970 2.594 -0.171
4.530 6.234 0.251
4.187 5.976 -0.088
4.317 6.004 0.370
4.133 6.353 0.382
3.891 6.338 0.506
2.598 5.945 2.775
2.920 6.000 2.417
2.803 5.998 2.621
3.037 5.962 2.210
2.709 6.145 2.451
2.752 6.080 2.708
3.337 6.436 2.692
2.908 6.260 2.627
1.947 6.108 2.557
2.478 6.021 2.491
2.506 5.989 2.419
2.364 6.396 2.581
2.574 5.968 2.751
2.963 6.219 2.803
1.815 5.828 2.367
1.897 6.176 2.158
1.922 5.972 2.497
2.239 6.020 2.777
1.542 5.944 2.404
1.871 6.351 2.440
1.761 6.269 2.681
0.976 6.322 2.432
0.872 6.358 2.396
0.860 6.339 2.425
0.182 6.084 2.081
0.344 6.197 2.153
0.412 6.435 2.301
1.683 1.021 0.072
1.424 1.013 0.001
1.637 1.099 0.270
1.902 1.097 0.225
1.798 1.105 0.523
1.887 1.649 -0.045
2.266 1.355 0.149
1.910 1.183 0.336
2.132 1.333 0.617
2.252 1.445 0.141
2.072 1.335 0.277
2.161 1.409 0.396
2.190 1.211 0.845
2.378 1.962 0.012
2.467 1.564 0.096
2.476 1.764 0.552
2.498 1.412 0.598
2.503 1.332 0.972
2.974 1.759 0.038
2.510 1.941 0.354
2.707 1.563 0.788
2.367 1.513 0.595
2.772 1.319 1.173
3.182 2.084 0.365
3.040 1.641 0.610
2.984 1.759 0.462
2.797 1.759 1.089
2.564 1.635 0.960
3.148 2.085 0.196
3.018 1.908 0.556
3.146 1.742 0.675
2.847 1.770 1.149
2.699 1.631 1.032
3.221 2.203 0.514
3.198 2.024 0.954
3.102 1.788 0.814
3.202 1.635 1.448
3.506 2.062 1.004
3.272 2.010 1.350
3.178 1.854 1.256
3.407 2.349 1.349
3.493 2.062 1.445
3.915 2.242 1.284
3.715 2.193 1.538
3.844 2.394 1.489
1.640 1.159 0.202
1.587 1.117 0.093
2.016 1.486 0.180
1.566 1.668 0.402
1.632 1.419 0.458
1.803 1.606 0.214
1.787 1.750 0.466
1.861 1.402 0.447
1.823 1.174 0.943
1.979 1.813 0.115
1.917 1.502 0.653
1.955 1.678 0.464
1.969 1.629 0.850
2.575 1.804 0.284
2.556 1.948 0.256
2.131 1.592 0.737
2.040 1.753 0.909
2.076 1.811 0.928
2.699 1.861 0.002
2.442 2.115 0.415
2.716 1.999 0.721
2.398 1.939 0.671
2.508 1.765 0.965
2.702 2.402 0.079
2.801 2.145 0.294
2.949 2.315 0.441
2.725 2.009 0.621
2.468 1.945 0.795
2.674 2.054 0.970
3.032 2.361 0.202
2.996 2.067 0.745
2.843 2.010 0.597
2.801 2.159 1.141
2.602 1.906 1.084
3.091 2.402 0.470
3.120 2.226 0.983
2.826 2.014 1.236
2.790 2.151 1.247
3.125 2.467 1.028
3.021 2.199 0.961
3.236 1.952 1.211
3.597 2.410 1.093
3.394 2.117 1.270
3.562 2.271 1.631
1.464 1.537 0.239
1.798 1.831 0.474
2.000 2.044 0.110
1.976 1.753 0.149
1.627 1.507 0.719
1.959 1.812 0.071
2.266 1.812 0.211
2.175 1.838 0.615
1.715 1.684 0.801
1.668 1.549 0.699
2.225 2.336 0.103
2.221 2.191 0.417
2.271 1.862 0.645
2.343 1.954 0.883
2.033 1.872 1.032
2.681 2.471 -0.003
2.527 1.983 0.389
2.171 2.175 0.818
2.156 1.955 0.913
2.401 2.060 1.137
2.753 2.493 0.273
2.471 2.536 0.445
2.687 2.335 0.500
2.450 2.016 0.956
2.356 2.179 1.120
2.660 2.197 1.212
2.935 2.302 0.431
2.717 2.574 0.541
2.733 2.360 0.690
2.810 2.366 1.085
2.787 2.363 1.333
2.847 2.295 0.802
2.869 2.216 0.937
2.804 2.175 1.256
3.099 2.498 1.045
2.983 2.567 1.666
3.146 2.574 1.447
1.392 1.944 -0.094
1.502 2.233 0.283
1.813 1.945 0.632
1.957 2.059 0.193
2.094 1.998 0.415
1.758 2.292 0.734
1.753 2.051 0.609
2.090 2.214 0.183
2.045 2.379 0.321
2.206 2.393 0.824
2.152 2.183 0.805
2.071 1.939 1.252
2.440 2.325 -0.189
2.257 2.589 0.104
2.312 2.424 0.464
2.104 2.339 0.641
1.980 2.291 1.017
2.240 2.243 1.366
2.545 2.817 -0.005
2.346 2.544 0.445
2.403 2.580 0.442
2.610 2.261 0.797
2.278 2.533 1.220
2.214 2.385 1.340
2.841 2.284 1.052
2.529 2.488 0.965
2.780 2.263 1.362
2.605 2.629 1.401
2.715 2.283 1.378
3.088 2.374 1.669
6.246 1.490 1.744
6.186 1.477 2.023
6.199 1.880 1.140
6.065 1.964 1.400
6.045 1.958 1.924
6.183 1.753 1.996
6.203 2.162 2.076
6.408 2.244 1.050
5.999 2.486 0.961
6.161 2.130 1.388
6.045 2.225 1.477
5.785 2.243 1.600
6.029 2.208 1.984
6.357 2.427 1.739
6.080 2.005 2.062
5.953 1.993 2.104
5.829 2.593 1.354
5.867 2.309 1.410
5.842 2.169 1.490
6.034 2.283 2.008
5.959 2.039 1.992
6.333 2.865 1.404
6.016 2.797 1.619
6.218 2.330 1.752
5.855 2.274 1.869
6.153 2.290 2.232
6.257 2.295 1.842
6.297 2.213 2.182
5.981 2.453 1.433
5.961 2.622 1.798
5.950 2.961 1.341
6.115 2.569 1.374
5.958 2.678 1.808
6.111 2.710 1.990
6.417 2.823 1.487
6.030 3.023 1.759
6.140 2.841 2.019
6.113 3.285 1.737
6.448 0.184 3.949
5.994 0.024 4.097
6.138 0.033 4.239
6.462 0.573 3.209
6.120 0.533 3.212
6.205 0.398 3.438
5.877 0.207 3.945
6.191 0.045 3.845
5.885 0.319 4.079
6.075 0.070 4.537
5.913 -0.043 4.499
6.072 0.301 4.966
6.033 -0.011 4.920
6.347 0.205 4.135
5.919 0.144 4.621
6.411 0.245 4.921
6.189 -0.016 4.895
6.213 0.118 5.436
5.560 -0.203 5.404
6.109 1.001 2.939
6.075 0.667 2.836
6.101 0.157 5.124
5.790 0.109 5.290
5.937 0.259 5.602
5.973 0.080 5.196
6.112 0.140 5.430
6.008 0.050 5.440
6.059 0.253 5.769
6.203 0.516 5.329
6.288 0.284 5.833
5.916 0.121 5.680
5.911 0.316 6.173
6.083 0.331 6.371
5.583 0.172 5.675
6.395 1.509 2.230
6.394 1.126 2.109
6.027 1.351 2.440
6.094 1.204 2.811
5.621 0.245 5.734
5.425 -0.012 5.576
5.578 0.265 5.911
5.642 0.132 5.832
5.831 0.106 5.726
5.672 0.374 6.126
5.518 0.240 6.360
5.850 0.603 5.768
5.861 0.382 5.786
6.141 0.347 6.343
6.389 0.425 5.652
6.282 0.502 5.780
6.056 0.573 6.412
5.212 0.185 6.354
6.329 1.620 2.034
6.262 1.241 2.176
6.080 1.512 2.635
5.811 1.524 2.706
5.289 0.244 6.220
5.348 -0.034 6.339
5.867 0.352 5.734
5.862 0.603 6.268
5.911 0.714 5.754
5.738 0.272 6.395
6.188 0.707 6.192
5.999 0.534 6.476
6.041 0.996 6.357
6.177 1.626 2.235
5.803 1.760 2.596
5.851 1.465 2.876
5.105 0.497 6.410
6.195 1.821 2.064
6.110 1.721 2.366
5.284 0.535 6.311
5.915 0.879 6.081
5.771 1.761 2.074
5.945 1.845 2.271
6.288 1.918 2.345
5.396 0.765 6.255
5.990 2.028 2.502
5.999 2.413 2.592
6.042 5.045 1.512
6.238 5.402 0.598
6.338 5.527 1.092
6.397 5.315 1.448
6.242 5.774 0.907
6.180 5.709 1.174
6.228 5.646 1.419
6.260 5.330 1.345
6.389 5.298 1.825
6.123 5.747 0.390
5.975 5.866 0.652
6.105 5.651 0.620
5.804 5.741 1.014
6.163 5.628 1.290
6.238 5.911 0.961
6.097 5.579 0.935
6.020 5.521 1.026
5.878 5.640 1.649
6.199 5.908 0.561
6.178 5.790 0.809
6.218 5.787 0.993
6.090 6.014 0.887
5.969 5.769 1.368
5.777 5.699 1.372
6.328 5.725 1.342
6.226 5.704 1.789
6.061 6.055 0.102
5.903 5.717 0.209
5.668 5.561 0.898
5.669 5.643 0.863
6.023 6.170 0.148
6.230 5.895 0.351
6.052 5.922 0.442
6.054 5.679 0.634
5.818 5.695 1.191
5.895 5.610 1.279
6.452 6.269 0.381
5.975 6.052 0.844
6.235 6.044 0.982
6.291 5.709 0.888
6.044 5.811 1.144
6.145 5.467 1.607
5.917 6.444 0.344
6.062 6.257 0.666
5.976 6.153 0.769
5.804 5.984 1.150
5.805 5.916 1.521
5.671 5.684 1.690
6.431 6.423 0.917
6.066 6.019 0.971
5.951 6.070 1.221
5.878 6.113 1.450
6.136 5.899 1.555
6.221 6.042 1.930
5.293 5.969 0.152
5.641 5.834 0.442
5.256 5.763 0.657
5.541 6.333 0.125
5.853 5.837 0.227
5.572 5.953 0.341
5.658 5.728 0.722
5.404 5.777 1.158
5.348 5.719 0.981
5.953 6.176 0.010
5.877 6.297 0.386
5.647 5.982 0.423
5.996 6.110 0.888
5.913 6.139 1.177
5.470 5.763 1.380
6.104 6.244 0.397
6.239 5.939 0.754
6.085 6.284 1.114
6.051 5.854 1.168
6.037 5.893 1.352
5.874 6.084 1.376
5.804 6.439 1.178
5.894 6.233 1.600
