4.236 5.994 0.914
4.348 6.108 1.204
4.421 6.024 1.136
4.498 6.118 1.395
5.530 1.443 1.688
4.497 6.145 1.450
4.569 6.092 1.662
5.600 1.477 1.925
4.636 6.093 1.678
4.753 6.222 1.921
5.638 1.792 2.208
5.752 1.523 2.181
4.734 6.135 1.924
4.810 6.186 2.215
4.946 5.912 2.238
5.808 1.847 2.489
5.880 1.541 2.504
4.834 6.234 2.232
4.960 6.238 2.527
5.008 5.941 2.497
5.949 1.840 2.728
6.009 1.525 2.682
4.962 6.228 2.541
5.185 6.034 2.836
6.022 1.857 2.942
6.067 1.651 2.993
5.249 6.063 3.081
5.368 5.773 3.058
6.205 1.600 3.236
5.379 6.105 3.300
5.453 5.732 3.394
5.505 5.452 3.348
5.504 6.137 3.620
5.617 5.817 3.592
5.592 5.498 3.595
5.667 5.220 3.673
3.643 5.581 0.169
3.784 5.294 0.170
3.820 5.037 0.201
4.394 6.041 1.831
5.374 1.412 2.080
4.350 6.073 1.822
4.428 6.122 2.145
5.336 1.693 2.302
5.416 1.428 2.363
4.484 6.152 2.088
4.530 6.161 2.312
5.521 1.761 2.615
5.538 1.537 2.562
4.579 6.121 2.323
4.735 6.218 2.600
4.751 5.965 2.637
5.669 1.827 2.887
5.699 1.551 2.814
4.674 6.181 2.626
4.849 6.202 2.883
4.915 5.948 2.874
4.991 5.668 2.937
5.725 1.882 3.107
5.856 1.545 3.114
4.820 6.208 2.927
4.919 6.238 3.223
5.041 6.031 3.189
5.077 5.666 3.193
5.867 1.850 3.354
5.926 1.648 3.443
4.948 6.323 3.130
5.071 6.028 3.413
5.168 5.766 3.446
5.270 5.452 3.485
6.036 1.621 3.685
5.234 6.074 3.727
5.352 5.812 3.727
5.368 5.447 3.805
5.452 5.170 3.752
5.491 4.943 3.769
3.473 4.950 0.106
5.025 1.378 2.191
5.152 1.700 2.432
5.203 1.420 2.393
4.302 6.118 2.535
5.150 2.064 2.639
5.268 1.680 2.669
5.306 1.457 2.685
4.330 6.079 2.521
4.483 6.113 2.764
4.473 5.846 2.763
5.279 2.015 2.949
5.384 1.719 2.919
5.434 1.528 3.011
4.401 6.184 2.725
4.582 6.141 3.043
4.616 5.911 3.071
4.679 5.580 3.079
5.383 2.121 3.231
5.459 1.769 3.264
5.524 1.532 3.292
4.592 6.165 2.994
4.623 6.192 3.270
4.785 5.917 3.356
4.826 5.636 3.285
4.914 5.385 3.385
5.513 2.188 3.501
5.635 1.813 3.458
5.635 1.592 3.515
4.640 6.233 3.351
4.809 6.301 3.564
4.894 5.975 3.597
4.865 5.640 3.589
5.001 5.342 3.671
5.030 5.064 3.663
5.706 1.928 3.737
5.810 1.563 3.798
4.831 6.304 3.578
4.959 6.033 3.859
5.002 5.672 3.852
5.120 5.425 3.918
5.143 5.090 3.935
5.194 4.859 3.878
5.311 4.503 3.971
5.946 1.679 4.100
4.861 1.691 2.513
4.960 1.325 2.523
4.948 2.013 2.782
5.004 1.630 2.823
5.015 1.432 2.827
4.178 6.099 2.914
4.933 2.276 3.088
5.054 1.995 3.099
5.112 1.663 3.073
5.121 1.470 3.143
4.188 6.154 2.909
4.251 6.167 3.195
4.296 5.816 3.175
5.057 2.314 3.366
5.154 2.021 3.337
5.166 1.737 3.356
5.309 1.424 3.363
4.268 6.118 3.165
4.355 6.177 3.396
4.428 5.874 3.435
4.490 5.630 3.471
4.561 5.252 3.462
5.167 2.361 3.560
5.267 2.032 3.627
5.381 1.779 3.683
5.350 1.532 3.594
4.404 6.151 3.380
4.487 6.174 3.654
4.586 5.926 3.665
4.704 5.580 3.763
4.732 5.349 3.735
4.786 5.061 3.772
4.863 4.718 3.764
5.382 2.463 3.892
5.399 2.097 3.851
5.501 1.860 3.899
5.527 1.527 3.940
4.540 6.241 3.653
4.651 6.272 3.925
4.713 5.955 3.950
4.792 5.671 3.972
4.831 5.399 4.004
4.852 5.077 4.035
5.008 4.814 4.094
5.003 4.551 4.019
5.042 4.155 4.049
5.140 3.894 4.033
5.587 1.892 4.146
5.606 1.529 4.213
4.653 6.216 3.954
2.810 4.453 0.076
2.900 4.209 0.077
4.514 1.924 2.653
4.603 1.546 2.685
4.619 1.306 2.711
4.598 2.184 2.970
4.659 1.963 2.882
4.671 1.635 2.891
4.821 1.345 2.975
4.685 2.579 3.191
4.719 2.231 3.171
4.712 1.962 3.170
4.844 1.641 3.200
4.890 1.391 3.271
4.075 6.126 3.256
4.737 2.838 3.448
4.809 2.620 3.460
4.775 2.306 3.459
4.923 1.954 3.478
5.000 1.746 3.442
5.040 1.438 3.500
4.011 6.112 3.318
4.109 6.088 3.537
4.227 5.872 3.567
4.219 5.503 3.565
4.716 3.212 3.643
4.796 2.940 3.740
4.859 2.667 3.772
4.961 2.348 3.721
5.029 2.046 3.769
5.033 1.729 3.707
5.085 1.495 3.820
4.096 6.095 3.525
4.240 6.220 3.860
4.326 5.840 3.844
4.375 5.585 3.897
4.469 5.260 3.850
4.476 4.993 3.890
4.559 4.682 3.899
4.583 4.361 3.895
4.698 4.128 3.930
4.746 3.782 3.931
4.829 3.523 3.990
4.853 3.232 3.956
4.895 2.973 3.992
4.983 2.611 3.952
5.071 2.359 4.016
5.095 2.126 4.052
5.192 1.778 3.991
5.229 1.479 4.047
4.299 6.207 3.796
4.369 6.247 4.111
4.479 5.948 4.069
4.520 5.631 4.143
4.522 5.340 4.088
4.678 4.998 4.179
4.681 4.715 4.137
4.768 4.469 4.132
4.865 4.105 4.198
4.877 3.917 4.248
4.887 3.535 4.208
5.017 3.287 4.261
5.044 2.977 4.246
5.155 2.652 4.265
5.234 2.407 4.308
5.201 2.128 4.290
5.306 1.774 4.346
5.342 1.514 4.280
4.407 6.180 4.129
2.594 4.151 0.233
2.678 3.880 0.270
4.176 2.161 2.775
4.289 1.853 2.734
4.311 1.550 2.791
4.419 1.295 2.788
4.304 2.479 3.066
4.319 2.176 3.082
4.347 1.908 3.010
4.429 1.582 3.057
4.460 1.325 3.111
4.301 2.790 3.238
4.394 2.527 3.325
4.407 2.234 3.269
4.466 1.925 3.316
4.510 1.633 3.360
4.585 1.359 3.365
4.384 3.150 3.598
4.433 2.774 3.505
4.518 2.569 3.521
4.539 2.234 3.624
4.599 1.896 3.576
4.707 1.633 3.639
4.757 1.378 3.593
3.831 6.117 3.637
4.361 3.771 3.800
4.470 3.497 3.845
4.503 3.103 3.787
4.516 2.859 3.861
4.660 2.592 3.878
4.624 2.305 3.871
4.785 2.026 3.861
4.832 1.680 3.888
4.906 1.447 3.854
3.891 6.034 3.679
4.002 6.077 3.950
4.104 5.846 3.948
4.096 5.543 3.932
4.154 5.211 3.944
4.280 4.952 4.007
4.303 4.665 4.023
4.333 4.378 4.046
4.450 4.052 4.088
4.525 3.791 4.068
4.595 3.498 4.115
4.624 3.196 4.033
4.657 2.888 4.116
4.712 2.582 4.125
4.802 2.321 4.115
4.844 2.047 4.188
4.918 1.716 4.121
4.958 1.427 4.132
3.974 6.118 3.969
4.102 6.125 4.258
4.162 5.875 4.269
4.284 5.567 4.291
4.286 5.301 4.246
4.387 4.979 4.269
4.464 4.737 4.299
4.532 4.430 4.330
4.542 4.140 4.369
4.645 3.813 4.369
4.620 3.571 4.353
4.697 3.229 4.384
4.795 2.940 4.338
4.907 2.698 4.387
4.898 2.306 4.408
5.012 2.081 4.388
5.069 1.738 4.431
5.068 1.482 4.475
4.153 6.154 4.202
2.217 4.302 0.103
2.257 3.991 0.031
2.266 3.696 0.090
2.391 3.458 0.079
2.469 3.208 0.138
2.496 2.813 0.132
2.391 4.051 0.330
2.473 3.831 0.308
2.483 3.498 0.370
2.600 3.203 0.423
3.839 2.335 2.826
3.902 2.049 2.922
3.965 1.793 2.880
4.052 1.477 2.894
4.113 1.213 2.899
3.885 2.690 3.179
3.958 2.373 3.141
4.077 2.160 3.135
4.157 1.858 3.127
4.177 1.525 3.221
4.227 1.265 3.231
4.023 3.003 3.380
4.014 2.707 3.439
4.095 2.466 3.374
4.208 2.186 3.489
4.236 1.872 3.464
4.268 1.555 3.479
4.307 1.313 3.494
4.068 3.319 3.612
4.092 3.014 3.719
4.137 2.745 3.723
4.203 2.495 3.647
4.244 2.196 3.676
4.329 1.847 3.678
4.442 1.624 3.724
4.499 1.322 3.753
4.072 3.711 3.938
4.153 3.373 3.931
4.245 3.070 3.933
4.307 2.790 3.987
4.368 2.559 3.955
4.370 2.173 3.978
4.471 1.963 3.964
4.524 1.638 4.049
4.600 1.402 4.061
3.993 4.553 4.147
4.112 4.329 4.144
4.157 4.048 4.127
4.243 3.714 4.234
4.249 3.473 4.208
4.341 3.184 4.171
4.387 2.864 4.203
4.451 2.520 4.286
4.549 2.306 4.268
4.573 1.936 4.239
4.606 1.696 4.280
4.670 1.438 4.270
4.015 5.273 4.397
4.123 4.947 4.448
4.189 4.638 4.443
4.232 4.359 4.461
4.328 4.071 4.427
4.377 3.764 4.429
4.433 3.514 4.487
4.481 3.186 4.487
4.550 2.902 4.543
4.630 2.592 4.474
4.666 2.354 4.478
4.730 2.052 4.575
4.782 1.710 4.565
4.872 1.371 4.518
2.132 4.335 0.067
2.272 4.038 0.036
2.320 3.693 0.055
2.331 3.422 0.047
2.463 3.114 0.058
2.485 2.887 0.102
1.947 4.324 0.226
1.962 3.951 0.230
2.051 3.673 0.187
2.062 3.348 0.233
2.167 3.104 0.247
2.228 2.850 0.209
2.249 2.498 0.296
2.069 4.029 0.493
2.105 3.717 0.529
2.247 3.448 0.468
2.272 3.112 0.494
2.329 2.801 0.538
2.340 3.504 0.806
2.392 3.137 0.790
3.491 2.322 2.738
3.577 1.975 2.739
3.602 1.669 2.787
3.652 1.372 2.743
3.575 2.586 2.988
3.630 2.304 3.048
3.668 2.004 3.037
3.705 1.746 3.029
3.733 1.452 3.012
3.867 1.102 3.058
3.562 2.886 3.256
3.696 2.649 3.236
3.677 2.380 3.249
3.739 2.041 3.319
3.791 1.730 3.338
3.929 1.427 3.285
3.958 1.162 3.295
3.715 3.031 3.553
3.823 2.674 3.511
3.861 2.382 3.602
3.950 2.068 3.541
4.013 1.807 3.596
4.074 1.556 3.625
4.087 1.195 3.656
3.757 3.351 3.808
3.841 2.991 3.750
3.910 2.688 3.835
3.984 2.457 3.793
4.010 2.117 3.856
4.128 1.813 3.793
4.156 1.537 3.894
4.172 1.246 3.866
3.856 3.673 4.065
3.871 3.347 4.027
3.960 3.104 4.016
4.068 2.790 4.131
4.121 2.487 4.099
4.127 2.185 4.084
4.190 1.880 4.107
4.318 1.559 4.116
4.377 1.294 4.103
3.793 4.299 4.298
3.937 4.018 4.272
3.904 3.703 4.286
4.014 3.423 4.329
4.120 3.040 4.390
4.190 2.823 4.306
4.193 2.543 4.364
4.268 2.255 4.405
4.317 1.947 4.348
4.380 1.680 4.429
4.449 1.350 4.425
3.842 4.557 4.533
3.971 4.304 4.545
4.036 3.971 4.609
4.076 3.754 4.533
4.157 3.471 4.563
4.157 3.131 4.603
4.228 2.868 4.594
4.349 2.581 4.635
4.379 2.216 4.621
4.421 1.978 4.617
4.518 1.701 4.677
2.173 2.155 -0.028
1.887 4.298 0.167
2.010 3.944 0.244
2.057 3.712 0.221
2.056 3.431 0.261
2.146 3.073 0.208
2.189 2.827 0.222
2.319 2.488 0.227
1.664 3.956 0.347
1.753 3.608 0.330
1.835 3.343 0.337
1.897 3.002 0.394
1.906 2.758 0.419
2.038 2.427 0.337
2.072 2.217 0.363
1.774 4.000 0.622
1.852 3.653 0.584
1.967 3.374 0.648
2.022 3.074 0.606
2.081 2.799 0.598
2.083 2.458 0.692
2.062 3.720 0.906
2.070 3.389 0.899
2.137 3.141 0.921
2.144 2.831 0.955
2.202 2.517 0.924
2.274 3.191 1.141
2.355 2.853 1.204
2.993 2.481 2.534
3.044 2.147 2.639
3.104 1.940 2.560
3.259 1.566 2.588
3.105 2.490 2.801
3.266 2.210 2.867
3.222 1.919 2.888
3.389 1.646 2.926
3.434 1.330 2.850
3.210 2.801 3.077
3.300 2.585 3.085
3.364 2.315 3.132
3.415 1.990 3.166
3.506 1.696 3.170
3.519 1.396 3.148
3.626 1.147 3.164
3.382 2.895 3.355
3.387 2.616 3.361
3.477 2.281 3.422
3.511 2.008 3.453
3.575 1.769 3.408
3.675 1.455 3.487
3.732 1.132 3.499
3.405 2.975 3.675
3.473 2.644 3.656
3.584 2.376 3.670
3.606 2.012 3.685
3.654 1.789 3.722
3.807 1.424 3.707
3.814 1.213 3.769
3.497 3.212 3.904
3.605 2.997 3.943
3.586 2.722 3.970
3.705 2.406 3.915
3.741 2.114 3.944
3.834 1.847 3.942
3.863 1.518 4.020
3.968 1.263 3.955
3.560 3.542 4.123
3.605 3.305 4.210
3.664 3.013 4.190
3.763 2.681 4.255
3.771 2.427 4.270
3.898 2.110 4.284
3.979 1.870 4.254
4.024 1.518 4.276
4.092 1.227 4.255
3.613 3.961 4.464
3.682 3.678 4.459
3.752 3.308 4.460
3.795 3.083 4.452
3.921 2.783 4.510
3.979 2.477 4.491
4.045 2.153 4.507
4.108 1.918 4.543
4.160 1.536 4.520
4.189 1.279 4.499
3.706 4.194 4.731
3.688 3.989 4.716
3.766 3.629 4.661
3.821 3.361 4.697
3.914 3.121 4.780
3.939 2.759 4.785
4.071 2.502 4.793
4.120 2.155 4.774
4.200 1.941 4.839
1.571 4.138 0.019
1.540 3.857 0.058
1.654 3.645 0.100
1.763 3.297 0.126
1.731 3.001 0.126
1.817 2.748 0.101
1.918 2.458 0.076
1.942 2.126 0.101
1.711 3.977 0.302
1.742 3.664 0.321
1.846 3.373 0.374
1.931 3.073 0.316
1.966 2.793 0.418
2.034 2.442 0.354
2.059 2.167 0.411
1.431 3.933 0.422
1.506 3.593 0.461
1.516 3.326 0.430
1.627 2.996 0.434
1.694 2.672 0.458
1.697 2.466 0.470
1.770 2.102 0.521
1.505 3.903 0.695
1.639 3.667 0.733
1.660 3.330 0.688
1.732 3.074 0.799
1.798 2.803 0.750
1.833 2.413 0.728
1.962 2.129 0.770
1.696 3.997 1.036
1.778 3.641 1.028
1.781 3.396 0.974
1.851 3.058 0.995
1.944 2.823 1.086
2.034 2.543 1.004
1.997 2.184 1.104
1.818 3.748 1.288
1.871 3.433 1.320
1.954 3.161 1.341
2.010 2.815 1.287
2.158 2.515 1.378
2.155 2.207 1.336
2.068 3.143 1.519
2.114 2.860 1.534
2.260 2.554 1.593
2.286 2.294 1.649
2.321 2.879 1.840
2.388 2.645 1.912
2.379 2.325 1.857
2.508 1.983 1.928
2.432 2.685 2.141
2.538 2.385 2.179
2.601 2.102 2.123
2.670 1.750 2.193
2.602 2.715 2.419
2.617 2.432 2.429
2.735 2.142 2.459
2.803 1.779 2.475
2.873 1.469 2.426
2.725 2.687 2.634
2.782 2.382 2.735
2.862 2.099 2.684
2.880 1.873 2.771
2.923 1.520 2.760
2.965 1.228 2.741
2.789 2.807 2.943
2.929 2.456 3.005
2.961 2.206 2.975
3.022 1.901 3.008
3.113 1.627 2.998
3.128 1.327 2.975
3.184 0.991 2.999
2.932 2.812 3.242
2.959 2.558 3.262
3.060 2.261 3.286
3.156 1.938 3.293
3.190 1.622 3.305
3.287 1.332 3.334
3.287 1.030 3.298
3.103 2.826 3.549
3.128 2.595 3.506
3.168 2.205 3.575
3.208 2.005 3.534
3.287 1.717 3.569
3.400 1.362 3.530
3.477 1.125 3.618
3.209 2.855 3.788
3.200 2.604 3.832
3.272 2.291 3.781
3.356 1.952 3.856
3.393 1.757 3.839
3.536 1.457 3.818
3.545 1.169 3.807
3.264 3.157 4.027
3.271 2.883 4.015
3.386 2.647 4.084
3.376 2.358 4.124
3.536 2.048 4.061
3.509 1.700 4.067
3.644 1.483 4.064
3.666 1.112 4.124
3.394 3.202 4.261
3.374 2.956 4.353
3.511 2.628 4.310
3.498 2.393 4.297
3.602 2.103 4.327
3.719 1.810 4.319
3.701 1.503 4.332
3.390 3.628 4.543
3.520 3.238 4.608
3.528 3.017 4.636
3.594 2.652 4.601
3.705 2.375 4.628
3.757 2.130 4.670
3.831 1.835 4.658
3.874 1.521 4.638
3.461 3.907 4.854
3.529 3.641 4.860
3.576 3.308 4.861
3.684 3.034 4.818
3.764 2.731 4.890
3.781 2.453 4.838
3.811 2.158 4.912
3.893 1.820 4.951
1.347 3.797 0.148
1.395 3.598 0.193
1.433 3.264 0.197
1.531 2.919 0.190
1.587 2.694 0.252
1.603 2.403 0.243
1.669 2.120 0.253
1.451 3.934 0.405
1.472 3.563 0.474
1.575 3.269 0.520
1.608 3.007 0.506
1.737 2.710 0.551
1.767 2.416 0.470
1.862 2.091 0.522
1.167 3.842 0.614
1.253 3.488 0.590
1.248 3.232 0.571
1.407 2.906 0.603
1.381 2.632 0.603
1.530 2.326 0.685
1.548 2.030 0.684
1.335 3.847 0.800
1.342 3.531 0.873
1.452 3.247 0.848
1.505 3.046 0.904
1.576 2.685 0.858
1.593 2.455 0.853
1.672 2.071 0.941
1.359 3.960 1.141
1.428 3.637 1.172
1.480 3.276 1.179
1.592 3.084 1.112
1.612 2.733 1.168
1.700 2.466 1.183
1.832 2.155 1.210
1.574 3.620 1.366
1.657 3.309 1.355
1.711 3.082 1.459
1.811 2.770 1.442
1.870 2.528 1.419
1.951 2.199 1.504
2.009 1.948 1.432
1.717 3.660 1.620
1.733 3.363 1.672
1.840 3.078 1.730
1.901 2.829 1.734
1.937 2.576 1.698
1.981 2.263 1.687
2.032 1.901 1.758
1.844 3.492 1.918
1.954 3.154 1.994
2.057 2.858 1.951
2.054 2.511 2.013
2.183 2.229 1.979
2.173 2.025 2.040
2.315 1.706 2.075
2.052 3.195 2.249
2.094 2.874 2.212
2.215 2.646 2.231
2.223 2.310 2.331
2.332 2.041 2.288
2.366 1.730 2.310
2.431 1.390 2.372
2.267 2.936 2.501
2.367 2.676 2.550
2.379 2.316 2.558
2.416 2.039 2.513
2.462 1.722 2.528
2.592 1.477 2.543
2.639 1.157 2.629
2.414 3.019 2.827
2.461 2.650 2.831
2.516 2.414 2.791
2.613 2.136 2.836
2.624 1.769 2.806
2.634 1.452 2.850
2.758 1.254 2.915
2.852 0.893 2.863
2.600 2.716 3.106
2.628 2.394 3.133
2.661 2.123 3.124
2.720 1.816 3.147
2.850 1.557 3.091
2.836 1.235 3.103
2.894 0.924 3.166
2.704 2.787 3.309
2.773 2.448 3.397
2.815 2.142 3.385
2.847 1.841 3.351
2.895 1.611 3.420
2.966 1.251 3.379
3.100 0.991 3.429
2.793 2.816 3.583
2.862 2.516 3.644
2.968 2.218 3.694
2.972 1.956 3.718
3.023 1.567 3.650
3.135 1.287 3.739
3.210 1.020 3.682
2.865 2.806 3.848
2.963 2.514 3.874
3.034 2.246 3.892
3.054 1.913 3.990
3.154 1.675 3.992
3.236 1.329 3.935
3.339 1.105 3.954
2.988 2.895 4.191
3.134 2.536 4.140
3.172 2.316 4.244
3.212 1.984 4.227
3.332 1.673 4.241
3.347 1.429 4.262
3.171 2.908 4.458
3.185 2.577 4.503
3.232 2.300 4.423
3.392 2.001 4.449
3.440 1.765 4.494
3.424 1.412 4.529
3.215 3.180 4.685
3.225 2.971 4.714
3.358 2.699 4.753
3.417 2.406 4.722
3.509 2.109 4.776
3.286 3.599 4.921
3.318 3.257 4.953
3.361 2.944 4.960
3.476 2.689 5.023
3.508 2.413 5.051
0.986 3.808 0.014
0.959 3.422 0.057
1.095 3.186 0.040
1.150 2.930 0.068
1.212 2.629 0.060
1.288 2.247 0.063
1.284 2.005 0.136
1.046 3.772 0.329
1.126 3.530 0.285
1.135 3.240 0.273
1.257 2.868 0.351
1.251 2.677 0.384
1.319 2.326 0.317
1.418 2.066 0.405
1.134 3.830 0.606
1.240 3.512 0.567
1.294 3.200 0.565
1.376 2.994 0.604
1.429 2.639 0.633
1.469 2.328 0.630
1.504 2.076 0.675
0.855 3.825 0.739
0.987 3.518 0.720
0.985 3.166 0.691
1.099 2.854 0.716
1.204 2.593 0.794
1.208 2.320 0.773
1.324 1.990 0.828
0.975 4.121 0.949
1.004 3.802 0.990
1.109 3.562 0.991
1.105 3.185 1.001
1.201 2.990 0.983
1.309 2.616 1.001
1.361 2.397 1.000
1.381 2.067 1.058
1.088 4.179 1.210
1.148 3.843 1.213
1.219 3.571 1.299
1.291 3.311 1.245
1.334 2.981 1.320
1.437 2.719 1.305
1.427 2.382 1.334
1.497 2.110 1.343
1.533 1.782 1.323
1.236 3.944 1.514
1.309 3.592 1.544
1.381 3.334 1.492
1.406 2.974 1.547
1.459 2.706 1.598
1.601 2.426 1.600
1.654 2.123 1.542
1.651 1.862 1.559
1.366 3.888 1.738
1.439 3.653 1.813
1.493 3.334 1.816
1.580 3.061 1.860
1.601 2.768 1.784
1.735 2.422 1.865
1.709 2.194 1.890
1.774 1.854 1.895
1.868 1.557 1.859
1.598 3.665 2.082
1.635 3.354 2.088
1.695 3.112 2.050
1.711 2.770 2.137
1.761 2.526 2.072
1.842 2.243 2.098
1.921 1.923 2.195
1.999 1.650 2.170
2.105 1.356 2.222
1.730 3.418 2.305
1.820 3.100 2.319
1.841 2.787 2.358
1.945 2.540 2.370
1.965 2.256 2.417
2.020 1.937 2.412
2.113 1.693 2.434
2.133 1.355 2.398
2.288 1.051 2.480
1.893 3.140 2.628
1.977 2.861 2.600
2.016 2.629 2.675
2.063 2.335 2.672
2.136 1.995 2.646
2.207 1.662 2.752
2.284 1.428 2.716
2.385 1.102 2.778
2.465 0.834 2.703
2.103 2.952 2.868
2.136 2.611 2.958
2.260 2.338 2.960
2.280 1.997 2.909
2.408 1.731 2.978
2.421 1.492 2.942
2.473 1.161 2.986
2.590 0.916 2.984
2.286 2.702 3.151
2.382 2.410 3.272
2.442 2.117 3.216
2.511 1.791 3.286
2.553 1.461 3.217
2.645 1.187 3.223
2.697 0.927 3.249
2.372 2.712 3.486
2.451 2.422 3.463
2.579 2.078 3.534
2.589 1.876 3.484
2.614 1.522 3.531
2.752 1.204 3.493
2.741 0.904 3.573
2.555 2.703 3.725
2.627 2.495 3.807
2.618 2.151 3.747
2.745 1.823 3.809
2.727 1.543 3.838
2.802 1.226 3.813
2.935 0.966 3.839
2.623 2.748 3.983
2.743 2.532 3.992
2.734 2.179 4.024
2.809 1.848 4.115
2.930 1.555 4.053
2.927 1.261 4.126
3.069 1.023 4.151
2.785 2.487 4.260
2.909 2.235 4.320
2.990 1.909 4.343
3.033 1.609 4.341
3.025 1.352 4.365
2.936 2.605 4.627
2.975 2.239 4.570
3.123 1.991 4.551
0.724 3.367 0.193
0.837 3.166 0.220
0.891 2.804 0.156
0.904 2.586 0.235
0.972 2.228 0.230
0.737 3.727 0.473
0.793 3.443 0.474
0.948 3.161 0.407
0.954 2.851 0.488
1.071 2.527 0.469
1.054 2.305 0.531
1.130 1.950 0.467
0.857 3.729 0.704
1.002 3.481 0.673
1.027 3.147 0.696
1.066 2.896 0.703
1.147 2.621 0.704
1.167 2.300 0.771
1.226 2.081 0.803
0.529 3.975 0.810
0.611 3.703 0.834
0.716 3.474 0.798
0.761 3.195 0.837
0.782 2.887 0.806
0.873 2.591 0.859
0.981 2.220 0.903
1.020 1.965 0.940
0.739 4.024 1.096
0.714 3.793 1.123
0.805 3.427 1.123
0.924 3.238 1.137
0.914 2.839 1.137
0.962 2.615 1.110
1.083 2.348 1.154
1.102 1.973 1.133
0.805 4.062 1.318
0.836 3.785 1.377
0.915 3.521 1.382
0.990 3.251 1.420
1.061 2.918 1.437
1.176 2.604 1.464
1.219 2.325 1.454
1.212 2.032 1.468
1.347 1.756 1.493
0.969 4.087 1.658
1.019 3.888 1.652
1.091 3.573 1.644
1.174 3.249 1.711
1.159 2.979 1.693
1.273 2.722 1.733
1.348 2.350 1.707
1.370 2.095 1.727
1.405 1.838 1.718
1.497 1.502 1.704
1.064 4.134 1.837
1.122 3.884 1.937
1.222 3.643 1.893
1.230 3.306 1.966
1.316 2.996 1.953
1.384 2.736 1.963
1.414 2.393 1.980
1.449 2.118 1.950
1.544 1.829 1.954
1.557 1.546 1.980
1.716 1.248 2.079
1.269 3.882 2.208
1.302 3.575 2.138
1.341 3.288 2.211
1.465 2.997 2.182
1.526 2.721 2.245
1.563 2.461 2.191
1.575 2.120 2.268
1.661 1.827 2.297
1.711 1.538 2.255
1.741 1.324 2.255
1.847 1.027 2.291
1.463 3.353 2.426
1.586 3.038 2.506
1.647 2.763 2.476
1.669 2.519 2.563
1.705 2.185 2.573
1.753 1.918 2.590
1.863 1.576 2.575
1.902 1.368 2.557
1.942 0.991 2.541
1.997 0.716 2.589
1.695 3.086 2.761
1.719 2.847 2.746
1.837 2.588 2.825
1.839 2.214 2.771
1.910 1.923 2.774
1.998 1.672 2.806
1.994 1.330 2.845
2.089 1.060 2.873
2.168 0.835 2.912
1.789 2.829 3.038
1.900 2.534 3.085
1.996 2.244 3.095
2.064 1.969 3.103
2.096 1.746 3.046
2.144 1.361 3.119
2.162 1.071 3.126
2.264 0.854 3.101
1.985 2.644 3.351
2.039 2.272 3.300
2.173 1.987 3.386
2.218 1.783 3.379
2.224 1.451 3.401
2.313 1.126 3.369
2.395 0.882 3.418
2.132 2.642 3.628
2.211 2.320 3.614
2.221 2.054 3.663
2.343 1.824 3.614
2.407 1.504 3.705
2.431 1.220 3.721
2.506 0.917 3.641
2.295 2.412 3.919
2.411 2.105 3.855
2.469 1.767 3.913
2.457 1.569 3.952
2.593 1.174 3.981
2.632 0.920 3.984
2.465 2.437 4.145
2.482 2.185 4.132
2.588 1.896 4.214
2.613 1.608 4.198
2.665 1.212 4.195
2.715 1.866 4.441
0.441 3.334 0.261
0.558 3.035 0.305
0.584 2.810 0.304
0.687 2.521 0.358
0.523 3.647 0.588
0.540 3.431 0.576
0.612 3.075 0.573
0.735 2.796 0.576
0.748 2.529 0.594
0.792 2.236 0.567
0.617 3.980 0.757
0.621 3.683 0.776
0.673 3.465 0.777
0.803 3.146 0.880
0.855 2.901 0.889
0.850 2.536 0.820
0.990 2.223 0.909
1.050 1.974 0.844
0.333 3.975 0.968
0.337 3.698 0.984
0.403 3.439 0.994
0.488 3.104 0.926
0.567 2.770 0.948
0.592 2.465 1.020
0.692 2.213 1.013
0.404 4.308 1.149
0.394 3.975 1.176
0.534 3.737 1.178
0.501 3.456 1.226
0.583 3.099 1.287
0.710 2.817 1.242
0.747 2.571 1.319
0.844 2.207 1.272
0.815 1.966 1.324
0.527 4.345 1.433
0.531 4.055 1.416
0.624 3.721 1.528
0.691 3.507 1.516
0.786 3.214 1.522
0.749 2.908 1.505
0.876 2.568 1.573
0.955 2.346 1.606
0.984 2.029 1.614
0.653 4.413 1.732
0.614 4.125 1.735
0.775 3.789 1.747
0.835 3.452 1.789
0.842 3.182 1.820
0.939 2.926 1.770
1.004 2.601 1.816
1.019 2.336 1.811
1.139 2.010 1.890
1.163 1.699 1.902
1.242 1.463 1.918
0.747 4.450 1.957
0.800 4.148 2.057
0.803 3.851 2.069
0.936 3.518 2.067
0.954 3.235 2.056
1.083 2.918 2.089
1.041 2.621 2.083
1.118 2.382 2.128
1.217 2.124 2.109
1.282 1.754 2.162
1.372 1.477 2.151
1.403 1.227 2.182
0.904 4.166 2.265
0.968 3.917 2.295
1.077 3.600 2.270
1.142 3.306 2.367
1.139 3.035 2.336
1.213 2.677 2.341
1.329 2.355 2.366
1.328 2.153 2.373
1.390 1.775 2.427
1.479 1.568 2.362
1.511 1.280 2.408
1.578 0.968 2.444
1.627 0.603 2.425
1.152 3.653 2.552
1.170 3.287 2.633
1.319 3.059 2.576
1.379 2.731 2.676
1.394 2.441 2.595
1.466 2.197 2.613
1.517 1.864 2.719
1.629 1.552 2.665
1.600 1.319 2.654
1.696 0.944 2.760
1.775 0.735 2.680
0.580 6.254 2.497
1.419 3.032 2.923
1.437 2.743 2.908
1.472 2.488 2.935
1.574 2.158 2.888
1.690 1.914 2.975
1.721 1.634 2.943
1.710 1.348 2.925
1.829 0.986 2.949
1.847 0.758 3.028
1.579 2.806 3.196
1.628 2.480 3.144
1.696 2.234 3.155
1.777 1.980 3.208
1.819 1.634 3.239
1.935 1.363 3.235
1.902 1.035 3.241
1.968 0.793 3.242
1.798 2.551 3.489
1.778 2.267 3.510
1.888 2.013 3.509
1.899 1.638 3.506
1.997 1.355 3.457
2.096 1.068 3.543
2.108 0.843 3.536
1.946 2.313 3.688
1.992 1.961 3.771
2.068 1.705 3.813
2.090 1.458 3.749
2.173 1.130 3.765
2.291 0.897 3.811
2.118 2.010 4.027
2.173 1.707 3.994
2.189 1.482 4.088
2.344 1.179 4.077
2.369 0.854 4.074
2.280 1.770 4.342
2.360 1.471 4.277
2.457 1.198 4.336
0.278 3.616 0.638
0.312 3.299 0.664
0.404 3.062 0.717
0.382 2.791 0.660
0.451 2.424 0.675
0.326 3.960 0.972
0.384 3.709 0.910
0.393 3.414 0.990
0.503 3.081 1.012
0.563 2.842 0.967
0.669 2.544 0.989
0.685 2.271 0.957
-0.006 3.950 1.086
0.105 3.648 1.080
0.190 3.288 1.089
0.207 3.052 1.122
0.235 2.734 1.055
0.397 2.457 1.168
0.130 4.234 1.322
0.119 3.996 1.341
0.248 3.615 1.328
0.271 3.323 1.357
0.339 3.064 1.344
0.376 2.770 1.430
0.501 2.502 1.387
0.532 2.237 1.359
0.132 4.549 1.522
0.190 4.306 1.616
0.322 3.994 1.615
0.305 3.737 1.565
0.371 3.378 1.616
0.446 3.102 1.677
0.538 2.869 1.675
0.614 2.529 1.681
0.691 2.293 1.692
0.701 1.914 1.696
0.238 4.945 1.793
0.301 4.574 1.877
0.286 4.318 1.884
0.436 4.072 1.851
0.511 3.788 1.903
0.535 3.419 1.889
0.628 3.202 1.884
0.637 2.917 1.940
0.738 2.585 1.895
0.795 2.326 1.916
0.865 1.957 2.005
0.860 1.695 1.923
0.355 4.940 2.130
0.434 4.659 2.092
0.474 4.399 2.090
0.555 4.115 2.179
0.603 3.732 2.177
0.591 3.456 2.131
0.730 3.241 2.149
0.797 2.888 2.155
0.873 2.629 2.206
0.850 2.373 2.272
0.974 1.999 2.237
1.052 1.781 2.275
1.094 1.477 2.207
1.141 1.119 2.296
0.346 5.242 2.360
0.470 4.941 2.413
0.530 4.703 2.341
0.589 4.373 2.429
0.645 4.160 2.366
0.730 3.849 2.375
0.792 3.517 2.476
0.812 3.234 2.435
0.890 2.976 2.476
0.893 2.622 2.461
0.976 2.406 2.538
1.101 2.034 2.545
1.121 1.739 2.529
1.227 1.459 2.554
1.235 1.177 2.526
1.288 0.869 2.556
1.375 0.630 2.523
0.231 6.110 2.264
0.260 5.823 2.318
0.310 5.569 2.304
0.418 5.241 2.323
0.472 5.275 2.617
0.854 3.844 2.663
0.910 3.546 2.678
0.993 3.238 2.767
0.967 2.965 2.775
1.121 2.676 2.708
1.147 2.402 2.753
1.229 2.080 2.822
1.283 1.783 2.763
1.367 1.563 2.806
1.387 1.242 2.788
1.418 0.889 2.881
1.461 0.606 2.883
0.326 6.171 2.536
0.345 5.907 2.554
0.458 5.610 2.586
0.522 5.359 2.665
1.102 3.068 3.017
1.231 2.780 3.052
1.280 2.484 3.052
1.310 2.179 3.058
1.390 1.801 3.026
1.444 1.509 3.034
1.527 1.266 3.068
1.587 0.939 3.149
1.610 0.693 3.107
0.467 6.204 2.870
0.492 5.906 2.897
0.606 5.686 2.866
1.353 2.477 3.253
1.465 2.175 3.333
1.471 1.894 3.284
1.559 1.561 3.320
1.609 1.273 3.402
1.666 0.982 3.345
1.741 0.675 3.374
0.579 6.270 3.076
0.582 5.962 3.134
1.554 2.191 3.560
1.650 1.896 3.565
1.640 1.677 3.604
1.695 1.371 3.616
1.807 1.089 3.678
1.897 0.733 3.677
0.756 5.966 3.434
1.759 1.979 3.848
1.839 1.628 3.887
1.810 1.392 3.879
1.933 1.101 3.901
1.974 0.805 3.985
1.922 1.717 4.190
1.933 1.461 4.163
2.043 1.177 4.190
2.055 0.820 4.253
0.058 3.314 0.837
0.155 2.973 0.826
0.017 3.874 1.096
0.102 3.677 1.095
0.115 3.378 1.126
0.225 3.004 1.123
0.293 2.714 1.132
0.367 2.459 1.083
5.964 6.041 0.127
5.941 5.777 0.206
5.994 5.502 0.225
6.054 5.112 0.242
6.151 4.890 0.224
6.177 4.567 0.200
6.054 6.042 0.433
6.094 1.207 0.040
6.184 0.872 0.042
6.259 0.564 0.057
6.203 1.228 0.335
5.948 0.855 0.184
6.011 0.556 0.261
6.078 0.264 0.259
6.181 -0.006 0.559
5.957 1.156 0.438
6.054 0.860 0.506
6.069 0.605 0.524
6.195 0.270 0.479
6.193 -0.039 0.561
6.053 1.194 0.778
6.164 0.873 0.723
6.227 0.632 0.799
6.237 1.221 0.995
5.557 0.503 0.131
5.650 0.190 0.060
5.658 0.803 0.351
5.749 0.524 0.322
5.733 0.154 0.372
5.718 1.125 0.551
5.807 0.822 0.594
5.838 0.516 0.612
5.880 0.196 0.632
5.852 1.176 0.916
5.934 0.845 0.887
5.962 0.520 0.879
6.048 0.309 0.906
6.194 0.057 1.161
5.911 1.245 1.143
6.016 0.886 1.156
6.074 0.635 1.123
6.180 0.273 1.176
6.235 0.043 1.181
6.086 1.236 1.393
6.187 0.933 1.383
6.176 0.609 1.433
6.210 0.313 1.476
6.188 1.319 1.729
6.271 0.969 1.735
5.388 0.103 0.179
5.494 0.418 0.459
5.546 0.117 0.455
5.508 0.739 0.691
5.603 0.481 0.746
5.636 0.182 0.775
5.589 1.152 0.967
5.610 0.788 0.979
5.704 0.482 0.989
5.723 0.271 1.060
5.639 1.116 1.270
5.739 0.811 1.238
5.793 0.550 1.325
5.871 0.258 1.250
6.079 0.025 1.609
5.784 1.175 1.557
5.913 0.887 1.594
5.968 0.558 1.598
6.005 0.328 1.555
6.106 0.023 1.588
6.167 0.068 1.872
5.933 1.216 1.787
5.957 0.876 1.822
6.009 0.665 1.808
6.079 0.362 1.827
6.153 0.023 1.844
6.091 1.287 2.129
6.096 0.999 2.092
6.181 0.698 2.097
6.271 0.361 2.077
6.217 1.257 2.390
6.238 0.950 2.367
5.325 0.162 0.855
5.461 0.423 1.113
5.460 0.210 1.203
5.426 1.131 1.369
5.476 0.840 1.365
5.520 0.500 1.370
5.575 0.242 1.452
5.591 1.171 1.627
5.627 0.841 1.671
5.704 0.496 1.727
5.729 0.251 1.714
5.865 0.035 1.969
5.668 1.202 1.926
5.752 0.844 1.918
5.769 0.535 1.928
5.890 0.260 1.920
5.902 -0.053 2.006
6.000 0.070 2.249
5.775 1.233 2.238
5.832 0.878 2.198
5.917 0.649 2.231
5.949 0.285 2.247
6.042 0.008 2.301
6.149 0.125 2.503
5.869 1.262 2.489
5.928 0.984 2.524
6.001 0.620 2.458
6.138 0.390 2.516
6.142 0.075 2.558
6.264 0.143 2.759
5.978 1.298 2.795
6.031 0.957 2.803
6.116 0.725 2.778
6.240 0.380 2.834
6.311 0.156 2.807
6.122 1.323 3.050
6.167 1.017 3.054
6.306 0.697 3.081
6.239 1.338 3.299
5.305 1.102 1.797
5.306 0.824 1.831
5.416 0.504 1.835
5.428 0.160 1.770
5.429 1.157 2.092
5.405 0.806 2.019
5.562 0.514 2.051
5.574 0.279 2.123
5.464 1.171 2.297
5.539 0.815 2.368
5.607 0.570 2.303
5.724 0.300 2.343
5.925 0.063 2.624
5.601 1.193 2.602
5.743 0.873 2.606
5.772 0.616 2.589
5.854 0.336 2.599
5.855 0.014 2.621
5.948 0.030 2.954
5.753 1.257 2.921
5.766 0.909 2.834
5.873 0.696 2.875
5.983 0.324 2.858
5.955 0.062 2.915
6.085 0.085 3.168
5.926 1.325 3.106
5.900 1.024 3.198
5.975 0.715 3.143
6.077 0.356 3.132
6.129 0.048 3.169
6.226 0.182 3.442
6.030 1.350 3.408
6.028 1.068 3.380
6.109 0.691 3.403
6.135 0.393 3.453
6.262 0.088 3.453
6.112 1.298 3.649
6.160 1.103 3.661
6.181 0.782 3.755
6.183 1.419 3.995
5.135 1.027 2.196
5.184 0.787 2.167
5.226 0.507 2.240
5.211 1.102 2.482
5.328 0.846 2.432
5.323 0.513 2.490
5.418 0.216 2.537
5.346 1.163 2.689
5.416 0.874 2.731
5.469 0.539 2.739
5.596 0.307 2.739
5.749 -0.032 3.004
5.502 1.232 3.030
5.502 0.913 2.993
5.610 0.616 3.027
5.687 0.296 3.012
5.718 0.016 3.012
5.848 -0.001 3.346
5.624 1.203 3.251
5.675 0.982 3.270
5.694 0.626 3.243
5.795 0.344 3.259
5.827 0.028 3.334
5.951 0.059 3.636
5.760 1.309 3.543
5.800 1.004 3.524
5.826 0.690 3.511
5.918 0.435 3.607
5.943 0.106 3.592
6.123 0.106 3.900
5.872 1.251 3.768
5.908 1.057 3.873
5.985 0.720 3.860
6.041 0.456 3.893
6.078 0.076 3.916
6.241 0.219 4.088
5.946 1.296 4.055
6.026 0.994 4.099
6.106 0.713 4.122
6.131 0.480 4.085
6.173 0.134 4.182
5.013 1.007 2.607
5.061 0.756 2.555
5.152 0.488 2.655
5.128 1.083 2.900
5.119 0.835 2.888
5.199 0.504 2.844
5.318 0.262 2.916
5.264 1.101 3.157
5.253 0.880 3.107
5.338 0.561 3.183
5.455 0.306 3.117
5.576 -0.007 3.439
5.347 1.170 3.362
5.380 0.906 3.355
5.467 0.538 3.429
5.476 0.258 3.383
5.537 0.045 3.392
5.753 0.055 3.732
5.497 1.174 3.692
5.532 0.879 3.671
5.575 0.633 3.661
5.679 0.340 3.682
5.679 0.091 3.702
5.824 0.035 3.967
5.618 1.290 3.967
5.687 0.974 3.916
5.651 0.653 3.992
5.709 0.422 3.988
5.866 0.083 3.952
5.976 0.110 4.262
5.681 1.318 4.233
5.779 0.981 4.241
5.865 0.677 4.277
5.853 0.408 4.218
5.948 0.140 4.297
4.693 1.058 2.649
4.755 0.746 2.729
4.808 1.010 2.950
4.847 0.752 2.993
4.958 0.490 2.966
4.958 1.080 3.199
5.024 0.759 3.275
5.035 0.526 3.249
5.087 0.228 3.316
5.039 1.068 3.564
5.157 0.821 3.508
5.169 0.533 3.502
5.303 0.286 3.605
5.171 1.113 3.818
5.222 0.836 3.786
5.351 0.549 3.837
5.338 0.238 3.840
5.594 0.059 4.117
5.270 1.222 4.075
5.418 0.933 4.114
5.408 0.576 4.038
5.473 0.366 4.059
5.584 0.017 4.103
5.660 0.074 4.426
5.437 1.279 4.373
5.529 0.931 4.295
5.538 0.615 4.341
5.665 0.381 4.415
5.673 0.084 4.356
4.400 0.910 2.826
4.555 1.025 3.107
4.619 0.715 3.075
4.714 0.994 3.390
4.767 0.713 3.404
4.807 0.402 3.378
4.762 1.098 3.591
4.865 0.744 3.618
4.904 0.494 3.649
4.985 0.221 3.673
4.944 1.085 3.879
5.011 0.856 3.955
4.995 0.483 3.903
5.059 0.223 3.922
5.050 1.120 4.171
5.093 0.858 4.216
5.153 0.574 4.246
5.188 0.314 4.196
5.429 -0.039 4.501
5.177 1.189 4.406
5.201 0.943 4.451
5.318 0.615 4.492
5.323 0.354 4.467
5.382 0.033 4.537
4.205 0.909 2.972
4.248 0.986 3.168
4.304 0.686 3.229
4.365 1.000 3.441
4.520 0.645 3.529
4.587 1.065 3.734
4.600 0.695 3.738
4.609 0.400 3.845
4.649 1.069 3.987
4.753 0.769 4.009
4.828 0.475 4.052
4.759 1.062 4.310
4.883 0.750 4.287
4.903 0.518 4.387
4.887 1.152 4.610
4.041 0.932 3.346
4.127 0.876 3.579
4.238 0.937 3.843
4.336 0.726 3.889
4.425 1.042 4.210
4.511 1.061 4.482
3.736 0.836 3.437
3.830 0.869 3.690
3.954 0.896 3.972
2.721 0.611 3.274
2.875 0.605 3.521
2.265 0.494 2.830
2.312 0.549 3.150
2.403 0.575 3.466
2.605 0.640 3.654
1.871 0.347 2.740
1.943 0.153 2.768
1.941 0.459 3.035
2.046 0.113 3.033
2.013 0.490 3.289
2.111 0.180 3.309
2.186 0.549 3.571
2.268 0.168 3.583
2.255 0.577 3.822
1.456 0.277 2.610
1.458 -0.033 2.654
1.520 0.301 2.849
1.647 0.105 2.887
1.692 0.406 3.125
1.762 0.077 3.149
1.775 0.376 3.434
1.816 0.122 3.415
1.876 0.478 3.667
2.028 0.118 3.738
2.067 0.553 3.949
2.139 0.183 3.941
2.170 0.546 4.164
0.066 2.711 1.280
-0.022 3.284 1.499
0.038 3.013 1.504
0.194 2.727 1.478
0.184 2.482 1.546
-0.033 3.928 1.762
0.076 3.610 1.679
0.109 3.408 1.694
0.157 3.061 1.738
0.260 2.726 1.811
0.329 2.480 1.839
0.394 2.208 1.812
-0.035 4.525 1.916
0.067 4.320 2.016
0.091 3.945 2.025
0.230 3.724 1.958
0.287 3.394 2.070
0.292 3.156 2.050
0.346 2.820 2.053
0.401 2.519 2.043
0.475 2.254 2.026
0.545 1.951 2.104
0.047 5.152 2.237
0.053 4.918 2.214
0.139 4.633 2.252
0.206 4.285 2.233
0.246 4.029 2.253
0.286 3.764 2.294
0.349 3.396 2.246
0.398 3.195 2.270
0.531 2.860 2.309
0.600 2.612 2.333
0.580 2.225 2.315
0.717 1.991 2.411
0.786 1.696 2.416
0.772 1.343 2.342
0.028 5.172 2.247
0.170 5.283 2.511
0.157 4.975 2.449
0.268 4.640 2.484
0.263 4.378 2.512
0.414 4.050 2.520
0.453 3.738 2.506
0.481 3.433 2.593
0.555 3.229 2.600
0.588 2.931 2.588
0.731 2.608 2.565
0.788 2.333 2.628
0.801 2.056 2.632
0.867 1.684 2.687
0.874 1.465 2.694
0.959 1.121 2.700
1.003 0.891 2.674
1.126 0.572 2.693
0.014 5.779 2.461
0.034 5.541 2.489
0.071 5.280 2.499
0.205 5.247 2.714
0.284 5.029 2.777
0.322 4.694 2.744
0.470 4.425 2.740
0.512 4.140 2.785
0.550 3.808 2.787
0.668 3.500 2.820
0.668 3.247 2.832
0.688 2.921 2.878
0.808 2.605 2.877
0.912 2.307 2.917
0.914 2.010 2.868
1.036 1.781 2.866
1.018 1.493 2.895
1.112 1.185 2.972
1.152 0.931 2.928
1.192 0.539 2.966
0.069 6.170 2.725
0.112 5.907 2.778
0.204 5.561 2.787
0.245 5.223 2.794
0.329 5.334 2.978
0.432 5.037 3.023
0.970 2.633 3.143
0.954 2.431 3.123
1.048 2.048 3.187
1.130 1.798 3.239
1.115 1.550 3.207
1.222 1.179 3.203
1.319 0.972 3.175
1.353 0.581 3.195
0.160 6.206 2.961
0.290 5.911 3.022
0.281 5.565 3.053
0.389 5.296 3.034
0.537 5.302 3.330
1.120 2.107 3.427
1.192 1.863 3.499
1.310 1.564 3.421
1.375 1.286 3.435
1.431 1.013 3.460
1.489 0.631 3.522
0.281 6.204 3.254
0.328 5.880 3.314
0.432 5.609 3.296
0.435 5.363 3.269
1.350 1.911 3.713
1.422 1.530 3.723
1.480 1.260 3.727
1.501 0.974 3.738
1.632 0.749 3.772
0.442 6.217 3.495
0.518 5.995 3.525
0.553 5.687 3.594
1.549 1.575 3.988
1.577 1.347 4.009
1.658 1.024 4.027
1.742 0.790 4.061
0.647 6.054 3.864
1.684 1.400 4.328
1.749 1.091 4.346
1.879 0.766 4.374
-0.002 2.717 1.277
0.008 2.386 1.924
0.026 3.032 2.116
0.128 2.777 2.206
0.208 2.494 2.165
0.059 3.680 2.382
0.151 3.388 2.416
0.209 3.065 2.481
0.237 2.846 2.466
0.317 2.484 2.407
0.376 2.259 2.489
0.001 4.355 2.601
0.115 4.048 2.615
0.199 3.672 2.620
0.281 3.478 2.701
0.297 3.117 2.721
0.338 2.859 2.681
0.459 2.510 2.748
0.479 2.249 2.771
0.538 1.971 2.750
0.650 1.686 2.784
0.641 1.336 2.770
0.756 1.070 2.801
0.757 0.820 2.843
0.864 0.457 2.830
-0.003 4.910 2.926
0.132 4.679 2.855
0.176 4.377 2.887
0.235 4.103 2.893
0.333 3.729 2.921
0.355 3.490 2.945
0.671 1.999 2.999
0.713 1.690 3.041
0.732 1.401 3.080
0.792 1.125 3.043
0.930 0.866 3.094
0.987 0.495 3.108
0.051 5.266 3.192
0.181 4.935 3.140
0.261 4.707 3.200
0.229 4.328 3.157
0.891 1.783 3.330
0.906 1.450 3.372
0.925 1.160 3.342
1.055 0.902 3.392
1.092 0.621 3.327
0.024 5.504 3.085
0.045 5.243 3.106
0.219 5.243 3.432
0.303 5.044 3.439
1.001 1.748 3.570
1.044 1.524 3.600
1.103 1.219 3.613
1.103 0.867 3.630
1.186 0.631 3.683
0.026 6.129 3.352
0.124 5.883 3.348
0.133 5.564 3.445
0.246 5.278 3.421
0.358 5.382 3.744
1.142 1.538 3.825
1.207 1.190 3.907
1.235 0.913 3.913
1.279 0.647 3.888
0.149 6.227 3.685
0.220 5.925 3.631
0.225 5.634 3.648
0.368 5.312 3.717
1.322 1.307 4.163
1.398 0.954 4.175
1.412 0.675 4.151
0.297 6.248 3.879
0.379 5.950 3.983
0.409 5.688 3.985
1.500 1.006 4.408
1.528 0.730 4.460
0.501 6.012 4.206
0.557 0.704 2.913
0.629 0.468 2.945
0.020 3.678 3.113
0.536 1.107 3.150
0.662 0.816 3.243
0.719 0.518 3.202
0.027 4.360 3.276
0.610 1.448 3.401
0.704 1.098 3.476
0.715 0.824 3.508
0.794 0.479 3.510
0.002 4.907 3.519
0.744 1.465 3.698
0.812 1.203 3.780
0.865 0.805 3.709
0.919 0.548 3.749
0.031 5.241 3.861
0.137 4.943 3.833
0.944 1.222 4.032
1.046 0.900 4.001
1.066 0.640 3.999
0.022 5.608 3.855
0.115 5.301 3.825
0.163 5.319 4.099
1.044 1.230 4.320
1.109 0.889 4.343
1.130 0.673 4.316
-0.050 6.153 4.035
0.095 5.862 4.083
0.086 5.648 4.095
0.166 5.347 4.140
1.239 1.021 4.557
1.332 0.654 4.625
0.153 6.274 4.333
0.158 5.974 4.362
0.252 5.670 4.296
0.205 6.313 4.561
0.332 0.693 3.372
0.424 0.437 3.369
0.456 0.783 3.635
0.552 0.440 3.607
0.593 1.140 3.900
0.592 0.835 3.903
0.693 0.547 3.884
0.623 1.163 4.131
0.773 0.854 4.198
0.753 0.569 4.132
0.838 0.875 4.413
0.896 0.587 4.407
0.075 5.288 4.496
1.017 0.882 4.740
1.012 0.677 4.683
-0.002 5.303 4.533
1.113 0.628 4.920
0.056 5.927 4.773
0.059 5.691 4.748
0.100 6.215 5.012
0.117 5.934 4.966
0.139 0.399 3.488
0.311 0.466 3.696
0.386 0.796 3.984
0.358 0.483 4.040
0.422 0.812 4.255
0.481 0.453 4.265
0.611 0.842 4.533
0.643 0.503 4.529
0.712 0.876 4.844
0.757 0.567 4.859
0.889 0.646 5.121
0.056 5.284 5.149
-0.016 5.358 5.186
0.022 5.919 5.442
0.074 5.668 5.419
0.027 0.402 3.901
0.151 0.444 4.110
0.179 0.780 4.390
0.288 0.399 4.362
0.283 0.790 4.639
0.425 0.499 4.648
0.473 0.773 4.886
0.460 0.494 4.924
0.537 0.903 5.255
0.580 0.584 5.257
0.717 0.565 5.513
0.076 5.116 5.794
0.066 4.758 5.813
0.121 5.396 6.125
0.153 5.096 6.152
0.219 4.832 6.070
0.016 5.687 6.023
0.154 5.363 6.094
0.028 0.730 4.804
0.142 0.464 4.804
0.185 0.727 5.041
0.232 0.509 5.108
0.268 0.847 5.332
0.387 0.561 5.363
0.375 0.867 5.606
0.492 0.527 5.665
0.553 0.620 5.916
-0.015 4.500 6.305
0.043 4.156 6.269
0.044 0.807 5.410
0.074 0.458 5.433
0.144 0.811 5.737
0.186 0.511 5.705
0.223 0.844 6.056
0.350 0.531 5.994
0.080 0.498 6.128
0.064 2.745 1.227
0.034 3.303 1.472
0.101 3.083 1.528
0.190 2.774 1.542
0.191 2.394 1.555
0.010 3.939 1.768
0.084 3.662 1.773
0.181 3.324 1.725
0.173 3.063 1.731
0.217 2.726 1.731
0.336 2.449 1.812
0.378 2.192 1.800
-0.002 4.528 1.939
0.035 4.228 1.936
0.153 3.957 2.042
0.220 3.745 1.987
0.251 3.402 2.069
0.341 3.120 2.060
0.380 2.802 2.014
0.474 2.564 2.043
0.499 2.214 2.050
0.605 1.955 2.096
0.040 5.153 2.181
0.068 4.911 2.184
0.075 4.588 2.267
0.180 4.313 2.238
0.287 4.015 2.305
0.318 3.730 2.330
0.330 3.438 2.323
0.427 3.103 2.301
0.505 2.854 2.273
0.538 2.560 2.287
0.607 2.220 2.368
0.714 2.007 2.375
0.761 1.684 2.331
0.847 1.390 2.332
-0.040 5.225 2.207
0.104 5.247 2.445
0.219 4.953 2.482
0.198 4.616 2.465
0.328 4.335 2.503
0.406 4.022 2.504
0.383 3.767 2.543
0.536 3.488 2.531
0.509 3.179 2.545
0.624 2.904 2.606
0.703 2.573 2.576
0.764 2.342 2.578
0.806 2.010 2.599
0.871 1.773 2.625
0.923 1.451 2.612
0.985 1.188 2.643
1.056 0.860 2.714
1.135 0.535 2.707
0.000 5.792 2.482
0.082 5.489 2.476
0.165 5.201 2.427
0.205 5.256 2.723
0.290 4.996 2.763
0.345 4.653 2.734
0.478 4.369 2.796
0.488 4.125 2.815
0.544 3.766 2.829
0.564 3.507 2.802
0.630 3.196 2.895
0.697 2.915 2.904
0.768 2.587 2.854
0.836 2.374 2.900
0.950 2.085 2.934
0.940 1.750 2.869
1.001 1.487 2.940
1.161 1.197 2.961
1.173 0.884 2.903
1.190 0.548 3.014
0.110 6.138 2.704
0.104 5.881 2.757
0.181 5.536 2.766
0.234 5.284 2.744
0.311 5.264 3.047
0.473 4.966 3.029
0.923 2.678 3.193
0.982 2.389 3.178
1.076 2.069 3.210
1.119 1.787 3.219
1.134 1.535 3.158
1.256 1.188 3.252
1.249 0.962 3.219
1.380 0.608 3.267
0.161 6.197 2.932
0.282 5.895 3.006
0.326 5.548 2.966
0.321 5.358 2.991
0.502 5.358 3.339
1.163 2.079 3.405
1.197 1.848 3.463
1.247 1.557 3.436
1.329 1.292 3.438
1.461 0.978 3.488
1.417 0.661 3.567
0.293 6.238 3.277
0.413 5.928 3.249
0.462 5.664 3.268
0.509 5.303 3.242
1.396 1.859 3.776
1.403 1.576 3.735
1.437 1.290 3.732
1.543 0.997 3.769
1.633 0.739 3.827
0.455 6.213 3.478
0.450 5.955 3.502
0.543 5.625 3.527
1.472 1.673 4.035
1.637 1.309 4.051
1.652 0.994 4.084
1.708 0.714 4.083
0.648 6.018 3.786
1.721 1.325 4.257
1.755 1.089 4.292
1.815 0.828 4.318
-0.019 2.699 1.254
6.121 6.237 3.604
6.235 6.005 3.673
5.916 6.190 3.738
5.935 5.862 3.751
6.034 5.625 3.831
6.058 5.324 3.746
6.027 6.234 3.982
6.060 6.003 4.064
6.158 5.652 4.012
6.203 5.312 4.043
6.316 5.073 4.121
6.133 6.237 4.265
6.205 5.946 4.301
6.289 5.686 4.369
6.157 5.962 4.975
6.198 5.757 4.973
5.614 6.113 3.913
5.738 5.899 3.917
5.782 5.592 3.881
5.824 5.290 3.951
5.903 4.941 3.984
5.721 6.155 4.112
5.813 5.875 4.145
5.896 5.553 4.134
5.982 5.326 4.238
5.954 5.010 4.157
5.836 6.213 4.394
5.922 5.981 4.411
6.026 5.639 4.448
6.094 5.351 4.452
6.102 5.082 4.496
6.129 4.783 4.529
6.010 6.247 4.709
6.021 6.006 4.660
6.142 5.684 4.709
6.137 5.362 4.761
6.283 5.100 4.753
6.216 5.986 4.949
6.283 5.745 5.020
5.843 6.264 5.070
5.938 5.955 5.086
5.986 5.620 5.160
6.021 5.343 5.128
6.044 5.103 5.159
6.135 4.784 5.129
5.976 5.998 5.358
6.135 5.685 5.403
6.168 5.418 5.397
6.155 5.149 5.372
6.112 6.004 5.628
6.219 5.717 5.717
6.222 5.427 5.673
6.226 6.093 5.901
5.405 6.100 4.044
5.473 5.861 4.047
5.488 5.549 4.016
5.496 5.172 4.043
5.633 4.952 4.029
5.706 4.666 4.081
5.448 6.110 4.278
5.537 5.811 4.272
5.632 5.553 4.275
5.634 5.269 4.304
5.716 4.956 4.383
5.815 4.704 4.352
5.600 6.169 4.589
5.681 5.833 4.553
5.770 5.635 4.593
5.830 5.330 4.631
5.860 4.983 4.553
5.901 4.738 4.575
5.763 6.214 4.793
5.763 5.912 4.798
5.860 5.634 4.825
5.897 5.362 4.850
6.015 5.004 4.922
6.004 4.720 4.934
5.792 6.236 5.056
5.883 5.962 5.163
6.007 5.652 5.170
5.989 5.366 5.129
6.051 5.047 5.104
6.183 4.810 5.124
5.608 6.165 5.171
5.639 5.944 5.255
5.656 5.662 5.193
5.787 5.293 5.314
5.793 5.000 5.224
5.864 4.784 5.311
5.683 6.264 5.533
5.772 5.961 5.469
5.806 5.640 5.546
5.867 5.398 5.500
5.938 5.025 5.547
5.884 5.726 5.764
5.144 6.053 4.117
5.142 5.802 4.153
5.223 5.471 4.129
5.295 5.130 4.147
5.363 4.889 4.208
5.412 4.575 4.200
5.412 4.329 4.197
5.233 6.139 4.439
5.267 5.760 4.413
5.298 5.536 4.444
5.356 5.215 4.458
5.477 4.960 4.460
5.572 4.680 4.452
5.536 4.282 4.458
5.382 6.124 4.712
5.421 5.814 4.643
5.458 5.546 4.705
5.526 5.201 4.757
5.528 4.932 4.712
5.682 4.672 4.769
5.707 4.348 4.788
5.459 6.119 4.941
5.559 5.876 4.991
5.555 5.554 4.946
5.656 5.236 5.010
5.743 5.049 4.965
5.726 4.752 4.977
5.841 4.454 4.999
5.564 6.201 5.174
5.671 5.940 5.228
5.655 5.642 5.225
5.796 5.317 5.278
5.804 4.998 5.301
5.878 4.739 5.295
5.334 6.195 5.302
5.361 5.885 5.369
5.384 5.574 5.373
5.519 5.271 5.368
5.516 5.014 5.383
5.656 4.656 5.388
5.639 4.366 5.455
5.501 5.942 5.577
5.600 5.655 5.621
5.628 5.328 5.685
5.661 5.045 5.690
4.796 6.032 4.293
4.896 5.680 4.294
4.957 5.413 4.234
5.066 5.167 4.275
5.085 4.871 4.353
5.186 4.589 4.296
5.216 4.259 4.391
5.252 3.913 4.340
4.902 6.059 4.522
5.034 5.749 4.542
5.117 5.489 4.506
5.103 5.201 4.530
5.249 4.851 4.547
5.293 4.538 4.603
5.342 4.287 4.634
5.422 3.998 4.590
5.051 6.078 4.837
5.108 5.797 4.834
5.161 5.455 4.863
5.231 5.236 4.836
5.340 4.950 4.885
5.384 4.618 4.904
5.446 4.320 4.868
5.467 4.025 4.909
5.170 6.070 5.118
5.222 5.848 5.082
5.361 5.478 5.150
5.391 5.265 5.114
5.400 4.908 5.175
5.461 4.676 5.178
5.588 4.379 5.118
5.335 6.125 5.384
5.352 5.818 5.308
5.409 5.522 5.348
5.446 5.227 5.377
5.594 4.978 5.438
5.603 4.743 5.446
5.650 4.369 5.427
5.124 5.808 5.516
5.210 5.528 5.492
5.171 5.178 5.564
5.246 4.943 5.475
5.297 4.694 5.495
5.377 4.301 5.573
5.380 5.304 5.753
5.420 4.966 5.807
4.446 6.215 4.341
4.601 5.909 4.365
4.610 5.635 4.399
4.683 5.403 4.389
4.698 5.081 4.404
4.821 4.784 4.474
4.911 4.461 4.441
4.891 4.186 4.436
4.993 3.931 4.478
5.020 3.569 4.531
5.062 3.273 4.531
5.138 3.026 4.523
5.278 2.761 4.557
4.483 6.257 4.372
4.601 6.302 4.681
4.721 5.942 4.690
4.729 5.738 4.720
4.829 5.372 4.636
4.843 5.117 4.670
4.933 4.811 4.688
4.981 4.503 4.696
5.072 4.275 4.716
5.088 3.940 4.702
5.171 3.619 4.720
5.286 3.373 4.778
4.648 6.296 4.614
4.816 6.017 4.953
4.821 5.690 4.943
4.886 5.483 4.902
4.965 5.129 4.976
5.033 4.897 5.034
5.152 4.599 5.027
5.207 4.319 4.989
5.275 3.974 4.982
5.294 3.735 5.056
4.942 6.064 5.236
4.965 5.782 5.226
5.024 5.507 5.236
5.134 5.159 5.185
5.220 4.876 5.295
5.193 4.631 5.242
5.289 4.345 5.313
5.391 3.985 5.334
5.113 5.817 5.514
5.214 5.542 5.469
5.210 5.183 5.496
5.333 4.916 5.502
5.298 4.586 5.517
5.417 4.380 5.580
4.883 5.463 5.579
4.997 5.206 5.633
5.054 4.834 5.696
5.059 4.538 5.638
5.111 4.310 5.671
5.157 4.005 5.685
5.092 4.898 5.889
5.207 4.583 5.967
4.217 6.143 4.488
4.262 5.847 4.484
4.356 5.597 4.549
4.382 5.326 4.514
4.475 5.064 4.597
4.583 4.747 4.528
4.644 4.452 4.548
4.661 4.170 4.577
4.672 3.832 4.633
4.793 3.595 4.572
4.805 3.277 4.663
4.912 2.934 4.670
4.958 2.727 4.694
5.023 2.379 4.662
5.085 2.077 4.732
4.286 6.181 4.459
4.401 6.255 4.768
4.448 5.978 4.741
4.477 5.603 4.763
4.516 5.342 4.767
4.591 5.050 4.767
4.611 4.770 4.786
4.674 4.518 4.899
4.756 4.224 4.873
4.894 3.894 4.863
4.858 3.565 4.885
4.974 3.337 4.919
5.017 2.973 4.903
5.050 2.704 4.914
4.390 6.238 4.799
4.553 5.996 5.001
4.543 5.637 5.090
4.614 5.392 5.076
4.667 5.132 5.058
4.812 4.841 5.121
4.812 4.520 5.150
4.927 4.250 5.084
4.994 3.939 5.169
5.055 3.648 5.183
5.044 3.357 5.163
4.717 5.668 5.313
4.764 5.463 5.322
4.851 5.118 5.315
4.845 4.799 5.361
4.935 4.549 5.440
5.052 4.239 5.438
5.106 3.998 5.371
5.120 3.718 5.413
4.862 5.514 5.643
4.972 5.157 5.608
4.998 4.871 5.682
5.049 4.560 5.663
5.196 4.304 5.690
5.247 4.047 5.721
4.653 5.111 5.759
4.776 4.804 5.815
4.853 4.581 5.774
4.881 4.256 5.764
4.925 3.920 5.778
5.048 3.708 5.799
4.861 4.833 6.047
4.922 4.532 6.057
5.023 4.328 6.122
5.076 3.942 6.126
4.102 5.599 4.693
4.130 5.248 4.651
4.255 4.925 4.677
4.276 4.715 4.714
4.372 4.376 4.725
4.423 4.147 4.720
4.469 3.765 4.762
4.538 3.479 4.764
4.530 3.230 4.727
4.600 2.935 4.727
4.739 2.604 4.832
4.811 2.295 4.842
4.861 2.027 4.788
4.153 5.624 4.920
4.301 5.291 4.892
4.279 5.053 4.999
4.390 4.677 4.930
4.479 4.469 4.954
4.566 4.157 4.949
4.618 3.828 4.968
4.607 3.528 5.055
4.746 3.291 5.008
4.733 2.965 5.031
4.781 2.666 5.081
4.428 5.371 5.246
4.493 5.034 5.242
4.534 4.737 5.197
4.564 4.441 5.214
4.648 4.196 5.221
4.729 3.903 5.243
4.795 3.597 5.315
4.872 3.249 5.279
4.936 2.972 5.339
4.528 5.431 5.483
4.561 5.109 5.446
4.589 4.774 5.460
4.686 4.481 5.563
4.800 4.245 5.497
4.767 3.893 5.561
4.860 3.611 5.545
4.974 3.323 5.557
4.681 5.165 5.744
4.746 4.823 5.748
4.855 4.568 5.835
4.880 4.231 5.803
4.944 3.940 5.825
5.024 3.685 5.852
4.459 5.083 5.916
4.465 4.775 5.881
4.535 4.439 5.866
4.568 4.192 5.938
4.620 3.956 5.907
4.711 3.606 6.004
4.778 3.366 5.963
4.566 4.808 6.197
4.715 4.498 6.143
4.693 4.206 6.250
4.808 3.964 6.175
4.814 3.601 6.173
3.951 4.880 4.827
4.033 4.589 4.864
4.084 4.306 4.796
4.082 4.050 4.846
4.238 3.789 4.839
4.280 3.497 4.819
4.340 3.121 4.852
4.423 2.851 4.860
4.485 2.566 4.894
4.450 2.340 4.905
4.569 2.042 4.957
4.011 5.235 5.100
4.032 4.911 5.015
4.111 4.706 5.136
4.237 4.324 5.141
4.205 4.119 5.076
4.323 3.833 5.170
4.345 3.512 5.130
4.473 3.154 5.124
4.497 2.909 5.124
4.509 2.571 5.218
4.585 2.350 5.217
4.171 5.326 5.351
4.179 4.995 5.294
4.221 4.696 5.406
4.297 4.365 5.380
4.356 4.091 5.373
4.450 3.829 5.429
4.496 3.530 5.407
4.545 3.197 5.392
4.595 2.928 5.440
4.704 2.605 5.453
4.330 4.994 5.584
4.411 4.796 5.663
4.386 4.500 5.688
4.529 4.165 5.669
4.600 3.884 5.682
4.645 3.561 5.716
4.653 3.285 5.645
4.785 2.943 5.755
4.430 5.095 5.901
4.516 4.818 5.909
4.589 4.517 5.948
4.554 4.201 5.917
4.655 3.877 5.890
4.739 3.656 5.972
4.837 3.276 5.998
4.166 4.696 6.001
4.285 4.407 6.072
4.388 4.154 6.096
4.432 3.889 6.080
4.498 3.556 6.076
4.483 3.279 6.093
4.615 2.979 6.144
3.703 4.578 4.910
3.842 4.242 4.907
3.836 3.991 4.939
3.891 3.649 4.961
3.975 3.383 4.962
4.029 3.155 4.987
4.129 2.801 4.973
4.128 2.485 5.062
4.257 2.236 5.047
3.796 4.945 5.199
3.842 4.605 5.194
3.945 4.273 5.242
3.960 3.989 5.269
4.050 3.730 5.260
4.140 3.399 5.229
4.173 3.162 5.325
4.184 2.813 5.236
4.300 2.605 5.256
3.948 4.921 5.432
4.001 4.688 5.457
4.060 4.322 5.541
4.122 4.098 5.501
4.134 3.730 5.517
4.172 3.529 5.500
4.289 3.148 5.498
4.394 2.889 5.587
4.407 2.605 5.625
3.995 5.017 5.771
4.048 4.668 5.770
4.186 4.395 5.738
4.265 4.110 5.769
4.238 3.770 5.770
4.323 3.523 5.781
4.371 3.203 5.826
4.503 2.925 5.852
4.244 4.745 6.057
4.245 4.447 6.080
4.345 4.180 6.070
4.376 3.875 6.117
4.516 3.515 6.053
4.476 3.219 6.128
4.597 3.001 6.057
3.965 4.706 6.155
4.064 4.338 6.174
4.100 4.116 6.216
4.184 3.748 6.156
4.173 3.488 6.184
4.242 3.239 6.240
4.372 2.872 6.240
3.564 4.273 5.101
3.585 3.901 5.138
3.665 3.656 5.079
3.732 3.406 5.075
3.741 3.021 5.096
3.839 2.773 5.099
3.933 2.489 5.113
3.953 2.138 5.180
3.572 4.578 5.283
3.647 4.264 5.332
3.722 4.012 5.310
3.738 3.712 5.384
3.846 3.405 5.342
3.889 3.091 5.429
3.910 2.813 5.436
4.015 2.527 5.419
3.661 4.654 5.621
3.741 4.335 5.604
3.808 4.050 5.585
3.852 3.694 5.601
3.906 3.474 5.625
3.995 3.153 5.638
4.115 2.859 5.731
4.115 2.566 5.685
3.818 4.620 5.869
3.840 4.384 5.902
3.908 4.098 5.868
3.983 3.777 5.952
4.054 3.436 5.956
4.169 3.164 5.897
4.227 2.909 5.992
3.927 4.660 6.166
4.046 4.419 6.178
4.053 4.043 6.135
4.136 3.757 6.234
4.154 3.488 6.247
4.296 3.268 6.211
4.313 2.933 6.189
3.724 4.622 6.323
3.295 3.857 5.254
3.396 3.644 5.229
3.450 3.352 5.250
3.490 3.011 5.222
3.604 2.739 5.226
3.593 2.385 5.250
3.376 4.246 5.424
3.488 3.892 5.445
3.519 3.692 5.467
3.616 3.354 5.459
3.622 3.048 5.548
3.748 2.767 5.542
3.469 4.586 5.698
3.480 4.222 5.688
3.573 3.981 5.757
3.676 3.697 5.745
3.704 3.388 5.748
3.802 3.137 5.780
3.867 2.764 5.816
3.553 4.621 5.995
3.656 4.289 6.058
3.657 3.999 5.994
3.697 3.677 5.999
3.837 3.404 6.072
3.846 3.075 6.106
3.985 2.864 6.085
3.727 4.622 6.225
3.225 3.226 5.364
3.241 2.957 5.415
3.189 3.898 5.555
3.272 3.602 5.607
3.313 3.299 5.645
3.405 3.045 5.683
3.220 4.205 5.903
3.352 3.889 5.839
3.374 3.632 5.887
3.468 3.294 5.957
3.473 3.081 5.899
3.302 4.570 6.165
3.365 4.281 6.122
3.459 3.932 6.135
3.458 3.705 6.184
3.565 3.409 6.180
3.584 3.105 6.168
