4.902 4.532 0.058
4.992 4.525 0.229
5.228 4.333 0.301
5.273 4.433 0.558
5.343 4.657 0.577
5.342 4.418 0.844
5.374 4.428 0.967
5.088 4.803 0.176
5.073 4.620 0.208
5.141 4.620 0.488
5.342 4.554 0.730
5.210 4.700 0.822
5.275 4.744 0.855
5.091 5.080 0.102
5.049 5.016 0.441
5.272 4.874 0.628
5.338 4.709 0.656
5.296 5.065 0.738
5.408 4.833 0.900
4.966 5.309 -0.051
5.055 5.175 0.197
5.128 5.065 0.450
5.319 4.950 0.728
5.366 4.965 0.778
5.278 5.076 0.976
4.970 5.413 0.067
5.016 5.489 0.270
5.092 5.314 0.579
5.241 5.335 0.708
5.416 5.157 0.953
5.082 5.595 0.283
5.144 5.686 0.392
5.135 5.527 0.481
5.244 5.483 0.698
5.115 5.987 0.206
5.194 5.741 0.363
5.283 5.661 0.768
5.280 5.568 0.786
5.122 2.227 0.339
5.314 2.310 0.398
5.468 2.039 0.600
5.553 2.080 0.759
5.479 1.956 1.150
5.150 2.647 0.115
5.194 2.490 0.403
5.400 2.344 0.498
5.378 2.249 0.641
5.516 2.234 0.884
5.590 2.201 1.203
5.664 2.018 1.269
5.033 2.593 0.279
4.996 2.589 0.338
5.042 2.505 0.586
5.231 2.231 0.866
5.227 2.291 1.063
5.491 2.261 1.232
5.507 2.051 1.513
5.003 2.951 0.173
4.987 2.671 0.218
5.015 2.731 0.518
5.248 2.646 0.750
5.166 2.563 0.873
5.292 2.362 1.128
5.442 2.337 1.316
5.575 2.234 1.439
4.831 2.808 0.096
4.885 3.050 0.280
4.931 3.072 0.504
5.085 2.928 0.689
5.113 2.868 0.758
5.194 2.851 1.043
5.317 2.605 1.067
5.431 2.596 1.271
5.504 2.542 1.571
5.000 3.049 0.290
5.010 3.355 0.351
5.094 3.256 0.570
5.075 3.044 0.628
5.187 2.975 0.876
5.310 2.999 1.169
5.289 2.848 1.340
5.475 2.835 1.508
5.499 2.717 1.668
4.819 3.461 0.019
4.935 3.301 0.317
5.045 3.582 0.399
5.030 3.346 0.590
5.053 3.429 0.857
5.271 3.321 1.001
5.392 3.074 1.068
5.398 3.134 1.435
5.421 2.919 1.467
5.563 2.876 1.682
4.916 3.583 0.078
4.875 3.419 0.262
4.960 3.786 0.464
5.173 3.582 0.654
5.160 3.614 0.928
5.175 3.417 1.037
5.385 3.348 1.182
5.372 3.376 1.459
5.434 3.125 1.638
4.796 3.871 0.139
4.969 3.780 0.307
5.012 3.608 0.418
5.038 3.917 0.449
5.147 3.852 0.700
5.212 3.650 0.855
5.339 3.566 1.173
5.436 3.652 1.306
5.437 3.529 1.429
4.743 4.128 0.083
4.899 4.047 0.363
5.031 3.878 0.578
5.051 4.215 0.532
5.175 4.062 0.859
5.122 3.890 0.878
5.366 3.899 1.078
5.444 3.818 1.299
4.675 4.362 0.050
4.777 4.240 0.105
5.024 4.110 0.398
4.930 4.179 0.492
5.147 4.249 0.733
5.101 4.177 0.812
5.222 4.202 1.069
5.194 4.019 1.280
4.730 4.671 0.051
4.836 4.467 0.185
4.914 4.506 0.391
5.121 4.365 0.673
5.169 4.529 0.637
5.250 4.552 0.972
5.249 4.368 1.083
4.900 4.658 0.183
4.807 4.652 0.303
5.075 4.579 0.524
5.091 4.521 0.852
5.059 4.676 0.781
5.216 4.650 1.005
4.673 4.985 0.106
4.827 5.002 0.292
4.899 4.816 0.391
5.013 4.724 0.648
5.136 4.641 0.848
5.184 4.922 0.807
5.140 4.959 1.121
4.839 5.253 0.236
4.957 5.288 0.300
4.976 5.179 0.493
4.994 5.080 0.817
5.083 5.003 0.883
5.045 5.113 1.025
4.886 5.479 0.309
4.904 5.506 0.402
4.964 5.297 0.543
4.954 5.299 0.770
5.076 5.072 0.873
5.152 5.283 0.959
4.766 5.627 0.388
4.820 5.558 0.373
5.060 5.541 0.780
4.987 5.496 0.791
5.140 5.445 1.128
4.859 6.000 0.318
4.920 5.923 0.520
5.021 5.823 0.852
5.170 5.625 0.975
5.034 1.956 0.206
5.142 2.066 0.525
5.273 1.870 0.784
5.305 1.841 0.770
4.829 2.313 0.255
4.950 2.354 0.300
5.012 2.142 0.604
5.225 2.035 0.839
5.305 2.128 0.983
5.392 1.923 1.047
5.015 2.537 0.231
4.970 2.489 0.504
5.219 2.517 0.693
5.198 2.345 0.886
5.309 2.325 1.120
5.386 2.073 1.258
5.547 2.149 1.492
4.731 2.563 0.195
4.856 2.520 0.360
4.812 2.373 0.553
4.859 2.441 0.759
5.104 2.291 1.016
5.007 2.220 1.080
5.201 2.062 1.399
5.202 2.162 1.489
4.621 2.680 0.032
4.678 2.889 0.137
4.680 2.815 0.310
4.776 2.602 0.682
4.988 2.509 0.839
4.958 2.550 0.973
5.132 2.452 1.168
5.297 2.339 1.290
5.316 2.400 1.497
4.710 2.879 0.210
4.680 3.073 0.274
4.856 2.947 0.435
4.815 2.949 0.736
4.967 2.772 0.799
5.052 2.741 1.163
5.106 2.594 1.249
5.277 2.604 1.393
5.361 2.599 1.582
4.794 3.060 0.395
4.763 3.202 0.469
4.706 3.154 0.489
4.819 3.113 0.735
4.944 3.075 0.927
4.970 2.892 1.043
5.162 2.886 1.440
5.218 2.754 1.638
4.798 3.274 0.411
4.682 3.377 0.388
4.867 3.296 0.593
4.941 3.399 0.762
4.986 3.307 1.043
5.127 3.231 1.153
5.116 3.135 1.520
5.223 3.033 1.586
4.588 3.472 0.311
4.694 3.544 0.521
4.800 3.701 0.569
4.902 3.689 0.780
4.884 3.491 0.899
5.041 3.534 1.036
5.059 3.322 1.211
5.297 3.317 1.471
4.753 3.673 0.305
4.771 3.698 0.589
4.810 3.912 0.522
4.855 3.822 0.767
4.891 3.650 0.978
4.965 3.672 1.239
5.063 3.636 1.324
4.702 4.000 0.134
4.667 3.928 0.417
4.791 3.997 0.592
4.807 4.195 0.701
4.950 3.970 0.766
4.907 3.960 1.062
4.977 3.941 1.296
4.588 4.332 0.156
4.549 4.350 0.396
4.673 4.095 0.411
4.723 4.039 0.596
4.826 4.217 0.783
5.020 4.124 1.032
4.978 4.094 1.222
4.556 4.624 0.132
4.700 4.563 0.461
4.645 4.315 0.548
4.810 4.224 0.777
4.788 4.601 0.931
5.006 4.348 1.044
4.412 4.863 -0.021
4.577 4.681 0.333
4.637 4.673 0.340
4.659 4.644 0.533
4.955 4.514 0.844
4.861 4.691 0.867
5.011 4.624 1.048
4.609 4.964 0.062
4.715 5.013 0.427
4.604 4.830 0.625
4.903 4.898 0.631
4.834 4.728 0.821
4.893 4.864 1.023
4.644 5.273 0.298
4.540 5.092 0.501
4.735 5.202 0.677
4.782 4.991 0.813
4.897 4.933 0.971
4.820 5.197 0.983
4.476 5.370 0.355
4.616 5.432 0.474
4.767 5.268 0.655
4.785 5.260 0.852
4.906 5.100 1.056
4.947 5.269 1.210
4.673 5.651 0.361
4.648 5.710 0.587
4.833 5.587 0.717
4.853 5.435 0.837
4.986 5.367 1.171
5.052 5.532 1.129
4.684 5.914 0.374
4.645 5.705 0.651
4.749 5.660 0.777
4.806 5.558 1.039
4.934 5.481 1.111
4.667 1.555 0.279
4.735 1.475 0.483
4.656 1.878 0.107
4.746 1.805 0.313
4.884 1.796 0.601
4.939 1.791 0.705
4.918 1.607 0.855
4.691 2.045 0.217
4.778 1.983 0.438
4.867 1.990 0.624
4.989 1.892 0.853
5.060 1.818 0.944
5.122 1.810 1.180
4.708 2.500 0.132
4.712 2.350 0.234
4.725 2.255 0.403
4.790 2.117 0.592
5.061 2.164 0.833
5.039 2.025 0.959
5.122 1.933 1.196
5.334 1.978 1.482
4.544 2.522 0.017
4.614 2.584 0.200
4.746 2.636 0.271
4.850 2.554 0.421
4.903 2.475 0.829
5.061 2.247 0.805
5.179 2.266 1.038
5.245 2.073 1.237
5.352 1.988 1.595
4.612 2.685 0.129
4.481 2.605 0.164
4.500 2.486 0.466
4.609 2.499 0.574
4.740 2.397 0.839
4.701 2.332 1.098
4.955 2.341 1.298
5.043 2.075 1.311
5.064 2.104 1.559
4.378 2.576 0.289
4.489 2.747 0.281
4.492 2.855 0.413
4.560 2.783 0.682
4.723 2.523 0.792
4.904 2.599 0.997
4.996 2.406 1.330
5.097 2.379 1.483
5.101 2.341 1.547
4.466 2.890 0.310
4.587 3.128 0.360
4.534 2.988 0.473
4.727 2.823 0.776
4.810 2.854 0.888
4.863 2.822 1.192
4.981 2.546 1.445
4.990 2.659 1.471
4.472 3.042 0.471
4.424 3.188 0.383
4.627 3.113 0.604
4.783 3.157 0.856
4.666 3.003 1.145
4.773 2.968 1.189
5.011 2.952 1.447
5.000 2.834 1.705
4.629 3.285 0.399
4.519 3.571 0.448
4.563 3.308 0.828
4.664 3.338 0.845
4.721 3.266 1.040
4.887 3.241 1.412
4.925 3.093 1.420
4.528 3.571 0.450
4.573 3.672 0.604
4.586 3.693 0.716
4.647 3.496 0.954
4.735 3.341 1.219
4.946 3.299 1.472
4.477 3.583 0.502
4.655 3.848 0.717
4.581 3.722 0.881
4.689 3.629 1.096
4.405 3.882 0.520
4.693 3.826 0.656
4.559 4.021 0.845
4.783 3.974 0.923
4.441 4.112 0.590
4.681 4.079 0.659
4.700 4.248 0.813
4.782 4.274 0.971
4.365 4.530 0.495
4.541 4.315 0.567
4.516 4.388 0.778
4.739 4.619 0.972
4.340 4.883 0.176
4.469 4.828 0.337
4.389 4.700 0.643
4.503 4.672 0.715
4.700 4.471 0.850
4.665 4.692 0.920
4.406 5.126 0.222
4.335 5.009 0.457
4.540 4.910 0.714
4.509 4.886 0.835
4.672 4.714 0.907
4.790 4.850 1.001
4.252 5.202 0.201
4.447 5.188 0.505
4.579 5.072 0.798
4.524 5.019 0.824
4.723 4.902 1.129
4.614 5.069 1.194
4.316 5.381 0.468
4.557 5.362 0.496
4.497 5.249 0.842
4.626 5.154 0.855
4.668 5.085 1.191
4.842 5.240 1.319
4.311 5.698 0.530
4.451 5.525 0.657
4.451 5.496 0.931
4.726 5.537 1.060
4.681 5.384 1.172
4.836 5.536 1.225
4.347 5.773 0.559
4.557 5.804 0.667
4.533 5.825 0.916
4.702 5.593 1.040
4.712 5.618 1.262
4.474 1.305 0.048
4.469 1.401 0.121
4.578 1.448 0.191
4.718 1.289 0.504
4.767 1.238 0.516
4.472 1.659 0.066
4.622 1.716 0.294
4.643 1.492 0.552
4.765 1.380 0.710
4.761 1.302 0.797
4.551 1.949 0.079
4.502 1.872 0.323
4.591 1.663 0.549
4.769 1.587 0.702
4.815 1.629 0.850
4.834 1.493 1.107
4.424 2.170 0.177
4.465 2.021 0.239
4.659 2.011 0.516
4.737 1.928 0.673
4.849 1.900 0.742
4.753 1.820 0.998
4.832 1.682 1.142
4.410 2.133 0.039
4.468 2.333 0.078
4.597 2.325 0.399
4.656 2.274 0.561
4.740 2.135 0.644
4.766 2.119 0.858
4.850 2.109 1.052
5.052 1.920 1.274
4.978 1.825 1.395
4.525 2.502 0.219
4.475 2.662 0.326
4.517 2.557 0.482
4.624 2.520 0.539
4.732 2.446 0.863
4.687 2.287 1.042
4.833 2.157 1.082
5.042 2.056 1.293
5.073 1.963 1.540
4.482 2.694 0.200
4.222 2.551 0.399
4.391 2.516 0.495
4.372 2.391 0.718
4.523 2.457 0.985
4.540 2.277 1.190
4.712 2.322 1.207
4.742 2.153 1.443
4.911 2.077 1.568
4.315 2.711 0.204
4.166 2.781 0.415
4.322 2.656 0.548
4.475 2.702 0.873
4.576 2.506 0.950
4.703 2.429 1.267
4.622 2.367 1.339
4.725 2.421 1.652
4.949 2.340 1.631
4.294 2.878 0.420
4.444 2.908 0.740
4.549 2.877 0.912
4.610 2.751 1.084
4.541 2.655 1.331
4.619 2.680 1.487
4.720 2.467 1.552
4.384 3.194 0.792
4.414 3.170 0.964
4.679 3.101 1.137
4.578 2.980 1.227
4.628 2.879 1.610
4.507 3.216 0.940
4.640 3.213 1.094
4.120 4.933 0.612
4.348 4.838 0.720
4.251 5.138 0.457
4.311 5.087 0.607
4.208 5.059 0.730
4.430 5.087 0.908
4.104 5.500 0.384
4.301 5.273 0.770
4.235 5.209 0.835
4.441 5.225 0.943
4.538 5.390 1.370
4.089 5.555 0.528
4.174 5.591 0.729
4.431 5.550 0.989
4.353 5.364 1.126
4.540 5.347 1.386
4.490 5.494 1.291
4.221 5.826 0.583
4.217 5.799 0.833
4.463 5.608 0.926
4.514 5.523 1.118
4.640 5.613 1.454
4.229 0.774 0.100
4.278 0.992 0.226
4.326 0.967 0.261
4.146 1.175 -0.027
4.228 1.209 0.147
4.434 1.151 0.523
4.462 1.008 0.562
4.179 1.423 0.210
4.415 1.352 0.313
4.340 1.241 0.596
4.468 1.197 0.611
4.488 1.199 0.935
4.075 1.663 0.096
4.171 1.598 0.193
4.299 1.652 0.288
4.503 1.512 0.553
4.551 1.549 0.740
4.563 1.413 1.077
4.759 1.319 1.220
4.173 1.876 0.079
4.182 2.050 0.122
4.226 1.907 0.350
4.302 1.832 0.571
4.401 1.648 0.606
4.477 1.606 0.758
4.612 1.556 1.107
4.808 1.501 1.208
4.092 1.975 0.055
4.284 2.146 0.086
4.246 2.133 0.311
4.296 1.945 0.485
4.361 1.896 0.695
4.645 1.796 0.844
4.614 1.726 1.078
4.626 1.620 1.250
4.871 1.583 1.597
4.169 2.288 0.242
4.151 2.413 0.349
4.300 2.270 0.490
4.462 2.325 0.623
4.395 2.183 0.729
4.653 2.046 1.034
4.698 2.012 1.162
4.768 1.910 1.427
4.835 1.917 1.492
4.328 2.479 0.271
4.328 2.704 0.262
4.267 2.546 0.572
4.439 2.549 0.637
4.600 2.282 0.987
4.636 2.223 1.046
4.766 2.175 1.318
4.715 2.061 1.529
4.904 2.170 1.759
4.195 2.584 0.377
4.079 2.443 0.677
4.176 2.368 0.775
4.305 2.381 1.067
4.460 2.193 1.091
4.469 2.220 1.265
4.626 2.152 1.618
4.693 2.004 1.703
4.216 2.745 0.631
4.187 2.648 0.938
4.321 2.523 1.127
4.355 2.386 1.275
4.456 2.462 1.353
4.647 2.316 1.688
4.209 2.765 0.913
4.423 2.864 1.096
4.433 2.701 1.389
4.454 2.689 1.589
6.293 3.231 5.645
3.931 5.322 0.462
3.932 5.404 0.789
4.064 5.197 0.866
6.121 3.702 5.644
6.181 3.521 5.888
4.065 5.563 0.529
4.077 5.464 0.744
4.143 5.459 1.047
4.202 5.342 1.138
6.003 3.821 5.519
6.297 3.760 5.778
6.242 3.637 5.973
4.088 5.786 0.755
4.101 5.700 0.895
4.228 5.729 1.088
4.319 5.535 1.192
4.109 0.603 0.040
4.068 0.710 0.084
4.245 0.624 0.473
3.949 1.045 0.100
4.147 0.983 0.286
4.066 0.858 0.516
4.316 0.884 0.627
3.924 1.362 0.171
4.084 1.140 0.321
4.066 1.112 0.467
4.295 0.993 0.631
4.363 0.888 0.958
4.040 1.507 -0.071
4.114 1.388 0.296
4.210 1.394 0.291
4.252 1.394 0.531
4.247 1.302 0.804
4.350 1.184 0.998
4.518 1.062 1.168
3.875 1.453 -0.023
3.871 1.848 0.204
4.065 1.775 0.243
4.114 1.554 0.541
4.123 1.623 0.724
4.384 1.394 0.931
4.390 1.425 0.946
4.388 1.304 1.360
4.489 1.174 1.408
3.869 1.677 0.158
3.876 2.072 0.129
4.000 1.978 0.431
4.045 1.864 0.504
4.224 1.696 0.857
4.223 1.752 0.909
4.331 1.519 1.241
4.460 1.518 1.355
4.514 1.439 1.548
4.087 1.991 0.107
3.973 2.133 0.234
4.090 2.122 0.491
4.123 2.038 0.675
4.318 1.888 0.929
4.371 1.805 1.005
4.508 1.719 1.293
4.612 1.813 1.482
4.555 1.634 1.513
4.001 2.074 0.336
4.047 2.430 0.416
4.066 2.284 0.555
4.126 2.155 0.679
4.181 2.051 0.809
4.426 1.975 1.101
4.497 2.091 1.330
4.523 1.833 1.516
4.541 1.876 1.694
4.132 2.492 0.319
4.183 2.489 0.481
4.128 2.415 0.706
4.224 2.273 0.910
4.485 2.298 1.196
4.444 2.280 1.417
4.512 2.237 1.574
4.648 2.024 1.637
3.868 2.587 0.715
3.990 2.518 0.957
4.078 2.464 1.053
4.175 2.363 1.248
4.315 2.132 1.412
4.244 2.215 1.603
4.474 2.123 1.836
4.009 2.572 0.997
4.072 2.589 1.055
4.116 2.454 1.411
4.255 2.395 1.488
4.276 2.317 1.748
5.937 3.508 5.825
6.075 3.491 5.892
3.883 5.678 0.726
3.963 5.586 1.007
4.004 5.569 1.159
5.891 3.887 5.697
6.048 3.773 5.824
6.104 3.732 5.966
3.776 5.885 0.772
3.957 5.850 0.942
3.891 5.677 1.226
4.138 5.560 1.454
3.721 0.434 0.268
3.649 0.722 -0.031
3.828 0.778 0.170
3.836 0.714 0.432
3.821 0.979 0.103
3.788 0.945 0.306
3.986 0.856 0.594
4.095 0.708 0.767
4.175 0.679 0.808
3.759 1.299 0.010
3.870 1.257 0.112
3.967 1.079 0.508
3.879 1.125 0.631
4.057 1.105 0.793
4.098 1.044 0.912
4.184 0.799 1.080
3.722 1.411 0.054
3.729 1.471 0.128
3.776 1.356 0.249
3.868 1.404 0.511
3.966 1.276 0.639
4.180 1.304 0.891
4.101 1.186 1.113
4.265 1.139 1.297
4.325 1.069 1.481
3.658 1.511 0.010
3.771 1.672 0.245
3.830 1.634 0.277
3.959 1.689 0.544
3.968 1.621 0.693
4.033 1.523 0.963
4.199 1.428 1.235
4.212 1.202 1.295
4.458 1.248 1.500
3.701 1.795 0.239
3.851 1.881 0.180
3.817 1.926 0.401
3.971 1.904 0.716
4.135 1.819 0.786
4.116 1.734 1.064
4.282 1.606 1.182
4.313 1.477 1.462
4.304 1.419 1.513
4.559 1.409 1.769
3.774 1.932 -0.031
3.723 1.889 0.206
3.868 2.137 0.343
3.951 2.168 0.601
3.952 1.948 0.720
4.068 1.977 0.965
4.155 1.788 1.021
4.241 1.834 1.304
4.378 1.676 1.586
4.316 1.699 1.732
4.572 1.461 1.785
3.703 2.066 0.444
3.819 2.270 0.711
3.953 2.286 0.699
4.036 2.206 0.882
4.049 2.116 1.198
4.140 2.096 1.335
4.418 1.803 1.500
4.374 1.920 1.655
3.859 2.534 0.615
3.932 2.400 0.906
4.109 2.253 1.130
4.112 2.237 1.199
4.290 2.124 1.544
4.333 2.119 1.753
4.508 2.061 1.835
3.817 2.461 1.069
3.958 2.450 1.149
3.931 2.287 1.355
3.966 2.128 1.443
4.079 2.198 1.619
4.148 1.968 1.967
4.058 2.492 1.393
4.083 2.346 1.557
5.784 3.429 6.079
3.586 5.600 0.759
5.657 3.766 5.614
5.869 3.854 5.802
5.813 3.593 6.044
3.690 5.749 0.857
3.711 5.783 1.019
3.837 5.765 1.207
3.579 0.576 0.085
3.633 0.481 0.192
3.540 0.803 0.186
3.713 0.811 0.244
3.641 0.740 0.493
3.765 0.502 0.733
3.403 1.192 -0.067
3.636 0.990 0.145
3.711 0.999 0.469
3.720 0.825 0.507
3.806 0.773 0.891
3.943 0.777 1.015
3.477 1.138 -0.030
3.481 1.344 0.151
3.543 1.348 0.273
3.734 1.054 0.502
3.774 0.993 0.761
3.929 0.919 0.870
3.858 0.964 1.027
4.109 0.788 1.231
4.089 0.671 1.365
3.611 1.413 0.138
3.481 1.553 0.185
3.550 1.504 0.458
3.778 1.383 0.678
3.693 1.384 0.797
3.902 1.282 0.977
3.878 1.157 1.210
4.109 0.958 1.355
4.173 0.935 1.499
4.173 0.951 1.808
3.491 1.499 0.179
3.570 1.804 0.296
3.747 1.650 0.439
3.620 1.556 0.613
3.813 1.535 0.808
3.808 1.471 0.984
3.874 1.361 1.332
4.069 1.256 1.400
4.065 1.176 1.536
4.320 1.074 1.731
3.472 1.772 0.038
3.479 1.676 0.268
3.663 1.955 0.400
3.757 1.926 0.570
3.778 1.822 0.620
3.879 1.760 0.903
3.882 1.580 1.202
3.887 1.485 1.198
4.183 1.536 1.397
4.090 1.429 1.769
4.207 1.298 1.884
3.637 2.000 0.449
3.623 2.058 0.312
3.626 1.993 0.591
3.845 2.067 0.887
3.954 2.008 1.060
4.014 1.949 1.102
3.942 1.654 1.410
4.209 1.784 1.464
4.161 1.668 1.843
4.214 1.627 2.036
3.487 2.104 0.339
3.790 2.221 0.634
3.681 2.228 0.876
3.838 2.240 1.073
3.855 2.008 1.195
3.983 2.023 1.529
4.160 1.957 1.747
4.283 1.808 1.882
4.206 1.660 1.969
3.692 2.394 1.023
3.792 2.301 1.082
4.023 2.175 1.367
4.096 2.241 1.532
4.060 2.112 1.803
4.278 2.019 1.844
3.619 2.394 1.187
3.860 2.307 1.375
3.931 2.259 1.528
3.858 1.991 1.741
3.976 2.109 2.110
5.503 3.743 5.733
5.551 3.668 5.993
5.658 3.678 6.080
3.487 5.877 0.955
3.531 5.818 1.133
3.404 0.375 0.073
3.305 0.610 0.146
3.411 0.526 0.322
3.269 0.997 0.047
3.236 0.732 0.268
3.375 0.686 0.381
3.617 0.700 0.542
3.635 0.664 0.842
3.297 0.870 0.042
3.329 1.036 0.091
3.476 0.966 0.332
3.519 1.012 0.511
3.441 0.752 0.667
3.622 0.742 0.883
3.757 0.714 1.096
3.777 0.684 1.373
3.329 1.084 0.102
3.259 1.405 0.215
3.297 1.341 0.434
3.497 1.245 0.599
3.539 1.138 0.808
3.659 0.897 1.064
3.736 0.868 1.070
3.911 0.836 1.269
3.783 0.752 1.511
3.988 0.653 1.765
3.252 1.422 -0.070
3.214 1.203 0.214
3.238 1.522 0.281
3.429 1.540 0.579
3.495 1.354 0.611
3.541 1.194 0.791
3.684 1.211 0.954
3.824 1.087 1.129
3.858 1.126 1.455
3.875 0.905 1.542
3.964 0.916 1.822
4.175 0.919 1.981
3.269 1.566 0.145
3.257 1.606 0.319
3.408 1.826 0.400
3.426 1.628 0.443
3.495 1.646 0.824
3.598 1.585 0.979
3.752 1.507 1.047
3.720 1.318 1.286
3.742 1.240 1.559
4.043 1.098 1.636
3.920 1.057 1.943
4.136 1.007 2.147
3.212 1.796 0.120
3.258 1.623 0.371
3.409 1.870 0.500
3.357 1.834 0.725
3.548 1.860 0.902
3.531 1.628 0.984
3.674 1.612 1.134
3.855 1.618 1.327
3.875 1.414 1.595
3.911 1.331 1.745
4.012 1.298 1.910
4.205 1.157 2.074
3.353 1.868 0.499
3.398 2.179 0.705
3.634 1.889 0.853
3.612 1.873 0.991
3.629 1.855 1.209
3.918 1.717 1.385
3.847 1.580 1.690
3.908 1.658 1.809
4.093 1.530 2.107
4.067 1.504 2.165
3.562 2.111 0.856
3.758 2.125 1.056
3.645 1.983 1.317
3.926 1.945 1.478
3.922 1.928 1.751
3.986 1.774 1.902
4.132 1.632 2.204
3.742 2.335 1.226
3.860 2.319 1.386
3.826 2.285 1.647
3.986 2.195 1.890
4.113 1.966 1.989
3.579 2.259 1.819
3.635 2.127 1.976
3.880 2.010 2.103
3.936 1.870 2.326
5.138 3.986 5.729
5.254 3.928 5.837
5.463 3.785 6.010
5.448 3.791 6.175
2.953 0.767 0.149
3.017 0.542 0.260
3.128 0.768 0.110
3.054 0.952 0.220
3.209 0.836 0.292
3.167 0.637 0.603
3.382 0.669 0.644
3.064 0.980 0.222
3.002 1.044 0.238
3.176 0.931 0.391
3.193 0.921 0.661
3.294 0.891 0.673
3.448 0.674 0.973
3.600 0.670 1.219
3.488 0.693 1.282
3.624 0.427 1.614
3.821 0.426 1.637
2.931 1.091 -0.032
3.128 0.992 0.280
3.152 1.267 0.215
3.106 1.302 0.380
3.254 1.167 0.685
3.408 1.146 0.775
3.519 0.938 0.949
3.505 0.997 1.358
3.650 0.772 1.348
3.633 0.802 1.685
3.729 0.750 1.756
3.887 0.637 2.098
4.041 0.575 2.108
3.117 1.450 0.102
3.173 1.328 0.388
3.098 1.442 0.264
3.255 1.450 0.651
3.243 1.396 0.640
3.297 1.383 0.989
3.406 1.151 1.046
3.488 1.066 1.434
3.571 1.022 1.465
3.642 0.957 1.653
3.823 0.770 1.987
3.855 0.811 2.103
3.886 0.793 2.358
3.995 0.558 2.421
3.092 1.668 0.231
3.052 1.521 0.353
3.112 1.605 0.493
3.201 1.565 0.567
3.344 1.662 0.900
3.331 1.456 0.979
3.444 1.425 1.167
3.648 1.222 1.375
3.601 1.342 1.558
3.804 1.271 1.819
3.742 1.198 2.047
3.855 1.076 2.143
3.988 0.890 2.307
4.119 0.772 2.487
3.203 1.669 0.493
3.338 1.798 0.721
3.222 1.844 0.853
3.376 1.786 1.201
3.397 1.649 1.319
3.474 1.430 1.388
3.775 1.561 1.594
3.782 1.429 1.946
3.774 1.211 2.053
4.011 1.326 2.282
3.903 1.117 2.439
3.255 1.898 1.038
3.405 1.882 1.168
3.490 1.716 1.347
3.586 1.706 1.620
3.750 1.773 1.693
3.706 1.494 1.949
3.866 1.585 2.103
3.946 1.334 2.227
4.031 1.389 2.546
3.393 2.102 1.330
3.645 1.922 1.418
3.558 2.034 1.715
3.689 1.947 1.889
3.884 1.847 1.972
3.875 1.700 2.127
3.901 1.713 2.463
3.540 2.094 1.599
3.731 2.187 1.870
3.765 2.097 2.202
3.796 1.956 2.285
3.435 2.128 1.906
3.532 1.934 2.154
3.611 1.974 2.461
4.925 3.921 5.749
5.042 3.816 5.892
5.238 3.730 6.204
2.876 0.849 0.118
2.938 0.727 0.381
2.686 0.903 0.073
2.826 0.846 0.225
2.810 1.032 0.182
2.881 1.094 0.470
3.110 0.979 0.763
3.114 0.759 0.809
3.255 0.744 1.009
3.295 0.646 1.252
3.379 0.561 1.541
3.503 0.539 1.752
3.545 0.503 1.937
3.706 0.392 1.974
3.683 0.349 2.139
3.801 0.220 2.328
3.858 0.198 2.502
4.050 0.083 2.857
2.801 1.235 0.028
2.898 0.993 0.277
2.975 1.384 0.302
2.950 1.135 0.488
3.118 1.133 0.730
3.082 1.022 1.033
3.333 0.867 1.045
3.228 0.975 1.369
3.500 0.769 1.515
3.530 0.649 1.697
3.588 0.738 1.954
3.551 0.583 2.087
3.648 0.454 2.402
3.883 0.397 2.562
3.980 0.322 2.779
4.076 0.202 2.965
4.082 0.211 3.170
4.253 0.174 3.162
2.770 1.352 0.167
2.963 1.227 0.361
2.944 1.320 0.527
3.014 1.255 0.740
3.192 1.207 1.064
3.293 1.217 1.119
3.276 1.030 1.339
3.388 1.129 1.696
3.457 0.932 1.811
3.552 0.805 2.053
3.725 0.815 2.163
3.700 0.604 2.392
3.799 0.629 2.545
3.829 0.447 2.710
4.111 0.583 2.862
3.098 1.438 0.855
3.143 1.480 1.144
3.201 1.434 1.251
3.407 1.262 1.465
3.325 1.174 1.606
3.549 1.205 1.789
3.605 1.185 2.020
3.777 1.038 2.287
3.694 0.868 2.484
3.817 0.930 2.587
3.988 0.656 2.813
3.062 1.672 0.919
3.167 1.610 1.259
3.201 1.506 1.406
3.364 1.544 1.506
3.506 1.546 1.683
3.627 1.390 2.052
3.561 1.363 2.228
3.819 1.157 2.368
3.867 1.233 2.528
3.926 1.086 2.625
3.974 0.941 2.816
3.146 1.926 1.316
3.322 1.904 1.459
3.370 1.827 1.639
3.481 1.636 1.741
3.590 1.503 2.104
3.624 1.555 2.276
3.790 1.308 2.379
3.900 1.297 2.582
3.971 1.275 2.906
3.227 2.075 1.485
3.439 1.972 1.623
3.427 1.832 1.936
3.617 1.716 2.006
3.777 1.791 2.217
3.676 1.672 2.549
3.815 1.562 2.638
3.454 1.989 2.056
3.607 2.088 2.147
3.797 1.933 2.466
3.251 2.167 2.101
3.458 1.930 2.226
3.403 2.007 2.405
3.662 1.740 2.540
4.747 4.011 5.584
4.855 3.906 5.820
4.848 3.854 6.020
5.002 3.782 6.280
3.264 0.486 1.471
3.206 0.443 1.682
3.309 0.411 1.927
3.467 0.324 2.014
3.412 0.328 2.386
3.631 0.243 2.458
3.563 0.028 2.742
3.647 0.056 2.866
3.030 0.924 1.219
3.050 0.849 1.312
3.084 0.747 1.507
3.227 0.723 1.696
3.413 0.578 1.963
3.462 0.500 2.175
3.436 0.500 2.472
3.570 0.397 2.609
3.791 0.231 2.657
3.871 0.149 2.888
3.962 0.250 3.067
3.836 0.110 3.235
4.004 -0.078 3.593
2.931 1.327 1.010
2.988 1.224 1.382
3.153 1.029 1.389
3.303 0.922 1.684
3.393 1.008 1.944
3.480 0.748 2.161
3.571 0.798 2.355
3.568 0.732 2.389
3.633 0.718 2.741
3.825 0.465 2.837
3.906 0.402 2.990
3.871 0.482 3.277
3.980 0.339 3.519
3.032 1.360 1.213
3.017 1.399 1.318
3.146 1.237 1.520
3.200 1.139 1.713
3.236 1.230 2.031
3.482 1.141 2.074
3.396 1.051 2.334
3.519 0.830 2.585
3.620 0.854 2.633
3.827 0.716 3.022
3.769 0.776 3.073
3.825 0.673 3.298
2.970 1.696 1.410
3.263 1.527 1.594
3.139 1.537 1.880
3.331 1.279 2.064
3.461 1.207 2.168
3.523 1.189 2.497
3.494 1.027 2.655
3.720 1.066 2.702
3.745 1.027 3.073
3.836 0.798 3.272
3.135 1.833 1.623
3.193 1.751 1.706
3.185 1.740 1.882
3.326 1.599 2.220
3.433 1.512 2.349
3.450 1.365 2.423
3.666 1.221 2.759
3.594 1.291 2.977
3.689 1.194 2.990
3.123 2.035 1.713
3.296 1.912 1.929
3.286 1.867 2.282
3.549 1.705 2.364
3.621 1.712 2.648
3.737 1.569 2.688
3.638 1.494 2.943
3.251 2.029 2.000
3.486 2.095 2.366
3.384 1.838 2.358
3.620 1.830 2.699
3.233 2.046 2.426
3.283 1.992 2.431
3.293 1.876 2.677
3.495 1.709 3.031
3.471 1.741 3.177
4.210 4.217 5.263
4.451 4.145 5.639
4.523 4.054 5.809
4.576 3.966 5.825
4.727 3.715 6.197
3.388 0.066 2.253
3.042 0.438 2.044
3.301 0.256 2.265
3.306 0.300 2.292
3.429 0.098 2.561
3.464 0.150 2.840
3.482 -0.017 3.071
2.885 0.860 1.627
3.002 0.815 1.911
3.040 0.666 2.021
3.177 0.473 2.261
3.252 0.391 2.448
3.368 0.443 2.591
3.385 0.324 2.883
3.484 0.160 3.072
3.703 0.157 3.214
3.661 0.096 3.409
3.736 0.024 3.524
2.898 1.174 1.507
2.982 1.113 1.672
3.156 0.901 2.011
3.158 0.913 2.186
3.328 0.743 2.329
3.364 0.648 2.492
3.461 0.565 2.661
3.439 0.632 2.904
3.616 0.501 3.153
3.608 0.326 3.386
3.666 0.339 3.428
3.749 0.311 3.784
2.915 1.391 1.636
3.022 1.274 1.749
3.045 1.073 2.090
3.279 1.000 2.278
3.367 0.907 2.481
3.398 0.954 2.718
3.485 0.792 2.831
3.532 0.709 2.910
3.658 0.569 3.219
3.619 0.566 3.391
3.891 0.609 3.618
2.979 1.533 1.740
3.118 1.422 2.001
3.222 1.314 2.105
3.185 1.256 2.287
3.343 1.278 2.538
3.280 1.080 2.689
3.516 1.027 2.963
3.453 0.935 3.054
3.651 0.939 3.346
3.809 0.895 3.430
2.998 1.743 1.921
2.959 1.597 1.987
3.228 1.647 2.180
3.150 1.564 2.468
3.246 1.468 2.496
3.317 1.226 2.830
3.408 1.326 2.913
3.669 1.231 3.162
3.701 1.129 3.370
3.168 1.844 2.125
3.224 1.731 2.211
3.234 1.691 2.502
3.380 1.684 2.757
3.502 1.443 2.940
3.405 1.559 3.033
3.521 1.453 3.225
3.127 1.880 2.262
3.270 1.821 2.640
3.309 1.853 2.694
3.478 1.648 2.877
3.536 1.738 3.164
2.881 2.031 2.367
3.166 1.870 2.633
3.132 1.839 2.853
3.304 1.792 3.095
3.336 1.577 3.305
3.484 1.471 3.361
3.084 1.979 2.946
3.221 1.832 3.109
4.080 3.772 5.491
4.332 3.849 5.706
4.006 4.120 5.304
4.071 4.167 5.530
4.213 4.136 5.740
4.175 3.868 5.814
4.395 3.834 5.951
4.474 3.720 6.240
3.095 0.123 2.326
3.088 0.332 2.288
3.065 0.187 2.560
3.116 0.161 2.591
3.356 0.030 2.833
3.354 -0.083 3.089
2.864 0.595 1.870
2.835 0.701 2.062
3.048 0.612 2.329
3.033 0.516 2.513
3.128 0.291 2.700
3.311 0.260 2.935
3.425 0.205 3.025
3.500 0.186 3.435
3.606 0.140 3.454
2.723 1.029 1.758
2.795 0.894 2.016
2.974 0.935 2.266
3.104 0.754 2.376
3.045 0.621 2.698
3.252 0.522 2.768
3.291 0.482 2.971
3.410 0.340 3.219
3.477 0.338 3.338
3.647 0.382 3.592
3.660 0.193 3.889
2.806 1.264 1.927
2.990 1.172 2.151
2.891 0.967 2.295
3.112 1.068 2.428
3.238 0.805 2.628
3.236 0.881 2.806
3.238 0.823 3.015
3.408 0.637 3.261
3.388 0.492 3.580
3.514 0.393 3.596
2.853 1.480 2.007
3.007 1.304 2.096
3.111 1.142 2.406
2.978 1.252 2.632
3.271 1.182 2.886
3.310 0.992 2.988
3.282 0.957 3.128
3.479 0.827 3.412
3.471 0.764 3.540
2.801 1.673 2.013
2.902 1.472 2.277
3.068 1.398 2.500
3.015 1.353 2.679
3.125 1.273 2.776
3.174 1.305 3.013
3.449 1.094 3.229
3.414 1.043 3.328
3.520 0.960 3.685
2.861 1.915 2.259
2.947 1.715 2.250
2.959 1.692 2.509
3.135 1.563 2.706
3.121 1.517 2.933
3.332 1.514 3.219
3.338 1.381 3.361
3.530 1.229 3.562
3.053 2.067 2.460
3.076 1.959 2.670
3.071 1.722 2.840
3.275 1.721 3.005
3.423 1.678 3.271
3.404 1.663 3.308
2.674 1.910 2.592
2.765 1.827 2.678
2.876 1.872 2.850
3.104 1.711 3.056
3.175 1.590 3.342
3.167 1.516 3.437
3.185 1.528 3.735
2.799 2.158 2.689
3.007 2.047 3.046
3.130 1.999 3.235
3.076 1.758 3.303
3.215 1.762 3.619
3.776 3.984 5.150
3.938 3.894 5.391
4.066 3.803 5.741
4.163 3.759 5.791
4.070 3.597 5.938
3.811 4.248 5.197
3.909 4.256 5.439
3.854 4.097 5.568
3.927 3.943 5.822
4.132 4.019 5.912
4.070 3.952 6.198
2.714 0.223 2.459
2.874 0.215 2.649
3.021 0.159 2.865
3.148 0.104 2.864
3.113 -0.008 3.229
2.659 0.526 2.340
2.738 0.560 2.415
2.872 0.496 2.563
3.059 0.280 2.774
2.969 0.266 2.966
3.120 0.147 3.267
3.306 0.146 3.386
3.364 -0.025 3.500
2.612 0.912 2.113
2.815 0.905 2.308
2.917 0.798 2.595
3.034 0.727 2.763
3.069 0.547 2.907
3.138 0.531 3.088
3.156 0.462 3.375
3.209 0.405 3.464
3.251 0.343 3.615
3.488 0.188 3.876
2.684 1.077 2.134
2.834 0.985 2.457
2.888 0.971 2.494
2.981 0.808 2.884
3.109 0.706 3.018
3.161 0.825 3.229
3.193 0.540 3.299
3.345 0.457 3.503
3.430 0.369 3.841
2.631 1.438 2.139
2.666 1.409 2.359
2.801 1.284 2.518
2.926 1.061 2.706
3.062 1.065 2.946
3.107 1.074 2.955
3.150 0.850 3.329
3.248 0.931 3.481
3.217 0.685 3.534
3.397 0.790 3.767
2.643 1.532 2.284
2.831 1.466 2.391
2.728 1.421 2.597
2.987 1.376 2.669
2.989 1.291 2.878
3.090 1.161 3.228
3.132 1.155 3.408
3.135 1.034 3.423
3.422 1.006 3.607
2.821 1.765 2.408
2.872 1.757 2.679
2.882 1.680 2.758
3.047 1.457 3.034
3.117 1.444 3.269
3.279 1.350 3.471
3.229 1.311 3.590
2.716 1.860 2.524
2.791 1.918 2.759
2.845 1.711 2.940
2.995 1.799 3.109
3.153 1.663 3.402
3.101 1.646 3.494
3.179 1.542 3.673
2.637 1.922 2.632
2.637 1.872 2.842
2.671 1.708 3.076
2.740 1.649 3.277
2.898 1.648 3.320
2.912 1.547 3.561
3.044 1.540 3.863
2.586 2.074 2.908
2.725 1.957 3.069
2.858 1.896 3.301
2.843 1.728 3.383
3.048 1.846 3.591
3.052 1.614 3.912
2.874 2.304 3.104
2.869 2.029 3.273
2.994 2.081 3.536
3.046 2.025 3.770
3.487 3.702 5.293
3.595 3.687 5.374
3.738 3.602 5.680
3.747 3.506 5.759
3.614 3.931 5.058
3.572 3.965 5.319
3.647 3.917 5.580
3.741 3.720 5.790
3.773 3.818 5.922
3.869 3.530 6.100
3.570 4.306 5.151
3.604 4.178 5.427
3.787 4.162 5.498
3.737 4.105 5.740
3.833 3.877 5.967
3.857 3.895 6.165
2.706 0.141 2.746
2.861 0.174 2.829
2.736 0.159 2.953
2.543 0.412 2.598
2.807 0.442 2.803
2.837 0.448 2.946
2.868 0.220 3.194
2.936 0.137 3.244
3.023 0.129 3.585
3.186 -0.031 3.640
2.484 0.853 2.434
2.521 0.703 2.557
2.801 0.552 2.764
2.826 0.575 3.089
2.849 0.568 3.236
3.077 0.333 3.284
3.095 0.254 3.477
3.065 0.191 3.846
3.294 0.224 3.879
2.542 1.025 2.274
2.574 1.065 2.494
2.578 0.849 2.786
2.781 0.831 2.917
2.732 0.872 3.070
2.795 0.800 3.318
3.009 0.690 3.358
3.039 0.543 3.663
3.172 0.551 3.854
2.581 1.268 2.276
2.537 1.273 2.465
2.748 1.054 2.786
2.655 1.012 2.924
2.750 0.998 3.106
2.878 0.835 3.393
2.924 0.898 3.534
3.028 0.696 3.792
3.214 0.706 3.996
2.539 1.413 2.358
2.702 1.333 2.757
2.730 1.319 2.778
2.747 1.306 3.072
2.882 1.102 3.144
3.019 1.113 3.520
3.108 1.103 3.579
3.158 0.887 3.730
2.438 1.675 2.617
2.657 1.611 2.627
2.768 1.637 2.988
2.697 1.486 3.070
2.840 1.494 3.275
2.918 1.386 3.409
2.947 1.270 3.667
3.097 1.222 3.774
2.577 1.965 2.646
2.612 1.821 2.821
2.809 1.851 2.954
2.813 1.723 3.087
2.940 1.603 3.347
3.049 1.504 3.582
3.142 1.357 3.670
2.370 1.918 2.742
2.362 1.888 2.946
2.454 1.864 3.047
2.633 1.752 3.173
2.646 1.723 3.498
2.857 1.458 3.545
2.819 1.344 3.886
2.991 1.423 4.103
2.418 2.178 2.795
2.502 1.996 2.971
2.514 2.088 3.148
2.530 1.905 3.418
2.742 1.861 3.591
2.791 1.824 3.682
2.842 1.561 3.888
3.029 1.638 4.027
2.541 2.300 3.103
2.553 2.094 3.222
2.737 2.007 3.435
2.791 2.002 3.640
2.822 1.980 3.845
2.849 1.827 3.925
2.505 2.485 3.279
2.615 2.268 3.455
2.655 2.227 3.652
2.786 2.125 3.782
3.027 2.025 3.975
2.689 2.549 3.773
2.885 2.318 3.867
3.326 3.296 5.161
3.321 3.163 5.344
3.275 3.509 5.025
3.355 3.451 5.315
3.389 3.479 5.442
3.588 3.325 5.569
3.515 3.313 5.767
3.187 3.731 5.204
3.396 3.655 5.409
3.518 3.738 5.491
3.453 3.657 5.725
3.538 3.419 6.003
3.632 3.440 6.208
3.319 4.166 5.036
3.259 3.960 5.210
3.349 3.924 5.347
3.437 3.943 5.667
3.544 3.850 5.901
3.621 3.657 6.040
3.743 3.563 6.305
3.220 4.351 5.066
3.248 4.126 5.337
3.413 4.044 5.448
3.528 4.032 5.663
3.544 4.032 5.830
3.719 3.869 6.103
3.761 3.870 6.257
2.579 0.187 3.019
2.645 0.081 3.144
2.504 0.435 2.767
2.572 0.402 3.080
2.753 0.229 3.303
2.824 0.142 3.282
2.842 0.198 3.509
2.943 0.096 3.694
2.320 0.726 2.758
2.418 0.634 2.790
2.682 0.605 2.980
2.600 0.548 3.284
2.864 0.399 3.542
2.840 0.348 3.644
3.017 0.173 3.748
2.446 0.969 2.507
2.336 0.891 2.748
2.486 0.755 2.894
2.527 0.771 3.137
2.732 0.743 3.276
2.889 0.584 3.565
2.888 0.555 3.699
2.890 0.556 3.968
2.419 1.108 2.754
2.364 1.193 2.833
2.598 1.082 3.075
2.586 0.967 3.133
2.776 0.985 3.475
2.901 0.929 3.678
2.838 0.700 3.875
2.288 1.561 2.480
2.446 1.376 2.764
2.553 1.361 2.964
2.633 1.367 3.168
2.581 1.086 3.240
2.699 1.006 3.484
2.808 1.026 3.686
2.915 1.015 3.844
2.430 1.829 2.700
2.463 1.613 2.847
2.532 1.503 2.940
2.647 1.429 3.287
2.646 1.429 3.278
2.736 1.304 3.480
2.807 1.215 3.842
2.978 1.257 3.969
2.447 2.034 2.664
2.495 1.957 2.803
2.435 1.798 3.169
2.722 1.746 3.327
2.708 1.627 3.358
2.793 1.456 3.693
2.898 1.402 3.851
2.872 1.427 4.105
2.173 2.015 2.725
2.151 1.762 2.898
2.409 1.687 3.070
2.381 1.764 3.362
2.585 1.512 3.614
2.591 1.462 3.826
2.554 1.487 4.004
2.681 1.379 4.109
2.144 2.182 2.827
2.274 2.025 2.959
2.231 1.986 3.191
2.456 1.843 3.484
2.499 1.838 3.539
2.534 1.758 3.784
2.569 1.552 3.944
2.838 1.564 4.305
2.189 2.249 3.049
2.280 2.231 3.353
2.380 2.200 3.600
2.526 1.989 3.702
2.665 2.053 3.859
2.755 1.798 4.064
2.682 1.702 4.200
2.370 2.424 3.124
2.334 2.351 3.389
2.367 2.212 3.487
2.521 2.241 3.689
2.533 2.127 4.050
2.751 2.007 4.268
2.831 2.066 4.371
2.474 2.581 3.401
2.565 2.470 3.555
2.530 2.505 3.902
2.640 2.417 3.978
2.765 2.185 4.276
2.872 2.237 4.543
2.436 2.678 3.630
2.698 2.687 3.959
2.728 2.501 4.081
2.678 2.480 4.415
2.817 2.390 4.499
2.709 2.762 4.250
2.709 2.756 4.452
2.818 2.717 4.529
2.851 2.576 4.738
2.911 2.908 4.494
2.967 2.877 4.594
2.996 2.646 4.827
2.888 3.199 4.553
2.864 3.118 4.687
2.989 2.907 5.028
3.094 2.834 5.136
2.884 3.287 4.885
2.928 3.262 5.010
3.090 3.169 5.180
3.246 3.074 5.468
3.290 2.999 5.663
3.032 3.534 4.922
3.104 3.358 5.057
3.125 3.333 5.231
3.265 3.306 5.446
3.235 3.237 5.599
3.401 2.971 5.845
3.068 3.664 4.952
2.956 3.630 5.124
3.234 3.558 5.464
3.319 3.335 5.520
3.370 3.443 5.738
3.373 3.290 5.979
3.469 3.146 6.108
3.049 3.963 5.153
3.075 3.797 5.193
3.208 3.719 5.483
3.330 3.612 5.626
3.307 3.529 5.783
3.487 3.537 5.904
3.583 3.492 6.193
2.991 4.040 5.219
2.998 3.923 5.379
3.135 3.843 5.446
3.251 3.889 5.771
3.393 3.884 6.000
3.437 3.618 6.085
3.430 3.665 6.352
3.071 4.251 5.200
3.165 4.143 5.290
3.133 4.091 5.667
3.320 4.003 5.696
3.329 3.916 5.957
3.375 3.910 6.055
2.363 0.301 3.184
2.538 0.214 3.450
2.673 0.206 3.674
2.721 -0.011 3.804
2.308 0.521 3.078
2.461 0.472 3.190
2.386 0.513 3.282
2.477 0.290 3.581
2.549 0.354 3.697
2.167 0.865 2.898
2.356 0.895 3.118
2.400 0.791 3.231
2.458 0.644 3.351
2.640 0.571 3.671
2.645 0.606 3.884
2.106 1.256 2.846
2.270 1.170 2.838
2.247 1.098 3.120
2.430 0.991 3.430
2.613 0.827 3.502
2.520 0.835 3.788
2.741 0.721 3.816
2.306 1.347 2.805
2.350 1.429 3.104
2.279 1.200 3.245
2.541 1.096 3.321
2.587 1.118 3.594
2.510 0.996 3.765
2.666 0.928 3.988
2.201 1.718 2.634
2.112 1.652 2.816
2.400 1.531 3.191
2.290 1.370 3.275
2.403 1.458 3.456
2.571 1.324 3.719
2.542 1.196 3.752
2.728 1.201 3.999
2.262 1.813 2.732
2.201 1.882 3.009
2.258 1.732 3.062
2.486 1.663 3.414
2.379 1.502 3.637
2.498 1.504 3.741
2.745 1.391 3.943
2.694 1.271 4.126
2.050 1.900 2.952
2.073 1.875 3.022
2.095 1.786 3.340
2.239 1.728 3.492
2.386 1.541 3.624
2.314 1.610 3.828
2.438 1.427 3.914
2.508 1.465 4.236
1.946 2.119 3.036
1.961 2.055 3.163
2.034 1.896 3.292
2.248 1.910 3.621
2.374 1.899 3.703
2.322 1.714 3.847
2.372 1.571 3.990
2.633 1.591 4.269
1.884 2.398 3.061
2.150 2.302 3.312
2.075 2.118 3.469
2.284 2.001 3.521
2.427 2.061 3.713
2.456 2.004 3.886
2.471 1.901 4.251
2.516 1.852 4.273
2.027 2.472 3.268
2.105 2.294 3.486
2.367 2.210 3.760
2.449 2.159 3.854
2.370 2.188 3.998
2.563 2.117 4.300
2.508 2.078 4.472
2.022 2.758 3.350
2.090 2.665 3.616
2.287 2.586 3.746
2.394 2.517 3.977
2.436 2.257 4.041
2.621 2.345 4.417
2.564 2.227 4.607
2.693 2.092 4.681
2.238 2.688 3.557
2.407 2.647 3.885
2.490 2.547 3.912
2.383 2.585 4.117
2.665 2.393 4.348
2.541 2.425 4.649
2.712 2.341 4.757
2.306 2.833 3.805
2.496 2.909 4.203
2.538 2.839 4.224
2.526 2.627 4.373
2.622 2.579 4.671
2.757 2.609 4.913
2.777 2.352 5.134
2.434 3.099 4.259
2.526 3.047 4.446
2.707 2.827 4.551
2.650 2.901 4.704
2.808 2.830 4.905
2.946 2.638 5.193
2.909 2.521 5.247
2.614 3.243 4.554
2.530 3.098 4.623
2.607 3.119 4.780
2.727 2.875 5.074
2.847 2.986 5.171
3.043 2.759 5.294
3.018 2.780 5.644
2.718 3.272 4.790
2.654 3.319 4.855
2.903 3.130 5.031
2.891 3.064 5.284
3.060 2.952 5.550
2.998 2.850 5.684
3.169 2.884 5.841
2.742 3.544 4.725
2.735 3.499 4.942
2.875 3.281 5.088
2.982 3.296 5.391
3.074 3.203 5.606
2.980 3.070 5.670
3.250 3.131 5.859
3.173 2.938 6.239
2.702 3.723 5.094
2.852 3.506 5.245
2.988 3.520 5.530
3.104 3.471 5.737
3.058 3.337 5.888
3.267 3.256 6.065
3.329 3.120 6.193
2.696 3.975 5.114
2.865 3.848 5.367
2.961 3.720 5.533
3.064 3.666 5.755
3.148 3.573 5.814
3.316 3.500 6.151
2.784 4.101 5.157
2.972 4.082 5.351
2.994 3.978 5.609
2.970 3.882 5.696
3.201 3.779 5.938
3.332 3.621 6.125
2.923 4.338 5.254
2.994 4.257 5.444
3.105 4.205 5.760
3.050 4.055 5.811
3.172 3.969 6.084
3.170 3.853 6.268
2.179 0.753 3.321
2.299 0.733 3.561
2.084 1.024 2.951
2.232 1.148 3.125
2.143 0.911 3.486
2.315 0.983 3.490
2.471 0.884 3.884
2.075 1.373 2.804
2.042 1.289 3.048
2.162 1.316 3.364
2.138 1.149 3.443
2.216 1.077 3.646
2.423 1.099 3.803
1.971 1.792 2.817
1.973 1.570 2.982
2.121 1.440 3.196
2.141 1.438 3.350
2.201 1.287 3.454
2.243 1.275 3.672
2.491 1.234 3.912
2.413 1.179 4.183
1.837 2.011 2.832
2.114 1.846 2.957
2.095 1.643 3.329
2.205 1.614 3.421
2.223 1.571 3.557
2.306 1.618 3.816
2.465 1.376 3.976
2.607 1.339 4.141
1.776 1.826 3.029
1.879 1.726 3.141
1.960 1.806 3.437
1.921 1.675 3.489
2.119 1.477 3.762
2.195 1.573 3.810
2.353 1.431 4.188
1.871 2.170 3.097
1.868 1.984 3.294
1.838 1.967 3.331
2.087 1.814 3.688
2.161 1.742 3.881
2.134 1.608 4.016
2.314 1.527 4.101
2.331 1.449 4.441
1.802 2.207 3.046
1.921 2.277 3.318
1.907 2.099 3.506
2.022 2.180 3.705
2.024 1.953 3.906
2.140 1.851 4.038
2.191 1.882 4.206
2.274 1.728 4.556
1.796 2.571 3.127
1.907 2.394 3.275
1.877 2.348 3.630
2.142 2.338 3.652
2.041 2.216 3.980
2.266 2.109 4.179
2.326 2.110 4.351
2.485 2.072 4.495
2.520 1.867 4.646
1.798 2.773 3.348
1.955 2.726 3.534
1.881 2.498 3.622
2.143 2.571 3.764
2.125 2.379 4.097
2.159 2.316 4.111
2.292 2.304 4.450
2.462 2.086 4.606
2.477 2.156 4.786
1.841 2.795 3.548
2.080 2.872 3.750
2.149 2.785 3.923
2.265 2.588 4.152
2.298 2.552 4.388
2.337 2.556 4.585
2.449 2.453 4.779
2.581 2.257 4.957
2.670 2.128 5.151
2.072 3.080 3.812
2.045 2.901 4.037
2.143 2.758 4.218
2.232 2.846 4.357
2.296 2.692 4.624
2.532 2.654 4.676
2.487 2.583 5.037
2.595 2.471 5.180
2.629 2.342 5.353
2.193 3.155 4.008
2.154 3.147 4.263
2.229 2.998 4.528
2.501 2.795 4.672
2.531 2.815 4.865
2.583 2.683 4.933
2.543 2.718 5.265
2.618 2.604 5.376
2.722 2.458 5.679
2.348 3.211 4.292
2.228 3.178 4.446
2.475 3.062 4.726
2.455 3.109 5.016
2.491 2.953 5.140
2.755 2.832 5.262
2.807 2.887 5.418
2.915 2.786 5.777
2.879 2.667 5.767
2.281 3.440 4.569
2.387 3.267 4.823
2.579 3.259 4.891
2.610 3.206 5.220
2.788 2.976 5.365
2.828 2.906 5.534
2.864 2.839 5.790
2.829 2.788 5.931
2.952 2.827 6.186
2.439 3.436 4.984
2.467 3.440 4.982
2.711 3.262 5.284
2.773 3.297 5.377
2.807 3.298 5.538
2.761 3.038 5.945
3.048 2.989 5.974
3.061 3.044 6.330
2.495 3.691 4.994
2.487 3.658 5.100
2.619 3.470 5.235
2.635 3.437 5.619
2.880 3.402 5.669
2.928 3.401 5.872
2.983 3.154 6.080
2.542 3.964 5.113
2.604 3.784 5.392
2.829 3.647 5.548
2.818 3.586 5.861
2.938 3.508 6.050
3.099 3.557 6.140
2.558 3.975 5.401
2.743 3.945 5.571
2.783 3.869 5.765
2.916 3.905 5.894
2.878 3.703 6.137
2.969 3.711 6.232
2.667 4.137 5.638
2.867 4.181 5.820
2.963 4.024 5.904
2.944 4.061 6.177
1.825 1.426 3.240
1.842 1.178 3.307
1.929 1.099 3.628
2.154 1.136 3.868
1.753 1.691 3.162
1.955 1.451 3.332
1.885 1.545 3.490
2.101 1.274 3.652
2.124 1.232 3.850
2.257 1.113 4.017
1.733 1.846 2.979
1.791 1.776 3.214
2.006 1.835 3.298
2.058 1.602 3.514
2.099 1.601 3.673
2.089 1.536 3.956
2.275 1.436 4.005
1.516 1.921 2.942
1.637 1.834 3.204
1.729 1.636 3.503
1.755 1.665 3.707
1.937 1.472 3.794
2.034 1.432 3.980
1.982 1.389 4.289
1.543 2.089 3.007
1.598 1.942 3.357
1.675 1.848 3.600
1.837 1.953 3.640
1.789 1.855 3.790
1.955 1.791 4.020
2.155 1.530 4.282
1.487 2.305 2.906
1.611 2.323 3.218
1.557 2.272 3.406
1.784 2.117 3.500
1.728 1.975 3.794
2.000 2.094 3.884
1.968 1.817 4.163
2.120 1.939 4.311
2.116 1.803 4.521
1.522 2.494 3.163
1.608 2.598 3.169
1.716 2.330 3.386
1.711 2.300 3.719
1.810 2.351 3.776
2.022 2.118 4.019
2.014 2.056 4.302
2.155 2.124 4.318
2.262 1.995 4.620
2.246 1.878 4.820
1.670 2.767 3.362
1.770 2.715 3.637
1.869 2.508 3.812
1.930 2.550 3.921
2.005 2.477 4.070
2.010 2.324 4.366
2.214 2.143 4.572
2.306 2.213 4.685
2.209 2.083 4.917
1.590 2.821 3.442
1.723 2.794 3.723
1.771 2.707 3.750
1.926 2.670 3.937
1.948 2.540 4.290
2.160 2.635 4.415
2.224 2.406 4.664
2.152 2.479 4.820
2.298 2.360 4.860
2.403 2.314 5.067
1.695 3.060 3.708
1.919 2.889 3.821
2.000 2.959 3.970
1.939 2.766 4.275
2.128 2.738 4.359
2.074 2.578 4.620
2.328 2.582 4.840
2.379 2.585 4.933
2.421 2.454 5.204
2.544 2.461 5.400
1.834 3.193 3.865
2.033 3.154 4.074
1.975 3.031 4.303
2.104 2.882 4.454
2.246 2.789 4.685
2.173 2.889 4.908
2.254 2.741 5.170
2.545 2.717 5.227
2.535 2.675 5.569
2.708 2.551 5.677
2.667 2.422 5.986
1.982 3.190 4.517
2.077 3.073 4.513
2.100 3.194 4.771
2.302 3.098 5.001
2.456 2.882 5.219
2.424 2.845 5.438
2.510 2.716 5.664
2.596 2.759 5.723
2.813 2.630 6.041
2.899 2.521 6.124
2.096 3.405 4.730
2.329 3.322 4.827
2.219 3.227 5.122
2.357 3.245 5.249
2.489 3.010 5.451
2.475 2.940 5.714
2.748 2.884 5.911
2.787 2.771 6.029
2.834 2.783 6.141
2.185 3.566 4.893
2.219 3.488 5.054
2.373 3.459 5.408
2.525 3.290 5.574
2.613 3.098 5.798
2.707 3.108 5.971
2.852 3.019 6.223
2.229 3.726 4.931
2.330 3.673 5.257
2.351 3.605 5.401
2.629 3.377 5.690
2.545 3.466 5.779
2.707 3.230 5.917
2.675 3.323 6.087
2.375 3.879 5.314
2.443 3.799 5.534
2.617 3.726 5.683
2.724 3.589 5.806
2.813 3.496 6.075
2.884 3.420 6.235
2.486 3.922 5.590
2.511 3.892 5.688
2.737 3.755 6.062
2.777 3.730 6.141
2.595 4.088 5.597
2.488 4.013 5.740
2.647 4.130 6.037
2.779 3.864 6.132
1.707 1.556 3.144
1.628 1.436 3.378
1.821 1.356 3.545
1.873 1.311 3.744
1.892 1.380 3.905
1.441 1.986 2.995
1.580 1.907 3.151
1.804 1.621 3.398
1.688 1.682 3.610
1.977 1.549 3.824
1.877 1.411 4.066
2.022 1.343 4.148
1.398 1.954 3.184
1.321 1.859 3.268
1.422 1.725 3.616
1.667 1.644 3.613
1.699 1.630 3.817
1.639 1.502 4.162
1.326 2.141 2.943
1.272 2.103 3.089
1.497 2.082 3.353
1.592 2.033 3.679
1.614 1.836 3.831
1.696 1.786 4.053
1.843 1.724 4.175
1.803 1.644 4.279
1.181 2.425 3.035
1.350 2.184 3.174
1.470 2.306 3.496
1.530 2.140 3.691
1.540 2.019 3.896
1.772 1.982 4.035
1.895 1.968 4.234
1.969 1.899 4.494
1.861 1.697 4.608
1.238 2.552 3.124
1.416 2.533 3.247
1.565 2.417 3.625
1.515 2.436 3.666
1.673 2.224 3.870
1.818 2.103 4.115
1.881 2.142 4.300
1.984 1.970 4.403
1.954 2.030 4.800
1.378 2.742 3.153
1.301 2.750 3.389
1.590 2.618 3.564
1.474 2.557 3.922
1.650 2.392 3.951
1.643 2.335 4.193
1.809 2.344 4.406
1.888 2.329 4.607
2.028 2.152 4.766
2.109 1.974 4.865
1.358 3.034 3.208
1.422 2.829 3.579
1.425 2.856 3.652
1.647 2.718 3.841
1.609 2.660 4.101
1.795 2.639 4.182
1.918 2.428 4.417
1.957 2.390 4.676
2.023 2.390 4.793
2.036 2.386 5.125
2.298 2.258 5.323
1.475 3.026 3.683
1.622 2.945 3.710
1.634 2.968 3.874
1.732 2.833 4.107
1.813 2.925 4.370
1.829 2.807 4.599
1.980 2.738 4.835
2.055 2.645 4.916
2.212 2.431 5.061
2.182 2.395 5.318
2.290 2.263 5.459
2.273 2.165 5.685
1.637 3.178 3.955
1.630 2.992 4.347
1.714 2.961 4.361
1.973 2.912 4.521
2.054 2.911 4.828
2.041 2.860 4.996
2.225 2.635 5.273
2.267 2.681 5.499
2.394 2.650 5.577
2.382 2.417 5.793
2.422 2.469 6.050
1.722 3.336 4.428
1.826 3.306 4.603
1.842 3.214 4.734
1.885 2.994 4.782
2.059 3.006 5.010
2.099 2.934 5.198
2.157 2.916 5.527
2.436 2.775 5.623
2.309 2.735 5.943
2.478 2.682 6.129
2.682 2.546 6.169
1.838 3.349 4.878
2.078 3.392 5.081
2.186 3.294 5.054
2.266 3.201 5.397
2.206 3.143 5.541
2.277 3.004 5.774
2.464 3.001 5.998
2.519 2.820 6.072
1.942 3.563 4.941
2.039 3.455 5.266
2.291 3.279 5.392
2.184 3.288 5.689
2.481 3.227 5.792
2.452 3.150 5.950
2.488 2.971 6.105
2.122 3.540 5.360
2.326 3.508 5.464
2.373 3.572 5.814
2.436 3.502 5.895
2.583 3.303 6.198
2.556 3.310 6.220
2.213 3.928 5.313
2.227 3.668 5.635
2.261 3.770 5.756
2.317 3.631 5.892
2.411 3.453 6.265
2.347 3.933 5.578
2.381 3.797 5.843
2.342 3.864 6.001
2.413 3.761 6.182
2.318 4.099 5.917
2.443 4.027 6.218
1.493 1.445 3.400
1.475 1.508 3.721
1.218 1.916 3.017
1.332 1.859 3.399
1.398 1.691 3.517
1.625 1.690 3.760
1.668 1.629 3.889
1.856 1.421 4.032
6.175 2.484 0.486
6.249 2.969 0.386
6.233 3.184 0.292
6.275 3.092 0.399
6.096 3.455 0.238
6.185 3.396 0.436
6.132 3.656 0.205
6.243 3.690 0.440
6.217 3.564 0.595
6.067 3.891 0.194
6.046 3.826 0.186
6.171 3.830 0.510
6.005 4.010 0.185
6.026 4.106 0.106
6.104 4.050 0.451
6.244 4.106 0.573
6.159 4.278 0.162
6.133 4.281 0.189
6.258 4.380 0.480
5.886 4.440 0.068
5.983 4.278 0.222
6.051 4.652 0.096
5.981 4.866 -0.066
6.064 5.069 0.045
6.166 3.423 6.010
6.165 3.630 6.203
6.158 0.118 5.963
5.964 3.442 6.103
6.045 3.612 6.356
6.030 0.095 6.103
6.055 0.074 6.237
0.063 4.733 0.877
0.212 4.712 1.136
0.203 4.520 1.229
-0.048 4.844 0.903
0.023 4.787 1.287
0.108 4.725 1.403
0.298 4.662 1.529
-0.035 5.189 1.041
0.228 5.014 1.279
0.195 5.048 1.399
0.264 4.908 1.725
0.031 5.380 1.180
0.236 5.200 1.397
0.233 5.226 1.579
0.308 5.049 1.680
0.030 5.548 1.128
0.154 5.584 1.163
0.251 5.414 1.449
0.289 5.353 1.716
0.380 5.236 1.736
0.117 5.945 1.163
0.201 5.877 1.426
0.271 5.742 1.506
0.221 5.550 1.734
-0.038 5.985 1.245
0.187 5.888 1.496
0.252 5.822 1.678
0.035 4.549 1.502
0.043 4.758 1.408
0.013 4.717 1.755
-0.009 4.922 1.605
0.103 4.933 1.663
0.016 5.197 1.642
0.079 5.012 1.819
0.052 5.378 1.779
0.163 5.202 1.822
-0.024 5.791 1.645
0.043 5.534 1.707
0.261 5.448 1.912
-0.020 5.819 1.720
0.003 5.802 1.801
5.115 6.133 0.093
5.029 6.209 0.225
4.747 6.225 -0.005
4.669 6.292 0.180
4.402 6.253 0.101
4.659 6.096 0.355
4.343 6.151 0.201
4.420 6.115 0.464
4.147 6.124 0.240
4.215 6.083 0.555
3.836 6.135 0.493
3.852 6.178 0.693
3.704 6.312 0.417
3.622 6.225 0.592
3.439 6.348 0.296
3.455 6.099 0.655
3.435 6.031 0.744
3.056 6.344 0.502
3.211 6.140 0.554
3.217 6.039 0.944
2.953 6.270 0.522
3.069 6.280 0.812
3.149 6.061 0.873
2.720 6.256 0.592
2.816 6.166 0.838
2.802 6.046 0.975
2.489 6.278 0.709
2.502 6.109 0.920
2.706 6.135 1.090
2.240 6.302 0.758
2.498 6.183 1.078
2.526 6.266 1.303
2.088 6.260 0.796
2.092 6.190 1.031
1.924 6.386 0.763
1.944 6.263 0.942
1.510 6.271 0.943
1.604 6.191 1.075
1.348 6.211 0.933
1.591 6.110 1.242
1.174 6.335 0.960
1.334 6.261 1.233
0.973 6.133 1.114
1.011 6.176 1.274
0.847 6.315 1.107
0.588 6.215 1.282
0.203 6.175 1.103
5.348 6.175 0.243
4.961 6.128 0.398
5.147 5.946 0.633
5.294 5.851 0.831
4.785 6.053 0.543
4.860 5.927 0.721
4.937 5.962 0.818
5.183 5.791 0.978
4.879 6.194 0.658
5.112 6.178 0.971
5.006 5.828 1.374
4.579 6.122 0.463
4.784 6.034 0.667
4.700 6.029 0.815
4.871 5.846 1.014
4.907 5.767 1.191
4.835 6.284 0.883
4.742 6.082 1.008
4.826 6.124 1.240
4.862 6.235 1.341
4.664 5.862 1.422
4.476 6.002 0.563
4.617 5.999 0.786
4.559 5.870 1.053
4.791 5.897 1.278
4.738 5.666 1.470
4.824 5.962 1.523
4.494 6.122 0.955
4.590 6.158 1.074
4.775 6.170 1.365
4.865 6.048 1.430
4.852 6.124 1.538
4.783 6.182 1.425
4.882 6.097 1.493
4.551 5.843 1.415
4.337 6.092 0.605
4.378 6.018 0.990
4.497 5.816 1.049
4.571 5.803 1.182
4.607 5.793 1.533
4.505 6.031 1.639
4.321 6.186 1.052
4.365 6.052 1.074
4.598 6.151 1.344
4.567 6.053 1.548
4.500 6.290 1.718
4.571 6.269 1.471
4.622 6.123 1.679
4.429 5.853 1.441
6.225 4.069 5.703
6.186 4.005 5.707
3.970 6.121 0.717
4.139 5.920 0.949
4.273 5.977 1.093
4.353 5.937 1.349
4.323 5.672 1.634
4.432 5.902 1.518
6.094 4.313 5.596
6.134 4.242 5.919
3.986 6.186 0.834
4.013 6.102 1.046
4.123 6.081 1.242
4.282 6.148 1.403
4.487 5.992 1.730
4.432 6.177 1.596
4.457 5.992 1.843
6.065 4.589 5.660
6.216 4.360 5.950
4.243 6.218 1.540
4.358 6.221 1.696
6.252 4.679 5.917
6.349 4.593 6.074
5.821 4.042 5.660
5.907 3.901 5.838
6.139 3.971 5.986
3.785 5.993 0.884
3.907 5.960 0.996
3.887 5.891 1.357
4.064 5.795 1.397
4.178 5.875 1.804
5.966 4.464 5.574
5.857 4.284 5.852
5.959 4.322 6.051
6.157 4.094 6.176
3.861 6.175 1.017
3.869 6.252 1.196
4.101 6.103 1.344
4.072 6.026 1.515
4.169 5.996 1.656
4.189 6.116 1.893
4.260 5.977 1.884
5.945 4.658 5.695
5.978 4.494 5.895
6.106 4.513 6.080
6.190 4.380 6.327
4.103 6.173 1.498
4.150 6.052 1.726
5.915 4.696 5.883
6.095 4.544 6.007
5.911 5.008 5.936
6.031 4.953 6.219
6.048 5.031 6.207
5.525 4.209 5.520
5.802 4.152 5.871
5.842 3.964 5.999
5.943 4.014 6.157
3.628 6.130 0.917
3.800 5.916 1.082
3.837 5.844 1.383
3.854 5.801 1.551
3.899 5.906 1.765
5.742 4.379 5.738
5.824 4.239 5.810
5.832 4.129 6.044
5.832 4.088 6.183
3.648 6.160 1.124
3.784 6.196 1.269
3.856 6.029 1.503
3.783 5.944 1.625
3.895 6.029 1.721
4.035 6.088 1.773
5.695 4.646 5.647
5.721 4.499 5.993
5.778 4.424 6.104
3.965 6.151 1.587
3.895 6.257 1.794
3.997 6.375 2.252
5.624 4.727 5.696
5.831 4.714 6.013
5.761 4.550 6.177
5.708 5.055 5.957
5.767 5.005 6.180
5.818 4.866 6.345
5.911 5.218 6.093
5.485 4.070 5.600
5.536 4.058 5.894
5.496 4.083 5.955
5.712 3.996 6.157
3.422 5.941 1.001
3.592 5.848 1.184
3.474 5.865 1.386
5.467 4.339 5.574
5.489 4.454 5.659
5.423 4.204 6.016
5.692 4.114 6.227
3.422 6.288 1.046
3.571 6.143 1.381
3.480 6.000 1.500
3.571 6.054 1.713
3.871 6.042 2.000
5.403 4.574 5.697
5.459 4.620 5.816
5.532 4.578 5.915
5.555 4.484 6.115
3.667 6.189 1.800
3.813 6.069 2.004
3.779 6.278 2.181
5.433 4.865 5.703
5.453 4.778 5.852
5.640 4.689 6.149
5.579 4.700 6.314
5.463 5.006 5.725
5.500 4.924 6.023
5.642 5.010 6.055
5.497 5.212 5.953
5.667 5.094 6.157
5.212 4.189 5.597
5.256 4.024 5.656
5.330 4.024 6.010
5.337 3.871 6.128
3.123 5.936 1.108
3.268 5.893 1.249
5.076 4.418 5.401
5.154 4.499 5.711
5.135 4.391 5.774
5.376 4.152 6.021
5.508 4.216 6.274
3.116 6.134 1.277
3.266 6.162 1.474
3.421 5.979 1.491
5.159 4.594 5.564
5.084 4.666 5.778
5.181 4.553 5.887
5.239 4.481 6.162
3.343 6.238 1.753
3.374 6.235 1.927
4.911 5.018 5.370
5.135 4.966 5.574
5.227 4.785 5.867
5.177 4.824 6.017
5.331 4.614 6.113
5.139 5.215 5.431
