1.666 2.786 5.592
0.499 3.719 5.974
0.394 3.747 5.797
0.692 3.637 5.720
0.744 3.403 5.657
1.070 3.251 5.522
1.113 3.112 5.509
1.287 2.908 5.394
0.406 3.873 5.833
0.413 3.880 5.600
0.576 3.682 5.562
0.775 3.442 5.440
0.916 3.322 5.294
1.176 3.156 5.272
0.353 3.750 5.578
0.270 3.818 5.301
0.403 3.683 5.260
0.733 3.525 5.268
0.369 3.848 5.349
0.235 3.927 4.770
0.135 3.882 4.863
0.142 3.950 4.651
0.168 4.002 4.551
-0.049 3.870 4.306
0.027 4.026 4.329
0.121 3.509 1.221
-0.034 3.425 0.898
0.271 3.256 0.844
0.145 3.349 0.567
1.892 2.516 6.250
1.308 3.127 6.296
1.559 2.829 6.177
1.660 2.760 6.037
1.879 2.619 5.977
1.520 3.192 6.265
1.749 3.146 6.085
1.861 2.995 6.022
2.051 2.722 6.089
0.665 3.928 6.218
0.863 3.848 6.266
1.190 3.548 6.153
1.227 3.363 6.111
1.499 3.340 6.039
1.675 3.124 5.914
1.871 3.038 5.832
0.707 3.871 6.245
0.864 3.750 5.882
1.011 3.572 5.914
1.217 3.496 5.847
1.330 3.342 5.712
1.569 3.124 5.605
1.015 3.655 5.569
1.219 3.569 5.501
1.346 3.356 5.589
0.061 4.137 3.131
-0.023 4.022 2.482
0.140 3.970 2.028
-0.067 3.828 1.713
0.194 3.674 1.578
0.169 3.820 1.370
0.222 3.659 1.386
0.012 3.801 1.201
0.170 3.599 1.123
0.484 3.490 1.043
0.247 3.682 0.796
0.355 3.466 0.875
0.572 3.270 0.661
0.107 3.624 0.710
0.259 3.517 0.522
0.526 3.402 0.531
2.110 2.686 6.327
1.614 3.330 6.202
1.647 3.062 6.113
1.899 2.937 6.078
2.100 2.730 5.992
1.580 3.621 6.358
1.612 3.474 6.200
1.839 3.275 6.115
2.034 3.065 5.985
2.213 3.028 6.053
1.121 4.034 6.080
1.343 3.805 6.120
1.414 3.661 6.106
1.643 3.535 5.961
1.786 3.293 5.804
1.989 3.136 5.761
1.380 3.666 5.841
1.493 3.540 5.762
-0.017 4.516 3.345
0.094 4.451 3.273
0.112 4.303 2.782
-0.047 4.370 2.641
0.259 4.214 2.517
0.065 4.212 2.305
0.371 4.091 2.220
0.022 4.215 2.045
0.270 4.050 1.962
0.386 3.924 1.827
0.031 4.270 1.791
0.243 4.195 1.666
0.352 3.966 1.716
0.541 3.734 1.654
0.095 4.178 1.429
0.241 3.904 1.377
0.517 3.883 1.246
0.618 3.624 1.219
-0.027 4.123 1.306
0.218 4.028 1.120
0.463 3.876 1.170
0.557 3.666 0.987
0.829 3.447 0.928
0.182 4.079 1.002
0.247 3.918 0.842
0.461 3.661 0.754
0.749 3.452 0.712
0.023 4.078 0.664
0.303 3.870 0.669
0.368 3.790 0.564
0.654 3.482 0.403
2.236 2.918 6.220
1.561 3.687 6.180
1.607 3.387 6.201
1.811 3.222 6.216
2.075 3.213 6.072
2.291 2.972 6.005
1.597 3.877 6.165
1.841 3.566 6.229
2.047 3.417 6.136
2.258 3.305 6.092
2.451 3.141 5.938
1.573 3.876 6.079
1.724 3.728 5.971
2.024 3.578 5.925
2.089 3.324 5.784
0.098 4.747 3.340
0.221 4.671 3.042
0.235 4.621 3.165
0.106 4.654 2.938
0.294 4.472 2.778
0.135 4.757 2.834
-0.065 4.684 2.653
0.140 4.486 2.617
0.306 4.412 2.434
-0.058 4.733 2.535
0.059 4.577 2.222
0.328 4.491 2.262
0.546 4.257 2.192
0.047 4.551 2.123
0.178 4.419 2.081
0.333 4.249 2.009
0.605 4.086 1.868
0.858 3.951 1.745
0.224 4.515 1.676
0.351 4.316 1.712
0.566 4.175 1.605
0.740 3.958 1.457
0.956 3.794 1.528
0.122 4.430 1.577
0.266 4.323 1.385
0.374 4.250 1.299
0.583 3.989 1.244
0.748 3.765 1.195
0.956 3.678 1.161
1.151 3.579 1.101
-0.029 4.455 1.190
0.205 4.347 1.171
0.326 4.196 1.143
0.602 3.935 1.055
0.789 3.905 0.985
0.895 3.677 0.945
1.042 3.606 0.773
0.072 4.387 1.041
0.346 4.212 0.872
0.568 3.970 0.862
0.643 3.879 0.811
0.816 3.790 0.614
1.020 3.598 0.542
0.116 4.447 0.659
0.313 4.204 0.644
0.384 4.058 0.521
0.596 3.978 0.534
0.815 3.787 0.484
0.970 3.582 0.314
2.235 3.258 6.252
2.486 3.062 6.278
2.729 2.961 6.162
1.598 3.829 6.212
1.795 3.633 6.252
2.085 3.515 6.112
2.271 3.294 6.116
2.400 3.098 5.883
1.763 3.985 6.293
2.075 3.742 6.221
2.226 3.745 6.127
2.355 3.587 5.948
2.515 3.330 5.952
2.162 3.680 5.916
0.095 5.135 3.482
0.164 5.093 3.156
0.221 4.883 2.874
0.122 5.008 2.812
0.237 4.798 2.899
0.158 4.867 2.508
0.426 4.692 2.440
-0.042 5.033 2.583
0.136 4.920 2.567
0.108 4.964 2.303
0.357 4.701 2.206
0.470 4.523 2.188
0.615 4.409 2.057
0.076 4.968 2.342
0.028 4.914 2.087
0.185 4.758 2.104
0.446 4.588 1.959
0.527 4.457 1.893
0.699 4.359 1.820
0.956 4.124 1.742
0.042 4.953 2.155
0.143 4.751 1.710
0.403 4.597 1.763
0.590 4.478 1.593
0.733 4.268 1.517
0.859 4.216 1.550
1.080 4.082 1.444
1.201 3.834 1.423
1.450 3.593 1.318
0.017 4.831 1.509
0.219 4.757 1.566
0.430 4.571 1.501
0.650 4.289 1.392
0.734 4.180 1.356
1.039 3.941 1.146
1.105 3.876 1.110
1.421 3.728 1.129
1.549 3.499 1.029
-0.047 4.799 1.330
0.226 4.636 1.172
0.308 4.555 1.186
0.585 4.335 1.154
0.676 4.296 0.967
0.832 4.049 1.047
1.056 3.851 0.918
1.230 3.772 0.883
1.394 3.626 0.756
1.536 3.476 0.686
0.056 4.686 1.069
0.223 4.604 0.912
0.530 4.482 0.856
0.678 4.203 0.855
0.799 4.153 0.815
1.043 3.860 0.671
1.254 3.690 0.523
1.459 3.551 0.550
0.114 4.827 0.791
0.140 4.517 0.677
0.409 4.411 0.588
0.674 4.210 0.532
0.692 4.144 0.558
0.945 3.918 0.441
1.100 3.809 0.300
1.322 3.532 0.198
2.462 3.548 6.185
2.675 3.382 6.187
2.784 3.122 6.170
1.833 3.943 6.160
2.056 3.827 6.163
2.242 3.598 6.068
2.328 3.459 5.980
2.613 3.329 5.974
2.180 3.997 6.140
2.378 3.898 5.960
2.475 3.687 6.007
2.644 3.557 5.970
2.932 3.444 5.819
-0.020 5.455 3.407
0.069 5.315 3.106
0.105 5.436 2.988
0.230 5.148 2.888
0.416 5.095 2.492
2.861 2.755 1.591
0.185 5.172 2.616
0.381 5.026 2.479
0.256 5.127 2.367
0.531 4.939 2.213
0.701 4.713 2.172
2.654 3.020 1.340
2.841 2.826 1.426
0.133 5.241 2.442
0.226 5.113 2.406
0.267 5.110 2.088
0.333 5.024 1.982
0.492 4.842 1.915
0.706 4.679 1.874
0.978 4.475 1.881
1.111 4.345 1.806
2.347 3.233 1.286
2.515 3.117 1.151
2.662 2.922 1.050
0.068 5.216 2.217
0.128 5.225 2.059
0.070 5.237 1.767
0.344 4.972 1.840
0.420 4.831 1.746
0.636 4.604 1.628
0.804 4.546 1.648
1.006 4.335 1.441
1.162 4.141 1.437
1.425 4.060 1.379
1.524 3.946 1.199
1.822 3.707 1.161
1.996 3.585 1.193
2.086 3.411 1.112
2.232 3.290 0.981
2.399 3.031 0.982
2.554 2.872 0.866
0.122 5.190 1.840
0.020 5.274 1.636
0.222 4.987 1.619
0.506 4.893 1.519
0.660 4.644 1.430
0.819 4.492 1.261
0.876 4.355 1.177
1.128 4.261 1.209
1.316 4.022 1.135
1.520 3.881 1.026
1.759 3.698 0.905
1.871 3.543 0.939
1.955 3.369 0.848
2.199 3.181 0.749
0.035 5.125 1.569
0.209 4.965 1.346
0.345 4.880 1.187
0.446 4.758 1.204
0.760 4.530 1.129
0.951 4.427 0.948
1.077 4.189 1.026
1.163 4.098 0.925
1.397 3.861 0.873
1.638 3.761 0.648
1.840 3.620 0.689
1.901 3.422 0.512
0.117 5.159 0.992
0.342 4.908 0.985
0.512 4.728 0.976
0.707 4.571 0.878
0.866 4.405 0.857
1.024 4.242 0.789
1.118 4.025 0.615
1.376 3.993 0.608
1.497 3.800 0.422
1.676 3.595 0.393
1.963 3.384 0.385
0.004 5.094 0.829
0.217 5.032 0.792
0.346 4.763 0.712
0.509 4.656 0.516
0.691 4.471 0.608
0.975 4.262 0.391
1.124 4.190 0.462
1.276 3.916 0.410
1.499 3.879 0.232
1.561 3.666 0.229
2.579 3.637 6.158
2.792 3.538 6.131
3.002 3.267 5.995
3.117 3.208 5.949
2.124 4.049 6.167
2.365 3.876 6.123
2.512 3.637 5.925
2.793 3.614 5.883
2.809 3.385 5.865
2.546 3.961 6.006
2.642 3.969 5.950
2.848 3.757 5.886
2.999 3.511 5.866
3.316 3.394 5.688
3.174 2.904 2.073
0.187 5.673 3.162
2.858 3.213 1.856
3.168 3.034 1.809
0.113 5.812 2.992
0.229 5.633 2.900
2.576 3.348 1.769
2.906 3.088 1.651
2.943 2.972 1.622
0.088 5.564 2.736
0.292 5.428 2.623
2.402 3.488 1.527
2.616 3.433 1.536
2.741 3.128 1.373
2.950 2.981 1.236
0.021 5.616 2.416
0.169 5.520 2.437
0.370 5.381 2.012
0.632 5.146 2.015
1.653 4.189 1.640
1.736 3.980 1.411
1.929 3.909 1.414
2.181 3.714 1.380
2.340 3.486 1.239
2.590 3.329 1.252
2.758 3.148 1.182
2.894 3.148 1.024
-0.076 5.689 2.276
0.197 5.537 2.104
0.439 5.271 2.024
0.384 5.267 1.838
0.455 5.120 1.779
0.579 5.022 1.706
0.913 4.811 1.642
0.953 4.771 1.550
1.188 4.550 1.424
1.417 4.329 1.388
1.584 4.279 1.359
1.782 3.996 1.231
1.892 3.973 1.135
2.002 3.722 1.138
2.310 3.569 0.960
2.473 3.348 0.923
2.639 3.164 0.895
2.821 3.164 0.752
0.077 5.604 1.877
0.210 5.300 1.838
0.161 5.319 1.560
0.336 5.263 1.489
0.644 5.027 1.501
0.708 4.881 1.393
0.903 4.712 1.302
1.082 4.512 1.174
1.295 4.448 1.149
1.532 4.210 1.029
1.725 4.118 0.943
1.750 3.983 0.936
2.055 3.763 0.932
2.118 3.538 0.756
2.316 3.464 0.818
2.484 3.294 0.726
2.670 3.024 0.555
0.207 5.390 1.618
0.339 5.218 1.237
0.496 5.052 1.130
0.674 4.934 1.033
0.874 4.840 1.014
1.038 4.573 0.947
1.252 4.479 0.986
1.323 4.311 0.852
1.666 4.168 0.846
1.721 4.023 0.783
1.870 3.720 0.662
2.091 3.632 0.475
2.284 3.439 0.466
2.411 3.265 0.405
0.434 5.077 1.036
0.657 5.032 0.959
0.860 4.829 0.829
0.999 4.667 0.654
1.246 4.452 0.689
1.275 4.223 0.595
1.494 4.068 0.472
1.752 4.001 0.412
1.883 3.814 0.393
1.976 3.640 0.287
2.171 3.491 0.328
0.586 4.945 0.649
0.729 4.803 0.638
0.991 4.595 0.451
1.129 4.553 0.441
1.217 4.339 0.321
1.439 4.152 0.333
1.710 4.040 0.195
1.797 3.915 0.108
2.015 3.763 0.087
2.540 3.967 6.242
2.846 3.838 6.110
2.862 3.640 6.203
3.074 3.598 6.116
3.370 3.378 5.923
3.459 3.185 5.828
2.482 3.995 6.098
2.782 3.885 5.941
2.886 3.684 5.930
3.115 3.554 5.741
3.174 3.371 5.762
2.692 4.317 5.985
2.842 4.093 5.913
3.099 3.924 5.769
3.269 3.736 5.703
3.471 3.518 5.778
3.627 3.411 5.728
3.075 3.751 5.592
3.471 3.122 2.170
3.130 3.235 2.010
3.352 3.166 1.972
0.099 6.108 3.223
2.818 3.536 1.979
3.132 3.300 1.761
3.219 3.129 1.796
-0.043 6.039 3.075
0.244 5.900 2.918
2.692 3.636 1.713
2.758 3.565 1.748
3.003 3.369 1.582
3.252 3.264 1.501
0.045 6.019 2.798
2.376 3.914 1.484
2.612 3.682 1.544
2.749 3.509 1.403
2.835 3.405 1.283
3.155 3.168 1.351
0.055 6.029 2.530
1.738 4.305 1.466
1.937 4.255 1.396
2.201 4.118 1.387
2.256 3.845 1.368
2.519 3.738 1.280
2.639 3.644 1.174
2.805 3.366 1.055
3.042 3.254 0.989
1.374 4.813 1.356
1.542 4.626 1.398
1.697 4.354 1.245
1.899 4.233 1.158
2.001 3.996 1.168
2.166 3.898 1.139
2.425 3.724 1.103
2.518 3.562 0.987
2.827 3.458 0.947
3.042 3.302 0.823
0.846 5.013 1.351
1.077 4.923 1.233
1.209 4.700 1.221
1.509 4.668 1.075
1.551 4.445 0.991
1.889 4.343 0.949
1.949 4.170 0.912
2.168 3.971 0.770
2.326 3.771 0.796
2.568 3.622 0.761
2.632 3.550 0.632
2.903 3.275 0.556
0.816 5.194 1.122
0.948 5.020 1.049
1.201 4.809 0.954
1.418 4.611 0.801
1.616 4.431 0.730
1.786 4.246 0.741
1.931 4.125 0.653
2.028 3.904 0.578
2.350 3.834 0.573
2.488 3.709 0.385
2.657 3.484 0.330
2.786 3.308 0.329
0.763 5.100 0.911
1.033 4.985 0.834
1.119 4.896 0.703
1.411 4.655 0.613
1.413 4.426 0.590
1.677 4.260 0.520
1.942 4.251 0.475
2.056 4.047 0.430
2.193 3.914 0.306
2.336 3.730 0.288
2.505 3.490 0.168
0.877 5.039 0.573
1.117 4.858 0.532
1.275 4.695 0.337
1.459 4.485 0.283
1.646 4.293 0.202
1.876 4.267 0.175
2.053 4.066 0.125
2.079 3.867 -0.010
2.798 4.273 6.263
2.863 4.025 6.143
3.050 3.900 6.108
3.203 3.650 6.074
3.449 3.494 5.950
3.569 3.358 5.922
3.855 3.326 5.837
2.734 4.264 5.972
2.890 4.003 5.941
3.041 3.978 5.806
3.143 3.799 5.854
3.451 3.595 5.763
3.584 3.440 5.564
3.095 4.181 5.812
3.125 4.031 5.863
3.392 3.973 5.710
3.650 3.739 5.763
3.752 3.685 5.545
3.932 3.541 5.545
3.073 4.058 5.676
3.367 3.915 5.451
3.531 3.853 5.391
3.755 3.596 5.364
3.677 3.297 2.458
3.296 3.443 2.242
3.521 3.372 2.200
3.291 3.585 2.082
3.492 3.345 2.027
2.992 3.659 1.854
3.235 3.473 1.897
3.486 3.360 1.820
0.109 6.189 2.980
2.828 3.819 1.628
2.939 3.670 1.565
3.141 3.500 1.561
3.270 3.375 1.466
2.559 4.040 1.559
2.679 3.927 1.382
2.909 3.751 1.377
3.046 3.547 1.259
3.302 3.433 1.216
2.052 4.385 1.371
2.239 4.263 1.315
2.508 4.088 1.310
2.709 3.928 1.224
2.754 3.788 1.206
3.040 3.518 1.001
3.250 3.506 1.005
1.629 4.742 1.275
1.951 4.588 1.190
2.013 4.359 1.262
2.277 4.233 1.115
2.426 4.146 1.074
2.613 3.955 1.049
2.719 3.871 0.951
2.873 3.539 0.938
3.172 3.380 0.818
1.524 5.037 1.239
1.585 4.769 1.055
1.733 4.688 1.010
2.043 4.460 1.024
2.193 4.314 0.895
2.297 4.076 0.902
2.598 3.928 0.706
2.671 3.870 0.606
2.880 3.675 0.552
3.058 3.540 0.531
1.151 5.114 0.981
1.348 5.015 0.879
1.606 4.748 0.946
1.745 4.571 0.744
1.873 4.460 0.695
2.106 4.400 0.724
2.319 4.091 0.496
2.506 3.985 0.565
2.542 3.918 0.506
2.793 3.630 0.338
2.920 3.491 0.275
1.212 5.141 0.773
1.241 5.080 0.644
1.470 4.888 0.658
1.582 4.718 0.618
1.794 4.603 0.448
1.994 4.403 0.356
2.118 4.276 0.412
2.405 4.069 0.304
2.508 3.850 0.255
2.733 3.686 0.219
2.936 3.545 0.101
1.074 5.104 0.534
1.217 4.980 0.479
1.397 4.942 0.364
1.514 4.731 0.312
1.735 4.598 0.222
1.975 4.338 0.213
2.186 4.153 0.062
2.303 4.007 -0.021
2.949 4.452 6.287
3.041 4.162 6.105
3.283 4.107 5.980
3.527 3.920 5.951
3.638 3.691 6.004
3.848 3.665 5.794
3.923 3.414 5.875
4.220 3.179 5.782
2.978 4.189 5.978
3.257 4.179 5.880
3.407 3.863 5.701
3.530 3.827 5.767
3.727 3.655 5.705
3.958 3.510 5.468
3.181 4.536 5.891
3.330 4.258 5.798
3.586 4.055 5.799
3.756 3.889 5.613
3.828 3.853 5.552
4.055 3.628 5.545
4.221 3.519 5.521
3.364 4.398 5.641
3.503 4.134 5.445
3.569 4.084 5.460
3.890 3.756 5.436
4.086 3.604 5.346
3.404 4.147 5.188
3.507 4.046 5.131
3.768 3.937 5.158
3.876 3.372 2.664
3.528 3.685 2.458
3.789 3.464 2.354
3.527 3.750 2.296
3.648 3.529 2.177
3.254 3.928 2.097
3.467 3.768 1.948
3.594 3.446 2.010
3.267 3.890 1.875
3.328 3.705 1.795
3.542 3.575 1.663
2.999 4.073 1.711
3.147 3.956 1.577
3.290 3.775 1.615
3.408 3.589 1.397
2.650 4.324 1.553
2.939 4.034 1.377
3.097 3.903 1.339
3.196 3.764 1.394
3.490 3.579 1.204
2.424 4.473 1.322
2.641 4.278 1.360
2.901 4.048 1.159
2.957 3.980 1.207
3.179 3.829 1.073
3.274 3.668 0.984
2.005 4.822 1.218
2.253 4.679 1.218
2.333 4.409 1.040
2.623 4.383 1.080
2.799 4.215 1.019
2.933 4.007 0.839
3.104 3.866 0.735
3.236 3.616 0.818
1.845 5.053 1.021
2.017 4.768 0.926
2.230 4.671 0.872
2.350 4.466 0.800
2.522 4.379 0.837
2.705 4.121 0.733
2.914 3.930 0.591
3.003 3.857 0.516
3.145 3.646 0.568
1.463 5.143 0.871
1.643 5.089 0.748
1.909 4.869 0.708
2.156 4.715 0.659
2.274 4.438 0.566
2.462 4.389 0.641
2.674 4.204 0.489
2.771 4.001 0.469
2.991 3.911 0.282
3.217 3.634 0.321
1.488 5.206 0.698
1.646 5.051 0.533
1.803 4.803 0.530
2.046 4.778 0.413
2.269 4.564 0.460
2.394 4.417 0.334
2.463 4.218 0.283
2.760 4.062 0.243
2.868 3.885 0.081
3.154 3.687 -0.033
1.445 5.217 0.458
1.517 4.981 0.434
1.734 4.812 0.303
1.906 4.776 0.165
2.093 4.538 0.055
2.291 4.403 0.085
2.410 4.215 -0.042
3.135 4.651 6.168
3.233 4.438 6.183
3.461 4.257 5.980
3.558 4.032 5.992
3.714 3.915 5.974
3.991 3.753 5.822
4.239 3.672 5.763
4.366 3.446 5.779
4.519 3.370 5.582
3.198 4.451 5.803
3.330 4.301 5.810
3.611 4.123 5.749
3.697 3.977 5.715
3.849 3.817 5.512
4.025 3.663 5.449
4.275 3.559 5.492
3.399 4.690 5.878
3.486 4.517 5.745
3.713 4.403 5.689
3.949 4.140 5.612
4.141 3.988 5.482
4.299 3.901 5.415
4.485 3.720 5.494
3.295 4.654 5.619
3.502 4.507 5.553
3.581 4.348 5.407
3.860 4.156 5.416
4.072 3.953 5.380
4.252 3.924 5.212
4.269 3.685 5.161
3.361 4.566 5.362
3.481 4.352 5.280
3.792 4.193 5.201
3.894 4.004 5.162
4.029 3.903 5.006
4.192 3.716 4.906
3.691 4.237 4.834
3.872 4.036 4.865
4.042 3.870 4.741
4.160 3.656 2.834
3.881 3.832 2.686
4.036 3.715 2.605
3.802 3.881 2.435
3.863 3.740 2.320
3.563 4.011 2.305
3.652 3.880 2.319
3.838 3.714 2.199
3.408 3.977 2.031
3.563 3.798 1.975
3.739 3.748 1.858
3.442 4.123 1.756
3.571 3.873 1.794
3.688 3.709 1.651
3.157 4.333 1.627
3.266 4.093 1.577
3.412 3.993 1.523
3.580 3.729 1.507
2.876 4.409 1.497
3.128 4.250 1.505
3.267 4.170 1.314
3.402 4.010 1.274
3.624 3.830 1.178
2.646 4.693 1.381
2.745 4.520 1.248
2.941 4.271 1.156
3.074 4.132 1.057
3.381 4.067 0.950
3.596 3.872 0.995
2.312 4.796 1.096
2.631 4.685 1.126
2.725 4.411 1.046
2.921 4.281 0.974
3.075 4.199 0.889
3.286 3.950 0.876
3.431 3.832 0.763
2.181 5.066 0.989
2.390 4.835 0.918
2.508 4.709 0.755
2.620 4.606 0.841
2.813 4.418 0.705
3.106 4.164 0.602
3.122 4.083 0.565
3.340 3.926 0.417
1.892 5.180 0.802
1.995 5.040 0.794
2.287 4.934 0.676
2.341 4.699 0.580
2.653 4.597 0.466
2.722 4.314 0.420
2.885 4.247 0.426
3.114 3.998 0.306
3.359 3.828 0.310
1.833 5.225 0.593
2.050 4.985 0.518
2.142 4.928 0.387
2.372 4.773 0.306
2.496 4.495 0.360
2.662 4.477 0.175
2.935 4.293 0.123
3.135 4.089 0.122
3.261 3.900 0.005
1.728 5.201 0.399
1.916 5.003 0.203
2.141 5.000 0.218
2.265 4.729 0.096
2.445 4.601 0.117
3.456 4.642 6.085
3.587 4.395 5.939
3.693 4.226 5.871
3.972 4.133 5.937
4.118 3.884 5.794
4.344 3.841 5.794
4.419 3.674 5.704
4.662 3.574 5.552
3.389 4.694 5.891
3.555 4.474 5.720
3.701 4.252 5.625
3.969 4.178 5.574
4.113 4.023 5.508
4.299 3.923 5.458
4.370 3.729 5.473
3.581 4.771 5.768
3.685 4.713 5.713
3.905 4.477 5.765
4.090 4.313 5.581
4.292 4.106 5.486
4.461 3.972 5.468
4.527 3.842 5.397
4.717 3.690 5.387
3.520 4.925 5.535
3.547 4.785 5.517
3.785 4.581 5.424
3.937 4.344 5.287
4.210 4.170 5.258
4.354 4.069 5.245
4.496 3.921 5.092
4.732 3.696 5.038
3.605 4.729 5.319
3.752 4.619 5.120
3.985 4.347 5.087
4.015 4.227 5.100
4.318 4.037 4.988
4.358 3.830 4.895
3.725 4.660 4.900
3.859 4.405 4.951
4.003 4.349 4.893
4.156 4.173 4.715
4.438 4.009 4.673
3.810 4.440 4.575
3.918 4.266 4.504
4.105 4.123 4.511
4.352 3.887 4.450
3.937 4.239 4.262
4.086 4.088 4.197
4.192 3.916 4.163
4.246 3.899 3.737
4.397 3.689 3.641
4.256 3.853 3.473
4.316 3.787 3.370
4.193 3.910 3.191
4.323 3.783 3.189
4.149 3.989 2.999
4.207 3.839 2.806
4.007 3.914 2.636
4.157 3.843 2.606
3.747 4.138 2.590
3.919 4.074 2.395
4.033 3.942 2.407
3.685 4.286 2.227
3.820 4.116 2.296
3.989 3.819 2.092
3.668 4.228 2.048
3.809 4.045 2.028
3.961 3.976 1.895
3.503 4.323 1.871
3.669 4.098 1.663
3.911 3.842 1.750
3.267 4.470 1.545
3.471 4.368 1.649
3.570 4.036 1.493
3.760 3.901 1.404
3.172 4.536 1.378
3.387 4.275 1.375
3.575 4.094 1.324
3.715 3.951 1.228
2.892 4.722 1.187
3.191 4.509 1.115
3.284 4.355 1.030
3.469 4.205 1.003
3.718 3.963 1.012
2.674 4.918 0.971
2.976 4.647 0.934
3.114 4.489 0.844
3.235 4.389 0.757
3.470 4.248 0.857
3.593 4.052 0.648
2.462 4.980 0.837
2.734 4.804 0.825
2.742 4.765 0.828
3.081 4.500 0.615
3.202 4.407 0.657
3.283 4.200 0.527
3.537 4.095 0.524
2.186 5.186 0.746
2.382 5.125 0.677
2.499 4.973 0.617
2.759 4.822 0.500
2.989 4.563 0.466
3.202 4.343 0.430
3.372 4.325 0.282
3.469 4.168 0.164
2.155 5.300 0.403
2.302 5.144 0.336
2.466 4.998 0.363
2.658 4.791 0.191
2.823 4.590 0.154
2.991 4.457 0.124
3.198 4.202 0.100
1.883 5.356 0.298
2.086 5.320 0.205
2.228 5.037 0.150
2.525 4.899 0.016
2.686 4.799 0.098
3.555 4.741 6.120
3.770 4.633 6.070
3.975 4.568 5.941
4.086 4.406 5.891
4.304 4.078 5.717
4.463 3.998 5.635
4.716 3.765 5.656
4.815 3.643 5.583
3.525 4.925 5.774
3.680 4.690 5.664
3.780 4.551 5.704
4.057 4.261 5.615
4.232 4.126 5.533
4.428 4.098 5.494
4.634 3.839 5.317
4.681 3.747 5.324
3.587 5.035 5.790
3.856 4.849 5.804
4.107 4.709 5.583
4.212 4.508 5.643
4.393 4.383 5.599
4.534 4.129 5.401
4.806 4.102 5.363
4.967 3.832 5.357
3.626 5.125 5.481
3.809 4.824 5.535
4.023 4.728 5.359
4.084 4.526 5.362
4.321 4.410 5.349
4.568 4.175 5.205
4.642 4.089 5.098
4.830 3.976 5.055
3.619 5.149 5.343
3.707 4.833 5.238
3.978 4.787 5.149
4.143 4.610 5.089
4.312 4.361 4.982
4.389 4.206 4.983
4.652 4.162 4.939
4.856 3.888 4.740
3.608 4.983 5.069
3.754 4.819 4.918
3.986 4.677 4.946
4.254 4.422 4.781
4.300 4.312 4.703
4.521 4.107 4.743
4.666 3.939 4.630
3.760 4.767 4.626
3.968 4.604 4.603
4.123 4.485 4.497
4.253 4.368 4.402
4.412 4.117 4.379
4.649 3.983 4.345
3.839 4.738 4.470
3.961 4.521 4.399
4.300 4.300 4.197
4.458 4.269 4.173
4.610 4.021 4.023
4.731 3.917 4.098
4.033 4.464 4.146
4.204 4.431 3.922
4.315 4.139 3.915
4.464 4.037 3.920
4.629 3.973 3.852
4.082 4.336 3.827
4.283 4.216 3.719
4.430 4.078 3.622
4.666 4.001 3.621
4.041 4.464 3.483
4.222 4.279 3.460
4.307 4.106 3.379
4.550 3.859 3.308
4.163 4.272 3.146
4.233 4.187 3.170
4.493 4.023 3.002
3.970 4.267 2.919
4.283 4.064 2.980
4.471 4.016 2.794
3.932 4.255 2.808
4.126 4.255 2.748
4.260 4.070 2.680
3.820 4.389 2.437
4.022 4.163 2.336
4.266 3.971 2.360
3.805 4.334 2.213
3.994 4.180 2.228
4.120 4.018 2.110
3.747 4.356 2.046
4.025 4.293 1.898
4.131 4.090 1.928
3.712 4.374 1.825
3.935 4.357 1.699
4.000 4.055 1.685
3.699 4.441 1.555
3.884 4.304 1.539
3.921 4.132 1.462
3.538 4.522 1.282
3.818 4.307 1.276
3.908 4.235 1.067
3.322 4.684 1.107
3.411 4.599 1.122
3.591 4.298 1.019
3.758 4.288 0.836
3.196 4.626 0.799
3.486 4.486 0.834
3.597 4.402 0.729
3.775 4.194 0.603
2.894 5.128 0.854
2.930 4.969 0.636
3.163 4.727 0.615
3.359 4.656 0.642
3.579 4.401 0.423
2.499 5.245 0.585
2.700 5.077 0.583
2.990 4.987 0.392
3.154 4.809 0.386
3.231 4.568 0.411
3.542 4.403 0.283
2.310 5.490 0.452
2.547 5.230 0.294
2.738 5.136 0.247
2.878 4.977 0.212
3.082 4.711 0.194
3.200 4.679 0.127
3.341 4.527 0.040
2.242 5.507 0.290
2.360 5.320 0.077
2.524 5.182 -0.023
3.689 4.983 5.950
3.868 4.892 6.049
4.092 4.665 5.927
4.234 4.473 5.833
4.392 4.348 5.709
4.673 4.246 5.603
4.813 3.939 5.538
5.006 3.824 5.590
3.664 5.060 5.813
3.898 4.827 5.691
3.985 4.775 5.700
4.226 4.456 5.653
4.440 4.438 5.557
4.502 4.293 5.496
4.729 4.051 5.383
4.848 3.919 5.228
3.834 5.300 5.730
4.024 5.137 5.763
4.248 4.972 5.545
4.301 4.751 5.475
4.622 4.651 5.554
4.758 4.358 5.467
4.969 4.161 5.267
5.018 4.162 5.241
3.686 5.180 5.517
3.864 4.999 5.428
4.191 4.876 5.410
4.306 4.805 5.267
4.532 4.552 5.285
4.612 4.458 5.258
4.868 4.323 5.159
5.085 4.188 4.951
3.739 5.319 5.366
3.825 5.082 5.293
3.981 4.917 5.071
4.160 4.781 4.993
4.371 4.670 5.086
4.567 4.436 4.916
4.699 4.287 4.900
4.858 4.110 4.737
3.613 5.354 5.085
3.761 5.170 4.889
4.046 4.947 4.908
4.111 4.740 4.850
4.420 4.577 4.714
4.450 4.548 4.628
4.681 4.234 4.610
4.824 4.140 4.481
4.993 4.025 4.460
3.765 5.248 4.820
3.882 4.957 4.756
4.066 4.784 4.514
4.199 4.610 4.568
4.507 4.538 4.521
4.669 4.287 4.424
4.788 4.224 4.279
5.002 4.112 4.237
3.794 5.104 4.365
4.020 4.914 4.402
4.239 4.736 4.308
4.354 4.530 4.234
4.612 4.310 4.151
4.692 4.251 4.021
4.932 4.057 4.028
3.866 4.866 4.185
4.078 4.731 3.971
4.301 4.535 4.059
4.412 4.324 3.957
4.723 4.191 3.786
4.811 4.131 3.786
4.112 4.798 3.844
4.245 4.599 3.677
4.339 4.459 3.683
4.576 4.210 3.574
4.832 4.126 3.450
3.993 4.727 3.547
4.120 4.702 3.415
4.337 4.387 3.403
4.528 4.208 3.382
4.755 4.149 3.376
4.146 4.613 3.300
4.248 4.567 3.238
4.507 4.302 3.124
4.568 4.086 2.964
4.149 4.560 3.005
4.465 4.292 2.853
4.597 4.157 2.892
4.119 4.582 2.743
4.242 4.312 2.671
4.421 4.179 2.544
4.045 4.624 2.427
4.226 4.408 2.353
4.431 4.209 2.396
4.127 4.449 2.105
4.423 4.183 2.157
4.078 4.490 1.904
4.201 4.278 1.766
3.997 4.388 1.725
4.165 4.240 1.647
4.226 4.400 1.370
3.146 5.072 0.422
3.333 5.027 0.362
2.623 5.476 0.341
2.768 5.271 0.201
3.066 5.129 0.246
3.104 4.911 0.223
3.408 4.808 0.064
2.438 5.676 0.149
2.596 5.480 0.151
2.843 5.366 -0.002
3.955 5.227 5.960
4.039 5.078 5.955
4.281 4.947 5.796
4.417 4.729 5.841
4.617 4.470 5.742
4.719 4.349 5.638
4.987 4.166 5.549
3.759 5.265 5.708
3.930 5.135 5.646
4.233 4.928 5.709
4.287 4.772 5.640
4.479 4.652 5.457
4.773 4.428 5.412
4.883 4.284 5.322
5.042 4.131 5.242
4.049 5.352 5.657
4.170 5.317 5.732
4.361 5.054 5.570
4.489 4.961 5.477
4.797 4.757 5.527
4.907 4.518 5.384
5.020 4.450 5.267
3.945 5.482 5.585
4.058 5.284 5.485
4.286 5.182 5.367
4.398 4.987 5.284
4.620 4.734 5.261
4.751 4.662 5.181
5.012 4.532 5.168
5.132 4.261 4.935
3.704 5.638 5.320
3.882 5.516 5.267
3.951 5.276 5.121
4.164 5.218 5.036
4.353 4.949 5.007
4.657 4.799 5.070
4.778 4.687 4.874
4.970 4.501 4.888
5.022 4.377 4.812
3.629 5.632 5.001
3.783 5.553 5.065
4.047 5.248 4.905
4.164 5.073 4.953
4.393 5.075 4.731
4.500 4.909 4.726
4.645 4.670 4.632
4.887 4.583 4.516
4.992 4.423 4.532
5.177 4.116 4.465
3.669 5.593 4.845
3.982 5.404 4.800
4.117 5.202 4.727
4.337 4.941 4.499
4.474 4.780 4.436
4.696 4.789 4.481
4.794 4.557 4.272
5.018 4.380 4.215
5.185 4.174 4.284
3.879 5.373 4.431
3.962 5.131 4.431
4.224 5.087 4.394
4.356 4.916 4.272
4.519 4.786 4.182
4.702 4.521 4.182
4.886 4.469 3.979
5.107 4.212 3.947
3.859 5.225 4.141
4.112 5.034 4.170
4.270 4.912 4.104
4.503 4.773 3.875
4.631 4.580 3.901
4.792 4.405 3.863
4.920 4.232 3.703
3.985 5.161 3.867
4.274 4.944 3.757
4.483 4.697 3.754
4.500 4.630 3.581
4.815 4.542 3.582
5.023 4.322 3.565
4.124 4.967 3.558
4.256 4.859 3.544
4.503 4.636 3.321
4.639 4.562 3.276
4.840 4.368 3.303
4.332 4.874 3.175
4.400 4.635 3.147
4.597 4.539 3.020
4.797 4.262 3.095
4.279 4.878 2.921
4.358 4.770 2.933
4.473 4.507 2.815
4.815 4.435 2.812
4.217 4.653 2.660
4.413 4.594 2.558
4.693 4.435 2.605
4.479 4.600 2.412
4.511 4.427 2.316
4.414 4.682 2.066
4.598 4.480 2.048
4.492 4.527 1.882
2.739 5.675 0.064
2.913 5.492 -0.016
4.318 5.273 5.959
4.392 4.969 5.776
4.608 4.826 5.779
4.746 4.755 5.722
4.973 4.580 5.672
5.134 4.435 5.517
3.972 5.454 5.710
4.121 5.282 5.675
4.348 5.034 5.686
4.602 4.886 5.510
4.700 4.686 5.376
4.958 4.546 5.381
5.048 4.497 5.312
0.498 0.495 6.309
0.710 0.314 6.170
0.837 0.233 6.170
1.044 0.105 5.954
0.037 0.915 6.203
0.273 0.671 6.147
0.424 0.596 5.986
0.637 0.296 5.908
0.687 0.238 5.856
0.940 -0.020 5.852
0.215 0.811 5.847
0.345 0.634 5.773
0.566 0.368 5.766
0.613 0.280 5.645
0.951 0.005 5.592
0.031 0.824 5.648
0.191 0.555 5.529
0.440 0.390 5.416
0.659 0.254 5.406
0.716 0.049 5.260
0.022 0.733 5.395
0.122 0.630 5.344
0.447 0.508 5.125
0.482 0.226 5.083
0.647 0.167 5.041
0.051 0.701 4.971
0.267 0.497 5.021
0.400 0.310 4.824
0.666 0.234 4.774
0.009 0.629 4.723
0.271 0.572 4.793
0.355 0.351 4.723
0.622 0.114 4.650
0.836 0.108 4.494
0.133 0.612 4.441
0.412 0.312 4.432
0.571 0.144 4.406
0.729 0.119 4.265
0.223 0.482 4.212
0.436 0.323 4.174
0.538 0.155 4.012
0.397 0.203 3.883
0.489 0.109 3.751
0.497 0.041 3.475
0.419 0.168 3.291
0.489 0.053 2.955
1.128 -0.018 6.273
0.432 0.529 6.162
0.720 0.273 6.158
0.794 0.190 6.062
0.919 0.101 6.026
0.458 0.926 6.196
0.618 0.625 6.250
0.804 0.550 6.117
1.069 0.334 6.046
1.144 0.209 5.917
0.100 1.180 6.097
0.144 0.993 6.199
0.289 0.947 6.015
0.508 0.672 5.955
0.714 0.519 5.849
0.980 0.437 5.901
1.145 0.208 5.677
1.329 -0.004 5.708
0.183 1.060 5.931
0.308 0.929 5.737
0.465 0.778 5.674
0.727 0.685 5.687
0.820 0.445 5.658
0.969 0.205 5.576
1.281 0.106 5.421
0.054 1.027 5.544
0.198 0.945 5.542
0.413 0.706 5.464
0.583 0.708 5.387
0.817 0.535 5.380
1.037 0.223 5.330
1.085 0.170 5.162
0.146 1.006 5.368
0.267 0.749 5.178
0.517 0.722 5.158
0.790 0.490 5.076
0.801 0.291 5.058
1.083 0.144 4.913
1.299 0.080 4.891
0.035 0.948 5.039
0.262 0.865 4.970
0.457 0.686 4.905
0.564 0.465 4.804
0.857 0.438 4.829
1.022 0.174 4.749
1.148 0.051 4.736
0.037 1.071 4.883
0.294 0.859 4.835
0.424 0.616 4.670
0.523 0.489 4.580
0.662 0.332 4.581
0.878 0.149 4.470
1.020 0.013 4.430
0.142 0.804 4.444
0.306 0.693 4.474
0.434 0.603 4.356
0.622 0.353 4.411
0.842 0.158 4.288
0.968 0.029 4.264
0.492 0.536 4.140
0.596 0.442 4.012
0.698 0.325 4.039
0.876 0.085 4.003
0.495 0.368 3.813
0.677 0.262 3.780
0.856 0.129 3.776
0.610 0.392 3.496
0.760 0.186 3.530
0.761 0.156 3.219
0.851 0.074 3.152
0.853 0.068 2.836
0.435 0.896 6.238
0.682 0.698 6.160
0.772 0.482 6.055
1.075 0.390 6.101
1.196 0.134 5.993
0.538 1.047 6.218
0.763 0.953 6.270
1.033 0.652 6.145
-0.049 1.570 6.191
0.172 1.449 6.085
0.383 1.305 6.037
0.524 1.136 5.938
0.718 0.909 5.926
0.847 0.677 5.831
1.158 0.610 5.722
1.174 0.415 5.805
0.121 1.403 5.981
0.319 1.354 5.883
0.425 1.077 5.843
0.727 0.867 5.619
0.854 0.806 5.630
0.933 0.650 5.528
1.149 0.516 5.443
1.361 0.335 5.454
0.128 1.420 5.754
0.156 1.330 5.524
0.408 1.189 5.467
0.493 0.907 5.419
0.825 0.746 5.456
0.873 0.624 5.302
1.082 0.500 5.204
1.312 0.268 5.161
1.552 0.158 5.076
0.105 1.296 5.409
0.289 1.200 5.210
0.456 0.964 5.222
0.666 0.827 5.183
0.948 0.592 5.170
0.974 0.467 4.963
1.154 0.267 4.970
1.343 0.169 4.818
1.516 -0.031 4.763
0.075 1.278 5.073
0.309 1.201 5.013
0.451 1.012 4.945
0.664 0.868 4.854
0.842 0.709 4.844
0.999 0.515 4.745
1.075 0.450 4.778
1.316 0.215 4.640
1.442 0.006 4.538
0.031 1.336 4.802
0.163 1.191 4.757
0.319 1.005 4.799
0.578 0.884 4.692
0.775 0.659 4.582
0.841 0.565 4.456
1.031 0.428 4.516
1.240 0.268 4.458
1.354 0.118 4.353
0.035 1.280 4.555
0.378 1.031 4.460
0.453 0.854 4.363
0.570 0.668 4.308
0.897 0.567 4.213
1.080 0.341 4.156
1.146 0.224 4.152
1.426 0.094 4.050
0.554 0.867 4.152
0.696 0.569 4.042
0.909 0.387 3.961
1.183 0.301 3.916
1.383 0.146 3.757
0.788 0.570 3.732
0.968 0.386 3.752
1.317 0.176 3.530
0.905 0.276 3.441
1.169 0.257 3.329
1.152 0.166 3.135
0.663 0.981 6.336
0.829 0.900 6.241
1.044 0.758 6.043
0.712 1.208 6.168
0.863 1.165 6.202
0.144 1.728 6.246
0.298 1.653 6.133
0.449 1.464 6.048
0.789 1.340 6.067
0.849 1.124 5.899
1.009 0.892 5.789
1.184 0.778 5.732
0.048 1.749 5.932
0.352 1.568 5.901
0.539 1.376 5.783
0.719 1.296 5.829
0.800 1.151 5.746
1.067 0.991 5.557
1.124 0.744 5.492
1.298 0.701 5.417
0.071 1.761 5.694
0.223 1.602 5.676
0.379 1.489 5.648
0.620 1.368 5.462
0.742 1.237 5.510
0.857 1.085 5.430
1.035 0.777 5.272
1.366 0.708 5.203
0.046 1.590 5.454
0.401 1.605 5.375
0.453 1.436 5.258
0.740 1.140 5.199
0.779 1.054 5.202
1.060 0.800 4.998
1.126 0.621 4.982
1.453 0.465 4.950
0.133 1.743 5.106
0.235 1.587 5.096
0.439 1.433 5.059
0.689 1.265 4.985
0.737 1.111 4.865
0.900 0.934 4.885
1.101 0.671 4.715
1.297 0.512 4.597
1.433 0.427 4.655
1.606 0.296 4.517
0.108 1.570 4.818
0.273 1.415 4.797
0.483 1.212 4.775
0.630 1.170 4.627
0.905 0.968 4.659
1.117 0.768 4.525
1.328 0.655 4.407
1.379 0.428 4.299
1.547 0.198 4.357
0.363 1.360 4.585
0.445 1.244 4.544
0.673 1.065 4.329
0.765 1.013 4.316
1.008 0.849 4.346
1.104 0.533 4.148
1.352 0.518 4.056
1.553 0.268 3.971
1.070 0.698 3.951
1.242 0.512 3.902
1.550 0.298 3.877
1.296 0.465 3.684
1.327 0.341 3.609
1.354 0.408 3.420
0.852 1.274 6.161
1.026 1.004 6.180
1.852 0.118 4.187
1.636 0.203 3.975
1.668 0.236 3.773
1.585 0.178 3.451
1.712 -0.040 3.486
1.526 0.149 3.203
1.626 -0.009 3.275
1.417 0.293 3.118
1.677 0.089 2.966
1.522 0.037 2.698
1.934 0.368 3.934
1.997 0.233 3.903
2.260 0.062 3.830
1.760 0.426 3.739
2.021 0.196 3.597
2.185 0.050 3.655
1.686 0.369 3.498
1.927 0.197 3.499
2.170 0.067 3.308
1.639 0.358 3.316
1.873 0.232 3.178
1.948 0.117 3.111
1.770 0.304 2.962
1.935 0.143 2.833
1.811 0.136 2.710
2.311 0.277 3.730
2.611 0.040 3.756
2.235 0.363 3.541
2.353 0.270 3.479
2.564 -0.033 3.509
2.017 0.364 3.431
2.273 0.173 3.304
2.483 0.065 3.195
2.018 0.508 3.111
2.189 0.347 3.162
2.338 0.190 3.020
2.037 0.343 2.772
2.290 0.054 2.786
2.128 0.319 2.607
2.207 0.097 2.493
2.367 0.106 2.211
2.986 0.133 3.692
2.677 0.319 3.460
2.832 0.044 3.403
2.400 0.432 3.207
2.612 0.347 3.282
2.691 0.088 3.061
2.289 0.497 2.976
2.588 0.386 2.959
2.701 0.152 2.821
2.292 0.545 2.777
2.508 0.256 2.801
2.585 0.233 2.633
2.764 -0.019 2.555
2.311 0.269 2.526
2.630 0.217 2.477
2.720 0.004 2.412
2.468 0.162 2.194
2.599 0.111 2.157
2.674 0.064 1.931
3.296 0.083 3.594
3.047 0.270 3.303
3.101 0.052 3.212
2.733 0.481 3.161
2.904 0.345 3.081
3.096 0.083 3.030
2.720 0.418 2.873
2.895 0.326 2.908
3.087 0.240 2.802
3.191 0.053 2.695
2.614 0.561 2.753
2.792 0.399 2.732
3.005 0.116 2.497
3.084 -0.013 2.475
2.560 0.531 2.501
2.739 0.343 2.473
2.857 0.255 2.422
3.107 0.092 2.199
2.571 0.443 2.156
2.814 0.267 2.092
3.075 0.038 2.017
2.808 0.329 1.888
2.870 0.067 1.706
2.928 0.090 1.514
3.515 0.102 3.394
3.381 0.227 3.250
3.582 0.195 3.137
3.051 0.465 3.084
3.338 0.398 3.108
3.404 0.080 3.023
3.562 0.013 2.824
2.912 0.607 2.899
2.953 0.522 2.776
3.137 0.331 2.699
3.464 0.227 2.670
3.586 -0.049 2.662
2.706 0.626 2.711
3.013 0.581 2.565
3.140 0.345 2.542
3.343 0.170 2.473
3.508 0.114 2.434
2.777 0.818 2.472
2.870 0.596 2.297
3.016 0.373 2.224
3.209 0.202 2.243
3.516 0.032 2.247
2.825 0.522 2.166
2.974 0.506 2.062
3.211 0.239 1.985
3.376 0.142 1.924
2.739 0.676 1.897
3.004 0.371 1.761
3.067 0.307 1.706
3.210 0.151 1.677
2.881 0.409 1.629
2.969 0.372 1.544
3.239 0.206 1.501
2.997 0.296 1.342
3.073 0.166 1.124
3.362 -0.061 1.124
3.885 0.178 3.393
3.714 0.337 3.128
3.941 0.247 3.095
4.015 0.068 3.005
3.389 0.597 3.066
3.685 0.298 2.896
3.804 0.250 2.786
3.984 0.031 2.786
3.276 0.795 2.902
3.286 0.541 2.684
3.613 0.345 2.719
3.815 0.300 2.693
3.841 0.058 2.554
3.174 0.703 2.576
3.262 0.593 2.487
3.531 0.391 2.529
3.653 0.161 2.459
3.766 0.123 2.264
3.026 0.821 2.261
3.195 0.622 2.301
3.424 0.412 2.183
3.607 0.322 2.068
3.727 0.024 2.087
2.949 0.747 2.131
3.197 0.710 2.094
3.363 0.429 1.938
3.574 0.214 1.944
3.735 0.175 1.818
2.963 0.728 1.800
3.083 0.660 1.773
3.201 0.563 1.815
3.533 0.344 1.637
3.556 0.079 1.651
3.799 -0.085 1.499
2.788 0.894 1.611
2.995 0.692 1.648
3.181 0.567 1.414
3.328 0.279 1.394
3.484 0.101 1.295
3.736 0.116 1.277
2.959 0.743 1.405
3.070 0.543 1.321
3.390 0.410 1.127
3.539 0.244 1.061
3.674 -0.011 0.988
3.113 0.550 1.084
3.200 0.466 0.941
3.389 0.267 0.899
3.526 -0.003 0.732
3.406 0.246 0.587
3.532 0.187 0.591
3.495 0.123 0.391
3.355 0.181 0.089
4.518 -0.070 3.218
4.018 0.300 3.126
4.203 0.191 3.072
4.413 0.014 2.858
3.745 0.572 2.841
3.875 0.310 2.847
4.173 0.240 2.708
4.325 0.067 2.701
3.549 0.783 2.804
3.724 0.564 2.652
3.856 0.465 2.548
4.006 0.229 2.472
4.196 0.165 2.389
3.297 1.005 2.645
3.429 0.812 2.442
3.710 0.688 2.487
3.742 0.407 2.392
3.978 0.325 2.261
4.142 0.106 2.301
3.199 0.864 2.313
3.427 0.827 2.258
3.557 0.556 2.225
3.765 0.504 2.113
3.857 0.223 2.094
4.152 0.149 2.014
4.302 0.043 1.634
2.909 1.184 2.112
3.117 1.044 2.074
3.302 0.901 1.930
3.577 0.624 1.936
3.724 0.491 1.939
3.905 0.265 1.779
4.087 0.133 1.717
4.234 0.026 1.730
4.182 0.015 1.426
2.836 1.192 1.924
3.010 1.036 1.826
3.172 0.916 1.844
3.494 0.634 1.633
3.693 0.437 1.555
3.813 0.288 1.619
3.948 0.228 1.531
4.183 -0.016 1.342
4.036 0.064 1.195
3.041 0.969 1.639
3.254 0.865 1.589
3.283 0.655 1.388
3.553 0.577 1.453
3.687 0.332 1.272
3.813 0.153 1.214
3.991 0.089 1.257
3.962 0.146 0.881
2.956 0.980 1.438
3.131 0.973 1.276
3.312 0.795 1.285
3.554 0.519 1.127
3.725 0.485 1.101
3.862 0.308 1.041
4.014 0.074 1.027
3.926 0.188 0.720
3.109 0.913 1.069
3.174 0.800 0.918
3.316 0.637 0.942
3.542 0.356 0.920
3.689 0.243 0.686
3.969 0.097 0.713
3.854 0.194 0.461
3.082 0.865 0.731
3.265 0.540 0.620
3.513 0.480 0.663
3.608 0.382 0.507
3.910 0.138 0.487
3.842 0.184 0.282
3.285 0.689 0.359
3.453 0.420 0.430
3.617 0.368 0.304
3.788 0.170 0.171
3.283 0.440 0.199
3.486 0.318 0.037
3.719 0.839 2.663
3.819 0.781 2.726
3.977 0.658 2.638
4.221 0.455 2.452
4.461 0.307 2.490
3.364 1.051 2.591
3.661 1.000 2.494
3.725 0.863 2.321
4.027 0.614 2.297
4.228 0.522 2.253
4.264 0.309 2.130
4.449 0.089 1.902
3.305 1.104 2.367
3.520 0.985 2.236
3.739 0.742 2.121
3.849 0.580 2.054
4.099 0.521 1.932
4.352 0.379 1.912
4.431 0.149 1.916
4.301 0.160 1.575
3.059 1.385 2.093
3.233 1.093 2.032
3.455 0.935 1.914
3.606 0.767 1.858
3.920 0.758 1.849
4.105 0.543 1.744
4.252 0.423 1.653
4.465 0.262 1.591
4.398 0.206 1.474
4.536 -0.017 1.325
3.042 1.374 1.812
3.211 1.147 1.894
3.398 0.974 1.771
3.605 0.788 1.680
3.739 0.723 1.534
3.989 0.565 1.600
4.162 0.470 1.442
4.352 0.256 1.351
4.321 0.305 1.232
4.355 0.092 1.152
2.906 1.325 1.629
3.216 1.271 1.600
3.381 1.130 1.586
3.554 0.844 1.511
3.776 0.702 1.338
3.830 0.599 1.266
4.000 0.442 1.280
4.264 0.284 1.142
4.189 0.280 0.905
4.403 0.173 0.871
3.091 1.245 1.382
3.220 1.045 1.221
3.523 0.903 1.267
3.707 0.807 1.047
3.766 0.536 1.091
4.018 0.489 0.909
4.213 0.209 0.874
4.080 0.280 0.641
4.341 0.222 0.544
2.991 1.214 1.078
3.139 1.069 1.075
3.423 0.974 0.992
3.567 0.826 0.820
3.741 0.628 0.842
3.937 0.524 0.808
4.017 0.254 0.667
4.068 0.310 0.512
4.144 0.224 0.413
4.445 0.066 0.280
3.142 1.204 0.762
3.289 0.976 0.679
3.513 0.872 0.643
3.735 0.653 0.571
3.768 0.529 0.548
4.111 0.322 0.424
3.906 0.318 0.214
4.194 0.237 0.092
4.341 0.100 0.009
3.233 0.960 0.531
3.512 0.808 0.473
3.556 0.743 0.337
3.790 0.532 0.285
4.044 0.329 0.170
3.430 0.922 0.104
3.556 0.619 0.158
3.759 0.568 0.089
3.719 1.075 2.374
3.881 0.972 2.438
4.135 0.872 2.351
4.271 0.624 2.290
3.545 1.408 2.342
3.751 1.114 2.195
3.922 0.957 2.211
4.002 0.869 2.046
4.235 0.752 1.904
4.453 0.546 2.001
4.618 0.298 1.675
3.363 1.541 2.042
3.553 1.353 1.950
3.579 1.220 1.873
3.835 1.090 1.872
3.992 0.870 1.883
4.169 0.701 1.807
4.311 0.599 1.695
4.574 0.451 1.547
4.413 0.346 1.330
3.190 1.522 1.831
3.350 1.303 1.768
3.515 1.271 1.673
3.701 1.100 1.728
3.887 0.848 1.529
4.139 0.659 1.526
4.217 0.609 1.362
4.431 0.379 1.381
4.379 0.391 1.217
4.595 0.224 1.091
3.125 1.625 1.551
3.378 1.340 1.518
3.505 1.293 1.554
3.723 1.045 1.330
3.831 0.849 1.368
4.064 0.674 1.268
4.182 0.591 1.136
4.487 0.481 1.140
4.258 0.532 0.903
4.565 0.232 0.829
4.605 0.117 0.664
3.017 1.547 1.312
3.188 1.467 1.228
3.463 1.233 1.279
3.674 1.097 1.155
3.771 0.972 1.162
3.912 0.832 0.946
4.175 0.548 0.964
4.419 0.432 0.964
4.280 0.483 0.735
4.408 0.398 0.634
4.666 0.076 0.489
4.841 0.018 0.371
3.019 1.571 1.217
3.170 1.424 1.121
3.342 1.348 1.071
3.483 1.217 0.943
3.694 0.941 0.831
3.909 0.794 0.852
4.127 0.678 0.794
4.254 0.491 0.700
4.191 0.438 0.325
4.426 0.397 0.294
4.595 0.123 0.335
4.804 0.103 0.229
3.124 1.512 0.754
3.308 1.297 0.780
3.561 1.110 0.722
3.699 0.979 0.552
3.778 0.901 0.639
4.093 0.659 0.532
4.279 0.580 0.501
4.070 0.519 0.087
4.360 0.348 0.083
4.511 0.158 0.071
3.273 1.279 0.569
3.326 1.161 0.452
3.673 1.102 0.443
3.802 0.798 0.336
3.905 0.689 0.213
4.085 0.451 0.108
3.426 1.046 0.205
3.760 0.852 0.106
3.954 0.764 -0.005
5.528 -0.055 4.942
5.585 -0.066 4.938
5.767 0.019 4.599
4.113 1.174 2.359
3.756 1.470 2.236
3.903 1.438 2.093
4.109 1.227 2.110
4.249 1.081 1.978
4.360 0.951 1.940
3.374 1.624 2.154
3.700 1.556 1.919
3.875 1.435 1.997
4.045 1.215 1.917
4.179 1.010 1.772
4.266 0.849 1.757
4.565 0.687 1.646
4.651 0.545 1.367
3.151 1.939 1.979
3.373 1.756 1.915
3.534 1.617 1.807
3.820 1.362 1.645
3.934 1.299 1.699
4.064 1.112 1.515
4.271 0.886 1.452
4.447 0.763 1.335
4.697 0.632 1.401
4.625 0.642 1.088
4.821 0.490 1.098
3.106 1.971 1.620
3.302 1.728 1.574
3.546 1.523 1.515
3.742 1.430 1.437
3.886 1.284 1.429
3.954 1.032 1.308
4.283 0.995 1.217
4.398 0.733 1.232
4.484 0.606 1.070
4.431 0.640 0.806
4.662 0.504 0.711
4.784 0.382 0.783
2.987 1.946 1.501
3.318 1.771 1.395
3.464 1.575 1.243
3.633 1.385 1.300
3.839 1.305 1.114
4.008 1.205 1.014
4.126 0.938 0.968
4.281 0.792 0.914
4.461 0.587 0.954
4.347 0.691 0.696
4.687 0.442 0.524
4.857 0.329 0.410
4.961 0.160 0.492
3.048 1.979 1.216
3.159 1.752 1.168
3.396 1.722 1.024
3.549 1.484 0.905
3.770 1.267 0.938
3.886 1.078 0.780
4.049 1.078 0.778
4.216 0.922 0.671
4.450 0.765 0.596
4.441 0.694 0.406
4.564 0.583 0.381
4.699 0.335 0.234
4.867 0.215 0.131
5.157 0.128 0.068
3.052 1.803 0.791
3.327 1.592 0.742
3.431 1.471 0.716
3.580 1.266 0.712
3.866 1.107 0.628
4.007 0.956 0.513
4.154 0.885 0.386
4.396 0.710 0.418
4.230 0.754 0.203
4.378 0.487 0.086
4.589 0.433 -0.034
3.473 1.573 0.535
3.597 1.418 0.509
3.769 1.186 0.438
3.924 0.980 0.344
4.131 0.815 0.232
4.247 0.686 0.089
3.467 1.316 0.152
3.687 1.280 0.197
3.914 1.105 -0.013
5.927 -0.014 4.884
5.838 0.150 4.649
6.219 0.183 4.522
3.866 1.628 2.299
3.979 1.549 2.167
4.214 1.398 2.010
4.392 1.215 1.973
3.481 2.065 2.186
3.676 1.955 2.013
3.702 1.791 2.068
3.946 1.644 1.877
4.229 1.425 1.913
4.361 1.287 1.744
4.537 1.166 1.632
3.170 2.221 2.013
3.401 2.099 1.931
3.559 1.876 1.784
3.720 1.795 1.789
3.943 1.585 1.594
4.118 1.362 1.581
4.221 1.292 1.499
4.414 1.096 1.383
4.602 0.949 1.353
4.641 0.757 1.168
3.066 2.324 1.619
3.337 2.055 1.623
3.419 1.977 1.657
3.593 1.788 1.452
3.764 1.683 1.404
4.052 1.502 1.281
4.109 1.379 1.229
4.450 1.079 1.214
4.548 0.968 1.201
4.646 0.888 1.029
4.714 0.882 0.911
4.877 0.750 0.760
2.992 2.308 1.427
3.280 2.094 1.435
3.491 2.058 1.400
3.664 1.835 1.305
3.717 1.650 1.250
3.941 1.481 1.134
4.120 1.368 1.075
4.298 1.239 0.928
4.524 1.043 0.834
4.573 0.889 0.911
4.672 0.810 0.545
4.690 0.745 0.519
4.878 0.555 0.451
5.154 0.330 0.382
3.064 2.401 1.310
3.091 2.226 1.179
3.418 2.083 1.177
3.592 1.854 0.973
3.724 1.715 0.878
3.886 1.584 0.891
4.133 1.268 0.838
4.238 1.189 0.824
4.354 1.030 0.629
4.600 0.859 0.598
4.570 0.852 0.315
4.661 0.764 0.379
4.795 0.586 0.235
4.977 0.323 0.197
5.156 0.310 0.070
5.325 0.052 0.052
2.882 2.397 1.001
3.019 2.171 0.992
3.322 1.993 0.917
3.407 1.935 0.823
3.555 1.684 0.623
3.770 1.522 0.682
4.025 1.427 0.513
4.236 1.230 0.519
4.367 0.982 0.505
4.547 0.860 0.443
4.383 0.919 0.074
4.537 0.673 -0.037
3.158 1.989 0.520
3.392 1.860 0.471
3.580 1.719 0.428
3.778 1.484 0.482
3.990 1.473 0.331
4.060 1.294 0.186
4.310 1.123 0.195
4.478 0.924 0.036
3.714 1.668 0.197
3.910 1.513 0.077
3.989 1.268 -0.028
6.093 0.257 4.786
6.139 0.010 4.778
6.065 0.040 4.573
3.785 2.066 2.307
3.975 1.827 2.130
4.191 1.667 2.098
3.465 2.387 2.141
3.549 2.318 2.072
3.713 2.155 2.041
3.948 1.879 1.949
4.222 1.710 1.966
4.222 1.679 1.883
4.442 1.509 1.779
3.235 2.679 1.933
3.276 2.397 1.946
3.459 2.331 1.936
3.655 2.202 1.753
3.891 1.889 1.653
4.131 1.855 1.671
4.289 1.552 1.539
4.373 1.492 1.471
4.684 1.291 1.443
3.094 2.557 1.754
3.227 2.446 1.662
3.485 2.244 1.644
3.550 2.061 1.474
3.813 1.957 1.532
3.959 1.778 1.358
4.160 1.638 1.396
4.263 1.502 1.262
4.601 1.333 1.234
4.623 1.187 1.143
4.819 1.045 0.846
3.092 2.684 1.472
3.185 2.547 1.432
3.322 2.321 1.330
3.637 2.098 1.387
3.739 1.988 1.264
3.979 1.781 1.216
4.115 1.711 1.063
4.283 1.562 1.076
4.457 1.293 0.995
4.636 1.273 0.850
4.854 0.999 0.867
4.783 1.011 0.636
4.872 0.866 0.484
5.053 0.707 0.459
2.893 2.727 1.349
3.148 2.464 1.184
3.330 2.419 1.196
3.499 2.207 1.032
3.714 2.080 1.061
3.814 1.947 0.924
3.972 1.739 0.769
4.290 1.542 0.798
4.472 1.357 0.688
4.651 1.189 0.675
4.805 1.031 0.569
4.764 1.003 0.247
4.786 0.950 0.272
4.976 0.847 0.266
5.270 0.672 0.084
5.470 0.507 0.055
2.881 2.769 1.114
3.090 2.521 0.894
3.252 2.383 0.811
3.422 2.280 0.911
3.611 2.040 0.719
3.844 1.899 0.660
3.913 1.647 0.589
4.139 1.619 0.603
4.312 1.381 0.521
4.534 1.202 0.468
4.705 1.113 0.398
4.558 1.126 0.153
4.799 0.866 -0.066
2.731 2.728 0.872
2.932 2.579 0.733
3.126 2.380 0.738
3.287 2.233 0.656
3.590 2.019 0.566
3.652 1.854 0.428
3.880 1.785 0.400
4.063 1.563 0.314
4.177 1.401 0.273
4.478 1.349 0.159
4.690 1.112 0.028
4.053 1.639 -0.003
3.892 2.475 2.331
4.081 2.178 2.302
4.203 2.044 2.095
3.406 2.779 2.276
3.526 2.646 2.110
3.844 2.510 1.977
3.909 2.276 2.055
4.113 2.082 1.844
4.230 1.920 1.940
4.492 1.748 1.844
3.363 2.870 1.876
3.441 2.631 1.966
3.637 2.537 1.738
3.807 2.333 1.682
4.132 2.167 1.603
4.296 2.044 1.662
4.418 1.789 1.487
4.503 1.682 1.473
3.348 2.730 1.703
3.494 2.651 1.731
3.543 2.522 1.564
3.715 2.417 1.558
4.031 2.157 1.528
4.099 1.958 1.413
4.382 1.848 1.324
4.572 1.661 1.211
4.780 1.460 1.088
3.115 2.802 1.557
3.365 2.741 1.352
3.513 2.459 1.399
3.767 2.363 1.219
3.850 2.157 1.152
4.161 1.995 1.191
4.188 1.932 0.982
4.506 1.647 0.920
4.537 1.582 1.009
4.847 1.354 0.830
3.114 2.848 1.187
3.344 2.684 1.197
3.402 2.561 1.091
3.736 2.399 0.961
3.900 2.138 1.036
4.018 2.052 0.864
4.175 1.951 0.765
4.446 1.676 0.738
4.569 1.588 0.751
4.704 1.491 0.574
4.883 1.254 0.278
5.016 1.119 0.274
3.064 2.984 0.945
3.310 2.735 0.948
3.436 2.635 0.922
3.579 2.491 0.884
3.749 2.321 0.695
3.995 2.020 0.645
4.088 1.949 0.627
4.314 1.768 0.514
4.554 1.638 0.416
4.639 1.516 0.441
4.805 1.220 0.256
4.785 1.351 0.019
2.963 2.886 0.751
3.235 2.734 0.686
3.383 2.688 0.591
3.556 2.370 0.556
3.785 2.211 0.570
3.812 2.181 0.450
4.047 1.919 0.301
4.285 1.876 0.220
4.451 1.681 0.234
4.567 1.454 0.066
4.787 1.225 0.087
2.982 3.026 0.588
3.810 2.821 2.295
3.941 2.639 2.362
4.211 2.492 2.194
4.277 2.288 2.053
3.551 2.874 2.229
3.735 2.862 2.178
3.958 2.638 2.072
4.013 2.436 1.942
4.203 2.383 1.955
4.435 2.072 1.910
3.534 2.920 1.939
3.680 2.808 1.800
3.937 2.706 1.841
4.048 2.482 1.728
4.118 2.248 1.703
4.403 2.103 1.547
4.572 1.921 1.463
3.353 3.030 1.661
3.669 2.889 1.650
3.777 2.657 1.510
4.042 2.612 1.493
4.072 2.431 1.397
4.298 2.152 1.328
4.490 1.961 1.191
4.614 1.841 1.267
3.401 2.981 1.397
3.613 2.833 1.427
3.630 2.671 1.324
3.866 2.499 1.230
4.114 2.377 1.253
4.270 2.140 1.114
4.417 2.137 0.988
4.551 1.964 0.891
3.206 3.074 1.194
3.470 2.885 1.162
3.623 2.765 0.988
3.782 2.645 1.044
4.082 2.416 1.022
4.225 2.186 0.840
4.305 2.150 0.774
4.569 1.944 0.736
3.267 3.049 1.051
3.301 2.935 0.842
3.657 2.774 0.915
3.787 2.660 0.728
3.940 2.483 0.611
4.164 2.297 0.633
4.365 2.146 0.566
3.125 3.087 0.811
3.386 3.023 0.598
3.418 2.812 0.510
3.752 2.573 0.480
3.788 2.489 0.393
3.003 3.145 0.512
3.212 3.025 0.373
3.807 3.158 2.355
3.978 2.879 2.376
4.209 2.802 2.290
4.386 2.652 2.219
4.530 2.383 2.133
3.737 3.101 2.149
3.829 2.936 2.051
4.153 2.838 2.027
4.294 2.672 1.906
4.393 2.409 1.888
4.660 2.398 1.810
3.678 3.098 1.959
3.829 2.947 1.801
4.042 2.867 1.836
4.261 2.654 1.771
4.411 2.590 1.557
4.580 2.314 1.524
3.533 3.235 1.621
3.840 2.993 1.578
3.948 2.808 1.604
4.094 2.691 1.409
4.298 2.594 1.323
4.474 2.386 1.270
4.624 2.178 1.221
3.468 3.143 1.396
3.617 2.974 1.328
3.853 2.893 1.264
3.980 2.708 1.217
4.166 2.590 1.105
4.443 2.484 1.041
4.560 2.211 1.074
3.399 3.308 1.233
3.622 3.058 1.098
3.834 2.977 1.140
3.960 2.797 0.933
4.087 2.556 0.966
4.338 2.507 0.812
3.393 3.321 0.910
3.624 3.183 0.957
3.650 3.037 0.811
3.831 2.842 0.808
4.068 2.570 0.693
3.390 3.318 0.629
3.490 3.126 0.638
3.673 2.929 0.635
3.813 2.750 0.446
3.224 3.417 0.415
3.483 3.088 0.439
3.141 3.384 0.147
3.965 3.339 2.607
4.257 3.162 2.497
4.470 3.012 2.435
4.639 2.820 2.484
4.019 3.296 2.314
4.209 3.148 2.265
4.338 3.025 2.285
4.424 2.789 2.080
4.690 2.633 2.115
3.890 3.280 2.035
4.092 3.093 2.004
4.314 2.984 2.063
4.450 2.891 1.945
4.657 2.626 1.888
3.734 3.378 1.953
4.050 3.211 1.733
4.223 3.063 1.675
4.316 2.834 1.686
4.554 2.685 1.533
4.722 2.642 1.573
3.720 3.417 1.616
3.838 3.291 1.539
4.126 3.103 1.592
4.340 2.830 1.458
4.459 2.777 1.435
4.563 2.562 1.328
3.616 3.436 1.387
3.856 3.245 1.261
4.051 3.045 1.322
4.277 2.887 1.236
4.357 2.809 1.131
4.604 2.631 1.075
3.603 3.482 1.139
3.818 3.237 1.179
3.959 3.089 0.993
4.124 3.010 0.984
4.267 2.726 0.847
3.461 3.539 0.978
3.737 3.389 0.805
3.900 3.208 0.813
4.044 2.902 0.776
3.418 3.556 0.699
3.582 3.349 0.594
3.810 3.224 0.617
3.376 3.479 0.457
3.642 3.442 0.291
3.406 3.561 0.279
4.192 3.443 2.742
4.512 3.295 2.693
4.647 3.112 2.643
4.213 3.551 2.628
4.328 3.402 2.464
4.544 3.210 2.458
4.773 3.067 2.370
4.171 3.514 2.284
4.312 3.268 2.283
4.409 3.208 2.249
4.576 2.963 2.196
4.838 2.855 2.053
4.064 3.492 2.180
4.162 3.376 2.052
4.468 3.205 1.887
4.670 2.960 1.806
4.697 2.827 1.852
3.940 3.567 1.942
4.220 3.358 1.728
4.342 3.263 1.802
4.435 3.112 1.698
4.726 2.985 1.604
3.972 3.512 1.635
4.153 3.389 1.514
4.319 3.302 1.509
4.356 3.095 1.369
4.673 2.875 1.277
3.832 3.536 1.465
4.104 3.377 1.241
4.274 3.297 1.186
4.401 3.137 1.093
4.538 2.941 1.049
3.683 3.573 1.185
3.991 3.489 1.052
4.079 3.373 0.914
4.228 3.215 0.927
3.743 3.629 0.825
3.956 3.537 0.743
4.067 3.356 0.806
3.686 3.734 0.648
3.796 3.509 0.616
3.503 3.693 0.393
4.512 3.547 3.254
4.456 3.611 2.966
4.714 3.494 2.934
4.828 3.260 2.901
4.347 3.706 2.829
4.604 3.535 2.650
4.741 3.368 2.579
5.016 3.103 2.573
4.281 3.695 2.492
4.600 3.529 2.431
4.709 3.397 2.481
4.949 3.145 2.337
5.038 3.008 2.303
4.355 3.684 2.251
4.384 3.518 2.229
4.646 3.447 2.091
4.762 3.256 2.166
4.917 2.958 2.115
4.235 3.670 2.005
4.355 3.624 1.958
4.652 3.348 1.997
4.659 3.242 1.836
4.842 3.044 1.788
4.193 3.698 1.760
4.235 3.511 1.784
4.413 3.353 1.759
4.744 3.295 1.626
4.806 3.162 1.583
4.126 3.737 1.583
4.161 3.575 1.448
4.439 3.535 1.502
4.652 3.340 1.418
4.849 3.201 1.312
4.060 3.876 1.327
4.181 3.655 1.353
4.307 3.404 1.127
4.452 3.385 1.091
3.932 3.866 1.145
4.062 3.610 0.998
4.238 3.526 0.994
3.811 3.838 0.950
3.975 3.775 0.869
3.868 3.934 0.606
4.855 3.680 3.686
4.768 3.788 3.403
4.909 3.539 3.376
4.632 3.775 3.165
4.895 3.632 3.245
5.145 3.526 3.149
4.729 3.860 2.969
4.766 3.568 2.969
5.097 3.550 2.834
5.271 3.324 2.874
4.633 3.779 2.817
4.778 3.705 2.657
4.975 3.434 2.678
5.208 3.427 2.541
4.448 3.930 2.579
4.645 3.740 2.454
4.793 3.449 2.397
5.048 3.365 2.335
5.197 3.258 2.327
4.527 3.858 2.346
4.688 3.647 2.240
4.851 3.645 2.061
5.000 3.345 2.107
5.141 3.191 2.013
4.291 3.846 2.135
4.565 3.737 2.009
4.801 3.620 1.823
4.863 3.491 1.749
5.014 3.175 1.685
4.325 3.857 1.797
4.428 3.685 1.705
4.638 3.573 1.740
4.792 3.395 1.595
5.048 3.262 1.478
4.159 4.050 1.643
4.383 3.728 1.466
4.606 3.718 1.396
4.728 3.553 1.442
4.227 4.021 1.264
4.342 3.783 1.272
4.535 3.642 1.119
4.074 4.024 1.025
4.350 3.866 0.984
3.953 4.014 0.834
5.088 3.839 4.023
5.036 3.916 3.685
5.125 3.792 3.630
4.976 3.949 3.436
5.193 3.798 3.473
5.272 3.703 3.320
4.967 3.967 3.133
5.086 3.768 3.186
5.202 3.582 3.051
5.399 3.516 2.966
4.807 3.960 2.943
5.049 3.803 2.841
5.099 3.612 2.847
5.314 3.446 2.693
