-0.037 3.596 6.283
0.224 3.452 6.062
0.650 3.415 6.313
0.924 3.661 6.142
1.101 3.489 6.291
1.449 3.599 6.103
0.469 3.971 5.978
0.431 3.845 6.187
1.024 4.131 6.122
1.153 3.929 6.254
1.588 4.071 6.370
1.570 3.988 6.279
0.541 3.690 6.046
0.526 3.834 5.807
0.862 3.609 5.860
1.077 3.972 5.921
1.604 3.848 6.139
1.901 4.047 6.167
1.901 3.952 6.000
2.369 3.918 6.154
0.789 4.506 6.084
1.120 4.573 6.184
1.473 4.384 6.037
1.764 4.514 6.276
1.741 4.630 6.098
0.450 4.072 6.020
0.950 4.211 5.889
1.131 4.380 5.826
1.568 4.243 6.078
1.786 4.162 6.036
2.026 4.466 6.174
2.410 4.473 6.031
2.606 4.452 6.232
0.633 3.967 5.788
1.053 3.833 5.808
1.219 4.151 5.639
1.384 4.180 5.758
1.872 3.969 5.906
2.163 4.120 5.976
2.140 4.222 5.868
1.408 4.852 6.275
1.683 4.920 6.060
1.947 5.054 6.284
1.993 5.043 6.295
1.232 4.514 6.106
1.238 4.499 6.120
1.790 4.654 6.184
1.804 4.834 6.040
2.286 4.863 5.955
2.477 5.040 6.133
1.013 4.442 5.707
1.196 4.319 5.666
1.415 4.566 5.826
1.642 4.364 5.995
2.012 4.412 5.983
2.269 4.743 5.926
2.451 4.727 5.867
0.827 4.004 5.648
1.013 4.099 5.544
1.456 4.345 5.475
1.838 4.438 5.663
2.056 4.179 5.738
2.235 4.550 5.554
1.692 5.232 6.223
1.946 5.344 6.165
2.193 5.540 6.149
1.456 5.081 6.048
1.982 5.027 5.844
2.138 5.357 6.127
2.268 5.100 6.001
1.290 4.777 5.861
1.743 4.849 5.653
1.942 4.808 5.841
2.121 4.912 5.914
2.596 4.976 5.794
1.025 4.625 5.603
1.531 4.671 5.683
1.700 4.658 5.686
1.823 4.729 5.566
2.379 4.946 5.601
0.937 4.170 5.470
1.077 4.477 5.224
1.468 4.497 5.394
1.815 4.529 5.361
1.912 4.638 5.495
2.425 4.500 5.399
2.373 5.999 6.181
2.020 5.034 5.662
1.275 4.961 5.256
1.753 4.901 5.463
2.077 5.077 5.494
1.316 4.700 5.009
1.281 4.437 5.306
1.689 4.572 5.265
2.022 4.886 5.150
1.498 4.964 5.090
1.806 4.782 4.844
0.078 6.160 2.859
4.714 0.338 6.373
4.682 0.062 6.177
4.939 0.149 6.008
5.012 0.082 6.284
5.230 0.257 6.258
5.715 0.302 6.279
5.256 -0.064 5.838
5.665 0.149 5.852
-0.125 0.494 6.183
0.058 0.369 6.008
-0.015 -0.015 5.764
5.070 0.925 6.090
4.631 0.688 5.951
5.029 0.728 6.215
5.311 0.747 6.272
5.590 0.742 6.289
4.627 0.417 5.771
5.162 0.421 5.900
5.405 0.545 5.893
5.619 0.363 5.986
4.915 0.010 5.707
5.021 0.043 5.621
5.570 0.162 5.878
5.615 0.348 5.632
5.461 -0.138 5.607
5.812 -0.020 5.598
5.146 0.963 6.167
5.348 0.916 6.261
5.182 0.756 5.772
5.150 0.844 5.955
5.418 0.894 5.843
4.748 0.518 5.687
4.979 0.639 5.611
5.279 0.467 5.738
5.671 0.645 5.872
4.940 0.288 5.557
5.105 0.515 5.411
5.299 0.311 5.659
5.803 0.325 5.558
4.744 0.070 5.327
5.107 -0.024 5.479
5.564 0.280 5.262
5.577 0.278 5.510
5.902 0.180 5.032
5.177 0.999 5.649
5.433 1.193 5.775
4.950 0.735 5.275
4.940 0.696 5.478
5.185 0.885 5.507
5.700 0.859 5.483
4.824 0.408 5.338
5.138 0.636 5.254
5.327 0.508 5.404
5.792 0.597 5.200
4.575 0.119 4.975
4.806 0.124 4.961
5.058 0.280 5.157
5.588 0.429 4.973
5.746 0.413 5.139
5.000 0.076 5.003
5.117 0.209 4.916
5.355 0.007 4.934
5.735 0.372 5.121
5.897 0.130 4.617
5.131 0.828 5.337
5.249 1.042 5.122
5.444 1.043 5.233
4.679 0.596 5.207
5.121 0.811 4.925
5.503 0.728 5.055
5.627 0.900 5.097
4.595 0.269 4.865
4.830 0.560 4.944
5.174 0.377 4.733
5.563 0.437 5.027
5.572 0.751 4.888
4.511 0.044 4.669
5.022 0.305 4.601
5.162 0.186 4.736
5.367 0.236 4.841
5.722 0.344 4.680
5.085 -0.024 4.413
5.212 -0.031 4.402
5.630 0.096 4.560
5.942 0.025 4.550
4.875 0.947 4.920
4.962 1.029 4.856
5.347 0.927 4.863
5.486 1.127 4.851
4.555 0.766 4.569
5.034 0.704 4.534
5.050 0.799 4.668
5.366 0.728 4.719
5.567 0.750 4.586
4.232 0.466 4.350
4.610 0.342 4.255
4.767 0.456 4.562
5.301 0.348 4.489
5.613 0.569 4.531
5.777 0.650 4.611
4.565 0.168 4.029
4.779 0.251 4.203
5.127 0.333 4.318
5.407 0.408 4.415
5.469 0.187 4.401
5.676 0.507 4.442
5.189 -0.116 4.234
5.253 0.080 4.038
5.527 -0.005 4.281
6.034 0.218 4.268
0.285 2.752 6.296
0.484 2.705 6.320
0.642 2.851 6.353
1.214 2.634 6.179
4.608 1.048 4.721
4.683 1.193 4.611
5.213 1.115 4.519
5.394 1.115 4.557
4.275 0.769 4.308
4.526 0.648 4.463
4.943 0.683 4.578
5.179 0.878 4.488
5.517 0.802 4.555
5.861 0.864 4.497
4.230 0.516 3.991
4.207 0.347 4.231
4.742 0.627 4.240
4.760 0.653 4.325
5.208 0.801 4.272
5.527 0.859 4.269
5.757 0.622 4.247
4.237 0.276 3.825
4.446 0.467 3.870
4.747 0.374 3.842
4.939 0.481 3.980
5.128 0.455 4.092
5.428 0.478 4.070
5.835 0.622 4.222
4.375 0.173 3.718
4.360 -0.075 3.769
4.703 0.276 3.845
4.950 0.227 3.738
5.235 0.137 3.747
5.653 0.180 4.042
5.772 0.519 3.783
5.498 -0.076 3.550
5.537 0.211 3.666
5.850 0.094 3.873
0.411 2.559 6.132
0.654 2.780 6.311
0.640 2.626 6.414
0.998 2.869 6.168
0.862 2.900 6.018
0.895 2.860 6.165
4.425 1.049 4.375
4.782 1.376 4.460
4.168 0.732 4.239
4.129 0.898 4.226
4.469 1.024 4.205
4.997 0.949 4.241
5.195 1.154 4.278
5.388 1.221 4.332
3.879 0.494 4.056
3.914 0.581 3.866
4.298 0.696 3.929
4.779 0.807 3.940
4.771 0.636 4.081
5.368 0.911 4.032
5.414 0.949 4.117
5.920 0.902 4.076
3.661 0.192 3.568
3.817 0.448 3.554
4.311 0.402 3.613
4.274 0.634 3.663
4.784 0.686 3.820
5.011 0.509 3.799
5.150 0.705 3.781
5.509 0.722 3.797
5.810 0.807 3.887
3.630 0.135 3.498
4.017 0.031 3.631
4.235 0.243 3.404
4.625 0.355 3.448
4.660 0.347 3.446
5.008 0.384 3.807
5.266 0.436 3.811
5.442 0.412 3.774
5.821 0.476 3.856
4.106 -0.124 3.216
4.622 0.099 3.370
4.958 0.231 3.513
5.095 0.120 3.364
5.320 0.070 3.495
5.726 0.162 3.676
5.849 0.289 3.718
0.013 3.193 6.253
0.414 3.042 6.334
0.901 3.117 6.347
0.858 3.338 6.139
1.270 3.283 6.256
0.838 2.762 5.904
1.189 2.964 6.020
0.746 3.105 5.687
1.017 3.240 5.683
1.503 3.079 5.814
1.742 3.087 5.776
3.953 1.400 4.205
4.124 1.371 4.058
4.455 1.531 4.179
4.961 1.346 4.213
3.655 0.857 3.903
3.977 1.103 3.792
4.435 1.182 3.955
4.473 1.136 3.846
4.676 1.187 3.916
5.274 1.368 3.940
3.560 0.636 3.718
3.686 0.892 3.585
4.063 0.781 3.666
4.284 0.812 3.610
4.587 0.885 3.718
4.813 1.143 3.805
5.229 0.960 3.706
5.360 1.146 3.782
3.386 0.462 3.487
3.490 0.583 3.305
3.766 0.574 3.615
4.024 0.540 3.371
4.513 0.793 3.506
4.674 0.586 3.499
5.045 0.669 3.514
5.202 0.901 3.696
5.671 0.963 3.659
3.117 0.178 3.383
3.282 0.178 3.202
3.764 0.402 3.279
3.781 0.457 3.311
4.058 0.387 3.290
4.616 0.431 3.465
4.842 0.542 3.541
5.160 0.601 3.461
5.432 0.730 3.565
5.658 0.717 3.633
3.547 0.017 3.187
3.607 -0.066 2.980
3.940 0.114 3.099
4.358 0.029 3.216
4.439 0.393 3.280
4.859 0.366 3.061
5.177 0.336 3.379
5.378 0.349 3.223
4.463 0.216 3.125
0.500 3.111 5.918
0.864 3.313 6.111
0.973 3.435 6.117
1.239 3.249 6.015
1.443 3.577 6.156
1.954 3.601 6.175
0.839 3.233 5.779
1.170 3.074 5.801
1.177 3.287 5.957
1.748 3.250 5.799
1.104 3.232 5.760
1.404 3.420 5.481
1.469 3.451 5.812
2.035 3.634 5.706
3.555 1.411 3.689
3.895 1.474 3.965
4.173 1.659 3.883
4.608 1.541 3.747
3.432 1.123 3.489
3.603 1.201 3.591
3.950 1.274 3.526
4.353 1.289 3.665
4.685 1.328 3.907
4.711 1.443 3.658
3.165 0.885 3.269
3.662 1.014 3.533
3.702 1.094 3.313
3.940 1.010 3.316
4.387 0.940 3.519
4.765 1.252 3.584
5.020 1.219 3.724
5.333 1.146 3.567
2.852 0.562 3.269
3.399 0.514 3.332
3.657 0.704 3.223
3.758 0.668 3.226
4.278 0.806 3.475
4.280 0.853 3.468
4.628 0.876 3.386
4.915 1.135 3.228
5.342 1.125 3.538
2.721 0.286 2.927
3.216 0.389 2.855
3.218 0.566 2.985
3.652 0.397 3.004
4.057 0.560 2.919
4.281 0.510 3.250
4.541 0.755 3.270
4.740 0.554 3.242
5.177 0.799 3.122
2.676 0.152 2.699
2.853 0.224 2.897
3.042 0.126 2.905
3.515 0.114 2.882
3.765 0.337 2.726
3.957 0.492 2.939
4.115 0.443 2.852
4.484 0.575 3.060
4.722 0.361 3.063
3.632 -0.086 2.762
3.798 0.089 2.762
4.076 0.234 2.646
4.407 0.304 2.855
0.879 3.636 5.638
0.915 3.383 5.628
1.440 3.443 5.686
1.454 3.693 5.856
1.860 3.570 6.056
2.042 3.686 5.970
0.920 3.330 5.742
1.269 3.431 5.603
1.659 3.406 5.690
1.940 3.471 5.868
0.872 3.656 5.316
1.374 3.748 5.576
1.634 3.616 5.429
1.796 3.713 5.565
2.268 3.790 5.675
1.246 3.387 5.214
1.505 3.414 5.342
1.910 3.323 5.142
3.488 1.930 3.849
3.939 1.753 3.909
4.068 1.840 3.895
3.231 1.683 3.714
3.709 1.709 3.583
3.972 1.737 3.796
4.220 1.823 3.803
4.641 1.821 3.686
3.139 1.406 3.446
3.355 1.410 3.412
3.643 1.483 3.410
4.147 1.514 3.445
4.193 1.543 3.422
4.371 1.414 3.684
4.921 1.710 3.645
3.294 1.179 3.248
3.533 1.266 3.071
3.779 1.218 3.274
4.017 1.303 3.196
4.488 1.254 3.205
4.529 1.291 3.270
4.862 1.446 3.365
2.838 0.870 2.910
3.124 0.678 2.978
3.438 0.841 2.899
3.686 1.026 3.183
4.281 1.130 3.081
4.286 0.952 2.992
4.625 0.984 3.233
4.811 1.108 3.310
2.879 0.397 2.600
3.096 0.407 2.847
3.239 0.597 2.818
3.769 0.775 2.925
3.955 0.603 2.764
4.156 0.815 2.979
4.353 0.808 2.981
4.826 0.929 3.089
2.606 0.427 2.606
2.787 0.420 2.664
3.005 0.249 2.487
3.299 0.271 2.479
3.634 0.635 2.549
3.857 0.538 2.857
4.066 0.490 2.616
4.408 0.800 2.817
2.647 -0.009 2.195
2.902 -0.048 2.540
3.138 0.085 2.544
3.283 0.219 2.550
3.615 0.221 2.379
4.073 0.298 2.555
4.173 0.315 2.364
3.695 0.113 2.267
4.124 0.081 2.243
0.823 3.843 5.692
0.808 3.576 5.654
1.366 3.963 5.519
1.440 3.919 5.600
1.929 3.855 5.767
1.941 4.051 5.542
2.309 3.950 5.576
1.181 3.604 5.428
1.471 3.486 5.580
1.430 3.623 5.587
2.042 3.727 5.410
2.116 3.893 5.409
0.909 3.579 5.257
1.364 3.729 5.133
1.717 3.901 5.153
1.999 3.866 5.258
2.157 3.965 5.432
1.120 3.619 4.832
1.446 3.588 5.145
1.532 3.604 4.984
1.899 3.759 5.079
2.132 3.652 5.116
1.727 3.540 4.728
1.950 3.557 4.905
3.575 2.265 3.709
3.713 2.353 3.791
3.349 1.864 3.511
3.687 1.946 3.460
4.030 2.020 3.533
4.273 2.037 3.520
4.414 2.155 3.635
3.440 1.785 3.191
3.810 1.873 3.275
3.850 1.919 3.343
4.164 1.838 3.317
4.472 1.759 3.359
3.161 1.294 2.973
3.312 1.330 3.213
3.787 1.646 3.236
4.043 1.566 3.320
4.300 1.750 3.277
4.445 1.748 3.187
4.858 1.826 3.201
3.337 1.160 2.921
3.589 1.327 2.892
3.811 1.236 3.101
4.189 1.273 3.063
4.348 1.546 3.086
4.601 1.644 3.022
3.030 0.891 2.594
3.367 0.977 2.904
3.564 1.234 2.786
3.726 1.229 2.954
4.120 1.249 2.798
4.536 1.351 2.911
4.825 1.309 2.816
2.951 0.646 2.620
3.370 0.902 2.628
3.715 0.948 2.740
3.765 1.012 2.540
4.240 0.804 2.771
4.531 1.101 2.547
2.914 0.464 2.447
3.181 0.543 2.407
3.324 0.503 2.378
3.818 0.602 2.479
3.865 0.612 2.623
4.183 0.746 2.461
2.744 0.223 2.083
2.850 0.282 2.110
3.193 0.368 2.247
3.281 0.345 2.277
3.588 0.465 2.161
3.949 0.346 2.301
2.708 0.098 2.114
3.099 0.152 2.140
3.149 0.094 2.064
3.484 0.189 1.988
3.741 0.254 2.023
3.976 -0.063 1.862
0.566 4.016 5.418
0.898 3.788 5.232
1.358 3.938 5.321
1.540 4.018 5.596
1.895 4.047 5.541
2.216 4.064 5.561
2.296 4.116 5.602
0.978 3.724 5.149
1.264 3.796 5.248
1.577 3.910 5.249
1.967 4.001 5.304
2.184 4.030 5.468
0.979 3.996 5.054
1.259 3.994 5.112
1.419 3.915 4.939
1.960 3.974 5.016
2.293 3.983 4.967
2.569 4.103 5.208
0.908 3.658 4.613
1.198 3.868 4.835
1.798 3.939 4.812
1.963 3.803 4.729
2.322 4.026 5.013
2.300 3.828 4.795
1.509 3.691 4.492
1.786 3.556 4.561
1.882 3.606 4.567
2.107 3.580 4.890
1.840 3.372 4.430
1.923 3.525 4.500
2.455 3.595 4.473
2.352 3.313 4.383
3.259 2.636 3.867
3.091 2.603 3.705
3.614 2.547 3.681
3.555 2.476 3.850
3.072 2.330 3.346
3.475 2.471 3.620
3.749 2.523 3.545
4.176 2.324 3.541
2.959 2.069 3.242
3.295 2.246 3.254
3.507 2.273 3.208
3.743 2.280 3.352
4.258 2.265 3.520
4.509 2.437 3.336
3.198 1.744 3.184
3.341 1.732 3.266
3.518 1.980 3.120
3.863 1.896 3.054
4.122 2.046 3.303
4.310 2.193 3.392
3.180 1.665 3.074
3.454 1.684 2.867
3.714 1.844 2.946
4.126 1.618 3.005
4.417 1.723 3.104
4.630 2.055 3.193
3.218 1.564 2.714
3.627 1.519 2.808
3.608 1.465 2.910
4.099 1.640 2.745
4.393 1.622 2.990
4.608 1.508 2.772
3.148 1.208 2.599
3.580 1.134 2.693
3.813 1.367 2.714
4.059 1.248 2.688
4.298 1.322 2.625
2.866 0.949 2.202
3.202 1.028 2.375
3.462 1.060 2.417
4.030 1.099 2.265
4.084 1.005 2.488
3.023 0.828 2.072
3.397 0.874 2.242
3.749 0.761 2.102
3.948 0.780 2.151
2.855 0.355 1.845
3.245 0.398 1.965
3.505 0.706 2.087
3.560 0.721 2.152
2.510 0.141 1.743
2.844 0.186 1.595
3.221 0.161 1.798
3.608 0.402 1.665
3.742 0.272 1.955
3.088 0.086 1.590
3.237 0.022 1.553
3.573 0.111 1.672
0.860 4.215 5.264
1.224 4.151 5.264
1.340 4.067 5.239
1.636 4.160 5.163
2.112 4.463 5.307
2.329 4.439 5.215
1.186 3.731 5.139
1.326 3.806 5.149
1.475 4.143 5.007
1.953 4.115 5.099
2.184 4.156 5.128
2.483 4.316 5.195
0.974 4.031 4.811
1.227 4.102 4.756
1.723 4.294 4.881
1.976 4.211 4.945
2.061 4.235 5.048
2.297 4.459 4.973
0.959 3.977 4.409
1.391 4.030 4.440
1.484 4.094 4.779
1.892 4.000 4.792
2.171 3.960 4.634
2.516 4.234 4.854
1.089 3.534 4.495
1.447 3.607 4.359
1.532 3.815 4.521
2.042 3.956 4.328
2.074 3.954 4.674
2.557 4.087 4.436
1.306 3.441 4.057
1.836 3.457 4.186
2.145 3.479 4.429
2.157 3.720 4.325
2.571 3.844 4.505
1.821 3.380 4.142
2.146 3.511 3.943
2.242 3.333 4.277
2.634 3.417 4.154
2.986 3.690 4.272
2.248 3.109 4.096
2.376 3.201 3.893
2.736 3.137 3.988
2.993 3.299 3.949
2.404 3.142 3.655
2.774 3.067 3.666
3.038 3.227 3.745
3.394 3.307 3.726
2.531 2.755 3.475
2.656 3.027 3.544
2.973 3.060 3.810
3.434 2.924 3.551
3.646 3.120 3.702
2.725 2.618 3.584
3.080 2.593 3.553
3.315 2.817 3.490
3.554 2.895 3.584
3.972 2.941 3.657
3.029 2.606 3.162
3.225 2.581 3.122
3.323 2.385 3.490
3.631 2.455 3.401
4.201 2.628 3.214
4.287 2.582 3.297
3.035 2.373 3.219
3.371 2.144 2.967
3.572 2.218 3.303
3.994 2.428 3.194
4.255 2.537 3.047
4.532 2.332 3.145
3.153 1.923 2.788
3.290 2.114 2.748
3.770 2.253 3.055
3.896 2.168 3.069
4.326 2.190 2.969
4.467 2.457 2.991
3.180 1.652 2.832
3.371 1.956 2.750
3.736 1.813 2.728
4.027 2.134 2.666
4.171 1.872 2.833
4.472 2.145 2.718
3.571 1.599 2.560
3.908 1.643 2.442
4.082 1.857 2.752
4.181 1.672 2.659
3.540 1.444 2.460
3.796 1.539 2.486
4.039 1.437 2.532
3.540 1.364 2.091
3.110 0.634 1.491
2.753 0.014 1.258
3.110 0.277 1.375
3.313 0.266 1.389
2.996 -0.062 1.255
3.424 -0.040 1.349
1.072 4.325 4.956
1.151 4.254 5.095
1.417 4.477 4.895
1.652 4.496 4.864
2.192 4.595 4.948
2.507 4.706 4.951
1.087 4.003 4.703
1.188 4.001 4.737
1.401 4.180 4.730
1.763 4.267 4.802
2.197 4.341 4.802
2.520 4.174 5.025
0.981 4.346 4.674
1.231 4.494 4.409
1.635 4.501 4.552
1.793 4.477 4.597
2.262 4.484 4.574
0.664 4.009 4.486
1.038 3.934 4.212
1.293 4.241 4.520
1.439 4.337 4.464
1.900 4.081 4.480
2.099 4.394 4.403
2.542 4.379 4.361
1.229 3.708 4.012
1.561 3.928 4.113
1.728 4.108 4.108
1.799 3.953 4.158
2.388 3.974 4.189
2.422 3.936 4.310
1.331 3.608 4.155
1.325 3.584 3.846
1.642 3.671 3.892
2.015 3.653 4.153
2.307 3.691 3.964
2.536 4.063 4.096
2.905 3.775 4.209
1.682 3.506 3.870
1.682 3.697 3.808
1.926 3.601 3.837
2.297 3.509 3.955
2.596 3.575 4.049
2.830 3.618 3.964
1.950 3.202 3.589
2.153 3.423 3.690
2.329 3.422 3.909
2.519 3.588 3.858
2.952 3.404 3.869
3.385 3.495 3.726
2.209 3.280 3.570
2.431 3.059 3.599
2.920 3.414 3.651
3.027 3.435 3.687
3.367 3.230 3.589
3.572 3.399 3.843
2.614 3.052 3.508
2.893 2.968 3.393
2.995 3.128 3.569
3.389 3.262 3.595
3.787 3.187 3.376
3.946 3.281 3.537
2.645 2.874 3.121
2.847 2.739 3.287
3.033 2.782 3.095
3.456 3.022 3.268
3.609 2.931 3.230
3.907 2.881 3.430
4.105 3.098 3.239
3.068 2.570 3.039
3.365 2.557 3.171
3.499 2.730 3.115
3.871 2.824 3.195
4.111 2.751 3.143
4.254 2.864 3.172
3.140 2.280 2.935
3.242 2.433 2.730
3.640 2.441 2.813
3.985 2.558 2.989
4.178 2.625 3.123
4.467 2.758 2.922
4.797 2.905 3.127
3.451 2.302 2.642
3.518 2.320 2.791
3.977 2.466 2.679
4.225 2.480 2.672
4.362 2.546 2.864
3.267 2.083 2.693
3.514 2.264 2.537
4.052 2.258 2.581
4.164 2.309 2.505
4.510 2.089 2.655
3.582 1.917 2.333
3.898 2.083 2.400
2.657 0.179 1.019
3.123 0.099 0.911
1.012 4.420 4.726
1.213 4.547 4.821
1.322 4.422 4.649
1.612 4.692 4.856
2.048 4.796 4.810
0.829 4.315 4.385
1.169 4.452 4.733
1.634 4.472 4.722
2.000 4.395 4.662
2.035 4.652 4.611
1.143 4.336 4.327
1.373 4.380 4.469
1.621 4.673 4.415
1.897 4.660 4.504
1.983 4.768 4.321
0.861 4.030 4.019
1.024 4.128 3.966
1.160 4.224 4.177
1.569 4.428 4.113
2.002 4.331 4.295
2.328 4.616 4.230
2.384 4.643 4.358
0.955 4.032 3.938
1.146 4.087 3.974
1.519 4.181 3.864
1.585 4.168 3.890
1.986 4.308 4.107
2.058 4.336 4.105
2.516 4.383 4.161
0.878 3.831 3.747
1.217 3.676 3.904
1.321 3.784 3.902
1.562 4.027 3.934
2.105 4.044 3.939
2.300 4.019 3.968
2.601 4.147 4.077
2.858 4.161 4.096
1.384 3.682 3.731
1.418 3.569 3.463
1.911 3.724 3.551
2.151 3.837 3.550
2.469 3.649 3.597
2.728 4.012 3.631
2.934 3.889 3.864
3.284 3.999 3.737
1.656 3.613 3.394
1.739 3.430 3.361
1.951 3.468 3.505
2.464 3.541 3.454
2.566 3.788 3.423
2.960 3.571 3.572
3.366 3.819 3.728
3.408 3.767 3.527
1.938 3.412 3.211
2.094 3.183 3.357
2.515 3.324 3.408
2.788 3.489 3.234
3.021 3.566 3.233
3.285 3.637 3.483
3.722 3.697 3.588
3.710 3.714 3.392
2.097 3.268 3.153
2.601 3.304 3.052
2.746 3.146 3.097
3.213 3.274 3.199
3.464 3.184 3.101
3.494 3.342 3.224
3.946 3.395 3.198
4.093 3.345 3.401
2.482 3.005 3.045
2.989 3.157 3.061
3.275 3.068 2.936
3.501 3.112 3.114
3.553 3.243 2.961
3.932 3.227 3.266
4.165 3.300 3.106
4.367 3.372 3.073
2.935 2.669 2.937
3.124 2.808 2.916
3.389 2.971 2.866
3.695 2.915 2.852
3.864 2.869 2.795
4.381 3.248 2.856
4.619 3.145 3.032
3.060 2.666 2.477
3.130 2.694 2.553
3.631 2.740 2.649
3.815 2.672 2.809
4.058 2.851 2.898
4.248 2.742 2.792
4.477 3.021 2.683
3.463 2.311 2.610
3.559 2.544 2.575
3.738 2.635 2.521
4.015 2.546 2.507
4.578 2.743 2.656
3.575 2.175 2.349
4.025 2.338 2.537
4.329 2.329 2.430
1.364 4.705 4.510
1.434 4.858 4.707
1.728 4.935 4.475
1.087 4.464 4.342
1.252 4.663 4.187
1.460 4.468 4.400
1.849 4.497 4.459
2.044 4.819 4.301
1.113 4.778 4.133
1.295 4.542 4.078
1.370 4.742 4.079
1.845 4.809 4.042
0.753 4.480 3.903
1.206 4.540 3.976
1.250 4.391 3.947
1.503 4.573 4.142
1.909 4.626 4.146
2.124 4.641 4.140
0.460 4.184 3.725
0.765 4.022 3.543
1.084 4.120 3.727
1.474 4.357 3.767
1.604 4.155 3.716
1.834 4.488 3.811
2.256 4.456 3.787
2.575 4.465 3.918
0.609 4.072 3.536
0.823 3.820 3.579
1.298 3.858 3.506
1.267 3.941 3.532
1.801 4.001 3.738
1.881 4.023 3.509
2.325 4.133 3.547
2.694 4.157 3.879
2.710 4.170 3.649
0.858 3.627 3.309
1.225 3.637 3.474
1.505 3.926 3.372
1.610 3.878 3.588
2.144 4.093 3.634
2.468 3.892 3.380
2.714 3.897 3.448
2.750 4.102 3.454
3.069 4.040 3.492
1.335 3.448 3.094
1.652 3.690 3.314
1.973 3.517 3.194
2.188 3.586 3.172
2.348 3.936 3.436
2.731 3.837 3.423
3.075 3.948 3.269
3.102 4.013 3.494
3.596 3.850 3.531
1.956 3.406 3.050
2.052 3.691 3.249
2.338 3.624 3.034
2.837 3.742 3.155
3.112 3.842 3.273
3.298 3.619 3.335
3.614 3.926 3.425
3.897 3.896 3.364
4.098 4.052 3.304
2.184 3.410 2.765
2.422 3.289 3.096
2.620 3.490 3.069
3.119 3.578 3.096
3.368 3.597 2.905
3.552 3.485 2.899
3.836 3.677 2.935
4.108 3.680 3.266
4.505 3.732 3.061
2.737 3.232 2.905
2.807 3.318 2.722
3.289 3.308 2.921
3.452 3.217 2.707
3.617 3.446 2.903
3.810 3.389 2.836
4.311 3.376 2.982
4.495 3.565 2.850
4.757 3.529 2.911
3.028 2.871 2.701
3.036 3.072 2.717
3.492 2.994 2.513
3.769 3.270 2.671
4.048 3.160 2.613
4.304 3.304 2.623
4.675 3.170 2.753
4.718 3.240 2.864
3.201 2.720 2.576
3.639 2.968 2.442
3.766 2.932 2.613
4.162 3.006 2.540
4.425 2.978 2.514
4.495 3.075 2.606
3.519 2.782 2.409
4.015 2.815 2.409
4.123 2.802 2.217
4.525 2.896 2.265
1.026 4.494 4.007
1.309 4.779 4.038
1.411 4.829 4.169
1.804 4.748 4.112
6.335 0.280 6.281
5.900 0.435 6.244
6.286 0.237 6.343
5.866 0.294 5.959
6.014 0.657 6.132
5.835 0.904 6.154
6.166 0.656 6.293
6.337 0.715 5.876
5.745 0.646 5.877
6.200 0.640 6.130
6.366 0.496 5.940
5.864 0.498 5.798
6.245 0.372 5.890
6.175 0.282 5.760
5.741 1.079 6.114
5.736 0.768 5.801
6.334 0.820 5.915
5.820 0.788 5.618
6.118 0.619 5.935
6.157 0.442 5.723
5.959 0.411 5.649
6.363 0.577 5.500
5.938 0.281 5.341
6.258 -0.034 5.365
5.875 0.829 5.606
5.967 0.592 5.241
6.113 0.389 5.014
6.239 0.324 4.873
6.019 -0.087 4.698
5.944 1.041 5.331
6.325 0.659 4.868
6.160 0.702 4.988
6.382 0.608 5.004
6.078 0.365 4.943
6.292 0.148 4.714
6.116 0.159 4.336
5.904 0.719 4.766
5.941 0.740 4.525
6.134 0.524 4.342
6.293 0.389 4.255
6.192 -0.008 4.195
6.015 0.773 4.202
6.273 0.535 4.007
6.040 0.552 3.855
6.319 0.027 3.661
6.213 0.763 4.049
6.246 0.701 3.895
6.077 0.299 3.419
6.159 0.344 3.280
0.544 4.898 3.582
0.893 4.840 3.695
0.210 4.728 3.282
0.531 4.548 3.566
0.595 4.661 3.325
1.140 4.799 3.589
1.442 4.832 3.447
1.641 5.081 3.532
0.411 4.409 3.116
0.427 4.614 3.206
0.828 4.674 3.273
1.004 4.573 3.383
1.233 4.578 3.373
1.690 4.741 3.371
1.967 4.621 3.410
-0.036 4.241 3.004
0.315 4.255 2.932
0.635 4.200 3.039
0.910 4.163 3.171
0.991 4.228 3.069
1.454 4.322 3.304
1.752 4.446 3.269
1.870 4.455 3.257
2.308 4.757 3.161
0.104 3.811 2.931
0.242 3.866 2.759
0.646 4.021 2.764
0.925 3.982 3.009
1.249 4.107 2.796
1.568 4.205 3.140
1.853 4.364 2.856
2.007 4.203 3.048
2.380 4.545 3.131
0.026 3.850 2.530
0.412 3.697 2.562
0.697 3.709 2.808
0.943 3.864 2.826
1.146 3.943 2.664
1.509 3.977 2.927
1.903 4.210 2.685
2.166 4.094 2.933
2.411 4.320 3.038
2.575 4.175 2.852
2.881 4.121 2.784
2.512 4.106 2.645
2.871 4.165 2.862
2.995 4.060 2.794
3.302 4.124 2.724
3.395 4.258 2.754
3.807 4.262 2.901
4.214 4.296 3.009
4.334 4.357 2.894
4.677 4.351 3.034
5.114 4.290 3.072
5.362 4.459 2.964
2.886 3.873 2.716
3.269 3.759 2.570
3.465 3.973 2.640
3.805 3.879 2.793
4.309 4.024 2.573
4.438 4.268 2.683
4.784 4.054 2.769
4.883 4.083 2.792
5.127 4.132 2.921
2.997 3.529 2.279
3.437 3.834 2.253
3.682 3.705 2.453
3.834 3.897 2.395
4.166 3.921 2.442
4.649 4.021 2.667
4.844 3.817 2.439
4.896 4.077 2.602
5.383 4.052 2.790
3.321 3.374 2.095
3.568 3.401 2.237
4.175 3.677 2.358
4.437 3.680 2.263
4.665 3.834 2.364
4.885 3.788 2.474
5.053 3.634 2.487
5.412 3.777 2.388
3.765 3.473 2.253
4.092 3.299 2.244
4.283 3.398 2.136
4.747 3.499 2.198
4.972 3.383 2.353
5.093 3.475 2.293
4.353 3.172 1.888
4.631 3.345 1.972
0.514 4.979 3.605
1.027 5.103 3.757
0.129 5.216 3.271
0.554 5.166 3.389
0.534 5.207 3.422
0.872 5.046 3.589
-0.000 4.966 3.238
0.399 4.806 3.155
0.563 5.093 3.082
1.078 4.905 3.188
1.126 4.955 3.402
0.156 4.790 2.895
0.539 4.598 3.025
0.677 4.862 3.108
1.050 4.758 3.257
1.364 4.994 3.082
1.528 4.916 3.030
0.056 4.489 2.859
0.418 4.314 2.689
0.716 4.611 2.745
1.009 4.647 2.752
1.034 4.518 3.050
1.280 4.717 3.011
1.669 4.808 2.854
0.153 4.152 2.635
0.337 4.058 2.619
0.577 4.163 2.737
0.870 4.323 2.782
1.318 4.527 2.626
1.534 4.242 2.624
1.743 4.486 2.937
0.164 4.027 2.522
0.484 4.122 2.472
0.827 4.211 2.463
1.027 4.056 2.561
1.324 4.247 2.459
1.418 4.241 2.728
4.522 4.610 2.733
4.756 4.765 2.787
5.215 4.983 2.979
0.184 3.853 2.241
0.378 3.858 2.101
0.797 3.689 2.323
3.691 4.383 2.526
3.932 4.506 2.733
4.268 4.630 2.823
4.768 4.396 2.750
5.039 4.682 2.891
5.226 4.587 2.682
3.661 3.970 2.509
4.047 4.357 2.452
4.251 4.153 2.433
4.444 4.347 2.448
4.885 4.387 2.701
4.965 4.363 2.497
5.192 4.383 2.674
3.687 3.777 2.062
4.038 3.904 2.372
4.387 4.195 2.369
4.434 3.921 2.375
4.611 4.046 2.454
5.040 4.353 2.389
5.169 4.235 2.394
3.889 3.670 1.901
3.945 3.752 2.207
4.418 3.832 2.170
4.381 3.739 2.013
4.855 3.870 2.300
4.962 4.104 2.118
5.421 3.860 2.127
4.128 3.394 1.920
4.483 3.560 2.029
4.712 3.671 1.883
4.864 3.544 2.147
5.286 3.702 2.003
5.392 3.863 2.066
4.514 3.233 1.577
4.508 3.556 1.710
4.933 3.591 1.780
5.063 3.579 1.921
0.167 5.193 3.412
0.379 4.943 3.290
0.694 5.085 3.276
1.058 5.219 3.479
0.034 5.197 3.278
0.426 5.317 3.216
0.715 5.205 3.262
0.265 4.871 2.930
0.438 4.981 3.034
0.830 4.960 2.882
1.077 5.115 3.067
0.338 4.871 2.667
0.556 4.718 2.802
0.785 4.878 2.948
1.038 4.934 2.746
1.184 5.159 2.989
0.222 4.693 2.501
0.388 4.595 2.664
1.007 4.546 2.631
0.953 4.642 2.622
1.380 4.802 2.539
0.217 4.498 2.218
0.226 4.245 2.525
0.481 4.470 2.523
0.827 4.452 2.517
1.269 4.374 2.448
5.167 5.441 3.089
0.240 4.210 2.103
0.396 4.243 2.296
0.706 4.067 2.372
1.065 4.299 2.266
5.000 5.022 2.811
4.984 4.943 2.867
0.176 3.848 2.127
0.363 3.962 1.901
4.209 4.657 2.522
4.721 4.895 2.498
4.849 4.915 2.410
5.268 4.873 2.524
0.238 3.867 1.802
4.076 4.509 2.385
4.485 4.402 2.379
4.527 4.601 2.385
5.140 4.624 2.254
5.248 4.563 2.365
0.152 3.264 1.452
3.749 4.060 2.199
4.083 4.187 1.929
4.361 4.350 2.230
4.874 4.184 2.249
5.001 4.385 2.091
5.436 4.439 2.207
3.924 3.810 1.854
4.233 3.959 1.931
4.540 3.963 2.086
4.938 4.251 1.962
5.226 4.134 1.913
5.514 4.195 1.990
4.154 3.722 1.662
4.465 4.024 1.818
4.785 4.007 1.643
5.137 3.925 1.814
5.422 4.093 1.770
4.766 3.653 1.590
5.009 3.708 1.469
5.338 3.597 1.570
5.536 3.892 1.670
-0.005 5.207 3.018
0.533 5.296 3.236
0.488 5.273 3.354
0.055 5.449 2.785
0.348 5.291 3.125
0.669 5.433 3.151
-0.001 5.187 2.563
0.411 5.207 2.727
0.563 5.174 2.749
0.946 5.448 2.972
0.141 5.127 2.453
0.552 5.141 2.749
0.880 5.085 2.512
0.979 5.251 2.537
0.163 4.928 2.346
0.397 4.882 2.324
0.842 4.816 2.265
1.001 4.901 2.384
0.049 4.645 2.308
0.161 4.422 2.120
0.728 4.491 2.326
0.847 4.558 2.118
4.968 5.401 2.859
0.078 4.456 1.994
0.437 4.444 2.125
0.612 4.280 2.088
4.992 5.111 2.555
5.027 5.109 2.651
0.224 4.133 1.750
0.311 4.310 1.674
4.505 4.789 2.465
4.757 5.038 2.456
5.181 5.030 2.471
0.217 4.013 1.510
4.368 4.779 2.043
4.859 4.888 2.073
4.871 4.786 1.993
5.342 4.674 2.077
-0.045 3.613 1.356
4.286 4.407 1.720
4.307 4.443 1.967
4.637 4.395 1.935
5.199 4.539 1.964
5.427 4.517 2.146
4.257 4.208 1.531
4.371 4.105 1.745
4.659 4.170 1.749
4.954 4.388 1.669
5.196 4.348 1.820
4.361 3.889 1.640
4.554 3.885 1.396
4.847 4.022 1.485
5.172 4.151 1.439
5.342 4.132 1.777
4.511 3.850 1.268
5.072 3.922 1.462
5.305 3.859 1.434
5.396 4.106 1.497
5.138 3.541 1.103
5.267 3.739 1.215
5.590 3.932 1.174
0.086 5.501 3.143
0.268 5.609 3.007
-0.024 5.476 2.851
0.214 5.316 2.854
0.678 5.479 3.119
-0.050 5.659 2.695
0.402 5.767 2.899
0.646 5.735 2.875
0.188 5.341 2.533
0.266 5.613 2.703
0.613 5.404 2.559
0.863 5.494 2.649
0.143 5.270 2.202
0.592 5.227 2.380
0.829 5.319 2.324
0.242 4.952 1.989
0.590 4.871 2.344
0.730 4.983 2.360
0.162 4.817 2.024
0.421 4.685 2.071
0.575 4.927 2.029
0.048 4.518 1.607
0.411 4.410 1.915
5.075 5.458 2.256
0.004 4.254 1.642
4.742 5.268 2.233
5.343 5.381 2.136
4.531 4.924 2.041
4.797 4.830 1.782
5.133 4.901 2.064
4.542 4.606 1.708
4.812 4.763 1.566
4.947 4.769 1.907
5.422 4.716 1.686
4.453 4.407 1.578
4.835 4.473 1.377
5.114 4.699 1.639
5.316 4.629 1.709
4.345 4.287 1.126
4.702 4.356 1.287
4.958 4.148 1.219
5.163 4.441 1.383
5.382 4.349 1.242
4.596 4.128 1.115
5.005 3.942 1.105
5.099 3.988 1.200
5.554 4.080 1.122
4.791 3.773 0.948
5.078 3.990 1.094
5.312 3.758 0.889
5.426 4.020 1.171
5.338 3.799 0.693
5.607 3.661 0.885
-0.141 5.781 2.734
0.182 5.821 2.995
0.483 6.046 3.120
0.025 5.764 2.855
0.272 5.632 2.704
0.515 5.731 2.899
0.113 5.776 2.368
0.405 5.813 2.354
0.608 5.872 2.444
0.122 5.721 2.480
0.342 5.506 2.455
0.585 5.720 2.486
0.230 5.317 2.293
0.292 5.470 2.021
0.732 5.497 2.124
0.075 5.152 2.072
0.420 5.232 2.143
0.144 4.861 1.614
0.302 4.916 1.633
0.015 4.598 1.537
5.200 5.455 2.070
5.058 5.033 1.831
5.117 5.245 1.780
4.773 5.050 1.468
5.164 5.086 1.507
5.364 5.002 1.584
4.526 4.440 1.392
4.716 4.577 1.238
4.983 4.788 1.387
5.323 4.718 1.521
4.412 4.416 1.221
4.691 4.341 1.175
5.278 4.568 1.134
5.315 4.528 1.106
4.541 4.127 0.803
4.792 4.296 0.831
5.201 4.126 1.052
5.621 4.402 0.849
4.764 4.111 0.632
4.958 4.019 0.751
5.221 3.930 0.778
5.385 4.093 0.722
4.891 3.847 0.663
5.143 3.770 0.597
5.441 3.851 0.806
5.266 3.624 0.444
5.599 3.557 0.313
0.142 5.862 2.686
0.132 6.016 2.655
0.464 5.949 2.793
0.066 5.770 2.652
0.221 5.694 2.545
0.660 6.056 2.559
0.182 6.035 2.273
0.237 5.901 2.408
0.564 6.245 2.348
-0.057 5.914 1.965
0.526 5.636 1.973
0.679 5.964 2.256
0.250 5.403 2.019
0.280 5.703 1.876
0.373 5.280 1.712
5.171 5.247 1.173
5.169 5.099 1.439
4.791 4.755 1.115
5.030 4.965 1.123
5.362 4.928 1.268
4.531 4.477 0.827
4.933 4.747 0.959
5.293 4.830 0.981
5.354 4.605 1.140
4.708 4.334 0.714
4.992 4.436 0.554
5.313 4.350 0.829
5.612 4.514 0.882
4.565 4.303 0.471
4.792 4.118 0.584
5.176 4.356 0.540
5.408 4.314 0.459
4.880 4.063 0.489
5.091 4.163 0.425
5.419 4.141 0.296
5.433 4.010 0.559
5.140 3.879 0.225
5.521 3.806 0.355
5.746 3.785 0.349
5.318 3.579 0.161
5.738 3.840 0.152
0.312 6.318 2.467
-0.014 5.925 2.361
0.346 5.893 2.353
0.719 6.175 2.277
-0.065 6.248 1.922
0.320 6.293 2.169
0.601 6.342 2.118
0.145 5.972 1.870
0.208 6.075 1.730
0.747 6.103 2.008
0.243 5.819 1.534
5.014 5.085 0.983
5.254 5.029 0.958
4.521 4.702 0.548
4.732 4.780 0.607
5.281 4.996 0.795
5.386 5.061 0.737
4.490 4.726 0.610
4.887 4.589 0.347
5.051 4.691 0.546
5.448 4.770 0.497
4.266 4.254 0.125
4.785 4.520 0.458
4.982 4.514 0.214
5.270 4.284 0.528
5.374 4.351 0.398
4.633 4.027 0.037
4.844 4.361 0.146
5.149 4.137 0.075
5.637 4.229 0.072
5.591 3.973 -0.037
0.134 6.057 2.006
0.472 6.064 2.074
0.434 6.321 2.247
0.038 5.989 1.581
0.417 6.297 1.612
4.799 4.977 0.355
5.015 5.024 0.674
5.531 5.168 0.372
4.711 4.606 0.173
4.747 4.808 0.414
5.116 4.955 0.177
5.360 4.770 0.380
4.309 4.467 -0.079
4.781 4.651 0.094
4.777 4.556 0.250
5.050 4.596 0.241
5.600 4.867 0.161
4.659 4.823 0.016
4.923 5.007 -0.057
5.286 5.144 -0.072
5.530 5.020 0.253
0.518 4.826 4.025
1.084 4.964 4.041
1.205 4.932 4.059
1.350 4.829 3.861
0.456 4.472 3.550
0.912 4.637 3.642
1.034 4.789 3.866
1.434 4.618 3.884
1.537 4.577 3.702
1.999 4.642 3.717
0.333 4.247 3.267
0.633 4.251 3.454
0.693 4.260 3.539
0.954 4.476 3.475
1.392 4.445 3.488
1.779 4.473 3.615
2.033 4.430 3.658
2.194 4.658 3.805
0.216 4.006 3.294
0.558 4.191 3.192
0.769 4.271 3.165
1.277 4.146 3.393
1.379 4.328 3.416
1.676 4.259 3.487
1.918 4.175 3.309
2.334 4.322 3.328
2.600 4.351 3.342
0.503 3.687 2.911
0.784 3.807 2.975
0.925 3.999 3.006
1.103 4.044 3.285
1.508 4.120 3.340
1.772 4.170 3.386
1.935 4.068 3.192
2.269 4.242 3.144
2.737 4.318 3.445
2.944 4.449 3.247
0.703 3.498 2.755
1.075 3.655 2.774
1.160 3.685 3.096
1.391 3.997 2.874
1.747 3.984 3.124
2.133 3.844 2.943
2.336 4.149 2.953
2.594 4.131 3.077
2.831 4.069 3.030
3.334 4.176 3.325
3.567 4.175 3.321
3.608 4.122 3.366
1.591 3.685 2.939
1.876 3.782 2.947
2.285 3.772 2.831
2.568 3.839 3.052
2.680 3.881 3.074
2.833 3.724 3.045
3.122 3.871 2.903
3.461 4.023 3.200
3.830 4.198 2.952
4.072 3.925 3.091
4.460 3.966 3.207
4.542 4.238 3.003
2.593 3.733 2.825
2.724 3.566 2.784
2.899 3.691 2.871
3.296 3.857 2.912
3.492 3.774 2.701
3.897 3.749 3.017
4.180 3.752 2.923
4.297 3.839 2.861
4.705 4.110 2.864
4.872 4.088 2.910
2.768 3.257 2.536
3.252 3.330 2.541
3.456 3.518 2.564
3.750 3.407 2.769
4.030 3.737 2.536
4.208 3.819 2.786
4.418 3.803 2.931
4.765 3.601 2.792
5.070 3.937 2.862
3.187 3.252 2.513
3.360 3.243 2.520
3.621 3.281 2.482
4.059 3.267 2.423
4.290 3.425 2.629
4.665 3.411 2.471
5.018 3.434 2.452
5.038 3.671 2.482
3.453 3.115 2.259
3.755 3.255 2.336
4.188 3.248 2.181
4.350 3.265 2.514
4.538 3.139 2.442
5.032 3.226 2.531
3.970 3.052 2.188
4.105 3.083 2.103
4.506 3.117 2.251
4.732 3.032 2.225
0.850 4.761 3.814
1.054 4.834 3.888
1.297 4.983 3.978
1.463 5.081 3.834
0.605 4.879 3.609
1.038 5.049 3.565
0.110 4.571 3.332
0.529 4.558 3.302
0.614 4.632 3.353
1.173 4.774 3.340
1.358 4.756 3.581
1.725 5.060 3.513
0.217 4.382 3.065
0.501 4.326 3.258
0.635 4.519 3.219
1.006 4.704 3.452
1.391 4.595 3.337
1.697 4.691 3.282
1.936 4.876 3.404
-0.141 4.191 3.154
0.386 4.235 3.086
0.479 4.268 3.124
0.936 4.158 2.922
1.056 4.224 3.092
1.400 4.410 3.044
1.781 4.393 3.190
1.984 4.564 3.198
2.101 4.748 3.134
0.177 3.838 2.706
0.508 4.077 2.964
0.723 4.130 2.950
0.867 4.260 2.920
1.148 4.282 2.987
1.349 4.137 3.081
1.583 4.337 2.916
1.949 4.174 3.054
2.453 4.325 3.017
0.254 3.779 2.495
0.422 3.883 2.620
0.541 3.875 2.595
1.056 4.075 2.605
1.139 3.907 2.828
1.436 3.926 2.823
1.637 4.112 2.896
2.050 4.242 2.840
2.488 4.020 2.875
2.502 4.244 2.856
2.906 4.356 3.073
2.464 3.918 2.715
2.714 4.181 2.592
2.921 4.068 2.617
3.336 4.074 2.747
3.587 4.013 2.874
3.676 4.081 2.797
4.252 4.381 2.777
4.331 4.437 2.838
4.763 4.227 2.931
5.112 4.436 3.001
5.066 4.322 3.139
3.041 3.695 2.400
3.451 3.905 2.641
3.694 4.122 2.479
3.925 3.835 2.827
4.098 4.179 2.771
4.599 3.994 2.618
4.782 4.144 2.860
4.849 4.281 2.728
5.301 4.251 2.720
3.078 3.471 2.553
3.306 3.792 2.589
3.606 3.726 2.411
3.871 3.780 2.402
4.366 3.671 2.429
4.451 3.907 2.611
4.741 4.116 2.610
5.210 4.010 2.736
5.442 3.983 2.667
3.469 3.363 2.236
3.862 3.384 2.146
4.005 3.429 2.270
4.126 3.571 2.456
4.448 3.619 2.352
4.922 3.749 2.505
5.010 3.836 2.494
5.466 3.856 2.593
3.799 3.465 2.254
4.092 3.362 2.030
4.338 3.589 2.165
4.541 3.324 2.239
4.961 3.526 2.051
5.189 3.608 2.332
4.327 3.241 2.092
4.816 3.237 1.963
0.807 4.941 3.640
1.102 5.098 3.835
6.256 5.422 3.912
6.030 5.248 3.801
6.182 5.432 3.521
5.867 5.019 3.472
6.329 5.050 3.465
5.855 4.807 3.261
5.829 4.973 3.364
6.181 4.727 3.265
5.495 4.894 3.218
5.812 4.685 3.351
5.672 4.650 3.097
5.971 4.527 3.245
5.516 4.597 3.033
5.639 4.721 3.177
5.726 4.468 2.851
5.658 4.116 2.836
6.092 6.351 3.952
6.070 5.883 3.940
5.805 5.697 3.502
6.034 5.754 3.778
5.431 5.476 3.450
5.921 5.431 3.319
6.127 5.644 3.288
5.595 5.298 3.276
5.633 5.234 3.178
6.035 5.301 3.369
6.318 5.423 3.161
5.221 5.144 3.148
5.514 5.249 3.324
5.725 4.960 3.006
5.972 5.093 3.176
6.114 5.225 3.264
5.518 4.850 3.076
5.849 4.835 2.902
5.666 4.644 2.765
5.926 4.925 2.772
5.528 4.719 2.887
5.625 4.909 2.737
5.694 4.471 2.784
6.092 4.505 2.606
5.625 4.551 2.583
5.872 4.712 2.741
5.911 4.227 2.590
5.668 4.158 2.358
5.937 4.367 2.613
5.700 4.153 2.155
6.159 6.213 4.005
5.772 5.886 3.680
5.988 6.063 3.515
5.575 5.892 3.382
5.730 5.817 3.470
6.042 6.060 3.392
5.471 5.760 3.421
5.658 5.498 3.343
5.867 5.531 3.054
5.967 5.519 3.301
5.225 5.701 2.980
5.664 5.680 3.156
5.786 5.330 2.824
5.884 5.377 2.896
6.221 5.586 3.217
5.255 5.310 2.815
5.496 5.216 3.152
5.620 5.230 2.943
6.065 5.161 2.833
6.354 5.154 2.983
5.309 4.978 2.693
5.831 5.158 2.735
5.698 4.841 2.559
5.967 5.021 2.727
5.396 4.895 2.443
5.861 5.096 2.694
5.955 4.679 2.610
6.031 4.948 2.559
5.699 4.675 2.426
5.722 4.724 2.430
5.857 4.425 2.107
6.134 4.636 2.138
5.546 4.501 2.161
5.989 4.547 2.297
6.048 4.482 2.016
5.668 4.230 1.945
5.810 4.280 2.180
5.556 4.023 1.796
5.273 6.068 3.492
5.668 6.128 3.251
5.612 6.063 3.283
5.401 5.922 3.122
5.852 6.159 3.297
5.940 6.089 3.197
5.398 6.003 3.068
5.710 5.807 3.011
5.688 5.848 2.846
6.104 5.832 2.877
5.340 5.880 2.883
5.558 5.850 2.959
5.584 5.534 2.956
5.975 5.770 2.695
6.057 5.523 3.017
5.288 5.341 2.881
5.639 5.505 2.695
5.769 5.183 2.729
5.822 5.453 2.679
6.127 5.618 2.598
5.239 5.371 2.714
5.751 5.180 2.507
5.823 5.206 2.292
6.194 5.205 2.283
5.355 5.232 2.525
5.594 4.965 2.372
5.951 5.039 2.384
6.052 4.829 2.404
5.652 4.986 2.178
5.931 4.998 2.214
5.903 4.628 1.963
6.234 4.781 1.935
5.751 4.658 2.143
5.999 4.892 1.974
5.957 4.332 1.935
5.720 4.587 1.715
5.915 4.348 2.022
6.119 4.414 1.799
5.755 4.368 1.762
6.062 4.308 1.720
5.732 4.065 1.533
5.498 6.057 3.101
5.682 6.239 2.803
5.892 6.142 2.877
5.618 6.042 2.885
5.400 5.920 2.701
5.776 5.948 2.702
6.202 6.200 2.746
5.121 5.866 2.749
5.423 6.112 2.742
5.773 5.631 2.692
6.004 5.919 2.470
6.162 5.780 2.762
5.471 5.808 2.527
5.635 5.578 2.551
5.683 5.410 2.294
6.005 5.455 2.451
6.164 5.512 2.366
5.543 5.379 2.193
5.520 5.689 2.334
5.664 5.358 2.169
6.078 5.385 2.200
5.330 5.204 2.052
5.895 5.306 2.268
5.770 5.136 1.950
5.992 5.217 2.200
5.406 5.147 1.856
5.781 5.278 1.930
5.787 4.878 1.714
6.194 4.834 1.951
5.643 4.729 1.937
5.761 4.860 1.937
5.900 4.538 1.596
5.486 4.795 1.599
5.901 4.656 1.531
5.811 4.377 1.337
5.562 4.411 1.345
6.006 4.338 1.488
5.906 4.222 1.276
5.669 4.160 0.924
5.564 6.292 2.547
5.974 6.324 2.443
6.215 6.107 2.689
5.569 6.000 2.631
5.653 5.773 2.174
6.018 5.985 2.222
6.052 6.059 2.553
5.186 5.976 2.407
5.615 5.801 2.500
5.657 5.572 2.285
6.115 5.759 2.152
6.383 5.656 2.161
5.346 5.813 2.192
5.571 5.588 2.027
5.553 5.537 1.810
5.865 5.420 2.155
5.310 5.569 1.804
5.713 5.601 1.888
5.797 5.299 1.642
6.122 5.230 1.953
5.497 5.386 1.672
5.957 5.197 1.955
5.842 4.998 1.508
5.535 4.929 1.597
5.684 5.057 1.575
5.957 4.933 1.388
5.623 4.931 1.400
5.872 4.823 1.320
5.897 4.637 1.165
5.672 4.688 1.115
5.810 4.650 1.355
6.194 4.440 0.965
5.835 4.279 1.137
5.856 4.534 1.241
5.921 4.238 0.736
5.918 4.238 0.825
5.949 4.276 1.016
5.693 3.913 0.748
6.094 3.887 0.507
5.818 3.602 0.173
5.878 6.008 2.001
5.356 5.330 1.415
5.710 5.220 1.462
5.666 5.027 1.052
5.944 4.982 1.127
5.506 4.742 1.023
5.893 4.692 1.023
5.853 4.751 0.675
5.694 4.665 0.672
6.035 4.654 0.754
5.985 4.600 0.782
5.673 4.519 0.475
5.958 4.340 0.799
6.120 4.132 0.643
6.017 4.332 0.433
6.045 4.221 0.570
6.094 3.944 0.146
5.975 3.794 0.207
6.264 4.099 0.401
6.427 3.939 0.095
5.848 3.707 0.027
6.330 3.627 -0.012
5.596 4.963 0.815
5.879 4.795 0.679
6.136 4.565 0.568
5.787 4.679 0.453
6.046 4.727 0.506
6.285 4.514 0.199
5.816 4.433 0.290
6.171 4.314 0.149
6.251 4.228 0.152
5.893 4.244 0.101
6.345 4.206 0.004
5.646 4.954 0.222
6.180 4.958 0.133
5.812 4.916 0.089
6.224 4.627 0.349
6.128 4.437 0.042
5.976 4.616 -0.090
6.075 4.486 0.024
6.232 5.471 3.842
5.914 5.247 3.807
6.053 5.366 3.783
6.076 4.906 3.297
6.271 5.039 3.621
5.801 4.618 3.312
6.039 4.944 3.144
6.119 4.823 3.381
5.445 4.675 3.270
5.725 4.823 3.280
5.672 4.547 3.057
6.046 4.507 2.929
5.671 4.699 3.162
5.654 4.754 3.235
5.728 4.310 2.863
5.632 4.217 2.544
3.362 0.210 0.797
3.253 0.016 0.286
2.449 0.020 0.615
2.789 0.175 0.656
2.961 0.026 0.516
3.490 0.037 0.331
2.283 -0.171 0.037
2.701 0.015 0.236
2.865 0.261 0.161
2.954 0.180 0.283
3.485 0.057 -0.130
2.291 -0.161 0.028
2.590 0.210 0.055
2.692 0.202 0.175
2.957 0.131 0.185
