1.324 6.020 5.050
5.085 6.073 4.775
4.892 6.143 5.840
4.956 6.264 5.756
5.483 6.284 5.443
5.427 6.304 5.368
5.370 6.002 4.958
5.341 6.145 4.725
5.074 5.749 4.886
5.658 5.903 4.843
5.329 5.820 4.856
5.288 5.555 4.117
5.311 6.076 5.804
5.526 6.030 6.282
5.752 6.415 5.741
5.367 6.234 5.658
5.749 6.358 5.844
5.817 6.106 5.830
5.590 6.209 5.235
5.487 5.754 5.454
5.983 6.215 5.425
6.031 6.062 5.483
5.939 6.194 5.373
5.266 5.691 5.237
5.334 5.818 5.003
6.080 6.188 5.481
6.020 6.123 4.956
5.868 5.916 5.207
5.598 5.804 5.003
5.563 5.544 4.555
5.132 5.334 4.787
5.163 5.538 4.326
5.994 6.170 5.232
5.390 5.645 6.428
5.515 5.993 6.159
5.735 5.657 6.001
5.677 5.546 5.908
6.217 5.971 6.007
6.052 5.796 6.239
5.427 5.714 5.772
6.128 5.901 5.687
5.616 5.830 5.293
5.660 5.480 5.218
5.982 5.990 6.030
6.294 6.042 5.661
6.079 5.737 5.439
6.116 5.936 5.300
5.598 5.915 5.569
5.556 5.453 5.410
5.518 5.323 4.763
5.031 5.581 4.703
6.117 5.862 5.626
5.936 5.776 5.296
6.103 6.172 5.451
5.959 5.584 5.347
5.653 5.770 4.863
5.517 5.456 4.610
5.242 5.086 4.703
5.219 5.214 4.230
4.985 4.937 4.432
6.206 5.681 5.282
5.787 5.860 5.865
3.423 3.799 4.376
5.861 5.804 6.263
5.668 5.393 6.302
6.105 5.891 5.944
5.900 5.386 5.684
3.769 3.733 4.205
3.578 4.074 3.786
6.110 5.685 5.708
6.138 5.933 5.803
6.022 5.533 5.721
5.678 5.506 5.232
5.646 5.427 5.193
5.282 5.235 5.214
5.083 5.066 4.988
4.316 3.942 4.011
3.725 3.924 3.993
3.409 4.115 3.408
6.246 5.671 5.259
6.333 5.720 4.909
5.788 5.261 5.042
5.447 5.357 4.699
5.579 5.097 4.646
5.400 4.668 4.646
5.283 4.950 4.121
4.660 4.366 4.402
4.726 4.321 4.296
4.351 4.051 4.126
4.283 3.892 3.479
4.214 4.183 3.506
4.049 3.867 3.095
3.466 3.756 4.684
3.576 3.928 4.466
3.227 3.398 4.189
4.354 3.912 4.488
3.821 3.739 4.534
4.070 3.685 4.001
3.903 3.875 3.672
6.212 5.368 5.708
4.889 4.665 4.791
4.875 4.469 4.700
4.595 4.048 4.372
4.486 3.989 4.033
4.296 4.170 4.200
4.158 3.702 4.132
3.722 3.503 3.637
6.230 5.487 5.872
6.162 5.225 5.010
5.835 5.078 5.183
5.548 4.794 4.746
5.350 4.907 4.728
5.578 4.881 4.365
5.011 4.753 4.664
4.948 4.586 4.403
4.925 4.167 4.276
4.369 3.966 4.059
4.641 3.870 3.889
3.936 3.730 3.412
3.937 3.492 3.312
2.930 3.524 4.745
3.574 3.630 4.667
3.485 3.185 4.726
4.175 3.362 4.559
4.011 3.484 4.689
3.791 3.417 4.190
4.227 3.584 4.382
4.114 3.617 4.263
3.801 3.425 4.427
3.730 3.135 4.172
5.009 4.072 4.453
4.464 3.688 4.722
4.705 3.778 4.065
4.448 3.569 4.243
3.862 3.474 4.153
3.680 3.312 3.814
5.577 4.297 5.048
5.407 4.379 4.737
5.357 4.306 4.792
5.363 4.271 4.422
5.029 4.188 4.206
4.697 3.523 4.161
4.416 3.946 3.839
4.330 3.304 3.592
4.297 3.542 3.674
0.536 6.393 5.287
0.234 5.879 4.619
-0.090 5.855 4.837
0.408 5.985 4.701
0.385 5.983 4.326
0.183 6.082 4.497
0.195 5.943 4.402
0.567 6.081 4.623
0.395 6.074 4.631
0.658 6.067 3.936
-0.079 5.704 4.062
-0.250 5.488 3.769
0.648 6.065 3.968
0.446 5.868 3.708
0.162 5.633 4.100
-0.085 5.704 3.441
0.932 5.933 3.846
0.765 6.229 3.883
0.478 5.782 3.632
0.310 5.963 3.129
0.436 5.725 2.986
1.364 6.236 3.417
0.661 6.291 3.416
0.902 5.800 3.348
0.830 5.926 3.028
0.353 5.404 3.233
0.938 6.036 3.210
0.731 5.982 2.943
0.590 5.774 2.739
-0.046 5.538 4.644
0.563 6.066 4.860
0.516 5.720 4.461
0.213 5.828 4.656
0.286 5.688 4.459
1.235 5.869 4.657
0.785 5.609 4.497
0.388 5.505 4.067
0.472 5.301 4.418
0.366 5.210 3.911
0.874 6.248 4.190
0.708 6.141 4.003
0.635 5.612 4.332
0.730 5.333 4.094
0.572 5.708 3.726
0.150 5.434 3.776
1.464 5.848 4.315
0.995 6.169 4.255
0.819 5.971 4.016
0.435 5.300 3.666
0.624 5.624 3.243
0.245 5.266 3.165
0.168 5.081 3.417
1.387 6.019 3.875
0.968 5.820 3.732
0.969 5.489 3.190
0.938 5.501 3.109
0.707 5.502 2.830
0.166 5.146 3.066
0.773 5.616 3.415
1.084 5.432 3.287
0.784 5.140 3.022
0.250 5.041 4.825
0.593 5.406 4.908
0.010 5.376 4.547
0.240 4.887 4.285
0.634 5.429 4.641
0.367 5.418 4.214
0.181 5.094 4.010
0.311 5.111 3.930
-0.140 5.043 4.035
0.818 5.799 4.522
0.996 5.504 4.159
0.651 5.372 4.265
0.146 5.280 4.003
0.036 4.849 3.507
0.258 4.658 3.727
1.349 5.912 4.175
0.743 5.676 4.163
1.093 5.410 3.515
0.626 4.935 3.317
0.216 5.033 3.305
0.390 5.048 3.561
1.140 5.565 3.385
0.848 5.150 3.363
0.713 5.325 3.118
0.364 4.908 3.067
0.589 4.653 3.177
-0.030 4.915 2.714
1.300 5.380 3.322
0.810 4.960 3.074
0.575 4.999 2.838
0.592 4.664 2.728
-0.179 4.831 4.534
0.294 4.896 4.485
-0.047 4.848 4.436
0.623 5.096 4.562
0.605 4.939 4.478
0.138 5.022 4.101
0.210 4.494 4.091
0.675 5.307 3.996
0.711 5.343 4.240
0.344 4.843 3.864
0.509 4.517 3.637
0.083 4.419 3.774
0.848 5.067 4.019
0.917 4.969 3.775
0.794 5.051 3.489
0.647 4.860 3.410
0.449 4.719 3.163
-0.155 4.230 2.933
-0.113 4.483 2.709
1.565 5.086 4.029
0.939 5.241 3.377
0.618 5.100 3.279
0.755 4.812 3.333
0.677 4.578 2.895
0.505 4.624 2.803
-0.152 4.208 2.745
1.070 5.178 3.438
1.149 5.086 3.413
0.660 4.756 3.224
0.662 4.641 2.827
0.266 4.571 2.873
0.981 4.925 2.930
0.991 4.522 2.672
1.000 4.400 2.358
0.573 4.615 4.588
0.341 4.526 4.355
0.921 5.011 4.417
0.435 4.846 4.017
0.159 4.649 3.864
0.327 4.333 4.065
0.642 5.079 4.383
0.684 4.593 3.796
0.551 4.412 3.969
0.410 4.617 3.563
0.109 4.273 3.728
0.069 3.848 3.327
1.106 4.907 4.159
1.283 4.876 3.839
0.817 4.741 3.598
0.910 4.583 3.821
0.368 4.204 3.391
-0.048 4.352 3.109
-0.135 3.802 3.265
0.324 4.023 2.701
1.180 4.684 3.824
1.114 5.045 3.408
0.892 4.919 3.660
0.681 4.332 3.615
0.522 4.495 3.076
0.671 4.499 2.832
0.068 4.085 2.774
0.620 4.250 2.715
1.434 4.780 3.524
1.271 4.450 3.008
0.836 4.435 2.827
0.815 4.570 3.075
0.608 4.191 2.703
0.407 4.355 2.713
0.294 3.982 2.669
1.704 4.629 3.109
1.350 4.973 2.808
1.083 4.389 2.746
0.928 4.500 2.774
1.017 4.394 2.321
0.716 4.230 2.576
1.560 4.567 2.915
1.403 4.616 2.896
1.238 4.560 2.620
0.961 4.071 2.583
0.430 4.235 4.644
-0.163 4.342 4.309
0.896 4.259 4.581
0.486 4.052 3.957
0.247 3.827 4.061
0.892 4.790 4.232
0.647 4.366 4.276
0.530 4.200 4.186
0.574 3.924 3.968
-0.055 3.851 3.715
0.414 3.954 2.968
1.324 4.784 4.271
0.698 4.689 3.810
0.527 4.393 3.792
0.726 3.897 3.744
0.240 4.140 3.135
0.055 3.657 2.992
0.104 3.927 2.707
1.269 4.336 3.608
1.441 4.139 3.391
1.002 4.515 3.164
0.481 4.085 3.359
0.703 3.907 3.092
0.501 3.863 2.835
0.371 3.563 2.448
1.615 4.279 3.673
1.617 4.699 3.450
0.916 4.182 3.130
1.206 3.838 3.192
0.997 3.856 2.595
0.681 4.103 2.833
0.527 3.830 2.723
1.428 4.588 3.153
1.535 4.697 2.926
1.369 4.078 2.951
0.892 4.031 2.596
1.078 3.691 2.566
0.455 3.622 2.397
0.578 4.110 2.138
1.887 4.505 2.893
1.302 4.141 2.438
1.310 4.373 2.675
1.107 4.218 2.368
0.931 4.103 2.296
1.300 4.134 1.989
1.964 4.163 2.649
1.394 4.238 2.256
1.243 3.940 2.051
1.089 4.141 1.984
0.975 3.694 2.209
1.299 3.840 1.698
1.051 3.417 1.530
1.667 3.872 2.113
1.651 3.753 2.065
1.094 4.068 1.994
1.199 3.734 1.772
0.986 3.641 1.225
1.269 3.494 1.114
1.905 3.867 1.766
1.197 3.725 1.819
0.622 4.076 4.088
0.238 3.667 3.909
0.229 3.438 3.704
-0.092 3.552 3.385
0.934 4.253 4.000
0.652 3.947 3.853
0.460 3.976 3.569
0.025 3.672 3.847
0.221 3.601 3.529
0.028 3.687 3.081
1.050 4.214 4.237
0.977 3.942 3.834
0.812 4.174 3.886
0.905 3.973 3.822
0.499 3.869 3.337
0.553 3.535 3.022
0.221 3.692 3.293
1.299 4.100 3.719
1.481 4.319 3.881
1.352 3.938 3.675
0.596 3.681 3.336
0.610 3.868 3.257
0.184 3.466 3.276
0.912 3.464 3.061
2.012 4.688 3.540
1.822 4.152 3.390
1.709 3.886 3.548
1.162 3.864 3.124
0.806 3.903 3.300
1.113 3.457 2.904
0.575 3.312 2.855
0.615 3.636 2.534
1.800 4.152 3.164
1.806 4.246 3.284
1.359 3.800 2.849
1.315 3.691 2.647
1.084 3.878 2.482
0.725 3.455 2.411
1.269 3.722 2.129
0.769 3.437 2.200
2.302 4.104 3.091
1.678 4.062 3.106
1.334 4.193 2.578
1.564 4.047 2.888
1.085 3.932 2.449
0.718 3.739 2.256
1.166 3.484 2.378
1.229 3.712 1.991
2.122 4.419 2.800
1.929 3.805 2.669
1.773 4.172 2.231
1.149 3.488 2.006
1.236 3.545 2.020
1.492 3.547 1.611
1.255 3.600 1.498
1.117 3.370 1.692
1.958 4.248 2.568
2.242 3.867 2.488
1.548 3.664 2.301
1.372 3.712 2.177
1.320 3.713 1.660
1.327 3.748 1.527
1.603 3.737 1.534
0.837 3.569 1.082
0.834 3.331 1.133
1.967 3.920 1.849
2.073 4.080 1.851
1.498 3.887 1.571
1.337 3.707 1.429
0.650 3.803 3.959
0.830 3.484 3.661
1.443 3.780 3.975
1.080 3.788 4.073
0.814 3.657 3.534
0.394 3.499 3.369
0.711 3.380 3.156
1.350 3.945 3.714
1.459 4.055 3.655
1.128 3.745 3.493
1.046 3.868 3.681
0.865 3.278 3.041
0.291 3.269 3.313
0.675 3.052 2.940
2.202 4.301 3.742
1.684 3.795 3.655
1.586 3.957 3.383
1.406 3.579 3.190
1.100 3.482 3.264
0.856 3.188 3.083
0.704 3.372 2.844
1.070 3.504 2.531
0.651 2.999 2.554
1.929 4.473 3.628
1.930 4.230 3.455
1.955 3.674 3.286
1.839 3.822 3.187
1.148 3.350 3.255
1.318 3.199 2.731
1.044 3.307 2.594
1.388 3.453 2.629
1.158 2.882 2.331
2.628 4.047 3.438
2.377 4.116 3.130
1.713 4.061 3.040
1.509 3.631 2.955
1.533 3.594 2.868
1.451 3.641 2.482
1.284 3.529 2.566
1.010 3.433 2.456
0.802 2.902 1.790
0.801 2.744 1.679
2.561 4.162 3.000
2.105 4.195 2.618
2.201 3.982 2.477
1.764 3.603 2.539
1.256 3.516 2.495
1.181 3.501 2.160
1.741 3.242 2.208
1.335 3.081 1.688
1.261 3.267 1.366
0.791 2.970 1.660
2.392 4.039 2.951
2.350 4.191 2.483
2.075 3.759 2.390
1.626 3.460 2.482
1.648 3.682 2.025
1.708 3.046 1.973
1.712 3.328 1.844
1.666 3.092 1.361
1.377 3.089 1.255
0.780 3.149 1.437
0.902 2.707 1.260
2.256 3.550 2.246
2.228 3.903 2.195
1.809 3.352 1.977
1.490 3.212 1.663
1.510 3.790 4.373
1.378 3.411 3.651
1.970 4.057 3.836
1.677 3.648 3.588
1.288 3.386 3.747
1.065 3.503 3.640
1.034 3.429 3.117
1.151 3.044 3.244
1.968 3.792 3.735
1.655 3.550 3.620
1.511 3.747 3.520
1.427 3.363 3.328
1.220 3.182 3.057
1.060 3.170 3.070
0.749 2.998 3.194
1.295 2.918 3.029
2.550 4.219 3.581
2.154 3.934 3.244
2.012 3.364 3.343
1.838 3.748 3.153
1.666 3.458 3.316
1.547 3.395 3.005
1.124 2.816 2.747
1.238 2.992 2.240
0.965 3.054 2.277
2.633 3.902 3.606
2.427 4.227 3.366
2.512 3.761 3.436
1.802 3.822 3.000
1.634 3.457 2.767
1.550 3.116 2.878
1.250 3.131 2.693
1.197 3.099 2.720
1.362 2.786 2.176
0.930 3.004 2.024
1.023 3.042 1.808
2.548 4.038 3.409
2.543 3.878 2.791
2.490 3.475 3.153
2.194 3.354 2.968
1.633 3.226 2.378
1.391 2.980 2.491
1.483 3.239 2.050
1.792 3.069 2.083
1.474 3.030 1.660
0.984 2.625 1.895
1.197 2.821 1.828
3.077 3.819 3.084
2.622 3.685 2.875
2.255 3.773 2.429
2.260 3.580 2.711
1.723 3.248 2.505
1.794 3.235 2.022
1.804 2.948 2.067
1.910 3.065 1.580
1.622 2.937 1.759
1.420 2.764 1.234
0.863 2.696 1.411
1.037 2.377 0.926
0.568 2.284 0.935
2.798 3.615 2.170
2.272 3.655 1.978
2.297 3.581 2.349
1.784 3.265 1.847
1.492 3.281 1.491
2.043 3.554 4.186
1.643 3.215 3.948
1.710 2.952 3.635
1.320 3.030 3.422
2.472 3.550 4.002
2.246 3.875 3.897
2.063 3.289 3.638
1.582 3.568 3.926
1.592 3.345 3.504
1.588 2.812 3.242
0.911 2.645 3.281
1.009 2.824 2.557
2.759 3.955 3.886
2.610 3.792 3.903
2.079 3.280 3.854
1.862 3.362 3.318
1.648 3.166 3.049
1.632 2.955 3.171
1.516 2.824 2.874
1.142 2.694 2.704
1.273 3.003 2.499
0.877 2.737 2.483
3.010 3.918 4.061
2.734 3.945 3.702
2.295 3.894 3.489
2.354 3.619 3.518
2.211 3.148 3.230
1.899 3.138 2.980
1.475 3.130 2.674
1.300 2.997 2.944
1.213 2.664 2.518
1.684 2.535 2.136
1.370 2.543 1.966
1.067 2.587 1.847
3.404 3.968 3.576
3.054 4.031 3.239
2.666 3.980 3.160
2.291 3.765 2.903
2.197 3.423 2.825
1.937 3.101 2.888
2.117 3.130 2.808
1.668 2.913 2.289
1.708 3.097 2.173
1.917 2.573 1.824
1.431 2.663 2.048
1.107 2.803 1.521
1.297 2.413 1.478
0.840 1.940 1.586
3.291 4.016 3.010
2.689 3.577 2.777
2.990 3.490 2.921
2.324 3.345 2.710
2.188 3.071 2.875
2.038 3.008 2.210
1.676 3.025 2.414
1.758 2.661 2.297
2.121 3.074 1.618
1.673 2.396 1.590
1.204 2.702 1.827
1.314 2.551 1.632
0.913 1.958 1.424
1.026 2.341 1.123
0.671 1.853 0.694
3.161 3.359 2.696
2.757 3.185 2.309
2.460 3.128 2.499
2.212 2.937 2.448
2.099 2.866 1.912
1.622 2.891 2.005
2.070 3.450 4.175
2.002 3.030 4.025
2.025 2.930 3.759
2.359 3.659 3.968
2.199 3.336 4.351
2.286 3.186 3.784
2.074 3.144 4.012
1.627 2.745 3.891
1.393 3.091 3.226
2.842 3.997 4.375
2.621 3.725 4.095
2.722 3.280 3.666
2.249 3.540 3.834
2.198 3.097 3.343
1.917 3.220 3.335
1.539 2.654 3.516
1.286 2.883 3.002
1.416 2.399 2.514
2.935 3.970 4.198
2.660 3.511 3.899
2.823 3.375 3.727
2.637 3.360 3.598
2.301 3.216 3.219
2.347 3.192 2.985
1.906 2.819 2.829
1.576 2.654 2.874
1.477 2.329 2.372
1.425 2.470 2.277
1.444 2.421 2.382
3.406 3.652 3.744
3.015 3.539 3.604
2.733 3.222 3.620
2.407 3.427 3.306
2.334 2.878 3.127
2.490 3.237 3.006
2.174 2.995 2.546
2.008 2.827 2.777
1.552 2.504 2.393
1.848 2.534 2.147
1.426 2.455 1.976
1.621 2.186 1.765
0.926 1.838 1.938
0.740 1.999 1.801
3.659 3.493 3.353
3.287 3.466 3.522
2.872 3.676 2.924
3.066 3.272 3.192
2.750 3.139 2.534
2.387 3.129 2.486
2.232 2.581 2.675
2.314 2.608 2.463
1.698 2.721 1.941
2.207 2.486 1.698
1.973 2.259 1.580
1.754 2.445 1.496
1.150 2.027 1.212
1.219 1.888 1.549
0.987 1.612 1.440
0.664 1.846 0.959
0.475 1.251 0.602
0.299 1.519 0.730
0.104 1.488 0.421
3.551 3.804 3.270
3.338 3.846 3.278
3.152 3.259 2.864
3.067 3.283 2.787
2.561 3.003 2.443
2.502 3.211 2.359
2.680 2.717 2.023
2.340 2.859 2.142
2.277 2.811 2.064
2.302 3.234 4.733
2.514 3.229 4.454
1.985 2.849 4.267
3.045 3.502 4.212
2.961 3.357 4.347
2.305 3.369 4.124
2.374 3.226 4.196
1.805 3.124 4.035
1.827 2.601 3.708
3.095 3.334 4.064
2.771 3.557 4.188
2.374 2.959 3.696
2.690 3.086 3.645
2.262 3.098 3.769
2.149 2.592 3.544
1.591 2.775 3.548
3.407 3.361 3.776
3.056 3.207 3.697
2.990 3.273 3.498
2.890 2.747 3.627
2.155 3.056 3.388
2.023 2.761 3.485
2.243 2.623 2.839
3.491 3.439 3.849
3.102 3.262 3.510
2.839 3.402 3.181
2.571 2.858 3.351
2.707 3.149 3.243
2.536 2.496 2.736
2.200 2.614 2.728
1.724 2.414 2.462
2.056 2.496 2.281
0.525 1.632 1.561
0.257 1.159 1.344
0.176 0.881 1.024
-0.169 0.821 0.769
3.738 3.628 3.529
3.132 3.586 3.245
3.392 3.329 2.992
2.881 3.220 3.213
2.619 2.651 2.855
2.570 2.551 2.952
2.607 2.585 2.575
2.251 2.244 2.616
2.177 2.021 2.489
1.858 2.201 2.300
1.784 2.435 2.034
1.987 2.007 1.923
1.741 1.990 1.330
1.318 1.838 1.509
1.155 1.490 1.242
0.886 1.502 1.008
0.838 1.091 0.662
0.525 0.886 0.804
0.166 1.086 0.362
0.039 0.793 0.596
3.764 3.697 3.367
3.328 3.417 3.423
3.572 2.986 3.277
3.351 3.259 2.815
2.940 3.081 2.738
2.723 2.591 2.273
2.653 2.864 2.486
2.262 2.282 2.347
2.176 2.196 1.755
2.736 3.228 4.871
2.856 2.734 4.605
2.288 2.951 4.787
2.090 2.596 4.250
3.084 3.378 4.740
2.779 3.325 4.255
2.490 2.779 4.467
2.412 2.911 4.195
1.982 2.427 4.200
3.232 3.031 4.296
3.210 3.091 4.195
2.633 3.182 3.813
2.644 2.894 4.055
2.279 2.587 3.477
2.087 2.573 3.266
3.594 3.470 3.921
2.948 2.791 4.099
2.719 2.792 3.708
3.013 2.802 3.399
2.671 2.790 3.510
2.587 2.546 3.473
0.009 0.404 1.127
3.409 3.340 3.946
3.335 3.280 3.991
2.900 2.896 3.709
2.670 2.876 3.449
2.676 2.665 2.998
2.520 2.187 3.194
0.414 1.234 1.125
0.170 0.603 1.283
0.106 0.493 1.021
-0.140 0.355 0.769
3.505 3.071 3.719
3.395 2.965 3.350
3.156 2.651 3.544
3.090 2.653 2.871
2.957 2.458 2.945
2.578 2.359 2.709
1.316 1.694 1.277
1.124 1.482 1.285
1.161 1.330 1.072
0.871 1.186 0.976
0.770 0.801 0.942
0.365 0.783 0.825
0.090 0.512 0.347
3.695 2.945 3.110
3.935 3.305 3.481
3.646 2.949 2.799
3.277 2.885 2.770
0.260 6.458 3.344
0.065 6.325 2.989
0.312 6.407 4.269
0.388 6.028 4.302
0.088 6.207 3.797
0.734 6.529 3.854
0.553 5.841 3.882
0.100 5.835 3.746
0.552 6.400 3.718
0.515 6.172 3.636
0.467 6.140 3.487
0.099 5.870 3.322
0.812 5.988 3.481
0.458 5.948 3.240
0.331 6.239 2.970
1.086 6.320 3.074
0.676 6.091 2.828
0.364 6.460 4.900
0.302 5.946 4.607
-0.185 6.139 4.750
0.383 6.140 4.560
0.677 6.141 4.638
0.393 5.745 4.247
0.017 5.818 4.584
0.584 6.044 4.280
0.677 6.326 4.242
0.482 5.901 4.329
0.034 5.945 3.963
0.243 5.772 4.073
0.920 6.174 4.016
0.516 5.972 3.780
0.225 5.556 3.694
0.329 5.947 3.847
1.102 6.147 3.862
0.577 6.135 3.625
0.350 6.053 3.373
0.445 5.902 3.415
0.384 5.337 3.118
1.405 5.862 3.737
0.857 6.237 3.207
0.912 5.579 3.228
0.710 5.665 2.920
0.506 5.777 3.234
0.996 6.282 3.052
0.931 5.915 3.268
0.550 5.470 2.800
3.511 0.793 6.424
3.806 1.269 6.055
2.857 2.955 4.833
3.361 3.101 5.271
3.417 3.132 4.745
3.721 3.243 4.676
3.701 3.187 4.918
3.559 2.985 4.804
4.544 3.740 4.768
3.990 3.440 4.628
4.155 3.174 4.649
3.859 2.923 4.349
4.652 3.735 4.611
4.677 3.746 4.388
4.478 3.313 4.598
3.898 3.267 4.346
4.079 2.962 4.168
4.790 3.860 4.902
5.042 3.807 4.782
4.718 3.547 4.257
4.176 3.410 4.321
4.458 3.259 4.210
4.101 3.382 4.035
5.403 4.018 4.532
5.221 3.746 4.256
5.236 3.616 4.083
4.883 3.260 3.924
4.453 3.396 3.872
4.590 3.159 3.512
4.105 3.376 3.618
3.317 2.867 5.259
3.006 2.736 5.141
3.731 2.951 5.028
3.466 2.863 5.013
3.972 2.919 5.287
3.583 3.100 4.976
3.188 2.864 4.638
3.772 3.345 4.766
3.713 2.790 4.566
3.908 2.712 4.680
4.305 3.524 5.052
4.328 3.277 4.933
3.881 2.825 4.684
3.789 3.002 4.578
4.354 3.094 4.400
4.139 3.192 4.329
4.381 2.971 4.246
4.018 3.082 4.239
4.985 3.265 4.668
5.023 3.093 4.504
4.817 3.237 4.121
4.625 3.151 4.331
3.936 2.714 4.233
5.564 3.749 4.726
5.428 3.281 4.196
5.235 3.392 4.196
4.878 2.874 4.178
4.636 3.223 4.088
4.619 2.971 3.617
2.931 2.417 6.241
2.560 2.450 6.220
2.959 2.843 5.931
3.161 2.753 5.518
3.620 2.566 5.840
3.432 2.818 5.438
3.923 3.101 5.698
3.641 2.947 5.289
3.549 2.720 4.978
4.241 2.963 5.094
3.650 2.882 4.936
3.305 2.536 5.013
4.061 2.968 5.244
3.720 2.887 4.868
3.667 2.648 4.898
4.537 2.634 5.096
4.263 2.871 4.432
4.015 2.732 4.714
4.605 3.189 4.956
4.451 3.123 4.524
4.142 2.899 4.485
4.188 2.552 4.363
4.851 3.453 4.712
4.693 3.097 4.567
4.991 2.864 4.237
4.402 2.553 4.213
4.564 2.651 4.015
5.555 3.306 4.327
5.517 3.212 4.281
5.371 3.047 3.996
4.678 3.140 4.125
4.498 2.617 4.255
4.649 2.752 3.853
2.604 2.546 6.518
3.208 2.512 5.998
2.941 2.365 5.945
3.830 2.483 6.249
3.449 2.370 5.838
3.241 1.989 6.027
3.579 2.450 5.884
3.680 2.515 5.923
3.250 2.310 5.347
4.040 2.297 5.391
3.600 2.232 5.314
3.458 2.340 5.384
3.898 2.800 5.512
3.796 2.598 5.415
3.723 2.366 5.191
4.437 2.540 5.318
4.226 2.699 5.227
3.746 2.488 4.656
4.485 2.378 4.927
3.970 2.376 4.843
3.897 2.420 4.590
4.742 2.708 4.888
4.527 2.644 4.540
4.079 2.603 4.579
4.949 2.544 4.469
4.624 2.448 4.245
4.325 2.482 4.242
5.361 2.703 4.344
5.250 2.862 4.002
4.939 2.186 4.094
4.431 2.281 3.666
3.135 1.970 6.235
3.065 1.752 6.390
3.739 2.242 6.460
3.695 2.336 6.250
3.382 2.206 5.782
4.153 2.034 6.179
3.677 2.303 5.885
3.575 2.241 5.757
4.262 2.472 5.435
3.739 2.053 5.529
3.389 1.813 5.197
4.060 2.138 5.485
4.002 1.866 4.969
4.432 2.090 4.833
4.143 2.069 4.920
4.641 2.458 5.089
4.261 2.038 4.707
3.419 2.015 6.331
3.515 1.679 6.065
3.451 1.521 5.730
3.952 2.323 6.331
3.560 1.731 5.867
3.653 1.959 5.523
4.099 2.090 5.792
3.684 2.013 5.360
3.962 2.189 5.163
4.005 1.894 5.071
3.934 2.007 4.856
3.558 1.847 5.942
3.793 1.219 6.013
4.352 1.812 6.211
4.139 1.406 6.135
3.819 1.619 6.077
4.283 1.820 5.730
3.982 1.373 5.451
3.929 1.234 5.183
3.812 1.160 6.110
4.188 1.541 6.332
3.829 1.104 6.099
4.124 1.127 5.644
3.849 1.204 6.379
3.728 0.784 6.136
2.194 0.367 5.899
1.784 0.084 6.108
2.659 0.666 6.300
2.401 0.413 6.185
2.446 0.456 5.719
2.104 -0.122 5.587
3.292 0.657 6.285
3.044 0.768 5.910
2.817 0.572 6.043
2.594 0.338 5.576
2.412 0.086 5.377
3.542 0.730 6.164
3.442 0.527 5.881
3.378 0.695 5.659
2.869 0.568 5.566
2.574 0.385 5.281
2.709 0.206 5.491
3.631 1.032 5.734
3.748 0.679 5.842
3.437 0.559 5.625
2.865 0.320 5.619
2.813 0.386 4.947
2.682 -0.157 4.932
4.160 0.919 5.341
3.924 0.727 5.541
3.765 0.455 5.281
3.535 0.357 4.824
2.867 0.503 5.193
3.002 0.331 5.056
3.405 0.411 4.816
3.403 0.116 4.663
3.142 0.066 4.817
2.592 0.015 6.409
3.371 0.697 6.137
3.257 0.243 6.066
2.838 0.108 6.050
3.540 0.748 6.202
3.435 0.180 5.709
3.239 0.459 5.802
3.299 0.334 5.505
4.109 0.763 6.060
3.430 0.385 5.860
3.583 0.515 5.476
3.038 0.182 5.278
3.912 0.445 5.713
3.439 0.551 5.305
3.273 -0.023 5.068
3.852 0.301 5.132
3.813 0.060 6.337
3.312 0.262 5.791
3.790 -0.046 5.865
3.591 0.204 5.653
3.871 0.230 5.328
2.567 2.926 5.083
2.604 2.688 5.184
2.659 3.203 4.669
2.475 2.992 4.712
2.370 2.797 4.812
2.036 2.438 4.702
2.943 3.014 4.417
2.774 3.054 4.731
2.432 2.858 4.392
2.250 2.625 3.966
2.245 2.375 3.904
3.513 3.099 4.151
3.166 2.892 4.230
2.787 2.413 4.209
2.665 2.407 3.811
2.725 2.428 4.053
3.318 2.720 4.402
3.025 3.064 3.782
3.015 2.355 3.824
3.155 2.544 3.573
2.708 2.212 3.423
0.280 0.479 1.164
0.103 0.333 1.506
3.547 3.056 4.171
3.651 2.876 3.550
3.458 2.921 3.879
2.882 2.790 3.372
3.054 2.113 3.139
1.005 0.631 1.460
0.595 0.772 1.281
0.289 0.270 0.959
0.351 0.141 0.794
4.118 3.024 3.705
3.512 2.909 3.545
3.694 2.948 3.346
3.005 2.748 3.522
1.393 0.912 1.524
0.785 1.003 1.323
0.544 0.577 0.879
0.353 0.615 0.724
0.033 0.373 0.325
0.095 -0.034 0.364
4.254 2.667 3.358
3.608 2.846 3.590
3.587 2.827 3.205
2.487 2.626 5.286
2.650 2.538 5.346
2.578 2.688 5.266
2.509 2.241 4.916
2.982 2.619 5.204
2.806 2.394 4.650
2.565 2.190 4.417
2.676 2.229 4.301
3.322 2.754 4.532
3.067 2.310 4.478
2.762 2.552 4.436
2.615 2.045 4.565
3.152 2.735 4.532
3.400 2.804 4.178
3.220 2.300 4.112
2.814 2.124 4.051
0.083 0.317 1.614
3.527 2.671 4.396
3.355 2.344 4.144
2.936 2.448 4.191
3.201 2.348 3.757
0.136 -0.110 1.360
0.007 -0.014 1.386
3.595 2.406 3.816
3.613 2.628 3.803
3.539 2.575 3.662
3.134 2.375 3.636
0.745 0.394 1.457
0.368 0.292 0.843
0.352 0.285 0.722
3.830 2.399 4.041
3.606 2.669 3.530
3.555 2.635 3.439
1.180 0.389 1.387
0.848 0.105 0.843
0.803 0.220 1.014
0.308 -0.134 0.889
4.170 2.681 3.701
4.080 2.436 3.506
2.413 2.343 5.796
2.659 2.176 5.406
2.829 2.268 5.614
2.330 2.325 5.448
2.894 2.199 5.345
2.835 2.070 5.405
2.455 1.828 5.163
3.206 2.478 4.993
3.184 2.378 4.981
2.987 1.918 4.871
2.445 2.164 4.532
3.467 2.633 4.778
2.977 2.432 4.801
2.751 2.371 4.459
2.869 1.717 4.499
3.642 2.252 4.874
3.137 2.396 4.602
3.006 2.353 4.187
2.735 1.876 3.911
3.803 2.289 4.392
3.676 2.289 3.954
3.069 2.226 4.289
2.957 1.987 3.940
3.913 2.483 4.277
3.552 2.416 4.012
3.566 1.932 3.622
0.561 -0.042 1.291
4.149 2.258 3.842
3.644 2.063 3.839
1.050 0.500 0.991
0.765 0.251 0.813
4.121 2.221 3.387
2.327 1.886 5.968
2.817 1.919 6.099
2.700 2.052 5.914
2.523 1.551 5.620
2.804 2.308 5.927
2.714 1.715 5.679
2.763 2.010 5.269
2.911 2.218 5.288
2.715 2.094 5.025
2.520 1.864 4.845
2.480 1.793 5.062
3.392 2.029 5.429
3.192 1.840 4.999
2.873 2.116 4.640
2.634 1.485 4.939
3.668 2.314 5.115
3.554 1.883 4.743
3.226 1.660 4.603
3.114 1.410 4.260
3.935 2.404 4.602
3.246 2.082 4.270
3.473 1.684 4.267
2.971 1.430 4.003
3.915 2.360 4.412
3.488 2.106 4.321
3.257 1.768 4.012
4.301 2.322 3.929
3.572 2.146 3.986
3.979 2.381 3.936
2.455 1.868 6.371
2.787 1.624 6.060
2.546 1.971 6.229
2.338 1.574 5.956
2.742 1.589 5.804
2.935 1.786 6.069
2.431 1.723 5.685
3.294 1.942 6.004
2.815 2.006 5.515
2.398 1.453 5.486
2.432 1.584 5.026
3.118 1.707 5.365
2.766 1.599 5.341
2.994 1.553 5.008
2.678 1.555 4.744
3.410 1.970 5.190
3.021 1.763 5.326
2.917 1.825 5.003
2.987 1.646 4.878
3.474 1.931 4.983
3.374 1.931 4.714
3.148 1.407 4.451
3.077 1.711 4.652
3.727 1.935 4.882
3.666 1.733 4.586
3.407 1.483 4.474
3.932 2.176 4.813
3.822 1.486 4.271
2.514 1.360 6.420
2.308 1.329 5.677
2.085 1.317 5.906
3.286 1.706 6.105
3.058 1.480 5.815
2.332 1.018 5.982
2.125 1.256 5.436
3.468 1.334 6.049
3.203 1.465 5.613
3.035 1.282 5.700
2.460 1.147 5.304
2.275 0.775 5.098
3.243 1.317 5.478
3.166 1.248 5.275
3.147 1.297 5.161
2.807 1.236 5.368
2.431 0.960 4.875
3.320 1.542 5.503
3.476 1.749 5.391
3.077 1.121 4.752
3.085 1.448 4.818
3.715 1.431 5.337
3.521 1.522 5.147
3.027 1.323 4.544
3.190 1.097 4.632
4.077 1.830 4.994
3.499 1.478 4.566
3.738 1.608 4.298
2.746 1.150 6.359
2.320 1.141 6.117
2.107 1.033 5.649
2.321 0.915 5.499
3.054 1.073 6.102
2.884 0.952 6.054
2.616 1.004 5.649
2.232 0.674 5.942
2.576 0.657 5.385
3.316 1.213 5.785
3.400 1.271 5.969
2.949 1.091 5.528
2.827 0.993 5.503
2.306 0.653 5.479
2.025 0.455 5.329
3.290 1.123 5.818
3.318 1.441 5.722
2.943 1.055 5.557
2.840 0.716 5.084
2.379 0.529 4.765
3.651 1.508 5.146
3.279 1.431 5.227
3.340 0.990 4.829
2.779 1.103 4.751
2.835 1.011 5.008
3.888 1.567 5.093
3.404 1.299 5.186
3.469 0.953 4.853
3.188 1.113 4.630
2.470 0.493 6.031
2.262 0.617 6.308
2.697 0.891 6.262
2.700 0.891 5.961
2.106 0.295 5.714
1.944 0.612 5.648
1.970 0.363 5.564
3.072 1.225 6.010
3.119 0.728 5.965
3.050 0.997 5.861
2.745 0.550 5.733
2.272 0.745 5.523
2.410 0.153 5.689
1.810 0.274 5.042
3.724 1.355 6.153
3.214 1.005 5.586
2.999 0.906 5.903
2.857 0.526 5.555
2.806 0.405 5.169
2.418 0.074 5.426
2.184 -0.007 4.782
3.475 0.993 5.517
3.255 1.009 5.423
2.989 0.715 5.446
2.853 0.672 5.296
2.986 0.652 4.884
2.539 0.531 4.767
3.925 0.989 5.737
3.593 1.224 5.493
3.501 0.786 4.910
3.307 0.574 5.134
2.695 0.799 4.811
3.532 0.999 5.176
3.739 0.838 5.007
3.239 0.753 4.790
1.921 0.194 6.352
1.732 0.168 6.258
2.971 0.463 6.310
2.760 0.227 6.266
2.227 0.476 5.806
2.288 0.254 5.882
3.276 0.929 6.412
2.823 0.229 6.113
2.988 0.161 6.083
2.520 0.147 5.831
2.189 -0.041 5.393
3.298 0.539 5.809
3.209 0.414 5.637
3.140 0.590 5.894
3.156 0.258 5.572
2.777 0.259 5.493
2.714 -0.131 5.269
3.693 0.939 5.935
3.595 0.761 5.798
3.156 0.316 5.755
2.926 0.249 5.438
3.113 0.167 5.288
2.828 0.323 5.179
3.882 0.668 5.346
3.606 0.766 5.400
3.254 0.662 5.496
3.301 0.181 5.037
3.024 0.233 4.984
3.017 0.328 4.733
3.560 0.780 5.310
3.518 0.464 4.586
3.199 0.336 4.419
5.496 6.498 3.158
5.679 6.275 2.601
5.689 6.149 2.173
5.460 6.360 3.190
5.522 6.140 2.849
5.702 6.435 2.833
5.831 6.027 3.180
5.690 5.960 2.902
6.050 6.361 2.979
6.079 5.763 2.759
6.083 6.160 2.338
5.668 6.484 4.015
5.205 6.007 4.183
5.301 6.208 3.718
5.463 5.912 3.633
4.891 5.968 3.869
5.589 6.175 3.653
5.855 6.343 3.846
5.209 6.025 3.469
5.998 6.192 3.287
5.696 6.259 3.105
5.111 6.062 3.064
5.829 6.202 3.390
5.672 5.716 3.153
6.376 6.195 3.346
6.148 6.043 3.297
5.576 5.639 3.192
5.494 5.766 2.691
6.360 5.754 2.727
6.280 6.027 2.830
5.513 6.098 4.487
5.491 6.066 4.113
5.407 5.987 4.140
5.167 5.641 3.854
5.721 6.392 4.492
5.934 5.780 3.844
5.380 5.570 3.890
5.447 5.741 3.830
5.367 5.754 3.353
6.034 6.343 4.308
6.149 5.741 3.652
5.658 5.925 3.506
5.328 5.849 3.379
5.335 5.304 3.507
6.442 6.074 3.940
5.840 6.210 3.696
5.741 5.591 3.299
5.885 5.929 3.576
5.514 5.447 3.316
6.360 5.884 3.362
6.291 5.673 3.086
5.628 5.943 2.883
5.693 5.332 3.047
5.877 5.871 3.277
6.133 5.195 2.922
5.613 5.592 2.735
6.356 5.683 2.935
6.473 6.128 4.805
6.267 5.927 4.458
5.646 6.106 4.754
5.477 5.478 4.202
5.520 5.366 4.014
5.073 5.366 4.306
4.800 5.564 3.906
6.351 5.938 4.963
6.530 6.256 4.250
6.236 5.926 4.338
5.749 5.493 4.069
5.670 5.886 4.071
5.180 5.572 3.626
4.970 5.431 3.693
5.079 4.954 3.320
6.031 5.696 4.269
6.308 5.909 4.057
5.612 5.480 3.720
5.475 5.737 3.769
5.283 5.461 3.230
5.292 5.157 3.302
5.903 5.632 3.544
5.959 5.629 3.362
5.680 5.723 3.534
5.815 5.460 3.090
5.902 5.855 3.580
5.900 5.741 3.286
5.966 5.208 3.164
5.934 4.943 3.432
5.843 5.309 3.014
6.216 6.030 5.060
5.797 5.828 4.913
5.703 5.438 4.323
5.353 5.093 4.349
5.364 5.244 4.431
5.297 5.175 4.090
4.762 4.610 3.938
4.953 4.943 3.847
5.930 5.734 4.248
6.024 5.263 3.985
5.623 5.276 3.822
5.644 4.924 3.899
5.375 5.257 3.818
5.159 5.071 3.471
5.024 4.859 3.635
6.048 5.266 4.267
6.108 5.168 3.910
5.895 5.174 3.926
5.658 5.132 3.482
5.549 4.914 3.661
5.967 5.600 3.461
6.133 5.098 3.427
5.718 4.797 3.256
5.777 4.882 3.253
5.792 5.270 3.097
6.008 5.324 3.255
6.152 4.890 3.280
6.065 4.555 3.091
5.547 4.609 3.171
6.257 5.323 4.463
6.086 5.379 4.801
5.444 5.283 4.262
5.559 4.714 4.538
5.017 4.933 4.167
5.337 4.430 3.764
5.074 4.402 3.932
4.953 4.093 3.335
4.718 4.209 3.556
6.177 5.420 4.218
6.339 5.221 4.449
6.035 5.229 4.122
5.585 5.134 4.192
5.182 4.799 3.722
5.042 4.504 3.905
4.770 4.575 3.727
4.568 4.082 3.249
6.049 5.113 4.047
5.804 5.236 3.867
6.050 4.723 3.694
5.521 4.502 3.589
5.437 4.617 3.619
5.476 4.568 3.291
5.104 4.548 3.114
6.024 5.123 3.831
6.028 5.060 3.550
5.599 4.816 3.287
5.688 4.452 3.336
5.288 4.764 3.207
6.324 4.908 3.403
6.164 4.986 3.098
5.810 4.392 3.020
6.283 4.258 3.157
5.994 4.312 3.191
5.581 4.139 2.770
6.149 5.184 4.546
5.861 5.180 4.702
5.916 4.952 4.353
5.364 4.819 4.166
5.138 4.302 3.925
5.106 4.084 3.770
5.081 3.997 3.612
4.517 4.004 3.685
4.537 4.121 3.356
4.520 3.715 3.367
3.996 3.443 3.398
6.387 5.069 4.233
6.132 4.982 4.544
6.054 4.524 4.127
5.796 4.425 4.189
5.467 4.339 4.069
4.970 4.013 3.766
5.176 4.120 3.575
4.729 3.785 3.024
4.585 4.023 2.988
6.412 5.095 3.869
6.038 4.729 3.877
5.658 4.301 3.931
5.637 4.522 3.466
5.315 4.509 3.240
4.956 3.934 2.985
4.666 3.909 3.065
6.325 4.847 3.756
6.059 4.558 3.732
5.538 4.526 3.245
5.474 4.260 3.011
5.296 4.359 3.249
6.416 4.735 3.111
5.888 4.657 3.310
5.946 4.032 3.134
6.503 4.499 3.590
6.178 4.273 3.422
6.095 4.100 3.020
5.709 4.030 2.652
6.273 4.405 3.162
6.392 4.740 4.612
6.184 4.518 4.592
5.633 4.159 4.521
5.471 4.324 4.299
5.206 3.954 3.947
5.352 3.712 4.172
4.826 3.762 3.855
4.728 3.382 3.660
4.616 3.776 3.440
4.294 3.647 3.415
6.276 4.725 4.397
6.039 4.571 3.987
5.949 4.555 4.122
5.673 3.867 3.750
5.232 4.040 3.903
5.182 4.046 3.523
4.812 3.466 3.644
4.578 3.802 3.351
4.586 3.660 3.352
5.952 4.353 4.174
6.130 4.223 3.791
5.783 4.356 3.448
5.751 4.076 3.344
5.034 4.010 3.327
5.180 3.584 2.994
4.901 3.384 2.957
6.499 4.501 3.757
6.088 4.534 3.446
5.895 4.210 3.178
5.719 3.885 3.298
5.258 3.821 3.310
5.219 3.809 3.190
6.214 4.251 3.152
6.097 3.891 3.101
6.009 3.924 2.914
5.902 4.119 3.107
2.014 4.631 0.173
1.732 4.218 -0.058
2.320 4.429 0.381
1.131 3.838 0.211
1.622 4.143 0.210
1.207 4.207 0.039
2.270 4.569 -0.115
2.002 4.059 0.127
2.146 4.376 0.106
2.384 4.255 0.113
2.240 3.852 -0.071
2.185 3.990 0.466
2.094 4.107 0.273
2.157 4.303 0.287
1.336 3.778 0.884
1.043 3.739 0.478
0.904 3.525 0.451
1.595 4.009 0.778
1.687 3.934 0.695
1.416 3.874 0.159
1.282 3.532 0.269
2.245 4.327 0.237
1.521 3.927 0.486
1.585 3.604 0.124
1.126 3.531 0.220
2.190 4.314 0.481
2.325 4.255 0.445
1.941 3.787 0.154
2.397 4.357 0.208
2.260 3.953 0.147
2.102 3.933 -0.070
1.990 3.633 0.109
2.106 4.123 0.353
2.604 3.978 -0.176
2.320 4.096 0.257
1.588 3.806 1.582
1.400 3.852 1.416
1.107 3.281 1.143
0.841 3.235 0.666
1.794 4.245 1.325
1.661 3.914 1.274
1.560 4.021 0.878
1.755 3.880 1.139
1.406 3.631 0.770
1.208 3.434 0.784
1.219 3.140 0.363
1.827 3.853 0.893
1.697 4.010 0.532
1.720 3.906 0.413
1.594 3.301 0.690
1.312 3.228 0.330
1.282 3.547 -0.003
0.877 3.341 -0.028
1.945 3.939 0.679
2.262 3.900 0.542
1.832 3.913 0.343
1.652 3.432 0.444
1.438 3.667 0.059
2.421 3.933 0.411
2.413 4.172 0.193
2.334 4.031 0.426
1.671 3.666 -0.103
2.236 3.682 0.335
2.438 3.770 0.586
2.094 3.780 0.072
2.220 3.208 0.133
2.285 3.523 0.659
2.825 3.493 0.202
2.211 3.419 -0.031
2.874 3.781 0.168
1.448 3.819 1.295
1.424 3.295 1.094
1.249 3.396 0.935
0.997 3.198 0.757
0.835 3.166 0.479
2.186 3.613 1.815
1.813 4.031 1.422
1.499 3.710 1.262
1.890 3.699 1.370
1.660 3.750 1.007
1.346 3.248 0.610
1.382 3.361 0.522
1.283 2.988 0.723
0.607 2.791 0.319
2.002 4.019 1.254
2.138 3.478 1.281
1.788 3.758 0.661
2.101 3.628 0.547
1.826 3.390 0.567
1.566 2.985 0.354
1.233 2.817 0.521
1.071 2.649 -0.094
2.444 3.992 0.927
2.263 3.651 0.842
2.524 3.529 0.510
2.124 3.460 0.792
2.003 3.455 0.148
1.565 3.439 0.148
1.494 3.136 0.249
2.018 3.737 0.441
2.319 3.450 0.528
1.982 3.497 0.316
1.770 3.549 -0.117
2.614 3.416 0.342
2.777 3.344 0.516
2.573 3.114 0.483
2.353 3.061 0.461
2.026 3.019 -0.264
2.701 3.626 0.602
2.462 2.962 -0.175
1.920 3.494 1.518
1.532 3.319 1.249
1.406 3.240 0.930
1.373 3.010 0.921
1.248 2.799 1.095
0.757 2.521 0.759
2.038 3.873 2.019
1.997 3.293 1.785
2.102 3.058 1.249
2.158 3.166 1.095
1.853 2.962 1.221
1.503 3.041 0.981
1.175 2.753 0.519
1.484 2.816 0.414
1.240 2.698 0.510
0.591 2.207 0.534
2.379 3.575 1.213
1.741 3.142 0.966
2.098 3.577 0.794
2.007 3.037 0.944
1.872 2.782 0.953
1.846 2.983 0.384
1.518 2.828 0.285
1.178 2.526 0.307
1.106 2.434 -0.235
2.297 3.514 1.257
2.013 3.396 0.915
2.653 3.424 0.712
2.022 3.368 0.554
2.136 3.359 0.412
1.679 3.044 0.166
1.642 2.945 0.290
2.161 3.347 0.747
2.843 3.449 0.768
2.115 3.168 0.269
2.204 3.188 0.305
1.678 3.064 -0.180
2.555 3.626 0.483
2.548 3.025 0.642
2.041 2.743 0.144
1.872 2.588 0.116
2.203 2.857 -0.178
1.726 3.301 1.582
1.738 2.782 1.182
1.810 2.712 1.088
1.208 2.588 1.352
0.897 2.391 0.950
0.942 2.594 0.900
0.669 2.051 0.664
2.720 3.341 1.976
2.648 3.408 2.033
2.244 3.302 1.775
1.955 3.057 1.677
2.140 2.835 1.166
2.221 2.816 1.284
1.577 3.078 0.937
1.618 2.414 0.703
1.142 2.609 0.511
1.316 2.400 0.287
1.134 2.318 0.186
0.790 1.767 0.407
2.267 3.381 1.493
2.617 3.493 1.402
2.382 3.276 1.470
2.521 3.146 0.787
1.862 2.737 1.165
1.789 2.616 0.742
1.691 2.686 0.664
1.509 2.583 0.600
1.290 2.648 0.417
1.198 2.098 0.339
2.446 3.257 1.023
2.334 3.155 1.101
2.382 3.375 0.694
2.355 2.692 0.696
1.955 2.879 0.549
1.722 2.865 0.412
1.781 2.256 0.091
1.327 2.652 -0.113
2.448 2.848 0.766
2.304 3.087 0.277
2.250 2.654 0.098
1.908 2.924 -0.151
2.273 2.615 0.215
2.447 2.423 0.150
2.111 2.436 0.072
2.125 3.027 1.521
1.771 2.408 1.757
1.436 2.305 1.177
1.743 2.150 1.069
1.420 2.193 0.714
0.761 1.943 1.104
0.959 2.153 0.911
0.407 1.691 0.620
0.182 1.568 0.244
2.866 3.521 2.066
2.598 3.402 1.967
2.491 3.113 2.070
2.174 2.798 1.861
2.379 2.646 1.123
2.176 2.548 1.197
1.893 2.811 1.206
1.637 2.401 0.887
1.718 2.218 0.661
1.238 1.902 0.513
0.820 2.003 0.433
0.833 1.805 0.444
0.533 1.828 0.373
2.590 3.225 1.556
2.001 3.028 1.576
2.405 2.960 1.102
2.059 2.449 0.801
1.925 2.582 0.561
1.990 2.481 0.495
1.541 2.360 0.645
1.142 2.000 0.322
1.134 1.803 0.078
0.983 1.672 0.028
2.180 2.750 1.251
2.210 2.719 0.956
2.119 2.760 0.538
1.823 2.295 0.191
1.933 2.028 0.559
1.843 2.060 0.404
2.512 2.713 0.247
2.040 2.643 0.322
1.689 2.056 0.285
2.426 2.114 0.262
1.976 2.205 0.119
2.154 2.559 1.921
1.856 2.188 1.546
2.030 2.087 1.220
1.732 2.264 1.344
1.557 1.882 0.983
1.153 1.555 1.050
0.715 1.831 0.490
0.493 1.431 0.760
0.732 1.545 0.658
0.277 0.949 0.051
0.417 1.056 0.155
2.820 3.054 2.019
2.248 2.991 2.111
2.249 2.483 1.645
2.340 2.481 1.647
2.142 2.409 1.055
1.945 2.567 1.279
1.713 1.964 0.943
1.414 1.823 0.543
1.106 1.676 0.419
1.381 1.749 0.805
0.987 1.816 0.455
0.488 1.207 -0.070
0.578 1.136 -0.084
2.440 2.864 1.760
2.426 2.160 1.025
2.288 2.574 1.163
1.940 2.206 0.945
1.475 2.070 0.749
1.440 2.000 0.556
1.341 1.912 0.221
0.983 1.776 0.289
2.148 2.036 0.427
1.917 2.010 0.490
2.157 2.007 0.077
1.985 1.605 0.291
1.707 1.844 0.205
2.353 1.857 0.101
2.210 1.722 0.186
2.496 1.758 0.063
2.229 1.391 0.236
2.313 2.292 1.534
2.112 2.049 1.778
1.844 2.103 1.342
1.872 1.770 1.255
1.454 1.968 0.935
1.216 1.664 0.804
1.296 1.272 0.605
0.760 1.300 0.624
0.582 1.056 0.479
0.577 1.151 0.085
0.328 0.854 0.325
0.306 0.750 -0.142
3.773 3.520 3.090
2.515 2.599 1.610
2.077 1.978 1.264
1.883 2.242 1.344
1.745 2.036 1.268
1.660 1.917 0.732
1.369 1.734 0.518
1.044 1.137 0.387
0.808 1.196 0.574
0.645 0.919 0.337
0.933 0.739 0.226
2.546 1.978 0.710
2.013 2.148 0.902
1.966 1.816 0.765
1.558 1.461 0.591
1.487 1.712 0.147
1.147 1.143 0.455
1.137 1.090 0.124
2.312 2.062 0.383
2.260 1.704 0.374
1.781 1.546 0.239
1.909 1.147 0.308
2.432 1.576 0.018
1.951 1.692 -0.069
2.626 1.194 0.477
2.162 1.182 -0.151
1.720 1.429 1.172
1.863 1.711 1.363
1.206 1.039 1.199
1.013 0.893 1.196
1.179 0.961 0.828
0.891 0.809 0.537
0.746 0.644 0.494
0.199 0.730 0.338
0.023 0.540 -0.101
4.222 3.060 2.942
1.885 1.440 0.923
2.059 1.281 1.194
1.885 1.038 0.732
1.100 1.225 0.591
1.100 1.073 0.282
0.852 0.822 0.100
0.655 0.464 -0.058
0.531 0.391 0.022
2.040 1.377 1.009
1.807 1.614 0.481
1.614 1.472 0.777
1.447 1.223 0.350
1.323 1.279 0.109
1.298 1.113 0.085
2.214 1.540 0.817
1.693 1.299 0.387
1.658 1.200 -0.051
1.264 0.948 -0.106
2.615 1.544 0.222
1.934 1.457 0.258
6.176 3.757 3.059
6.007 3.978 2.957
5.969 3.845 3.184
5.393 3.440 2.724
5.853 3.956 2.992
5.840 3.856 2.478
6.072 4.020 4.485
6.114 3.876 4.690
5.857 4.063 4.449
5.560 4.055 4.146
5.141 3.439 4.028
4.784 3.388 3.770
5.096 3.373 3.805
4.886 3.476 3.823
4.542 3.084 3.315
6.238 4.130 4.626
5.995 4.376 4.479
6.072 4.284 4.318
5.537 3.774 4.113
5.149 4.004 3.749
5.129 3.486 3.785
5.138 3.531 3.341
4.762 3.501 3.608
4.478 3.334 3.213
6.309 4.173 4.231
6.256 3.944 3.661
5.822 3.851 3.572
5.377 3.937 3.621
5.393 3.590 3.182
5.328 3.175 3.489
5.155 2.990 3.123
6.174 3.943 3.588
6.172 3.854 3.636
6.025 3.780 3.290
5.353 3.458 3.221
5.183 3.200 2.988
6.274 3.941 3.118
5.770 3.642 3.223
5.797 3.826 3.154
5.709 3.379 2.938
6.047 3.585 3.181
6.155 3.309 3.016
5.815 3.189 2.872
5.720 3.413 2.960
6.057 3.490 3.063
6.293 3.456 2.775
5.857 2.900 2.683
6.473 3.326 2.355
6.029 4.007 4.726
5.972 3.899 4.391
5.799 3.634 4.400
5.603 3.734 4.143
5.155 3.559 3.794
4.850 2.970 3.986
5.026 2.794 3.851
4.703 2.592 3.256
6.366 3.646 4.223
5.845 3.725 4.189
5.974 3.547 4.327
5.449 3.186 3.814
5.367 3.400 3.614
4.856 3.136 3.338
4.855 3.254 3.351
4.839 2.829 3.510
5.983 3.631 3.867
6.095 3.699 3.858
5.854 3.397 3.477
5.754 3.466 3.659
5.569 2.988 3.492
4.903 3.095 3.435
5.857 3.706 3.704
6.104 3.354 3.536
5.804 3.245 3.076
5.730 3.102 3.323
5.496 3.008 2.693
6.340 3.683 3.517
6.330 3.295 3.263
6.095 3.506 2.820
5.731 3.274 2.869
5.964 3.402 3.535
5.902 3.155 3.016
5.588 3.035 3.114
5.341 2.888 2.884
5.939 2.780 3.040
5.987 2.704 2.434
6.152 2.973 2.715
5.675 3.529 4.300
5.728 3.098 4.444
5.557 3.439 4.413
5.480 3.211 4.138
5.056 3.005 3.803
5.034 2.676 3.536
4.704 2.773 3.451
6.218 3.433 4.234
5.890 3.468 3.931
5.752 3.132 4.260
5.312 3.061 3.516
5.104 2.808 3.690
4.997 2.562 3.286
4.784 2.561 3.462
6.383 3.650 3.813
5.837 3.358 4.023
6.015 2.965 4.018
5.684 3.180 3.822
5.176 2.903 3.182
5.129 2.596 3.506
6.368 3.328 3.872
6.020 3.332 3.757
5.995 3.137 3.426
5.392 3.133 3.147
5.580 2.681 2.833
5.996 3.400 3.158
6.252 2.995 3.190
5.660 3.080 2.763
5.305 2.596 2.782
6.096 2.856 3.303
6.034 2.573 3.065
5.919 2.596 2.833
6.148 2.661 2.752
5.749 2.519 2.771
6.026 2.646 2.328
6.229 2.341 2.621
6.228 2.342 2.396
6.315 2.520 1.622
5.865 2.659 3.997
5.352 2.977 4.044
5.013 2.803 4.178
4.794 2.374 3.850
6.192 2.982 4.298
6.042 3.102 4.295
5.708 3.179 3.917
5.440 2.988 3.631
5.073 2.866 3.562
5.084 2.710 3.844
6.307 2.956 3.957
5.958 3.064 3.748
5.998 2.682 3.644
5.624 2.661 3.621
5.378 2.713 3.242
5.956 2.831 3.383
5.670 2.690 3.493
5.488 2.710 3.226
5.807 2.238 3.386
6.106 2.819 3.103
5.666 2.380 2.789
5.629 2.471 3.009
6.375 2.345 3.226
5.801 2.559 3.143
5.670 2.362 3.232
6.409 2.305 2.934
5.774 1.974 2.898
6.407 2.353 2.305
6.127 2.249 1.862
5.839 2.534 4.136
5.937 2.776 3.909
6.094 2.801 4.106
6.119 2.395 3.665
5.499 2.605 3.654
6.417 2.661 3.949
6.075 2.406 3.288
6.038 2.547 3.499
6.145 2.279 3.223
6.301 2.296 2.954
5.657 2.386 2.732
5.995 2.196 3.180
5.981 1.956 2.498
6.002 1.602 2.050
5.946 2.553 3.693
6.303 2.240 3.600
5.890 2.375 3.136
6.153 0.526 1.563
6.147 0.582 0.855
5.644 0.279 1.074
5.454 0.349 0.942
6.099 0.136 1.093
5.663 0.101 0.677
5.462 0.183 0.667
6.383 -0.012 0.708
5.778 0.028 0.170
6.079 0.100 0.027
6.305 0.278 1.429
6.274 -0.087 0.878
2.152 1.211 0.347
2.093 1.064 -0.059
1.966 1.287 1.030
1.340 0.904 1.267
1.103 1.040 1.114
1.191 0.742 0.770
1.020 0.776 0.811
0.907 0.244 0.356
0.705 0.537 0.511
0.077 0.205 -0.020
0.288 -0.190 0.294
4.366 2.874 3.190
1.939 1.187 1.175
1.436 1.327 1.214
1.336 0.777 1.021
1.431 1.051 0.740
1.106 0.346 0.275
1.155 0.727 0.138
0.634 0.544 0.112
2.272 0.929 0.891
1.847 1.207 0.713
1.465 0.748 0.659
1.598 0.809 0.212
1.344 0.549 0.343
1.326 0.199 0.229
2.018 1.168 0.434
2.043 1.228 0.632
2.049 1.073 0.103
1.462 0.626 0.327
2.194 1.247 0.413
2.135 0.919 -0.099
2.403 0.978 0.265
2.330 0.453 0.043
1.748 0.703 1.174
1.315 0.827 0.949
1.429 0.506 0.719
1.150 0.067 0.973
1.102 0.169 0.705
0.398 -0.215 0.668
4.294 2.679 3.555
1.849 0.757 1.279
1.857 0.866 0.988
1.653 0.705 0.504
1.068 0.088 0.405
0.848 0.062 0.470
0.873 0.087 -0.079
2.007 0.818 0.774
1.918 0.794 0.324
1.578 0.594 0.426
1.259 0.235 0.305
1.424 0.126 0.146
2.268 0.715 0.642
1.697 0.486 0.142
1.590 0.261 0.086
1.751 0.617 -0.003
2.267 0.779 0.269
2.238 0.387 0.342
2.644 0.330 0.368
2.085 0.397 0.323
1.959 0.493 -0.062
2.785 0.335 -0.016
6.459 2.086 0.089
1.390 0.260 1.205
1.483 0.118 1.280
0.915 0.203 0.991
1.583 0.093 0.835
1.715 0.434 0.977
1.629 -0.049 0.322
2.001 0.748 0.860
2.135 0.560 0.697
1.992 0.288 0.601
1.740 0.111 0.217
2.548 0.501 0.465
1.858 0.138 0.273
1.714 0.387 0.256
1.664 -0.051 0.367
2.479 0.463 0.271
2.420 0.122 0.112
2.159 -0.003 -0.213
2.440 0.257 0.232
2.467 0.383 0.035
3.031 0.252 0.104
2.747 0.244 -0.029
6.044 2.078 0.725
1.860 0.047 1.306
2.005 -0.061 0.804
2.428 0.341 0.824
2.356 0.383 0.671
2.806 0.413 0.569
2.571 0.013 0.210
2.939 -0.048 0.797
3.012 -0.114 0.560
3.124 0.292 0.150
6.381 2.179 1.836
5.910 1.610 1.034
5.800 1.519 1.097
6.273 1.614 0.519
5.969 1.373 0.200
2.757 -0.134 0.694
2.639 -0.111 0.279
6.370 1.749 1.756
6.321 1.607 1.505
6.153 1.581 0.797
5.714 1.537 0.709
6.080 1.338 0.755
6.216 1.402 0.092
5.861 0.955 1.212
6.231 0.877 0.825
6.101 1.056 0.753
6.267 0.685 0.501
6.420 0.851 0.289
6.175 0.710 -0.171
6.083 0.840 1.398
5.853 0.784 1.480
6.030 0.909 1.271
6.459 0.843 1.017
5.915 0.558 0.656
5.636 0.713 0.631
5.521 0.504 0.386
6.021 0.914 0.461
6.106 0.586 0.308
5.788 0.152 0.409
6.451 0.476 0.259
5.765 0.549 0.290
6.253 0.484 1.361
6.131 0.394 0.992
5.883 0.324 1.252
5.689 -0.207 0.566
6.084 0.475 0.624
6.237 0.147 0.440
5.921 0.173 0.368
5.881 0.181 0.662
5.918 0.200 0.413
6.213 0.166 0.266
