1.529 3.601 3.792
0.234 2.416 5.474
0.353 2.362 5.173
0.291 2.827 5.017
0.767 2.588 5.201
0.777 2.937 4.591
0.809 2.740 4.773
-0.080 1.993 5.512
0.253 2.378 5.018
0.554 2.333 5.214
0.750 2.664 4.993
0.775 2.363 4.485
-0.081 1.896 5.180
-0.026 1.935 5.178
0.420 2.334 4.915
0.593 2.391 4.764
0.735 2.112 4.673
0.665 2.180 4.605
0.197 1.551 5.284
0.057 2.047 5.314
0.427 1.776 5.117
0.599 2.190 4.891
0.387 1.900 4.742
-0.023 1.301 5.399
0.318 1.496 4.809
0.417 1.884 4.955
0.477 1.979 4.863
0.276 1.295 5.245
0.400 1.177 4.702
0.492 1.328 4.558
0.589 1.495 4.709
0.003 1.271 4.704
0.259 1.308 4.639
-0.246 1.100 4.492
0.127 1.502 4.660
0.958 4.375 4.739
1.313 4.399 4.440
1.315 4.747 4.580
1.688 4.819 3.992
0.923 3.919 4.937
1.152 4.199 4.523
1.333 4.517 4.628
1.172 4.227 4.425
1.448 4.530 4.245
0.887 3.921 4.991
1.166 3.690 4.562
1.140 4.211 4.428
1.223 4.073 4.332
1.569 4.092 4.011
1.401 4.300 4.217
0.418 3.497 4.734
1.007 3.466 4.628
1.006 3.844 4.581
0.935 4.055 4.343
1.181 3.875 4.240
1.262 4.202 3.807
1.535 3.898 4.047
0.340 3.289 4.852
0.481 3.155 4.901
0.455 3.126 4.822
0.723 3.286 4.596
0.834 3.464 4.511
1.117 3.402 4.223
1.059 3.748 4.189
1.586 3.563 3.979
1.585 3.755 3.938
0.119 2.698 5.221
0.154 2.827 5.074
0.414 3.060 4.745
0.392 3.253 4.682
0.833 3.152 4.682
0.858 3.458 4.452
0.986 3.271 4.446
1.124 3.500 4.368
1.054 3.562 4.001
1.187 3.343 3.817
1.457 3.734 3.543
0.285 2.583 4.903
0.449 2.802 5.124
0.326 2.712 4.994
0.583 3.025 4.800
0.729 3.119 4.369
0.772 3.193 4.534
0.892 2.917 4.093
1.075 3.175 4.163
1.437 3.470 3.856
1.411 3.419 3.786
0.340 2.314 5.017
0.457 2.544 5.062
0.240 2.305 4.638
0.652 2.629 4.612
0.840 2.836 4.171
0.855 3.039 4.171
0.993 2.985 4.193
0.051 2.044 5.151
0.447 2.129 4.991
0.256 2.184 4.427
0.739 2.640 4.508
0.478 2.314 4.267
0.296 1.862 5.029
0.314 2.114 4.575
0.472 2.055 4.521
0.324 2.203 4.419
0.365 1.978 4.741
0.432 1.759 4.718
0.653 1.928 4.326
0.725 1.944 4.177
0.316 1.786 4.656
0.189 1.461 4.567
0.301 1.481 4.403
0.118 1.486 4.830
0.313 1.365 4.684
0.187 1.611 4.379
0.569 4.297 4.570
1.076 4.612 4.644
1.222 4.682 4.405
1.003 4.560 4.299
1.363 4.710 4.314
0.623 4.147 4.610
0.949 4.404 4.845
0.730 4.208 4.331
1.157 4.453 4.272
1.233 4.405 4.355
1.469 4.643 3.882
0.427 3.832 4.953
0.441 4.057 4.697
0.806 4.103 4.738
0.860 4.276 4.123
0.992 4.281 3.973
1.016 4.398 3.899
1.268 4.433 4.045
0.198 3.316 4.738
0.518 3.610 4.653
0.502 3.549 4.339
0.947 3.615 4.301
0.768 4.073 4.425
0.988 3.721 4.214
0.959 3.902 4.079
1.328 4.338 3.721
0.023 3.375 5.277
0.411 3.419 4.818
0.213 3.433 4.509
0.305 3.271 4.408
0.436 3.313 4.558
0.689 3.603 4.128
1.015 3.466 4.111
0.873 3.879 3.863
1.301 4.096 4.040
1.198 3.962 3.448
0.003 3.009 4.833
-0.033 3.244 4.763
0.257 3.311 4.427
0.271 3.223 4.693
0.459 3.447 4.330
0.899 3.518 4.294
0.799 3.693 4.198
0.934 3.677 3.770
1.303 3.881 3.820
1.475 3.491 3.742
-0.143 2.714 5.015
0.047 3.019 4.858
0.310 2.881 4.769
0.620 2.989 4.251
0.540 3.307 3.973
0.611 3.025 4.059
0.800 3.283 3.880
1.138 3.264 3.532
1.124 3.266 3.714
1.218 3.651 3.211
0.278 2.678 4.503
0.100 2.365 4.489
0.583 2.567 4.627
0.460 2.793 4.046
0.409 2.671 4.310
0.676 3.162 3.991
0.783 2.934 3.905
0.164 2.313 4.441
0.092 2.403 4.321
0.434 2.669 4.390
0.711 2.373 4.174
0.497 2.691 4.200
0.822 2.857 4.036
-0.159 1.916 4.327
0.393 2.290 4.142
0.580 2.084 4.121
0.411 2.140 4.126
0.474 2.559 4.138
0.236 1.701 4.553
0.188 2.224 4.060
0.562 2.273 3.895
0.473 2.194 3.964
-0.028 1.777 4.271
0.475 1.764 4.381
0.409 1.951 3.966
-0.071 1.365 4.159
0.125 1.647 3.769
0.356 1.554 3.784
0.279 4.549 4.941
0.349 4.432 4.635
0.518 4.752 4.322
0.921 4.699 4.380
1.224 4.945 4.020
0.978 4.584 4.016
0.370 3.866 4.666
0.279 4.141 4.596
0.509 4.434 4.508
0.938 4.126 4.396
0.745 4.366 4.085
0.792 4.351 4.104
0.958 4.622 4.000
-0.026 3.767 4.973
0.046 3.733 4.614
0.196 3.769 4.749
0.813 3.977 4.359
0.604 4.391 4.118
0.962 4.249 3.985
0.877 4.128 3.870
1.354 4.557 3.767
-0.243 3.733 4.683
0.052 3.417 4.576
0.419 3.440 4.470
0.247 3.695 4.319
0.395 3.689 4.299
0.823 3.884 4.176
0.761 4.073 3.822
1.166 4.002 3.668
1.386 4.154 3.430
0.020 3.159 4.840
0.200 3.621 4.804
0.278 3.607 4.311
0.317 3.791 4.359
0.612 3.414 4.253
0.944 3.773 4.142
0.800 4.069 3.800
1.077 4.160 3.877
1.121 3.922 3.349
0.216 2.868 4.863
0.359 3.059 4.507
0.119 3.256 4.466
0.228 3.480 4.015
0.742 3.353 4.249
0.921 3.575 3.767
0.973 3.555 3.533
0.929 3.944 3.641
1.017 3.613 3.233
-0.148 2.681 4.368
0.194 2.908 4.459
0.502 3.191 4.080
0.233 3.203 4.175
0.726 3.129 3.882
0.979 3.453 3.934
1.002 3.339 3.394
1.281 3.651 3.420
0.128 2.524 4.238
0.280 2.751 4.349
0.486 2.849 4.261
0.481 3.008 4.085
0.387 3.245 3.966
0.764 3.050 3.893
1.120 3.148 3.316
0.196 2.424 4.414
0.123 2.728 4.416
0.463 2.863 4.143
0.484 2.968 3.820
0.491 2.607 3.954
0.143 2.418 4.318
0.202 2.483 4.280
0.350 2.307 4.131
0.310 2.721 3.789
-0.094 2.300 3.908
0.073 2.177 4.007
0.523 2.265 3.863
-0.057 1.915 3.789
0.006 1.729 3.903
0.144 1.620 4.134
0.197 1.888 3.758
-0.018 1.607 3.463
0.072 1.396 3.398
0.159 4.562 4.508
0.232 4.595 4.611
0.617 4.390 4.111
0.675 4.553 4.025
0.987 4.811 3.893
0.790 4.680 3.982
-0.118 4.320 4.520
0.127 4.303 4.463
0.444 4.169 4.546
0.319 4.411 4.318
0.780 4.549 4.259
1.038 4.526 3.649
0.786 4.516 3.578
-0.076 3.957 4.415
0.362 3.910 4.468
0.492 4.261 4.013
0.715 4.252 4.045
0.632 4.486 3.998
0.713 4.629 3.576
0.766 4.318 3.675
0.102 3.612 4.299
0.354 3.714 4.413
0.347 4.094 4.267
0.572 3.848 4.134
0.573 3.973 3.700
0.897 4.077 3.725
0.787 4.201 3.720
-0.124 3.518 4.273
0.430 3.413 4.228
0.284 3.837 3.884
0.625 3.852 3.881
0.747 3.667 3.768
0.808 3.967 3.626
1.205 4.025 3.219
0.351 3.306 4.379
0.480 3.586 4.088
0.600 3.478 3.911
0.495 3.422 3.705
0.546 3.740 3.636
0.686 3.837 3.241
0.972 3.722 3.387
0.264 2.881 3.974
0.114 3.081 3.833
0.640 3.121 3.886
0.626 3.511 3.849
0.493 3.634 3.681
0.631 3.462 3.300
0.103 2.868 4.201
0.463 3.021 3.625
0.577 3.170 3.737
0.411 2.970 3.417
-0.210 2.586 4.050
0.058 2.632 3.907
0.117 2.549 3.687
0.594 3.047 3.712
0.151 2.644 3.722
0.317 2.375 3.761
0.414 2.464 3.513
0.331 2.742 3.559
-0.001 2.247 4.040
0.211 2.495 3.695
0.142 2.520 3.282
0.141 2.105 3.532
0.141 2.181 3.397
0.027 1.994 3.638
-0.172 1.724 3.412
0.163 1.818 3.309
0.494 0.281 1.614
0.704 0.105 1.136
1.068 -0.122 1.207
-0.156 4.563 4.461
0.197 4.771 4.238
0.508 4.917 4.095
0.561 4.565 3.997
0.495 4.674 3.687
1.009 4.839 3.452
-0.141 4.064 4.369
0.182 4.352 4.436
0.446 4.335 4.012
0.715 4.321 3.743
0.502 4.703 3.601
0.872 4.694 3.580
0.105 4.099 4.052
0.095 4.353 4.196
0.341 4.301 3.793
0.558 4.123 3.942
0.523 4.461 3.477
0.684 4.772 3.419
-0.080 4.043 4.179
0.328 3.901 4.046
0.371 3.931 3.854
0.408 4.032 3.780
0.743 4.177 3.445
0.709 4.465 3.357
0.242 3.617 3.883
0.301 3.874 3.869
0.375 3.685 3.614
0.393 4.080 3.691
0.628 4.053 3.603
0.769 4.335 3.280
-0.097 3.568 4.043
0.227 3.388 3.591
0.512 3.645 3.657
0.442 3.506 3.352
0.743 3.906 3.161
0.022 3.233 3.702
0.119 3.428 3.538
0.338 3.282 3.754
0.673 3.511 3.422
-0.011 2.970 3.601
0.017 3.396 3.571
0.291 3.247 3.393
0.163 2.984 3.375
0.483 2.925 3.680
0.073 2.613 3.640
0.083 2.526 3.143
-0.093 2.534 3.365
0.293 2.353 3.254
-0.097 2.182 3.409
0.233 0.014 1.697
0.266 0.221 1.493
0.717 0.491 1.503
0.774 0.542 1.303
0.543 -0.138 1.367
0.372 0.269 1.223
0.641 0.273 1.449
0.599 0.423 1.083
0.757 -0.021 1.025
0.197 4.823 4.188
0.313 4.905 4.234
0.216 4.996 3.962
0.447 4.815 3.954
0.477 4.858 3.453
0.032 4.384 4.014
-0.053 4.449 3.991
0.378 4.753 3.713
0.422 4.715 3.654
0.732 4.718 3.479
-0.098 4.319 4.140
0.054 4.390 3.581
0.429 4.227 3.787
0.251 4.590 3.308
0.716 4.446 3.147
0.074 4.198 3.685
0.319 4.146 3.618
0.527 4.043 3.741
0.270 4.471 3.158
0.586 4.296 3.180
-0.033 3.731 3.809
0.379 4.070 3.530
0.141 3.937 3.611
0.409 4.124 3.175
0.237 3.471 3.850
0.277 3.573 3.521
0.408 4.012 3.490
-0.137 3.372 3.325
0.128 3.380 3.238
0.024 3.106 3.494
0.064 2.995 3.121
0.167 0.583 1.949
0.075 0.568 1.528
0.165 0.588 1.478
0.512 0.680 1.676
0.328 0.643 1.101
0.027 0.210 1.631
0.058 0.165 1.627
0.187 0.421 1.212
0.399 0.703 1.231
0.359 0.494 0.825
0.127 -0.087 1.581
0.422 0.282 1.357
0.488 0.150 1.238
0.756 0.372 0.894
0.372 -0.064 1.024
0.473 0.367 1.050
0.041 4.860 3.820
0.135 4.975 3.376
0.179 4.994 3.561
0.319 4.805 3.676
0.178 4.973 3.368
0.261 4.750 3.197
0.050 4.449 3.732
0.112 4.594 3.186
0.378 4.685 3.106
-0.184 4.153 3.689
0.069 4.396 3.547
0.327 4.124 3.380
-0.153 3.791 3.422
0.266 4.033 3.436
-0.092 3.786 3.211
0.084 0.952 1.744
0.262 1.056 1.666
0.116 1.104 1.290
0.185 0.665 1.553
0.285 0.828 1.202
0.209 0.709 0.965
0.034 0.275 1.031
0.190 0.656 1.186
0.567 0.708 1.036
0.348 0.044 0.936
0.029 0.296 1.040
0.233 0.453 0.547
-0.111 -0.191 1.014
0.221 0.004 0.884
0.668 0.304 0.461
-0.001 4.921 3.473
0.195 5.382 3.384
0.306 4.801 3.139
0.007 4.961 3.222
0.143 4.658 3.067
0.174 1.404 1.365
-0.118 1.051 1.077
0.401 1.013 0.831
-0.130 0.644 0.834
0.214 0.737 0.665
0.038 0.726 1.066
0.103 0.482 0.701
0.000 0.300 0.648
0.106 0.641 0.511
0.157 0.191 0.621
0.350 0.239 0.443
0.386 -0.026 0.478
-0.042 5.201 3.246
0.134 1.456 0.891
0.097 1.255 0.985
0.129 0.781 0.706
0.024 0.699 0.591
0.146 0.564 0.671
0.144 0.485 0.225
-0.121 0.198 0.332
3.664 0.414 6.446
3.519 0.285 6.115
3.636 0.307 6.147
3.412 0.260 6.278
3.617 0.258 5.852
4.014 0.442 6.005
4.145 0.218 5.507
4.018 -0.050 5.656
4.158 -0.027 5.820
3.428 0.613 6.224
3.281 0.702 6.319
3.478 0.115 6.328
3.429 0.340 5.941
3.277 0.008 6.201
3.282 0.298 5.880
3.453 0.346 5.680
3.834 0.195 5.661
3.670 -0.024 5.571
3.668 0.210 5.466
3.836 0.031 5.333
3.588 0.488 6.221
3.085 0.516 6.164
3.351 0.607 5.859
2.960 -0.128 5.883
3.315 0.025 5.687
3.147 0.338 5.583
3.150 0.009 5.849
3.671 0.171 5.500
3.763 -0.051 5.447
4.136 0.057 5.046
4.250 0.148 4.238
2.544 0.105 6.067
2.635 0.270 6.184
2.890 0.182 6.195
2.796 -0.013 5.884
3.138 0.444 5.872
3.052 0.062 5.771
3.273 0.350 5.734
3.455 -0.088 5.144
5.985 2.372 2.725
6.283 2.379 2.773
5.831 2.253 3.042
5.752 2.219 2.727
6.218 2.434 2.376
6.429 2.432 2.288
5.659 1.698 2.858
6.129 2.068 2.672
5.891 2.221 2.352
6.192 2.077 2.315
5.453 1.615 2.810
5.868 1.589 2.655
5.904 1.747 2.583
6.251 1.949 2.579
6.007 1.779 2.006
5.402 1.349 2.663
5.742 1.643 2.572
5.671 1.678 2.488
5.732 1.466 2.635
6.106 1.651 2.148
6.000 1.757 2.044
5.562 1.237 2.736
5.407 1.127 2.812
5.881 1.369 2.809
5.812 1.485 2.379
5.881 1.241 2.175
6.168 1.639 2.105
6.026 1.551 1.895
5.232 1.155 3.083
5.578 0.806 3.024
5.270 1.026 2.455
5.522 1.148 2.332
6.031 0.872 2.352
6.057 1.022 2.075
6.286 1.341 2.146
6.118 1.336 1.907
4.786 0.428 3.216
4.855 0.470 2.907
5.014 0.771 3.121
5.325 0.754 2.707
5.164 0.447 2.816
5.646 0.698 2.707
5.631 0.596 2.454
5.625 1.085 2.408
5.729 1.122 1.876
6.239 1.196 1.752
6.054 1.088 1.908
4.478 0.226 3.927
4.470 0.035 3.670
4.434 0.038 3.444
4.955 0.106 3.531
4.801 0.354 3.201
5.000 0.302 3.173
5.351 0.718 3.039
5.294 0.754 2.556
5.501 0.545 2.854
5.760 0.419 2.427
4.991 -0.023 3.319
4.707 0.018 3.130
5.169 0.155 2.818
5.463 0.266 2.566
5.143 0.444 2.729
5.254 0.194 2.427
5.163 -0.167 2.838
5.076 0.326 2.826
5.562 0.264 2.683
6.180 2.375 2.478
6.047 2.738 2.605
5.885 2.322 2.508
6.085 2.414 2.721
6.181 2.734 2.299
6.081 2.543 2.132
5.363 2.176 2.871
5.405 2.194 2.874
5.694 2.248 2.686
5.806 2.580 2.650
6.073 2.500 2.078
6.353 2.598 2.153
5.241 1.879 2.755
5.631 2.107 2.782
5.461 2.106 2.420
5.746 2.102 2.424
5.931 2.187 2.449
6.110 2.020 2.095
6.045 2.372 2.100
5.271 1.393 3.036
5.416 1.495 2.845
5.289 1.748 2.713
5.790 1.807 2.591
5.919 2.068 2.477
5.969 1.779 2.306
5.954 2.205 2.176
5.985 2.140 1.731
5.236 1.407 2.919
5.265 1.495 3.080
5.086 1.224 2.668
5.536 1.350 2.492
5.354 1.816 2.275
5.620 1.746 2.316
6.040 1.563 2.096
5.925 1.621 2.025
6.034 1.844 1.941
4.826 1.315 3.262
5.103 1.215 3.070
5.173 0.916 2.843
5.144 1.276 2.402
5.586 1.282 2.631
5.442 1.337 2.244
5.622 1.230 2.409
5.794 1.356 1.914
6.105 1.875 1.889
6.291 1.739 1.855
4.630 1.000 3.294
5.198 0.970 2.994
5.022 1.064 2.874
4.983 0.889 2.485
5.397 1.109 2.335
5.368 1.252 2.585
5.786 1.276 2.445
5.706 1.234 2.040
5.960 1.515 2.067
5.977 1.668 1.923
6.098 1.675 1.721
4.230 0.560 3.528
4.500 0.708 3.475
4.814 0.544 3.303
4.943 0.568 2.801
5.020 0.749 2.724
5.336 0.813 2.510
5.361 0.600 2.744
5.497 0.939 2.218
5.269 0.662 2.101
5.695 1.014 2.149
5.945 1.259 1.909
5.831 1.178 2.009
5.985 1.391 1.470
6.078 1.482 1.456
4.362 0.306 3.885
4.102 0.077 3.556
4.442 0.043 3.257
4.600 0.424 3.384
4.740 0.314 3.116
4.657 0.576 2.870
4.944 0.744 2.558
5.206 0.940 2.519
5.151 0.428 2.567
5.490 0.770 2.290
5.722 0.513 2.106
5.749 0.830 2.019
4.648 0.262 3.371
4.716 0.151 3.325
4.825 0.230 2.745
5.077 0.074 2.639
5.046 0.216 2.834
5.089 0.511 2.652
5.189 0.223 2.278
5.550 0.415 2.376
4.719 -0.079 2.766
5.048 -0.102 2.523
5.234 0.154 2.624
5.120 0.425 2.394
5.423 0.258 2.502
5.302 0.326 2.266
5.875 2.439 2.631
5.822 2.828 2.545
5.988 2.492 2.319
6.290 2.873 2.381
5.527 2.331 2.973
5.448 2.639 2.653
5.509 2.777 2.328
5.791 2.623 2.182
6.127 2.660 2.076
5.217 2.010 2.810
5.108 2.378 2.637
5.588 2.182 2.502
5.705 2.368 2.700
5.436 2.443 2.463
5.647 2.635 2.363
5.953 2.531 1.757
6.121 2.634 1.936
5.052 1.990 2.612
5.376 2.093 2.661
5.616 1.813 2.526
5.684 2.278 2.546
5.670 2.349 2.365
5.609 2.243 2.015
5.834 2.465 2.070
6.230 2.424 1.737
6.354 2.711 1.758
5.088 1.358 3.045
5.008 1.891 2.693
5.295 1.570 2.451
5.458 1.736 2.478
5.743 2.081 2.054
5.660 1.929 1.877
6.003 1.957 2.087
5.865 2.124 1.849
6.217 2.109 1.413
6.389 2.429 1.560
5.138 1.530 3.051
5.178 1.598 2.880
5.099 1.660 2.764
5.306 1.421 2.702
5.234 1.542 2.102
5.682 1.533 2.140
5.821 2.038 1.987
5.681 2.008 2.014
5.812 1.853 1.862
6.268 2.211 1.671
6.464 2.059 1.432
4.703 1.232 2.973
5.079 1.381 3.010
4.782 1.146 2.754
5.047 1.458 2.723
5.298 1.216 2.556
5.625 1.246 2.181
5.536 1.447 2.098
5.935 1.463 2.068
5.901 1.482 1.630
6.035 1.845 1.611
6.320 2.124 1.602
4.778 0.786 3.176
4.857 0.823 2.942
4.912 1.112 3.007
5.069 0.948 2.836
4.813 0.738 2.567
5.266 1.199 2.180
5.168 0.930 2.293
5.443 1.298 2.063
5.412 1.362 2.053
5.609 1.420 1.642
6.096 1.650 1.802
6.014 1.586 1.477
6.050 1.673 1.175
4.115 0.402 3.429
4.609 0.422 3.248
4.710 0.651 3.094
4.929 0.650 2.870
4.699 0.831 2.814
4.849 1.100 2.402
4.812 0.805 2.595
5.131 1.058 2.300
5.070 1.037 1.976
5.518 1.211 2.180
5.512 1.285 1.845
5.913 1.362 1.673
5.766 1.212 1.428
4.014 -0.009 3.474
4.368 0.455 3.648
4.416 0.099 3.437
4.495 0.349 3.150
4.527 0.405 2.721
4.865 0.392 2.839
4.697 0.607 2.419
4.826 0.586 2.288
4.987 0.318 2.461
5.265 0.675 2.162
5.129 0.901 2.108
5.683 0.705 1.787
5.572 0.821 1.876
4.377 0.140 3.480
4.524 0.266 3.052
4.572 0.135 3.090
4.683 0.095 2.841
4.588 0.135 2.461
5.053 0.504 2.406
4.961 0.334 2.397
5.156 0.196 2.028
5.026 0.643 2.188
5.457 0.573 1.683
4.614 0.012 2.716
4.542 0.305 2.558
4.961 0.406 2.468
5.232 0.550 2.201
4.998 0.189 1.926
5.026 0.026 2.163
4.756 0.229 2.248
5.266 -0.080 2.184
5.626 2.650 2.710
5.609 2.345 2.650
5.704 2.615 2.793
5.469 2.588 2.434
5.636 2.682 2.104
5.811 2.635 2.343
4.895 2.217 2.779
4.846 2.324 2.921
5.028 2.346 2.467
5.369 2.443 2.410
5.273 2.485 2.101
5.748 2.993 2.099
5.565 2.839 2.094
4.693 2.058 3.019
4.984 2.243 2.796
5.395 2.500 2.726
5.382 2.653 2.420
5.538 2.350 2.088
5.583 2.691 2.211
5.735 2.612 1.704
6.097 2.615 1.844
4.836 2.024 3.063
4.916 1.699 2.845
5.201 1.943 2.728
5.018 2.272 2.481
5.209 2.168 2.217
5.414 2.156 2.222
5.494 2.422 1.785
5.584 2.259 1.636
6.173 2.744 1.632
5.017 2.098 2.849
4.900 1.802 2.977
4.817 1.805 2.597
5.003 1.628 2.422
5.163 1.815 2.455
5.469 2.119 2.098
5.643 2.133 1.794
5.441 2.292 1.670
5.593 2.101 1.597
6.148 2.534 1.504
4.438 1.655 2.843
4.712 1.853 2.999
5.020 1.438 2.692
4.894 1.540 2.380
4.909 1.481 2.508
5.322 1.704 2.279
5.547 2.005 1.994
5.550 1.871 2.042
5.467 2.164 1.492
5.843 1.829 1.499
6.055 2.073 1.470
4.505 1.186 2.868
4.698 1.209 2.899
4.563 1.305 2.468
4.617 1.193 2.350
4.963 1.572 2.278
5.025 1.604 2.136
5.134 1.319 1.832
5.440 1.474 2.043
5.586 1.658 1.632
5.499 1.535 1.476
6.011 1.949 1.626
5.837 1.711 1.319
4.327 1.085 2.956
4.707 0.876 3.052
4.682 1.333 2.520
5.033 1.033 2.483
5.022 1.213 2.676
5.057 1.136 2.284
5.127 1.162 2.044
5.211 1.522 1.825
5.604 1.294 1.739
5.680 1.315 1.576
5.619 1.355 1.305
6.041 1.586 1.089
4.238 0.665 2.936
4.131 0.937 3.151
4.701 1.084 2.863
4.505 1.159 2.624
4.680 0.854 2.245
4.744 0.595 2.348
5.176 1.067 2.289
4.890 0.921 1.867
5.200 0.992 1.690
5.565 1.423 1.918
5.604 1.124 1.577
4.077 0.310 3.117
4.149 0.386 2.905
4.183 0.257 2.882
4.223 0.645 2.610
4.596 0.610 2.631
4.824 0.725 2.677
4.684 0.594 2.289
4.764 0.787 2.410
5.031 0.937 1.968
5.210 0.991 1.842
5.412 0.882 1.592
5.429 0.982 1.499
3.895 0.102 3.184
4.030 0.115 3.125
4.461 0.330 2.852
4.372 0.433 2.687
4.375 0.672 2.560
4.574 0.465 2.357
4.688 0.594 2.401
4.713 0.605 2.203
4.783 0.626 1.827
4.890 0.391 1.759
4.453 -0.029 2.572
4.242 0.326 2.555
4.414 0.165 2.527
4.667 0.274 2.098
4.917 0.567 2.026
4.677 0.015 2.150
4.884 0.242 2.049
4.796 0.001 2.073
4.904 0.276 2.263
4.970 0.077 2.212
4.964 -0.231 1.671
4.964 0.019 1.792
4.797 0.247 1.853
3.778 4.228 5.127
4.214 4.417 4.783
5.388 2.647 2.685
5.350 2.775 2.645
5.389 2.785 2.312
5.790 3.062 2.160
4.789 2.460 3.002
4.933 2.510 2.929
5.276 2.589 2.796
5.361 2.418 2.562
5.643 2.636 2.375
5.744 2.620 2.208
5.751 2.903 1.991
4.567 2.296 2.714
4.963 2.612 2.530
5.021 2.831 2.292
5.192 2.687 2.292
5.509 2.724 2.270
5.549 2.664 1.841
5.512 3.007 1.606
4.394 2.344 2.691
4.907 2.375 2.824
5.112 2.085 2.750
4.954 2.215 2.143
4.977 2.399 2.222
5.161 2.509 1.850
5.523 2.576 1.670
5.456 2.730 1.623
4.387 1.892 2.683
4.423 2.002 2.563
4.798 2.136 2.592
4.915 2.036 2.394
5.159 2.396 2.181
5.342 2.505 1.859
5.362 2.545 1.857
5.658 2.606 1.929
5.781 2.677 1.745
5.993 2.795 1.469
4.708 1.985 2.587
4.398 1.736 2.542
4.969 1.937 2.297
4.657 1.849 2.088
5.217 2.101 2.100
4.959 1.997 1.956
5.439 1.991 2.021
5.234 2.077 1.596
5.586 2.142 1.509
5.873 2.648 1.241
4.368 1.561 2.859
4.603 1.654 2.511
4.511 1.622 2.311
4.758 1.818 2.447
4.939 1.740 2.215
5.270 1.899 2.187
5.086 2.027 1.666
5.152 1.876 1.495
5.411 1.925 1.634
5.631 2.003 1.207
4.360 1.219 2.880
4.654 1.573 2.855
4.707 1.696 2.375
4.465 1.216 2.594
4.600 1.439 2.014
4.662 1.290 1.882
4.861 1.428 1.896
5.116 1.704 1.871
5.118 1.885 1.823
5.467 2.034 1.331
5.432 1.968 1.479
4.306 0.951 2.976
4.376 1.149 2.761
4.566 1.366 2.606
4.512 1.305 2.250
4.436 1.055 2.283
4.573 0.942 2.188
5.048 1.466 1.870
4.829 1.547 1.708
5.335 1.228 1.429
5.162 1.343 1.700
5.332 1.869 1.295
3.931 0.687 2.849
4.050 1.027 2.850
4.353 1.137 2.445
4.638 0.788 2.477
4.692 0.908 2.369
4.616 0.687 2.152
4.714 1.137 1.889
4.725 0.843 2.051
5.230 1.184 1.940
5.229 1.106 1.658
5.300 1.156 1.369
3.921 0.625 2.958
4.010 0.430 2.721
4.286 0.429 2.717
4.379 0.688 2.444
4.419 0.586 2.502
4.787 0.652 2.210
4.703 0.876 2.206
4.595 0.562 2.079
4.965 0.623 1.795
5.224 0.935 1.645
3.661 0.277 3.098
3.796 0.158 3.016
4.203 0.228 2.586
4.209 0.381 2.623
4.292 0.568 2.542
4.591 0.626 2.361
4.571 0.720 2.138
4.772 0.653 1.957
4.768 0.721 2.059
4.759 0.681 1.810
3.839 -0.143 2.673
4.043 0.036 2.760
4.088 0.314 2.665
4.152 0.535 2.169
4.489 0.424 2.014
4.490 0.395 2.125
4.437 0.026 1.694
4.695 0.392 1.869
4.185 -0.041 2.579
4.416 0.012 2.223
4.625 0.067 1.840
4.673 0.054 1.840
4.824 -0.062 1.739
4.788 0.251 1.806
4.564 0.182 1.565
3.458 4.499 5.223
3.908 4.315 5.266
3.958 4.509 4.847
3.909 4.385 4.967
4.159 4.824 4.676
4.963 2.768 2.695
5.327 3.025 2.764
5.396 2.982 2.283
4.514 2.713 2.921
4.847 2.750 2.920
4.974 2.876 2.449
5.167 3.038 2.670
5.050 3.061 2.284
5.236 2.842 2.355
4.727 2.429 2.659
4.698 2.660 2.878
4.858 2.669 2.349
4.915 2.708 2.335
5.474 2.820 2.327
5.387 2.871 1.908
5.623 2.842 2.074
4.620 2.413 2.822
4.699 2.641 2.523
4.795 2.372 2.628
4.672 2.791 2.255
5.144 2.767 1.987
5.002 2.757 2.275
5.127 2.692 2.026
5.626 2.941 1.857
4.459 2.387 2.899
4.504 2.042 2.710
4.474 2.147 2.691
4.876 2.250 2.584
4.871 2.434 2.282
5.134 2.693 2.144
4.968 2.628 1.992
5.384 2.722 1.772
5.541 2.709 1.376
4.478 2.178 2.797
4.361 1.795 2.393
4.694 2.089 2.228
4.660 2.126 2.203
4.937 2.096 2.280
4.770 2.414 2.062
4.959 2.389 1.594
5.131 2.294 1.876
5.540 2.599 1.339
4.110 1.706 2.810
4.503 1.903 2.635
4.279 1.529 2.731
4.777 1.818 2.258
4.787 2.106 2.122
4.813 2.015 2.199
5.169 2.349 1.881
5.256 2.112 1.464
5.435 2.220 1.791
5.455 2.540 1.253
4.499 1.786 2.442
4.501 1.711 2.717
4.345 1.382 2.495
4.445 1.475 2.197
4.706 1.552 2.303
4.780 1.882 1.859
4.964 2.066 1.700
4.936 1.806 1.759
5.304 1.867 1.480
5.201 2.186 1.270
4.261 1.154 2.696
4.300 1.428 2.607
4.620 1.736 2.554
4.283 1.329 2.448
4.683 1.433 2.027
4.923 1.783 2.141
4.824 1.563 1.943
4.854 1.909 1.516
5.086 1.938 1.726
5.293 2.050 1.387
4.343 1.236 2.764
4.275 1.233 2.312
4.573 1.339 2.334
4.482 1.069 2.183
4.508 1.438 2.216
4.967 1.362 1.983
4.815 1.663 1.510
5.196 1.670 1.608
5.038 1.390 1.275
4.029 0.837 2.485
3.937 0.770 2.716
4.267 1.163 2.344
4.509 0.974 2.160
4.451 1.044 2.154
4.692 0.943 2.085
4.914 0.965 1.543
5.120 1.416 1.770
4.963 1.231 1.277
3.808 0.672 2.526
3.957 0.499 2.417
4.197 0.543 2.202
4.531 0.643 2.136
4.428 0.865 2.164
4.419 0.611 2.182
4.450 0.672 1.750
4.896 0.688 1.742
5.130 0.885 1.237
3.509 0.250 2.860
3.893 0.357 2.508
3.972 0.686 2.657
4.276 0.616 2.174
4.521 0.822 2.209
4.471 0.643 1.846
4.513 0.778 1.994
4.731 0.389 1.529
4.885 0.589 1.644
3.508 -0.079 2.838
3.833 0.318 2.569
3.884 0.141 2.380
4.127 0.035 2.329
4.362 0.399 2.187
4.555 0.224 1.818
4.281 0.390 2.041
4.284 0.397 1.891
4.670 0.431 1.475
4.134 0.169 2.406
4.046 -0.079 2.171
4.345 0.312 1.922
4.712 0.431 1.809
4.275 0.170 1.730
4.569 0.179 1.602
4.367 0.095 1.627
4.365 0.371 1.461
3.249 4.243 5.288
3.631 4.189 4.989
3.947 4.386 4.792
4.108 4.652 4.484
3.841 4.500 4.638
4.039 4.982 4.468
3.337 4.379 4.976
3.611 4.260 4.760
3.625 4.517 4.481
4.258 4.456 4.501
4.300 4.790 4.035
4.091 4.006 4.239
4.677 3.008 2.838
4.990 3.205 2.525
5.098 3.159 2.592
4.542 2.674 2.832
4.471 3.163 2.518
4.944 2.915 2.474
4.759 3.228 2.498
4.947 3.490 2.157
5.242 3.227 2.139
4.397 2.835 2.826
4.750 2.685 2.660
4.640 3.048 2.309
4.977 2.857 2.393
4.984 2.807 1.963
5.270 3.288 1.872
4.351 2.463 2.775
4.683 2.695 2.861
4.706 2.325 2.380
4.763 2.892 2.593
4.811 2.977 2.253
5.001 3.083 2.006
5.362 3.039 1.646
5.549 3.006 1.697
4.398 2.600 2.970
4.034 2.277 2.862
4.500 2.617 2.675
4.426 2.671 2.143
4.875 2.664 2.151
4.728 2.633 1.836
5.153 2.966 2.033
5.167 2.832 1.878
5.240 3.002 1.759
4.434 2.385 2.476
4.250 2.408 2.690
4.481 2.495 2.425
4.720 2.554 2.230
4.527 2.357 1.881
4.885 2.614 1.827
4.861 2.488 1.755
5.081 2.915 1.515
5.117 2.631 1.553
4.248 2.483 2.797
4.281 2.007 2.397
4.487 2.158 2.072
4.385 2.104 2.007
4.482 2.385 1.989
4.761 2.467 1.992
4.769 2.248 1.843
5.304 2.780 1.558
5.221 2.634 1.495
4.325 1.894 2.586
4.224 1.687 2.473
4.414 1.932 2.063
4.734 2.150 2.180
4.463 2.054 2.058
4.811 1.954 1.882
4.753 2.090 1.452
5.119 2.379 1.585
3.862 1.782 2.672
4.182 1.877 2.429
4.435 1.674 2.427
4.475 1.946 2.141
4.384 2.017 2.093
4.531 1.711 1.903
4.808 1.909 1.450
5.215 1.999 1.244
5.323 2.395 1.116
4.243 1.411 2.359
4.039 1.431 2.458
4.068 1.330 2.141
4.189 1.310 2.160
4.387 1.533 2.020
4.724 1.773 1.739
4.967 1.668 1.719
4.739 1.788 1.399
3.785 1.242 2.368
4.105 1.312 2.077
4.374 1.194 1.953
4.484 1.327 1.940
4.282 1.532 1.838
4.410 1.265 1.800
4.777 1.320 1.743
4.645 1.592 1.514
3.753 1.207 2.310
3.953 1.162 2.354
4.044 1.034 1.901
4.341 1.181 1.945
4.172 1.016 1.960
4.564 1.222 1.458
4.794 1.440 1.540
3.903 0.610 2.586
4.212 0.924 2.198
4.039 0.812 1.856
4.239 0.854 2.138
4.038 0.957 1.610
4.284 0.948 1.609
4.439 0.848 1.496
3.881 0.265 2.519
3.874 0.602 2.148
3.890 0.749 2.341
4.116 0.925 2.147
4.392 1.009 1.604
4.111 0.767 1.554
4.638 0.552 1.357
3.453 0.133 2.275
3.533 0.160 2.505
4.083 0.288 2.269
4.061 0.434 2.014
4.222 0.441 1.890
4.463 0.848 1.879
4.147 0.340 1.659
4.646 0.635 1.299
3.922 -0.001 2.345
4.061 0.212 2.082
3.870 0.297 1.764
3.949 0.387 1.692
4.386 0.519 1.797
4.185 0.149 1.360
4.484 0.504 1.575
4.137 0.157 1.691
3.954 0.042 1.653
4.144 0.067 1.491
4.289 5.108 3.986
3.445 4.605 5.066
3.378 4.657 4.694
3.594 4.332 4.756
3.768 4.809 4.630
3.583 4.641 4.096
3.804 4.595 4.196
4.227 4.992 3.938
4.060 4.661 3.993
3.400 4.179 4.785
3.284 4.137 4.653
3.532 4.237 4.645
3.455 4.341 4.175
3.977 4.614 4.446
3.831 4.517 3.898
4.032 4.660 4.108
4.258 4.687 3.630
3.360 4.039 4.515
3.628 4.195 4.603
3.733 4.243 4.179
3.911 4.508 4.194
4.140 4.222 4.020
4.016 4.273 3.769
3.636 3.870 3.906
3.994 3.886 4.148
4.174 3.967 3.945
3.855 4.004 3.816
4.367 3.731 2.833
4.487 3.840 2.879
4.374 3.432 3.008
4.306 3.444 2.654
4.622 3.613 2.616
4.770 3.562 2.663
4.430 3.263 3.264
4.442 3.001 2.724
4.704 3.252 2.752
4.612 3.328 2.473
4.978 3.252 2.495
5.064 3.673 2.246
4.269 3.111 2.907
4.266 2.750 2.987
4.323 3.160 2.652
4.695 3.228 2.758
4.445 3.192 2.380
4.908 3.190 2.421
4.775 3.138 2.174
4.936 3.352 2.111
4.051 2.719 2.749
4.152 2.536 2.904
4.144 2.831 2.644
4.272 2.831 2.401
4.550 2.829 2.425
4.786 2.800 2.281
5.064 3.029 1.797
5.219 3.277 1.732
5.340 3.474 1.806
4.145 2.788 2.622
4.022 2.680 2.608
4.205 2.324 2.772
4.576 2.430 2.187
4.811 2.556 2.051
5.042 2.667 1.971
5.155 3.115 2.115
4.980 2.970 1.727
5.210 2.944 1.800
4.214 2.405 2.645
3.938 2.623 2.526
3.932 2.395 2.637
4.422 2.802 2.256
4.394 2.607 2.305
4.483 2.720 1.976
4.844 3.027 1.641
4.753 3.005 1.638
4.927 3.001 1.274
3.968 2.706 2.563
4.108 2.397 2.649
4.239 2.585 2.077
4.374 2.422 2.024
4.306 2.573 2.007
4.592 2.587 1.620
4.815 2.640 1.655
5.083 2.771 1.359
5.089 2.892 1.392
3.830 2.321 2.216
4.167 2.057 2.435
4.351 2.106 2.119
4.520 2.061 2.215
4.335 2.409 1.821
4.754 2.554 1.535
4.973 2.412 1.636
4.703 2.754 1.226
4.064 2.214 2.246
3.995 1.750 2.471
4.308 2.195 1.982
4.524 2.031 2.031
4.384 2.214 1.973
4.777 2.179 1.848
4.820 2.510 1.393
4.703 2.602 1.182
4.141 2.141 2.380
3.938 1.841 2.094
4.120 1.859 2.082
4.248 1.729 2.028
4.686 2.102 1.721
4.802 1.907 1.444
4.705 2.313 1.432
4.254 1.651 2.365
4.002 1.653 1.796
4.431 1.699 2.031
4.479 1.619 1.663
4.682 1.730 1.365
4.503 1.842 1.442
4.056 1.288 1.998
3.996 1.433 2.073
4.313 1.344 1.893
4.213 1.669 1.797
3.839 0.946 1.878
3.919 1.451 1.986
3.935 1.106 1.815
4.289 1.222 1.850
3.617 0.876 2.048
4.056 0.977 2.077
4.331 1.231 2.011
4.179 0.853 1.605
3.609 0.781 2.100
3.798 0.471 1.844
4.183 0.628 1.879
4.075 0.980 1.474
3.931 0.491 1.814
3.753 0.113 2.239
3.833 0.597 2.196
3.757 0.366 2.048
4.134 0.774 1.507
4.156 0.843 1.779
4.036 0.418 1.341
3.256 -0.122 2.431
3.467 0.267 2.150
3.775 0.174 1.758
3.753 0.267 1.808
3.915 0.219 1.446
3.938 0.241 1.345
4.069 0.122 1.323
3.949 -0.021 1.718
4.200 0.317 1.309
4.082 0.152 1.498
4.112 0.019 1.205
4.211 0.183 1.381
4.092 4.891 3.678
2.769 4.294 5.054
3.193 4.396 4.817
3.179 4.531 4.867
3.600 4.747 4.517
3.510 4.571 4.286
3.759 4.986 4.051
3.555 4.837 4.134
4.019 5.187 3.803
3.705 4.540 3.647
2.997 4.125 4.863
3.243 4.378 4.455
3.371 4.502 4.587
3.588 4.644 4.383
3.705 4.506 4.232
3.815 4.858 3.824
3.776 4.788 3.835
3.721 4.511 3.535
3.888 4.723 3.611
3.051 3.907 4.585
3.326 3.977 4.402
3.275 4.444 4.357
3.746 4.229 4.258
3.708 4.635 3.942
4.030 4.475 3.907
3.943 4.606 3.523
3.958 4.313 3.619
3.877 4.291 3.182
2.993 3.816 4.225
3.393 4.027 4.162
3.310 4.057 3.941
3.641 4.002 3.847
3.918 4.256 3.915
3.724 4.425 3.635
4.203 4.169 3.332
4.051 4.177 3.424
3.479 3.805 3.860
3.583 3.773 3.846
3.567 3.965 3.670
3.733 4.257 3.727
4.214 4.251 3.242
4.036 4.074 3.246
4.217 3.901 3.339
4.273 4.111 3.254
3.585 3.676 3.621
3.715 3.764 3.766
3.990 4.007 3.287
3.874 3.928 3.290
3.789 3.627 3.059
3.886 3.715 2.924
4.031 4.079 3.013
4.233 4.162 2.581
3.816 3.677 3.407
3.733 3.650 3.290
3.949 3.809 3.157
3.749 3.604 3.209
4.306 3.423 3.137
4.241 3.835 2.677
4.353 3.679 2.503
4.349 4.023 2.321
3.684 3.627 3.391
3.933 3.566 3.148
4.068 3.189 3.193
3.924 3.369 2.886
4.061 3.705 2.922
4.324 3.534 2.304
4.722 3.868 2.521
4.914 4.003 2.134
3.613 3.102 3.382
4.213 3.252 2.963
4.151 3.021 2.649
4.060 2.983 2.668
4.229 3.447 2.674
4.529 3.572 2.223
4.609 3.683 2.079
4.787 3.637 1.891
4.642 3.610 1.845
4.209 3.376 2.924
4.143 2.987 2.761
4.124 3.113 2.393
4.211 3.208 2.636
4.347 3.217 2.325
4.447 3.098 2.052
4.893 3.442 1.932
5.011 3.333 1.783
5.095 3.347 1.884
4.246 2.735 2.731
4.041 2.745 2.673
4.008 2.607 2.455
4.095 2.801 2.431
4.370 3.015 2.216
4.434 3.308 2.016
4.622 3.067 1.820
5.025 3.375 1.720
5.080 3.421 1.597
3.814 2.637 2.696
4.235 2.282 2.730
4.272 2.651 2.403
4.077 2.510 2.283
4.363 2.839 2.313
4.671 3.074 1.768
4.788 2.805 1.972
4.832 2.878 1.779
4.825 2.902 1.269
4.267 2.612 2.416
3.908 2.646 2.325
3.863 2.855 2.114
4.069 2.893 1.908
4.368 2.857 2.170
4.495 2.807 1.563
4.342 2.977 1.582
4.707 2.977 1.703
4.861 3.031 1.479
3.981 2.698 2.415
3.916 2.233 2.463
3.950 2.372 2.177
4.279 2.674 2.146
4.175 2.401 2.041
4.339 2.973 1.581
4.670 2.576 1.377
4.595 3.153 1.332
4.041 2.354 2.512
4.211 2.044 2.083
4.286 2.516 1.668
4.310 2.625 1.703
4.496 2.581 1.556
4.693 2.516 1.284
4.875 2.680 1.281
4.054 2.119 1.986
4.170 1.928 1.686
4.191 2.468 1.390
4.498 2.290 1.412
4.509 2.506 1.135
4.393 2.031 1.666
4.259 1.962 1.508
3.561 0.348 2.166
3.285 0.177 1.971
3.412 0.375 1.578
3.585 0.511 1.724
3.275 0.137 1.638
3.552 0.131 1.397
3.560 0.249 1.628
3.732 0.140 1.369
3.702 -0.100 1.129
3.888 -0.002 1.352
3.618 4.811 3.965
2.895 4.219 4.999
2.813 4.318 4.704
3.246 4.603 4.645
3.116 4.832 4.195
3.183 4.655 4.212
3.596 4.621 3.964
3.512 5.109 3.647
3.998 4.866 3.846
3.517 4.643 3.394
4.033 4.969 3.255
2.506 4.245 4.904
2.915 4.361 4.518
2.972 4.343 4.268
2.962 4.389 4.037
3.447 4.456 3.930
3.683 4.564 4.022
3.824 4.917 4.003
3.660 4.726 3.655
3.825 4.762 3.399
3.870 4.686 3.453
2.957 4.256 4.498
3.131 3.987 4.293
3.151 4.271 4.272
3.243 4.254 3.863
3.330 4.534 3.589
3.656 4.380 3.743
3.963 4.559 3.497
3.965 4.657 3.211
4.054 4.314 3.210
4.283 4.724 3.101
2.942 3.827 4.155
3.168 4.024 4.366
3.015 4.140 4.063
3.554 4.240 3.732
3.474 4.231 3.630
3.629 4.365 3.696
3.964 4.599 3.465
3.634 4.330 3.181
3.924 4.095 3.118
3.870 4.315 2.759
3.197 3.851 4.003
3.136 3.840 3.977
3.496 3.813 3.908
3.315 4.063 3.463
3.623 4.347 3.373
3.744 4.192 3.393
3.872 4.237 3.297
3.749 4.130 3.022
4.048 3.976 2.860
4.277 4.385 2.491
3.454 3.609 3.826
3.191 3.744 3.526
3.627 3.835 3.366
3.481 4.083 3.158
3.659 4.254 3.282
3.821 3.764 2.887
4.166 3.891 2.858
4.095 4.065 2.664
4.219 4.135 2.600
4.551 4.262 2.292
3.586 3.538 3.800
3.291 3.423 3.360
3.730 3.849 3.060
3.730 3.584 2.963
3.694 3.792 3.061
4.056 3.872 2.904
4.334 3.694 2.436
4.162 4.117 2.523
4.490 3.720 2.287
4.385 4.096 2.322
3.611 3.303 3.372
3.600 3.450 2.960
3.674 3.459 3.158
3.636 3.261 2.886
4.096 3.286 2.571
4.320 3.366 2.364
4.122 3.765 2.311
4.155 3.990 1.989
4.306 3.752 2.275
4.534 4.106 1.680
3.669 3.375 3.028
3.846 3.160 2.781
4.031 3.200 2.915
4.162 3.516 2.436
4.119 3.607 2.360
4.347 3.248 2.363
4.164 3.779 2.064
4.793 3.406 1.895
4.493 3.972 1.696
4.812 3.739 1.568
3.578 2.963 2.889
3.653 3.352 2.841
3.751 2.840 2.405
3.987 3.142 2.499
4.093 3.347 2.240
4.097 3.489 2.167
4.602 3.209 2.021
4.686 3.506 2.047
4.941 3.417 1.878
4.775 3.605 1.419
3.842 2.906 2.644
3.913 3.111 2.650
3.855 2.777 2.403
3.801 3.054 2.137
4.016 3.037 2.204
4.115 2.880 2.297
4.610 2.967 2.093
4.357 3.184 1.737
4.486 3.425 1.555
4.692 3.595 1.540
3.884 2.669 2.665
3.916 2.356 2.411
3.775 2.839 2.474
4.015 2.678 2.055
4.388 2.738 1.823
4.268 2.984 1.726
4.463 2.878 1.865
4.657 3.135 1.334
4.790 3.044 1.244
4.017 2.479 2.623
3.739 2.791 2.142
3.630 2.570 2.360
3.797 2.803 2.216
4.330 2.794 1.754
4.173 3.068 1.438
4.161 3.055 1.612
4.760 3.406 1.145
4.683 3.339 0.966
3.487 2.656 2.542
3.612 2.327 1.963
4.150 2.569 2.098
4.318 2.571 1.504
4.381 2.860 1.499
4.541 3.008 1.624
4.351 3.026 1.233
4.153 2.231 1.861
4.332 2.269 1.658
4.117 2.466 1.252
4.326 2.455 1.268
3.281 0.250 1.946
3.530 0.034 1.553
3.466 0.022 1.657
3.417 -0.033 1.042
3.491 5.003 3.482
2.312 4.252 4.765
2.706 4.342 4.659
2.952 4.780 4.568
3.221 4.809 4.188
3.177 4.736 3.858
3.066 5.044 4.068
3.608 5.101 3.723
3.634 5.133 3.517
3.540 4.843 3.547
3.578 4.902 3.233
2.350 4.257 4.387
2.698 4.124 4.398
2.824 4.238 4.430
3.061 4.723 4.136
3.091 4.778 4.110
3.259 4.959 3.575
3.295 4.708 3.628
3.690 4.743 3.430
3.671 4.497 3.503
3.800 4.997 3.366
2.557 4.021 4.517
2.885 4.031 4.293
2.736 4.232 4.211
3.117 4.445 4.172
3.081 4.517 4.014
3.363 4.752 3.845
3.568 4.528 3.614
3.438 4.650 3.346
3.512 4.540 3.508
3.625 4.754 3.363
3.911 4.593 3.021
2.730 4.070 4.426
2.483 3.892 4.230
2.736 3.967 4.178
2.847 4.347 4.020
2.948 4.084 3.565
3.411 4.405 3.632
3.684 4.193 3.208
3.644 4.572 3.302
3.721 4.065 3.121
3.780 4.231 3.211
3.744 4.436 2.960
4.053 4.515 2.684
2.642 3.553 4.029
2.986 3.697 3.719
3.178 3.848 3.798
3.348 4.178 3.558
3.417 4.112 3.299
3.498 4.166 3.468
3.396 4.448 3.312
3.745 4.304 3.130
3.628 4.133 2.738
4.022 4.161 2.686
4.125 4.288 2.417
4.391 4.412 2.254
2.674 3.497 3.917
3.224 3.602 3.836
2.958 3.649 3.481
3.150 4.085 3.255
3.454 3.928 3.211
3.723 3.850 3.220
3.858 3.942 2.964
3.590 3.914 2.646
4.103 3.817 2.870
4.263 4.380 2.642
4.123 4.069 2.406
4.313 4.117 1.997
3.266 3.297 3.781
3.102 3.445 3.376
3.242 3.830 3.424
3.708 3.861 2.938
3.608 3.764 3.038
3.674 3.510 3.076
3.809 3.852 2.640
4.146 3.617 2.327
3.882 3.719 2.418
4.388 3.885 2.165
4.225 3.943 2.221
4.331 4.393 1.934
3.398 3.244 3.340
3.492 3.496 3.317
3.342 3.474 3.060
3.638 3.708 3.001
3.756 3.310 2.783
3.839 3.756 2.613
4.150 3.631 2.589
3.869 3.500 2.399
4.234 3.879 2.324
4.455 4.133 1.918
4.641 4.010 1.769
4.631 3.961 1.440
3.183 3.467 2.928
3.606 3.419 2.685
3.523 3.696 2.852
3.585 3.206 2.664
3.559 3.222 2.225
3.948 3.528 2.149
4.280 3.533 2.216
4.096 3.661 1.846
4.147 3.474 1.900
4.450 3.854 1.567
4.670 3.992 1.756
3.426 3.323 2.700
3.625 3.336 2.684
3.620 3.058 2.513
3.846 3.332 2.504
4.018 3.167 2.130
4.081 3.458 1.977
4.300 3.501 2.041
4.257 3.272 1.938
4.418 3.736 1.696
4.847 3.550 1.331
3.656 2.819 2.607
3.559 2.982 2.636
3.540 3.076 2.460
3.614 2.947 2.107
3.973 3.146 2.058
4.097 3.042 1.897
4.228 3.357 1.738
4.194 3.442 1.823
4.344 3.347 1.669
4.779 3.372 1.217
3.506 3.004 2.244
3.639 2.674 2.102
3.813 2.487 2.121
4.111 2.933 2.028
4.047 3.116 1.989
4.046 2.938 1.543
4.581 2.962 1.728
4.398 3.377 1.322
4.818 3.067 1.316
3.792 2.634 2.268
3.553 2.796 1.818
3.772 3.109 1.887
3.826 2.882 1.491
3.997 3.256 1.720
4.291 3.062 1.456
4.450 3.384 0.976
4.469 3.123 1.184
3.750 2.689 1.927
3.699 2.540 1.685
4.058 3.071 1.330
4.219 2.742 1.426
4.280 2.912 1.343
3.454 5.286 3.505
2.377 4.497 4.671
2.408 4.779 4.520
2.756 4.495 4.227
3.001 4.846 4.089
3.008 5.079 4.018
3.017 5.168 3.801
3.463 5.037 3.802
3.304 5.167 3.464
3.454 4.835 3.488
3.780 4.825 3.085
2.489 4.470 4.472
2.474 4.300 4.440
2.851 4.344 4.387
2.852 4.806 3.795
3.058 4.598 3.866
3.091 4.695 3.817
3.432 4.754 3.753
3.405 4.872 3.129
3.354 4.912 3.464
3.780 4.691 2.982
2.246 4.114 4.339
2.727 4.066 4.393
2.724 4.354 4.178
3.008 4.570 3.959
2.836 4.517 3.646
3.279 4.715 3.729
3.275 4.837 3.409
3.275 4.543 3.263
3.274 4.484 3.086
3.317 4.815 3.194
3.668 4.509 2.777
6.295 6.241 -0.101
2.447 3.990 4.038
2.363 3.816 4.259
2.767 4.009 4.053
3.062 4.081 3.593
2.736 4.147 3.766
3.142 4.452 3.386
3.252 4.471 3.470
3.458 4.346 3.379
3.523 4.395 2.808
3.542 4.528 2.633
3.468 4.461 2.840
3.875 4.822 2.518
4.148 4.596 2.618
2.350 3.621 4.281
2.494 3.736 3.957
2.741 3.690 3.910
3.010 3.879 3.841
3.111 3.885 3.418
3.371 4.260 3.555
3.062 4.482 3.206
3.511 4.455 3.155
3.593 4.046 2.946
3.366 4.332 2.882
3.501 4.255 2.672
4.004 4.509 2.208
3.943 4.391 2.316
4.345 4.722 2.237
2.666 3.671 3.922
2.917 3.579 3.900
2.898 3.918 3.430
3.110 4.042 3.553
3.122 4.018 3.279
3.385 4.263 3.083
3.503 3.950 3.176
3.334 3.982 2.670
3.738 4.259 2.486
3.966 4.153 2.514
3.795 4.367 2.309
4.101 4.477 2.192
4.280 4.312 1.981
4.254 4.266 1.735
3.058 3.766 3.272
2.803 3.816 3.449
2.909 3.784 3.127
3.471 3.738 3.097
3.308 4.120 2.814
3.600 3.594 2.935
3.596 4.056 2.623
3.875 3.941 2.540
3.727 4.092 2.292
3.964 3.907 2.221
4.377 4.128 1.701
4.241 4.342 2.000
4.461 4.142 1.545
3.058 3.613 3.267
3.107 3.774 3.201
3.076 3.675 3.099
3.374 3.545 2.782
3.513 3.490 2.834
3.518 3.821 2.293
3.864 3.547 2.506
4.130 3.967 2.000
4.203 3.899 2.054
4.231 4.046 1.731
4.150 4.115 1.890
4.288 4.045 1.317
4.600 4.445 1.186
3.126 3.368 3.115
3.063 3.291 2.746
3.527 3.368 2.540
3.391 3.345 2.383
3.560 3.546 2.183
3.655 3.438 1.976
3.902 3.619 1.792
3.857 3.907 1.719
4.177 3.570 1.627
4.463 3.847 1.355
4.697 4.036 1.390
4.438 4.112 1.438
3.509 3.278 2.532
3.366 3.311 2.322
3.361 3.282 2.606
3.785 3.255 2.031
3.523 3.080 2.044
3.853 3.462 1.998
3.856 3.644 1.680
4.327 3.699 1.683
4.472 3.565 1.311
4.384 3.533 1.070
4.706 3.620 1.016
3.589 3.248 2.489
3.338 2.711 2.324
3.512 2.930 1.977
3.917 3.330 2.182
3.690 3.351 1.681
3.880 3.144 1.497
4.367 3.123 1.563
4.311 3.376 1.330
4.268 3.578 1.150
4.748 3.426 0.944
3.331 2.885 2.104
3.690 2.605 1.785
3.872 2.682 2.069
3.808 2.813 1.774
3.840 2.902 1.448
4.020 3.191 1.143
4.514 3.474 1.017
4.331 3.563 1.182
3.751 2.745 1.938
3.655 3.237 1.695
3.658 3.189 1.207
4.262 3.108 1.124
4.074 3.105 1.177
4.250 3.315 0.962
3.837 2.885 1.660
3.762 2.971 1.205
4.129 2.802 1.088
4.045 2.928 0.816
2.301 4.541 4.655
2.515 4.507 4.502
2.649 4.688 4.269
2.492 4.913 3.733
3.014 5.095 3.678
2.819 5.253 3.503
3.063 5.252 3.488
3.431 4.810 3.275
2.282 4.541 4.477
2.269 4.507 4.321
2.282 4.357 4.214
2.565 4.896 3.718
2.912 4.588 3.485
3.037 4.940 3.429
2.957 4.932 3.269
3.199 5.239 3.264
3.418 4.697 2.945
3.300 5.100 2.974
2.378 4.081 4.063
2.465 4.277 4.291
2.410 4.461 4.127
2.442 4.585 3.739
2.654 4.532 3.674
2.852 4.429 3.269
3.081 4.870 3.216
3.048 4.735 2.920
3.060 4.832 3.014
3.312 4.584 2.804
3.369 4.948 2.744
6.003 6.037 0.237
2.308 4.076 4.128
2.605 4.171 4.088
2.731 4.331 3.744
2.825 4.247 3.872
2.857 4.279 3.549
2.747 4.502 3.442
3.276 4.529 3.198
3.197 4.386 3.002
3.448 4.199 2.932
3.521 4.613 2.698
3.544 4.794 2.597
3.813 4.920 2.498
3.591 4.643 2.355
2.451 3.821 3.846
2.396 3.675 3.845
2.519 4.103 3.942
2.566 4.146 3.482
2.885 4.092 3.358
2.955 4.428 3.128
2.928 4.454 3.205
3.142 4.259 3.037
3.103 4.039 2.866
3.225 4.183 2.469
3.459 4.190 2.278
3.883 4.238 2.404
3.973 4.806 2.155
4.213 4.715 1.831
4.220 4.896 1.767
2.031 3.616 4.108
2.303 3.751 3.622
2.449 3.839 3.567
2.594 3.976 3.387
3.010 3.889 3.503
2.750 4.083 3.105
3.168 4.063 2.981
3.228 4.075 2.710
3.238 3.777 2.635
3.442 3.967 2.463
3.619 4.001 2.427
3.734 4.349 2.167
4.078 4.474 1.824
4.178 4.325 2.071
4.307 4.571 1.721
4.030 4.761 1.790
2.301 3.640 3.316
2.433 3.835 3.492
3.042 3.829 3.031
3.209 3.672 3.018
3.320 3.897 2.985
3.225 3.954 2.736
3.382 3.852 2.515
3.262 3.829 2.531
3.655 4.043 2.156
3.785 4.021 2.081
4.015 4.248 2.175
3.962 4.076 1.998
4.150 4.250 1.777
4.326 4.564 1.388
4.440 4.553 1.486
2.778 3.448 2.828
3.075 3.530 3.022
3.363 3.917 2.974
3.311 3.997 2.569
3.427 3.560 2.284
3.632 3.478 2.266
3.794 3.827 1.977
3.955 3.662 1.866
3.827 4.038 1.663
3.890 4.098 1.730
4.348 4.044 1.364
4.443 4.204 1.592
4.436 4.175 1.307
4.753 4.282 1.234
2.860 3.547 3.024
3.167 3.377 2.450
3.289 3.685 2.333
3.174 3.572 2.359
3.667 3.453 2.304
3.372 3.626 1.961
3.525 3.763 1.681
3.624 3.804 1.881
4.205 3.774 1.670
3.994 4.127 1.640
4.111 3.867 1.053
4.368 4.296 1.210
4.798 4.084 0.774
3.350 3.201 2.609
3.383 3.520 2.576
3.246 2.957 2.158
3.489 3.126 2.049
3.787 3.228 2.025
3.844 3.206 1.786
3.958 3.589 1.574
4.116 3.713 1.493
4.366 3.710 1.394
4.277 3.577 0.908
4.684 3.933 0.783
4.487 4.007 0.965
3.492 3.037 2.196
3.318 2.870 1.765
3.503 3.287 1.837
3.780 3.351 1.707
3.810 3.358 1.533
4.090 3.343 1.538
4.154 3.460 0.986
4.561 3.553 1.211
4.603 3.746 0.975
3.521 2.830 1.562
3.749 3.257 1.520
3.743 3.105 1.216
4.118 2.965 1.135
4.415 3.308 0.967
4.270 3.251 0.795
3.737 3.162 1.390
3.573 3.261 1.271
3.740 3.333 0.982
3.868 3.330 0.812
4.069 3.407 0.779
4.127 3.425 0.728
1.903 4.621 4.519
2.272 4.789 4.000
2.375 4.864 4.102
2.331 4.815 3.751
2.425 4.778 3.763
2.858 4.971 3.434
2.918 4.969 3.556
2.863 5.130 3.111
2.105 4.574 4.100
1.953 4.306 4.145
2.238 4.449 3.715
2.519 4.862 3.740
2.586 4.709 3.738
2.655 4.877 3.415
2.696 5.013 3.361
3.025 4.871 3.124
2.912 5.004 2.850
2.974 4.866 2.805
2.046 4.027 4.306
2.018 4.373 3.969
2.562 4.260 3.634
2.673 4.720 3.647
2.469 4.699 3.671
2.653 4.736 3.528
2.783 4.934 3.358
3.040 5.005 3.127
2.974 4.442 2.944
3.401 4.658 2.680
3.218 4.724 2.746
5.549 6.319 0.163
1.881 3.808 3.905
2.118 4.313 3.820
2.227 4.061 3.543
2.312 4.261 3.647
2.457 4.507 3.406
2.759 4.739 3.020
2.707 4.499 2.898
3.097 4.881 2.666
2.963 4.681 2.723
3.321 4.336 2.473
3.222 4.847 2.526
3.631 4.831 2.217
3.609 5.049 1.990
5.652 5.788 0.284
2.261 3.740 3.638
2.353 4.165 3.745
2.280 3.925 3.439
2.437 3.901 3.609
2.434 4.231 3.312
2.659 4.091 3.263
3.113 4.553 3.113
3.220 4.609 2.810
3.239 4.267 2.787
2.971 4.542 2.413
3.604 4.201 2.351
3.296 4.429 2.099
3.621 4.780 2.270
3.712 4.610 2.101
3.750 4.690 1.655
4.094 4.977 1.712
2.165 3.782 3.824
2.056 3.882 3.834
2.100 3.881 3.375
2.675 3.716 3.488
2.444 3.838 3.129
2.905 3.951 3.123
2.952 4.001 2.622
3.080 4.343 2.856
3.074 3.950 2.720
3.356 4.363 2.276
3.268 4.029 2.486
3.548 4.512 2.175
3.739 4.416 2.153
3.834 4.581 1.766
3.824 4.507 1.848
3.896 4.602 1.604
4.226 5.022 1.243
4.188 5.025 1.322
2.538 3.458 3.554
2.621 3.862 3.164
2.698 3.767 3.125
3.002 3.970 3.003
3.144 3.722 2.820
2.916 3.969 2.345
3.080 3.725 2.395
3.112 3.896 2.470
3.413 3.859 2.366
3.418 4.300 2.066
3.837 4.096 2.049
3.952 4.370 1.424
4.090 4.300 1.697
4.144 4.285 1.309
4.337 4.381 1.028
4.622 4.602 1.130
4.305 4.504 0.968
2.632 3.733 2.881
2.706 3.802 2.909
3.047 4.006 2.557
3.326 3.825 2.638
3.249 3.446 2.408
3.282 3.973 2.010
3.513 3.948 2.183
3.601 4.155 1.989
3.488 3.955 1.465
3.822 4.154 1.697
4.107 4.276 1.373
4.283 4.056 1.472
4.491 4.510 1.254
4.488 4.449 0.962
4.716 4.767 0.866
2.780 3.607 2.252
2.892 3.791 2.435
2.991 3.404 2.451
3.262 3.614 2.015
3.503 3.590 1.976
3.450 3.616 1.649
3.859 3.824 1.600
3.672 3.994 1.237
4.021 4.192 1.479
4.035 4.014 1.202
4.342 4.195 0.839
4.589 4.360 0.719
4.452 4.278 0.510
2.927 3.627 2.029
3.123 3.288 2.103
3.492 3.494 1.622
3.558 3.724 1.713
3.705 3.478 1.437
3.709 3.588 1.445
4.194 3.858 1.315
4.075 3.632 1.224
4.324 3.721 1.045
4.641 4.057 0.572
3.239 3.198 1.680
3.568 3.461 1.346
3.762 3.437 1.151
3.969 3.305 1.303
3.901 3.808 1.033
4.195 3.689 0.923
4.061 3.952 0.680
4.268 4.081 0.548
3.419 3.028 1.517
3.690 3.288 1.038
4.031 3.198 1.140
3.949 3.317 0.816
4.071 3.690 1.000
4.392 3.763 0.488
3.363 3.388 0.981
3.432 3.561 0.875
3.812 3.324 0.627
3.728 3.688 0.893
4.177 3.376 0.680
2.046 4.694 4.060
2.149 4.952 3.889
2.247 4.948 3.828
2.153 5.108 3.760
2.643 4.870 3.674
2.583 5.055 3.615
1.652 4.361 4.275
1.828 4.729 3.874
2.098 4.865 4.004
2.116 4.677 3.804
2.278 4.859 3.627
2.647 4.997 3.283
1.930 4.229 3.790
1.765 4.453 3.795
2.191 4.313 3.753
2.209 4.463 3.706
2.295 4.872 3.321
2.684 4.572 3.251
2.858 4.872 2.894
3.060 4.904 2.712
2.859 4.778 2.426
5.162 5.969 0.200
5.227 6.352 0.088
5.239 6.406 -0.095
1.754 4.130 3.919
1.779 4.140 3.874
2.350 4.397 3.312
2.187 4.327 3.360
2.341 4.441 3.168
2.799 4.616 3.235
2.908 4.750 2.918
2.771 4.810 2.563
2.951 4.350 2.584
2.939 4.482 2.335
2.987 4.756 2.305
3.510 5.041 2.404
5.005 5.848 0.259
5.030 5.951 0.235
5.416 5.952 0.223
2.045 3.831 3.559
2.066 4.106 3.525
2.389 4.251 3.552
2.172 4.221 3.035
2.653 4.247 3.020
2.573 4.234 2.876
2.828 4.204 2.697
2.777 4.402 2.585
2.968 4.155 2.555
3.014 4.306 2.239
3.059 4.612 2.344
3.420 4.503 1.862
3.423 4.750 1.895
3.741 4.984 1.571
3.624 4.951 1.689
3.936 4.997 1.309
4.000 5.042 1.123
4.363 5.163 1.279
4.546 5.287 0.995
4.562 5.457 0.881
4.607 5.633 0.758
4.671 5.633 0.723
5.075 5.526 0.528
5.032 5.567 0.285
5.426 5.817 -0.181
1.643 3.912 3.866
2.220 3.735 3.426
2.130 4.101 3.350
2.412 3.783 3.102
2.378 4.259 3.083
2.524 4.243 2.991
2.722 4.090 2.468
2.646 4.435 2.627
3.095 3.923 2.282
3.009 4.277 2.267
2.997 4.464 1.926
3.202 4.310 1.946
3.292 4.447 1.750
3.691 4.699 1.483
3.663 4.652 1.507
3.793 4.942 1.390
4.037 4.822 1.361
4.135 4.953 0.903
4.396 5.172 0.898
4.308 4.950 0.519
4.737 5.305 0.544
4.819 5.192 0.581
2.405 3.469 3.167
2.125 3.922 2.849
2.462 3.609 2.881
2.372 4.101 2.743
2.756 3.846 2.535
3.030 4.276 2.224
2.940 3.762 2.352
3.228 4.063 2.227
3.099 3.913 1.922
3.219 3.948 1.766
3.731 4.208 1.786
3.801 4.167 1.328
3.789 4.390 1.605
4.060 4.687 1.009
4.189 4.482 1.171
4.287 4.950 1.004
4.322 4.894 0.848
4.396 4.994 0.363
4.788 4.823 0.591
2.528 3.697 2.324
2.742 4.112 2.248
3.136 3.727 2.161
3.151 3.952 1.875
3.098 3.671 1.761
3.241 3.998 1.662
3.370 4.221 1.735
3.854 4.266 1.220
3.882 4.069 1.483
3.883 4.382 1.105
3.987 4.401 0.744
4.160 4.427 0.997
4.515 4.482 0.607
4.689 4.906 0.510
4.808 4.590 0.299
2.770 3.617 2.233
3.168 3.456 2.066
3.345 3.563 1.634
3.477 3.801 1.662
3.661 3.644 1.550
3.501 4.097 1.390
4.025 4.098 1.192
3.838 4.117 1.088
4.199 3.995 0.612
4.032 4.444 0.685
4.404 4.610 0.624
4.358 4.675 0.239
3.440 3.692 1.491
3.300 3.498 1.288
3.450 3.600 1.317
3.411 3.841 0.960
3.631 3.595 1.067
3.701 3.932 0.717
4.143 3.795 0.844
4.479 4.324 0.523
4.194 4.190 0.530
3.390 3.531 1.536
3.488 3.646 1.315
3.808 3.526 1.197
3.651 3.499 0.960
3.774 3.568 0.935
4.038 4.052 0.625
4.254 3.850 0.564
4.295 4.004 0.117
3.297 3.195 1.038
3.482 3.221 1.191
3.856 3.400 0.760
3.727 3.560 0.835
4.079 3.551 0.503
3.435 3.552 0.809
3.473 3.576 0.905
3.583 3.430 0.424
4.081 3.676 0.385
4.175 3.532 0.301
1.710 4.909 4.234
1.672 5.011 3.993
2.148 4.940 3.795
2.213 4.978 3.520
2.440 5.361 3.243
1.726 4.542 3.815
1.622 4.793 3.827
2.000 4.637 3.863
2.295 5.090 3.578
2.220 5.067 3.415
4.655 6.342 0.605
1.444 4.439 3.933
2.044 4.377 3.831
1.876 4.537 3.591
2.300 4.424 3.204
2.063 4.732 3.308
2.446 4.930 3.128
4.448 6.175 0.699
4.701 5.830 0.635
4.725 5.961 0.480
5.249 6.278 0.105
1.790 3.979 3.905
1.832 4.204 3.802
1.944 4.254 3.280
1.918 4.390 3.015
2.175 4.331 3.175
2.644 4.611 2.929
2.644 4.725 2.813
4.301 5.564 0.553
4.329 5.831 0.792
4.413 5.975 0.343
4.550 5.676 0.298
4.926 5.847 0.273
1.587 4.001 3.635
1.780 4.219 3.343
1.827 4.348 3.338
2.297 4.185 3.198
2.344 4.212 2.883
2.282 4.557 2.608
2.629 4.290 2.810
2.773 4.389 2.548
2.900 4.549 2.136
2.926 4.769 2.167
3.032 4.412 1.836
3.390 4.689 1.741
3.388 5.012 1.615
3.445 4.770 1.238
3.559 5.212 1.166
3.796 5.133 1.365
4.156 4.960 0.939
4.369 5.211 0.994
4.198 5.528 0.787
4.421 5.340 0.742
4.434 5.547 0.288
4.646 5.604 -0.018
4.696 5.834 0.218
1.673 3.638 3.400
1.693 3.894 3.451
1.949 3.795 3.063
2.185 4.179 2.973
2.113 3.951 2.814
2.313 4.397 2.887
2.652 4.182 2.510
2.897 4.567 2.353
2.926 4.136 2.085
2.726 4.381 1.978
2.949 4.302 2.006
3.347 4.382 1.971
3.251 4.570 1.883
3.388 4.768 1.572
3.409 4.546 1.273
3.794 4.677 1.228
3.899 4.859 0.872
3.949 4.748 1.105
4.337 5.325 0.489
4.465 5.346 0.404
4.600 5.456 0.464
4.737 5.394 0.191
4.921 5.556 -0.003
2.847 4.400 2.299
2.623 3.839 1.959
3.173 4.133 1.932
3.008 4.059 1.918
3.181 4.254 1.492
3.312 4.540 1.303
3.775 4.617 1.126
3.525 4.789 1.185
3.754 4.578 0.863
3.828 4.917 0.800
4.124 5.042 0.459
4.155 5.162 0.620
4.561 5.195 0.426
4.729 5.303 0.039
3.256 4.116 1.699
3.224 4.068 1.681
3.225 4.066 1.509
3.386 4.249 1.419
3.367 4.110 0.900
3.616 4.587 1.122
3.904 4.372 0.572
4.059 4.781 0.535
4.040 4.588 0.695
4.233 4.800 0.315
4.506 4.810 0.089
4.377 4.832 0.026
3.243 3.881 1.656
3.396 3.610 1.596
3.440 3.969 1.464
3.670 3.845 1.143
3.592 4.053 0.846
3.713 4.221 0.663
4.068 4.043 0.652
4.248 4.342 0.551
4.417 4.226 0.204
4.226 4.604 0.187
4.471 4.544 0.252
2.974 3.593 1.310
3.371 3.583 1.046
3.331 3.624 1.020
3.585 4.142 0.715
3.781 3.820 0.516
4.015 4.054 0.756
3.856 4.138 0.225
4.129 4.188 0.494
4.260 4.439 0.004
3.561 3.445 1.098
3.371 3.777 1.118
3.611 3.852 0.991
3.528 3.730 0.440
3.905 3.775 0.289
4.188 4.189 0.534
4.017 4.216 0.129
4.426 4.306 0.086
3.380 3.522 0.997
