1.257 6.193 1.748
0.110 5.237 0.621
0.602 5.362 0.434
0.683 5.358 -0.142
0.314 5.214 0.566
0.645 5.055 0.256
0.742 5.498 0.207
0.815 5.079 0.351
1.079 5.264 -0.117
0.201 5.087 0.960
0.182 5.090 0.895
0.615 5.320 0.883
0.664 5.377 0.481
1.272 4.965 0.640
0.436 4.998 1.320
0.445 5.321 1.456
0.978 5.379 1.030
1.141 4.811 1.043
0.337 4.974 0.206
0.511 4.919 -0.102
-0.147 4.865 0.472
0.286 4.859 0.639
0.553 5.069 0.505
0.741 4.710 0.455
0.960 4.928 0.119
0.463 5.168 1.135
0.427 4.952 0.535
0.960 5.076 0.633
1.086 4.586 0.461
1.252 4.792 0.119
-0.190 4.983 1.466
0.295 4.953 0.916
0.502 5.069 0.951
1.109 4.516 0.933
0.963 4.571 0.674
0.093 4.622 -0.050
0.413 4.952 -0.089
0.067 4.924 0.570
0.798 4.626 0.238
0.943 4.803 0.209
1.245 4.493 -0.097
-0.054 4.459 0.690
0.634 4.784 0.497
0.886 4.499 0.777
0.868 4.694 0.330
1.168 4.666 0.123
0.137 4.612 1.293
0.410 4.747 0.851
0.938 4.381 0.795
0.890 4.635 0.850
1.337 4.179 0.844
0.708 4.687 1.131
0.905 4.408 1.397
1.333 4.102 0.796
0.221 4.806 -0.119
0.276 4.457 0.496
0.463 4.459 -0.030
0.429 4.463 0.276
0.037 4.200 0.722
0.678 4.329 0.451
0.661 4.273 0.302
1.145 4.021 0.337
0.184 4.256 1.264
0.346 4.360 0.951
0.613 4.349 0.577
0.950 3.838 0.801
0.978 3.994 0.256
0.192 4.040 1.171
0.632 4.252 1.175
0.665 4.296 0.922
1.153 3.853 1.060
1.202 3.802 0.928
0.067 3.947 0.065
0.238 3.997 -0.088
0.502 3.753 -0.024
0.154 3.982 0.738
0.399 3.905 0.640
0.788 3.759 0.370
0.778 4.088 0.123
0.405 3.722 0.807
0.769 3.970 0.941
0.736 3.897 0.351
1.039 3.736 0.696
0.236 3.879 1.101
0.630 4.084 1.093
0.692 3.583 1.105
0.630 3.422 0.841
1.130 3.400 0.582
0.313 3.618 0.044
-0.020 3.880 0.309
0.445 3.527 0.432
0.358 3.748 0.370
1.120 3.549 -0.015
0.120 3.607 1.046
0.304 3.682 0.666
0.730 3.517 0.506
1.033 3.360 0.234
0.367 3.814 1.358
0.380 3.638 0.849
0.852 3.432 1.083
1.326 3.546 0.435
-0.074 3.577 0.306
-0.086 3.332 0.411
0.260 3.053 0.471
0.834 3.006 0.257
-0.136 3.521 0.846
0.465 3.221 0.531
0.442 3.326 0.460
0.687 3.203 0.192
0.065 3.090 1.136
0.531 3.046 1.139
0.439 3.177 1.049
0.727 3.144 0.417
0.024 3.331 0.457
0.635 3.305 0.082
0.680 2.907 0.167
-0.081 2.907 0.388
0.690 3.170 0.509
0.871 2.722 0.115
0.124 2.887 0.950
0.345 2.794 0.856
0.362 2.586 0.465
0.618 3.011 0.352
0.067 2.852 0.301
-0.026 2.749 0.358
0.433 2.706 0.131
0.762 2.553 0.287
0.284 2.478 0.965
0.305 2.504 0.423
0.934 2.268 0.729
0.234 2.370 0.369
0.228 2.598 0.840
0.605 2.474 0.441
0.503 2.104 0.244
0.030 2.218 0.701
0.739 6.501 0.368
0.615 6.177 0.728
0.715 6.179 0.888
0.522 6.469 1.486
0.436 6.036 1.218
0.939 6.270 0.980
0.337 6.237 1.508
0.675 5.880 1.771
0.733 6.206 1.541
0.249 6.205 1.856
0.100 5.917 2.108
0.682 6.320 1.851
1.023 5.855 1.884
0.363 6.114 0.107
0.335 5.816 -0.085
0.238 6.292 0.725
0.051 6.176 0.639
0.695 5.744 0.563
0.810 5.924 0.231
-0.061 6.268 0.809
0.677 6.143 0.808
0.864 5.696 0.895
0.869 5.649 0.731
0.427 5.856 1.247
0.313 5.596 0.819
1.006 5.876 0.834
0.369 5.895 1.601
0.169 5.636 1.491
0.549 5.849 1.504
0.746 5.507 1.018
0.396 5.624 2.130
0.467 5.679 1.733
0.142 5.931 0.375
0.263 5.632 0.091
0.348 5.860 0.707
0.378 5.759 0.335
0.983 5.369 0.315
1.065 5.647 -0.117
-0.185 5.697 0.777
0.102 5.711 0.688
0.686 5.759 0.651
0.845 5.370 0.643
1.233 5.324 0.436
0.018 5.560 1.030
0.169 5.682 1.064
0.725 5.631 0.638
0.722 5.483 0.784
-0.006 5.331 1.592
0.648 5.389 1.550
0.700 5.132 1.165
0.147 5.201 0.221
0.218 5.380 0.044
0.694 5.224 -0.117
0.244 5.427 0.872
0.686 5.261 0.478
0.972 5.271 0.402
1.166 5.379 0.010
1.556 5.133 0.218
-0.073 5.640 1.028
0.324 5.329 0.677
0.786 5.076 0.744
0.871 5.194 0.674
1.209 4.950 0.522
0.294 5.133 1.293
0.186 5.406 1.261
0.611 4.844 1.302
0.751 5.105 0.881
1.188 4.366 -0.016
1.244 4.339 0.298
1.116 4.196 -0.085
1.273 3.944 0.147
1.339 3.911 0.242
1.335 4.110 0.208
1.280 3.582 0.250
1.036 3.870 0.040
1.186 3.682 0.434
1.234 3.787 0.382
1.454 3.662 0.504
1.175 3.423 0.516
0.960 3.505 0.135
1.144 3.353 -0.028
1.315 3.200 0.129
1.455 3.318 0.095
1.079 3.515 0.760
1.330 3.293 0.824
1.077 2.867 0.359
1.141 3.250 0.246
1.097 2.712 0.544
1.269 2.952 0.397
1.088 2.646 0.139
1.102 2.891 0.286
0.887 2.758 0.352
1.010 2.652 0.367
0.772 2.144 0.512
0.934 2.303 0.218
1.187 6.385 5.403
0.816 6.339 5.913
0.938 6.186 5.377
0.580 6.312 6.254
0.782 6.201 6.208
0.344 6.340 5.418
0.665 6.140 5.101
0.665 5.890 4.995
-0.070 6.295 5.715
0.264 6.134 5.452
0.581 6.017 5.620
0.998 6.000 5.242
0.121 5.955 5.920
0.142 5.813 6.039
0.852 5.988 5.564
0.853 5.726 5.253
-0.036 5.772 6.169
0.428 6.070 6.292
0.759 6.097 5.763
0.892 5.907 5.966
1.114 5.949 5.803
0.865 5.841 6.201
1.390 5.455 6.224
1.453 5.758 6.026
1.796 5.627 6.072
2.038 5.340 6.082
2.295 5.512 6.183
0.602 6.168 4.459
0.169 6.514 4.628
0.755 6.242 4.625
0.004 5.964 5.486
0.242 6.057 4.984
0.830 6.051 4.727
0.348 5.835 4.990
0.127 5.977 5.223
0.696 6.046 4.907
0.020 5.943 5.520
0.443 5.932 5.468
0.535 5.928 5.386
-0.225 5.614 5.928
0.056 5.624 5.837
0.299 5.817 5.463
0.881 5.744 5.228
1.012 5.331 5.278
-0.112 5.798 6.266
0.617 5.586 6.185
0.861 5.500 6.093
1.049 5.600 5.600
1.439 5.487 5.542
0.737 5.301 6.212
0.873 5.496 5.846
1.270 5.609 5.722
1.830 5.100 5.709
1.289 5.463 5.996
1.533 4.893 5.963
1.991 4.880 5.711
2.344 4.839 6.247
2.460 4.671 5.980
3.010 4.688 6.154
1.004 6.026 2.199
0.460 6.036 2.771
0.197 5.986 4.088
0.021 5.826 4.233
0.239 5.959 4.167
0.009 6.015 4.762
0.455 6.156 4.538
0.271 5.763 4.932
0.442 6.062 4.882
0.499 5.594 4.740
5.441 6.306 3.173
6.010 6.041 3.076
6.183 6.466 2.229
6.071 6.076 2.921
5.835 6.388 2.641
5.375 6.100 2.859
5.803 5.943 3.114
5.091 6.108 3.208
5.420 5.927 3.360
5.592 5.796 2.904
5.642 5.683 2.933
5.808 5.890 3.024
6.230 6.402 0.174
6.051 6.324 0.629
6.103 6.233 0.659
5.303 6.373 1.159
5.541 6.413 1.403
6.294 6.077 1.197
5.235 6.361 1.695
5.436 5.937 1.383
6.049 6.123 1.561
6.400 5.939 1.088
5.422 6.370 2.050
5.200 5.898 2.001
5.904 6.284 1.821
5.868 5.761 1.859
5.140 6.499 2.745
5.335 5.978 2.724
5.384 5.906 2.389
5.646 5.835 2.313
6.075 5.875 2.220
4.863 5.948 3.271
5.268 6.244 2.649
5.511 6.019 2.884
5.756 6.099 2.350
5.929 5.653 2.232
6.452 5.886 2.301
5.085 6.368 3.554
5.377 5.910 3.227
5.297 5.876 3.005
5.683 5.739 2.953
6.001 5.653 2.974
4.761 6.105 3.286
5.269 5.882 3.128
5.542 5.432 2.791
5.848 5.588 3.032
5.798 5.545 2.487
6.491 5.406 2.487
5.333 5.726 3.472
5.705 5.769 2.836
5.979 5.537 2.922
5.282 6.359 0.280
5.398 6.333 0.222
6.107 5.930 -0.106
5.214 6.249 0.732
5.597 5.981 0.807
5.866 5.851 0.370
5.967 5.965 0.232
6.557 5.708 0.174
5.173 6.090 1.091
5.246 6.001 1.273
5.422 5.849 1.064
5.695 5.789 0.505
6.194 5.800 0.357
4.602 6.010 1.939
4.877 6.145 1.828
4.900 6.137 1.236
5.371 5.979 1.323
5.775 6.080 1.032
5.677 5.751 1.093
6.060 6.017 0.761
4.429 6.281 1.840
4.722 5.868 1.862
4.920 5.785 1.935
5.267 5.892 1.746
5.419 5.865 1.383
5.905 5.965 1.270
5.804 5.994 1.477
4.110 6.417 2.443
4.288 6.358 2.202
4.915 5.870 2.181
4.954 6.031 1.965
5.612 5.608 1.798
5.707 5.704 1.977
5.832 5.446 1.970
6.392 5.629 1.738
4.539 5.877 2.689
4.379 5.769 2.452
4.668 5.690 2.697
5.041 5.951 2.126
5.270 5.955 2.432
5.571 5.659 2.133
5.739 5.679 1.846
4.530 6.171 2.977
4.900 5.725 2.538
5.166 5.845 2.472
5.425 5.448 2.318
5.719 5.575 2.348
6.052 5.549 2.174
5.139 5.843 3.193
4.973 5.752 2.828
5.579 5.957 2.918
5.523 5.353 2.992
5.955 5.775 2.426
6.054 5.363 2.384
5.204 5.316 3.079
5.305 5.376 2.704
5.458 5.363 2.570
5.661 5.285 2.887
5.897 4.874 2.729
5.367 5.254 3.419
5.136 5.488 3.142
5.630 5.023 2.878
6.095 5.201 2.639
6.274 4.943 3.057
5.698 4.979 3.318
6.291 5.078 3.460
5.314 5.883 0.195
5.609 6.091 0.112
5.767 5.951 -0.214
4.924 5.923 0.900
5.417 6.054 0.524
5.885 5.781 0.198
5.712 5.692 0.224
6.226 5.535 0.350
4.694 5.930 0.935
5.428 5.913 0.836
5.244 5.510 0.575
5.788 5.790 0.843
6.202 5.718 0.619
6.353 5.625 0.284
4.743 5.945 1.463
5.210 5.513 1.503
5.401 5.620 1.285
5.343 5.426 1.056
5.654 5.300 0.706
6.336 5.711 0.779
4.515 5.600 2.010
4.970 6.033 1.910
4.980 5.426 1.486
5.158 5.717 1.596
5.509 5.379 1.333
6.212 5.185 1.324
6.439 5.386 0.934
4.276 6.041 2.294
4.580 5.761 2.264
5.062 5.936 2.213
5.167 5.796 1.982
5.358 5.644 1.961
6.046 5.709 1.825
6.318 5.231 1.661
4.343 5.892 2.766
4.634 5.554 2.488
5.187 5.835 2.338
5.531 5.422 2.163
5.903 5.508 2.053
5.654 5.420 2.082
6.125 5.482 1.940
4.871 5.497 2.855
4.773 5.583 2.858
5.402 5.467 2.771
5.529 5.630 2.434
5.591 5.138 2.151
6.088 5.392 2.221
5.250 5.382 2.873
5.513 5.177 3.053
5.783 5.345 2.768
5.855 4.970 2.582
6.018 5.065 2.237
4.893 5.019 3.224
4.916 5.360 2.846
5.448 4.751 2.918
5.986 5.011 2.804
6.178 4.864 2.499
6.289 4.598 2.377
4.834 4.912 3.417
5.443 4.828 2.890
5.548 5.066 2.776
5.896 4.573 2.877
6.160 4.765 2.670
5.573 5.034 3.280
5.815 4.841 3.164
6.227 4.803 3.141
6.296 4.912 2.814
5.729 4.523 3.565
6.272 4.820 3.409
5.251 5.810 0.313
5.650 5.283 -0.171
5.066 5.788 0.696
5.369 5.584 0.181
5.957 5.229 0.295
5.974 5.543 -0.172
4.950 5.563 1.172
5.225 5.344 0.561
5.711 5.437 0.913
6.086 5.014 0.658
5.983 5.254 0.553
4.870 5.435 1.300
5.364 5.553 1.141
5.472 5.445 1.299
5.850 5.123 0.694
5.727 5.423 0.661
6.518 5.212 0.610
4.744 5.676 1.476
4.802 5.618 1.654
5.055 5.157 1.255
5.694 5.157 1.449
6.053 5.017 1.428
6.094 4.971 0.892
4.718 5.243 1.874
4.946 5.219 2.273
5.223 5.176 1.625
5.418 5.109 1.959
5.934 5.297 1.869
5.798 4.938 1.375
6.044 5.074 1.154
4.649 5.449 2.586
5.108 5.160 2.198
5.096 5.089 2.227
5.626 5.392 1.773
5.640 5.000 1.823
6.100 5.245 1.982
4.642 5.276 2.569
4.964 5.194 2.823
5.216 4.886 2.402
5.770 4.836 2.391
6.120 5.232 1.982
6.427 4.727 2.155
4.837 5.143 2.724
4.965 5.200 2.821
5.701 4.923 2.936
5.885 5.067 2.540
5.964 4.929 2.309
6.374 4.811 2.384
4.620 5.159 2.848
4.864 4.640 2.585
5.111 4.804 2.893
5.760 4.775 2.406
5.697 4.543 2.248
5.948 4.710 2.420
4.866 4.909 3.214
5.158 4.886 3.339
5.277 4.753 2.929
5.987 4.284 2.946
6.279 4.626 2.579
6.189 4.497 2.778
5.064 4.478 3.505
5.316 4.737 3.464
5.594 4.353 3.360
5.753 4.613 2.929
6.038 4.125 2.786
5.224 4.614 3.843
5.895 4.294 3.533
6.029 4.587 3.115
6.171 4.315 3.318
5.818 4.375 3.858
6.117 4.359 3.887
6.079 4.217 4.111
5.082 5.044 0.215
5.046 5.301 0.239
5.565 5.082 0.028
5.835 5.147 0.357
6.060 5.086 0.096
5.175 5.160 0.557
5.492 5.084 0.780
5.690 4.857 0.640
6.258 4.755 0.120
5.073 5.001 0.871
5.183 4.954 0.781
5.531 4.887 0.967
5.801 4.994 0.480
5.908 4.606 0.371
4.786 5.178 1.466
5.168 4.896 1.299
5.709 5.007 1.396
5.580 5.010 1.052
5.839 4.701 1.274
4.768 5.129 2.184
4.936 5.169 1.720
5.220 4.920 1.629
5.296 4.641 1.724
5.683 5.026 1.534
6.202 4.592 1.475
4.688 5.117 2.446
5.033 5.123 2.005
5.148 4.695 1.994
5.208 4.879 2.250
5.628 4.834 2.061
5.823 4.848 1.658
4.613 5.097 2.535
4.830 4.985 2.247
5.255 4.850 2.419
5.274 4.472 2.068
5.802 4.471 1.866
6.275 4.423 1.977
5.063 4.770 3.120
4.860 4.982 2.756
5.545 4.830 2.466
5.729 4.718 2.538
5.850 4.467 2.506
5.956 4.318 2.081
4.494 4.774 2.920
4.706 4.733 2.811
5.413 4.263 2.567
5.443 4.340 2.661
5.907 4.499 2.104
5.830 4.314 2.361
4.670 4.450 3.075
4.990 4.370 3.224
5.387 4.188 3.069
5.683 4.036 3.025
5.626 3.994 2.399
6.424 4.220 2.265
5.158 4.350 3.597
5.125 4.435 3.129
5.633 4.109 3.335
5.583 4.269 2.943
5.880 3.957 2.928
6.488 4.101 2.517
5.258 4.295 3.679
5.522 4.111 3.645
5.569 3.908 3.179
5.962 4.096 3.537
6.383 3.770 3.391
5.222 4.332 3.861
5.485 4.028 3.453
6.101 4.025 3.759
6.278 3.651 3.188
6.045 3.805 3.762
6.211 4.094 4.033
6.242 3.722 3.871
5.471 4.712 0.399
5.185 4.877 1.842
5.193 4.827 1.733
5.263 4.577 1.373
4.498 4.678 2.066
4.954 4.857 1.995
5.337 4.631 1.676
5.493 4.364 1.829
5.987 4.473 1.426
4.578 4.503 2.639
4.776 4.889 2.329
5.137 4.564 2.095
5.318 4.545 2.385
5.875 4.538 2.202
5.846 4.280 1.667
4.702 4.718 2.664
4.829 4.472 2.794
5.296 4.641 2.406
5.498 4.200 2.214
5.513 4.169 2.210
6.277 4.447 2.221
0.014 4.356 5.454
0.373 4.218 5.554
0.586 4.220 5.611
-0.029 4.340 6.281
0.095 4.225 5.716
0.600 4.006 5.573
1.128 4.215 5.708
1.071 3.934 5.635
3.019 3.573 4.910
3.030 3.486 4.864
0.581 4.392 5.951
0.609 4.157 6.151
0.716 4.115 5.871
1.540 4.040 5.585
1.456 3.678 5.664
1.827 3.870 5.471
2.257 3.922 5.300
2.192 3.742 5.143
2.821 3.454 5.376
2.741 3.520 5.120
3.291 3.497 5.101
1.378 3.956 6.430
1.267 4.191 6.090
1.443 3.802 5.710
1.851 3.622 5.715
2.079 3.885 5.724
2.357 3.815 5.329
2.770 3.369 5.170
3.112 3.662 5.460
3.191 3.203 5.223
1.599 3.489 6.313
2.079 3.632 6.209
2.337 3.622 6.076
2.635 3.286 5.561
2.657 3.373 5.701
3.021 3.265 5.433
3.646 3.061 5.678
2.262 3.583 6.141
2.866 3.630 6.064
2.825 3.364 5.925
3.098 3.500 5.893
3.664 3.316 5.551
2.855 3.402 6.410
3.520 3.306 6.381
2.989 3.363 4.405
2.168 3.477 4.630
2.657 3.072 4.529
2.858 3.354 4.609
1.334 3.610 5.742
1.946 3.630 5.364
1.777 3.559 5.354
2.096 3.504 5.079
2.257 3.563 5.166
2.862 3.302 4.913
2.925 3.230 5.025
1.412 3.460 5.911
1.416 3.347 5.737
1.689 3.732 6.019
2.021 3.365 5.719
2.563 3.549 5.725
2.798 3.227 5.213
2.894 3.213 5.476
3.169 2.931 5.086
1.804 3.485 6.147
1.764 3.551 6.191
1.935 3.163 6.018
2.288 3.207 5.798
2.872 2.887 5.724
2.910 3.288 5.744
3.207 2.902 5.297
2.297 3.025 6.404
2.347 3.077 6.287
2.746 2.996 5.657
3.288 2.954 5.553
3.458 2.652 5.448
3.142 2.687 6.391
3.032 2.731 5.938
3.529 3.053 5.697
2.343 3.423 3.765
2.287 3.348 4.407
2.640 3.311 4.279
2.379 3.242 4.723
2.410 2.919 4.590
2.682 3.068 4.349
2.001 3.315 5.551
2.267 3.102 5.119
2.569 3.076 4.867
2.453 2.856 5.078
3.024 3.129 5.022
1.803 3.155 5.824
1.983 3.007 5.296
2.189 3.151 5.366
2.516 2.763 5.103
2.911 2.995 5.110
3.250 2.796 4.860
1.654 3.369 5.896
1.893 2.965 6.124
1.960 3.113 5.970
2.426 3.159 5.965
2.821 3.013 5.307
2.696 2.704 5.417
2.983 2.458 5.551
2.088 2.950 6.271
2.406 2.784 6.207
2.278 2.608 6.206
2.463 2.780 6.081
3.189 2.651 5.947
3.323 2.476 5.441
2.361 2.942 6.151
2.600 2.737 6.377
3.236 2.370 5.962
3.498 2.402 5.983
3.660 2.545 6.141
2.313 2.654 3.714
2.226 2.852 4.008
2.680 2.693 4.355
2.068 2.810 4.580
2.376 2.742 4.417
2.591 2.606 4.193
1.929 2.829 5.271
2.479 2.696 4.791
2.307 2.718 4.813
2.603 2.514 4.859
1.996 3.042 5.387
2.038 2.975 5.218
2.596 2.572 5.364
2.416 2.731 5.008
3.067 2.281 5.039
1.691 2.657 5.853
2.157 2.793 5.686
2.514 2.420 5.878
2.573 2.465 5.477
2.510 2.403 5.530
3.233 2.375 5.073
1.673 2.618 6.464
2.338 2.799 5.942
2.113 2.338 5.949
2.895 2.594 5.639
2.891 2.186 5.804
3.308 2.090 5.761
2.295 2.464 6.490
2.499 2.344 6.025
2.804 2.121 6.078
3.225 1.990 5.638
3.054 2.300 6.329
3.488 2.034 6.331
0.627 3.807 1.324
1.388 4.006 1.262
2.630 2.443 3.663
2.493 2.669 3.880
2.413 2.622 4.693
2.858 2.441 4.512
2.276 2.478 5.182
2.565 2.184 4.669
2.552 2.557 4.523
2.300 2.403 5.095
2.532 2.462 5.343
2.505 2.395 5.103
2.692 1.948 4.946
1.936 2.570 5.638
1.945 2.617 5.832
2.587 2.374 5.720
2.799 2.409 5.599
2.677 2.282 5.052
1.968 2.297 5.828
2.436 2.151 5.926
2.476 2.327 5.760
2.943 1.916 5.717
3.011 1.789 5.495
2.557 2.074 6.155
2.377 2.299 6.253
2.806 1.874 5.859
3.196 1.997 5.927
2.795 2.173 6.119
3.427 2.085 6.242
0.315 3.876 1.158
0.642 3.525 1.201
1.226 3.431 1.176
1.222 3.704 1.256
0.889 3.778 1.695
1.375 3.576 1.526
1.290 3.444 1.414
2.423 2.144 4.079
2.456 2.191 4.295
2.512 2.194 4.464
2.809 2.137 4.652
2.209 2.219 5.135
2.523 1.916 4.875
2.777 1.970 4.638
2.195 2.149 5.638
2.425 1.744 5.204
2.379 1.710 5.121
2.935 1.633 4.967
1.689 2.118 6.047
2.304 1.956 5.880
2.548 1.652 5.869
2.701 1.637 5.344
2.933 1.741 5.284
1.765 1.827 6.308
2.155 2.144 5.857
2.500 1.829 6.220
2.767 1.865 5.580
2.962 1.557 5.490
2.432 1.707 6.471
2.885 1.813 6.100
2.960 1.723 6.233
3.386 1.430 6.504
0.362 3.586 1.456
0.135 3.310 1.635
0.811 3.371 1.359
0.978 3.394 0.938
1.107 3.461 1.027
0.635 3.569 1.490
0.496 3.531 1.738
1.294 3.024 1.399
1.142 3.369 1.059
0.970 2.961 1.824
1.044 3.210 1.540
1.249 3.181 1.530
1.411 3.158 2.016
1.286 3.034 1.557
1.372 2.837 2.161
1.955 2.942 2.103
2.067 1.857 5.134
2.372 1.595 5.423
2.576 1.382 5.138
2.018 1.503 5.749
2.409 1.735 5.536
2.338 1.721 5.346
3.062 1.493 5.188
2.074 1.494 6.447
2.362 1.527 6.256
2.571 1.247 5.843
2.793 1.463 6.043
2.909 1.447 5.518
2.447 1.474 6.394
2.910 1.291 5.942
2.788 1.083 5.944
3.027 0.927 6.159
0.447 3.034 1.139
0.653 3.212 1.385
0.676 3.021 0.973
1.019 2.686 1.161
0.249 3.412 1.626
0.536 3.107 1.879
0.586 3.104 1.354
0.894 2.660 1.188
1.433 2.905 1.010
0.567 3.037 1.934
0.851 3.175 1.638
1.219 2.587 1.373
1.316 2.641 1.523
1.132 2.602 1.944
0.937 2.643 1.676
1.645 2.880 1.695
1.124 2.604 1.991
1.520 2.513 2.312
1.425 2.532 2.364
1.601 2.196 2.366
2.167 1.499 5.599
2.475 1.036 5.332
1.484 1.236 5.984
2.230 1.187 6.255
2.176 1.128 5.614
2.431 0.873 5.991
2.637 1.240 5.366
2.341 0.930 6.257
2.354 1.342 6.229
2.400 0.797 5.860
2.956 1.091 5.799
2.785 0.772 6.087
0.071 2.651 1.433
0.235 2.999 1.016
0.806 2.655 0.767
1.096 2.462 0.817
0.209 3.074 1.587
0.249 2.469 1.442
0.963 2.861 1.284
0.802 2.698 1.119
0.147 2.518 2.156
0.448 2.703 1.939
0.708 2.748 1.924
0.823 2.801 1.386
1.213 2.297 1.209
0.633 2.533 2.038
0.625 2.499 2.173
1.012 2.736 1.917
1.342 2.652 1.610
0.850 2.222 2.237
1.196 2.386 2.275
1.483 2.067 2.165
1.063 2.050 2.565
1.272 2.153 2.476
1.665 1.981 2.468
2.054 0.895 5.899
2.013 1.000 5.610
2.338 0.644 5.431
1.861 0.962 6.464
2.546 0.867 6.108
2.746 0.556 6.227
2.961 0.738 5.641
2.717 0.391 6.039
2.679 0.724 6.161
-0.056 2.644 1.443
0.336 2.350 1.111
0.644 2.417 0.706
0.903 2.279 0.605
0.224 2.600 1.562
0.340 2.509 1.481
0.692 2.364 0.971
1.188 2.453 1.140
0.517 2.509 1.614
0.605 2.145 1.459
1.038 2.047 1.373
1.326 2.456 1.175
0.047 2.354 2.331
0.229 2.304 2.109
0.477 2.205 1.916
0.728 1.930 1.919
1.064 2.150 1.738
0.823 2.420 1.968
0.960 1.970 1.896
1.282 1.854 2.028
1.039 2.179 2.107
1.363 1.756 2.419
1.751 2.082 2.306
1.853 0.560 6.355
1.975 0.498 5.856
2.373 0.568 5.672
2.653 0.135 6.306
2.646 0.434 6.012
0.144 2.350 1.220
0.553 2.200 1.092
0.661 1.983 0.799
0.167 2.273 1.344
0.397 2.417 1.247
0.462 1.943 1.334
1.109 1.857 1.128
-0.012 2.318 1.996
0.404 1.873 1.437
0.520 1.887 1.284
0.955 2.141 1.571
0.341 2.058 1.742
0.606 2.150 1.727
0.789 1.634 1.561
1.064 2.024 1.850
0.558 1.847 2.126
0.634 1.554 1.959
1.304 1.459 1.798
1.066 1.478 1.937
1.674 0.647 6.069
1.645 0.339 5.946
2.053 0.139 6.173
2.066 0.229 6.119
2.394 -0.063 6.401
-0.008 1.757 0.871
0.420 2.121 0.804
0.863 1.644 0.951
-0.026 2.121 1.149
0.432 2.039 1.271
0.779 1.687 0.766
-0.220 2.042 1.545
0.420 1.914 1.756
0.565 1.715 1.269
0.810 1.837 1.470
0.375 1.597 2.005
0.241 1.825 1.668
0.669 1.373 1.601
0.718 1.323 1.716
0.655 1.324 2.217
1.073 1.318 1.644
1.568 0.361 6.243
1.548 0.251 6.334
0.123 1.492 1.040
-0.200 1.678 1.424
0.198 1.473 1.018
0.341 1.624 1.359
0.535 1.155 1.340
0.121 1.729 1.649
0.024 1.281 1.553
0.563 -0.044 6.015
0.598 0.100 6.059
0.654 0.211 6.206
0.104 5.610 5.219
0.478 5.596 5.083
0.302 5.390 5.420
0.386 5.375 5.300
0.593 5.316 4.976
0.231 5.257 5.539
0.226 5.565 5.262
0.590 5.532 5.616
1.024 5.094 5.494
0.293 5.232 5.908
0.427 5.154 5.713
0.405 5.325 6.088
0.728 5.266 5.423
1.123 5.118 5.522
1.170 4.967 5.451
0.136 5.059 6.095
0.914 4.952 5.828
1.081 5.141 5.889
0.997 4.975 6.081
1.648 4.785 5.792
2.005 4.773 5.383
0.950 4.929 6.341
1.372 4.685 6.118
1.349 5.033 5.867
2.023 4.817 5.760
2.297 4.517 5.691
1.897 4.936 5.977
2.078 4.501 5.869
1.977 4.451 5.849
2.645 4.711 5.828
2.275 4.350 6.018
2.679 4.512 6.324
3.080 4.089 6.138
2.839 4.092 6.257
0.204 5.870 2.185
0.478 5.852 2.407
0.272 5.707 4.465
0.027 5.666 4.835
0.724 5.589 4.940
0.194 5.196 4.798
0.401 5.251 5.345
0.721 4.934 5.037
0.205 5.420 5.548
0.063 5.029 5.330
0.516 4.869 5.447
0.934 4.686 5.206
0.443 5.222 5.974
0.533 5.193 5.708
0.871 5.007 5.603
1.144 5.010 5.457
1.469 4.874 5.628
0.018 5.199 6.118
0.538 5.013 6.275
1.094 4.719 5.894
1.034 4.800 6.035
1.228 4.653 5.579
1.750 4.724 5.228
1.176 4.968 6.446
0.992 4.784 6.185
1.436 4.559 5.904
2.031 4.248 5.885
1.921 4.531 5.619
2.306 4.306 5.757
1.329 4.576 6.400
2.059 4.322 6.177
2.383 4.233 6.107
2.231 4.519 6.009
2.696 4.222 5.447
2.051 3.990 6.321
2.510 3.979 6.076
2.706 4.224 5.672
3.180 3.932 5.697
2.784 3.869 6.392
3.251 4.001 6.268
0.136 5.537 5.186
-0.110 4.847 5.136
0.303 4.667 5.184
0.538 4.659 5.186
-0.126 4.566 5.621
0.542 4.851 5.454
0.781 4.904 5.451
0.974 4.411 5.335
0.001 4.639 5.898
0.373 4.386 6.268
0.946 4.613 5.608
1.058 4.298 5.989
1.198 4.456 5.493
1.695 4.220 5.456
0.504 4.397 6.507
1.043 4.612 5.882
1.082 4.211 6.071
1.617 4.148 5.652
1.611 4.292 5.660
2.043 4.057 5.662
2.047 3.992 5.652
2.669 4.090 5.330
2.819 3.920 5.212
1.100 4.229 6.219
1.327 4.174 6.298
2.005 4.344 5.877
2.270 4.276 6.075
2.113 4.116 5.770
2.813 4.135 5.366
2.914 3.865 5.631
2.896 3.858 5.249
1.940 4.165 6.177
2.423 3.653 6.166
2.548 3.918 5.854
3.131 3.565 5.727
3.358 3.867 5.431
2.552 3.759 5.895
3.094 3.415 6.140
3.281 3.772 6.068
0.253 4.689 5.192
0.365 4.623 5.793
0.284 4.298 5.348
-0.056 4.620 6.202
0.159 4.204 5.952
0.611 4.151 5.970
0.976 4.082 5.652
1.219 4.003 5.386
2.814 3.519 4.701
2.786 3.747 4.487
0.726 4.505 6.215
0.904 4.026 6.266
0.810 4.032 5.692
1.436 3.745 5.829
1.514 3.893 5.759
1.927 3.929 5.401
1.829 3.723 5.609
2.122 3.948 5.459
2.617 3.501 5.120
2.656 3.656 5.218
3.355 3.509 4.702
1.311 4.262 6.268
1.656 3.730 5.974
1.836 3.693 6.052
1.828 3.986 5.899
2.318 3.587 5.544
2.482 3.557 5.587
2.905 3.642 5.446
2.895 3.480 5.017
3.264 3.087 5.256
1.945 3.480 6.215
1.799 3.566 6.063
2.146 3.322 6.077
2.825 3.725 5.733
2.630 3.345 5.651
3.136 3.446 5.759
3.256 3.341 5.227
2.138 3.242 6.228
2.419 3.237 5.996
2.835 3.196 6.201
3.509 3.136 5.859
3.458 3.193 5.689
3.096 3.274 6.514
3.244 3.110 6.125
3.432 3.820 2.708
3.869 3.672 3.004
4.160 3.624 2.759
4.363 3.090 2.742
4.524 3.056 2.237
3.803 3.715 3.538
4.060 3.578 3.448
4.022 3.298 2.941
4.598 3.304 3.061
4.427 3.118 2.778
4.741 3.031 2.890
5.269 2.992 2.305
3.237 3.312 3.751
3.606 3.733 3.828
4.201 3.179 3.392
4.421 3.227 3.632
4.405 2.999 3.033
4.539 3.273 3.144
4.764 3.268 3.019
5.432 2.995 2.580
5.316 2.706 2.944
3.123 3.677 3.954
3.225 3.209 4.206
3.940 3.622 3.652
4.275 3.366 3.808
4.245 3.411 3.373
4.415 3.119 3.718
4.582 3.266 3.167
5.254 2.760 3.444
5.325 2.781 3.215
5.643 3.076 2.722
5.719 2.546 2.918
3.283 3.753 3.990
3.601 3.230 4.553
3.479 3.610 4.352
3.972 3.455 4.214
4.086 3.377 4.284
4.652 3.151 4.131
4.905 3.064 3.621
4.943 3.021 3.753
5.416 2.682 3.454
5.775 3.013 3.407
5.603 2.597 3.003
5.952 2.862 3.284
3.326 3.310 4.208
3.530 3.098 4.464
3.732 3.030 4.784
4.098 3.075 4.678
4.508 3.258 4.119
4.299 3.155 4.049
4.983 3.101 4.178
5.235 2.951 3.725
5.322 2.933 3.952
5.895 2.570 3.887
6.108 2.748 3.463
6.265 2.651 3.370
3.205 3.163 4.632
3.636 3.410 5.159
3.861 3.444 5.021
4.168 2.928 4.886
5.582 2.828 4.137
6.023 2.618 3.694
6.167 2.222 3.931
3.680 3.543 4.982
3.568 3.026 5.286
3.480 2.957 5.027
3.511 3.661 2.930
3.827 3.321 2.761
4.075 3.398 2.480
4.456 3.114 2.755
4.958 3.084 2.615
3.136 3.138 2.942
3.790 3.568 3.065
4.130 3.317 2.792
4.411 3.310 2.730
4.510 3.175 2.426
3.155 3.347 3.458
3.191 3.417 3.044
3.520 3.151 3.223
3.820 3.011 2.784
4.313 3.178 2.616
4.478 3.103 2.707
4.902 2.720 2.681
2.802 3.401 3.782
3.005 3.332 3.743
3.658 2.995 3.797
3.816 2.864 3.707
4.295 3.048 3.316
4.570 2.933 3.243
4.783 3.166 3.277
5.094 2.570 3.111
4.986 2.688 2.515
3.190 3.398 3.820
3.001 3.306 4.375
3.518 3.382 4.216
3.636 3.208 4.124
3.846 2.992 3.991
4.219 2.891 3.707
4.392 2.839 3.429
4.829 2.663 3.412
4.960 2.574 3.324
5.550 2.716 2.966
3.297 3.048 4.231
3.383 3.207 4.200
3.510 3.051 4.361
3.531 3.269 3.930
3.803 2.686 3.875
4.541 3.072 3.607
4.651 2.584 3.635
4.664 2.578 3.770
5.155 2.429 3.524
5.680 2.423 3.039
3.183 3.179 4.534
3.415 2.933 4.396
3.488 3.147 4.591
3.838 2.832 4.330
4.284 2.741 4.475
4.210 2.751 3.956
4.592 2.497 4.037
4.737 2.371 4.083
4.976 2.534 3.577
3.386 2.992 4.477
3.360 3.267 4.778
3.688 2.856 4.807
3.880 3.066 4.876
4.232 2.602 4.514
3.507 2.719 5.216
3.650 3.168 5.402
3.817 2.988 4.828
3.664 3.114 5.245
3.655 2.530 5.263
3.551 2.942 5.574
3.134 3.294 2.991
3.858 3.354 2.688
3.963 3.010 2.974
4.073 3.372 2.376
4.249 2.881 2.569
2.871 3.126 3.070
3.228 3.319 3.137
3.436 3.181 2.916
3.701 3.131 2.570
4.187 2.989 2.715
4.093 2.872 2.255
2.725 2.977 3.763
3.016 3.015 3.650
3.322 2.958 3.046
3.534 2.906 3.138
3.750 2.600 3.048
4.367 3.030 2.705
4.185 2.785 2.553
2.841 3.149 3.561
3.162 3.336 4.046
2.972 2.787 3.817
3.639 3.136 3.603
3.868 2.821 3.156
4.252 2.823 3.291
4.103 2.407 3.170
4.381 2.388 3.047
4.675 2.714 2.984
3.088 3.252 3.543
3.030 2.746 3.830
3.526 2.784 3.657
3.530 2.830 3.514
3.567 2.798 3.834
4.150 2.630 3.455
4.315 2.664 3.499
4.651 2.478 3.515
5.100 2.505 3.281
2.852 2.853 4.285
3.137 2.890 4.455
3.318 2.954 4.009
3.663 2.821 3.849
4.158 2.587 3.697
4.391 2.673 3.767
4.244 2.380 3.616
4.595 2.539 3.773
3.361 3.121 4.280
3.230 3.022 4.490
3.311 2.498 4.696
3.727 2.665 4.097
4.240 2.301 4.364
4.535 2.343 3.830
4.347 2.602 3.799
3.358 2.607 4.767
3.454 2.901 5.056
3.574 2.690 4.770
4.076 2.492 4.861
3.956 2.349 4.300
3.292 2.805 4.621
3.308 2.733 5.019
3.473 2.625 4.813
3.988 2.552 4.647
3.558 2.442 5.157
3.493 2.612 5.322
3.613 2.407 5.181
3.677 2.267 5.380
3.795 2.577 5.558
3.412 2.247 5.472
2.883 3.269 2.887
3.139 3.262 2.566
3.912 2.974 2.561
2.741 3.075 3.217
3.406 3.190 2.770
3.682 3.032 2.746
3.483 3.048 2.493
4.138 2.831 2.392
4.030 2.825 2.483
2.694 3.154 3.057
3.080 2.818 3.066
3.031 2.986 2.814
3.164 2.796 2.789
3.393 2.660 2.746
3.821 2.627 2.707
2.699 3.125 3.123
2.723 2.880 3.431
3.109 2.830 3.505
3.387 2.554 3.001
3.232 2.567 2.852
3.617 2.837 2.935
3.781 2.236 2.917
4.351 2.461 2.865
2.654 2.973 3.361
2.813 3.027 3.846
3.061 2.512 3.555
3.193 2.388 3.324
3.764 2.691 3.510
4.107 2.489 2.992
4.122 2.598 3.309
4.480 2.185 2.668
2.705 2.916 3.996
2.795 2.754 4.205
3.232 2.347 4.093
3.625 2.460 4.007
3.470 2.665 3.861
4.105 2.451 3.364
4.060 2.456 3.508
4.365 1.957 3.338
2.832 2.824 3.892
2.740 2.646 4.453
3.176 2.384 4.205
3.358 2.399 4.206
3.669 2.332 4.141
4.227 2.560 3.712
4.086 2.026 3.605
2.798 2.646 4.159
2.832 2.652 4.322
3.445 2.376 4.301
3.833 2.329 4.057
3.937 2.366 4.204
4.452 2.389 4.270
2.936 2.462 4.319
2.999 2.283 4.798
3.433 2.138 4.512
4.004 1.995 4.852
3.887 2.443 4.440
3.007 2.629 4.694
3.360 2.298 5.265
3.356 1.978 4.838
3.603 1.927 4.860
3.276 2.531 5.034
3.647 2.334 5.593
3.667 2.291 4.997
3.648 2.420 5.286
3.831 2.258 5.406
3.745 1.951 5.932
3.636 2.096 6.237
3.708 1.777 6.177
2.874 3.127 2.406
3.060 2.721 2.370
2.469 2.740 2.635
2.746 2.689 2.815
3.086 2.695 2.246
3.512 2.552 2.333
3.922 2.898 2.423
2.513 2.860 3.024
2.924 2.623 3.106
3.049 2.839 3.098
3.379 2.513 2.655
3.397 2.772 2.704
4.196 2.711 2.220
2.774 3.038 3.119
2.347 2.462 3.305
2.831 2.493 3.226
3.147 2.450 2.772
3.504 2.622 2.745
3.663 2.458 2.615
3.694 2.283 2.391
2.327 2.879 3.090
2.593 2.490 3.125
2.699 2.317 3.405
2.974 2.196 3.208
3.628 2.581 3.050
3.389 2.118 2.849
3.838 2.255 2.526
2.589 2.385 3.190
2.858 2.507 3.698
3.108 2.609 3.331
3.069 2.502 3.454
3.360 2.478 3.236
3.885 2.377 3.257
3.933 1.931 2.886
2.796 2.237 3.624
2.838 2.465 3.801
2.902 2.544 3.595
3.073 2.174 3.868
3.348 2.369 3.354
3.786 2.189 3.338
4.387 2.049 3.063
2.679 2.279 4.056
2.818 2.254 4.289
3.225 2.360 3.841
3.368 2.224 4.240
3.592 2.205 3.643
4.232 2.057 3.908
2.698 2.109 4.097
2.855 2.032 4.457
3.316 1.875 4.280
3.822 2.314 4.077
4.014 2.026 3.926
3.210 2.434 4.583
3.331 1.882 4.961
3.185 2.114 4.625
3.711 1.830 4.411
3.182 2.279 4.674
3.168 1.823 5.332
3.443 1.840 4.990
3.323 2.237 5.026
3.562 1.830 5.425
3.716 2.058 4.943
3.143 2.042 5.329
3.307 1.842 5.729
3.683 1.811 5.801
3.511 1.688 6.038
3.352 1.617 6.175
3.466 1.832 6.340
3.422 1.784 6.236
1.800 3.722 1.090
1.567 3.348 0.673
2.211 2.811 2.363
2.931 2.830 2.065
2.675 2.700 2.098
2.096 2.821 2.607
2.300 2.896 2.650
2.742 2.455 2.564
3.309 2.464 1.949
3.270 2.563 2.017
2.144 2.632 2.735
2.211 2.717 2.656
2.608 2.653 2.740
2.725 2.542 2.807
3.335 2.300 2.250
3.193 2.724 2.171
3.740 2.635 2.205
2.606 2.604 2.770
2.504 2.436 3.381
2.920 2.427 3.082
3.143 2.353 2.659
3.535 2.350 2.907
3.259 2.641 2.349
3.941 2.336 2.621
2.284 2.504 3.373
2.227 2.206 2.935
2.590 2.479 2.829
2.708 2.436 2.961
3.182 1.918 2.885
3.272 2.291 2.798
3.622 1.871 2.125
2.616 2.262 3.035
2.660 2.123 3.229
2.624 2.065 2.990
2.913 2.061 2.927
3.170 2.112 3.216
3.525 2.026 2.710
3.921 1.852 2.869
2.536 2.056 3.253
2.671 2.183 3.627
2.828 1.880 3.416
3.076 2.278 3.256
3.560 1.862 3.198
3.542 1.908 3.344
3.896 1.555 3.089
2.374 2.029 3.679
2.517 1.872 3.706
2.982 2.284 4.020
3.314 1.682 3.702
3.663 1.801 3.280
3.595 1.607 3.369
2.823 2.129 3.622
2.995 2.256 3.954
3.134 2.134 4.107
3.131 1.600 3.901
3.815 1.780 3.652
2.901 1.950 3.957
3.106 1.858 4.193
3.190 1.598 4.413
3.638 1.967 4.236
2.821 1.697 4.213
3.272 1.892 4.763
3.278 1.600 4.776
3.065 1.992 4.945
2.997 1.779 4.773
3.620 1.534 4.932
3.102 1.490 5.047
3.289 1.541 5.273
3.071 1.468 5.080
3.587 1.509 5.354
3.402 1.286 5.477
3.665 1.188 5.919
3.231 1.472 5.709
3.583 1.427 6.088
3.831 1.466 6.371
1.563 3.399 0.836
1.382 2.916 0.882
1.341 2.945 1.155
1.965 2.795 0.960
1.629 3.148 1.367
1.891 2.763 1.291
1.766 2.877 1.165
1.474 2.704 1.425
1.844 2.883 1.599
1.894 2.972 1.723
2.578 2.643 1.283
1.911 2.967 1.889
1.870 2.957 2.115
2.089 2.846 1.843
2.470 2.610 1.722
2.722 2.709 1.664
1.727 2.842 1.793
1.951 2.903 2.378
2.305 2.635 1.887
2.639 2.537 2.159
2.946 2.572 1.713
2.958 2.469 1.473
1.778 2.835 2.025
2.263 2.697 2.440
2.560 2.308 2.527
2.646 2.620 2.496
3.209 2.267 2.257
3.350 2.056 2.071
3.283 2.324 1.834
2.154 2.453 2.582
2.291 2.288 2.672
2.573 2.258 2.385
2.741 2.518 2.273
2.771 2.498 2.372
3.205 2.069 2.119
3.691 2.224 1.906
2.093 2.769 3.024
2.231 2.541 2.894
2.406 2.259 2.909
2.660 2.107 2.709
3.167 2.110 2.877
3.676 1.945 2.335
3.778 1.745 2.444
2.481 2.377 3.339
1.945 2.246 2.903
2.776 1.828 2.664
2.949 1.907 2.928
3.116 1.718 2.659
3.487 1.651 2.629
3.755 1.731 2.065
2.262 2.280 3.195
2.534 1.974 3.543
2.557 1.846 3.102
2.758 1.646 3.147
2.998 1.515 2.932
3.389 1.808 3.028
3.468 1.396 2.870
2.536 2.295 3.159
2.388 2.013 3.365
2.926 1.938 3.196
3.193 1.575 3.055
3.010 1.661 2.994
3.400 1.394 3.242
2.549 1.742 3.387
2.848 1.730 3.901
2.856 1.452 3.632
3.483 1.445 3.360
3.375 1.353 5.506
2.887 1.164 5.454
3.458 1.537 5.535
3.121 1.311 5.389
3.473 1.197 6.052
3.257 1.405 5.721
3.702 0.895 5.996
3.695 0.905 6.140
1.377 3.045 0.546
1.875 2.939 0.909
1.135 2.611 1.066
1.188 2.991 1.320
1.770 2.667 0.921
1.252 2.915 0.805
1.634 2.658 1.196
2.029 2.620 1.025
2.321 2.317 0.823
1.788 2.939 1.251
1.914 2.443 1.679
1.698 2.578 1.481
2.006 2.536 1.123
2.554 2.270 1.461
1.424 2.602 1.553
1.932 2.325 2.122
1.983 2.367 1.656
2.254 2.429 1.470
2.700 2.016 1.383
2.739 1.974 1.158
1.749 2.482 2.029
1.994 2.403 1.998
2.200 2.499 1.775
2.618 2.476 1.720
2.450 2.004 1.828
3.221 2.066 1.714
3.157 1.802 1.381
2.038 2.450 2.292
2.191 2.556 2.582
2.377 2.289 2.550
2.721 1.879 2.410
2.629 2.326 1.798
3.053 2.082 1.772
3.403 1.815 1.988
2.183 2.333 2.404
1.881 2.209 2.915
2.119 1.917 2.566
2.885 2.042 2.360
3.045 1.946 2.131
3.268 1.802 2.438
3.555 1.977 1.849
1.959 2.353 2.712
2.037 1.914 3.080
2.470 2.282 2.813
2.697 2.026 2.783
2.946 2.135 2.522
3.381 1.863 2.383
3.840 1.570 2.116
2.222 2.093 2.967
2.363 1.876 2.830
2.351 1.640 2.963
2.823 1.642 2.591
2.689 1.515 2.605
3.409 1.384 2.354
3.668 1.601 2.072
1.991 2.007 2.702
2.454 1.615 3.349
2.928 1.713 2.749
3.145 1.631 3.017
3.424 1.433 2.426
3.404 1.398 2.824
2.738 1.471 3.054
3.051 1.426 3.085
2.990 0.870 5.591
3.150 0.962 5.656
3.465 0.740 6.002
3.211 0.886 5.755
1.392 2.769 0.787
1.277 2.562 0.408
1.013 2.453 0.804
1.245 2.224 1.005
1.732 2.283 1.059
2.125 2.358 0.928
1.158 2.592 1.105
1.275 2.196 1.526
1.546 2.227 1.404
1.991 2.432 0.940
2.078 2.407 1.006
1.307 2.217 1.165
1.511 2.572 1.466
1.650 2.217 1.408
2.123 1.989 1.076
2.113 2.298 1.223
2.543 2.043 1.081
1.462 2.303 1.321
1.815 2.048 1.677
1.976 2.389 1.907
2.086 1.837 1.487
2.547 1.684 1.159
2.755 1.646 1.388
2.970 2.012 0.960
1.634 2.223 1.985
2.063 2.310 2.269
1.826 2.029 2.183
2.306 2.197 1.848
2.667 1.624 1.696
2.762 1.606 1.846
3.119 1.671 1.568
3.488 1.780 1.182
2.008 2.183 2.200
1.826 2.071 2.427
2.346 1.975 2.415
2.245 1.794 2.107
2.917 1.570 2.195
3.007 1.486 1.607
3.054 1.362 1.586
3.585 1.602 1.771
2.041 1.981 2.657
1.832 1.702 2.617
2.110 1.636 2.585
2.579 1.577 2.406
2.957 1.712 2.182
3.146 1.453 2.355
3.644 1.320 1.870
3.860 1.336 1.721
2.026 2.002 2.898
2.353 2.006 3.177
2.123 1.711 2.593
2.505 1.852 2.938
2.900 1.620 2.388
3.136 1.351 2.673
3.734 1.335 2.363
2.260 1.654 3.056
2.221 1.531 2.872
2.269 1.581 2.775
2.625 1.487 2.770
3.198 1.484 2.597
3.332 0.941 2.145
3.438 1.025 2.285
2.499 1.438 3.102
3.099 1.389 2.539
3.248 1.107 2.375
3.177 0.419 6.158
3.042 0.516 6.095
0.855 2.045 0.427
1.216 2.023 0.763
1.121 2.207 0.608
1.433 2.154 1.169
1.723 2.062 0.776
1.888 1.766 0.566
1.428 2.204 1.047
1.542 2.195 1.220
1.703 2.121 1.024
1.707 2.073 1.212
2.188 1.643 0.833
1.167 2.182 1.501
1.378 2.159 1.388
1.582 1.791 1.253
1.810 1.963 1.398
2.104 1.741 0.941
2.678 1.951 1.086
3.007 1.645 1.034
1.638 1.855 1.474
1.387 1.893 2.056
1.702 1.840 1.755
2.091 1.696 1.497
2.146 1.506 1.433
2.655 1.614 1.254
2.851 1.423 1.296
2.977 1.539 1.041
1.320 1.852 1.664
1.911 1.955 1.894
2.100 1.987 1.950
2.491 1.819 1.581
2.328 1.327 1.477
3.028 1.253 1.529
2.808 1.337 1.619
3.288 1.099 1.058
3.823 1.131 1.249
1.586 1.997 2.027
1.989 1.472 2.560
2.221 1.703 2.219
2.322 1.534 1.878
2.698 1.569 2.222
3.146 1.314 1.938
3.395 1.113 1.453
3.279 1.141 1.456
3.804 1.440 1.639
1.890 1.860 2.253
1.649 1.382 2.696
2.031 1.750 2.295
2.379 1.712 2.178
2.748 1.528 2.470
2.790 1.088 2.115
2.977 1.094 1.751
3.474 1.109 2.056
1.745 1.629 2.745
2.321 1.554 2.857
2.439 1.398 2.685
2.931 1.102 2.715
3.034 1.453 2.483
3.281 0.866 2.239
3.873 0.839 2.313
2.537 1.363 2.380
2.524 0.774 2.532
2.766 0.755 2.297
3.270 0.946 1.915
3.492 0.597 2.190
0.884 2.172 0.346
0.963 2.093 0.763
1.298 1.762 1.069
1.552 1.789 0.551
1.382 1.726 0.836
1.077 1.793 1.307
1.521 1.618 0.888
1.984 1.913 0.933
1.776 1.434 0.739
1.160 1.690 1.454
1.243 1.825 1.667
1.383 1.372 1.589
1.983 1.489 1.102
2.131 1.327 1.249
2.261 1.202 0.652
2.773 1.193 0.507
2.941 0.977 0.646
3.318 1.422 0.581
1.070 1.764 1.476
1.358 1.517 1.926
1.962 1.422 1.556
1.728 1.531 1.743
2.194 1.182 1.375
2.722 1.405 1.326
3.070 0.967 1.083
3.020 1.156 0.917
3.566 0.908 0.809
3.593 0.732 0.599
1.593 1.578 1.951
1.749 1.505 2.028
1.708 1.549 1.981
2.254 1.280 1.954
2.194 1.093 1.436
2.371 1.043 1.706
2.766 1.226 1.437
3.341 0.797 1.091
3.582 1.116 1.134
3.618 0.839 1.104
1.376 1.346 1.828
1.696 1.557 2.336
2.085 1.634 1.886
2.484 1.076 1.935
2.368 1.436 2.124
2.669 1.387 1.473
3.140 0.928 1.533
3.112 1.148 1.567
3.495 0.710 1.269
3.944 1.005 1.289
1.875 1.157 2.344
2.037 1.370 2.517
2.373 1.426 2.266
2.367 0.886 2.297
2.978 1.293 1.795
2.877 0.774 1.653
3.503 1.138 2.026
3.873 0.514 1.763
2.357 1.355 2.313
2.450 0.926 2.547
3.209 0.950 2.588
3.429 1.037 2.037
3.787 0.529 2.209
2.525 0.912 2.416
2.743 0.886 2.011
3.393 0.715 2.119
3.648 0.692 1.996
3.443 0.201 1.836
0.730 1.432 0.588
0.753 1.593 0.735
1.021 1.762 0.944
1.610 1.663 1.023
1.630 1.173 0.923
3.298 1.001 0.132
1.105 1.762 1.299
1.317 1.619 1.147
1.383 1.504 1.119
1.945 1.546 1.280
1.929 1.151 1.066
2.079 1.293 0.863
2.607 0.980 0.864
2.759 1.041 0.595
3.238 1.151 0.559
3.656 0.913 0.055
3.858 0.933 0.412
3.844 0.526 0.025
1.170 1.321 1.651
1.395 1.147 1.693
1.364 0.984 1.540
1.913 0.908 1.429
2.235 1.060 1.524
2.336 0.934 1.210
2.976 1.198 1.205
3.213 1.000 0.765
3.163 1.016 0.998
3.258 0.589 0.324
3.532 0.669 0.297
4.203 0.765 0.219
4.098 0.505 0.171
4.513 0.242 -0.106
1.511 1.603 1.521
1.273 1.097 2.181
1.732 1.082 1.973
2.010 0.855 1.495
2.494 1.267 1.781
2.605 0.939 1.252
2.618 0.786 1.307
3.009 0.847 0.894
3.108 0.404 1.290
3.509 0.645 0.760
3.762 0.721 0.656
4.258 0.626 0.370
1.514 1.138 2.170
1.769 1.044 2.194
1.860 0.801 2.047
2.400 0.751 1.723
2.445 0.844 1.535
2.913 0.886 1.292
3.265 0.802 1.533
3.339 0.492 1.547
3.594 0.468 1.281
4.243 0.211 0.993
2.050 0.901 2.093
2.249 0.953 1.859
2.786 0.538 2.229
3.190 0.827 1.587
3.489 0.808 1.890
3.306 0.320 1.824
3.867 0.238 1.436
2.670 0.945 2.547
2.694 0.579 2.049
3.000 0.310 2.089
3.424 0.471 1.801
3.692 0.557 1.896
2.934 0.490 2.188
3.143 0.069 1.999
3.252 0.337 1.670
3.348 -0.011 2.025
3.738 -0.160 1.779
2.899 0.737 0.281
2.056 0.934 0.807
1.936 1.044 0.949
2.308 0.671 0.900
2.631 0.395 0.478
2.830 0.830 0.160
3.535 0.620 0.191
3.324 0.396 0.129
1.944 0.700 1.401
2.190 0.759 1.235
2.595 0.552 0.915
2.400 0.564 1.166
3.076 0.703 0.630
2.891 0.749 0.418
3.589 0.304 0.642
3.661 0.266 0.537
3.778 0.215 -0.000
3.944 0.079 0.092
4.649 -0.064 -0.005
1.859 1.006 1.747
1.910 0.693 1.582
2.277 0.662 1.198
2.537 0.687 1.509
2.699 0.365 1.088
3.465 0.659 0.912
3.530 0.298 0.807
3.867 0.204 0.608
4.107 0.079 0.765
4.216 -0.164 0.499
2.153 0.678 1.904
1.992 0.803 1.694
2.520 0.482 1.812
2.964 0.641 1.685
3.082 0.605 1.173
3.239 0.140 1.328
3.525 0.194 1.092
3.665 0.198 1.238
4.057 0.243 0.916
2.331 0.784 1.918
2.567 0.505 1.847
2.994 0.543 1.964
3.311 0.564 1.604
3.547 0.240 1.538
3.993 0.156 1.509
3.974 0.094 1.187
2.748 0.159 2.401
3.027 0.440 1.866
3.222 0.203 1.736
3.496 0.347 1.588
4.021 -0.007 1.548
2.716 0.147 1.881
2.791 0.338 0.000
2.228 0.724 0.813
2.568 0.641 0.619
2.914 0.288 0.287
3.456 -0.042 0.470
3.545 0.328 0.217
2.435 0.690 1.112
2.353 0.304 0.972
2.868 0.299 0.683
2.922 0.474 0.687
3.138 -0.016 0.687
3.319 0.056 0.246
2.018 0.625 1.426
2.286 0.114 1.404
2.817 0.456 0.922
2.916 0.298 1.218
3.287 -0.046 0.858
3.444 0.085 0.509
2.289 0.553 1.454
2.314 0.197 1.617
2.656 0.171 1.625
3.083 0.041 1.071
3.028 0.160 1.237
2.675 0.047 1.608
2.847 0.354 1.859
2.445 -0.100 1.923
2.470 0.194 0.077
2.739 0.296 0.516
2.811 -0.190 0.327
2.136 -0.134 0.570
2.426 0.100 0.991
4.592 4.463 2.988
4.600 4.374 2.833
5.310 4.298 2.330
5.200 4.064 2.467
5.742 4.077 2.047
5.959 3.770 2.004
4.286 4.330 2.961
4.976 4.476 3.161
4.729 4.108 2.867
5.044 3.915 3.025
5.519 3.908 2.595
5.668 4.012 2.635
5.900 3.873 2.147
4.567 4.407 3.692
4.888 4.254 3.489
5.299 4.119 3.223
5.329 3.892 3.203
5.502 4.025 3.158
5.815 3.901 2.995
6.373 3.538 2.926
4.413 4.214 3.928
4.818 4.227 3.589
5.402 3.669 3.654
5.254 3.751 3.109
5.767 4.020 3.087
5.773 3.959 2.900
6.251 3.571 2.801
5.289 3.894 4.115
5.424 3.912 3.867
5.631 3.835 3.629
5.858 3.950 3.542
6.103 3.395 3.222
5.558 3.577 4.148
5.774 3.743 3.805
5.774 3.585 3.939
6.211 3.639 3.924
5.991 3.341 4.089
5.794 3.522 4.214
6.218 3.526 4.193
4.721 4.462 1.984
5.063 4.543 1.822
4.523 4.281 2.542
4.962 4.357 2.625
5.136 4.451 2.007
5.153 4.366 2.132
5.321 4.317 2.139
4.834 4.549 2.854
5.043 4.247 2.462
5.251 4.315 2.662
5.485 4.301 2.595
5.937 4.240 2.047
5.880 3.667 2.337
4.281 4.005 2.627
4.582 3.886 2.699
4.814 3.820 2.500
4.886 4.118 2.641
5.298 3.552 2.264
5.526 3.534 2.351
4.211 4.261 3.151
4.351 3.820 2.918
5.043 4.023 3.174
5.035 3.912 2.651
5.622 3.963 2.761
5.534 3.677 2.238
5.866 3.430 2.600
4.055 3.895 3.735
4.628 4.126 3.471
4.799 3.695 3.215
4.720 3.765 3.336
5.224 3.721 2.848
5.717 3.760 3.019
5.661 3.591 2.680
5.927 3.238 2.685
4.535 3.944 3.900
4.368 4.058 3.759
4.688 3.511 3.715
4.999 3.854 3.275
5.510 3.400 3.284
5.858 3.321 3.313
5.654 3.251 2.977
6.379 3.217 3.018
4.746 3.779 3.782
4.906 3.658 4.101
4.918 3.374 3.927
5.469 3.723 3.799
5.566 3.252 3.681
6.030 3.264 3.561
6.326 3.295 2.969
5.008 3.412 4.368
5.063 3.484 4.208
5.619 3.625 3.651
5.579 3.587 3.968
6.253 3.219 3.667
5.452 3.405 4.046
5.866 3.142 4.171
6.200 2.986 4.089
5.984 2.868 4.083
4.909 4.185 2.433
5.148 3.794 2.061
5.160 3.796 2.323
3.992 4.185 2.662
4.521 3.835 3.049
4.788 3.838 2.744
4.812 3.603 2.404
5.308 3.774 2.578
5.316 3.480 2.251
4.335 3.799 2.592
4.175 3.659 2.515
4.522 3.643 2.604
4.739 3.848 2.388
5.089 3.722 2.260
4.186 3.553 3.135
4.194 3.551 3.011
4.522 3.669 2.716
4.612 3.782 2.954
4.908 3.637 2.691
5.355 3.577 2.446
5.485 3.148 2.406
3.751 3.885 3.474
3.842 3.828 3.289
4.500 3.519 3.590
4.696 3.447 3.032
4.849 3.253 3.164
5.082 3.438 2.825
5.428 3.323 2.961
5.864 3.181 2.814
6.077 2.987 2.516
3.753 3.421 3.892
3.951 3.580 3.553
4.509 3.272 3.713
4.593 3.676 3.432
4.821 3.519 3.519
5.111 3.165 3.071
5.664 3.058 3.046
5.886 2.900 2.817
6.101 2.984 2.655
3.881 3.530 4.371
4.072 3.295 3.894
4.740 3.474 3.973
4.921 3.195 3.851
5.275 3.104 3.933
5.595 3.366 3.370
5.902 3.335 3.349
5.698 2.852 3.238
6.225 3.176 3.421
4.413 3.554 4.586
4.818 3.470 4.290
4.660 3.089 4.036
5.100 3.048 3.864
5.574 3.044 4.110
5.681 3.085 3.959
5.935 2.779 3.755
6.165 2.799 3.675
5.681 3.031 3.938
5.630 2.935 4.260
6.062 2.757 3.671
6.304 2.866 4.371
4.121 3.631 2.978
4.635 3.646 2.817
4.445 3.561 2.772
4.646 3.354 2.585
5.389 3.258 2.037
3.832 3.346 2.986
4.093 3.660 2.536
4.369 3.705 2.759
4.778 3.221 2.516
5.071 3.180 2.644
3.640 3.332 3.136
3.583 3.644 3.049
4.010 3.521 3.081
4.100 3.598 3.097
4.506 3.103 2.599
5.186 3.001 2.694
5.135 2.930 2.659
3.514 3.626 3.955
3.388 3.516 3.857
4.104 3.307 3.662
4.403 3.442 3.253
4.483 3.471 3.424
4.665 3.214 3.233
5.024 2.820 2.761
5.348 3.109 2.787
5.406 3.142 2.409
3.218 3.412 4.415
3.632 3.469 4.164
3.584 3.321 3.909
4.302 3.157 3.744
4.351 3.190 3.519
4.518 3.302 3.660
4.757 2.905 3.154
5.105 2.824 3.156
5.122 2.947 2.904
5.721 3.080 3.093
5.815 2.487 2.703
3.492 3.737 4.052
3.488 3.442 4.608
3.685 3.639 4.331
3.884 3.263 4.137
4.314 3.390 3.808
4.479 3.362 3.852
4.795 2.826 4.055
4.706 2.718 3.436
5.089 2.806 3.509
5.574 2.589 3.316
5.768 2.917 3.365
6.262 2.647 3.059
3.367 3.524 4.518
3.712 3.633 4.999
3.772 3.015 4.849
3.877 3.308 4.298
4.189 2.979 4.409
4.300 3.012 4.267
5.059 2.695 4.170
5.082 2.763 3.908
5.601 2.657 4.054
5.641 2.530 3.519
5.981 2.467 3.493
6.156 2.836 3.645
3.694 3.387 4.988
3.613 3.402 4.880
3.847 2.997 4.682
4.046 2.908 5.004
5.729 2.782 3.659
6.025 2.389 4.059
6.271 2.626 3.471
3.651 3.117 5.227
3.919 2.988 5.285
3.833 3.310 5.220
3.885 3.646 3.160
4.069 3.650 3.072
4.352 3.211 2.878
4.487 3.525 2.641
4.927 3.285 2.651
3.948 0.847 6.249
3.762 0.878 6.291
3.453 0.240 6.488
3.751 0.299 6.254
3.474 0.463 6.262
3.878 -0.121 6.384
3.475 -0.073 6.094
3.144 0.202 6.455
