6.254 2.892 2.297
5.984 2.795 2.352
5.782 2.667 2.244
5.928 2.455 2.663
6.255 2.263 2.571
6.336 2.064 2.670
6.065 1.480 2.555
5.979 2.958 2.349
6.122 2.754 2.095
6.105 2.557 2.241
6.259 2.317 2.154
6.028 2.780 2.253
6.030 2.570 2.049
6.026 2.581 2.094
5.988 2.307 2.440
5.998 2.140 2.377
6.032 1.879 2.344
6.032 1.764 2.705
5.661 2.884 2.260
5.934 2.688 1.651
6.238 2.494 1.789
6.311 2.693 1.844
6.011 2.707 1.791
5.968 2.571 1.896
5.981 2.229 2.058
6.330 2.164 1.949
6.380 1.944 2.351
5.756 2.457 1.681
5.949 2.356 1.563
6.216 2.084 1.858
6.170 1.895 2.082
0.345 5.052 6.378
0.784 5.185 6.211
0.403 5.482 6.196
0.158 4.978 6.278
0.270 5.133 6.188
0.147 4.927 6.252
-0.040 4.638 6.071
0.313 5.303 5.657
0.815 4.963 5.782
0.807 5.014 5.850
0.900 4.588 6.047
0.744 4.550 6.267
0.047 5.682 5.591
0.188 5.277 5.861
0.452 4.994 5.816
0.492 4.711 6.029
0.418 4.756 6.043
0.514 4.406 6.058
-0.175 5.056 5.894
0.130 4.901 6.062
0.379 4.862 6.047
0.108 4.489 5.883
0.261 4.154 6.380
0.051 4.555 6.227
0.321 4.115 6.325
0.793 5.862 5.709
0.622 5.615 5.588
0.818 5.080 5.679
1.026 4.870 5.916
1.041 4.872 5.939
0.413 5.723 5.365
0.502 5.218 5.375
0.777 4.963 5.534
0.578 4.989 5.726
0.938 4.571 5.729
1.065 4.352 6.006
0.117 5.524 5.445
0.384 5.575 5.281
0.462 5.073 5.711
0.194 5.109 5.635
0.287 4.575 5.731
0.650 4.536 5.940
0.579 4.227 6.097
-0.126 5.122 5.541
0.047 5.065 5.654
0.250 4.564 5.953
0.274 4.391 6.057
0.494 4.345 6.125
0.293 4.190 6.273
-0.017 4.484 6.065
0.303 4.268 6.087
0.084 3.814 5.883
1.050 5.939 5.173
1.470 5.623 5.445
1.578 5.430 5.448
1.125 5.852 5.123
0.903 5.554 5.457
1.117 5.230 5.237
1.328 5.100 5.315
1.184 4.764 5.704
0.508 5.739 5.259
0.647 5.358 5.147
0.701 5.462 5.503
1.121 5.317 5.299
0.890 4.926 5.639
1.223 4.782 5.768
0.277 5.860 5.381
0.389 5.428 5.088
0.534 5.345 5.337
0.675 5.004 5.371
0.545 4.782 5.450
0.968 4.578 5.649
0.728 4.320 5.799
-0.002 5.453 5.225
0.236 5.154 5.290
0.413 5.284 5.173
0.305 4.924 5.458
0.459 4.803 5.350
0.682 4.302 5.536
0.764 4.104 5.685
-0.059 5.470 5.383
0.253 4.949 5.234
0.158 4.862 5.566
0.292 4.768 5.463
0.488 4.254 5.558
0.479 4.042 5.494
-0.157 4.292 5.473
0.111 4.236 5.386
0.216 3.839 5.582
2.712 6.260 5.278
2.256 6.458 5.068
2.436 6.142 5.097
2.152 6.120 4.798
1.963 5.991 4.873
1.683 6.225 4.919
1.716 5.783 5.058
2.072 5.427 5.035
1.531 6.218 4.778
1.476 5.785 5.156
1.379 5.895 5.145
1.536 5.600 4.969
1.695 5.275 5.054
1.119 6.103 5.047
1.012 5.853 4.984
1.081 5.600 5.203
1.473 5.594 5.276
1.398 5.077 5.257
1.530 4.936 5.219
0.985 5.966 4.769
1.164 5.667 4.908
0.859 5.589 5.008
1.223 5.256 5.193
1.119 4.929 5.382
1.123 4.664 5.246
1.538 4.585 5.444
0.884 5.772 4.865
0.949 5.385 5.130
0.978 5.211 5.166
0.750 4.898 5.239
1.062 4.558 5.207
1.199 4.328 5.548
1.417 4.357 5.517
0.274 5.711 5.118
0.472 5.187 5.028
0.796 5.001 5.246
0.651 4.781 5.124
0.618 4.628 5.125
1.012 4.358 5.380
1.048 4.381 5.532
0.442 5.720 4.987
0.158 5.121 5.232
0.589 4.985 5.151
0.660 4.711 5.197
0.411 4.448 5.101
0.834 4.348 5.384
0.592 4.084 5.593
0.142 5.053 4.920
0.306 4.935 5.291
0.437 4.724 5.333
0.499 4.665 5.385
0.369 4.058 5.373
0.366 4.039 5.351
0.073 4.571 5.142
0.339 4.357 5.486
0.214 3.925 5.659
2.640 6.130 3.362
2.261 6.289 3.164
2.296 5.901 3.413
2.248 5.536 3.701
2.161 5.992 3.201
2.162 6.007 3.412
2.398 5.549 3.488
2.287 5.332 3.395
2.480 5.225 3.834
2.365 5.084 3.649
2.779 3.627 4.497
3.146 3.148 4.315
3.077 3.162 4.329
1.502 6.161 3.055
1.968 5.909 3.534
1.849 5.800 3.286
1.745 5.406 3.711
1.937 5.385 3.811
2.155 4.894 3.757
2.147 4.901 3.613
2.468 4.709 3.888
2.451 4.595 3.798
2.563 4.163 4.122
2.486 4.003 4.188
2.730 3.914 4.480
2.617 3.575 4.516
2.707 3.045 4.626
3.066 3.228 4.515
1.412 5.958 3.029
1.351 5.906 3.292
1.475 5.775 3.205
1.815 5.511 3.602
1.793 5.183 3.781
1.830 4.833 3.871
1.802 4.654 3.602
2.161 4.654 4.030
2.244 4.186 3.802
2.422 4.087 3.943
2.463 4.028 4.372
2.456 3.429 4.148
2.445 3.579 4.157
2.479 2.956 4.495
2.511 3.028 4.549
1.557 5.425 3.333
1.363 5.364 3.368
1.418 5.013 3.542
1.924 4.769 3.646
1.639 4.579 3.854
2.002 4.134 3.791
2.094 4.050 3.899
1.899 3.557 4.281
2.215 3.750 4.462
2.125 3.165 4.299
2.252 2.971 4.499
2.584 3.045 4.467
1.370 4.969 3.395
1.504 4.800 3.802
1.473 4.661 3.597
1.391 4.333 3.784
1.681 3.982 3.828
1.834 4.019 3.983
1.715 3.775 4.095
1.730 3.509 4.340
1.980 3.407 4.384
1.998 3.182 4.285
2.319 2.650 4.540
1.327 4.596 3.568
1.154 4.709 3.917
1.177 4.088 4.043
1.455 4.228 3.730
1.661 3.953 3.950
1.607 3.626 4.172
1.773 3.278 4.165
1.774 3.034 4.446
1.811 3.059 4.515
1.039 4.579 3.914
1.004 4.295 4.020
1.197 3.811 4.037
1.052 3.616 3.918
1.465 3.296 4.328
1.523 3.164 4.015
1.240 2.854 4.380
0.622 4.246 3.877
1.017 3.985 3.907
0.750 3.834 3.844
1.125 3.289 3.897
1.351 3.206 4.281
2.548 6.157 3.133
2.154 5.959 3.074
3.410 3.462 4.263
3.591 3.133 4.327
2.128 6.085 2.805
2.064 6.082 2.908
2.787 3.512 4.234
2.877 3.556 4.194
2.994 3.183 4.237
2.916 3.032 4.189
1.687 6.076 2.900
2.317 4.713 3.587
2.387 4.417 3.464
2.612 4.388 3.877
2.395 4.071 3.904
2.714 4.029 3.956
2.646 3.601 3.980
2.663 3.186 3.989
2.681 2.968 4.078
3.116 2.907 4.119
1.827 4.808 3.430
2.152 4.788 3.669
2.172 4.581 3.847
1.985 4.118 3.919
2.406 3.815 3.609
2.513 3.975 3.996
2.451 3.325 3.856
2.333 3.203 3.882
2.698 3.272 4.413
2.806 2.654 4.203
1.655 4.777 3.600
1.918 4.640 3.406
2.027 4.262 3.580
2.107 4.105 3.838
1.850 4.122 3.742
2.156 3.837 4.014
2.304 3.275 4.205
2.058 3.101 3.951
2.452 2.768 4.331
2.451 2.876 4.102
1.486 4.958 3.197
1.716 4.387 3.505
1.581 4.417 3.765
1.604 4.229 3.617
1.875 3.889 3.771
1.722 3.790 3.897
1.930 3.539 4.108
2.135 2.958 3.885
2.289 3.028 4.022
2.293 2.673 4.120
1.382 4.598 3.542
1.213 4.106 3.629
1.368 4.169 3.816
1.694 3.747 4.001
1.609 3.549 3.948
1.708 3.422 3.957
1.833 2.865 3.885
2.049 2.910 4.134
1.700 2.641 4.331
1.207 4.013 3.460
1.236 3.655 3.575
1.253 3.487 3.797
1.399 3.397 3.940
1.225 3.175 3.761
1.579 3.035 4.032
1.723 2.643 4.232
0.875 3.618 3.769
0.952 3.703 3.619
1.250 3.368 3.740
1.089 3.023 3.862
1.122 2.867 3.913
3.801 3.285 3.965
3.388 3.295 4.150
3.306 3.025 4.198
2.960 3.525 3.977
2.860 3.212 3.884
3.239 3.332 3.834
2.979 2.971 4.177
2.340 3.868 3.532
2.645 3.620 3.474
2.728 3.361 3.878
2.859 3.177 4.013
2.646 3.120 3.957
2.993 2.890 4.104
2.121 4.241 3.359
2.290 4.278 3.620
2.260 3.768 3.507
2.146 3.495 3.807
2.529 3.471 3.899
2.551 3.008 3.919
2.517 3.006 3.948
2.589 2.687 4.050
1.838 4.385 3.467
1.987 3.838 3.601
2.007 3.779 3.732
2.153 3.448 3.794
2.049 3.501 3.566
2.487 3.053 3.726
2.368 3.111 3.814
2.223 2.747 3.868
1.704 4.368 3.591
1.931 3.946 3.401
1.624 3.561 3.349
1.769 3.309 3.740
2.113 3.489 3.591
2.083 3.006 3.811
2.190 3.033 3.776
2.138 2.503 3.911
1.308 4.001 3.282
1.304 3.812 3.390
1.661 3.571 3.422
1.616 3.294 3.478
1.620 3.352 3.767
1.600 2.937 3.921
1.725 2.903 4.038
1.731 2.528 4.112
1.017 4.081 3.486
1.350 3.624 3.521
1.213 3.345 3.629
1.442 3.312 3.539
1.304 2.917 3.671
1.518 2.930 3.858
1.620 2.440 3.944
1.611 2.610 3.872
0.960 3.488 3.485
1.065 3.591 3.445
1.201 3.291 3.516
1.370 3.060 3.549
1.387 2.603 3.948
1.551 2.505 3.710
1.031 3.050 3.559
0.967 2.746 3.669
1.281 2.839 3.689
3.978 3.298 3.871
3.545 3.145 3.761
3.376 3.114 3.790
3.372 2.905 4.027
3.137 3.532 3.471
2.864 3.373 3.466
3.319 3.072 3.725
3.283 2.841 4.025
2.714 3.854 3.445
2.558 3.532 3.479
2.653 3.212 3.627
2.804 2.973 3.682
2.828 2.665 3.720
2.127 3.856 3.451
2.232 3.608 3.583
2.427 3.288 3.372
2.469 3.073 3.637
2.823 2.690 3.570
2.733 2.781 3.725
2.103 4.121 3.329
2.115 3.605 3.375
2.159 3.575 3.383
2.457 3.131 3.611
2.225 2.919 3.713
2.587 3.001 3.484
2.571 2.707 3.677
1.699 4.014 3.374
1.785 3.461 3.269
2.011 3.196 3.434
1.867 3.402 3.528
2.067 2.952 3.381
2.023 2.672 3.797
2.298 2.298 3.734
1.601 3.991 3.262
1.386 3.390 3.186
1.723 3.197 3.402
1.527 3.274 3.522
1.688 3.056 3.509
1.981 2.585 3.591
2.016 2.415 3.775
1.414 3.878 3.070
1.558 3.662 3.129
1.227 3.389 3.200
1.319 3.161 3.606
1.743 2.912 3.562
1.519 2.723 3.895
1.533 2.103 3.802
0.994 3.429 3.158
1.229 3.492 3.057
1.407 3.067 3.427
1.442 3.059 3.266
1.348 2.656 3.372
1.612 2.602 3.672
1.466 2.339 3.971
0.842 3.323 3.398
0.759 2.965 3.195
1.034 2.927 3.605
1.100 2.492 3.595
1.057 2.560 3.472
3.979 3.100 3.481
3.786 2.942 3.732
3.518 3.165 3.351
3.367 3.047 3.475
2.971 3.278 3.327
3.175 2.816 3.663
3.345 2.964 3.508
2.556 3.196 3.253
2.798 3.344 3.350
2.816 2.716 3.529
3.216 2.576 3.716
2.285 3.692 3.312
2.372 3.359 3.332
2.705 2.991 3.313
2.823 3.016 3.498
2.846 2.393 3.335
2.124 3.842 2.874
2.258 3.289 3.319
2.154 3.235 3.235
2.547 2.968 3.484
2.507 2.930 3.431
2.745 2.682 3.335
1.769 3.924 2.788
1.869 3.345 3.025
2.064 3.545 3.035
2.019 3.038 3.296
2.262 3.000 3.487
2.256 2.570 3.289
2.142 2.532 3.597
1.520 3.598 3.088
1.787 3.307 3.088
1.642 3.222 3.108
1.910 3.210 3.115
1.720 2.751 3.284
1.952 2.665 3.632
2.224 2.243 3.530
1.203 3.444 3.029
1.518 3.324 3.005
1.543 3.191 3.093
1.371 2.944 3.244
1.656 2.709 3.193
1.696 2.365 3.312
1.853 2.362 3.628
0.952 3.198 3.124
1.404 3.221 3.281
1.159 2.800 3.092
1.322 2.521 3.185
1.466 2.258 3.222
1.609 2.109 3.409
0.853 3.417 2.829
0.867 2.880 3.206
1.074 2.648 3.361
0.917 2.654 3.463
1.001 2.355 3.240
1.321 1.859 3.441
0.861 3.038 3.022
0.764 2.585 3.372
0.706 2.398 3.424
0.891 1.975 3.229
0.918 1.874 3.710
4.029 2.927 3.203
3.817 2.806 3.163
3.374 3.072 3.062
3.384 2.627 3.192
3.143 2.760 3.259
3.207 2.795 3.347
2.740 2.995 3.355
3.028 2.790 3.226
2.874 2.523 3.401
2.764 3.404 3.016
2.737 3.176 2.906
2.557 2.679 3.230
2.782 2.518 3.249
2.394 3.257 3.044
2.124 2.890 3.073
2.511 2.741 3.176
2.623 2.566 3.045
2.400 2.389 3.446
1.920 3.441 2.730
1.900 3.368 3.121
2.054 2.929 3.044
1.951 3.004 3.255
2.179 2.699 3.396
2.447 2.189 3.095
1.824 3.460 2.968
1.905 3.302 2.770
1.854 2.778 2.926
2.076 2.840 3.147
1.797 2.649 3.297
2.081 2.379 3.460
1.202 3.271 3.003
1.589 2.859 2.837
1.420 2.867 3.122
1.702 2.413 2.915
1.531 2.477 3.389
1.967 1.988 3.289
1.053 3.060 2.657
1.142 3.123 2.945
1.395 2.757 2.962
1.560 2.412 3.030
1.520 2.264 3.135
1.515 2.009 3.056
0.967 3.098 2.568
0.897 2.800 2.742
1.239 2.794 2.875
0.974 2.611 3.229
1.487 2.263 2.973
1.289 2.077 3.204
0.798 2.913 2.679
1.010 2.742 2.912
0.973 2.451 2.990
0.922 2.315 3.162
1.010 1.675 3.326
0.466 2.513 2.784
0.762 2.364 3.168
0.621 1.822 2.975
1.040 1.707 3.303
0.442 2.199 2.864
0.358 1.718 3.297
0.745 1.824 3.182
3.925 2.824 3.166
3.678 2.564 3.314
3.236 2.700 3.283
3.234 2.842 2.893
3.047 2.680 3.133
2.804 3.045 3.060
2.712 2.513 3.047
2.906 2.223 3.171
2.203 2.818 2.817
2.672 2.811 2.756
2.491 2.600 3.046
2.802 2.418 3.144
2.171 3.253 2.499
2.314 3.011 2.852
2.382 2.824 2.839
2.216 2.696 2.798
2.215 2.038 3.026
1.493 3.289 2.506
1.961 3.208 2.846
1.938 2.923 2.726
1.736 2.673 2.777
1.989 2.190 3.020
2.090 2.250 2.831
1.334 3.193 2.355
1.507 2.851 2.636
1.549 2.621 2.686
1.813 2.558 2.636
1.641 2.419 2.730
1.815 2.095 3.062
1.124 2.938 2.435
1.211 2.965 2.546
1.549 2.810 2.837
1.424 2.548 3.018
1.701 2.018 2.714
1.839 2.160 2.814
0.751 3.074 2.483
1.161 2.831 2.677
1.242 2.784 2.593
1.437 2.166 2.935
1.304 2.171 2.970
1.313 1.845 2.814
0.569 2.953 2.678
0.886 2.534 2.761
0.985 2.346 2.804
0.853 2.184 2.674
1.269 2.164 2.769
1.094 1.804 3.063
0.367 2.551 2.806
0.465 2.372 2.786
0.687 2.222 2.994
0.651 2.029 3.011
0.907 1.746 3.171
0.443 2.135 2.853
0.546 2.138 2.926
0.717 1.637 2.692
0.838 1.427 3.148
0.319 2.080 2.966
0.221 1.711 2.995
0.190 1.535 2.968
0.038 1.454 2.986
0.099 1.339 2.914
5.453 3.264 3.197
2.549 2.894 2.725
2.440 2.390 2.667
2.566 2.333 2.625
2.319 2.683 2.538
2.157 2.784 2.770
2.288 2.298 2.834
2.267 2.067 2.644
1.897 3.081 2.461
1.819 2.948 2.310
2.165 2.741 2.604
1.954 2.375 2.861
2.347 2.070 3.015
1.568 3.347 2.457
1.445 2.831 2.309
1.460 2.646 2.303
1.969 2.267 2.497
1.965 2.093 2.669
1.888 1.947 2.950
1.247 2.963 2.222
1.227 2.755 2.504
1.266 2.538 2.612
1.437 2.455 2.802
1.675 2.065 2.545
1.865 1.892 2.795
1.118 2.836 2.197
1.099 2.856 2.525
1.321 2.439 2.604
1.231 2.242 2.528
1.486 2.033 2.767
1.273 2.009 2.724
0.749 2.661 2.473
0.839 2.587 2.331
0.958 2.580 2.373
0.868 2.384 2.756
1.173 1.854 2.885
1.392 1.911 2.715
0.460 2.840 2.244
0.615 2.312 2.413
0.478 2.430 2.509
0.654 1.951 2.485
0.635 1.897 2.492
1.006 1.462 2.768
0.187 2.260 2.174
0.270 2.031 2.538
0.511 1.950 2.384
0.443 1.852 2.740
0.903 1.329 2.647
0.115 2.191 2.644
0.097 1.683 2.555
0.560 1.533 2.847
0.555 1.310 2.793
-0.052 1.650 2.611
0.152 1.440 2.500
0.033 1.441 2.871
5.531 3.220 3.132
5.028 3.367 2.906
1.864 2.988 2.363
2.012 2.794 2.324
2.169 2.587 2.176
1.957 2.110 2.541
2.139 1.758 2.381
1.661 3.263 2.258
1.464 2.975 2.243
1.805 2.455 2.255
1.821 2.401 2.448
1.771 1.910 2.480
2.069 1.857 2.400
1.164 3.029 2.209
1.309 2.595 1.947
1.322 2.267 2.446
1.620 2.404 2.296
1.441 1.961 2.549
1.842 1.640 2.432
1.181 3.232 1.913
1.229 2.649 2.137
1.127 2.567 1.959
1.224 2.435 2.463
1.486 2.127 2.262
1.329 1.903 2.543
1.657 1.643 2.423
0.514 2.971 1.825
1.032 2.846 1.936
0.720 2.710 2.262
0.964 2.281 2.108
1.006 2.204 2.301
1.097 1.958 2.229
1.204 1.572 2.543
0.299 3.017 1.883
0.438 2.735 1.965
0.795 2.485 1.944
0.879 2.044 2.126
0.913 1.889 2.238
0.817 1.953 2.532
0.970 1.674 2.373
0.138 2.623 2.242
0.410 2.417 2.117
0.348 2.185 2.354
0.584 2.068 2.269
0.854 1.707 2.541
0.909 1.264 2.564
0.203 2.233 2.332
0.235 2.020 2.305
0.442 1.930 2.448
0.411 1.593 2.206
0.683 1.486 2.384
-0.081 1.879 2.257
0.234 1.678 2.532
0.347 1.187 2.383
5.311 3.251 2.594
5.256 3.024 2.844
1.418 2.776 1.811
1.482 2.630 2.031
1.623 2.370 1.790
1.722 2.129 1.889
2.102 2.092 2.107
1.044 3.152 1.872
1.158 2.909 1.806
1.232 2.632 1.837
1.403 2.528 2.216
1.622 2.396 2.077
1.517 2.114 2.166
1.650 1.580 2.254
0.796 3.115 1.680
1.105 2.675 1.650
1.019 2.398 2.049
1.256 2.259 2.140
1.559 2.006 2.293
1.275 1.748 2.274
1.332 1.538 2.126
0.712 3.050 1.862
0.925 2.458 1.972
0.951 2.273 1.870
0.917 2.219 2.136
1.061 1.977 1.978
1.246 1.715 2.148
1.209 1.460 2.282
0.700 2.893 1.896
0.716 2.637 1.594
0.568 2.180 2.069
0.778 2.324 2.021
0.850 1.690 2.210
0.788 1.861 2.254
1.212 1.604 2.077
0.219 2.910 1.539
0.523 2.392 1.594
0.350 2.491 1.814
0.497 2.237 2.098
0.821 1.968 2.001
0.533 1.589 2.265
0.693 1.186 2.356
0.309 2.594 1.695
0.143 2.221 1.784
0.430 2.009 2.154
0.327 1.840 2.155
0.413 1.325 1.999
0.324 1.177 2.434
0.202 2.000 1.922
0.244 1.697 2.110
0.405 1.217 2.165
0.399 1.325 2.086
0.124 1.077 2.150
5.433 2.942 2.426
4.972 2.846 2.501
1.794 2.787 1.663
1.807 2.332 1.909
1.987 2.210 2.027
1.230 2.961 1.410
1.583 2.589 1.547
1.475 2.447 1.797
1.384 2.519 1.700
1.523 2.195 1.876
1.563 1.728 1.834
1.129 3.350 1.383
1.221 3.124 1.575
1.341 2.672 1.644
1.023 2.663 1.877
1.432 2.303 1.692
1.535 2.204 2.036
1.370 1.731 1.913
1.737 1.675 2.111
0.632 3.035 1.167
0.729 2.953 1.406
1.044 2.635 1.510
1.165 2.196 1.698
1.133 2.188 1.892
1.363 1.957 1.881
1.152 1.696 2.134
1.364 1.655 2.024
0.522 3.169 1.321
0.548 2.620 1.654
0.871 2.531 1.409
0.627 2.377 1.672
0.827 2.058 1.625
1.098 1.649 1.863
1.166 1.577 1.943
1.248 1.246 1.823
0.181 2.702 1.129
0.202 2.474 1.409
0.577 2.285 1.730
0.560 1.985 1.750
0.661 2.155 1.714
0.434 1.724 1.695
0.570 1.388 1.736
0.666 1.344 1.889
-0.082 2.394 1.426
0.018 2.544 1.309
0.209 2.009 1.726
0.320 1.810 1.664
0.268 1.580 1.733
0.612 1.402 2.082
0.630 1.290 2.197
0.195 1.888 1.698
0.366 1.674 1.760
0.387 1.355 1.841
0.220 0.876 1.804
0.017 0.988 2.128
5.365 3.161 2.229
3.810 6.293 0.941
1.255 2.830 1.337
1.226 2.783 1.311
1.627 2.575 1.435
1.747 2.080 1.380
1.527 2.177 1.401
1.237 2.934 1.015
1.026 2.944 1.004
1.247 2.555 1.140
1.241 2.184 1.337
1.482 2.207 1.362
1.323 1.839 1.767
1.508 1.552 1.608
0.916 3.225 1.069
0.799 2.992 1.325
0.813 2.710 1.045
0.766 2.620 1.258
1.155 2.058 1.321
1.229 2.121 1.415
1.248 1.834 1.578
1.174 1.681 1.570
1.475 1.400 1.743
0.325 3.305 1.003
0.563 3.135 1.119
0.426 2.853 1.198
0.461 2.462 1.220
0.511 2.336 1.457
0.914 2.395 1.590
0.912 1.835 1.706
0.973 1.690 1.418
0.804 1.395 1.466
1.047 1.393 1.964
0.134 3.064 0.997
0.177 2.868 1.207
0.111 2.906 1.272
0.314 2.509 1.261
0.261 2.181 1.410
0.419 2.201 1.519
0.572 1.684 1.416
0.787 1.684 1.745
0.933 1.278 1.473
1.056 1.239 1.609
-0.055 2.581 1.184
0.020 2.396 1.063
0.361 2.055 1.488
0.291 1.997 1.397
0.264 1.650 1.256
0.297 1.511 1.735
0.606 1.440 1.822
0.632 0.912 1.893
-0.021 1.763 1.144
0.190 1.789 1.497
-0.008 1.280 1.470
0.421 1.095 1.673
0.419 1.064 1.754
0.248 1.315 1.800
-0.013 0.813 1.515
4.293 6.186 0.780
4.658 5.934 0.869
4.254 6.432 0.476
4.111 6.034 0.637
3.894 6.105 0.630
3.658 6.033 0.146
3.608 6.094 0.135
1.085 3.273 0.821
1.197 2.944 1.168
1.563 2.783 1.070
1.675 2.519 1.317
1.425 2.268 1.392
1.061 3.135 0.915
0.842 3.057 1.009
1.336 2.961 0.800
1.124 2.422 1.115
1.534 2.268 1.173
1.379 2.085 1.180
1.304 1.784 1.335
0.595 3.259 0.845
0.547 3.231 0.635
0.936 2.895 0.957
1.062 2.481 0.836
1.153 2.494 1.061
1.151 2.245 1.075
1.341 2.037 1.437
1.391 1.900 1.524
1.480 1.312 1.293
0.475 3.488 0.586
0.558 3.378 0.473
0.701 3.038 0.775
0.496 2.606 1.081
0.724 2.662 1.154
0.862 2.503 1.040
0.613 1.981 1.036
0.807 1.899 1.251
1.147 1.844 1.118
1.249 1.221 1.476
1.321 0.996 1.673
0.014 3.237 0.577
0.008 3.338 0.748
0.427 3.117 0.719
0.377 2.848 1.043
0.201 2.341 1.110
0.384 2.223 1.175
0.785 1.864 0.944
0.536 1.622 1.315
0.867 1.406 1.523
0.923 1.395 1.533
0.850 1.137 1.534
0.086 2.615 0.978
0.305 2.511 1.135
0.219 1.958 1.132
0.370 1.960 0.996
0.552 1.499 1.339
0.383 1.599 1.486
0.391 1.378 1.348
0.792 0.939 1.366
0.068 1.804 1.111
0.163 1.454 1.179
0.098 1.173 1.509
0.434 0.930 1.422
0.403 0.820 1.474
-0.100 1.056 1.590
-0.022 0.937 1.568
4.144 6.467 0.346
4.277 6.077 0.497
4.400 5.633 0.569
4.674 5.799 0.485
4.115 6.100 0.195
4.292 5.807 0.151
4.302 5.746 0.529
3.823 5.994 0.219
4.037 5.685 0.381
3.337 6.384 -0.058
3.474 6.203 0.452
3.430 5.967 0.214
3.903 5.518 0.022
1.150 3.297 0.566
1.413 2.963 0.783
1.350 2.864 0.573
1.481 2.317 0.849
1.411 2.282 1.085
0.888 3.499 0.648
0.943 3.172 0.555
0.956 2.769 0.423
1.320 2.467 0.753
1.202 2.518 0.878
1.133 2.109 1.035
1.625 2.039 0.967
0.489 3.356 0.558
0.847 3.074 0.588
0.869 2.896 0.582
0.708 2.914 0.699
0.822 2.697 0.881
0.984 2.517 0.888
0.899 2.052 0.991
0.999 1.979 1.177
1.454 1.695 0.946
0.089 3.507 0.368
0.421 3.598 0.550
0.293 2.968 0.434
0.549 2.807 0.313
0.726 2.876 0.813
0.686 2.561 0.924
0.718 2.339 0.765
0.912 2.236 0.736
0.958 1.671 1.148
1.231 1.338 1.149
1.268 1.183 1.233
0.115 3.548 0.243
0.134 3.198 0.556
0.211 3.181 0.530
0.496 2.627 0.690
0.485 2.795 0.670
0.235 2.484 0.805
0.598 2.376 1.026
0.795 2.115 0.955
0.529 1.592 1.181
0.981 1.467 0.997
0.848 1.132 1.048
-0.048 2.675 0.476
0.228 2.363 0.737
0.389 2.431 0.686
0.448 1.955 0.787
0.431 1.767 1.072
0.662 1.491 1.198
0.354 1.569 1.049
0.721 1.035 1.184
0.241 1.992 0.968
0.139 1.898 0.729
0.172 1.447 0.932
0.131 1.377 1.198
4.375 6.114 -0.120
4.647 6.140 0.341
4.323 5.731 0.374
4.819 5.723 0.387
4.654 5.224 0.387
4.353 5.895 -0.123
4.186 5.977 0.290
4.299 5.450 0.427
4.198 5.462 0.144
3.738 5.954 0.214
4.144 5.582 0.143
3.940 5.651 0.242
3.607 5.827 0.174
3.757 5.833 0.100
1.386 3.345 0.404
1.639 2.963 0.620
1.707 2.614 0.324
1.024 3.522 0.170
1.453 3.327 0.358
1.524 2.983 0.309
1.534 2.532 0.682
1.602 2.429 0.821
1.802 2.081 0.554
0.923 3.547 -0.018
0.999 3.188 -0.012
0.891 3.208 0.407
1.043 2.610 0.387
1.180 2.717 0.501
1.123 2.451 0.791
1.370 2.196 0.699
1.334 1.833 0.798
0.706 3.440 0.053
0.525 3.572 -0.017
0.913 3.181 0.285
0.683 2.918 0.266
0.712 2.825 0.398
1.027 2.668 0.493
1.180 2.160 0.624
1.283 1.969 0.558
1.366 1.923 0.829
0.149 3.379 -0.016
0.540 3.342 0.308
0.615 3.232 0.232
0.447 2.829 0.169
0.775 2.476 0.536
0.741 2.579 0.334
0.910 2.348 0.426
0.905 2.100 0.648
1.099 1.639 0.982
0.225 3.011 0.309
0.260 2.825 0.024
0.536 2.711 0.083
0.424 2.626 0.412
0.432 2.142 0.373
0.428 2.158 0.482
0.528 1.901 0.732
0.622 1.460 0.637
-0.113 3.099 -0.017
-0.061 2.508 0.171
-0.039 2.657 0.282
0.373 2.167 0.617
0.205 1.982 0.765
0.223 1.848 0.663
0.709 1.319 0.661
0.170 2.327 0.375
0.185 1.800 0.755
4.465 5.410 0.213
4.611 5.253 0.277
4.635 5.017 0.183
4.529 5.189 -0.125
4.460 5.194 0.097
4.332 5.286 -0.019
1.731 3.276 0.170
1.721 2.745 -0.025
1.559 2.486 0.349
1.892 2.437 0.264
1.258 3.108 -0.137
1.425 2.989 0.070
1.391 2.430 0.088
1.597 2.205 0.389
1.574 1.962 0.612
0.927 2.930 -0.038
0.982 2.557 0.205
1.420 2.683 0.168
1.535 2.040 0.473
1.234 1.811 0.636
0.893 2.773 -0.019
1.063 2.688 0.117
1.063 2.276 0.018
1.249 2.391 0.180
1.105 2.131 0.515
0.518 2.984 0.253
0.789 2.535 0.236
0.771 2.293 0.102
0.675 2.042 0.159
0.789 2.058 0.383
0.499 2.498 0.206
0.557 2.243 -0.073
0.589 2.242 -0.002
0.707 2.146 0.401
0.844 1.697 0.379
0.085 2.710 0.236
0.414 2.553 0.034
0.241 1.946 0.219
0.155 2.035 0.138
-0.164 1.843 0.426
4.902 5.036 0.002
4.703 4.683 0.095
2.029 2.591 -0.068
1.589 2.366 -0.186
1.952 2.187 -0.006
1.436 2.300 -0.023
1.593 2.054 -0.011
1.092 2.213 -0.220
1.371 2.121 0.118
1.267 2.117 0.172
0.975 1.930 0.207
1.135 1.975 0.314
0.886 2.143 -0.029
1.025 1.978 0.191
0.531 1.718 0.140
2.905 6.284 5.013
2.270 6.300 4.639
2.667 5.805 4.814
2.212 6.337 4.601
2.512 6.154 4.728
2.461 5.586 4.971
1.867 6.068 4.705
2.272 5.727 4.733
2.164 5.540 4.795
1.575 6.028 4.689
1.882 5.913 4.760
1.922 5.848 4.816
2.092 5.549 4.715
2.107 5.481 5.002
1.293 6.017 4.498
1.698 6.023 4.871
1.740 5.648 4.676
1.587 5.377 4.891
1.638 5.272 4.820
1.974 5.165 4.966
1.053 6.116 4.646
1.334 5.815 4.631
1.168 5.955 4.522
1.309 5.355 4.632
1.605 5.154 4.814
1.700 5.132 5.039
1.558 4.925 5.089
1.857 4.861 5.370
0.739 5.896 4.725
1.215 5.587 4.887
1.076 5.302 4.867
1.138 5.132 5.033
1.289 5.133 4.906
1.351 4.804 4.932
1.461 4.337 5.140
1.454 4.554 5.153
0.913 6.073 4.491
0.953 5.775 4.486
0.903 5.262 4.719
0.914 5.218 4.776
0.872 5.029 4.763
1.131 4.526 4.859
1.139 4.609 5.076
1.457 4.239 5.268
0.338 5.641 4.485
0.448 5.277 4.806
0.589 4.862 5.074
0.630 4.819 4.782
0.652 4.511 4.894
1.083 4.599 5.321
0.980 4.192 5.070
0.452 5.356 4.496
0.322 5.217 4.562
0.308 4.774 4.945
0.741 4.971 4.771
0.583 4.348 4.839
0.768 4.431 5.141
0.826 4.180 5.083
-0.110 5.196 4.678
-0.092 5.229 4.625
0.211 4.854 4.626
0.286 4.731 5.103
0.551 4.459 4.981
0.258 4.093 4.943
0.614 4.133 5.190
-0.071 4.607 5.052
0.159 4.453 5.000
0.106 4.021 5.178
2.903 6.292 4.379
2.710 5.946 4.715
2.411 6.041 4.532
2.502 5.727 4.815
2.269 6.205 4.609
2.147 5.916 4.400
2.508 5.742 4.485
2.162 6.109 4.529
1.846 5.792 4.416
2.134 5.771 4.427
2.089 5.652 4.835
2.137 5.216 4.565
1.637 6.169 4.298
1.717 5.963 4.646
1.717 5.597 4.439
1.757 5.439 4.834
1.824 5.063 4.963
2.166 4.774 4.644
1.463 6.390 4.222
1.639 5.847 4.165
1.400 5.850 4.667
1.714 5.561 4.728
1.507 5.412 4.773
1.976 5.040 4.537
1.829 4.918 5.052
2.080 4.772 5.045
1.164 6.273 4.352
1.211 6.127 4.394
1.150 5.872 4.586
1.476 5.615 4.488
1.577 5.211 4.562
1.602 5.076 4.973
1.423 4.582 4.904
1.548 4.546 4.745
1.611 4.319 4.942
0.837 5.992 4.537
1.166 5.539 4.568
1.046 5.264 4.352
1.241 5.265 4.453
1.448 4.888 4.863
1.556 4.511 4.777
1.648 4.407 5.031
1.580 4.088 5.093
1.696 3.854 5.261
0.663 5.587 4.466
0.684 5.343 4.297
0.897 5.229 4.614
0.881 4.911 4.611
0.904 4.845 4.658
1.012 4.551 4.702
1.048 4.184 5.072
1.415 4.145 4.844
1.238 3.706 4.904
0.688 5.534 4.480
0.653 5.208 4.551
0.839 5.042 4.616
0.885 4.658 4.835
0.882 4.346 4.615
0.919 4.373 5.028
0.907 3.873 4.968
1.262 4.050 5.046
0.432 5.317 4.365
0.212 5.182 4.744
0.291 4.748 4.723
0.482 4.775 4.763
0.836 4.551 4.803
0.809 4.251 4.850
0.704 4.129 4.884
0.204 5.219 4.299
0.097 4.989 4.415
0.364 4.758 4.830
0.516 4.537 4.884
0.668 4.111 5.099
0.531 3.888 5.026
0.280 4.385 4.497
0.109 4.203 4.619
0.104 4.221 5.075
3.223 6.234 4.250
2.703 6.293 4.157
3.003 5.817 4.167
2.646 6.220 4.045
2.764 5.784 4.507
2.178 6.198 3.994
2.274 6.204 4.257
2.237 5.833 4.256
2.477 5.471 4.247
2.177 6.291 4.175
1.944 5.726 4.262
2.110 5.651 4.429
2.040 5.263 4.644
2.259 5.088 4.520
2.239 4.932 4.413
1.501 6.187 3.853
1.638 6.137 4.047
1.784 5.870 4.019
1.710 5.802 4.463
1.973 5.527 4.323
2.076 5.253 4.696
2.138 4.789 4.634
2.082 4.634 4.573
1.414 6.290 4.241
1.614 6.159 3.977
1.534 5.855 4.377
1.771 5.559 4.412
1.835 5.073 4.634
1.758 5.096 4.660
1.900 4.633 4.576
2.147 4.573 4.486
2.087 4.323 4.590
0.973 5.932 4.112
1.398 6.025 3.907
1.423 5.530 4.229
1.633 5.586 4.175
1.397 5.089 4.475
1.690 4.833 4.280
1.691 4.819 4.457
1.884 4.320 4.809
1.717 4.341 4.772
1.717 4.041 4.737
0.814 5.553 4.141
1.096 5.606 4.252
1.073 5.160 4.124
1.425 4.973 4.444
1.403 4.875 4.671
1.228 4.605 4.594
1.484 4.559 4.895
1.749 4.311 4.554
1.866 4.119 4.826
0.953 5.603 4.062
0.998 5.392 4.124
0.949 5.366 4.226
0.802 5.197 4.428
1.205 4.974 4.277
0.971 4.638 4.530
1.246 4.156 4.515
1.475 4.130 4.561
1.213 3.911 4.796
0.698 5.226 4.206
0.788 5.167 4.318
0.993 4.702 4.198
0.816 4.518 4.453
1.155 4.284 4.520
0.863 4.320 4.872
0.952 3.958 4.726
1.071 3.913 4.670
0.338 4.887 4.160
0.303 4.986 4.209
0.800 4.589 4.538
0.910 4.256 4.766
0.889 4.037 4.786
0.764 4.103 4.961
0.891 3.464 4.706
0.388 4.868 4.158
0.482 4.319 4.343
0.278 4.478 4.476
0.552 4.087 4.789
0.544 3.991 4.628
3.075 6.243 3.919
2.353 6.212 4.015
2.515 5.930 3.880
2.622 5.604 4.245
2.432 5.996 4.060
2.478 6.086 3.981
2.271 5.755 4.071
2.673 5.672 4.059
1.764 6.485 3.755
2.204 6.260 3.772
2.053 5.975 4.123
2.217 5.721 4.083
2.160 5.540 4.208
2.491 5.319 4.497
2.643 4.807 4.441
1.790 6.190 3.903
1.965 6.007 3.677
1.978 5.848 3.952
1.833 5.508 4.041
1.985 5.344 4.312
2.118 5.093 4.291
2.012 4.881 4.378
2.295 4.574 4.308
2.558 4.135 4.672
1.613 6.175 3.741
1.390 5.656 3.980
1.773 5.799 3.783
1.903 5.430 4.007
1.763 4.960 4.346
1.879 4.731 4.330
2.135 4.698 4.265
2.249 4.380 4.429
2.331 4.223 4.664
2.063 4.004 4.777
2.113 3.779 4.889
1.262 6.056 3.928
1.189 5.736 4.093
1.279 5.336 4.075
1.319 5.375 4.024
1.360 4.991 4.341
1.589 4.888 4.081
1.882 4.573 4.353
1.578 4.204 4.607
2.020 4.120 4.469
2.046 3.794 4.492
1.885 3.931 4.647
1.235 5.750 3.809
1.131 5.565 4.006
1.170 5.087 4.254
1.465 4.810 4.151
1.329 4.585 4.311
1.539 4.500 4.430
1.618 4.358 4.316
1.594 3.964 4.652
1.693 4.011 4.571
1.568 3.438 4.893
0.967 5.465 3.922
0.939 5.064 4.128
1.186 5.001 4.122
1.094 4.512 4.177
1.272 4.447 4.216
1.412 4.327 4.376
1.287 4.053 4.361
1.644 3.688 4.662
1.727 3.689 4.682
0.517 5.168 4.128
0.798 4.909 4.239
1.041 4.546 4.414
0.867 4.158 4.524
1.110 4.305 4.461
0.982 4.057 4.494
1.220 3.553 4.481
1.170 3.478 4.667
0.771 4.601 3.957
0.817 4.718 4.392
0.776 4.395 4.197
0.885 3.977 4.264
1.079 3.764 4.352
1.199 3.490 4.647
0.550 4.612 3.995
0.305 4.016 4.330
0.687 3.827 4.474
2.874 6.267 3.520
2.442 6.366 3.798
2.660 5.882 3.734
2.145 6.050 3.777
2.454 5.753 3.981
2.529 5.717 3.849
2.471 5.290 3.788
2.157 6.037 3.519
2.030 5.867 3.555
2.302 5.751 3.809
2.379 5.462 3.915
2.341 5.371 4.109
2.254 5.193 4.066
2.593 4.810 4.244
1.579 6.156 3.674
1.858 5.794 3.866
1.947 5.532 3.732
1.898 5.362 3.909
2.297 5.053 3.750
2.088 4.790 3.887
2.104 4.662 4.299
2.422 4.370 4.180
2.345 4.155 4.113
2.608 3.816 4.619
2.385 3.788 4.689
2.679 3.645 4.581
1.582 6.424 3.524
1.480 6.057 3.412
1.716 5.625 3.655
1.613 5.654 3.673
1.935 5.327 3.716
1.990 4.964 4.070
1.867 4.861 4.077
1.838 4.556 4.275
2.077 4.189 3.989
2.000 3.981 4.368
2.202 3.973 4.322
2.478 3.839 4.719
2.410 3.333 4.558
2.542 3.223 4.757
1.074 5.749 3.380
1.259 5.791 3.815
1.552 5.609 3.674
1.565 5.441 3.725
1.375 4.953 3.701
1.581 4.909 4.131
1.717 4.762 4.287
1.770 4.488 4.049
1.803 4.110 4.072
2.022 3.795 4.442
2.016 3.716 4.712
2.100 3.240 4.611
2.460 3.081 4.648
1.406 5.406 3.616
1.161 5.225 4.018
1.231 4.895 4.064
1.508 4.890 4.008
1.726 4.535 4.118
1.743 4.005 4.104
1.685 4.112 4.209
1.715 3.761 4.358
1.630 3.410 4.696
1.803 3.169 4.376
1.846 2.865 4.639
1.096 5.127 3.814
0.878 4.637 4.036
0.971 4.556 3.918
1.132 4.477 4.004
1.209 4.246 4.199
1.479 3.932 4.289
1.347 3.819 4.589
1.784 3.251 4.549
1.865 3.374 4.531
0.924 4.851 3.714
1.050 4.354 3.984
0.895 4.288 4.095
0.939 3.995 4.182
1.101 3.907 4.313
1.360 3.454 4.251
1.444 3.448 4.367
0.847 4.454 3.861
0.920 4.126 4.027
0.955 4.135 4.105
1.124 3.624 4.079
1.021 3.560 4.421
2.654 5.918 3.324
2.470 6.092 3.205
2.183 5.803 3.218
2.454 5.783 3.569
2.024 5.934 3.217
1.979 5.856 3.473
2.091 5.775 3.605
2.317 5.337 3.680
2.543 4.966 3.623
2.245 5.067 3.613
3.130 3.384 4.475
3.189 3.381 4.559
3.030 3.085 4.429
1.652 6.407 3.344
1.578 5.856 3.206
1.654 5.985 3.334
1.832 5.752 3.595
1.960 5.294 3.708
1.925 4.973 3.880
2.222 4.898 3.821
2.277 4.784 3.821
2.549 4.538 3.911
2.500 4.034 3.968
2.631 3.726 4.310
2.776 3.520 4.445
2.468 3.301 4.493
2.699 3.340 4.634
3.009 3.151 4.688
1.681 6.204 3.415
1.322 5.789 3.141
1.530 5.790 3.621
1.813 5.319 3.603
1.874 5.145 3.532
1.825 4.987 3.752
1.821 4.621 3.849
2.139 4.740 4.072
1.989 4.514 3.820
2.019 3.991 4.271
2.190 3.658 4.276
2.239 3.662 4.188
2.362 3.439 4.240
2.531 3.323 4.413
2.632 3.118 4.418
1.597 5.581 3.340
1.491 4.961 3.521
1.739 5.004 3.772
1.585 4.730 3.950
1.762 4.243 3.938
1.764 4.300 3.811
1.992 4.197 4.007
1.823 3.642 4.091
1.995 3.477 4.054
2.428 3.374 4.294
2.339 2.968 4.305
2.266 2.813 4.379
1.408 4.834 3.725
1.599 4.735 3.625
1.259 4.368 3.870
1.416 4.454 3.847
1.758 4.168 3.865
1.925 4.045 4.094
1.608 3.618 4.015
1.916 3.254 4.316
2.017 3.394 4.182
1.925 3.078 4.645
2.300 2.757 4.500
0.992 4.921 3.743
1.105 4.479 3.716
1.112 4.163 3.900
1.171 3.945 3.955
1.360 3.986 4.082
1.738 3.701 3.984
1.680 3.162 4.075
1.718 2.905 4.325
1.870 2.953 4.267
1.083 4.550 3.591
1.083 4.339 3.685
0.935 3.729 3.784
1.287 3.847 4.000
1.091 3.280 4.166
1.413 3.062 4.299
1.658 2.997 4.528
0.839 4.002 3.630
0.988 3.904 4.061
1.143 3.694 4.110
1.229 3.490 4.123
1.334 3.161 4.066
4.588 2.584 5.246
4.609 2.213 5.340
4.935 1.892 5.065
4.939 1.743 5.543
4.968 1.368 5.327
4.582 2.737 4.845
4.493 2.135 5.171
4.462 2.098 5.122
4.646 1.777 5.106
4.770 1.532 5.172
4.782 1.345 5.573
4.689 1.185 5.405
3.880 2.691 4.915
3.995 2.693 5.050
4.134 2.213 4.870
4.223 1.823 5.017
4.244 1.839 5.348
4.660 1.527 5.406
4.725 1.402 5.429
4.470 0.985 5.531
4.930 0.683 5.667
3.716 2.969 4.812
3.909 2.769 4.805
3.705 2.477 5.080
3.983 2.301 5.032
4.241 2.122 5.034
4.281 1.689 5.260
4.211 1.555 5.281
4.234 1.164 5.553
4.630 0.976 5.644
4.441 0.907 5.602
4.475 0.354 5.832
3.447 2.795 4.613
3.670 2.928 4.913
3.492 2.602 4.730
3.470 2.085 5.099
3.694 2.095 5.074
4.042 1.698 5.224
3.933 1.706 5.305
3.972 1.210 5.200
4.308 1.264 5.458
4.360 0.832 5.713
4.169 0.637 5.383
4.139 0.539 5.711
4.558 0.210 5.849
3.503 2.911 4.810
3.037 2.688 4.744
3.401 2.851 4.565
3.249 2.452 5.022
3.559 2.081 5.156
3.564 1.867 4.979
3.738 1.693 5.039
3.580 1.528 5.236
3.577 1.197 5.350
3.733 0.891 5.383
4.108 0.969 5.619
4.220 0.601 5.547
3.924 0.445 5.603
4.258 0.120 5.925
3.376 2.881 4.463
2.994 2.571 4.801
2.948 2.470 4.577
2.946 2.354 4.954
3.266 1.930 4.865
3.104 1.973 5.100
3.509 1.744 5.016
3.298 1.569 5.183
3.579 1.220 5.190
3.533 0.801 5.196
3.628 0.832 5.443
3.979 0.347 5.584
3.749 0.332 5.890
3.813 -0.029 5.755
2.798 2.866 4.479
2.854 2.810 4.627
2.795 2.679 4.682
2.892 2.109 4.769
2.837 1.817 5.020
3.394 0.458 5.559
3.720 0.243 5.795
3.446 -0.005 5.454
2.556 2.672 4.658
2.546 2.582 4.837
2.607 2.391 4.396
4.656 2.428 4.928
4.999 2.235 4.964
5.020 2.041 5.305
4.928 1.912 5.543
5.180 1.356 5.651
4.867 2.759 4.767
4.771 2.516 4.823
4.829 1.909 4.776
4.974 1.832 4.845
4.797 1.698 5.248
4.554 2.669 4.662
4.565 2.388 4.925
4.486 2.091 4.891
4.756 1.908 4.980
4.706 1.645 4.951
4.596 1.434 5.090
4.961 1.487 5.131
4.010 2.894 4.597
4.292 2.492 4.812
4.345 2.455 4.667
4.366 2.227 4.604
4.275 2.123 5.090
4.591 1.823 5.123
4.606 1.303 5.300
4.532 1.422 5.282
4.602 1.005 5.366
3.682 3.078 4.476
3.746 2.788 4.450
3.653 2.645 4.628
3.870 2.378 4.885
4.165 2.103 4.950
4.157 1.956 4.905
4.366 1.624 4.928
4.400 1.403 5.118
4.576 1.076 5.255
4.444 0.820 5.168
4.433 0.467 5.419
3.780 3.200 4.301
3.569 2.942 4.191
3.410 2.596 4.470
3.755 2.514 4.801
3.762 2.283 4.881
3.958 1.754 4.611
3.850 1.838 4.819
3.841 1.477 4.757
4.232 1.142 4.881
3.977 1.041 5.391
4.165 0.758 5.303
4.162 0.679 5.570
3.592 2.668 4.217
3.357 2.890 4.619
3.230 2.445 4.533
3.541 2.338 4.807
3.524 1.965 4.708
3.716 1.982 4.967
3.848 1.529 5.053
3.739 1.315 4.861
3.601 1.029 5.136
4.017 1.170 5.149
4.121 0.560 5.419
4.189 0.659 5.485
3.167 2.874 4.236
2.892 2.897 4.458
2.867 2.328 4.655
3.119 2.235 4.456
3.343 1.831 4.503
3.426 2.010 4.944
3.268 1.768 5.062
3.363 1.273 5.099
3.645 1.181 4.968
3.537 0.675 5.130
3.703 0.839 5.265
2.955 2.585 4.581
2.735 2.445 4.476
2.723 2.237 4.688
2.868 2.246 4.346
2.851 2.027 4.570
2.998 1.853 4.698
2.603 2.590 4.198
2.325 2.470 4.166
2.632 2.204 4.271
2.833 2.241 4.442
2.573 2.657 4.470
2.245 2.422 4.518
2.302 2.242 4.584
4.651 2.538 4.825
4.684 2.295 4.896
4.825 2.130 4.866
4.977 2.037 5.057
5.017 1.762 5.196
4.631 2.763 4.475
4.688 2.398 4.634
4.710 2.159 4.531
4.807 1.928 4.455
4.894 1.810 4.696
5.092 1.760 4.664
4.342 2.890 4.189
4.193 2.744 4.232
4.392 2.215 4.688
4.517 1.932 4.802
4.591 1.773 4.724
4.712 1.793 4.812
4.827 1.389 5.083
4.811 1.124 4.788
4.227 2.950 4.337
4.307 2.808 4.439
4.042 2.523 4.517
4.421 2.409 4.365
4.387 2.074 4.575
4.300 2.015 4.692
4.312 1.808 4.742
4.409 1.183 5.044
4.751 1.056 5.160
3.957 3.196 4.089
3.577 2.705 3.986
3.634 2.656 4.287
3.806 2.312 4.271
4.094 2.238 4.568
4.252 2.035 4.424
3.953 1.928 4.693
4.206 1.361 4.527
4.355 1.173 5.060
4.475 0.971 4.830
3.696 2.837 4.267
3.407 2.792 4.039
3.470 2.612 4.473
3.707 2.204 4.202
3.948 2.227 4.606
3.755 2.076 4.477
3.786 1.566 4.810
3.808 1.534 4.939
4.153 1.020 4.792
4.172 0.916 4.758
3.342 2.968 3.950
3.261 2.541 4.015
3.124 2.628 4.279
3.388 2.078 4.161
3.708 1.906 4.228
3.616 1.963 4.422
3.695 1.664 4.638
3.631 1.262 4.620
3.932 1.220 4.774
3.948 0.971 4.794
3.052 2.504 4.224
2.865 2.468 4.333
3.095 2.413 4.200
3.011 2.147 4.321
3.154 2.150 4.557
3.234 1.707 4.718
3.354 1.366 4.715
3.578 1.272 4.530
3.051 2.814 4.243
2.951 2.374 4.306
3.016 2.330 4.209
2.888 1.934 4.231
3.124 1.628 4.528
3.046 1.625 4.697
2.829 2.375 4.059
2.574 2.479 4.189
2.788 2.138 4.066
2.660 1.899 4.365
2.512 2.499 3.938
2.314 2.209 4.201
2.235 2.004 4.414
2.289 2.237 4.340
1.944 2.178 4.136
2.145 2.114 4.097
5.006 2.648 4.690
4.907 2.192 4.582
5.035 1.943 4.618
4.773 2.716 4.555
4.914 2.657 4.710
4.907 2.162 4.462
4.808 2.154 4.826
5.012 1.948 4.899
5.277 1.378 4.899
4.798 2.655 3.849
4.768 2.579 4.053
4.693 2.317 4.049
4.916 2.141 4.148
5.047 2.080 4.635
5.179 1.893 4.746
5.153 1.506 4.592
4.316 2.982 4.128
4.231 2.806 3.960
4.364 2.747 4.211
4.605 2.155 4.424
4.821 2.050 4.258
4.896 2.059 4.428
4.729 1.816 4.661
4.976 1.241 4.494
4.082 2.775 3.794
4.059 3.055 4.138
3.945 2.832 4.227
4.398 2.312 4.113
4.482 2.184 4.055
4.233 2.112 4.168
4.524 1.660 4.213
4.704 1.556 4.638
4.452 1.204 4.546
4.012 3.097 3.885
3.884 2.630 4.096
3.929 2.442 4.083
4.163 2.269 4.206
4.225 2.214 4.373
4.108 1.739 4.463
4.000 1.614 4.350
4.378 1.478 4.299
4.298 1.357 4.792
4.014 2.696 4.133
3.570 2.547 3.706
3.502 2.509 4.225
3.605 2.055 4.064
3.859 2.071 4.172
3.927 1.831 4.356
3.943 1.676 4.197
4.089 1.375 4.476
3.956 1.314 4.387
3.611 2.739 3.962
3.457 2.664 3.750
3.176 2.243 3.866
3.586 2.341 4.302
3.591 2.086 4.197
3.501 1.720 4.354
3.656 1.380 4.361
3.828 1.379 4.530
3.491 2.773 3.795
2.867 2.472 3.783
3.043 2.339 3.962
3.347 2.122 3.873
3.311 1.636 4.232
3.378 1.786 4.268
3.632 1.522 4.523
2.850 2.692 3.823
2.795 2.352 3.797
2.952 2.401 4.128
2.823 2.068 3.913
3.249 1.816 4.194
3.036 1.508 4.213
2.838 2.274 4.081
2.535 2.476 4.090
2.825 2.340 3.878
2.925 2.011 4.163
2.605 2.222 4.052
2.483 2.239 3.861
2.262 2.222 4.171
2.389 2.425 3.864
2.263 2.165 3.820
2.305 2.110 4.131
2.272 2.270 4.084
2.059 1.971 3.694
1.716 2.053 4.065
5.061 2.893 4.104
5.163 2.569 4.060
4.994 2.078 4.323
5.216 2.088 4.440
5.349 1.819 4.587
4.731 2.954 3.904
4.853 2.831 4.307
4.810 2.288 4.257
4.869 1.966 4.204
5.145 1.807 4.576
5.193 1.694 4.350
5.086 1.541 4.761
4.692 3.015 3.918
4.760 2.912 3.684
4.615 2.596 4.081
4.898 2.353 4.158
4.931 1.972 4.027
4.837 1.994 4.189
4.935 1.715 4.459
4.640 2.952 3.696
4.332 2.941 3.723
4.282 2.765 4.026
4.640 2.569 3.719
4.568 2.103 3.831
4.502 1.964 4.051
4.530 1.770 4.033
4.817 1.467 4.163
5.022 1.515 4.562
4.349 2.703 3.844
3.949 2.759 3.825
4.341 2.397 3.849
4.250 2.428 4.075
4.261 2.200 4.198
4.368 1.989 4.032
4.550 1.813 4.230
4.420 1.583 4.455
4.827 1.038 4.378
3.992 2.625 3.529
3.954 2.733 3.733
3.979 2.632 3.642
3.809 2.131 3.717
4.126 1.847 4.118
4.381 1.606 4.068
4.420 1.477 3.960
4.204 1.324 4.055
4.350 1.310 4.249
3.678 2.784 3.835
3.422 2.730 3.469
3.774 2.489 3.723
3.653 2.149 3.738
3.915 2.066 3.742
3.758 1.671 4.049
4.033 1.438 4.280
4.192 1.105 4.251
3.553 2.597 3.875
3.302 2.467 3.782
3.542 2.131 3.605
3.353 1.936 4.051
3.544 1.988 4.061
3.843 1.672 4.111
3.767 1.289 4.365
3.471 2.724 3.623
3.173 2.670 3.619
3.183 2.378 3.779
3.202 1.944 3.785
3.374 1.850 4.015
3.450 1.413 3.986
3.204 2.635 3.860
2.641 2.215 3.486
2.760 2.123 3.841
2.823 2.085 3.820
3.028 1.782 3.982
2.779 2.319 3.603
2.749 2.414 3.646
2.836 1.981 3.830
2.863 1.644 3.774
2.667 2.498 3.712
2.553 2.233 3.795
2.656 1.739 3.815
2.374 2.320 3.788
2.207 2.130 3.662
2.277 1.803 3.574
1.992 2.216 3.504
1.693 1.963 3.480
1.993 2.206 3.747
1.500 2.104 3.487
1.767 1.843 3.509
4.986 2.833 3.962
5.004 2.723 3.922
5.172 2.696 4.200
5.346 2.264 3.906
5.505 2.241 4.191
4.971 2.727 3.831
5.112 2.721 3.830
4.913 2.178 3.917
4.971 2.186 3.978
5.451 2.001 4.058
5.105 1.648 4.310
4.400 2.814 3.804
4.758 2.988 3.839
4.631 2.758 3.885
4.774 2.328 3.799
5.058 1.994 4.180
5.094 1.993 4.073
5.185 1.711 4.104
4.701 2.846 3.566
4.761 2.872 3.557
4.707 2.802 3.434
4.684 2.449 3.767
4.900 2.009 3.904
5.031 1.796 3.933
5.177 1.905 3.728
5.281 1.684 3.850
4.437 2.967 3.654
4.407 2.780 3.345
4.655 2.507 3.616
4.667 2.192 3.864
4.524 2.001 3.689
4.772 1.756 3.768
4.827 1.469 3.922
4.805 1.428 4.257
4.203 2.872 3.533
4.083 2.702 3.628
4.274 2.384 3.469
4.274 2.348 3.712
4.576 1.973 3.803
4.354 1.865 3.783
4.628 1.680 3.819
4.474 1.503 3.985
4.093 2.813 3.439
3.741 2.538 3.426
4.072 2.538 3.340
4.224 2.177 3.463
4.216 2.039 3.839
4.024 1.915 3.906
4.278 1.579 3.802
4.448 1.129 3.858
3.679 2.843 3.669
3.646 2.586 3.264
3.639 2.512 3.720
3.871 2.049 3.569
4.065 1.880 3.640
4.074 1.506 3.899
4.217 1.528 3.971
3.808 2.474 3.432
3.239 2.268 3.459
3.600 2.090 3.406
3.542 2.152 3.694
3.744 1.949 3.630
3.759 1.612 3.987
3.404 2.384 3.374
3.030 2.312 3.488
3.264 1.965 3.451
3.252 1.933 3.769
3.217 1.874 3.512
2.969 2.572 3.237
2.885 2.462 3.319
3.035 1.998 3.720
3.158 1.806 3.377
2.746 2.252 3.378
2.604 2.230 3.421
2.702 2.144 3.559
2.683 1.704 3.646
2.547 2.147 3.603
2.378 1.998 3.406
2.549 2.053 3.703
2.238 1.881 3.537
2.132 2.073 3.510
2.213 1.798 3.411
2.090 1.888 3.470
1.971 1.920 3.338
2.105 1.921 3.379
1.446 1.691 3.155
1.822 1.726 3.292
1.206 1.856 3.570
1.496 1.584 3.384
1.313 1.513 3.306
0.981 1.583 3.183
0.724 1.730 3.146
1.067 1.557 3.128
5.242 3.038 3.636
5.252 2.777 3.782
5.452 2.832 3.789
5.546 2.640 3.709
5.591 2.402 4.106
5.130 3.113 3.532
5.078 2.881 3.654
5.411 2.773 3.462
5.098 2.629 3.513
5.490 2.457 3.934
5.372 2.101 3.839
5.664 1.823 4.069
5.224 2.968 3.387
4.832 2.822 3.688
4.946 2.562 3.595
5.034 2.349 3.785
4.949 2.505 3.881
5.089 2.262 4.002
5.102 1.646 3.971
5.247 1.569 3.966
4.768 2.791 3.320
4.613 2.762 3.503
4.540 2.576 3.668
4.590 2.331 3.795
5.064 2.182 3.586
4.751 1.844 4.057
4.988 1.976 4.117
4.879 1.444 3.918
4.428 2.991 3.571
4.609 2.905 3.105
4.862 2.394 3.512
4.865 2.474 3.269
4.869 2.312 3.363
4.968 1.866 3.593
5.048 1.790 3.870
5.233 1.301 3.927
4.722 2.717 3.370
4.377 2.596 3.091
4.625 2.564 3.262
4.757 2.361 3.461
4.756 1.906 3.663
4.536 1.912 3.697
4.747 1.385 3.897
5.046 1.179 3.637
4.194 2.641 3.058
4.155 2.559 3.170
4.302 2.606 3.468
4.427 2.363 3.181
4.611 2.153 3.564
4.630 1.794 3.750
4.677 1.522 3.728
4.815 1.416 3.938
4.242 2.677 3.357
4.119 2.683 3.216
3.925 2.200 3.493
3.956 2.082 3.189
4.043 2.031 3.401
4.393 1.681 3.691
4.156 1.287 3.894
3.739 2.559 3.066
3.812 2.364 3.313
3.959 2.378 3.360
3.688 1.999 3.348
3.711 1.628 3.590
3.940 1.353 3.455
3.842 2.669 3.072
3.208 2.449 3.007
3.638 2.074 3.211
3.720 1.841 3.366
3.767 1.785 3.683
3.250 2.310 3.037
3.012 2.509 3.269
3.142 2.060 3.150
3.142 2.029 3.519
3.312 2.262 3.362
2.910 2.164 3.359
3.097 1.769 3.395
2.813 2.055 3.022
2.880 2.034 3.040
2.837 1.938 3.119
2.878 2.293 3.203
2.626 2.075 3.240
2.559 1.752 3.049
2.674 2.067 2.938
2.221 1.759 3.073
2.093 2.034 3.041
2.108 1.825 3.139
2.077 1.805 3.124
1.710 1.771 2.904
1.634 1.513 3.132
1.289 1.870 3.328
1.302 1.525 3.056
1.338 1.551 3.072
1.414 1.479 3.072
0.791 1.380 2.865
1.203 1.099 3.124
0.940 1.575 3.089
0.782 1.463 2.851
0.700 1.159 2.944
0.851 1.510 3.211
0.429 1.304 3.093
0.649 1.244 3.125
0.543 1.168 3.011
0.020 1.081 3.072
0.435 0.739 3.158
0.335 0.553 3.328
0.181 1.183 2.907
0.085 0.940 3.109
0.154 0.497 3.355
0.427 0.478 3.167
-0.025 0.036 3.243
5.356 3.141 3.471
5.699 2.795 3.334
5.639 2.416 3.630
5.663 2.499 3.376
5.642 2.173 3.558
5.931 2.124 3.861
5.564 3.152 3.133
5.035 3.130 3.409
5.195 2.887 3.502
5.394 2.537 3.232
5.374 2.450 3.641
5.526 2.315 3.507
5.582 1.961 3.899
5.511 1.559 3.938
5.324 2.985 3.091
4.816 3.008 3.369
4.781 2.680 3.543
4.984 2.240 3.285
5.249 2.009 3.663
5.377 1.827 3.533
5.120 1.662 3.824
5.529 1.316 3.694
5.111 2.794 3.025
4.754 2.918 3.282
4.631 2.462 3.298
4.873 2.510 3.485
5.092 1.971 3.583
4.804 1.941 3.578
5.136 1.610 3.721
4.970 1.521 3.675
4.634 2.729 3.229
4.755 2.857 2.816
4.761 2.441 3.291
4.882 2.296 3.188
5.125 2.173 3.051
5.131 2.022 3.447
5.207 1.372 3.524
5.322 1.565 3.666
4.535 2.949 3.181
4.344 2.452 3.053
4.558 2.572 2.941
4.507 2.126 3.373
4.916 2.096 3.132
4.683 1.688 3.423
4.714 1.370 3.598
5.036 1.103 3.677
4.525 2.447 2.827
4.254 2.383 3.173
4.220 2.199 2.863
4.533 2.310 3.305
4.238 2.051 3.162
4.439 1.713 3.485
4.810 1.472 3.604
4.005 2.547 2.895
4.144 2.376 3.070
3.976 2.304 3.257
3.931 1.962 3.123
4.361 1.995 3.458
4.372 1.567 3.497
4.040 2.631 3.027
3.837 2.047 2.985
3.883 1.750 3.343
3.945 1.568 3.013
2.513 2.056 2.785
2.703 1.731 2.723
2.256 1.884 2.811
2.267 1.917 2.783
1.900 1.567 3.005
2.146 1.789 2.675
1.546 1.518 2.944
1.752 1.472 2.762
1.710 1.470 2.896
1.491 1.616 2.726
1.136 1.542 2.894
1.262 1.235 2.872
1.274 1.376 2.704
0.947 1.224 2.927
1.123 1.025 2.908
1.217 1.442 3.020
0.876 1.124 2.811
0.697 0.945 2.975
0.741 0.717 3.234
0.769 1.406 2.662
0.656 1.419 2.876
0.591 0.785 2.884
0.699 0.725 3.077
0.326 1.143 2.979
0.080 1.086 3.002
0.240 0.892 2.900
0.290 0.741 2.814
0.651 0.527 3.251
0.090 1.141 2.995
-0.111 1.067 2.579
0.198 0.892 2.750
0.155 0.576 2.862
0.471 0.116 3.210
0.163 -0.124 3.152
-0.161 0.967 2.931
-0.102 0.298 2.886
0.152 0.157 3.340
5.631 2.840 3.113
5.562 2.942 2.906
5.580 2.673 3.208
5.672 2.486 3.075
5.850 2.018 3.306
5.935 2.081 3.680
5.842 1.857 3.677
5.247 3.208 3.189
4.996 2.779 3.036
5.243 2.666 3.273
5.343 2.301 3.057
5.480 2.173 3.492
5.721 1.848 3.418
5.803 1.843 3.520
5.696 1.749 3.497
5.134 2.972 3.058
4.854 2.848 3.041
5.180 2.816 2.906
4.975 2.199 3.243
5.253 2.000 3.266
5.045 2.126 3.498
5.329 1.512 3.444
5.380 1.569 3.769
5.101 2.939 2.849
4.852 2.723 3.091
4.977 2.586 2.952
4.750 2.093 3.104
4.931 2.228 3.149
5.198 2.033 3.331
5.022 1.539 3.455
5.275 1.527 3.365
4.859 2.689 2.875
4.563 2.576 2.878
4.959 2.585 2.663
4.805 2.124 3.030
5.153 1.877 2.866
4.841 1.669 3.049
4.967 1.582 3.329
5.066 1.062 3.288
4.600 2.668 2.875
4.686 2.473 2.822
4.823 2.300 2.745
4.822 1.660 3.227
4.651 1.715 3.088
4.715 1.528 3.356
5.121 1.261 3.282
4.480 2.454 2.804
4.318 2.081 2.741
4.446 1.996 3.049
4.549 1.751 3.194
4.831 1.258 3.220
1.690 1.515 2.711
1.909 1.462 2.654
1.468 1.289 2.715
1.712 1.602 2.805
1.331 1.489 2.696
1.384 1.010 2.888
1.100 1.556 2.461
1.136 1.493 2.524
1.000 1.094 2.773
1.083 1.465 2.420
0.975 1.257 2.530
0.880 1.145 2.888
1.043 0.864 2.938
0.758 1.064 2.448
0.442 1.052 2.409
0.711 0.681 2.876
0.638 0.542 2.986
0.785 0.249 2.904
0.402 1.224 2.725
0.506 0.934 2.541
0.434 0.919 2.578
0.642 0.366 2.536
0.389 0.368 2.633
0.478 0.327 2.863
0.398 1.228 2.547
-0.107 0.709 2.555
0.025 0.643 2.703
0.273 0.480 2.721
0.161 0.081 2.735
0.455 0.173 2.737
0.061 0.813 2.339
0.062 0.337 2.751
5.309 3.078 2.919
5.504 2.758 2.932
5.422 2.586 2.876
5.711 2.157 3.003
6.016 2.101 3.320
6.011 1.976 3.119
5.844 1.570 3.353
6.181 1.147 3.612
5.372 2.998 2.997
5.135 3.002 2.877
5.309 2.572 2.688
5.405 2.432 3.015
5.384 1.989 3.102
5.515 2.109 3.227
5.791 1.828 3.363
5.645 1.680 3.203
5.763 1.184 3.275
5.242 2.637 2.737
4.990 2.572 2.579
5.114 2.405 3.039
5.221 2.112 3.128
5.214 1.887 2.814
5.298 1.873 3.087
5.497 1.815 3.406
5.395 1.509 3.192
5.412 0.959 3.481
5.187 2.761 2.899
4.865 2.558 2.968
4.778 2.302 2.919
5.005 2.248 2.767
5.181 1.960 2.833
5.119 1.603 2.958
5.129 1.553 3.042
5.276 1.082 3.395
4.671 2.457 2.778
5.029 2.129 2.372
4.760 2.253 2.552
4.824 1.962 2.861
5.199 1.839 2.651
5.169 1.444 2.747
5.322 1.037 3.171
5.465 0.866 3.091
4.789 1.965 2.462
4.964 2.006 2.967
5.057 1.400 2.956
4.991 1.490 3.119
5.175 1.032 3.231
1.392 1.484 2.586
1.609 1.368 2.210
1.399 1.370 2.528
1.259 1.120 2.652
1.415 1.358 2.217
1.152 1.432 2.378
1.322 0.957 2.671
1.294 1.316 2.519
1.054 1.213 2.489
1.077 0.925 2.355
1.204 0.672 2.310
0.982 0.915 2.148
0.543 1.248 2.127
0.917 0.952 2.479
0.578 0.716 2.430
0.919 0.474 2.576
0.910 0.276 2.516
0.729 1.074 2.331
0.460 1.035 2.126
0.557 0.604 2.591
0.496 0.647 2.400
0.446 0.408 2.601
0.846 -0.199 2.791
0.360 0.963 2.268
0.347 0.785 2.124
0.291 0.772 2.462
0.400 0.453 2.633
0.442 0.326 2.560
0.068 0.734 2.332
0.204 0.109 2.340
0.161 -0.009 2.382
5.717 2.931 2.610
5.411 2.539 2.583
5.609 2.497 2.828
5.884 2.191 2.922
6.004 1.916 3.127
6.147 1.755 2.795
6.078 1.438 3.297
6.305 1.037 3.374
5.727 2.892 2.739
5.260 2.893 2.632
5.531 2.606 2.688
5.452 2.471 2.640
5.475 2.009 3.026
5.779 1.712 3.095
5.792 1.381 3.000
5.691 1.559 3.032
5.910 1.371 3.303
5.251 2.731 2.527
5.090 2.584 2.576
5.179 2.295 2.632
5.046 2.251 2.911
5.440 2.187 2.876
5.178 1.657 2.781
5.269 1.589 3.001
5.340 1.243 3.259
5.583 1.239 3.367
4.865 2.571 2.722
5.011 2.527 2.647
5.037 2.172 2.471
4.909 1.812 2.821
4.946 1.454 2.681
5.268 1.371 2.951
5.360 1.260 3.093
5.330 0.783 2.963
4.856 2.205 2.603
4.876 1.576 2.722
5.353 1.494 2.823
5.389 1.502 2.939
5.169 1.192 2.721
5.445 1.079 2.893
4.646 1.714 2.354
4.943 1.255 2.810
4.947 1.234 2.688
1.515 1.387 2.211
1.507 1.297 2.335
1.130 1.323 2.009
1.159 0.937 2.402
0.945 1.092 2.099
0.876 1.207 2.162
1.197 0.809 2.404
1.058 0.468 2.142
0.724 1.097 2.000
0.611 0.906 2.094
0.517 0.732 2.326
0.725 0.396 2.115
1.111 0.400 2.391
0.815 -0.145 2.270
0.603 1.078 2.292
0.579 1.022 1.987
0.410 0.570 2.313
0.779 0.547 2.362
0.701 0.314 2.165
0.229 0.887 1.974
0.223 0.947 2.142
0.115 0.665 2.177
0.234 0.348 2.241
0.532 -0.082 2.221
0.050 0.870 2.274
0.021 0.174 2.290
5.642 2.761 2.397
5.694 2.562 2.232
5.883 2.485 2.258
5.780 2.097 2.777
5.787 1.903 2.721
6.027 1.742 2.731
6.165 1.168 2.670
6.052 0.996 3.008
6.280 0.836 3.040
5.686 2.654 2.163
5.400 2.839 2.478
5.600 2.283 2.156
5.488 2.140 2.338
5.519 2.107 2.570
5.521 1.771 2.489
5.876 1.595 2.611
5.748 1.180 2.772
5.923 0.848 2.765
5.854 0.903 3.033
5.475 2.827 2.085
4.936 2.230 2.327
5.402 2.027 2.400
5.397 2.054 2.536
5.174 1.843 2.609
5.417 1.645 2.637
5.525 1.410 2.833
5.467 0.827 2.860
5.823 0.768 2.902
4.778 1.827 2.492
4.913 1.844 2.589
5.042 1.670 2.720
5.193 1.269 2.859
5.517 0.899 2.935
5.527 0.702 3.122
5.263 1.898 2.309
5.142 1.654 2.597
5.092 1.047 2.646
5.526 0.833 2.725
5.576 0.656 2.831
1.021 1.240 1.871
1.146 0.923 1.934
0.831 1.070 1.936
0.866 0.685 2.038
1.158 0.711 1.847
0.857 1.170 1.769
0.500 0.895 1.957
0.881 0.845 1.939
0.871 0.569 2.254
1.086 0.178 2.267
0.674 0.648 1.889
0.319 0.741 1.752
0.718 0.485 2.025
0.627 0.258 2.115
0.488 0.177 2.070
0.563 0.819 1.814
0.419 0.875 1.921
0.230 0.526 2.147
0.540 0.168 2.180
0.401 0.573 1.991
0.234 0.440 1.709
0.318 0.118 2.011
5.600 2.672 1.921
