3.088 5.720 4.736
3.040 5.832 4.371
2.689 5.951 4.395
3.505 4.519 4.961
3.398 4.615 4.888
3.428 4.995 4.852
3.284 5.245 4.919
3.031 5.438 4.505
3.079 5.436 4.665
3.187 5.283 4.523
3.058 5.584 4.584
2.632 6.095 4.417
2.692 6.093 4.439
2.669 6.316 4.180
3.540 4.646 4.684
3.273 4.909 4.732
3.430 5.221 4.725
3.345 5.258 4.701
2.886 5.678 4.586
2.988 5.398 4.343
2.916 5.705 4.055
2.844 5.909 3.939
2.668 6.031 4.107
2.684 6.109 4.211
3.552 4.804 4.387
3.034 5.267 4.238
3.020 5.279 4.178
2.917 5.542 4.087
4.005 4.875 6.156
3.824 4.839 6.171
3.498 5.192 6.165
3.611 5.620 6.249
3.184 5.356 6.317
3.888 4.383 6.281
4.056 4.893 5.899
3.640 4.876 6.207
3.527 5.237 5.913
3.302 5.518 5.700
3.144 5.536 5.980
3.363 5.568 6.045
3.239 5.717 5.798
3.908 4.383 5.686
3.786 4.822 6.060
3.487 4.852 5.609
3.415 4.989 5.855
3.294 5.320 5.950
3.475 5.508 5.654
3.001 5.732 5.580
3.270 5.857 5.455
3.034 5.580 5.213
3.696 4.278 5.571
3.549 4.592 5.544
3.665 4.909 5.650
3.531 4.899 5.405
3.576 5.316 5.351
3.068 5.446 5.533
3.026 5.730 5.210
2.951 5.944 5.188
3.131 5.767 4.951
2.708 5.925 5.006
4.066 4.456 5.389
3.497 4.709 5.563
3.797 4.675 5.371
3.265 4.951 5.470
3.510 4.868 5.349
3.085 5.082 5.441
3.350 5.303 5.369
3.074 5.526 5.010
2.832 5.674 5.136
2.873 5.731 4.827
2.582 5.918 4.706
3.719 4.090 5.128
3.736 4.374 5.284
3.376 4.702 5.087
3.370 4.903 5.385
3.500 4.962 5.274
3.231 5.344 5.282
2.874 5.314 5.101
3.141 5.435 4.883
3.091 5.448 4.799
2.748 5.700 4.534
2.848 5.945 4.708
2.796 6.254 4.747
3.497 4.282 5.196
3.701 4.432 4.890
3.564 4.864 4.989
3.069 4.969 5.007
3.078 5.009 4.793
3.225 5.505 4.903
2.964 5.299 4.613
3.098 5.476 4.587
2.640 5.428 4.475
2.605 5.564 4.653
2.673 6.039 4.500
2.203 6.150 4.202
3.345 4.649 4.836
3.165 4.865 4.623
2.926 5.171 4.600
2.876 5.427 4.554
2.855 5.304 4.544
2.870 5.545 4.264
2.613 5.367 4.248
2.784 5.511 4.153
2.289 5.783 4.100
2.460 5.865 4.357
2.261 6.006 4.251
3.100 4.793 4.442
3.209 5.131 4.420
2.788 5.344 4.200
2.799 5.532 4.150
3.234 5.310 6.489
3.210 5.299 6.405
3.441 5.664 6.092
3.769 4.524 6.017
3.736 4.286 6.180
3.455 4.757 6.279
3.312 5.093 6.206
3.653 4.915 5.917
3.305 5.276 5.919
3.276 5.370 5.781
2.926 5.362 5.956
3.913 4.087 5.965
3.852 4.256 5.826
3.838 4.624 5.760
3.428 4.841 5.827
3.523 5.067 5.618
3.364 5.122 5.694
3.268 5.291 5.813
3.009 5.391 5.564
2.674 5.416 5.593
3.920 3.924 5.856
3.495 4.557 5.555
3.642 4.553 5.625
3.367 4.835 5.875
3.355 4.729 5.769
3.196 4.945 5.744
3.191 5.413 5.563
3.005 5.493 5.376
2.975 5.543 5.428
3.004 5.605 5.447
2.641 5.517 5.250
3.726 4.005 5.540
3.784 4.211 5.682
3.719 4.392 5.573
3.592 4.845 5.487
3.120 4.672 5.431
3.231 5.017 5.430
3.109 5.114 5.226
3.066 5.240 5.333
2.691 5.454 5.402
2.979 5.256 4.806
2.538 5.570 5.024
2.739 5.808 4.954
3.787 4.101 5.574
3.529 4.054 5.588
3.324 4.511 5.389
3.577 4.625 5.463
3.170 4.763 5.221
2.965 4.799 5.131
3.102 5.234 5.304
3.020 5.045 5.026
2.998 5.379 4.900
2.711 5.368 4.635
2.670 5.421 4.915
2.415 5.931 4.776
2.225 6.051 4.827
3.243 4.162 5.067
3.212 4.287 5.000
3.035 4.815 5.078
3.120 4.899 4.810
2.959 4.923 5.095
3.011 5.238 5.036
2.608 5.280 4.782
2.881 5.296 4.688
2.493 5.281 4.776
2.559 5.667 4.664
2.461 5.657 4.264
2.341 6.003 4.355
2.300 6.113 4.171
3.368 4.531 4.776
3.336 4.495 4.696
2.946 4.715 4.907
2.882 4.867 4.952
2.586 5.067 4.856
2.622 5.361 4.488
2.895 5.046 4.421
2.316 5.188 4.403
2.440 5.452 4.449
2.326 5.936 4.432
2.386 6.144 4.222
2.024 6.085 4.392
3.037 4.640 4.551
3.064 4.913 4.310
2.942 5.198 4.435
2.629 5.034 4.199
3.713 4.347 6.121
3.608 4.553 6.094
3.214 4.717 6.402
3.129 5.152 6.023
2.905 5.325 5.911
3.131 5.539 6.184
3.836 4.092 6.228
3.667 4.207 6.164
3.401 4.500 6.128
3.525 4.910 6.029
2.989 4.728 6.074
3.248 5.056 6.006
2.748 5.422 5.884
3.042 5.254 5.584
2.833 5.660 5.290
3.562 3.864 6.040
3.502 4.204 5.720
3.357 4.397 5.988
3.349 4.526 5.883
3.068 4.867 5.816
2.981 4.774 5.548
3.058 5.231 5.742
2.686 5.265 5.657
2.801 5.332 5.448
2.409 5.322 5.085
2.337 5.412 5.390
3.390 3.943 5.503
3.712 4.339 5.614
3.290 4.213 5.598
3.199 4.701 5.757
2.947 4.589 5.561
3.222 4.967 5.367
2.740 5.291 5.316
2.567 5.433 5.326
2.718 5.573 5.303
2.813 5.591 4.915
2.486 5.464 5.253
2.440 5.627 5.057
3.405 4.075 5.595
3.314 4.253 5.364
3.488 4.080 5.267
3.085 4.388 5.196
3.202 4.781 5.158
3.161 5.030 5.180
2.975 4.802 5.020
2.687 4.940 4.972
2.701 5.277 5.022
2.493 5.077 4.738
2.658 5.229 4.927
2.317 5.431 4.815
2.126 5.631 4.626
3.328 3.866 5.111
3.495 3.877 5.129
3.095 4.267 5.170
2.986 4.434 5.322
3.183 4.636 5.300
2.957 4.674 4.890
2.737 4.835 5.096
2.678 5.261 4.899
2.341 5.172 5.110
2.284 5.299 4.926
2.573 5.188 4.683
2.442 5.772 4.564
1.924 5.561 4.670
1.839 5.737 4.298
1.737 6.275 4.635
3.106 3.937 5.027
2.921 4.194 5.102
3.115 4.228 4.988
2.736 4.656 4.892
2.714 4.982 4.716
2.416 4.862 4.695
2.548 5.239 4.773
2.528 4.917 4.733
2.374 5.126 4.488
2.073 5.625 4.212
2.088 5.479 4.131
1.953 6.051 4.354
1.750 5.849 4.328
1.559 6.124 4.286
2.828 4.386 4.835
2.918 4.570 4.642
2.501 4.822 4.686
2.608 5.244 4.651
2.945 4.586 6.256
2.976 4.920 6.081
2.706 4.852 6.129
3.583 3.933 6.223
3.228 4.122 6.297
3.367 4.427 6.014
2.989 4.399 6.250
2.990 4.918 6.228
2.746 5.145 5.816
2.599 5.333 6.078
3.277 4.125 6.065
3.101 4.357 5.912
3.333 4.335 5.891
3.283 4.693 6.049
2.977 4.851 5.771
2.659 4.727 5.635
2.595 5.117 5.731
2.815 5.235 5.731
3.462 3.709 5.842
3.254 4.068 5.720
3.128 4.441 5.763
2.874 4.615 5.640
2.760 4.739 5.816
2.971 4.648 5.473
2.778 5.179 5.633
2.637 4.965 5.369
2.535 5.068 5.210
2.345 5.211 5.117
3.483 3.703 5.718
3.352 4.163 5.658
3.149 4.151 5.556
2.977 4.244 5.533
2.691 4.546 5.283
2.872 4.909 5.221
2.864 4.965 5.331
2.404 4.867 5.229
2.522 5.314 5.259
2.237 5.366 5.159
2.251 5.524 4.895
2.052 5.508 5.103
2.017 5.679 4.873
3.165 3.650 5.322
3.225 4.089 5.541
3.158 4.251 5.257
2.743 4.038 5.170
2.897 4.339 4.989
2.833 4.710 4.924
2.655 4.896 5.187
2.370 5.171 4.810
2.431 5.245 4.974
2.546 5.221 4.960
1.986 5.297 4.513
1.905 5.688 4.702
2.131 5.425 4.657
1.653 5.811 4.368
1.604 6.147 4.340
1.750 6.326 4.731
2.865 4.198 5.201
3.111 4.250 4.904
2.714 4.156 4.792
2.880 4.662 4.849
2.648 4.502 5.047
2.291 5.017 4.960
2.500 5.312 4.685
2.164 5.020 4.667
2.168 5.185 4.715
2.195 5.579 4.408
1.781 5.604 4.487
1.803 5.536 4.158
1.825 6.123 4.184
1.491 6.138 4.076
2.734 4.351 4.615
2.312 4.504 4.878
2.490 5.064 4.647
2.278 5.233 4.785
3.290 3.913 6.317
3.167 4.277 6.114
2.896 4.385 5.931
3.065 4.240 6.182
2.856 4.426 6.176
2.649 4.868 6.160
3.467 3.702 6.276
3.241 4.194 6.123
3.258 4.209 6.009
2.737 4.365 6.140
2.893 4.488 5.934
2.787 4.758 5.866
3.208 3.711 5.915
2.937 4.009 5.840
3.127 3.930 5.796
2.984 4.199 5.840
2.604 4.310 5.800
2.661 4.649 5.647
2.340 4.998 5.640
3.355 3.568 5.568
3.267 4.104 5.814
2.785 4.261 5.785
2.802 4.060 5.677
2.922 4.313 5.324
2.688 4.818 5.407
2.355 4.757 5.559
2.451 4.862 5.127
2.945 3.582 5.467
2.820 3.551 5.292
2.932 3.839 5.527
2.946 3.926 5.278
2.728 4.358 5.256
2.435 4.467 5.183
2.569 4.471 5.005
2.116 5.112 4.892
2.043 5.228 4.884
1.967 5.127 4.866
2.106 5.368 4.676
1.582 5.754 4.540
1.876 5.898 4.575
1.748 5.855 4.419
1.262 5.865 4.385
1.146 6.264 4.471
3.134 3.587 5.195
2.925 3.792 4.949
3.044 3.848 4.992
2.883 4.298 5.103
2.815 4.418 5.148
2.270 4.517 5.083
2.351 4.856 4.838
2.050 4.576 5.110
2.042 4.857 4.949
1.748 4.956 4.699
2.037 5.478 4.696
1.901 5.397 4.422
1.635 5.880 4.365
1.688 5.924 4.454
1.295 6.186 4.179
1.462 6.294 4.179
2.883 4.116 6.476
2.732 4.371 6.002
2.724 4.735 5.960
3.229 3.598 6.259
2.787 3.917 5.935
2.636 4.050 6.143
2.799 4.124 5.897
2.620 4.463 5.796
3.045 3.554 5.933
3.155 3.756 5.954
2.957 3.844 6.049
2.827 4.396 6.000
2.580 4.370 5.886
2.935 3.377 5.785
3.018 3.951 5.498
2.872 4.049 5.836
2.700 4.213 5.527
2.400 4.110 5.736
3.156 3.422 5.588
2.663 3.697 5.613
2.643 3.764 5.331
2.664 3.843 5.203
2.698 4.062 5.315
2.792 3.365 5.120
1.568 5.318 4.765
1.417 5.502 4.438
1.177 5.918 4.328
1.283 6.260 4.194
0.878 6.485 4.580
2.553 4.387 6.336
2.738 3.617 6.193
2.734 3.985 6.305
2.892 3.837 6.047
2.663 4.092 6.076
2.937 3.383 5.934
2.875 3.533 5.811
2.742 4.002 6.006
2.556 4.288 5.675
2.631 3.389 5.639
2.829 3.684 5.986
2.809 4.066 5.730
2.530 4.098 5.683
2.560 3.176 5.557
2.529 3.499 5.507
2.328 3.663 5.262
0.587 6.387 4.503
2.722 3.276 5.509
1.147 5.840 4.394
1.103 5.955 4.409
0.831 6.390 4.591
2.456 3.865 6.180
2.434 4.139 6.091
2.564 3.559 6.124
2.319 3.495 5.883
2.403 3.675 6.026
2.552 3.175 6.106
2.651 3.618 5.796
2.278 3.568 5.647
2.651 3.145 5.776
0.408 6.215 4.383
0.565 6.428 4.277
2.505 3.445 6.033
2.458 3.687 6.186
2.646 3.417 5.966
2.121 3.306 5.950
2.504 3.228 5.946
0.415 6.050 4.771
0.359 6.151 4.498
2.472 3.331 6.163
2.062 3.041 5.902
0.123 5.861 4.528
6.232 6.150 5.847
6.384 5.921 5.528
6.189 5.926 5.504
6.024 5.750 5.437
6.125 6.030 6.132
5.849 6.155 5.894
6.158 5.771 5.845
5.944 6.080 5.669
6.149 6.005 5.954
6.144 5.907 5.953
6.098 5.635 5.612
5.740 6.070 5.450
5.803 6.399 5.674
6.119 5.380 5.509
6.105 5.828 5.392
6.290 5.570 6.198
5.803 5.931 6.362
5.881 6.334 6.227
5.846 5.833 5.942
6.078 6.007 6.089
5.782 5.928 5.961
5.633 6.276 5.865
5.821 5.761 5.957
5.910 5.685 5.609
6.008 6.015 5.544
5.879 6.260 5.878
5.643 5.821 5.331
6.275 4.239 0.593
6.227 4.116 0.273
6.374 3.777 0.129
6.349 3.716 0.635
6.322 4.057 0.820
6.388 3.717 0.696
5.901 4.220 0.530
6.250 3.841 0.581
6.192 4.050 0.243
6.080 3.322 0.372
6.329 3.706 0.318
5.865 3.787 0.002
6.201 3.350 0.111
6.374 3.881 1.435
6.269 3.516 1.048
6.181 3.692 1.151
6.055 3.712 0.922
6.003 3.610 0.823
5.896 3.911 0.620
6.065 3.303 0.649
6.040 3.332 0.651
5.883 3.567 0.619
5.837 3.993 0.564
6.082 3.088 0.764
6.120 3.248 0.658
6.025 3.640 0.368
5.926 4.004 0.614
6.032 3.033 0.343
5.929 3.147 0.152
5.901 3.647 0.257
5.669 3.964 0.063
6.307 2.928 0.106
5.913 2.981 0.317
5.939 3.157 0.243
5.897 3.384 -0.186
6.207 4.273 0.290
6.090 4.289 0.113
5.903 4.357 0.289
5.808 3.997 0.367
5.762 4.091 -0.013
5.995 4.212 0.227
5.691 4.212 0.851
5.687 4.221 0.704
5.766 4.281 0.356
5.881 3.768 0.239
5.678 4.209 0.550
5.591 3.908 0.350
5.356 4.153 0.036
6.371 2.420 2.281
6.275 2.742 2.026
6.218 2.772 1.831
6.285 2.186 1.690
6.045 2.418 2.053
5.927 2.853 1.688
6.228 2.216 1.622
5.905 2.547 1.671
5.807 2.528 1.530
5.930 2.780 1.445
5.812 2.873 1.484
5.785 3.138 1.279
5.247 3.248 1.372
5.238 3.548 1.514
5.363 3.435 1.424
5.699 2.965 1.218
5.659 3.217 1.246
5.527 3.025 1.308
5.114 3.340 1.230
5.188 3.443 0.935
5.803 2.907 0.923
5.721 2.723 1.062
5.616 3.085 1.005
5.393 3.330 1.032
5.181 3.324 1.118
5.601 2.841 0.711
5.393 3.054 0.749
5.464 3.239 0.612
4.975 3.591 0.694
5.253 3.094 0.808
5.345 2.991 0.371
5.249 3.327 0.490
5.431 3.001 0.321
5.267 3.111 0.580
4.998 3.132 0.273
4.810 3.297 0.204
6.313 2.274 2.299
6.411 1.873 2.385
6.107 1.786 1.860
5.074 3.096 1.395
4.914 3.274 1.217
5.236 3.027 1.033
4.777 3.587 1.122
5.199 3.140 0.860
5.161 3.477 0.764
5.008 3.068 0.725
4.812 3.044 0.395
5.050 3.037 0.471
4.651 3.181 0.366
5.027 3.033 0.143
6.099 2.226 2.986
6.458 1.743 2.980
6.216 1.868 2.573
6.326 1.749 2.243
6.077 1.677 2.576
6.054 1.725 2.069
4.707 3.324 1.244
4.968 3.248 1.041
4.569 3.195 0.741
4.516 2.822 0.445
6.103 1.884 3.499
6.426 1.510 3.318
6.164 1.459 2.808
6.287 1.530 2.620
6.248 1.433 2.751
6.360 1.428 2.666
6.054 1.251 2.495
6.026 1.718 3.878
5.983 1.331 3.494
6.307 1.055 3.406
6.005 1.378 3.385
6.197 1.146 3.066
5.988 1.484 2.971
6.096 1.322 2.859
5.919 1.401 3.046
6.042 0.845 2.773
6.361 0.776 2.608
6.159 1.196 2.645
6.191 0.793 2.637
6.218 0.960 2.403
6.419 1.372 3.481
6.060 1.425 3.634
5.810 1.485 3.855
6.276 1.179 3.769
5.910 1.349 3.448
6.059 1.344 3.619
6.215 1.106 3.470
5.949 1.276 3.411
5.797 1.323 3.256
6.403 0.816 3.259
6.132 1.069 3.178
6.220 0.834 3.061
5.785 1.368 3.213
6.253 0.660 3.172
6.265 0.646 3.121
5.977 1.107 3.047
6.433 0.763 2.742
6.292 0.812 3.006
6.127 1.055 2.545
6.082 0.169 2.760
6.282 0.277 2.640
6.106 0.705 2.387
6.197 0.356 2.556
6.045 0.239 2.209
6.257 0.086 2.350
6.173 1.505 3.831
6.365 1.226 3.878
5.839 1.489 3.577
6.287 0.724 3.842
5.863 1.195 3.943
5.892 1.155 3.638
6.063 1.434 3.641
6.308 0.905 3.639
6.286 1.032 3.695
5.946 1.113 3.733
5.849 1.243 3.664
6.194 0.718 3.382
6.297 0.898 3.331
6.174 1.064 3.491
5.733 1.156 3.569
5.812 1.177 3.438
6.079 0.562 3.407
6.165 0.442 3.393
5.986 0.949 3.396
5.750 0.806 2.987
6.254 0.361 2.942
6.045 0.471 3.272
6.055 0.547 2.984
6.031 0.813 3.175
6.471 0.034 2.899
6.133 0.331 2.817
6.248 0.509 2.861
5.998 0.584 2.648
6.235 0.265 2.813
5.738 0.428 2.933
6.339 1.072 4.605
5.992 1.190 4.270
5.885 1.598 4.262
6.467 1.037 4.212
6.076 1.181 3.986
5.851 1.266 4.195
6.189 0.781 4.044
6.091 0.902 4.020
6.097 1.007 3.736
5.839 1.325 3.622
6.335 0.403 4.230
6.284 0.712 4.045
5.824 0.854 4.101
5.967 1.154 3.813
5.641 1.217 4.094
5.747 1.249 3.940
6.404 0.492 4.104
5.891 0.526 3.723
6.073 0.644 3.619
5.700 0.778 3.549
5.913 0.873 3.578
6.170 0.177 3.826
5.957 0.283 3.494
5.808 0.686 3.741
5.945 0.803 3.316
5.723 1.000 3.371
6.301 0.282 3.253
6.048 0.373 3.319
6.089 0.311 3.271
5.829 0.836 3.456
6.051 0.044 3.515
5.906 0.189 3.123
6.004 0.394 3.123
5.985 0.649 2.927
5.920 -0.065 2.963
6.348 0.838 4.740
6.096 1.411 4.731
6.362 0.871 4.668
6.223 0.925 4.497
6.168 1.142 4.768
6.352 0.730 4.387
6.010 1.086 4.357
5.912 0.911 4.142
5.688 1.276 4.327
6.302 0.694 4.427
6.024 1.052 4.415
5.766 0.965 4.394
5.835 1.369 4.089
6.043 0.297 4.115
6.037 0.526 4.113
5.891 0.931 3.901
6.053 0.973 3.885
5.964 0.960 3.771
5.749 1.268 3.792
6.441 -0.028 4.280
6.283 0.370 4.242
5.823 0.322 4.212
6.036 0.551 3.964
5.806 0.753 3.815
5.638 0.861 3.904
5.579 1.327 3.839
6.093 0.042 4.249
6.013 -0.018 4.115
6.053 0.596 3.946
5.812 0.523 3.822
5.578 0.789 3.898
5.367 0.731 4.010
6.080 0.262 3.750
5.673 0.381 3.530
5.883 0.423 3.541
5.573 0.631 3.664
5.427 0.628 3.544
5.892 0.216 3.639
5.613 0.233 3.324
5.633 0.348 3.502
5.600 0.743 3.277
6.242 0.824 5.218
6.144 1.009 5.020
5.976 1.250 5.204
6.224 0.543 4.925
5.936 0.847 4.964
5.926 1.040 4.740
5.791 1.342 5.039
5.693 1.300 4.779
6.264 0.553 4.648
6.214 0.456 4.549
5.750 0.718 4.928
6.071 0.959 4.743
5.825 1.161 4.448
6.198 0.573 4.689
6.161 0.456 4.314
5.977 0.947 4.591
5.740 0.912 4.276
5.807 1.291 4.544
5.640 1.551 4.574
6.313 0.005 4.609
6.335 0.420 4.423
6.193 0.374 4.296
6.042 0.862 4.457
5.905 0.839 4.343
5.673 1.272 4.394
5.472 1.498 4.218
6.103 0.031 4.061
6.310 0.394 4.295
5.878 0.461 4.326
5.862 0.867 4.249
5.690 0.891 4.090
5.729 0.903 3.863
5.442 1.422 3.797
6.089 -0.026 4.125
6.008 0.216 4.176
5.460 0.468 4.315
5.662 0.887 3.921
5.384 0.673 3.979
5.369 0.855 4.140
6.097 -0.020 3.913
5.729 0.470 4.010
5.546 0.669 3.773
5.706 0.599 3.916
5.170 0.640 4.009
5.629 -0.117 4.062
5.596 0.062 3.833
5.774 0.584 3.739
5.289 0.695 3.548
6.448 0.202 5.245
6.131 0.575 5.274
6.092 0.571 5.073
6.050 0.783 5.154
5.573 1.336 5.328
5.455 1.294 5.055
5.988 0.380 5.207
5.989 0.425 4.921
5.766 0.894 4.952
5.662 0.880 4.952
5.570 0.891 4.859
5.752 1.327 5.073
6.408 0.235 4.764
6.217 0.433 5.010
5.931 0.395 4.802
6.037 0.426 4.762
5.946 0.630 4.780
5.772 1.014 4.968
5.325 1.344 4.874
5.561 1.134 4.552
6.432 0.031 5.121
6.176 0.346 4.678
5.885 0.317 4.483
5.911 0.422 4.526
5.734 0.759 4.746
5.769 1.053 4.556
5.621 0.933 4.583
5.253 1.362 4.526
5.946 0.083 4.451
5.979 0.358 4.537
5.653 0.347 4.186
5.736 0.430 4.159
5.700 0.849 4.446
5.511 0.817 4.385
5.529 1.307 4.245
5.978 -0.028 4.416
5.637 0.416 4.144
5.832 0.574 4.187
5.721 0.826 4.036
5.465 1.070 3.862
5.491 1.072 4.184
5.626 0.244 4.105
5.817 0.301 4.338
5.288 0.357 4.131
5.363 0.697 4.059
5.316 0.893 4.279
5.048 1.008 4.108
5.602 0.019 4.018
5.230 0.230 4.240
5.256 0.419 4.088
5.272 0.615 3.920
6.375 0.082 5.534
5.973 0.177 5.323
6.065 0.678 5.534
5.926 0.512 5.426
5.562 1.003 5.122
5.786 0.962 5.365
5.269 1.293 4.951
5.201 1.183 5.271
6.057 0.062 5.418
6.158 0.133 5.061
6.012 0.188 5.423
5.935 0.603 5.202
5.607 0.774 5.206
5.447 0.849 5.271
5.572 0.831 4.910
5.454 0.981 4.787
5.073 1.115 4.894
6.280 0.240 5.046
5.786 0.204 5.216
5.907 0.439 5.162
5.735 0.455 4.780
5.404 0.645 4.632
5.416 0.716 4.652
5.253 1.224 4.886
5.031 1.289 4.578
5.684 0.094 4.919
5.874 0.232 4.716
5.663 0.539 4.804
5.657 0.554 4.727
5.312 0.623 4.777
5.166 0.898 4.689
5.256 1.261 4.463
5.920 0.144 4.631
5.588 0.280 4.607
5.535 0.293 4.455
5.517 0.659 4.437
5.509 0.862 4.361
5.221 1.296 4.496
5.663 -0.053 4.459
5.823 0.139 4.135
5.571 0.386 4.004
5.385 0.629 3.987
5.048 0.855 3.987
5.251 0.891 3.969
5.424 -0.062 4.358
5.113 0.345 4.312
5.086 0.671 4.422
4.976 0.567 4.208
4.739 1.068 4.248
5.803 -0.057 5.335
5.523 0.286 5.269
5.515 0.537 5.201
5.330 0.899 5.443
5.484 1.001 5.252
5.474 1.182 5.479
5.136 1.221 5.332
4.856 1.438 5.089
5.956 0.300 5.487
5.843 0.215 5.338
5.635 0.345 5.059
5.229 0.470 5.208
5.550 0.946 4.969
5.274 0.958 5.125
5.115 1.000 5.096
4.756 1.157 4.768
5.635 -0.110 5.127
5.438 0.430 4.921
5.568 0.420 5.069
5.592 0.540 4.856
5.084 0.798 4.859
5.329 0.705 4.900
5.171 1.183 4.804
4.928 1.109 4.880
5.439 0.344 4.617
5.631 0.145 4.822
5.194 0.388 4.957
5.115 0.454 4.770
5.368 0.935 4.826
4.817 1.014 4.539
4.989 1.285 4.714
5.464 0.218 4.833
5.302 0.312 4.350
5.350 0.180 4.617
5.212 0.822 4.292
5.303 0.783 4.249
5.193 1.169 4.350
4.982 1.316 4.338
5.537 0.283 4.181
5.447 0.401 4.356
5.236 0.659 4.044
5.236 0.628 4.162
5.072 0.688 4.313
5.004 0.128 4.268
4.953 0.491 4.321
4.794 0.509 4.259
4.916 0.921 4.452
2.603 1.818 0.298
2.392 1.849 0.200
5.499 0.223 5.625
5.324 0.084 5.538
5.345 0.514 5.689
5.126 0.586 5.513
5.405 0.901 5.245
4.969 0.998 5.357
4.968 1.157 5.151
4.784 1.411 5.154
4.698 1.545 5.048
5.561 0.004 5.137
5.544 0.327 5.062
5.082 0.734 5.183
4.920 0.812 5.178
5.111 0.875 5.335
5.123 1.078 5.158
4.612 1.333 4.838
4.859 1.543 5.138
5.603 0.058 5.011
5.445 0.134 5.154
5.356 0.496 5.128
5.120 0.827 5.117
5.183 0.806 4.761
4.749 1.112 5.000
4.689 1.342 4.797
4.671 1.167 4.988
5.611 -0.110 4.920
5.354 0.278 4.944
5.391 0.605 4.921
5.247 0.768 4.806
4.788 0.699 4.725
4.953 0.995 4.656
4.650 1.162 4.725
4.714 1.468 4.765
5.488 0.157 4.672
4.963 0.159 4.795
5.058 0.532 4.787
4.721 0.569 4.528
4.907 1.013 4.628
4.516 1.184 4.334
4.909 0.307 4.424
4.775 0.613 4.495
4.835 0.656 4.191
4.626 0.718 4.191
4.675 0.093 4.453
4.868 0.598 4.429
4.716 0.783 4.385
2.692 1.680 0.715
2.599 1.206 0.752
2.297 1.389 0.316
2.564 1.147 0.124
2.285 1.646 0.173
2.575 1.347 -0.088
2.323 1.237 0.056
5.583 0.116 5.631
5.402 0.133 5.523
5.340 0.695 5.534
5.201 0.941 5.213
4.881 0.798 5.188
4.764 1.234 5.241
4.772 1.136 5.147
4.566 1.552 5.183
4.639 1.423 5.284
5.182 0.112 5.180
5.227 0.230 5.495
5.192 0.620 5.213
5.141 0.864 5.241
4.795 0.586 5.093
4.535 1.188 4.916
4.764 1.297 5.031
4.355 1.158 5.018
4.175 1.663 5.171
5.353 0.030 5.394
5.403 0.139 5.274
4.851 0.280 4.895
5.126 0.403 4.859
4.933 0.706 5.074
4.752 0.937 5.180
4.372 1.195 4.825
4.401 1.479 4.926
4.520 1.697 5.034
5.322 0.028 4.729
4.773 0.352 4.771
4.715 0.413 4.765
4.962 0.538 4.658
4.631 0.720 4.526
4.720 0.854 4.727
4.433 1.161 4.568
4.380 1.628 4.694
5.152 0.170 4.656
4.997 0.372 4.908
4.976 0.364 4.590
4.694 0.582 4.609
4.720 0.806 4.352
4.318 0.892 4.562
4.418 0.925 4.663
4.611 0.223 4.190
4.853 0.452 4.365
4.402 0.526 4.298
4.607 0.714 4.511
2.236 1.452 0.985
2.644 1.087 0.722
2.259 1.399 0.601
2.079 1.469 0.522
2.313 1.055 0.489
2.465 1.117 0.385
2.300 1.207 0.340
2.412 0.613 0.143
2.606 1.196 0.228
2.363 1.104 0.167
2.255 1.130 0.255
2.447 0.630 0.055
2.335 0.918 -0.011
2.507 1.041 -0.085
5.330 0.126 5.897
4.914 0.467 5.395
4.838 0.662 5.344
5.053 0.843 5.618
4.647 0.789 5.669
4.524 0.817 5.199
4.676 1.079 5.589
4.120 1.384 5.146
4.077 1.641 5.266
4.009 1.663 5.059
4.133 1.855 5.251
3.888 1.901 5.029
5.062 -0.033 5.378
4.842 0.127 5.432
4.901 0.436 5.492
4.657 0.603 5.083
4.728 0.789 4.997
4.530 1.041 5.035
4.227 1.306 5.366
4.341 1.249 4.915
4.055 1.841 5.017
4.115 1.897 5.209
4.897 -0.134 5.097
4.711 0.155 5.352
4.779 0.526 5.228
4.538 0.674 5.136
4.375 0.898 4.932
4.400 1.184 5.077
4.046 1.128 4.738
4.235 1.300 4.850
3.864 1.333 4.923
4.721 -0.027 4.817
4.813 0.235 4.823
4.580 0.544 4.744
4.498 0.774 4.747
4.689 0.895 4.661
4.533 0.712 4.965
4.318 0.952 4.603
3.865 1.449 4.553
4.015 1.560 4.406
4.851 0.375 4.928
4.554 0.290 4.789
4.656 0.500 4.480
4.370 0.761 4.708
3.956 0.903 4.692
4.355 0.636 4.287
4.159 0.392 4.255
4.028 0.495 4.489
3.981 0.923 4.531
2.081 1.593 1.141
2.280 1.201 1.102
2.301 1.288 0.941
2.058 1.312 0.793
2.501 0.828 0.994
2.472 0.989 0.627
2.227 1.001 0.583
2.221 1.547 0.576
2.521 0.830 0.587
2.345 0.568 0.347
2.411 1.158 0.329
2.264 1.048 0.279
1.970 1.115 0.558
2.321 0.306 0.196
2.532 0.718 0.411
2.092 1.009 0.154
1.930 1.048 0.269
1.912 1.181 0.412
2.466 0.092 0.428
2.439 0.057 0.056
2.227 0.410 0.412
2.110 0.500 0.218
2.051 0.997 -0.050
2.238 0.901 0.190
1.735 1.340 -0.226
2.671 0.363 -0.056
4.669 0.312 5.553
4.860 0.595 5.688
4.304 0.463 5.339
4.287 0.707 5.298
4.197 1.248 5.457
4.174 1.043 5.521
3.966 1.204 5.235
3.769 1.479 5.381
3.943 1.684 5.374
3.476 2.089 5.269
3.769 2.332 5.133
3.446 2.320 4.994
4.538 0.190 5.544
4.729 0.453 5.287
4.261 0.552 5.371
4.199 0.875 5.332
4.015 0.940 5.046
4.225 1.321 5.061
4.073 1.455 5.127
3.804 1.453 4.916
3.673 1.619 5.099
3.517 1.911 5.186
4.696 0.068 5.391
4.401 0.177 5.000
4.209 0.630 5.162
4.295 0.612 4.881
4.168 0.868 4.845
4.155 1.121 4.975
3.754 1.306 5.132
3.787 1.355 4.673
3.920 1.750 4.876
3.764 1.954 5.051
4.586 -0.062 4.876
4.461 0.456 4.935
4.562 0.684 4.790
4.079 0.665 5.034
4.303 0.818 4.844
3.978 1.084 4.857
4.065 0.993 4.533
3.777 1.590 4.609
3.903 1.485 4.579
4.528 0.058 4.635
4.405 0.266 4.893
4.231 0.336 4.712
4.182 0.514 4.580
3.916 0.928 4.426
3.865 1.226 4.600
3.758 1.415 4.699
4.007 0.661 4.366
3.879 0.831 4.465
4.089 0.768 4.408
4.123 0.499 4.485
3.696 0.571 4.607
3.537 0.977 4.579
3.649 0.927 4.297
1.967 1.142 0.929
1.779 1.475 0.877
2.146 0.638 1.107
2.137 1.058 0.871
1.942 1.287 1.016
2.037 1.267 0.931
2.263 0.544 0.846
2.101 0.844 0.969
2.235 1.034 0.978
1.942 1.034 0.639
2.079 1.083 0.697
2.658 0.340 0.816
2.470 0.328 0.668
2.109 0.588 0.498
1.971 0.988 0.736
1.958 1.174 0.715
2.102 1.225 0.398
2.711 0.248 0.380
2.299 0.253 0.452
2.336 0.309 0.538
2.388 0.609 0.465
1.981 0.810 0.382
2.161 0.775 0.403
2.044 1.246 0.389
2.158 0.222 0.261
2.163 0.511 0.439
2.261 0.377 -0.003
1.951 0.832 0.184
1.694 0.979 0.201
1.897 1.079 -0.058
2.530 0.027 0.344
2.444 0.411 -0.152
1.998 0.257 -0.080
4.244 0.390 5.880
4.218 0.737 5.413
4.332 0.731 5.689
4.137 1.082 5.493
4.131 1.227 5.645
3.642 1.434 5.410
3.928 1.432 5.516
3.438 1.604 5.225
3.394 2.036 5.517
3.310 1.991 5.223
3.039 2.032 5.221
3.011 2.362 5.123
4.378 0.113 5.565
4.062 0.746 5.514
4.020 0.659 5.322
4.083 0.939 5.407
3.962 1.172 5.389
3.722 1.386 5.175
3.870 1.228 5.194
3.493 1.831 4.976
3.667 1.692 5.237
3.111 2.107 5.005
3.021 2.377 5.035
4.196 0.484 5.455
4.147 0.439 5.275
4.267 0.752 5.285
4.109 0.759 5.361
3.984 1.179 5.161
3.942 1.086 4.852
3.578 1.275 4.861
3.760 1.374 4.902
3.489 1.863 5.084
3.302 1.973 4.652
4.500 0.335 5.100
4.156 0.174 5.031
4.096 0.755 4.817
4.016 0.665 5.130
3.761 0.941 4.746
3.712 0.860 4.856
3.533 1.506 4.871
3.266 1.404 4.621
3.514 1.682 4.460
4.117 0.337 4.922
3.916 0.502 4.896
4.126 0.566 4.919
3.595 0.896 4.675
3.922 0.865 4.853
3.494 1.136 4.652
3.568 1.333 4.462
3.848 0.441 4.787
3.913 0.455 4.274
3.825 0.825 4.613
3.436 0.808 4.234
3.855 0.065 4.521
3.680 0.246 4.560
3.698 0.608 4.342
3.673 0.880 4.547
3.491 0.796 4.524
3.439 1.313 4.277
2.151 0.874 1.314
2.238 0.996 1.198
2.052 1.327 1.362
1.965 1.223 1.026
2.077 0.537 1.338
2.323 0.774 1.126
2.076 1.114 1.176
1.759 1.115 0.820
1.702 1.135 0.977
2.344 0.320 0.940
1.913 0.847 0.981
2.043 0.653 1.083
1.856 1.161 0.921
1.818 1.365 0.853
2.241 0.140 0.938
2.016 0.499 0.827
2.196 0.804 0.874
1.938 0.596 0.469
1.916 1.052 0.783
1.917 1.255 0.485
2.295 0.226 0.579
2.321 0.457 0.626
1.864 0.565 0.681
1.846 0.481 0.495
1.784 1.084 0.510
1.773 1.248 0.164
1.978 0.000 0.321
2.100 0.379 0.297
1.731 0.269 0.236
1.950 0.547 0.082
1.692 0.733 0.146
1.762 1.031 0.239
2.148 0.260 -0.031
2.000 0.229 0.329
1.935 0.715 0.018
4.094 0.261 5.618
3.953 0.511 5.487
4.032 0.802 5.482
3.629 1.219 5.714
3.743 1.456 5.670
3.632 1.490 5.429
3.373 1.761 5.507
3.267 1.667 5.238
3.363 1.784 5.303
3.119 2.086 5.068
2.737 2.474 5.159
4.333 0.383 5.686
4.010 0.437 5.281
3.853 0.740 5.285
3.880 0.754 5.403
3.542 1.005 5.080
3.577 1.386 5.276
3.278 1.697 5.092
3.041 1.500 5.364
2.964 1.676 4.898
3.175 1.910 4.848
4.252 0.522 5.456
4.065 0.704 5.198
3.606 0.523 5.050
3.887 0.997 5.074
3.709 0.976 5.054
3.498 1.114 5.011
3.301 1.656 5.100
3.060 1.559 4.777
3.288 1.921 4.844
3.878 0.117 5.252
4.086 0.445 5.106
3.989 0.484 4.927
3.641 0.867 5.153
3.623 0.886 4.836
3.430 1.259 4.922
3.164 1.242 4.593
3.407 1.401 4.776
3.885 0.391 4.733
3.687 0.166 5.036
3.667 0.493 4.974
3.770 0.792 4.658
3.393 0.879 4.542
3.539 1.149 4.451
3.171 1.165 4.482
3.120 1.295 4.727
4.048 0.371 4.585
3.923 0.574 4.637
3.703 0.636 4.741
3.239 0.920 4.628
3.564 0.956 4.594
3.079 1.248 4.166
3.516 0.085 4.805
3.754 0.572 4.656
3.275 0.461 4.661
3.157 0.933 4.523
3.241 0.876 4.636
3.139 0.919 4.549
3.459 0.383 4.356
3.260 0.520 4.587
3.169 0.736 4.562
2.879 0.847 4.505
2.857 1.221 4.176
2.111 0.961 1.549
1.667 1.128 1.443
1.739 1.078 1.401
1.736 1.342 1.376
1.789 0.631 1.272
1.999 0.735 1.215
1.660 1.088 1.212
1.725 1.238 1.109
2.248 0.630 1.310
2.029 0.806 1.021
1.991 1.006 1.174
1.487 1.044 1.019
1.724 1.416 1.108
2.109 0.004 1.254
1.996 0.137 0.955
1.993 0.573 0.757
1.660 0.864 0.972
1.620 0.721 0.918
1.538 1.180 0.701
2.053 0.330 0.713
1.874 0.166 0.600
1.912 0.629 0.773
1.592 0.756 0.797
1.757 0.623 0.884
1.281 0.936 0.847
1.948 0.075 0.767
1.870 0.022 0.503
1.847 0.434 0.677
1.874 0.432 0.437
1.437 0.753 0.532
1.303 0.828 0.381
1.827 -0.025 0.197
1.946 0.321 0.427
1.538 0.469 0.485
1.461 0.781 0.260
1.287 0.896 0.289
1.712 0.221 0.279
1.832 0.001 0.222
1.522 0.421 0.309
1.430 0.516 -0.147
1.303 0.891 -0.122
3.874 0.626 5.666
3.573 0.525 5.896
3.805 0.877 5.792
3.389 1.254 5.459
3.598 1.440 5.368
3.319 1.650 5.606
3.298 1.869 5.669
3.122 1.879 5.449
2.694 2.148 5.205
2.596 2.253 5.514
3.868 0.344 5.421
3.825 0.778 5.393
3.583 1.093 5.466
3.236 1.143 5.471
3.269 1.390 5.262
3.325 1.438 5.493
2.941 1.598 5.330
3.156 1.720 4.970
2.784 1.903 5.168
3.827 0.637 5.435
3.678 0.366 5.056
3.614 0.941 5.300
3.400 0.883 5.123
3.288 1.127 5.203
2.968 1.353 4.862
3.234 1.490 4.806
2.722 1.871 4.989
3.497 0.510 4.916
3.706 0.734 5.038
3.366 0.721 5.158
3.549 0.711 4.947
3.457 1.064 4.862
3.274 1.431 4.680
2.906 1.287 4.941
2.994 1.544 4.621
3.751 0.489 4.959
3.641 0.569 4.874
3.584 0.683 4.946
3.145 1.040 5.000
3.255 0.759 4.787
2.954 1.204 4.558
3.098 1.389 4.820
3.628 0.264 4.766
3.501 0.132 4.618
3.330 0.605 4.519
3.397 0.848 4.727
3.341 0.949 4.582
3.175 1.076 4.496
3.344 0.078 4.665
3.499 0.063 4.684
3.176 0.232 4.896
2.896 0.635 4.808
3.064 0.658 4.759
3.036 0.837 4.660
2.832 1.389 4.655
3.479 0.177 4.694
3.095 0.582 4.648
3.241 0.312 4.211
3.051 0.885 4.299
2.732 1.052 4.280
2.468 0.906 4.134
3.122 0.316 4.450
3.226 0.515 4.152
2.754 0.862 4.130
2.641 0.873 4.042
1.970 0.884 2.083
1.553 1.088 1.679
1.446 0.995 1.732
1.307 1.437 1.972
1.908 0.500 1.638
1.673 0.670 1.898
1.919 1.057 1.586
1.748 1.001 1.620
1.548 1.059 1.774
1.953 0.609 1.717
1.911 0.566 1.498
1.606 0.765 1.508
1.383 1.036 1.197
1.455 1.301 1.526
1.762 0.036 1.432
2.062 0.299 1.306
1.523 0.381 1.477
1.411 0.484 1.023
1.323 0.887 1.083
1.586 0.872 1.249
2.053 0.032 1.347
1.948 0.255 0.922
1.640 0.305 1.231
1.822 0.676 0.826
1.684 0.608 0.920
1.256 1.214 0.852
2.014 0.058 0.764
1.657 0.160 0.714
1.842 0.248 0.774
1.632 0.600 0.764
1.360 0.828 0.616
1.171 1.005 0.751
1.981 -0.116 0.549
1.733 0.124 0.830
1.367 0.689 0.399
1.595 0.789 0.411
1.470 0.956 0.694
1.628 0.257 0.417
1.567 0.262 0.348
1.250 0.530 0.173
1.343 0.526 0.213
1.073 0.777 0.159
1.585 -0.006 0.238
1.403 0.487 0.075
1.323 0.700 0.286
1.371 0.596 0.261
1.420 -0.044 -0.113
3.578 0.462 5.919
3.637 0.667 5.745
3.256 0.934 5.515
3.131 0.989 5.699
3.221 1.502 5.402
2.761 1.424 5.327
2.853 1.925 5.259
2.565 1.894 5.549
2.674 1.979 5.484
3.641 0.766 5.577
3.384 0.913 5.393
3.307 0.753 5.688
3.308 1.079 5.242
3.109 1.326 5.221
2.922 1.286 5.530
2.855 1.646 5.067
2.788 1.627 5.026
3.790 0.351 5.403
3.283 0.719 5.121
3.495 0.457 5.090
3.024 0.995 5.445
2.947 1.065 5.387
2.756 1.406 5.374
2.857 1.354 5.000
2.529 1.790 5.043
3.582 0.071 5.206
3.470 0.615 5.339
3.251 0.664 4.978
2.985 0.990 4.960
3.270 0.766 5.064
3.141 1.127 4.813
2.703 1.169 4.867
2.608 1.447 4.881
3.618 0.090 4.811
3.510 0.112 5.034
3.467 0.650 4.668
3.091 0.743 5.002
2.939 0.830 4.930
2.984 1.156 4.676
2.990 1.126 4.829
2.532 1.587 4.566
3.286 0.266 4.550
3.170 0.268 4.845
3.132 0.558 4.815
3.301 0.691 4.676
3.173 0.954 4.696
3.028 0.958 4.344
2.856 1.241 4.544
3.320 0.094 4.586
3.010 0.378 4.827
2.894 0.465 4.727
2.728 0.523 4.655
2.626 0.818 4.720
2.777 1.270 4.570
3.121 -0.139 4.386
3.217 0.281 4.474
3.093 0.463 4.683
2.700 0.524 4.633
2.815 0.795 4.266
2.711 1.127 4.595
2.877 0.036 4.489
2.812 0.599 4.168
2.892 0.655 4.381
2.605 0.697 4.241
2.259 0.880 4.045
2.770 -0.031 4.187
2.877 0.161 4.193
2.825 0.362 3.905
2.338 0.498 4.148
2.335 1.064 4.108
2.012 0.364 2.054
1.951 0.628 1.990
1.766 0.768 2.233
1.727 1.340 2.200
1.187 1.113 2.161
1.608 0.710 2.225
1.588 0.594 1.770
1.657 0.797 2.043
1.592 0.885 1.848
1.371 1.443 1.679
1.738 0.319 2.022
1.604 0.569 1.788
1.450 1.000 1.881
1.542 0.906 1.691
1.350 1.331 1.772
1.931 0.489 1.788
1.773 0.284 1.762
1.360 0.714 1.383
1.523 0.736 1.508
1.434 1.078 1.181
1.873 0.148 1.484
1.920 0.397 1.510
1.469 0.585 1.131
1.279 0.694 1.341
1.314 0.705 1.057
1.066 1.086 1.431
1.438 0.169 1.153
1.489 0.176 1.266
1.368 0.334 1.136
1.246 0.496 1.286
1.293 0.906 0.772
1.716 0.096 0.810
1.421 0.077 0.820
1.265 0.391 0.770
1.202 0.462 0.661
1.275 0.993 0.975
1.684 0.139 0.558
1.345 0.039 0.589
1.178 0.338 0.566
1.248 0.568 0.436
1.124 0.956 0.521
1.464 0.293 0.620
1.259 0.381 0.678
1.157 0.479 0.334
1.034 0.838 0.402
1.149 0.038 0.119
1.212 0.134 0.300
1.182 0.225 0.430
3.065 0.864 5.996
2.900 0.717 5.757
2.943 1.187 5.883
2.937 1.084 5.735
2.886 1.585 5.427
2.791 1.750 5.598
2.626 1.802 5.333
3.083 0.469 5.775
3.413 0.559 5.493
3.202 0.921 5.528
2.742 0.965 5.474
3.015 1.202 5.323
2.589 1.530 5.471
2.764 1.444 5.233
2.487 1.660 5.351
3.279 0.480 5.286
3.366 0.635 5.408
3.192 0.815 5.114
2.717 1.173 5.085
2.741 1.218 5.439
2.638 1.127 5.255
2.516 1.611 5.085
3.406 0.076 5.156
3.377 0.452 5.077
3.105 0.501 4.993
2.892 0.508 5.020
2.866 0.938 5.162
2.868 1.062 5.261
2.658 1.386 4.863
2.544 1.639 4.718
3.227 0.094 4.946
3.090 0.308 4.963
3.051 0.601 4.910
3.091 0.473 4.857
2.706 0.818 4.864
2.679 0.833 4.850
2.502 1.350 4.945
2.674 1.521 4.769
3.212 0.175 4.736
3.061 0.267 4.768
2.741 0.412 4.901
2.556 0.552 4.728
2.708 0.896 4.494
2.386 0.922 4.635
2.923 -0.034 4.859
2.768 0.151 4.857
2.582 0.508 4.738
2.380 0.771 4.764
2.405 0.632 4.733
2.364 1.192 4.446
2.212 1.181 4.740
2.585 0.072 4.739
2.721 0.414 4.730
2.700 0.402 4.634
2.501 0.490 4.630
2.281 0.804 4.584
2.051 0.898 4.265
2.749 -0.125 4.484
2.470 0.040 4.312
2.455 0.673 4.207
2.209 0.719 4.079
2.303 0.663 4.367
2.296 0.929 4.018
2.462 0.149 4.343
2.382 0.479 4.242
2.368 0.751 3.972
2.036 0.522 3.870
2.026 1.036 4.178
2.476 0.083 3.971
2.650 0.387 3.724
2.320 0.537 4.040
1.986 0.583 3.700
2.295 0.740 3.973
2.208 0.016 3.645
2.216 0.436 3.859
2.081 0.686 3.833
2.243 0.867 3.587
2.245 0.266 3.351
2.049 0.707 3.456
1.903 0.701 3.371
2.003 0.740 3.064
1.976 0.448 2.928
1.864 0.477 2.799
1.559 0.741 3.005
1.870 0.425 2.825
1.636 0.443 2.643
1.425 0.862 2.706
1.658 1.056 2.437
2.058 0.544 2.554
1.676 0.528 2.291
1.818 0.907 2.525
1.483 1.007 2.313
1.362 1.157 2.480
1.401 1.070 2.509
1.643 0.190 2.546
1.700 0.456 2.338
1.558 0.433 2.420
1.513 1.020 2.009
1.322 1.096 1.971
1.039 1.321 2.089
1.693 0.405 2.339
1.491 0.602 2.190
1.583 0.493 2.050
1.485 0.635 1.817
1.214 1.029 1.782
1.094 0.942 2.045
1.772 0.199 1.777
1.820 0.536 1.863
1.597 0.374 1.950
1.181 0.737 1.579
1.275 0.655 1.730
0.893 0.885 1.772
1.732 -0.089 1.832
1.713 0.141 1.578
1.256 0.530 1.592
1.440 0.779 1.502
0.968 0.967 1.410
1.233 0.925 1.677
1.518 -0.036 1.316
1.583 0.542 1.212
1.042 0.614 1.255
1.364 0.685 1.351
0.811 1.007 1.107
1.428 0.218 1.272
1.244 0.227 1.285
1.077 0.281 1.281
1.228 0.698 0.959
1.043 0.798 1.282
1.146 0.344 1.136
1.294 0.281 1.128
0.973 0.499 0.712
0.784 0.744 0.772
1.114 -0.123 0.802
1.142 0.250 0.953
1.243 0.547 0.701
0.683 0.726 0.833
1.123 -0.095 0.396
1.147 0.065 0.766
2.946 0.917 5.977
2.747 1.349 5.788
2.435 1.494 5.730
2.525 1.341 5.689
3.121 0.740 5.729
3.109 0.760 5.820
2.975 0.772 5.708
2.733 1.194 5.759
2.628 1.503 5.396
2.313 1.337 5.381
3.198 0.389 5.526
2.652 0.737 5.346
2.660 0.941 5.184
2.478 1.044 5.543
2.716 1.069 5.497
2.568 1.588 5.067
3.256 0.046 5.445
3.019 0.483 5.067
2.739 0.759 5.186
2.712 0.717 5.243
2.499 1.180 4.943
2.476 0.913 4.911
2.440 1.191 5.090
2.787 -0.052 5.303
3.039 0.478 5.072
2.981 0.554 5.172
2.546 0.752 5.149
2.531 1.088 4.774
2.607 1.037 5.075
2.135 1.396 4.672
2.731 -0.038 4.878
2.947 0.080 5.026
2.865 0.340 4.936
2.388 0.527 4.895
2.569 0.663 4.499
2.266 1.082 4.547
2.426 1.120 4.794
2.448 0.021 5.017
2.403 0.524 4.836
2.466 0.580 4.966
2.291 0.805 4.625
1.997 0.781 4.615
2.685 -0.067 4.872
2.672 0.247 4.777
2.581 0.460 4.641
2.327 0.764 4.527
2.070 0.657 4.436
1.876 0.871 4.337
2.312 0.124 4.677
2.367 0.288 4.340
2.272 0.407 4.553
1.863 0.558 4.531
1.986 0.932 4.190
2.498 0.080 4.294
2.418 0.276 4.009
2.379 0.598 4.076
2.255 0.736 4.032
1.841 0.870 4.166
2.375 0.151 4.069
2.025 0.004 4.099
1.954 0.361 3.876
2.214 0.611 3.877
1.830 0.673 3.773
1.788 0.942 3.688
2.296 0.004 3.618
2.264 0.082 3.731
1.784 0.617 3.570
1.644 0.878 3.574
1.616 1.013 3.448
2.114 0.244 3.459
1.825 0.435 3.548
1.820 0.239 3.433
1.944 0.759 3.584
1.926 0.564 3.325
1.501 1.114 3.465
1.918 0.352 3.438
1.754 0.354 3.480
1.673 0.449 3.470
1.421 0.547 3.101
1.631 0.758 3.032
1.997 0.178 3.219
1.975 0.124 3.057
1.874 0.245 3.102
1.390 0.467 2.863
1.330 0.657 3.023
1.207 1.043 2.789
1.129 1.091 3.029
1.662 0.295 2.764
1.666 0.118 2.988
1.644 0.348 2.927
1.485 0.899 2.874
1.137 0.762 2.724
1.427 1.005 2.457
0.928 1.027 2.387
1.903 0.018 2.574
1.540 0.033 2.714
1.369 0.378 2.372
1.494 0.693 2.712
1.100 0.596 2.280
1.032 0.854 2.533
1.045 1.274 2.341
1.806 0.309 2.529
1.652 0.161 2.351
1.306 0.456 2.557
1.316 0.626 2.144
1.215 1.015 2.440
0.880 1.131 2.325
1.576 -0.002 2.354
1.614 0.120 2.164
1.192 0.473 1.999
1.166 0.511 1.888
0.861 0.814 2.034
0.801 0.918 2.036
1.408 0.047 1.846
1.633 0.312 1.747
1.249 0.385 2.131
1.273 0.714 1.709
0.869 0.543 1.622
1.106 0.958 1.815
1.411 0.092 1.772
1.378 0.114 1.535
0.886 0.721 1.708
1.119 0.452 1.779
0.804 0.687 1.430
1.487 0.269 1.400
1.245 0.319 1.450
1.179 0.193 1.673
0.922 0.701 1.231
0.648 0.579 1.233
1.340 0.285 1.393
0.883 0.558 1.255
1.010 0.723 1.287
0.582 0.526 1.314
1.311 0.143 1.209
0.852 0.195 0.978
0.962 0.318 1.143
0.573 0.778 1.016
2.809 0.374 5.595
2.614 0.515 5.265
2.765 0.846 5.428
2.359 0.737 5.552
2.384 0.977 5.476
2.799 0.003 5.475
2.769 0.347 5.279
2.686 0.453 5.417
2.490 0.704 5.122
2.298 0.784 5.051
2.080 0.837 5.231
2.778 0.221 4.997
2.698 0.043 5.135
2.472 0.526 4.994
2.235 0.655 5.020
2.424 0.654 4.940
2.267 1.015 4.759
2.751 0.051 5.123
2.436 0.506 4.725
2.222 0.520 4.859
2.296 0.776 4.597
2.065 0.768 4.699
2.693 -0.063 4.763
2.460 0.043 4.823
2.185 0.498 5.071
1.947 0.590 4.739
2.091 0.719 4.802
2.361 0.324 4.883
2.330 0.197 4.541
2.056 0.322 4.747
1.933 0.483 4.610
1.834 0.989 4.756
2.405 -0.138 4.427
2.335 0.316 4.456
1.962 0.498 4.280
1.887 0.479 4.431
1.581 0.974 4.340
2.340 0.338 4.373
2.073 0.515 4.266
1.738 0.346 4.337
1.939 0.734 3.997
2.263 -0.005 4.107
1.871 0.483 4.003
1.760 0.620 3.990
1.825 0.656 3.805
1.674 0.975 3.944
1.888 0.223 3.671
1.923 0.005 3.920
1.651 0.170 3.731
1.465 0.569 3.578
1.359 0.936 3.452
1.416 0.966 3.634
1.710 0.052 3.774
1.609 0.466 3.576
1.462 0.431 3.715
1.346 0.791 3.453
1.357 1.008 3.492
1.077 0.824 3.436
1.817 -0.150 3.276
1.501 0.408 3.462
1.533 0.372 3.301
1.278 0.669 3.279
1.361 0.910 3.379
1.177 0.938 2.979
1.077 1.325 3.288
1.585 0.235 3.223
1.550 0.410 3.144
1.636 0.722 2.936
1.361 0.630 3.130
1.319 0.898 3.141
1.064 1.031 2.972
0.919 1.306 2.898
1.525 -0.018 3.102
1.714 0.008 2.792
1.204 0.616 2.896
1.340 0.494 2.597
1.034 0.733 2.684
1.057 1.108 2.587
0.919 1.055 2.863
1.303 0.313 2.881
1.220 0.145 2.450
1.275 0.510 2.760
1.109 0.715 2.423
0.966 0.878 2.350
0.790 1.241 2.658
1.252 0.055 2.301
1.401 0.440 2.299
1.200 0.339 2.614
0.885 0.798 2.314
0.822 0.638 2.358
0.898 1.062 2.442
1.399 0.252 2.095
1.026 0.301 2.381
0.813 0.573 1.923
0.770 0.851 1.888
0.676 0.876 2.040
1.358 0.064 2.091
1.333 0.139 2.017
1.199 0.498 1.766
0.927 0.513 2.095
0.533 0.931 1.858
1.165 0.218 1.748
1.032 0.209 1.576
0.818 0.332 1.896
0.975 0.616 1.692
0.710 0.733 1.808
0.788 0.016 1.702
1.084 0.381 1.327
0.617 0.316 1.441
0.693 0.511 1.326
0.951 -0.066 1.443
0.784 0.212 1.434
0.540 0.569 1.111
0.677 0.775 1.394
2.627 0.181 5.269
2.639 0.424 5.394
2.489 0.605 5.238
2.366 0.827 5.226
2.516 0.153 5.288
2.528 0.152 4.960
2.454 0.600 5.115
2.353 0.451 5.099
1.913 0.617 4.966
2.566 0.093 4.990
2.218 0.256 4.946
2.291 0.635 4.677
1.995 0.677 4.998
2.124 0.939 4.908
2.247 0.304 4.932
2.156 0.461 5.074
2.161 0.658 5.140
2.336 0.246 4.801
2.034 0.231 4.846
1.774 0.318 4.851
1.868 0.791 4.707
1.842 0.040 4.580
1.641 0.453 4.402
1.795 0.712 4.299
1.599 0.501 4.470
2.156 -0.090 4.321
1.753 0.400 4.452
1.535 0.648 4.482
1.787 0.433 4.427
1.654 0.290 4.069
1.725 0.259 3.907
1.290 0.698 3.892
1.337 0.822 4.195
1.726 0.128 4.114
1.758 0.283 3.694
1.351 0.378 3.695
1.510 0.652 3.893
1.018 0.661 3.498
1.507 -0.200 3.506
1.345 0.108 3.834
1.252 0.348 3.381
1.316 0.362 3.673
0.998 0.910 3.372
1.154 0.798 3.508
1.601 0.180 3.419
1.635 0.311 3.401
1.285 0.265 3.383
1.089 0.617 3.381
1.021 0.902 3.429
0.778 0.963 3.071
1.425 -0.183 3.436
1.440 0.199 3.268
1.092 0.200 3.221
1.211 0.683 3.070
0.784 0.623 3.177
0.904 0.832 3.062
0.572 1.308 2.824
1.386 0.025 2.852
0.970 0.110 3.000
1.119 0.649 2.816
0.969 0.519 2.681
0.726 1.081 2.674
0.615 1.074 2.619
1.140 0.143 2.573
1.312 0.425 2.709
0.957 0.307 2.876
1.125 0.697 2.523
0.658 1.015 2.383
0.541 0.819 2.624
1.159 -0.046 2.346
0.768 0.150 2.660
0.965 0.642 2.509
0.569 0.492 2.425
0.605 0.820 2.258
1.303 0.218 2.122
1.034 0.093 2.338
0.778 0.562 2.384
0.560 0.555 1.955
0.570 0.982 2.062
0.850 -0.016 2.264
1.035 0.019 2.098
0.838 0.497 1.930
0.499 0.673 2.135
0.444 0.706 2.115
0.868 0.239 1.741
0.546 0.349 1.912
0.788 0.443 1.662
0.562 0.661 1.732
0.801 0.090 1.716
0.558 0.435 1.492
0.565 0.625 1.417
0.255 0.802 1.604
2.379 0.212 5.287
2.438 0.024 5.436
1.870 0.227 5.008
1.806 0.401 4.960
2.212 0.251 4.990
1.989 0.520 4.756
1.732 0.390 4.697
6.060 3.596 1.663
6.022 3.579 1.362
5.987 3.714 1.511
6.342 3.249 1.267
6.293 3.245 1.418
6.050 3.599 1.284
5.933 3.553 0.969
5.927 3.875 0.916
6.197 3.046 0.948
6.199 3.356 1.063
5.976 3.636 1.218
5.643 3.601 1.129
5.648 3.962 0.877
6.278 3.256 0.802
6.104 3.406 0.668
5.832 3.660 0.914
5.824 3.677 0.918
5.554 3.939 0.504
6.086 2.572 0.917
6.081 3.038 0.473
5.995 3.329 0.817
6.109 3.159 0.804
5.682 3.714 0.301
5.515 3.557 0.607
6.092 2.535 0.645
6.304 2.716 0.557
5.965 3.189 0.262
6.010 3.122 0.347
5.829 3.357 0.351
5.612 3.563 0.322
6.252 2.649 0.318
5.832 2.985 0.263
5.975 3.321 0.353
5.512 3.143 -0.059
5.638 3.343 -0.025
6.027 2.520 0.243
5.978 2.993 0.036
6.016 3.278 1.987
6.171 3.491 1.906
6.263 3.428 1.937
6.064 3.084 1.820
6.175 3.370 1.596
6.052 3.234 1.734
5.786 3.746 1.611
6.172 2.761 1.244
6.136 3.189 1.196
5.996 3.321 1.256
6.050 3.537 1.047
5.527 3.847 1.372
5.818 4.072 1.057
6.156 2.827 0.987
6.255 3.174 1.132
6.000 3.060 1.084
5.688 3.483 1.075
5.655 3.532 1.099
5.591 4.007 1.058
6.108 2.451 1.134
5.967 2.817 1.215
5.970 2.824 0.868
5.840 3.193 1.028
6.000 3.114 0.790
5.642 3.433 0.758
5.526 3.891 0.994
6.274 2.403 0.767
6.284 2.784 0.879
5.737 2.703 0.694
5.726 2.908 0.674
5.958 3.192 0.846
5.374 3.219 0.400
5.700 3.473 0.441
6.046 2.430 0.706
5.968 2.585 0.620
5.630 2.964 0.398
5.800 3.180 0.651
5.400 3.382 0.364
5.222 3.766 0.181
5.718 2.953 0.445
5.665 2.717 0.057
5.586 2.920 0.381
5.466 3.393 0.382
5.266 3.508 0.127
5.507 2.879 0.212
5.680 3.003 0.247
6.431 2.966 2.216
6.028 2.647 1.809
6.001 3.133 1.852
6.033 2.942 1.849
6.185 2.546 1.617
6.157 3.011 1.697
5.967 2.890 1.527
5.917 3.366 1.373
5.511 3.659 1.747
6.109 2.318 1.797
6.182 2.702 1.474
5.855 2.668 1.387
5.896 2.793 1.500
5.568 2.963 1.352
5.439 3.284 1.360
5.471 3.708 1.169
5.440 3.733 1.270
6.141 2.496 1.477
6.117 2.644 1.299
6.055 2.571 1.104
5.785 2.788 1.248
5.918 2.952 1.176
5.541 3.187 1.220
5.583 3.583 1.045
5.586 3.743 1.257
6.117 2.575 1.287
6.152 2.747 1.111
5.767 2.841 1.166
5.740 2.918 1.046
5.672 3.321 1.157
5.231 3.631 0.917
5.260 3.561 0.902
5.689 2.748 0.617
5.803 2.946 0.552
5.424 3.279 0.802
5.253 3.403 0.846
5.283 3.688 0.665
5.943 2.462 0.454
5.753 3.105 0.746
5.480 3.141 0.389
5.318 3.358 0.249
5.147 3.464 0.523
5.812 2.756 0.543
5.506 2.998 0.113
5.351 3.291 0.365
5.263 3.182 -0.008
5.613 2.818 0.207
5.082 2.915 0.004
5.331 3.270 -0.077
6.268 2.436 2.306
6.363 2.418 1.961
6.231 2.556 1.893
6.039 2.343 1.817
5.999 2.624 1.948
5.914 2.528 1.961
6.227 1.965 1.616
5.962 2.208 1.459
5.818 2.576 1.793
5.981 2.537 1.721
5.689 3.097 1.323
5.791 2.958 1.472
5.254 3.392 1.306
5.408 3.615 1.252
5.403 3.719 1.512
5.565 2.707 1.086
5.693 2.955 1.138
5.438 3.435 1.303
5.322 3.502 1.164
5.211 3.514 0.950
5.743 2.670 0.990
5.667 3.105 0.856
5.248 3.144 1.048
5.145 3.304 1.181
5.299 3.545 0.688
5.674 2.933 1.090
5.396 2.839 0.603
5.372 3.367 0.884
5.030 3.283 0.890
5.081 3.119 0.580
5.237 2.957 0.331
5.276 3.157 0.697
5.453 2.963 0.592
5.110 3.270 0.215
4.842 3.229 0.526
4.943 2.964 -0.083
3.813 6.109 2.033
4.127 6.138 1.533
4.235 5.837 1.535
3.707 6.114 1.577
3.836 6.251 1.293
3.983 5.879 1.256
3.963 5.682 1.379
3.910 5.868 1.260
3.647 6.148 1.090
4.092 5.465 1.222
3.732 5.604 0.898
4.034 5.729 1.163
3.741 6.266 0.912
4.132 5.348 0.777
4.099 5.535 0.877
4.001 5.817 0.826
3.657 5.974 0.985
3.637 5.898 0.874
3.423 6.366 0.857
5.144 4.013 1.412
4.853 3.909 1.216
5.017 3.983 0.955
4.737 4.177 1.128
4.847 4.563 0.875
4.420 4.919 0.916
4.216 4.812 0.944
4.462 5.316 1.149
4.189 5.536 0.943
5.091 3.874 1.267
5.087 3.872 1.260
5.037 4.220 1.042
4.737 4.279 0.953
4.397 4.380 1.026
4.557 4.824 0.884
4.131 5.087 0.686
4.374 5.041 0.864
4.912 3.772 0.837
5.050 3.812 0.742
4.892 3.950 0.982
4.794 4.179 0.650
4.640 4.305 0.633
4.650 4.437 0.871
4.523 4.702 0.624
4.135 4.865 0.675
4.933 3.675 0.460
4.649 3.795 0.618
4.860 3.790 0.359
4.766 4.009 0.361
4.291 4.512 0.627
4.581 4.423 0.378
4.332 4.457 0.272
4.845 3.496 0.299
5.067 3.819 0.368
4.555 3.872 0.333
4.582 4.074 0.481
4.482 4.150 0.358
4.263 4.599 0.276
4.904 3.295 0.304
5.031 3.455 0.105
4.604 3.743 0.300
4.337 3.912 0.197
4.552 4.318 0.272
4.303 4.445 0.182
4.681 3.336 -0.152
4.675 3.398 0.155
3.644 6.252 1.988
3.853 5.787 2.000
3.627 6.363 1.909
3.873 5.530 1.681
3.848 5.980 1.486
3.690 5.891 1.554
3.794 6.138 1.537
3.818 5.706 1.339
3.683 6.028 1.347
3.832 5.888 1.317
3.387 6.207 1.228
4.210 5.435 1.218
3.829 5.709 1.549
3.780 5.763 1.514
3.529 5.988 1.489
3.695 5.868 1.360
3.455 6.168 1.293
4.002 5.383 1.535
4.137 5.543 1.305
4.005 5.453 1.075
3.882 5.382 1.363
3.776 5.657 0.992
3.739 5.918 1.111
3.676 6.234 0.964
3.242 6.430 1.087
4.601 4.888 1.233
4.229 4.982 1.516
3.910 4.948 1.260
3.803 5.487 1.194
3.849 5.079 0.973
3.893 5.322 0.758
3.544 5.330 0.808
3.823 5.571 0.970
3.391 6.090 0.982
3.189 6.160 0.734
4.855 4.154 1.178
4.661 4.274 1.021
4.460 4.269 0.952
4.532 4.696 1.007
4.426 4.637 1.054
4.126 5.140 0.962
3.771 5.301 0.805
4.059 5.061 0.543
3.789 5.229 0.948
3.482 5.252 0.522
3.756 5.653 0.742
5.083 3.449 1.009
4.804 3.663 0.957
4.610 3.889 1.128
4.538 4.392 0.857
4.417 4.536 1.029
4.530 4.520 0.928
4.018 4.969 0.678
4.187 5.067 0.736
4.168 4.899 0.723
3.917 4.954 0.498
3.778 5.378 0.316
4.768 3.563 0.843
4.788 3.575 0.812
4.484 3.953 0.927
4.324 4.035 0.950
4.527 4.437 0.875
4.087 4.519 0.536
4.008 4.872 0.599
3.878 4.788 0.664
4.084 4.836 0.805
4.867 3.396 0.837
4.535 3.841 0.907
4.481 3.932 0.872
4.288 3.942 0.643
4.120 4.133 0.711
4.348 4.532 0.485
4.046 4.666 0.339
4.203 4.763 0.441
4.796 3.185 0.464
4.695 3.747 0.335
4.438 3.568 0.538
4.543 3.829 0.612
4.307 4.017 0.506
4.138 4.477 0.286
3.898 4.451 0.293
4.074 4.537 0.301
4.584 3.231 0.429
4.414 3.433 0.284
4.482 3.646 0.316
4.354 4.073 0.395
4.087 4.299 0.202
4.322 4.048 0.302
4.117 4.432 0.170
4.706 3.293 -0.038
4.671 3.301 0.020
4.498 3.593 -0.007
3.888 5.924 2.146
3.692 5.950 2.018
3.882 5.765 2.118
3.652 5.712 2.000
3.428 6.071 1.799
3.522 6.067 2.050
3.925 5.459 2.070
3.883 5.698 2.015
3.757 5.693 1.859
3.463 5.836 1.742
3.417 6.078 1.485
3.920 5.571 1.749
3.862 5.409 1.600
3.893 5.620 1.671
3.545 5.707 1.707
3.438 6.112 1.537
3.525 5.844 1.262
3.137 6.137 1.613
4.243 5.026 1.939
4.115 5.473 1.821
3.796 5.212 1.675
3.580 5.383 1.581
3.861 5.426 1.370
3.326 5.979 1.423
3.267 5.766 1.221
3.197 6.092 1.068
4.255 5.105 1.502
3.966 5.144 1.641
3.960 5.358 1.332
4.000 5.225 1.311
3.682 5.265 1.342
3.657 5.759 1.254
3.385 5.693 0.910
3.315 6.013 1.182
3.437 5.977 0.877
3.103 6.051 0.751
4.078 4.588 1.508
4.056 5.011 1.382
3.864 4.980 1.398
3.714 4.991 1.397
3.668 4.938 0.934
3.574 5.128 1.080
3.348 5.515 1.185
3.661 5.790 0.720
3.086 5.809 1.043
3.080 5.949 0.705
3.290 6.418 0.602
4.553 4.144 1.540
4.407 4.012 1.110
4.341 4.499 1.485
4.151 4.408 1.124
3.828 4.657 1.090
3.802 5.052 1.330
3.785 5.070 0.901
3.717 5.195 0.696
3.467 5.172 0.858
3.739 5.554 0.924
3.288 5.627 0.492
4.752 3.572 1.112
4.735 3.744 1.021
4.422 4.096 1.257
4.540 4.317 1.126
4.107 4.204 1.175
3.893 4.294 0.991
3.846 4.611 0.910
3.705 4.667 0.888
3.676 4.984 0.865
3.746 4.824 0.785
3.457 4.992 0.582
3.526 5.357 0.596
4.797 3.391 0.849
4.595 3.630 1.105
4.415 3.717 0.953
4.459 4.044 0.929
4.300 4.391 0.768
4.176 4.452 0.951
3.964 4.446 0.871
3.644 4.796 0.538
3.574 4.913 0.747
3.612 4.837 0.405
3.470 4.914 0.307
4.607 3.307 0.707
4.478 3.497 0.746
4.442 3.848 0.705
4.065 3.953 0.773
4.135 4.301 0.531
4.088 4.233 0.758
3.929 4.320 0.631
3.891 4.812 0.477
3.673 4.767 0.580
3.468 4.997 0.255
4.383 3.486 0.390
4.251 3.575 0.745
4.546 3.875 0.646
4.097 4.057 0.330
4.189 4.096 0.227
3.997 4.331 0.418
3.842 4.252 0.466
3.832 4.625 0.124
3.422 4.828 0.344
4.777 3.421 0.570
4.318 3.397 0.439
4.331 3.833 0.121
4.326 3.658 0.102
4.017 3.856 0.360
3.942 4.308 0.133
3.748 4.460 -0.093
3.924 4.644 0.212
4.461 3.204 0.390
4.250 3.173 0.307
4.297 3.598 0.093
4.043 3.547 -0.169
3.795 3.680 -0.087
3.721 5.889 2.585
3.726 6.168 2.311
3.624 5.558 2.194
3.662 5.828 2.433
3.295 6.144 2.270
3.213 6.223 2.048
3.531 5.561 2.314
3.445 5.968 2.294
3.340 5.851 2.031
3.390 5.997 2.083
4.004 5.452 1.961
3.715 5.481 2.092
3.356 5.796 2.092
3.215 5.807 1.665
3.418 5.977 1.836
3.198 6.159 1.601
3.702 5.141 1.996
3.773 5.321 1.653
3.575 5.301 1.511
3.470 5.475 1.730
3.382 5.844 1.571
3.484 5.784 1.735
3.187 6.287 1.493
3.893 5.105 2.017
3.671 5.245 1.838
3.566 5.110 1.444
3.796 5.511 1.559
3.680 5.525 1.329
3.182 5.927 1.482
3.338 5.804 1.419
3.313 5.903 1.282
2.888 6.063 1.281
3.958 4.949 1.650
3.993 4.822 1.375
3.866 5.199 1.394
3.883 4.997 1.210
3.743 5.460 1.261
3.445 5.630 1.014
3.427 5.606 1.213
3.120 5.914 1.014
3.015 6.229 0.998
3.118 5.947 0.992
3.809 4.734 1.350
3.743 4.650 1.445
3.929 4.820 1.503
3.439 4.882 1.414
3.544 5.171 1.178
3.583 5.179 1.066
3.557 5.250 0.843
3.379 5.321 0.892
3.233 5.628 0.995
3.163 5.968 0.732
4.053 4.091 1.367
3.887 4.409 1.136
4.046 4.662 1.495
3.885 4.412 1.230
3.929 4.917 1.177
3.542 4.823 1.030
3.401 4.972 0.695
3.570 5.315 0.990
3.236 5.142 0.834
3.376 5.618 0.684
4.220 3.874 1.037
4.007 4.207 1.308
3.824 4.097 1.226
