0.825 5.019 3.190
0.687 4.943 3.279
0.464 4.696 3.407
1.265 5.597 3.151
1.241 5.675 2.919
1.136 5.408 3.005
0.838 5.244 2.911
0.814 4.927 2.992
0.769 4.945 3.070
1.095 5.661 2.884
1.243 5.516 2.574
1.111 5.339 2.755
0.961 5.271 2.812
1.285 5.465 2.594
1.085 5.557 2.309
1.056 5.186 2.570
1.241 5.575 2.427
1.119 5.489 2.372
1.177 5.490 2.087
1.370 5.704 2.121
1.308 5.558 2.102
1.214 5.342 2.136
1.087 5.372 1.959
1.774 5.949 1.747
1.589 5.834 1.762
1.508 5.635 1.950
1.251 5.438 1.889
1.139 5.393 1.963
1.292 5.273 1.670
1.808 6.189 1.517
1.706 6.019 1.551
1.557 5.775 1.667
1.505 5.617 1.690
1.264 5.576 1.787
1.191 5.246 1.846
1.277 5.298 1.530
1.932 6.124 1.401
1.640 5.911 1.345
1.553 5.777 1.311
1.362 5.512 1.476
1.274 5.488 1.530
1.075 5.184 1.549
1.267 5.190 1.235
1.891 6.177 1.011
1.915 6.015 1.168
1.614 5.978 1.180
1.520 5.813 1.121
1.467 5.586 1.133
1.379 5.434 1.329
1.242 5.130 1.407
1.273 5.132 1.113
1.996 6.135 0.778
1.749 5.985 0.970
1.613 5.776 0.859
1.488 5.715 0.875
1.436 5.466 1.094
1.374 5.349 0.952
1.146 5.056 1.118
1.133 5.113 0.974
1.984 6.088 0.557
1.805 5.964 0.726
1.720 5.895 0.768
1.471 5.588 0.726
1.354 5.424 0.764
1.230 5.233 0.875
1.147 5.051 0.945
1.099 5.119 0.656
2.133 6.365 0.420
1.956 6.106 0.430
1.846 5.844 0.401
1.580 5.690 0.439
1.620 5.464 0.574
1.492 5.445 0.497
1.410 5.272 0.600
1.186 5.108 0.612
1.072 4.946 0.351
2.045 5.957 0.210
1.772 5.787 0.137
1.781 5.607 0.210
1.615 5.494 0.369
1.330 5.268 0.372
1.228 5.055 0.414
1.218 4.917 0.345
1.132 4.992 0.180
1.823 5.747 -0.082
1.757 5.717 -0.049
1.461 5.458 0.015
1.383 5.285 0.254
1.259 5.013 0.133
1.213 4.947 0.328
1.156 4.851 -0.020
1.079 4.875 0.053
1.226 5.976 4.728
1.117 5.910 4.905
1.002 5.681 4.875
0.757 5.522 4.868
0.787 5.258 5.013
0.638 5.159 5.027
1.290 6.054 4.913
1.147 6.031 4.636
1.032 5.724 4.670
0.905 5.752 4.585
0.777 5.540 4.664
0.626 5.198 4.819
0.626 5.178 4.796
0.474 4.987 4.766
1.311 6.005 4.532
1.190 5.972 4.424
1.056 5.710 4.460
0.955 5.483 4.470
0.779 5.352 4.421
0.602 5.229 4.574
0.593 5.074 4.595
0.352 4.928 4.691
1.310 6.050 4.384
1.115 5.891 4.143
1.038 5.775 4.314
0.942 5.539 4.295
0.907 5.459 4.385
0.594 5.117 4.432
0.568 4.904 4.420
0.503 4.941 4.428
0.303 4.665 4.563
1.259 5.954 4.151
1.252 5.898 3.843
1.079 5.739 3.937
0.939 5.391 3.985
0.875 5.244 4.128
0.797 5.169 4.027
0.485 4.855 4.255
0.450 4.745 4.306
0.333 4.605 4.202
1.320 5.936 3.908
1.389 5.724 3.935
1.343 5.430 4.032
1.183 5.425 4.037
1.040 5.283 4.137
0.821 5.013 4.245
0.741 4.795 4.255
0.668 4.684 4.273
0.535 4.473 4.187
1.366 5.664 4.067
1.354 5.419 3.744
1.170 5.225 3.871
1.034 5.224 3.887
0.961 4.872 4.020
0.755 4.730 3.947
0.614 4.587 3.992
1.364 5.523 3.545
1.050 5.332 3.652
0.887 5.169 3.615
0.950 4.982 3.750
0.796 4.799 3.825
0.560 4.438 3.829
1.230 5.460 3.403
1.159 5.194 3.387
1.003 4.933 3.554
0.962 4.793 3.416
0.672 4.580 3.596
1.196 5.220 3.125
1.068 4.856 3.212
1.661 5.602 1.651
1.697 5.589 1.664
2.113 6.101 1.325
1.956 5.830 1.433
1.823 5.660 1.437
1.606 5.433 1.415
1.437 5.381 1.550
2.112 6.019 1.103
2.045 5.840 1.143
1.842 5.785 1.167
1.702 5.638 1.258
1.679 5.391 1.242
1.520 5.143 1.404
2.150 6.014 0.787
1.966 5.952 0.932
1.799 5.732 0.944
1.666 5.573 0.909
1.539 5.284 1.123
1.497 5.198 1.147
1.427 5.029 0.976
2.371 6.230 0.540
2.053 5.906 0.638
1.964 5.935 0.603
1.925 5.558 0.773
1.635 5.431 0.734
1.505 5.232 0.917
1.533 5.091 0.781
1.405 4.891 0.811
1.396 4.788 0.740
2.182 6.063 0.367
2.232 5.842 0.323
2.109 5.826 0.476
1.877 5.697 0.587
1.710 5.404 0.484
1.701 5.301 0.645
1.489 5.063 0.606
1.370 4.792 0.778
1.325 4.896 0.381
2.234 6.079 0.210
2.141 5.833 0.290
2.028 5.802 0.160
1.899 5.581 0.285
1.661 5.352 0.417
1.576 5.149 0.330
1.390 4.920 0.542
1.397 4.846 0.399
1.400 4.818 0.237
2.079 5.628 0.129
1.921 5.585 0.013
1.826 5.364 0.071
1.591 5.204 0.129
1.491 4.874 0.247
1.353 4.729 0.180
1.399 4.741 0.092
1.136 4.609 0.114
1.396 4.919 0.063
1.414 4.821 0.105
1.487 5.931 4.771
1.370 5.770 4.905
1.120 5.587 4.950
0.941 5.386 5.064
0.993 5.246 4.947
0.659 5.056 4.991
0.703 4.775 5.052
1.522 6.157 4.754
1.421 6.010 4.892
1.369 5.927 4.612
1.372 5.584 4.577
1.249 5.552 4.760
1.054 5.433 4.745
0.772 5.133 4.757
0.652 4.964 4.758
0.640 4.883 4.912
1.425 5.780 4.566
1.472 5.727 4.337
1.218 5.611 4.501
1.067 5.559 4.395
0.915 5.373 4.473
0.873 5.100 4.621
0.703 5.027 4.575
0.648 4.792 4.764
0.431 4.510 4.625
1.413 5.782 4.435
1.347 5.738 4.205
1.338 5.542 4.340
1.169 5.305 4.191
1.056 5.130 4.354
0.972 5.064 4.449
0.645 4.898 4.365
0.612 4.714 4.355
0.586 4.553 4.513
1.472 5.854 4.204
1.372 5.744 3.868
1.344 5.437 4.081
1.219 5.354 4.055
0.965 5.187 4.205
0.788 5.116 4.181
0.772 4.768 4.141
0.672 4.621 4.143
0.487 4.544 4.355
1.308 5.655 3.870
1.347 5.515 3.972
1.340 5.237 4.005
1.168 5.100 4.164
0.980 4.853 4.264
0.829 4.667 4.183
0.695 4.480 4.310
0.661 4.262 4.261
1.418 5.288 3.866
1.211 5.193 3.878
1.132 5.108 3.952
1.021 4.757 4.011
0.968 4.551 3.905
0.708 4.455 3.962
1.295 5.033 3.677
1.274 4.911 3.667
1.142 4.860 3.782
0.902 4.682 3.787
2.271 5.832 1.176
1.994 5.539 1.095
1.895 5.411 1.206
1.817 5.346 1.191
2.256 5.968 0.864
2.088 5.708 0.836
1.966 5.658 0.914
1.914 5.512 1.086
1.835 5.162 0.968
1.573 5.026 1.160
2.486 6.056 0.701
2.226 5.912 0.569
2.098 5.780 0.733
2.046 5.624 0.727
1.929 5.460 0.913
1.748 5.084 0.798
1.704 4.934 0.977
1.512 4.846 0.833
2.492 6.061 0.318
2.420 5.727 0.494
2.122 5.732 0.424
2.142 5.541 0.536
1.889 5.291 0.611
1.886 5.133 0.586
1.718 4.972 0.638
1.580 4.810 0.638
1.510 4.732 0.524
2.389 5.844 0.188
2.265 5.778 0.204
2.236 5.668 0.326
2.080 5.335 0.227
1.857 5.354 0.346
1.851 5.004 0.513
1.715 4.929 0.373
1.559 4.671 0.469
1.465 4.641 0.396
1.489 4.403 0.451
2.352 5.766 0.041
2.262 5.517 0.173
1.941 5.315 0.029
1.997 5.126 0.151
1.783 4.974 0.202
1.682 4.882 0.284
1.635 4.709 0.302
1.522 4.633 0.024
1.453 4.406 0.090
1.626 4.739 0.141
1.547 4.700 -0.003
1.519 5.738 4.821
1.391 5.719 4.831
1.256 5.540 4.946
1.090 5.159 4.905
0.994 5.041 5.088
0.830 4.864 5.031
0.753 4.630 5.139
0.633 4.633 5.245
1.666 6.086 4.760
1.645 5.795 4.914
1.529 5.652 4.650
1.444 5.648 4.734
1.331 5.459 4.666
1.147 5.148 4.852
1.005 5.084 4.924
0.828 4.922 4.925
0.808 4.610 4.942
0.566 4.500 4.884
1.753 5.950 4.533
1.534 5.825 4.551
1.524 5.726 4.443
1.472 5.490 4.559
1.234 5.403 4.633
1.296 5.243 4.633
1.131 5.080 4.562
0.962 4.740 4.631
0.909 4.679 4.694
0.682 4.424 4.748
1.680 5.714 4.508
1.528 5.727 4.299
1.444 5.347 4.369
1.335 5.311 4.319
1.291 5.198 4.440
1.114 5.033 4.444
0.907 4.855 4.411
0.698 4.552 4.554
0.605 4.483 4.537
1.660 5.671 4.239
1.443 5.325 4.091
1.382 5.215 4.056
1.262 5.024 4.181
1.091 4.950 4.187
0.952 4.765 4.268
0.889 4.482 4.228
0.561 4.353 4.374
1.560 5.269 3.986
1.482 5.125 4.180
1.320 4.939 4.094
1.139 4.848 4.206
1.193 4.617 4.366
0.967 4.472 4.272
0.741 4.252 4.353
1.572 5.083 3.822
1.331 4.888 4.014
1.303 4.737 4.006
1.200 4.428 4.115
0.864 4.371 4.102
2.609 5.836 0.867
2.367 5.552 1.015
2.213 5.391 1.063
2.219 5.360 1.103
1.882 5.109 1.008
2.579 6.035 0.672
2.568 5.676 0.742
2.475 5.542 0.859
2.306 5.423 0.745
2.171 5.202 0.766
2.000 4.941 0.794
1.822 4.948 0.839
2.618 5.982 0.389
2.461 5.622 0.437
2.295 5.411 0.516
2.140 5.244 0.500
2.058 5.173 0.643
2.041 4.977 0.741
1.922 4.717 0.646
1.664 4.636 0.550
2.524 5.859 0.312
2.568 5.628 0.227
2.427 5.449 0.349
2.130 5.363 0.374
2.098 5.120 0.509
1.872 5.030 0.402
1.848 4.853 0.584
1.669 4.532 0.624
1.598 4.428 0.362
1.540 4.255 0.308
2.736 5.719 0.079
2.537 5.545 0.057
2.398 5.374 0.195
2.176 5.243 0.256
2.071 4.987 0.286
1.864 4.893 0.246
1.932 4.687 0.289
1.679 4.454 0.235
1.766 4.434 0.060
1.529 4.237 0.140
1.961 4.760 -0.051
1.896 4.552 -0.036
1.593 4.435 0.129
1.712 5.763 4.966
1.566 5.510 4.854
1.555 5.254 5.046
1.313 5.213 4.990
1.341 5.059 5.115
1.054 4.801 5.166
1.012 4.565 5.139
0.934 4.361 5.121
1.872 5.745 4.853
1.748 5.712 4.975
1.758 5.549 4.576
1.747 5.547 4.665
1.501 5.343 4.673
1.426 5.112 4.748
1.221 4.997 4.948
1.087 4.785 4.999
1.025 4.569 4.903
0.792 4.373 4.953
0.806 4.121 5.072
1.812 5.824 4.691
1.843 5.529 4.714
1.837 5.505 4.568
1.690 5.482 4.537
1.539 5.135 4.465
1.416 5.107 4.700
1.147 4.806 4.543
1.193 4.624 4.608
0.970 4.533 4.815
0.879 4.272 4.752
0.690 4.191 4.915
1.874 5.642 4.530
1.692 5.242 4.224
1.412 5.162 4.292
1.297 5.054 4.446
1.167 4.782 4.405
1.131 4.538 4.449
1.040 4.466 4.628
0.936 4.246 4.495
1.603 5.270 4.090
1.469 5.099 4.043
1.317 4.843 4.144
1.262 4.848 4.255
1.075 4.658 4.212
0.874 4.378 4.326
0.905 4.296 4.283
1.632 4.932 4.143
1.456 4.791 4.121
1.475 4.668 4.167
1.201 4.340 4.380
1.163 4.187 4.226
0.990 4.124 4.402
1.320 4.466 3.924
1.394 4.377 4.082
2.621 5.416 1.061
2.330 5.387 1.128
2.715 5.698 0.737
2.746 5.673 0.823
2.503 5.408 0.712
2.500 5.189 0.787
2.332 5.133 0.879
2.081 4.912 0.916
2.841 5.663 0.583
2.609 5.639 0.511
2.475 5.373 0.638
2.418 5.290 0.647
2.292 5.029 0.591
2.210 4.771 0.709
1.939 4.672 0.673
1.932 4.389 0.666
2.918 5.617 0.227
2.701 5.574 0.238
2.533 5.431 0.331
2.439 5.238 0.315
2.260 4.965 0.385
2.182 4.722 0.378
2.110 4.567 0.574
1.931 4.438 0.588
1.905 4.472 0.458
2.859 5.607 -0.017
2.619 5.452 0.111
2.556 5.189 0.234
2.427 5.221 0.228
2.316 4.975 0.138
2.260 4.744 0.368
2.013 4.590 0.329
1.799 4.485 0.411
1.913 4.259 0.107
1.768 4.148 0.195
2.179 4.775 -0.055
2.225 4.695 -0.047
2.048 4.565 0.001
1.860 4.330 0.052
1.711 3.841 0.051
2.010 5.554 4.923
1.872 5.272 4.920
1.748 5.206 5.086
1.542 5.080 5.096
1.487 4.919 5.178
1.331 4.658 5.160
1.062 4.519 5.113
0.961 4.374 5.279
0.993 4.230 5.219
2.169 5.710 4.933
1.958 5.533 4.834
1.949 5.390 4.738
1.861 5.221 4.769
1.638 5.148 4.826
1.574 4.989 4.776
1.538 4.770 4.955
1.251 4.643 4.912
1.057 4.522 5.053
0.993 4.145 4.934
0.840 4.188 5.005
1.876 5.462 4.687
1.959 5.486 4.394
1.760 5.249 4.510
1.680 5.008 4.682
1.602 4.848 4.572
1.464 4.739 4.758
1.317 4.659 4.706
1.071 4.387 4.782
1.040 4.129 4.828
0.946 4.051 4.813
1.968 5.538 4.419
1.888 5.125 4.429
1.710 5.011 4.396
1.570 4.774 4.379
1.345 4.752 4.406
1.321 4.453 4.597
1.245 4.379 4.450
0.931 4.109 4.588
0.829 3.902 4.570
1.713 4.942 4.126
1.483 4.808 4.162
1.454 4.612 4.245
1.390 4.376 4.374
1.184 4.324 4.399
0.987 4.191 4.281
1.722 4.625 4.278
1.639 4.550 4.340
1.554 4.301 4.357
1.403 4.088 4.369
1.244 3.863 4.489
3.058 5.704 0.709
2.957 5.526 0.691
2.655 5.241 0.855
2.575 5.036 0.750
2.562 4.858 0.989
2.967 5.721 0.570
2.785 5.503 0.483
2.713 5.244 0.536
2.636 5.201 0.647
2.454 4.927 0.623
2.297 4.643 0.722
3.016 5.545 0.259
2.770 5.381 0.257
2.719 5.277 0.390
2.586 5.144 0.385
2.543 4.913 0.558
2.235 4.702 0.399
2.159 4.432 0.618
2.080 4.180 0.305
3.033 5.564 0.154
2.916 5.227 0.088
2.749 5.187 0.190
2.674 4.880 0.132
2.562 4.794 0.233
2.283 4.687 0.370
2.106 4.342 0.321
2.138 4.335 0.474
2.152 4.183 0.118
1.916 4.025 0.274
2.528 4.792 0.059
2.434 4.545 0.101
2.241 4.470 0.217
2.079 4.178 0.094
1.810 3.920 0.069
2.217 5.456 4.959
1.930 5.340 4.909
1.899 4.984 4.970
1.674 4.939 5.117
1.673 4.674 5.097
1.554 4.634 5.292
1.410 4.428 5.167
1.302 4.163 5.244
1.039 3.948 5.216
0.872 3.797 5.352
2.256 5.587 4.944
2.202 5.339 4.854
2.204 5.322 4.705
2.002 5.263 4.809
1.838 5.097 4.857
1.774 4.830 4.882
1.556 4.759 4.911
1.419 4.476 5.029
1.347 4.278 4.987
1.328 4.035 5.026
0.998 3.889 5.137
1.065 3.756 5.062
2.102 5.362 4.683
2.042 5.050 4.456
1.839 5.037 4.539
1.684 4.841 4.702
1.547 4.506 4.805
1.579 4.398 4.702
1.378 4.252 4.767
1.239 4.159 4.912
1.071 3.907 4.938
0.947 3.804 4.868
1.770 4.829 4.451
1.832 4.655 4.472
1.612 4.535 4.598
1.410 4.356 4.467
1.426 4.243 4.688
1.098 3.944 4.657
1.002 3.836 4.644
1.730 4.615 4.279
1.692 4.495 4.282
1.393 4.252 4.236
1.336 4.189 4.341
1.104 4.020 4.482
1.638 4.200 4.361
1.507 4.121 4.403
1.283 3.924 4.338
3.222 5.489 0.672
3.042 5.361 0.709
2.826 5.286 0.897
3.162 5.541 0.453
3.024 5.248 0.643
2.975 5.239 0.574
2.834 4.922 0.744
2.737 4.782 0.682
3.185 5.373 0.298
2.985 5.247 0.338
2.818 5.193 0.434
2.694 4.811 0.395
2.540 4.788 0.461
2.603 4.454 0.649
3.200 5.458 0.172
3.115 5.188 0.145
3.005 4.927 0.277
2.695 4.786 0.168
2.750 4.642 0.181
2.494 4.467 0.388
2.343 4.363 0.337
2.151 4.116 0.183
0.088 1.044 1.078
2.777 4.864 -0.087
2.724 4.683 0.121
2.408 4.374 0.125
2.349 4.341 0.171
2.153 4.150 0.139
2.196 3.917 -0.079
0.101 0.978 0.769
2.416 5.315 4.899
2.148 5.025 5.035
2.122 4.974 5.054
1.828 4.708 5.185
1.683 4.610 5.255
1.628 4.334 5.129
1.587 4.155 5.331
1.326 4.099 5.360
1.172 3.878 5.336
1.144 3.655 5.361
1.100 3.576 5.481
0.876 3.417 5.582
2.289 5.302 5.070
2.157 5.132 4.709
2.007 4.880 4.878
1.864 4.633 4.843
1.896 4.632 5.005
1.631 4.288 5.043
1.584 4.064 5.151
1.398 4.052 5.115
1.342 3.770 5.024
1.057 3.699 5.223
1.060 3.461 5.291
2.115 4.775 4.742
1.937 4.584 4.611
1.774 4.373 4.680
1.595 4.308 4.802
1.462 4.190 4.860
1.418 4.010 4.952
1.158 3.750 5.004
1.045 3.557 4.882
1.051 3.462 5.020
1.882 4.687 4.470
1.673 4.530 4.574
1.549 4.145 4.453
1.565 4.168 4.579
1.373 3.792 4.641
1.340 3.694 4.661
1.131 3.509 4.657
1.736 4.112 4.452
1.555 4.041 4.342
1.419 3.923 4.385
1.743 3.821 4.487
1.653 3.800 4.544
1.401 3.497 4.510
3.294 5.515 0.777
3.303 5.301 0.869
0.148 0.998 1.782
3.405 5.421 0.632
3.213 5.268 0.509
3.190 5.095 0.593
3.033 4.908 0.761
0.303 1.181 1.413
0.172 0.915 1.483
3.342 5.262 0.344
3.199 5.218 0.475
3.159 4.887 0.499
3.048 4.712 0.383
2.856 4.514 0.635
0.234 1.278 1.277
0.194 1.030 1.121
0.055 0.945 1.295
3.317 5.230 0.187
3.150 4.986 0.271
3.156 4.981 0.239
3.050 4.703 0.231
2.753 4.535 0.308
2.600 4.425 0.251
0.344 1.186 1.068
0.239 1.031 1.010
0.163 0.741 1.001
2.927 4.739 0.086
2.910 4.385 0.079
2.639 4.400 0.149
0.423 1.345 0.595
0.403 1.151 0.755
0.193 0.922 0.811
-0.025 0.810 0.937
0.579 1.490 0.523
0.476 1.304 0.430
0.353 0.995 0.578
0.242 0.753 0.599
-0.036 0.720 0.614
1.196 2.126 0.032
0.880 1.892 0.020
0.923 1.696 0.214
0.678 1.423 0.097
0.540 1.264 0.214
0.390 1.112 0.297
0.285 0.911 0.409
0.194 0.722 0.309
-0.018 0.651 0.403
2.184 4.813 5.092
2.084 4.685 5.180
1.949 4.562 5.171
1.922 4.333 5.223
1.754 4.184 5.245
1.610 3.883 5.311
1.382 3.690 5.374
1.353 3.474 5.371
1.114 3.381 5.491
1.130 3.303 5.428
0.834 2.981 5.642
2.272 4.859 4.938
2.015 4.543 4.872
1.973 4.403 4.983
1.802 4.263 5.074
1.787 3.960 5.056
1.642 3.914 5.124
1.495 3.722 5.243
1.394 3.587 5.262
1.090 3.254 5.237
1.044 3.221 5.270
0.906 3.075 5.412
2.049 4.582 4.780
2.014 4.314 4.799
1.932 4.277 4.839
1.635 3.992 4.749
1.647 3.902 4.814
1.556 3.548 4.854
1.373 3.465 5.094
1.291 3.300 4.932
0.953 3.169 5.189
1.961 4.358 4.504
1.749 4.127 4.672
1.735 3.965 4.665
1.464 3.766 4.593
1.536 3.496 4.683
1.266 3.502 4.782
1.108 3.294 4.891
1.636 3.809 4.349
1.515 3.641 4.383
1.478 3.625 4.472
1.710 3.530 4.393
1.645 3.336 4.483
1.544 3.155 4.569
0.132 0.661 1.947
0.053 0.572 1.996
3.616 5.188 0.755
0.291 0.999 1.624
0.291 0.896 1.663
0.092 0.749 1.732
0.060 0.562 1.715
3.570 5.219 0.634
3.480 5.069 0.727
3.255 4.891 0.606
0.468 1.211 1.389
0.324 1.016 1.498
0.370 0.878 1.484
0.095 0.531 1.586
3.455 5.149 0.291
3.356 5.063 0.328
3.236 4.745 0.553
3.255 4.712 0.479
0.669 1.189 1.113
0.411 1.180 1.103
0.450 0.879 1.284
0.286 0.688 1.235
0.171 0.448 1.420
3.616 5.227 0.135
3.396 4.995 0.294
3.213 4.673 0.237
3.246 4.681 0.204
0.827 1.366 0.823
0.553 1.304 0.928
0.521 1.002 0.944
0.468 0.849 0.976
0.158 0.655 1.053
0.056 0.572 1.225
3.198 4.690 -0.068
3.124 4.469 -0.032
3.036 4.267 0.214
0.873 1.587 0.525
0.771 1.252 0.594
0.703 1.191 0.811
0.607 0.966 0.858
0.476 0.719 0.788
0.346 0.566 0.872
0.159 0.447 0.998
1.096 1.730 0.318
1.105 1.604 0.378
1.014 1.342 0.492
0.872 1.194 0.427
0.715 1.151 0.600
0.545 0.862 0.554
0.363 0.752 0.708
0.257 0.627 0.610
0.129 0.308 0.756
1.342 2.161 -0.041
1.192 1.889 -0.029
1.260 1.726 0.059
0.936 1.579 0.136
0.856 1.492 0.291
0.843 1.286 0.303
0.569 1.100 0.301
0.581 0.874 0.302
0.475 0.728 0.408
0.349 0.438 0.368
0.096 0.284 0.539
0.809 1.141 -0.072
0.598 0.905 0.053
0.588 0.753 0.113
0.362 0.720 0.165
2.372 4.592 5.107
2.171 4.250 5.238
1.996 4.069 5.306
1.808 3.944 5.277
1.842 3.729 5.319
1.695 3.654 5.445
1.444 3.332 5.353
1.421 3.229 5.536
1.232 3.075 5.646
1.144 3.019 5.501
0.884 2.788 5.732
0.958 2.618 5.712
2.061 4.214 4.907
1.915 4.027 5.112
1.874 3.888 5.205
1.803 3.748 5.258
1.556 3.553 5.233
1.553 3.287 5.286
1.383 3.317 5.253
1.234 2.955 5.425
1.027 2.813 5.265
0.961 2.703 5.348
2.138 4.238 4.805
1.920 4.027 4.927
1.974 3.908 4.783
1.743 3.581 4.930
1.517 3.418 4.968
1.537 3.306 4.972
1.452 3.103 5.131
1.227 2.935 5.045
1.025 2.849 5.147
2.043 3.880 4.595
1.986 3.849 4.572
1.865 3.611 4.662
1.603 3.362 4.722
1.438 3.257 4.777
1.445 3.014 4.877
1.153 2.936 4.855
1.863 3.540 4.580
1.574 3.507 4.487
1.558 3.332 4.554
6.283 4.336 2.678
6.158 4.088 2.720
6.096 4.215 2.360
6.161 4.140 2.380
6.233 4.327 2.078
6.014 4.038 2.198
6.150 4.202 1.952
6.068 4.065 1.969
6.221 4.247 1.794
5.952 3.950 1.780
6.211 4.043 1.491
5.989 3.922 1.474
6.156 3.950 1.321
6.146 3.967 1.372
6.081 3.817 1.073
6.282 3.942 2.551
6.180 3.913 2.236
6.323 3.943 2.048
6.140 3.776 1.819
6.330 3.736 1.660
6.194 3.677 1.486
4.351 5.923 0.657
4.164 5.724 0.614
3.918 5.416 0.764
3.816 5.339 0.701
4.352 6.018 0.306
4.302 5.780 0.421
4.212 5.627 0.544
3.957 5.412 0.603
3.926 5.307 0.559
4.571 6.097 0.096
4.456 6.023 0.218
4.189 5.664 0.165
4.144 5.679 0.228
3.950 5.418 0.302
3.748 5.218 0.388
4.145 5.416 0.100
3.934 5.342 0.088
3.749 5.279 0.050
4.384 5.657 1.012
4.148 5.422 0.912
4.621 5.988 0.616
4.528 5.634 0.602
4.263 5.628 0.624
4.198 5.390 0.691
3.934 5.189 0.850
4.696 6.075 0.268
4.613 5.781 0.441
4.332 5.626 0.517
4.266 5.521 0.439
4.212 5.248 0.528
3.984 5.158 0.708
4.727 6.078 0.053
4.695 6.090 0.223
4.495 5.773 0.250
4.490 5.667 0.222
4.315 5.544 0.214
4.091 5.225 0.290
3.924 5.102 0.417
4.354 5.481 0.037
4.343 5.484 0.079
4.185 5.311 0.020
4.034 5.159 0.195
4.861 5.729 0.914
4.558 5.618 0.912
4.478 5.548 0.909
4.355 5.343 1.101
4.325 5.235 1.153
4.844 6.064 0.680
4.773 5.894 0.580
4.538 5.498 0.783
4.395 5.331 0.845
4.276 5.248 0.847
4.237 5.157 0.838
4.800 6.018 0.400
4.821 5.832 0.520
4.703 5.533 0.519
4.387 5.276 0.550
4.274 5.313 0.600
4.319 5.014 0.567
5.109 6.040 0.055
4.780 5.862 0.195
4.681 5.664 0.263
4.722 5.568 0.370
4.476 5.304 0.308
4.240 5.258 0.473
4.159 4.898 0.301
4.629 5.687 0.041
4.608 5.535 0.165
4.475 5.353 0.018
4.315 5.001 0.201
4.321 4.893 0.208
4.911 5.686 1.186
4.751 5.480 1.098
4.702 5.382 1.317
4.550 5.226 1.359
5.008 5.891 0.777
4.860 5.802 0.983
4.905 5.514 0.886
4.570 5.415 1.090
4.503 5.241 0.947
4.480 4.953 1.049
5.116 5.767 0.744
4.929 5.661 0.662
4.836 5.511 0.675
4.764 5.369 0.735
4.443 5.051 0.867
4.472 4.872 0.801
5.105 6.052 0.449
5.099 5.679 0.502
4.968 5.544 0.535
4.828 5.383 0.632
4.642 5.269 0.576
4.502 5.039 0.697
4.398 4.876 0.622
5.201 5.969 0.205
4.956 5.734 0.212
4.832 5.490 0.261
4.745 5.467 0.290
4.660 5.116 0.366
4.570 5.076 0.350
4.455 4.907 0.402
4.987 5.500 -0.031
4.691 5.354 0.041
4.697 5.193 0.185
4.516 5.043 0.125
4.326 4.693 0.308
4.424 4.792 0.003
5.126 5.690 1.560
5.024 5.651 1.680
5.341 5.814 1.334
5.124 5.752 1.438
4.929 5.592 1.355
4.938 5.317 1.396
4.703 5.121 1.411
5.165 5.882 1.140
5.187 5.623 1.151
4.891 5.360 1.231
4.765 5.337 1.305
4.741 5.153 1.367
4.701 4.991 1.311
5.284 5.762 0.870
5.102 5.550 1.032
5.047 5.366 0.892
4.863 5.179 1.063
4.802 5.000 1.157
4.628 4.853 1.013
5.267 5.830 0.660
5.175 5.602 0.639
5.128 5.605 0.815
4.901 5.456 0.803
4.785 5.225 0.767
4.632 4.913 0.800
4.645 4.817 0.908
5.260 5.833 0.469
5.338 5.720 0.523
5.218 5.511 0.518
4.971 5.377 0.658
4.756 5.075 0.503
4.619 4.973 0.745
4.555 4.833 0.642
5.467 5.814 0.254
5.209 5.601 0.265
5.098 5.448 0.374
4.954 5.331 0.429
4.738 4.984 0.286
4.814 4.830 0.322
4.625 4.819 0.529
5.135 5.648 0.094
5.059 5.400 0.075
4.904 5.159 0.137
4.864 5.024 0.087
4.662 4.819 0.150
4.683 4.755 0.166
4.654 4.677 0.050
5.625 6.305 2.642
5.514 6.284 2.491
5.633 6.057 2.115
5.469 5.896 2.311
5.503 6.120 1.961
5.442 5.922 2.075
5.346 5.674 2.118
5.519 6.093 1.835
5.543 5.758 1.823
5.317 5.598 1.798
5.128 5.554 1.780
5.052 5.281 1.926
5.498 6.009 1.582
5.422 5.687 1.552
5.198 5.716 1.703
5.066 5.371 1.558
4.938 5.285 1.774
4.962 5.163 1.737
5.520 5.855 1.248
5.411 5.832 1.348
5.224 5.616 1.335
5.156 5.447 1.514
5.043 5.311 1.497
4.833 5.145 1.461
4.803 4.762 1.633
5.517 5.811 1.125
5.342 5.698 1.128
5.238 5.565 1.248
5.245 5.387 1.284
4.981 5.248 1.336
4.889 4.870 1.219
4.721 4.865 1.446
5.504 5.755 0.818
5.359 5.557 0.985
5.352 5.537 0.887
5.198 5.320 1.107
5.089 5.032 1.131
4.888 4.899 1.074
4.670 4.681 1.208
5.560 5.734 0.604
5.472 5.681 0.649
5.190 5.461 0.653
5.194 5.244 0.711
4.942 4.943 0.882
4.827 4.763 0.850
4.808 4.614 0.993
5.559 5.670 0.388
5.318 5.418 0.455
5.258 5.263 0.424
5.245 5.112 0.470
4.977 4.890 0.623
4.942 4.724 0.687
4.875 4.650 0.729
5.637 5.537 0.174
5.415 5.563 0.261
5.300 5.383 0.355
5.081 5.012 0.387
5.057 4.849 0.480
4.789 4.785 0.349
4.651 4.528 0.482
5.587 5.598 -0.067
5.353 5.528 0.086
5.293 5.174 0.145
5.154 5.054 0.094
5.036 4.818 0.161
4.920 4.690 0.139
4.720 4.484 0.344
4.867 4.658 -0.040
5.851 6.318 3.255
5.880 6.169 3.056
5.798 6.195 2.917
5.577 6.098 2.984
5.845 6.121 2.608
5.532 6.004 2.788
5.784 6.138 2.277
5.825 6.062 2.420
5.639 5.983 2.559
5.489 5.622 2.453
5.982 6.168 2.182
5.799 5.951 2.248
5.532 5.856 2.192
5.448 5.649 2.235
5.407 5.375 2.368
5.838 6.088 2.008
5.808 5.944 2.080
5.545 5.856 1.995
5.546 5.615 2.123
5.420 5.431 2.124
5.187 5.222 2.209
5.979 5.981 1.685
5.777 6.008 1.740
5.578 5.661 1.729
5.522 5.563 1.916
5.412 5.323 1.814
5.218 5.244 1.961
5.091 5.015 2.060
5.949 6.050 1.553
5.811 5.866 1.486
5.541 5.572 1.569
5.546 5.527 1.734
5.296 5.222 1.621
5.174 5.227 1.703
5.018 5.065 1.797
4.978 4.817 1.901
5.687 5.683 1.399
5.692 5.560 1.348
5.518 5.533 1.378
5.245 5.270 1.422
5.165 5.092 1.549
5.116 5.014 1.497
4.871 4.816 1.674
5.739 5.776 1.150
5.704 5.541 1.093
5.485 5.415 1.192
5.305 5.142 1.308
5.211 5.016 1.361
5.048 4.917 1.293
5.019 4.630 1.498
5.779 5.592 0.816
5.599 5.604 0.989
5.455 5.276 1.087
5.345 5.194 1.078
5.244 5.044 1.049
5.124 4.874 1.220
4.960 4.524 1.160
5.745 5.589 0.626
5.698 5.345 0.691
5.557 5.386 0.741
5.395 5.025 0.900
5.305 4.942 0.927
5.053 4.831 0.886
4.866 4.608 1.037
5.604 5.346 0.495
5.574 5.243 0.476
5.281 4.968 0.679
5.125 4.864 0.622
5.047 4.795 0.647
4.998 4.456 0.681
5.493 5.434 0.224
5.406 5.082 0.241
5.374 5.000 0.344
5.203 4.780 0.397
5.173 4.586 0.562
4.921 4.474 0.577
5.632 5.341 -0.021
5.440 5.210 0.110
5.311 4.884 0.132
5.206 4.768 0.140
5.054 4.609 0.188
5.861 6.093 3.604
6.004 6.247 3.319
6.120 6.302 3.005
5.946 6.151 3.135
5.912 5.900 3.239
6.187 6.116 2.911
5.969 6.040 2.853
5.824 5.843 3.016
6.030 6.114 2.716
6.044 6.019 2.660
5.921 5.789 2.683
5.655 5.585 2.785
5.965 6.125 2.318
6.055 5.903 2.506
5.803 5.762 2.606
5.627 5.649 2.626
5.657 5.441 2.657
6.267 6.191 2.243
6.010 6.067 2.125
5.916 5.843 2.317
5.730 5.806 2.281
5.756 5.450 2.446
5.525 5.412 2.444
5.519 5.237 2.384
6.272 6.231 2.016
6.149 6.024 1.990
6.020 5.935 2.062
5.867 5.740 1.960
5.655 5.558 2.094
5.594 5.406 2.119
5.352 5.012 2.129
5.321 5.000 2.184
6.130 6.026 1.636
5.977 6.053 1.793
5.884 5.662 1.715
5.815 5.516 1.867
5.594 5.519 1.865
5.536 5.320 1.964
5.497 5.006 1.955
5.361 4.798 2.102
5.091 4.791 2.134
5.996 5.927 1.463
5.905 5.752 1.609
5.821 5.459 1.651
5.572 5.448 1.750
5.430 5.246 1.618
5.398 4.978 1.740
5.187 4.794 1.814
5.062 4.603 1.757
5.955 5.787 1.239
5.935 5.591 1.375
5.757 5.483 1.476
5.689 5.310 1.458
5.631 5.097 1.471
5.333 4.931 1.534
5.171 4.864 1.560
5.124 4.673 1.715
5.980 5.548 1.194
5.808 5.408 1.282
5.676 5.221 1.145
5.496 4.967 1.253
5.491 4.940 1.345
5.264 4.751 1.275
5.148 4.474 1.319
5.819 5.564 0.925
5.892 5.385 1.089
5.596 5.225 0.920
5.622 5.082 0.974
5.372 4.760 1.118
5.166 4.734 1.252
5.238 4.412 1.245
5.694 5.349 0.692
5.591 5.046 0.722
5.579 4.888 0.922
5.410 4.829 0.941
5.310 4.599 0.896
5.135 4.354 0.963
5.801 5.309 0.455
5.619 5.070 0.526
5.415 4.974 0.627
5.296 4.683 0.613
5.214 4.538 0.795
5.181 4.325 0.693
5.747 4.933 0.301
5.441 4.898 0.462
5.458 4.681 0.566
5.313 4.463 0.436
6.372 6.350 3.481
6.237 6.230 3.363
6.075 5.930 3.453
6.372 6.186 3.099
6.145 5.891 3.233
6.057 5.749 3.256
6.268 6.114 2.933
6.052 5.806 2.887
5.990 5.654 2.897
6.242 5.937 2.711
6.162 5.895 2.691
5.923 5.750 2.737
5.784 5.521 2.908
6.209 5.878 2.412
6.018 5.708 2.477
5.981 5.740 2.561
5.962 5.446 2.480
5.636 5.283 2.635
6.306 5.825 2.145
6.189 5.698 2.210
6.000 5.607 2.347
5.930 5.331 2.451
5.795 5.290 2.298
5.600 5.023 2.472
5.374 4.801 2.509
6.326 5.818 2.090
6.152 5.657 2.078
6.088 5.620 2.131
5.805 5.405 2.203
5.709 5.078 2.146
5.589 5.055 2.313
5.539 4.871 2.288
5.270 4.658 2.423
6.168 5.815 1.730
6.163 5.712 1.925
6.089 5.414 1.856
5.853 5.215 1.963
5.786 5.061 1.929
5.681 4.894 1.931
5.444 4.685 2.130
5.412 4.517 2.084
6.199 5.859 1.589
6.195 5.583 1.555
5.946 5.473 1.569
5.905 5.233 1.672
5.640 5.067 1.786
5.612 4.858 1.875
5.458 4.812 1.935
5.296 4.578 1.964
6.205 5.811 1.244
6.087 5.422 1.491
6.036 5.374 1.470
5.777 5.205 1.391
5.609 5.108 1.586
5.600 4.892 1.576
5.401 4.736 1.627
5.316 4.455 1.735
6.120 5.416 1.246
5.910 5.236 1.256
5.881 5.110 1.213
5.720 4.945 1.218
5.520 4.870 1.305
5.341 4.553 1.388
5.269 4.394 1.497
6.066 5.232 0.990
5.790 5.179 1.002
5.715 4.868 1.077
5.544 4.813 1.112
5.414 4.573 1.233
5.330 4.292 1.190
5.987 5.084 0.809
5.822 4.958 0.791
5.605 4.745 0.964
5.497 4.696 0.903
5.345 4.589 1.000
5.226 4.323 1.023
5.804 4.871 0.642
5.784 4.735 0.708
5.509 4.585 0.821
5.497 4.496 0.807
5.373 4.254 0.916
6.188 5.530 2.949
6.234 5.552 2.834
6.156 5.427 2.764
6.132 5.396 2.626
6.073 5.373 2.669
5.995 5.189 2.659
5.731 5.014 2.688
6.131 5.337 2.447
5.946 5.162 2.460
5.849 5.065 2.507
5.709 4.874 2.579
5.555 4.721 2.463
6.198 5.493 2.213
5.947 5.161 2.205
6.018 5.125 2.207
5.837 4.836 2.230
5.580 4.701 2.381
5.524 4.445 2.433
6.130 5.310 1.818
6.062 5.122 1.962
5.993 4.880 1.993
5.668 4.804 2.096
5.754 4.658 2.021
5.512 4.516 2.229
6.077 5.280 1.617
6.086 5.082 1.699
5.922 4.995 1.703
5.823 4.778 1.942
5.571 4.648 1.815
5.417 4.351 1.935
6.108 5.268 1.426
6.053 5.051 1.443
5.993 4.955 1.595
5.856 4.690 1.516
5.649 4.538 1.614
5.536 4.377 1.710
6.049 5.155 1.225
6.090 5.058 1.312
5.829 4.837 1.345
5.847 4.557 1.461
5.540 4.363 1.432
5.427 4.393 1.497
6.186 5.020 0.947
6.047 5.003 0.985
5.809 4.786 1.053
5.724 4.498 1.260
5.695 4.345 1.171
5.572 4.327 1.299
5.965 4.846 0.823
5.977 4.739 0.929
5.808 4.476 0.923
5.602 4.291 0.937
5.509 4.120 1.126
5.687 4.407 0.819
5.551 4.239 0.679
6.252 5.284 2.787
6.153 5.113 2.704
6.122 5.036 2.737
5.988 4.886 2.836
6.192 5.092 2.478
6.036 4.900 2.433
6.037 4.692 2.533
5.754 4.693 2.460
5.747 4.539 2.578
6.152 5.129 2.290
5.991 4.921 2.224
5.952 4.808 2.378
5.732 4.482 2.402
5.772 4.319 2.499
6.321 4.975 1.991
6.155 4.865 2.065
5.873 4.770 2.140
5.725 4.580 2.074
5.700 4.283 2.203
6.222 4.907 1.802
6.081 4.720 1.704
5.966 4.602 1.848
5.879 4.528 1.862
5.679 4.357 1.933
6.260 4.975 1.648
6.051 4.798 1.528
5.907 4.612 1.612
5.881 4.379 1.741
5.761 4.173 1.771
6.223 4.865 1.384
6.174 4.778 1.398
5.895 4.446 1.421
5.736 4.236 1.544
5.647 4.130 1.619
6.151 4.780 1.102
6.053 4.565 1.121
5.921 4.373 1.251
5.719 4.250 1.247
5.632 4.165 1.272
6.162 4.681 1.012
5.830 4.505 0.955
5.838 4.213 1.089
5.627 4.049 1.011
6.356 4.820 2.652
6.263 4.915 2.571
6.104 4.616 2.625
5.962 4.431 2.697
5.777 4.292 2.687
6.221 4.769 2.210
6.154 4.701 2.292
5.969 4.432 2.389
5.969 4.168 2.444
6.255 4.833 2.055
6.128 4.644 2.129
5.954 4.466 2.181
5.911 4.249 2.158
6.285 4.709 1.772
6.112 4.560 1.880
5.923 4.215 1.897
5.978 4.135 1.991
6.351 4.518 1.625
6.125 4.548 1.704
6.054 4.262 1.630
5.804 4.066 1.822
6.200 4.551 1.365
6.137 4.357 1.364
5.887 4.325 1.538
5.935 3.938 1.603
6.233 4.566 1.281
6.141 4.439 1.229
6.026 4.142 1.299
5.754 3.997 1.313
5.999 4.095 1.156
5.820 3.874 1.004
6.183 4.385 2.728
6.122 4.089 2.607
6.289 4.215 2.321
6.032 4.188 2.473
6.236 4.216 2.104
6.168 4.026 2.329
6.217 4.305 2.054
6.161 4.092 1.981
6.216 4.052 1.737
6.036 3.868 1.704
6.235 4.197 1.474
5.996 3.935 1.531
6.195 4.118 1.278
6.145 3.907 1.279
5.967 3.747 1.163
4.216 2.066 4.922
4.218 1.854 4.945
3.993 1.749 4.950
4.451 2.480 4.561
4.445 2.189 4.565
4.161 2.088 4.716
4.093 1.938 4.617
3.875 1.689 4.622
3.935 1.452 4.728
3.780 1.397 4.754
4.688 2.439 4.218
4.538 2.291 4.311
4.390 2.116 4.446
4.328 2.066 4.464
4.049 1.849 4.542
3.927 1.522 4.433
3.919 1.487 4.485
3.672 1.187 4.608
3.482 1.145 4.526
4.851 2.573 3.947
4.710 2.419 4.026
4.404 2.344 4.158
4.299 2.010 4.101
4.219 1.913 4.280
4.072 1.827 4.133
4.018 1.573 4.299
3.937 1.300 4.229
3.802 1.323 4.325
3.521 1.079 4.471
3.389 0.963 4.356
4.867 2.693 3.830
4.586 2.465 3.731
4.586 2.131 3.863
4.268 2.024 4.002
4.254 1.833 3.903
4.024 1.680 4.015
3.934 1.599 4.024
3.877 1.239 4.161
3.624 1.224 4.142
3.660 0.921 4.096
3.533 0.919 4.257
4.842 2.785 3.542
4.844 2.546 3.545
4.627 2.437 3.695
4.434 2.207 3.609
4.276 1.949 3.757
4.259 1.808 3.672
4.078 1.754 3.861
3.942 1.534 3.728
3.808 1.195 3.817
3.763 1.190 3.861
3.606 0.831 4.012
3.444 0.676 4.042
3.363 0.545 3.966
5.047 2.895 3.249
4.883 2.638 3.348
4.848 2.421 3.436
4.523 2.246 3.326
4.519 2.193 3.412
4.273 2.020 3.524
4.225 1.692 3.605
4.193 1.626 3.458
3.912 1.308 3.612
3.949 1.229 3.587
3.712 1.130 3.761
3.584 0.887 3.768
3.417 0.733 3.696
3.249 0.637 3.908
3.200 0.271 3.907
4.934 2.747 3.202
4.940 2.797 3.024
4.938 2.553 3.180
4.729 2.459 3.209
4.568 2.351 3.060
4.470 2.111 3.188
4.290 1.833 3.227
4.122 1.653 3.408
4.110 1.640 3.436
4.012 1.311 3.437
3.863 1.092 3.506
3.756 0.947 3.414
3.565 0.765 3.640
3.419 0.681 3.666
3.205 0.404 3.658
3.148 0.285 3.592
2.991 0.053 3.671
5.928 4.042 2.763
5.757 3.742 2.660
5.776 3.625 2.909
5.439 3.454 2.737
5.512 3.224 2.823
5.178 3.146 2.995
5.220 2.886 2.893
5.032 2.777 3.131
5.099 2.651 2.819
3.136 0.164 3.382
3.147 -0.023 3.489
5.914 3.988 2.452
5.736 3.847 2.596
5.754 3.689 2.596
5.461 3.487 2.733
5.309 3.234 2.613
5.272 3.144 2.816
5.236 2.845 2.725
5.096 2.805 2.918
2.933 0.064 3.247
6.015 3.834 2.309
5.746 3.814 2.339
5.645 3.642 2.360
5.605 3.396 2.405
5.422 3.156 2.457
5.313 3.021 2.549
5.167 2.774 2.607
5.852 3.797 2.048
5.798 3.670 2.137
5.567 3.574 2.174
5.506 3.212 2.251
5.363 3.029 2.283
5.207 3.066 2.351
5.963 3.804 1.950
5.900 3.552 1.870
5.673 3.514 1.935
5.442 3.357 2.078
5.324 3.105 2.002
5.370 2.927 2.060
5.928 3.781 1.532
5.680 3.601 1.718
5.622 3.285 1.692
5.504 3.302 1.667
5.447 3.091 1.697
5.883 3.617 1.379
5.855 3.423 1.456
5.565 3.301 1.413
5.503 3.119 1.485
5.955 3.727 1.182
5.726 3.342 1.242
4.261 2.064 4.751
4.052 1.864 4.971
3.904 1.750 4.879
4.529 2.068 4.792
4.420 2.006 4.824
4.238 1.818 4.846
4.868 2.421 4.581
4.645 2.205 4.452
4.494 2.118 4.597
4.482 1.962 4.663
4.385 1.769 4.611
4.269 1.656 4.817
4.141 1.277 4.820
5.006 2.611 4.251
4.824 2.484 4.201
4.659 2.190 4.354
4.536 2.102 4.415
4.475 1.859 4.324
4.334 1.688 4.572
4.085 1.471 4.612
4.106 1.439 4.590
3.948 1.256 4.664
5.089 2.627 4.048
4.951 2.520 3.916
4.807 2.299 4.148
4.729 2.149 4.085
4.603 1.901 4.086
4.407 1.786 4.154
4.206 1.594 4.207
4.076 1.555 4.208
4.054 1.237 4.333
3.927 1.116 4.430
5.201 2.893 3.666
5.120 2.641 3.844
4.983 2.513 3.889
4.847 2.305 3.952
4.622 2.094 3.980
4.578 1.864 4.037
4.513 1.789 3.935
4.219 1.672 4.124
4.213 1.376 4.046
4.062 1.134 4.069
3.824 1.103 4.136
3.755 0.967 4.156
5.296 2.776 3.771
5.138 2.653 3.604
4.989 2.544 3.541
4.845 2.400 3.551
4.700 2.148 3.739
4.581 2.082 3.576
4.614 1.973 3.748
4.488 1.694 3.777
4.224 1.516 3.763
4.245 1.318 3.794
3.994 1.162 3.944
3.861 0.968 3.891
3.767 0.908 3.948
5.368 2.936 3.527
5.197 2.839 3.487
5.090 2.621 3.319
5.073 2.633 3.414
4.953 2.391 3.470
4.720 2.230 3.337
4.574 2.012 3.444
4.534 1.861 3.521
4.342 1.671 3.548
4.213 1.560 3.558
4.124 1.343 3.732
4.036 1.113 3.715
3.991 0.831 3.763
5.520 3.184 3.216
5.365 3.159 3.235
5.282 2.870 3.195
5.113 2.795 3.265
5.306 2.650 3.135
5.074 2.546 3.062
4.857 2.291 3.147
4.701 2.217 3.258
4.710 1.925 3.283
4.477 1.659 3.199
4.491 1.635 3.228
4.345 1.385 3.467
6.153 3.959 2.724
6.072 3.745 2.760
5.919 3.525 2.834
5.732 3.436 2.865
5.587 3.226 2.863
5.488 3.014 2.902
5.291 2.806 2.933
5.171 2.711 2.993
5.096 2.602 2.734
5.142 2.354 2.824
5.000 2.237 2.988
4.704 2.071 3.089
6.074 3.834 2.454
5.876 3.643 2.590
5.833 3.470 2.513
5.761 3.324 2.704
5.607 3.062 2.798
5.476 2.907 2.818
5.436 2.678 2.729
5.239 2.653 2.882
5.293 2.482 2.548
4.951 2.471 2.725
6.002 3.751 2.383
6.078 3.670 2.448
5.944 3.451 2.382
5.805 3.345 2.519
5.671 3.158 2.393
5.465 2.952 2.423
5.389 2.659 2.498
5.271 2.457 2.519
5.110 2.429 2.327
6.183 3.605 2.196
6.018 3.571 2.200
5.823 3.452 2.088
5.669 3.226 2.202
5.610 2.958 2.212
5.491 2.883 2.384
5.234 2.738 2.400
5.146 2.533 2.331
6.093 3.577 1.965
5.922 3.420 1.846
5.919 3.332 1.958
5.682 3.062 2.046
5.597 2.987 2.138
5.540 2.758 2.137
5.262 2.495 2.227
6.001 3.528 1.662
5.960 3.377 1.743
5.917 3.173 1.716
5.743 2.990 1.730
5.620 2.825 1.936
5.464 2.742 1.800
6.105 3.618 1.340
6.047 3.353 1.464
5.789 3.229 1.495
5.683 3.084 1.677
5.668 2.905 1.705
6.061 3.567 1.212
5.950 3.380 1.227
5.881 3.247 1.267
4.619 2.252 4.765
4.385 1.977 4.886
4.388 1.846 4.889
5.002 2.438 4.787
4.808 2.197 4.729
4.806 1.904 4.836
4.580 1.936 4.933
4.400 1.615 4.838
5.134 2.429 4.401
5.008 2.312 4.562
4.842 2.150 4.653
4.679 1.918 4.686
4.567 1.692 4.768
4.509 1.664 4.721
4.309 1.369 4.801
5.245 2.698 4.302
5.236 2.532 4.211
5.066 2.287 4.360
4.866 2.111 4.372
4.711 1.976 4.382
4.511 1.804 4.544
4.494 1.500 4.581
4.369 1.445 4.515
4.303 1.172 4.699
5.454 2.685 4.033
5.233 2.529 3.967
5.196 2.461 3.959
5.091 2.231 4.173
4.943 2.046 4.130
4.742 1.928 4.224
4.572 1.744 4.251
4.534 1.603 4.346
4.240 1.347 4.430
4.268 1.195 4.409
5.380 2.740 3.937
5.368 2.638 3.724
5.312 2.469 3.837
5.022 2.222 3.898
4.914 2.232 3.883
4.923 1.876 3.931
4.726 1.725 4.069
4.537 1.566 4.090
4.457 1.544 4.025
4.436 1.264 4.094
4.240 1.009 4.147
5.572 2.783 3.672
5.432 2.788 3.711
5.288 2.718 3.512
5.293 2.347 3.644
5.082 2.252 3.553
4.978 2.172 3.649
4.757 1.946 3.633
4.668 1.806 3.798
4.553 1.633 3.903
4.479 1.291 3.815
4.399 1.254 3.844
4.260 1.003 4.039
5.581 3.080 3.510
5.554 2.854 3.443
5.375 2.574 3.634
5.427 2.555 3.368
5.219 2.493 3.252
5.205 2.280 3.406
5.064 1.932 3.501
4.896 1.955 3.523
4.833 1.778 3.458
4.578 1.446 3.596
4.430 1.288 3.521
4.258 1.173 3.688
5.974 3.246 3.040
5.882 3.205 3.165
5.546 2.857 3.156
5.583 2.637 3.301
5.309 2.466 3.302
5.338 2.546 2.982
5.293 2.287 3.170
5.091 2.206 3.172
4.965 1.998 3.241
4.962 1.761 3.315
4.629 1.632 3.330
4.649 1.481 3.383
6.083 3.484 2.737
6.005 3.398 2.971
5.913 3.318 2.918
5.681 3.008 2.929
5.719 2.825 2.908
5.525 2.794 2.994
5.461 2.591 3.130
5.289 2.454 2.762
5.199 2.339 2.870
5.191 2.074 2.857
5.038 1.942 2.987
4.878 1.784 3.060
6.266 3.612 2.705
6.025 3.420 2.669
5.997 3.223 2.693
5.852 3.082 2.746
5.552 2.714 2.740
5.470 2.642 2.920
5.304 2.403 2.963
5.274 2.466 2.737
5.160 2.145 2.598
5.069 1.973 2.803
6.196 3.470 2.449
5.937 3.290 2.533
5.920 3.041 2.549
5.819 2.947 2.444
5.687 2.686 2.487
5.609 2.581 2.654
5.452 2.412 2.704
5.451 2.422 2.335
5.178 2.225 2.572
6.203 3.511 2.077
6.055 3.217 2.182
5.915 3.052 2.240
5.670 2.841 2.326
5.716 2.687 2.241
5.589 2.434 2.305
5.374 2.316 2.343
5.288 2.267 2.293
6.134 3.290 2.048
6.117 3.104 1.907
5.820 3.108 2.130
5.810 2.859 2.078
5.715 2.707 2.213
5.447 2.437 2.271
5.317 2.333 2.170
6.382 3.514 1.675
6.149 3.314 1.661
6.019 3.076 1.710
5.778 3.037 1.737
5.832 2.682 1.798
5.534 2.491 1.998
5.506 2.348 1.930
6.193 3.462 1.462
6.184 3.245 1.576
5.922 3.133 1.548
5.779 2.795 1.506
5.859 2.744 1.627
5.586 2.490 1.666
6.273 3.264 1.146
6.215 3.295 1.368
5.964 2.923 1.233
5.964 2.849 1.433
5.640 2.647 1.413
4.933 2.442 4.838
4.914 2.128 4.710
4.744 1.992 4.811
4.657 1.734 4.945
4.522 1.715 5.000
5.334 2.525 4.633
5.214 2.132 4.815
4.963 1.985 4.754
4.816 1.845 4.947
4.726 1.613 4.824
4.620 1.631 5.024
5.521 2.455 4.443
5.260 2.327 4.610
5.082 2.284 4.566
5.081 2.057 4.600
5.033 1.929 4.752
4.765 1.700 4.725
4.565 1.425 4.745
4.433 1.261 4.755
5.610 2.604 4.313
5.440 2.437 4.228
5.378 2.206 4.258
5.115 2.233 4.346
5.005 1.950 4.364
4.979 1.714 4.416
4.816 1.675 4.377
4.750 1.467 4.598
4.473 1.251 4.572
5.640 2.560 4.311
5.605 2.537 3.930
5.385 2.319 3.972
5.334 2.321 4.079
5.277 2.149 4.040
5.023 1.982 4.220
4.896 1.669 4.328
4.779 1.584 4.191
4.721 1.386 4.230
4.546 1.203 4.363
5.481 2.597 4.038
5.543 2.576 3.681
5.351 2.263 3.785
5.373 2.167 3.922
5.247 2.122 3.890
5.057 1.790 3.881
4.855 1.593 3.994
4.704 1.452 4.004
4.666 1.378 4.085
4.501 1.144 4.148
5.610 2.746 3.681
5.667 2.502 3.719
5.624 2.483 3.534
5.345 2.349 3.501
5.363 2.114 3.654
5.284 1.975 3.639
5.082 1.732 3.786
4.877 1.636 3.768
4.792 1.468 3.718
4.701 1.360 3.813
4.467 1.036 4.026
5.780 2.873 3.569
5.711 2.570 3.595
5.457 2.471 3.509
5.672 2.380 3.376
5.539 2.327 3.282
5.286 2.008 3.514
5.205 1.975 3.389
5.031 1.743 3.544
4.959 1.483 3.525
4.666 1.285 3.626
4.632 1.280 3.710
6.048 3.042 3.216
5.949 2.979 3.146
5.740 2.710 3.144
5.740 2.676 3.338
5.614 2.419 3.364
5.630 2.341 3.038
5.436 2.216 3.105
5.242 1.942 3.198
5.150 1.840 3.270
5.105 1.739 3.198
4.985 1.555 3.451
6.276 3.345 2.799
6.122 3.089 2.905
5.881 2.882 2.974
5.861 2.839 3.004
5.797 2.641 3.008
5.494 2.290 3.227
5.635 2.446 2.849
5.502 2.164 3.020
5.275 1.925 2.915
5.069 1.818 2.942
5.144 1.621 3.125
6.311 3.161 2.580
6.098 3.046 2.691
5.930 2.822 2.762
5.723 2.798 2.863
5.635 2.506 2.818
5.538 2.284 2.830
5.446 2.380 2.717
5.363 2.110 2.806
5.188 1.911 2.674
6.111 3.071 2.438
6.055 2.962 2.474
5.867 2.697 2.584
5.717 2.587 2.662
5.682 2.491 2.699
5.579 2.267 2.589
5.656 2.246 2.574
5.531 1.990 2.566
6.249 3.179 2.188
6.110 2.965 2.178
6.054 2.744 2.395
5.795 2.625 2.276
5.732 2.429 2.435
5.634 2.289 2.475
5.561 2.154 2.189
6.108 3.106 1.990
6.101 2.886 2.068
5.989 2.591 2.030
5.912 2.438 2.137
5.682 2.364 2.221
5.565 2.129 2.219
5.615 2.049 1.991
6.226 2.961 1.769
6.032 2.897 1.767
5.838 2.669 1.972
5.872 2.478 1.946
5.732 2.293 1.936
5.517 2.144 2.064
6.231 2.919 1.693
5.983 2.696 1.691
5.910 2.677 1.634
5.830 2.433 1.791
5.609 2.342 1.749
6.117 2.981 1.303
6.088 2.610 1.355
6.012 2.637 1.436
5.891 2.259 1.486
6.292 2.845 1.068
5.973 2.549 1.261
5.045 2.016 4.988
4.882 1.999 4.981
5.315 2.454 4.696
5.173 2.147 4.728
5.067 2.034 4.822
4.964 1.979 4.960
4.784 1.707 4.939
4.609 1.570 4.908
5.642 2.547 4.798
5.520 2.373 4.661
5.292 2.050 4.782
5.196 2.005 4.819
5.135 1.720 4.833
4.968 1.473 5.023
4.835 1.368 4.989
5.694 2.469 4.566
5.509 2.247 4.574
5.288 2.137 4.669
5.168 1.821 4.694
5.115 1.642 4.629
4.893 1.637 4.828
4.941 1.346 4.799
5.763 2.489 4.288
5.577 2.390 4.370
5.471 2.187 4.222
5.420 2.092 4.353
5.300 1.774 4.501
5.053 1.604 4.574
4.971 1.574 4.448
4.740 1.239 4.534
4.731 1.127 4.577
5.707 2.436 4.249
5.834 2.523 4.001
5.573 2.279 3.966
5.495 2.091 4.087
5.286 1.897 4.068
5.278 1.707 4.140
5.000 1.503 4.246
4.945 1.456 4.231
4.801 1.320 4.349
4.727 1.015 4.341
5.898 2.720 3.989
5.751 2.565 3.923
5.680 2.401 3.828
5.569 2.298 3.841
5.554 1.964 3.914
5.268 1.859 3.968
5.198 1.726 4.088
5.061 1.528 4.027
4.904 1.310 4.110
4.875 1.287 4.118
5.920 2.520 3.731
5.732 2.484 3.898
5.828 2.408 3.648
5.669 2.288 3.695
5.521 2.035 3.707
5.276 1.905 3.626
5.116 1.707 3.787
5.020 1.548 3.907
4.941 1.273 3.906
4.743 1.226 4.000
5.913 2.739 3.453
5.839 2.627 3.548
5.794 2.433 3.631
5.763 2.225 3.288
5.650 2.174 3.392
5.387 1.858 3.558
5.304 1.801 3.551
5.215 1.693 3.537
5.065 1.422 3.616
4.942 1.190 3.748
6.063 2.875 3.180
5.986 2.568 3.179
5.810 2.478 3.348
5.667 2.413 3.417
5.808 2.250 3.204
5.642 2.196 3.095
5.496 1.885 3.165
5.400 1.684 3.312
5.114 1.518 3.427
5.095 1.476 3.464
6.197 2.870 2.908
6.110 2.784 2.957
6.050 2.581 3.007
5.778 2.467 3.086
5.807 2.228 3.214
5.680 2.236 3.000
5.600 2.087 3.086
5.535 1.957 3.061
5.382 1.723 3.137
6.270 2.871 2.835
6.240 2.636 2.773
6.023 2.645 2.757
5.902 2.433 2.981
5.717 2.139 2.833
5.649 2.209 2.675
5.540 1.877 2.661
5.477 1.876 2.841
6.357 2.795 2.483
6.073 2.740 2.626
6.059 2.410 2.708
5.979 2.226 2.606
5.632 2.042 2.761
5.648 2.103 2.595
5.553 1.895 2.553
6.343 2.837 2.206
6.113 2.535 2.323
5.984 2.500 2.502
5.898 2.203 2.391
5.825 2.028 2.436
5.743 2.122 2.289
5.574 1.774 2.373
6.190 2.791 1.982
6.060 2.537 2.156
6.058 2.317 2.139
5.924 2.238 2.165
5.773 2.148 2.357
5.753 1.950 2.073
6.357 2.617 1.964
6.147 2.567 1.905
5.967 2.337 2.010
5.825 2.268 1.912
5.823 2.002 2.146
6.283 2.653 1.677
6.088 2.393 1.645
5.931 2.290 1.727
5.935 2.166 1.895
6.162 2.593 1.346
6.034 2.495 1.380
6.050 2.248 1.483
5.832 1.980 1.508
6.153 2.604 1.301
6.205 2.313 1.334
5.949 2.135 1.410
5.591 2.432 4.869
5.382 2.121 4.948
5.280 1.900 5.081
5.219 1.713 5.174
4.870 1.546 5.272
5.586 2.406 4.673
5.493 2.270 4.847
5.267 2.135 4.757
5.270 1.977 4.930
5.044 1.778 4.942
5.089 1.571 5.052
4.756 1.329 5.030
5.808 2.256 4.858
5.792 2.212 4.759
5.479 2.087 4.826
5.378 1.771 4.933
5.246 1.532 4.883
5.169 1.544 4.978
4.933 1.284 4.976
5.893 2.349 4.400
5.821 2.377 4.555
5.656 2.093 4.510
5.517 1.957 4.611
5.316 1.783 4.776
5.244 1.593 4.777
5.128 1.480 4.789
5.132 1.268 4.699
6.027 2.363 4.456
5.979 2.469 4.214
5.742 2.209 4.351
5.774 1.967 4.401
5.652 1.963 4.469
5.384 1.618 4.408
5.359 1.577 4.468
5.136 1.388 4.583
4.952 1.215 4.615
6.031 2.384 4.314
5.964 2.373 4.115
5.811 2.067 4.155
5.746 2.101 4.102
5.577 1.783 4.285
5.408 1.652 4.148
5.320 1.528 4.315
5.157 1.336 4.398
5.040 1.092 4.356
6.083 2.537 4.085
5.893 2.429 3.963
6.005 2.343 3.792
5.894 2.158 3.935
5.716 2.039 4.033
5.510 1.728 3.949
5.359 1.609 4.093
5.305 1.391 4.046
5.163 1.331 4.035
4.959 1.103 4.090
6.071 2.407 3.862
5.884 2.225 3.743
6.019 2.281 3.670
5.733 2.140 3.606
5.575 1.990 3.685
5.613 1.647 3.681
5.333 1.472 3.718
5.212 1.352 3.914
5.038 1.086 3.813
6.085 2.609 3.473
6.153 2.461 3.530
5.901 2.344 3.577
5.946 2.176 3.428
5.794 2.075 3.369
5.656 1.732 3.409
5.559 1.591 3.438
5.458 1.453 3.469
5.382 1.304 3.629
6.270 2.554 3.217
6.020 2.372 3.334
5.859 2.295 3.336
5.883 2.081 3.153
5.826 1.973 3.248
5.581 1.738 3.376
5.628 1.585 3.391
5.462 1.354 3.295
6.262 2.593 3.154
6.109 2.400 3.029
5.837 2.143 3.121
5.813 2.111 2.974
5.768 1.900 2.931
5.657 1.671 2.988
5.535 1.570 3.149
6.220 2.466 2.862
6.016 2.257 2.908
5.979 2.048 3.023
5.843 1.999 2.803
5.872 1.766 2.823
5.638 1.678 2.865
6.152 2.441 2.642
6.162 2.249 2.594
6.004 1.954 2.675
6.005 2.061 2.419
5.689 1.782 2.478
6.093 2.348 2.475
6.082 2.230 2.565
5.814 2.057 2.579
5.971 1.879 2.310
5.849 1.771 2.451
6.217 2.180 2.137
5.980 1.987 2.256
5.919 1.904 2.296
5.903 1.814 2.092
6.130 2.257 1.929
6.003 1.940 2.031
5.985 1.836 2.178
5.961 1.830 1.802
6.166 2.139 1.713
5.959 2.053 1.809
5.878 1.724 1.865
6.232 2.150 1.667
6.119 1.996 1.630
6.104 1.967 1.444
6.023 1.780 1.444
6.181 1.956 1.032
5.699 2.179 5.318
5.475 2.090 5.309
5.443 1.878 5.322
5.236 1.628 5.388
5.877 2.439 4.930
5.673 2.267 5.022
5.463 2.050 5.085
5.430 1.916 5.063
5.249 1.796 5.132
5.105 1.440 5.272
5.886 2.299 4.775
5.610 2.079 4.863
5.643 1.873 4.870
5.413 1.769 4.842
5.233 1.633 4.963
5.173 1.444 4.923
5.078 1.237 5.115
6.169 2.468 4.650
6.001 2.135 4.714
5.884 2.039 4.882
5.642 1.773 4.791
5.520 1.580 4.948
5.520 1.446 4.852
5.447 1.300 4.949
5.240 1.093 5.002
6.121 2.478 4.764
6.239 2.238 4.509
6.027 2.253 4.491
5.828 1.938 4.493
5.729 1.751 4.550
5.678 1.575 4.767
5.464 1.503 4.645
5.313 1.254 4.687
5.220 1.087 4.776
6.019 2.403 4.463
6.188 2.276 4.359
5.924 2.110 4.313
5.861 2.026 4.421
5.833 1.821 4.405
5.487 1.667 4.487
5.452 1.431 4.536
5.308 1.295 4.501
5.232 1.042 4.527
6.200 2.371 4.278
6.210 2.207 4.175
5.894 2.075 4.154
5.842 1.971 4.111
5.658 1.792 4.235
5.665 1.565 4.327
5.504 1.260 4.321
5.406 1.145 4.440
6.143 2.197 4.161
6.193 2.175 3.815
5.936 2.074 3.969
5.917 1.799 3.918
5.646 1.560 3.990
5.699 1.453 4.117
5.364 1.331 4.122
5.287 1.039 4.084
6.210 2.237 3.901
6.178 2.177 3.889
6.080 2.221 3.677
5.939 1.925 3.768
5.918 1.668 3.769
5.680 1.547 3.878
5.635 1.306 3.737
5.432 1.297 3.902
6.241 2.350 3.547
6.067 2.157 3.598
6.045 2.149 3.484
5.992 1.903 3.426
5.907 1.651 3.457
5.622 1.443 3.618
5.491 1.242 3.582
6.349 2.312 3.488
6.154 2.130 3.477
5.998 1.928 3.116
5.884 1.807 3.332
5.939 1.590 3.207
5.615 1.465 3.285
6.140 2.077 3.160
6.173 1.943 3.309
6.000 1.932 3.070
5.887 1.796 2.989
5.895 1.566 3.172
6.175 2.031 2.998
6.046 1.958 3.059
5.995 1.893 2.811
5.871 1.775 2.916
6.288 2.032 2.714
6.080 1.807 2.809
6.152 1.752 2.467
5.960 1.577 2.527
6.199 1.989 2.609
6.015 1.823 2.488
6.187 1.837 2.370
6.258 1.918 2.267
6.208 1.836 2.239
6.108 1.800 2.122
6.331 1.801 2.010
6.113 1.695 2.136
6.006 1.662 1.823
6.306 1.824 1.893
6.121 1.763 1.891
6.145 1.587 1.714
6.261 1.814 1.725
6.118 1.708 1.659
6.272 1.695 1.398
6.228 1.766 1.109
6.269 1.532 1.081
5.782 2.154 5.586
5.841 2.059 5.720
6.050 2.336 5.382
5.989 2.163 5.438
5.719 2.001 5.497
5.575 1.864 5.520
5.544 1.756 5.672
6.080 2.375 5.126
5.919 2.217 5.289
5.671 1.963 5.259
5.656 1.824 5.430
5.526 1.528 5.443
5.401 1.432 5.341
6.068 2.185 4.969
5.771 2.008 5.067
5.721 1.857 5.016
5.603 1.680 5.084
5.441 1.469 5.076
5.288 1.475 5.251
6.103 2.437 4.745
5.951 2.111 4.695
5.890 1.979 4.898
5.650 1.801 4.785
5.571 1.669 4.914
5.424 1.591 4.887
5.234 1.320 4.998
5.102 1.072 5.071
6.240 2.358 4.661
6.091 2.095 4.757
5.984 1.843 4.865
6.000 1.727 4.993
5.719 1.634 4.929
5.616 1.394 5.049
5.547 1.310 4.984
5.331 1.005 5.099
6.260 2.006 4.666
5.951 1.871 4.745
5.974 1.686 4.612
5.894 1.477 4.632
5.555 1.278 4.791
5.466 1.082 4.810
5.284 1.004 4.764
6.212 1.864 4.258
5.991 1.889 4.394
5.811 1.526 4.366
5.876 1.399 4.433
5.759 1.209 4.459
5.566 1.119 4.634
6.130 1.892 4.259
6.149 1.808 4.159
5.845 1.473 4.228
5.738 1.299 4.371
5.554 1.216 4.358
5.527 1.076 4.337
6.151 1.769 3.956
5.993 1.609 4.091
5.913 1.417 4.081
5.856 1.286 4.070
5.619 1.071 4.026
6.209 1.837 3.710
6.068 1.532 3.666
5.832 1.345 3.773
5.864 1.272 3.777
6.091 1.754 3.568
6.027 1.593 3.470
6.262 1.722 3.311
6.315 1.705 2.564
6.307 1.822 2.635
6.181 1.661 2.422
6.270 1.671 2.344
6.269 1.646 2.097
6.256 1.521 2.131
6.184 1.547 1.881
6.173 1.490 1.986
6.368 1.507 1.626
6.379 1.399 1.686
6.186 1.390 1.517
6.230 1.543 1.576
6.302 1.304 1.266
6.307 1.452 1.269
6.335 1.260 1.149
6.353 1.414 1.161
6.172 1.190 0.929
6.145 1.213 0.766
6.146 1.290 0.708
6.213 1.164 0.537
6.338 1.250 0.469
6.260 1.262 0.515
6.345 1.131 0.167
6.005 0.883 0.125
6.264 1.109 0.260
6.122 0.865 0.114
5.995 0.812 0.004
6.232 2.336 5.703
6.038 2.208 5.657
5.882 1.917 5.844
5.836 1.754 5.810
5.683 1.686 5.854
6.204 2.208 5.406
6.006 1.999 5.464
5.821 1.916 5.540
5.895 1.790 5.569
5.631 1.506 5.736
5.630 1.331 5.741
6.140 2.215 5.306
6.096 2.023 5.188
5.981 1.782 5.235
5.748 1.745 5.275
5.605 1.578 5.490
5.639 1.253 5.374
6.284 2.096 4.969
6.082 1.921 5.148
6.016 1.685 5.052
5.813 1.521 5.225
5.756 1.458 5.118
5.456 1.350 5.357
5.443 1.181 5.229
6.281 2.013 4.758
6.156 1.800 4.927
5.827 1.777 4.940
5.761 1.631 4.979
5.724 1.466 4.907
5.522 1.186 5.017
5.482 1.130 5.080
6.247 1.670 4.812
6.169 1.539 5.021
6.016 1.424 5.019
5.895 1.320 4.959
5.662 1.128 5.130
5.539 0.929 5.196
6.196 1.700 4.677
6.087 1.622 4.651
5.951 1.404 4.678
5.771 1.173 4.705
5.613 1.059 4.766
6.177 1.643 4.357
6.178 1.445 4.431
5.906 1.327 4.490
5.931 1.121 4.533
5.797 0.959 4.640
6.299 1.610 4.156
6.000 1.447 4.330
5.930 1.360 4.263
5.827 1.012 4.360
6.185 1.630 3.921
6.117 1.435 4.117
6.193 0.759 0.458
6.229 0.528 0.196
5.962 0.364 0.331
6.162 0.594 0.092
5.997 0.453 0.238
5.954 0.232 0.126
5.667 -0.067 0.007
6.243 1.963 5.742
6.219 1.892 5.781
5.987 1.722 5.858
5.833 1.487 5.980
5.803 1.365 5.904
6.292 1.942 5.547
6.121 1.841 5.600
5.889 1.589 5.594
5.833 1.444 5.743
5.753 1.140 5.807
6.237 1.833 5.308
6.061 1.629 5.281
5.968 1.466 5.497
5.825 1.257 5.453
5.654 1.098 5.511
5.540 0.953 5.595
6.327 1.877 5.171
6.157 1.608 5.245
6.055 1.548 5.118
5.784 1.247 5.252
5.822 1.061 5.343
5.689 0.934 5.308
6.233 1.851 4.862
6.160 1.672 4.815
