2.879 0.742 1.275
3.108 0.761 1.039
2.911 0.443 0.762
2.922 0.365 0.790
2.334 4.504 4.677
2.231 4.607 4.659
2.814 0.939 1.176
2.789 0.907 1.051
2.936 0.900 0.635
3.146 0.674 0.749
2.955 0.245 0.635
2.266 4.885 4.684
2.365 4.853 4.345
2.392 4.564 4.369
2.478 4.627 3.932
3.018 1.506 1.216
3.063 1.324 0.747
3.063 1.074 0.684
2.957 0.934 0.703
3.054 0.697 0.578
3.125 0.402 0.368
2.149 5.059 4.438
2.224 4.895 4.400
2.092 4.475 4.022
2.281 4.618 3.851
2.734 0.144 6.176
2.854 0.077 5.919
3.041 0.480 6.052
2.917 0.443 6.219
2.747 0.126 5.738
2.772 0.184 5.914
2.994 0.638 6.160
2.960 0.697 6.221
2.920 0.649 5.862
3.048 0.364 5.882
2.876 0.971 6.354
2.915 0.994 5.870
2.787 0.804 5.765
2.719 0.736 5.772
3.008 0.558 5.411
2.865 1.419 6.121
2.788 1.400 6.031
2.814 1.038 5.939
2.753 1.184 5.865
2.705 0.715 5.376
2.780 1.515 6.261
3.183 1.231 6.068
3.201 1.053 5.765
2.886 1.176 5.714
3.023 0.962 5.550
3.121 0.280 1.052
3.188 0.364 0.973
3.319 0.231 0.666
3.049 0.936 1.306
3.223 0.901 1.323
3.207 0.686 1.144
3.283 0.367 0.724
3.422 0.346 0.649
2.653 4.847 4.556
3.210 1.276 1.083
3.224 1.200 1.018
3.240 1.100 1.077
3.320 0.838 0.722
3.077 0.559 0.512
3.110 0.393 0.563
2.309 5.056 4.459
2.641 4.614 4.265
3.018 1.614 1.342
3.078 1.652 0.994
3.127 1.096 1.092
3.047 0.973 0.865
3.095 0.956 0.806
3.308 0.592 0.668
3.218 0.481 0.434
2.511 4.915 4.561
2.276 5.054 4.121
2.646 4.635 4.176
3.010 0.309 6.129
3.175 -0.034 6.066
3.178 0.565 6.181
3.034 0.557 6.201
3.096 0.055 6.003
3.073 0.127 5.646
3.072 0.799 6.336
2.940 0.634 6.132
3.233 0.440 5.808
3.343 0.413 5.877
3.134 0.368 5.584
2.850 1.292 6.229
3.070 1.029 5.983
3.034 0.813 5.884
3.222 0.529 5.769
3.158 0.451 5.551
3.354 0.393 5.511
2.806 1.587 6.257
3.157 1.241 6.012
3.179 1.214 5.770
3.243 1.007 5.629
3.086 0.693 5.655
3.266 1.061 5.910
3.162 0.981 5.814
3.488 0.919 5.453
3.225 0.577 5.542
3.288 0.698 1.206
3.553 1.014 1.441
3.270 1.174 1.327
3.506 0.938 0.996
3.568 0.713 0.836
3.367 0.342 0.718
3.678 0.485 0.737
3.418 1.431 1.371
3.163 1.178 1.085
3.162 1.278 0.974
3.596 1.107 1.143
3.451 0.905 0.675
3.568 0.636 0.760
3.412 0.550 0.361
2.819 5.040 4.395
3.166 1.998 1.278
3.393 1.815 1.412
3.350 1.652 1.219
3.172 1.255 0.903
3.484 1.092 0.909
3.261 1.163 0.648
3.335 0.655 0.389
3.407 0.510 0.453
2.770 5.050 4.213
2.609 4.971 4.034
3.269 0.445 6.195
3.519 0.069 5.986
3.508 0.758 6.432
3.170 0.569 6.225
3.294 0.392 6.116
3.415 0.126 5.789
3.347 0.838 6.222
3.245 0.784 6.115
3.487 0.575 5.883
3.351 0.230 5.696
3.499 0.260 5.738
3.597 0.076 5.272
3.379 1.192 6.386
3.202 1.136 5.868
3.265 0.883 6.088
3.460 0.728 5.935
3.559 0.659 5.459
3.448 0.457 5.629
3.415 1.330 5.966
3.283 0.916 5.915
3.112 0.913 5.683
3.197 0.733 5.337
3.554 0.956 5.937
3.727 0.914 5.622
3.706 0.585 5.623
3.747 0.440 5.246
3.548 0.915 1.278
3.722 1.483 1.668
3.598 1.323 1.419
3.665 1.239 1.275
3.820 0.968 1.305
3.658 0.843 1.156
3.844 0.679 0.774
3.541 1.607 1.490
3.592 1.718 1.314
3.440 1.527 1.259
3.568 1.169 1.181
3.466 1.116 0.906
3.807 0.878 0.844
3.835 0.736 0.548
3.822 0.591 0.666
3.389 2.069 1.573
3.349 1.855 1.230
3.672 1.636 1.219
3.495 1.361 1.224
3.371 1.342 0.975
3.508 1.249 0.964
3.566 0.995 0.452
3.743 0.924 0.451
3.668 0.758 0.466
2.992 5.142 4.332
3.754 0.444 6.365
3.501 0.123 5.919
3.676 0.697 6.430
3.585 0.421 6.189
3.748 0.420 5.799
3.852 -0.068 5.865
3.326 1.062 6.272
3.461 0.802 6.254
3.448 0.616 5.757
3.609 0.329 5.625
3.590 0.392 5.438
3.684 0.074 5.411
3.360 1.401 6.228
3.300 1.022 6.098
3.607 0.962 5.938
3.428 0.578 5.923
3.535 0.457 5.609
3.654 0.475 5.576
3.662 0.321 5.158
3.549 0.903 5.527
3.734 0.988 5.518
3.664 0.589 5.598
3.636 0.737 5.248
3.731 1.101 5.612
3.936 0.847 5.600
3.925 0.847 5.301
3.734 0.737 5.105
3.901 0.298 5.256
4.022 1.209 1.551
3.935 0.841 1.464
3.969 0.852 1.490
3.876 1.513 1.700
3.758 1.434 1.530
3.803 1.269 1.263
3.739 1.117 1.276
3.785 0.803 1.038
3.969 0.923 1.135
4.118 0.623 0.636
3.588 2.020 1.813
3.704 1.636 1.598
3.680 1.379 1.385
3.734 1.335 1.189
3.995 1.120 1.181
3.715 1.105 0.998
4.027 0.804 0.841
3.874 0.682 0.536
3.761 2.339 1.902
3.684 2.111 1.659
3.681 2.103 1.319
3.720 1.729 1.060
3.833 1.432 1.038
3.989 1.428 0.872
3.634 1.343 0.627
3.791 1.101 0.489
3.980 0.705 0.578
3.721 0.778 0.489
3.731 0.282 6.328
3.746 0.074 6.044
3.909 0.520 6.339
3.678 0.458 5.966
3.957 0.349 6.110
3.877 0.099 5.937
3.697 0.969 6.272
3.606 0.858 5.967
3.937 0.827 6.113
3.685 0.673 5.638
3.698 0.203 5.727
4.090 -0.015 5.640
3.628 1.089 6.057
3.703 0.897 5.810
3.916 0.635 5.714
3.940 0.515 5.496
3.986 0.534 5.341
3.929 0.404 5.272
3.908 0.200 4.944
3.758 1.091 5.823
3.800 1.158 5.672
3.645 0.979 5.434
4.026 0.465 5.457
3.813 0.312 5.188
3.961 1.256 5.637
4.161 0.862 5.407
3.877 0.806 5.232
4.080 0.567 5.184
3.896 0.518 5.323
4.142 0.466 4.762
3.994 0.855 5.290
3.909 0.939 5.222
4.162 0.700 5.097
4.001 1.567 2.084
3.914 1.235 1.665
3.905 1.281 1.616
4.290 0.846 1.291
4.192 0.714 1.313
3.965 1.684 2.048
3.875 1.806 1.858
3.826 1.642 1.529
4.238 1.082 1.560
4.119 0.947 1.186
3.943 0.786 1.115
4.063 0.856 0.816
3.843 1.968 1.826
4.093 1.950 1.828
4.067 1.719 1.452
3.987 1.681 1.485
4.119 1.262 1.088
3.941 1.424 1.293
4.017 1.223 0.929
3.928 0.945 0.829
3.963 0.833 0.544
3.645 2.326 1.961
3.805 2.354 1.754
3.784 2.122 1.559
4.008 1.893 1.373
3.831 1.932 1.402
3.822 1.596 1.097
4.123 1.311 0.796
4.064 1.348 0.867
4.085 1.279 0.826
4.055 0.922 0.322
4.239 0.317 6.418
3.942 0.301 5.998
4.252 0.096 5.880
4.098 0.766 6.070
4.139 0.646 6.145
4.001 0.394 6.082
4.145 0.176 5.939
4.319 0.061 5.449
3.787 0.966 6.185
4.078 0.714 6.190
4.063 0.689 5.770
4.013 0.578 5.596
4.018 0.422 5.433
4.136 0.109 5.633
4.100 -0.077 5.190
4.159 0.965 5.741
3.931 0.782 5.852
3.848 0.813 5.625
4.112 0.697 5.465
3.921 0.495 5.427
4.330 0.263 5.020
3.773 1.357 5.553
4.162 1.174 5.489
3.930 0.980 5.480
4.146 0.673 5.332
4.111 0.470 4.915
4.263 0.477 4.838
4.313 1.096 5.660
4.222 0.806 5.326
4.393 0.739 5.325
4.516 0.618 5.007
4.256 0.212 5.038
4.358 0.183 4.791
4.175 0.980 5.261
4.064 0.944 5.073
4.337 0.816 4.856
4.488 0.327 4.941
4.440 1.547 2.272
4.489 1.089 2.138
4.260 1.083 1.617
4.355 1.738 2.170
4.064 1.501 2.023
4.439 1.542 1.639
4.460 1.009 1.723
4.225 1.102 1.553
4.318 0.805 1.120
4.305 1.928 2.269
3.998 2.005 2.130
4.012 1.726 1.635
4.356 1.601 1.572
4.360 1.310 1.644
4.271 1.108 1.198
4.476 1.018 1.093
4.567 0.941 0.886
4.013 2.266 2.083
4.101 1.845 1.785
4.377 1.874 1.715
4.409 1.595 1.513
4.084 1.445 1.343
4.460 1.158 1.144
4.224 0.939 1.091
4.365 0.953 0.802
3.989 2.409 1.771
4.298 2.148 1.736
4.058 2.167 1.635
4.229 1.925 1.613
4.325 1.801 1.336
4.232 1.635 1.091
4.174 1.583 1.121
4.193 1.330 0.892
4.159 1.112 0.728
4.486 0.293 6.214
4.376 -0.055 5.997
4.164 0.604 6.229
4.344 0.564 6.229
4.461 0.260 6.003
4.417 0.046 5.692
4.467 0.118 5.577
4.119 0.970 6.100
4.144 0.793 5.905
4.155 0.582 5.860
4.467 0.398 5.562
4.210 0.084 5.319
4.440 -0.143 5.196
4.408 1.089 5.860
4.271 0.753 5.720
4.219 0.687 5.529
4.439 0.365 5.418
4.236 0.163 5.157
4.379 0.338 5.210
4.516 -0.097 4.782
4.028 1.035 5.730
4.230 0.999 5.270
4.151 0.778 5.166
4.297 0.457 5.199
4.306 0.295 5.158
4.183 0.163 4.778
4.453 1.103 5.709
4.579 0.724 5.292
4.627 0.698 5.226
4.406 0.701 5.082
4.424 0.465 5.103
4.459 0.363 4.972
4.833 0.017 4.811
4.305 1.015 5.492
4.476 1.041 5.270
4.621 1.003 5.252
4.358 0.660 4.763
4.515 0.435 4.787
4.528 0.335 4.818
4.574 1.299 5.238
4.579 1.041 4.785
4.399 1.042 4.905
4.445 0.676 4.486
4.445 0.674 4.580
4.359 1.159 2.110
4.332 1.105 2.158
4.634 0.832 2.149
4.481 1.452 2.179
4.484 1.305 2.132
4.439 1.118 1.773
4.626 1.122 1.757
4.753 0.900 1.758
4.198 2.017 2.233
4.527 1.550 2.119
4.508 1.697 1.976
4.544 1.557 1.953
4.614 1.319 1.787
4.681 1.238 1.349
4.570 1.052 1.348
4.440 2.223 1.944
4.300 1.940 1.734
4.583 1.617 1.735
4.273 1.510 1.663
4.604 1.259 1.393
4.595 1.383 1.483
4.504 1.127 1.318
4.680 0.701 0.807
4.375 2.305 2.131
4.378 2.076 1.847
4.521 1.961 1.901
4.492 1.926 1.726
4.373 1.764 1.265
4.676 1.324 1.207
4.345 1.375 1.304
4.570 1.053 1.053
4.515 0.838 0.987
4.438 2.696 1.838
4.249 2.456 1.744
4.503 2.153 1.539
4.552 1.847 1.310
4.529 1.949 1.146
4.394 1.687 1.088
4.679 1.656 0.789
4.654 1.313 1.012
4.582 1.057 0.745
4.650 0.130 6.153
4.762 0.280 6.144
4.527 0.641 6.449
4.639 0.450 6.014
4.472 0.633 5.759
4.410 0.457 5.908
4.584 0.096 5.623
4.307 1.077 6.206
4.537 0.842 6.124
4.488 0.675 5.764
4.503 0.402 5.619
4.708 0.333 5.279
4.782 0.043 5.297
4.344 0.902 6.049
4.522 0.957 5.790
4.427 0.792 5.553
4.723 0.541 5.531
4.447 0.283 5.204
4.734 0.328 5.264
4.819 0.031 4.905
4.549 0.978 5.396
4.473 0.833 5.619
4.468 0.607 5.183
4.494 0.690 5.295
4.497 0.349 4.877
4.547 0.411 4.874
4.453 -0.010 4.750
4.650 0.970 5.476
4.746 0.748 5.626
4.656 0.697 5.374
4.683 0.478 4.950
4.997 0.466 5.146
4.811 0.299 4.665
4.929 -0.116 4.527
4.698 1.133 5.473
4.530 1.091 5.343
4.842 1.073 5.115
4.809 0.708 4.953
4.855 0.517 4.681
4.990 0.430 4.731
4.895 0.158 4.600
4.501 1.154 4.928
4.538 1.169 4.976
4.779 0.980 4.661
4.745 0.687 4.795
4.697 0.365 4.563
4.956 0.362 4.365
4.604 1.286 4.719
4.525 1.241 4.809
4.762 0.782 4.558
4.646 0.824 4.437
4.913 0.973 4.439
4.692 0.704 4.312
4.603 1.213 2.589
4.564 1.296 2.401
4.699 0.999 2.193
4.800 1.527 2.694
4.742 1.570 2.376
4.861 1.462 2.120
4.892 1.234 2.313
4.739 0.852 1.903
4.625 0.638 1.753
4.585 1.854 2.242
4.778 1.408 2.259
4.521 1.511 1.934
4.936 1.149 1.931
4.752 1.261 1.948
4.831 0.995 1.717
4.741 0.780 1.597
4.615 1.993 2.179
4.672 1.762 1.993
4.638 1.415 1.977
4.539 1.331 1.913
4.652 1.356 1.662
4.838 0.879 1.415
4.826 0.890 1.421
4.643 2.280 2.157
4.838 1.806 2.092
4.530 1.926 1.683
4.598 1.620 1.723
4.578 1.270 1.548
4.635 1.207 1.454
4.731 1.038 1.077
4.713 2.587 2.136
4.484 2.302 2.052
4.573 2.206 1.628
4.482 1.752 1.438
4.732 1.525 1.514
4.561 1.400 1.118
4.787 1.485 1.227
4.979 1.030 0.816
4.660 2.565 1.735
4.732 2.348 1.718
4.646 2.354 1.563
4.554 2.102 1.503
4.785 1.868 1.369
4.878 1.734 1.140
4.683 1.330 1.102
4.727 1.261 0.686
4.876 0.240 5.973
4.996 -0.011 6.167
4.745 0.749 5.927
4.681 0.349 5.783
4.744 0.150 5.809
4.680 0.293 5.716
4.591 0.974 5.966
4.829 0.461 5.625
4.599 0.487 5.673
4.721 0.378 5.596
5.004 0.303 5.527
4.609 0.929 5.653
4.567 0.821 5.517
4.734 0.716 5.566
4.909 0.266 5.389
4.620 0.421 5.196
4.846 0.258 5.105
4.731 1.011 5.801
4.568 0.927 5.492
4.721 0.794 5.297
4.938 0.606 4.993
4.830 0.601 5.140
4.660 0.317 4.624
4.662 0.267 4.871
5.030 1.193 5.798
5.133 0.883 5.522
4.782 0.986 5.186
4.858 0.517 5.237
4.932 0.426 5.085
5.080 0.432 4.788
4.912 0.017 4.797
4.918 1.298 5.473
4.766 1.148 5.243
4.887 0.884 5.129
4.834 0.758 4.939
4.945 0.579 4.609
5.131 0.399 4.685
4.906 0.258 4.582
4.734 1.455 5.265
4.801 1.337 5.015
5.100 1.219 5.088
4.934 0.985 4.671
4.872 0.602 4.820
4.890 0.753 4.652
5.233 0.509 4.390
4.830 1.250 5.076
5.079 1.319 4.799
4.911 1.131 4.521
5.071 0.921 4.356
4.876 0.651 4.498
5.084 0.447 4.054
4.870 1.540 4.711
5.057 1.403 4.524
4.944 0.905 4.479
5.074 0.926 4.201
4.892 0.838 3.815
4.943 0.731 3.702
5.068 1.483 4.423
4.946 1.334 4.276
5.130 0.895 3.843
4.989 0.924 3.640
4.958 0.835 3.859
4.849 1.293 3.657
5.035 1.087 3.703
4.971 0.688 3.494
5.100 1.113 3.336
4.958 0.976 3.490
4.894 0.662 3.178
4.738 1.175 3.367
4.869 1.314 2.945
5.196 1.131 3.071
4.820 0.665 2.689
4.846 1.456 3.015
5.000 1.251 3.136
5.113 0.977 2.935
5.147 1.187 2.576
5.226 0.632 2.309
4.997 0.616 2.337
4.717 1.490 2.926
4.887 1.504 2.736
4.824 1.269 2.500
5.201 0.950 2.292
5.205 0.950 1.998
5.041 0.673 1.958
4.853 1.820 2.789
4.860 1.303 2.482
4.943 1.457 2.410
4.949 1.262 2.010
5.046 1.164 2.141
5.117 0.610 1.796
4.755 1.621 2.418
5.093 1.470 2.395
4.997 1.345 2.335
5.009 1.472 1.884
4.863 1.151 1.965
5.108 0.787 1.850
5.085 0.637 1.335
4.747 2.131 2.347
4.914 1.725 2.138
5.073 1.818 2.158
5.117 1.286 1.794
4.951 1.386 1.510
5.193 0.987 1.298
5.048 1.069 1.271
5.003 2.077 2.413
4.805 2.207 2.298
4.822 1.773 2.023
4.749 1.636 1.811
4.850 1.491 1.724
4.937 1.626 1.515
4.985 1.256 1.248
5.015 1.047 1.209
4.642 2.509 2.077
4.716 2.170 1.775
5.048 1.953 1.715
5.038 2.067 1.664
5.033 1.735 1.480
4.977 1.560 1.238
4.876 1.497 1.020
4.897 1.240 1.115
4.640 2.540 1.936
4.644 2.456 1.579
4.994 2.097 1.697
4.660 2.044 1.588
5.006 2.101 1.127
4.754 1.663 1.092
4.801 1.376 0.835
4.886 1.583 0.886
5.201 0.209 6.303
4.950 0.397 6.102
5.121 -0.005 5.893
5.047 -0.029 5.667
5.195 0.356 6.137
5.124 0.289 5.720
5.082 0.146 5.485
4.863 0.755 5.870
4.908 0.456 5.710
5.101 0.594 5.500
5.169 0.225 5.429
4.967 0.165 5.224
4.820 0.899 5.695
4.958 0.880 5.813
4.797 0.471 5.549
5.040 0.463 5.415
4.966 0.135 4.999
4.988 0.188 5.090
5.003 0.989 5.468
4.857 0.801 5.461
5.076 0.805 5.184
5.119 0.457 5.168
5.053 0.494 4.954
5.184 0.234 4.641
5.121 0.012 4.787
5.304 1.023 5.776
5.127 0.980 5.445
5.099 0.796 5.151
5.344 0.644 5.061
5.334 0.694 5.194
5.133 0.403 5.007
5.301 0.238 4.506
4.932 1.393 5.607
5.195 1.320 5.188
5.186 1.046 5.048
5.214 0.621 4.997
5.404 0.851 4.959
5.201 0.273 4.601
5.154 0.471 4.494
5.308 0.064 4.407
5.213 1.580 5.086
5.048 1.278 4.950
5.198 1.071 5.088
5.188 0.987 4.936
5.022 0.865 4.515
5.334 0.733 4.443
5.134 0.396 4.455
5.315 0.234 4.100
5.239 1.441 5.297
5.102 1.622 4.932
5.040 1.243 4.759
5.041 1.289 4.791
5.263 0.812 4.344
5.292 0.610 4.320
5.431 0.660 4.173
5.372 0.312 4.038
4.982 1.670 4.740
5.019 1.572 4.600
5.075 1.350 4.564
5.117 1.275 4.278
5.285 0.967 4.059
5.193 0.726 3.943
5.158 0.775 3.756
5.175 1.676 4.243
5.003 1.429 4.215
5.135 1.304 4.299
5.165 0.959 3.913
5.164 1.026 3.918
5.111 0.884 3.718
5.160 0.626 3.564
5.236 1.506 4.136
4.999 1.531 4.056
5.247 1.385 3.884
5.098 0.943 3.829
5.077 1.030 3.347
5.138 0.580 3.364
5.383 0.642 3.212
5.084 1.665 3.908
5.193 1.300 3.582
5.349 1.120 3.329
5.180 0.903 3.492
5.280 1.061 3.144
5.360 0.688 2.878
5.397 0.686 2.672
5.130 1.643 3.388
5.332 1.570 3.367
5.218 1.090 3.035
5.208 1.090 3.118
5.209 0.696 2.851
5.314 0.577 2.795
5.253 0.363 2.655
5.059 1.580 3.231
5.124 1.376 3.017
5.313 1.328 3.067
5.138 1.145 2.938
5.284 0.934 2.484
5.194 1.011 2.431
5.090 0.721 2.366
5.480 0.497 2.205
5.142 1.822 3.139
5.131 1.554 2.808
5.009 1.436 2.696
5.058 1.116 2.666
5.403 1.091 2.407
5.307 0.931 2.302
5.230 0.698 2.186
5.203 2.037 2.915
5.029 1.814 2.466
5.326 1.501 2.287
5.325 1.514 2.312
5.202 1.051 2.322
5.114 0.836 2.026
5.129 0.798 1.920
5.250 0.848 1.487
4.894 2.113 2.496
5.252 1.954 2.301
5.097 1.870 2.471
5.185 1.342 1.937
5.101 1.309 1.969
5.168 1.327 1.850
5.254 0.918 1.668
5.122 0.838 1.525
5.132 2.294 2.449
5.193 1.837 2.200
5.246 1.717 1.957
5.219 1.795 2.101
5.001 1.390 1.777
5.103 1.276 1.721
5.196 1.084 1.658
5.364 1.151 1.486
5.162 1.962 1.976
4.915 1.781 1.924
5.218 1.991 1.687
5.037 1.471 1.589
5.277 1.602 1.276
5.082 1.130 1.199
5.382 1.185 1.139
5.207 2.242 2.045
5.107 2.169 1.713
4.970 1.766 1.616
5.088 1.904 1.461
5.140 1.804 1.391
5.393 1.585 1.047
5.277 1.317 1.033
5.162 2.563 1.650
4.980 2.338 1.753
5.274 2.185 1.405
5.067 1.804 1.233
5.024 1.675 1.129
5.104 1.658 0.910
5.515 0.177 5.942
5.242 0.509 6.027
5.289 0.271 5.733
5.364 0.138 5.685
5.363 0.224 5.701
5.115 0.580 5.673
5.178 0.520 5.701
5.233 0.174 5.524
5.263 0.381 5.469
5.418 0.214 5.103
4.958 1.097 5.781
5.340 1.028 5.570
5.370 0.671 5.602
5.177 0.673 5.359
5.246 0.227 5.156
5.281 0.132 5.144
5.300 1.361 5.701
5.330 0.984 5.577
5.279 0.902 5.338
5.160 0.629 5.083
5.389 0.686 4.851
5.336 0.500 4.997
5.173 0.227 4.477
5.309 1.102 5.687
5.603 0.899 5.301
5.508 0.932 5.495
5.619 0.833 5.020
5.644 0.593 5.071
5.457 0.536 4.982
5.559 0.066 4.821
5.433 1.433 5.708
5.362 1.486 5.317
5.341 1.070 5.281
5.599 1.041 5.055
5.483 0.711 5.014
5.597 0.627 4.619
5.503 0.388 4.778
5.632 0.254 4.512
5.377 0.053 4.503
5.189 1.692 5.255
5.200 1.669 5.185
5.551 1.487 4.923
5.503 1.024 4.996
5.493 0.956 4.865
5.485 0.873 4.633
5.365 0.747 4.459
5.638 0.450 4.206
5.384 0.238 4.296
5.247 1.782 5.158
5.545 1.627 4.890
5.529 1.137 4.863
5.519 1.195 4.745
5.254 1.043 4.621
5.525 0.761 4.350
5.699 0.813 3.986
5.319 0.635 4.173
5.470 2.027 4.728
5.335 1.618 4.569
5.428 1.570 4.790
5.471 1.182 4.607
5.452 1.335 4.331
5.593 1.152 4.228
5.417 0.947 4.079
5.370 0.836 3.742
5.734 0.366 3.631
5.151 1.848 4.601
5.526 1.552 4.346
5.483 1.286 4.265
5.393 1.265 4.184
5.340 0.954 4.158
5.415 1.110 3.800
5.544 0.782 3.834
5.456 0.647 3.628
5.369 0.371 3.161
5.434 1.982 4.470
5.325 1.599 3.968
5.267 1.262 4.030
5.372 1.404 3.705
5.298 1.029 3.811
5.506 1.042 3.457
5.575 0.857 3.430
5.400 0.632 3.361
5.665 0.627 3.159
5.212 1.588 4.074
5.189 1.574 3.854
5.185 1.417 3.673
5.477 1.434 3.515
5.369 1.046 3.388
5.649 1.014 3.247
5.420 0.866 3.129
5.492 0.436 2.873
5.479 0.619 2.847
5.345 1.635 3.432
5.440 1.406 3.335
5.269 1.341 3.221
5.550 1.319 3.200
5.612 1.035 3.044
5.547 0.788 2.988
5.645 0.767 2.720
5.364 0.480 2.403
5.504 0.477 2.425
5.305 1.749 3.209
5.440 1.605 2.943
5.218 1.304 2.868
5.501 1.092 2.939
5.539 0.971 2.688
5.376 0.893 2.565
5.348 0.902 2.232
5.462 0.595 2.195
5.420 0.370 1.924
5.412 2.027 2.908
5.388 1.831 2.795
5.482 1.428 2.793
5.513 1.490 2.598
5.634 1.399 2.394
5.335 0.890 2.502
5.376 0.710 2.138
5.414 0.524 1.984
5.497 0.341 1.829
5.434 1.796 2.943
5.274 1.629 2.786
5.395 1.413 2.400
5.339 1.216 2.275
5.543 1.070 2.121
5.535 1.040 2.033
5.391 0.869 1.729
5.526 0.583 1.783
5.510 0.392 1.589
5.391 2.089 2.676
5.285 1.732 2.513
5.224 1.910 2.244
5.441 1.408 2.254
5.286 1.331 2.177
5.276 1.302 2.008
5.535 1.032 1.766
5.726 0.704 1.542
5.597 0.754 1.184
5.300 2.121 2.451
5.453 1.850 2.144
5.425 1.572 1.869
5.423 1.703 1.709
5.601 1.313 1.493
5.521 1.205 1.571
5.321 1.042 1.149
5.423 2.074 2.106
5.124 2.120 2.096
5.169 1.868 1.975
5.404 1.600 1.595
5.331 1.597 1.659
5.592 1.165 1.251
5.578 1.110 1.184
5.132 2.144 1.867
5.402 2.186 1.655
5.274 1.818 1.481
5.381 1.913 1.476
5.425 1.726 1.190
5.235 1.634 1.259
5.262 2.165 1.682
5.284 2.049 1.485
5.190 2.050 1.436
5.280 1.791 1.068
5.569 0.231 5.813
5.471 0.240 5.643
5.589 0.924 5.996
5.331 0.468 5.515
5.355 0.472 5.679
5.446 0.330 5.345
5.637 0.113 5.092
5.431 1.130 5.957
5.460 1.034 5.574
5.454 0.818 5.289
5.480 0.435 5.163
5.558 0.258 4.989
5.402 0.355 4.867
5.574 0.032 4.743
5.358 1.323 5.710
5.201 1.060 5.473
5.532 0.706 5.160
5.330 0.628 5.321
5.363 0.420 5.180
5.536 0.211 4.719
5.469 0.070 4.742
5.771 1.282 5.800
5.769 1.054 5.490
5.535 0.920 5.438
5.619 0.730 5.109
5.776 0.451 5.048
5.632 0.426 4.750
5.831 0.388 4.693
5.638 1.659 5.693
5.554 1.550 5.323
5.642 1.144 5.319
5.598 1.150 5.297
5.751 0.726 5.093
5.536 0.828 4.741
5.637 0.509 4.702
5.951 0.453 4.314
5.338 1.848 5.604
5.411 1.592 5.482
5.514 1.439 5.129
5.542 1.042 5.156
5.712 0.969 4.977
5.550 0.981 4.609
5.788 0.677 4.436
5.820 0.522 4.361
5.910 0.175 4.261
5.663 1.827 5.458
5.554 1.900 5.134
5.478 1.591 4.896
5.801 1.525 4.930
5.628 1.348 4.839
5.598 1.146 4.503
5.799 0.741 4.306
5.646 0.723 3.969
5.917 0.721 4.157
5.810 0.289 3.771
5.318 1.886 4.967
5.336 1.815 4.934
5.462 1.761 4.936
5.777 1.661 4.526
5.811 1.339 4.626
5.721 1.139 4.123
5.720 1.093 3.993
5.844 0.922 3.958
5.836 0.652 3.734
5.774 0.495 3.861
5.475 1.872 4.835
5.406 1.941 4.638
5.544 1.778 4.265
5.794 1.342 4.201
5.811 1.423 4.339
5.633 1.119 4.162
5.491 1.124 3.639
5.552 1.006 3.513
5.938 0.679 3.344
5.572 0.411 3.388
5.479 1.921 4.464
5.592 1.825 4.169
5.631 1.464 4.316
5.658 1.688 4.079
5.819 1.296 4.006
5.623 1.002 3.493
5.668 0.808 3.493
5.664 0.706 3.435
5.814 0.444 3.381
5.892 0.339 2.871
5.636 1.906 3.988
5.688 1.966 3.749
5.640 1.519 3.848
5.671 1.462 3.462
5.465 1.353 3.481
5.780 1.260 3.444
5.750 0.852 3.357
5.599 0.940 2.820
5.963 0.798 2.747
5.785 0.389 2.852
5.711 0.087 2.725
5.679 1.936 3.695
5.485 1.795 3.722
5.734 1.573 3.631
5.537 1.535 3.485
5.446 1.428 3.095
5.694 1.294 3.190
5.560 0.782 2.712
5.762 0.741 2.870
5.595 0.416 2.492
5.941 0.417 2.275
6.032 0.317 2.298
5.556 2.089 3.292
5.380 1.820 3.366
5.498 1.663 3.177
5.808 1.379 3.139
5.692 1.391 2.713
5.587 1.162 2.850
5.768 1.069 2.461
5.630 0.701 2.371
5.813 0.706 2.295
5.625 0.262 1.846
5.352 2.002 2.977
5.689 1.754 2.856
5.411 1.480 2.910
5.610 1.277 2.539
5.844 1.128 2.329
5.557 1.018 2.286
5.654 1.122 2.179
5.635 0.759 2.224
5.880 0.377 1.751
5.782 0.460 1.794
5.656 1.911 2.871
5.411 1.900 2.500
5.800 1.785 2.572
5.458 1.255 2.480
5.723 1.197 2.042
5.634 0.905 1.821
5.655 0.975 1.868
5.936 0.864 1.727
5.895 0.542 1.634
5.407 1.971 2.453
5.376 1.916 2.401
5.671 1.853 2.311
5.784 1.534 2.226
5.603 1.429 2.144
5.599 1.112 1.909
5.654 0.944 1.588
5.569 0.930 1.363
5.816 0.689 1.230
5.396 2.172 2.347
5.471 1.855 2.046
5.437 1.903 1.998
5.729 1.432 1.870
5.854 1.387 1.683
5.731 1.289 1.655
5.793 1.059 1.432
5.601 1.012 1.192
5.756 2.011 1.936
5.515 1.820 1.631
5.794 1.568 1.494
5.523 1.651 1.462
5.874 1.527 1.339
5.753 0.995 1.056
5.694 1.852 1.835
5.757 2.031 1.590
5.755 1.801 1.465
5.573 1.500 0.970
5.717 0.423 5.653
5.637 0.249 5.640
5.576 0.217 5.440
5.761 1.190 5.750
5.680 1.070 5.610
5.698 0.717 5.512
5.573 0.562 5.210
5.686 0.276 5.308
5.842 0.381 5.052
5.435 1.412 5.641
5.699 0.940 5.343
5.549 1.112 5.400
5.738 0.832 5.101
5.842 0.597 5.165
5.726 0.318 4.691
5.855 0.046 4.583
5.653 1.191 5.677
5.979 1.015 5.596
6.021 0.900 5.472
6.069 0.648 5.013
5.767 0.475 5.004
5.902 0.281 4.889
5.717 1.808 5.583
5.749 1.408 5.542
5.936 1.237 5.446
6.074 1.194 5.171
5.806 0.836 4.804
5.802 0.743 4.878
6.167 0.421 4.733
6.050 0.430 4.496
5.667 1.951 5.684
5.819 1.663 5.544
5.595 1.675 5.418
5.957 1.502 5.083
6.038 1.426 4.933
5.817 0.885 4.920
5.882 0.911 4.794
5.981 0.845 4.571
5.966 0.751 4.386
6.209 0.203 4.011
5.701 2.290 5.382
5.923 1.763 5.401
5.650 1.887 5.256
5.647 1.667 4.984
5.829 1.258 4.793
5.950 1.290 4.614
5.984 0.990 4.374
5.742 1.006 4.341
6.037 0.850 3.976
5.953 0.379 3.860
5.485 2.283 5.048
5.794 2.186 4.905
5.827 1.783 5.104
5.701 1.636 4.748
5.826 1.660 4.577
5.809 1.388 4.451
5.816 1.295 4.210
6.015 0.872 4.137
5.862 1.019 4.103
5.846 0.851 3.691
6.079 0.385 3.728
5.858 2.217 5.007
5.918 2.092 4.797
5.592 1.893 4.786
5.824 1.763 4.573
5.719 1.680 4.342
5.813 1.328 4.192
5.737 1.387 3.955
5.905 1.033 3.772
5.824 0.906 3.597
6.163 0.746 3.583
6.206 0.553 3.327
5.520 2.282 4.692
5.881 2.131 4.446
5.807 1.753 4.209
5.644 1.751 4.234
5.881 1.558 4.096
5.749 1.175 3.902
6.051 1.240 3.572
6.021 1.013 3.495
5.754 0.854 3.198
6.074 0.740 3.303
6.214 0.523 3.143
5.859 0.506 2.901
5.868 2.242 4.262
5.720 2.073 4.216
5.658 1.916 3.863
5.935 1.703 3.717
5.931 1.655 3.562
5.824 1.383 3.625
5.845 1.233 3.181
5.836 1.078 3.135
6.068 0.645 3.054
6.126 0.460 2.785
6.167 0.305 2.749
6.189 0.365 2.394
5.581 1.925 3.928
5.666 1.901 3.803
5.712 1.781 3.550
5.837 1.473 3.389
5.957 1.221 3.066
5.881 1.352 2.830
5.904 0.927 2.807
6.053 0.716 2.825
5.978 0.739 2.606
6.178 0.527 2.378
6.022 0.304 2.129
6.250 0.299 2.253
5.853 1.983 3.332
5.717 1.633 3.294
5.939 1.763 3.110
5.667 1.405 3.074
5.848 1.394 2.652
6.072 0.978 2.875
5.985 0.826 2.676
6.025 0.914 2.242
6.200 0.432 2.140
6.183 0.445 1.892
5.901 0.349 1.819
5.734 2.114 3.256
5.830 1.738 3.023
5.768 1.778 2.803
5.665 1.336 2.775
6.065 1.477 2.620
5.935 1.041 2.350
6.112 1.155 2.161
6.171 0.894 1.885
6.218 0.452 1.771
5.861 0.250 1.664
6.185 0.263 1.537
5.834 1.827 2.915
5.955 1.931 2.781
5.843 1.466 2.302
6.051 1.507 2.272
5.945 1.193 2.186
6.131 1.163 1.953
6.058 0.967 1.953
6.086 0.958 1.658
6.207 0.795 1.371
6.261 0.336 1.351
5.650 1.821 2.432
5.769 1.841 2.215
5.710 1.534 2.283
6.040 1.413 2.187
5.990 1.430 1.871
5.927 1.177 1.486
5.949 0.805 1.605
6.198 0.829 1.461
5.940 2.105 1.943
5.640 1.811 2.084
5.967 1.496 1.980
5.745 1.400 1.471
6.113 1.147 1.685
6.016 1.240 1.451
5.922 0.951 1.178
5.751 2.109 1.623
5.851 1.615 1.671
5.732 1.544 1.668
6.073 1.266 1.247
5.826 1.162 1.009
6.019 1.126 5.490
5.857 0.823 5.442
5.843 0.675 5.254
5.975 0.555 4.991
5.871 1.327 5.553
6.004 1.008 5.390
5.781 0.902 5.393
5.944 0.935 5.078
5.995 0.521 4.863
5.963 0.617 4.694
0.255 0.640 5.609
0.102 0.355 5.544
-0.087 0.224 5.257
0.349 -0.115 5.083
-0.061 0.691 5.528
0.128 0.528 5.521
0.203 0.386 5.509
0.077 0.235 5.036
0.133 0.009 4.857
0.293 -0.009 4.890
-0.150 0.830 5.343
-0.035 0.507 4.961
-0.022 0.709 5.110
0.152 0.437 4.697
0.279 0.257 4.742
0.126 0.875 5.062
-0.118 0.806 4.716
0.226 0.541 4.686
-0.056 0.251 4.465
0.267 0.274 4.197
0.080 0.861 4.820
-0.030 0.669 4.576
0.049 0.606 4.423
-0.085 0.286 4.348
-0.078 0.181 4.379
0.362 0.282 3.939
0.173 1.059 4.279
0.088 0.690 4.201
0.151 0.560 4.061
-0.065 0.459 4.048
0.333 0.348 3.790
0.066 0.193 3.624
0.147 1.076 4.018
0.007 0.976 3.803
0.113 0.450 3.887
0.314 0.243 3.626
0.200 0.134 3.424
0.302 0.018 3.438
0.170 1.065 4.003
-0.065 0.782 3.834
0.004 0.620 3.836
0.105 0.558 3.435
0.295 0.449 3.475
0.092 0.248 2.993
0.001 -0.017 3.119
-0.032 1.204 3.690
0.195 1.033 3.492
-0.057 0.889 3.329
0.078 0.700 3.029
-0.018 0.404 2.822
0.262 0.209 2.909
0.234 0.068 2.638
-0.014 0.739 3.342
0.125 0.570 2.939
0.134 0.416 2.851
0.097 0.586 2.740
0.008 0.203 2.639
0.054 -0.055 2.356
-0.001 0.674 2.501
-0.059 0.595 2.425
-0.010 0.437 2.378
0.044 0.381 2.410
0.109 0.216 2.026
-0.011 0.623 2.552
0.184 0.735 2.266
0.131 0.430 2.135
0.310 0.117 1.746
0.338 0.203 1.521
0.185 0.578 2.062
0.044 0.417 2.017
0.169 0.363 1.850
0.405 0.354 1.391
0.322 -0.069 1.558
0.188 0.672 1.883
0.177 0.472 1.443
0.284 0.360 1.256
0.303 0.345 1.217
0.036 0.340 1.140
0.068 0.157 1.117
0.080 0.500 5.807
0.179 0.238 5.432
0.287 0.154 5.235
0.233 0.038 5.343
0.329 0.855 5.689
0.325 0.554 5.645
0.231 0.367 5.547
0.405 0.357 5.454
0.365 1.186 5.790
0.324 1.029 5.699
0.361 0.881 5.542
0.133 0.531 5.319
0.206 0.335 5.342
0.291 0.396 4.830
0.183 0.196 4.822
0.111 1.446 5.916
0.265 1.306 5.575
0.175 1.118 5.473
0.093 0.875 5.336
0.122 0.764 5.037
0.248 0.423 4.987
0.364 0.556 4.837
0.345 0.378 4.597
0.252 0.199 4.641
0.295 1.680 5.589
0.024 1.685 5.688
0.167 1.332 5.452
0.164 1.353 5.422
0.164 1.072 5.072
0.432 0.857 4.850
0.118 0.614 5.026
0.509 0.538 4.789
0.154 0.273 4.700
0.472 0.238 4.458
0.245 0.058 4.188
0.231 2.059 5.702
-0.081 1.818 5.412
0.032 1.604 5.598
0.175 1.457 5.394
0.377 1.558 4.936
0.403 1.299 4.878
0.410 1.164 4.788
0.332 0.964 4.475
0.424 0.650 4.569
0.215 0.700 4.547
0.215 0.337 4.206
0.281 0.233 3.983
0.166 2.038 5.465
0.088 2.094 5.367
0.102 1.868 5.337
0.262 1.525 5.175
0.096 1.396 4.887
0.007 1.302 4.757
0.079 1.140 4.533
0.159 0.807 4.426
0.430 0.722 4.304
0.351 0.739 4.137
0.172 0.599 4.069
0.411 0.525 4.046
0.387 0.013 3.813
-0.007 2.523 5.295
0.067 2.104 5.150
0.076 2.181 5.095
0.276 1.924 4.854
0.156 1.856 4.948
0.076 1.604 4.508
0.338 1.539 4.278
0.215 1.308 4.448
0.410 0.878 4.342
0.357 0.888 4.106
0.222 0.740 3.645
0.505 0.607 3.493
0.272 0.294 3.467
0.578 0.093 3.303
-0.142 2.287 5.268
0.238 2.030 4.730
0.025 1.868 4.559
0.269 1.983 4.568
0.252 1.723 4.544
0.355 1.536 4.268
0.099 1.501 4.327
0.218 1.350 3.829
0.119 0.824 3.650
0.368 0.758 3.655
0.276 0.563 3.437
0.533 0.321 3.220
0.393 0.340 3.021
0.552 -0.046 3.248
0.269 0.624 3.253
0.233 0.648 2.919
0.213 0.253 2.834
0.617 0.101 2.909
0.414 0.523 2.739
0.366 0.509 2.601
0.412 0.092 2.726
0.364 0.124 2.391
0.496 0.676 2.723
0.576 0.625 2.533
0.236 0.403 2.062
0.334 -0.033 1.975
0.268 0.382 2.364
0.218 0.379 2.069
0.368 0.239 1.715
0.507 0.134 1.644
0.581 0.675 2.002
0.225 0.282 1.912
0.424 0.197 1.557
0.461 -0.132 1.356
0.504 0.368 1.690
0.524 0.439 1.355
0.594 0.345 1.120
0.618 -0.086 1.223
0.522 0.465 1.167
0.225 0.733 5.668
0.081 0.432 5.721
0.261 0.307 5.399
0.216 0.082 5.169
1.741 0.003 0.280
1.521 0.173 0.056
1.942 0.232 0.343
1.725 0.381 0.230
2.304 0.193 0.435
2.091 0.246 0.126
2.392 0.066 0.145
2.216 0.418 -0.073
2.485 -0.125 0.647
2.678 0.193 0.221
2.673 0.274 0.123
2.771 -0.048 0.319
2.821 0.005 0.467
2.724 -0.068 0.322
2.891 0.276 0.122
2.923 0.228 0.693
2.979 0.299 0.460
3.253 0.021 0.050
3.038 0.190 0.337
3.377 0.208 0.572
3.277 0.420 0.519
3.307 0.192 0.140
3.315 0.528 0.014
3.615 0.211 0.480
3.687 0.272 0.006
3.675 0.106 0.125
3.672 0.336 0.179
6.065 4.396 6.254
5.959 4.786 6.231
6.203 4.642 6.017
5.925 5.234 6.311
6.106 5.034 6.283
5.975 5.017 6.134
5.826 4.801 5.810
5.660 5.496 6.324
5.839 5.218 6.243
6.084 5.335 5.898
5.834 5.103 5.847
5.871 4.743 5.669
5.928 5.901 6.182
5.758 5.518 5.970
5.663 5.315 6.060
5.788 5.114 5.631
6.068 5.337 5.707
6.065 4.799 5.526
5.907 6.097 6.075
5.634 5.934 5.975
5.683 5.774 5.836
5.944 5.769 5.587
6.030 5.386 5.737
5.836 5.391 5.641
5.896 4.972 5.333
5.578 5.944 6.086
5.635 6.094 5.858
5.654 5.581 5.678
5.866 5.721 5.468
5.882 5.345 5.281
5.807 5.194 4.963
5.885 5.983 5.290
6.226 4.178 6.021
6.419 4.603 6.243
6.287 4.514 5.787
5.978 5.031 6.206
6.126 5.102 6.127
6.024 4.698 5.954
6.038 4.779 5.953
6.002 5.633 6.443
6.178 5.255 5.954
6.210 5.187 6.154
6.121 4.870 5.771
6.309 4.835 5.845
5.888 5.684 6.179
6.142 5.729 5.975
6.087 5.508 5.812
6.036 5.182 5.860
6.014 5.332 5.667
6.117 4.929 5.426
6.170 5.815 5.925
5.909 5.914 5.954
6.164 5.795 5.749
6.176 5.457 5.503
6.035 5.339 5.325
6.132 5.301 5.104
5.831 6.037 5.604
5.903 5.778 5.418
5.990 5.524 5.604
6.273 5.622 5.401
6.180 5.124 4.959
6.038 5.813 5.368
5.892 5.696 5.028
6.148 5.952 6.121
6.080 6.089 5.896
6.220 5.711 6.116
6.449 5.993 5.744
6.288 5.808 5.729
5.436 4.624 6.075
5.539 4.597 6.048
5.509 5.147 6.186
5.645 4.777 6.128
5.407 4.655 6.100
5.512 4.739 5.663
5.584 5.565 6.079
5.561 5.304 5.940
5.504 5.105 6.110
5.353 4.974 5.871
5.431 4.571 5.571
5.209 5.641 6.091
5.364 5.566 6.264
5.325 5.506 6.078
5.298 5.049 5.591
5.594 4.999 5.411
5.520 4.736 5.473
5.089 5.864 6.318
5.295 5.855 6.166
5.259 5.819 5.814
5.218 5.424 5.861
5.448 5.567 5.661
5.299 5.329 5.411
5.320 6.158 5.903
5.438 6.010 5.779
5.396 6.081 5.756
5.234 5.647 5.407
5.362 5.446 5.405
5.327 6.099 5.572
5.311 5.868 5.582
5.367 5.897 5.354
5.767 4.250 6.307
5.837 4.487 5.949
5.897 4.417 5.886
5.831 5.241 6.405
5.592 5.108 6.269
5.655 4.949 6.136
5.589 4.719 5.801
5.666 5.644 6.415
5.692 5.105 5.930
5.748 5.173 5.862
5.668 4.797 5.647
5.860 4.828 5.727
5.461 5.744 6.239
5.521 5.755 5.970
5.803 5.577 5.841
5.777 5.137 5.899
5.740 5.224 5.793
5.634 4.802 5.594
5.556 6.207 6.294
5.413 5.901 6.205
5.753 5.893 5.820
5.705 5.468 5.853
5.552 5.226 5.772
5.688 5.237 5.367
5.683 5.207 5.296
5.402 6.306 6.154
5.608 6.277 5.991
5.536 5.734 5.626
5.631 5.571 5.549
5.797 5.722 5.499
5.746 5.253 5.343
5.666 6.095 5.597
5.524 5.940 5.253
5.993 4.252 6.243
5.950 4.689 6.079
6.094 4.425 6.077
5.908 5.241 6.328
6.114 4.951 6.010
6.132 4.857 5.972
5.844 4.812 5.827
5.684 5.478 6.442
6.023 5.312 5.902
5.889 5.024 5.852
6.080 4.779 5.889
6.158 4.649 5.754
5.726 5.996 6.217
5.782 5.663 6.252
5.988 5.668 5.816
5.997 5.140 5.668
5.720 5.317 5.692
6.010 4.980 5.278
5.725 6.007 6.126
5.766 5.795 6.024
5.632 5.719 5.719
5.774 5.431 5.598
6.077 5.539 5.656
6.077 5.197 5.527
5.868 5.278 5.342
5.593 5.973 5.853
5.832 6.104 5.545
5.971 5.911 5.427
6.040 5.597 5.410
5.888 5.528 5.220
5.777 5.146 5.154
5.982 5.777 5.347
6.167 3.087 5.997
6.439 2.906 5.791
6.241 3.196 5.769
6.423 3.248 5.718
6.437 3.104 5.767
6.345 3.463 6.059
6.040 3.324 5.744
6.175 3.237 5.684
6.153 3.208 5.200
6.212 3.044 5.086
6.120 3.970 5.964
6.082 3.661 5.825
6.232 3.491 5.579
6.034 3.683 5.332
6.378 3.396 5.262
6.317 3.133 5.195
6.237 2.950 5.015
6.157 3.069 5.024
5.942 4.081 5.825
6.120 4.164 5.719
6.300 3.727 5.751
6.019 3.662 5.457
5.955 3.905 5.333
6.118 3.716 5.028
5.860 4.449 5.705
6.262 4.256 5.851
6.182 4.097 5.536
6.009 3.758 5.394
6.198 4.632 5.711
6.023 4.287 5.476
6.004 4.288 5.183
5.829 4.790 5.521
6.036 4.339 5.262
6.010 4.406 5.295
5.983 4.916 5.431
6.112 4.760 5.261
5.836 4.887 5.193
6.174 4.489 5.711
6.170 4.619 5.668
6.217 4.862 5.558
6.141 4.524 5.355
6.225 4.630 5.298
6.363 4.727 5.174
6.376 4.587 5.101
6.298 5.032 5.114
6.396 4.702 4.811
6.318 4.996 5.156
5.968 1.674 5.597
5.980 1.382 5.676
6.194 1.061 5.468
6.208 0.898 5.259
6.311 0.983 5.323
6.173 0.553 4.997
6.002 1.785 5.821
6.057 1.743 5.812
6.169 1.520 5.298
6.028 1.265 5.215
5.965 1.332 5.260
6.257 1.040 4.948
6.319 0.879 4.707
6.228 0.551 4.522
6.000 2.137 5.482
5.950 1.744 5.563
5.821 1.765 5.360
6.119 1.355 5.063
6.009 1.222 4.867
6.034 0.951 4.928
6.303 1.066 4.562
6.305 0.695 4.383
6.015 0.475 4.380
6.110 2.121 5.423
6.035 1.969 5.450
5.771 1.860 5.408
6.122 1.868 5.165
5.954 1.661 5.147
6.241 1.546 4.799
5.892 1.187 4.812
6.176 1.210 4.329
6.121 0.928 4.440
6.339 0.701 4.105
6.141 0.536 4.076
6.021 2.296 5.254
6.064 2.357 5.174
5.905 2.052 4.919
5.973 1.805 5.119
6.076 1.722 4.677
6.168 1.740 4.789
6.250 1.320 4.515
6.218 1.395 4.275
6.029 1.205 3.984
6.085 1.024 4.188
6.075 0.943 3.811
6.109 0.505 3.694
5.721 2.299 5.216
5.822 2.451 5.055
6.105 2.211 4.757
5.911 1.739 4.454
6.122 1.628 4.327
5.996 1.483 4.347
6.259 1.463 4.170
6.317 1.267 3.998
6.269 0.982 3.856
6.318 0.751 3.880
6.213 0.755 3.700
6.416 0.565 3.265
5.977 2.472 4.892
6.053 2.313 4.681
5.809 2.019 4.288
5.886 1.815 4.179
5.969 1.645 4.128
6.067 1.635 3.800
6.039 1.464 3.783
6.203 1.313 3.868
6.204 1.071 3.675
6.118 0.835 3.552
6.077 0.812 3.183
6.296 0.510 3.051
6.374 0.377 2.791
6.091 2.123 4.228
5.945 2.079 3.958
5.995 1.732 4.095
6.233 1.582 3.841
6.222 1.680 3.538
6.006 1.294 3.320
6.091 1.344 3.422
6.153 1.243 3.328
6.042 0.968 2.915
6.117 0.642 3.064
6.339 0.504 2.753
5.827 1.971 3.750
5.939 1.930 3.502
5.906 1.552 3.604
5.897 1.593 3.252
6.159 1.242 3.037
6.231 1.051 2.896
6.028 0.881 2.941
6.293 1.028 2.724
6.147 0.832 2.555
6.399 0.430 2.585
6.025 1.964 3.184
6.135 1.509 3.100
5.961 1.418 3.025
6.244 1.250 2.846
6.289 1.278 2.838
6.158 0.836 2.501
6.340 0.995 2.216
6.441 0.696 2.074
6.409 0.306 1.911
5.838 1.735 2.981
5.988 1.784 2.816
5.949 1.445 2.760
6.132 1.290 2.627
5.970 0.995 2.298
6.104 1.149 2.246
6.037 0.859 1.991
6.435 0.644 1.840
6.231 1.776 2.609
6.032 1.629 2.580
5.917 1.374 2.520
6.128 1.396 2.021
6.177 1.187 2.051
6.354 1.137 1.842
6.143 0.822 1.854
6.148 0.672 1.488
5.928 1.654 2.435
6.129 1.643 2.188
5.998 1.584 2.014
6.345 1.342 1.957
6.209 0.950 1.704
6.269 1.125 1.561
6.203 0.730 1.344
6.270 0.804 1.043
6.079 1.864 2.042
5.978 1.736 1.741
6.013 1.260 1.775
6.286 1.346 1.631
6.025 1.051 1.282
6.386 0.758 1.102
5.962 1.592 1.853
6.159 1.575 1.667
6.269 1.543 1.185
6.200 1.302 1.217
5.909 1.608 5.670
6.264 1.524 5.674
5.915 0.999 5.287
5.945 0.793 5.199
6.195 0.809 5.226
6.080 0.637 5.196
6.252 1.647 5.651
6.164 2.013 5.905
6.238 1.490 5.657
6.200 1.579 5.407
6.081 2.168 5.681
6.050 1.862 5.737
6.041 1.657 5.571
6.378 1.849 5.451
6.220 1.482 5.149
6.162 2.518 5.714
6.244 2.263 5.574
6.067 2.265 5.417
6.374 1.951 5.437
6.225 1.748 5.205
6.108 1.484 4.909
5.953 2.699 5.474
6.025 2.360 5.524
6.161 2.198 5.446
6.216 2.212 5.253
6.366 2.005 5.147
6.339 1.669 4.859
6.133 1.450 4.441
5.889 2.668 5.365
6.077 2.453 5.430
6.175 2.402 5.269
6.296 2.471 4.989
6.063 2.142 4.813
6.239 1.955 4.535
6.413 1.762 4.485
6.459 1.611 4.111
5.864 2.938 5.304
5.875 2.963 5.083
5.986 2.698 4.726
5.929 2.552 4.727
5.991 2.480 4.753
6.325 2.160 4.296
6.299 2.005 4.476
6.264 1.912 4.023
6.333 2.445 4.489
6.168 2.076 4.072
6.105 2.115 4.126
6.398 2.118 3.902
6.224 1.878 3.988
6.066 1.894 3.608
6.207 1.976 3.719
6.164 1.755 3.508
5.843 4.212 5.653
6.144 2.053 3.360
5.908 4.618 5.837
5.747 4.749 5.507
5.650 4.936 5.108
6.406 1.711 5.715
6.350 3.011 5.942
6.488 2.887 5.685
6.311 3.218 5.780
6.049 3.382 5.621
6.115 2.890 5.524
6.090 3.157 6.041
6.383 3.695 5.889
6.117 3.442 5.641
6.317 3.090 5.429
6.376 2.801 5.243
6.178 3.901 6.145
6.072 3.650 6.053
6.011 3.470 5.765
6.157 3.572 5.507
6.194 3.689 5.197
6.023 3.470 5.134
6.145 3.243 4.992
6.431 3.140 4.943
5.976 4.234 6.063
6.155 3.836 5.964
6.285 3.870 5.711
6.087 3.521 5.396
6.007 3.703 5.533
6.145 3.528 5.246
6.153 4.502 5.672
6.095 4.188 5.499
6.028 3.862 5.585
6.020 3.675 5.321
6.006 4.425 5.473
5.998 4.260 5.667
6.165 4.243 5.160
6.086 4.479 5.633
5.985 4.609 5.211
6.018 4.273 5.244
5.860 4.850 5.252
6.101 4.568 5.103
5.895 4.792 5.128
0.771 5.107 4.361
1.213 5.245 4.208
1.343 5.361 4.427
1.203 5.455 4.281
1.262 5.207 4.350
1.375 5.625 4.324
1.288 5.311 4.185
1.069 5.628 3.985
1.304 5.741 4.797
1.492 5.296 4.471
1.289 5.298 4.510
1.183 5.872 4.648
1.421 5.653 4.330
1.638 5.545 4.224
1.383 5.671 3.954
1.588 5.330 3.944
1.343 5.759 3.622
1.722 5.706 4.904
1.530 5.717 4.773
1.644 5.320 4.611
1.883 5.288 4.131
1.389 5.976 4.806
1.801 5.565 4.368
1.609 5.739 4.311
1.739 5.554 3.969
1.770 6.011 4.123
1.618 5.511 4.222
1.855 5.369 3.883
1.410 5.776 4.056
1.695 5.601 3.804
1.828 5.999 4.965
1.848 5.607 4.928
2.069 5.448 4.757
1.989 5.639 4.570
2.087 5.203 4.507
1.935 5.827 4.596
1.918 5.593 4.653
1.725 5.590 4.241
1.858 5.258 4.042
1.655 5.896 4.293
1.822 5.877 4.129
1.990 5.828 4.208
1.689 5.721 4.029
1.758 5.978 4.019
1.829 5.576 3.908
1.869 6.030 3.653
1.848 6.089 5.321
1.948 5.989 4.826
2.079 5.952 4.883
2.054 5.651 4.736
2.060 5.621 4.659
2.294 5.385 4.429
2.108 6.206 4.914
1.854 6.077 4.824
2.241 5.723 4.331
2.236 5.835 4.501
2.109 5.308 3.998
1.855 6.048 4.642
1.995 5.913 4.396
2.220 5.974 3.953
2.121 5.586 3.918
1.975 6.011 4.258
2.100 6.073 4.020
2.198 5.787 3.863
2.165 5.986 3.642
1.995 6.013 3.806
2.035 6.081 4.917
2.211 5.823 5.041
2.090 5.864 4.839
2.411 5.664 4.689
2.363 5.530 4.464
2.421 5.396 4.302
2.448 6.195 4.986
2.307 6.161 4.568
2.207 6.043 4.367
2.245 5.789 4.245
2.407 5.517 3.968
2.131 5.986 4.364
2.108 5.983 4.423
2.373 5.835 4.203
2.246 5.590 4.158
2.418 6.012 3.954
2.177 6.039 4.012
2.404 5.630 3.752
2.185 6.249 3.836
2.314 5.760 3.528
2.619 6.168 5.155
2.545 6.086 4.806
2.577 6.063 4.929
2.574 5.825 4.705
2.627 5.645 4.357
2.656 5.395 4.280
2.501 6.321 4.968
2.598 6.079 4.515
2.604 5.789 4.425
2.726 5.636 4.498
2.554 5.682 4.115
2.311 6.025 4.412
2.324 6.078 4.440
2.749 5.941 4.222
2.747 5.883 4.036
2.439 6.081 4.221
2.321 6.093 4.039
2.682 5.733 3.920
2.400 6.152 3.685
2.724 6.333 5.090
2.861 5.911 4.940
2.759 6.113 5.014
2.828 5.652 4.860
2.812 5.488 4.677
2.639 5.335 4.467
2.887 6.050 4.976
2.690 6.080 4.729
2.602 5.738 4.699
2.732 5.819 4.467
2.931 5.483 4.308
2.676 6.110 4.308
2.754 6.082 4.309
2.696 6.076 4.270
2.809 5.740 3.903
2.846 6.124 4.208
2.762 5.957 3.912
2.922 5.927 3.673
3.047 6.052 5.167
2.817 6.145 4.826
3.065 5.933 4.481
2.870 5.428 4.715
3.073 5.619 4.469
2.881 5.922 4.512
2.845 6.044 4.678
2.875 5.797 4.230
3.246 5.748 4.034
2.794 6.240 4.357
3.163 6.021 4.490
2.911 5.833 4.055
2.933 5.671 3.962
3.029 6.272 4.031
3.125 6.247 5.194
3.368 6.203 4.903
3.066 5.959 4.711
3.181 5.616 4.526
3.257 6.057 4.710
3.355 5.843 4.543
3.262 5.654 4.225
3.391 6.060 4.335
3.414 6.333 4.962
3.561 6.201 4.963
3.556 5.754 4.556
3.358 6.157 4.756
3.265 6.053 4.572
3.562 6.394 5.158
3.664 6.214 4.719
3.846 6.019 4.624
3.667 6.321 4.546
3.851 6.318 4.832
3.726 6.314 4.883
-0.054 4.374 0.711
-0.164 4.466 0.349
-0.148 4.586 0.183
0.067 4.713 0.290
0.020 4.474 0.081
0.186 4.580 0.717
0.127 5.275 1.598
0.104 5.195 1.459
0.319 5.135 1.278
0.333 4.894 0.851
0.291 4.666 0.885
0.168 5.455 1.658
0.202 5.287 1.501
0.068 5.513 1.202
-0.037 5.063 0.783
0.018 4.840 0.969
0.374 4.887 0.737
0.087 4.518 0.419
0.067 5.884 1.389
0.094 5.575 1.271
0.173 5.537 0.979
0.127 5.488 0.859
0.143 5.075 0.841
0.243 5.071 0.392
0.369 4.904 0.344
0.233 4.507 -0.014
-0.110 6.071 0.919
0.123 5.668 0.774
0.114 5.626 0.773
-0.027 5.410 0.451
0.066 5.355 0.306
0.140 5.309 0.267
0.332 5.127 0.135
0.266 4.769 -0.176
-0.062 6.032 0.958
-0.046 5.775 0.651
0.087 5.564 0.649
0.105 5.440 0.427
0.115 5.138 0.121
0.364 5.298 0.127
-0.007 5.934 0.547
-0.031 5.885 0.132
0.127 5.678 0.014
-0.047 5.961 0.227
0.166 5.809 0.085
0.276 5.286 1.435
0.052 5.057 1.150
0.243 5.114 1.089
0.017 4.907 0.888
0.263 4.514 0.874
0.193 5.422 1.730
0.478 5.233 1.609
0.380 5.076 1.378
0.329 4.872 1.250
0.243 4.870 0.950
0.511 4.747 0.681
0.056 6.005 1.801
0.244 5.693 1.465
0.224 5.552 1.414
0.222 5.442 1.092
0.229 5.293 0.889
0.225 4.876 0.695
0.419 5.024 0.582
0.260 4.837 0.703
0.211 6.196 1.424
0.296 6.062 1.405
0.439 5.880 1.121
0.106 5.624 0.995
0.363 5.388 0.781
0.472 5.517 0.854
0.559 5.223 0.464
0.582 4.880 0.448
0.460 5.004 0.166
0.337 6.274 1.503
0.243 6.127 1.065
0.234 6.031 1.261
0.196 5.838 0.966
0.239 5.630 0.835
0.244 5.334 0.530
0.228 5.212 0.408
0.533 5.105 0.203
0.423 5.175 0.219
0.197 6.059 0.823
0.167 6.006 0.929
0.133 5.781 0.611
0.497 5.831 0.623
0.263 5.432 0.285
0.505 5.469 0.280
0.289 4.967 0.124
0.404 6.209 0.727
0.310 5.904 0.582
0.354 5.689 0.177
0.176 5.596 0.257
0.421 5.972 0.238
0.065 6.037 0.127
0.382 6.402 -0.087
0.197 5.373 1.758
0.505 4.911 1.307
0.260 4.692 1.287
0.586 4.797 1.293
0.161 5.743 1.481
0.448 5.529 1.574
0.511 5.189 1.447
0.461 5.163 1.158
0.520 4.872 0.941
0.371 4.781 1.049
0.503 5.541 1.907
0.361 5.576 1.743
0.553 5.294 1.626
0.463 5.219 1.315
0.633 5.118 1.225
0.466 4.741 1.018
0.603 4.680 0.803
0.252 6.104 1.854
0.534 5.938 1.583
0.620 5.804 1.265
0.660 5.655 1.215
0.606 5.367 1.063
0.639 5.415 1.072
0.427 5.078 0.705
0.802 4.724 0.526
0.636 5.929 1.833
0.365 6.190 1.643
0.624 6.112 1.473
0.624 5.749 1.101
0.630 5.583 1.077
0.621 5.695 1.108
0.406 5.274 0.891
0.715 5.191 0.671
0.495 5.200 0.663
0.571 4.863 0.204
0.550 6.371 1.571
0.441 6.259 1.298
0.642 6.198 1.125
0.468 5.828 1.015
0.459 5.666 0.737
0.739 5.652 0.669
0.409 5.481 0.328
0.647 5.065 0.413
0.739 4.849 0.156
0.651 6.398 0.909
0.625 6.146 0.832
0.665 5.938 0.461
0.363 5.672 0.476
0.424 5.700 0.225
0.543 5.375 0.130
0.443 5.991 0.559
0.321 6.060 0.659
0.627 5.648 0.441
0.607 5.828 0.278
0.491 6.348 0.177
0.621 6.071 -0.048
0.701 4.964 1.885
0.654 5.062 1.571
0.731 5.294 1.936
0.443 5.454 1.831
0.543 5.188 1.691
0.778 4.907 1.480
0.583 4.720 1.051
0.690 5.757 1.909
0.432 5.560 1.719
0.425 5.428 1.358
0.385 5.188 1.273
0.759 5.197 1.146
0.817 4.695 1.189
0.764 4.922 0.872
0.587 6.146 2.012
0.615 5.845 1.615
0.806 5.422 1.821
0.841 5.482 1.669
1.018 5.455 1.442
0.860 5.301 1.066
0.782 5.094 0.973
1.030 4.612 0.717
0.648 5.875 1.783
0.508 6.024 1.868
0.893 6.121 1.584
0.542 5.801 1.461
0.804 5.587 1.484
0.831 5.419 1.342
0.831 5.435 0.804
0.968 5.195 0.866
0.912 4.713 0.840
0.691 6.243 1.966
0.810 6.311 1.807
0.697 6.203 1.563
0.755 5.833 1.204
0.579 5.605 1.299
0.611 5.469 1.030
0.649 5.531 0.816
0.765 5.141 0.531
0.760 5.125 0.637
0.585 6.449 1.589
0.569 6.336 1.199
0.765 5.956 1.262
0.892 5.780 1.053
0.877 5.674 0.798
0.946 5.724 0.742
0.824 5.555 0.639
0.682 5.331 0.470
0.877 6.376 1.155
0.756 6.026 0.671
0.677 5.865 0.774
0.769 5.744 0.381
0.884 5.747 0.337
0.598 6.171 0.543
0.510 6.111 0.531
0.629 6.077 0.132
0.932 5.612 0.330
0.709 6.164 0.390
0.858 5.930 0.060
0.806 5.074 2.173
0.674 5.063 2.026
1.036 4.832 1.801
0.665 5.566 2.311
0.605 5.436 1.905
0.757 5.142 1.873
0.750 4.940 1.492
1.053 4.804 1.535
0.567 5.614 2.162
0.689 5.659 1.726
0.957 5.121 1.556
0.923 5.209 1.431
0.677 4.992 1.468
1.000 4.878 1.201
0.538 5.963 1.789
0.742 5.665 1.770
0.615 5.614 1.640
0.806 5.455 1.435
0.958 5.187 1.165
0.789 5.126 1.249
0.894 4.821 1.022
1.076 4.897 0.754
0.836 5.997 2.009
0.835 6.022 2.019
0.818 5.693 1.769
0.921 5.453 1.772
0.858 5.333 1.602
0.870 5.453 1.373
1.123 4.972 1.029
1.301 5.160 1.143
1.030 4.720 0.938
0.757 6.027 1.778
0.761 6.057 1.621
0.746 5.932 1.478
0.905 5.766 1.436
0.886 5.588 1.436
1.159 5.449 1.316
1.013 5.261 1.033
1.183 5.280 0.774
1.231 5.131 0.646
1.018 6.118 1.919
0.950 6.130 1.371
0.787 5.799 1.371
1.062 5.692 1.086
1.145 5.719 1.191
0.967 5.386 0.878
0.936 5.416 0.848
1.113 4.952 0.431
1.092 6.138 1.303
0.755 5.992 1.104
0.981 5.605 0.974
0.951 5.634 0.574
0.875 5.606 0.529
0.857 6.329 0.797
0.990 6.184 0.997
1.139 6.011 0.554
1.112 5.739 0.421
1.097 5.420 0.255
0.896 6.321 0.511
1.028 6.186 0.441
1.087 5.919 0.235
0.838 6.281 0.176
1.972 0.625 0.060
1.875 0.596 0.232
0.966 4.834 4.303
0.926 4.677 4.043
0.983 4.688 3.841
1.167 5.138 4.051
0.877 4.788 3.986
1.266 4.804 3.697
1.026 5.115 2.518
0.968 5.078 2.659
0.994 5.233 2.601
1.136 5.151 2.528
0.982 4.773 2.195
1.034 4.627 1.859
1.157 5.527 2.213
1.178 5.075 2.134
1.056 4.869 1.869
1.120 4.690 1.717
1.224 4.819 1.898
1.085 5.496 2.473
1.121 5.692 2.112
0.973 5.211 2.199
1.033 5.006 1.832
1.179 4.809 1.590
1.305 4.747 1.651
0.950 4.832 1.359
0.958 5.830 2.281
0.882 5.705 2.256
0.997 5.478 2.047
0.960 5.681 1.988
1.163 5.135 1.466
0.913 5.347 1.690
1.080 5.059 1.305
1.004 4.970 1.062
0.918 5.963 2.067
1.126 6.165 2.129
0.871 5.778 1.770
1.098 5.629 1.653
0.888 5.447 1.671
1.113 5.411 1.368
1.218 5.156 1.021
0.978 4.981 0.891
1.101 4.708 0.825
0.857 5.820 1.801
1.282 5.885 2.138
1.050 5.749 1.650
1.112 5.499 1.654
1.154 5.432 1.471
1.189 5.335 1.547
1.147 5.304 1.231
1.261 4.985 1.011
1.549 4.702 0.991
1.096 5.849 1.800
1.063 6.279 1.846
1.071 6.169 1.588
1.314 5.814 1.276
1.043 5.489 1.531
1.125 5.565 1.160
1.297 5.343 1.056
1.268 4.986 0.715
1.386 5.139 0.839
0.986 6.180 1.604
1.152 6.034 1.341
1.374 5.829 1.165
1.257 5.744 1.094
1.387 5.550 1.126
1.302 5.428 0.998
1.389 5.269 0.681
0.982 6.298 1.304
1.009 5.823 1.143
1.382 5.650 0.960
1.075 5.466 0.472
1.374 5.364 0.651
1.257 5.954 0.949
1.347 6.146 0.772
1.174 5.916 0.335
1.558 4.479 3.770
2.156 1.031 0.536
2.023 0.595 0.060
1.920 0.625 0.160
1.410 4.881 4.202
1.233 4.878 4.173
1.361 4.560 3.991
1.374 4.307 3.524
1.401 4.567 3.504
1.369 4.646 3.390
1.883 0.799 0.137
1.072 4.993 3.873
1.183 4.872 3.700
1.432 4.845 3.849
1.340 4.835 3.446
1.410 4.992 3.342
1.225 4.650 3.151
1.260 5.341 3.622
1.423 5.011 3.736
1.176 5.097 3.412
1.276 4.593 3.523
1.277 4.790 3.143
1.518 4.698 2.881
1.355 4.569 2.848
1.195 5.288 3.519
1.145 5.278 3.484
1.416 4.950 3.128
1.151 4.961 2.833
1.353 4.985 2.860
1.244 4.653 2.682
1.229 4.469 2.370
1.187 5.176 3.351
1.265 5.283 3.031
1.156 5.449 2.706
1.470 4.890 2.806
1.150 4.848 2.481
1.239 4.651 2.367
1.434 4.748 2.308
1.086 5.404 3.130
1.390 5.365 2.912
1.226 5.433 2.799
1.432 5.320 2.686
1.254 5.257 2.418
1.436 4.909 2.043
1.266 4.653 2.205
1.273 4.651 1.749
1.318 5.592 2.639
1.337 5.219 2.499
1.036 5.672 2.582
1.430 5.360 2.188
1.263 5.033 1.972
1.264 4.988 2.018
1.171 4.963 2.061
1.169 4.728 1.885
1.397 4.649 1.356
1.055 5.541 2.347
1.138 5.539 2.131
1.098 5.540 1.978
1.226 5.505 1.820
1.217 5.263 1.813
1.381 5.021 1.702
1.197 4.973 1.720
1.310 4.553 1.511
1.387 5.717 2.407
1.051 5.868 2.333
1.173 5.730 2.089
1.195 5.704 1.814
1.094 5.321 1.497
1.265 5.290 1.702
1.272 4.978 1.252
1.422 4.966 1.216
1.342 4.830 0.848
1.096 5.845 2.271
1.157 5.865 1.859
1.116 5.836 1.927
1.065 5.584 1.523
1.342 5.637 1.316
1.222 5.242 1.210
1.372 5.264 1.315
1.477 5.089 0.904
1.269 4.685 0.711
1.131 6.213 1.996
1.243 6.056 2.012
1.254 5.749 1.686
1.628 5.598 1.456
1.348 5.638 1.707
1.386 5.513 1.163
1.470 5.386 1.352
1.625 5.151 1.091
1.718 4.923 0.976
1.355 5.944 2.147
1.284 6.172 1.765
1.341 5.866 1.608
1.495 5.992 1.576
1.322 5.680 1.426
1.575 5.608 1.352
1.673 5.245 1.061
1.358 5.378 1.047
1.397 6.205 1.635
1.218 6.266 1.365
1.514 5.860 1.449
1.323 5.925 1.072
1.522 5.661 1.116
1.502 5.663 0.659
1.410 5.321 0.502
1.590 6.302 1.209
1.227 6.018 1.071
1.371 5.754 0.983
1.362 5.542 0.835
1.352 6.213 0.634
1.756 4.609 3.541
1.462 4.438 3.360
2.362 1.106 0.367
2.368 0.690 0.074
2.320 0.490 0.076
1.498 4.892 4.295
1.413 4.860 3.960
1.719 4.683 4.017
1.535 4.356 3.863
1.577 4.810 3.671
1.678 4.443 3.450
1.613 4.424 3.116
2.327 0.953 0.196
2.202 0.731 0.280
1.431 5.023 3.955
1.465 4.853 3.638
1.693 4.999 3.628
1.431 4.577 3.460
1.429 5.032 3.367
1.598 4.600 3.096
1.812 4.532 3.150
1.503 5.411 3.911
1.666 5.244 3.551
1.569 5.182 3.519
1.695 4.660 3.450
1.710 4.863 3.038
1.468 4.725 2.951
1.490 4.561 3.000
1.575 4.646 2.890
1.596 5.406 3.639
1.645 5.334 3.447
1.650 5.137 3.441
1.435 4.938 3.371
1.434 4.960 3.017
1.687 5.053 2.977
1.737 4.847 2.807
1.416 4.472 2.712
1.666 4.575 2.274
1.536 5.586 3.377
1.262 5.354 3.141
1.442 5.380 3.120
1.628 5.258 3.055
1.655 5.305 2.658
1.682 4.966 2.602
1.384 4.824 2.624
1.427 4.915 2.433
1.543 4.739 2.211
1.698 4.566 1.862
1.600 5.497 3.129
1.383 5.443 3.075
1.319 5.215 2.694
1.593 5.242 2.648
1.337 5.248 2.548
1.373 5.116 2.266
1.621 4.944 2.119
1.629 4.777 1.877
1.589 4.777 1.913
1.609 4.507 1.831
