4.080 5.747 6.007
3.903 5.693 5.904
3.646 5.623 5.810
3.408 5.419 5.652
3.173 5.383 5.606
4.144 5.509 6.118
4.012 5.371 5.963
3.805 5.346 5.867
3.572 5.178 5.750
3.309 5.094 5.738
3.049 4.908 5.614
4.117 5.387 5.759
3.851 5.357 5.617
3.608 5.138 5.516
3.497 5.031 5.392
4.021 5.271 5.458
3.750 5.177 5.272
3.985 4.429 3.015
4.136 4.451 2.707
4.530 4.448 2.607
4.324 4.439 2.555
4.809 4.637 2.507
4.591 4.440 2.431
4.368 4.321 2.301
2.663 5.105 6.249
2.475 4.918 6.218
2.275 4.858 6.037
3.207 5.272 6.268
3.096 5.180 6.097
2.769 4.973 6.055
2.590 4.883 5.922
3.875 5.523 6.270
3.659 5.319 6.193
3.391 5.230 6.061
3.137 5.089 5.980
2.972 5.014 5.777
4.149 5.609 6.058
3.939 5.435 5.994
3.713 5.272 5.921
3.588 5.212 5.788
3.369 5.103 5.621
3.027 5.012 5.594
4.319 5.355 6.187
4.050 5.258 6.062
3.837 5.064 5.940
3.563 5.008 5.880
3.414 4.807 5.738
3.194 4.749 5.663
4.368 5.276 6.004
4.218 5.150 5.853
4.030 4.991 5.733
3.685 4.946 5.702
3.514 4.873 5.514
3.316 4.712 5.385
4.306 5.106 5.587
4.051 4.994 5.549
3.881 4.922 5.456
3.710 4.814 5.255
3.514 4.609 5.220
4.067 4.870 5.136
3.757 4.694 5.029
3.883 4.286 3.273
4.358 4.268 3.179
4.150 4.257 3.006
4.367 4.271 2.902
4.282 4.152 2.821
4.505 4.212 2.654
4.345 4.141 2.599
4.973 4.382 2.563
4.668 4.181 2.529
4.419 4.065 2.349
2.492 4.628 6.267
3.114 4.944 6.177
2.867 4.746 6.093
2.718 4.627 5.978
3.728 5.051 6.246
3.470 5.024 6.137
3.200 4.806 6.030
3.083 4.742 5.822
2.852 4.639 5.802
4.269 5.307 6.177
4.072 5.184 6.145
3.840 5.097 6.014
3.635 5.002 5.936
3.434 4.789 5.719
3.175 4.704 5.665
4.173 4.939 6.112
3.929 4.853 6.079
3.685 4.703 6.008
3.518 4.598 5.807
3.336 4.438 5.799
4.447 4.979 6.117
4.245 4.918 5.943
4.066 4.751 5.816
3.860 4.751 5.785
3.571 4.532 5.548
3.439 4.482 5.466
4.592 4.948 5.752
4.453 4.896 5.642
4.231 4.709 5.596
3.917 4.595 5.427
3.730 4.562 5.362
3.520 4.461 5.216
4.567 4.826 5.530
4.312 4.757 5.415
4.145 4.576 5.187
3.889 4.481 5.135
3.681 4.354 5.059
4.442 4.758 5.058
4.185 4.643 5.057
4.022 4.503 4.867
3.801 4.381 4.765
4.224 4.388 4.638
3.955 4.355 4.581
3.763 4.187 4.462
4.057 4.312 4.306
3.888 4.143 4.162
3.648 4.112 4.079
4.169 4.306 4.075
4.049 4.209 3.918
3.743 4.028 3.871
4.064 4.133 3.739
3.937 3.995 3.622
4.267 4.075 3.450
3.973 3.969 3.397
4.443 4.131 3.254
4.177 3.972 3.184
4.527 4.024 3.061
4.347 3.916 2.954
4.600 3.967 2.832
4.494 3.923 2.665
4.957 4.048 2.698
4.811 3.926 2.569
4.626 3.822 2.412
2.941 4.533 6.165
2.836 4.431 6.066
3.557 4.693 6.205
3.371 4.665 6.101
3.140 4.541 6.035
2.972 4.422 5.811
4.155 4.904 6.143
3.956 4.840 6.021
3.705 4.677 5.947
3.425 4.648 5.833
3.328 4.471 5.778
4.217 4.683 6.250
4.054 4.585 6.084
3.852 4.430 6.024
3.564 4.366 5.985
3.359 4.185 5.822
4.651 4.747 6.156
4.364 4.668 6.047
4.172 4.611 5.928
3.986 4.411 5.750
3.696 4.316 5.718
3.456 4.234 5.575
3.303 4.077 5.492
4.721 4.712 5.962
4.471 4.641 5.818
4.312 4.478 5.621
4.057 4.424 5.582
3.836 4.233 5.414
3.695 4.134 5.307
3.415 4.121 5.276
4.818 4.809 5.621
4.669 4.588 5.572
4.411 4.461 5.418
4.142 4.424 5.360
4.044 4.300 5.272
3.721 4.090 5.040
3.567 4.073 5.021
4.741 4.637 5.264
4.600 4.431 5.189
4.373 4.369 5.035
4.050 4.195 4.983
3.890 4.054 4.886
3.612 4.062 4.791
3.488 3.811 4.643
4.747 4.407 4.995
4.452 4.366 4.881
4.255 4.268 4.792
4.006 4.088 4.671
3.759 3.952 4.473
3.590 3.851 4.416
4.570 4.293 4.646
4.339 4.191 4.478
4.123 4.062 4.441
3.955 3.988 4.265
3.679 3.776 4.209
4.480 4.085 4.209
4.286 4.032 4.175
4.129 3.877 4.007
3.902 3.779 3.900
4.422 4.059 3.976
4.236 3.944 3.783
4.020 3.703 3.666
4.542 3.958 3.716
4.386 3.792 3.636
4.169 3.685 3.425
4.767 3.969 3.520
4.449 3.813 3.353
4.273 3.776 3.242
4.593 3.793 3.075
4.419 3.622 2.993
4.705 3.814 2.809
4.536 3.674 2.743
4.912 3.755 2.668
4.628 3.622 2.536
3.627 4.438 6.228
3.498 4.400 6.197
3.215 4.236 6.098
4.285 4.750 6.214
3.994 4.612 6.116
3.786 4.489 6.060
3.637 4.392 5.899
3.350 4.175 5.749
4.073 4.410 6.164
3.919 4.218 6.132
3.625 4.113 6.047
3.478 4.037 5.835
4.734 4.622 6.226
4.396 4.380 6.089
4.285 4.266 5.969
3.996 4.262 5.836
3.840 4.133 5.721
3.598 3.922 5.620
3.336 3.872 5.573
5.053 4.621 6.107
4.768 4.493 6.036
4.615 4.352 5.842
4.417 4.293 5.759
4.191 4.219 5.653
3.898 3.985 5.479
3.674 3.921 5.447
3.551 3.859 5.371
4.905 4.442 5.691
4.686 4.362 5.696
4.554 4.191 5.559
4.312 4.085 5.434
4.040 4.028 5.316
3.889 3.874 5.154
3.572 3.789 5.087
3.413 3.715 5.035
5.021 4.423 5.552
4.913 4.343 5.428
4.587 4.208 5.231
4.416 4.078 5.150
4.165 4.029 5.013
3.998 3.813 4.917
3.800 3.784 4.840
3.599 3.645 4.676
4.941 4.277 5.222
4.818 4.162 4.996
4.622 4.087 4.879
4.388 3.966 4.846
4.168 3.868 4.694
3.944 3.700 4.567
3.674 3.652 4.538
4.926 4.168 4.758
4.666 4.048 4.659
4.442 3.938 4.580
4.291 3.819 4.437
4.056 3.688 4.316
3.787 3.559 4.201
4.837 4.052 4.512
4.649 3.851 4.411
4.458 3.724 4.189
4.107 3.734 4.106
3.969 3.561 4.001
4.690 3.866 4.143
4.461 3.797 4.041
4.248 3.646 3.870
4.057 3.476 3.744
4.625 3.790 3.820
4.443 3.653 3.634
4.257 3.502 3.517
4.794 3.683 3.556
4.540 3.610 3.405
4.404 3.440 3.328
4.653 3.503 3.222
4.496 3.379 3.033
4.803 3.477 2.974
4.687 3.398 2.825
4.699 3.322 2.557
3.589 4.074 6.216
3.252 3.981 6.113
4.114 4.319 6.178
3.953 4.181 6.086
3.670 4.148 5.988
3.413 4.047 5.844
3.989 4.042 6.153
3.756 3.911 6.067
4.507 4.235 6.172
4.272 4.025 6.030
4.086 3.902 5.981
3.938 3.840 5.890
3.669 3.781 5.733
5.156 4.455 6.103
4.871 4.279 6.051
4.666 4.141 5.892
4.406 4.112 5.820
4.237 3.954 5.780
4.020 3.838 5.618
3.860 3.698 5.485
3.560 3.603 5.337
5.330 4.370 5.964
5.110 4.291 5.764
4.778 4.174 5.736
4.540 3.976 5.596
4.441 3.834 5.506
4.140 3.837 5.344
3.940 3.666 5.212
3.690 3.523 5.173
3.470 3.459 5.094
5.347 4.337 5.665
5.155 4.269 5.633
4.981 4.151 5.481
4.694 3.931 5.331
4.472 3.801 5.322
4.286 3.712 5.107
4.118 3.634 5.090
3.877 3.515 4.918
3.662 3.396 4.805
5.249 4.196 5.352
5.126 4.040 5.190
4.924 4.023 5.149
4.703 3.817 4.992
4.458 3.705 4.946
4.245 3.663 4.791
3.945 3.472 4.620
3.819 3.414 4.537
5.004 3.967 4.898
4.748 3.799 4.847
4.518 3.705 4.730
4.348 3.626 4.628
4.176 3.506 4.404
3.850 3.361 4.290
4.889 3.851 4.594
4.638 3.660 4.435
4.455 3.525 4.383
4.236 3.396 4.244
4.078 3.333 4.128
4.870 3.678 4.213
4.681 3.467 4.084
4.343 3.399 4.043
4.143 3.240 3.935
4.790 3.432 3.916
4.544 3.395 3.708
4.372 3.191 3.658
4.877 3.480 3.670
4.626 3.273 3.444
4.386 3.203 3.457
4.837 3.244 3.257
4.623 3.139 3.196
4.650 3.225 2.964
4.037 3.960 6.162
3.766 3.855 6.060
4.060 3.761 6.219
3.829 3.674 6.175
4.652 4.007 6.225
4.487 3.773 6.194
4.173 3.662 5.991
3.925 3.530 5.909
3.721 3.516 5.831
5.184 4.178 6.294
5.066 4.093 6.077
4.847 3.882 6.070
4.502 3.844 5.869
4.406 3.616 5.754
4.125 3.567 5.676
3.936 3.456 5.630
5.606 4.247 6.065
5.386 4.164 6.006
5.145 3.945 5.945
4.893 3.867 5.785
4.742 3.720 5.721
4.481 3.693 5.614
4.312 3.582 5.482
4.069 3.401 5.312
3.810 3.309 5.225
5.763 4.230 5.926
5.495 4.122 5.722
5.296 4.003 5.619
5.053 3.920 5.572
4.781 3.759 5.482
4.559 3.615 5.292
4.325 3.451 5.168
4.207 3.321 5.050
3.903 3.316 4.970
3.722 3.128 4.905
5.604 4.058 5.493
5.433 4.005 5.489
5.140 3.816 5.262
5.012 3.734 5.175
4.752 3.585 5.126
4.477 3.431 5.011
4.244 3.365 4.909
4.120 3.275 4.762
3.932 3.053 4.613
5.352 3.791 5.139
5.054 3.667 4.972
4.822 3.505 4.875
4.721 3.433 4.705
4.430 3.317 4.609
4.247 3.242 4.565
3.998 3.062 4.441
4.949 3.547 4.622
4.750 3.404 4.449
4.556 3.275 4.428
4.340 3.124 4.263
4.194 3.063 4.251
4.877 3.325 4.338
4.693 3.220 4.231
4.548 3.125 4.124
4.309 3.046 3.969
4.882 3.201 3.878
4.619 3.121 3.844
4.402 2.987 3.735
4.826 3.151 3.647
4.525 2.923 3.470
4.693 2.930 3.197
4.079 3.706 6.253
3.794 3.592 6.175
0.345 6.318 1.605
0.112 6.127 1.533
0.265 6.279 1.619
0.367 6.163 1.384
0.259 6.079 1.308
0.480 6.268 1.362
0.498 6.204 1.144
0.322 6.022 0.989
0.494 6.218 1.139
0.754 6.188 0.842
0.645 6.116 0.951
1.080 6.288 0.823
1.119 6.273 0.597
0.000 6.287 2.775
0.210 6.183 2.562
0.149 6.074 2.149
0.369 6.251 2.228
0.118 6.059 2.117
0.225 6.083 1.904
0.089 5.988 1.864
0.718 6.342 2.196
0.415 6.126 1.981
0.181 6.077 1.972
0.414 5.999 1.652
0.155 5.853 1.604
0.785 6.294 1.924
0.661 6.150 1.823
0.320 6.058 1.674
0.451 5.956 1.418
0.312 5.895 1.393
0.993 6.200 1.652
0.711 6.077 1.598
0.446 6.018 1.442
0.583 6.007 1.292
0.451 5.843 1.151
1.110 6.145 1.446
0.801 6.068 1.339
0.587 5.952 1.230
0.773 5.981 1.043
1.288 6.126 1.212
0.991 6.067 1.120
0.727 5.892 0.950
0.865 5.842 0.731
1.556 6.226 1.104
1.326 6.124 0.993
1.073 6.026 0.913
0.882 5.952 0.754
1.649 6.248 0.854
1.508 6.138 0.698
1.334 5.984 0.665
1.879 6.177 0.581
1.584 6.084 0.475
1.371 5.944 0.331
0.174 6.053 2.801
0.049 5.867 2.500
0.263 5.913 2.598
0.086 5.833 2.545
0.153 5.786 2.210
0.593 6.069 2.455
0.489 5.909 2.330
0.201 5.778 2.273
0.316 5.805 1.976
0.145 5.646 1.837
1.029 6.184 2.410
0.834 6.073 2.176
0.578 5.953 2.087
0.340 5.829 2.029
0.501 5.785 1.734
0.277 5.596 1.657
1.380 6.297 2.159
1.158 6.096 2.172
0.908 5.965 2.012
0.668 5.937 1.952
0.500 5.794 1.771
0.585 5.675 1.551
0.335 5.629 1.478
1.463 6.153 2.003
1.324 6.048 1.886
1.105 5.931 1.709
0.850 5.798 1.597
0.663 5.673 1.584
0.724 5.653 1.368
1.630 6.214 1.700
1.408 6.088 1.656
1.154 5.907 1.562
0.956 5.843 1.459
0.762 5.694 1.285
0.894 5.720 1.123
1.987 6.276 1.641
1.715 6.097 1.535
1.595 6.014 1.423
1.278 5.895 1.269
1.110 5.842 1.114
0.828 5.667 1.133
0.999 5.701 0.778
2.043 6.287 1.416
1.845 6.115 1.210
1.664 6.033 1.105
1.420 5.858 1.023
1.183 5.769 0.920
1.050 5.672 0.854
1.098 5.615 0.646
2.238 6.271 1.178
2.034 6.106 1.084
1.842 6.009 0.915
1.557 5.821 0.867
1.311 5.685 0.678
1.121 5.617 0.620
1.241 5.575 0.300
2.313 6.247 0.943
2.099 6.048 0.813
1.893 5.952 0.692
1.711 5.906 0.621
1.475 5.753 0.425
1.267 5.540 0.392
0.037 5.672 2.861
-0.020 5.621 2.776
0.113 5.669 2.526
0.215 5.570 2.629
0.293 5.556 2.377
0.037 5.510 2.161
0.309 5.579 2.311
0.453 5.592 2.058
0.144 5.439 1.984
0.662 5.647 2.196
0.383 5.564 2.112
0.552 5.507 1.799
0.964 5.750 2.025
0.723 5.637 1.965
0.626 5.548 1.822
0.725 5.442 1.659
1.623 6.004 2.002
1.405 5.824 2.023
1.160 5.703 1.826
0.957 5.604 1.703
0.652 5.510 1.687
0.874 5.491 1.350
1.943 6.032 1.984
1.697 6.000 1.776
1.478 5.781 1.722
1.226 5.669 1.669
1.049 5.624 1.446
0.804 5.482 1.423
1.013 5.451 1.085
2.087 6.053 1.677
1.897 5.859 1.640
1.642 5.735 1.510
1.356 5.667 1.361
1.227 5.553 1.211
0.979 5.414 1.091
1.147 5.404 0.881
2.440 6.141 1.612
2.145 5.967 1.412
1.989 5.925 1.379
1.793 5.802 1.261
1.554 5.647 1.095
1.380 5.512 0.978
1.059 5.436 0.855
1.211 5.362 0.719
2.568 6.062 1.282
2.374 5.947 1.236
2.176 5.861 1.157
1.857 5.752 1.050
1.661 5.670 0.901
1.497 5.564 0.756
1.217 5.367 0.625
1.319 5.394 0.403
2.698 6.067 1.126
2.430 5.975 0.977
2.231 5.886 0.848
2.003 5.673 0.725
1.795 5.624 0.692
1.601 5.414 0.607
1.353 5.336 0.421
1.817 5.668 1.944
1.541 5.545 1.841
1.408 5.419 1.639
1.138 5.309 1.554
2.129 5.839 1.849
1.991 5.658 1.612
1.694 5.564 1.572
1.465 5.470 1.449
1.317 5.353 1.276
1.126 5.164 0.934
2.542 5.896 1.631
2.313 5.789 1.518
2.098 5.684 1.500
1.893 5.505 1.375
1.627 5.383 1.275
1.433 5.304 1.131
1.165 5.132 0.960
1.343 5.081 0.697
2.585 5.842 1.391
2.361 5.726 1.307
2.221 5.601 1.169
2.046 5.486 1.026
1.720 5.427 0.957
1.536 5.278 0.914
1.307 5.123 0.829
1.461 5.123 0.519
2.798 5.762 1.158
2.603 5.660 1.023
2.280 5.531 1.008
2.166 5.495 0.876
1.873 5.413 0.807
1.710 5.192 0.620
1.400 5.119 0.589
1.972 5.393 1.823
1.817 5.355 1.674
1.606 5.142 1.502
2.322 5.470 1.635
2.198 5.424 1.510
1.878 5.217 1.465
1.685 5.185 1.331
1.488 5.004 1.196
1.419 4.961 0.852
2.721 5.609 1.571
2.515 5.555 1.335
2.342 5.332 1.332
2.087 5.305 1.141
1.804 5.120 1.131
1.681 5.078 0.931
1.433 4.945 0.834
1.512 4.857 0.621
2.888 5.587 1.318
2.705 5.401 1.119
2.384 5.394 1.003
2.158 5.244 0.977
2.001 5.112 0.841
1.834 5.040 0.769
1.541 4.811 0.599
0.024 6.235 6.190
2.430 5.213 1.762
2.290 5.224 1.591
1.995 5.005 1.506
1.823 4.920 1.319
2.807 5.302 1.596
2.655 5.260 1.465
2.325 5.180 1.358
2.187 5.034 1.262
1.912 4.824 1.204
1.769 4.744 1.043
1.643 4.662 0.745
3.179 5.468 1.412
2.930 5.392 1.340
2.724 5.240 1.223
2.557 5.056 1.177
2.276 4.940 1.040
2.063 4.899 0.882
1.854 4.722 0.845
1.584 4.679 0.636
0.309 5.925 6.027
0.013 5.724 6.025
0.168 5.733 5.765
0.086 5.546 5.372
2.624 5.049 1.793
2.415 4.964 1.664
2.173 4.742 1.515
3.170 5.275 1.820
2.921 5.133 1.608
2.640 5.007 1.592
2.487 4.823 1.460
2.301 4.780 1.301
2.064 4.587 1.275
3.550 5.357 1.702
3.246 5.175 1.567
3.100 5.080 1.371
2.826 4.930 1.386
2.606 4.877 1.151
2.341 4.710 1.137
2.181 4.608 0.922
2.017 4.540 0.841
-0.009 5.584 6.255
0.603 5.816 6.325
0.336 5.677 6.212
0.214 5.490 6.084
0.481 5.654 5.986
0.302 5.565 5.789
0.043 5.364 5.648
0.209 5.427 5.474
3.250 4.981 1.925
3.079 4.929 1.808
2.811 4.748 1.625
2.577 4.625 1.557
2.363 4.574 1.442
3.583 5.047 1.781
3.408 5.035 1.681
3.195 4.913 1.482
2.894 4.744 1.436
2.751 4.662 1.265
2.530 4.484 1.206
2.313 4.329 1.070
0.400 5.454 6.212
0.211 5.289 6.068
0.078 5.171 5.986
1.072 5.678 6.224
0.796 5.468 6.170
0.547 5.418 6.038
0.396 5.254 5.905
0.165 5.205 5.776
0.011 5.006 5.400
3.594 4.848 2.025
3.312 4.817 2.000
3.073 4.675 1.885
2.910 4.575 1.678
2.605 4.355 1.545
3.944 4.927 1.962
3.630 4.879 1.881
3.521 4.700 1.750
3.183 4.671 1.636
3.044 4.485 1.540
2.795 4.382 1.364
2.577 4.304 1.256
0.290 5.103 6.196
0.141 4.965 6.100
0.907 5.225 6.213
0.727 5.098 6.132
0.454 4.980 5.928
0.303 4.871 5.913
0.095 4.783 5.730
1.474 5.506 6.244
1.302 5.356 6.117
3.561 4.601 2.402
3.338 4.560 2.228
2.995 4.463 2.179
3.869 4.806 2.293
3.621 4.701 2.146
3.370 4.479 2.075
3.263 4.367 1.963
2.949 4.286 1.753
3.932 4.768 2.068
3.701 4.570 1.916
3.517 4.531 1.723
3.290 4.324 1.692
3.113 4.220 1.521
2.933 4.173 1.415
0.213 4.734 6.244
1.062 5.074 6.221
0.781 4.848 6.173
0.578 4.766 6.062
1.506 5.295 6.255
1.297 5.132 6.122
3.861 4.581 2.572
3.557 4.387 2.490
3.411 4.278 2.376
3.184 4.242 2.227
3.957 4.547 2.276
3.699 4.429 2.187
3.439 4.247 2.078
3.347 4.148 2.005
3.079 4.045 1.913
4.064 4.545 2.092
3.840 4.353 1.911
3.606 4.203 1.864
3.451 4.110 1.767
3.269 3.978 1.704
0.816 4.716 6.285
1.467 4.832 6.253
1.856 4.972 6.058
3.744 4.344 2.856
3.534 4.162 2.802
3.331 4.016 2.644
3.947 4.227 2.598
3.649 4.179 2.470
3.441 4.070 2.467
3.249 3.942 2.336
4.028 4.275 2.397
3.859 4.113 2.263
3.604 4.010 2.224
3.388 3.862 2.052
3.137 3.749 1.953
4.159 4.296 2.199
3.986 4.076 2.060
3.783 4.062 1.935
3.458 3.885 1.787
3.235 3.733 1.776
3.729 4.146 3.189
3.445 4.053 3.066
3.838 4.036 2.958
3.688 3.925 2.914
3.386 3.820 2.775
4.031 4.097 2.663
3.821 3.953 2.679
3.599 3.789 2.484
3.358 3.679 2.399
4.115 4.082 2.474
3.881 3.840 2.373
3.721 3.823 2.271
3.474 3.685 2.120
4.296 3.967 2.282
4.041 3.890 2.179
3.855 3.734 2.063
3.595 3.573 1.863
3.584 3.971 3.718
3.733 3.937 3.532
3.509 3.738 3.382
3.874 3.903 3.298
3.638 3.730 3.121
3.372 3.624 3.104
3.966 3.863 3.012
3.680 3.744 2.901
3.573 3.581 2.849
3.298 3.542 2.693
4.068 3.822 2.857
3.932 3.637 2.740
3.696 3.555 2.641
3.443 3.486 2.463
4.164 3.839 2.578
3.985 3.651 2.511
3.810 3.570 2.301
3.548 3.361 2.233
4.349 3.793 2.319
4.146 3.592 2.251
3.948 3.478 2.096
3.702 3.348 2.039
3.458 3.704 4.078
3.640 3.648 3.892
3.462 3.493 3.735
3.726 3.664 3.661
3.508 3.516 3.492
3.405 3.393 3.322
3.915 3.578 3.418
3.737 3.508 3.211
3.507 3.422 3.080
3.253 3.249 2.964
3.997 3.556 3.112
3.878 3.507 2.997
3.657 3.304 2.937
3.392 3.172 2.786
4.149 3.522 2.928
3.927 3.398 2.808
3.809 3.368 2.615
3.575 3.256 2.563
4.288 3.580 2.691
4.049 3.387 2.483
3.933 3.276 2.490
3.658 3.229 2.368
4.491 3.517 2.405
4.284 3.395 2.342
3.996 3.219 2.165
3.787 3.150 2.113
-0.008 1.728 2.981
3.510 3.510 4.437
3.667 3.467 4.149
3.376 3.388 4.011
3.749 3.376 3.927
3.536 3.352 3.833
3.328 3.187 3.705
3.875 3.402 3.671
3.604 3.214 3.619
3.423 3.110 3.485
3.231 2.978 3.375
3.986 3.361 3.393
3.759 3.278 3.363
3.523 3.127 3.285
3.368 3.060 3.060
3.099 2.948 3.056
4.135 3.301 3.268
3.912 3.217 3.133
3.722 3.055 3.028
3.443 3.006 2.815
3.292 2.814 2.805
4.288 3.266 2.899
4.122 3.235 2.800
3.881 3.132 2.737
3.623 2.957 2.673
4.452 3.224 2.745
4.221 3.205 2.597
3.974 3.081 2.554
3.772 2.994 2.463
4.492 3.322 2.539
4.293 3.199 2.394
4.086 2.981 2.279
0.055 1.675 3.668
0.224 1.586 3.361
0.333 1.575 3.224
0.149 1.535 3.097
3.427 3.215 4.716
0.325 1.425 2.871
-0.001 1.342 2.640
3.491 3.307 4.424
3.361 3.129 4.363
3.686 3.146 4.166
3.442 3.042 4.067
3.207 2.913 3.975
3.872 3.175 3.945
3.645 3.083 3.889
3.407 2.914 3.809
3.211 2.791 3.693
4.016 3.105 3.689
3.730 2.988 3.643
3.557 2.962 3.600
3.286 2.860 3.455
3.081 2.740 3.289
4.045 3.093 3.588
3.888 3.034 3.354
3.713 2.892 3.269
3.376 2.789 3.211
3.282 2.713 3.035
4.174 3.127 3.304
3.985 3.015 3.231
3.839 2.854 3.085
3.547 2.764 2.915
3.378 2.646 2.828
4.392 3.132 2.981
4.120 2.906 2.871
3.993 2.861 2.836
3.760 2.649 2.779
3.542 2.581 2.590
4.516 3.042 2.777
4.236 2.942 2.691
4.031 2.838 2.580
3.773 2.741 2.524
4.685 3.025 2.554
4.454 2.905 2.503
0.060 1.420 3.948
0.347 1.534 3.878
0.172 1.425 3.752
0.530 1.542 3.598
0.321 1.334 3.409
0.050 1.227 3.354
0.616 1.456 3.286
0.389 1.287 3.215
0.245 1.258 3.061
0.055 1.105 3.035
3.570 3.006 4.838
0.599 1.314 2.954
0.334 1.180 2.917
0.103 1.078 2.796
3.690 2.978 4.552
3.370 2.871 4.443
0.218 0.993 2.588
0.023 0.992 2.427
3.723 2.958 4.347
3.497 2.893 4.231
3.313 2.673 4.036
3.123 2.551 3.946
3.926 3.008 4.062
3.738 2.811 3.970
3.454 2.737 3.908
3.309 2.549 3.796
2.999 2.419 3.685
4.120 2.912 3.801
3.838 2.814 3.757
3.653 2.658 3.640
3.414 2.518 3.471
3.154 2.427 3.331
2.890 2.305 3.308
4.219 2.855 3.578
3.970 2.758 3.439
3.784 2.663 3.348
3.487 2.556 3.259
3.291 2.431 3.137
3.131 2.314 3.090
4.348 2.800 3.305
4.120 2.789 3.213
3.944 2.601 3.170
3.675 2.528 3.034
3.486 2.343 2.930
3.262 2.282 2.788
4.421 2.818 3.095
4.227 2.733 3.020
4.084 2.614 2.918
3.827 2.491 2.830
3.595 2.307 2.667
4.600 2.764 2.886
4.308 2.614 2.715
4.154 2.517 2.690
3.864 2.459 2.539
4.436 3.209 6.260
4.977 3.434 6.136
4.688 3.342 6.136
4.559 3.148 5.959
5.534 3.704 6.153
5.333 3.475 6.127
5.101 3.404 5.970
4.876 3.293 5.835
4.667 3.221 5.772
4.475 3.002 5.691
6.123 3.786 6.131
5.841 3.767 5.984
5.737 3.586 5.910
5.504 3.528 5.802
5.181 3.411 5.674
4.984 3.265 5.569
4.731 3.183 5.541
4.635 2.954 5.342
4.412 2.962 5.300
6.264 3.857 5.863
6.026 3.652 5.786
5.834 3.638 5.644
5.535 3.515 5.530
5.331 3.313 5.509
5.107 3.175 5.402
4.877 3.156 5.292
4.653 2.947 5.200
4.502 2.922 4.979
4.256 2.770 4.955
4.005 2.678 4.840
6.218 3.639 5.569
5.929 3.503 5.420
5.786 3.470 5.313
5.512 3.256 5.253
5.251 3.193 5.069
5.081 3.105 5.026
4.833 2.944 4.866
4.571 2.866 4.864
4.397 2.720 4.738
4.247 2.589 4.617
4.805 2.752 4.531
4.557 2.707 4.404
4.360 2.605 4.412
4.727 2.605 4.292
4.462 2.518 4.163
4.540 2.531 3.811
5.118 3.134 6.213
4.834 3.071 6.163
5.565 3.440 6.321
5.438 3.292 6.183
5.194 3.221 6.002
4.923 3.018 5.918
4.766 2.973 5.779
6.137 3.675 6.259
5.925 3.440 6.088
5.788 3.404 6.046
5.490 3.252 5.956
5.370 3.064 5.811
5.161 3.002 5.701
4.950 2.824 5.584
6.080 3.452 5.951
5.853 3.391 5.735
5.637 3.265 5.700
5.425 3.067 5.519
5.175 3.041 5.446
6.258 3.485 5.677
6.025 3.297 5.561
5.760 3.175 5.383
5.478 3.084 6.203
5.274 2.853 6.102
5.058 2.728 5.981
6.013 3.190 6.157
5.882 3.167 6.058
5.652 2.973 5.943
5.351 2.853 5.825
6.262 3.259 5.943
5.934 3.105 5.919
5.773 3.007 5.719
6.171 3.101 5.674
5.392 2.737 6.233
5.909 2.849 6.252
5.786 2.818 6.036
6.057 2.861 5.941
6.002 2.670 6.225
4.515 3.641 6.218
4.301 3.504 6.185
4.117 3.409 5.978
5.065 3.767 6.193
4.883 3.718 6.046
4.672 3.597 6.056
4.467 3.393 5.828
4.274 3.251 5.828
3.985 3.160 5.722
5.734 4.024 6.217
5.426 3.823 6.075
5.275 3.732 5.939
5.041 3.599 5.941
4.790 3.507 5.752
4.613 3.357 5.651
4.417 3.324 5.560
4.099 3.135 5.408
3.903 3.063 5.376
6.085 4.138 6.063
5.856 4.044 5.970
5.580 3.803 5.859
5.295 3.727 5.717
5.172 3.668 5.693
4.868 3.441 5.486
4.637 3.413 5.405
4.433 3.247 5.254
4.266 3.179 5.172
4.009 2.972 5.050
3.835 2.860 4.962
6.203 4.117 5.803
5.886 3.935 5.730
5.771 3.884 5.614
5.437 3.675 5.531
5.274 3.561 5.374
5.041 3.519 5.324
4.896 3.414 5.143
4.678 3.176 5.059
4.413 3.062 4.914
4.242 3.004 4.846
3.921 2.843 4.769
5.679 3.710 5.336
5.439 3.531 5.194
5.158 3.434 5.035
5.032 3.385 4.970
4.743 3.266 4.810
4.500 3.067 4.761
4.325 2.942 4.592
4.106 2.798 4.472
5.143 3.286 4.710
4.862 3.195 4.546
4.716 3.102 4.441
4.405 2.906 4.411
4.174 2.815 4.282
4.825 3.092 4.228
4.614 2.961 4.109
4.322 2.725 4.061
4.737 2.903 3.882
4.472 2.815 3.795
4.594 2.747 3.534
4.337 3.235 6.230
5.021 3.494 6.258
4.767 3.379 6.115
4.462 3.128 6.022
5.586 3.694 6.174
5.376 3.527 6.125
5.105 3.432 5.993
4.823 3.223 5.811
4.649 3.180 5.696
4.458 3.001 5.646
6.089 3.799 6.142
5.886 3.681 6.052
5.700 3.579 5.901
5.414 3.449 5.885
5.264 3.320 5.664
5.063 3.197 5.669
4.778 3.166 5.530
4.625 3.001 5.435
4.421 2.965 5.320
6.212 3.778 5.866
6.053 3.704 5.767
5.813 3.579 5.755
5.580 3.470 5.595
5.435 3.360 5.514
5.187 3.242 5.403
4.916 3.164 5.301
4.757 2.920 5.156
4.448 2.866 4.996
4.213 2.736 4.916
3.988 2.689 4.880
6.222 3.738 5.581
5.894 3.583 5.451
5.700 3.382 5.337
5.479 3.272 5.271
5.248 3.157 5.074
5.053 3.096 5.044
4.832 3.002 4.855
4.568 2.799 4.741
4.375 2.665 4.675
4.195 2.635 4.580
4.726 2.853 4.524
4.558 2.715 4.495
4.275 2.532 4.363
4.732 2.652 4.275
4.410 2.518 4.176
4.590 2.522 3.941
0.379 1.031 4.471
0.043 0.912 4.279
0.702 1.209 4.355
0.411 1.059 4.267
0.167 0.992 4.146
-0.034 0.836 3.966
1.067 1.298 4.183
0.826 1.125 4.032
0.606 1.092 4.038
0.314 0.926 3.928
0.082 0.755 3.699
1.410 1.344 4.134
1.218 1.243 3.959
0.964 1.115 3.867
0.671 0.991 3.701
0.550 0.826 3.651
0.300 0.808 3.469
0.113 0.653 3.442
1.683 1.462 3.974
1.475 1.378 3.788
1.322 1.288 3.676
1.067 1.130 3.666
0.835 0.950 3.541
0.566 0.851 3.339
0.444 0.779 3.291
0.185 0.558 3.212
1.674 1.434 3.976
1.851 1.412 3.783
1.654 1.314 3.665
1.417 1.172 3.536
1.164 1.129 3.347
0.948 1.016 3.210
0.747 0.831 3.106
0.503 0.652 3.115
0.327 0.637 2.984
0.159 0.454 2.818
2.351 1.689 3.952
2.065 1.536 3.768
1.877 1.420 3.771
1.969 1.449 3.524
1.717 1.263 3.330
1.514 1.127 3.281
1.296 1.020 3.171
1.120 0.939 3.095
0.939 0.743 2.910
0.665 0.703 2.884
0.475 0.517 2.674
0.287 0.485 2.549
-0.011 0.304 2.441
3.956 2.523 4.510
3.778 2.380 4.393
3.509 2.250 4.218
3.300 2.099 4.112
3.158 1.952 4.002
2.858 1.869 3.953
2.642 1.753 3.771
2.420 1.576 3.663
2.218 1.475 3.625
1.996 1.442 3.538
2.094 1.384 3.197
4.132 2.496 4.287
3.944 2.324 4.077
3.639 2.241 3.989
3.424 2.072 3.873
3.290 2.012 3.765
3.072 1.844 3.617
2.807 1.704 3.555
2.509 1.641 3.517
2.331 1.516 3.417
2.083 1.405 3.291
4.178 2.484 4.065
4.069 2.321 3.928
3.815 2.247 3.751
3.589 2.047 3.714
3.370 1.990 3.567
3.156 1.834 3.384
2.978 1.674 3.405
2.742 1.559 3.167
2.420 1.417 3.176
4.361 2.457 3.803
4.203 2.223 3.601
3.993 2.150 3.591
3.665 2.072 3.471
3.499 1.892 3.259
3.312 1.844 3.267
2.989 1.615 3.068
2.862 1.610 2.935
4.468 2.405 3.508
4.328 2.225 3.383
4.110 2.114 3.374
3.824 1.984 3.267
3.684 1.913 3.074
3.466 1.800 2.963
3.227 1.641 2.803
2.944 1.552 2.772
4.414 2.208 3.173
4.166 2.106 3.129
3.956 2.035 2.934
3.718 1.850 2.783
3.531 1.749 2.770
0.317 1.094 4.468
0.127 0.955 4.403
0.659 1.002 4.705
0.418 0.815 4.536
0.147 0.682 4.434
0.978 1.058 4.498
0.758 0.906 4.373
0.526 0.867 4.346
0.370 0.695 4.169
0.049 0.629 4.044
1.316 1.220 4.432
1.116 0.993 4.260
0.902 0.924 4.225
0.654 0.748 4.070
0.416 0.736 4.011
0.169 0.624 3.885
0.027 0.420 3.722
1.677 1.228 4.337
1.465 1.160 4.194
1.202 0.937 3.983
1.005 0.871 3.954
0.784 0.711 3.824
0.618 0.598 3.692
0.344 0.584 3.611
0.159 0.356 3.489
1.745 1.240 4.219
1.811 1.275 4.093
1.612 1.095 3.943
1.444 1.005 3.821
1.094 0.883 3.759
1.010 0.773 3.626
0.775 0.668 3.449
0.543 0.439 3.433
0.284 0.441 3.317
0.029 0.199 3.157
2.038 1.347 4.195
1.852 1.174 3.965
1.974 1.166 3.777
1.716 1.116 3.730
1.498 1.008 3.600
1.294 0.888 3.507
1.122 0.709 3.294
0.841 0.656 3.283
0.689 0.441 3.083
0.475 0.414 3.046
0.198 0.253 2.866
2.765 1.716 4.243
2.555 1.606 4.168
2.446 1.481 3.984
2.213 1.336 3.929
2.012 1.218 3.787
2.145 1.183 3.534
1.842 1.019 3.430
1.633 0.886 3.366
1.480 0.839 3.184
1.184 0.617 3.072
0.942 0.615 2.981
0.821 0.460 2.923
3.612 2.005 4.278
3.390 1.836 4.292
3.132 1.786 4.094
2.984 1.686 4.041
2.802 1.455 3.879
2.502 1.435 3.843
2.249 1.218 3.613
2.028 1.147 3.578
2.206 1.174 3.337
2.028 1.049 3.217
1.753 0.868 3.113
4.164 2.251 4.310
3.959 2.069 4.247
3.693 2.012 4.081
3.584 1.912 4.039
3.310 1.739 3.818
3.121 1.582 3.766
2.922 1.513 3.601
2.724 1.328 3.600
2.426 1.245 3.483
2.277 1.169 3.314
2.423 1.119 3.146
2.090 0.964 2.924
4.359 2.215 4.066
4.047 2.128 3.941
3.955 1.985 3.808
3.656 1.874 3.708
3.497 1.762 3.683
3.217 1.616 3.570
2.991 1.447 3.372
2.804 1.315 3.272
2.638 1.250 3.195
2.292 1.091 3.089
2.486 1.047 2.788
4.403 2.206 3.901
4.216 1.991 3.670
4.051 1.971 3.634
3.773 1.766 3.468
3.620 1.659 3.354
3.420 1.586 3.252
3.125 1.372 3.210
2.956 1.353 3.082
2.763 1.225 2.899
2.508 1.096 2.904
4.357 2.045 3.553
4.102 1.924 3.399
3.906 1.752 3.322
3.788 1.707 3.230
3.456 1.554 3.008
3.343 1.414 2.957
3.003 1.309 2.888
2.912 1.170 2.736
4.244 1.830 3.104
4.064 1.764 3.111
3.827 1.604 2.942
3.570 1.468 2.760
3.469 1.375 2.682
3.132 1.326 2.534
4.007 1.610 2.679
3.815 1.414 2.586
0.638 0.913 4.665
0.471 0.863 4.556
0.164 0.749 4.482
0.961 0.879 4.877
0.683 0.769 4.694
0.538 0.547 4.564
0.301 0.427 4.547
0.104 0.404 4.465
1.280 0.904 4.666
1.024 0.818 4.594
0.905 0.650 4.471
0.622 0.598 4.402
0.434 0.515 4.290
0.192 0.368 4.147
1.602 1.095 4.620
1.422 0.861 4.414
1.150 0.836 4.302
0.921 0.688 4.266
0.818 0.501 4.211
0.508 0.441 4.003
0.367 0.302 3.932
0.152 0.228 3.773
1.693 1.014 4.636
1.728 0.990 4.288
1.553 0.828 4.215
1.350 0.828 4.160
1.081 0.623 4.087
0.887 0.507 3.958
0.613 0.348 3.847
0.397 0.258 3.728
0.230 0.145 3.544
0.066 -0.000 3.501
2.056 1.175 4.453
1.718 1.014 4.295
1.877 1.019 4.170
1.682 0.852 3.973
1.464 0.666 3.947
1.300 0.595 3.720
1.007 0.463 3.605
0.824 0.322 3.618
0.623 0.309 3.494
0.408 0.105 3.352
2.285 1.247 4.370
2.130 1.156 4.208
1.969 1.030 4.167
2.068 1.008 3.865
1.845 0.890 3.796
1.549 0.678 3.641
1.381 0.649 3.541
1.232 0.427 3.503
0.887 0.396 3.347
0.762 0.283 3.219
2.861 1.431 4.254
2.770 1.350 4.160
2.415 1.248 4.095
2.205 1.048 3.982
2.005 0.962 3.947
2.175 0.976 3.591
2.012 0.812 3.499
1.764 0.737 3.444
1.557 0.551 3.282
1.270 0.500 3.225
1.130 0.315 3.113
3.526 1.619 4.281
3.213 1.460 4.182
3.013 1.410 4.028
2.786 1.284 4.014
2.637 1.146 3.892
2.340 1.057 3.738
2.228 0.939 3.579
2.345 0.841 3.460
2.124 0.762 3.285
1.850 0.668 3.122
1.594 0.547 3.009
3.903 1.754 4.154
3.584 1.545 4.112
3.370 1.453 3.942
3.131 1.306 3.827
3.006 1.223 3.758
2.723 1.175 3.640
2.548 0.990 3.573
2.311 0.895 3.468
2.491 0.916 3.114
2.223 0.756 3.085
4.249 1.794 4.036
3.965 1.674 3.919
3.721 1.581 3.870
3.548 1.496 3.756
3.288 1.340 3.623
3.110 1.281 3.493
2.952 1.044 3.365
2.726 0.982 3.334
2.440 0.812 3.222
2.600 0.775 2.998
4.345 1.737 3.780
4.162 1.658 3.704
3.930 1.550 3.611
3.672 1.401 3.458
3.472 1.301 3.442
3.258 1.125 3.247
2.989 1.078 3.218
2.839 0.968 3.019
2.576 0.777 2.941
4.302 1.598 3.509
4.077 1.472 3.294
3.807 1.354 3.267
3.553 1.343 3.100
3.435 1.133 2.975
3.207 1.040 2.980
2.977 0.971 2.860
4.378 1.637 3.230
4.150 1.472 3.129
3.961 1.391 2.981
3.773 1.275 2.879
3.504 1.186 2.810
3.326 1.056 2.629
3.054 0.901 2.551
4.112 1.281 2.761
3.806 1.209 2.702
3.617 1.132 2.488
0.879 0.915 4.886
0.782 0.724 4.697
0.463 0.599 4.599
0.226 0.524 4.517
0.046 0.399 4.400
1.188 0.787 5.016
0.980 0.600 4.885
0.836 0.426 4.827
0.602 0.333 4.751
0.426 0.264 4.621
0.209 0.128 4.499
1.606 0.843 4.879
1.354 0.689 4.781
1.103 0.611 4.659
0.900 0.521 4.576
0.739 0.333 4.475
0.518 0.155 4.363
0.288 0.154 4.280
1.644 0.800 4.960
1.699 0.816 4.623
1.576 0.635 4.577
1.330 0.477 4.426
1.137 0.477 4.356
0.896 0.287 4.227
0.602 0.135 4.148
0.356 0.008 4.016
1.788 0.849 4.636
1.815 0.757 4.421
1.711 0.612 4.259
1.481 0.581 4.193
1.188 0.440 4.163
0.922 0.238 4.027
0.716 0.127 3.848
0.543 0.022 3.701
2.034 0.875 4.598
1.914 0.767 4.453
1.994 0.711 4.165
1.795 0.568 4.151
1.603 0.552 3.909
1.288 0.406 3.826
1.146 0.240 3.713
0.842 0.175 3.681
0.667 0.063 3.525
2.382 0.905 4.436
2.234 0.804 4.246
1.988 0.739 4.213
2.152 0.668 3.929
1.924 0.567 3.858
1.729 0.517 3.709
1.463 0.396 3.572
1.223 0.158 3.450
1.045 0.140 3.476
2.748 1.080 4.266
2.510 0.988 4.159
2.378 0.835 4.067
2.082 0.678 3.906
2.221 0.641 3.672
2.086 0.515 3.557
1.813 0.459 3.569
1.600 0.291 3.349
1.365 0.172 3.324
3.414 1.293 4.324
3.175 1.085 4.216
2.943 1.038 4.043
2.677 0.844 3.986
2.477 0.837 3.864
2.308 0.681 3.767
2.415 0.594 3.431
2.219 0.552 3.315
1.946 0.357 3.230
1.730 0.290 3.135
3.653 1.426 4.171
3.478 1.302 4.044
3.223 1.059 3.869
3.085 0.946 3.845
2.911 0.848 3.775
2.660 0.796 3.588
2.451 0.649 3.486
2.601 0.549 3.319
2.322 0.481 3.082
2.047 0.373 3.011
3.856 1.374 3.880
3.643 1.210 3.800
3.374 1.135 3.760
3.249 0.937 3.564
2.925 0.842 3.472
2.812 0.783 3.410
2.511 0.563 3.268
2.612 0.599 3.014
2.467 0.507 2.902
4.276 1.395 3.807
3.969 1.278 3.669
3.808 1.125 3.530
3.595 1.008 3.393
3.296 0.919 3.400
3.076 0.896 3.274
2.886 0.678 3.106
2.714 0.657 3.009
2.801 0.545 2.773
4.275 1.428 3.561
4.174 1.240 3.488
3.899 1.105 3.267
3.620 1.046 3.205
3.526 0.961 3.094
3.219 0.861 3.021
2.983 0.639 2.937
2.772 0.557 2.823
4.267 1.216 3.218
4.000 1.121 3.149
3.850 1.025 2.936
3.572 0.882 2.812
3.440 0.727 2.793
3.138 0.641 2.677
4.229 1.107 2.803
3.887 1.018 2.816
3.778 0.929 2.707
3.542 0.808 2.535
3.350 0.602 2.383
4.026 0.940 2.518
3.869 0.790 2.418
0.880 0.571 5.094
0.683 0.472 5.092
0.431 0.404 4.957
0.257 0.264 4.801
1.251 0.708 5.017
1.055 0.582 4.918
0.793 0.451 4.876
0.580 0.425 4.728
0.377 0.293 4.571
0.209 0.063 4.541
1.510 0.589 5.204
1.376 0.526 5.179
1.096 0.346 4.954
0.936 0.300 4.867
0.746 0.182 4.835
1.524 0.534 5.227
1.683 0.547 4.988
1.519 0.428 4.922
1.205 0.399 4.812
1.057 0.170 4.656
0.768 0.060 4.607
1.701 0.549 5.015
1.819 0.499 4.745
1.576 0.427 4.633
1.379 0.336 4.481
1.131 0.152 4.487
0.966 0.072 4.262
1.801 0.509 4.765
1.997 0.452 4.478
1.752 0.437 4.451
1.582 0.257 4.316
1.361 0.132 4.225
1.150 0.076 4.010
2.196 0.659 4.643
1.931 0.458 4.485
2.130 0.435 4.299
1.932 0.396 4.208
1.688 0.284 4.005
1.389 0.084 3.898
1.231 0.070 3.814
2.491 0.677 4.544
2.354 0.597 4.404
2.153 0.530 4.332
2.163 0.420 3.978
1.964 0.399 3.968
1.742 0.156 3.817
1.609 0.094 3.675
2.894 0.770 4.375
2.623 0.697 4.266
2.474 0.536 4.216
2.248 0.469 4.064
2.299 0.464 3.848
2.147 0.350 3.646
1.947 0.197 3.544
1.727 0.078 3.485
3.233 0.875 4.187
2.960 0.731 4.107
2.826 0.638 4.045
2.632 0.550 3.915
2.304 0.459 3.789
2.526 0.362 3.628
2.297 0.228 3.485
2.029 0.188 3.341
3.575 1.010 4.110
3.319 0.851 4.037
3.089 0.740 3.899
2.989 0.577 3.768
2.700 0.474 3.698
2.451 0.413 3.554
2.582 0.360 3.274
2.410 0.225 3.273
3.979 1.123 3.974
3.733 0.963 3.912
3.508 0.913 3.806
3.273 0.687 3.633
3.113 0.624 3.576
2.840 0.454 3.447
2.682 0.398 3.285
2.805 0.333 3.086
2.543 0.276 3.046
4.115 1.023 3.711
3.896 0.892 3.648
3.613 0.769 3.493
3.492 0.666 3.491
3.251 0.561 3.277
2.958 0.518 3.196
2.726 0.346 3.070
2.942 0.321 2.893
4.217 1.039 3.575
4.050 0.868 3.466
3.811 0.824 3.301
3.615 0.704 3.166
3.400 0.603 3.045
3.076 0.386 2.975
2.961 0.312 2.899
3.086 0.294 2.650
4.365 0.969 3.283
4.093 0.907 3.228
3.900 0.798 3.131
3.672 0.618 2.997
3.487 0.547 2.813
3.275 0.458 2.713
3.089 0.344 2.583
4.256 0.927 2.921
4.059 0.770 2.893
3.812 0.609 2.691
3.554 0.514 2.645
3.331 0.422 2.482
4.460 0.847 2.721
4.218 0.763 2.579
3.911 0.617 2.439
3.726 0.530 2.349
3.484 0.412 2.205
0.886 0.481 5.476
0.696 0.354 5.414
0.447 0.171 5.218
1.233 0.441 5.342
1.001 0.342 5.249
0.807 0.322 5.161
0.503 0.164 5.040
0.302 0.036 4.891
1.552 0.663 5.256
1.335 0.517 5.079
1.150 0.296 4.995
0.957 0.187 4.941
0.656 0.130 4.760
1.561 0.537 5.238
1.673 0.403 5.269
1.460 0.171 5.238
1.203 0.063 5.105
1.667 0.380 5.327
1.775 0.361 5.022
1.547 0.203 4.890
1.288 0.120 4.882
1.763 0.385 5.007
1.930 0.354 4.803
1.632 0.233 4.667
1.524 0.003 4.659
1.974 0.301 4.866
2.120 0.273 4.594
1.778 0.104 4.432
1.635 0.065 4.315
2.313 0.343 4.748
2.046 0.307 4.653
2.215 0.230 4.299
1.913 0.189 4.212
1.687 0.025 4.169
2.466 0.349 4.426
2.123 0.183 4.347
2.298 0.239 4.172
2.052 0.045 3.972
2.740 0.511 4.408
2.533 0.388 4.179
2.339 0.274 4.065
2.488 0.146 3.828
2.257 0.021 3.720
3.126 0.502 4.202
2.850 0.462 4.056
2.663 0.254 3.965
2.473 0.144 3.848
2.619 0.208 3.691
2.313 0.010 3.531
3.406 0.611 4.148
3.241 0.492 3.991
3.009 0.399 3.827
2.856 0.313 3.708
2.644 0.173 3.679
2.681 0.189 3.368
2.506 0.062 3.235
3.886 0.727 3.971
3.667 0.611 3.843
3.413 0.489 3.760
3.101 0.380 3.603
2.996 0.301 3.503
2.741 0.170 3.370
2.827 0.069 3.187
3.944 0.747 3.666
3.787 0.582 3.605
3.535 0.497 3.561
3.270 0.282 3.467
3.033 0.281 3.341
2.896 0.083 3.201
3.054 0.099 2.896
4.335 0.827 3.537
4.021 0.613 3.541
3.809 0.537 3.355
3.616 0.373 3.239
3.498 0.290 3.102
3.157 0.143 3.029
3.018 0.085 2.936
3.148 0.021 2.744
4.452 0.752 3.306
4.203 0.648 3.317
3.964 0.588 3.163
3.750 0.362 2.979
3.615 0.241 2.929
3.279 0.126 2.804
3.067 0.026 2.680
3.220 0.018 2.525
4.639 0.730 3.074
4.339 0.681 3.065
4.135 0.457 2.894
3.956 0.355 2.769
3.646 0.273 2.696
3.422 0.108 2.595
3.252 0.050 2.485
4.470 0.635 2.836
4.332 0.528 2.700
4.064 0.355 2.563
3.823 0.202 2.386
3.635 0.049 2.281
0.947 0.368 6.086
0.612 0.200 5.964
1.008 0.266 5.957
0.776 0.244 5.835
0.579 0.031 5.638
1.405 0.446 5.837
1.218 0.227 5.720
0.997 0.229 5.592
0.772 0.085 5.435
1.380 0.452 5.771
1.579 0.382 5.562
1.252 0.261 5.437
1.116 0.084 5.277
0.885 0.049 5.254
1.571 0.358 5.538
1.592 0.348 5.245
1.453 0.297 5.158
1.195 0.110 5.035
1.605 0.396 5.239
1.726 0.133 5.330
1.789 0.079 5.451
1.903 0.032 5.090
1.878 0.108 5.112
2.020 -0.004 4.945
2.056 -0.004 4.938
2.101 0.058 4.621
2.112 0.012 4.668
2.745 0.005 4.123
3.109 0.148 3.996
2.854 0.036 3.869
3.708 0.355 3.900
3.452 0.235 3.841
3.192 0.063 3.777
3.003 0.065 3.597
3.979 0.487 3.860
3.867 0.338 3.689
3.603 0.180 3.634
3.407 0.054 3.524
4.240 0.386 3.631
3.939 0.277 3.518
3.693 0.224 3.314
3.483 0.080 3.312
4.507 0.494 3.432
4.321 0.375 3.328
4.103 0.312 3.241
3.855 0.143 3.181
3.603 0.103 3.057
4.608 0.504 3.220
4.495 0.338 3.153
4.288 0.249 3.013
4.074 0.196 2.874
3.748 -0.048 2.837
4.836 0.439 2.976
4.528 0.277 2.891
4.373 0.282 2.783
4.195 0.035 2.710
0.983 0.138 6.250
1.322 0.151 6.070
1.123 0.128 5.984
1.397 0.230 6.121
1.484 0.205 5.852
1.246 0.006 5.770
1.451 0.160 5.891
1.598 0.161 5.567
1.339 -0.015 5.448
1.628 0.073 5.642
1.794 0.159 5.355
1.713 0.059 5.368
3.978 0.154 3.834
4.205 0.164 3.654
4.092 0.068 3.569
4.638 0.262 3.514
4.470 0.087 3.402
4.217 0.015 3.346
4.810 0.189 3.346
4.593 0.154 3.250
4.273 -0.026 3.126
4.904 0.155 3.041
4.726 0.164 2.988
4.890 0.007 3.426
-0.050 1.284 4.244
0.364 1.308 4.115
0.085 1.140 4.025
0.686 1.442 3.981
0.436 1.303 3.866
0.221 1.209 3.754
0.062 1.021 3.656
0.845 1.375 3.743
0.671 1.231 3.611
0.406 1.110 3.609
0.215 0.983 3.473
1.042 1.298 3.537
0.758 1.203 3.382
0.584 1.039 3.338
0.330 1.029 3.255
0.069 0.912 3.075
1.153 1.343 3.277
0.918 1.136 3.127
0.716 1.063 3.019
0.446 0.897 2.963
0.244 0.796 2.896
-0.035 0.705 2.700
3.803 2.695 4.692
3.549 2.631 4.459
0.636 0.971 2.739
0.352 0.830 2.583
0.198 0.711 2.486
3.916 2.759 4.399
3.612 2.649 4.281
3.426 2.423 4.178
3.246 2.408 4.083
3.043 2.298 4.015
2.781 2.152 3.821
0.065 0.530 2.158
4.006 2.688 4.149
3.759 2.559 4.077
3.509 2.412 3.882
3.317 2.323 3.795
3.144 2.233 3.693
2.972 2.040 3.639
2.666 1.980 3.463
4.139 2.704 3.870
3.992 2.565 3.862
3.694 2.462 3.692
3.426 2.346 3.616
3.269 2.258 3.497
3.068 2.073 3.382
2.808 1.971 3.227
4.314 2.659 3.735
4.005 2.488 3.569
3.811 2.342 3.443
3.592 2.215 3.386
3.372 2.156 3.289
3.121 2.050 3.126
3.010 1.934 3.026
4.395 2.637 3.405
4.259 2.460 3.281
4.041 2.318 3.208
3.791 2.304 3.134
3.577 2.153 3.029
3.365 2.039 2.908
3.074 1.839 2.762
4.494 2.602 3.155
4.343 2.420 3.053
4.093 2.383 3.046
3.882 2.172 2.884
3.726 2.062 2.787
3.419 1.993 2.680
4.261 2.375 2.772
4.068 2.191 2.627
0.061 1.221 4.310
0.333 1.032 4.506
0.101 0.983 4.344
0.712 1.209 4.285
0.397 1.134 4.179
0.259 0.881 4.121
0.007 0.770 3.960
0.983 1.339 4.162
0.822 1.141 4.066
0.605 1.106 4.039
0.313 0.908 3.879
0.092 0.732 3.758
1.383 1.303 4.034
1.100 1.247 4.020
0.963 1.155 3.800
0.675 0.986 3.815
0.545 0.835 3.589
0.306 0.780 3.465
0.116 0.588 3.368
1.786 1.510 3.979
1.526 1.308 3.779
1.312 1.221 3.735
1.007 1.116 3.688
0.850 0.989 3.479
0.610 0.918 3.415
0.426 0.683 3.258
0.246 0.624 3.199
1.696 1.427 3.917
1.850 1.460 3.677
1.707 1.278 3.547
1.401 1.129 3.438
1.171 1.024 3.408
0.943 1.004 3.205
0.745 0.791 3.109
0.518 0.713 2.992
0.367 0.619 2.902
0.147 0.410 2.817
2.304 1.691 3.975
2.137 1.595 3.814
1.875 1.451 3.691
2.039 1.370 3.491
1.815 1.342 3.358
1.523 1.151 3.241
1.301 1.017 3.136
1.137 0.944 3.084
0.948 0.810 2.910
0.716 0.683 2.810
0.513 0.565 2.716
0.306 0.444 2.548
0.006 0.363 2.528
3.989 2.470 4.491
3.733 2.329 4.385
3.585 2.292 4.284
3.338 2.136 4.089
3.150 1.971 4.001
2.915 1.922 3.943
2.713 1.780 3.864
2.385 1.654 3.687
2.272 1.518 3.637
1.949 1.426 3.422
2.148 1.360 3.256
4.106 2.485 4.249
3.927 2.300 4.131
3.676 2.220 3.967
3.416 2.072 3.940
3.235 1.934 3.827
2.987 1.882 3.744
2.833 1.736 3.570
2.585 1.629 3.524
2.356 1.534 3.314
2.132 1.435 3.279
4.296 2.365 3.967
4.054 2.358 3.879
3.815 2.253 3.726
3.575 2.122 3.683
3.378 1.987 3.538
3.075 1.832 3.501
2.921 1.715 3.392
2.724 1.633 3.281
2.481 1.506 3.125
4.385 2.434 3.739
4.183 2.258 3.660
3.877 2.214 3.565
3.779 2.082 3.489
3.551 1.955 3.377
3.236 1.754 3.152
3.033 1.660 3.038
2.835 1.503 3.019
4.552 2.437 3.539
4.310 2.216 3.462
4.131 2.116 3.244
3.866 2.029 3.222
3.622 1.876 3.029
3.370 1.711 2.965
3.202 1.671 2.918
2.998 1.476 2.766
4.487 2.289 3.179
4.167 2.053 3.021
4.027 1.971 2.899
3.758 1.799 2.852
3.562 1.737 2.797
0.334 1.113 4.392
0.085 1.011 4.281
6.187 6.318 1.518
5.897 6.204 1.329
6.320 6.176 1.185
6.067 6.094 1.172
5.884 6.041 1.012
6.135 6.114 0.848
5.911 6.003 0.769
6.045 5.905 0.520
4.337 5.221 1.456
4.365 5.292 1.270
6.138 6.030 1.758
5.932 5.957 1.636
4.603 5.183 0.950
6.170 6.027 1.500
5.972 5.970 1.376
5.732 5.733 1.335
5.635 5.710 1.198
5.376 5.524 1.147
6.143 5.833 1.164
5.878 5.694 1.057
5.679 5.580 1.029
5.428 5.477 0.849
6.323 5.852 0.917
6.079 5.794 0.855
5.885 5.648 0.804
5.643 5.559 0.693
6.239 5.685 0.569
5.918 5.614 0.513
4.256 5.069 1.736
4.569 5.164 1.678
4.452 5.088 1.510
5.232 5.307 1.598
4.974 5.185 1.613
4.784 5.170 1.463
4.531 5.050 1.294
6.137 5.747 1.860
5.986 5.707 1.816
5.762 5.510 1.642
5.490 5.389 1.542
5.358 5.276 1.380
5.094 5.236 1.367
4.838 5.061 1.182
4.660 4.938 1.038
6.122 5.609 1.518
5.830 5.501 1.373
5.615 5.379 1.312
5.512 5.238 1.146
5.195 5.193 1.123
5.018 5.133 0.970
4.839 5.004 0.845
6.277 5.585 1.312
6.083 5.574 1.192
5.837 5.446 1.035
5.618 5.324 0.995
5.381 5.194 0.894
5.153 5.070 0.793
6.144 5.535 0.972
5.920 5.434 0.795
5.714 5.236 0.681
5.430 5.119 0.539
6.054 5.307 0.538
5.791 5.178 0.457
6.178 5.298 0.420
4.568 4.880 1.940
4.310 4.783 1.922
5.127 5.212 1.911
4.922 4.977 1.874
4.726 4.893 1.784
4.530 4.835 1.639
5.446 5.259 1.829
5.304 5.067 1.703
5.099 4.995 1.656
4.825 4.868 1.559
4.626 4.700 1.383
6.345 5.633 1.968
6.125 5.465 1.840
5.910 5.268 1.663
5.620 5.155 1.599
5.436 5.157 1.559
5.129 4.927 1.331
4.963 4.911 1.303
4.738 4.741 1.106
6.264 5.458 1.654
5.946 5.254 1.432
5.771 5.240 1.440
5.502 4.993 1.307
5.381 4.886 1.205
5.101 4.775 1.114
4.858 4.762 0.958
6.095 5.328 1.219
5.862 5.111 1.203
5.741 5.011 0.968
5.513 4.928 0.942
5.202 4.815 0.745
4.982 4.628 0.739
6.195 5.204 1.032
6.072 5.186 0.879
5.869 4.937 0.756
5.637 4.887 0.706
5.405 4.778 0.570
6.145 5.132 0.640
5.958 5.032 0.505
5.682 4.848 0.408
6.131 4.883 0.266
4.935 4.837 2.218
4.587 4.699 2.007
4.485 4.546 2.022
5.249 4.952 2.027
4.993 4.791 1.964
4.750 4.628 1.786
4.523 4.497 1.786
5.528 4.997 1.872
5.422 4.919 1.827
5.192 4.720 1.744
4.943 4.661 1.552
4.765 4.452 1.441
6.176 5.249 1.932
5.978 5.021 1.746
5.691 4.980 1.762
5.468 4.900 1.610
5.234 4.752 1.467
5.063 4.602 1.385
4.899 4.461 1.307
6.077 4.997 1.556
5.801 4.958 1.399
5.596 4.842 1.417
5.405 4.758 1.302
5.209 4.599 1.065
4.941 4.442 0.951
6.215 5.035 1.364
5.931 4.884 1.258
5.710 4.836 1.068
5.578 4.657 0.983
5.368 4.523 0.920
5.175 4.417 0.744
6.134 4.871 1.008
5.918 4.769 0.850
5.724 4.595 0.813
5.463 4.568 0.716
5.180 4.439 0.593
6.243 4.851 0.711
6.016 4.753 0.686
5.867 4.622 0.576
5.638 4.428 0.397
6.167 4.737 0.370
5.895 4.616 0.307
6.130 4.315 0.140
5.021 4.575 2.213
4.769 4.497 2.143
4.484 4.292 2.013
5.276 4.650 2.085
5.071 4.599 2.011
4.848 4.446 1.951
4.718 4.368 1.855
5.720 4.759 2.055
5.422 4.602 1.946
5.193 4.532 1.807
5.082 4.442 1.718
4.835 4.241 1.557
5.974 4.783 1.927
5.761 4.775 1.813
5.531 4.583 1.604
5.304 4.455 1.495
5.080 4.331 1.514
4.890 4.199 1.281
6.093 4.847 1.617
5.875 4.656 1.478
5.744 4.560 1.489
5.501 4.458 1.382
5.225 4.372 1.235
5.116 4.160 1.126
6.106 4.605 1.290
5.854 4.491 1.257
5.647 4.366 1.119
5.483 4.314 1.040
5.214 4.163 0.862
6.220 4.632 1.127
6.053 4.477 0.921
5.704 4.467 0.853
5.492 4.243 0.738
5.395 4.100 0.589
6.068 4.533 0.748
5.877 4.399 0.640
5.711 4.260 0.541
6.264 4.420 0.431
6.071 4.295 0.337
6.231 4.274 0.154
6.234 4.001 0.205
5.105 4.329 2.296
4.815 4.198 2.291
4.664 4.139 2.106
5.473 4.420 2.211
5.155 4.237 2.092
4.945 4.141 2.034
4.701 4.004 1.889
5.540 4.332 1.918
5.346 4.209 1.918
5.074 4.118 1.739
4.827 3.992 1.607
5.886 4.475 1.912
5.734 4.408 1.785
5.474 4.289 1.657
5.211 4.090 1.535
5.077 4.055 1.384
6.305 4.600 1.768
6.034 4.461 1.558
5.870 4.347 1.534
5.555 4.147 1.367
5.426 4.153 1.354
5.132 4.018 1.186
6.156 4.410 1.453
5.971 4.238 1.286
5.702 4.166 1.148
5.478 4.087 1.107
5.318 3.990 0.983
6.070 4.279 1.032
5.807 4.173 0.914
5.587 4.054 0.797
6.164 4.306 0.823
5.997 4.186 0.698
5.800 4.043 0.588
6.170 4.112 0.457
5.955 4.035 0.364
6.272 4.089 0.261
5.197 4.057 2.367
4.930 3.945 2.299
4.721 3.851 2.212
5.336 4.074 2.157
5.107 3.915 2.099
4.798 3.791 1.930
5.425 4.078 1.935
5.234 3.863 1.891
5.009 3.775 1.697
5.722 4.110 1.882
5.602 3.986 1.748
5.366 3.856 1.632
5.123 3.690 1.523
6.111 4.146 1.654
5.950 4.149 1.548
5.748 3.998 1.547
5.434 3.831 1.359
5.235 3.659 1.210
6.277 4.165 1.497
5.994 3.997 1.387
5.860 3.884 1.268
5.603 3.886 1.076
6.227 4.012 1.121
6.013 3.959 1.055
5.793 3.808 0.842
6.075 3.928 0.766
5.922 3.773 0.638
6.264 3.880 0.516
5.957 3.788 0.463
5.083 3.778 2.445
4.742 3.561 2.354
5.203 3.668 2.107
4.912 3.573 2.008
6.139 3.786 1.420
6.329 3.747 1.201
6.004 3.619 1.106
6.113 3.655 0.791
2.038 6.113 0.333
1.706 6.015 0.255
2.274 6.018 0.571
2.115 5.969 0.455
1.889 5.755 0.305
1.598 5.668 0.250
2.176 5.897 0.169
2.002 5.836 0.090
1.436 5.317 0.168
2.597 5.884 0.720
2.440 5.821 0.594
2.185 5.669 0.596
1.977 5.604 0.425
1.689 5.496 0.375
1.523 5.296 0.202
2.571 5.816 0.363
2.290 5.634 0.325
2.089 5.568 0.252
1.846 5.457 0.043
2.470 5.665 0.094
1.626 5.030 0.311
1.329 4.922 0.120
2.844 5.839 0.952
2.755 5.618 0.871
2.495 5.611 0.757
2.223 5.465 0.680
2.033 5.370 0.441
1.749 5.259 0.443
1.559 5.137 0.240
1.763 5.054 0.049
2.824 5.698 0.597
2.655 5.483 0.451
2.351 5.393 0.405
2.110 5.227 0.340
1.946 5.186 0.107
1.731 5.108 0.039
2.807 5.531 0.260
2.495 5.346 0.203
2.289 5.333 0.101
1.657 4.882 0.406
1.531 4.748 0.234
2.937 5.622 1.057
2.773 5.437 0.968
2.592 5.360 0.799
2.322 5.141 0.742
2.128 5.038 0.550
1.856 5.013 0.472
1.741 4.860 0.384
1.769 4.817 0.139
1.667 4.662 0.014
3.194 5.554 0.848
2.944 5.355 0.734
2.703 5.222 0.564
2.498 5.129 0.432
2.259 4.988 0.364
2.047 4.961 0.213
1.761 4.788 0.100
3.029 5.410 0.487
2.783 5.319 0.310
2.589 5.183 0.225
2.345 4.985 0.109
2.235 4.937 0.004
2.917 5.292 0.037
1.818 4.627 0.440
1.519 4.510 0.329
3.281 5.389 1.263
3.118 5.286 1.165
2.845 5.159 0.980
2.660 5.096 0.836
2.379 4.949 0.812
2.167 4.856 0.616
1.981 4.674 0.536
1.823 4.583 0.510
1.954 4.515 0.246
1.675 4.442 0.097
3.442 5.412 1.038
3.209 5.219 0.834
3.020 5.215 0.806
2.729 5.055 0.641
2.637 4.911 0.495
2.310 4.821 0.397
2.083 4.630 0.370
1.900 4.565 0.193
3.362 5.262 0.616
3.193 5.095 0.479
2.930 5.026 0.466
2.699 4.933 0.284
2.445 4.733 0.154
2.205 4.652 0.044
3.273 5.168 0.358
3.108 4.923 0.229
2.893 4.918 0.105
1.941 4.334 0.551
3.647 5.313 1.393
3.389 5.141 1.277
3.134 5.076 1.231
3.027 4.947 1.052
2.709 4.879 0.913
2.533 4.707 0.843
2.353 4.527 0.703
2.030 4.490 0.652
1.805 4.374 0.474
2.055 4.337 0.233
1.723 4.250 0.186
3.812 5.248 1.174
3.593 5.207 1.037
3.362 5.064 1.015
3.158 4.947 0.916
2.896 4.850 0.678
2.719 4.709 0.592
2.449 4.496 0.474
2.275 4.403 0.424
2.005 4.275 0.342
2.081 4.334 0.029
3.916 5.222 0.953
3.668 5.145 0.896
3.510 5.046 0.754
3.262 4.938 0.567
3.016 4.827 0.445
2.744 4.655 0.452
2.541 4.563 0.244
2.309 4.407 0.170
2.139 4.302 0.099
3.649 4.986 0.524
3.363 4.803 0.404
3.200 4.768 0.326
2.896 4.578 0.160
2.674 4.481 0.048
3.321 4.667 0.018
3.968 5.161 1.669
3.780 5.095 1.529
3.509 4.957 1.446
3.267 4.764 1.286
3.017 4.646 1.143
2.868 4.588 1.072
2.600 4.463 0.896
2.362 4.286 0.786
2.231 4.190 0.714
2.032 4.052 0.408
4.024 5.110 1.403
3.909 5.049 1.316
3.577 4.946 1.182
3.401 4.798 1.108
3.133 4.735 0.980
3.018 4.501 0.855
2.765 4.445 0.722
2.497 4.337 0.583
2.313 4.245 0.533
2.156 4.091 0.405
2.276 4.020 0.170
2.051 3.998 -0.030
4.251 5.147 1.167
4.006 5.004 0.994
3.713 4.866 0.907
3.571 4.820 0.763
3.319 4.600 0.662
3.149 4.515 0.612
2.877 4.423 0.518
2.704 4.310 0.299
2.489 4.144 0.196
2.271 4.060 0.148
4.279 5.118 0.921
4.186 5.018 0.766
3.970 4.848 0.624
3.685 4.721 0.553
3.470 4.680 0.469
3.256 4.499 0.316
3.049 4.361 0.219
2.853 4.321 0.190
2.624 4.104 -0.002
4.046 4.962 1.649
3.771 4.854 1.517
3.561 4.746 1.525
3.365 4.646 1.321
3.093 4.421 1.233
2.872 4.311 1.192
2.732 4.202 1.041
2.547 4.092 0.874
4.120 4.867 1.517
3.916 4.857 1.373
3.771 4.692 1.198
3.511 4.582 1.140
3.260 4.477 1.053
3.046 4.302 0.873
2.800 4.156 0.793
2.606 4.072 0.638
4.360 4.816 1.186
4.142 4.756 1.073
3.868 4.614 1.042
3.675 4.465 0.917
3.470 4.431 0.787
3.139 4.233 0.691
2.990 4.229 0.604
2.798 3.982 0.403
2.573 3.888 0.282
4.384 4.898 0.969
4.240 4.753 0.836
4.036 4.556 0.722
3.785 4.473 0.588
3.494 4.361 0.594
3.325 4.212 0.388
3.094 4.153 0.326
2.948 4.051 0.222
2.735 3.885 0.087
4.510 4.863 0.745
4.395 4.767 0.686
4.182 4.690 1.823
3.958 4.523 1.637
3.627 4.498 1.602
3.443 4.328 1.390
3.263 4.189 1.337
3.034 4.046 1.194
2.752 3.968 1.175
4.293 4.627 1.492
4.080 4.607 1.363
3.771 4.420 1.325
3.588 4.361 1.139
3.357 4.248 1.026
3.144 4.094 1.005
2.892 4.014 0.930
4.439 4.626 1.271
4.184 4.512 1.172
3.931 4.389 1.128
3.678 4.260 0.922
3.557 4.192 0.807
3.279 4.052 0.793
4.514 4.648 1.091
4.244 4.445 0.969
4.140 4.434 0.899
3.900 4.307 0.760
3.631 4.143 0.570
4.616 4.602 0.782
4.469 4.515 0.719
4.246 4.396 1.897
3.941 4.350 1.736
3.760 4.263 1.599
3.495 4.124 1.517
3.272 4.006 1.466
3.187 3.895 1.242
4.391 4.411 1.646
4.122 4.330 1.566
3.976 4.213 1.362
3.663 4.035 1.256
3.496 3.930 1.127
4.552 4.335 1.328
4.218 4.236 1.294
4.065 4.098 1.202
3.834 3.997 1.007
3.592 3.870 0.907
4.582 4.323 1.150
4.423 4.231 1.045
4.161 4.190 0.975
3.900 3.956 0.800
4.751 4.402 0.950
4.580 4.186 0.857
4.904 4.314 0.661
4.328 4.251 1.893
4.096 4.045 1.806
3.853 4.013 1.764
3.682 3.867 1.545
3.384 3.716 1.505
4.380 4.216 1.725
4.207 4.109 1.618
3.957 3.962 1.453
3.758 3.850 1.382
3.530 3.743 1.209
4.632 4.165 1.409
4.375 4.014 1.416
4.113 3.880 1.252
3.922 3.843 1.127
4.761 4.090 1.237
4.463 3.971 1.146
4.328 3.841 0.939
4.848 4.114 1.044
4.689 4.026 0.928
4.357 3.921 1.973
4.227 3.815 1.943
3.983 3.698 1.837
3.759 3.673 1.667
4.510 3.981 1.779
4.321 3.860 1.622
4.052 3.681 1.498
3.811 3.643 1.416
4.711 3.948 1.499
4.428 3.784 1.456
4.294 3.627 1.383
4.819 3.923 1.246
4.538 3.725 1.213
4.874 3.903 1.023
4.501 3.681 2.059
4.227 3.650 1.956
4.058 3.482 1.845
3.827 3.405 1.768
4.663 3.663 1.793
4.431 3.583 1.807
4.175 3.470 1.653
4.780 3.692 1.572
4.481 3.507 1.551
4.958 3.590 1.393
4.551 3.461 2.191
4.403 3.371 2.043
