1.247 5.864 0.667
1.119 6.051 0.729
0.863 6.051 0.604
1.247 3.883 0.184
1.348 4.318 0.289
1.234 4.439 0.002
1.257 4.357 0.149
1.243 4.671 0.023
1.526 4.635 0.356
1.207 4.823 0.248
1.013 4.743 -0.036
1.501 5.078 0.250
1.354 4.906 0.159
0.990 5.020 0.134
0.792 5.226 0.021
1.533 5.068 0.528
1.370 5.345 0.370
1.211 5.405 0.119
0.939 5.471 -0.045
1.529 5.342 0.431
1.319 5.439 0.444
1.127 5.676 0.324
0.858 5.705 0.160
1.705 5.782 0.579
1.416 5.796 0.458
1.123 5.822 0.343
0.976 5.850 0.306
1.637 5.961 0.563
1.430 5.925 0.463
1.130 5.987 0.449
1.098 6.230 0.262
1.627 4.493 0.141
1.633 4.867 0.098
1.620 4.980 0.222
1.355 4.963 0.137
1.755 5.095 0.304
1.518 5.221 -0.002
1.806 5.406 0.409
1.599 5.621 0.092
1.318 5.584 -0.005
1.721 5.594 0.417
1.569 5.683 0.188
1.335 5.891 0.162
1.105 5.853 0.048
1.881 5.979 0.367
1.575 5.905 0.414
1.361 6.010 0.109
1.787 5.314 0.135
1.889 5.610 0.144
1.924 5.671 0.079
1.721 5.796 -0.065
1.952 5.963 0.285
1.826 6.148 0.162
6.004 3.661 5.544
6.022 3.427 5.214
6.300 3.596 5.497
6.070 3.699 5.352
5.983 3.194 5.029
6.137 3.528 5.055
6.151 3.632 5.088
6.108 3.202 4.788
6.176 3.420 4.823
0.786 0.868 5.285
0.566 1.075 5.042
0.232 1.123 5.158
0.182 1.296 4.890
1.088 1.121 5.570
0.884 1.157 5.331
0.604 1.350 5.183
0.493 1.277 5.195
0.321 1.348 4.908
1.176 1.275 5.797
1.066 1.411 5.523
0.770 1.535 5.483
0.528 1.450 5.244
0.346 1.683 5.111
0.112 1.673 5.159
0.111 1.592 4.848
1.637 1.540 5.908
1.216 1.503 5.679
1.040 1.539 5.715
1.011 1.666 5.494
0.734 1.682 5.408
0.362 1.707 5.254
0.203 1.769 5.221
0.127 1.885 5.042
1.713 1.681 6.053
1.654 1.742 6.031
1.433 1.765 5.933
1.132 1.694 5.810
0.894 1.986 5.447
0.718 1.915 5.469
0.637 2.136 5.268
0.359 2.088 5.145
0.052 2.125 5.068
1.680 1.520 6.080
1.781 1.716 6.102
1.634 1.825 5.963
1.435 2.116 5.940
1.116 1.956 5.784
0.972 2.183 5.713
0.713 2.237 5.636
0.470 2.321 5.469
0.442 2.298 5.245
0.180 2.489 5.104
2.066 1.715 6.278
1.933 1.711 6.078
1.870 2.204 6.123
1.646 2.091 6.192
1.519 2.197 6.017
1.181 2.241 5.783
1.059 2.397 5.656
0.810 2.321 5.513
0.510 2.399 5.434
0.341 2.473 5.442
0.083 2.689 5.187
1.773 2.195 6.307
1.913 2.410 6.161
1.762 2.312 6.035
1.371 2.493 6.126
1.286 2.606 5.787
1.201 2.663 5.896
0.965 2.778 5.602
0.645 2.689 5.654
0.514 2.925 5.337
0.260 3.033 5.328
0.165 2.972 5.159
1.782 2.394 6.234
1.680 2.569 6.245
0.649 0.893 5.303
0.664 1.014 5.286
0.298 1.020 4.961
0.225 1.255 4.955
1.194 0.930 5.160
0.978 0.996 4.974
0.664 1.180 5.003
0.510 1.038 4.819
0.264 1.136 4.607
0.143 1.282 4.499
1.437 1.122 5.410
1.239 1.025 5.358
0.882 1.181 5.260
0.841 1.375 5.087
0.634 1.305 4.950
0.260 1.401 4.817
0.213 1.464 4.596
1.538 1.228 5.611
1.405 1.264 5.551
1.274 1.335 5.422
0.905 1.360 5.093
0.720 1.496 5.067
0.515 1.686 5.077
0.440 1.709 4.747
0.144 1.710 4.774
1.822 1.426 5.671
1.527 1.593 5.633
1.571 1.440 5.518
1.302 1.626 5.364
1.148 1.808 5.173
0.741 1.789 5.166
0.663 1.759 5.124
0.465 1.931 4.879
0.190 1.920 4.930
0.094 1.941 4.799
1.846 1.483 5.902
1.997 1.659 5.922
1.757 1.834 5.737
1.567 1.907 5.507
1.228 1.933 5.360
1.032 1.912 5.267
0.979 2.071 5.258
0.646 2.087 4.995
0.386 2.223 5.030
0.360 2.175 4.887
0.155 2.381 4.644
2.426 1.553 6.010
2.217 1.623 5.898
1.931 1.512 5.798
1.967 1.947 5.976
1.752 1.826 5.821
1.625 1.908 5.609
1.230 2.095 5.532
1.003 2.278 5.436
0.820 2.305 5.432
0.665 2.379 5.108
0.459 2.422 5.083
0.384 2.513 4.846
0.123 2.530 4.860
2.444 1.818 6.093
2.230 1.925 6.034
2.008 1.843 5.952
2.108 2.164 5.899
1.719 2.256 5.812
1.653 2.298 5.680
1.325 2.325 5.727
1.114 2.511 5.549
0.981 2.535 5.282
0.838 2.602 5.201
0.461 2.593 5.067
0.224 2.626 4.893
0.073 2.782 4.914
2.407 1.914 6.335
2.223 2.065 6.179
2.064 2.225 6.087
1.977 2.294 6.126
1.935 2.310 6.033
1.497 2.620 5.800
1.310 2.579 5.780
1.147 2.722 5.473
0.987 2.671 5.425
0.912 2.762 5.213
2.268 2.203 6.111
2.111 2.252 6.126
1.952 2.662 6.253
1.747 2.759 6.022
1.704 2.653 5.990
1.411 2.751 5.768
2.175 2.474 6.284
2.080 2.619 6.195
2.059 2.806 6.175
1.861 3.017 6.174
2.231 2.856 6.104
2.108 2.981 6.389
2.053 2.937 6.206
0.637 0.755 4.936
1.217 0.878 5.093
1.019 0.862 5.177
0.781 1.120 5.062
0.366 1.208 4.882
0.387 1.190 4.657
0.066 1.310 4.513
1.423 0.796 5.160
1.297 0.990 4.869
1.012 1.139 4.793
0.786 0.971 4.853
0.533 1.272 4.629
0.332 1.119 4.402
1.807 1.028 5.272
1.384 1.103 5.127
1.197 1.105 5.010
1.093 1.355 4.849
0.915 1.441 4.715
0.695 1.283 4.818
0.336 1.481 4.618
0.162 1.582 4.568
2.001 1.222 5.434
1.754 1.162 5.462
1.538 1.420 5.229
1.430 1.461 5.139
1.024 1.434 5.018
0.954 1.550 4.775
0.746 1.748 4.696
0.607 1.670 4.689
0.384 1.917 4.570
0.082 1.974 4.398
1.948 1.228 5.456
2.002 1.505 5.496
1.870 1.418 5.379
1.588 1.651 5.343
1.392 1.594 5.097
1.084 1.850 4.976
1.014 1.840 4.855
0.804 1.771 4.868
0.447 1.994 4.787
0.431 2.129 4.556
0.100 2.113 4.514
2.303 1.354 5.790
1.951 1.533 5.604
2.058 1.701 5.601
1.825 1.681 5.590
1.592 1.741 5.290
1.524 1.781 5.161
1.199 1.933 5.243
1.018 2.028 5.067
0.701 2.016 5.005
0.638 2.124 4.788
0.333 2.324 4.550
0.060 2.305 4.567
2.512 1.505 5.972
2.275 1.469 5.869
2.117 1.673 5.560
2.055 1.824 5.819
1.907 2.053 5.542
1.679 1.951 5.454
1.595 2.257 5.259
1.332 2.304 5.273
1.014 2.227 5.033
0.724 2.284 5.084
0.587 2.381 4.905
0.329 2.589 4.788
0.163 2.677 4.590
2.930 1.609 6.185
2.612 1.818 5.967
2.445 1.758 6.054
2.258 1.777 5.963
1.997 1.795 5.642
2.130 2.269 5.697
1.890 2.242 5.588
1.667 2.321 5.450
1.428 2.437 5.356
1.340 2.520 5.269
0.995 2.603 5.180
0.810 2.645 4.987
0.595 2.679 5.042
2.917 1.724 6.324
2.644 1.900 6.214
2.615 2.094 5.999
2.242 2.012 5.862
2.100 2.072 5.767
2.295 2.427 5.858
1.910 2.490 5.783
1.742 2.455 5.492
1.431 2.546 5.617
1.354 2.584 5.353
1.096 2.791 5.306
2.686 2.116 6.175
2.679 2.260 6.125
2.313 2.421 5.999
2.301 2.316 5.984
2.142 2.499 6.049
2.010 2.822 5.782
1.820 2.715 5.797
1.650 2.940 5.496
2.618 2.561 6.156
2.531 2.664 5.965
2.168 2.550 5.898
2.297 2.804 5.930
2.151 2.839 6.004
1.750 2.964 5.865
2.733 2.792 6.340
2.371 2.791 6.054
2.187 2.882 6.097
2.389 3.140 5.999
2.044 3.154 6.062
2.562 2.966 6.208
2.286 3.013 6.058
2.221 3.233 6.100
2.459 3.359 6.204
2.314 3.398 6.090
1.112 0.703 4.968
1.119 0.752 4.748
0.815 0.741 4.606
0.543 0.816 4.520
1.535 0.906 5.027
1.269 0.930 5.094
1.082 0.946 4.941
0.761 0.978 4.868
0.659 1.285 4.670
0.482 1.309 4.415
1.793 0.767 5.122
1.509 0.852 5.031
1.475 1.044 4.730
1.121 1.084 4.600
1.004 1.189 4.476
0.750 1.143 4.488
0.482 1.164 4.398
2.016 1.054 5.328
1.720 1.093 4.993
1.749 1.025 5.108
1.320 1.311 4.749
1.208 1.198 4.749
1.071 1.334 4.631
0.878 1.385 4.529
0.536 1.624 4.486
0.388 1.593 4.273
1.965 1.091 5.335
1.982 1.232 5.251
1.916 1.210 5.094
1.736 1.434 4.936
1.418 1.390 4.957
1.306 1.406 4.827
0.933 1.522 4.676
0.962 1.620 4.566
0.524 1.774 4.494
0.500 1.892 4.241
2.278 1.278 5.449
2.155 1.317 5.335
2.013 1.482 5.496
1.939 1.622 5.244
1.620 1.561 5.085
1.498 1.702 4.954
1.299 1.888 4.881
1.172 1.759 4.660
0.953 1.803 4.555
0.626 1.932 4.390
0.397 2.182 4.267
2.512 1.427 5.628
2.423 1.397 5.461
2.066 1.579 5.415
2.125 1.592 5.371
1.942 1.676 5.270
1.719 1.887 5.069
1.444 1.902 5.085
1.480 2.022 5.063
1.243 2.190 4.876
0.916 2.205 4.823
0.744 2.120 4.643
0.529 2.209 4.588
2.918 1.540 5.798
2.495 1.544 5.770
2.284 1.659 5.500
2.128 1.721 5.375
2.169 1.934 5.623
2.135 2.076 5.258
1.891 1.997 5.319
1.555 2.204 5.217
1.486 2.148 4.990
1.201 2.206 4.900
0.952 2.445 4.646
0.840 2.424 4.697
3.004 1.565 5.899
2.890 1.819 5.969
2.659 1.703 5.859
2.488 1.913 5.645
2.265 1.909 5.453
2.236 2.095 5.648
2.159 2.218 5.336
1.745 2.375 5.291
1.657 2.335 5.334
1.319 2.602 5.185
1.175 2.656 5.012
1.059 2.741 4.756
3.403 1.763 6.148
3.068 1.997 6.173
2.774 1.887 5.969
2.620 2.135 5.703
2.516 2.018 5.618
2.258 2.229 5.604
2.327 2.413 5.731
2.159 2.484 5.654
2.005 2.532 5.520
1.744 2.708 5.369
1.573 2.798 5.097
1.322 2.681 5.124
3.228 2.134 6.352
3.102 2.245 6.117
2.929 2.214 6.039
2.843 2.338 5.829
2.633 2.318 5.781
2.181 2.364 5.757
2.461 2.682 5.816
2.219 2.836 5.529
1.971 2.848 5.527
1.846 2.989 5.401
3.100 2.356 6.338
3.050 2.563 5.975
2.885 2.393 5.887
2.623 2.651 5.950
2.348 2.756 5.776
2.414 2.791 5.902
2.163 2.864 5.699
2.043 2.945 5.594
3.006 2.726 6.148
2.937 2.648 5.940
2.539 2.700 5.963
2.469 3.023 5.744
2.402 3.023 5.751
2.342 3.323 5.794
3.073 2.965 6.246
2.825 3.042 6.138
2.590 2.999 5.860
2.425 3.247 5.776
2.436 3.341 6.046
2.950 3.248 6.105
2.583 3.317 6.132
2.410 3.427 5.849
2.493 3.731 5.927
2.926 3.557 6.260
2.731 3.460 6.117
2.612 3.482 5.999
2.780 3.709 6.169
1.347 0.526 4.546
1.072 0.681 4.642
1.547 0.753 4.756
1.250 0.804 4.614
1.022 0.871 4.673
0.840 0.894 4.455
0.792 1.071 4.317
1.878 0.837 5.012
1.643 0.859 4.904
1.370 0.868 4.763
1.253 1.036 4.558
0.957 1.006 4.602
0.758 1.242 4.537
0.542 1.265 4.321
2.180 0.721 4.833
1.957 0.995 4.809
1.774 1.035 4.686
1.634 0.955 4.523
1.287 1.046 4.585
1.214 1.231 4.324
0.913 1.334 4.133
0.773 1.448 4.113
2.214 0.732 5.036
2.250 1.107 5.129
2.000 1.097 4.791
1.717 1.057 4.712
1.469 1.338 4.700
1.252 1.439 4.463
1.237 1.309 4.319
0.919 1.410 4.370
0.867 1.473 4.206
2.240 1.122 4.944
2.344 1.287 4.970
2.099 1.380 5.059
1.858 1.437 4.814
1.546 1.527 4.756
1.342 1.648 4.525
1.282 1.585 4.565
0.921 1.711 4.224
0.789 1.818 4.174
2.370 1.307 5.263
2.155 1.283 5.042
2.236 1.517 5.108
1.993 1.537 5.026
1.890 1.581 4.906
1.548 1.752 4.773
1.327 1.931 4.738
1.308 1.876 4.658
1.038 2.021 4.529
0.806 1.950 4.249
2.595 1.375 5.351
2.360 1.390 5.250
2.303 1.633 5.222
2.281 1.858 5.281
2.147 1.867 5.011
1.852 1.997 5.048
1.721 1.891 4.869
1.427 1.993 4.634
1.228 2.043 4.637
0.983 2.084 4.610
0.836 2.211 4.444
2.597 1.648 5.442
2.529 1.574 5.434
2.199 1.710 5.272
2.339 2.106 5.321
2.130 2.011 5.196
2.044 2.024 4.951
1.678 2.328 4.992
1.538 2.360 4.793
1.223 2.249 4.743
0.997 2.526 4.453
2.918 1.701 5.544
2.870 1.722 5.422
2.657 1.898 5.448
2.267 2.051 5.187
2.409 2.194 5.274
2.072 2.417 5.366
1.904 2.289 5.248
1.817 2.341 5.106
1.669 2.444 4.973
1.288 2.622 4.765
3.266 1.840 5.983
2.979 1.967 5.655
2.931 1.952 5.673
2.679 2.158 5.621
2.369 2.277 5.422
2.357 2.513 5.498
2.271 2.488 5.253
2.004 2.584 5.191
1.755 2.739 5.073
1.723 2.632 4.946
3.798 2.125 6.151
3.496 2.143 6.187
3.322 2.085 5.900
3.064 2.292 5.894
2.809 2.285 5.768
2.754 2.477 5.534
2.327 2.450 5.374
2.619 2.577 5.581
2.163 2.706 5.389
2.063 2.844 5.197
1.980 2.990 5.108
3.779 2.352 6.313
3.604 2.209 6.139
3.217 2.289 6.113
3.076 2.461 5.881
2.830 2.498 5.727
2.574 2.683 5.762
2.400 2.692 5.636
2.509 2.880 5.510
2.393 3.115 5.487
2.238 3.075 5.336
3.574 2.450 6.212
3.422 2.636 6.091
3.234 2.737 5.939
2.968 2.779 5.867
2.669 2.937 5.757
2.523 2.853 5.674
2.629 3.283 5.623
2.348 3.280 5.448
3.702 2.704 6.363
3.374 2.936 6.253
3.075 2.858 5.938
2.909 3.057 5.926
2.859 3.108 5.757
2.569 3.085 5.570
2.508 3.384 5.661
2.375 3.530 5.662
3.464 2.991 6.131
3.275 3.106 6.154
3.138 3.287 5.953
2.894 3.212 5.720
2.646 3.322 5.612
2.758 3.566 5.903
3.377 3.505 6.283
3.154 3.438 6.128
2.918 3.490 5.851
2.786 3.709 5.693
2.791 3.906 5.849
3.312 3.541 6.314
3.005 3.779 6.042
2.946 3.839 5.889
2.826 3.761 5.900
3.124 4.087 6.236
2.846 4.157 6.187
1.435 0.366 4.256
1.951 0.319 4.801
1.681 0.405 4.468
1.338 0.622 4.370
1.133 0.613 4.263
1.028 0.740 4.163
1.839 0.719 4.883
1.787 0.607 4.623
1.502 0.893 4.393
1.326 0.737 4.336
1.102 0.855 4.339
0.821 1.096 4.221
2.246 0.751 4.887
1.998 0.882 4.726
1.821 0.911 4.658
1.537 1.034 4.486
1.216 0.982 4.511
1.225 1.141 4.306
0.838 1.310 4.197
0.678 1.374 4.167
2.123 0.790 4.832
2.322 0.798 4.802
2.122 0.918 4.559
1.738 0.884 4.431
1.743 0.933 4.281
1.474 1.207 4.271
1.239 1.202 4.058
1.156 1.319 3.943
0.933 1.404 3.989
2.354 0.778 4.838
2.343 1.168 4.870
2.026 1.229 4.620
1.897 1.252 4.551
1.809 1.189 4.494
1.384 1.459 4.262
1.215 1.474 4.260
1.088 1.567 4.184
0.779 1.594 3.883
2.427 0.980 4.995
2.346 0.986 4.862
2.347 1.431 4.914
2.193 1.326 4.836
1.886 1.419 4.582
1.726 1.631 4.610
1.669 1.564 4.390
1.382 1.717 4.384
1.141 1.670 4.121
0.970 1.741 4.024
2.623 1.233 5.026
2.240 1.270 4.935
2.527 1.581 4.923
2.131 1.669 4.813
1.882 1.629 4.803
1.743 1.726 4.705
1.518 1.942 4.588
1.347 2.013 4.429
1.255 1.924 4.333
1.077 2.110 4.211
2.633 1.387 4.949
2.287 1.515 4.931
2.507 1.838 5.004
2.169 1.814 5.031
1.951 1.814 4.689
1.902 2.132 4.651
1.693 2.032 4.506
1.458 2.176 4.388
1.305 2.264 4.395
2.824 1.752 5.252
2.647 1.822 5.100
2.449 1.730 5.106
2.522 2.135 5.150
2.333 1.982 5.049
2.198 2.214 4.778
1.889 2.271 4.818
1.595 2.343 4.623
1.563 2.482 4.456
3.115 1.773 5.502
2.982 1.969 5.228
2.800 1.967 5.334
2.524 2.099 5.220
2.521 2.350 5.171
2.448 2.343 5.007
2.237 2.322 4.961
1.938 2.541 4.909
1.820 2.663 4.733
3.454 1.993 5.573
3.130 2.166 5.516
2.926 2.195 5.459
2.777 2.145 5.163
2.668 2.265 5.106
2.555 2.411 5.279
2.267 2.481 5.128
2.284 2.729 5.081
1.834 2.768 4.878
3.740 2.248 5.883
3.476 2.190 5.748
3.180 2.325 5.585
2.866 2.378 5.595
2.909 2.403 5.289
2.644 2.523 5.335
2.719 2.720 5.213
2.421 2.767 5.130
2.179 2.954 5.008
3.842 2.331 6.166
3.548 2.243 5.906
3.328 2.518 5.669
3.308 2.446 5.805
2.955 2.573 5.516
2.817 2.786 5.302
2.506 2.745 5.334
2.794 2.889 5.507
2.514 2.960 5.258
2.223 3.186 5.172
3.804 2.634 5.989
3.657 2.580 6.088
3.378 2.740 5.898
3.405 2.698 5.770
3.000 2.885 5.661
2.861 2.968 5.543
2.571 2.858 5.344
2.723 3.097 5.353
2.615 3.152 5.440
4.077 2.860 6.063
3.648 2.943 6.010
3.427 2.826 5.811
3.410 3.066 5.909
3.197 2.985 5.743
2.792 3.184 5.671
2.742 3.104 5.554
2.751 3.506 5.567
2.576 3.418 5.512
3.994 2.975 6.145
3.768 3.136 6.191
3.630 3.092 5.897
3.253 3.163 5.902
3.097 3.377 5.698
3.068 3.409 5.578
2.854 3.519 5.401
2.861 3.590 5.707
3.932 3.358 6.108
3.594 3.377 5.980
3.363 3.456 5.970
3.106 3.503 5.942
2.888 3.704 5.632
2.681 3.661 5.641
2.879 3.827 5.579
3.938 3.441 6.239
3.773 3.749 6.204
3.364 3.637 6.083
3.205 3.738 5.909
3.179 3.891 5.708
2.913 3.892 5.567
2.997 4.247 5.748
3.745 3.952 6.308
3.558 3.940 6.085
3.278 4.116 5.907
3.200 4.153 5.924
2.812 4.141 5.777
1.756 0.097 4.252
1.572 0.110 4.046
2.050 0.101 4.529
1.696 0.336 4.293
1.599 0.315 4.155
1.357 0.536 3.976
1.075 0.598 4.031
2.063 0.252 4.526
1.864 0.555 4.420
1.782 0.517 4.375
1.481 0.509 4.240
1.388 0.567 4.216
1.274 0.633 3.868
1.047 0.723 3.832
2.264 0.296 4.614
2.248 0.715 4.724
2.116 0.778 4.606
1.783 0.660 4.395
1.572 0.898 4.409
1.457 0.985 4.134
1.258 1.034 4.149
1.103 1.113 3.999
2.206 0.561 4.717
2.363 0.918 4.636
2.031 0.824 4.493
1.767 1.017 4.597
1.535 0.959 4.493
1.333 1.045 4.321
1.246 1.311 4.036
0.998 1.264 3.959
0.891 1.338 3.906
2.407 0.934 4.658
2.326 0.897 4.448
2.203 0.880 4.342
1.956 0.948 4.374
1.753 1.001 4.265
1.505 1.253 3.992
1.482 1.199 4.008
1.152 1.207 3.772
1.024 1.426 3.741
2.403 1.001 4.405
2.497 1.059 4.635
2.250 1.109 4.578
2.154 1.129 4.466
1.926 1.264 4.325
1.755 1.468 4.003
1.440 1.510 3.902
1.121 1.555 3.850
1.000 1.577 3.750
2.434 1.030 4.552
2.544 1.291 4.627
2.387 1.357 4.652
2.124 1.407 4.315
1.802 1.495 4.327
1.795 1.762 4.230
1.525 1.751 3.964
1.255 1.786 4.057
2.608 1.319 4.858
2.490 1.467 4.595
2.608 1.662 4.857
2.410 1.768 4.619
2.127 1.850 4.502
2.029 1.879 4.429
1.674 1.828 4.183
1.454 1.966 4.169
1.228 1.991 4.093
2.768 1.430 4.983
2.577 1.567 4.865
2.510 1.692 4.741
2.508 1.969 4.657
2.120 1.991 4.446
1.883 2.095 4.349
1.813 2.220 4.203
1.668 2.162 4.215
2.813 1.692 4.993
2.695 1.873 4.853
2.629 2.151 4.856
2.535 2.091 4.835
2.228 2.162 4.566
1.909 2.296 4.426
1.741 2.354 4.394
2.929 1.921 5.131
2.935 2.035 5.089
2.680 1.998 5.012
2.666 2.196 4.892
2.396 2.314 4.904
2.323 2.457 4.749
1.999 2.415 4.649
3.257 1.962 5.286
3.112 2.112 5.094
2.895 2.250 5.009
2.546 2.244 4.889
2.597 2.650 4.928
2.416 2.682 4.975
2.291 2.588 4.807
3.436 2.158 5.413
3.247 2.376 5.297
3.036 2.373 5.265
2.927 2.362 5.087
2.644 2.619 5.053
2.724 2.877 5.220
2.524 2.750 4.971
3.880 2.358 5.732
3.493 2.472 5.623
3.369 2.566 5.460
3.252 2.629 5.462
2.943 2.592 5.258
2.761 2.897 4.995
2.922 3.018 5.113
2.561 3.056 5.155
4.039 2.687 5.882
3.844 2.636 5.833
3.549 2.637 5.634
3.473 2.870 5.626
3.109 2.939 5.465
3.049 3.051 5.415
2.764 3.106 5.080
2.942 3.187 5.216
2.679 3.448 5.096
4.108 2.779 5.949
3.831 2.778 5.960
3.636 2.964 5.726
3.441 2.918 5.556
3.157 3.211 5.478
3.184 3.266 5.337
2.916 3.167 5.157
2.953 3.408 5.403
2.708 3.586 5.138
4.309 3.028 6.245
4.197 3.047 6.003
3.811 3.100 5.912
3.713 3.285 5.903
3.415 3.273 5.791
3.353 3.275 5.532
3.159 3.353 5.431
2.799 3.539 5.336
3.042 3.625 5.400
4.368 3.082 6.354
4.150 3.349 6.107
4.016 3.283 5.920
3.825 3.402 5.852
3.583 3.452 5.785
3.229 3.523 5.734
3.196 3.720 5.473
3.021 3.782 5.386
3.083 3.854 5.460
4.191 3.483 6.161
3.994 3.540 6.087
3.806 3.703 5.927
3.644 3.854 5.948
3.284 3.907 5.588
3.262 3.807 5.555
2.870 3.999 5.345
2.985 4.160 5.608
4.189 3.663 6.267
4.080 3.812 6.211
3.912 3.784 6.093
3.701 4.095 5.836
3.358 3.999 5.810
3.184 4.085 5.666
2.914 4.112 5.413
1.833 0.191 3.919
1.517 0.198 3.818
1.320 0.192 3.888
1.128 0.180 3.765
2.220 0.235 4.392
2.001 0.255 4.155
1.919 0.216 4.019
1.663 0.329 3.905
1.364 0.402 3.885
1.193 0.454 3.635
1.139 0.662 3.517
2.410 0.200 4.369
2.243 0.410 4.493
2.005 0.388 4.337
1.918 0.471 4.242
1.686 0.600 4.014
1.493 0.725 3.916
1.377 0.641 3.883
0.996 0.957 3.622
2.454 0.374 4.491
2.319 0.573 4.588
2.279 0.724 4.283
1.837 0.869 4.347
1.854 0.820 4.024
1.532 0.960 4.069
1.423 1.115 3.848
1.014 0.979 3.751
0.854 1.039 3.710
2.485 0.734 4.342
2.405 0.823 4.415
2.128 1.016 4.387
2.076 1.130 4.415
1.918 1.026 4.252
1.624 1.161 3.957
1.382 1.193 3.934
1.121 1.372 3.718
0.901 1.275 3.594
2.516 0.764 4.586
2.533 0.942 4.420
2.397 1.113 4.126
2.234 1.050 4.096
1.939 1.204 4.050
1.827 1.241 3.939
1.458 1.382 3.648
1.436 1.401 3.609
1.145 1.411 3.503
2.423 0.998 4.442
2.587 1.255 4.486
2.518 1.096 4.308
2.090 1.232 4.067
1.927 1.381 4.042
1.819 1.518 3.894
1.441 1.403 3.677
1.451 1.689 3.765
2.476 1.074 4.282
2.658 1.427 4.516
2.344 1.371 4.380
2.204 1.451 4.189
2.034 1.685 4.195
1.754 1.684 3.888
1.488 1.788 3.931
1.439 1.782 3.832
2.603 1.507 4.431
2.579 1.585 4.497
2.497 1.678 4.494
2.291 1.758 4.323
2.083 1.867 4.251
1.966 1.863 3.996
1.716 2.067 3.921
2.608 1.577 4.602
2.702 1.971 4.721
2.491 1.863 4.401
2.241 2.033 4.367
1.989 2.070 4.126
1.888 2.048 4.212
2.655 1.859 4.722
2.691 1.981 4.788
2.487 2.249 4.539
2.327 2.270 4.395
2.149 2.294 4.243
2.670 2.134 4.745
2.696 2.258 4.720
2.662 2.527 4.550
2.889 2.292 4.897
2.843 2.451 4.796
2.835 2.483 4.832
3.223 2.367 5.039
2.949 2.527 4.868
2.774 2.687 4.820
2.917 2.790 4.845
3.464 2.543 5.160
3.290 2.674 5.266
3.217 2.764 5.036
2.782 2.811 5.004
2.920 3.035 5.036
4.009 2.690 5.661
3.665 2.840 5.431
3.491 2.784 5.355
3.282 2.935 5.159
3.169 2.893 5.126
3.017 2.950 4.956
3.011 3.390 4.926
4.121 2.853 5.701
3.955 2.977 5.599
3.775 2.889 5.554
3.621 2.933 5.508
3.374 3.168 5.231
3.092 3.138 5.053
3.023 3.326 5.162
2.953 3.428 5.090
4.229 3.090 5.876
4.179 3.068 5.633
3.944 3.193 5.518
3.571 3.194 5.423
3.551 3.491 5.425
3.222 3.568 5.193
2.958 3.494 5.003
2.949 3.639 5.049
4.530 3.271 6.139
4.339 3.379 5.926
4.056 3.385 5.789
3.989 3.587 5.597
3.670 3.481 5.435
3.364 3.503 5.382
3.182 3.673 5.291
3.164 3.851 5.085
3.044 4.008 5.142
4.516 3.519 6.099
4.448 3.507 6.052
4.166 3.633 5.890
4.029 3.706 5.758
3.733 3.770 5.615
3.604 3.944 5.579
3.450 3.854 5.272
3.154 4.019 5.152
3.288 4.337 5.242
3.062 4.298 5.261
4.512 3.814 6.052
4.422 3.798 5.963
4.121 3.981 5.901
4.016 3.871 5.890
3.859 3.904 5.758
3.564 3.972 5.537
3.367 4.271 5.475
3.061 4.292 5.246
1.580 -0.030 3.364
1.346 0.051 3.322
2.066 -0.016 3.868
1.934 0.183 3.754
1.814 0.289 3.750
1.550 0.359 3.425
1.462 0.462 3.506
1.083 0.330 3.325
2.452 0.251 4.204
2.094 0.362 4.013
1.967 0.429 3.784
1.751 0.484 3.786
1.643 0.599 3.533
1.436 0.680 3.413
1.291 0.691 3.321
2.598 0.041 4.312
2.452 0.131 4.043
2.538 0.319 4.153
2.329 0.430 4.024
2.135 0.574 3.832
1.820 0.587 3.858
1.701 0.741 3.699
1.360 0.925 3.446
1.343 0.778 3.420
0.973 0.831 3.257
2.563 0.426 4.363
2.521 0.463 4.270
2.602 0.763 4.346
2.261 0.774 4.037
2.192 0.790 3.901
1.910 0.937 3.926
1.608 1.086 3.872
1.383 1.162 3.527
1.186 1.116 3.632
1.029 1.066 3.290
2.655 0.706 4.296
2.591 0.695 4.161
2.477 0.967 4.370
2.384 1.098 4.244
2.218 1.139 4.097
1.947 1.025 3.922
1.772 1.093 3.875
1.603 1.162 3.757
1.322 1.248 3.489
1.178 1.337 3.485
2.569 0.782 4.397
2.699 0.944 4.154
2.453 1.018 3.965
2.284 1.032 3.916
1.974 1.066 3.780
1.844 1.296 3.609
1.677 1.303 3.405
1.348 1.351 3.493
1.170 1.340 3.239
2.602 0.935 4.021
2.698 1.075 4.230
2.398 1.270 4.112
2.346 1.290 4.059
2.091 1.527 3.937
1.940 1.598 3.785
1.721 1.484 3.675
1.378 1.632 3.333
2.855 1.146 4.237
2.558 1.438 4.098
2.258 1.543 3.931
2.246 1.761 3.922
1.967 1.588 3.885
1.665 1.754 3.648
2.633 1.681 4.275
2.496 1.905 4.068
2.178 1.944 4.085
1.966 1.865 3.733
3.617 2.825 5.141
3.388 2.988 4.945
4.203 2.942 5.566
4.057 3.039 5.329
3.702 2.987 5.314
3.523 3.187 5.162
3.451 3.314 4.983
3.188 3.576 4.985
4.408 3.040 5.599
4.157 3.110 5.393
4.062 3.303 5.320
3.729 3.405 5.221
3.640 3.503 5.212
3.358 3.444 5.046
3.116 3.514 4.982
3.321 3.809 5.057
4.745 3.265 5.926
4.377 3.438 5.622
4.206 3.402 5.523
3.974 3.485 5.526
3.816 3.527 5.423
3.496 3.633 5.127
3.351 3.604 5.031
3.191 3.724 5.056
3.325 4.042 4.920
4.712 3.412 5.834
4.572 3.651 5.737
4.312 3.535 5.778
4.133 3.757 5.483
3.854 3.679 5.375
3.579 3.964 5.268
3.571 3.839 5.074
3.169 4.024 4.970
3.362 4.382 5.061
3.141 4.385 5.038
4.846 3.718 6.093
4.513 3.737 5.974
4.274 3.955 5.654
4.081 4.030 5.645
3.907 3.997 5.454
3.691 4.118 5.256
3.449 4.150 5.181
3.216 4.392 5.085
1.665 0.137 3.200
1.509 0.042 3.129
1.219 0.321 3.038
2.370 0.140 3.609
2.022 0.049 3.717
1.840 0.296 3.502
1.651 0.414 3.330
1.370 0.306 3.320
1.395 0.374 3.210
2.502 0.205 3.845
2.238 0.427 3.843
2.208 0.455 3.604
1.850 0.480 3.569
1.855 0.448 3.469
1.541 0.518 3.233
1.265 0.557 3.202
0.998 0.769 2.994
2.736 0.091 3.966
2.625 0.253 4.003
2.627 0.423 3.938
2.281 0.437 3.761
2.272 0.676 3.719
1.933 0.810 3.561
1.884 0.660 3.597
1.685 0.821 3.257
1.383 0.882 3.342
1.095 0.898 3.119
2.761 0.270 4.092
2.646 0.422 4.046
2.669 0.655 4.063
2.359 0.766 3.887
2.301 0.786 3.696
2.017 0.966 3.767
1.694 0.951 3.631
1.691 1.014 3.428
1.500 1.144 3.328
1.327 1.290 3.260
2.764 0.760 4.138
2.790 1.051 4.119
2.583 1.054 3.982
2.353 1.189 3.985
2.119 1.272 3.772
1.953 1.255 3.572
1.731 1.289 3.594
1.563 1.489 3.285
1.244 1.353 3.254
2.733 0.892 4.145
2.828 0.946 3.958
2.509 1.170 3.683
2.286 1.158 3.779
2.330 1.078 3.551
2.056 1.377 3.497
1.722 1.401 3.237
1.491 1.411 3.119
1.349 1.403 2.958
2.935 0.965 3.876
2.645 1.170 3.973
2.496 1.420 3.632
2.207 1.504 3.716
1.945 1.532 3.396
1.785 1.695 3.332
1.528 1.693 3.241
2.433 1.589 3.870
2.363 1.577 3.655
2.003 1.872 3.674
1.913 1.787 3.407
4.381 3.172 5.325
4.107 3.344 5.135
3.990 3.352 5.028
3.673 3.430 4.907
3.385 3.617 4.764
4.888 3.374 5.546
4.521 3.450 5.480
4.357 3.335 5.400
4.172 3.523 5.204
4.086 3.594 5.044
3.884 3.693 5.091
3.601 3.816 4.959
3.404 4.057 4.955
4.855 3.583 5.697
4.656 3.720 5.679
4.549 3.738 5.404
4.211 3.798 5.321
3.948 3.884 5.225
3.707 3.949 4.967
3.523 3.939 4.934
3.493 4.184 4.903
3.428 4.218 4.840
3.354 4.251 4.846
5.017 3.663 5.929
4.885 3.838 5.637
4.637 3.787 5.561
4.588 3.918 5.410
4.290 4.026 5.364
4.160 4.154 5.185
3.959 4.210 5.035
3.605 4.197 5.131
3.447 4.319 4.993
1.414 -0.110 2.814
2.008 0.101 3.145
1.833 0.213 2.977
1.652 0.130 2.905
1.290 0.237 2.864
1.084 0.251 2.795
2.603 0.163 3.671
2.518 0.003 3.484
2.244 0.240 3.381
2.007 0.180 3.242
1.925 0.432 3.209
1.577 0.509 2.944
1.515 0.548 2.775
1.169 0.672 2.654
2.593 0.043 3.538
2.744 0.223 3.700
2.525 0.380 3.478
2.278 0.414 3.526
2.135 0.557 3.357
1.985 0.597 3.089
1.645 0.621 3.142
1.534 0.624 3.056
1.168 0.672 2.968
1.003 0.791 2.765
3.095 0.240 3.963
3.009 0.082 3.702
2.608 0.178 3.818
2.700 0.449 3.664
2.491 0.660 3.526
2.200 0.684 3.447
2.037 0.779 3.419
2.021 0.804 3.260
1.724 0.752 3.136
1.392 0.919 2.937
1.400 1.102 2.858
1.029 1.087 2.736
2.972 0.539 4.014
2.784 0.420 3.644
2.906 0.736 3.748
2.566 0.773 3.629
2.323 0.845 3.683
2.118 0.844 3.494
1.852 1.154 3.394
1.777 1.088 3.222
1.553 1.258 3.213
1.422 1.182 3.055
2.743 0.650 3.771
2.713 0.995 3.850
2.608 1.024 3.887
2.332 1.115 3.659
2.133 1.252 3.485
1.987 1.378 3.322
1.888 1.335 3.186
1.609 1.358 3.071
1.364 1.526 2.981
2.895 1.099 3.984
2.686 1.107 3.620
2.482 1.150 3.385
2.287 1.297 3.384
2.227 1.334 3.332
1.804 1.470 3.161
1.801 1.377 2.893
1.588 1.546 2.732
2.704 1.399 3.508
2.335 1.510 3.353
2.197 1.559 3.371
2.026 1.512 3.215
1.879 1.660 3.051
4.490 3.291 5.159
4.251 3.268 4.903
3.937 3.365 4.941
4.871 3.289 5.381
4.820 3.341 5.330
4.466 3.458 5.091
4.182 3.531 5.067
4.050 3.614 4.977
3.998 3.594 4.921
5.131 3.596 5.666
5.067 3.466 5.538
4.659 3.763 5.354
4.493 3.799 5.225
4.375 3.810 5.191
4.206 3.862 4.878
3.925 3.939 4.743
3.618 3.974 4.731
3.617 4.393 4.571
5.282 3.828 5.727
5.119 3.906 5.458
4.880 3.793 5.439
4.678 3.918 5.256
4.346 3.980 5.175
4.131 4.195 4.934
4.114 4.300 4.933
3.774 4.174 4.798
3.667 4.312 4.819
1.494 -0.069 2.436
1.354 -0.004 2.298
2.239 0.115 3.038
1.988 0.245 2.887
1.824 0.194 2.837
1.539 0.287 2.712
1.353 0.451 2.587
0.998 0.434 2.251
2.784 0.124 3.549
2.625 0.207 3.336
2.292 0.203 3.137
2.131 0.351 3.049
2.019 0.272 2.902
1.751 0.552 2.747
1.442 0.648 2.556
1.343 0.716 2.644
1.125 0.653 2.478
2.810 -0.015 3.297
2.824 0.233 3.386
2.697 0.415 3.470
2.545 0.332 3.308
2.137 0.482 3.250
2.043 0.580 2.975
1.914 0.664 2.980
1.623 0.819 2.829
1.504 0.801 2.637
1.097 0.896 2.636
3.142 0.183 3.735
2.794 0.226 3.367
2.823 0.524 3.454
2.556 0.678 3.555
2.472 0.721 3.327
2.260 0.648 3.196
1.956 0.844 3.082
1.824 0.989 2.830
1.760 1.055 2.861
1.341 0.995 2.815
1.260 1.239 2.492
2.940 0.644 3.536
2.825 0.713 3.569
2.675 0.821 3.628
2.601 0.813 3.275
2.282 1.077 3.209
2.027 1.037 3.065
1.800 1.057 2.916
1.611 1.163 2.999
1.462 1.377 2.723
1.394 1.497 2.669
3.036 0.701 3.553
2.854 1.216 3.601
2.434 1.075 3.399
2.228 1.268 3.401
2.046 1.384 3.136
1.992 1.337 3.092
1.637 1.387 2.954
1.515 1.465 2.972
2.676 1.184 3.281
2.506 1.286 3.184
2.230 1.335 3.014
2.046 1.483 2.926
1.859 1.510 2.824
1.760 1.636 2.567
1.517 1.548 2.615
2.386 1.618 3.198
2.028 1.646 2.855
1.974 1.621 2.775
5.001 3.494 5.315
4.892 3.544 5.127
4.581 3.561 5.011
4.353 3.557 4.858
4.169 3.630 4.654
5.377 3.627 5.300
5.109 3.553 5.382
4.832 3.746 5.259
4.624 3.869 4.973
4.379 3.734 4.864
4.390 3.887 4.910
4.019 3.991 4.753
5.598 3.595 5.684
5.391 3.764 5.523
5.147 3.904 5.341
4.963 3.991 5.223
4.757 3.957 5.073
4.497 4.037 5.099
4.203 4.100 4.822
4.218 4.144 4.710
3.902 4.306 4.609
1.777 -0.101 2.498
1.644 -0.013 2.418
1.485 0.111 2.123
1.226 0.168 2.140
2.489 0.061 2.859
2.243 0.130 2.821
1.972 0.143 2.607
1.844 0.254 2.483
1.695 0.230 2.416
1.462 0.514 2.212
1.266 0.520 2.229
0.998 0.568 2.095
0.929 0.696 1.798
2.795 0.122 3.163
2.803 0.176 3.049
2.437 0.286 2.979
2.184 0.246 2.923
2.036 0.533 2.703
1.889 0.469 2.689
1.689 0.522 2.369
1.505 0.601 2.427
1.149 0.771 2.140
0.959 0.804 1.998
0.891 0.980 1.874
3.132 -0.023 3.226
3.020 0.053 3.282
2.974 0.438 3.249
2.780 0.374 3.172
2.667 0.534 2.945
2.420 0.546 3.019
2.048 0.551 2.744
2.015 0.737 2.637
1.807 0.711 2.658
1.493 0.935 2.535
1.316 0.837 2.371
1.165 0.985 2.286
0.847 1.167 2.080
3.156 0.169 3.515
3.090 0.409 3.267
3.090 0.629 3.406
2.914 0.694 3.260
2.495 0.784 3.164
2.328 0.762 2.993
2.275 0.819 2.852
2.099 1.059 2.786
1.653 0.948 2.494
1.631 1.161 2.512
1.391 1.303 2.491
1.279 1.278 2.231
3.082 0.679 3.463
2.843 0.793 3.315
2.602 1.011 3.086
2.331 0.920 3.076
2.158 1.094 2.922
1.994 1.080 2.800
1.705 1.143 2.794
1.485 1.343 2.659
1.324 1.348 2.429
1.093 1.461 2.417
2.641 1.103 3.359
2.594 1.364 3.109
2.165 1.365 2.955
1.963 1.407 2.852
1.824 1.392 2.633
1.695 1.644 2.607
1.503 1.684 2.551
2.582 1.290 2.825
2.377 1.415 2.691
2.160 1.374 2.545
2.064 1.653 2.611
1.919 1.729 2.521
1.687 1.673 2.218
5.122 3.425 5.117
4.911 3.565 4.890
4.909 3.619 4.624
4.614 3.616 4.683
5.748 3.486 5.344
5.370 3.700 5.190
5.328 3.571 5.059
4.916 3.669 4.994
4.824 3.840 4.928
4.622 3.896 4.730
4.291 4.011 4.521
0.808 5.402 2.393
5.675 3.758 5.275
5.618 3.723 5.346
5.323 3.792 5.087
4.976 3.994 5.057
4.875 4.082 5.018
4.554 4.011 4.853
4.511 4.167 4.594
4.135 4.306 4.621
0.297 0.287 1.203
1.172 -0.041 1.731
1.133 0.195 1.704
0.923 0.069 1.473
0.729 0.146 1.450
0.566 0.392 1.204
0.323 0.275 1.123
0.056 0.551 1.132
1.961 0.145 2.264
1.649 0.153 2.081
1.401 0.126 2.009
1.220 0.154 1.903
1.125 0.436 1.753
0.999 0.354 1.572
0.703 0.560 1.525
0.435 0.511 1.300
0.276 0.640 1.332
0.200 0.740 1.023
2.531 0.115 2.614
2.404 0.042 2.605
2.084 0.098 2.522
2.110 0.172 2.281
1.741 0.237 2.127
1.662 0.332 2.139
1.398 0.618 1.867
1.108 0.685 1.727
1.049 0.550 1.675
0.759 0.745 1.662
0.498 0.746 1.430
0.412 0.938 1.237
3.134 0.128 3.107
2.760 0.335 2.840
2.710 0.276 2.846
2.409 0.412 2.709
2.353 0.493 2.427
1.946 0.435 2.442
1.788 0.703 2.164
1.663 0.760 2.255
1.339 0.750 1.894
1.113 0.814 1.958
1.124 0.963 1.816
0.879 0.947 1.617
0.486 1.079 1.490
3.177 0.048 3.175
3.034 0.272 3.015
3.192 0.312 2.955
2.770 0.481 2.974
2.640 0.473 2.705
2.605 0.681 2.782
2.238 0.633 2.645
2.146 0.722 2.480
1.962 0.938 2.331
1.729 0.799 2.251
1.496 1.098 1.965
1.373 0.979 2.036
0.932 1.209 1.824
0.739 1.208 1.822
3.154 0.397 3.091
3.065 0.685 3.130
2.660 0.779 2.830
2.436 0.766 2.658
2.407 0.946 2.546
2.213 1.120 2.479
1.883 0.998 2.419
1.831 1.059 2.214
1.523 1.301 2.120
1.175 1.374 1.949
1.024 1.370 1.979
2.757 1.085 3.011
2.514 1.102 2.800
2.357 1.087 2.707
2.231 1.260 2.573
2.069 1.221 2.498
1.773 1.297 2.434
1.441 1.482 2.183
1.242 1.474 2.209
2.517 1.216 2.982
2.449 1.416 2.742
2.097 1.422 2.707
1.894 1.558 2.603
1.717 1.487 2.444
1.529 1.568 2.423
2.469 1.528 2.544
2.262 1.501 2.345
2.058 1.454 2.419
1.803 1.700 2.153
1.622 1.711 1.992
1.644 1.706 1.914
5.436 3.484 4.894
5.245 3.382 4.838
5.139 3.557 4.793
4.910 3.578 4.579
0.829 5.289 2.219
5.862 3.624 5.121
5.526 3.498 4.979
5.454 3.770 4.758
5.085 3.717 4.849
5.033 3.843 4.514
4.654 3.964 4.468
1.013 5.373 2.401
0.858 5.525 2.177
5.775 3.827 5.282
5.719 3.738 5.182
5.456 3.966 4.823
5.193 3.916 4.853
4.971 4.017 4.660
4.784 4.043 4.510
4.504 4.119 4.566
0.211 0.164 0.712
0.726 0.036 1.081
0.418 0.234 0.964
0.396 0.230 0.908
0.012 0.157 0.907
1.419 0.149 1.684
1.160 0.270 1.566
0.990 0.332 1.397
0.791 0.193 1.164
0.599 0.493 1.146
0.279 0.527 1.062
0.142 0.497 0.963
2.230 0.070 2.256
1.996 0.117 2.025
1.884 0.210 1.893
1.543 0.248 1.885
1.519 0.205 1.722
1.249 0.507 1.599
0.977 0.408 1.302
0.906 0.536 1.213
0.505 0.539 1.140
0.439 0.579 1.059
0.307 0.666 0.983
-0.012 0.863 0.717
2.947 -0.098 2.553
2.657 0.194 2.456
2.537 0.078 2.362
2.356 0.296 2.177
2.141 0.199 2.169
2.044 0.357 2.109
1.633 0.498 1.889
1.521 0.472 1.763
1.324 0.657 1.537
1.167 0.761 1.409
0.960 0.817 1.384
0.591 0.724 1.146
0.577 0.879 1.030
0.172 1.044 1.071
0.109 0.981 0.965
2.976 0.193 2.746
2.729 0.268 2.680
2.637 0.488 2.366
2.268 0.422 2.180
2.168 0.562 2.107
1.902 0.674 2.004
1.744 0.630 1.976
1.488 0.848 1.777
1.322 0.781 1.661
1.152 0.923 1.579
0.819 0.922 1.422
0.660 1.035 1.341
0.500 1.235 1.214
0.391 1.272 0.954
2.771 0.570 2.494
2.534 0.550 2.457
2.539 0.655 2.389
2.325 0.662 2.320
1.969 0.786 2.016
1.767 1.034 2.108
1.649 0.906 1.758
1.400 1.163 1.859
1.247 1.089 1.686
0.891 1.254 1.619
0.835 1.400 1.432
2.756 0.822 2.736
2.781 0.898 2.489
2.346 0.862 2.348
2.240 0.988 2.367
1.966 1.009 2.104
1.744 1.230 2.140
1.626 1.310 1.877
1.357 1.354 1.931
1.303 1.346 1.777
0.969 1.440 1.608
2.681 1.050 2.684
2.576 1.202 2.478
2.401 1.302 2.414
2.192 1.314 2.356
1.757 1.336 2.070
1.731 1.599 1.999
1.586 1.662 1.871
1.305 1.691 1.852
2.468 1.472 2.497
2.307 1.442 2.530
2.175 1.613 2.409
1.924 1.733 2.216
1.663 1.634 2.087
1.547 1.729 1.978
2.420 1.424 2.306
2.398 1.630 2.015
2.191 1.611 1.938
1.917 1.659 1.943
1.705 1.860 1.738
1.443 1.885 1.652
2.222 1.892 2.025
1.952 1.951 1.951
1.685 1.997 1.785
0.935 5.147 1.902
5.852 3.462 4.773
5.756 3.401 4.729
5.461 3.588 4.582
5.366 3.696 4.371
1.241 5.396 2.023
1.064 5.323 2.010
5.820 3.645 4.894
5.808 3.731 4.684
5.644 3.755 4.694
5.274 3.868 4.479
5.044 3.965 4.303
4.870 4.061 4.290
1.479 5.416 2.387
1.250 5.451 2.148
0.930 5.612 1.911
6.067 3.858 4.995
5.808 3.988 4.857
5.519 3.876 4.841
5.340 3.964 4.560
5.103 4.157 4.490
4.827 4.082 4.437
0.556 0.004 0.616
0.121 0.165 0.601
0.148 0.059 0.352
1.163 0.017 1.197
0.980 0.135 0.932
0.729 0.108 0.740
0.357 0.203 0.797
0.174 0.318 0.566
0.178 0.262 0.473
1.721 0.010 1.537
1.530 0.228 1.487
1.392 0.120 1.335
1.083 0.212 1.073
0.870 0.396 1.092
0.626 0.340 0.983
0.449 0.382 0.739
0.393 0.613 0.783
0.084 0.655 0.603
2.363 0.149 2.067
2.247 0.130 1.727
2.014 0.189 1.701
1.694 0.271 1.646
1.707 0.441 1.472
1.377 0.435 1.290
1.140 0.560 1.114
1.042 0.633 1.219
0.813 0.625 0.884
0.586 0.699 0.894
0.455 0.774 0.604
0.077 0.962 0.499
2.759 0.186 2.085
2.492 0.187 2.134
2.179 0.457 1.922
1.949 0.544 1.707
1.817 0.380 1.717
1.693 0.603 1.541
1.416 0.717 1.454
1.220 0.783 1.265
1.037 0.692 1.287
0.939 1.003 1.138
0.645 1.071 1.019
0.481 0.980 0.673
0.300 1.000 0.632
2.626 0.556 2.304
2.380 0.422 2.144
2.322 0.557 1.990
2.165 0.617 1.895
1.835 0.763 1.658
1.729 0.728 1.509
1.448 0.825 1.424
1.144 0.945 1.275
1.150 1.155 1.163
0.792 1.032 1.118
0.685 1.252 0.982
0.335 1.321 0.993
0.366 1.254 0.640
2.677 0.768 2.256
2.593 0.747 2.254
2.455 0.907 2.114
2.255 0.819 1.870
2.034 1.066 1.701
1.689 1.138 1.642
1.445 1.173 1.637
1.192 1.150 1.507
1.134 1.199 1.292
0.782 1.383 1.281
0.756 1.404 1.156
2.809 0.966 2.452
2.682 0.973 2.225
2.263 1.139 2.140
2.306 1.081 2.028
1.908 1.173 1.829
1.682 1.180 1.822
1.629 1.404 1.588
1.291 1.460 1.412
1.166 1.584 1.295
0.868 1.473 1.216
2.520 1.342 2.260
2.400 1.392 2.106
2.208 1.462 1.981
2.012 1.572 1.832
1.709 1.459 1.850
1.486 1.533 1.676
1.361 1.548 1.575
1.199 1.631 1.415
2.554 1.455 2.171
2.370 1.665 2.027
2.180 1.713 2.108
1.936 1.858 2.002
1.769 1.812 1.711
1.423 1.997 1.764
2.487 1.456 2.093
2.492 1.775 2.039
2.297 1.790 1.694
2.022 1.710 1.600
1.709 1.929 1.511
1.604 1.936 1.354
1.485 1.895 1.375
2.175 1.862 1.754
2.107 1.998 1.752
1.877 2.228 1.530
1.541 2.198 1.547
6.095 3.066 4.664
5.899 3.140 4.554
1.332 5.131 1.703
1.142 5.053 1.738
5.934 3.458 4.617
5.806 3.443 4.478
5.637 3.417 4.502
5.282 3.575 4.305
1.439 5.140 2.111
1.437 5.273 1.800
1.225 5.493 1.818
6.006 3.725 4.643
5.957 3.718 4.464
5.648 3.652 4.376
5.323 3.780 4.230
5.259 3.844 4.115
1.849 5.385 2.193
1.575 5.601 2.150
1.333 5.687 1.894
1.217 5.750 1.883
6.112 3.815 4.739
5.986 3.802 4.582
5.812 3.980 4.399
5.563 4.064 4.435
5.226 4.158 4.218
4.967 4.355 4.068
0.548 0.003 0.493
0.284 0.160 0.181
0.152 0.269 0.125
1.128 -0.004 0.870
1.146 0.078 0.657
0.883 0.273 0.501
0.601 0.232 0.599
0.346 0.236 0.300
0.079 0.521 0.278
1.725 0.185 1.069
1.465 0.241 0.936
1.149 0.179 0.962
0.944 0.294 0.805
0.808 0.361 0.713
0.699 0.603 0.618
0.334 0.670 0.388
0.293 0.686 0.432
2.192 0.098 1.458
2.026 0.179 1.363
1.759 0.414 1.363
1.442 0.398 1.139
1.390 0.494 0.905
0.986 0.660 0.967
0.917 0.749 0.888
0.734 0.815 0.652
0.584 0.829 0.515
0.243 0.934 0.477
2.405 0.296 1.800
2.293 0.400 1.662
1.916 0.428 1.355
1.843 0.663 1.229
1.549 0.674 1.236
1.272 0.704 1.022
1.028 0.923 1.046
1.066 0.964 0.821
0.754 0.919 0.656
0.421 1.141 0.531
0.367 1.015 0.583
2.582 0.502 1.800
2.392 0.652 1.803
2.154 0.779 1.741
2.087 0.659 1.463
1.893 0.803 1.332
1.598 1.020 1.251
1.359 1.027 1.107
1.176 1.175 1.052
0.999 1.046 0.873
0.889 1.184 0.727
0.678 1.259 0.732
0.482 1.477 0.479
2.651 0.898 2.057
2.452 0.741 1.853
2.269 1.050 1.717
2.002 1.134 1.567
1.921 1.176 1.429
1.638 1.159 1.446
1.375 1.169 1.207
1.163 1.306 1.081
1.120 1.327 0.976
0.765 1.509 0.900
0.604 1.533 0.805
2.689 0.994 1.929
2.561 1.099 1.941
2.421 1.049 1.745
2.184 1.310 1.569
1.963 1.367 1.535
1.578 1.442 1.384
1.418 1.452 1.370
1.382 1.551 1.082
1.069 1.636 0.985
0.784 1.686 0.878
2.448 1.210 1.934
2.289 1.482 1.975
2.131 1.464 1.846
1.853 1.637 1.635
1.632 1.510 1.559
1.598 1.802 1.249
1.462 1.849 1.136
1.238 1.922 1.116
2.665 1.662 2.101
2.520 1.589 2.004
2.233 1.776 1.872
1.951 1.746 1.562
1.804 1.930 1.619
1.549 1.979 1.483
1.297 1.959 1.304
0.047 1.086 5.942
0.070 1.468 6.207
0.133 1.559 6.273
-0.035 2.102 6.168
0.244 1.260 5.842
0.320 1.360 5.973
0.081 1.354 5.739
0.398 1.486 6.208
0.292 1.566 6.036
0.023 1.587 5.827
0.429 1.917 6.024
-0.006 1.990 5.870
0.372 2.074 6.039
0.124 2.080 6.051
0.083 2.526 6.197
0.002 2.578 5.977
0.275 0.968 5.543
-0.023 1.154 5.485
0.610 1.064 5.758
0.349 1.221 5.672
0.201 1.325 5.552
0.485 1.426 5.959
0.374 1.424 5.596
0.060 1.580 5.523
0.744 1.485 5.928
0.575 1.515 5.941
0.403 1.630 5.811
0.220 1.819 5.637
0.122 1.820 5.608
0.909 1.783 6.142
0.722 1.875 6.014
0.389 1.864 5.783
0.141 2.101 5.655
-0.015 1.977 5.581
0.670 2.024 6.164
0.502 2.251 6.007
0.178 2.216 5.907
-0.030 2.378 5.634
0.593 2.326 5.968
0.374 2.546 5.991
0.244 2.587 5.796
0.272 2.704 5.758
0.303 0.949 5.594
-0.010 1.052 5.570
0.508 1.099 5.454
0.160 1.072 5.249
0.095 1.048 5.075
0.759 1.106 5.670
0.565 1.098 5.376
0.194 1.351 5.281
-0.073 1.300 5.132
0.873 1.264 5.734
0.655 1.294 5.551
0.523 1.395 5.633
0.263 1.595 5.287
0.221 1.573 5.244
1.088 1.525 5.990
1.075 1.442 5.734
0.818 1.542 5.666
0.575 1.697 5.468
0.446 1.803 5.492
0.148 1.912 5.401
1.341 1.836 5.979
0.910 1.833 6.001
0.868 1.746 5.681
0.656 1.829 5.673
0.383 1.911 5.643
0.198 2.091 5.491
1.484 1.919 6.208
1.139 1.854 6.138
1.030 1.970 5.918
0.892 2.130 5.742
0.691 2.130 5.804
0.347 2.244 5.569
0.201 2.422 5.435
-0.014 2.450 5.376
1.291 2.266 6.038
0.972 2.187 6.093
0.782 2.318 5.816
0.700 2.480 5.889
0.479 2.362 5.635
0.191 2.673 5.436
0.129 2.561 5.538
0.418 2.655 5.773
0.349 2.841 5.552
0.238 2.812 5.523
0.404 1.057 5.250
0.343 1.035 5.143
-0.096 1.169 5.234
0.813 0.903 5.352
0.658 1.054 5.255
0.447 1.160 5.091
0.159 1.220 4.797
1.044 1.110 5.527
0.805 1.248 5.371
0.516 1.228 5.331
0.359 1.301 5.223
0.278 1.462 5.111
1.196 1.290 5.567
0.970 1.480 5.602
0.791 1.520 5.391
0.697 1.425 5.308
0.499 1.609 5.315
0.356 1.642 5.023
0.158 1.612 4.954
1.450 1.419 5.775
1.192 1.558 5.791
1.053 1.526 5.752
0.998 1.637 5.413
0.720 1.686 5.382
0.555 1.793 5.174
0.199 1.809 5.138
0.092 2.001 4.965
1.810 1.587 6.039
1.638 1.638 6.046
1.400 1.857 5.794
1.252 1.777 5.647
1.039 1.973 5.596
0.745 1.877 5.389
0.533 1.931 5.356
0.364 2.062 5.088
0.168 2.117 5.141
1.770 1.475 6.039
1.788 1.755 6.075
1.694 1.964 5.908
1.457 1.859 5.764
1.097 1.994 5.697
0.970 2.162 5.748
0.705 2.136 5.459
0.529 2.266 5.411
0.439 2.442 5.349
0.206 2.340 5.064
1.922 1.736 6.383
1.844 1.887 6.099
1.773 2.120 6.284
1.616 2.041 6.047
1.357 2.309 5.915
1.336 2.394 5.939
1.141 2.356 5.727
0.751 2.497 5.608
0.635 2.571 5.436
0.307 2.568 5.244
0.315 2.571 5.128
1.880 2.025 6.234
1.965 2.286 6.248
1.753 2.417 6.175
1.397 2.477 6.026
1.205 2.466 6.029
1.183 2.486 5.761
0.852 2.685 5.670
0.770 2.704 5.560
0.378 2.949 5.483
0.234 3.016 5.291
0.123 2.917 5.229
1.936 2.319 6.206
1.681 2.735 6.139
0.882 0.930 5.295
0.474 1.082 5.222
0.310 0.992 4.935
0.250 1.095 4.878
0.064 5.297 2.434
-0.029 5.595 2.631
0.088 5.476 2.413
0.495 5.660 2.646
0.107 5.709 2.297
0.061 5.224 1.919
0.517 5.278 2.208
0.415 5.570 2.188
-0.041 5.466 2.106
0.636 5.638 2.201
0.374 5.717 2.269
0.162 5.728 2.015
0.391 5.239 1.926
0.152 5.260 1.799
0.596 5.277 1.981
0.462 5.436 1.927
0.319 5.522 1.753
0.062 5.757 1.781
0.593 5.521 2.138
0.395 5.666 2.002
0.378 5.917 1.758
-0.052 5.775 1.839
0.602 5.153 1.740
0.397 5.337 1.691
0.337 5.303 1.619
0.005 5.342 1.472
0.678 5.459 1.760
0.601 5.605 1.752
0.256 5.612 1.605
0.158 5.684 1.337
0.901 5.616 1.954
0.570 5.837 1.820
0.427 5.810 1.672
0.138 6.029 1.439
0.895 5.052 1.504
0.730 4.955 1.331
0.954 5.232 1.608
0.536 5.342 1.358
0.563 5.470 1.212
0.129 5.507 1.106
1.011 5.594 1.675
0.677 5.661 1.541
0.490 5.735 1.415
0.311 5.611 1.157
0.172 5.848 1.091
0.866 5.837 1.775
0.763 5.894 1.681
0.492 5.747 1.508
0.466 5.933 1.259
0.140 5.958 1.277
0.152 0.694 0.268
0.093 0.892 0.254
0.045 1.109 0.318
6.144 -0.019 3.780
4.104 1.894 0.194
4.519 2.143 0.198
4.158 2.072 0.081
4.009 2.060 -0.012
4.599 2.099 0.564
4.363 2.193 0.251
4.345 2.224 0.246
3.973 2.497 0.036
4.868 2.377 0.624
4.713 2.407 0.516
4.413 2.592 0.471
4.384 2.692 0.294
4.192 2.716 0.234
3.856 2.720 0.022
5.233 2.514 0.825
5.014 2.700 0.865
4.901 2.639 0.695
4.560 2.868 0.584
4.327 2.716 0.310
4.048 2.801 0.224
3.955 2.856 0.195
3.654 3.146 -0.008
5.142 2.492 0.793
5.196 2.683 0.890
5.121 2.788 0.792
4.785 2.857 0.681
4.623 2.870 0.523
4.379 2.969 0.360
4.146 3.227 0.413
3.984 3.323 0.172
3.803 3.246 0.152
5.557 2.695 1.231
5.347 2.619 1.167
5.185 2.652 0.932
5.234 3.020 1.133
4.960 2.991 0.931
4.868 3.101 0.697
4.759 3.296 0.591
4.514 3.242 0.611
4.363 3.368 0.455
4.137 3.419 0.394
3.893 3.610 0.107
3.628 3.715 0.001
6.086 2.804 1.554
5.984 2.869 1.255
5.804 2.832 1.362
5.474 3.015 1.237
5.306 3.053 0.948
5.283 3.122 1.214
4.990 3.238 0.905
4.984 3.504 0.758
4.670 3.578 0.644
4.401 3.481 0.568
4.234 3.660 0.502
3.971 3.620 0.390
3.829 3.745 0.124
3.539 3.928 0.039
6.238 2.852 1.454
5.986 3.127 1.536
5.659 3.038 1.418
5.593 3.036 1.283
5.430 3.330 1.156
5.347 3.438 1.183
5.162 3.513 0.939
6.133 3.124 1.543
6.020 3.168 1.507
5.763 3.239 1.369
5.667 3.319 1.308
5.248 3.563 1.186
5.435 3.684 1.269
6.351 3.454 1.608
5.903 3.386 1.561
5.709 3.498 1.357
5.737 3.582 1.334
5.304 3.705 1.234
6.256 3.649 1.819
5.998 3.836 1.632
5.790 3.712 1.514
5.637 3.846 1.323
6.024 3.898 1.864
5.993 3.975 1.730
6.217 4.317 1.815
4.278 1.819 0.228
4.624 1.775 -0.052
4.808 2.111 0.271
4.464 1.996 0.061
5.102 2.202 0.494
4.695 2.194 0.305
4.529 2.347 0.084
4.407 2.380 0.142
5.320 2.241 0.506
5.083 2.365 0.352
4.800 2.474 0.389
4.562 2.638 0.353
4.415 2.734 0.092
5.234 2.247 0.548
5.221 2.432 0.745
5.069 2.620 0.647
4.878 2.643 0.527
4.805 2.761 0.284
4.485 2.748 0.230
4.205 3.020 -0.016
5.642 2.420 0.831
5.406 2.481 0.878
5.331 2.506 0.628
5.284 2.809 0.784
5.280 2.779 0.533
4.933 3.051 0.551
4.854 2.907 0.261
4.512 3.134 0.183
4.281 3.165 0.194
6.242 2.402 1.346
6.031 2.693 1.156
5.685 2.595 1.008
5.595 2.775 0.844
5.486 2.872 0.711
5.448 3.058 0.874
5.335 2.981 0.685
5.065 3.263 0.606
4.879 3.135 0.384
4.679 3.395 0.417
4.348 3.336 0.220
4.302 3.443 -0.004
6.302 2.694 1.303
6.067 2.866 1.180
5.847 2.952 1.182
5.748 2.967 0.892
5.465 3.150 0.767
5.387 3.183 0.805
5.327 3.443 0.757
4.927 3.417 0.650
4.895 3.607 0.580
4.546 3.545 0.393
4.430 3.598 0.210
4.127 3.776 0.179
6.355 3.038 1.437
6.117 2.943 1.297
5.927 3.079 1.217
5.696 3.109 0.945
5.440 3.234 0.800
5.419 3.539 1.065
5.202 3.558 0.906
5.145 3.535 0.673
4.941 3.796 0.571
6.052 3.208 1.241
5.804 3.445 1.143
5.639 3.548 1.019
5.462 3.584 0.824
5.605 3.856 1.021
5.334 3.851 0.875
6.211 3.540 1.304
5.999 3.486 1.215
5.690 3.623 1.215
5.652 3.856 1.058
5.514 3.918 1.141
6.217 3.820 1.496
5.912 3.935 1.253
5.714 3.914 1.322
5.486 4.020 1.161
6.317 3.879 1.403
6.157 4.195 1.470
5.823 4.205 1.254
6.155 4.187 1.381
4.559 1.919 -0.040
5.002 1.980 0.158
5.428 2.041 0.270
5.168 2.141 0.290
5.027 2.299 0.155
5.479 2.077 0.300
5.347 2.452 0.354
5.231 2.326 0.377
4.936 2.482 0.058
4.743 2.496 -0.093
5.733 2.327 0.594
5.299 2.389 0.372
5.358 2.690 0.426
5.146 2.697 0.288
5.006 2.855 0.275
4.719 2.776 0.187
5.805 2.479 0.768
5.773 2.526 0.585
5.379 2.600 0.332
5.379 2.833 0.412
5.233 3.007 0.391
5.016 2.941 0.221
4.843 3.087 0.050
4.805 3.157 0.030
6.141 2.684 0.901
5.959 2.561 0.760
5.749 2.846 0.571
5.483 2.930 0.425
5.437 3.056 0.520
5.251 3.244 0.389
5.033 3.157 0.260
4.807 3.383 0.321
4.708 3.392 0.168
6.283 2.831 1.024
5.882 2.826 0.790
5.877 2.895 0.809
5.589 3.067 0.572
5.713 3.381 0.574
5.451 3.493 0.530
5.285 3.366 0.513
4.872 3.560 0.178
4.814 3.577 0.093
4.539 3.710 0.134
6.293 3.178 0.997
6.044 3.127 0.989
5.796 3.331 0.744
5.617 3.217 0.761
5.618 3.550 0.720
5.364 3.532 0.550
5.280 3.656 0.535
5.049 3.691 0.446
6.269 3.414 1.024
6.164 3.278 1.112
5.729 3.500 0.815
5.623 3.556 0.695
5.735 3.679 0.760
5.351 3.856 0.563
5.282 3.851 0.652
6.056 3.538 1.085
5.874 3.808 0.878
5.751 3.824 0.729
5.700 3.916 1.011
5.466 4.140 0.794
6.221 3.802 1.249
5.878 4.047 1.026
5.744 4.103 0.895
5.790 4.158 0.862
6.198 4.041 1.112
6.010 4.058 1.202
5.818 4.166 1.065
6.256 4.286 1.270
6.070 4.483 1.017
6.361 4.460 1.384
5.461 2.000 0.095
5.564 1.973 0.011
5.512 2.215 0.165
5.625 2.006 0.217
5.533 2.109 0.061
5.514 2.292 0.304
5.287 2.454 0.111
6.061 2.273 0.485
5.701 2.291 0.234
5.610 2.316 0.173
5.604 2.545 0.153
5.410 2.628 0.044
5.275 2.827 0.048
6.245 2.520 0.698
6.115 2.383 0.574
5.896 2.435 0.362
5.567 2.503 0.246
5.698 2.782 0.430
5.317 2.905 0.117
5.150 2.896 -0.038
6.303 2.619 0.793
6.006 2.717 0.670
5.930 2.666 0.511
5.567 2.823 0.330
5.569 3.027 0.469
5.396 3.289 0.230
5.185 3.380 0.071
5.040 3.446 0.011
6.188 2.898 0.658
5.850 3.018 0.585
5.748 3.152 0.372
5.855 3.459 0.589
5.652 3.291 0.356
5.376 3.498 0.251
5.090 3.646 0.204
6.228 3.259 0.679
5.843 3.334 0.712
5.635 3.298 0.585
5.680 3.467 0.439
5.508 3.607 0.468
5.365 3.637 0.164
5.227 3.799 0.171
6.160 3.501 0.781
6.075 3.398 0.617
5.642 3.638 0.454
5.797 3.808 0.563
5.487 3.905 0.505
5.437 4.080 0.334
6.255 3.661 0.958
5.998 3.837 0.770
5.777 3.943 0.627
5.951 3.961 0.668
5.569 4.161 0.659
6.239 3.877 0.916
6.151 3.920 0.698
5.867 3.959 0.671
5.889 4.243 0.755
6.152 4.171 0.788
5.883 4.363 0.729
6.005 4.439 0.898
6.026 4.372 0.919
5.841 4.532 0.702
6.142 4.809 0.912
5.799 2.136 0.104
6.198 2.278 0.297
5.970 2.235 0.105
5.640 2.754 -0.065
6.068 2.522 0.241
5.932 2.463 0.098
5.813 2.739 -0.074
5.731 2.873 0.147
6.134 2.797 0.488
5.912 2.811 0.285
5.810 2.783 0.206
5.710 3.174 0.103
5.623 3.251 0.104
6.251 2.977 0.376
6.153 3.144 0.276
5.861 3.227 0.305
5.889 3.359 0.125
5.696 3.331 0.062
5.494 3.513 0.046
6.169 3.199 0.548
6.103 3.412 0.466
5.888 3.476 0.318
5.809 3.570 0.196
5.763 3.618 0.164
5.447 3.729 0.140
6.104 3.511 0.429
6.009 3.710 0.233
5.946 3.816 0.466
5.660 3.869 0.237
5.664 4.002 0.239
6.062 3.698 0.557
5.972 3.783 0.421
5.922 4.217 0.377
5.762 4.171 0.311
6.123 3.994 0.641
5.975 4.140 0.397
5.910 4.293 0.431
5.743 4.431 0.302
6.293 4.141 0.568
6.096 4.398 0.590
6.179 4.456 0.731
6.162 4.569 0.485
6.113 4.786 0.749
6.192 4.919 0.723
6.117 2.827 -0.058
6.210 3.168 0.067
5.893 3.501 0.176
6.215 3.410 0.268
6.114 3.289 -0.038
6.159 3.735 0.047
6.291 3.561 0.232
6.165 3.645 0.053
6.056 3.948 0.227
5.865 3.933 0.128
6.205 3.796 0.236
6.029 4.163 0.291
5.814 4.172 0.131
6.026 4.217 0.318
6.266 4.346 0.399
6.050 4.398 0.188
6.194 4.309 0.434
6.327 4.652 0.514
6.222 4.493 0.280
6.187 4.894 0.371
6.331 4.934 0.449
6.373 4.270 -0.059
6.235 4.292 -0.039
2.435 1.648 1.664
2.291 1.878 1.614
2.134 1.854 1.558
1.831 1.984 1.398
1.596 1.960 1.281
1.547 2.104 0.992
1.310 2.256 1.029
2.671 2.009 1.816
2.265 1.965 1.556
2.085 2.177 1.623
1.878 2.135 1.342
1.807 2.107 1.254
1.650 2.376 1.055
2.134 2.411 1.671
2.114 2.295 1.623
1.876 2.471 1.325
1.309 4.933 1.433
1.058 4.863 1.454
6.154 3.144 4.345
5.974 3.342 4.324
5.596 3.322 4.107
1.745 5.079 1.632
1.374 5.092 1.529
1.180 5.192 1.547
6.251 3.514 4.419
5.940 3.542 4.417
5.647 3.602 4.113
5.649 3.632 4.002
1.730 5.223 1.827
1.466 5.474 1.588
1.208 5.357 1.523
6.233 3.559 4.496
5.880 3.602 4.316
5.881 3.899 4.250
5.711 3.912 4.190
5.329 4.012 4.075
1.953 5.470 2.080
1.698 5.650 1.867
1.586 5.709 1.763
1.281 5.586 1.605
6.290 3.859 4.546
6.090 4.030 4.324
5.756 3.965 4.298
5.502 4.244 4.161
5.377 4.262 4.180
0.644 0.083 0.177
0.497 0.099 0.062
1.437 -0.038 0.582
1.102 0.149 0.560
1.054 0.346 0.302
0.828 0.192 0.202
0.661 0.455 0.265
0.290 0.471 0.100
1.917 0.089 0.947
1.702 0.187 0.878
1.538 0.374 0.670
1.322 0.391 0.493
1.017 0.433 0.407
0.678 0.572 0.448
0.643 0.556 0.202
0.434 0.766 0.002
1.994 0.245 1.200
1.904 0.448 1.177
1.640 0.384 0.873
1.359 0.555 0.771
1.301 0.654 0.799
1.059 0.728 0.431
0.777 0.849 0.415
0.557 0.867 0.258
0.402 0.925 0.065
2.350 0.491 1.339
2.230 0.592 1.273
1.887 0.670 1.148
1.689 0.775 0.960
1.400 0.894 0.975
1.263 0.960 0.850
