5.800 1.148 0.958
5.675 1.635 1.199
5.834 1.559 1.192
6.011 1.334 1.321
5.978 1.027 1.340
6.108 0.673 1.287
6.014 1.579 1.399
5.828 1.424 1.401
5.941 1.177 1.261
5.999 1.097 1.259
6.173 0.990 1.183
6.205 1.662 1.711
6.305 1.402 1.461
6.095 1.356 1.684
6.227 1.595 1.738
5.611 1.677 1.226
5.536 1.462 1.362
5.476 1.580 1.634
5.832 1.373 1.546
5.828 1.191 1.485
5.735 0.787 1.534
5.617 1.673 1.615
5.727 1.183 1.647
5.905 1.110 1.613
5.871 1.078 1.499
5.996 0.621 1.509
5.863 1.735 1.832
6.169 1.445 1.816
5.983 1.249 1.874
6.229 1.084 1.844
6.411 0.589 1.733
6.165 1.723 2.011
6.043 1.360 1.890
6.434 1.320 1.780
5.392 1.367 1.865
5.407 1.373 1.549
5.506 1.474 1.785
5.603 1.275 1.852
5.797 0.925 1.657
6.009 0.835 1.666
5.696 1.577 1.886
5.797 1.102 1.874
5.922 0.956 1.796
5.998 0.789 1.858
6.020 0.696 1.913
6.064 1.384 2.009
5.984 1.401 2.024
5.966 1.200 2.184
6.295 0.830 2.069
6.379 0.807 2.069
6.042 1.390 2.422
6.091 1.415 2.399
5.418 1.260 1.742
5.456 1.548 2.060
5.720 1.055 2.041
5.491 0.784 1.947
5.775 1.503 2.026
5.809 1.241 2.130
5.907 0.939 2.013
5.953 0.796 1.956
6.029 1.289 2.131
5.834 1.268 2.179
6.081 0.946 2.191
5.959 0.816 2.206
6.033 1.453 2.268
6.175 1.343 2.252
6.141 0.937 2.396
6.089 0.903 2.444
5.387 1.264 2.298
5.369 1.191 1.976
5.672 1.402 2.210
5.449 0.924 2.134
5.718 1.159 2.403
5.839 1.008 2.504
5.718 1.017 2.288
5.859 1.291 2.535
6.105 1.076 2.461
6.120 1.027 2.548
6.102 0.592 2.556
5.170 1.350 2.282
5.376 1.200 2.639
5.353 1.157 2.426
5.457 1.119 2.647
5.625 1.028 2.447
5.775 1.252 2.905
5.797 1.172 2.777
5.164 1.214 2.598
5.276 1.312 2.633
5.727 1.086 3.054
3.043 0.276 2.734
3.140 0.405 2.924
3.454 0.458 3.180
3.459 0.389 3.295
0.136 6.320 4.646
0.242 6.079 4.403
0.208 6.336 4.662
0.274 5.963 4.762
0.471 6.349 4.963
0.587 5.865 4.953
0.718 6.175 5.059
0.543 5.969 4.894
0.838 6.100 5.165
0.875 6.185 5.211
0.938 6.387 5.433
1.128 5.941 5.089
1.269 5.925 5.327
1.221 6.164 5.518
-0.027 6.028 4.539
0.174 5.796 4.794
0.089 6.192 4.765
0.351 5.793 4.918
0.468 6.075 5.011
0.547 5.939 4.771
0.675 6.112 4.998
0.698 5.961 4.932
0.720 6.011 5.271
0.909 5.810 5.411
0.998 6.076 5.414
1.061 5.970 5.492
0.868 6.226 5.740
0.923 5.979 5.732
1.338 6.175 5.588
1.109 5.991 5.693
0.130 5.981 5.027
0.090 5.789 4.852
0.147 6.226 5.156
0.352 5.868 5.147
0.189 5.995 4.986
0.442 6.209 5.196
0.470 5.920 5.399
0.349 5.848 5.154
0.525 6.319 5.365
0.654 6.162 5.546
0.712 5.910 5.322
0.662 6.038 5.543
0.660 6.024 5.661
0.785 6.072 5.771
0.833 5.774 5.618
1.193 6.275 5.991
1.012 5.759 5.699
1.173 5.916 6.166
0.074 6.026 5.290
0.001 6.098 5.313
0.288 5.923 5.352
0.272 6.224 5.539
0.141 5.797 5.352
0.400 5.782 5.528
0.493 6.335 5.647
0.227 5.991 5.541
0.510 5.663 5.528
0.334 6.057 5.704
0.535 5.948 5.854
0.655 5.953 5.703
0.641 6.369 5.815
0.603 6.073 6.040
0.646 5.657 5.916
0.730 6.095 5.960
0.803 5.932 6.181
1.128 5.833 5.966
1.171 5.867 6.154
0.070 5.837 5.542
-0.016 5.920 5.686
-0.039 5.782 5.547
0.288 5.859 5.645
0.293 6.195 5.793
0.444 5.733 5.698
0.275 5.597 5.744
0.222 5.982 5.962
0.574 5.752 6.078
0.560 5.616 5.725
0.366 6.314 5.986
0.480 5.937 6.249
0.832 5.763 5.909
0.647 5.792 6.249
0.786 5.922 6.233
0.136 5.547 5.644
0.157 5.849 5.972
-0.014 5.944 5.779
0.162 5.469 5.931
0.312 5.862 6.102
0.195 5.888 5.973
0.344 5.603 5.989
0.368 6.005 6.237
0.617 5.760 6.299
0.387 5.535 6.320
0.001 5.626 6.000
-0.014 5.757 6.096
0.092 5.449 6.177
0.519 5.994 4.246
0.866 6.338 4.349
1.051 6.119 4.807
1.091 6.256 4.762
1.444 6.289 4.954
1.580 6.374 5.191
1.784 6.169 5.375
0.270 6.304 4.231
0.415 6.076 4.232
0.497 5.946 4.359
0.865 6.013 4.662
0.673 6.045 4.785
0.913 6.107 5.116
1.098 6.247 5.066
1.316 5.990 5.068
1.671 6.238 5.507
0.045 6.271 4.428
0.062 6.019 4.568
0.314 6.112 4.644
0.413 6.050 4.784
0.444 6.094 4.712
0.697 5.849 4.923
0.569 6.071 4.949
0.850 6.127 4.756
0.830 6.324 4.998
0.864 5.870 5.016
0.816 6.366 5.352
1.128 6.007 5.138
1.205 6.017 5.564
1.320 6.201 5.590
0.101 3.020 2.691
0.247 2.980 2.794
0.064 2.890 2.673
-0.114 3.694 2.988
0.201 3.488 2.873
0.243 3.281 2.901
0.419 3.012 2.809
0.372 2.887 2.883
0.296 2.406 2.648
0.434 2.378 2.660
0.124 4.175 3.179
0.287 3.817 3.343
0.322 3.490 3.273
0.453 3.417 3.201
0.278 3.120 2.900
0.446 3.013 2.991
0.593 2.944 2.914
0.696 2.723 2.877
0.677 2.271 2.872
0.760 2.043 2.727
0.251 4.364 3.526
0.108 3.896 3.293
0.233 4.025 3.406
0.458 3.810 3.276
0.544 3.544 3.194
0.504 3.154 3.162
0.649 2.869 3.078
0.702 2.770 2.936
0.849 2.555 2.967
0.720 2.417 3.051
0.735 2.210 2.833
0.356 4.518 3.658
0.161 4.440 3.744
0.249 4.132 3.677
0.598 3.697 3.355
0.703 3.497 3.594
0.683 3.409 3.434
0.741 3.091 3.208
0.896 3.113 3.387
0.670 2.761 3.083
0.756 2.634 3.171
0.816 2.411 3.247
1.157 2.324 3.111
1.089 2.169 3.187
0.271 4.592 3.968
0.473 4.443 3.845
0.634 4.112 3.776
0.671 4.092 3.607
0.743 3.933 3.649
0.701 3.606 3.697
0.640 3.305 3.704
1.009 3.272 3.379
1.088 2.984 3.491
1.152 2.966 3.535
1.046 2.657 3.458
1.235 2.549 3.152
1.300 2.280 3.400
1.428 2.007 3.282
1.232 1.677 2.994
0.471 4.659 3.942
0.332 4.897 3.918
0.633 4.417 3.815
0.591 4.172 3.837
0.787 4.190 3.729
0.888 3.997 3.895
0.739 3.793 3.605
1.106 3.364 3.636
0.874 3.416 3.796
1.052 2.913 3.644
1.290 2.909 3.394
1.249 2.506 3.363
1.166 2.332 3.596
1.364 2.415 3.326
1.363 1.980 3.320
1.625 1.980 3.447
1.403 1.494 3.377
1.559 1.463 3.264
1.591 1.319 3.174
0.330 5.183 4.148
0.262 5.298 4.068
0.350 4.865 4.146
0.505 4.898 3.955
0.613 4.812 4.230
0.898 4.646 4.220
0.762 4.393 4.164
0.913 4.067 4.091
1.114 4.036 4.112
0.932 3.783 3.777
1.211 3.677 3.824
1.091 3.479 3.837
1.112 3.066 3.770
1.278 3.044 3.703
1.544 2.779 3.796
1.438 2.494 3.563
1.683 2.296 3.521
1.624 1.922 3.438
1.635 1.886 3.314
1.575 1.543 3.471
1.717 1.501 3.211
1.711 1.223 3.275
1.878 1.145 3.353
1.891 0.916 3.193
1.971 0.701 3.032
2.329 0.275 2.976
2.262 0.149 3.156
0.249 5.676 4.354
0.538 5.493 4.289
0.362 5.178 4.376
0.440 5.211 4.371
0.484 5.112 4.184
0.838 4.798 4.191
0.700 4.869 4.376
1.028 4.713 4.273
1.066 4.297 4.168
0.993 4.049 4.200
1.491 2.651 3.704
1.534 2.394 3.770
1.761 1.994 3.510
1.795 1.879 3.665
1.912 1.486 3.524
1.889 1.320 3.583
2.165 1.228 3.393
2.228 0.973 3.483
2.244 0.854 3.489
2.232 0.678 3.243
2.297 0.560 3.176
2.547 0.269 2.971
0.482 5.713 4.406
0.618 5.757 4.682
0.527 5.523 4.571
0.631 5.239 4.357
0.694 4.910 4.493
0.686 4.930 4.429
1.118 4.683 4.322
2.026 1.993 3.738
1.907 1.511 3.546
2.257 1.472 3.526
2.203 1.183 3.627
2.249 0.993 3.652
2.410 0.709 3.576
2.563 0.580 3.575
2.662 0.475 3.318
2.501 0.165 3.266
0.746 5.926 4.783
0.838 5.464 4.684
0.858 5.371 4.627
0.752 5.011 4.583
0.750 4.870 4.372
1.077 4.609 4.561
2.150 1.757 3.798
2.426 1.391 3.842
2.202 1.315 3.575
2.394 0.972 3.674
2.539 0.876 3.755
2.715 0.792 3.502
2.493 0.631 3.451
2.866 0.312 3.422
0.770 5.722 4.900
0.724 5.544 4.903
0.800 5.510 4.767
1.130 5.362 4.836
1.156 4.971 4.749
2.375 1.487 4.052
2.548 1.456 3.945
2.549 1.204 3.863
2.630 0.960 3.890
2.869 0.538 3.689
2.698 0.458 3.493
3.071 0.206 3.610
1.082 5.723 5.136
0.882 5.603 5.031
1.124 5.341 4.933
1.054 5.318 4.875
2.526 1.477 4.094
2.828 1.221 4.193
2.933 1.105 4.065
2.745 0.813 3.807
2.983 0.749 3.748
2.939 0.343 3.718
3.232 0.281 3.681
1.195 5.995 5.361
1.216 5.715 5.298
1.416 5.290 5.190
1.189 5.133 5.027
2.933 1.515 4.171
2.760 1.076 4.056
3.062 0.868 4.188
2.954 0.820 4.189
3.083 0.428 3.850
3.074 0.162 4.071
1.241 6.032 5.402
1.346 5.573 5.154
1.332 5.306 5.070
3.272 0.910 4.084
3.083 0.798 4.275
3.418 0.380 4.252
3.316 0.361 3.921
1.302 5.837 5.561
-0.090 3.334 2.875
0.113 2.896 2.579
0.112 2.728 2.645
0.144 3.249 3.005
0.243 2.747 2.823
0.335 2.534 3.025
0.110 2.395 2.932
0.211 3.575 3.140
0.150 3.249 3.301
0.279 3.034 3.246
0.392 3.047 3.038
0.275 2.632 3.103
0.520 2.597 3.104
-0.069 4.209 3.499
0.073 4.119 3.551
0.006 3.695 3.649
0.158 3.467 3.580
0.274 3.393 3.228
0.344 3.203 3.408
0.318 2.895 3.412
0.521 2.847 3.101
0.534 2.446 3.097
0.561 2.478 3.078
-0.091 4.726 3.787
-0.067 4.227 3.649
0.057 4.035 3.909
0.299 3.985 3.598
0.298 3.695 3.486
0.565 3.617 3.632
0.364 3.217 3.518
0.368 3.012 3.315
0.545 3.005 3.420
0.595 2.836 3.507
0.650 2.666 3.489
0.777 2.238 3.190
0.756 1.952 3.068
0.005 4.612 3.707
0.309 4.533 3.943
0.192 4.405 3.808
0.339 4.212 3.870
0.373 3.860 3.937
0.393 3.765 3.918
0.526 3.413 3.906
0.633 3.256 3.696
0.570 3.010 3.521
0.807 2.828 3.771
1.008 2.745 3.461
0.909 2.631 3.515
0.951 2.291 3.286
0.956 2.247 3.353
-0.108 5.067 4.178
0.030 4.706 3.883
0.058 4.581 3.980
0.299 4.469 4.011
0.549 4.436 4.198
0.480 4.048 4.090
0.682 4.024 3.996
0.574 3.800 3.844
0.548 3.697 3.988
0.867 3.572 3.869
0.932 3.212 3.829
0.851 3.011 3.598
1.094 2.904 3.748
0.926 2.574 3.631
1.088 2.529 3.712
1.325 2.125 3.588
0.040 5.796 4.452
0.163 5.622 4.270
0.187 5.161 4.381
0.098 5.067 4.105
0.276 4.879 4.282
0.504 4.777 4.018
0.390 4.540 4.273
0.708 4.562 4.159
0.491 4.227 4.331
0.865 4.143 4.275
0.748 3.756 4.039
0.931 3.554 4.106
1.071 3.442 3.887
0.848 3.331 4.109
0.951 2.901 3.762
1.296 2.651 3.844
1.406 2.512 3.972
1.702 1.098 3.455
1.775 0.904 3.402
2.105 0.684 3.304
1.970 0.393 3.213
2.012 0.181 3.027
0.269 5.723 4.648
0.121 5.347 4.641
0.230 5.165 4.566
0.300 5.226 4.282
0.389 5.013 4.487
0.546 4.616 4.489
0.822 4.814 4.615
0.593 4.595 4.362
0.796 4.407 4.240
0.850 4.001 4.170
1.126 3.696 4.305
0.932 3.534 4.285
1.891 1.246 3.778
1.989 1.156 3.745
1.886 0.877 3.543
2.137 0.617 3.346
2.052 0.706 3.548
2.352 0.384 3.310
2.169 0.300 3.382
0.182 5.805 4.621
0.316 5.524 4.676
0.425 5.225 4.753
0.442 4.957 4.755
0.638 4.887 4.361
0.747 4.840 4.325
0.753 4.668 4.684
0.787 4.557 4.595
0.969 4.429 4.399
1.917 1.431 3.716
2.014 1.161 3.636
2.180 0.957 3.622
2.206 0.814 3.727
2.427 0.612 3.528
2.334 0.439 3.459
2.501 0.336 3.567
0.487 5.714 4.816
0.547 5.470 4.992
0.686 5.457 4.759
0.684 5.008 4.756
0.628 5.015 4.644
0.909 4.505 4.670
1.049 4.885 4.874
0.922 4.547 4.610
2.256 1.428 3.898
2.324 1.315 3.955
2.175 0.858 3.707
2.436 0.835 3.891
2.534 0.741 3.822
2.452 0.261 3.759
2.667 0.046 3.631
0.733 5.832 5.093
0.604 5.563 5.159
0.951 5.226 4.925
0.957 5.022 4.932
1.049 4.760 4.997
1.023 4.887 4.818
1.185 4.614 4.847
2.309 1.262 4.125
2.367 0.980 3.922
2.697 0.737 4.011
2.547 0.718 3.719
2.731 0.463 3.833
2.702 0.258 3.886
0.753 5.884 5.035
0.942 5.501 5.008
1.110 5.191 5.224
1.072 5.233 4.883
0.965 5.019 4.828
1.127 4.631 5.010
2.747 0.891 4.150
2.629 0.942 3.941
2.699 0.760 4.069
3.021 0.422 4.006
3.061 0.160 3.917
1.047 5.866 5.203
1.161 5.658 5.307
1.204 5.489 5.247
1.274 5.245 5.132
1.253 4.813 5.265
2.876 0.895 4.350
3.008 1.021 4.060
2.789 0.479 4.242
3.056 0.354 4.049
3.058 0.047 4.189
1.153 5.729 5.552
1.318 5.574 5.349
1.153 5.340 5.562
1.239 5.212 5.443
3.235 0.678 4.496
2.998 0.520 4.209
3.278 0.097 4.188
1.338 5.684 5.501
1.549 5.492 5.449
-0.066 2.503 2.935
0.098 3.366 3.487
0.135 3.049 3.419
0.242 2.963 3.269
0.235 2.748 3.252
0.331 2.566 3.166
0.143 3.570 3.698
-0.062 3.337 3.605
0.127 3.273 3.442
0.320 3.141 3.312
0.481 2.741 3.423
0.537 2.471 3.565
0.305 2.452 3.155
-0.134 4.250 3.740
0.188 3.733 3.953
0.124 3.592 3.978
0.299 3.299 3.570
0.443 3.241 3.657
0.467 2.900 3.792
0.493 2.794 3.642
0.563 2.711 3.667
0.771 2.588 3.326
0.040 4.645 4.119
0.060 4.147 4.207
0.161 4.249 3.903
0.251 3.962 4.138
0.210 3.587 3.868
0.469 3.610 4.065
0.561 3.256 3.718
0.715 2.912 3.770
0.603 3.034 3.818
0.579 2.821 3.816
0.822 2.610 3.778
0.098 4.677 4.250
0.174 4.494 4.288
0.457 4.499 4.210
0.397 4.239 4.355
0.604 3.987 4.341
0.439 3.652 4.217
0.459 3.624 4.174
0.689 3.284 4.078
0.682 3.053 4.078
0.979 2.753 3.780
0.962 2.645 3.835
-0.011 5.036 4.418
0.145 4.888 4.551
0.151 4.597 4.516
0.151 4.407 4.207
0.293 4.540 4.650
0.423 4.225 4.574
0.556 4.058 4.481
0.597 3.959 4.172
0.601 3.739 4.108
0.830 3.416 4.200
0.724 3.154 4.328
0.966 3.015 4.051
1.901 0.169 3.494
1.827 -0.059 3.329
0.108 5.440 4.679
0.073 5.372 4.810
0.222 5.258 4.592
0.315 4.867 4.605
0.219 4.726 4.357
0.325 4.485 4.468
0.458 4.698 4.598
0.512 4.358 4.712
0.521 4.157 4.627
0.906 4.090 4.629
0.719 3.851 4.531
0.948 3.555 4.410
1.816 0.512 3.547
1.949 0.289 3.631
2.182 0.266 3.674
2.187 0.062 3.561
0.355 5.444 4.905
0.133 5.476 4.895
0.512 5.027 4.704
0.382 5.134 4.811
0.432 4.890 4.734
0.423 4.651 4.556
0.604 4.546 4.743
0.611 4.553 4.886
0.732 4.280 4.801
0.989 3.859 4.482
1.979 0.761 3.751
1.961 0.661 3.897
2.286 0.311 3.785
2.358 0.328 3.628
2.191 0.237 3.490
0.496 5.448 5.000
0.480 5.570 4.839
0.654 5.176 4.913
0.588 4.843 4.919
0.505 4.683 4.773
0.579 4.447 4.781
0.798 4.529 5.073
0.818 4.390 4.955
1.045 4.157 4.990
2.333 0.744 3.829
2.345 0.844 4.040
2.436 0.358 3.807
2.356 0.277 3.951
2.308 -0.049 3.662
0.502 5.562 5.370
0.486 5.600 5.044
0.481 5.255 5.140
0.831 5.026 5.165
0.890 4.906 5.094
0.904 4.440 4.756
1.133 4.707 5.026
2.243 0.961 4.181
2.575 0.797 4.172
2.364 0.645 4.209
2.386 0.225 4.034
2.686 0.249 4.067
0.817 5.801 5.194
0.639 5.458 5.459
0.831 5.185 5.113
0.936 5.000 5.286
0.957 4.916 5.145
0.994 4.757 5.093
1.231 4.813 5.245
2.635 1.112 4.173
2.696 0.840 4.249
2.677 0.460 4.069
2.896 0.181 4.160
2.660 0.272 4.104
0.909 5.824 5.425
1.038 5.606 5.590
1.069 5.148 5.379
1.077 4.961 5.218
1.068 4.784 5.319
1.130 4.668 5.167
2.887 0.932 4.551
2.763 0.665 4.437
2.996 0.195 4.289
2.840 0.029 4.093
0.875 5.745 5.781
0.916 5.561 5.550
1.250 5.112 5.539
1.085 5.009 5.405
1.316 4.797 5.463
2.836 0.494 4.458
3.128 0.273 4.359
3.258 0.190 4.457
1.304 5.583 5.841
1.386 5.649 5.832
1.366 5.361 5.862
1.224 5.192 5.787
3.417 0.138 4.477
1.340 5.731 6.033
1.247 5.519 5.914
-0.033 2.826 3.496
0.127 2.363 3.545
-0.033 3.036 3.757
0.077 3.073 3.771
0.218 2.731 3.582
0.334 2.399 3.448
0.024 3.689 4.138
0.004 3.463 3.938
0.301 3.251 3.846
0.152 3.010 3.765
0.202 2.701 3.885
0.346 2.626 3.764
-0.016 4.046 4.187
0.270 3.659 4.099
0.377 3.607 3.943
0.187 3.396 4.098
0.500 3.384 3.868
0.342 3.076 3.782
0.666 2.962 3.729
0.449 2.648 3.806
-0.021 4.311 4.521
0.330 4.323 4.345
0.147 3.989 4.345
0.278 3.965 4.276
0.396 3.735 4.199
0.385 3.477 4.036
0.367 3.047 4.076
0.643 3.176 4.090
0.512 2.705 3.944
-0.030 4.493 4.591
-0.045 4.326 4.585
0.081 4.379 4.506
0.470 4.135 4.519
0.242 3.964 4.369
0.289 3.802 4.457
0.529 3.755 4.569
0.624 3.571 4.269
0.605 3.384 4.476
0.168 5.108 4.636
-0.026 4.731 4.560
0.289 4.668 4.638
0.372 4.481 4.710
0.433 4.490 4.826
0.582 4.136 4.677
0.691 4.019 4.689
0.466 3.857 4.560
0.530 3.844 4.555
0.689 3.601 4.620
1.926 0.241 3.755
1.960 0.243 3.725
0.076 5.620 5.041
0.014 5.227 5.002
0.320 5.139 4.816
0.438 5.064 4.786
0.444 4.816 4.696
0.541 4.668 4.835
0.613 4.362 4.990
0.754 4.270 4.832
0.725 4.184 4.858
0.880 3.952 4.936
2.071 0.733 3.986
2.107 0.394 3.702
2.095 0.204 3.877
0.114 5.668 5.110
0.333 5.334 5.203
0.367 5.283 5.127
0.591 5.078 5.068
0.520 4.683 5.153
0.649 4.463 5.058
0.616 4.552 4.980
0.941 4.224 5.000
0.931 4.188 5.102
1.966 0.796 4.253
2.089 0.295 4.214
2.114 0.096 3.950
0.342 5.377 5.362
0.359 5.527 5.477
0.469 5.308 5.169
0.455 5.115 5.256
0.830 4.862 5.250
0.820 4.440 5.078
1.061 4.490 5.353
0.853 4.431 5.230
2.356 0.538 4.059
2.441 0.343 4.032
2.476 0.137 4.145
2.570 -0.154 4.261
0.630 5.752 5.610
0.700 5.320 5.548
0.562 5.107 5.442
0.698 4.948 5.281
0.691 4.849 5.383
0.843 4.585 5.088
1.206 4.509 5.299
2.603 0.537 4.502
2.490 0.349 4.359
2.494 0.392 4.408
2.474 0.016 4.286
0.842 5.541 5.539
0.932 5.527 5.650
0.713 5.050 5.682
0.841 4.849 5.562
1.178 4.710 5.473
1.114 4.605 5.334
2.520 0.416 4.663
2.786 0.149 4.366
2.813 -0.073 4.466
0.987 5.477 5.985
1.054 5.373 5.757
1.128 5.288 5.875
1.259 5.171 5.688
1.057 4.901 5.507
2.683 0.544 4.600
3.009 0.197 4.436
3.157 0.193 4.383
1.194 5.598 5.872
1.152 5.428 5.831
1.333 5.340 6.004
1.354 5.038 5.675
1.387 4.726 5.857
3.316 -0.013 4.667
1.082 5.570 6.283
1.119 5.369 6.057
1.371 5.109 5.859
-0.037 2.624 3.898
-0.103 2.926 3.858
0.007 3.035 3.975
0.346 2.566 3.925
0.043 3.568 4.189
0.080 3.634 4.234
-0.012 3.184 4.151
0.047 2.964 4.092
0.296 2.895 4.097
-0.103 4.296 4.512
0.043 3.932 4.647
0.088 3.855 4.384
0.256 3.469 4.402
0.316 3.180 4.417
0.242 3.183 4.423
0.350 2.830 4.331
0.170 4.510 4.933
0.357 4.149 4.773
0.295 4.092 4.637
0.192 3.672 4.594
0.509 3.687 4.573
0.426 3.459 4.663
0.082 4.733 4.890
-0.019 4.538 4.724
0.191 4.566 5.114
0.173 4.261 5.066
0.447 3.964 4.987
0.480 3.842 4.756
0.634 3.422 4.684
1.623 0.216 3.683
0.095 4.862 5.010
-0.020 4.969 5.174
0.311 4.595 4.830
0.455 4.471 5.075
0.474 4.376 4.913
0.347 4.242 5.168
0.665 3.855 4.839
0.483 3.642 4.811
2.061 0.108 3.882
0.174 5.464 5.371
-0.010 5.416 5.269
0.313 5.118 5.121
0.331 4.872 5.200
0.257 4.715 5.137
0.532 4.541 5.104
0.492 4.392 5.372
0.799 4.309 5.089
0.782 4.045 5.080
1.982 0.271 4.248
2.196 0.299 4.009
0.262 5.381 5.582
0.369 5.410 5.585
0.398 4.953 5.233
0.635 4.869 5.450
0.369 4.750 5.321
0.639 4.597 5.293
0.716 4.280 5.493
0.702 4.256 5.241
2.069 0.339 4.510
2.098 0.166 4.122
0.294 5.592 5.730
0.395 5.400 5.651
0.722 4.933 5.442
0.597 4.846 5.602
0.633 4.522 5.412
0.783 4.408 5.298
0.903 4.588 5.696
1.005 4.092 5.473
2.288 0.421 4.642
2.601 0.218 4.268
0.688 5.394 5.978
0.773 5.153 5.901
0.838 5.159 5.553
0.850 4.863 5.772
0.999 4.864 5.454
1.037 4.406 5.476
0.974 4.409 5.521
2.668 0.413 4.634
2.683 0.045 4.478
0.586 5.347 6.104
0.736 5.421 5.735
0.935 5.188 5.702
0.896 4.759 5.731
1.061 4.720 5.871
1.077 4.441 5.670
2.857 0.203 4.745
1.040 5.376 6.176
1.013 5.364 5.883
0.979 5.153 5.949
1.284 5.032 6.039
1.184 4.815 5.865
2.918 0.390 4.855
3.065 -0.056 4.944
1.022 5.586 6.392
1.186 5.390 6.051
1.319 5.296 6.316
1.138 4.856 6.104
1.256 4.644 6.179
1.301 5.050 6.220
-0.144 3.119 4.303
0.055 3.021 4.493
0.207 2.876 4.157
-0.073 3.652 4.596
0.285 3.563 4.495
0.087 3.274 4.399
0.286 2.945 4.556
0.182 4.257 4.756
0.065 3.714 4.741
0.223 3.639 4.831
0.132 3.619 4.765
0.475 3.094 4.812
0.069 4.363 4.940
0.195 4.113 5.140
0.315 3.905 4.861
0.537 3.628 4.854
-0.099 4.423 5.044
0.206 4.316 5.080
0.485 4.300 5.154
0.488 4.144 5.182
0.320 4.019 5.197
0.555 3.678 5.235
1.746 0.061 4.297
0.116 5.057 5.561
0.027 4.914 5.577
0.194 4.806 5.213
0.335 4.709 5.476
0.151 4.489 5.220
0.572 4.185 5.263
0.455 4.264 5.237
0.716 3.989 5.291
2.037 -0.049 4.242
0.172 5.381 5.796
0.114 5.239 5.519
0.261 5.041 5.555
0.401 4.735 5.512
0.536 4.492 5.411
0.628 4.305 5.296
0.569 4.221 5.605
0.764 4.203 5.434
1.906 0.240 4.425
2.261 0.106 4.280
0.103 5.499 5.853
0.421 5.112 5.625
0.329 4.981 5.851
0.595 4.679 5.679
0.489 4.480 5.464
0.575 4.523 5.651
0.976 4.375 5.638
0.783 4.281 5.649
2.317 0.335 4.763
2.355 0.176 4.732
0.574 5.546 5.886
0.419 5.343 5.756
0.416 5.007 5.694
0.483 4.634 5.649
0.696 4.692 5.777
0.925 4.271 5.573
0.832 4.302 5.768
2.572 0.201 4.841
2.376 0.236 4.681
0.526 5.588 6.236
0.722 5.120 6.047
0.747 5.183 6.023
0.755 4.658 6.123
0.940 4.517 6.069
1.124 4.306 5.886
1.131 4.453 6.028
2.558 -0.034 4.901
0.869 5.460 6.313
0.890 5.339 6.306
0.801 5.048 6.043
0.920 4.713 6.118
1.019 4.467 6.015
0.950 4.346 6.001
2.898 0.183 5.064
1.140 4.860 6.188
1.156 4.586 6.116
0.024 3.076 4.631
0.054 3.428 4.758
0.112 3.436 5.052
-0.057 4.052 5.372
0.204 3.899 5.294
-0.010 3.968 5.256
0.062 3.777 5.234
0.139 4.214 5.381
0.122 4.080 5.288
0.152 3.871 5.409
0.301 3.825 5.450
-0.085 4.696 5.475
0.125 4.543 5.420
0.234 4.242 5.265
0.463 4.154 5.493
0.562 3.908 5.508
-0.091 4.909 5.890
0.080 4.864 5.858
0.337 4.760 5.647
0.203 4.638 5.735
0.363 4.405 5.643
0.398 4.211 5.608
0.388 4.126 5.701
0.124 5.318 5.943
0.237 5.164 5.788
0.457 4.866 5.940
0.466 4.610 5.868
0.367 4.509 5.928
0.391 4.295 5.729
0.758 4.234 5.770
0.875 4.188 5.633
0.178 5.282 6.241
0.455 5.268 6.233
0.415 4.931 5.984
0.560 4.691 5.934
0.701 4.362 5.818
0.736 4.131 5.823
0.934 4.255 6.184
0.536 5.286 6.219
0.399 5.275 6.352
0.668 4.882 6.189
0.707 4.600 6.023
0.901 4.525 5.959
0.642 4.426 5.857
0.835 4.374 6.121
2.587 -0.152 5.221
0.665 4.711 6.449
0.911 4.538 6.116
0.841 4.256 6.098
2.697 0.014 5.359
0.056 4.026 5.452
0.007 4.025 5.481
0.055 4.266 5.714
0.020 4.231 5.681
0.302 4.127 5.592
0.112 4.522 5.679
0.078 4.535 5.835
0.191 4.180 5.871
0.213 4.057 5.692
-0.139 5.183 6.304
0.191 5.151 5.926
0.205 4.895 5.978
0.179 4.544 5.855
0.158 4.570 5.821
0.302 4.059 5.811
0.654 4.151 5.866
0.013 5.336 6.114
0.408 5.108 6.190
0.241 4.722 6.348
0.309 4.753 6.288
0.564 4.398 5.950
0.491 4.117 6.037
0.526 4.089 6.139
0.514 4.751 6.115
0.709 4.494 6.313
0.576 4.118 6.325
0.098 4.260 6.023
0.016 4.735 6.034
0.255 4.459 5.956
0.330 4.400 6.044
0.245 4.089 6.115
0.352 4.168 6.188
0.266 4.715 6.280
0.433 4.289 6.069
0.473 4.263 6.225
2.682 0.118 6.139
2.101 0.152 6.246
0.316 3.459 2.532
0.256 3.429 2.563
0.478 3.276 2.321
0.341 2.869 2.324
0.452 2.695 2.413
0.551 2.645 2.195
0.551 2.139 2.145
0.268 3.698 2.490
0.522 3.542 2.614
0.609 3.433 2.464
0.390 3.099 2.564
0.770 2.806 2.338
0.699 2.911 2.570
0.885 2.569 2.324
0.775 2.493 2.278
1.050 2.271 2.271
0.241 3.957 2.834
0.349 3.783 2.728
0.722 3.458 2.667
0.480 3.379 2.676
0.750 3.130 2.718
0.911 3.071 2.471
0.921 2.735 2.393
0.884 2.581 2.481
1.107 2.197 2.533
1.133 2.128 2.228
1.013 1.818 2.463
0.593 3.963 3.164
0.608 3.712 3.046
0.734 3.584 2.867
0.727 3.534 2.730
0.831 3.258 2.656
0.826 3.032 2.800
1.178 2.947 2.736
1.004 2.677 2.749
1.028 2.306 2.618
1.151 2.134 2.587
1.122 2.120 2.453
0.613 3.907 3.186
0.759 3.958 3.245
0.905 3.751 3.073
0.935 3.418 3.066
1.085 3.206 2.809
1.252 2.996 2.859
1.341 2.755 2.723
1.271 2.717 2.837
1.425 2.289 2.919
1.318 2.235 2.854
1.272 1.879 2.705
1.383 1.885 2.575
1.751 1.624 2.498
1.069 3.928 3.363
0.873 3.860 3.160
1.089 3.490 3.237
1.258 3.591 3.320
1.120 3.199 2.951
1.181 2.912 3.068
1.288 2.741 2.922
1.342 2.711 2.963
1.491 2.476 3.054
1.712 2.301 2.855
1.515 1.903 2.815
1.704 1.719 2.603
1.738 1.520 2.761
1.758 1.513 2.730
1.163 3.989 3.547
1.212 3.570 3.357
1.354 3.498 3.275
1.326 3.376 3.172
1.472 3.216 3.081
1.363 3.006 3.206
1.562 2.690 3.298
1.701 2.388 3.246
1.750 2.159 3.083
1.781 1.889 3.059
1.730 1.922 2.987
1.799 1.660 2.877
2.092 1.528 2.853
2.126 1.092 2.723
2.120 0.989 2.804
1.374 3.539 3.410
1.666 3.269 3.539
1.477 3.230 3.538
1.575 2.676 3.208
1.739 2.688 3.437
1.717 2.509 3.352
1.886 2.169 3.255
1.879 2.005 3.295
2.171 1.861 3.199
2.057 1.500 3.006
1.979 1.492 3.033
2.310 1.290 2.759
2.205 1.119 2.938
2.515 0.731 2.674
2.467 0.619 2.638
1.611 2.931 3.653
1.870 2.904 3.548
1.806 2.730 3.408
1.813 2.446 3.471
2.153 2.299 3.493
2.137 2.046 3.120
2.164 1.820 3.315
2.063 1.671 3.102
2.149 1.511 2.961
2.231 1.114 3.202
2.375 0.890 3.105
2.671 0.633 2.979
2.460 0.539 2.829
2.738 0.375 2.667
0.727 5.954 4.246
2.004 2.841 3.717
1.950 2.465 3.454
2.309 2.450 3.432
2.106 2.235 3.399
2.391 1.706 3.534
2.557 1.546 3.339
2.593 1.365 3.367
2.610 1.166 3.208
2.790 1.021 3.086
2.848 0.978 3.046
2.913 0.585 3.220
3.022 0.328 2.904
0.795 5.970 4.341
1.066 5.712 4.433
2.154 2.355 3.664
2.219 2.204 3.525
2.518 2.190 3.574
2.572 1.937 3.458
2.604 1.716 3.356
2.542 1.623 3.256
2.608 1.419 3.255
2.960 1.047 3.205
2.902 0.744 3.324
2.906 0.532 3.344
2.897 0.365 3.167
1.097 6.011 4.565
1.055 5.907 4.453
2.610 2.164 3.878
2.674 1.945 3.518
2.828 1.528 3.773
2.736 1.541 3.598
3.017 1.327 3.555
2.808 1.119 3.553
3.132 0.956 3.521
2.971 0.683 3.359
3.035 0.319 3.203
1.190 6.038 4.883
1.348 5.861 4.833
2.882 1.992 3.997
2.954 1.916 3.864
2.749 1.533 3.694
2.855 1.396 3.553
2.870 1.437 3.615
3.097 1.003 3.793
3.249 0.860 3.490
3.216 0.780 3.609
3.241 0.643 3.476
1.562 5.963 4.983
1.282 6.003 4.744
2.971 1.888 3.905
3.109 1.648 4.067
3.168 1.360 3.905
3.146 1.232 3.948
3.271 1.013 3.647
3.462 0.897 3.761
3.275 0.853 3.529
3.645 0.614 3.436
1.673 6.118 5.114
3.079 1.653 4.137
3.371 1.384 4.099
3.257 1.465 3.863
3.580 1.127 4.023
3.563 0.750 3.977
3.606 0.812 3.715
3.633 0.536 3.892
3.493 1.378 4.223
3.521 0.970 3.948
3.842 0.765 4.149
0.345 3.182 2.241
0.135 2.909 2.105
0.179 2.646 2.113
0.122 3.617 2.404
0.168 3.449 2.549
0.252 3.027 2.529
0.328 2.907 2.234
0.534 2.884 2.195
0.629 2.489 2.253
0.794 2.333 2.214
-0.040 3.436 2.536
0.163 3.164 2.707
0.360 3.053 2.529
0.313 2.720 2.329
0.441 2.750 2.464
0.189 3.973 2.780
0.134 3.628 2.965
0.079 3.459 2.612
0.494 3.444 2.788
0.401 3.088 2.721
0.329 2.844 2.446
0.500 2.674 2.721
0.452 2.308 2.382
0.810 2.088 2.520
0.416 4.092 3.123
0.225 3.888 3.043
0.243 3.673 2.778
0.385 3.233 2.957
0.524 2.989 2.720
0.770 2.749 2.730
0.687 2.821 2.838
0.939 2.534 2.710
0.760 2.431 2.731
0.940 2.133 2.515
0.381 4.296 3.203
0.252 3.982 3.007
0.581 3.825 3.076
0.576 3.482 3.207
0.482 3.245 2.936
0.557 3.044 3.091
0.715 3.003 2.885
0.784 2.819 2.829
0.910 2.537 2.821
1.033 2.264 2.851
0.928 1.995 2.730
0.981 1.743 2.576
0.335 4.378 3.463
0.596 4.091 3.398
0.656 4.043 3.281
0.687 3.816 3.441
0.811 3.708 3.069
0.691 3.499 3.236
0.802 3.251 2.957
0.887 2.883 3.184
1.154 2.533 3.152
1.048 2.518 2.860
1.236 2.385 2.840
1.167 2.138 3.040
1.375 1.877 2.775
1.445 1.626 2.643
0.702 4.239 3.737
0.848 4.225 3.561
0.696 3.800 3.454
0.892 3.937 3.369
0.820 3.545 3.466
0.855 3.358 3.161
1.030 3.072 3.458
1.019 2.869 3.060
1.043 2.851 3.044
1.214 2.370 3.048
1.304 2.410 3.086
1.403 2.049 3.085
1.593 1.774 2.817
1.575 1.724 3.036
1.627 1.388 2.874
0.798 4.493 3.924
0.910 4.135 3.835
0.762 3.838 3.474
0.941 3.805 3.716
1.178 3.736 3.625
0.981 3.219 3.634
1.123 3.139 3.314
1.164 2.939 3.440
1.405 2.826 3.306
1.597 2.465 3.263
1.343 2.410 3.061
1.667 2.169 3.105
1.764 1.915 2.963
1.687 1.689 3.031
1.825 1.679 2.831
1.918 1.214 2.865
1.887 0.953 2.968
1.943 0.776 2.797
1.136 4.022 3.925
1.167 3.704 3.904
1.368 3.439 3.660
1.327 3.371 3.623
1.380 3.347 3.716
1.303 2.875 3.709
1.695 2.760 3.531
1.464 2.391 3.526
1.575 2.357 3.217
1.824 2.139 3.274
1.770 1.917 3.223
1.910 1.664 3.353
1.932 1.527 3.120
1.981 1.313 3.042
2.113 1.206 3.151
2.315 0.745 2.845
2.194 0.741 2.970
2.385 0.472 2.740
2.483 0.303 2.935
0.417 5.975 4.214
0.448 5.825 4.291
1.460 2.870 3.552
1.559 2.867 3.738
1.903 2.593 3.657
1.956 2.476 3.636
1.880 2.125 3.434
2.091 1.827 3.309
2.131 1.775 3.308
2.068 1.676 3.479
2.249 1.165 3.396
2.084 1.184 3.032
2.239 0.918 3.039
2.551 0.886 3.037
2.318 0.488 3.039
2.632 0.233 3.019
0.639 5.904 4.354
0.504 5.730 4.325
0.725 5.615 4.334
0.943 5.250 4.341
2.053 2.284 3.741
2.087 2.122 3.693
2.250 1.878 3.433
2.373 1.675 3.352
2.438 1.450 3.635
2.319 1.308 3.475
2.478 1.218 3.259
2.522 1.107 3.164
2.440 0.910 3.234
2.475 0.720 3.297
2.828 0.200 3.250
0.683 5.838 4.652
0.731 5.779 4.430
0.974 5.537 4.430
1.059 5.271 4.251
2.143 2.278 3.723
2.144 1.815 3.560
2.461 1.729 3.812
2.474 1.589 3.498
2.359 1.296 3.662
2.473 1.331 3.575
2.782 0.981 3.389
2.698 0.828 3.520
2.791 0.587 3.526
2.765 0.389 3.328
1.085 5.780 4.903
1.124 5.794 4.573
1.166 5.671 4.560
1.149 5.441 4.503
2.518 2.038 3.906
2.585 1.777 3.908
2.490 1.656 3.827
2.634 1.505 3.686
2.833 1.268 3.726
2.672 0.985 3.575
2.767 0.745 3.544
2.802 0.601 3.550
3.062 0.389 3.427
1.157 5.775 4.826
1.279 5.774 4.668
1.218 5.601 4.783
2.759 1.903 3.797
2.659 1.510 3.927
2.903 1.292 3.992
2.782 1.283 3.792
2.982 0.935 3.820
2.893 0.927 3.588
3.199 0.657 3.819
3.303 0.452 3.725
1.248 5.962 5.015
1.356 5.893 4.819
3.034 1.682 4.008
3.148 1.584 4.079
3.038 1.211 3.856
3.029 1.194 4.070
3.355 0.909 3.937
3.279 0.489 3.973
3.518 0.221 3.909
1.296 6.127 5.189
1.571 5.695 4.987
3.191 1.321 4.038
3.177 1.052 4.111
3.485 0.807 3.986
3.291 0.588 3.812
3.580 0.245 3.778
0.116 3.408 2.599
0.101 3.275 2.677
0.093 3.020 2.661
0.403 2.715 2.586
0.398 2.813 2.536
-0.010 3.065 2.777
-0.065 3.097 2.541
0.191 2.744 2.449
-0.101 3.771 2.998
0.259 3.342 2.958
0.001 3.328 2.792
0.410 3.044 2.791
0.446 2.764 2.646
0.301 2.511 2.897
0.499 2.424 2.675
0.132 3.853 3.349
0.194 3.983 3.191
0.168 3.455 3.274
0.215 3.421 3.194
0.502 3.341 3.153
0.413 2.880 2.886
0.418 2.781 3.088
0.515 2.638 2.714
0.548 2.410 2.739
0.524 2.142 2.733
-0.032 4.130 3.296
0.190 4.187 3.563
0.141 3.764 3.228
0.327 3.662 3.289
0.461 3.435 3.153
0.369 3.384 3.020
0.639 3.153 3.299
0.697 2.905 3.232
0.643 2.710 3.111
0.701 2.555 2.839
1.022 2.073 3.089
0.363 4.421 3.729
0.336 4.090 3.742
0.212 4.147 3.423
0.362 3.962 3.551
0.599 3.699 3.355
0.535 3.553 3.474
0.848 3.309 3.388
0.921 2.976 3.377
0.728 2.829 3.272
0.860 2.454 3.004
0.941 2.429 3.074
1.180 2.188 3.037
1.033 2.179 3.196
0.420 4.604 3.863
0.534 4.628 3.932
0.539 4.148 3.704
0.581 4.227 3.611
0.581 3.848 3.609
0.540 3.825 3.512
0.880 3.521 3.394
0.666 3.388 3.308
0.957 3.135 3.319
0.832 2.903 3.270
1.234 2.817 3.245
1.275 2.353 3.137
1.158 2.404 3.131
1.184 2.010 3.272
1.402 1.701 3.217
0.152 4.776 3.877
0.453 4.794 4.189
0.486 4.694 3.979
0.704 4.364 3.806
0.881 4.018 3.957
0.754 3.795 3.657
0.698 3.778 3.866
0.866 3.586 3.584
0.822 3.399 3.500
1.081 3.113 3.466
1.202 2.983 3.410
1.188 2.738 3.378
1.114 2.386 3.262
1.380 2.412 3.547
1.279 2.040 3.500
1.521 1.702 3.379
1.487 1.469 3.069
1.796 1.373 3.061
1.814 1.321 3.067
0.304 5.280 4.319
0.300 5.287 4.026
0.370 5.068 3.916
0.468 4.691 3.907
0.727 4.788 4.303
0.695 4.424 4.195
0.966 4.278 4.237
0.908 3.970 4.107
1.028 3.833 4.022
1.175 3.782 3.817
1.251 3.425 3.899
1.192 3.446 3.972
1.285 3.021 3.700
1.259 2.858 3.629
1.317 2.636 3.652
1.289 2.636 3.532
1.502 2.422 3.684
1.497 1.917 3.307
1.622 2.028 3.270
1.860 1.642 3.535
1.789 1.374 3.155
2.053 1.226 3.431
1.969 0.991 3.056
1.995 0.795 3.255
2.267 0.517 2.937
2.081 0.409 2.990
2.202 0.171 3.103
0.205 5.708 4.517
0.409 5.443 4.252
0.289 5.256 4.494
0.648 5.148 4.319
0.551 5.082 4.371
0.486 4.881 4.135
0.643 4.935 4.439
0.883 4.420 4.235
0.867 4.477 4.233
1.198 4.155 4.026
1.575 2.490 3.785
1.661 2.114 3.838
1.829 2.010 3.614
1.899 1.832 3.578
1.958 1.814 3.432
1.825 1.454 3.394
2.171 1.093 3.479
2.003 1.161 3.204
2.264 0.887 3.468
2.178 0.550 3.407
2.242 0.496 3.163
2.445 0.260 3.310
0.336 5.905 4.532
0.500 5.455 4.675
0.487 5.238 4.317
0.663 5.180 4.497
0.596 5.032 4.420
0.679 4.591 4.339
1.028 4.896 4.377
2.014 1.857 3.564
2.056 1.648 3.537
2.114 1.586 3.554
2.099 1.124 3.629
2.113 1.151 3.573
2.366 0.718 3.477
2.331 0.721 3.249
2.360 0.582 3.507
2.546 0.242 3.408
0.583 5.969 4.829
0.617 5.604 4.598
0.939 5.502 4.578
0.916 5.315 4.469
0.810 5.011 4.694
0.929 4.681 4.476
2.178 1.866 3.935
2.151 1.318 3.918
2.206 1.360 3.579
2.487 1.104 3.636
2.587 0.904 3.707
2.623 0.606 3.672
2.540 0.628 3.538
2.588 0.249 3.359
0.844 5.930 5.066
0.933 5.467 4.733
0.948 5.573 4.815
0.926 5.224 4.566
1.056 5.077 4.824
2.641 1.356 4.106
2.386 1.396 3.954
2.451 0.930 3.780
2.799 0.791 3.876
2.934 0.755 3.664
2.810 0.612 3.632
3.000 0.463 3.727
0.794 5.702 5.080
0.966 5.456 4.884
1.219 5.329 4.890
1.120 5.389 4.856
2.748 1.536 4.059
2.781 1.456 4.005
2.721 1.239 4.044
2.917 1.075 3.971
2.766 0.570 3.828
2.968 0.486 3.876
3.225 0.258 3.739
0.994 5.701 5.350
1.331 5.575 5.124
1.273 5.290 5.025
1.245 5.156 5.047
2.925 1.266 4.328
2.798 1.223 4.113
2.888 0.871 3.942
2.938 0.709 3.960
3.306 0.344 3.941
3.256 0.182 4.049
1.176 5.766 5.313
1.329 5.689 5.474
1.532 5.438 5.279
3.213 0.878 4.382
3.191 0.619 4.256
3.451 0.428 4.201
3.281 0.217 4.192
1.303 6.057 5.655
0.051 3.011 2.557
-0.035 2.867 2.526
0.038 2.814 2.475
6.353 6.343 3.149
5.688 6.154 3.050
5.952 5.987 3.077
5.846 6.007 2.886
5.944 6.048 3.147
5.972 5.961 3.055
6.212 5.866 2.954
6.287 6.144 3.362
6.241 5.845 3.333
5.460 6.032 2.853
5.400 5.895 2.903
5.410 6.343 3.132
5.424 6.124 3.088
5.835 6.403 3.122
5.870 5.954 3.044
5.850 5.645 3.202
5.945 5.713 3.236
5.863 6.093 3.406
5.956 5.999 3.262
6.037 5.915 3.138
6.024 5.788 3.228
5.944 5.324 3.223
6.154 6.135 3.459
6.191 5.998 3.401
6.197 6.013 3.399
6.155 5.833 3.554
6.094 6.260 3.826
5.225 6.143 3.127
5.351 5.814 3.175
5.199 6.269 3.223
5.627 5.902 3.043
5.547 5.680 3.109
5.439 6.101 3.463
5.547 5.826 3.421
5.805 5.808 3.124
5.851 5.664 3.095
5.653 6.339 3.562
5.800 5.875 3.360
5.732 5.616 3.286
5.745 5.401 3.457
5.867 5.477 3.247
6.094 5.205 3.177
5.859 6.112 3.837
5.802 6.098 3.746
6.088 5.785 3.629
6.041 5.425 3.646
6.117 5.502 3.533
6.141 4.975 3.605
6.195 6.123 3.887
6.201 5.821 3.918
6.007 5.650 3.576
6.115 5.469 3.718
6.272 6.273 4.071
6.439 6.028 3.872
5.087 6.390 3.333
5.205 6.066 3.081
5.036 5.975 3.360
5.326 6.096 3.471
5.151 5.980 3.430
5.182 5.808 3.397
5.232 5.662 3.241
5.380 5.317 3.104
5.180 6.290 3.528
5.272 6.000 3.589
5.651 5.924 3.431
5.529 5.631 3.373
5.784 5.349 3.434
5.782 5.278 3.388
5.513 6.241 3.788
5.666 5.741 3.765
5.671 5.702 3.417
5.765 5.547 3.517
6.028 5.192 3.674
5.936 4.904 3.501
6.111 4.880 3.214
5.725 6.185 3.683
5.837 5.957 3.817
5.745 5.760 3.721
6.054 5.602 3.730
5.911 5.329 3.823
5.984 5.173 3.499
6.146 4.801 3.366
6.056 4.525 3.525
5.823 6.019 4.104
5.924 5.958 3.836
5.984 5.572 3.956
6.196 5.632 3.670
6.173 5.382 3.785
6.074 4.941 3.906
5.878 6.001 4.112
6.163 5.917 4.011
6.205 5.801 4.140
6.188 5.366 4.183
6.070 6.193 4.430
4.766 6.217 3.271
5.042 5.781 3.282
4.989 5.557 3.339
6.226 2.553 2.704
6.270 2.600 2.626
6.240 2.213 2.464
5.157 6.074 3.449
5.170 5.873 3.492
5.132 5.764 3.596
5.196 5.546 3.622
5.214 5.242 3.282
5.335 6.212 3.815
5.341 6.051 3.740
5.510 5.921 3.790
5.426 5.609 3.526
5.534 5.425 3.404
5.593 5.148 3.354
5.678 4.769 3.300
5.309 6.087 3.829
5.440 5.967 3.874
5.398 5.935 3.988
5.582 5.436 3.673
5.589 5.343 3.521
5.863 5.328 3.683
5.960 4.881 3.648
5.790 4.755 3.377
5.823 4.489 3.531
5.417 6.168 4.112
5.640 6.165 4.124
5.693 5.939 3.923
5.885 5.762 3.857
5.864 5.549 3.998
5.721 5.337 3.648
5.770 4.952 3.732
6.089 4.666 3.602
6.169 4.751 3.479
6.255 4.237 3.448
5.754 6.058 4.260
5.806 5.935 4.155
5.752 5.998 4.056
6.024 5.726 3.961
5.834 5.439 3.883
6.119 5.323 4.103
6.067 5.174 4.007
6.122 4.755 3.834
6.355 4.671 3.965
5.775 6.130 4.520
5.823 5.952 4.243
6.008 5.928 4.174
5.890 5.684 4.285
6.066 5.495 4.111
6.164 5.139 4.272
6.384 5.061 4.055
6.075 6.342 4.351
5.926 5.959 4.393
6.098 5.787 4.421
6.362 5.809 4.422
6.244 6.072 4.788
4.553 6.435 3.831
4.888 6.107 3.778
4.755 5.958 3.389
5.680 3.084 2.892
5.754 2.687 2.712
5.833 2.665 2.894
6.040 2.173 2.569
5.975 2.236 2.527
6.242 1.924 2.709
6.370 1.552 2.370
4.644 6.247 3.495
4.945 6.147 3.846
4.839 6.025 3.863
4.838 5.823 3.708
4.900 5.838 3.655
4.933 5.444 3.626
5.265 5.160 3.577
5.829 3.060 2.859
5.875 2.866 3.062
6.276 2.434 2.707
6.177 2.278 2.817
6.382 2.076 2.798
4.941 6.394 3.962
5.122 5.919 4.005
5.118 5.945 3.993
5.044 5.802 3.802
5.277 5.385 3.752
5.327 5.164 3.604
5.322 4.896 3.641
5.404 5.035 3.564
5.417 4.604 3.640
5.605 4.568 3.503
5.768 4.274 3.479
6.365 2.516 2.882
5.283 5.949 4.019
5.234 5.963 3.875
5.426 5.732 4.085
5.616 5.532 3.755
5.592 5.409 3.850
5.475 5.221 3.725
5.660 4.720 3.606
5.782 4.733 3.650
5.744 4.376 3.657
5.692 4.202 3.698
5.902 3.905 3.644
6.148 3.832 3.452
5.303 6.292 4.272
5.300 5.873 4.228
5.352 5.696 4.270
5.570 5.357 3.988
5.552 5.318 4.062
5.584 5.209 3.879
5.680 5.035 4.058
5.797 4.643 3.939
6.054 4.454 3.708
5.939 4.317 3.753
6.123 4.065 3.822
6.048 3.897 3.747
5.472 6.145 4.543
5.516 5.843 4.428
5.715 5.913 4.129
5.700 5.642 4.049
5.779 5.142 4.113
5.802 5.038 4.086
6.144 4.857 4.049
5.885 4.576 3.984
5.988 4.343 3.987
6.110 4.406 3.833
6.211 4.261 3.737
5.544 6.171 4.460
5.949 6.005 4.499
5.926 5.860 4.257
5.944 5.616 4.254
6.004 5.288 4.444
6.010 5.035 4.313
5.968 5.020 4.093
6.172 4.737 4.142
5.752 6.234 4.624
5.916 5.866 4.610
6.169 5.937 4.421
5.962 5.706 4.700
6.252 5.208 4.493
6.179 5.278 4.407
5.929 5.862 4.644
6.181 5.775 4.647
6.080 5.742 4.665
4.574 6.095 3.888
5.531 3.365 3.140
5.494 2.977 2.933
5.744 2.702 3.026
5.611 2.747 2.828
5.870 2.521 3.040
6.033 2.212 2.636
6.039 2.080 2.634
5.855 1.753 2.875
6.076 1.685 2.826
4.524 6.108 3.878
4.822 6.346 4.036
4.576 6.006 3.812
4.664 5.851 3.924
4.901 5.681 3.744
5.450 3.906 3.403
5.385 3.790 3.445
5.599 3.338 3.257
5.701 3.480 3.076
5.901 2.933 3.055
5.856 2.944 3.103
5.934 2.567 2.963
5.843 2.644 2.909
5.922 2.433 3.011
6.085 2.227 3.023
6.176 1.777 2.684
6.337 1.728 2.682
4.606 6.196 3.933
4.994 6.132 3.969
4.949 6.143 4.004
5.004 5.947 4.066
5.206 5.481 4.023
5.214 5.254 3.809
5.371 5.028 4.005
5.263 5.097 3.981
5.236 4.666 3.707
5.385 4.504 3.637
5.541 4.313 3.761
5.709 4.071 3.423
5.739 4.069 3.649
5.775 3.737 3.505
5.870 3.605 3.565
5.683 3.324 3.274
6.046 3.272 3.488
5.917 3.083 3.457
5.915 2.660 3.300
6.171 2.474 3.330
6.155 2.465 3.095
4.839 6.037 4.182
5.127 6.117 4.242
5.062 5.936 4.226
5.281 5.777 3.991
5.145 5.516 3.961
5.339 5.511 4.177
5.255 5.361 3.873
5.294 4.961 4.031
5.675 4.915 3.990
5.670 4.416 3.715
5.656 4.198 3.928
5.812 4.089 3.874
5.907 3.819 3.583
5.952 3.699 3.538
6.063 3.528 3.413
6.038 3.279 3.371
5.972 3.039 3.477
6.222 2.918 3.582
6.325 2.650 3.289
4.983 6.053 4.419
5.323 6.252 4.357
5.264 6.029 4.394
5.199 5.801 4.466
5.215 5.713 4.257
5.580 5.423 4.039
5.631 5.204 4.169
5.733 4.854 4.092
5.718 4.810 3.982
5.733 4.565 4.074
5.700 4.552 3.794
5.987 4.224 3.941
6.080 3.886 3.971
6.118 3.959 3.942
6.189 3.622 3.879
6.161 3.355 3.620
5.285 6.213 4.284
5.327 6.054 4.662
5.352 5.893 4.480
5.438 5.653 4.278
5.588 5.532 4.377
5.768 5.203 4.307
5.623 4.940 4.107
5.941 4.938 4.373
5.973 4.452 4.094
6.168 4.586 4.161
6.026 4.262 4.154
6.079 3.822 3.891
6.318 3.677 4.127
6.405 3.743 4.018
5.465 5.740 4.541
5.852 5.823 4.609
5.922 5.432 4.700
5.775 5.283 4.476
5.839 5.074 4.354
6.044 4.741 4.189
5.984 4.581 4.311
6.074 4.258 4.106
6.327 4.202 4.248
5.794 6.065 4.939
5.897 5.858 4.553
5.998 5.365 4.590
5.922 5.323 4.631
5.981 5.068 4.672
6.003 4.922 4.579
6.078 4.656 4.478
6.064 5.850 4.800
6.119 5.503 4.730
6.061 5.268 4.948
6.395 5.067 4.865
5.247 3.591 3.209
5.505 3.518 3.220
5.449 3.315 3.232
5.381 3.153 3.009
5.465 2.951 3.029
5.600 2.487 2.974
5.675 2.498 3.016
5.775 2.133 3.043
5.746 2.020 2.831
5.946 1.633 2.805
5.811 1.656 2.788
5.180 4.190 3.668
5.399 4.074 3.570
5.321 3.700 3.551
5.569 3.794 3.503
5.660 3.529 3.380
5.487 3.299 3.443
5.550 3.014 3.283
5.777 2.909 3.102
5.811 2.762 3.352
6.007 2.329 3.096
5.897 2.243 3.129
6.161 1.906 3.154
6.113 1.708 2.954
6.300 1.753 2.997
5.028 5.192 4.120
5.211 5.000 3.837
5.242 4.842 4.140
5.114 4.730 3.980
5.349 4.395 3.738
5.246 4.105 3.634
5.307 4.238 3.658
5.450 3.865 3.673
5.642 3.692 3.564
5.613 3.469 3.526
5.862 3.262 3.560
5.786 3.009 3.459
5.914 2.952 3.352
5.772 2.781 3.464
6.081 2.384 3.227
5.985 2.147 3.140
6.111 2.109 3.351
6.274 1.746 3.083
5.092 5.875 4.497
5.004 5.675 4.304
5.167 5.474 4.063
5.185 5.163 4.159
5.446 4.952 4.218
5.271 4.797 3.941
5.561 4.671 4.169
5.553 4.439 3.964
5.766 4.169 3.983
5.809 3.919 3.885
5.731 3.552 3.717
5.757 3.487 3.659
5.817 3.232 3.643
6.077 3.054 3.558
5.982 2.709 3.455
6.203 2.683 3.489
6.246 2.422 3.620
6.154 2.100 3.607
5.099 5.602 4.381
5.253 5.724 4.435
5.389 5.476 4.341
5.394 5.305 4.242
5.441 4.963 4.307
5.441 4.642 4.369
5.636 4.359 4.183
5.781 4.482 3.937
5.775 3.964 4.103
5.717 3.948 4.141
5.996 3.688 4.057
5.923 3.373 3.856
6.226 3.258 3.667
5.950 3.181 3.870
6.073 2.871 3.877
5.227 5.795 4.620
5.541 5.721 4.627
5.628 5.530 4.415
5.463 5.201 4.313
5.796 4.979 4.418
5.658 4.586 4.330
5.900 4.535 4.355
5.684 4.404 4.239
6.028 3.993 4.251
5.868 3.783 4.052
5.931 3.565 3.952
6.094 3.568 3.888
6.051 3.116 4.082
6.425 3.098 3.826
5.596 5.451 4.623
5.631 5.370 4.576
5.593 5.109 4.497
5.928 4.874 4.541
6.019 4.600 4.574
5.786 4.638 4.536
5.988 4.238 4.525
6.223 4.090 4.383
6.293 3.907 4.316
6.318 3.875 4.165
5.699 5.513 5.001
5.896 5.015 4.660
6.081 5.089 4.583
6.183 4.750 4.742
5.982 4.749 4.456
6.123 4.520 4.582
6.196 4.160 4.673
6.145 5.556 5.068
6.222 5.287 5.038
6.282 4.861 4.708
6.252 4.895 4.801
6.360 4.417 4.594
6.279 4.834 5.059
6.296 4.561 5.189
5.159 3.647 3.677
4.939 3.349 3.445
5.087 3.412 3.282
5.296 2.991 3.355
5.450 2.751 3.449
5.453 2.569 3.444
5.466 2.555 3.172
5.476 2.290 3.284
5.800 2.272 3.005
5.582 1.801 2.988
5.592 1.833 2.963
5.717 1.563 2.868
5.196 4.263 3.744
5.306 3.938 3.812
5.327 3.801 3.729
5.349 3.543 3.572
5.366 3.373 3.530
5.479 3.046 3.543
5.593 2.988 3.395
5.711 2.650 3.264
5.526 2.606 3.362
5.856 2.305 3.212
5.896 2.198 3.118
5.878 2.015 3.199
5.797 1.662 3.245
6.019 1.528 2.986
5.114 4.600 4.245
5.183 4.549 3.981
5.246 4.330 4.000
5.319 3.838 4.019
5.339 3.879 3.843
5.611 3.427 3.843
5.551 3.387 3.694
5.456 2.993 3.689
5.554 2.962 3.593
5.909 2.677 3.552
5.707 2.374 3.403
5.744 2.263 3.379
5.844 2.170 3.581
5.941 1.910 3.310
6.092 1.623 3.219
5.046 4.972 4.196
5.286 4.822 4.271
5.426 4.727 4.226
5.379 4.550 4.144
5.449 4.310 4.164
5.538 4.092 4.020
5.359 3.953 3.841
5.726 3.683 3.804
5.568 3.404 3.758
5.652 3.290 3.800
5.652 2.940 3.850
5.802 2.692 3.752
6.105 2.390 3.691
5.912 2.503 3.538
6.223 2.321 3.718
5.223 5.212 4.501
5.169 5.147 4.559
5.380 4.806 4.249
5.387 4.587 4.363
5.519 4.563 4.291
5.717 4.115 4.102
5.450 3.878 4.115
5.784 3.655 4.007
5.846 3.758 4.172
6.009 3.227 4.156
5.738 3.291 4.174
6.020 3.066 3.923
6.092 2.726 3.790
6.279 2.717 3.856
5.262 5.121 4.538
5.360 5.028 4.622
5.576 4.682 4.621
5.509 4.655 4.501
5.504 4.539 4.482
5.809 4.320 4.337
5.860 4.215 4.335
5.818 4.005 4.250
5.768 3.691 4.203
5.982 3.378 4.345
6.241 3.138 4.190
6.216 3.124 4.006
6.080 2.804 4.159
5.459 5.296 5.010
5.485 5.154 4.928
5.551 4.994 4.804
5.629 4.751 4.504
5.931 4.573 4.599
5.733 4.414 4.736
5.900 4.033 4.619
6.077 3.797 4.406
5.967 3.596 4.504
6.157 3.579 4.401
6.322 3.146 4.217
5.564 5.315 5.023
5.656 5.154 4.989
5.871 4.893 4.813
5.800 4.509 4.676
6.138 4.481 4.671
6.000 4.378 4.715
6.072 3.992 4.844
6.296 3.752 4.452
6.101 3.678 4.420
5.876 5.164 5.056
5.903 4.953 5.207
6.019 4.738 5.029
6.005 4.452 4.780
6.300 4.445 4.852
6.350 3.946 4.939
6.145 5.048 5.364
6.247 4.814 5.278
5.894 4.832 5.243
6.143 4.707 5.178
6.313 4.284 5.182
6.194 4.123 5.175
4.852 3.794 3.528
5.151 3.591 3.723
4.989 3.079 3.517
5.212 2.866 3.480
5.327 2.739 3.410
5.279 2.522 3.484
5.382 2.444 3.333
5.491 2.099 3.187
5.600 2.126 3.272
5.697 1.886 3.053
5.627 1.722 3.278
5.610 1.392 3.089
4.797 4.193 3.780
5.018 3.692 3.730
4.968 3.624 3.747
5.073 3.611 3.718
5.210 3.403 3.796
5.263 3.141 3.684
5.351 3.001 3.560
5.447 2.645 3.678
5.480 2.563 3.408
5.561 2.111 3.338
5.647 2.129 3.617
5.670 1.826 3.474
5.828 1.558 3.268
5.929 1.240 3.438
4.915 4.227 4.325
4.963 4.241 4.259
5.204 3.889 4.036
5.257 3.533 4.150
5.214 3.586 3.782
5.429 3.239 4.026
5.338 3.236 3.984
5.658 2.909 3.925
5.598 2.710 3.731
5.484 2.359 3.811
5.770 2.360 3.482
5.693 1.856 3.473
5.811 1.906 3.464
5.125 4.633 4.582
5.005 4.630 4.491
5.004 4.203 4.467
5.380 3.958 4.175
5.193 3.806 4.336
5.386 3.691 4.061
5.330 3.539 4.279
5.665 3.459 4.048
5.483 3.156 3.829
5.732 2.865 4.066
5.711 2.835 3.849
5.996 2.448 3.733
5.787 2.261 3.634
5.899 2.171 3.904
5.285 5.056 4.691
5.375 4.765 4.702
5.240 4.608 4.439
5.469 4.361 4.360
5.411 3.961 4.542
5.493 3.883 4.297
5.737 3.566 4.442
5.467 3.521 4.225
5.794 3.164 4.258
5.692 3.218 4.284
5.976 2.926 4.220
5.780 2.674 4.165
5.811 2.579 4.011
5.199 5.073 4.945
5.437 4.684 4.868
5.357 4.575 4.580
5.591 4.487 4.703
5.682 4.322 4.755
5.553 3.924 4.353
5.754 3.785 4.541
5.922 3.706 4.272
5.823 3.320 4.286
5.951 3.159 4.490
6.043 2.957 4.121
6.133 2.555 4.304
5.432 4.828 4.791
5.405 4.604 4.763
5.720 4.542 4.710
5.548 4.223 4.759
5.779 4.241 4.593
5.960 3.831 4.845
5.773 3.653 4.758
5.964 3.603 4.607
6.173 3.501 4.698
5.988 3.004 4.489
6.311 2.752 4.372
5.518 4.910 5.074
5.821 4.657 5.172
5.861 4.721 4.915
5.977 4.304 5.083
5.877 4.196 4.887
6.050 4.088 4.847
6.219 3.752 4.726
6.089 3.452 4.577
6.063 3.299 4.581
6.096 2.987 4.532
5.982 5.003 5.186
6.105 4.715 5.239
6.157 4.459 5.243
5.928 4.253 5.107
6.269 3.971 5.084
6.329 3.648 4.910
5.976 4.938 5.473
6.261 4.708 5.318
6.336 4.499 5.251
6.347 4.142 5.300
6.100 4.709 5.509
5.998 4.326 5.486
6.024 4.119 5.186
6.217 4.109 5.251
6.248 3.763 5.299
5.973 4.572 5.578
6.124 4.339 5.437
6.085 4.020 5.362
4.844 3.454 3.802
4.923 3.539 3.878
4.740 3.244 3.889
4.973 2.838 3.796
5.208 2.749 3.649
5.190 2.432 3.489
5.192 2.438 3.445
5.312 2.204 3.381
5.219 2.045 3.521
5.365 1.695 3.527
5.656 1.525 3.310
4.956 3.761 4.238
5.074 3.677 3.845
4.996 3.362 3.948
5.030 3.341 3.873
5.192 2.927 3.978
5.127 2.819 3.650
5.460 2.544 3.922
5.261 2.238 3.798
5.536 2.257 3.592
5.629 1.811 3.607
5.630 1.766 3.699
5.583 1.444 3.512
4.987 3.897 4.379
5.008 3.924 4.152
4.964 3.579 4.125
5.255 3.440 4.166
5.342 3.221 4.126
5.217 2.833 3.907
5.403 2.662 4.111
5.306 2.705 3.993
5.409 2.378 4.027
5.658 2.324 3.818
5.838 2.069 3.726
4.926 4.455 4.611
4.870 4.264 4.611
5.037 4.198 4.432
5.208 3.681 4.499
5.115 3.533 4.204
5.395 3.387 4.350
5.224 3.368 4.046
5.299 2.832 4.019
5.636 2.887 4.101
5.693 2.431 4.218
5.740 2.500 3.851
5.660 2.267 3.798
5.212 4.348 4.713
5.297 4.271 4.562
5.188 4.142 4.463
5.277 3.750 4.375
5.460 3.464 4.358
5.426 3.503 4.319
5.475 3.132 4.276
5.749 3.041 4.349
5.663 2.672 4.196
5.635 2.719 4.314
5.743 2.247 4.170
5.264 4.750 4.784
5.338 4.492 4.940
5.528 4.246 4.844
5.541 4.116 4.765
5.484 3.810 4.532
5.435 3.673 4.638
5.748 3.572 4.688
5.686 3.371 4.500
5.632 2.911 4.472
5.871 2.668 4.315
6.090 2.450 4.464
5.237 4.776 4.996
5.645 4.497 5.096
5.407 4.467 4.795
5.661 4.012 4.766
5.859 3.730 4.954
5.583 3.649 4.876
5.765 3.348 4.549
5.886 3.166 4.535
5.991 3.125 4.576
6.221 2.839 4.403
5.576 4.678 5.289
5.627 4.645 4.988
5.704 4.227 5.009
5.910 4.031 5.174
5.706 3.961 5.110
5.823 3.784 4.818
6.126 3.529 4.898
6.052 3.329 4.717
6.138 3.054 4.812
6.074 2.830 4.709
5.834 4.820 5.201
5.916 4.675 5.180
5.998 4.437 5.324
6.112 4.044 5.088
6.027 3.909 5.043
6.041 3.678 5.068
6.309 3.457 5.136
6.323 3.461 4.922
5.888 4.640 5.516
6.128 4.426 5.555
6.180 4.110 5.345
6.311 3.799 5.409
6.185 3.827 5.332
5.732 4.525 5.768
5.858 4.121 5.654
5.902 4.157 5.318
5.950 3.866 5.325
6.063 3.771 5.464
6.305 3.562 5.490
6.280 3.348 5.188
6.049 4.444 5.603
5.962 4.334 5.877
6.149 4.033 5.690
6.375 3.870 5.735
6.379 3.735 5.507
6.291 4.403 5.876
4.764 3.350 4.087
4.633 3.107 4.085
4.646 2.945 4.072
4.777 2.884 4.010
4.767 2.697 3.744
5.154 2.511 3.831
5.127 2.151 3.541
5.226 2.138 3.804
5.155 1.989 3.736
5.402 1.447 3.604
5.244 1.483 3.306
4.760 3.478 4.297
4.985 3.396 4.023
4.848 3.101 4.172
5.098 3.002 4.128
5.093 2.760 3.813
5.165 2.329 4.081
5.150 2.233 3.879
5.482 1.935 3.887
5.543 2.008 3.835
5.517 1.795 3.710
4.917 3.833 4.440
4.727 3.655 4.319
5.049 3.658 4.162
4.957 3.444 4.114
5.178 3.192 4.051
5.048 2.746 4.085
5.354 2.533 4.173
5.182 2.369 4.163
5.218 2.394 3.850
5.544 2.084 3.818
5.501 1.977 3.984
4.752 4.318 4.619
5.057 3.904 4.606
5.058 3.827 4.397
5.120 3.563 4.577
5.052 3.282 4.549
5.241 2.983 4.407
5.514 2.865 4.344
5.504 2.622 4.322
5.340 2.521 4.130
5.490 2.173 4.231
5.040 4.208 4.990
4.965 4.248 4.819
5.161 3.866 4.904
5.190 3.572 4.619
5.114 3.455 4.614
5.236 3.463 4.544
5.547 3.227 4.640
5.650 2.954 4.307
5.571 2.687 4.359
5.520 2.537 4.424
5.876 2.129 4.273
5.317 4.533 4.873
5.065 4.021 5.028
5.286 4.153 4.806
5.524 3.679 4.824
5.545 3.609 4.857
5.365 3.424 4.850
5.775 3.277 4.671
5.790 2.793 4.640
5.576 2.599 4.627
5.894 2.380 4.380
5.164 4.490 5.299
5.460 4.493 5.050
5.566 4.265 4.990
5.358 3.996 4.937
5.544 3.656 4.979
5.736 3.432 5.001
5.528 3.403 4.735
5.700 3.134 4.997
5.802 2.848 4.855
5.785 2.907 4.761
5.373 4.482 5.178
5.388 4.545 5.424
5.433 4.037 5.166
5.767 3.919 5.018
5.712 3.895 5.002
5.781 3.766 5.106
5.825 3.575 5.203
5.969 3.349 4.845
5.983 2.817 5.039
6.139 2.881 4.803
5.714 4.728 5.615
5.563 4.292 5.530
5.596 4.108 5.505
5.685 4.193 5.409
5.787 3.999 5.299
5.795 3.615 5.260
5.966 3.528 5.110
6.067 3.150 4.980
5.993 2.864 5.103
5.677 4.373 5.735
5.848 4.356 5.402
6.016 4.221 5.503
6.055 4.023 5.304
6.011 3.606 5.550
6.130 3.263 5.274
6.411 3.360 5.407
5.588 4.281 5.847
5.658 4.326 5.778
5.938 4.057 5.777
5.902 3.895 5.489
5.955 3.681 5.424
6.174 3.516 5.559
6.158 3.279 5.529
6.200 2.764 5.262
5.766 4.480 5.854
5.997 4.146 5.902
6.154 3.813 5.908
6.194 3.639 5.886
6.265 3.685 5.801
6.076 3.407 5.699
6.184 3.028 5.432
6.156 4.053 6.116
6.282 4.167 5.959
6.389 3.617 5.824
6.085 4.114 6.077
4.742 3.343 4.001
4.620 2.987 3.964
4.547 2.794 3.832
4.837 2.677 3.965
4.740 2.196 3.734
4.890 2.172 3.858
5.119 2.105 3.663
5.229 1.637 3.674
5.232 1.471 3.719
4.545 3.539 4.478
4.899 3.372 4.214
4.973 2.980 4.148
