4.896 5.078 4.706
4.568 5.044 4.627
6.108 5.180 5.344
5.827 5.286 5.116
5.742 5.349 5.105
5.448 5.202 4.924
5.260 5.279 4.805
5.089 5.294 4.706
4.871 5.191 4.459
4.799 5.245 4.505
6.203 5.324 5.119
5.980 5.435 5.089
5.769 5.381 4.874
5.593 5.515 4.876
5.493 5.479 4.778
5.208 5.332 4.557
5.032 5.310 4.498
4.748 5.515 4.326
6.179 5.660 5.148
6.109 5.659 4.965
5.884 5.576 4.774
5.743 5.529 4.767
5.496 5.577 4.443
5.262 5.601 4.359
5.085 5.609 4.319
5.047 5.661 4.089
6.065 5.659 4.791
6.056 5.767 4.652
5.801 5.721 4.543
5.535 5.792 4.388
5.494 5.767 4.292
5.211 5.762 4.256
5.071 5.729 4.076
6.093 5.991 4.541
5.794 5.855 4.454
5.727 5.892 4.306
5.517 5.836 4.109
5.403 5.858 3.958
5.032 5.913 3.950
5.873 6.007 4.321
5.714 6.142 4.072
5.534 6.048 3.941
5.312 6.151 3.825
5.230 6.022 3.860
5.816 6.236 4.056
5.623 6.116 3.917
5.463 6.118 3.820
5.318 6.170 3.613
4.337 4.229 5.040
4.522 4.406 5.153
4.395 4.382 4.846
4.865 4.448 5.180
4.724 4.466 4.842
4.574 4.466 4.714
5.231 4.534 5.079
4.938 4.712 4.921
4.811 4.584 4.879
4.591 4.633 4.715
5.437 4.797 4.986
5.125 4.784 4.949
5.033 4.822 4.816
4.756 4.777 4.601
4.621 4.804 4.453
5.697 4.838 5.021
5.518 4.919 5.019
5.422 5.010 4.904
5.115 4.880 4.680
4.938 5.001 4.464
4.672 4.848 4.342
6.057 4.996 4.949
5.807 5.096 4.872
5.500 5.067 4.713
5.312 5.120 4.675
5.222 5.077 4.628
4.940 5.205 4.358
4.886 5.070 4.379
6.096 5.224 4.959
5.973 5.286 4.752
5.770 5.182 4.647
5.461 5.358 4.456
5.305 5.319 4.525
5.035 5.363 4.331
4.922 5.295 4.238
6.219 5.361 4.749
5.969 5.502 4.576
5.762 5.448 4.605
5.517 5.370 4.323
5.478 5.391 4.380
5.293 5.334 4.210
5.007 5.462 3.981
6.131 5.622 4.725
6.017 5.588 4.514
5.850 5.516 4.476
5.649 5.559 4.326
5.584 5.508 4.127
5.290 5.487 4.086
5.073 5.676 3.799
6.211 5.685 4.401
5.992 5.753 4.283
5.756 5.721 4.217
5.635 5.761 4.014
5.365 5.732 3.814
5.182 5.806 3.678
6.063 5.829 4.207
5.826 5.847 4.043
5.611 5.922 3.915
5.502 5.962 3.659
5.296 5.885 3.625
5.942 6.136 3.934
5.770 6.034 3.769
5.565 5.970 3.631
5.394 5.974 3.401
5.762 6.131 3.680
5.618 6.107 3.534
5.537 6.141 3.317
4.416 3.907 4.918
4.554 4.189 4.892
4.720 4.204 4.799
4.528 4.276 4.666
4.938 4.455 4.898
4.839 4.382 4.726
4.706 4.438 4.558
5.330 4.659 4.873
5.205 4.558 4.715
4.861 4.631 4.647
4.669 4.582 4.398
5.615 4.758 4.751
5.297 4.751 4.666
5.293 4.796 4.655
5.096 4.852 4.369
4.748 4.683 4.307
5.915 4.954 4.810
5.733 4.931 4.579
5.559 4.947 4.475
5.285 4.858 4.444
5.029 5.013 4.281
4.964 4.851 4.213
5.900 5.072 4.768
5.708 5.099 4.526
5.529 5.140 4.502
5.302 5.047 4.365
5.309 5.091 4.094
5.032 5.115 3.971
6.033 5.171 4.513
5.945 5.233 4.442
5.574 5.294 4.277
5.555 5.146 4.243
5.257 5.236 4.108
5.037 5.149 3.800
6.212 5.338 4.329
6.023 5.488 4.172
5.714 5.414 4.233
5.595 5.319 3.930
5.469 5.377 3.850
5.302 5.440 3.684
6.140 5.465 4.374
6.069 5.520 4.165
5.802 5.633 4.106
5.574 5.544 3.852
5.491 5.671 3.758
5.212 5.524 3.627
6.172 5.630 3.982
5.858 5.683 3.814
5.690 5.621 3.656
5.619 5.713 3.557
5.392 5.816 3.430
6.200 5.783 3.880
5.947 5.900 3.661
5.914 5.808 3.537
5.630 5.846 3.541
5.500 5.817 3.389
6.198 6.068 3.530
5.932 5.985 3.538
5.858 6.078 3.475
5.522 5.985 3.176
5.790 6.142 3.325
5.614 6.207 3.109
4.621 4.016 4.645
4.729 4.171 4.482
4.849 4.217 4.625
4.774 4.411 4.367
5.221 4.530 4.491
5.059 4.495 4.338
4.817 4.377 4.382
5.495 4.552 4.503
5.268 4.559 4.460
5.030 4.594 4.324
4.903 4.591 4.165
5.773 4.768 4.548
5.558 4.728 4.407
5.404 4.775 4.220
5.237 4.731 4.254
4.957 4.844 3.989
6.012 4.964 4.492
5.768 4.955 4.359
5.777 4.991 4.272
5.422 5.006 4.171
5.401 4.851 4.049
5.098 4.871 3.975
6.042 5.184 4.504
5.984 5.080 4.359
5.762 5.106 4.070
5.559 5.054 3.995
5.309 5.084 3.810
5.253 5.178 3.812
6.332 5.190 4.344
6.142 5.290 4.187
5.860 5.210 4.097
5.709 5.179 3.957
5.439 5.204 3.838
5.270 5.165 3.574
6.222 5.349 3.954
6.027 5.328 3.854
5.806 5.335 3.822
5.641 5.338 3.534
5.334 5.500 3.556
6.254 5.458 3.825
6.081 5.579 3.748
5.915 5.551 3.705
5.570 5.530 3.461
5.525 5.555 3.338
6.210 5.718 3.625
5.993 5.792 3.564
5.742 5.680 3.394
5.640 5.711 3.254
6.221 5.880 3.561
6.080 5.965 3.282
5.876 5.927 3.281
5.743 5.861 3.064
6.186 6.057 3.266
5.927 6.051 3.044
5.814 6.142 3.041
6.063 6.195 2.925
5.819 6.245 2.901
4.936 4.047 4.212
5.096 4.295 4.251
4.944 4.295 4.271
5.395 4.543 4.299
5.199 4.374 4.151
5.028 4.524 4.023
5.670 4.698 4.308
5.387 4.626 4.170
5.194 4.591 3.944
5.165 4.606 3.985
5.950 4.675 4.382
5.688 4.847 4.103
5.615 4.839 3.948
5.441 4.740 3.794
5.259 4.738 3.690
6.157 5.002 4.297
5.974 5.030 4.119
5.842 4.862 4.097
5.667 4.868 3.910
5.502 4.991 3.696
5.393 4.916 3.625
6.042 5.027 4.055
5.861 5.057 3.814
5.767 5.032 3.782
5.500 5.114 3.695
5.388 5.034 3.489
6.189 5.198 3.819
6.129 5.326 3.714
5.815 5.320 3.633
5.765 5.241 3.458
5.465 5.263 3.388
6.050 5.387 3.674
5.939 5.492 3.497
5.757 5.412 3.352
5.588 5.437 3.313
6.291 5.629 3.393
6.068 5.532 3.335
5.813 5.475 3.149
5.736 5.529 3.158
6.030 5.674 3.345
6.017 5.733 3.165
5.743 5.734 2.881
6.123 5.921 3.067
6.019 5.894 3.039
5.841 5.843 2.867
6.109 6.054 2.789
5.885 5.962 2.801
6.230 6.175 2.821
6.015 6.249 2.643
4.935 4.163 4.058
5.361 4.353 3.989
5.151 4.371 3.835
5.506 4.471 3.993
5.370 4.504 3.925
5.283 4.372 3.751
5.944 4.517 3.965
5.741 4.690 3.906
5.456 4.725 3.739
5.396 4.544 3.717
6.109 4.730 3.924
6.042 4.812 3.905
5.776 4.751 3.802
5.534 4.694 3.545
5.348 4.713 3.483
6.170 4.880 3.986
5.942 4.860 3.735
5.927 4.977 3.736
5.677 4.873 3.521
5.568 4.971 3.319
6.172 5.146 3.545
5.869 5.175 3.527
5.759 4.993 3.289
5.468 5.142 3.165
6.204 5.291 3.536
6.055 5.216 3.303
5.754 5.342 3.295
5.672 5.279 3.163
6.168 5.322 3.340
5.928 5.406 3.166
5.772 5.394 2.932
6.213 5.583 3.070
6.088 5.612 2.944
5.939 5.551 2.896
6.183 5.704 2.785
5.942 5.742 2.772
6.198 5.794 2.796
6.081 5.927 2.539
6.204 6.017 2.544
6.167 6.114 2.322
5.389 4.316 3.855
5.268 4.304 3.727
5.999 4.372 3.979
5.645 4.563 3.806
5.660 4.381 3.533
5.432 4.418 3.407
6.310 4.618 3.809
5.930 4.703 3.736
5.853 4.536 3.705
5.626 4.566 3.540
5.438 4.629 3.314
6.174 4.741 3.617
5.988 4.670 3.406
5.681 4.767 3.399
5.582 4.775 3.208
6.180 4.928 3.416
6.097 4.932 3.436
5.780 4.975 3.233
5.702 4.969 3.036
6.118 5.096 3.281
6.021 4.982 3.126
5.785 5.112 3.006
6.108 5.233 3.146
5.954 5.168 2.935
5.858 5.180 2.848
6.065 5.406 2.938
5.898 5.476 2.804
6.171 5.536 2.826
5.990 5.496 2.498
6.067 5.809 2.550
6.223 5.971 2.224
5.845 4.297 3.538
5.663 4.322 3.486
5.386 4.277 3.395
6.097 4.537 3.603
5.957 4.434 3.496
5.798 4.368 3.344
5.515 4.482 3.151
6.246 4.709 3.592
5.943 4.582 3.269
5.778 4.665 3.305
5.611 4.585 3.174
6.115 4.808 3.176
5.985 4.741 3.167
5.850 4.670 2.979
6.212 4.846 3.034
6.128 4.864 3.075
5.937 4.950 2.814
6.116 5.094 2.830
5.982 5.117 2.726
6.126 5.326 2.637
6.057 5.156 2.491
6.070 5.310 2.496
6.122 5.524 2.389
6.177 4.209 3.474
6.016 4.200 3.297
5.867 4.398 3.342
5.555 4.337 3.041
6.126 4.425 3.269
6.015 4.357 3.190
5.820 4.517 3.057
6.281 4.640 3.149
5.931 4.553 3.040
5.891 4.585 2.789
6.211 4.839 2.891
5.854 4.815 2.707
6.169 4.891 2.676
6.034 4.980 2.516
6.206 5.117 2.457
6.206 5.158 2.338
6.115 4.270 3.150
6.018 4.350 2.973
5.909 4.271 2.889
6.026 4.451 2.804
5.928 4.515 2.772
6.211 4.689 2.777
5.940 4.523 2.623
6.147 4.678 2.521
6.301 5.014 2.321
6.134 4.041 2.752
6.087 4.326 2.617
5.951 4.342 2.538
6.090 4.428 2.438
6.089 4.575 2.360
6.347 4.814 2.240
6.260 4.115 2.687
6.085 4.245 2.242
6.188 4.546 2.187
4.803 6.131 6.178
4.762 6.164 6.084
5.262 6.179 6.185
4.893 6.149 6.016
4.849 6.213 5.964
4.570 6.252 5.900
4.855 5.796 6.292
4.686 5.838 6.134
5.076 5.800 6.276
4.992 5.828 6.197
4.704 5.911 6.071
4.518 5.970 5.953
4.390 5.988 5.748
5.388 6.065 6.323
5.217 6.136 6.129
5.058 6.045 5.881
4.966 6.160 5.780
4.799 6.148 5.743
4.419 6.048 5.662
4.247 5.995 5.373
5.767 6.318 6.203
5.477 6.228 6.197
5.387 6.267 6.042
5.258 6.265 5.793
4.880 6.178 5.737
4.696 6.254 5.523
4.671 6.119 5.411
4.484 6.196 5.401
4.825 5.507 6.174
4.703 5.435 6.195
5.220 5.587 6.264
4.941 5.484 6.145
4.841 5.659 5.971
4.564 5.672 5.907
4.483 5.575 5.715
5.498 5.836 6.214
5.145 5.674 6.131
4.959 5.654 6.041
4.956 5.775 5.746
4.658 5.839 5.765
4.586 5.735 5.599
4.427 5.815 5.416
4.083 5.795 5.351
5.611 5.856 6.273
5.456 5.902 6.177
5.413 5.997 5.926
5.051 5.821 5.742
5.069 5.834 5.628
4.807 5.959 5.683
4.576 5.877 5.564
4.496 5.960 5.392
4.194 5.974 5.129
5.964 6.068 6.206
5.794 6.093 6.170
5.722 5.958 5.928
5.379 6.146 5.816
5.292 6.042 5.622
5.057 6.072 5.549
4.787 6.063 5.550
4.649 6.141 5.325
4.493 6.110 5.205
4.370 5.954 5.126
6.243 6.140 6.126
6.012 6.133 5.989
5.804 6.262 6.048
5.666 6.278 5.876
5.597 6.316 5.661
5.279 6.266 5.639
5.074 6.267 5.377
4.874 6.154 5.371
4.683 6.319 5.220
4.578 6.207 5.169
4.362 6.150 4.944
5.052 5.180 6.186
4.873 5.373 6.158
4.727 5.273 5.944
4.554 5.257 5.827
4.441 5.170 5.686
5.342 5.481 6.233
5.247 5.395 6.193
4.953 5.493 5.998
4.776 5.327 5.793
4.586 5.447 5.693
4.602 5.527 5.556
4.244 5.405 5.406
4.031 5.439 5.395
5.757 5.498 6.139
5.538 5.496 6.074
5.377 5.573 6.078
5.176 5.579 5.788
4.939 5.591 5.655
4.754 5.635 5.643
4.684 5.478 5.405
4.392 5.653 5.285
4.324 5.667 5.106
6.078 5.769 6.298
5.839 5.652 6.087
5.520 5.703 5.978
5.330 5.743 5.840
5.155 5.829 5.731
4.963 5.649 5.553
4.803 5.722 5.534
4.640 5.817 5.437
4.574 5.769 5.124
4.231 5.723 5.115
6.193 5.924 6.214
6.086 5.804 5.993
5.860 5.970 6.018
5.808 5.854 5.884
5.448 5.972 5.798
5.304 5.895 5.679
5.222 5.938 5.490
4.880 5.867 5.321
4.826 5.826 5.139
4.616 5.937 5.180
4.305 5.906 4.960
6.206 6.125 6.063
6.028 6.093 5.768
5.859 6.002 5.662
5.540 6.092 5.615
5.334 5.972 5.391
5.348 6.007 5.254
5.122 6.010 5.154
4.892 6.057 5.166
4.591 6.080 4.906
4.437 6.039 4.776
6.335 6.212 5.868
5.974 6.222 5.703
5.873 6.261 5.481
5.737 6.287 5.541
5.617 6.270 5.248
5.292 6.215 5.089
5.254 6.110 5.152
5.019 6.108 5.000
4.776 6.281 4.772
4.574 6.259 4.777
5.347 5.099 6.137
5.168 5.016 6.073
4.966 5.067 5.897
4.782 5.074 5.870
4.638 5.133 5.639
4.525 5.145 5.593
4.328 5.171 5.377
4.065 5.062 5.237
5.660 5.179 6.257
5.450 5.230 6.077
5.235 5.291 5.920
5.172 5.188 5.872
4.934 5.166 5.647
4.807 5.261 5.606
4.539 5.235 5.438
4.512 5.278 5.371
4.207 5.260 5.217
5.897 5.495 6.145
5.741 5.441 6.062
5.554 5.435 5.879
5.417 5.507 5.919
5.292 5.510 5.725
5.038 5.406 5.674
4.919 5.370 5.552
4.792 5.330 5.406
4.462 5.488 5.124
4.360 5.409 5.105
6.243 5.679 6.236
6.159 5.502 5.988
5.801 5.537 5.941
5.603 5.484 5.922
5.499 5.475 5.626
5.392 5.496 5.628
5.075 5.510 5.396
4.985 5.675 5.351
4.849 5.627 5.273
4.552 5.603 5.076
4.455 5.511 5.013
6.186 5.626 5.955
5.969 5.630 5.850
5.728 5.756 5.773
5.576 5.723 5.492
5.408 5.775 5.517
5.134 5.742 5.230
5.125 5.817 5.219
4.973 5.803 5.026
4.591 5.810 4.847
4.477 5.755 4.753
6.243 5.894 5.861
6.015 5.938 5.596
5.992 5.833 5.598
5.795 5.829 5.389
5.421 5.840 5.275
5.370 5.986 5.095
5.230 5.880 5.163
4.957 5.964 4.957
4.853 5.805 4.748
4.547 5.835 4.775
6.236 6.001 5.468
6.051 5.995 5.507
5.893 6.122 5.406
5.627 6.089 5.108
5.321 6.075 4.979
5.207 6.052 4.958
5.028 6.078 4.708
4.966 6.007 4.745
4.713 6.015 4.656
6.312 6.230 5.447
6.097 6.257 5.301
5.946 6.262 5.138
5.755 6.142 5.032
5.470 6.247 4.836
5.359 6.289 4.798
5.215 6.315 4.609
4.945 6.218 4.553
4.680 6.254 4.399
2.209 4.197 5.266
2.116 4.173 5.208
1.885 4.189 5.005
1.792 4.102 4.912
1.536 4.223 4.666
1.377 4.190 4.621
1.245 4.250 4.503
2.665 4.347 5.224
2.396 4.427 5.010
2.095 4.381 5.049
1.990 4.375 4.750
1.915 4.355 4.767
1.656 4.380 4.642
1.404 4.330 4.583
1.366 4.401 4.406
1.078 4.346 4.157
2.912 4.513 5.288
2.621 4.501 5.197
2.428 4.570 4.889
2.281 4.499 4.853
2.175 4.491 4.671
1.846 4.517 4.591
1.678 4.597 4.556
1.615 4.484 4.356
1.294 4.405 4.151
1.082 4.395 4.139
0.967 4.605 3.892
3.071 4.739 5.270
2.975 4.644 5.047
2.669 4.599 5.005
2.481 4.554 4.800
2.442 4.637 4.704
2.257 4.619 4.599
1.957 4.736 4.481
1.893 4.702 4.298
1.706 4.695 4.185
1.539 4.695 4.078
1.204 4.573 3.895
1.172 4.665 3.874
0.942 4.591 3.716
3.306 4.884 5.272
3.117 4.848 5.058
3.101 4.791 4.918
2.914 4.783 4.919
2.735 4.714 4.700
2.572 4.896 4.675
2.276 4.818 4.505
1.997 4.791 4.293
1.889 4.759 4.257
1.689 4.780 4.148
1.458 4.843 3.878
1.259 4.883 3.924
1.203 4.833 3.756
0.961 4.917 3.497
0.910 4.793 3.528
3.300 4.778 5.303
3.438 4.994 4.992
3.396 5.031 5.024
3.193 4.920 4.882
2.927 4.864 4.709
2.708 4.995 4.656
2.547 4.956 4.560
2.464 5.051 4.385
2.211 4.995 4.148
1.964 4.928 4.126
1.914 4.975 3.964
1.576 4.873 3.929
1.433 5.060 3.639
1.225 4.984 3.565
0.973 4.918 3.533
0.939 5.020 3.272
0.697 4.998 3.261
0.552 5.039 3.161
3.754 4.891 5.371
3.754 4.935 5.199
3.465 4.980 5.076
3.629 5.223 5.027
3.426 5.149 4.918
3.172 5.128 4.640
2.918 5.147 4.510
2.889 5.114 4.391
2.629 5.215 4.390
2.442 5.209 4.222
2.183 5.106 4.045
2.204 5.044 4.035
1.870 5.176 3.770
1.665 5.133 3.610
1.621 5.097 3.494
1.440 5.078 3.428
1.200 5.056 3.327
0.957 5.141 3.276
0.755 5.185 3.136
0.710 5.138 2.869
0.346 5.032 2.880
0.192 5.092 2.668
-0.040 5.213 2.531
3.876 5.211 5.214
3.818 5.174 5.161
3.582 5.089 4.951
3.630 5.247 4.929
3.588 5.208 4.645
3.325 5.241 4.563
3.138 5.325 4.385
2.964 5.327 4.379
2.803 5.331 4.291
2.483 5.273 4.102
2.416 5.195 3.923
2.144 5.245 3.750
2.083 5.347 3.787
1.823 5.182 3.665
1.537 5.240 3.335
1.510 5.195 3.386
1.161 5.257 3.259
1.034 5.296 3.038
0.891 5.306 2.847
0.796 5.278 2.897
0.561 5.298 2.620
0.394 5.238 2.540
0.235 5.207 2.502
3.993 5.169 5.120
3.809 5.322 4.883
3.616 5.175 4.724
3.657 5.447 4.669
3.570 5.369 4.531
3.404 5.359 4.404
3.139 5.518 4.385
3.053 5.498 4.147
2.758 5.381 4.135
2.708 5.366 3.978
2.556 5.352 3.906
2.299 5.543 3.617
2.202 5.424 3.469
1.810 5.445 3.447
1.719 5.436 3.212
1.599 5.496 3.133
1.261 5.369 3.053
1.127 5.351 2.993
0.986 5.427 2.691
0.824 5.518 2.571
0.624 5.505 2.612
0.525 5.368 2.352
0.217 5.472 2.280
-0.004 5.438 2.248
4.066 5.425 4.952
3.848 5.420 4.868
3.702 5.514 4.659
3.766 5.641 4.630
3.643 5.523 4.473
3.539 5.651 4.396
1.618 5.633 3.143
1.524 5.514 2.895
1.263 5.711 2.718
1.033 5.660 2.659
0.851 5.709 2.603
0.639 5.613 2.432
0.589 5.689 2.196
0.352 5.572 2.245
0.200 5.703 1.961
4.295 5.694 4.821
3.975 5.502 4.731
3.764 5.625 4.508
3.885 5.640 4.362
1.385 5.829 2.622
1.231 5.730 2.555
0.914 5.730 2.363
0.837 5.770 2.249
0.661 5.681 2.198
0.456 5.750 2.012
0.178 5.777 1.880
0.113 5.722 1.752
4.286 5.641 4.648
4.157 5.843 4.464
3.914 5.750 4.333
1.202 5.876 2.460
1.100 5.955 2.175
0.931 5.904 2.169
0.639 5.904 2.046
0.606 5.896 1.959
0.322 6.010 1.860
0.182 5.983 1.567
4.434 5.796 4.507
4.260 5.805 4.511
1.087 6.043 2.159
0.922 6.037 2.098
0.703 6.004 1.852
0.515 6.067 1.688
0.343 6.078 1.732
0.326 6.085 1.441
0.087 6.143 1.345
4.558 6.049 4.469
1.150 6.281 1.893
0.847 6.218 1.845
0.606 6.217 1.560
0.408 6.322 1.466
0.280 6.290 1.443
0.165 6.323 1.309
1.927 4.125 5.179
1.721 4.105 5.200
1.591 3.985 4.968
1.389 4.092 4.834
1.364 4.090 4.671
2.341 4.192 5.192
2.094 4.148 5.012
2.009 4.110 4.902
1.660 4.204 4.931
1.487 4.171 4.833
1.399 4.151 4.656
1.179 4.195 4.378
2.464 3.934 5.156
2.398 3.966 5.201
2.118 3.995 4.927
2.107 3.995 4.958
1.874 4.095 4.827
1.702 4.128 4.692
1.451 3.936 4.383
2.856 4.184 5.304
2.687 4.185 5.105
2.524 4.077 4.907
2.254 4.250 4.747
2.068 4.214 4.763
1.958 4.207 4.572
1.787 4.231 4.546
1.576 4.274 4.383
1.392 4.083 4.326
3.197 4.388 5.193
2.900 4.402 5.134
2.745 4.338 5.034
2.464 4.428 4.954
2.308 4.395 4.708
2.207 4.347 4.563
1.930 4.303 4.563
1.820 4.297 4.333
1.599 4.377 4.197
1.523 4.333 4.106
1.222 4.234 3.989
3.334 4.436 5.210
3.178 4.461 5.178
3.000 4.544 5.012
2.864 4.553 4.857
2.593 4.447 4.757
2.485 4.397 4.658
2.332 4.467 4.444
2.040 4.478 4.264
1.994 4.561 4.295
1.668 4.530 4.076
1.617 4.557 3.997
1.287 4.443 3.874
1.211 4.446 3.638
3.470 4.381 5.267
3.397 4.689 5.083
3.260 4.752 4.921
3.112 4.657 4.840
2.878 4.605 4.724
2.821 4.607 4.547
2.580 4.737 4.545
2.335 4.685 4.263
2.096 4.590 4.201
1.943 4.639 4.013
1.875 4.600 3.971
1.604 4.656 3.806
1.494 4.570 3.801
1.353 4.576 3.593
0.990 4.704 3.397
3.847 4.547 5.253
3.762 4.652 5.208
3.446 4.615 5.178
3.667 4.812 4.992
3.456 4.791 4.893
3.186 4.754 4.659
2.928 4.785 4.578
2.869 4.731 4.359
2.557 4.911 4.346
2.391 4.853 4.227
2.261 4.869 4.005
2.146 4.910 3.900
1.852 4.875 3.920
1.794 4.712 3.619
1.448 4.892 3.637
1.386 4.873 3.509
1.199 4.794 3.381
0.882 4.760 3.228
3.932 4.708 5.117
3.743 4.787 5.157
3.553 4.891 4.919
3.724 5.019 4.829
3.428 4.923 4.699
3.368 5.006 4.645
3.204 4.996 4.420
2.922 5.023 4.362
2.644 4.907 4.140
2.570 4.999 4.133
2.467 5.021 4.001
2.291 4.970 3.777
2.107 4.937 3.586
1.887 5.042 3.466
1.591 4.894 3.363
1.375 4.915 3.243
1.156 4.975 3.232
1.045 4.868 3.136
0.988 4.880 2.991
0.631 5.006 2.828
0.227 4.874 2.449
4.061 4.869 4.986
3.759 5.006 4.951
3.608 4.908 4.815
3.797 5.094 4.743
3.665 5.174 4.656
3.344 5.197 4.512
3.188 5.045 4.408
3.064 5.059 4.096
2.782 5.195 4.096
2.590 5.070 4.030
2.478 5.171 3.742
2.336 5.193 3.638
2.154 5.151 3.645
1.886 5.132 3.461
1.817 5.069 3.213
1.488 5.141 3.104
1.393 5.042 3.127
1.084 5.097 2.827
0.947 5.028 2.824
0.902 5.238 2.687
0.661 5.141 2.502
0.356 5.094 2.346
0.280 5.115 2.315
0.083 5.240 2.193
4.190 5.059 4.947
3.990 5.142 4.785
3.662 5.133 4.627
3.846 5.312 4.659
3.580 5.274 4.458
3.585 5.332 4.413
3.362 5.351 4.274
3.060 5.346 4.090
2.935 5.284 3.861
2.711 5.360 3.705
2.630 5.341 3.763
2.269 5.203 3.539
2.170 5.277 3.352
1.697 5.393 2.979
1.474 5.380 2.969
1.172 5.232 2.689
0.967 5.337 2.642
0.949 5.359 2.548
0.713 5.393 2.461
0.485 5.333 2.184
0.410 5.351 2.095
0.205 5.341 1.938
4.149 5.317 4.840
4.052 5.330 4.651
3.773 5.344 4.632
3.999 5.481 4.507
3.850 5.395 4.308
3.560 5.519 4.074
3.451 5.372 4.087
3.183 5.452 3.926
1.422 5.344 2.680
1.056 5.348 2.500
1.014 5.494 2.298
0.748 5.427 2.280
0.670 5.547 2.214
0.338 5.346 2.009
0.319 5.458 1.921
0.064 5.466 1.767
4.293 5.414 4.701
4.059 5.355 4.583
3.973 5.369 4.362
3.927 5.486 4.270
3.797 5.620 4.181
3.671 5.683 4.071
1.175 5.616 2.317
1.087 5.606 2.275
0.928 5.716 2.084
0.633 5.611 1.998
0.558 5.634 1.934
0.318 5.694 1.745
0.157 5.649 1.552
4.434 5.511 4.502
4.118 5.556 4.330
3.986 5.660 4.301
4.032 5.788 4.281
1.084 5.753 2.207
0.974 5.731 2.069
0.864 5.849 1.845
0.617 5.711 1.675
0.368 5.732 1.704
0.256 5.802 1.399
0.011 5.679 1.382
4.508 5.719 4.337
4.408 5.730 4.232
4.072 5.756 4.105
1.091 5.853 1.785
0.910 5.951 1.749
0.635 5.850 1.690
0.414 5.888 1.589
0.416 5.879 1.456
0.164 5.924 1.149
4.536 5.900 4.368
4.492 5.875 4.187
0.883 6.065 1.527
0.749 6.097 1.556
0.522 6.129 1.342
0.492 6.020 1.222
0.286 5.999 1.036
0.095 6.065 1.084
4.597 6.134 4.190
0.870 6.248 1.340
0.775 6.275 1.229
0.556 6.163 1.213
0.266 6.322 0.946
0.122 6.145 0.817
2.193 3.784 5.349
2.063 3.838 5.195
1.916 3.878 4.898
1.830 3.790 4.928
1.556 3.828 4.638
2.659 3.935 5.226
2.475 3.930 5.149
2.181 4.020 4.941
1.987 3.915 4.829
1.892 4.122 4.650
1.685 4.047 4.701
1.536 3.944 4.465
2.861 3.768 5.164
2.679 3.904 5.204
2.563 3.935 5.011
2.229 3.910 4.868
2.195 3.969 4.631
1.920 3.916 4.529
1.813 3.952 4.550
1.543 3.797 4.427
3.130 3.927 5.303
2.909 4.002 5.001
2.717 4.009 4.987
2.498 4.076 4.808
2.427 3.955 4.682
2.153 4.112 4.532
2.058 4.013 4.527
1.837 4.078 4.420
1.704 4.018 4.274
1.525 3.978 3.994
3.380 4.248 5.235
3.167 4.234 5.093
3.069 4.129 4.956
2.740 4.065 4.777
2.698 4.218 4.818
2.382 4.121 4.649
2.336 4.090 4.456
2.147 4.204 4.419
1.866 4.121 4.247
1.636 4.231 4.061
1.588 4.212 3.853
3.403 4.270 5.214
3.382 4.309 5.119
3.216 4.307 4.934
3.139 4.260 4.736
2.918 4.363 4.682
2.749 4.327 4.499
2.516 4.398 4.419
2.300 4.439 4.352
2.168 4.403 4.163
2.060 4.405 4.082
1.816 4.302 4.028
1.711 4.240 3.908
1.514 4.371 3.697
3.654 4.268 5.114
3.510 4.233 5.178
3.615 4.538 4.897
3.424 4.586 4.862
3.238 4.570 4.765
2.921 4.416 4.594
2.881 4.528 4.436
2.567 4.526 4.390
2.458 4.593 4.248
2.343 4.573 4.150
2.139 4.563 4.015
1.907 4.451 3.867
1.806 4.574 3.793
1.631 4.418 3.576
3.969 4.476 5.134
3.812 4.454 5.102
3.473 4.556 4.877
3.583 4.725 4.815
3.454 4.725 4.764
3.222 4.637 4.477
3.164 4.548 4.363
2.975 4.663 4.326
2.758 4.665 4.206
2.540 4.589 4.054
2.344 4.681 3.996
2.241 4.721 3.870
2.040 4.638 3.686
1.813 4.697 3.623
1.663 4.599 3.397
4.013 4.564 5.049
3.832 4.694 5.051
3.765 4.590 4.829
3.767 4.737 4.705
3.645 4.844 4.577
3.421 4.703 4.365
3.238 4.826 4.326
2.910 4.833 4.216
2.893 4.848 4.077
2.568 4.856 3.919
2.357 4.779 3.749
2.271 4.841 3.705
2.113 4.744 3.628
1.914 4.788 3.324
1.816 4.718 3.226
4.068 4.746 4.887
3.873 4.839 4.804
3.741 4.901 4.658
3.747 4.990 4.464
3.670 4.917 4.371
3.507 4.880 4.303
3.253 4.907 4.175
3.120 4.898 4.013
2.921 4.902 3.919
2.790 4.958 3.830
2.522 5.054 3.753
2.409 4.873 3.529
2.188 4.946 3.489
0.293 5.057 2.159
0.048 4.896 2.091
4.278 5.019 4.813
4.104 4.908 4.790
3.951 4.888 4.632
3.835 5.155 4.414
3.700 5.075 4.365
3.656 5.149 4.221
3.338 5.148 4.097
3.117 5.100 3.827
2.997 5.085 3.774
2.892 5.083 3.610
2.640 5.096 3.551
0.887 5.171 2.195
0.532 5.147 2.242
0.341 5.192 2.074
0.257 5.160 1.887
-0.014 5.145 1.685
4.216 5.214 4.750
4.169 5.079 4.656
3.922 5.033 4.538
3.923 5.373 4.216
3.879 5.236 4.179
3.565 5.254 4.099
3.455 5.203 4.028
3.275 5.267 3.703
0.853 5.188 2.135
0.617 5.334 2.002
0.597 5.315 1.886
0.310 5.281 1.874
0.148 5.303 1.584
4.324 5.345 4.503
4.229 5.226 4.354
4.117 5.200 4.301
4.041 5.445 4.088
3.878 5.337 3.988
3.755 5.473 3.965
3.603 5.469 3.807
1.000 5.438 1.948
0.830 5.388 1.849
0.684 5.458 1.796
0.474 5.542 1.654
0.225 5.404 1.428
-0.012 5.516 1.406
4.406 5.440 4.430
4.350 5.415 4.286
4.131 5.356 4.233
4.259 5.549 3.970
4.126 5.669 3.964
1.023 5.522 1.835
0.987 5.513 1.729
0.595 5.615 1.716
0.544 5.592 1.542
0.274 5.561 1.475
0.226 5.683 1.276
4.528 5.472 4.248
4.295 5.589 4.096
4.291 5.680 4.136
4.250 5.796 3.888
1.070 5.754 1.699
0.872 5.665 1.498
0.586 5.697 1.396
0.502 5.726 1.262
0.194 5.709 1.070
-0.040 5.817 1.079
4.681 5.842 4.172
4.577 5.739 4.059
4.210 5.741 3.978
1.052 5.849 1.445
0.922 5.858 1.459
0.635 5.875 1.172
0.499 5.947 1.187
0.297 5.984 1.048
0.244 5.871 0.920
4.800 5.876 4.049
4.638 6.000 3.937
0.877 5.996 1.215
0.793 6.141 1.012
0.644 6.084 1.025
0.397 6.145 0.838
0.266 6.012 0.700
0.066 6.076 0.614
4.825 5.970 3.919
0.881 6.244 0.946
0.617 6.190 0.797
0.600 6.140 0.827
0.420 6.330 0.670
0.043 6.330 0.419
2.593 3.757 5.329
2.377 3.644 5.084
2.210 3.712 5.076
2.033 3.637 4.918
1.739 3.670 4.770
1.688 3.643 4.587
2.839 3.763 5.330
2.577 3.889 5.048
2.453 3.833 5.036
2.270 3.852 4.948
2.085 3.783 4.769
1.869 3.786 4.665
1.711 3.832 4.447
1.494 3.826 4.389
3.177 3.632 5.165
2.941 3.625 5.115
2.752 3.752 4.948
2.483 3.702 4.875
2.408 3.750 4.638
2.139 3.740 4.607
1.991 3.689 4.450
1.916 3.669 4.365
3.453 3.816 5.139
3.289 3.744 4.993
3.054 3.756 4.954
2.907 3.811 4.821
2.632 3.773 4.815
2.553 3.939 4.618
2.320 3.797 4.526
2.173 3.935 4.374
1.840 3.802 4.298
1.821 3.852 4.042
3.375 3.942 5.277
3.578 4.037 5.157
3.260 3.998 4.920
3.165 3.911 4.760
2.988 4.013 4.810
2.681 3.931 4.554
2.566 3.960 4.385
2.444 3.940 4.316
2.184 3.943 4.278
1.894 4.011 4.052
1.747 4.127 4.052
1.709 4.103 3.746
3.735 3.951 5.314
3.465 4.077 5.043
3.658 4.157 4.898
3.363 4.118 4.747
3.140 4.085 4.609
2.982 4.119 4.521
2.824 4.133 4.441
2.539 4.200 4.332
2.502 4.265 4.261
2.318 4.159 4.160
2.182 4.080 3.943
1.860 4.282 3.860
1.639 4.230 3.758
3.832 4.168 5.192
3.852 4.169 5.123
3.567 4.261 4.914
3.673 4.381 4.820
3.408 4.244 4.657
3.359 4.412 4.494
3.127 4.421 4.521
2.933 4.414 4.298
2.820 4.354 4.268
2.548 4.346 4.053
2.336 4.244 3.919
2.224 4.302 3.841
1.888 4.238 3.616
1.781 4.348 3.582
3.985 4.309 5.071
3.884 4.264 4.901
3.642 4.343 4.727
3.674 4.556 4.732
3.589 4.557 4.492
3.441 4.501 4.488
3.154 4.541 4.385
3.045 4.434 4.199
2.791 4.428 4.143
2.607 4.453 4.012
2.517 4.408 3.779
2.376 4.478 3.706
2.057 4.430 3.455
1.997 4.586 3.428
4.199 4.494 4.887
3.873 4.534 4.928
3.646 4.495 4.614
3.900 4.706 4.560
3.660 4.703 4.543
3.567 4.704 4.357
3.378 4.722 4.155
3.193 4.682 4.144
2.843 4.566 3.893
2.733 4.704 3.766
2.488 4.744 3.620
2.395 4.601 3.648
2.194 4.704 3.372
4.226 4.540 4.928
4.119 4.725 4.738
3.802 4.550 4.478
3.998 4.771 4.471
3.838 4.718 4.228
3.492 4.899 4.145
3.452 4.781 4.066
3.229 4.753 3.874
2.918 4.856 3.696
2.883 4.800 3.598
2.598 4.911 3.474
0.102 4.893 1.827
4.247 4.889 4.642
4.212 4.874 4.659
4.039 4.726 4.428
3.918 5.034 4.275
3.857 4.853 4.191
3.755 4.886 4.146
3.515 5.016 3.982
3.375 4.918 3.826
3.024 4.866 3.623
2.910 4.868 3.539
0.510 5.038 1.974
0.367 5.048 1.719
0.245 4.913 1.654
4.412 4.975 4.549
4.272 4.966 4.340
4.009 4.876 4.271
4.171 5.164 4.268
3.961 5.134 4.103
3.779 5.056 3.827
3.630 5.154 3.754
3.317 5.079 3.669
0.804 5.175 1.977
0.645 5.100 1.741
0.331 5.062 1.582
0.307 5.203 1.489
-0.000 5.245 1.422
4.482 5.010 4.504
4.222 5.213 4.258
4.081 5.149 4.174
4.220 5.219 4.038
4.058 5.341 3.975
3.793 5.349 3.744
3.582 5.324 3.671
0.891 5.251 1.813
0.748 5.213 1.652
0.399 5.206 1.468
0.336 5.324 1.363
0.046 5.280 1.222
4.580 5.261 4.322
4.439 5.337 4.078
4.217 5.296 4.030
4.318 5.449 3.962
4.214 5.528 3.840
3.850 5.413 3.656
1.031 5.357 1.638
0.819 5.466 1.399
0.646 5.555 1.402
0.363 5.539 1.309
0.144 5.369 1.084
-0.050 5.437 0.986
4.737 5.438 4.157
4.384 5.490 3.952
4.317 5.405 4.007
4.301 5.518 3.804
4.191 5.613 3.568
1.097 5.694 1.482
0.941 5.631 1.369
0.717 5.592 1.162
0.526 5.703 1.156
0.349 5.597 1.015
0.196 5.715 0.830
4.834 5.581 4.072
4.474 5.660 3.885
4.405 5.472 3.760
4.398 5.803 3.574
0.862 5.780 1.324
0.873 5.769 1.114
0.679 5.722 0.920
0.469 5.760 0.812
0.284 5.704 0.819
0.020 5.694 0.631
4.890 5.786 3.922
4.761 5.700 3.827
4.394 5.744 3.650
0.811 5.895 1.060
0.742 5.975 0.789
0.454 5.951 0.741
0.266 5.874 0.533
0.203 5.911 0.536
4.910 5.993 3.879
4.704 5.897 3.681
0.755 6.176 0.800
0.582 6.137 0.633
0.469 6.127 0.409
0.280 6.175 0.276
0.090 6.072 0.178
4.997 6.025 3.570
0.608 6.282 0.418
0.422 6.277 0.229
0.335 6.149 0.264
0.043 6.192 0.171
2.527 3.278 5.275
2.398 3.309 5.149
2.157 3.426 4.888
2.087 3.396 4.912
2.748 3.466 5.341
2.569 3.485 5.091
2.548 3.476 5.060
2.283 3.440 4.867
2.185 3.565 4.789
2.004 3.526 4.639
3.072 3.688 5.174
2.843 3.779 5.018
2.816 3.692 4.889
2.650 3.776 4.877
2.394 3.715 4.754
2.288 3.714 4.494
2.096 3.598 4.489
1.776 3.602 4.405
3.298 3.486 5.318
3.115 3.504 5.171
3.041 3.609 5.056
2.829 3.547 4.943
2.683 3.578 4.773
2.536 3.615 4.685
2.319 3.515 4.375
2.089 3.523 4.439
1.916 3.444 4.196
3.468 3.521 5.326
3.472 3.660 5.138
3.326 3.800 4.933
3.034 3.646 4.747
2.893 3.742 4.639
2.801 3.615 4.525
2.553 3.709 4.455
2.287 3.699 4.414
2.266 3.611 4.169
2.003 3.707 4.140
1.806 3.703 3.865
3.636 3.671 5.328
3.527 3.717 5.134
3.470 3.769 4.934
3.469 3.934 4.752
3.164 3.838 4.736
3.042 3.794 4.508
2.860 3.889 4.555
2.556 3.754 4.386
2.454 3.883 4.170
2.257 3.894 4.129
2.057 3.828 3.929
1.830 3.917 3.830
3.821 3.851 5.170
3.646 3.773 5.012
3.636 3.897 4.827
3.574 4.055 4.692
3.295 3.917 4.665
3.137 3.926 4.363
2.994 3.934 4.281
2.736 3.950 4.143
2.440 4.021 4.037
2.359 3.909 3.840
2.077 4.027 3.732
2.070 3.955 3.675
4.107 4.008 5.074
3.822 4.083 5.028
3.744 4.007 4.899
3.640 4.174 4.698
3.560 4.204 4.576
3.317 4.178 4.434
3.186 4.160 4.248
3.111 4.209 4.166
2.889 4.175 3.976
2.723 4.157 3.856
2.387 4.117 3.760
2.322 4.150 3.765
2.124 4.274 3.537
4.180 4.231 4.952
4.030 4.226 4.891
3.661 4.190 4.810
3.927 4.409 4.669
3.583 4.249 4.398
3.446 4.381 4.327
3.192 4.348 4.168
3.194 4.224 4.081
2.821 4.322 3.914
2.781 4.386 3.791
2.630 4.233 3.729
2.458 4.266 3.578
4.297 4.410 4.860
4.012 4.272 4.715
3.794 4.350 4.632
3.908 4.415 4.376
3.730 4.491 4.249
3.627 4.584 4.217
3.476 4.484 3.959
3.099 4.505 3.856
2.928 4.520 3.778
2.786 4.444 3.624
2.654 4.424 3.570
4.382 4.443 4.587
4.076 4.428 4.661
3.973 4.545 4.464
3.938 4.610 4.410
3.742 4.705 4.082
3.588 4.570 4.071
3.491 4.714 3.995
3.203 4.653 3.801
3.136 4.718 3.750
2.846 4.553 3.542
4.416 4.719 4.493
4.278 4.673 4.402
3.981 4.547 4.358
4.097 4.802 4.211
3.863 4.868 4.046
3.785 4.742 3.833
3.492 4.797 3.770
3.389 4.724 3.637
3.252 4.876 3.583
0.243 4.873 1.610
0.086 4.908 1.489
4.471 4.821 4.448
4.231 4.888 4.340
4.166 4.697 4.264
4.129 4.886 4.097
3.980 4.901 3.968
3.809 4.952 3.878
3.685 5.010 3.597
3.473 4.994 3.435
0.499 5.026 1.516
0.391 4.924 1.346
0.109 5.077 1.150
4.511 4.905 4.342
4.469 4.882 4.066
4.254 5.014 3.942
4.354 5.204 4.018
4.160 5.029 3.754
3.890 5.001 3.732
3.693 5.155 3.622
0.733 5.171 1.600
0.605 5.212 1.322
0.433 5.143 1.281
0.304 5.196 1.125
-0.055 5.204 0.931
4.564 5.202 4.076
4.443 5.133 3.982
4.335 5.101 3.869
4.359 5.222 3.856
4.241 5.330 3.603
4.022 5.257 3.503
0.969 5.233 1.433
0.781 5.196 1.196
0.589 5.314 1.152
0.307 5.375 1.002
0.168 5.225 0.786
4.780 5.263 3.940
4.474 5.330 3.991
4.307 5.176 3.862
4.386 5.369 3.618
4.344 5.374 3.472
0.959 5.472 1.173
0.748 5.391 1.145
0.552 5.551 0.928
0.358 5.377 0.821
0.294 5.471 0.645
0.075 5.377 0.649
4.770 5.409 3.970
4.736 5.410 3.719
4.406 5.487 3.705
4.586 5.556 3.540
4.326 5.541 3.293
0.974 5.665 1.035
0.899 5.567 1.014
0.628 5.674 0.916
0.459 5.644 0.668
0.281 5.608 0.566
0.225 5.519 0.475
4.971 5.658 3.734
4.694 5.680 3.586
4.496 5.619 3.533
4.598 5.638 3.416
0.932 5.723 0.866
0.823 5.677 0.760
0.687 5.709 0.510
0.513 5.829 0.368
0.151 5.716 0.332
0.101 5.736 0.185
4.953 5.731 3.712
4.927 5.832 3.524
4.764 5.812 3.390
0.896 5.849 0.487
0.660 5.912 0.528
0.414 5.976 0.383
0.318 5.885 0.280
0.216 5.927 0.007
5.070 5.888 3.403
4.930 5.822 3.314
0.717 6.121 0.390
0.553 6.091 0.263
0.369 6.047 0.084
5.244 6.105 3.383
5.132 5.997 3.316
0.572 6.303 0.055
5.223 6.185 3.190
2.635 2.963 5.279
2.484 3.123 5.253
2.472 2.999 5.080
2.233 3.166 5.092
3.111 3.204 5.259
2.824 3.295 5.209
2.574 3.126 5.158
2.555 3.296 4.906
2.300 3.152 4.899
2.118 3.321 4.654
3.205 3.473 5.217
2.983 3.303 5.053
2.727 3.342 5.031
2.575 3.470 4.805
2.342 3.470 4.693
2.266 3.479 4.591
1.968 3.484 4.428
3.314 3.481 5.313
3.297 3.491 5.169
3.086 3.468 4.986
2.793 3.641 4.931
2.729 3.489 4.807
2.540 3.448 4.570
2.188 3.633 4.435
2.014 3.650 4.296
1.935 3.508 4.144
3.414 3.538 5.324
3.380 3.290 5.026
3.273 3.471 4.908
3.160 3.452 4.794
2.899 3.480 4.809
2.712 3.376 4.625
2.624 3.476 4.482
2.322 3.344 4.257
2.169 3.383 4.263
2.071 3.373 4.150
3.688 3.478 5.296
3.524 3.447 5.185
3.482 3.465 4.877
3.299 3.568 4.785
3.277 3.482 4.726
2.994 3.521 4.608
2.819 3.588 4.525
2.624 3.447 4.230
2.544 3.559 4.156
2.362 3.464 4.134
2.000 3.478 3.900
3.719 3.610 4.988
3.662 3.576 4.881
3.649 3.609 4.869
3.535 3.590 4.667
3.274 3.720 4.490
3.011 3.783 4.419
2.808 3.648 4.405
2.711 3.779 4.152
2.496 3.617 4.131
2.250 3.734 3.865
2.143 3.613 3.887
3.829 3.665 4.997
3.755 3.768 4.887
3.843 3.777 4.786
3.484 3.840 4.671
3.345 3.808 4.534
3.293 3.775 4.301
3.068 3.903 4.216
2.768 3.899 4.112
2.685 3.830 3.958
2.493 3.823 3.842
2.198 3.860 3.742
4.141 3.949 4.862
3.934 3.804 4.768
3.709 3.802 4.645
3.763 3.974 4.476
3.686 4.044 4.487
3.378 3.925 4.260
3.293 3.993 4.137
3.189 3.941 4.078
2.954 3.969 3.923
2.667 4.029 3.714
2.443 4.036 3.646
2.398 4.072 3.483
4.294 4.039 4.900
4.055 4.098 4.806
3.907 3.927 4.488
3.939 4.063 4.476
3.694 4.204 4.324
3.509 4.166 4.212
3.380 4.255 3.979
3.208 4.228 4.017
3.060 4.216 3.775
2.866 4.217 3.734
2.562 4.141 3.619
4.295 4.132 4.692
4.155 4.092 4.528
4.008 4.233 4.512
4.107 4.327 4.213
3.884 4.232 4.255
3.660 4.244 4.071
3.406 4.412 3.821
3.385 4.255 3.904
3.166 4.246 3.698
2.967 4.376 3.601
4.371 4.311 4.579
4.198 4.308 4.411
4.044 4.311 4.265
4.086 4.459 4.279
3.854 4.520 4.099
3.703 4.515 3.949
3.465 4.431 3.870
3.311 4.438 3.570
3.238 4.579 3.447
4.571 4.509 4.432
4.333 4.580 4.371
4.048 4.384 4.126
4.132 4.586 4.082
3.973 4.624 3.883
3.874 4.723 3.893
3.670 4.723 3.719
3.451 4.729 3.603
0.171 4.574 1.250
4.561 4.632 4.253
4.371 4.675 4.280
4.248 4.529 4.106
4.383 4.868 3.974
4.205 4.875 3.687
3.906 4.856 3.740
3.812 4.825 3.593
0.338 4.800 1.262
0.117 4.724 1.096
0.102 4.790 0.945
4.746 4.721 4.131
4.524 4.865 4.106
4.236 4.761 4.001
4.387 4.931 3.871
4.300 5.027 3.617
4.068 5.055 3.596
3.865 5.013 3.404
0.783 5.054 1.191
0.522 5.017 1.133
0.399 4.875 1.031
0.190 4.939 0.916
4.821 4.939 4.031
4.657 4.996 3.904
4.345 4.925 3.708
4.424 5.167 3.606
4.196 5.090 3.469
4.213 5.115 3.414
0.785 5.166 1.060
0.554 5.114 1.023
0.407 5.126 0.772
0.215 5.126 0.720
0.070 5.027 0.625
4.892 5.136 3.901
4.616 5.023 3.692
4.524 5.012 3.555
4.622 5.324 3.557
4.373 5.296 3.327
0.788 5.219 0.962
0.763 5.317 0.762
0.430 5.297 0.643
0.284 5.378 0.629
0.035 5.230 0.529
5.028 5.200 3.790
4.816 5.247 3.711
4.506 5.250 3.597
4.551 5.461 3.421
4.398 5.313 3.347
1.049 5.462 0.860
0.702 5.529 0.713
0.692 5.406 0.489
0.393 5.514 0.416
0.169 5.512 0.331
-0.005 5.355 0.223
5.086 5.407 3.726
4.797 5.409 3.501
4.703 5.386 3.429
4.829 5.677 3.225
4.485 5.571 3.122
1.135 5.652 0.822
0.878 5.534 0.677
0.609 5.588 0.363
0.581 5.665 0.353
0.361 5.573 0.311
0.089 5.586 -0.021
5.028 5.605 3.536
5.019 5.519 3.396
4.681 5.572 3.163
4.884 5.748 3.106
1.138 5.753 0.664
0.920 5.716 0.553
0.764 5.763 0.324
0.569 5.676 0.098
0.396 5.689 0.132
5.118 5.751 3.311
5.005 5.705 3.299
4.747 5.717 3.104
4.824 5.958 3.021
1.088 5.972 0.365
0.905 5.912 0.174
0.761 5.969 0.014
5.303 5.949 3.226
5.099 5.873 3.040
5.033 5.811 2.966
0.887 6.005 0.092
5.460 5.938 3.156
5.160 6.074 3.070
5.396 6.118 2.887
5.318 6.292 2.922
2.946 2.976 5.323
2.760 3.009 5.197
2.661 2.827 5.139
2.501 2.827 4.981
2.292 2.940 4.873
2.177 2.879 4.768
3.355 3.012 5.343
3.102 3.040 5.209
2.908 3.161 5.137
2.647 3.006 5.081
2.564 3.068 4.766
2.391 3.115 4.667
2.269 3.151 4.591
1.981 2.977 4.374
3.284 2.979 5.322
3.275 3.185 5.325
3.197 3.206 5.209
3.081 3.150 5.071
2.758 3.164 4.902
2.603 3.248 4.728
2.511 3.149 4.657
2.231 3.236 4.478
2.125 3.152 4.303
1.862 3.257 4.239
3.320 3.204 5.272
3.503 3.331 5.108
3.313 3.477 5.052
3.173 3.466 4.863
2.858 3.353 4.818
2.647 3.379 4.616
2.485 3.302 4.449
2.339 3.396 4.360
2.182 3.279 4.293
2.006 3.285 4.103
3.752 3.468 5.222
3.445 3.268 5.024
3.562 3.282 4.961
3.478 3.185 4.845
3.094 3.262 4.810
2.900 3.166 4.544
2.834 3.198 4.383
2.611 3.124 4.237
2.425 3.142 4.104
2.192 3.315 4.186
2.071 3.150 3.898
3.734 3.280 5.093
3.574 3.132 5.009
3.630 3.398 4.871
3.412 3.340 4.617
3.303 3.467 4.526
3.052 3.309 4.526
2.885 3.348 4.240
2.763 3.316 4.304
2.608 3.383 3.968
2.346 3.330 3.842
2.270 3.429 3.826
3.920 3.276 4.995
3.732 3.360 4.773
3.832 3.441 4.644
3.495 3.492 4.533
3.378 3.578 4.445
3.143 3.565 4.298
3.101 3.444 4.150
2.900 3.505 4.120
2.702 3.632 3.970
2.394 3.551 3.835
2.187 3.550 3.610
3.965 3.453 4.747
3.661 3.424 4.726
3.769 3.755 4.543
3.610 3.706 4.456
3.436 3.694 4.341
3.203 3.744 4.278
3.043 3.751 4.052
2.817 3.587 4.030
2.616 3.620 3.790
2.601 3.741 3.744
2.336 3.712 3.586
4.299 3.657 4.931
3.924 3.710 4.781
3.897 3.582 4.612
3.893 3.943 4.496
3.822 3.906 4.212
3.617 3.852 4.092
3.421 3.780 4.009
3.108 3.831 4.030
3.041 3.944 3.782
2.863 3.819 3.709
2.609 3.916 3.565
4.197 3.914 4.621
4.079 3.813 4.500
3.930 3.930 4.407
3.996 4.030 4.400
3.730 4.089 4.157
3.592 3.902 4.141
3.473 3.943 3.909
3.214 4.029 3.889
3.172 3.982 3.705
2.810 4.039 3.607
4.414 4.005 4.553
4.189 4.083 4.335
4.069 3.899 4.291
4.058 4.181 4.145
3.827 4.177 4.104
3.741 4.075 3.901
3.540 4.086 3.870
3.418 4.151 3.607
3.078 4.108 3.501
4.490 4.143 4.449
4.280 4.074 4.408
4.116 4.194 4.141
4.117 4.350 4.037
4.069 4.342 3.855
3.786 4.225 3.712
3.662 4.312 3.652
3.410 4.401 3.474
4.574 4.357 4.409
4.371 4.401 4.241
4.280 4.262 3.981
4.249 4.515 4.010
4.066 4.370 3.731
3.931 4.565 3.652
3.679 4.400 3.443
-0.017 4.463 1.054
4.633 4.524 4.231
4.415 4.446 4.012
4.395 4.579 3.890
4.379 4.552 3.733
4.230 4.673 3.568
3.960 4.604 3.542
3.816 4.620 3.322
0.223 4.556 1.057
0.155 4.582 0.783
4.739 4.698 3.967
4.583 4.720 3.887
4.415 4.554 3.788
4.443 4.877 3.560
4.372 4.817 3.541
4.071 4.683 3.507
0.480 4.816 1.029
0.481 4.779 0.909
0.236 4.840 0.821
-0.048 4.781 0.592
4.822 4.884 3.958
4.640 4.792 3.883
4.390 4.868 3.710
4.513 5.023 3.473
4.416 4.936 3.400
4.168 4.857 3.253
0.869 4.967 0.955
0.697 4.867 0.912
0.588 4.880 0.701
0.275 5.049 0.504
0.152 4.981 0.520
4.978 4.976 3.732
4.659 5.006 3.695
4.597 5.007 3.567
4.694 5.083 3.479
4.406 5.132 3.253
0.972 5.024 0.855
0.860 5.057 0.635
0.640 5.092 0.666
0.398 5.070 0.541
0.162 5.197 0.338
0.127 5.176 0.109
5.051 5.190 3.554
4.845 5.071 3.560
4.690 5.009 3.394
4.737 5.251 3.363
4.556 5.310 3.046
1.013 5.276 0.657
0.952 5.226 0.584
0.586 5.358 0.535
0.481 5.235 0.294
0.402 5.343 0.309
0.025 5.279 -0.015
5.200 5.205 3.474
4.909 5.309 3.403
4.792 5.270 3.184
4.744 5.357 3.234
4.669 5.478 2.928
1.060 5.494 0.517
0.934 5.482 0.392
0.786 5.549 0.388
0.507 5.436 0.263
0.491 5.538 0.107
5.173 5.310 3.320
4.974 5.335 3.290
4.867 5.371 3.146
4.847 5.663 2.922
4.712 5.642 2.919
1.303 5.690 0.500
1.052 5.682 0.283
0.915 5.535 0.193
0.647 5.502 0.069
5.313 5.592 3.294
5.199 5.637 3.141
4.830 5.606 3.003
5.073 5.730 2.807
4.731 5.685 2.721
1.152 5.832 0.282
0.860 5.830 0.144
5.387 5.787 3.186
5.165 5.810 2.886
5.085 5.837 2.823
5.178 5.779 2.754
5.529 5.803 2.963
5.203 5.870 2.891
5.072 5.920 2.718
5.123 6.022 2.635
5.590 6.068 2.763
5.319 6.005 2.726
5.273 5.990 2.563
5.292 6.122 2.362
5.215 6.257 2.236
5.708 6.234 2.619
5.524 6.145 2.622
5.219 6.306 2.509
3.339 2.807 5.369
3.107 2.770 5.241
2.879 2.773 5.141
2.668 2.721 5.042
2.559 2.697 4.829
2.382 2.702 4.748
2.238 2.840 4.533
3.363 2.779 5.257
3.375 2.851 5.274
3.252 2.814 5.077
2.933 2.855 4.981
2.833 2.875 4.751
2.686 2.926 4.745
2.527 2.831 4.611
2.187 2.897 4.426
2.161 2.908 4.328
3.645 2.815 5.297
3.345 3.000 5.237
3.452 3.051 4.997
3.187 3.116 4.911
3.178 3.022 4.773
2.978 3.147 4.707
2.761 3.061 4.659
2.607 3.102 4.364
2.273 3.014 4.249
2.065 3.091 4.161
1.959 3.157 4.003
3.742 3.098 5.302
3.505 3.066 5.011
3.616 3.307 4.972
3.291 3.230 4.740
3.228 3.215 4.671
3.049 3.193 4.538
2.747 3.303 4.542
2.613 3.270 4.331
2.467 3.231 4.186
2.302 3.156 4.054
2.096 3.124 3.871
3.802 3.298 5.058
3.619 3.195 5.032
3.692 3.095 4.868
3.428 2.951 4.605
3.197 3.073 4.620
3.099 3.060 4.532
2.886 3.088 4.313
2.726 3.131 4.117
2.502 3.075 4.059
2.348 3.069 3.902
2.191 3.130 3.788
3.778 2.962 5.019
3.555 3.078 4.929
3.752 3.295 4.690
3.646 3.215 4.507
3.396 3.288 4.384
3.283 3.222 4.364
3.005 3.145 4.198
2.810 3.194 4.131
2.729 3.300 3.841
2.401 3.298 3.910
2.358 3.222 3.681
3.939 3.203 4.751
3.769 3.114 4.626
3.920 3.394 4.511
3.714 3.338 4.441
3.464 3.359 4.257
3.265 3.276 4.106
3.124 3.475 3.997
2.919 3.396 3.940
2.657 3.452 3.719
2.484 3.454 3.697
2.405 3.367 3.505
3.913 3.405 4.796
3.839 3.286 4.581
3.816 3.519 4.345
3.699 3.578 4.213
3.448 3.552 4.101
3.453 3.439 4.072
3.224 3.578 3.951
2.942 3.487 3.859
2.775 3.544 3.746
2.717 3.605 3.589
4.207 3.470 4.627
3.874 3.451 4.482
3.966 3.583 4.362
3.892 3.750 4.085
3.724 3.660 4.057
3.422 3.688 3.937
3.276 3.612 3.745
3.067 3.588 3.699
2.796 3.657 3.515
4.259 3.576 4.469
3.919 3.779 4.210
4.024 3.818 4.289
3.848 3.747 3.994
3.839 3.925 3.859
3.478 3.936 3.903
3.391 3.878 3.684
3.139 3.880 3.527
4.392 3.900 4.410
4.371 3.930 4.375
4.138 3.927 4.231
4.220 4.067 3.972
3.944 4.027 3.867
3.810 4.033 3.798
3.688 3.910 3.733
3.349 4.056 3.435
4.633 4.054 4.354
4.308 4.061 4.114
4.227 4.061 3.954
4.212 4.089 3.950
4.020 4.155 3.775
4.012 4.056 3.617
3.825 4.095 3.454
4.606 4.244 4.150
4.449 4.056 4.105
4.197 4.092 3.823
4.485 4.229 3.749
4.087 4.329 3.663
4.074 4.343 3.632
4.789 4.305 4.101
4.606 4.272 3.871
4.277 4.358 3.890
4.573 4.557 3.709
4.176 4.371 3.548
4.056 4.561 3.336
0.261 4.552 0.810
-0.063 4.522 0.550
4.736 4.480 3.853
4.579 4.504 3.786
4.489 4.421 3.693
4.516 4.556 3.630
4.410 4.640 3.291
0.513 4.722 0.805
0.284 4.620 0.698
0.129 4.639 0.483
4.965 4.728 3.734
4.803 4.580 3.725
4.544 4.687 3.539
4.679 4.814 3.311
4.466 4.844 3.259
0.755 4.853 0.763
0.571 4.783 0.551
0.367 4.870 0.515
0.240 4.910 0.284
0.072 4.830 0.305
4.944 4.835 3.729
4.898 4.831 3.414
4.609 4.841 3.458
4.771 4.887 3.233
4.629 4.990 3.150
1.037 5.014 0.799
0.961 5.010 0.673
0.664 5.045 0.380
0.548 4.876 0.293
0.310 5.001 0.126
0.177 5.005 0.164
5.186 4.995 3.570
4.833 4.941 3.331
4.670 4.990 3.243
4.808 5.177 3.226
4.697 5.139 3.032
1.192 5.132 0.506
0.882 5.134 0.485
0.766 5.200 0.270
0.628 5.155 0.206
0.296 5.231 0.179
5.228 5.066 3.458
4.927 5.113 3.168
4.755 5.080 3.099
4.909 5.254 3.011
4.838 5.188 2.868
1.327 5.222 0.518
0.986 5.212 0.415
0.841 5.184 0.144
0.568 5.337 0.142
5.229 5.271 3.312
5.192 5.294 3.040
5.021 5.225 3.089
4.946 5.504 2.956
4.758 5.444 2.631
1.392 5.480 0.350
1.179 5.346 0.225
1.001 5.437 0.124
5.489 5.452 3.221
5.301 5.350 3.051
5.020 5.330 2.850
5.065 5.539 2.641
4.863 5.661 2.596
1.449 5.642 0.281
1.290 5.506 0.096
5.507 5.656 3.091
5.264 5.532 2.926
5.201 5.652 2.788
5.181 5.637 2.647
5.087 5.750 2.483
5.515 5.706 2.833
5.411 5.658 2.640
5.237 5.721 2.693
5.333 5.805 2.561
5.066 5.983 2.288
5.755 5.942 2.693
5.380 5.946 2.674
5.335 5.940 2.389
5.420 5.944 2.319
5.237 5.982 2.221
4.981 6.072 2.039
5.844 6.097 2.519
5.463 6.049 2.575
5.341 6.038 2.429
5.518 6.247 2.177
5.354 6.206 1.978
5.069 6.286 2.043
5.749 6.249 2.388
5.556 6.298 2.425
5.368 6.102 2.218
3.412 2.653 5.125
3.285 2.569 5.004
3.032 2.510 5.080
2.853 2.570 4.770
2.681 2.534 4.786
2.394 2.635 4.548
2.155 2.528 4.544
2.014 2.573 4.282
3.464 2.651 5.401
3.304 2.628 5.179
3.525 2.704 5.073
3.335 2.692 5.075
3.169 2.776 4.773
2.876 2.772 4.671
2.721 2.779 4.645
2.640 2.832 4.481
2.250 2.675 4.236
2.074 2.641 4.163
1.909 2.749 4.029
3.639 2.807 5.188
3.471 2.747 5.098
3.662 2.975 4.897
3.438 2.804 4.828
3.244 2.847 4.817
2.993 2.802 4.520
2.838 2.833 4.369
2.644 2.810 4.336
2.424 2.950 4.224
2.181 2.845 4.164
1.984 2.957 3.978
3.764 2.846 5.134
3.497 2.949 5.067
3.592 3.007 4.914
3.397 3.026 4.706
3.356 2.997 4.588
3.085 2.995 4.452
2.981 2.977 4.313
2.643 3.045 4.144
2.522 3.074 4.082
2.325 3.092 4.049
2.263 3.059 3.782
3.938 3.072 5.042
3.567 2.992 4.841
3.746 2.890 4.769
3.521 2.907 4.618
3.460 2.854 4.533
3.186 2.975 4.262
2.894 2.922 4.112
2.827 2.904 3.969
2.592 2.881 3.937
2.511 2.910 3.877
2.343 2.802 3.638
3.837 2.969 4.929
3.635 2.795 4.652
3.864 3.075 4.658
3.603 2.959 4.491
3.392 3.105 4.234
3.329 3.093 4.179
3.061 2.959 4.164
2.894 3.087 3.849
2.693 3.089 3.861
2.609 3.026 3.758
2.334 3.111 3.570
3.997 3.024 4.596
3.732 3.042 4.582
3.995 3.306 4.418
3.749 3.130 4.315
3.582 3.128 4.211
3.340 3.105 4.037
3.157 3.125 4.033
2.947 3.106 3.747
2.796 3.148 3.719
2.532 3.313 3.529
4.182 3.122 4.534
3.940 3.104 4.405
3.980 3.364 4.375
3.843 3.385 4.289
3.742 3.275 4.002
3.389 3.355 3.995
3.245 3.290 3.763
3.093 3.338 3.744
2.889 3.402 3.624
4.000 3.364 4.408
4.156 3.480 4.285
3.887 3.433 4.037
3.687 3.499 3.852
3.600 3.583 3.733
3.400 3.454 3.698
3.245 3.555 3.444
4.139 3.497 4.261
4.197 3.702 4.091
3.961 3.598 4.004
3.726 3.711 3.773
3.621 3.616 3.701
3.350 3.624 3.569
4.420 3.599 4.072
4.160 3.671 4.059
4.359 3.877 3.999
4.136 3.921 3.686
3.988 3.735 3.614
3.691 3.833 3.525
4.425 3.889 4.066
4.182 3.781 3.998
4.357 4.078 3.875
4.095 4.021 3.634
4.097 3.980 3.490
4.724 4.098 3.982
4.500 3.935 3.830
4.377 4.039 3.783
4.458 4.211 3.649
4.218 4.151 3.519
4.771 4.213 4.006
4.703 4.152 3.830
4.436 4.167 3.580
4.460 4.284 3.427
4.444 4.337 3.361
0.021 4.324 0.404
4.954 4.263 3.733
4.700 4.400 3.639
4.598 4.244 3.598
4.616 4.480 3.407
0.333 4.448 0.465
0.215 4.486 0.258
-0.053 4.518 0.272
4.934 4.542 3.580
4.887 4.373 3.620
4.648 4.543 3.339
4.809 4.708 3.355
0.649 4.565 0.552
0.391 4.552 0.397
0.307 4.621 0.116
0.037 4.650 0.003
5.113 4.522 3.538
5.028 4.616 3.294
4.755 4.591 3.254
4.918 4.869 3.191
4.562 4.712 3.086
0.922 4.780 0.477
0.682 4.777 0.296
0.632 4.765 0.308
0.395 4.780 -0.010
5.220 4.708 3.379
5.016 4.865 3.343
4.922 4.693 3.113
4.865 4.885 2.970
4.672 4.927 2.877
1.207 4.880 0.520
1.023 4.866 0.316
0.749 5.018 0.128
0.590 4.961 -0.004
5.377 4.845 3.200
5.002 4.999 3.209
4.827 4.835 3.045
5.080 5.022 2.776
4.906 5.168 2.778
1.294 5.127 0.340
1.155 5.180 0.182
0.896 5.032 0.077
5.419 5.056 3.071
5.151 4.987 2.941
5.015 5.042 2.787
5.009 5.324 2.779
4.980 5.260 2.613
1.452 5.305 0.302
1.272 5.238 0.092
5.403 5.290 3.074
5.380 5.216 2.938
5.027 5.275 2.656
5.265 5.326 2.562
5.057 5.339 2.458
1.455 5.506 0.170
5.482 5.493 2.845
5.275 5.358 2.751
5.276 5.394 2.661
5.365 5.464 2.430
5.014 5.468 2.317
4.973 5.469 2.213
5.598 5.460 2.627
5.516 5.609 2.577
5.276 5.570 2.573
5.407 5.723 2.325
5.128 5.806 2.261
5.112 5.753 2.030
5.795 5.747 2.654
5.613 5.651 2.435
5.456 5.723 2.296
5.461 5.833 2.156
5.278 5.981 2.098
5.115 5.835 2.036
5.022 5.962 1.912
5.837 5.872 2.509
5.620 5.857 2.366
5.396 5.848 2.317
5.522 6.030 1.977
5.373 5.977 1.997
5.238 6.110 1.769
4.981 5.961 1.631
5.848 6.121 2.268
5.753 5.948 2.131
5.631 6.049 1.989
5.604 6.095 1.950
5.477 6.200 1.884
5.229 6.278 1.702
4.993 6.246 1.487
4.985 6.308 1.395
6.105 6.151 2.139
5.806 6.161 2.114
5.681 6.248 1.928
3.404 2.449 5.095
3.290 2.436 4.898
3.133 2.410 4.742
2.851 2.333 4.827
2.735 2.519 4.683
2.599 2.407 4.375
2.366 2.443 4.374
2.168 2.525 4.136
1.879 2.488 4.044
3.922 2.434 5.342
3.612 2.330 5.219
3.566 2.521 5.067
3.593 2.540 4.948
3.424 2.635 4.806
3.077 2.490 4.812
2.908 2.485 4.489
2.764 2.555 4.523
2.722 2.563 4.366
2.534 2.635 4.225
2.273 2.514 4.054
2.040 2.628 3.852
3.707 2.672 5.099
3.592 2.497 4.945
3.662 2.775 4.822
3.357 2.717 4.757
3.294 2.757 4.555
3.035 2.784 4.446
2.861 2.829 4.360
2.691 2.830 4.221
2.505 2.733 3.999
2.363 2.844 3.954
2.250 2.668 3.732
3.724 2.829 5.028
3.604 2.789 4.844
3.675 2.972 4.681
3.542 2.928 4.564
3.269 2.863 4.454
3.211 2.845 4.253
3.065 2.805 4.119
2.887 2.858 4.056
2.702 2.973 4.045
2.538 2.869 3.777
2.164 2.874 3.696
3.987 2.926 4.861
3.697 2.859 4.780
3.766 2.683 4.631
3.681 2.676 4.432
3.555 2.689 4.429
3.249 2.734 4.249
3.133 2.674 4.035
2.800 2.762 4.007
2.708 2.718 3.863
2.558 2.674 3.716
2.376 2.641 3.456
3.989 2.767 4.776
3.774 2.751 4.657
3.903 2.967 4.419
3.807 2.981 4.411
3.612 2.954 4.190
3.409 2.881 4.135
3.083 2.839 4.036
2.985 2.873 3.806
2.738 2.862 3.700
2.566 2.851 3.503
2.397 2.882 3.399
3.923 2.884 4.363
3.925 2.951 4.219
3.802 2.990 4.147
3.576 3.046 4.062
3.512 3.034 4.015
3.237 3.017 3.800
3.160 3.007 3.627
2.922 3.019 3.489
2.745 3.103 3.371
3.956 3.067 4.389
3.991 3.239 3.958
3.813 3.143 3.840
3.624 3.233 3.822
3.370 3.198 3.625
3.145 3.135 3.622
3.020 3.282 3.374
4.100 3.287 4.016
3.859 3.367 3.819
3.655 3.339 3.659
3.522 3.311 3.457
0.271 4.444 0.123
0.077 4.235 0.100
5.020 4.235 3.478
4.885 4.231 3.346
0.862 4.473 0.297
0.518 4.586 0.176
0.352 4.463 0.015
5.110 4.435 3.322
5.057 4.481 3.240
5.026 4.686 3.095
0.962 4.743 0.361
0.853 4.544 0.259
0.608 4.725 0.099
5.355 4.556 3.200
5.121 4.586 3.070
5.022 4.708 2.910
4.920 4.786 2.775
1.264 4.858 0.300
1.145 4.860 0.104
0.969 4.886 0.004
5.324 4.846 3.182
5.206 4.746 3.031
5.008 4.721 2.812
5.204 4.900 2.727
4.838 4.847 2.600
1.353 4.869 0.161
1.136 5.003 0.137
5.471 4.833 3.045
5.359 4.991 2.871
5.010 4.953 2.792
5.258 5.046 2.562
5.027 5.163 2.547
1.459 5.163 0.165
5.659 5.057 2.847
5.428 4.986 2.822
5.106 5.166 2.688
5.242 5.323 2.429
5.075 5.162 2.415
5.567 5.167 2.816
5.490 5.213 2.601
5.240 5.192 2.399
5.299 5.424 2.319
5.134 5.437 2.255
5.048 5.472 2.012
5.828 5.510 2.591
5.627 5.381 2.463
5.456 5.400 2.253
5.440 5.634 2.229
5.316 5.548 1.991
5.202 5.518 2.043
5.004 5.644 1.753
5.808 5.459 2.558
5.605 5.662 2.351
5.377 5.459 2.210
5.651 5.826 2.134
5.294 5.816 1.988
5.082 5.621 1.883
5.002 5.635 1.727
5.897 5.701 2.357
5.782 5.771 2.223
5.528 5.653 2.129
5.629 5.774 2.010
5.429 5.872 1.884
5.327 5.877 1.662
5.090 5.905 1.516
4.942 5.941 1.536
5.967 5.835 2.185
5.762 5.816 2.004
5.702 5.846 1.856
5.835 6.028 1.732
5.502 6.026 1.746
5.399 5.957 1.494
5.149 6.041 1.352
5.003 5.957 1.371
4.868 6.056 1.162
6.158 6.025 2.073
5.874 6.048 1.900
5.633 5.941 1.901
5.808 6.087 1.744
5.554 6.201 1.613
5.529 6.194 1.330
5.176 6.259 1.403
5.092 6.235 1.260
4.890 6.224 1.022
4.684 6.184 0.910
6.144 6.239 2.039
6.027 6.174 1.878
5.757 6.260 1.656
3.636 2.368 4.975
3.390 2.279 4.852
3.172 2.185 4.616
2.895 2.264 4.540
2.868 2.363 4.422
2.664 2.244 4.239
2.374 2.250 4.196
