3.414 0.429 2.958
3.495 0.433 3.267
3.353 0.596 2.977
3.516 0.875 2.660
3.236 1.110 2.404
3.305 0.976 2.368
3.198 1.344 2.295
2.961 1.278 1.860
2.684 1.665 1.942
2.691 1.760 1.655
2.711 1.777 1.423
3.760 0.277 3.705
3.859 0.452 3.542
3.747 0.552 3.296
3.573 0.587 2.988
3.450 0.729 3.378
3.407 0.876 2.977
3.423 1.176 3.080
3.162 1.158 2.639
3.161 1.379 2.489
3.193 1.505 2.155
2.993 1.725 2.014
2.743 1.844 1.781
4.142 0.117 4.347
4.119 0.133 3.958
3.783 0.286 3.956
3.751 0.675 3.611
3.630 0.560 3.626
3.604 0.727 3.349
3.648 0.929 3.521
3.368 1.216 3.119
3.290 1.378 2.986
3.212 1.596 2.970
4.167 0.109 4.914
4.173 0.089 4.486
4.221 0.383 4.418
4.142 0.528 4.126
3.986 0.642 4.051
3.935 0.876 3.858
3.672 0.966 3.711
3.560 1.059 3.318
3.697 1.082 3.519
3.675 1.214 3.517
4.402 0.158 5.001
4.426 0.222 5.112
4.246 0.369 4.709
4.046 0.519 4.511
3.921 0.705 4.424
4.086 0.635 4.209
3.712 0.784 4.026
3.552 1.142 3.860
3.571 1.350 3.752
3.475 1.473 3.618
4.631 0.237 5.515
4.459 0.201 5.238
4.186 0.438 5.192
4.330 0.604 4.984
4.232 0.594 4.683
4.072 0.965 4.391
3.806 1.104 4.317
3.797 1.229 4.204
3.840 1.327 3.939
3.661 1.433 3.633
4.661 0.239 5.761
4.620 0.348 5.596
4.454 0.575 5.082
4.137 0.709 5.120
4.090 0.813 4.876
3.905 0.951 4.660
4.048 1.343 4.559
3.715 1.317 4.330
3.803 1.398 4.082
4.357 0.705 5.622
4.301 0.710 5.552
4.383 1.053 5.134
4.148 1.304 5.084
4.238 1.162 4.666
3.850 1.575 4.717
3.731 1.588 4.387
4.343 0.971 5.417
4.273 1.179 5.318
4.218 1.544 5.167
4.124 1.576 4.924
2.945 -0.069 1.756
2.814 0.278 1.492
2.910 0.459 1.298
2.856 0.593 0.890
3.307 0.041 1.407
3.244 0.179 1.352
2.974 0.231 1.280
3.557 0.155 2.017
3.304 0.309 1.766
3.326 0.476 1.815
3.267 0.347 1.465
3.026 0.607 1.186
3.166 0.835 1.129
3.753 -0.011 2.357
3.677 0.393 2.065
3.279 0.433 2.143
3.384 0.422 1.811
3.397 0.733 1.590
3.236 0.869 1.442
3.079 0.982 1.081
2.861 1.238 1.211
3.748 0.129 2.920
3.511 0.364 2.397
3.696 0.553 2.234
3.405 0.476 2.277
3.430 0.702 1.884
3.121 0.787 1.826
3.009 0.998 1.728
3.101 1.156 1.520
2.974 1.429 1.113
3.859 0.030 2.921
3.657 0.269 2.754
3.812 0.255 2.968
3.573 0.439 2.818
3.552 0.688 2.660
3.423 0.662 2.237
3.391 0.898 2.085
3.292 1.098 1.794
3.004 1.364 1.811
2.992 1.503 1.378
3.089 1.675 1.366
3.965 0.239 3.133
4.021 0.378 3.215
3.612 0.324 3.063
3.875 0.784 3.178
3.659 0.629 3.009
3.648 0.764 2.829
3.553 1.125 2.452
3.563 1.055 2.146
3.324 1.472 2.052
3.347 1.459 1.846
3.089 1.582 1.621
4.269 0.131 3.788
4.027 0.312 3.455
3.898 0.552 3.386
3.852 0.468 3.075
3.780 0.773 3.223
3.839 0.887 2.991
3.763 0.980 2.669
3.450 1.323 2.498
3.501 1.440 2.400
3.302 1.446 2.120
4.313 -0.037 4.126
4.064 0.140 3.842
4.159 0.312 3.767
3.874 0.599 3.522
3.950 0.558 3.571
3.925 0.977 3.358
3.909 1.125 3.189
3.593 1.099 2.998
3.531 1.280 3.070
3.390 1.329 2.661
4.677 0.018 4.726
4.433 0.109 4.437
4.276 0.186 4.386
4.254 0.572 3.995
4.235 0.655 3.902
4.087 0.893 3.620
4.038 0.754 3.661
3.985 1.215 3.464
3.744 1.383 3.397
3.888 1.350 3.202
3.798 1.620 3.018
4.664 0.253 5.110
4.462 0.340 4.830
4.433 0.371 4.569
4.389 0.424 4.531
4.109 0.801 4.135
4.326 0.692 4.108
4.065 0.898 3.795
4.049 0.980 3.666
3.955 1.233 3.347
4.036 1.451 3.655
3.685 1.721 3.361
4.633 0.343 5.291
4.591 0.366 4.917
4.619 0.646 4.979
4.548 0.852 4.638
4.301 0.860 4.336
4.103 1.006 4.325
4.191 1.030 3.937
3.823 1.412 3.896
3.889 1.426 3.738
3.816 1.816 3.729
4.872 0.628 5.333
4.619 0.556 5.300
4.530 0.717 4.955
4.260 1.087 4.725
4.358 1.278 4.611
4.065 1.248 4.454
4.181 1.291 4.115
4.028 1.677 3.881
3.749 1.537 3.926
4.639 0.824 5.269
4.568 1.074 5.266
4.492 1.068 4.747
4.464 1.407 4.766
4.061 1.456 4.687
4.020 1.641 4.489
3.874 1.842 4.213
4.496 1.151 5.355
4.305 1.570 5.177
4.237 1.406 4.753
4.284 1.705 4.692
4.235 1.874 4.366
3.271 0.004 1.676
3.308 0.349 1.284
3.227 0.485 1.191
3.713 -0.063 1.494
3.384 0.286 1.387
3.603 0.420 1.114
3.503 0.515 1.089
3.747 0.135 1.869
3.791 0.163 1.740
3.589 0.316 1.437
3.291 0.351 1.327
3.513 0.509 1.317
3.136 0.932 0.847
3.842 0.175 2.468
3.989 0.259 2.401
3.930 0.222 2.018
3.522 0.533 2.001
3.523 0.412 1.903
3.492 0.792 1.570
3.438 0.922 1.217
3.356 1.111 1.071
3.995 0.094 2.661
3.842 0.359 2.664
3.784 0.467 2.569
3.939 0.677 2.210
3.555 0.693 1.951
3.617 0.804 2.029
3.593 1.004 1.752
3.278 1.194 1.440
3.163 1.205 1.353
3.934 0.118 2.773
3.932 0.183 2.567
4.162 0.385 2.791
3.960 0.447 2.625
3.739 0.672 2.350
3.551 0.977 2.390
3.457 0.915 2.200
3.372 1.292 1.723
3.429 1.194 1.531
3.398 1.532 1.331
4.345 0.271 3.108
4.281 0.468 2.896
4.097 0.597 2.649
4.188 0.740 3.098
3.894 0.821 2.598
3.935 1.074 2.429
3.603 0.984 2.455
3.555 1.063 2.283
3.577 1.211 2.109
3.580 1.508 1.829
4.360 0.366 3.429
4.309 0.506 3.350
4.145 0.585 3.231
4.158 0.740 2.926
3.933 0.820 3.171
3.996 0.945 2.969
4.013 1.147 2.598
3.652 1.180 2.505
3.577 1.562 2.196
4.557 0.142 3.972
4.278 0.478 3.822
4.087 0.585 3.521
4.206 0.776 3.442
4.173 1.008 3.156
3.936 1.157 3.326
4.066 1.364 3.027
3.800 1.533 2.732
3.932 1.681 2.508
4.799 0.219 4.517
4.496 0.327 4.089
4.566 0.571 3.899
4.426 0.770 3.812
4.398 0.675 3.517
4.007 1.015 3.589
4.236 0.940 3.232
4.243 1.294 3.276
3.826 1.589 3.062
3.885 1.662 3.003
4.715 0.417 4.931
4.638 0.350 4.497
4.673 0.467 4.497
4.354 0.717 4.322
4.238 0.936 4.027
4.215 1.067 3.808
4.260 1.027 3.644
4.248 1.453 3.560
4.202 1.406 3.647
3.861 1.500 3.386
4.930 0.429 4.958
4.725 0.543 4.850
4.632 0.904 4.603
4.384 0.822 4.429
4.423 1.204 4.034
4.294 1.093 4.082
4.248 1.228 3.633
4.271 1.459 3.526
4.024 1.852 3.587
4.701 0.870 4.985
4.815 0.765 4.750
4.652 1.007 4.542
4.669 1.301 4.521
4.349 1.152 4.228
4.393 1.391 4.199
4.322 1.647 3.847
4.280 1.734 3.719
5.024 1.013 5.068
4.740 1.100 5.161
4.671 1.376 4.793
4.535 1.283 4.492
4.568 1.517 4.430
4.493 1.827 4.334
4.394 1.661 4.165
4.936 1.257 5.281
4.553 1.434 4.956
4.536 1.586 4.711
4.483 1.725 4.554
4.423 1.890 4.279
4.450 2.104 4.094
4.697 1.714 5.212
4.449 1.898 4.854
4.669 2.102 4.608
4.381 2.003 4.614
3.350 -0.003 1.171
3.742 0.066 1.620
3.648 0.218 1.318
3.366 0.322 1.327
3.450 0.280 0.997
4.049 0.193 1.604
3.896 0.311 1.421
3.532 0.366 1.020
3.425 0.331 1.033
4.035 0.008 1.797
3.842 0.263 1.620
3.787 0.238 1.416
3.827 0.561 1.412
3.581 0.849 1.083
4.278 -0.034 2.369
4.241 0.303 2.303
4.034 0.216 1.908
3.766 0.377 1.709
3.934 0.538 1.596
3.587 0.703 1.518
3.779 0.914 1.419
4.273 -0.114 2.275
4.198 0.132 2.695
4.249 0.565 2.294
4.027 0.490 2.308
3.954 0.657 2.089
3.811 0.739 1.646
3.582 1.007 1.556
3.608 1.096 1.400
4.344 0.002 2.791
4.181 0.307 2.589
4.242 0.554 2.766
4.068 0.754 2.576
4.196 0.600 2.207
4.084 1.041 2.167
3.735 0.930 1.873
3.736 1.060 1.733
3.513 1.471 1.459
4.327 0.252 3.156
4.256 0.175 3.000
4.241 0.376 2.645
4.341 0.665 3.016
4.301 0.919 2.785
3.916 1.097 2.546
4.055 1.028 2.264
4.033 1.373 2.230
3.734 1.579 1.736
4.490 0.431 3.348
4.626 0.557 3.231
4.353 0.477 3.060
4.238 0.627 2.830
4.319 1.012 2.967
4.302 1.110 2.707
4.109 1.171 2.764
3.917 1.273 2.568
4.005 1.417 2.150
4.826 0.359 3.750
4.547 0.608 3.676
4.667 0.463 3.374
4.398 0.867 3.218
4.282 0.855 2.852
4.268 1.149 3.262
4.091 1.335 2.812
4.218 1.528 2.768
3.936 1.416 2.571
4.887 0.526 4.073
4.624 0.419 3.773
4.714 0.759 3.775
4.404 0.930 3.684
4.288 0.905 3.189
4.189 1.208 3.128
4.404 1.491 3.165
4.087 1.603 3.181
4.070 1.731 2.892
4.771 0.484 4.651
4.887 0.525 4.298
4.821 0.796 4.030
4.773 0.764 3.841
4.638 0.902 3.642
4.444 1.191 3.647
4.325 1.193 3.348
4.343 1.569 3.406
4.213 1.850 3.429
4.917 0.809 4.521
4.990 0.791 4.496
4.751 0.894 4.214
4.647 1.245 3.906
4.575 1.436 3.889
4.316 1.291 3.504
4.263 1.617 3.442
4.481 1.770 3.612
4.970 0.901 4.870
4.854 1.223 4.645
4.692 1.289 4.421
4.587 1.239 4.141
4.450 1.366 3.907
4.560 1.586 3.933
4.263 1.766 3.584
4.353 2.034 3.663
5.071 1.252 4.795
4.898 1.225 4.593
4.693 1.593 4.649
4.842 1.432 4.482
4.529 1.742 4.105
4.376 1.727 4.118
4.515 2.047 3.637
4.993 1.350 4.909
5.070 1.425 4.874
4.845 1.805 4.836
4.555 1.781 4.526
4.454 2.015 4.223
4.557 2.064 4.106
4.793 1.547 5.072
4.678 1.854 4.896
4.588 2.012 4.649
4.796 2.282 4.594
4.564 2.156 4.101
4.695 2.019 4.908
4.790 2.132 4.684
4.517 2.248 4.618
3.564 0.252 1.080
3.810 -0.074 1.496
3.618 0.034 1.231
3.659 0.166 1.015
3.499 0.620 0.856
3.965 -0.051 1.431
3.899 0.355 1.164
3.931 0.527 1.147
3.730 0.580 0.881
4.406 -0.092 1.984
4.306 0.240 1.841
4.240 0.436 1.758
4.015 0.306 1.465
3.951 0.437 1.195
3.805 0.871 1.188
4.427 0.212 2.410
4.501 0.124 2.098
4.368 0.505 2.005
4.030 0.531 1.847
4.129 0.757 1.647
4.046 0.839 1.426
3.911 1.079 1.163
4.486 0.072 2.349
4.393 0.384 2.546
4.214 0.431 2.139
4.232 0.762 1.945
4.200 0.771 2.001
4.232 0.884 1.830
3.860 1.159 1.576
4.561 0.177 2.741
4.335 0.190 2.385
4.425 0.525 2.725
4.242 0.758 2.429
4.220 0.679 2.174
4.369 0.816 2.120
4.201 0.941 1.699
4.134 1.196 1.531
4.703 0.375 2.907
4.634 0.440 2.772
4.645 0.644 2.762
4.415 1.013 2.566
4.325 1.007 2.248
4.179 1.118 2.125
4.167 1.147 1.859
4.794 0.465 3.115
4.506 0.740 3.055
4.562 0.624 2.687
4.404 0.840 2.839
4.547 1.177 2.840
4.239 1.235 2.428
4.293 1.497 2.180
4.686 0.502 3.583
4.768 0.573 3.396
4.760 0.791 3.214
4.651 0.937 2.987
4.591 1.277 3.149
4.314 1.308 3.026
4.482 1.330 2.562
5.082 0.490 3.828
4.725 0.735 3.721
4.853 1.037 3.414
4.757 0.905 3.112
4.513 1.214 2.986
4.581 1.369 3.073
4.371 1.607 2.940
5.019 0.511 4.139
4.967 0.789 4.008
4.977 0.979 3.662
4.752 1.211 3.767
4.699 1.365 3.447
4.440 1.447 3.271
4.486 1.693 3.312
4.493 1.896 3.187
5.075 0.879 4.427
4.911 0.976 4.313
4.796 1.064 3.901
4.791 1.474 3.676
4.846 1.524 3.714
4.438 1.501 3.208
4.520 1.658 3.581
5.309 1.047 4.514
5.156 1.043 4.558
5.034 1.206 4.184
5.024 1.532 4.200
4.888 1.600 3.845
4.584 1.533 3.793
4.460 1.984 3.617
4.505 1.963 3.614
5.258 1.323 4.923
5.163 1.416 4.690
4.873 1.539 4.324
4.798 1.611 4.087
4.688 1.763 4.062
4.711 2.032 3.810
4.734 2.145 3.747
4.589 2.144 3.904
5.159 1.437 4.978
5.098 1.675 4.613
5.132 1.591 4.609
5.128 1.695 4.492
4.740 1.999 4.077
4.860 2.081 4.108
4.507 2.400 3.778
4.634 2.422 3.946
5.230 1.573 5.138
5.160 1.860 4.833
4.978 2.022 4.675
4.861 2.125 4.463
5.014 2.077 4.345
4.784 2.468 4.239
4.715 2.531 3.865
5.112 2.040 5.212
4.973 2.111 4.798
4.878 2.397 4.627
4.925 2.417 4.562
4.907 2.509 4.464
5.104 2.249 4.908
4.891 2.377 4.903
5.062 2.717 4.732
4.857 2.828 4.508
4.165 0.067 1.146
4.032 0.110 0.858
3.691 0.319 0.567
4.233 0.154 1.499
3.999 0.247 1.324
3.930 0.258 0.984
3.799 0.594 0.723
4.355 0.280 1.339
4.227 0.301 1.248
4.118 0.378 0.998
4.065 0.508 0.737
4.411 0.020 1.924
4.341 0.047 1.755
4.302 0.272 1.680
4.214 0.401 1.294
4.081 0.612 1.140
3.999 0.794 1.037
4.617 0.279 2.236
4.543 0.340 2.189
4.642 0.594 1.794
4.328 0.641 1.822
4.187 0.554 1.511
4.365 0.995 1.292
4.583 0.020 2.255
4.550 0.506 2.243
4.460 0.548 2.035
4.533 0.744 1.917
4.363 0.844 1.937
4.382 0.901 1.704
4.157 1.147 1.529
4.879 0.491 2.245
4.578 0.700 2.464
4.651 0.717 2.406
4.529 0.976 2.215
4.310 1.147 1.825
4.292 1.002 1.923
4.585 0.502 2.418
4.717 0.779 2.612
4.584 0.971 2.582
4.487 1.069 2.290
4.839 0.587 2.747
4.862 0.632 2.720
4.812 1.095 2.998
4.511 1.260 2.473
4.936 0.778 3.070
4.675 0.962 2.854
4.853 1.369 2.859
4.661 1.389 2.940
4.998 0.985 3.340
4.875 1.200 3.204
4.843 1.368 2.898
4.722 1.538 3.038
5.153 1.030 4.072
4.981 1.169 3.802
5.034 1.154 3.435
4.929 1.364 3.181
4.910 1.572 2.958
4.836 1.645 3.294
5.241 1.041 4.191
5.082 1.200 3.920
4.990 1.265 3.752
4.990 1.261 3.666
5.112 1.618 3.447
4.764 1.520 3.140
4.884 1.895 3.565
5.465 1.101 4.369
5.213 1.161 4.104
5.041 1.547 4.090
5.008 1.659 3.828
4.888 1.734 3.488
4.847 1.757 3.435
4.891 1.914 3.539
5.548 1.191 4.780
5.442 1.473 4.705
5.153 1.361 4.186
5.250 1.575 4.051
5.113 1.951 3.829
4.948 1.898 3.706
4.932 2.038 3.613
5.024 2.454 3.554
5.675 1.324 4.975
5.480 1.482 4.710
5.302 1.682 4.444
5.126 1.997 4.469
5.040 1.893 4.147
4.885 2.088 3.924
4.733 2.361 3.882
4.949 2.602 3.967
5.370 1.725 4.996
5.368 1.942 5.006
5.245 2.085 4.709
5.162 2.234 4.610
5.262 2.229 4.214
4.896 2.483 4.091
5.088 2.389 3.972
4.893 2.831 3.931
5.570 2.000 4.864
5.355 2.311 4.661
5.187 2.341 4.521
5.238 2.424 4.375
5.151 2.476 4.079
4.892 2.597 4.134
5.028 3.088 4.145
5.348 2.112 5.004
5.297 2.425 5.023
5.207 2.661 4.673
5.296 2.622 4.474
5.025 2.629 4.303
4.819 2.904 4.222
4.932 3.233 4.429
5.489 2.448 5.129
5.449 2.702 4.865
5.202 2.891 4.556
4.975 3.101 4.421
4.962 3.248 4.459
4.874 3.395 4.572
4.950 3.435 4.219
5.319 2.956 4.938
4.931 3.216 4.568
5.044 3.266 4.517
5.115 3.699 4.566
4.996 3.594 4.547
5.099 3.350 4.680
4.857 3.660 4.713
5.168 3.651 4.708
4.854 3.956 4.478
4.957 4.201 4.209
5.111 3.747 5.011
5.161 3.670 4.697
4.257 0.077 1.080
4.055 0.171 0.830
3.930 0.507 0.708
4.224 0.188 1.409
4.325 0.328 1.319
4.156 0.354 1.123
4.125 0.689 0.775
4.862 0.062 1.601
4.459 0.148 1.382
4.572 0.224 1.115
4.549 0.499 0.994
4.145 0.576 0.848
4.737 0.212 1.868
4.857 0.190 1.714
4.545 0.310 1.422
4.507 0.680 1.080
4.370 0.582 0.947
4.353 0.779 0.695
4.793 0.428 1.937
4.745 0.635 1.605
4.763 0.767 1.522
4.487 0.825 1.291
4.596 1.022 1.173
4.961 0.517 2.243
4.750 0.730 1.908
4.540 0.675 1.737
4.530 0.859 1.382
5.655 1.193 4.030
5.440 1.288 3.689
5.300 1.554 3.464
5.017 1.469 3.544
5.734 1.135 4.240
5.489 1.418 4.214
5.262 1.318 4.029
5.366 1.478 3.833
5.235 1.815 3.503
5.168 1.983 3.405
5.742 1.285 4.804
5.649 1.520 4.591
5.555 1.668 4.295
5.342 1.600 4.099
5.214 1.884 3.896
5.129 2.108 3.834
5.180 2.266 3.411
5.135 2.163 3.483
5.668 1.340 4.906
5.505 1.574 4.490
5.384 1.844 4.346
5.375 1.927 4.041
5.337 2.076 4.119
5.229 2.334 3.770
5.249 2.267 3.556
5.285 2.426 3.747
5.703 1.581 4.811
5.625 1.787 4.879
5.421 1.956 4.495
5.559 2.102 4.354
5.389 2.368 4.240
5.111 2.244 3.912
5.261 2.441 3.619
5.115 2.899 3.760
5.816 2.072 4.973
5.754 1.977 4.907
5.421 2.361 4.728
5.590 2.426 4.608
5.249 2.311 4.330
5.426 2.788 4.167
5.320 2.881 4.018
5.151 3.130 4.031
5.268 3.167 3.738
5.631 2.115 5.079
5.610 2.401 4.692
5.374 2.514 4.802
5.233 2.534 4.379
5.459 2.697 4.265
5.082 2.914 3.973
5.337 3.049 4.238
5.198 3.307 3.858
5.871 2.461 5.258
5.769 2.760 4.896
5.599 2.706 4.736
5.424 2.884 4.487
5.396 2.926 4.281
5.235 3.042 4.247
5.316 3.324 4.272
5.068 3.608 4.168
5.209 3.673 4.133
5.691 2.883 5.106
5.455 2.958 4.788
5.604 2.963 4.720
5.300 3.199 4.639
5.103 3.301 4.399
5.281 3.667 4.626
5.126 3.607 4.465
4.958 3.824 4.072
4.985 3.922 4.086
5.485 3.278 4.965
5.601 3.487 4.901
5.424 3.354 4.791
5.382 3.466 4.530
5.374 3.892 4.588
5.105 4.072 4.613
5.121 4.018 4.322
5.049 4.255 4.062
4.792 4.373 3.792
5.331 3.434 4.983
5.271 3.847 4.929
5.247 3.701 4.603
4.333 -0.010 0.724
4.290 0.098 0.348
4.457 -0.023 1.009
4.381 0.074 0.833
4.303 0.388 0.692
4.704 -0.001 1.337
4.580 0.138 1.252
4.579 0.153 1.064
4.545 0.590 0.963
4.464 0.458 0.588
4.981 0.154 1.498
4.766 0.206 1.216
4.811 0.258 0.989
4.616 0.548 0.901
4.666 0.671 0.515
4.962 0.300 1.608
5.129 0.138 1.519
5.012 0.397 1.325
4.742 0.600 1.180
4.829 0.769 0.789
4.935 0.389 1.728
4.883 0.661 1.352
4.710 0.856 1.258
5.625 1.544 3.855
5.635 1.593 3.655
5.386 1.817 3.647
5.789 1.313 4.212
5.933 1.542 4.093
5.702 1.625 4.017
5.563 2.009 3.764
5.509 2.044 3.622
6.001 1.549 4.730
5.729 1.762 4.503
5.778 1.751 4.371
5.808 1.924 4.060
5.719 1.945 3.906
5.648 2.381 3.581
5.274 2.613 3.726
6.036 1.791 4.942
5.804 1.992 4.583
5.723 1.921 4.538
5.840 2.128 4.221
5.725 2.219 3.935
5.409 2.546 3.823
5.391 2.643 3.613
5.441 2.638 3.937
5.880 1.944 4.982
5.985 2.076 4.648
5.946 2.344 4.732
5.654 2.428 4.341
5.776 2.367 4.102
5.417 2.830 4.142
5.492 2.818 3.944
5.542 2.919 3.860
5.406 3.249 3.866
6.090 2.263 5.142
5.817 2.274 5.029
5.993 2.560 4.657
5.849 2.433 4.409
5.805 2.667 4.255
5.433 2.833 4.256
5.343 2.980 3.910
5.566 3.337 4.097
5.443 3.507 4.058
5.352 3.637 3.735
6.207 2.254 5.218
6.078 2.481 4.967
5.796 2.803 4.794
5.782 2.735 4.605
5.688 3.089 4.589
5.556 3.092 4.181
5.428 3.378 4.198
5.372 3.559 4.114
5.512 3.431 3.925
5.203 3.832 3.728
5.258 3.998 3.748
5.977 2.873 5.319
5.894 2.805 4.932
5.833 3.066 4.889
5.624 3.175 4.640
5.522 3.253 4.524
5.627 3.483 4.223
5.408 3.574 4.479
5.320 3.975 4.258
5.182 3.845 4.024
5.252 4.022 3.758
4.929 4.251 3.464
5.768 3.068 5.294
5.723 3.118 4.826
5.611 3.336 4.804
5.758 3.576 4.587
5.407 3.778 4.380
5.363 3.908 4.690
5.311 3.860 4.390
5.440 4.055 4.058
5.137 4.336 3.941
5.089 4.473 3.770
4.970 4.756 3.464
5.802 3.570 4.976
5.716 3.745 5.006
5.500 3.632 4.620
5.572 4.053 4.682
4.623 -0.050 0.524
4.514 0.095 0.408
4.939 0.141 1.014
4.549 0.233 0.682
4.526 0.384 0.749
4.476 0.489 0.383
4.925 -0.038 1.379
4.819 0.301 1.286
4.876 0.280 1.032
4.732 0.670 0.690
4.425 0.694 0.743
5.171 0.240 1.147
5.071 0.196 1.119
5.029 0.444 1.044
4.904 0.429 0.569
4.703 0.611 0.628
5.138 0.333 1.380
5.066 0.549 1.229
4.987 0.461 1.146
4.769 0.861 0.749
6.164 1.638 4.183
5.983 1.706 3.945
5.961 1.920 3.965
5.855 1.985 3.729
6.250 1.688 4.619
5.984 1.729 4.507
5.901 1.968 4.376
5.788 1.964 3.887
5.803 2.227 3.777
5.677 2.157 3.584
6.293 1.844 4.782
6.135 1.880 4.419
6.149 2.128 4.348
5.828 2.337 4.153
5.731 2.509 3.923
5.850 2.467 3.614
5.647 2.813 3.835
6.299 2.137 4.751
6.095 1.984 4.542
6.224 2.255 4.539
5.962 2.284 4.233
5.917 2.479 4.156
5.774 2.688 3.981
5.781 3.008 3.715
5.568 3.169 3.855
5.707 3.048 3.713
6.358 2.493 4.948
6.163 2.376 4.574
5.877 2.594 4.365
5.803 2.752 4.385
5.943 2.889 4.195
5.593 2.940 3.776
5.752 3.450 4.167
5.738 3.472 3.975
5.449 3.485 3.481
6.344 2.487 4.999
5.972 2.761 4.746
6.059 2.823 4.488
5.936 2.999 4.564
5.706 3.062 4.370
5.564 3.258 3.965
5.746 3.361 4.004
5.565 3.580 3.892
5.410 3.777 3.728
5.331 3.811 3.520
6.112 2.766 5.126
6.112 2.759 5.117
6.131 2.938 4.614
5.974 3.256 4.405
5.989 3.479 4.363
5.567 3.374 4.233
5.876 3.857 4.265
5.778 3.949 4.016
5.630 3.870 4.035
5.600 4.173 3.667
5.467 4.183 3.634
6.117 3.163 5.196
5.915 3.386 4.751
5.884 3.377 4.813
5.958 3.634 4.493
5.753 3.765 4.306
5.856 4.061 4.515
5.679 4.188 4.167
5.595 4.286 4.009
5.437 4.431 3.853
5.358 4.617 3.841
5.153 4.560 3.338
5.150 4.701 3.201
5.991 3.547 5.124
6.088 3.476 4.752
5.923 3.732 4.607
5.610 4.009 4.605
4.714 0.109 0.033
4.798 0.225 0.499
4.868 0.156 0.290
4.689 0.302 -0.009
5.014 0.204 0.870
4.876 0.048 0.804
4.984 0.423 0.665
4.806 0.393 0.180
4.657 0.667 0.292
5.286 -0.020 1.238
5.026 0.392 1.137
5.036 0.476 0.878
4.828 0.599 0.755
4.834 0.668 0.647
5.313 0.252 1.207
5.244 0.353 0.934
5.322 0.566 0.807
5.292 0.579 0.451
5.024 0.679 0.495
6.306 1.813 4.283
6.183 2.023 3.886
5.922 2.248 3.727
6.019 2.374 4.100
5.924 2.244 3.872
5.885 2.664 3.602
5.947 2.722 3.466
6.235 2.579 4.380
5.943 2.614 3.921
5.878 2.731 3.997
6.067 2.922 3.504
5.824 3.176 3.911
5.664 3.392 3.450
6.185 2.826 4.380
5.995 2.914 4.206
5.886 2.803 4.114
5.895 3.222 3.648
6.032 3.209 3.920
5.864 3.387 3.666
5.905 3.717 3.627
6.363 2.873 4.610
6.206 2.896 4.469
5.987 3.023 4.043
6.023 3.368 3.780
6.047 3.485 4.205
5.834 3.659 3.912
5.875 3.865 3.681
5.783 3.844 3.527
6.216 2.988 4.764
6.250 3.209 4.571
6.186 3.419 4.223
6.010 3.447 3.951
6.083 3.692 4.202
5.812 3.791 3.963
5.756 4.111 3.966
5.597 4.049 3.500
5.615 4.208 3.524
5.538 4.568 3.399
6.222 3.405 4.507
6.187 3.762 4.537
5.986 3.739 4.118
6.042 4.039 4.370
5.961 4.074 4.210
5.820 4.101 4.130
5.773 4.263 3.621
5.717 4.434 3.711
5.410 4.745 3.549
5.254 4.834 3.251
5.205 4.832 2.834
6.218 3.680 4.599
6.178 3.774 4.525
6.114 4.107 4.379
5.060 -0.070 0.432
4.922 0.298 0.292
4.974 0.130 0.126
5.149 0.252 0.952
5.240 0.294 0.634
5.267 0.276 0.375
5.021 0.397 0.399
5.061 0.710 -0.068
5.446 0.267 1.154
5.264 0.269 0.919
5.265 0.330 0.831
5.216 0.489 0.641
4.996 0.761 0.385
5.479 0.552 0.786
5.279 0.759 0.632
5.235 0.890 0.361
5.231 1.030 0.045
6.092 2.685 3.721
6.047 3.155 3.712
6.151 2.874 3.709
6.197 2.980 3.518
6.246 3.478 3.686
6.115 3.573 3.746
6.106 3.509 3.762
6.238 3.495 3.818
6.036 3.661 3.834
6.167 3.703 3.692
5.766 4.070 3.505
6.376 3.572 3.917
6.224 3.935 4.127
6.247 3.960 3.761
5.926 4.038 3.865
5.859 4.073 3.531
5.834 4.492 3.229
5.891 4.433 3.123
5.640 4.597 3.004
5.476 4.876 2.788
6.210 3.862 4.169
6.143 3.963 4.333
6.083 4.151 4.065
5.894 4.323 3.892
5.801 4.491 3.828
6.010 4.692 3.621
5.735 4.815 3.175
5.553 4.949 3.232
5.488 4.967 2.946
5.341 5.123 2.570
5.509 5.161 2.526
6.297 3.896 4.177
5.344 -0.111 0.259
5.372 0.105 0.253
5.123 0.308 -0.110
5.672 0.170 0.645
5.396 0.326 0.667
5.176 0.527 0.502
5.116 0.559 0.324
5.527 0.364 0.594
5.433 0.551 0.462
5.296 0.936 0.380
5.067 0.867 0.251
5.642 0.690 0.410
5.365 0.794 0.138
5.356 0.947 0.108
5.178 5.221 1.572
5.227 5.194 1.666
6.293 3.973 3.705
6.095 4.280 3.430
5.960 4.487 3.314
5.837 4.671 2.980
5.861 4.792 2.965
5.753 4.990 2.675
5.617 5.038 2.404
5.562 5.031 2.410
5.427 5.230 1.971
5.415 5.535 2.047
5.420 5.476 1.527
6.230 4.385 3.589
6.049 4.536 3.298
5.911 4.620 3.064
5.727 4.930 3.114
5.614 4.970 2.708
5.797 5.101 2.611
5.416 5.182 2.563
5.616 5.566 2.209
5.496 5.630 2.026
5.314 5.857 1.956
5.760 0.114 0.409
5.568 0.189 0.100
5.763 0.063 0.691
5.812 0.362 0.429
5.669 0.384 0.100
5.451 0.426 0.190
5.695 0.708 0.440
5.627 0.800 0.152
5.329 0.895 -0.036
5.673 0.583 0.288
5.861 0.932 -0.012
5.428 5.051 0.998
5.519 5.033 1.448
5.348 5.236 1.382
5.738 4.999 2.087
5.782 5.063 1.909
5.499 5.177 1.597
5.315 5.417 1.453
6.109 4.480 2.843
6.101 4.803 2.678
5.833 4.857 2.430
6.059 5.060 2.334
5.919 5.154 2.328
5.851 5.390 2.152
5.541 5.457 1.797
5.669 5.706 1.506
6.251 4.858 3.058
6.018 4.890 2.759
5.965 5.220 2.814
6.011 5.264 2.499
5.981 5.291 2.449
5.876 5.428 1.975
5.730 5.734 1.885
5.518 5.932 1.795
5.762 0.095 0.115
5.633 0.304 -0.057
5.758 0.206 0.508
5.656 0.391 0.291
5.776 0.818 0.401
5.638 0.723 0.100
5.834 0.825 0.140
5.631 4.689 1.077
5.944 4.701 1.298
5.688 5.069 1.071
5.874 4.811 1.674
5.955 4.990 1.416
5.559 5.139 1.332
6.143 4.826 1.840
5.751 5.108 1.806
5.710 5.228 1.426
5.648 5.429 1.457
6.221 4.747 2.600
6.020 5.042 2.237
6.175 5.224 2.083
6.059 5.341 1.790
5.917 5.388 1.637
5.618 5.622 1.662
6.243 5.145 2.484
6.214 5.428 2.300
6.104 5.466 2.070
5.973 5.619 1.979
6.005 5.554 1.998
5.746 5.824 1.481
6.025 0.306 -0.008
6.102 0.590 0.091
5.856 0.891 0.052
6.058 4.871 0.823
5.930 5.005 1.269
5.960 5.083 1.050
6.252 4.923 1.500
5.917 5.174 1.313
5.907 5.242 1.282
6.383 5.149 1.832
6.186 5.213 1.533
6.182 5.330 1.504
5.943 5.595 1.214
6.221 5.274 1.834
6.127 5.638 1.487
6.130 5.792 1.538
6.075 5.521 2.084
6.111 5.578 1.766
6.112 6.005 1.617
6.056 4.495 0.439
6.051 4.734 0.856
6.262 5.074 0.978
6.095 5.216 1.017
6.352 5.359 1.182
6.254 5.668 1.293
6.100 5.642 1.436
6.097 6.031 1.323
0.968 -0.100 2.080
0.790 0.122 1.877
0.587 0.144 1.734
0.604 0.416 1.381
0.390 0.633 1.241
0.261 0.583 0.938
0.211 0.877 0.760
0.838 0.178 1.996
0.975 0.278 1.807
0.904 0.455 1.664
0.718 0.772 1.474
0.667 0.811 1.503
0.505 0.966 1.250
0.283 1.128 0.938
0.994 0.461 2.104
0.912 0.651 1.906
0.536 0.773 1.572
0.413 1.186 1.504
0.381 1.056 1.163
0.843 1.078 1.921
0.678 1.197 1.844
0.702 1.143 1.512
0.361 1.494 1.324
2.598 0.102 6.128
2.538 0.338 5.998
0.514 3.371 2.510
2.326 0.392 6.051
2.354 0.804 6.014
0.477 3.514 2.536
2.474 0.863 6.203
0.697 3.547 2.679
2.368 1.253 6.380
0.739 3.788 2.913
0.830 3.967 3.108
0.701 4.007 2.988
0.600 4.256 3.281
0.589 4.385 3.233
1.005 4.293 3.572
0.815 4.570 3.463
0.684 4.467 3.326
0.832 4.372 4.041
0.752 4.630 4.008
0.851 4.634 3.791
0.521 4.696 3.545
1.135 4.573 4.254
0.880 4.603 4.327
1.042 4.689 4.017
0.729 4.754 3.889
0.741 5.012 3.469
0.280 -0.099 0.358
0.517 0.077 0.482
0.425 0.196 0.229
0.431 0.005 1.022
0.648 0.296 0.871
0.445 0.267 0.830
0.394 0.576 0.640
0.677 0.151 1.514
0.481 0.190 1.179
0.487 0.361 1.106
0.487 0.688 0.782
0.326 0.645 0.797
1.015 0.096 1.989
0.919 0.198 1.675
0.805 0.365 1.644
0.787 0.352 1.338
0.551 0.740 1.178
0.426 0.667 0.970
0.472 0.886 0.782
1.249 0.118 1.956
1.035 0.262 1.739
0.972 0.263 1.566
0.955 0.517 1.256
0.603 0.520 1.159
0.713 0.863 0.757
0.396 0.840 0.628
1.120 0.437 1.965
1.242 0.519 1.804
0.944 0.622 1.761
0.755 0.662 1.302
0.777 0.885 1.179
0.577 1.020 1.238
0.517 1.097 1.032
0.934 0.644 1.852
0.959 0.865 1.808
0.871 0.759 1.618
0.762 0.982 1.351
0.787 1.124 1.201
0.458 1.214 1.028
1.177 0.696 2.053
1.104 1.092 1.909
0.947 1.174 1.808
0.693 1.250 1.557
0.559 1.343 1.228
0.541 1.604 1.178
0.897 1.223 2.114
0.863 1.521 1.929
0.947 1.483 1.793
0.692 1.733 1.513
0.762 1.897 1.296
0.766 1.733 1.778
0.818 1.914 1.648
0.809 2.109 1.473
0.830 1.937 1.801
0.696 2.220 1.537
0.703 2.236 1.856
0.859 2.394 1.698
0.560 2.668 1.890
0.875 2.741 2.101
2.912 0.021 5.866
2.535 0.092 5.746
0.862 3.122 2.282
2.923 0.076 6.257
2.677 0.460 5.998
0.632 3.440 2.279
2.680 0.266 6.239
2.616 0.496 5.969
2.451 0.601 5.821
0.636 3.586 2.596
2.716 0.952 6.333
2.643 0.908 6.140
0.690 3.705 2.516
2.635 1.148 6.230
0.818 3.937 2.919
0.891 4.315 3.065
0.848 4.235 3.221
1.031 4.497 3.416
0.748 4.424 3.103
0.926 4.666 3.419
0.841 4.966 3.319
1.084 4.753 4.078
1.186 4.853 3.665
0.900 4.965 3.567
0.460 0.021 0.070
0.774 0.131 0.480
0.392 0.401 0.372
0.819 0.012 1.165
0.613 0.273 0.955
0.559 0.307 0.573
0.561 0.517 0.425
1.038 0.211 1.306
0.778 0.434 1.285
0.637 0.363 1.078
0.637 0.416 0.917
0.548 0.652 0.643
1.095 0.046 2.012
0.923 0.240 1.783
1.013 0.295 1.495
0.837 0.568 1.464
0.732 0.685 1.111
0.542 0.742 0.812
0.391 0.919 0.679
1.373 -0.016 1.671
1.207 0.146 1.559
1.184 0.472 1.492
1.063 0.360 1.278
1.090 0.683 1.059
0.772 0.886 0.721
0.889 0.948 0.666
1.448 0.260 2.004
1.486 0.313 1.827
1.222 0.561 1.412
1.127 0.900 1.539
0.975 0.947 1.208
0.974 0.934 0.877
0.665 1.285 0.664
1.452 0.554 2.099
1.402 0.609 1.997
1.103 0.864 1.856
1.138 0.858 1.434
0.928 1.191 1.482
1.048 1.109 1.015
0.940 1.407 1.008
1.467 0.930 2.203
1.169 0.981 1.708
1.292 1.340 1.789
0.949 1.267 1.561
1.097 1.612 1.213
0.976 1.655 0.931
1.413 1.035 2.198
1.324 1.384 2.080
1.216 1.448 1.952
1.092 1.551 1.595
1.003 1.711 1.427
0.779 1.925 1.355
1.349 1.429 2.024
1.241 1.776 2.071
1.104 1.645 1.695
1.099 1.848 1.616
0.766 2.105 1.430
1.360 1.834 2.224
1.017 1.825 1.968
0.938 2.032 1.677
1.000 2.389 1.514
1.052 2.272 2.053
1.084 2.419 1.962
1.062 2.308 1.595
1.107 2.619 2.119
0.799 2.607 1.723
0.927 2.702 2.255
0.891 2.904 2.076
3.052 -0.104 5.918
2.999 0.045 5.666
1.122 3.053 2.262
3.230 -0.026 6.320
2.962 0.304 6.151
2.993 0.325 5.867
2.759 0.461 5.678
0.923 3.229 2.420
2.902 0.617 6.261
2.986 0.457 5.972
2.897 0.625 5.688
1.140 3.404 2.405
2.919 0.747 6.082
2.884 0.963 5.879
1.164 3.910 2.405
3.029 0.954 6.185
2.774 1.142 5.927
0.998 -0.121 0.569
0.689 0.256 0.347
1.134 0.058 0.812
0.856 0.198 0.836
0.809 0.430 0.415
1.217 -0.061 1.601
1.106 0.090 1.213
1.139 0.234 1.059
0.834 0.605 0.912
1.038 0.730 0.684
0.756 0.887 0.418
1.498 0.100 1.684
1.461 0.249 1.757
1.214 0.374 1.464
1.112 0.481 1.294
1.093 0.584 0.862
0.947 0.977 0.795
0.679 1.122 0.646
1.762 0.136 1.756
1.539 0.300 1.354
1.363 0.584 1.473
1.320 0.445 1.285
1.188 0.752 0.936
1.094 0.898 0.757
1.606 0.238 1.847
1.428 0.418 1.832
1.548 0.729 1.532
1.396 0.751 1.166
1.159 0.948 1.050
1.166 1.110 0.792
1.187 1.368 0.681
1.593 0.498 1.931
1.721 0.584 1.961
1.616 0.880 1.647
1.343 0.992 1.568
1.268 1.227 1.060
1.032 1.268 1.193
1.147 1.404 0.930
1.729 0.719 2.086
1.676 0.957 2.097
1.358 1.215 1.593
1.381 1.223 1.619
1.295 1.425 1.475
1.231 1.549 1.340
1.267 1.755 0.888
1.635 1.116 2.155
1.781 1.011 2.225
1.636 1.300 1.956
1.280 1.288 1.615
1.446 1.592 1.443
1.113 1.775 1.343
1.063 1.732 0.981
1.589 1.466 2.187
1.526 1.657 2.090
1.399 1.662 1.908
1.475 1.743 1.605
1.085 1.868 1.363
0.995 1.931 1.149
1.612 1.740 2.268
1.497 1.841 2.133
1.374 1.998 1.707
1.102 2.044 1.454
1.317 2.434 1.456
1.379 1.943 2.095
1.487 2.108 2.003
1.230 2.237 1.651
1.249 2.561 1.478
1.267 2.481 2.208
1.424 2.506 1.763
1.362 2.633 1.626
3.258 -0.084 5.391
2.864 0.242 5.216
1.463 2.649 2.140
1.321 2.922 1.824
3.072 0.047 5.694
3.242 0.286 5.541
2.895 0.346 5.290
1.318 3.161 2.099
3.412 0.127 6.227
3.170 0.263 5.932
3.055 0.531 5.877
3.103 0.420 5.605
1.213 3.531 2.056
3.315 0.334 6.268
3.141 0.442 6.077
3.182 0.589 6.003
3.196 0.690 5.815
3.226 0.696 6.250
3.318 0.842 5.978
3.123 1.078 5.711
3.265 1.171 6.184
1.346 0.032 0.767
1.254 0.221 0.778
1.591 0.231 1.402
1.450 0.067 1.016
1.319 0.455 1.055
1.140 0.486 0.945
0.956 0.610 0.491
1.527 0.303 1.572
1.577 0.393 1.451
1.340 0.389 1.441
1.428 0.680 0.968
1.121 0.748 0.948
1.109 0.747 0.682
1.975 0.336 1.481
1.719 0.446 1.509
1.830 0.355 1.184
1.648 0.536 0.969
1.386 0.615 0.709
1.536 0.853 0.704
1.996 0.181 1.876
2.057 0.232 1.819
1.714 0.653 1.702
1.865 0.648 1.240
1.734 0.747 1.351
1.357 0.836 0.858
1.540 1.081 0.693
1.998 0.640 2.134
1.835 0.565 2.028
1.830 0.903 1.696
1.642 0.830 1.400
1.577 1.210 1.405
1.440 1.158 1.194
1.436 1.452 0.999
1.233 1.591 0.669
2.068 0.834 2.134
1.807 0.800 1.990
1.795 0.913 1.848
1.778 1.204 1.672
1.772 1.311 1.616
1.551 1.323 1.391
1.441 1.617 1.017
1.344 1.840 1.053
1.908 0.858 2.541
1.809 0.975 2.200
1.974 1.249 2.066
1.746 1.499 1.943
1.809 1.461 1.681
1.403 1.480 1.554
1.635 1.721 1.293
1.253 1.741 1.129
1.937 1.097 2.512
1.833 1.469 2.186
1.660 1.505 2.013
1.674 1.557 1.600
1.548 1.732 1.403
1.339 1.815 1.507
1.249 2.150 1.215
1.677 1.712 1.983
1.695 2.015 2.073
1.692 2.081 1.863
1.636 2.284 1.584
1.283 2.366 1.431
1.660 2.007 1.973
1.646 2.281 1.853
1.471 2.246 1.669
1.371 2.531 1.644
1.553 2.544 2.112
1.515 2.508 1.968
1.487 2.669 1.597
3.525 -0.048 5.265
3.306 0.152 5.015
3.207 0.481 4.909
1.631 2.705 1.933
1.403 2.961 1.620
3.603 -0.034 5.570
3.500 0.256 5.616
3.282 0.295 5.383
3.107 0.729 5.028
1.555 3.328 1.806
3.655 0.165 6.125
3.454 0.088 6.090
3.398 0.318 5.662
3.474 0.491 5.499
3.405 0.583 5.429
3.067 0.615 5.135
3.776 0.305 6.160
3.369 0.487 5.864
3.579 0.660 5.727
3.297 0.934 5.447
3.159 0.971 5.458
3.601 0.757 6.289
3.450 0.764 6.094
3.479 1.186 5.563
3.701 0.993 6.276
3.608 1.149 5.985
1.783 0.084 1.248
1.706 0.225 1.089
1.469 0.514 1.017
1.336 0.394 0.832
1.763 0.180 1.516
1.677 0.434 1.307
1.834 0.604 1.238
1.693 0.473 0.869
1.596 0.890 0.827
1.331 0.794 0.611
2.008 0.084 1.402
2.171 0.303 1.340
1.975 0.661 1.249
1.937 0.646 0.780
1.841 0.782 0.621
2.407 0.295 1.985
2.286 0.446 1.654
1.980 0.416 1.505
1.863 0.784 1.404
1.830 0.816 1.067
1.777 1.183 0.943
1.632 1.011 0.533
2.416 0.422 2.355
2.209 0.348 2.017
2.317 0.579 1.720
2.067 0.923 1.761
1.802 0.936 1.596
1.861 1.013 1.161
1.692 1.383 0.974
1.802 1.410 0.981
1.724 1.574 0.547
2.371 0.438 2.244
2.192 0.633 2.171
2.028 0.828 2.017
2.024 1.055 1.768
1.946 1.154 1.734
1.967 1.371 1.230
1.931 1.412 1.322
1.646 1.545 0.968
1.581 1.574 0.649
2.420 0.677 2.606
2.208 0.990 2.395
2.049 1.201 2.171
2.017 1.313 1.816
1.931 1.337 1.842
2.043 1.452 1.380
1.886 1.753 1.255
1.748 1.671 0.982
1.535 1.954 1.069
2.163 1.257 2.479
2.199 1.296 2.202
2.174 1.427 2.082
2.008 1.510 1.808
1.772 1.820 1.770
1.886 2.044 1.572
1.776 2.105 1.236
1.656 2.292 1.145
2.167 1.818 2.193
2.051 1.646 2.033
2.064 1.872 1.952
1.903 2.235 1.654
1.742 2.221 1.378
1.650 2.348 1.309
1.984 2.074 1.892
1.753 2.219 1.678
1.654 2.464 1.533
1.766 2.730 1.395
3.367 0.070 4.971
3.499 0.017 4.684
1.804 2.620 1.880
1.651 2.712 1.848
1.530 2.709 1.465
3.595 0.194 5.198
3.475 0.195 5.022
3.310 0.516 4.751
3.298 0.515 4.740
1.825 2.958 1.759
1.785 3.152 1.828
3.990 0.098 5.835
3.786 0.048 5.525
3.752 0.447 5.544
3.511 0.418 5.174
3.517 0.612 4.831
3.348 0.786 4.635
1.789 3.199 1.707
3.893 0.134 6.115
3.699 0.155 5.777
3.886 0.262 5.560
3.514 0.554 5.443
3.653 0.829 5.347
3.463 0.825 4.997
3.481 0.923 4.886
4.073 0.233 6.176
4.021 0.522 5.998
3.852 0.716 5.740
3.677 0.868 5.660
3.627 1.059 5.645
3.574 0.908 5.420
3.875 0.699 6.212
3.607 0.804 5.987
3.615 0.910 5.778
3.648 1.001 5.486
2.298 0.366 1.563
2.040 0.269 1.217
1.870 0.434 1.052
1.759 0.646 0.773
1.718 0.732 0.705
2.301 0.186 1.580
2.347 0.237 1.267
2.364 0.351 1.152
2.184 0.715 0.876
2.717 0.220 1.961
2.586 0.510 1.673
2.314 0.514 1.659
2.287 0.488 1.269
2.128 0.881 1.149
2.169 1.019 1.150
2.137 1.076 0.703
2.723 0.427 2.173
2.614 0.245 2.074
2.522 0.570 1.811
2.525 0.533 1.865
2.240 0.959 1.674
2.230 1.034 1.338
2.008 1.051 1.181
2.175 1.265 0.968
1.764 1.369 0.668
2.863 0.528 2.627
2.581 0.682 2.355
2.411 0.928 2.070
2.346 0.755 1.842
2.164 0.919 1.583
2.210 1.089 1.460
1.983 1.457 1.270
2.044 1.361 0.952
2.099 1.667 0.806
1.868 1.698 0.743
2.833 0.740 2.705
2.552 0.716 2.434
2.434 1.117 2.068
2.358 1.030 1.947
2.322 1.104 1.768
2.294 1.525 1.672
2.221 1.526 1.430
2.174 1.793 1.224
1.970 1.771 1.053
1.776 2.146 0.795
2.733 1.046 2.776
2.789 1.234 2.573
2.477 1.176 2.304
2.330 1.471 2.007
2.285 1.512 2.056
2.263 1.765 1.681
2.023 1.808 1.443
2.222 1.838 1.312
1.906 2.096 1.185
1.711 2.264 1.158
2.427 1.373 2.628
2.476 1.573 2.175
2.345 1.874 2.250
2.260 1.845 1.770
2.315 1.837 1.577
2.182 2.144 1.526
2.159 2.407 1.424
1.887 2.358 1.184
2.381 2.267 1.856
1.991 2.457 1.620
2.165 2.451 1.486
2.026 2.521 1.450
3.719 -0.027 4.876
3.622 0.309 4.512
3.372 0.298 4.345
3.525 0.632 4.240
2.175 2.659 1.762
1.942 2.929 1.411
3.763 0.127 5.097
3.586 0.284 4.985
3.725 0.396 4.719
3.520 0.477 4.729
3.488 0.837 4.466
1.903 3.173 1.588
4.185 0.077 5.628
4.022 0.356 5.589
3.776 0.529 5.390
3.699 0.457 5.159
3.557 0.526 4.887
3.488 0.627 4.813
3.581 1.019 4.535
4.382 -0.037 6.332
4.220 0.279 6.141
3.954 0.328 5.794
4.139 0.422 5.536
3.768 0.471 5.612
3.761 0.775 5.399
3.684 0.896 4.982
3.614 0.946 5.007
3.482 1.211 4.739
4.140 0.367 6.136
4.205 0.472 5.841
3.874 0.793 5.844
3.761 0.904 5.584
3.840 0.770 5.428
3.729 1.066 5.077
3.527 1.124 5.129
4.111 0.739 5.830
4.025 0.838 5.566
3.764 1.122 5.409
3.708 1.189 5.447
2.585 -0.037 1.693
2.356 0.364 1.427
2.199 0.355 1.394
2.160 0.445 0.887
2.810 0.012 1.440
2.493 0.410 1.249
2.639 0.509 1.096
2.991 -0.025 2.086
2.922 0.293 1.904
2.682 0.382 1.567
2.700 0.638 1.487
2.594 0.724 1.421
2.366 0.776 1.217
2.438 0.902 0.847
3.069 0.199 2.369
3.021 0.460 2.247
2.958 0.490 2.112
2.921 0.465 1.951
2.528 0.586 1.560
2.382 0.976 1.608
2.502 0.949 1.260
2.499 1.293 1.109
2.227 1.208 0.855
2.951 0.389 2.647
2.983 0.431 2.415
3.004 0.833 2.122
2.941 0.966 1.944
2.619 0.896 1.750
2.607 1.006 1.483
2.492 1.344 1.324
2.290 1.484 1.348
2.129 1.611 1.115
3.306 0.589 3.011
2.976 0.495 2.818
2.927 0.693 2.482
2.916 0.996 2.186
2.907 0.897 1.996
2.748 1.155 2.060
2.615 1.256 1.665
2.372 1.417 1.517
2.231 1.580 1.409
2.187 1.888 1.026
2.030 1.844 0.981
3.474 0.385 3.106
3.355 0.796 3.115
3.182 0.802 2.721
2.846 1.065 2.507
2.947 0.972 2.622
2.973 1.249 2.222
2.629 1.287 2.023
2.663 1.476 2.037
2.613 1.833 1.685
2.360 1.733 1.660
2.289 1.883 1.180
2.303 1.949 1.068
1.969 2.079 1.038
3.506 0.400 3.611
3.377 0.540 3.252
3.428 0.885 3.550
3.232 0.818 3.123
3.280 1.086 3.023
2.924 1.019 2.936
2.917 1.444 2.464
2.807 1.405 2.433
2.852 1.434 2.205
2.610 1.712 1.943
2.504 1.842 1.757
2.554 1.919 1.501
2.173 2.253 1.494
2.134 2.260 1.390
2.184 2.423 1.149
3.773 -0.044 4.539
3.844 0.113 4.041
3.713 0.192 4.053
3.440 0.320 3.943
3.477 0.749 3.641
3.250 0.682 3.261
3.431 0.885 3.374
3.243 1.059 3.385
2.258 2.697 1.418
2.143 2.764 1.346
3.932 0.196 4.546
3.767 0.366 4.514
3.782 0.273 4.167
3.714 0.462 4.246
3.479 0.687 3.773
3.392 0.904 3.738
3.308 0.955 3.686
4.077 -0.034 5.083
4.170 0.220 5.001
4.149 0.411 4.726
3.952 0.492 4.654
3.843 0.577 4.630
3.608 0.894 4.272
3.709 0.966 3.907
3.395 0.947 3.757
4.454 -0.008 5.482
4.110 0.377 5.508
4.151 0.318 5.072
4.127 0.432 4.843
3.971 0.641 4.775
3.958 0.893 4.662
3.799 1.090 4.486
3.484 1.045 4.255
4.269 0.152 5.926
4.211 0.304 5.743
4.212 0.485 5.412
4.241 0.500 5.379
4.054 0.879 5.264
3.971 0.975 5.047
3.837 1.175 4.823
3.711 1.315 4.678
3.451 1.445 4.373
4.456 0.675 5.904
4.335 0.764 5.768
4.124 0.845 5.642
3.944 0.988 5.218
4.050 1.114 4.936
3.926 1.343 4.931
3.806 1.504 4.864
4.045 1.126 5.785
3.887 1.348 5.510
3.893 1.318 5.237
2.832 0.169 1.595
2.576 0.460 1.263
2.488 0.388 1.232
6.151 4.543 0.113
6.280 4.732 0.373
5.997 4.831 0.197
6.121 5.203 0.347
6.208 5.092 0.158
6.087 5.474 0.153
6.103 5.501 0.274
6.247 5.667 0.242
6.055 5.848 0.102
6.346 5.702 0.435
6.077 5.658 0.220
6.122 5.954 0.065
6.276 5.724 0.819
6.121 6.080 0.373
6.108 6.089 0.381
6.211 6.055 0.939
6.203 6.354 0.616
6.450 6.285 0.849
6.347 6.013 -0.043
0.197 3.442 6.217
0.093 3.495 5.966
0.230 3.780 6.002
0.275 3.921 6.390
-0.021 3.851 6.090
-0.137 4.047 5.989
0.174 4.351 6.321
0.184 4.399 5.875
-0.121 4.640 5.994
0.171 4.787 6.217
0.274 5.040 6.083
0.155 5.210 5.630
0.532 3.656 6.045
0.496 3.671 5.899
0.285 3.845 5.963
0.182 4.137 5.470
0.248 4.224 5.277
0.115 4.400 5.245
0.417 3.816 6.297
0.348 4.160 5.929
0.347 4.235 5.835
0.056 4.307 5.536
-0.048 4.513 5.417
0.272 4.403 6.066
0.416 4.509 5.754
0.232 4.448 5.743
0.090 4.864 5.422
0.387 4.398 6.139
0.225 4.641 5.882
0.206 4.900 5.720
0.219 4.852 5.755
0.327 4.833 6.191
0.217 4.821 6.158
0.089 5.144 5.882
0.577 4.975 5.985
0.343 5.188 5.847
0.210 5.138 5.827
0.095 5.211 5.570
0.700 3.718 5.965
0.490 3.812 5.727
0.338 3.915 5.337
0.390 4.292 5.249
0.403 4.438 5.125
0.267 4.488 4.902
0.227 4.426 4.867
0.598 3.966 6.112
0.577 4.143 5.780
0.493 4.273 5.786
0.223 4.276 5.290
0.431 4.461 5.165
0.136 4.548 5.107
0.068 4.960 4.849
0.747 4.339 6.051
0.464 4.339 6.115
0.468 4.303 5.886
0.561 4.698 5.729
0.285 4.768 5.355
0.302 4.951 5.057
0.045 5.073 4.999
0.068 5.262 4.748
0.471 4.613 6.009
0.523 4.734 6.046
0.513 4.685 5.858
0.425 4.901 5.650
0.282 5.044 5.450
-0.006 5.386 5.039
0.029 5.435 5.067
0.408 4.902 5.930
0.524 4.961 6.045
0.460 5.068 5.616
0.302 5.161 5.366
0.625 5.063 5.923
0.628 5.314 5.766
0.367 5.519 5.490
0.435 5.659 5.388
0.209 5.643 4.968
0.946 4.019 5.589
0.740 4.006 5.534
0.608 4.369 5.303
0.421 4.350 5.139
0.330 4.423 4.671
0.353 4.674 4.490
0.372 4.637 4.354
0.143 4.990 4.349
0.674 3.974 5.766
0.728 4.160 5.478
0.610 4.493 5.209
0.542 4.518 5.326
0.307 4.600 5.078
0.320 4.781 4.685
0.068 4.916 4.691
0.283 4.973 4.489
-0.108 5.316 4.326
0.894 4.430 5.915
0.588 4.534 5.738
0.479 4.657 5.361
0.488 4.765 5.314
0.368 4.898 4.993
0.320 5.227 4.805
0.087 5.069 4.667
0.199 5.364 4.613
0.112 5.500 4.375
0.736 4.566 5.980
0.537 4.773 5.828
0.550 4.905 5.421
0.516 5.156 5.331
0.409 5.432 5.024
0.162 5.582 4.935
0.214 5.483 4.524
0.825 5.202 5.804
0.701 5.332 5.696
0.313 5.193 5.270
0.408 5.355 5.102
0.450 5.794 5.101
0.976 5.033 5.562
0.873 5.373 5.630
0.857 5.564 5.472
0.553 5.397 5.052
0.528 5.632 4.952
0.570 5.976 4.899
0.805 5.391 5.749
0.907 5.573 5.566
0.691 5.649 5.211
0.433 5.904 5.008
0.924 3.995 5.296
0.843 4.260 5.177
0.585 4.451 4.997
0.636 4.628 4.622
0.669 4.825 4.651
0.469 4.885 4.267
0.257 4.960 4.066
0.096 4.934 4.054
1.092 4.313 5.478
0.715 4.450 5.160
0.754 4.553 5.005
0.637 4.619 4.913
0.556 4.771 4.528
0.465 5.172 4.411
0.353 5.171 4.330
0.419 5.197 4.157
1.081 4.398 5.471
0.927 4.616 5.432
0.756 4.964 5.219
0.554 5.017 5.100
0.750 5.208 4.667
0.323 5.196 4.626
0.341 5.293 4.380
0.301 5.610 4.143
0.938 4.715 5.733
0.779 4.815 5.655
0.929 5.041 5.235
0.579 5.252 5.114
0.478 5.193 4.898
0.573 5.490 4.872
0.545 5.699 4.646
0.872 5.039 5.807
0.732 5.225 5.401
0.787 5.446 5.445
0.701 5.534 5.253
0.496 5.814 5.002
0.353 5.939 4.620
1.223 5.174 5.773
0.927 5.187 5.468
0.939 5.538 5.149
0.830 5.416 5.179
0.781 5.632 4.818
0.502 6.003 4.569
1.181 5.599 5.480
0.974 5.503 5.543
0.742 5.780 5.339
0.715 5.812 5.081
0.590 6.120 4.689
0.894 5.930 5.664
0.861 5.941 5.315
0.683 6.002 5.172
1.162 4.215 4.954
1.081 4.528 4.932
0.839 4.504 4.670
0.819 4.699 4.301
0.521 4.886 4.269
0.620 4.833 4.144
0.524 4.997 3.749
1.250 4.378 5.071
0.873 4.697 4.835
1.030 4.772 4.919
0.678 4.796 4.652
0.799 5.036 4.361
0.544 5.098 4.202
0.520 5.388 3.874
1.068 4.627 5.457
0.915 4.847 5.075
1.023 5.096 4.782
0.951 5.039 4.880
0.791 5.442 4.655
0.550 5.329 4.332
0.363 5.593 4.154
1.117 5.019 5.399
0.899 5.012 5.197
0.901 5.368 4.941
0.717 5.409 4.958
0.708 5.413 4.593
0.683 5.756 4.481
0.518 5.679 4.369
1.097 5.232 5.701
1.161 5.323 5.253
1.016 5.298 5.115
0.977 5.441 5.058
0.838 5.596 4.965
0.627 5.842 4.730
0.285 5.238 3.713
0.173 5.363 3.434
0.280 5.323 3.904
0.457 5.224 3.765
0.305 5.304 3.357
0.474 5.477 3.682
3.317 5.230 4.967
3.171 5.543 4.710
2.843 5.708 4.595
3.515 5.365 5.757
3.393 5.546 5.558
3.123 5.649 5.185
3.199 5.781 5.116
3.083 5.816 4.758
2.942 5.966 4.660
2.837 6.119 4.521
3.505 5.394 5.826
3.264 5.498 5.830
3.165 5.716 5.418
3.343 5.809 5.357
3.250 5.760 5.039
2.872 6.211 4.907
2.956 6.328 4.816
3.703 5.510 6.177
3.290 5.819 5.764
3.362 5.963 5.725
3.341 5.971 5.552
3.308 6.058 5.313
3.085 6.420 5.226
3.631 5.932 6.116
3.303 6.081 5.956
3.378 6.172 5.935
3.407 6.180 5.620
3.482 6.274 6.175
3.262 6.426 6.077
3.363 5.254 5.078
3.224 5.420 4.865
2.918 5.701 4.658
3.508 5.354 5.258
3.540 5.450 4.841
3.222 5.519 4.944
3.153 5.516 4.423
3.925 5.031 5.634
3.660 5.449 5.589
3.715 5.405 5.296
3.506 5.611 5.197
3.522 5.870 5.082
3.168 6.016 4.779
3.213 6.084 4.467
4.002 5.384 6.147
3.626 5.231 5.888
3.828 5.368 5.630
3.523 5.690 5.500
3.609 5.865 5.353
3.310 5.975 4.985
3.424 6.121 5.036
3.324 6.142 4.839
3.984 5.323 6.217
3.847 5.536 6.108
3.639 5.861 5.757
3.663 5.988 5.554
3.331 5.912 5.449
3.374 6.129 5.242
3.858 5.808 6.260
3.763 5.892 6.001
3.472 6.090 5.801
3.578 6.090 5.651
3.585 6.058 6.146
3.432 5.379 5.026
3.510 5.281 5.110
3.194 5.446 4.725
3.170 5.802 4.583
3.953 4.988 5.437
3.965 5.256 5.339
3.734 5.191 5.170
3.724 5.567 4.962
3.463 5.732 4.600
4.155 5.073 5.889
3.950 5.155 5.441
4.033 5.307 5.407
3.711 5.586 5.321
3.774 5.743 5.177
3.610 5.868 4.777
3.503 5.776 4.508
4.216 5.209 6.163
3.978 5.435 5.879
4.010 5.356 5.894
3.829 5.543 5.473
3.724 5.746 5.251
3.650 5.882 5.042
3.463 5.844 4.959
3.563 6.255 4.732
4.153 5.054 6.149
4.066 5.598 6.095
4.124 5.559 6.061
3.897 5.858 5.796
3.722 5.887 5.393
3.812 6.092 5.388
3.704 6.295 4.993
4.009 5.650 6.162
4.019 5.704 6.094
3.878 6.082 5.697
3.820 6.038 5.657
3.964 5.915 6.032
4.110 6.363 6.140
3.879 4.830 5.580
3.988 5.093 5.136
3.642 5.147 4.957
3.697 5.273 4.724
3.616 5.433 4.574
4.350 4.776 5.658
4.153 5.086 5.479
4.266 5.085 5.251
3.975 5.274 5.106
3.941 5.611 4.731
3.982 5.730 4.560
4.494 5.016 5.723
4.283 5.142 5.619
4.148 5.509 5.305
4.082 5.499 5.259
3.793 5.824 4.862
3.744 5.868 4.652
3.793 5.890 4.679
4.310 5.044 5.909
4.469 5.411 6.001
4.224 5.543 5.579
4.249 5.680 5.473
4.130 5.761 5.350
3.807 5.836 5.170
3.996 5.881 4.801
3.898 6.187 4.541
4.605 5.279 6.151
4.606 5.469 6.264
4.317 5.473 6.043
4.408 5.587 5.682
4.320 5.786 5.518
4.072 5.842 5.320
3.919 5.949 5.061
3.806 6.322 5.180
4.640 5.327 6.236
4.275 5.863 6.112
4.244 5.876 6.084
4.046 5.910 5.818
4.135 6.084 5.543
4.355 5.995 6.075
4.382 6.258 5.872
4.280 4.778 5.366
3.986 4.889 5.155
4.035 4.942 4.808
4.001 5.217 4.486
4.388 5.020 5.500
4.183 4.935 5.420
4.139 5.283 5.159
4.079 5.452 5.149
3.854 5.345 4.675
3.775 5.526 4.681
4.591 4.888 5.509
4.570 4.974 5.152
4.494 5.098 5.033
4.157 5.446 4.822
4.278 5.591 4.747
3.969 5.541 4.540
4.841 5.059 5.828
4.482 5.236 5.674
4.634 5.356 5.408
4.318 5.492 5.080
4.193 5.597 4.885
4.171 5.656 4.709
4.176 5.827 4.514
4.782 4.944 5.945
4.588 5.315 6.009
4.467 5.230 5.836
4.328 5.469 5.409
4.297 5.501 5.377
4.131 5.816 5.207
4.122 5.841 4.943
4.256 6.158 4.764
4.585 5.307 5.953
4.884 5.515 6.060
4.451 5.418 5.825
4.539 5.826 5.596
4.446 5.919 5.436
4.179 6.113 5.217
4.162 6.284 5.056
4.845 5.392 6.181
4.571 5.526 6.393
4.544 5.806 5.935
4.555 6.094 5.714
4.381 6.036 5.713
4.367 6.215 5.476
4.754 5.728 6.295
4.637 5.986 6.110
4.452 6.239 5.891
4.558 4.609 4.894
4.385 4.920 4.657
4.084 4.968 4.425
4.676 4.578 5.236
4.488 4.903 5.282
4.306 5.059 5.087
4.270 5.298 4.623
3.984 5.141 4.560
4.435 5.078 5.640
4.351 4.956 5.209
4.505 5.134 4.921
4.138 5.261 5.045
4.145 5.493 4.584
4.222 5.558 4.417
4.793 4.750 5.636
4.631 4.939 5.283
4.574 5.157 5.243
4.482 5.288 4.882
4.606 5.391 4.893
4.507 5.613 4.476
4.209 5.664 4.466
4.751 4.809 5.618
4.783 5.170 5.814
4.933 5.258 5.677
4.613 5.267 5.339
4.539 5.387 5.227
4.480 5.689 4.846
4.532 5.762 4.867
4.191 6.077 4.509
5.012 5.165 5.797
4.956 5.273 5.974
4.856 5.376 5.617
4.756 5.588 5.576
4.505 5.686 5.247
4.640 5.793 5.035
4.280 5.871 5.046
4.396 6.105 4.782
4.849 5.246 5.951
5.021 5.578 6.136
4.922 5.718 5.961
4.798 5.884 5.666
4.626 5.806 5.443
4.724 6.060 5.376
4.616 6.309 5.007
5.140 5.217 6.182
5.061 5.377 5.928
4.992 5.776 6.294
4.790 5.844 5.897
4.894 5.839 5.653
4.590 6.077 5.444
4.709 6.141 5.516
4.982 5.820 6.188
4.953 6.096 6.149
4.632 6.354 5.912
4.989 6.362 6.176
4.835 4.439 5.070
4.532 4.375 4.859
4.498 4.657 4.586
4.370 4.795 4.196
4.637 4.438 4.935
4.654 4.851 5.022
4.710 4.983 4.647
4.398 4.949 4.528
4.498 5.020 4.401
4.921 4.615 5.332
4.848 4.610 5.320
4.559 4.926 5.002
4.443 5.157 4.951
4.546 5.331 4.743
4.371 5.397 4.423
4.350 5.337 4.288
4.793 4.497 5.534
4.834 4.826 5.565
4.847 4.850 5.438
4.784 5.024 5.328
4.487 5.222 4.969
4.657 5.533 4.638
4.442 5.463 4.501
4.330 5.692 4.473
4.978 4.825 5.551
5.026 4.906 5.310
5.088 4.852 5.178
4.900 5.107 4.988
4.869 5.342 4.929
4.833 5.460 4.763
4.696 5.764 4.527
4.702 5.761 4.385
4.987 4.813 5.507
5.154 5.212 5.760
5.167 5.362 5.542
4.848 5.233 5.255
4.891 5.641 4.885
4.914 5.653 4.783
4.825 5.745 4.745
4.689 5.968 4.568
5.283 4.962 5.458
5.089 5.325 5.634
5.122 5.300 5.703
4.914 5.697 5.308
4.826 5.689 5.186
4.938 5.985 5.126
4.837 5.977 4.807
5.096 5.190 5.826
5.151 5.461 5.840
5.102 5.719 5.680
5.076 5.961 5.542
4.769 5.793 5.252
4.747 5.991 4.986
4.660 6.252 5.076
5.236 5.585 6.021
5.296 5.611 6.174
5.124 5.732 5.909
5.054 6.014 5.841
5.085 6.247 5.508
5.194 5.662 5.994
5.100 6.041 6.266
5.167 5.935 5.849
5.147 6.343 5.940
5.354 5.839 6.135
4.958 4.073 4.773
4.953 4.086 4.738
4.835 4.273 4.410
4.709 4.607 4.354
4.500 4.669 4.000
4.948 3.990 5.026
5.109 4.284 5.164
4.847 4.521 4.947
4.852 4.653 4.545
4.884 4.650 4.384
4.813 4.922 4.157
4.434 4.963 4.133
5.108 4.324 4.954
5.169 4.463 5.290
5.000 4.718 5.113
4.975 4.748 4.731
4.725 4.864 4.740
4.645 4.993 4.299
4.668 5.173 4.048
4.938 4.561 5.291
5.039 4.596 5.476
4.980 4.920 5.033
4.973 5.013 5.054
4.915 5.063 4.892
4.717 5.162 4.706
4.552 5.259 4.360
4.477 5.516 4.076
5.079 4.529 5.464
5.099 5.049 5.613
4.883 5.132 5.219
4.976 5.075 4.958
4.884 5.459 4.942
4.621 5.287 4.772
4.652 5.533 4.596
4.575 5.697 4.478
5.251 4.972 5.310
5.451 4.835 5.255
5.192 4.942 5.230
5.151 5.200 5.162
5.222 5.249 4.837
4.960 5.572 4.616
4.916 5.505 4.375
4.795 5.820 4.314
5.364 4.991 5.509
5.275 5.206 5.392
5.353 5.203 5.183
5.050 5.584 5.122
5.194 5.433 5.061
4.997 5.602 4.699
4.904 5.929 4.456
4.892 6.109 4.389
5.537 5.128 5.566
5.197 5.557 5.556
5.244 5.520 5.171
5.201 5.779 5.185
5.063 6.046 4.903
4.850 5.949 4.716
5.241 5.585 5.565
5.330 6.012 5.356
5.212 6.059 5.393
5.206 6.003 5.137
5.424 4.045 4.878
5.060 4.053 4.664
5.074 4.174 4.480
4.991 4.347 4.332
4.862 4.799 4.123
4.676 4.719 3.870
5.396 3.797 4.926
5.326 3.970 4.882
5.229 4.155 4.887
5.107 4.418 4.748
5.150 4.396 4.601
5.089 4.689 4.388
5.010 4.709 4.257
4.950 4.902 3.940
5.507 4.197 5.048
5.310 4.215 5.106
5.195 4.381 5.084
5.233 4.787 5.029
5.107 4.836 4.872
4.871 4.947 4.377
4.942 5.201 4.464
4.804 5.053 3.973
4.640 5.225 4.031
5.443 4.405 5.203
5.518 4.537 5.122
5.284 4.875 5.155
5.064 4.924 4.694
5.024 5.121 4.499
4.910 5.437 4.496
4.758 5.584 4.330
4.864 5.607 3.971
5.191 4.667 5.104
5.222 4.896 5.303
5.278 5.104 5.102
5.144 5.044 4.894
5.028 5.375 4.701
4.943 5.488 4.460
4.738 5.474 4.496
4.714 5.926 4.354
5.509 4.901 5.393
5.630 5.067 4.957
5.553 5.387 4.860
5.380 5.254 4.782
5.195 5.453 4.529
5.196 5.837 4.170
5.160 5.681 4.204
5.494 5.458 5.096
5.437 5.632 5.084
5.291 5.717 4.972
5.129 5.802 4.793
5.160 5.957 4.412
5.355 5.608 5.056
5.504 5.768 5.165
5.430 5.872 4.845
5.490 4.228 4.585
5.483 4.215 4.404
5.357 4.286 4.447
5.190 4.627 4.264
5.151 4.714 3.938
5.101 4.867 3.686
5.061 4.839 3.484
5.844 3.693 5.072
5.568 3.815 5.040
5.536 4.053 4.598
5.432 4.368 4.941
5.461 4.585 4.784
5.486 4.566 4.473
5.224 4.831 4.295
5.265 4.999 4.146
5.063 4.922 3.796
4.931 5.149 3.824
5.672 4.041 5.083
5.710 4.220 4.725
5.608 4.486 5.044
5.485 4.704 4.823
5.550 4.711 4.560
5.385 4.829 4.298
