2.877 4.064 2.229
2.263 3.589 2.230
2.233 3.692 2.608
2.605 3.049 2.624
2.062 3.233 2.302
2.038 2.635 2.364
2.216 2.774 2.779
2.956 5.054 2.655
3.507 5.210 2.547
3.054 4.741 2.531
3.398 4.727 2.579
3.299 4.575 2.305
2.750 4.376 2.654
3.053 4.155 2.743
2.474 3.695 2.502
2.524 3.338 2.598
2.661 2.939 2.344
2.717 2.956 2.485
2.502 2.505 2.568
2.402 2.186 2.388
2.384 2.459 2.805
1.871 2.076 2.837
3.528 5.711 2.295
3.558 5.177 2.640
3.423 4.924 2.512
3.405 4.906 2.526
3.200 4.356 2.335
3.277 4.124 2.523
2.925 4.215 2.314
3.025 4.046 2.536
3.019 3.566 2.783
2.814 3.162 2.382
2.850 3.358 2.848
2.522 2.856 2.382
2.887 2.719 2.549
2.384 2.178 2.540
2.692 2.296 2.625
2.356 1.536 2.452
2.534 1.351 2.516
2.450 1.367 2.785
1.866 1.168 2.512
1.938 0.959 2.730
1.883 0.390 2.803
1.948 0.480 2.493
1.637 0.237 2.846
3.633 5.121 2.536
3.340 5.118 2.413
3.740 5.299 2.708
3.825 4.954 2.412
3.427 4.280 2.690
3.573 4.142 2.617
3.539 4.209 2.622
3.604 3.933 2.484
3.034 3.411 2.676
3.395 3.335 2.760
3.194 3.154 2.739
3.240 3.036 2.693
3.003 2.524 2.349
2.622 2.377 2.535
2.568 1.841 2.467
2.868 1.970 2.666
2.354 1.756 2.655
2.342 0.986 2.798
2.408 0.994 2.584
2.394 0.607 2.464
2.023 0.578 2.928
1.900 -0.043 2.840
4.059 5.167 2.445
4.035 5.097 2.726
3.852 5.149 2.509
3.749 4.555 2.801
3.835 4.267 2.454
4.032 4.084 2.644
3.131 2.816 2.378
2.868 2.206 2.721
2.928 1.867 2.818
3.108 2.044 2.648
2.615 1.378 2.681
2.763 1.520 2.754
2.985 0.955 2.735
2.631 0.594 2.611
2.294 0.520 2.857
2.139 0.362 2.828
2.095 0.026 2.651
4.020 5.519 2.508
4.314 4.756 2.777
4.180 4.924 2.361
3.358 1.772 2.904
3.239 1.835 2.841
3.048 1.667 2.897
3.262 1.472 2.967
2.955 1.000 2.655
2.971 0.864 2.834
3.015 0.424 2.861
2.524 -0.013 2.668
2.425 -0.068 3.008
4.272 5.088 2.893
4.411 4.858 2.358
3.280 1.876 2.510
3.291 1.314 2.647
3.082 1.122 2.866
3.370 0.772 2.781
3.135 0.898 2.552
3.303 0.649 2.663
2.691 0.344 2.723
4.852 5.051 2.921
3.755 1.649 3.104
3.527 1.021 2.632
3.618 0.588 3.045
3.224 0.741 3.114
3.142 0.598 2.891
3.377 0.208 3.145
3.568 1.102 2.725
3.583 0.927 2.788
3.367 0.404 3.180
3.457 0.385 3.214
3.860 0.230 2.892
3.879 0.222 3.246
1.585 4.057 2.220
2.178 4.657 2.208
2.141 4.415 2.515
1.894 4.216 2.418
1.867 4.229 2.399
1.788 3.739 2.421
1.335 3.440 2.379
2.332 5.257 2.494
1.751 5.053 2.692
2.006 4.825 2.418
1.756 4.154 2.621
1.764 4.320 2.400
1.433 3.632 2.560
2.561 5.294 2.629
2.337 5.158 2.671
2.160 4.563 2.508
2.085 4.430 2.488
2.249 4.319 2.436
1.737 3.710 2.505
2.068 3.760 2.915
1.559 3.425 2.402
2.586 5.452 2.800
2.595 5.256 2.598
2.775 4.880 2.718
2.414 4.744 2.500
2.628 4.536 2.897
2.467 4.036 2.479
2.331 4.071 2.517
1.886 3.614 2.699
1.872 3.468 3.002
2.042 2.900 2.578
2.899 5.464 2.354
3.269 5.544 2.480
2.816 5.014 2.585
2.647 5.019 2.860
2.755 4.582 2.877
2.758 4.191 2.460
2.492 4.308 2.774
2.667 3.921 2.878
2.547 3.474 2.730
2.366 3.304 2.925
2.140 3.169 2.830
2.393 2.886 2.986
3.274 5.436 2.680
2.817 5.173 2.569
3.568 5.494 3.003
2.994 4.782 2.593
2.805 4.482 2.652
2.755 4.627 2.910
3.000 4.238 2.558
2.563 3.728 2.702
3.023 3.876 2.665
2.777 3.290 2.514
2.505 3.341 2.993
2.189 2.873 2.627
2.202 2.687 2.598
1.492 0.079 3.113
3.259 5.303 2.512
3.528 5.463 2.764
3.406 5.288 2.738
3.661 4.838 2.726
3.509 4.475 2.514
3.165 4.194 2.789
3.244 4.415 2.907
3.205 3.722 2.940
3.081 3.917 2.670
2.711 3.124 3.012
2.684 3.182 2.827
2.493 3.089 2.927
2.814 2.652 3.013
2.518 2.272 3.082
1.721 0.656 3.048
1.757 0.532 3.229
1.718 0.085 2.762
1.766 -0.061 3.088
3.418 5.484 2.559
3.690 5.378 2.565
3.873 5.332 2.973
3.967 4.907 2.603
3.628 4.560 2.938
3.500 4.131 2.595
3.373 3.935 2.669
3.237 3.863 2.581
3.322 3.483 3.007
2.935 3.092 2.734
2.869 3.235 2.628
2.930 2.789 2.747
2.898 2.738 2.804
2.564 2.463 3.040
2.631 1.949 2.841
2.433 1.785 2.831
2.762 1.720 2.835
2.560 1.047 2.913
2.053 1.095 2.961
2.261 0.791 3.197
2.302 0.402 2.703
2.148 0.035 2.849
4.097 5.399 2.646
4.035 5.339 3.074
4.173 5.204 2.656
4.228 4.830 3.007
4.145 4.258 2.595
3.673 4.515 2.870
3.618 4.021 2.925
2.970 1.978 2.709
2.826 1.625 2.868
2.463 1.261 2.986
2.797 0.896 3.187
2.270 1.048 3.192
2.556 0.483 3.219
2.527 0.464 3.159
2.209 0.372 2.894
4.259 5.178 2.675
4.028 4.886 2.859
4.096 4.614 2.914
4.280 4.887 3.024
4.359 4.658 2.624
2.926 1.375 2.942
3.049 1.042 2.831
3.151 1.109 3.029
2.665 0.750 2.993
2.969 0.355 3.063
2.519 0.050 2.791
2.289 0.266 2.821
4.662 5.166 2.891
4.463 5.171 3.124
4.294 4.865 3.043
3.507 1.450 3.093
3.189 0.875 3.262
2.812 0.961 2.953
3.255 0.693 3.291
2.703 0.311 3.172
4.761 5.264 2.741
4.774 4.824 2.796
3.474 1.000 3.210
3.633 1.047 2.844
3.122 0.604 3.306
3.239 0.627 3.015
3.071 0.158 3.424
4.774 4.897 2.922
3.424 0.971 3.017
3.557 0.735 3.217
3.275 0.365 2.911
3.586 -0.273 3.136
3.702 0.636 3.356
3.514 0.067 3.214
1.788 4.636 2.638
1.702 4.703 2.690
1.728 4.457 2.823
1.799 5.185 2.388
2.189 4.609 2.639
1.615 4.449 2.298
1.638 4.377 2.836
1.685 3.994 2.345
1.703 4.049 2.736
1.999 5.297 3.068
1.959 5.258 3.113
2.024 5.084 2.663
2.134 4.844 2.560
1.862 4.640 2.831
1.495 4.019 3.157
1.782 3.673 2.817
2.363 5.309 2.982
2.261 5.410 2.931
2.556 5.341 2.939
2.201 5.058 2.966
2.341 4.775 2.643
1.792 4.061 2.805
1.729 3.971 2.869
2.127 3.752 2.926
1.663 3.446 2.938
2.368 5.436 2.591
2.947 5.622 3.129
2.674 5.118 3.127
2.469 5.192 2.739
2.567 4.600 3.147
2.079 4.188 3.188
2.501 4.100 3.095
2.098 3.740 2.971
1.827 3.963 2.741
1.754 3.631 3.149
2.546 6.026 3.100
2.807 5.442 2.773
3.199 5.192 2.694
3.143 5.284 3.020
2.899 4.745 3.151
2.455 4.815 3.061
2.766 4.387 3.216
2.629 4.338 3.093
2.342 4.114 2.949
2.317 3.707 3.091
2.517 3.536 2.783
3.281 5.752 2.747
2.927 5.412 3.161
3.133 5.043 2.899
3.444 5.237 2.894
2.809 4.654 2.727
2.764 4.386 2.874
2.898 4.493 3.300
2.811 4.210 3.170
2.700 3.581 2.968
2.794 3.614 3.256
2.302 3.481 3.259
1.593 0.304 3.307
3.400 5.270 2.738
3.396 5.023 2.951
3.619 5.338 2.738
3.228 5.099 3.025
3.460 4.799 2.819
3.410 4.589 3.190
3.061 4.113 3.120
3.239 3.968 3.165
2.914 3.659 3.058
2.556 3.696 2.953
2.724 2.966 3.023
2.097 0.776 3.012
1.685 0.617 2.980
1.419 0.117 3.047
3.872 5.621 3.079
3.747 5.217 3.030
3.594 5.230 3.041
3.665 4.610 3.305
3.303 4.525 3.190
3.267 4.281 3.201
3.451 4.096 3.376
3.531 4.122 3.154
3.056 3.550 3.165
2.408 0.886 3.292
2.314 0.728 3.034
2.200 0.616 3.235
1.888 0.216 3.502
3.960 5.205 2.811
3.609 4.893 2.942
3.903 4.813 2.963
3.810 4.688 3.235
3.925 4.733 3.121
3.972 4.356 3.399
3.491 3.906 3.325
2.863 1.066 3.199
2.795 1.059 3.407
2.318 0.901 3.018
2.472 0.616 3.343
2.031 -0.083 3.025
4.156 5.181 3.021
3.881 5.229 3.128
4.103 4.806 2.926
4.113 4.576 3.082
4.187 4.486 3.228
2.880 1.095 3.272
2.500 0.548 3.090
2.501 0.376 3.613
2.412 0.522 3.242
2.377 0.157 3.483
4.376 5.402 2.911
4.524 5.055 3.273
4.493 5.120 3.093
4.584 4.524 3.393
2.982 0.734 3.419
2.930 0.837 3.095
2.668 0.199 3.107
2.825 0.021 3.395
4.816 5.052 3.331
4.694 4.614 3.456
4.596 4.900 3.160
3.443 0.978 3.537
3.320 0.512 3.508
3.033 0.364 3.433
3.380 0.339 3.304
4.648 5.244 3.390
4.957 4.553 2.969
3.753 0.288 3.585
3.425 0.240 3.225
3.128 0.263 3.581
5.023 5.024 3.269
3.827 -0.024 3.389
1.692 4.938 2.709
1.427 5.199 2.549
1.567 4.683 2.956
1.547 4.335 3.055
1.536 4.153 2.679
2.110 5.280 2.810
2.220 4.852 2.777
1.888 4.692 2.753
1.768 4.505 3.063
1.863 4.469 2.774
1.438 4.404 2.764
1.753 4.013 3.041
2.260 5.437 3.084
2.368 5.652 3.127
1.736 5.312 3.008
1.991 4.887 2.935
1.965 4.699 3.199
1.511 4.492 3.090
1.789 3.987 2.950
1.433 4.024 3.445
2.172 5.782 3.372
2.170 5.703 2.888
2.493 5.184 2.976
2.554 4.931 3.167
2.087 4.561 3.194
2.128 4.825 3.404
1.835 4.175 3.256
1.700 3.909 3.440
1.594 3.568 3.314
2.191 5.403 3.284
2.491 5.750 2.950
2.541 5.353 3.071
2.648 4.841 3.098
2.586 4.623 3.225
2.290 4.520 3.051
2.460 4.091 3.481
2.388 3.745 3.499
2.267 3.428 3.096
2.893 5.499 3.238
2.877 5.719 3.131
2.988 5.447 3.128
3.029 5.404 3.015
3.000 4.871 3.040
2.728 4.544 3.403
2.294 4.288 3.204
2.603 4.362 2.966
2.301 3.673 3.254
2.404 3.654 3.436
0.838 -0.196 3.555
3.035 5.428 3.405
3.155 5.223 3.265
3.160 5.319 3.334
2.924 4.989 3.115
3.154 4.976 3.305
3.077 4.797 3.235
2.984 4.185 3.393
3.007 4.205 3.569
2.898 3.826 3.575
2.676 3.348 3.095
1.645 -0.077 3.629
3.435 5.867 3.249
3.425 5.524 3.094
3.738 5.130 3.322
3.325 4.705 3.325
3.333 4.819 3.538
3.305 4.193 3.105
2.812 3.985 3.155
3.070 3.886 3.618
2.810 3.973 3.503
1.657 0.306 3.438
1.419 0.373 3.294
3.319 5.264 3.551
3.272 5.467 3.120
3.446 5.153 3.250
3.870 4.810 3.234
3.270 4.877 3.584
3.203 4.497 3.384
3.333 3.858 3.525
3.471 4.000 3.409
2.149 1.022 3.513
1.813 0.713 3.748
2.184 0.271 3.642
1.847 0.199 3.374
3.924 5.101 3.122
3.420 5.119 3.221
3.927 5.079 3.650
3.980 4.683 3.431
3.542 4.780 3.518
3.625 4.342 3.252
3.343 4.268 3.636
2.414 1.110 3.514
2.498 0.550 3.383
2.383 0.644 3.684
2.159 0.350 3.524
3.806 5.350 3.446
3.777 4.878 3.629
4.463 5.109 3.523
3.910 4.637 3.465
4.141 4.478 3.623
2.590 0.872 3.803
2.673 0.507 3.678
2.433 0.533 3.503
2.483 0.367 3.887
4.333 5.454 3.438
4.169 4.867 3.519
4.398 5.155 3.605
4.133 4.759 3.303
2.764 0.606 3.779
2.917 0.441 3.828
2.598 -0.011 3.826
4.388 5.224 3.603
4.504 4.661 3.565
5.017 4.810 3.431
4.349 4.607 3.553
3.014 0.846 3.581
2.961 0.246 3.730
2.781 0.136 3.790
4.914 4.839 3.300
4.559 4.627 3.397
4.711 4.486 3.841
3.660 0.767 3.788
3.489 0.043 3.918
3.615 0.083 4.035
4.865 4.654 3.304
5.005 4.848 3.652
3.618 0.457 3.717
5.503 4.766 3.626
5.863 4.586 3.735
1.722 5.426 2.864
1.430 4.839 2.805
1.377 5.127 2.927
1.871 5.292 3.079
1.498 4.999 3.297
1.866 4.794 3.235
1.270 4.968 2.872
1.179 4.713 2.855
1.361 4.107 3.296
2.060 5.423 2.798
1.898 5.614 3.087
2.234 5.150 3.117
2.078 4.908 3.140
2.087 4.373 3.065
1.839 4.494 2.963
1.775 3.897 3.051
1.624 3.765 3.438
2.389 5.395 3.195
2.320 5.935 3.604
2.142 5.706 3.172
1.774 5.387 3.540
1.687 4.929 3.277
1.767 4.784 3.625
1.545 4.605 3.565
1.390 4.146 3.327
2.190 5.654 3.606
2.366 5.591 3.557
2.588 5.623 3.470
2.320 5.247 3.618
2.139 5.049 3.614
2.284 4.824 3.373
2.096 4.084 3.194
2.119 4.192 3.218
1.898 3.899 3.281
2.789 6.042 3.334
2.134 5.368 3.623
2.442 5.357 3.142
2.352 5.252 3.393
2.609 5.214 3.502
2.363 4.636 3.724
2.189 4.213 3.641
2.004 4.293 3.258
2.223 3.721 3.301
1.962 3.932 3.493
2.818 6.030 3.355
2.780 5.565 3.704
2.619 5.179 3.488
2.540 4.887 3.357
2.697 4.869 3.283
2.496 4.433 3.411
2.724 4.112 3.748
2.715 4.094 3.757
2.268 3.941 3.355
2.079 3.816 3.804
1.180 -0.209 3.534
3.111 5.911 3.595
3.055 5.686 3.545
3.399 5.450 3.595
3.039 4.874 3.312
2.924 4.670 3.287
2.858 4.581 3.526
3.037 4.296 3.572
2.789 4.350 3.284
2.825 3.573 3.587
1.330 0.233 3.616
3.419 5.728 3.722
3.311 5.092 3.557
3.304 5.346 3.807
3.082 4.897 3.740
3.388 5.036 3.415
3.244 4.636 3.800
2.981 4.297 3.354
3.071 3.982 3.456
1.598 0.497 3.617
1.777 -0.095 3.567
3.322 5.343 3.557
3.490 5.294 3.775
3.763 4.877 3.676
3.590 4.695 3.648
3.725 4.834 3.540
3.557 4.574 3.523
3.101 4.151 3.899
2.151 0.394 3.956
1.894 0.084 4.058
1.530 0.113 3.834
3.601 5.581 3.895
3.527 4.945 3.679
3.850 5.272 3.830
4.037 4.888 3.424
4.008 4.542 3.832
3.473 4.309 3.821
2.539 0.696 3.816
2.056 0.178 3.755
2.346 0.272 3.865
4.298 5.388 3.582
3.696 5.367 3.570
4.337 4.698 3.578
4.076 4.753 3.903
3.888 4.638 3.949
2.451 0.353 3.608
2.619 0.546 4.156
2.502 0.274 3.951
4.099 5.211 3.929
4.273 5.089 3.954
4.521 4.837 3.718
4.186 4.886 3.795
3.020 0.640 3.681
3.080 0.523 4.015
2.553 -0.012 3.867
2.698 0.176 3.832
4.577 5.426 3.550
4.335 5.026 3.662
4.593 4.899 3.899
4.668 4.667 3.959
2.995 0.989 3.895
3.096 0.526 4.118
2.796 -0.111 3.871
4.709 5.118 4.035
4.882 4.942 3.866
5.215 4.550 3.615
3.478 0.474 4.063
3.609 0.122 3.813
3.526 0.203 4.067
5.143 4.938 3.758
4.841 4.759 3.599
5.081 4.726 3.601
3.352 0.181 3.900
3.553 0.152 3.955
5.244 4.693 4.032
5.239 4.856 3.774
5.265 4.326 4.089
5.470 4.825 4.087
5.618 4.717 4.208
5.977 4.929 4.211
1.550 5.357 3.353
1.484 5.591 3.227
1.365 4.985 3.461
1.056 5.022 3.376
0.989 4.829 3.111
2.008 5.743 3.417
1.995 5.819 3.255
1.779 5.000 3.448
1.503 5.288 3.520
1.236 4.614 3.226
1.146 4.316 3.623
1.618 4.051 3.379
2.079 5.557 3.552
2.259 5.511 3.214
2.152 5.412 3.186
2.243 5.033 3.600
1.824 5.199 3.188
2.065 4.891 3.204
1.876 4.533 3.643
1.344 4.433 3.705
2.099 5.887 3.301
1.956 5.738 3.556
2.077 5.739 3.629
2.199 5.230 3.378
1.815 5.233 3.911
1.713 4.582 3.625
1.669 4.148 3.655
1.336 4.476 3.489
2.361 5.761 3.882
2.413 5.593 3.906
2.481 5.676 3.539
2.269 5.015 3.446
2.101 4.641 3.960
1.907 4.635 3.604
1.699 4.273 3.726
1.927 3.856 3.651
2.521 6.157 3.914
2.559 5.906 3.528
2.643 5.729 3.939
2.692 5.377 3.595
2.198 5.127 3.456
2.310 4.510 3.850
2.384 4.538 3.892
2.162 4.190 3.793
2.196 3.988 3.730
2.995 5.999 3.694
2.799 5.712 3.533
2.992 5.413 3.983
2.856 5.314 3.799
2.481 4.668 3.802
2.737 4.821 3.915
2.292 4.570 3.745
2.605 4.429 3.589
2.313 3.784 3.648
2.938 5.496 3.693
2.681 5.253 3.676
3.117 5.347 3.634
2.812 5.024 3.925
3.071 4.876 3.979
2.574 4.508 4.049
2.843 4.178 4.107
2.736 3.888 3.753
3.479 5.519 3.718
2.989 5.330 3.950
3.675 5.138 3.646
3.551 4.770 3.782
3.297 4.541 3.830
3.207 4.291 3.924
3.235 4.046 3.699
1.636 0.089 4.004
3.716 5.323 3.977
3.351 5.551 4.013
3.936 5.246 3.793
3.297 4.982 3.905
3.440 4.424 4.157
3.197 4.588 3.812
2.098 0.110 4.223
1.931 -0.137 3.906
3.555 5.427 4.018
3.346 5.432 3.654
3.767 5.335 4.047
3.956 4.580 3.866
3.828 4.583 4.215
2.380 0.537 4.180
2.067 0.485 4.272
3.946 5.541 3.871
4.058 5.109 4.073
4.426 5.117 4.040
3.819 4.869 3.946
4.056 4.280 3.741
2.313 0.251 3.951
2.136 0.207 4.154
4.518 5.459 4.077
3.869 4.819 4.085
4.423 4.704 3.909
4.544 4.719 4.266
3.061 0.481 4.158
3.022 0.325 4.448
2.362 0.206 4.375
4.575 5.280 4.239
4.454 4.867 4.275
4.892 4.583 3.974
4.357 4.709 4.165
3.118 0.642 4.427
2.946 -0.061 4.166
4.639 4.919 3.975
4.611 4.708 4.317
5.023 4.862 4.172
4.768 4.246 3.967
3.432 0.128 4.449
3.492 0.296 4.126
5.241 5.136 4.175
5.004 4.693 4.258
4.946 4.887 4.255
3.303 0.541 4.268
3.554 0.291 4.488
4.971 4.927 3.931
5.075 4.665 4.308
5.272 4.494 4.024
4.092 -0.009 4.170
5.696 4.636 4.422
5.283 4.447 4.218
5.725 4.321 4.452
5.957 4.790 4.427
5.941 4.418 4.059
5.713 4.249 4.029
6.110 4.425 4.230
6.080 4.116 4.365
6.096 4.364 4.121
6.430 4.684 4.599
6.017 4.156 4.583
1.521 5.693 3.612
1.322 5.392 3.796
1.607 5.298 3.562
1.212 5.300 3.339
1.223 5.049 3.771
1.256 4.735 3.798
1.013 4.352 3.846
1.413 5.942 3.567
2.088 5.730 3.387
1.900 5.696 3.385
1.417 5.292 3.679
1.681 5.305 3.805
1.264 5.043 3.394
1.536 4.282 3.850
1.061 4.278 3.800
2.067 5.987 3.373
1.988 5.477 3.326
1.796 5.186 3.411
1.725 5.391 3.790
1.948 4.743 3.392
1.501 4.812 3.407
1.425 4.634 3.535
1.552 4.222 3.803
2.203 5.830 3.564
2.162 6.044 4.024
1.944 5.448 3.920
1.963 5.502 4.032
1.995 5.014 3.765
1.481 4.748 4.048
1.768 4.442 3.782
1.755 4.359 4.003
2.208 5.716 4.058
1.915 5.751 4.148
2.257 5.747 4.142
2.369 5.142 3.687
2.166 5.017 3.855
2.107 4.661 4.180
2.166 4.812 4.177
1.940 4.290 4.264
1.570 4.266 3.787
2.509 5.846 3.956
2.538 5.684 3.915
2.528 5.398 4.121
2.737 5.156 4.157
2.464 5.311 4.256
2.449 4.568 4.029
2.304 4.610 4.261
2.154 4.385 4.014
2.079 4.188 3.749
2.824 5.967 3.960
2.844 5.385 4.258
3.074 5.404 3.908
2.604 5.045 3.910
2.856 4.674 3.976
2.419 4.622 3.953
2.761 4.702 4.236
2.617 4.293 4.278
2.921 5.875 3.973
3.056 5.621 3.824
3.356 5.170 4.192
2.839 5.040 3.822
2.686 5.057 4.350
2.772 4.592 4.353
2.568 4.197 4.356
2.919 5.624 4.109
2.909 5.237 3.867
3.167 5.027 4.334
3.418 5.332 3.851
2.979 5.030 3.975
2.883 4.420 4.064
3.630 5.409 4.278
3.070 5.034 4.085
3.446 5.012 3.976
3.356 5.217 4.333
3.224 4.750 4.420
3.834 5.192 3.987
3.764 5.283 4.203
4.119 5.417 4.378
3.540 4.585 4.225
2.134 0.323 4.258
3.840 5.111 4.049
4.042 4.962 4.216
4.135 4.811 4.335
4.165 4.645 4.311
2.545 0.562 4.526
2.109 0.336 4.636
4.303 5.357 4.000
3.880 4.918 4.240
4.637 4.990 4.187
4.402 4.773 4.455
2.900 0.244 4.542
2.381 -0.197 4.194
4.465 5.157 4.404
4.349 5.061 4.474
4.396 4.644 4.500
4.319 4.442 4.464
3.018 0.282 4.376
3.176 0.185 4.219
4.534 5.017 4.173
4.424 4.700 4.503
5.012 4.569 4.315
4.679 4.788 4.406
3.091 0.207 4.763
3.131 0.342 4.257
4.914 5.072 4.138
5.090 4.993 4.595
5.349 4.714 4.204
4.963 4.601 4.222
3.369 0.382 4.340
3.452 -0.005 4.405
5.009 4.642 4.630
4.881 4.892 4.131
5.229 4.291 4.541
5.105 4.382 4.757
4.099 0.266 4.603
5.540 4.912 4.622
5.527 4.718 4.420
5.548 4.669 4.270
5.493 4.018 4.249
4.075 0.130 4.426
6.009 4.607 4.540
5.394 4.602 4.531
6.178 4.178 4.262
5.809 4.188 4.485
6.208 4.864 4.310
5.875 4.126 4.608
6.283 4.426 4.783
6.125 4.321 4.599
6.011 3.886 4.845
5.993 4.472 4.770
6.395 4.328 4.858
6.472 3.628 4.539
5.934 3.516 4.913
6.239 3.319 4.688
1.634 5.868 3.929
1.523 5.539 3.959
1.235 5.388 3.557
1.403 5.144 3.706
0.925 4.978 3.871
1.063 4.519 3.934
0.968 4.453 3.735
1.741 6.137 3.591
1.285 6.152 3.816
1.926 5.952 3.720
1.912 5.730 3.745
1.484 5.328 3.639
1.286 5.225 3.883
1.422 4.650 3.669
1.418 4.710 4.174
1.195 4.508 3.841
1.999 5.957 3.771
1.891 5.965 3.616
2.014 5.460 4.083
2.197 5.484 3.768
1.643 5.488 4.186
1.657 5.200 3.632
1.940 4.559 3.886
1.740 4.490 3.713
1.727 4.155 3.838
2.198 6.145 3.801
1.813 5.756 3.991
2.287 5.697 4.152
2.046 5.523 4.423
1.691 5.398 4.059
1.976 4.729 4.114
1.883 4.748 4.326
1.630 4.442 4.273
1.390 4.350 4.400
2.180 5.984 4.135
2.372 5.942 4.368
2.326 5.135 4.142
1.853 5.114 4.500
2.104 4.741 4.092
1.901 4.763 4.105
1.658 4.480 4.118
1.767 4.095 4.390
2.465 5.941 4.277
2.469 5.782 3.963
2.249 5.625 4.289
2.312 4.915 4.362
1.992 4.700 4.431
2.345 4.423 4.472
1.806 4.511 4.553
2.353 5.301 4.252
2.689 5.715 4.380
2.678 4.964 4.445
2.872 4.981 4.385
2.686 4.611 4.355
2.668 4.197 4.324
3.060 5.435 4.170
2.702 5.063 4.403
3.037 4.878 4.198
2.570 4.493 4.250
4.038 5.208 4.456
4.039 5.241 4.304
4.384 5.127 4.819
2.843 0.394 4.677
2.754 0.009 4.599
4.693 5.423 4.427
4.083 4.881 4.354
4.744 4.613 4.492
3.190 0.729 4.569
2.685 0.169 5.058
4.650 4.861 4.590
4.718 4.713 4.537
4.632 4.514 4.656
3.103 0.422 4.843
2.883 -0.106 4.807
4.785 5.151 4.448
4.638 4.857 4.845
4.912 4.807 4.808
5.035 4.591 4.619
3.280 0.255 4.980
3.379 -0.175 4.894
5.184 5.097 4.815
5.195 4.503 4.825
5.272 4.816 4.441
5.073 4.164 4.701
3.888 0.730 4.969
3.792 0.326 5.003
5.305 5.156 4.702
5.301 4.794 4.566
5.566 4.807 4.791
5.616 3.976 4.850
4.127 -0.114 4.727
5.728 4.577 4.716
5.794 4.342 4.511
5.683 4.535 4.935
5.754 4.305 5.112
5.481 4.015 4.785
4.231 -0.010 4.913
6.076 4.782 4.863
5.583 4.653 4.777
6.110 4.474 4.596
6.256 4.150 4.698
5.664 3.635 4.920
6.072 3.745 4.761
6.261 4.333 5.127
6.257 4.427 4.594
6.201 4.040 4.941
6.205 4.018 5.104
6.154 3.528 5.213
6.065 3.148 5.217
6.006 3.167 4.934
6.226 2.659 5.158
1.408 5.816 4.112
1.270 5.795 4.098
1.145 5.193 4.116
1.528 4.913 4.039
0.989 5.013 4.164
1.249 4.648 4.091
0.973 4.470 3.926
1.764 6.264 3.926
1.614 6.032 4.161
1.912 6.144 4.105
1.708 5.674 4.356
1.636 5.110 4.290
1.264 5.127 4.004
1.300 4.650 3.912
1.308 4.624 4.456
1.310 4.496 4.266
0.966 4.180 4.040
1.680 6.124 4.310
1.630 5.699 3.988
1.889 5.661 4.320
2.236 5.756 4.248
1.789 5.321 4.075
1.826 5.160 3.995
1.717 4.983 4.464
1.374 4.319 3.940
1.724 3.977 4.385
2.107 5.615 4.098
2.037 5.545 4.653
1.707 5.703 4.359
2.093 5.313 4.573
1.938 4.858 4.525
1.504 4.764 4.764
1.555 4.603 4.460
1.538 4.195 4.300
2.277 5.925 4.402
1.978 5.343 4.766
1.943 5.190 4.467
2.098 4.927 4.530
1.994 4.456 4.295
1.838 4.153 4.306
1.710 4.114 4.311
2.292 5.352 4.519
2.249 4.969 4.775
2.502 4.704 4.843
2.040 4.426 4.838
2.072 4.617 4.425
2.720 -0.004 5.196
2.966 0.392 5.058
2.599 0.142 4.892
4.423 5.245 5.076
4.563 4.548 4.699
3.281 0.254 5.018
3.411 0.287 4.864
5.153 5.196 4.615
4.936 4.821 4.955
5.161 4.557 5.235
3.428 0.633 5.407
3.297 0.452 5.364
3.618 -0.105 5.113
4.969 4.977 4.924
5.268 4.550 4.818
5.267 4.438 5.175
4.967 4.619 4.719
3.564 0.348 5.023
3.628 0.186 5.335
3.871 0.005 5.237
5.229 4.764 5.213
5.588 4.732 5.275
5.708 4.261 4.957
5.230 4.433 4.838
4.293 0.362 5.322
3.889 0.165 4.944
5.449 4.919 4.960
5.443 4.648 5.229
5.598 4.487 5.242
5.884 4.146 5.002
5.612 3.823 5.223
4.282 0.183 5.125
4.492 0.143 5.117
6.157 4.435 5.118
5.972 4.465 5.278
6.193 4.515 5.084
5.835 3.892 5.357
5.826 3.707 5.295
5.527 3.472 5.031
6.354 4.502 5.218
5.865 4.425 5.152
6.256 3.807 5.082
6.169 3.581 4.981
6.165 3.506 5.027
5.896 3.159 5.367
6.373 3.223 5.091
6.026 2.960 5.518
6.013 2.511 5.084
6.403 2.742 5.574
1.238 5.756 4.057
1.561 5.836 4.244
1.527 5.432 4.535
0.988 5.365 4.402
0.905 4.918 4.623
1.186 4.612 4.618
1.210 4.465 4.465
0.573 4.286 4.328
1.633 6.299 4.244
1.445 5.993 4.387
1.736 5.967 4.608
1.419 5.718 4.294
1.273 5.086 4.294
1.740 4.830 4.316
1.467 4.723 4.211
1.451 4.366 4.287
0.901 4.482 4.580
0.807 3.938 4.226
2.066 5.857 4.222
1.515 6.096 4.627
2.161 5.515 4.284
1.914 5.521 4.301
1.960 5.100 4.411
1.984 4.865 4.598
1.665 4.841 4.477
1.691 4.524 4.228
1.529 4.106 4.697
1.919 6.060 4.334
2.028 5.328 4.583
1.907 5.575 4.891
1.541 5.318 4.502
1.296 4.985 4.936
1.598 4.639 4.735
1.293 4.029 4.755
1.282 3.989 4.735
2.158 4.959 4.960
2.039 4.893 4.669
1.741 4.679 4.874
1.528 4.718 4.764
1.468 4.391 4.558
3.107 0.288 5.105
2.651 -0.002 5.091
3.117 0.505 5.333
3.370 0.087 5.446
5.015 4.950 5.123
4.774 5.030 4.948
3.594 0.781 5.471
3.281 0.331 5.238
3.101 -0.015 5.629
5.139 4.937 5.205
4.959 4.497 5.232
5.446 4.525 5.381
3.668 0.642 5.463
3.810 0.810 5.234
3.781 0.060 5.592
3.796 0.123 5.332
5.284 4.838 5.519
5.170 4.553 5.510
5.291 4.377 5.125
5.183 4.578 5.438
3.855 0.468 5.738
3.983 0.526 5.493
3.784 0.262 5.275
5.518 4.738 5.468
5.547 4.763 5.513
5.665 4.327 5.370
5.839 4.039 5.490
5.846 3.970 5.616
4.413 0.353 5.358
4.214 0.267 5.558
3.918 0.083 5.450
5.720 4.534 5.141
5.929 4.298 5.533
6.060 4.185 5.171
6.084 3.933 5.435
5.696 3.792 5.288
5.533 3.867 5.701
5.403 3.248 5.540
4.344 0.512 5.791
4.302 -0.234 5.485
6.380 4.376 5.184
5.852 4.390 5.677
6.289 3.847 5.560
6.173 3.725 5.575
5.852 3.301 5.634
5.913 3.261 5.695
6.078 2.920 5.398
6.359 3.706 5.447
6.105 2.999 5.801
6.313 3.133 5.602
5.856 2.834 5.357
5.693 2.637 5.569
6.099 2.658 5.329
6.303 2.325 5.429
6.069 1.826 5.751
1.297 6.243 4.770
1.076 5.928 4.867
1.245 5.710 4.770
1.020 5.011 4.882
1.045 5.087 4.892
0.993 5.012 4.782
0.965 4.519 4.529
0.785 4.061 4.445
0.773 3.989 4.718
1.653 6.411 4.692
1.544 5.727 4.771
1.494 6.105 4.424
1.328 5.792 4.904
1.599 5.582 4.379
1.503 5.087 4.765
1.071 5.105 4.800
1.066 4.510 4.805
1.262 4.473 4.545
0.982 4.199 4.814
1.666 5.702 4.518
2.030 5.532 4.935
1.545 5.073 4.867
1.897 5.205 4.740
1.752 4.755 4.818
1.304 4.568 4.748
1.347 4.133 4.966
1.448 4.081 4.541
1.819 5.427 5.229
1.884 4.874 5.159
1.364 4.776 4.819
1.441 4.824 5.002
1.239 4.530 4.929
1.132 4.084 5.113
2.068 5.187 4.909
1.513 4.952 5.234
1.970 4.684 5.065
1.628 4.291 5.309
2.944 0.231 5.790
3.344 0.140 5.332
3.431 0.680 5.593
3.501 0.565 5.868
3.285 0.503 5.759
3.369 -0.017 5.551
5.132 5.321 5.434
5.255 4.725 5.465
3.700 0.814 5.973
3.667 0.857 5.537
3.515 0.060 5.831
3.710 -0.102 5.816
5.611 4.875 5.803
5.384 4.532 5.469
5.568 4.530 5.778
5.139 4.331 5.636
4.208 0.855 5.863
4.104 0.744 5.589
3.762 0.344 6.016
3.944 0.047 6.017
5.613 4.730 5.868
5.561 4.771 5.406
5.860 4.414 5.736
5.396 4.290 5.594
5.435 4.112 5.840
4.373 0.799 5.569
4.340 0.485 5.834
4.194 0.193 5.685
3.915 0.052 5.496
5.905 4.459 5.377
5.659 4.757 5.577
5.767 4.699 5.709
5.870 4.228 5.733
6.084 3.982 5.478
5.689 3.600 5.837
5.580 3.102 5.913
4.747 0.809 5.624
4.354 0.561 5.871
4.796 0.390 6.060
4.274 0.324 5.683
5.978 4.757 5.542
5.844 4.310 5.939
6.517 4.058 5.624
5.859 4.019 5.466
6.290 3.898 5.916
5.713 3.467 5.674
6.074 3.307 5.616
5.992 3.167 5.691
5.642 2.500 5.777
5.338 2.373 5.658
4.663 0.569 5.749
4.725 0.256 5.804
6.055 4.583 5.994
6.040 3.342 5.970
6.066 3.389 5.776
5.821 2.709 6.057
6.145 2.759 5.600
5.837 2.609 6.063
5.493 2.311 5.863
5.613 2.090 5.983
6.115 2.552 5.636
5.918 2.622 6.052
5.804 2.274 5.868
5.775 1.802 5.605
6.101 2.227 5.681
6.425 1.755 6.060
1.170 6.310 4.976
1.338 5.916 4.910
1.504 5.280 4.909
0.959 5.034 5.020
1.239 5.154 5.117
0.828 4.976 4.883
0.964 4.477 4.879
0.856 4.216 4.778
0.402 3.785 5.125
0.567 3.856 4.673
1.648 6.233 4.857
1.774 5.389 4.854
1.610 5.685 5.035
1.340 5.403 4.784
1.125 4.721 5.181
0.917 4.431 4.967
1.101 4.185 5.220
1.219 4.429 4.855
0.756 3.693 5.272
1.722 5.228 4.875
1.887 5.032 5.024
1.678 4.678 4.837
1.250 4.657 4.985
1.521 4.286 5.266
1.166 4.179 4.924
1.664 5.054 5.081
1.711 4.570 5.500
1.711 4.401 5.184
1.585 4.336 5.410
1.232 3.792 5.513
1.349 4.096 5.163
1.618 4.703 5.094
1.506 4.142 5.066
3.331 1.014 6.134
2.924 0.396 5.741
2.907 0.146 6.110
2.865 -0.036 5.920
3.402 1.066 5.632
3.658 0.466 6.200
3.265 0.282 6.221
3.046 0.318 5.650
4.177 1.166 5.844
4.023 0.643 5.979
3.579 0.583 5.703
3.702 0.499 6.163
3.370 0.232 6.185
5.361 5.164 5.596
5.653 4.390 5.568
3.990 1.439 6.079
3.973 0.995 6.163
4.047 0.560 6.100
4.112 0.250 6.068
3.591 -0.047 5.878
5.338 5.069 5.839
5.690 4.756 6.078
5.546 4.332 6.102
5.708 4.089 5.657
4.436 1.417 5.850
4.553 1.009 5.840
4.579 0.916 5.857
4.425 0.952 5.889
3.922 0.472 6.267
4.079 0.414 6.098
5.637 4.603 5.889
5.678 4.719 6.114
6.220 4.658 5.854
5.765 4.411 5.826
5.622 3.973 6.108
5.542 3.397 5.943
5.857 3.355 5.931
5.086 1.855 5.926
5.047 1.567 6.085
4.485 0.967 5.886
4.790 0.565 5.998
4.359 0.453 6.354
4.259 0.343 6.273
4.234 0.246 5.865
6.322 4.755 5.853
5.822 4.627 5.828
6.048 4.617 6.230
5.995 4.308 6.087
5.909 3.679 5.830
5.863 3.441 5.820
5.576 3.544 6.114
5.537 3.048 6.222
5.766 3.076 6.160
5.485 2.476 6.198
5.441 2.011 5.861
5.471 1.760 5.881
5.205 1.799 6.096
5.107 1.777 5.846
4.975 1.483 5.822
5.075 1.065 5.846
4.854 0.661 6.185
4.689 0.588 5.937
5.004 -0.040 6.076
5.920 4.579 6.038
6.287 3.817 6.317
6.110 3.268 6.344
5.935 3.377 5.935
6.109 2.885 5.890
5.716 2.746 5.967
5.705 2.293 5.980
5.669 2.140 5.831
5.468 1.851 6.100
5.451 1.946 6.311
5.255 1.685 6.319
5.494 1.088 6.297
5.185 0.663 6.349
5.417 0.518 6.104
4.805 0.128 5.911
5.251 -0.089 6.013
6.366 2.627 5.974
6.129 2.557 6.344
5.821 2.089 5.908
6.128 1.904 5.957
5.817 1.879 6.001
6.029 1.679 6.290
5.858 1.097 6.219
5.645 1.335 6.481
6.292 1.926 5.912
6.197 1.811 6.224
5.761 1.585 6.505
6.048 1.050 5.974
1.438 5.611 5.294
1.199 5.657 5.133
0.868 5.487 5.216
1.026 5.101 5.076
0.938 4.702 4.932
0.919 4.554 5.043
0.906 4.000 5.313
0.771 3.806 5.165
0.785 3.567 5.314
0.521 3.366 4.996
1.481 5.682 4.921
1.192 4.913 4.974
1.542 4.883 5.438
1.265 4.518 5.427
0.847 4.577 5.480
0.878 3.900 5.184
0.986 3.747 5.478
0.732 3.439 5.561
1.590 5.188 5.359
1.381 4.666 5.057
1.547 4.640 5.495
1.199 4.349 5.385
1.269 4.316 5.305
1.248 3.730 5.242
1.385 5.072 5.830
1.233 4.576 5.834
1.236 4.462 5.740
1.450 4.034 5.395
0.991 3.587 5.722
1.290 3.660 5.377
1.281 4.120 5.426
1.458 4.086 5.868
2.972 1.040 6.242
3.078 1.029 6.403
2.931 0.253 5.884
3.209 0.308 6.217
3.065 -0.035 6.389
3.571 1.356 6.103
3.772 0.785 6.412
3.307 0.537 6.236
3.334 0.444 6.197
3.398 0.328 6.378
4.059 1.416 6.345
4.102 1.410 6.199
3.591 0.601 6.313
3.947 0.833 6.465
3.690 0.115 5.990
3.670 0.034 6.545
4.283 1.425 5.950
4.225 1.325 6.428
4.071 1.035 6.429
4.214 0.794 6.189
3.888 0.680 6.261
5.493 5.056 5.837
5.007 1.907 6.172
4.534 1.817 5.994
4.292 1.257 6.365
5.567 4.733 5.960
5.863 4.438 6.006
5.861 4.437 5.992
5.994 4.897 5.973
5.808 4.617 6.208
6.253 4.331 6.218
6.367 3.957 6.392
6.028 3.756 6.484
5.627 3.585 6.431
6.551 4.579 6.010
5.879 4.306 6.264
1.046 5.407 5.419
1.037 5.249 5.485
0.711 4.781 5.580
1.113 4.934 5.739
0.899 4.797 5.658
0.981 4.274 5.271
0.849 4.301 5.204
0.399 4.029 5.535
0.138 3.210 5.327
0.198 3.347 5.438
1.363 5.007 5.204
1.134 4.885 5.318
1.205 4.422 5.802
1.168 4.721 5.244
0.735 4.336 5.682
0.594 4.088 5.801
0.832 3.396 5.812
0.431 3.352 5.474
1.239 4.706 5.561
1.240 4.640 5.631
1.067 4.395 5.502
1.176 4.261 5.537
1.300 4.031 5.824
1.055 3.790 5.326
1.515 4.670 5.816
1.272 4.714 5.629
1.396 4.239 5.972
1.120 4.006 5.947
1.207 4.060 5.944
1.175 3.507 6.052
0.963 3.530 5.972
1.276 4.105 5.829
1.636 3.878 5.816
1.580 4.035 5.722
1.106 5.428 5.968
0.645 5.238 5.792
1.105 5.073 5.914
0.871 4.661 5.968
0.452 4.219 5.582
0.467 3.923 5.809
0.256 3.626 5.639
0.545 3.710 5.923
0.142 3.363 5.552
0.336 2.739 5.842
1.469 5.514 5.796
0.954 4.857 5.734
1.082 4.907 6.003
1.211 4.620 5.522
1.003 4.199 5.965
0.987 4.083 5.681
0.832 3.566 5.950
0.872 3.457 5.585
0.631 3.305 5.814
1.544 4.738 5.631
1.260 4.404 6.044
0.996 4.392 5.651
1.034 3.896 5.944
1.356 3.588 5.746
0.844 3.573 5.981
0.866 3.644 6.046
1.142 4.371 5.945
1.378 4.355 5.939
1.144 4.135 6.036
0.918 3.991 5.918
0.872 3.755 5.946
0.844 3.294 6.231
0.481 3.021 6.143
1.393 4.188 6.124
1.484 3.859 6.039
1.457 3.944 5.988
1.362 3.427 6.282
1.164 3.250 6.323
0.900 4.812 6.078
0.690 4.624 5.782
0.975 4.306 6.115
0.677 4.246 6.195
0.711 3.820 6.241
0.414 3.661 5.898
0.045 3.296 6.040
0.254 3.036 5.946
-0.056 2.971 6.242
1.074 4.995 6.077
1.300 4.861 6.205
0.676 4.309 6.148
0.681 4.147 6.365
1.004 3.794 5.985
0.671 3.875 5.990
0.638 3.403 6.125
0.591 3.416 6.319
0.250 2.680 6.258
1.519 4.504 6.249
0.982 4.621 5.809
1.039 4.156 5.993
0.798 3.912 6.261
1.214 3.526 6.326
1.135 3.609 5.906
0.988 3.360 6.280
1.922 4.126 -0.030
1.973 3.731 0.289
1.750 3.755 0.421
1.963 3.356 0.367
1.895 3.197 0.357
1.888 2.778 0.418
1.456 2.369 0.207
2.446 3.626 0.130
2.045 3.448 -0.014
2.004 3.331 0.125
1.810 2.858 -0.015
1.780 2.481 0.307
2.048 2.706 0.238
2.293 3.657 0.281
2.362 3.421 0.566
2.181 3.204 0.469
1.955 2.615 0.312
3.918 1.101 0.377
3.379 1.281 0.496
3.789 0.801 0.530
3.852 1.287 0.699
4.136 1.403 0.786
3.991 0.802 0.988
3.621 0.604 0.706
3.871 0.401 0.581
3.744 0.444 0.598
4.132 1.227 0.843
4.319 0.905 0.781
4.044 0.760 0.854
3.757 0.381 1.019
3.977 0.418 0.531
3.660 -0.190 0.968
4.719 1.674 0.845
4.443 1.103 0.704
4.711 1.165 0.799
4.069 1.006 0.935
4.368 0.281 0.520
3.915 0.512 0.602
4.962 1.366 0.510
5.007 1.219 0.827
4.674 0.690 1.110
4.409 0.839 0.747
4.570 0.488 0.640
4.555 -0.020 0.560
5.051 1.870 0.595
5.074 1.584 0.766
5.081 1.309 0.893
5.020 1.102 0.680
4.865 0.769 1.121
4.991 0.289 0.809
4.877 -0.124 0.847
5.576 1.733 1.124
5.483 1.733 0.996
5.664 1.162 1.009
5.087 1.034 0.793
5.140 0.842 0.735
5.208 0.243 0.683
4.924 -0.043 1.111
5.736 1.632 1.073
5.755 1.489 0.910
5.676 1.623 0.982
5.671 1.413 0.915
5.778 1.117 1.144
5.310 0.567 1.012
5.533 0.549 0.738
5.137 0.370 1.056
6.125 2.071 1.173
6.094 1.541 0.824
6.095 1.606 1.091
6.266 1.598 0.866
5.921 0.808 1.009
5.730 1.069 1.218
5.542 0.308 0.936
5.712 0.328 1.003
5.521 0.299 1.305
6.080 1.423 0.742
5.873 0.805 0.907
5.845 0.506 1.140
6.092 0.594 1.009
6.158 0.339 1.161
6.486 0.446 0.838
6.340 0.113 1.261
1.642 4.687 0.246
1.790 4.468 -0.196
1.750 4.222 -0.046
1.179 3.507 0.220
1.433 3.629 0.077
1.233 3.472 -0.118
1.112 2.931 0.232
1.098 2.961 0.100
0.825 2.400 -0.119
0.722 2.362 -0.012
1.620 4.509 0.115
1.897 3.773 0.343
1.826 3.854 0.407
1.347 3.658 0.214
1.649 3.091 -0.087
1.430 2.698 0.085
1.182 2.921 0.245
0.987 2.341 -0.062
2.022 4.217 0.288
2.004 3.699 0.077
2.055 3.387 0.089
2.148 3.207 0.062
1.675 3.316 0.130
1.427 3.056 0.016
1.424 2.523 0.271
1.921 4.290 0.322
1.833 4.184 0.496
1.799 3.380 0.409
1.846 3.552 0.515
1.629 3.155 0.706
1.691 2.603 0.249
1.697 2.584 0.606
1.706 2.392 0.237
2.233 4.081 0.519
2.067 3.481 0.384
1.858 3.118 0.502
2.185 3.029 0.605
1.711 2.760 0.329
2.007 2.288 0.292
1.439 2.199 0.458
2.590 3.701 0.315
2.498 3.513 0.473
2.253 3.283 0.471
2.021 3.003 0.843
2.428 2.620 0.389
2.174 2.270 0.848
2.919 3.339 0.870
2.427 3.034 0.334
2.374 2.941 0.592
2.152 2.543 0.426
2.455 2.263 0.721
2.596 3.008 0.734
2.953 2.497 0.623
2.564 2.269 0.441
2.901 1.639 1.000
3.650 1.445 0.747
3.322 1.637 0.834
3.532 0.960 0.940
3.246 1.109 1.078
3.647 1.693 0.607
3.468 1.357 1.049
3.395 0.903 0.852
3.741 0.646 0.696
3.654 0.436 0.711
3.940 1.633 1.039
3.939 0.966 1.039
3.730 1.224 1.212
3.828 0.969 0.875
3.436 0.309 1.247
3.251 -0.024 1.101
4.412 1.615 0.918
4.467 1.236 0.798
4.401 1.029 0.872
4.249 0.994 0.888
4.195 0.678 1.069
3.911 0.341 0.994
3.630 0.326 0.761
4.652 1.576 0.833
4.460 1.144 1.012
4.295 1.177 1.114
4.451 0.862 1.142
3.974 0.725 1.178
4.259 0.459 1.044
4.707 1.684 0.974
4.768 1.301 1.314
4.686 1.224 1.308
4.477 0.456 1.126
4.593 0.529 0.879
4.103 0.368 1.289
4.963 1.485 0.857
5.109 1.522 1.005
5.133 1.095 0.895
4.716 0.771 1.394
5.128 0.574 1.157
5.002 0.410 1.076
4.690 0.145 1.399
5.171 1.357 1.001
5.243 1.017 1.209
4.994 1.034 1.326
5.420 0.503 0.907
5.264 0.365 1.306
5.230 0.052 1.107
5.670 1.933 0.899
5.906 1.678 1.224
5.537 1.259 1.117
5.449 1.149 1.286
5.151 0.541 1.321
5.326 0.308 1.282
5.501 -0.112 0.975
5.945 1.770 1.077
5.762 1.760 1.274
6.066 1.482 1.118
6.009 0.928 1.152
5.705 0.664 0.960
5.758 0.372 1.420
5.437 0.358 0.986
5.228 0.092 1.058
6.501 1.307 1.334
6.316 0.822 1.218
6.326 0.639 1.028
5.951 0.515 1.446
5.681 -0.059 1.343
6.092 0.617 1.187
5.866 -0.012 1.213
1.657 4.047 0.605
1.321 4.313 0.368
1.629 4.027 0.158
1.599 3.590 0.435
1.088 3.215 0.636
1.162 3.057 0.466
0.869 2.663 0.279
0.895 2.269 0.538
0.922 2.260 0.371
1.568 4.314 0.187
1.682 4.108 0.413
1.496 3.942 0.203
1.640 3.385 0.630
1.737 3.135 0.356
1.580 3.141 0.243
1.200 2.877 0.309
1.462 2.207 0.176
1.954 4.162 0.335
1.787 3.849 0.618
1.879 3.504 0.668
1.753 3.451 0.761
1.453 3.025 0.628
1.866 2.992 0.484
1.552 2.805 0.453
1.401 2.594 0.281
1.821 4.021 0.867
1.929 3.659 1.000
2.077 3.887 0.640
1.658 3.458 0.526
1.845 3.014 0.800
1.752 2.849 0.556
1.743 2.458 0.898
1.284 2.489 0.986
2.531 4.135 0.710
2.439 4.101 0.936
2.052 3.476 0.720
1.756 3.126 0.769
2.071 3.301 0.907
1.617 2.566 0.931
1.677 2.625 0.651
1.843 2.320 0.538
2.661 3.998 0.657
2.207 3.383 0.621
2.046 2.988 0.970
2.267 2.901 1.057
2.100 2.639 0.736
1.735 2.719 0.696
2.168 2.271 0.825
2.681 3.518 0.910
2.885 3.244 1.101
2.474 3.204 0.712
2.554 2.712 1.108
2.401 2.371 0.730
2.169 2.376 0.852
2.386 2.192 0.732
2.783 3.252 0.662
3.084 2.995 0.729
2.443 3.025 1.177
2.684 2.304 0.982
2.708 2.507 1.130
2.676 1.868 1.086
2.724 2.892 1.123
2.613 2.404 0.932
2.908 1.915 1.159
2.861 1.949 1.074
2.810 1.608 0.969
3.419 2.105 0.790
3.221 2.007 0.895
2.969 1.760 0.997
2.924 1.322 0.998
2.973 1.477 0.984
3.112 2.163 0.959
3.469 2.277 0.794
3.498 1.518 1.283
2.888 1.375 1.056
3.228 1.467 0.862
2.945 0.700 1.305
3.660 2.017 0.843
3.346 1.579 1.304
3.521 1.244 1.049
3.024 1.263 1.290
3.257 1.077 1.232
2.966 0.717 1.179
4.025 1.755 1.202
3.954 1.517 0.937
3.500 1.354 1.009
3.567 1.048 1.253
3.172 0.811 1.043
3.530 0.450 1.279
3.502 0.328 0.969
3.760 1.530 1.461
3.800 1.422 1.030
3.599 1.315 1.088
3.501 0.811 1.459
3.496 0.515 1.348
3.598 0.557 1.169
3.639 -0.092 1.159
4.267 1.803 0.955
4.370 1.164 1.240
4.310 0.984 1.442
4.049 1.018 1.265
4.002 0.766 1.293
3.830 0.212 1.551
3.826 0.315 1.420
4.466 1.353 1.490
4.645 1.140 1.135
4.326 0.845 1.260
4.512 0.706 1.470
4.279 0.715 1.409
3.949 0.302 1.381
3.820 0.298 1.587
4.898 1.292 1.179
4.487 0.930 1.169
4.806 1.203 1.568
4.732 0.907 1.143
4.183 0.467 1.306
4.419 0.149 1.402
4.971 1.365 1.392
4.727 0.920 1.344
4.961 0.714 1.147
5.030 0.420 1.225
4.709 0.199 1.247
4.866 0.260 1.606
5.500 1.387 1.640
5.478 1.089 1.635
5.484 1.186 1.685
5.412 0.644 1.389
5.196 0.547 1.538
5.040 0.101 1.624
5.154 0.139 1.746
5.715 1.385 1.650
5.547 1.257 1.596
5.332 0.775 1.548
5.474 0.949 1.211
5.216 0.308 1.511
5.302 -0.087 1.421
6.071 1.579 1.580
6.054 1.586 1.395
5.741 1.188 1.295
6.006 1.011 1.666
5.626 0.777 1.528
5.521 0.127 1.761
5.185 0.250 1.794
6.003 1.801 1.742
6.119 1.126 1.537
5.934 0.876 1.573
6.126 0.746 1.382
5.952 0.641 1.365
5.938 -0.042 1.535
6.436 0.410 1.833
6.372 0.389 1.849
1.426 4.195 0.390
1.110 3.828 0.453
1.537 3.848 0.581
1.248 3.519 0.588
1.300 3.234 0.404
0.999 2.912 0.489
1.101 2.701 0.540
1.929 4.071 0.439
1.455 3.903 0.522
1.338 3.594 0.500
1.796 3.359 0.917
1.605 3.381 0.996
1.329 2.775 0.627
1.037 2.826 0.993
1.189 2.638 1.022
2.099 4.254 0.689
2.030 3.982 0.748
2.057 3.496 0.924
2.081 3.176 0.837
1.650 3.014 0.530
1.405 2.868 0.816
1.384 2.465 0.776
1.638 2.567 0.921
2.122 4.472 1.181
2.190 4.211 0.745
1.622 3.477 0.824
1.941 3.296 1.013
1.607 3.366 1.089
1.417 2.726 0.804
1.444 2.935 0.949
1.087 2.386 1.264
2.238 4.396 0.775
2.485 3.910 0.854
2.158 3.501 0.875
2.156 3.374 1.137
1.881 3.286 1.162
1.762 2.685 1.031
1.664 2.764 0.799
1.460 2.148 0.873
2.246 4.182 1.015
2.441 3.827 1.266
2.326 3.677 1.288
2.531 3.255 0.942
2.437 3.097 0.910
1.980 2.849 1.286
1.775 2.350 1.050
2.017 2.061 1.210
2.716 3.560 1.279
2.898 3.132 1.393
2.560 3.429 1.152
2.716 2.671 0.931
2.040 2.434 1.378
2.230 2.253 1.218
2.422 2.362 0.883
2.261 2.129 1.160
3.064 3.573 1.188
3.069 3.078 1.023
3.039 3.306 0.911
2.529 2.835 1.284
2.302 2.516 1.439
2.404 2.477 1.457
2.671 2.151 1.157
2.070 2.052 1.034
3.324 3.278 1.210
2.923 2.700 1.299
2.825 2.669 1.084
2.664 2.619 1.025
2.628 1.979 1.486
2.892 1.683 1.410
2.386 1.572 1.007
2.579 1.553 1.226
3.401 2.614 1.402
3.324 2.699 1.035
3.201 2.158 1.473
2.722 2.363 1.531
2.991 1.963 1.109
3.085 1.525 1.467
2.952 1.379 1.275
2.774 0.939 1.553
3.145 2.319 1.269
3.604 2.124 1.544
3.113 1.931 1.529
3.069 1.572 1.151
3.349 1.521 1.233
3.194 1.147 1.234
2.640 0.883 1.240
2.784 0.848 1.576
3.854 2.418 1.376
3.500 2.094 1.353
3.437 1.708 1.099
3.424 1.571 1.353
3.451 0.919 1.508
3.018 0.742 1.519
3.312 0.715 1.271
2.869 0.267 1.205
4.032 2.404 1.657
3.664 1.592 1.479
3.798 1.361 1.656
3.771 1.612 1.553
3.213 1.063 1.641
3.295 0.758 1.406
3.138 0.757 1.670
3.417 0.434 1.363
3.205 -0.148 1.540
3.850 1.693 1.326
4.144 1.689 1.313
4.059 1.321 1.659
3.617 0.984 1.643
3.889 0.696 1.568
3.485 0.524 1.432
3.493 0.413 1.632
4.508 1.504 1.317
4.383 1.207 1.545
3.995 1.360 1.537
4.026 1.006 1.566
4.195 0.702 1.419
3.804 0.174 1.693
3.540 0.390 1.779
4.678 1.660 1.506
4.163 1.386 1.474
4.385 0.815 1.361
4.399 0.793 1.847
4.452 0.607 1.741
3.909 0.048 1.524
3.680 0.234 1.802
4.787 1.785 1.618
4.788 1.453 1.429
4.826 0.947 1.763
4.724 1.006 1.930
4.693 0.296 1.932
4.092 0.215 1.878
5.229 1.685 1.530
4.938 1.011 1.862
5.136 0.960 1.740
4.549 0.569 1.484
4.834 0.286 1.870
4.453 0.195 1.801
5.402 1.258 1.893
5.265 0.828 1.485
5.062 0.713 1.504
5.066 0.380 1.743
4.753 0.289 1.648
5.080 -0.123 1.667
5.535 1.199 2.014
5.733 1.003 1.982
5.479 0.615 1.735
5.354 0.314 1.646
5.950 1.340 1.819
5.733 1.157 1.692
5.334 0.429 1.572
6.304 1.734 1.884
6.362 1.212 1.625
5.927 0.821 1.727
5.842 0.644 1.644
6.510 0.981 1.766
1.580 4.213 0.839
1.429 3.670 0.769
1.283 3.421 0.652
1.274 3.205 0.816
0.950 3.203 0.762
1.153 2.574 0.762
1.075 2.347 0.784
1.761 4.190 0.728
1.766 3.990 1.159
1.631 3.959 1.085
1.334 3.396 0.841
1.532 3.274 1.225
1.544 2.877 0.900
1.004 2.727 1.046
1.129 2.667 0.749
2.118 4.061 0.683
1.839 4.153 1.189
1.880 3.405 1.284
1.949 3.378 1.238
1.507 2.926 1.038
1.381 3.069 1.234
1.302 2.513 0.831
1.513 2.457 1.207
2.196 3.971 1.084
2.142 4.126 1.117
1.749 3.947 1.236
1.828 3.314 1.095
1.816 3.182 1.068
1.791 3.074 1.240
1.396 2.962 1.535
1.388 2.400 1.602
2.131 4.349 1.503
2.297 3.812 1.530
1.773 3.897 1.043
1.696 3.163 1.185
1.712 2.914 1.057
1.831 2.631 1.471
1.588 2.653 1.109
1.878 2.358 1.487
2.585 4.228 1.256
2.630 3.845 1.426
2.412 3.276 1.552
2.422 3.176 1.156
1.860 2.933 1.241
1.765 3.051 1.268
1.881 2.635 1.324
1.953 2.052 1.512
1.677 2.156 1.330
2.758 3.810 1.281
2.380 3.463 1.123
2.526 3.156 1.329
2.431 3.105 1.326
2.578 2.793 1.573
2.203 2.838 1.314
1.908 2.393 1.553
1.950 2.445 1.566
2.230 1.639 1.188
3.144 4.062 1.597
2.972 3.333 1.545
2.705 3.601 1.684
2.830 3.027 1.450
2.652 2.726 1.647
2.286 2.585 1.515
2.452 2.490 1.261
2.184 2.045 1.686
2.032 1.634 1.404
1.971 1.413 1.653
3.339 3.332 1.191
3.037 2.990 1.602
3.277 3.184 1.264
2.968 2.865 1.512
3.097 2.585 1.436
2.774 2.320 1.392
2.573 1.808 1.452
2.495 1.906 1.772
2.474 1.620 1.655
2.342 1.322 1.766
3.430 3.421 1.293
3.165 3.116 1.355
3.209 2.452 1.433
3.231 2.607 1.518
3.115 1.974 1.377
2.991 1.760 1.310
2.824 1.805 1.618
2.743 1.182 1.693
2.423 1.114 1.741
2.660 0.976 1.631
3.586 2.737 1.297
3.423 2.288 1.311
3.468 2.086 1.850
3.270 1.976 1.831
3.205 1.312 1.460
3.217 1.150 1.447
2.995 1.293 1.472
2.511 0.484 1.396
2.860 0.541 1.486
3.476 2.413 1.575
3.594 2.177 1.798
3.442 2.183 1.542
3.631 1.966 1.504
3.463 1.493 1.568
3.467 1.021 1.762
2.846 0.745 1.420
2.857 0.419 1.844
2.687 0.696 1.523
2.917 0.053 1.865
3.855 1.844 1.539
3.927 1.693 1.459
3.668 1.466 1.902
3.492 1.454 1.502
3.177 0.969 1.532
3.633 1.008 1.871
3.392 0.626 1.682
2.875 0.427 1.968
2.901 0.354 1.934
4.229 2.081 1.538
3.905 1.485 1.716
4.081 1.300 1.642
3.459 0.784 1.659
3.417 0.829 1.672
3.579 0.512 1.525
3.661 -0.001 1.745
4.083 1.497 1.958
4.107 1.619 1.698
4.282 1.200 2.002
4.206 0.799 2.017
3.876 0.497 1.593
4.011 0.357 1.715
3.970 0.122 1.659
4.678 1.693 1.874
4.665 1.132 1.797
4.277 1.016 2.074
4.406 0.788 2.091
3.916 0.769 1.727
3.955 0.481 1.784
3.850 -0.041 1.602
4.547 1.027 1.847
4.653 0.905 2.089
4.545 0.992 2.110
4.102 0.565 1.865
4.062 0.373 1.940
4.660 1.209 1.850
4.834 0.812 1.771
4.745 0.563 1.737
4.412 0.172 1.713
4.310 0.384 1.980
1.208 4.023 1.022
1.191 3.451 1.243
1.379 3.632 1.156
0.945 2.928 1.277
0.749 3.023 1.403
1.525 4.190 1.226
1.405 3.599 1.016
1.751 3.671 1.388
1.247 3.410 0.957
1.519 3.004 1.020
0.960 2.774 1.072
2.265 4.087 1.376
2.112 3.975 1.113
1.873 3.514 1.273
1.990 3.543 1.235
1.406 3.381 1.040
1.272 3.216 1.491
1.671 2.497 1.425
1.350 2.535 1.501
2.035 4.380 1.458
1.842 3.707 1.502
1.904 3.916 1.294
1.572 3.382 1.468
1.408 3.147 1.486
1.496 3.217 1.316
1.253 2.761 1.281
2.322 4.480 1.508
1.939 4.024 1.842
2.406 3.656 1.755
2.242 3.825 1.627
1.704 3.238 1.796
1.927 3.075 1.583
1.514 2.970 1.587
1.482 2.727 1.871
1.515 2.426 1.885
2.579 4.272 1.689
2.719 3.869 1.837
2.189 4.047 1.853
2.452 3.613 1.826
2.370 3.128 1.680
2.222 2.950 1.591
2.196 2.827 1.768
2.020 2.401 1.551
2.101 2.141 1.691
1.515 1.787 1.619
2.682 4.110 1.871
2.883 3.951 1.836
2.864 3.732 1.577
2.610 3.629 1.916
2.731 3.182 1.817
2.578 2.776 1.408
2.148 2.491 1.520
1.975 2.689 1.969
2.292 2.256 1.766
2.103 1.672 1.993
3.181 3.904 1.694
2.876 4.169 1.971
2.753 3.821 1.617
2.917 3.336 1.453
2.724 3.271 1.865
2.870 2.566 1.458
2.383 2.363 2.014
2.710 2.104 1.643
2.587 2.226 2.009
2.342 1.808 1.701
2.291 1.562 2.062
3.098 3.561 1.981
3.159 3.590 1.656
3.180 3.129 1.748
2.860 3.040 1.611
2.773 2.981 1.878
2.757 2.583 1.931
2.510 2.291 1.528
2.562 2.105 1.666
2.277 1.552 1.936
2.644 1.628 1.964
2.537 0.988 1.825
2.353 0.868 1.859
3.467 3.400 1.905
3.200 2.988 1.562
3.069 2.960 2.098
3.219 2.556 1.731
3.109 2.154 1.907
3.084 2.052 1.593
2.554 1.421 1.888
2.630 1.632 1.932
2.665 1.354 1.732
2.695 0.988 1.610
2.270 0.551 1.868
3.456 2.943 1.826
3.341 2.302 2.082
3.357 2.477 1.880
3.410 1.933 2.142
2.965 2.014 1.597
2.907 1.435 2.128
3.105 1.437 1.977
2.651 1.345 1.991
2.901 0.740 2.041
2.604 0.685 1.727
2.368 0.165 2.108
3.429 2.517 2.155
3.270 2.199 2.199
3.575 2.030 1.699
3.147 1.677 1.918
3.411 1.227 1.923
3.303 1.241 1.981
3.209 1.085 1.716
3.085 0.792 1.869
3.133 0.243 2.276
2.934 0.180 2.046
3.595 1.902 1.837
3.490 1.993 1.961
3.564 1.436 1.865
3.454 1.180 2.118
3.413 1.391 2.108
3.607 1.009 2.261
3.004 0.348 1.979
2.895 0.467 2.019
3.100 -0.128 2.101
3.810 1.990 1.873
3.763 1.711 2.068
3.623 1.545 2.018
3.547 0.852 1.757
3.602 1.011 1.804
3.609 0.450 2.010
3.656 0.006 1.898
3.042 0.025 2.235
4.357 1.631 1.822
4.079 1.531 1.828
3.746 1.373 1.948
3.836 0.973 2.062
4.054 0.730 2.008
3.491 0.227 2.086
3.674 -0.101 1.966
4.459 1.455 1.996
4.256 1.336 2.071
3.955 1.012 2.413
4.235 0.884 1.853
4.001 0.214 1.952
4.157 0.135 2.209
4.686 1.115 2.147
4.536 1.022 2.262
4.562 0.410 2.407
4.049 0.057 2.113
1.411 3.954 1.235
1.213 3.869 1.327
1.233 3.584 1.419
1.372 4.178 1.486
1.421 3.981 1.568
1.557 3.814 1.679
1.071 3.198 1.244
1.128 3.066 1.532
1.790 3.977 1.464
1.807 4.036 1.284
1.998 4.006 1.800
1.711 3.315 1.837
1.295 3.113 1.413
1.595 2.900 1.701
1.656 2.988 1.545
1.731 4.008 2.042
1.611 3.911 1.617
1.547 4.003 1.907
1.933 3.575 1.818
1.354 3.057 1.623
1.724 3.132 1.806
2.078 4.691 1.944
1.991 3.958 1.919
2.355 4.028 2.059
1.696 3.678 1.647
1.898 3.661 1.688
1.680 3.243 2.061
1.749 3.115 1.823
1.342 2.785 1.975
2.657 4.437 1.919
2.579 4.217 2.000
2.514 4.384 2.017
2.531 3.893 2.152
2.320 3.683 1.994
2.166 3.488 1.954
1.908 3.337 2.032
2.217 2.974 1.809
1.888 2.343 1.673
2.013 2.334 1.851
3.039 4.280 1.836
2.660 4.199 2.047
2.421 4.220 1.981
2.711 3.843 1.663
2.405 3.242 1.652
2.552 3.097 1.802
2.584 3.205 2.014
1.944 2.964 2.054
2.086 2.678 2.147
2.035 2.129 1.703
1.645 2.001 1.960
3.373 4.398 1.903
2.817 4.108 1.894
3.164 3.767 2.040
2.795 3.446 2.038
2.616 3.563 2.146
2.554 3.268 1.704
2.677 3.102 1.959
2.365 2.900 2.272
2.172 2.613 2.102
2.129 1.942 1.970
1.986 1.913 1.896
1.885 1.447 2.223
2.272 1.224 2.002
3.005 4.043 1.779
3.060 3.589 1.997
2.909 3.714 2.027
3.199 3.534 1.916
2.863 3.003 1.827
3.097 2.507 1.999
2.951 2.394 2.252
2.353 2.021 2.248
2.529 1.927 2.321
2.215 1.898 2.153
2.231 1.701 2.329
2.240 1.002 1.829
2.077 0.759 2.312
3.600 3.721 2.343
3.342 3.391 1.973
3.538 3.503 2.345
2.937 2.793 2.236
2.888 2.792 2.007
3.234 2.496 2.220
3.103 2.454 2.311
2.696 1.658 2.250
2.700 1.498 2.213
2.493 1.686 2.110
2.224 1.016 2.153
2.383 0.837 1.876
2.439 0.761 2.045
2.495 0.440 2.290
3.663 2.642 2.047
3.385 2.347 2.395
3.011 2.397 1.897
3.350 2.346 1.943
3.194 2.074 2.312
2.684 1.419 1.955
2.972 1.095 1.957
2.900 0.982 2.132
2.509 0.838 2.375
2.878 0.403 2.392
2.504 0.453 1.998
2.535 0.202 2.223
3.463 2.340 2.261
3.713 1.984 2.373
3.326 1.883 2.411
3.146 1.991 2.285
2.983 1.777 2.008
3.149 1.185 2.257
3.023 1.060 2.058
2.873 1.009 2.074
3.031 0.535 2.026
2.645 0.176 2.338
3.611 2.160 2.409
3.491 2.220 2.043
3.556 1.434 2.374
3.219 1.159 1.977
3.274 1.204 2.384
3.107 0.666 2.419
3.351 0.387 2.210
3.348 0.504 2.337
3.115 0.303 2.102
3.738 2.060 2.374
4.053 1.305 2.524
3.842 1.432 2.133
3.612 1.029 2.268
3.302 0.648 2.543
3.730 0.328 2.624
3.408 0.186 2.318
3.288 -0.206 2.379
3.876 1.433 2.592
4.253 1.225 2.289
4.143 0.801 2.364
3.730 0.871 2.286
3.400 0.717 2.466
3.881 0.405 2.291
4.140 1.276 2.573
4.045 0.815 2.275
4.136 0.414 2.201
4.014 0.227 2.632
3.849 0.369 2.332
4.152 0.350 2.666
4.282 0.415 2.278
1.847 4.375 1.915
1.609 3.741 1.845
1.276 3.797 1.767
1.302 3.132 1.784
1.983 4.299 1.949
1.838 4.034 1.864
1.754 3.774 1.784
1.806 3.660 1.905
1.685 2.961 1.781
1.431 2.771 2.116
1.975 4.409 2.083
1.829 4.552 2.281
1.871 3.861 2.306
1.423 3.824 2.176
1.502 3.469 2.202
1.695 3.395 2.250
2.320 4.798 1.910
2.417 4.421 2.260
1.907 4.019 1.830
1.812 4.134 1.810
1.714 3.548 1.895
1.572 3.473 1.894
1.886 3.173 2.400
1.492 2.699 1.948
2.759 4.953 1.935
2.514 4.609 2.133
2.460 4.564 2.306
2.481 4.391 1.991
2.322 3.742 2.283
2.403 3.659 2.001
2.043 3.636 2.092
1.961 3.175 2.050
1.644 3.057 2.131
1.861 2.781 2.058
2.938 4.653 2.392
2.845 4.793 2.043
2.933 4.021 2.414
2.650 3.954 2.312
2.609 3.506 2.139
2.393 3.799 2.318
2.636 3.101 1.941
2.529 3.283 2.071
2.007 2.551 2.272
2.296 2.471 2.086
2.124 2.167 2.384
1.867 2.140 2.549
3.480 4.752 2.362
2.960 4.957 2.408
2.793 4.723 2.242
3.262 3.958 2.429
3.119 3.966 2.195
2.565 3.760 2.144
2.464 3.226 2.496
2.451 3.038 2.021
2.552 3.120 2.530
2.270 2.545 2.260
2.062 2.374 2.113
2.387 2.208 2.037
2.118 1.940 2.540
2.348 1.608 2.364
3.289 5.120 2.139
3.661 4.638 2.392
3.149 4.179 2.246
3.388 4.138 2.460
3.065 4.030 2.485
2.946 3.434 2.233
3.190 3.247 2.276
2.790 3.018 2.202
2.719 2.990 2.374
2.645 2.268 2.321
2.374 2.162 2.448
2.766 2.287 2.586
2.234 1.992 2.203
2.022 1.425 2.614
2.019 1.538 2.139
1.900 1.080 2.089
1.842 0.777 2.313
1.760 0.290 2.407
3.582 5.027 2.437
4.034 4.914 2.536
3.873 4.338 2.120
3.388 4.050 2.453
3.787 3.723 2.556
3.450 3.916 2.177
3.472 3.582 2.529
3.019 3.274 2.374
2.987 3.056 2.094
2.891 2.868 2.505
3.234 2.625 2.609
2.791 2.399 2.260
2.758 2.089 2.212
2.842 1.771 2.584
2.486 1.474 2.501
2.473 1.330 2.441
2.152 1.156 2.709
2.400 0.702 2.519
2.320 0.657 2.319
2.152 0.043 2.172
4.009 5.005 2.466
4.032 5.011 2.385
3.306 2.995 2.229
3.425 2.764 2.103
3.461 2.895 2.518
3.227 2.550 2.378
2.835 1.939 2.316
2.746 1.603 2.308
