2.492 6.185 0.081
2.550 6.360 0.249
2.306 6.180 0.127
2.420 6.295 0.374
2.303 6.310 0.801
1.944 6.163 0.211
1.957 6.143 0.425
2.142 6.272 0.653
2.010 6.180 1.183
1.534 6.098 0.099
1.771 6.073 0.601
1.722 6.233 0.939
1.705 6.204 1.035
1.886 6.210 1.320
1.298 6.126 0.393
1.471 6.143 0.543
0.909 5.967 0.028
1.097 6.041 0.006
3.252 6.023 0.289
3.362 5.979 0.651
3.351 6.052 0.921
3.413 6.161 1.262
3.052 6.102 0.379
3.029 6.076 0.477
3.196 5.979 0.869
3.144 6.183 1.123
3.141 6.178 1.603
2.544 5.848 0.057
2.641 5.967 0.304
2.693 5.942 0.683
2.757 5.953 1.036
2.808 6.139 1.293
2.998 6.223 1.483
2.201 5.885 0.045
2.276 5.800 0.323
2.401 5.889 0.713
2.466 6.064 0.955
2.516 6.142 1.348
2.505 6.058 1.536
2.027 5.875 0.213
2.136 5.841 0.441
2.148 5.829 0.713
2.104 5.872 0.978
2.201 6.072 1.441
1.763 5.645 0.124
1.740 5.854 0.623
1.834 5.732 0.934
1.970 5.784 1.221
1.490 5.760 0.402
1.519 5.675 0.491
0.939 5.678 0.170
1.024 5.750 0.359
1.965 6.334 4.346
1.835 6.251 4.554
1.149 5.703 0.035
0.838 5.540 0.175
1.643 6.117 4.329
1.723 6.299 4.674
1.562 6.319 4.995
0.846 5.602 0.036
1.314 6.207 4.407
1.193 6.253 4.874
1.452 6.137 5.127
1.121 6.128 4.914
1.056 6.082 5.124
3.188 6.155 0.249
3.386 6.078 0.622
3.428 6.206 0.796
3.531 6.192 1.086
3.291 5.831 0.290
3.464 5.855 0.580
3.354 5.810 0.766
3.572 5.773 1.111
2.908 5.655 -0.064
3.029 5.665 0.403
3.177 5.669 0.601
3.183 5.828 0.973
3.182 5.889 1.211
2.755 5.555 -0.007
2.702 5.723 0.362
2.667 5.592 0.681
2.824 5.788 1.070
2.844 5.793 1.339
2.431 5.648 0.212
2.308 5.555 0.469
2.546 5.749 0.841
2.593 5.689 1.121
2.704 5.828 1.336
2.024 5.502 0.284
2.088 5.469 0.619
2.199 5.633 0.875
2.282 5.633 1.182
1.744 5.404 0.151
1.821 5.604 0.672
1.818 5.510 0.923
1.477 5.386 0.025
1.424 5.294 0.362
1.473 5.519 0.670
2.242 6.132 4.926
1.515 5.374 0.047
1.055 5.215 0.086
1.239 5.462 0.442
1.886 5.931 4.704
2.012 5.995 5.109
1.112 5.298 -0.005
0.701 5.258 0.116
1.665 5.968 4.666
1.688 6.038 5.013
0.768 5.344 0.232
0.404 5.245 0.254
1.321 5.879 4.819
1.333 5.899 5.101
0.570 5.155 0.322
1.072 5.706 4.934
1.187 5.732 5.261
0.771 5.760 5.186
3.724 5.712 0.164
3.610 5.843 0.442
3.650 5.879 0.898
3.241 5.842 0.323
3.346 5.717 0.675
3.403 5.902 0.926
3.617 5.776 1.275
3.477 5.383 0.276
3.452 5.350 0.578
3.476 5.546 0.979
3.544 5.493 1.205
2.966 5.349 -0.020
3.174 5.329 0.295
3.255 5.431 0.642
3.292 5.478 0.851
3.152 5.407 1.287
2.719 5.317 0.228
2.810 5.318 0.428
2.839 5.362 0.783
3.009 5.530 0.912
2.910 5.429 1.345
2.470 5.339 0.081
2.601 5.197 0.540
2.559 5.441 0.901
2.522 5.422 1.070
2.105 5.222 0.231
2.117 5.325 0.540
2.350 5.255 0.778
1.741 5.140 0.301
1.899 5.241 0.662
1.451 5.109 -0.037
1.389 4.999 0.445
1.384 5.115 0.132
1.098 5.078 0.074
1.309 4.970 0.440
2.077 5.702 5.120
1.037 4.958 0.041
0.947 4.915 0.224
1.813 5.669 4.787
1.797 5.523 5.166
0.764 4.947 0.287
0.477 4.850 0.241
1.481 5.438 4.751
1.549 5.582 5.129
0.630 4.913 0.258
0.312 4.864 0.344
1.087 5.404 4.965
1.273 5.480 5.091
0.244 4.955 -0.028
0.143 4.894 0.346
0.917 5.545 5.284
4.041 5.515 0.062
4.008 5.450 0.441
3.698 5.388 0.322
3.841 5.548 0.543
3.720 5.615 0.906
3.462 5.453 0.256
3.485 5.430 0.658
3.477 5.607 0.886
3.599 5.628 1.226
3.318 5.025 -0.057
3.506 5.069 0.405
3.501 5.136 0.631
3.596 5.311 0.978
3.736 5.246 1.166
3.057 5.081 0.043
3.238 5.047 0.273
3.104 5.175 0.702
3.305 5.257 0.922
3.285 5.304 1.285
2.690 5.085 0.105
2.727 5.054 0.525
2.882 5.144 0.715
3.032 5.044 1.150
2.516 4.865 0.176
2.610 5.005 0.599
2.513 4.955 0.839
2.216 4.803 0.226
2.197 4.994 0.470
1.776 4.810 0.154
1.979 4.741 0.310
1.814 4.831 0.038
1.464 4.823 0.180
1.583 4.794 0.103
1.215 4.791 0.250
1.319 4.760 0.123
0.967 4.589 0.299
1.931 5.237 5.083
0.794 4.679 0.191
0.650 4.570 0.308
1.406 5.293 4.958
1.434 5.226 5.235
0.694 4.507 0.293
0.287 4.519 0.458
1.139 5.281 4.936
1.154 5.121 5.273
0.123 4.593 0.138
0.356 4.444 0.288
0.960 5.239 4.922
0.938 5.123 5.369
0.592 5.182 5.435
4.735 5.394 0.103
4.428 5.165 0.092
4.472 5.232 0.386
4.000 5.313 0.120
4.204 5.371 0.608
4.201 5.229 0.897
3.814 5.221 0.334
3.816 5.107 0.492
3.794 5.337 0.880
3.893 5.211 1.299
3.302 5.036 -0.015
3.535 4.994 0.421
3.535 5.110 0.595
3.536 5.257 1.007
3.646 5.310 1.184
3.390 4.719 0.127
3.388 4.763 0.274
3.638 4.834 0.580
3.572 5.010 1.037
3.581 4.919 1.239
3.171 4.649 0.001
3.082 4.676 0.433
3.305 4.883 0.658
3.273 4.854 1.052
2.729 4.661 0.220
2.770 4.762 0.447
3.055 4.776 0.909
1.603 5.098 5.253
0.684 4.197 -0.004
0.235 4.307 0.426
1.214 4.995 4.883
1.282 5.005 5.188
0.210 4.120 0.047
0.332 4.383 0.425
0.028 4.258 0.356
0.955 4.819 5.112
1.027 4.900 5.340
0.076 4.138 0.422
0.646 4.672 5.027
0.585 4.789 5.442
4.933 5.143 0.144
4.839 5.110 0.182
4.848 5.036 0.350
4.298 4.958 0.065
4.424 5.084 0.394
4.484 4.975 0.748
4.139 5.005 0.139
4.270 5.038 0.442
4.221 5.046 0.929
4.200 4.915 1.097
3.892 4.946 0.194
3.893 4.900 0.650
3.973 5.042 0.859
3.912 5.025 1.219
3.389 4.788 -0.058
3.438 4.770 0.369
3.625 4.765 0.774
3.670 4.961 0.886
3.567 4.874 1.383
3.386 4.465 0.147
3.675 4.504 0.450
3.645 4.593 0.727
3.607 4.592 1.004
3.733 4.637 1.241
3.243 4.519 0.480
3.184 4.553 0.820
3.461 4.595 1.100
1.583 4.591 5.253
1.228 4.586 5.079
1.355 4.526 5.332
0.217 3.915 0.027
0.175 3.961 0.409
0.844 4.451 5.007
1.036 4.671 5.424
-0.006 3.965 0.237
0.179 3.892 0.583
0.744 4.405 5.137
0.777 4.554 5.507
5.288 4.690 0.052
6.161 5.278 4.317
5.159 4.756 0.000
5.143 4.891 0.360
4.868 4.650 0.022
4.746 4.738 0.375
4.975 4.781 0.664
4.532 4.622 0.083
4.562 4.665 0.432
4.585 4.792 0.836
4.745 4.739 1.073
4.043 4.689 0.308
4.115 4.724 0.473
4.252 4.590 0.773
4.435 4.703 1.256
3.789 4.404 0.083
3.959 4.593 0.376
3.989 4.673 0.673
3.975 4.599 1.027
4.137 4.733 1.154
3.418 4.384 0.087
3.440 4.411 0.451
3.516 4.591 0.769
3.624 4.525 1.045
3.788 4.529 1.235
3.662 4.140 0.496
3.682 4.113 0.828
3.660 4.217 0.933
3.847 4.206 1.371
1.386 4.171 5.025
1.296 4.399 5.311
0.930 4.285 4.916
1.107 4.310 5.195
1.183 4.336 5.526
0.144 3.578 0.186
0.648 4.035 4.914
0.660 4.083 5.134
0.711 4.237 5.367
5.549 4.392 0.038
6.302 5.009 3.970
6.184 4.950 4.297
5.014 4.517 0.220
5.092 4.369 0.282
5.353 4.446 0.698
5.997 5.046 4.495
4.812 4.281 0.164
4.758 4.315 0.547
4.848 4.446 0.780
4.999 4.620 1.193
4.636 4.256 0.176
4.631 4.409 0.468
4.524 4.331 0.845
4.647 4.357 1.072
4.674 4.556 1.363
4.163 4.365 0.230
4.255 4.322 0.478
4.350 4.323 0.877
4.416 4.386 1.165
4.459 4.371 1.634
3.830 4.090 -0.016
3.906 4.339 0.472
3.884 4.218 0.638
4.028 4.354 0.947
4.170 4.319 1.326
4.136 4.460 1.513
3.555 4.197 0.314
3.718 4.167 0.791
3.762 4.351 1.072
3.743 4.207 1.300
3.625 4.031 0.791
3.744 3.885 1.120
3.731 4.042 1.307
1.388 3.912 5.161
1.438 3.976 5.287
1.002 3.901 4.783
0.985 3.820 5.197
1.084 3.969 5.433
0.560 3.670 4.585
0.684 3.948 4.983
0.857 3.789 5.201
0.891 3.878 5.568
5.375 4.071 -0.038
6.143 4.646 3.512
6.244 4.603 3.773
6.222 4.772 4.011
5.094 4.123 0.145
5.194 4.228 0.399
5.197 4.207 0.645
5.337 4.288 0.931
5.845 4.594 4.182
6.056 4.655 4.451
4.868 3.950 0.238
4.965 4.142 0.578
5.088 4.096 0.804
5.163 4.217 1.202
5.045 4.134 1.349
5.117 4.160 1.697
4.546 3.939 0.355
4.528 4.012 0.684
4.600 4.179 0.758
4.836 4.208 1.069
4.858 4.210 1.386
4.937 4.260 1.683
4.099 3.951 -0.001
4.337 3.958 0.248
4.206 3.964 0.508
4.328 3.947 0.874
4.414 4.178 1.328
4.416 4.085 1.440
4.565 4.131 1.836
4.063 3.916 0.327
4.118 3.944 0.588
3.963 3.957 0.883
4.094 4.112 1.217
4.259 3.986 1.630
3.746 3.880 0.716
3.777 3.957 1.101
3.890 4.096 1.279
3.952 3.539 1.091
3.776 3.707 1.407
3.980 3.620 1.765
1.488 3.607 4.806
1.365 3.669 4.995
1.597 3.671 5.364
0.973 3.487 4.649
1.080 3.611 4.809
1.205 3.665 5.236
1.127 3.664 5.495
0.600 3.343 4.251
0.592 3.484 4.582
0.772 3.527 4.843
0.751 3.620 5.135
0.920 3.705 5.605
5.895 4.267 2.541
5.992 4.106 2.922
6.164 4.345 3.241
6.184 4.259 3.415
6.250 4.352 3.880
5.309 3.808 0.283
5.326 3.958 0.572
5.278 3.783 0.650
5.505 3.894 1.024
5.513 3.922 1.378
5.617 3.964 1.602
5.537 3.957 1.964
5.526 4.141 2.300
5.617 4.070 2.618
5.800 4.129 2.868
5.731 4.174 3.126
5.901 4.202 3.634
5.845 4.261 3.867
5.876 4.310 4.129
5.993 4.501 4.389
4.971 3.672 0.136
4.998 3.718 0.623
5.137 3.729 0.951
5.022 3.960 1.175
5.111 3.994 1.511
5.230 3.920 1.772
5.365 3.956 2.138
5.276 4.141 2.265
5.344 4.213 2.690
4.553 3.633 0.313
4.702 3.688 0.694
4.779 3.691 0.790
4.863 3.814 1.157
4.933 3.929 1.512
4.907 3.799 1.907
4.943 3.982 2.039
5.127 4.098 2.535
4.286 3.663 0.458
4.332 3.828 0.709
4.454 3.764 0.859
4.415 3.787 1.316
4.457 3.728 1.540
4.508 3.970 1.868
4.660 3.857 2.216
3.981 3.616 0.829
4.166 3.678 0.979
4.242 3.690 1.450
4.173 3.696 1.563
4.369 3.806 1.893
3.884 3.750 1.206
3.964 3.649 1.489
3.960 3.797 1.637
3.951 3.291 1.375
3.994 3.459 1.693
4.007 3.389 1.974
1.331 3.374 4.524
1.429 3.402 4.778
1.488 3.279 5.107
1.111 3.232 4.338
1.132 3.258 4.608
1.154 3.234 4.780
1.104 3.279 5.136
1.147 3.316 5.401
0.595 3.194 4.078
0.581 3.152 4.245
0.657 3.285 4.555
0.721 3.226 4.990
0.979 3.198 5.168
0.927 3.180 5.669
5.901 3.810 2.025
5.940 3.932 2.228
6.080 3.822 2.644
6.196 3.905 2.849
6.215 4.051 3.196
6.295 4.028 3.388
5.389 3.650 1.076
5.573 3.761 1.428
5.592 3.717 1.599
5.739 3.686 2.075
5.788 3.834 2.447
5.821 3.764 2.588
5.835 3.927 2.959
5.943 3.800 3.370
6.050 3.951 3.438
5.888 3.991 3.961
5.967 4.096 4.189
4.954 3.543 0.669
5.072 3.521 0.784
5.189 3.461 1.290
5.185 3.562 1.525
5.168 3.568 1.703
5.417 3.754 2.042
5.319 3.767 2.318
5.540 3.703 2.790
5.509 3.849 2.971
5.485 3.963 3.365
4.841 3.327 0.594
4.878 3.524 0.850
4.892 3.551 1.210
4.842 3.585 1.648
5.085 3.689 1.808
4.935 3.750 2.078
5.149 3.768 2.453
5.109 3.632 2.841
4.319 3.514 0.610
4.498 3.326 1.016
4.561 3.399 1.228
4.622 3.509 1.529
4.707 3.565 1.815
4.814 3.584 2.165
4.881 3.676 2.447
4.239 3.340 0.979
4.186 3.497 1.376
4.393 3.408 1.742
4.380 3.501 1.962
4.356 3.605 2.355
4.043 3.302 1.461
3.991 3.543 1.857
3.943 3.364 1.982
3.930 3.135 1.510
4.165 3.079 1.830
4.104 3.138 2.071
4.148 3.092 2.297
1.295 3.032 4.258
1.444 3.043 4.675
1.565 2.983 4.758
1.436 2.986 5.195
1.087 2.761 3.980
1.176 2.930 4.322
1.075 2.796 4.627
1.202 2.966 5.007
1.316 2.972 5.289
1.233 2.968 5.613
0.727 2.856 3.651
0.808 2.763 4.069
0.827 2.892 4.266
0.718 2.846 4.577
0.844 2.989 5.014
1.003 2.926 5.318
1.026 2.974 5.678
6.091 3.475 2.113
6.170 3.473 2.373
6.179 3.641 2.647
6.228 3.580 2.904
6.125 3.623 3.283
5.532 3.437 1.379
5.588 3.454 1.796
5.774 3.482 1.975
5.645 3.472 2.403
5.865 3.636 2.615
5.796 3.627 3.014
5.833 3.604 3.334
5.971 3.717 3.696
6.018 3.697 3.792
5.279 3.222 1.257
5.175 3.412 1.446
5.209 3.257 1.929
5.355 3.293 2.184
5.380 3.511 2.348
5.623 3.356 2.695
5.474 3.434 3.037
5.624 3.554 3.443
4.761 3.210 0.873
4.835 3.324 1.277
4.931 3.317 1.581
4.902 3.356 1.853
5.177 3.312 2.197
5.135 3.416 2.522
5.267 3.480 2.781
5.315 3.375 2.985
4.594 3.057 1.057
4.518 3.223 1.422
4.779 3.107 1.697
4.735 3.367 1.920
4.794 3.256 2.163
4.758 3.246 2.512
4.895 3.438 2.883
4.231 3.120 0.999
4.305 3.188 1.365
4.449 3.156 1.741
4.486 3.126 2.134
4.433 3.237 2.201
4.463 3.238 2.641
3.999 3.048 1.526
4.162 3.028 1.800
4.030 3.179 2.080
4.215 3.229 2.281
3.931 2.882 1.490
4.047 2.906 1.896
4.138 2.879 2.152
4.272 2.961 2.466
4.210 3.006 2.818
3.802 2.680 1.793
3.819 2.848 2.072
3.799 2.884 2.503
1.756 2.608 4.143
1.692 2.605 4.639
1.780 2.770 4.817
1.374 2.492 3.950
1.318 2.567 4.263
1.562 2.563 4.512
1.462 2.597 4.903
1.519 2.795 5.225
0.916 2.363 3.709
0.935 2.586 4.074
1.136 2.516 4.439
1.109 2.648 4.564
1.181 2.672 4.948
1.323 2.703 5.316
0.805 2.524 3.815
0.857 2.360 4.141
0.771 2.510 4.458
0.918 2.572 4.618
0.842 2.478 5.004
1.084 2.517 5.250
5.931 3.249 1.983
6.198 3.209 2.353
6.250 3.284 2.553
6.249 3.211 2.946
6.283 3.233 3.130
5.678 3.057 1.896
5.827 3.058 2.191
5.720 3.179 2.434
5.937 3.240 2.811
5.831 3.220 2.911
5.856 3.345 3.313
6.099 3.431 3.560
5.249 2.966 1.612
5.289 3.006 1.863
5.531 3.193 2.150
5.525 3.068 2.464
5.563 3.098 2.658
5.623 3.240 3.046
5.584 3.175 3.337
5.047 2.998 1.211
5.028 3.052 1.543
5.169 3.100 2.007
5.017 2.967 2.126
5.236 3.012 2.595
5.325 3.046 2.792
5.428 3.109 3.174
4.736 2.943 1.437
4.730 3.030 1.756
4.825 2.977 1.987
4.775 2.902 2.229
4.848 2.944 2.478
4.895 3.089 2.794
4.242 2.803 1.527
4.493 2.896 1.851
4.514 2.899 1.967
4.611 3.028 2.226
4.544 2.870 2.601
4.707 2.968 2.904
3.945 2.881 1.393
3.991 2.828 1.770
4.194 2.810 2.049
4.241 2.845 2.438
4.314 3.043 2.759
4.070 2.394 1.480
4.275 2.487 1.779
4.202 2.670 2.052
4.341 2.572 2.420
4.368 2.613 2.673
4.486 2.611 2.994
3.820 2.486 2.003
3.806 2.522 2.226
4.053 2.437 2.548
4.096 2.519 2.925
3.630 2.550 2.269
3.618 2.533 2.644
3.655 2.646 2.884
1.959 2.348 3.905
1.991 2.268 4.224
2.087 2.348 4.403
1.703 2.344 3.930
1.744 2.443 4.195
1.752 2.394 4.437
1.964 2.343 4.809
1.471 2.190 3.669
1.354 2.202 3.963
1.566 2.417 4.257
1.422 2.277 4.528
1.644 2.433 5.000
1.627 2.321 5.347
1.143 2.188 3.855
1.128 2.306 4.034
1.074 2.291 4.426
1.239 2.181 4.563
1.347 2.369 4.915
1.295 2.407 5.196
0.867 2.011 3.864
0.753 2.188 4.228
0.767 2.254 4.466
0.977 2.285 4.689
0.973 2.296 5.051
0.933 2.247 5.264
6.168 2.894 2.370
6.238 2.865 2.656
6.356 2.967 2.947
5.770 2.933 2.035
5.832 2.955 2.394
5.863 3.004 2.748
5.964 2.838 3.105
6.005 3.088 3.357
5.462 2.664 1.931
5.526 2.897 2.094
5.555 2.786 2.497
5.561 2.973 2.691
5.646 2.946 3.100
4.962 2.742 1.687
5.171 2.574 1.913
5.296 2.855 2.349
5.277 2.794 2.630
5.235 2.781 2.889
5.385 2.945 3.151
4.588 2.676 1.452
4.809 2.680 1.690
4.714 2.668 2.073
4.966 2.762 2.330
4.940 2.659 2.545
5.063 2.678 2.905
4.518 2.549 1.482
4.412 2.578 1.673
4.626 2.666 2.012
4.641 2.721 2.286
4.597 2.645 2.631
4.739 2.604 3.111
4.076 2.507 1.434
4.218 2.450 1.789
4.111 2.431 2.172
4.219 2.624 2.418
4.369 2.582 2.804
4.458 2.742 3.012
4.090 2.064 1.544
4.184 2.135 1.983
4.293 2.150 2.265
4.268 2.215 2.541
4.387 2.225 2.841
4.449 2.335 3.154
3.874 2.194 1.552
3.816 2.161 1.905
3.865 2.230 2.135
4.032 2.348 2.479
4.153 2.255 2.958
4.204 2.216 3.270
3.630 2.174 1.956
3.750 2.244 2.388
3.627 2.070 2.620
3.829 2.127 2.982
3.756 2.292 3.172
3.306 2.118 2.457
3.445 2.226 2.584
3.584 2.272 2.853
3.619 2.285 3.236
3.186 2.084 2.618
3.257 2.088 2.950
3.321 2.099 3.252
2.782 1.997 3.018
2.874 2.074 3.496
3.028 2.237 3.775
2.639 2.030 3.519
2.601 2.190 3.684
2.630 2.170 3.975
2.431 2.129 3.602
2.348 2.063 3.723
2.446 2.072 4.117
2.607 2.259 4.470
1.918 2.026 3.608
2.006 2.012 3.862
2.035 2.107 4.127
2.291 2.170 4.592
2.128 2.235 4.753
1.787 1.852 3.763
1.764 2.067 3.984
1.728 2.049 4.161
1.817 1.997 4.473
1.885 2.069 5.001
2.023 2.272 5.126
1.340 1.998 3.800
1.408 1.938 4.055
1.407 1.913 4.457
1.640 2.018 4.749
1.520 2.115 5.030
1.632 2.033 5.261
1.012 1.865 3.869
1.215 1.906 4.049
1.334 1.918 4.433
1.207 1.881 4.650
1.359 2.081 4.920
1.421 2.091 5.206
0.836 1.766 3.814
0.793 1.954 4.118
0.993 1.967 4.426
1.069 1.964 4.719
1.013 1.891 5.178
6.359 2.718 2.750
5.922 2.664 2.564
5.973 2.699 2.725
5.971 2.566 3.125
5.649 2.529 2.317
5.494 2.488 2.549
5.770 2.463 2.935
5.194 2.269 2.007
5.275 2.500 2.275
5.235 2.540 2.543
5.378 2.452 2.917
4.923 2.323 1.681
4.897 2.339 2.000
5.048 2.413 2.310
4.913 2.540 2.618
4.961 2.503 2.898
4.576 2.255 1.518
4.426 2.143 1.889
4.630 2.212 2.003
4.531 2.355 2.403
4.758 2.418 2.717
4.662 2.350 3.081
4.046 2.240 1.503
4.273 2.087 1.900
4.284 2.346 2.049
4.366 2.367 2.491
4.482 2.284 2.855
4.501 2.390 3.196
4.145 1.928 1.586
4.314 1.960 1.977
4.300 2.032 2.204
4.277 1.935 2.417
4.382 2.034 2.728
4.568 2.119 3.144
3.868 1.786 1.657
3.915 1.963 1.915
4.011 1.831 2.224
4.091 1.846 2.624
4.117 1.865 2.861
4.258 1.892 3.256
3.711 1.702 1.619
3.666 1.879 2.058
3.685 1.913 2.244
3.717 1.968 2.603
3.853 1.846 2.863
3.967 2.041 3.190
3.338 1.673 2.207
3.535 1.894 2.484
3.437 1.878 2.608
3.572 1.899 3.056
3.692 1.943 3.193
3.722 1.956 3.696
3.029 1.703 2.381
3.136 1.798 2.865
3.282 1.844 3.095
3.341 1.782 3.426
3.434 1.817 3.757
2.935 1.855 2.803
2.995 1.900 3.180
2.936 1.791 3.415
3.013 1.769 3.808
3.201 1.860 4.094
2.643 1.797 3.159
2.627 1.674 3.612
2.711 1.758 3.774
2.743 1.980 4.112
2.896 1.901 4.515
2.378 1.780 3.170
2.432 1.754 3.685
2.474 1.663 3.870
2.407 1.794 4.255
2.652 1.842 4.569
2.711 1.953 4.876
1.953 1.785 3.533
2.153 1.680 4.024
2.094 1.885 4.193
2.250 1.790 4.625
2.246 1.819 4.905
2.300 1.848 5.253
1.707 1.562 3.616
1.721 1.686 3.881
1.843 1.652 4.386
1.908 1.814 4.661
2.045 1.862 4.879
2.089 1.940 5.177
1.572 1.547 3.805
1.399 1.546 4.109
1.464 1.562 4.432
1.709 1.762 4.702
1.674 1.670 4.957
1.680 1.775 5.314
1.169 1.483 4.164
1.189 1.534 4.323
1.451 1.579 4.701
1.438 1.760 5.046
0.873 1.523 4.092
0.929 1.476 4.584
1.008 1.609 4.833
5.042 1.919 2.118
5.006 2.071 2.329
5.140 2.081 2.725
4.514 1.944 1.819
4.545 1.883 2.196
4.791 2.134 2.344
4.723 2.011 2.784
4.094 1.754 1.687
4.248 1.918 1.825
4.293 1.985 2.195
4.285 1.885 2.416
4.509 2.067 2.903
4.418 1.997 3.109
4.321 1.642 1.551
4.426 1.655 1.987
4.419 1.660 2.207
4.377 1.676 2.637
4.510 1.735 2.727
3.923 1.471 1.694
4.016 1.566 2.067
4.113 1.487 2.231
4.122 1.567 2.704
4.289 1.606 2.967
4.209 1.624 3.155
3.707 1.460 1.697
3.619 1.531 2.114
3.838 1.591 2.479
3.927 1.580 2.549
3.820 1.577 3.090
4.056 1.610 3.200
3.371 1.383 1.842
3.382 1.491 2.100
3.405 1.411 2.453
3.464 1.418 2.856
3.572 1.677 2.951
3.526 1.558 3.422
3.590 1.727 3.567
3.161 1.466 2.074
3.082 1.327 2.483
3.265 1.456 2.746
3.348 1.403 3.152
3.414 1.592 3.532
3.358 1.606 3.675
3.432 1.731 3.918
2.964 1.314 2.444
2.998 1.544 2.906
2.942 1.563 3.086
2.945 1.438 3.367
2.998 1.563 3.842
3.135 1.593 4.067
3.183 1.557 4.283
2.635 1.325 2.941
2.649 1.509 3.203
2.835 1.584 3.579
2.725 1.466 3.861
2.858 1.526 4.169
2.853 1.651 4.543
3.018 1.641 4.689
2.484 1.473 3.385
2.537 1.369 3.548
2.558 1.397 3.831
2.624 1.632 4.295
2.535 1.486 4.425
2.760 1.641 4.860
2.623 1.548 5.183
2.232 1.424 3.733
2.183 1.355 3.939
2.174 1.455 4.231
2.318 1.544 4.550
2.452 1.520 4.890
2.386 1.645 5.072
1.761 1.241 3.640
1.800 1.420 4.028
2.042 1.351 4.419
2.010 1.524 4.762
1.951 1.613 4.975
2.203 1.532 5.284
1.598 1.357 4.187
1.748 1.381 4.421
1.710 1.336 4.695
1.854 1.551 5.088
1.691 1.519 5.295
1.364 1.328 4.404
1.326 1.397 4.722
1.365 1.435 5.092
4.544 1.736 1.958
4.659 1.753 2.281
4.814 1.776 2.378
4.371 1.506 1.583
4.344 1.683 1.942
4.437 1.599 2.267
4.351 1.636 2.664
4.432 1.614 2.896
4.388 1.115 1.768
4.374 1.358 1.970
4.482 1.380 2.145
4.613 1.293 2.463
3.960 1.136 1.445
3.954 1.128 1.698
4.005 1.240 2.009
4.085 1.270 2.324
4.259 1.380 2.533
4.344 1.413 2.891
3.584 1.046 1.424
3.618 1.198 1.701
3.731 1.244 2.193
3.939 1.174 2.450
3.908 1.303 2.791
3.938 1.302 3.075
4.060 1.329 3.359
3.396 1.057 1.489
3.472 1.173 1.820
3.580 1.122 2.238
3.424 1.241 2.578
3.606 1.202 2.719
3.719 1.295 3.070
3.756 1.361 3.326
3.791 1.247 3.678
3.108 0.982 1.838
3.193 0.998 2.235
3.260 1.011 2.463
3.171 1.230 2.951
3.442 1.106 3.204
3.455 1.213 3.324
3.391 1.409 3.636
3.533 1.368 4.108
2.773 1.121 2.269
2.944 0.992 2.538
2.893 1.218 2.790
2.967 1.237 3.108
3.143 1.144 3.462
3.235 1.261 3.712
3.096 1.283 4.134
3.142 1.302 4.334
3.209 1.281 4.608
2.715 1.089 2.927
2.805 1.057 3.310
2.850 1.134 3.470
2.930 1.240 3.976
2.786 1.222 4.299
2.994 1.282 4.446
3.003 1.246 4.804
3.076 1.390 5.192
2.436 1.185 3.268
2.585 1.225 3.511
2.471 1.215 4.002
2.709 1.279 4.200
2.699 1.219 4.465
2.819 1.210 4.923
2.709 1.285 5.185
2.820 1.312 5.423
2.135 1.140 3.668
2.274 1.033 4.045
2.212 1.222 4.416
2.460 1.162 4.571
2.521 1.227 4.947
2.412 1.404 5.266
2.541 1.336 5.412
2.049 1.086 4.133
2.071 1.172 4.295
2.074 1.203 4.727
2.204 1.216 4.883
2.105 1.315 5.182
2.181 1.212 5.525
1.572 1.150 4.521
1.682 1.171 4.766
1.706 1.072 5.085
1.811 1.208 5.420
4.343 1.185 1.765
4.401 1.270 1.912
4.393 1.395 2.375
4.554 1.257 2.617
1.366 6.213 5.512
1.037 6.099 5.509
1.174 6.254 5.713
3.044 6.105 5.390
3.050 6.200 5.670
2.857 6.303 6.086
2.638 6.166 5.187
2.726 6.177 5.508
2.695 6.309 5.780
2.807 6.190 6.058
2.627 6.193 6.090
2.447 6.119 5.331
2.446 6.142 5.583
2.455 6.272 5.887
2.685 6.094 6.137
2.179 6.160 6.319
1.965 6.134 5.256
2.041 6.090 5.603
2.271 6.018 5.815
2.143 6.274 6.138
2.077 6.104 6.159
1.861 5.989 5.288
1.749 6.084 5.745
1.844 6.103 5.879
1.862 6.066 6.375
1.532 5.971 5.537
1.555 5.887 5.762
1.556 6.028 5.914
1.123 5.936 5.397
1.231 6.000 5.899
1.226 6.015 6.046
0.827 5.819 5.549
0.922 5.905 5.742
4.506 6.213 5.681
4.448 6.308 6.120
4.367 6.225 5.815
4.085 6.243 5.821
4.315 6.218 6.127
4.069 6.216 5.801
3.939 6.139 5.928
3.872 6.076 6.116
3.884 6.103 5.835
3.547 6.004 5.924
3.515 6.088 5.623
3.546 6.038 5.970
3.168 5.953 5.975
3.126 5.844 5.712
3.283 6.031 6.078
2.861 5.875 6.132
2.703 5.958 5.545
2.822 5.964 5.842
2.966 6.065 5.999
2.643 5.963 6.263
2.448 5.836 5.366
2.454 5.826 5.596
2.597 5.755 5.960
2.676 5.958 6.059
2.412 5.935 6.361
2.052 5.827 5.384
2.159 5.748 5.632
2.271 5.815 5.948
2.328 5.872 6.310
1.874 5.595 5.418
1.808 5.820 5.596
2.061 5.845 5.980
1.520 5.623 5.522
1.489 5.779 5.764
1.713 5.634 6.107
1.182 5.602 5.566
1.342 5.702 5.789
1.435 5.757 6.250
0.963 5.473 5.543
0.968 5.610 6.002
1.101 5.714 6.143
0.612 5.587 5.674
0.792 5.519 6.054
0.690 5.516 6.221
4.858 6.302 6.103
4.499 6.154 5.917
4.451 6.160 6.148
4.444 6.164 5.758
4.596 5.990 5.832
4.561 5.790 6.096
4.464 5.916 5.897
4.257 5.887 5.881
4.196 5.866 6.103
4.208 5.705 5.857
3.976 5.788 6.060
3.848 5.800 6.376
3.961 5.743 5.936
3.704 5.729 6.118
3.556 5.784 5.924
3.224 5.664 6.139
3.307 5.645 5.977
2.945 5.752 6.244
2.990 5.575 5.891
2.945 5.723 6.243
2.669 5.649 6.309
2.447 5.399 5.519
2.535 5.465 5.902
2.600 5.666 6.092
2.362 5.543 6.206
2.225 5.324 5.318
2.222 5.414 5.654
2.302 5.454 6.091
2.356 5.605 6.217
1.967 5.471 5.456
2.047 5.364 5.655
1.915 5.449 6.159
1.546 5.246 5.535
1.698 5.337 5.720
1.684 5.398 6.189
1.259 5.220 5.432
1.335 5.349 5.887
1.490 5.310 6.073
1.050 5.271 5.638
0.986 5.343 5.821
1.051 5.213 6.219
0.725 5.159 5.614
0.694 5.252 5.967
6.260 5.993 4.753
6.167 6.085 5.185
5.996 6.140 5.410
6.186 6.104 5.707
6.020 6.032 5.150
5.980 6.134 5.401
5.596 6.153 5.597
5.824 6.120 5.770
5.899 6.211 6.097
5.640 6.019 5.534
5.310 5.994 5.557
5.444 6.166 5.975
5.511 6.094 6.328
5.338 5.983 5.531
5.181 5.982 5.696
5.275 6.083 5.981
5.072 5.943 5.727
4.886 5.898 5.826
4.882 6.050 6.183
4.804 5.976 5.766
4.586 5.788 5.911
4.623 5.980 6.157
4.441 5.959 5.773
4.551 5.541 5.863
4.591 5.722 6.145
4.568 5.666 5.742
4.320 5.646 6.244
2.026 5.132 5.454
1.935 5.117 5.863
1.947 5.113 6.148
1.528 5.100 5.574
1.573 4.983 5.753
1.822 5.028 6.198
1.402 4.919 5.628
1.476 4.980 5.980
1.482 5.061 6.107
1.001 4.929 5.614
0.981 4.958 5.948
1.062 5.083 6.330
0.707 4.893 5.604
0.672 5.026 6.078
6.110 5.768 4.641
6.214 5.762 4.869
6.179 5.861 5.469
6.168 5.735 5.760
6.278 5.978 6.115
6.018 5.655 4.852
5.949 5.649 5.319
5.963 5.761 5.478
5.881 5.688 5.488
5.839 5.709 5.904
5.806 5.757 6.234
5.720 5.722 5.317
5.807 5.857 5.508
5.491 5.586 5.736
5.619 5.698 6.038
5.614 5.835 6.366
5.507 5.536 5.327
5.502 5.621 5.768
5.133 5.704 5.627
5.332 5.618 6.004
5.089 5.677 5.642
4.844 5.600 5.829
4.933 5.710 6.047
4.801 5.584 5.798
4.577 5.541 5.915
4.605 5.522 6.125
4.493 5.511 5.807
4.755 5.231 6.113
1.627 4.826 5.561
1.826 4.787 5.887
1.341 4.613 5.707
1.517 4.705 6.030
1.412 4.823 6.226
1.169 4.708 5.566
1.043 4.614 6.031
0.863 4.669 5.627
0.806 4.554 6.025
6.308 5.501 4.538
6.214 5.602 5.552
6.159 5.594 5.983
6.309 5.542 6.237
5.863 5.272 4.758
5.992 5.357 4.935
6.071 5.531 5.359
6.203 5.487 5.547
5.766 5.472 5.643
5.844 5.500 6.005
5.939 5.502 6.243
5.621 5.251 4.996
5.748 5.408 5.419
5.758 5.368 5.644
5.582 5.442 5.590
5.480 5.446 5.991
5.550 5.312 5.353
5.479 5.390 5.701
5.238 5.310 5.696
5.325 5.360 6.093
5.126 5.382 5.674
5.016 5.216 5.887
4.926 5.446 6.107
4.844 5.216 5.705
4.729 5.286 6.208
1.511 4.236 5.702
1.543 4.440 6.075
1.215 4.233 5.717
1.104 4.304 6.139
0.906 4.279 5.792
1.010 4.338 6.102
6.206 5.220 5.692
6.190 5.304 5.884
6.089 5.071 4.629
6.040 5.139 5.076
6.165 5.143 5.196
6.109 5.163 5.561
5.899 5.045 5.715
5.877 5.161 5.925
5.879 5.257 6.286
5.646 5.012 4.976
5.911 5.060 5.259
5.946 5.236 5.767
5.486 5.146 5.794
5.728 5.191 6.064
5.394 4.936 5.490
5.499 5.017 5.837
5.335 5.126 5.699
5.381 5.199 6.184
5.329 5.001 5.776
5.111 4.955 6.111
1.379 4.049 5.748
1.156 4.088 5.768
1.146 3.962 6.006
0.861 4.028 5.916
0.876 4.087 6.041
6.243 4.957 5.669
6.006 4.849 4.704
6.223 4.815 5.059
6.142 4.875 5.290
6.255 4.959 5.748
5.815 4.702 5.782
5.902 4.907 6.089
5.799 4.664 5.136
5.926 4.885 5.487
5.874 4.817 5.644
5.635 4.717 5.841
5.743 4.770 6.154
5.546 4.654 5.644
5.421 4.773 6.146
1.181 3.801 5.872
0.932 3.615 5.796
0.984 3.740 6.189
6.396 4.529 5.751
6.155 4.474 4.736
6.117 4.483 5.149
6.313 4.521 5.444
6.308 4.512 5.790
6.092 4.588 5.773
6.003 4.592 5.918
6.078 4.420 5.829
5.663 4.570 6.069
1.010 3.359 5.946
4.276 0.611 1.331
4.519 0.667 1.614
4.532 0.715 2.102
3.992 0.412 1.111
4.184 0.472 1.435
4.169 0.514 1.847
4.072 0.535 1.980
4.352 0.677 2.465
3.518 0.454 0.945
3.745 0.388 1.261
3.673 0.448 1.559
3.770 0.534 1.840
3.863 0.500 2.223
3.933 0.542 2.484
3.901 0.576 2.686
3.345 0.368 0.766
3.271 0.288 0.886
3.277 0.283 1.315
3.409 0.452 1.726
3.440 0.487 1.792
3.515 0.453 2.330
3.600 0.612 2.556
3.729 0.674 2.940
3.632 0.615 3.151
2.960 0.292 0.446
2.960 0.285 0.726
3.050 0.407 1.117
2.992 0.383 1.288
3.041 0.418 1.680
3.171 0.347 1.970
3.345 0.526 2.202
3.334 0.628 2.700
3.497 0.501 2.783
3.419 0.725 3.288
3.391 0.763 3.566
3.030 0.132 0.348
2.561 0.145 0.480
2.682 0.335 0.707
2.819 0.317 1.050
2.897 0.241 1.463
2.831 0.235 1.628
2.877 0.411 2.015
2.843 0.320 2.249
3.074 0.576 2.655
2.986 0.489 3.076
3.068 0.553 3.292
3.171 0.592 3.541
3.262 0.663 3.991
3.208 0.722 4.274
3.486 0.729 4.533
3.324 0.826 4.757
3.467 0.694 5.090
3.644 0.774 5.360
2.494 0.034 0.198
2.607 0.141 0.554
2.376 0.203 0.669
2.957 0.582 3.653
2.968 0.624 3.979
3.007 0.673 4.286
3.140 0.603 4.588
3.108 0.656 4.815
3.174 0.685 5.118
3.253 0.711 5.393
2.253 0.199 0.361
2.325 0.189 0.688
2.523 0.521 3.905
2.803 0.487 4.423
2.651 0.552 4.582
2.893 0.621 4.872
2.775 0.787 5.125
2.833 0.834 5.615
1.925 -0.105 0.078
2.017 -0.048 0.419
2.310 0.546 4.372
2.362 0.464 4.577
2.466 0.677 5.060
2.567 0.579 5.216
2.722 0.764 5.534
2.245 0.455 4.831
2.217 0.623 5.097
2.257 0.704 5.370
2.417 0.746 5.767
1.898 0.615 5.079
1.926 0.498 5.326
2.054 0.663 5.631
4.350 0.515 1.292
4.387 0.504 1.734
4.386 0.782 1.991
4.309 0.120 1.116
4.528 0.283 1.418
4.518 0.285 1.705
4.064 0.085 0.958
3.942 0.144 1.081
4.216 0.108 1.424
4.230 0.326 1.797
4.265 0.336 2.036
3.728 0.019 0.700
3.758 -0.018 0.898
3.775 0.174 1.376
3.789 0.106 1.454
3.950 0.106 1.938
3.899 0.223 2.132
4.036 0.354 2.574
3.275 0.021 0.820
3.399 0.072 0.927
3.415 0.149 1.209
3.421 0.067 1.640
3.621 0.173 1.942
3.672 0.163 2.144
3.744 0.149 2.458
3.193 0.022 1.149
3.223 0.127 1.452
3.120 0.179 1.803
3.290 0.082 1.998
3.229 0.151 2.210
3.433 0.258 2.738
2.930 0.146 1.748
2.858 0.109 2.192
3.636 0.530 5.109
3.483 0.497 5.374
3.173 0.323 4.675
3.291 0.509 4.851
3.130 0.431 5.189
3.399 0.589 5.424
2.841 0.430 4.690
2.854 0.404 5.057
2.841 0.285 5.177
3.104 0.337 5.455
2.513 0.163 4.821
2.591 0.385 5.086
2.679 0.331 5.391
2.716 0.340 5.527
2.329 0.221 4.969
2.228 0.299 5.340
2.302 0.273 5.590
2.077 0.366 5.418
2.153 0.191 5.722
4.389 0.317 1.060
4.325 0.193 1.428
4.598 0.293 1.660
4.457 0.048 1.749
3.736 0.329 5.454
3.180 0.237 5.283
3.329 0.092 5.420
2.852 -0.007 4.955
3.022 0.155 5.271
3.053 0.022 5.487
2.632 0.064 4.997
2.650 0.098 5.450
2.754 0.110 5.547
2.363 0.125 5.527
2.431 0.072 5.634
2.122 0.091 5.839
4.528 -0.010 1.693
4.358 1.022 1.755
4.321 0.936 2.019
4.441 1.000 2.175
4.078 0.961 1.455
4.123 0.835 1.757
4.123 0.900 2.029
4.304 1.073 2.410
4.357 0.907 2.553
3.749 0.848 1.161
3.731 0.856 1.577
3.708 0.906 1.829
3.772 0.806 2.056
3.896 0.984 2.423
4.050 0.960 2.785
4.107 0.940 2.920
3.311 0.651 1.221
3.435 0.657 1.486
3.353 0.697 1.857
3.605 0.875 2.144
3.601 0.897 2.511
3.571 0.845 2.918
3.693 0.941 3.078
3.755 0.936 3.507
3.142 0.705 1.374
3.165 0.720 1.696
3.074 0.732 1.980
3.322 0.715 2.314
3.354 0.721 2.465
3.409 0.881 2.975
3.381 0.850 3.263
3.506 0.970 3.546
3.390 0.988 3.760
3.660 1.075 4.042
2.818 0.797 1.905
2.937 0.804 2.290
2.870 0.772 2.585
3.021 0.939 3.048
2.989 0.787 3.269
3.042 0.989 3.594
3.106 0.924 3.809
3.379 0.884 4.238
3.341 0.928 4.465
3.421 1.001 4.794
3.411 1.005 4.962
2.743 0.786 3.075
2.708 0.733 3.199
2.919 0.765 3.684
2.977 0.939 3.789
2.990 0.876 4.232
2.994 0.985 4.568
2.981 0.976 4.749
3.025 0.981 5.227
3.122 1.144 5.553
2.629 0.713 3.760
2.644 0.916 3.904
2.609 0.833 4.266
2.766 1.054 4.537
2.850 0.864 4.938
2.901 1.088 5.266
2.843 1.135 5.619
2.316 0.747 3.945
2.276 0.900 4.243
2.327 0.778 4.679
2.547 0.888 4.937
2.473 1.093 5.235
2.596 0.953 5.544
1.938 0.820 4.405
2.062 0.890 4.691
2.225 0.858 4.897
2.148 0.928 5.201
2.198 0.917 5.691
1.768 0.895 4.772
1.964 0.866 5.129
1.919 0.776 5.448
4.494 1.042 1.652
4.347 0.932 1.947
4.395 1.036 2.272
4.343 0.667 1.298
4.316 0.692 1.677
4.409 0.775 2.146
3.961 0.508 1.288
4.146 0.491 1.470
4.008 0.482 1.726
4.085 0.671 2.128
4.248 0.743 2.272
3.672 0.482 1.038
3.780 0.421 1.247
3.782 0.450 1.441
3.848 0.612 1.789
3.848 0.688 2.080
3.960 0.558 2.387
3.911 0.663 2.856
3.250 0.295 0.733
3.385 0.357 1.034
3.374 0.478 1.353
3.536 0.373 1.546
3.550 0.478 2.030
3.640 0.567 2.212
3.560 0.553 2.418
3.704 0.711 2.784
3.623 0.739 3.218
2.935 0.246 0.569
2.892 0.245 0.774
3.095 0.275 1.145
3.190 0.364 1.429
3.119 0.411 1.690
3.309 0.461 1.932
3.320 0.371 2.295
3.330 0.579 2.473
3.402 0.536 2.930
3.538 0.522 3.138
3.612 0.763 3.519
2.830 0.346 0.367
2.548 0.150 0.586
2.558 0.145 0.813
2.698 0.251 1.195
2.752 0.388 1.468
2.826 0.465 1.820
2.918 0.438 2.023
3.051 0.462 2.248
3.024 0.464 2.652
2.967 0.542 3.024
3.114 0.506 3.347
3.283 0.572 3.588
3.172 0.588 3.783
3.202 0.647 4.278
3.406 0.835 4.583
3.521 0.687 4.829
3.558 0.744 5.000
3.580 0.868 5.457
2.576 0.081 0.171
2.580 0.132 0.538
2.428 0.211 0.577
2.879 0.483 3.680
2.930 0.551 4.058
2.887 0.573 4.218
2.981 0.695 4.467
3.041 0.727 4.927
3.237 0.865 5.172
3.238 0.782 5.477
2.363 0.132 0.198
2.263 0.048 0.457
2.665 0.571 4.117
2.790 0.586 4.352
2.827 0.606 4.657
2.708 0.635 4.812
2.754 0.596 5.202
2.898 0.868 5.618
1.962 0.081 0.067
1.893 0.081 0.350
2.447 0.623 4.460
2.371 0.592 4.783
2.483 0.652 4.919
2.489 0.660 5.326
2.666 0.621 5.640
2.223 0.545 4.827
2.194 0.624 5.135
2.185 0.735 5.272
2.380 0.696 5.780
1.936 0.641 5.016
1.944 0.681 5.528
2.064 0.627 5.656
4.424 0.641 1.294
4.377 0.644 1.786
4.379 0.564 2.056
3.598 0.944 5.649
3.726 0.834 6.065
3.332 0.763 5.897
3.401 0.868 6.046
3.062 0.768 5.753
3.019 0.890 6.231
2.579 0.655 5.981
2.851 0.737 6.306
2.439 0.823 5.987
3.912 0.701 5.890
3.586 0.531 5.844
3.684 0.671 6.170
3.352 0.626 5.848
3.517 0.558 6.016
3.049 0.502 5.961
3.164 0.618 6.257
2.630 0.490 6.032
2.900 0.512 6.236
2.553 0.435 5.898
2.177 0.233 6.010
4.482 0.503 6.281
4.000 0.272 5.900
3.762 0.243 5.656
3.779 0.304 6.177
3.348 0.321 5.961
3.353 0.289 6.058
3.014 0.130 5.944
3.083 0.270 6.138
2.847 0.143 5.964
2.946 0.137 6.348
2.521 0.010 5.966
2.229 0.161 6.202
4.053 -0.046 5.932
3.814 -0.030 6.117
3.337 1.091 5.840
2.890 1.048 5.877
2.548 1.031 5.918
3.627 0.944 5.735
3.665 0.920 6.001
3.203 0.828 5.813
3.410 0.789 6.037
2.939 0.688 5.798
3.066 0.828 6.109
2.644 0.734 5.909
2.840 0.763 6.288
2.384 0.804 5.862
0.484 4.722 5.566
0.389 4.384 5.317
0.345 4.463 5.391
0.228 4.346 5.677
0.360 4.099 4.964
0.325 4.214 5.151
0.407 4.128 5.545
0.003 4.112 5.186
0.070 4.133 5.513
0.362 3.703 4.672
0.455 3.768 4.970
0.473 3.720 5.235
0.596 3.793 5.486
0.053 3.740 4.675
0.211 3.721 5.021
0.273 3.667 5.270
0.156 3.699 5.656
0.349 3.352 4.021
0.460 3.326 4.462
0.316 3.538 4.694
0.535 3.355 4.887
0.549 3.404 5.199
0.650 3.570 5.619
-0.074 3.443 4.467
0.041 3.380 4.675
0.215 3.428 4.980
0.153 3.460 5.328
0.179 3.631 5.639
0.328 2.990 3.824
0.328 3.022 4.120
0.303 3.114 4.479
0.491 3.142 4.731
0.585 3.131 5.101
0.476 3.207 5.379
0.528 3.278 5.746
0.035 2.984 4.176
0.215 3.032 4.491
0.126 3.004 4.756
0.211 3.102 5.100
0.283 3.049 5.434
0.347 3.268 5.712
0.259 2.687 3.585
0.307 2.571 3.824
0.292 2.617 4.228
0.397 2.722 4.448
0.558 2.725 4.676
0.447 2.956 4.980
0.685 2.779 5.339
0.704 2.923 5.630
0.094 2.677 3.985
0.098 2.771 4.151
0.207 2.748 4.494
0.094 2.706 4.779
0.327 2.823 5.209
0.393 2.876 5.302
0.452 2.370 3.583
0.478 2.475 3.740
0.365 2.375 4.087
0.476 2.470 4.416
0.468 2.439 4.672
0.538 2.477 4.970
0.629 2.648 5.319
-0.078 2.184 3.735
0.058 2.402 3.974
0.162 2.367 4.152
0.095 2.385 4.647
0.340 2.411 4.863
0.235 2.575 5.036
0.403 2.099 3.474
0.539 2.059 4.010
0.572 2.072 4.304
0.623 2.178 4.599
0.511 2.272 4.748
0.550 2.121 5.137
0.120 2.023 3.551
0.030 1.975 3.987
0.185 2.054 4.146
0.294 2.174 4.621
0.198 2.076 4.919
0.498 1.825 3.840
0.523 1.748 4.306
0.702 1.938 4.430
0.787 1.920 4.862
0.074 1.784 4.100
0.176 1.846 4.205
0.331 1.804 4.573
0.455 5.233 5.861
0.524 5.282 6.098
0.025 5.258 6.180
0.391 4.800 5.880
0.523 4.939 6.081
0.232 4.665 5.756
0.193 4.947 6.146
0.579 4.460 5.809
0.523 4.687 6.100
0.246 4.485 5.921
0.113 4.471 6.113
0.451 4.228 5.846
0.696 4.358 6.255
0.227 4.123 5.849
0.167 4.110 6.235
0.526 3.871 5.982
0.560 3.929 6.120
0.382 3.760 5.915
0.408 3.952 6.324
0.660 3.521 6.027
0.635 3.565 6.292
0.350 3.592 5.888
0.265 3.654 6.324
0.058 3.571 6.026
0.711 3.232 5.925
0.343 3.143 5.942
