3.619 0.279 5.750
3.734 0.297 5.693
4.056 0.524 5.519
4.417 0.513 5.384
4.409 0.864 5.735
4.538 0.941 5.594
4.791 0.951 5.365
5.213 1.081 5.293
5.405 1.181 5.190
5.658 1.321 5.046
5.891 1.360 4.746
6.117 1.495 4.591
3.643 0.453 5.937
3.977 0.527 5.801
4.039 0.612 5.750
4.424 0.826 5.579
4.355 1.071 5.870
4.559 1.000 5.663
4.951 1.112 5.612
5.056 1.368 5.502
5.419 1.305 5.326
5.639 1.555 5.155
5.860 1.457 5.076
6.144 1.708 4.851
3.824 0.873 6.144
4.094 0.815 6.073
4.477 1.055 5.937
4.536 1.271 6.176
4.774 1.283 5.959
4.885 1.280 5.820
5.259 1.465 5.695
5.364 1.605 5.460
5.792 1.653 5.354
5.943 1.794 5.263
6.240 1.791 5.046
4.243 1.181 6.156
4.347 1.273 6.043
4.663 1.423 6.196
5.001 1.482 6.024
5.225 1.635 5.876
5.421 1.662 5.844
5.645 1.962 5.725
6.012 1.956 5.577
6.208 2.158 5.424
4.592 0.055 4.953
4.974 0.066 4.817
5.242 0.187 4.644
4.513 0.261 5.309
4.702 0.178 5.205
5.032 0.354 5.019
5.129 0.527 5.015
5.535 0.620 4.760
5.641 0.746 4.644
4.103 0.010 5.546
4.491 0.147 5.298
4.399 0.398 5.512
4.799 0.381 5.481
5.054 0.606 5.360
5.161 0.574 5.226
5.445 0.720 4.995
5.650 0.878 4.883
6.000 0.879 4.707
6.161 1.023 4.545
3.743 0.179 6.078
4.039 0.249 5.747
4.337 0.324 5.741
4.379 0.320 5.497
4.449 0.664 5.873
4.784 0.748 5.710
5.018 0.861 5.539
5.303 0.835 5.474
5.531 1.032 5.163
5.758 1.053 5.211
6.115 1.217 4.901
6.165 1.205 4.797
3.877 0.183 6.236
4.065 0.364 6.090
4.268 0.468 5.923
4.541 0.663 5.874
4.464 0.725 5.956
4.872 0.974 5.888
5.077 0.938 5.695
5.289 0.991 5.630
5.479 1.120 5.472
5.715 1.328 5.354
6.087 1.253 5.137
3.962 0.575 6.328
4.351 0.604 6.061
4.657 0.864 5.990
4.620 0.967 6.277
4.880 1.046 6.175
5.210 1.216 5.980
5.396 1.366 5.718
5.562 1.336 5.588
5.787 1.393 5.625
6.193 1.535 5.337
4.514 0.940 6.149
5.156 1.268 6.135
5.412 1.428 5.956
5.654 1.595 5.991
5.951 1.600 5.779
6.173 1.749 5.715
4.958 0.079 5.407
5.094 0.184 5.290
5.411 0.224 5.121
5.519 0.300 5.064
5.827 0.414 4.931
6.087 0.524 4.600
4.568 0.224 5.704
4.978 0.277 5.577
5.244 0.264 5.523
5.482 0.489 5.338
5.703 0.589 5.244
5.869 0.679 5.124
6.066 0.790 4.862
4.482 0.087 5.785
4.658 0.218 5.660
4.666 0.343 5.987
4.952 0.391 5.791
5.262 0.555 5.650
5.381 0.760 5.480
5.608 0.734 5.420
5.949 0.887 5.189
6.116 0.940 5.171
4.159 0.250 6.202
4.543 0.178 5.967
4.777 0.335 5.969
4.654 0.615 6.211
4.902 0.687 6.122
5.270 0.731 5.903
5.431 0.792 5.663
5.812 1.034 5.655
6.054 1.087 5.542
6.129 1.046 5.320
4.804 0.604 6.183
5.105 0.964 6.312
5.286 1.043 6.157
5.476 1.084 5.944
5.736 1.062 5.779
6.062 1.240 5.787
6.215 1.432 5.560
5.467 1.201 6.173
5.700 1.447 6.112
6.137 1.526 5.984
5.411 0.094 5.270
5.799 0.231 5.015
6.057 0.238 4.923
6.334 0.408 4.787
5.087 0.115 5.704
5.226 0.209 5.610
5.629 0.313 5.394
5.720 0.396 5.321
5.952 0.448 5.224
4.751 0.195 6.157
5.199 0.223 5.923
5.431 0.470 5.745
5.549 0.558 5.678
5.740 0.668 5.587
6.137 0.702 5.368
4.649 0.136 6.263
4.828 0.254 6.127
5.156 0.458 6.277
5.429 0.616 6.088
5.685 0.581 5.878
5.941 0.713 5.680
6.222 0.752 5.564
5.458 0.743 6.307
5.684 0.912 6.209
5.998 0.988 6.073
6.084 1.041 5.903
5.951 1.067 6.309
6.302 1.178 6.179
6.101 0.037 5.157
5.646 -0.006 5.651
6.021 0.105 5.497
6.290 0.270 5.416
5.530 0.203 5.963
5.840 0.299 5.869
6.105 0.456 5.647
6.333 0.426 5.598
5.652 0.324 6.213
5.851 0.390 6.056
6.016 0.470 6.017
5.903 0.758 6.246
6.178 0.700 6.248
6.251 0.061 5.769
5.987 0.257 6.227
6.256 0.342 6.185
4.420 3.240 0.158
4.179 3.295 0.443
4.348 3.479 0.411
4.617 3.572 0.174
4.885 3.654 0.152
4.292 3.457 0.609
4.487 3.722 0.578
4.591 3.757 0.340
5.027 3.837 0.243
5.260 3.958 0.170
5.532 4.153 0.025
0.790 2.242 2.630
4.035 3.762 0.962
4.214 3.719 0.929
4.403 3.794 0.848
4.812 3.882 0.590
4.964 4.066 0.404
5.336 4.198 0.445
5.584 4.164 0.237
5.796 4.448 0.144
0.701 2.364 2.862
4.138 3.960 1.178
4.211 4.014 1.136
4.620 4.033 1.079
4.685 4.255 0.898
5.094 4.276 0.676
5.294 4.342 0.484
5.583 4.345 0.396
5.771 4.457 0.411
0.867 2.678 3.106
3.933 3.995 1.626
4.085 4.013 1.407
4.332 4.084 1.301
4.659 4.244 1.138
4.865 4.336 1.030
5.093 4.487 0.845
5.311 4.488 0.777
5.575 4.562 0.649
5.876 4.841 0.602
3.563 4.028 2.032
3.801 4.065 1.805
4.072 4.250 1.637
4.319 4.438 1.455
4.690 4.550 1.450
4.912 4.545 1.235
5.018 4.645 1.069
5.383 4.813 0.961
5.663 4.881 0.839
5.924 4.878 0.815
3.508 4.086 2.242
3.643 4.207 2.288
3.864 4.354 1.956
4.091 4.534 1.942
4.443 4.450 1.806
4.637 4.641 1.632
4.840 4.681 1.560
5.151 4.820 1.321
5.375 4.872 1.276
5.568 5.143 1.069
3.263 4.377 2.695
3.462 4.291 2.465
3.765 4.461 2.418
3.860 4.658 2.315
4.202 4.739 2.074
4.469 4.679 1.993
4.678 4.782 1.905
4.982 5.015 1.740
5.247 4.976 1.489
2.995 4.262 3.089
3.196 4.459 2.980
3.578 4.584 2.739
3.673 4.665 2.709
3.968 4.666 2.468
4.230 4.925 2.414
4.555 4.889 2.164
4.766 5.034 2.124
5.007 5.247 2.001
2.993 4.621 3.212
3.171 4.661 3.158
3.477 4.851 2.937
3.700 4.921 2.783
3.937 4.959 2.785
4.185 5.057 2.645
4.422 5.117 2.491
4.741 5.187 2.195
4.960 5.298 2.060
3.101 4.749 3.425
3.373 4.891 3.406
3.490 5.011 3.254
3.725 5.017 2.987
4.102 5.198 2.840
4.395 5.204 2.742
4.579 5.346 2.740
4.749 5.486 2.614
4.335 2.706 0.235
4.495 2.805 0.091
4.258 2.954 0.362
4.496 3.082 0.287
4.867 3.051 0.076
4.242 3.238 0.511
4.616 3.187 0.574
4.922 3.316 0.452
4.971 3.469 0.133
5.270 3.525 0.057
4.365 3.350 0.783
4.656 3.523 0.675
4.885 3.531 0.513
5.045 3.555 0.400
5.251 3.763 0.331
5.571 3.774 0.257
5.854 3.978 -0.044
4.297 3.601 0.998
4.757 3.670 0.815
5.006 3.783 0.893
5.124 3.838 0.611
5.506 4.006 0.518
5.648 4.075 0.362
5.842 4.217 0.190
4.187 3.745 1.498
4.378 3.818 1.355
4.619 3.887 1.113
5.008 3.962 1.004
5.110 3.983 0.851
5.494 4.188 0.840
5.584 4.211 0.596
6.004 4.339 0.509
4.195 3.948 1.589
4.461 3.952 1.437
4.798 3.965 1.370
4.951 4.185 1.183
5.336 4.216 1.093
5.442 4.443 0.982
5.762 4.458 0.880
6.012 4.596 0.789
3.934 4.056 2.086
4.341 3.978 1.824
4.475 4.140 1.705
4.796 4.215 1.619
5.044 4.388 1.434
5.251 4.457 1.349
5.432 4.448 1.210
5.774 4.551 1.145
3.744 4.119 2.259
4.175 4.110 2.176
4.334 4.308 2.072
4.662 4.303 1.990
4.778 4.425 1.834
4.990 4.535 1.606
5.320 4.591 1.571
5.584 4.834 1.388
3.530 4.223 2.778
3.841 4.182 2.509
4.049 4.334 2.321
4.296 4.549 2.367
4.507 4.563 2.070
4.813 4.568 2.040
5.107 4.648 1.860
5.353 4.790 1.700
3.399 4.184 2.941
3.735 4.343 2.993
3.964 4.556 2.770
4.079 4.451 2.580
4.296 4.614 2.540
4.615 4.704 2.469
4.789 4.782 2.216
5.086 4.896 1.997
3.509 4.395 3.214
3.583 4.633 3.028
3.836 4.763 2.971
4.167 4.735 2.952
4.339 4.921 2.638
4.581 5.003 2.573
4.868 5.042 2.417
5.205 5.052 2.243
3.580 4.659 3.469
3.803 4.800 3.403
3.901 4.948 3.293
4.164 4.969 3.148
4.565 5.026 3.009
4.756 5.111 2.719
5.067 5.225 2.683
3.429 1.639 0.053
3.718 1.910 0.125
4.148 2.036 -0.049
4.121 2.358 0.241
4.304 2.272 0.162
4.214 2.395 0.414
4.383 2.516 0.321
4.666 2.548 0.259
4.949 2.664 -0.021
4.368 2.732 0.602
4.711 2.863 0.502
5.030 2.910 0.277
5.237 3.066 0.170
5.449 3.102 -0.089
4.532 2.986 0.842
4.798 2.947 0.635
4.935 3.174 0.551
5.190 3.305 0.374
5.553 3.381 0.264
5.780 3.391 0.190
4.453 3.241 0.906
4.724 3.222 0.843
4.996 3.246 0.704
5.267 3.500 0.508
5.428 3.481 0.545
5.710 3.626 0.362
6.094 3.788 0.081
4.613 3.254 1.188
4.816 3.468 0.972
5.072 3.648 0.921
5.341 3.570 0.839
5.631 3.806 0.646
5.783 3.898 0.478
5.985 3.949 0.346
4.531 3.501 1.432
4.792 3.637 1.389
5.064 3.849 1.183
5.460 3.948 1.056
5.618 3.893 0.934
5.788 4.132 0.859
6.090 4.167 0.519
4.418 3.660 1.827
4.551 3.778 1.689
4.918 3.850 1.616
5.149 4.031 1.375
5.445 4.097 1.270
5.625 4.184 1.179
5.950 4.178 0.978
4.481 3.792 2.089
4.679 4.013 1.849
4.837 4.092 1.682
5.174 4.162 1.566
5.363 4.186 1.505
5.748 4.384 1.271
4.140 3.908 2.277
4.426 4.005 2.163
4.734 4.148 2.171
4.976 4.200 1.856
5.314 4.458 1.781
5.442 4.459 1.757
4.064 4.110 2.612
4.184 4.182 2.639
4.542 4.203 2.496
4.716 4.269 2.391
5.035 4.556 2.207
5.317 4.607 2.136
3.774 4.111 3.065
4.158 4.257 2.852
4.283 4.446 2.804
4.586 4.451 2.574
4.877 4.538 2.600
5.150 4.555 2.334
3.496 4.215 3.307
3.809 4.377 3.333
4.197 4.382 3.236
4.381 4.512 2.985
4.690 4.689 2.941
4.777 4.735 2.846
5.107 4.861 2.531
3.652 4.431 3.573
3.815 4.597 3.495
4.221 4.654 3.458
4.319 4.813 3.319
4.649 4.947 3.202
4.807 5.032 2.982
5.236 4.993 2.863
3.032 0.798 0.150
3.084 0.989 0.277
3.359 1.075 0.174
3.717 1.191 0.019
3.414 1.399 0.416
3.746 1.381 0.284
3.956 1.630 0.014
3.715 1.580 0.423
3.937 1.722 0.364
4.307 1.877 0.140
4.519 1.984 0.075
4.089 1.950 0.625
4.294 2.065 0.494
4.621 2.214 0.327
4.848 2.284 0.235
4.297 2.335 0.618
4.509 2.410 0.526
4.785 2.426 0.435
5.089 2.472 0.179
5.275 2.706 0.187
4.334 2.508 0.770
4.533 2.665 0.791
4.829 2.620 0.654
5.038 2.802 0.330
5.270 2.853 0.344
5.661 2.956 0.073
5.855 3.044 0.013
1.079 1.134 2.658
4.581 2.711 0.824
4.900 2.799 0.839
5.204 2.980 0.650
5.425 2.948 0.447
5.721 3.147 0.408
5.984 3.255 0.273
6.135 3.403 0.039
1.120 1.300 2.828
4.791 2.929 1.182
4.911 3.114 1.018
5.133 3.097 0.874
5.522 3.304 0.657
5.628 3.276 0.691
5.958 3.443 0.545
6.101 3.541 0.429
4.778 3.189 1.378
4.876 3.311 1.254
5.190 3.369 1.086
5.509 3.540 0.943
5.738 3.504 0.757
5.984 3.585 0.674
6.324 3.697 0.470
4.929 3.371 1.348
5.222 3.547 1.327
5.457 3.755 1.177
5.810 3.665 0.971
5.983 3.877 0.991
5.112 3.742 1.670
5.352 3.776 1.469
5.444 3.896 1.451
4.647 4.052 2.663
4.914 4.244 2.492
4.268 4.068 3.047
4.442 4.152 2.915
4.707 4.232 2.786
4.954 4.343 2.777
4.010 4.186 3.537
4.316 4.348 3.400
4.569 4.460 3.134
4.750 4.510 2.952
5.067 4.444 2.978
3.872 4.323 3.869
4.065 4.428 3.574
4.220 4.441 3.439
4.519 4.460 3.370
4.701 4.656 3.277
5.003 4.694 3.017
5.252 4.805 2.940
2.965 0.478 0.099
3.003 0.657 0.414
3.353 0.777 0.205
3.601 0.669 0.062
2.979 0.841 0.568
3.271 0.871 0.518
3.601 1.057 0.217
3.839 0.978 0.085
4.079 1.195 -0.042
3.316 0.968 0.713
3.567 1.251 0.617
3.863 1.269 0.464
4.015 1.354 0.344
4.248 1.426 0.214
3.884 1.513 0.698
4.064 1.589 0.517
4.493 1.625 0.341
4.671 1.674 0.167
4.888 1.781 -0.023
4.184 1.731 0.739
4.513 1.842 0.614
4.780 1.877 0.313
4.942 2.109 0.178
5.133 2.115 0.204
5.459 2.313 -0.021
1.281 0.661 2.307
4.558 2.148 0.831
4.623 2.077 0.582
4.893 2.253 0.497
5.198 2.326 0.419
5.377 2.482 0.244
5.717 2.441 0.038
1.183 0.835 2.507
4.760 2.289 0.908
4.963 2.454 0.623
5.212 2.571 0.694
5.466 2.663 0.510
5.678 2.753 0.302
5.921 2.929 0.235
6.234 3.031 0.100
1.354 0.934 2.699
4.893 2.651 1.128
5.118 2.624 0.897
5.314 2.701 0.784
5.566 2.767 0.684
5.772 2.937 0.571
6.017 3.045 0.432
1.322 1.166 2.865
5.091 2.917 1.197
5.445 3.012 1.100
5.540 3.090 0.831
5.824 3.216 0.857
6.196 3.321 0.542
5.106 3.114 1.357
5.363 3.228 1.201
5.588 3.338 1.102
5.782 3.256 0.923
6.064 3.455 0.789
5.644 3.382 1.226
4.189 4.009 3.575
4.480 4.139 3.475
4.757 4.252 3.375
4.893 4.260 3.141
3.937 3.981 3.900
4.190 4.061 3.772
4.554 4.238 3.656
4.734 4.282 3.534
4.994 4.378 3.421
5.170 4.655 3.316
2.807 -0.020 0.515
3.165 0.090 0.381
3.439 0.208 0.207
3.644 0.380 0.057
3.031 0.173 0.647
3.188 0.366 0.511
3.495 0.369 0.303
3.616 0.489 0.316
3.934 0.564 0.117
3.089 0.574 0.814
3.248 0.563 0.724
3.551 0.587 0.591
3.803 0.800 0.509
3.978 0.804 0.388
4.223 1.040 0.217
4.487 1.079 0.082
3.232 0.762 0.943
3.454 0.773 0.812
3.763 1.054 0.591
4.072 1.113 0.600
4.355 1.186 0.451
4.440 1.267 0.184
4.756 1.352 0.122
3.876 1.199 0.912
4.122 1.227 0.690
4.255 1.312 0.669
4.534 1.490 0.424
4.793 1.655 0.283
4.967 1.678 0.231
5.399 1.771 -0.010
1.263 0.122 2.206
1.491 0.328 2.175
4.433 1.470 0.831
4.597 1.586 0.725
4.816 1.799 0.558
5.003 1.872 0.453
5.416 1.962 0.276
5.636 2.048 0.091
5.880 2.103 0.083
1.329 0.401 2.452
1.653 0.417 2.328
4.654 1.914 0.899
4.963 1.972 0.707
5.101 1.998 0.678
5.444 2.086 0.603
5.552 2.212 0.401
5.963 2.254 0.209
6.237 2.512 0.184
1.387 0.553 2.608
1.561 0.780 2.469
5.024 2.052 0.912
5.174 2.160 0.963
5.355 2.379 0.798
5.575 2.428 0.650
5.968 2.624 0.464
6.178 2.613 0.431
1.382 0.707 2.897
1.673 0.784 2.812
5.133 2.546 1.102
5.464 2.543 0.904
5.774 2.604 0.716
5.886 2.806 0.689
6.159 2.941 0.535
1.472 0.899 3.101
5.470 2.816 1.167
5.662 2.914 0.962
6.009 3.035 0.997
6.204 2.976 0.762
5.731 3.135 1.163
6.036 3.073 1.128
4.088 3.769 4.089
4.432 3.963 3.995
4.703 4.161 3.749
4.795 4.098 3.604
5.089 4.360 3.555
3.636 0.107 0.403
3.890 0.065 0.187
4.030 0.218 0.126
3.143 0.062 0.773
3.258 0.077 0.691
3.562 0.342 0.416
3.833 0.435 0.308
4.156 0.400 0.170
4.415 0.542 0.065
2.539 0.140 1.247
2.826 0.081 1.138
3.132 0.326 1.087
3.369 0.381 0.818
3.608 0.471 0.767
3.788 0.523 0.531
4.179 0.770 0.442
4.408 0.796 0.282
4.717 0.780 0.103
4.977 1.058 0.150
2.521 0.138 1.675
2.668 0.358 1.447
2.856 0.377 1.252
3.218 0.450 1.133
3.440 0.497 0.985
3.675 0.602 0.976
4.030 0.726 0.821
4.247 0.929 0.609
4.349 0.927 0.624
4.588 1.152 0.337
4.874 1.258 0.198
5.144 1.307 0.115
5.522 1.316 0.012
2.167 0.143 1.672
2.540 0.085 1.549
2.541 0.487 1.871
3.381 0.788 1.275
3.619 0.896 1.245
3.909 0.894 0.974
4.291 0.968 0.810
4.530 1.204 0.736
4.779 1.291 0.736
4.936 1.317 0.510
5.114 1.475 0.424
5.362 1.496 0.331
5.640 1.630 0.015
1.687 0.183 2.149
2.052 0.146 2.181
2.218 0.380 1.936
2.486 0.292 1.951
4.455 1.378 0.976
4.763 1.473 0.895
4.987 1.558 0.802
5.334 1.549 0.656
5.582 1.706 0.379
5.740 1.901 0.401
6.049 2.018 0.208
6.274 1.987 -0.010
1.577 0.178 2.502
1.812 0.385 2.420
1.944 0.448 2.232
2.306 0.588 2.232
5.064 1.790 0.934
5.384 1.859 0.737
5.580 1.856 0.570
5.841 2.086 0.452
6.140 2.102 0.452
1.635 0.448 2.750
1.751 0.407 2.719
2.156 0.646 2.489
5.303 1.955 1.075
5.641 2.074 0.978
5.850 2.212 0.803
6.163 2.446 0.515
1.568 0.567 3.023
1.856 0.736 2.880
2.050 0.785 2.711
5.679 2.442 1.122
5.804 2.462 0.919
6.062 2.537 0.863
1.592 0.711 3.152
1.932 0.976 3.188
5.872 2.640 1.118
6.272 2.667 1.099
1.676 1.009 3.556
4.340 3.590 4.336
4.621 3.853 4.087
4.783 3.930 4.019
4.117 0.050 0.113
4.379 0.128 0.096
3.732 0.092 0.597
3.941 0.155 0.580
4.333 0.359 0.434
4.545 0.464 0.174
4.742 0.415 0.033
3.194 0.162 1.137
3.613 0.178 0.961
3.697 0.303 0.995
4.085 0.439 0.747
4.355 0.362 0.680
4.636 0.591 0.443
4.882 0.649 0.263
5.101 0.859 0.116
5.289 0.834 0.008
2.944 0.085 1.709
3.105 0.138 1.583
3.369 0.244 1.386
3.649 0.343 1.266
3.916 0.411 1.112
4.037 0.673 0.979
4.353 0.724 0.810
4.504 0.677 0.620
4.865 0.859 0.562
5.056 0.901 0.481
5.277 1.034 0.393
5.540 1.190 0.275
5.900 1.187 -0.064
2.628 0.087 2.074
2.893 0.311 1.796
3.130 0.402 1.821
3.352 0.501 1.552
3.697 0.464 1.510
3.789 0.717 1.323
4.096 0.721 1.269
4.486 0.960 0.985
4.683 0.887 0.910
4.933 1.072 0.893
5.201 1.155 0.571
5.363 1.321 0.450
5.705 1.256 0.367
5.838 1.365 0.239
6.229 1.580 0.148
2.317 0.156 2.196
2.641 0.179 1.977
2.606 0.326 2.121
3.013 0.491 2.092
4.906 1.214 0.988
5.155 1.291 0.937
5.386 1.459 0.819
5.573 1.512 0.523
5.830 1.603 0.432
6.216 1.728 0.414
1.966 0.172 2.721
2.166 0.276 2.383
2.477 0.335 2.449
2.746 0.470 2.231
2.676 0.682 2.376
5.519 1.631 0.861
5.796 1.733 0.901
5.891 1.890 0.757
6.110 2.031 0.493
1.761 0.257 2.990
1.883 0.256 2.844
2.196 0.321 2.783
2.517 0.431 2.642
2.649 0.638 2.460
5.638 1.908 1.105
6.026 2.110 0.981
6.305 2.148 0.751
1.665 0.333 3.205
1.908 0.469 3.027
2.310 0.670 2.836
2.613 0.689 2.862
6.047 2.264 1.118
1.732 0.654 3.332
1.973 0.644 3.378
2.279 0.853 3.178
1.817 0.883 3.595
2.011 0.941 3.594
4.404 3.463 4.437
4.751 3.624 4.279
0.132 3.874 3.117
0.051 2.896 2.381
0.132 3.136 2.771
0.108 3.356 2.888
0.086 3.435 3.082
0.081 3.604 3.412
-0.004 2.286 2.208
0.126 2.586 2.472
0.279 2.634 2.508
0.250 2.884 2.799
0.042 3.017 3.187
0.334 3.017 2.954
0.029 3.286 3.343
0.293 3.363 3.288
0.186 3.361 3.653
0.419 3.596 3.460
0.086 1.903 2.369
0.312 2.196 2.325
0.097 2.181 2.776
0.411 2.330 2.652
0.065 2.359 2.900
0.252 2.490 2.704
0.189 2.649 3.065
0.439 2.596 3.077
0.111 2.751 3.437
0.533 2.798 3.097
0.114 2.982 3.570
0.455 3.167 3.520
0.072 3.062 3.808
0.190 3.101 3.679
0.408 3.399 3.549
-0.010 3.400 4.087
0.126 4.103 -0.022
-0.070 4.175 0.135
0.146 4.460 0.250
0.322 4.510 0.082
0.056 4.350 0.353
0.038 4.512 0.571
0.193 4.523 0.451
0.113 4.775 0.681
0.077 4.717 0.797
0.086 5.090 0.955
0.163 5.029 1.021
0.188 5.146 1.055
0.256 5.166 1.182
0.560 5.896 1.607
0.806 6.041 1.476
0.363 6.084 2.025
0.642 6.072 1.889
0.940 6.107 1.758
1.152 6.226 1.577
0.375 6.071 1.998
0.430 6.255 2.274
0.395 6.288 2.355
0.084 3.957 0.125
0.510 4.080 -0.027
0.285 4.052 0.227
0.266 4.089 0.388
0.550 4.326 0.377
0.200 4.251 0.418
0.176 4.459 0.716
0.422 4.513 0.526
-0.035 4.273 0.725
0.325 4.319 0.677
0.202 4.673 0.882
0.484 4.703 0.718
0.160 4.480 1.109
0.408 4.499 0.893
0.351 4.692 1.148
0.681 4.965 0.933
0.059 4.702 1.248
0.380 4.823 1.138
0.478 4.985 1.321
0.604 5.079 1.149
0.118 4.843 1.441
0.468 4.956 1.227
0.355 5.210 1.532
0.709 5.213 1.450
0.980 5.276 1.250
0.081 5.003 1.556
0.415 5.271 1.438
0.431 5.393 1.728
0.737 5.422 1.595
0.882 5.684 1.521
1.317 5.698 1.397
0.111 5.365 1.974
0.507 5.339 1.843
0.462 5.667 1.936
0.665 5.607 1.844
0.931 5.682 1.758
1.299 5.902 1.647
1.509 5.873 1.386
0.357 5.395 2.041
0.538 5.543 2.032
0.551 5.724 2.130
0.810 5.872 2.063
1.145 5.945 1.862
1.398 6.140 1.707
1.502 6.081 1.573
1.898 6.319 1.496
0.281 5.721 2.410
0.544 5.878 2.242
0.673 6.017 2.352
0.903 6.021 2.286
1.149 6.104 2.074
1.340 6.213 2.031
0.412 5.864 2.534
0.668 6.026 2.322
0.596 6.264 2.526
0.477 6.137 2.663
0.587 6.241 2.626
-0.070 3.235 0.116
0.230 3.638 0.239
0.004 3.385 0.221
0.329 3.629 0.055
0.350 3.865 0.421
0.035 3.781 0.575
0.434 3.803 0.303
0.436 3.946 0.691
0.641 4.153 0.527
0.157 3.959 0.783
0.293 3.928 0.518
0.328 4.105 0.705
0.754 4.375 0.675
0.104 4.171 0.888
0.502 4.131 0.761
0.569 4.495 1.085
0.644 4.537 0.953
0.274 4.394 1.206
0.401 4.330 0.943
0.429 4.665 1.209
0.816 4.577 1.206
0.007 4.400 1.414
0.349 4.504 1.316
0.403 4.504 1.175
0.532 4.756 1.398
0.707 4.887 1.319
1.139 4.998 1.170
0.020 4.560 1.652
0.293 4.727 1.593
0.584 4.864 1.531
0.492 4.989 1.648
0.786 5.048 1.514
1.054 5.232 1.358
1.365 5.184 1.203
0.086 4.798 1.950
0.384 4.931 1.732
0.657 5.036 1.721
0.617 5.121 1.928
0.966 5.255 1.824
1.173 5.462 1.528
1.414 5.524 1.442
1.566 5.618 1.326
0.203 4.991 2.140
0.303 5.101 1.979
0.621 5.239 1.841
0.699 5.455 2.013
0.988 5.501 2.062
1.178 5.669 1.847
1.345 5.688 1.786
1.759 5.715 1.614
1.935 5.890 1.460
0.182 5.104 2.397
0.467 5.369 2.316
0.639 5.427 2.204
0.803 5.549 2.372
0.981 5.588 2.296
1.174 5.692 2.051
1.440 5.978 1.875
1.639 6.013 1.696
2.011 6.006 1.665
0.125 5.451 2.648
0.449 5.510 2.579
0.731 5.671 2.416
0.710 5.721 2.621
1.051 5.844 2.408
1.338 6.044 2.294
1.577 6.107 2.220
1.647 6.250 2.062
2.013 6.220 1.836
0.556 5.716 2.732
0.726 5.729 2.461
0.768 5.940 2.771
1.078 6.104 2.535
1.372 6.187 2.473
1.533 6.297 2.475
0.613 5.956 2.815
0.706 5.945 2.863
0.236 3.280 0.447
0.549 3.541 0.472
0.055 3.335 0.795
0.252 3.500 0.631
0.524 3.582 0.441
0.549 3.855 0.734
0.144 3.536 1.014
0.264 3.669 0.761
0.443 3.699 0.760
0.654 4.007 0.970
0.885 4.179 0.883
0.144 3.737 1.306
0.245 3.895 1.061
0.583 4.022 0.885
0.645 4.138 1.158
0.882 4.200 1.072
0.135 4.088 1.459
0.331 4.196 1.329
0.715 4.112 1.231
0.643 4.441 1.379
0.827 4.588 1.230
1.134 4.610 1.213
0.061 4.177 1.666
0.483 4.299 1.485
0.677 4.371 1.386
0.661 4.591 1.524
0.880 4.773 1.526
1.301 4.815 1.337
0.219 4.351 1.812
0.377 4.444 1.840
0.606 4.660 1.693
0.714 4.847 1.885
1.089 4.853 1.795
1.289 4.907 1.660
1.592 5.144 1.432
0.306 4.660 2.096
0.407 4.681 1.903
0.715 4.818 1.755
0.784 5.004 2.155
1.077 5.020 1.974
1.351 5.096 1.845
1.532 5.338 1.635
1.812 5.436 1.416
2.089 5.533 1.444
0.099 4.715 2.410
0.330 4.695 2.302
0.567 4.966 2.264
0.690 4.971 2.045
0.906 5.113 2.282
1.006 5.308 2.113
1.327 5.311 1.948
1.529 5.490 1.955
1.718 5.505 1.837
2.107 5.572 1.590
2.281 5.859 1.548
0.035 4.890 2.730
0.353 5.075 2.612
0.522 5.118 2.319
0.865 5.189 2.206
0.868 5.346 2.474
1.056 5.466 2.317
1.337 5.527 2.296
1.601 5.675 2.168
1.951 5.850 2.040
2.200 5.868 1.800
2.388 5.899 1.593
0.361 5.228 2.797
0.694 5.389 2.596
0.949 5.312 2.547
0.827 5.613 2.681
1.229 5.649 2.610
1.491 5.785 2.342
1.583 5.894 2.275
1.826 5.907 2.266
2.206 6.079 2.132
2.483 6.178 1.876
0.721 5.595 2.744
0.892 5.663 2.640
0.967 5.744 2.963
1.238 5.944 2.780
1.348 6.031 2.768
1.759 5.998 2.434
1.969 6.264 2.460
2.092 6.269 2.358
0.754 5.726 3.076
1.024 5.893 2.920
0.126 3.251 0.844
0.279 3.446 1.114
0.455 3.393 0.917
0.721 3.692 1.100
0.178 3.666 1.271
0.529 3.675 1.170
0.719 3.768 1.045
0.738 4.088 1.247
1.086 4.173 1.218
-0.040 3.640 1.673
0.300 3.773 1.544
0.589 3.966 1.475
0.804 3.985 1.393
0.857 4.088 1.541
1.112 4.276 1.456
1.434 4.414 1.349
0.026 3.800 1.860
0.284 3.906 1.827
0.628 4.175 1.625
0.872 4.270 1.627
0.933 4.410 1.848
1.075 4.480 1.657
1.371 4.476 1.551
1.509 4.605 1.342
0.024 4.019 2.268
0.447 4.129 2.073
0.572 4.345 1.893
0.834 4.362 1.765
0.978 4.643 1.995
1.060 4.766 1.878
1.319 4.712 1.661
1.625 4.915 1.648
1.815 5.011 1.478
0.072 4.296 2.365
0.430 4.413 2.359
0.681 4.437 2.032
0.906 4.646 1.940
0.951 4.792 2.289
1.144 4.865 2.049
1.482 5.026 2.002
1.619 5.075 1.777
1.929 5.194 1.670
2.183 5.353 1.515
2.422 5.339 1.450
0.164 4.418 2.524
0.437 4.642 2.418
0.773 4.795 2.309
0.993 4.876 2.224
0.889 5.024 2.429
1.225 5.026 2.272
1.485 5.092 2.217
1.677 5.242 2.129
1.958 5.441 1.798
2.127 5.418 1.717
2.449 5.461 1.680
2.825 5.573 1.562
0.345 4.591 2.837
0.513 4.857 2.586
0.825 4.881 2.563
0.986 5.084 2.364
1.084 5.281 2.727
1.309 5.286 2.425
1.484 5.284 2.450
1.743 5.370 2.187
2.077 5.492 2.016
2.262 5.677 2.027
2.510 5.756 1.728
2.837 5.959 1.631
0.535 4.949 2.990
0.773 5.116 2.698
1.093 5.088 2.630
1.023 5.284 2.879
1.311 5.431 2.809
1.666 5.611 2.569
1.731 5.619 2.368
2.132 5.837 2.330
2.262 5.789 2.144
2.630 6.073 2.062
2.858 6.037 1.883
0.730 5.391 3.036
0.975 5.311 2.861
1.197 5.637 3.138
1.387 5.617 3.045
1.639 5.756 2.800
1.795 5.967 2.722
2.019 5.998 2.489
2.353 6.147 2.478
2.615 6.127 2.381
2.889 6.291 2.175
1.151 5.675 3.131
0.047 3.177 1.462
0.474 3.302 1.310
0.213 3.254 1.724
0.477 3.451 1.617
0.577 3.385 1.418
1.040 3.685 1.450
0.283 3.515 1.913
0.482 3.659 1.671
0.676 3.599 1.645
0.980 3.688 1.394
0.908 3.945 1.775
1.168 4.110 1.484
0.166 3.627 2.197
0.511 3.854 2.047
0.694 3.997 1.863
0.898 3.985 1.737
1.045 4.204 1.815
1.183 4.284 1.764
1.614 4.398 1.674
1.748 4.545 1.612
3.958 5.297 0.199
4.197 5.559 0.184
4.497 5.495 0.058
0.098 3.713 2.483
0.337 3.981 2.384
0.489 3.969 2.160
0.699 4.145 2.130
1.097 4.160 1.852
1.014 4.320 2.134
1.276 4.458 1.901
1.501 4.629 1.967
1.763 4.705 1.713
2.098 4.707 1.659
2.292 4.883 1.544
4.255 5.612 0.291
4.560 5.838 0.186
4.897 5.922 0.173
0.090 4.003 2.682
0.427 4.160 2.518
0.594 4.182 2.368
0.733 4.215 2.226
1.129 4.349 2.085
1.071 4.496 2.351
1.368 4.776 2.234
1.519 4.804 2.038
1.757 4.930 2.013
2.031 5.063 1.789
2.268 5.167 1.619
2.519 5.126 1.588
2.753 5.372 1.435
3.008 5.279 1.255
4.601 6.020 0.530
4.784 6.077 0.362
5.003 6.121 0.249
0.069 4.159 2.817
0.308 4.311 2.810
0.559 4.440 2.622
0.922 4.407 2.430
1.178 4.571 2.349
1.082 4.871 2.562
1.408 4.808 2.451
1.620 5.016 2.298
1.898 5.066 2.278
2.106 5.137 2.086
2.312 5.373 1.955
2.705 5.448 1.749
2.866 5.369 1.729
3.246 5.587 1.421
3.365 5.739 1.437
0.187 4.339 3.065
0.363 4.595 2.988
0.688 4.676 2.763
0.936 4.698 2.772
1.048 4.678 2.630
1.186 4.947 2.709
1.473 5.165 2.688
1.609 5.135 2.592
1.934 5.383 2.339
2.259 5.319 2.175
2.349 5.573 2.114
2.601 5.651 2.074
2.922 5.567 1.774
3.092 5.727 1.644
0.769 4.689 3.114
0.950 4.907 2.975
1.264 4.902 2.815
1.244 5.125 2.957
1.567 5.240 2.793
1.693 5.336 2.845
1.910 5.426 2.655
2.255 5.561 2.526
2.461 5.730 2.387
2.656 5.872 2.278
2.930 5.943 2.009
3.166 5.917 1.926
0.922 5.087 3.154
1.128 5.215 2.953
1.227 5.442 3.278
1.604 5.452 3.001
1.759 5.482 3.032
1.980 5.746 2.869
2.185 5.763 2.678
2.446 5.802 2.590
2.694 5.910 2.329
2.991 6.113 2.335
1.237 5.389 3.244
0.013 2.746 1.662
0.238 2.890 1.527
0.109 3.078 2.014
0.241 3.011 1.861
0.596 3.138 1.763
4.139 4.678 -0.048
0.044 3.157 2.228
0.274 3.250 2.099
0.679 3.357 1.969
0.953 3.533 1.728
1.146 3.866 1.921
3.957 4.917 0.314
4.240 4.895 0.205
4.434 4.947 0.036
0.058 3.482 2.304
0.452 3.516 2.185
0.745 3.587 2.227
0.856 3.666 1.896
1.176 3.781 1.827
1.256 3.990 1.993
1.543 4.050 1.981
1.730 4.075 1.811
3.674 4.974 0.798
3.827 4.993 0.617
4.133 5.079 0.500
4.424 5.299 0.306
4.578 5.423 0.099
4.830 5.419 0.120
0.290 3.503 2.580
0.490 3.707 2.412
0.687 3.698 2.357
0.917 3.967 2.179
1.168 4.093 2.116
1.210 4.142 2.313
1.481 4.190 2.121
1.723 4.301 1.922
1.886 4.371 1.934
2.314 4.553 1.668
2.375 4.626 1.728
2.774 4.860 1.427
2.891 4.771 1.444
3.205 4.959 1.252
3.380 5.092 1.078
3.684 5.069 1.025
4.058 5.348 0.890
4.236 5.454 0.682
4.368 5.444 0.552
4.695 5.458 0.407
4.866 5.672 0.187
5.317 5.847 0.110
0.267 3.889 2.775
0.479 3.857 2.607
0.767 3.926 2.551
1.019 4.177 2.473
1.270 4.121 2.361
1.320 4.493 2.446
1.483 4.554 2.321
1.673 4.550 2.251
2.085 4.590 2.131
2.331 4.741 1.966
2.603 4.833 1.874
2.729 5.076 1.726
2.989 5.148 1.579
3.340 5.087 1.507
3.531 5.243 1.363
3.855 5.325 1.135
4.090 5.535 0.960
4.189 5.658 0.991
4.562 5.758 0.788
4.705 5.832 0.729
4.959 5.894 0.577
5.288 5.870 0.263
0.277 3.914 3.138
0.579 4.096 3.019
0.686 4.129 2.746
0.988 4.196 2.542
1.171 4.476 2.440
1.301 4.617 2.700
1.554 4.738 2.656
1.785 4.862 2.457
2.143 4.781 2.233
2.221 4.885 2.091
2.451 5.048 1.987
2.842 5.256 1.956
3.075 5.159 1.868
3.233 5.408 1.557
3.652 5.484 1.540
3.721 5.456 1.471
4.015 5.672 1.171
4.199 5.734 1.148
0.324 4.138 3.177
0.665 4.389 3.201
0.828 4.349 3.087
1.019 4.445 2.805
1.306 4.498 2.826
1.341 4.690 3.046
1.694 4.939 2.849
1.769 4.919 2.641
2.098 5.028 2.520
2.293 5.240 2.413
2.636 5.279 2.260
2.919 5.297 2.131
3.080 5.407 1.926
3.279 5.641 1.820
3.583 5.695 1.828
3.804 5.665 1.711
1.104 4.627 3.139
1.254 4.877 3.024
1.311 5.072 3.139
1.641 4.983 3.112
1.847 5.143 2.850
2.107 5.243 2.698
2.443 5.436 2.722
2.543 5.450 2.491
2.908 5.624 2.313
3.137 5.703 2.187
3.433 5.758 2.091
3.540 5.825 1.880
1.389 5.059 3.163
1.706 5.313 3.317
1.875 5.453 3.172
2.164 5.493 2.903
2.449 5.667 2.915
2.576 5.755 2.612
2.928 5.824 2.656
3.091 5.849 2.433
3.504 5.916 2.276
0.266 2.601 1.893
0.234 2.895 2.030
0.449 2.818 2.038
4.114 4.528 0.217
4.234 4.607 0.109
4.492 4.664 -0.000
0.373 2.959 2.333
0.583 3.134 2.259
0.822 3.289 2.159
3.896 4.554 0.743
4.049 4.686 0.434
4.273 4.654 0.285
4.480 4.878 0.318
4.761 5.001 0.039
0.355 3.178 2.477
0.534 3.279 2.508
0.794 3.471 2.254
1.007 3.502 2.045
1.339 3.697 2.215
3.370 4.623 1.211
3.482 4.725 0.978
3.837 4.792 0.917
4.142 4.894 0.796
4.232 4.850 0.672
4.497 5.058 0.566
4.798 5.229 0.249
5.129 5.189 0.255
5.338 5.298 0.054
0.349 3.383 2.672
0.517 3.402 2.680
0.848 3.574 2.594
1.002 3.613 2.318
1.279 3.853 2.218
1.494 4.054 2.475
1.589 4.111 2.343
1.943 4.118 2.213
2.125 4.213 2.038
2.342 4.400 1.818
2.731 4.508 1.738
2.817 4.521 1.681
3.098 4.720 1.415
3.390 4.856 1.444
3.649 4.958 1.184
3.794 4.962 1.033
4.176 4.982 0.980
4.299 5.102 0.853
4.678 5.198 0.590
4.810 5.393 0.651
5.153 5.503 0.364
5.296 5.608 0.215
0.466 3.672 2.908
0.556 3.730 2.754
0.918 3.853 2.796
1.152 3.821 2.610
1.381 4.053 2.375
1.438 4.104 2.686
1.644 4.222 2.589
2.028 4.471 2.327
2.222 4.501 2.363
2.432 4.552 2.129
2.597 4.596 2.004
2.917 4.733 1.818
3.111 4.786 1.800
3.420 4.914 1.572
3.690 4.983 1.510
3.957 5.195 1.279
4.221 5.229 1.130
4.440 5.339 1.002
4.679 5.503 1.004
4.947 5.619 0.786
5.063 5.653 0.651
5.331 5.751 0.592
0.410 3.687 3.201
0.690 3.912 3.031
1.010 3.917 2.879
1.255 3.981 2.834
1.525 4.103 2.678
1.447 4.344 2.982
1.718 4.460 2.641
1.963 4.606 2.703
2.157 4.649 2.405
2.398 4.705 2.390
2.799 4.953 2.153
3.035 4.999 1.997
3.212 5.133 1.867
3.496 5.189 1.802
3.606 5.340 1.737
4.007 5.365 1.490
4.162 5.467 1.496
4.556 5.659 1.216
4.632 5.712 1.029
5.039 5.715 0.930
1.142 4.373 3.033
1.550 4.463 2.789
1.433 4.520 3.009
1.838 4.756 3.030
2.006 4.761 2.751
2.295 4.890 2.743
2.502 4.896 2.606
2.736 5.012 2.371
2.979 5.196 2.385
3.150 5.185 2.175
3.443 5.316 2.096
3.685 5.557 1.804
3.940 5.660 1.751
4.171 5.698 1.528
4.520 5.746 1.388
1.552 4.572 3.063
1.882 4.865 3.215
1.997 4.974 2.966
2.248 5.049 2.874
2.531 5.241 2.691
2.745 5.257 2.681
2.940 5.353 2.579
3.197 5.401 2.310
3.547 5.656 2.165
3.892 5.749 2.099
3.945 5.711 1.962
2.196 5.229 3.267
2.446 5.335 3.163
2.581 5.276 3.053
2.797 5.447 2.851
3.020 5.614 2.814
3.313 5.762 2.649
3.676 5.778 2.458
3.867 5.862 2.251
0.260 2.429 2.062
4.197 4.073 0.324
4.463 4.106 0.196
0.333 2.544 2.163
0.601 2.771 2.135
4.013 4.234 0.573
4.176 4.301 0.429
4.443 4.417 0.302
4.623 4.524 0.094
4.834 4.626 0.134
0.354 2.895 2.514
0.621 2.975 2.359
3.661 4.365 0.904
4.068 4.397 0.804
4.293 4.433 0.736
4.410 4.467 0.526
4.786 4.645 0.438
5.022 4.843 0.214
5.239 4.842 0.186
5.517 5.003 0.021
0.556 3.010 2.750
0.632 3.029 2.528
0.889 3.115 2.342
3.577 4.293 1.372
3.726 4.415 1.230
4.110 4.546 0.965
4.296 4.666 0.987
4.550 4.844 0.677
4.729 4.847 0.682
4.974 4.910 0.508
5.320 5.007 0.446
5.449 5.178 0.314
0.554 3.281 2.994
0.703 3.401 2.732
1.017 3.369 2.688
2.859 4.312 2.017
3.087 4.355 1.791
3.211 4.521 1.684
3.589 4.579 1.572
3.848 4.751 1.300
4.117 4.852 1.313
4.389 4.893 1.134
4.514 4.933 1.044
4.692 5.031 0.748
5.131 5.117 0.654
5.301 5.315 0.554
5.556 5.359 0.352
0.466 3.406 3.191
0.836 3.408 3.037
1.158 3.655 2.848
2.336 4.264 2.456
2.564 4.364 2.339
2.842 4.579 2.100
3.016 4.658 2.095
3.417 4.610 1.855
3.620 4.791 1.719
3.820 4.929 1.557
4.162 4.881 1.571
4.301 5.148 1.382
4.584 5.199 1.156
4.834 5.199 0.985
5.171 5.275 0.987
5.232 5.475 0.714
5.520 5.594 0.764
0.563 3.644 3.440
2.156 4.270 2.698
2.455 4.455 2.639
2.570 4.589 2.597
2.791 4.745 2.279
3.177 4.868 2.193
3.362 4.801 2.012
3.698 5.054 1.902
3.972 5.107 1.926
4.215 5.084 1.591
4.438 5.300 1.665
4.553 5.300 1.437
4.818 5.432 1.312
5.082 5.484 1.223
2.147 4.641 2.942
2.448 4.600 2.916
2.739 4.679 2.636
2.969 4.895 2.623
3.121 4.862 2.394
3.499 5.080 2.312
3.691 5.113 2.277
3.807 5.320 2.131
4.144 5.363 1.934
4.457 5.545 1.712
4.568 5.497 1.598
2.156 4.714 3.171
2.455 4.920 3.137
2.731 4.969 2.905
2.989 5.035 2.695
3.316 5.254 2.760
3.542 5.235 2.470
3.756 5.401 2.355
3.906 5.480 2.370
4.227 5.473 2.211
4.516 5.755 1.945
2.419 5.114 3.244
2.721 5.200 3.060
2.910 5.214 3.130
3.220 5.320 2.815
3.563 5.563 2.732
3.739 5.662 2.693
3.941 5.636 2.520
4.238 5.783 2.322
4.339 3.692 0.147
4.442 3.675 0.027
4.064 3.831 0.544
4.297 3.903 0.464
4.570 4.025 0.333
4.855 4.107 0.143
0.576 2.456 2.475
4.003 3.896 0.657
4.313 4.039 0.607
4.660 4.154 0.540
4.924 4.318 0.266
5.050 4.294 0.130
5.220 4.382 0.016
0.537 2.504 2.557
3.872 4.122 1.142
4.165 4.109 1.013
4.441 4.236 0.768
4.671 4.459 0.735
4.884 4.385 0.607
5.085 4.503 0.498
5.278 4.643 0.385
5.628 4.655 0.077
0.733 2.802 2.890
0.839 2.962 2.635
3.693 4.267 1.357
3.810 4.235 1.291
4.093 4.392 1.098
4.516 4.391 1.025
4.585 4.561 0.810
4.844 4.541 0.840
5.252 4.656 0.727
5.477 4.737 0.586
5.702 4.881 0.383
0.711 2.917 3.057
3.141 4.147 1.936
3.451 4.162 1.718
3.677 4.392 1.719
3.952 4.383 1.572
4.135 4.507 1.310
4.472 4.728 1.379
4.744 4.708 1.232
4.901 4.876 0.944
5.215 5.000 0.933
5.408 4.997 0.790
5.695 5.071 0.549
0.641 3.110 3.266
2.909 4.235 2.211
3.279 4.427 2.247
3.463 4.493 2.067
3.734 4.667 1.919
3.999 4.681 1.682
4.247 4.780 1.655
4.413 4.889 1.434
4.795 5.025 1.383
4.986 5.051 1.281
5.217 5.106 1.103
5.485 5.191 0.965
5.750 5.287 0.897
2.752 4.411 2.570
2.943 4.401 2.437
3.258 4.474 2.409
3.618 4.702 2.183
3.875 4.867 2.092
4.093 4.885 2.075
4.352 4.942 1.760
4.522 5.043 1.709
4.758 5.228 1.651
5.095 5.348 1.358
5.284 5.292 1.315
2.497 4.425 3.083
2.783 4.663 2.847
2.970 4.582 2.673
3.301 4.666 2.624
3.518 4.811 2.394
3.734 5.029 2.417
4.067 4.991 2.158
4.320 5.062 2.137
4.502 5.186 1.831
4.891 5.375 1.787
5.104 5.554 1.672
2.705 4.682 3.174
2.978 4.783 3.009
3.116 4.761 2.854
3.278 4.914 2.868
3.671 5.167 2.776
3.829 5.134 2.605
4.209 5.308 2.384
4.314 5.392 2.253
4.658 5.459 2.077
4.869 5.588 2.003
2.860 4.949 3.272
3.053 5.011 3.067
3.477 5.097 3.141
3.561 5.359 2.972
3.972 5.374 2.738
4.187 5.451 2.695
4.377 5.461 2.476
4.570 5.744 2.457
5.417 6.206 0.059
5.443 5.745 -0.048
5.529 6.117 0.311
5.784 6.172 0.193
5.652 6.200 0.365
5.580 5.632 0.218
5.920 5.688 0.125
5.674 5.910 0.470
5.856 5.845 0.309
6.111 5.969 0.178
5.822 5.318 0.135
5.763 5.431 0.254
6.092 5.431 0.130
6.297 5.730 0.112
5.819 5.595 0.641
5.801 4.844 0.024
5.987 4.984 0.235
5.998 5.248 0.512
1.374 0.195 3.179
0.678 -0.041 3.658
0.922 0.205 3.491
1.218 0.116 3.561
1.450 0.398 3.351
0.861 0.225 4.019
1.050 0.336 3.836
1.311 0.298 3.736
1.564 0.388 3.630
1.060 0.487 4.005
1.331 0.554 3.850
1.626 0.603 3.663
1.601 0.003 3.429
1.288 0.000 3.908
1.379 0.106 3.904
1.721 0.334 3.654
1.602 0.417 4.035
1.729 0.508 4.007
1.818 0.017 3.889
1.667 0.247 4.316
2.002 0.301 4.081
2.039 0.125 4.191
2.065 0.286 4.516
2.291 0.100 4.513
2.520 -0.008 4.963
2.765 0.106 5.346
2.810 0.002 5.657
3.088 0.113 6.057
0.180 1.593 2.456
0.383 1.803 2.336
0.242 1.790 2.542
0.341 1.818 2.421
0.251 1.925 2.820
0.470 2.157 2.630
-0.045 2.040 3.275
0.199 2.278 3.090
0.440 2.315 2.897
0.156 2.226 3.453
0.298 2.335 3.170
0.480 2.451 3.064
0.118 2.420 3.577
0.448 2.589 3.423
0.596 2.607 3.261
0.095 2.732 3.900
0.458 2.850 3.779
0.556 2.866 3.595
0.117 2.929 4.010
0.419 2.965 4.032
-0.088 1.170 2.474
0.204 1.194 2.296
0.105 1.219 2.663
0.200 1.439 2.618
0.536 1.423 2.478
0.096 1.588 2.816
0.307 1.696 2.858
0.532 1.779 2.616
0.153 1.634 3.211
0.301 1.745 2.992
0.708 1.911 2.748
0.226 1.926 3.230
0.490 2.049 3.178
0.639 2.135 3.174
0.230 2.144 3.541
0.530 2.151 3.532
0.617 2.304 3.393
-0.086 2.198 3.970
0.273 2.239 3.832
0.514 2.383 3.556
0.737 2.449 3.517
0.029 2.494 4.039
0.386 2.556 4.072
0.628 2.559 3.826
0.158 2.674 4.249
0.322 2.599 4.162
0.176 2.844 4.561
0.005 0.482 2.261
0.203 0.596 2.306
0.426 0.717 2.208
0.233 0.915 2.615
0.408 1.073 2.407
0.579 1.102 2.345
0.292 1.095 2.828
0.520 1.274 2.794
0.723 1.273 2.600
0.089 1.197 3.291
0.281 1.203 2.986
0.409 1.478 2.844
0.739 1.536 2.853
-0.061 1.412 3.301
0.306 1.485 3.366
0.500 1.506 3.082
0.687 1.604 2.959
0.022 1.602 3.691
0.363 1.692 3.554
0.471 1.730 3.293
0.822 1.986 3.217
0.149 1.787 3.894
0.301 1.837 3.765
0.684 2.032 3.600
0.944 2.136 3.480
0.220 1.933 4.031
0.455 2.122 3.822
0.620 2.199 3.741
0.154 2.132 4.185
0.420 2.340 4.221
0.285 2.349 4.602
0.047 2.431 4.950
0.202 0.117 2.002
0.034 0.204 2.446
0.303 0.347 2.228
0.416 0.321 2.124
0.043 0.352 2.583
0.236 0.421 2.558
0.539 0.579 2.462
0.763 0.639 2.266
0.142 0.635 2.975
0.305 0.812 2.794
0.604 0.902 2.540
0.894 0.859 2.401
0.039 0.898 3.181
0.445 0.958 3.095
0.513 1.070 2.816
0.760 0.995 2.825
0.129 1.096 3.243
0.367 1.002 3.310
0.605 1.274 3.121
0.992 1.331 2.940
0.253 1.283 3.517
0.432 1.227 3.480
0.715 1.335 3.363
0.847 1.445 3.239
0.161 1.401 3.717
0.529 1.597 3.546
0.684 1.627 3.455
0.967 1.800 3.445
0.097 1.417 4.199
0.324 1.509 4.006
0.458 1.633 3.881
0.672 1.875 3.836
-0.012 1.741 4.349
0.400 1.885 4.124
0.106 2.858 5.872
0.688 0.026 2.045
0.166 0.063 2.606
0.413 0.065 2.454
0.596 0.295 2.361
0.817 0.285 2.183
0.242 0.298 2.910
0.392 0.394 2.612
0.746 0.342 2.483
1.022 0.491 2.434
0.224 0.413 3.047
0.516 0.580 2.980
0.813 0.633 2.727
0.971 0.708 2.576
0.018 0.431 3.308
0.190 0.517 3.299
0.531 0.661 3.098
0.866 0.754 3.097
1.083 0.839 2.839
-0.017 0.643 3.695
0.384 0.751 3.454
0.503 0.869 3.253
0.741 1.095 3.253
1.007 1.193 3.116
0.125 0.867 3.904
0.362 0.980 3.785
0.705 1.147 3.602
0.781 1.194 3.476
1.011 1.334 3.230
0.154 1.192 4.132
0.375 1.138 3.853
0.623 1.266 3.780
0.892 1.314 3.609
0.366 1.485 4.074
0.839 -0.067 2.441
1.042 0.094 2.415
0.464 0.029 2.968
0.514 -0.001 2.748
0.797 0.173 2.668
1.040 0.390 2.541
0.048 0.044 3.292
0.398 0.119 3.169
0.583 0.228 3.079
0.831 0.320 2.973
1.058 0.527 2.861
0.126 0.214 3.569
0.356 0.472 3.517
0.648 0.411 3.280
0.989 0.678 3.149
1.103 0.640 3.072
0.314 0.610 3.857
0.515 0.528 3.707
0.768 0.659 3.484
1.011 0.816 3.294
1.148 0.935 3.266
0.204 0.666 4.015
0.432 0.751 3.881
0.798 0.897 3.812
1.111 1.085 3.535
1.224 1.017 3.512
0.524 1.005 4.069
0.857 1.022 3.976
0.980 1.206 3.708
1.192 0.123 2.668
0.488 0.017 3.270
0.857 0.151 3.182
0.968 0.189 3.113
1.352 0.391 2.969
0.083 0.030 3.815
0.445 0.158 3.655
0.614 0.267 3.589
0.786 0.236 3.404
1.019 0.492 3.314
1.324 0.482 3.139
0.427 0.311 3.975
0.648 0.299 3.769
0.852 0.586 3.645
1.101 0.629 3.502
1.297 0.643 3.410
0.587 0.544 4.110
0.827 0.597 3.949
1.193 0.839 3.822
1.429 0.928 3.660
1.553 0.127 3.018
0.821 -0.093 3.695
0.925 0.121 3.603
1.261 0.133 3.549
1.536 0.232 3.307
0.851 0.135 4.055
1.147 0.229 3.747
1.349 0.374 3.627
1.476 0.595 3.518
1.017 0.510 3.977
1.389 0.664 4.002
1.589 0.710 3.858
5.997 4.534 0.197
0.881 6.272 2.890
1.006 6.229 2.897
0.619 6.150 3.087
0.829 6.256 2.989
0.741 6.190 3.081
1.124 6.271 2.866
0.512 6.174 3.192
0.885 6.105 2.960
1.004 5.926 3.164
1.220 6.003 3.108
1.509 6.110 2.825
1.748 6.187 2.825
0.944 5.941 3.085
0.996 6.208 3.471
1.344 6.207 3.133
1.022 6.230 3.326
1.027 6.056 3.068
1.144 5.994 3.071
1.466 6.179 2.787
1.824 6.267 2.832
0.971 6.057 3.174
1.046 5.793 3.269
1.411 5.826 3.129
1.739 5.949 2.962
1.984 6.015 2.811
2.199 6.118 2.850
2.477 6.234 2.544
1.083 5.687 3.228
1.488 6.031 3.314
1.654 6.128 3.305
1.947 6.192 3.175
1.204 5.755 3.394
1.407 5.988 3.133
1.596 6.055 3.033
1.963 6.147 2.987
2.079 6.244 2.777
2.384 6.359 2.657
1.179 5.808 3.302
1.545 5.748 3.276
1.809 5.849 3.193
2.132 5.963 2.953
2.274 6.034 2.979
2.560 6.029 2.886
2.748 6.256 2.593
3.128 6.174 2.550
1.750 5.900 3.356
1.998 6.096 3.276
2.278 6.130 3.030
2.700 6.336 3.006
1.540 5.761 3.332
1.715 5.702 3.123
2.083 5.964 3.127
2.399 6.006 2.851
2.454 6.017 2.789
2.900 6.091 2.713
3.060 6.345 2.534
2.039 5.631 3.429
2.158 5.591 3.212
2.373 5.701 3.065
2.706 5.786 2.831
2.922 5.980 2.857
3.274 6.028 2.645
2.590 6.020 3.242
2.838 6.047 3.139
2.908 6.166 3.122
1.877 5.680 3.309
2.197 5.777 3.141
2.493 5.758 2.965
2.755 5.941 2.836
2.904 5.866 2.693
3.274 5.979 2.764
2.488 5.482 3.275
2.724 5.552 3.153
2.847 5.727 2.992
3.051 5.815 2.893
3.447 5.802 2.720
3.668 6.066 2.694
2.911 5.789 3.248
3.246 5.947 3.132
3.348 6.081 3.148
2.410 5.383 3.386
2.539 5.482 3.283
2.919 5.568 3.146
3.025 5.825 3.011
3.293 5.891 2.722
3.710 6.030 2.709
2.793 5.333 3.333
3.026 5.496 3.301
3.190 5.508 3.172
3.472 5.733 3.012
3.769 5.792 2.837
4.098 5.789 2.755
3.104 5.701 3.534
3.381 5.801 3.423
3.644 5.763 3.162
3.793 5.936 3.116
2.881 5.294 3.317
2.945 5.572 3.342
3.224 5.640 3.025
3.608 5.625 3.057
3.830 5.747 2.847
4.006 5.920 2.657
2.995 5.128 3.510
3.243 5.345 3.496
3.541 5.417 3.278
3.760 5.404 3.129
3.911 5.624 3.045
4.208 5.553 2.770
4.457 5.711 2.647
3.241 5.388 3.614
3.578 5.497 3.586
3.817 5.628 3.241
3.961 5.751 3.212
4.251 5.897 3.157
3.791 5.835 3.568
3.985 5.963 3.456
2.856 5.247 3.524
3.095 5.359 3.338
3.512 5.447 3.198
3.643 5.553 3.231
3.921 5.499 2.992
4.153 5.587 2.833
4.510 5.861 2.830
0.000 3.013 6.097
0.238 3.135 6.178
0.023 3.041 6.053
0.184 2.753 6.235
0.312 2.815 6.177
4.068 3.528 4.929
4.159 3.487 4.645
4.541 3.606 4.693
4.716 3.686 4.507
4.882 3.751 4.402
5.140 3.869 4.234
3.829 3.628 5.257
4.127 3.660 5.156
4.208 3.833 4.934
4.476 3.847 4.918
4.750 3.882 4.613
5.037 4.061 4.637
5.359 4.244 4.357
5.618 4.201 4.224
3.672 3.590 5.679
3.851 3.778 5.430
4.141 3.836 5.322
4.317 3.997 5.285
4.494 4.127 5.032
4.824 4.104 5.003
5.074 4.288 4.867
5.214 4.408 4.561
5.625 4.501 4.433
5.891 4.479 4.492
3.465 3.743 5.940
3.536 3.819 5.897
3.870 3.965 5.695
4.139 4.115 5.489
4.252 4.098 5.495
4.529 4.320 5.252
4.870 4.458 5.071
5.198 4.447 5.044
5.284 4.513 4.813
5.543 4.626 4.822
5.796 4.651 4.569
6.029 4.828 4.390
3.350 3.688 6.018
3.349 3.959 6.206
3.686 4.127 6.136
3.919 4.072 5.843
4.157 4.300 5.856
4.486 4.400 5.583
4.738 4.384 5.388
4.962 4.483 5.452
5.233 4.595 5.197
5.343 4.705 5.151
5.744 4.767 4.939
5.939 4.938 4.848
6.204 5.089 4.635
3.493 3.911 6.078
3.766 4.308 6.339
4.039 4.406 6.079
4.291 4.396 5.969
4.434 4.608 5.812
4.717 4.764 5.702
4.951 4.660 5.581
5.184 4.906 5.362
5.523 4.844 5.218
5.749 4.958 5.070
5.906 5.227 5.032
6.123 5.284 4.870
4.262 4.640 6.226
4.573 4.826 6.023
4.668 4.788 5.866
5.064 4.925 5.727
5.162 5.100 5.644
5.407 5.076 5.449
5.673 5.331 5.484
6.011 5.330 5.172
6.218 5.410 5.058
5.748 5.455 5.614
6.105 5.567 5.573
6.289 5.750 5.387
3.936 3.416 4.829
4.292 3.582 4.780
4.377 3.675 4.537
4.668 3.686 4.521
4.998 3.849 4.383
5.248 3.927 4.110
3.886 3.251 5.142
4.196 3.167 5.097
4.346 3.470 4.950
4.740 3.464 4.768
4.844 3.566 4.666
5.191 3.634 4.483
3.692 3.194 5.436
3.915 3.283 5.385
4.273 3.438 5.172
4.373 3.469 5.085
4.747 3.751 4.974
4.866 3.786 4.779
5.265 3.760 4.706
5.446 3.865 4.628
3.534 3.394 5.957
3.712 3.484 5.683
4.047 3.645 5.523
4.181 3.639 5.581
4.436 3.676 5.303
4.644 3.909 5.226
5.014 3.962 5.044
5.275 4.050 4.833
5.389 4.226 4.702
5.792 4.227 4.574
3.496 3.376 5.844
3.434 3.540 6.184
3.810 3.752 5.892
3.921 3.857 5.730
4.317 3.877 5.644
4.502 3.950 5.478
4.706 4.041 5.366
5.003 4.251 5.258
5.259 4.339 5.068
5.444 4.387 5.103
5.809 4.474 4.974
3.276 3.384 6.335
3.575 3.500 6.120
3.852 3.976 6.099
4.111 4.015 6.005
4.374 4.058 5.891
4.596 4.144 5.883
4.723 4.292 5.676
4.964 4.254 5.454
5.257 4.513 5.468
5.658 4.636 5.297
5.762 4.643 5.047
6.025 4.689 4.896
3.998 4.058 6.349
4.278 4.233 6.208
4.545 4.293 5.993
4.913 4.455 5.904
5.185 4.490 5.637
5.379 4.641 5.570
5.563 4.782 5.392
5.937 4.788 5.239
6.202 5.023 5.090
4.573 4.498 6.113
4.904 4.722 6.112
5.160 4.710 6.037
6.231 5.089 5.449
3.954 3.180 5.176
4.059 3.357 4.952
4.348 3.284 5.001
4.663 3.568 4.743
4.868 3.550 4.726
5.154 3.628 4.591
3.798 2.786 5.513
4.064 2.872 5.223
4.245 3.138 5.178
4.466 3.081 5.152
4.766 3.192 5.009
5.127 3.446 4.741
3.676 2.869 5.743
3.956 3.035 5.653
4.042 3.160 5.595
4.312 3.360 5.325
4.562 3.395 5.206
4.908 3.424 5.146
5.130 3.618 5.079
5.315 3.705 4.800
3.535 2.972 5.825
3.536 3.186 6.089
3.963 3.175 5.968
4.098 3.375 5.769
4.370 3.402 5.573
4.559 3.474 5.428
4.966 3.688 5.340
5.177 3.831 5.156
5.288 3.795 5.148
5.664 3.863 5.058
3.364 2.990 6.093
3.645 3.213 6.101
3.643 3.264 6.192
3.996 3.539 6.085
4.214 3.602 5.991
4.353 3.651 5.760
4.721 3.818 5.820
5.001 3.909 5.561
5.074 3.988 5.476
5.450 4.046 5.303
5.673 4.059 5.218
3.597 3.432 6.196
4.203 3.802 6.201
4.558 3.756 6.169
4.619 4.056 5.895
5.047 4.127 5.746
5.327 4.190 5.755
5.526 4.332 5.604
5.651 4.295 5.292
4.829 4.228 6.067
5.112 4.169 5.984
5.254 4.263 5.951
5.472 4.559 5.809
5.158 4.375 6.165
3.870 2.873 5.547
4.134 3.049 5.239
4.277 3.093 5.245
4.568 3.164 4.999
4.743 3.285 4.985
5.061 3.358 4.817
3.681 2.670 5.855
4.042 2.715 5.524
4.294 2.780 5.470
4.542 2.905 5.380
4.786 2.969 5.277
5.000 3.152 4.986
5.237 3.265 4.850
3.721 2.650 5.773
3.787 2.824 5.875
4.115 2.860 5.859
4.217 2.951 5.695
4.503 3.042 5.509
4.667 3.084 5.406
4.956 3.290 5.248
5.206 3.415 5.238
5.560 3.463 5.020
3.442 2.734 6.194
3.737 2.710 5.913
3.801 2.923 6.156
3.977 3.045 6.031
4.271 3.222 5.951
4.449 3.307 5.704
4.859 3.463 5.571
5.054 3.445 5.505
5.391 3.607 5.397
5.648 3.637 5.176
3.759 2.961 6.259
4.124 3.225 6.193
4.353 3.359 6.033
4.496 3.516 6.002
4.878 3.652 5.945
5.030 3.713 5.663
5.328 3.726 5.597
5.508 3.760 5.377
4.539 3.752 6.290
4.834 3.712 6.103
5.180 3.888 6.007
5.433 4.049 5.779
5.224 4.161 6.133
3.717 2.537 5.759
3.917 2.574 5.596
4.249 2.682 5.490
4.489 2.952 5.241
4.809 2.990 5.251
4.970 3.106 5.040
5.270 3.058 4.909
3.797 2.495 5.646
3.924 2.372 5.954
4.204 2.459 5.769
4.316 2.520 5.536
4.541 2.623 5.455
4.844 2.749 5.435
5.101 2.945 5.234
5.309 3.057 5.137
3.944 2.468 5.898
3.822 2.572 6.216
4.089 2.711 5.963
4.510 2.689 5.801
4.704 2.763 5.768
4.988 2.993 5.575
5.187 3.158 5.535
5.524 3.247 5.420
3.783 2.555 6.325
4.023 2.535 6.188
4.304 2.948 6.270
4.447 2.896 6.104
4.806 2.999 5.923
4.970 3.080 5.784
5.218 3.274 5.668
5.567 3.394 5.446
4.826 3.234 6.200
4.997 3.364 5.942
5.323 3.494 5.963
5.457 3.506 5.733
5.083 3.487 6.342
5.250 3.722 6.174
3.926 2.366 5.909
4.231 2.571 5.795
4.481 2.538 5.605
4.571 2.640 5.428
4.811 2.657 5.466
5.111 2.777 5.154
5.369 2.881 5.024
3.819 2.461 5.981
3.995 2.228 5.972
4.301 2.291 5.935
4.563 2.333 5.788
4.854 2.482 5.645
5.111 2.538 5.415
5.272 2.633 5.362
5.507 2.811 5.185
3.736 2.001 6.251
4.011 2.234 6.051
4.080 2.416 6.253
4.282 2.506 6.160
4.488 2.505 6.027
4.871 2.650 5.889
5.019 2.699 5.720
5.282 2.794 5.669
5.607 2.887 5.463
4.076 2.416 6.341
4.605 2.668 6.136
4.933 2.762 6.113
5.150 2.967 6.023
5.422 3.123 5.755
5.728 3.080 5.705
5.212 3.059 6.124
5.337 3.246 6.027
3.952 2.220 6.023
4.308 2.377 6.000
4.610 2.303 5.772
4.816 2.566 5.556
4.985 2.596 5.469
5.237 2.619 5.277
5.580 2.780 5.338
3.739 2.005 6.118
4.072 2.068 6.051
4.223 2.021 6.272
4.408 2.026 6.035
4.759 2.093 5.960
4.879 2.206 5.809
5.291 2.306 5.742
5.476 2.354 5.566
5.721 2.590 5.452
4.115 1.946 6.294
4.753 2.295 6.219
5.058 2.389 6.061
5.181 2.549 5.839
5.558 2.656 5.738
5.839 2.741 5.714
4.947 2.635 6.329
5.377 2.764 6.033
5.583 2.848 5.980
4.168 2.041 6.202
4.478 2.173 6.094
4.764 2.078 5.849
4.853 2.305 5.911
5.143 2.280 5.664
5.403 2.388 5.475
5.686 2.504 5.460
4.185 2.041 6.213
4.698 1.832 6.291
4.817 1.897 6.188
5.149 2.083 5.936
5.275 2.117 5.821
5.704 2.244 5.744
5.956 2.462 5.611
5.096 2.348 6.284
5.306 2.278 6.092
5.611 2.432 5.817
5.420 2.457 6.249
5.610 2.713 6.074
4.684 1.850 6.219
4.876 1.905 6.135
5.189 2.000 5.961
5.281 2.154 5.861
5.593 2.241 5.781
5.873 2.301 5.646
5.068 1.737 6.311
5.302 1.849 6.024
5.583 2.023 5.884
5.727 2.016 5.887
6.069 2.049 5.808
5.657 2.175 6.294
5.903 2.336 6.044
5.029 1.774 6.339
5.337 1.877 6.018
5.577 1.877 6.059
5.834 2.009 5.862
5.979 2.131 5.780
5.395 1.571 6.339
5.637 1.652 6.027
5.900 1.962 5.923
6.288 1.953 5.904
6.049 2.062 6.168
5.467 1.744 6.325
5.758 1.738 6.029
5.874 1.827 5.966
6.231 2.041 5.877
5.902 1.491 6.184
6.118 1.643 6.167
5.802 1.497 6.344
6.064 1.717 6.100
3.100 4.975 3.676
3.298 5.053 3.590
3.556 5.225 3.442
3.838 5.196 3.219
4.117 5.389 3.233
4.331 5.432 3.026
4.604 5.597 2.915
4.874 5.606 2.684
3.382 5.284 3.715
3.628 5.456 3.548
3.941 5.523 3.422
4.074 5.572 3.390
4.410 5.568 3.333
4.585 5.823 3.149
3.714 5.559 3.771
3.910 5.751 3.722
4.143 5.795 3.565
4.407 5.811 3.426
4.772 6.048 3.380
4.293 5.869 3.776
4.436 5.990 3.761
3.019 5.000 3.720
3.353 4.988 3.444
3.582 5.183 3.306
3.767 5.350 3.339
4.086 5.296 3.073
4.285 5.454 3.087
4.658 5.546 2.907
4.960 5.756 2.674
3.514 4.936 3.710
3.709 4.960 3.628
3.974 5.005 3.456
4.195 5.235 3.285
4.509 5.277 3.058
4.785 5.271 3.116
4.993 5.509 2.797
3.538 5.091 3.885
3.880 5.211 3.830
4.128 5.208 3.678
4.280 5.332 3.622
4.506 5.353 3.321
4.790 5.604 3.214
4.958 5.647 3.092
3.541 5.177 4.224
3.796 5.334 3.988
4.164 5.394 3.877
4.374 5.528 3.649
4.645 5.651 3.562
4.839 5.756 3.524
5.201 5.762 3.301
4.000 5.657 4.240
4.136 5.709 4.191
4.429 5.776 3.921
4.630 5.842 3.764
4.838 5.931 3.626
5.079 6.129 3.454
4.494 5.948 4.130
4.702 6.134 4.143
5.023 6.054 3.854
5.267 6.286 3.676
4.619 6.351 4.172
3.444 4.832 3.697
3.855 4.879 3.496
3.953 5.080 3.533
4.234 5.161 3.266
4.523 5.151 3.223
4.806 5.398 3.076
5.106 5.370 2.875
3.694 4.598 3.749
3.899 4.752 3.765
4.079 4.753 3.664
4.470 4.901 3.502
4.605 5.034 3.249
5.019 5.214 3.242
5.281 5.314 3.151
3.683 4.832 4.104
3.867 4.964 3.848
4.221 5.096 3.767
4.503 5.188 3.681
4.699 5.301 3.598
4.997 5.319 3.454
5.165 5.400 3.291
3.672 5.124 4.216
4.010 5.088 4.226
4.266 5.231 4.054
4.475 5.434 3.928
4.852 5.384 3.828
4.921 5.526 3.654
5.159 5.678 3.537
3.835 5.174 4.460
3.951 5.462 4.326
4.251 5.498 4.333
4.609 5.458 4.066
4.884 5.574 3.874
4.966 5.834 3.825
5.351 5.767 3.739
5.450 5.948 3.657
4.170 5.526 4.512
4.280 5.625 4.451
4.553 5.661 4.248
4.758 5.822 4.245
5.147 5.967 3.983
5.271 6.062 3.847
5.503 6.119 3.853
4.476 5.835 4.698
4.731 5.990 4.588
4.788 6.118 4.350
5.200 6.073 4.324
5.472 6.284 4.244
4.762 6.142 4.776
4.997 6.172 4.674
3.612 4.736 3.945
3.841 4.782 3.757
4.268 4.900 3.549
4.415 4.922 3.515
4.623 4.952 3.342
4.861 5.143 3.237
5.117 5.198 3.104
3.756 4.377 3.960
3.997 4.466 3.836
4.444 4.702 3.768
4.566 4.803 3.526
4.869 4.786 3.554
5.134 4.982 3.254
5.354 4.968 3.128
3.557 4.651 4.320
