1.572 4.991 0.096
1.596 5.448 0.030
1.649 5.597 0.289
2.191 5.959 -0.036
1.338 4.806 0.157
1.425 5.111 0.302
1.790 5.167 -0.034
1.899 5.309 0.240
1.676 5.792 0.093
1.101 0.037 6.166
1.057 0.681 6.108
1.517 0.169 6.110
1.510 0.646 6.129
1.673 0.801 6.036
1.657 1.176 6.106
1.794 0.410 6.005
1.914 0.687 6.064
1.694 0.811 5.884
0.609 0.149 6.360
0.841 0.303 6.164
0.665 0.579 6.252
0.904 0.943 6.335
0.794 1.167 6.273
0.999 1.933 6.261
1.127 0.240 5.939
1.143 0.548 5.853
1.131 0.891 6.010
1.123 1.167 6.209
1.051 1.434 6.189
1.026 1.976 6.154
1.152 0.245 5.685
1.161 0.504 5.691
1.430 1.066 5.746
1.414 1.241 5.852
1.389 1.440 6.005
1.437 0.187 5.522
1.522 0.661 5.525
1.679 1.016 5.864
1.576 1.343 5.914
0.116 0.266 6.140
0.102 0.665 6.114
-0.034 0.916 6.405
0.227 1.851 6.238
0.295 0.203 5.893
0.218 0.570 5.943
0.312 1.046 6.082
0.468 1.205 6.015
0.489 1.497 6.270
0.273 2.124 6.224
0.860 1.998 6.229
0.544 2.135 6.153
0.721 -0.040 5.683
0.528 0.423 5.913
0.745 0.703 5.862
0.712 1.013 5.724
0.801 1.357 5.913
0.597 1.573 5.883
0.674 1.786 6.102
0.932 1.783 5.830
0.959 2.430 6.175
0.725 -0.024 5.755
0.835 0.173 5.664
0.989 0.654 5.557
1.081 0.931 5.865
1.099 1.290 5.758
1.007 1.749 5.874
1.008 1.846 5.908
1.080 1.986 5.840
1.039 0.206 5.466
1.319 0.497 5.348
1.217 0.759 5.694
1.355 0.958 5.679
1.381 1.341 5.665
1.411 1.499 5.894
1.331 1.869 5.696
1.411 0.511 5.361
1.352 0.686 5.204
1.301 0.832 5.250
1.438 1.199 5.431
1.698 1.491 5.380
1.751 0.851 5.107
0.379 1.850 5.811
0.202 2.433 6.195
0.337 2.664 6.120
0.251 0.436 5.569
-0.023 0.642 5.774
0.249 1.151 5.686
0.170 1.363 5.949
0.245 1.520 5.724
0.366 2.090 5.780
0.704 1.867 5.787
0.359 2.186 5.785
0.532 0.042 5.466
0.235 0.453 5.605
0.621 0.604 5.625
0.562 1.100 5.643
0.496 1.207 5.636
0.390 1.655 5.559
0.549 2.178 5.946
0.910 1.912 5.649
0.947 2.403 5.556
0.602 0.090 5.142
0.702 0.398 5.374
0.620 0.552 5.579
0.625 0.907 5.354
0.934 1.496 5.567
0.922 1.550 5.748
0.887 1.996 5.688
1.270 2.131 5.502
0.999 0.234 5.164
1.034 0.850 5.403
1.056 1.030 5.345
0.991 1.533 5.541
1.011 1.573 5.404
1.233 1.851 5.504
1.515 1.997 5.298
1.475 0.240 5.162
1.227 0.795 5.138
1.289 1.008 5.312
1.306 1.410 5.385
1.244 1.905 5.340
1.408 1.935 5.304
1.667 0.775 4.918
1.639 0.992 4.858
1.817 1.302 4.954
1.532 1.715 5.085
1.975 1.258 4.931
-0.062 2.073 5.767
0.004 2.385 5.736
0.214 2.882 5.630
-0.083 1.051 5.371
0.000 1.478 5.690
-0.046 1.923 5.575
0.233 2.204 5.867
0.479 1.919 5.637
0.281 2.354 5.420
0.126 0.500 5.296
0.429 0.683 5.375
0.116 0.967 5.526
0.507 1.364 5.538
0.169 1.566 5.598
0.360 2.035 5.483
0.770 1.918 5.514
0.750 2.324 5.330
0.619 0.644 5.174
0.489 0.683 5.246
0.572 1.064 5.300
0.464 1.627 5.192
0.482 1.916 5.483
0.615 2.050 5.296
1.029 2.236 5.207
0.832 0.407 4.841
0.824 0.629 5.147
1.020 1.171 5.028
0.842 1.397 4.963
0.754 1.635 5.086
1.082 2.134 5.363
1.334 2.073 5.112
1.069 0.527 4.710
1.002 0.679 4.765
1.137 1.266 5.036
1.114 1.619 4.841
1.056 1.813 4.996
1.146 2.193 5.031
1.540 2.247 4.727
1.455 0.450 4.544
1.418 0.694 4.572
1.486 1.204 4.771
1.588 1.449 4.857
1.550 1.720 4.769
1.337 2.246 5.042
1.996 1.952 4.822
1.830 0.877 4.524
1.745 1.252 4.630
1.923 1.329 4.713
1.775 1.821 4.712
1.738 2.286 4.653
2.168 2.235 4.418
2.177 1.421 4.509
1.923 1.876 4.678
2.081 2.249 4.426
0.127 1.991 5.386
0.293 2.516 5.136
0.129 0.856 5.106
0.311 0.979 5.235
0.211 1.404 5.273
0.321 1.718 5.317
0.047 2.243 5.267
0.543 1.966 5.107
0.348 0.622 4.736
0.273 0.681 4.685
0.599 1.084 4.781
0.275 1.656 4.856
0.382 1.707 4.918
0.437 2.091 5.199
0.899 2.230 4.732
0.689 0.524 4.595
0.737 1.029 4.544
0.546 1.166 4.644
0.843 1.565 4.854
0.917 1.788 4.821
0.617 2.019 5.085
1.018 2.035 4.627
0.866 0.737 4.351
0.805 0.921 4.585
1.109 1.330 4.620
1.103 1.351 4.584
0.946 1.788 4.690
1.190 2.236 4.671
1.508 2.169 4.750
1.242 2.527 4.813
1.414 0.612 4.113
1.451 0.781 4.539
1.126 1.083 4.493
1.501 1.365 4.303
1.208 2.028 4.362
1.349 2.295 4.472
1.821 2.082 4.540
1.569 2.481 4.413
1.402 0.781 4.022
1.678 1.227 4.288
1.606 1.486 4.416
1.799 2.028 4.512
1.719 2.265 4.415
2.073 2.113 4.096
1.978 2.375 4.329
1.765 0.739 3.868
1.853 1.097 4.192
1.863 1.592 4.158
1.824 1.788 4.210
1.892 2.386 4.375
0.190 1.569 4.839
-0.062 1.734 5.062
0.157 2.120 4.646
0.264 1.078 4.683
0.268 1.118 4.494
0.297 1.608 4.622
0.278 1.762 4.748
0.282 2.223 4.653
0.561 2.413 4.536
0.572 0.779 4.148
0.497 0.893 4.462
0.509 1.416 4.279
0.648 1.701 4.634
0.486 1.801 4.668
0.770 2.415 4.793
0.890 2.400 4.310
0.650 0.510 4.349
0.959 0.872 4.420
0.911 1.414 4.296
0.835 1.743 4.253
0.893 1.855 4.594
0.867 2.326 4.373
1.117 2.102 4.154
1.401 2.521 4.212
1.282 0.531 4.075
1.142 1.008 4.082
1.083 1.149 4.080
1.272 1.645 4.141
1.333 1.797 4.443
1.387 2.065 4.243
1.492 2.091 4.247
1.570 2.739 4.339
1.511 0.827 4.020
1.315 0.877 3.876
1.537 1.186 4.034
1.574 1.677 4.100
1.339 1.763 4.219
1.670 2.147 4.317
1.891 2.328 4.149
1.685 2.702 4.088
1.872 2.804 4.086
1.588 0.537 3.821
1.686 0.884 3.917
1.814 1.420 3.693
1.634 1.738 3.925
1.662 1.786 3.991
1.727 2.323 3.917
0.113 1.115 4.367
0.252 1.211 4.470
0.317 1.750 4.436
0.174 2.128 4.429
0.346 0.710 4.231
0.412 1.089 4.245
0.430 1.194 4.305
0.264 1.819 4.202
0.541 1.939 4.323
0.876 2.304 4.232
0.649 0.343 3.798
0.475 0.517 3.828
0.632 0.983 4.110
0.722 1.425 4.057
0.820 1.779 4.120
0.611 1.823 3.973
0.678 2.326 4.050
1.143 2.206 3.878
1.216 2.676 4.216
0.976 0.251 3.790
1.125 0.749 3.551
0.867 1.042 3.742
0.923 1.427 3.747
0.861 1.573 3.768
1.107 2.035 4.110
0.886 2.216 4.107
1.371 2.237 3.809
1.214 2.499 3.986
1.508 3.125 4.083
1.025 0.191 3.514
1.289 0.834 3.409
1.210 1.025 3.653
1.386 1.315 3.661
1.427 1.686 3.902
1.350 1.844 3.625
1.146 2.384 3.842
1.546 2.509 3.622
1.546 2.633 3.717
1.775 3.105 3.959
1.638 3.257 3.926
1.662 0.437 3.247
1.458 0.535 3.551
1.394 0.872 3.598
1.641 1.241 3.368
1.525 1.550 3.683
1.495 2.021 3.652
1.515 2.452 3.802
0.066 0.769 3.832
0.261 0.934 3.940
0.432 1.242 3.938
0.366 1.742 3.810
0.413 0.418 3.650
0.486 0.739 3.483
0.649 1.133 3.740
0.419 1.333 3.556
0.644 1.787 3.725
0.446 2.073 3.763
0.764 2.503 3.777
0.660 0.171 3.340
0.631 0.616 3.336
0.950 0.844 3.485
0.762 1.256 3.466
0.735 1.270 3.684
0.799 1.702 3.690
0.702 2.015 3.626
0.777 2.274 3.903
1.059 2.402 3.779
1.276 2.878 3.519
1.174 0.076 3.204
0.875 0.498 3.315
1.054 0.731 3.307
1.155 1.095 3.470
1.210 1.588 3.468
0.973 1.923 3.549
1.193 1.956 3.570
1.110 2.567 3.421
1.368 2.293 3.263
1.544 2.845 3.593
1.489 3.200 3.714
1.608 3.309 3.458
1.300 -0.032 2.926
1.350 0.293 2.955
1.457 0.833 3.216
1.525 1.172 3.351
1.329 1.438 3.226
1.292 1.695 3.161
1.403 2.205 3.476
1.325 2.262 3.322
-0.041 0.529 3.385
0.058 0.752 3.672
0.035 1.278 3.467
0.165 1.294 3.454
0.203 -0.026 3.158
0.160 0.337 3.224
0.439 0.807 3.312
0.399 1.085 3.353
0.538 1.494 3.562
0.517 1.770 3.637
0.577 -0.007 3.207
0.621 0.473 2.934
0.776 0.870 3.045
0.650 1.158 3.077
0.609 1.393 3.470
0.657 1.633 3.169
0.575 2.014 3.285
0.890 2.342 3.216
1.059 2.720 3.412
0.736 0.189 3.049
1.000 0.335 2.814
0.848 0.940 2.876
1.062 1.233 2.919
1.018 1.467 3.114
1.026 1.961 3.106
1.049 2.174 3.110
0.983 2.496 3.227
1.395 2.513 3.141
1.253 2.889 3.321
1.331 3.034 3.322
1.506 5.439 3.843
1.166 0.152 2.589
1.120 0.544 2.797
1.020 0.989 2.794
1.109 1.322 2.872
1.124 1.551 2.866
1.434 1.822 2.958
1.286 1.981 3.028
1.299 2.309 3.243
-0.031 0.182 2.774
0.070 0.628 2.977
0.349 0.879 2.964
0.210 1.059 3.000
0.209 1.335 3.168
0.412 0.183 2.748
0.579 0.649 2.755
0.638 0.687 2.698
0.643 1.284 2.832
0.486 1.541 2.860
0.707 1.808 2.993
0.912 5.335 3.647
0.607 0.325 2.620
0.716 0.571 2.480
0.744 0.850 2.806
0.913 1.041 2.690
0.883 1.550 2.877
0.793 1.938 3.071
0.735 2.149 3.080
1.018 2.347 2.716
1.464 4.618 3.429
1.127 5.168 3.201
1.324 5.319 3.488
0.848 0.424 2.569
1.058 0.426 2.682
0.896 1.028 2.708
0.956 1.261 2.652
0.990 1.548 2.766
1.282 2.000 2.844
0.938 2.377 2.625
1.010 2.625 2.810
-0.109 1.063 2.573
-0.051 1.222 2.761
-0.011 1.396 2.951
0.433 5.519 3.582
0.144 0.307 2.537
0.303 0.530 2.481
0.223 1.123 2.420
0.474 1.399 2.585
0.522 1.736 2.637
0.759 5.234 3.116
0.854 5.619 3.093
0.616 0.298 2.178
0.396 0.517 2.483
0.699 0.877 2.502
0.751 1.195 2.432
0.555 1.650 2.518
0.793 1.939 2.722
0.965 4.806 2.993
1.326 5.362 3.097
1.223 5.400 3.101
0.773 0.304 1.986
0.877 0.640 2.081
1.032 0.781 2.451
0.761 1.246 2.262
1.065 1.528 2.572
1.115 1.769 2.584
0.083 5.589 3.282
0.397 5.488 3.065
0.138 -0.053 2.102
0.180 0.406 2.375
0.250 0.509 2.189
0.279 1.004 2.174
0.307 1.200 2.508
0.522 5.082 3.045
0.754 5.691 2.865
0.526 0.061 2.063
0.228 0.299 2.005
0.493 0.669 2.282
0.357 1.126 2.232
0.486 1.525 2.295
0.367 1.573 2.388
1.115 4.943 2.823
0.952 5.390 2.893
1.004 5.700 2.912
0.726 0.143 1.964
0.761 0.244 2.049
0.787 0.547 2.096
0.716 1.147 2.001
0.621 1.489 2.232
0.246 5.637 3.000
0.166 1.300 2.000
0.376 5.134 2.746
0.685 5.609 2.819
0.167 0.017 1.654
0.270 0.548 1.800
0.242 0.786 1.899
0.318 1.037 1.941
0.318 1.232 1.934
0.962 5.105 2.560
0.860 5.250 2.577
0.776 5.696 2.517
0.497 0.035 1.565
0.487 0.369 1.565
0.577 0.807 1.653
0.753 0.901 1.847
0.254 5.845 2.654
0.374 5.820 2.423
0.061 0.315 1.313
-0.095 0.350 1.300
0.165 0.785 1.572
0.229 1.030 1.548
0.521 5.347 2.316
0.726 5.750 2.417
0.268 0.242 1.188
0.443 0.407 1.498
0.493 0.794 1.278
0.376 5.810 1.991
0.422 5.820 1.801
0.342 0.152 0.988
0.199 0.605 0.913
2.038 0.326 6.261
1.918 0.370 6.355
1.280 0.180 6.145
1.348 0.666 6.218
1.312 0.071 5.986
1.643 0.724 5.967
1.656 0.926 6.317
1.543 1.160 6.331
1.705 0.357 5.917
1.738 0.408 6.018
1.902 0.958 5.858
1.102 6.116 4.327
1.263 6.272 4.233
0.801 5.968 4.188
1.187 5.750 3.751
1.183 5.965 3.911
1.625 5.761 3.759
1.528 6.041 3.691
0.403 5.985 3.838
0.761 5.603 3.852
0.647 6.208 3.733
1.144 5.916 3.724
1.139 6.008 3.777
1.380 5.944 3.572
1.450 6.001 3.352
0.101 6.210 4.029
0.328 5.869 3.807
0.242 6.152 3.801
0.690 5.682 3.554
0.552 6.224 3.489
0.996 5.848 3.426
0.846 6.186 3.218
1.082 5.754 3.003
1.142 6.054 3.272
0.335 5.763 3.191
0.325 6.084 3.326
0.375 5.963 3.255
0.470 6.148 3.381
0.591 5.915 3.225
0.735 6.097 3.286
1.198 5.803 3.009
0.922 6.043 2.933
0.150 6.082 3.075
-0.059 6.227 3.071
0.421 6.063 2.997
0.259 6.309 3.034
0.495 6.064 2.687
0.571 6.083 2.908
0.708 5.921 2.498
0.991 6.374 2.849
0.211 5.858 2.653
0.293 5.955 2.582
0.806 5.881 2.509
0.107 6.192 2.381
0.476 6.183 2.016
6.098 3.443 6.271
6.028 3.472 6.223
6.050 3.860 6.265
6.372 3.717 6.143
6.253 4.019 6.063
5.362 3.101 6.094
5.161 3.369 6.236
5.309 3.847 6.209
5.332 3.073 6.076
5.389 3.298 6.131
5.408 3.537 6.162
5.607 3.918 6.163
5.576 4.288 6.341
5.591 4.672 6.169
5.642 3.031 5.865
5.856 3.256 5.796
5.679 3.611 5.900
5.736 4.194 5.886
5.833 4.338 6.102
5.834 4.655 6.221
6.148 3.373 5.573
6.180 3.689 5.617
6.027 4.156 5.966
6.278 4.483 5.730
5.995 4.831 6.085
5.262 3.166 6.197
5.202 3.481 6.265
5.199 3.496 6.101
4.907 3.221 5.914
5.087 3.297 6.001
5.095 3.656 5.826
4.902 4.216 5.914
5.019 4.468 6.049
5.036 4.751 6.233
5.347 3.081 5.567
5.159 3.459 5.858
5.436 3.696 5.899
5.500 4.248 5.823
5.551 4.488 6.049
5.534 4.671 5.986
5.730 2.917 5.337
5.523 3.257 5.400
5.487 3.598 5.752
5.507 4.106 5.695
5.686 4.290 5.566
5.652 4.538 5.796
5.855 2.959 5.498
5.736 3.479 5.261
5.932 3.620 5.639
6.050 3.905 5.590
6.024 4.225 5.667
5.889 4.891 5.706
6.070 3.452 5.172
6.278 3.608 5.150
6.375 3.969 5.281
6.341 4.250 5.351
4.471 3.615 6.348
4.901 3.249 6.007
4.948 3.561 6.163
4.624 4.174 6.201
4.973 4.416 6.100
4.991 3.159 5.850
5.194 3.465 6.073
5.234 3.571 5.781
5.094 4.213 5.926
5.148 4.514 6.029
4.969 4.595 6.028
4.889 3.252 5.490
5.048 3.517 5.734
4.782 3.756 5.722
4.760 3.933 5.774
5.007 4.279 5.942
4.877 4.647 5.761
5.317 2.682 5.392
5.248 3.287 5.312
5.095 3.467 5.593
5.256 3.989 5.344
5.265 4.263 5.534
5.199 4.504 5.612
5.450 4.766 5.560
5.345 2.967 5.150
5.400 3.025 5.392
5.654 3.300 5.410
5.677 3.789 5.237
5.600 4.223 5.290
5.539 4.512 5.470
5.587 4.892 5.345
5.703 2.972 4.929
5.724 3.092 4.936
5.884 3.519 5.203
5.824 3.780 4.995
5.624 4.149 5.232
5.754 4.535 5.428
5.885 4.704 5.543
6.028 3.338 4.769
5.916 3.346 4.907
6.009 3.932 4.944
6.097 4.308 5.269
6.287 4.580 5.273
6.308 4.751 5.379
6.106 0.110 4.065
6.304 0.458 4.304
4.416 3.288 5.604
4.592 3.779 5.940
4.803 4.195 5.875
4.541 4.541 5.855
4.904 3.003 5.721
4.964 3.353 5.668
4.818 3.835 5.618
4.905 3.981 5.794
5.002 4.554 5.603
5.108 4.838 5.678
5.855 5.120 6.036
6.035 4.967 6.142
6.047 5.287 6.025
5.238 5.007 6.010
5.623 4.929 6.058
5.717 5.124 6.004
5.769 5.429 5.758
6.033 5.134 5.810
6.046 5.512 5.840
5.241 5.016 6.174
5.169 5.163 5.802
5.385 5.152 5.439
5.930 4.982 5.378
5.764 5.260 5.532
5.965 5.825 5.441
6.071 5.146 5.392
6.012 5.289 5.283
6.235 5.765 5.458
6.237 6.279 5.515
4.679 2.875 4.891
4.560 3.294 4.953
4.424 3.645 4.890
4.588 3.731 5.107
4.425 4.086 5.314
4.619 2.591 4.759
5.007 2.930 4.930
4.682 3.360 4.683
4.717 3.462 4.703
4.741 3.776 4.935
5.042 4.332 5.154
4.957 4.463 5.171
5.120 2.313 4.437
5.173 2.538 4.535
5.098 2.834 4.755
5.084 3.264 4.742
5.320 3.483 4.732
5.300 4.092 4.895
5.184 4.374 4.681
5.296 4.682 4.731
5.068 5.077 4.938
5.296 2.173 4.138
5.406 2.347 4.243
5.291 2.761 4.521
5.556 3.037 4.329
5.497 3.181 4.686
5.453 3.530 4.701
5.413 4.013 4.526
5.451 4.108 4.507
5.595 4.688 4.838
5.344 5.025 4.963
5.201 1.684 4.369
5.472 1.992 4.247
5.761 1.987 4.174
5.459 2.481 4.231
5.562 2.635 4.136
5.837 2.904 4.425
5.613 3.499 4.286
5.793 3.526 4.428
5.930 3.802 4.464
5.603 4.374 4.424
5.942 4.590 4.626
5.849 4.996 4.704
5.469 0.102 3.877
5.628 0.568 3.969
5.421 0.616 3.993
5.680 0.953 3.988
5.737 1.438 3.924
5.669 1.530 3.988
5.589 1.991 4.009
6.023 1.861 4.060
5.885 2.196 3.953
5.966 2.733 3.881
6.089 3.176 4.037
5.835 3.410 4.221
5.927 3.777 4.398
5.934 4.097 4.128
6.139 4.183 4.242
5.913 4.798 4.547
6.254 4.820 4.607
5.641 0.244 3.411
5.795 0.561 3.474
5.950 0.882 3.768
5.996 0.931 3.916
5.729 1.266 3.782
5.800 1.693 3.987
5.898 1.965 3.851
6.112 2.183 3.821
6.349 2.414 3.743
6.371 2.559 3.937
6.201 0.039 3.602
5.954 0.315 3.596
6.094 0.889 3.390
6.320 0.889 3.464
6.074 1.467 3.685
6.230 1.796 3.845
6.212 2.142 3.921
4.718 2.862 4.894
4.671 3.424 4.875
4.518 3.744 5.162
4.517 3.817 5.238
4.603 4.236 5.248
4.444 2.721 4.579
4.215 2.995 4.475
4.373 3.294 4.833
4.498 3.576 4.757
4.381 3.919 4.959
4.778 2.474 4.299
4.516 2.708 4.552
4.756 3.121 4.564
4.543 3.436 4.576
4.789 3.637 4.582
4.893 3.828 4.836
4.745 4.316 4.715
4.970 2.039 4.223
4.987 2.437 4.277
4.792 2.691 4.143
4.834 3.099 4.179
4.811 3.392 4.548
4.861 3.549 4.507
4.830 4.064 4.617
5.187 4.322 4.508
5.031 4.625 4.540
4.713 2.042 4.307
5.111 1.981 3.899
5.356 2.273 3.935
5.090 2.783 4.231
5.414 2.930 4.253
5.388 3.342 4.163
5.319 3.541 4.278
5.473 3.886 4.458
5.256 4.499 4.239
5.472 4.475 4.542
5.130 1.457 4.038
5.134 1.887 4.009
4.998 1.886 3.859
5.348 1.921 3.878
5.562 2.313 3.965
5.551 2.843 4.000
5.657 2.924 3.908
5.528 3.493 4.151
5.431 3.804 4.286
5.644 3.934 4.242
5.593 4.320 4.260
5.643 4.523 4.108
5.466 0.684 3.562
5.418 0.964 3.644
5.376 1.567 3.750
5.420 1.895 3.770
5.519 1.894 3.679
5.693 1.995 3.689
5.839 2.340 3.713
5.760 2.710 3.678
5.975 3.176 3.868
5.897 3.473 3.997
6.020 3.673 3.967
5.881 4.192 4.082
5.750 4.505 3.891
5.547 0.318 3.355
5.593 0.589 3.517
5.487 0.919 3.542
5.697 1.293 3.573
5.575 1.598 3.690
5.753 1.634 3.541
5.644 2.011 3.546
6.017 2.275 3.506
6.108 2.524 3.724
6.172 2.700 3.770
6.004 3.088 3.584
5.928 0.077 3.315
6.057 0.389 3.014
6.088 0.745 3.240
6.159 1.011 3.134
5.876 1.483 3.403
6.170 1.742 3.292
6.107 2.255 3.393
6.198 0.121 3.068
6.266 0.348 2.983
6.087 0.657 3.265
6.091 1.052 3.143
4.136 2.859 4.636
3.982 3.419 4.997
4.530 2.618 4.735
4.442 2.838 4.742
4.502 3.239 4.857
4.440 3.545 4.780
4.607 4.130 4.808
4.132 2.508 4.138
4.170 2.714 4.101
4.377 3.079 4.161
4.376 3.231 4.310
4.144 3.607 4.419
4.317 3.960 4.671
4.576 1.931 4.157
4.349 2.501 4.138
4.500 2.787 4.015
4.678 2.979 4.176
4.500 3.297 4.274
4.710 3.631 4.345
4.493 4.035 4.457
4.408 2.255 4.109
4.693 2.262 3.731
4.911 2.573 3.879
4.770 2.911 4.037
4.956 3.028 4.209
4.799 3.572 3.967
4.849 3.898 4.090
4.703 3.949 4.109
4.587 1.823 3.611
4.829 2.043 3.947
4.960 2.296 3.788
5.053 2.509 3.725
5.214 2.848 3.823
5.121 3.276 3.792
5.014 3.564 3.915
5.267 3.862 4.034
5.223 4.077 3.962
4.897 1.503 3.512
5.025 1.672 3.720
5.161 2.235 3.548
5.164 2.161 3.663
5.203 2.374 3.465
5.474 2.948 3.742
5.219 3.136 3.600
5.332 3.428 3.911
5.332 3.816 3.720
5.536 4.163 4.044
5.380 0.831 3.458
5.188 1.098 3.282
5.228 1.651 3.310
5.123 1.741 3.493
5.391 2.269 3.449
5.687 2.143 3.444
5.569 2.392 3.461
5.790 2.742 3.616
5.847 3.001 3.574
5.519 3.483 3.755
5.597 0.713 3.101
5.563 0.688 3.124
5.350 1.187 3.005
5.406 1.580 3.256
5.704 1.675 3.308
5.437 2.316 3.458
5.802 2.018 3.069
6.003 2.567 3.090
5.754 2.668 3.242
5.979 3.053 3.517
5.702 0.379 2.938
5.729 0.715 2.754
5.837 0.953 2.850
5.733 1.336 2.902
5.671 1.621 3.253
5.939 1.785 3.060
6.060 1.973 3.211
6.196 2.013 3.170
6.124 2.385 3.102
5.891 0.044 2.705
6.179 0.464 2.652
5.992 0.883 2.837
6.275 1.114 2.943
6.003 1.605 3.075
6.029 1.682 3.031
6.117 2.233 3.235
3.978 2.918 4.538
3.918 2.873 4.331
4.063 3.425 4.756
4.318 2.416 4.163
4.100 2.616 4.388
4.175 2.960 4.512
4.297 3.334 4.568
4.408 3.797 4.432
4.404 4.182 4.493
3.815 2.199 4.000
4.061 2.626 3.886
3.852 2.959 3.898
4.001 3.025 3.926
4.196 3.572 4.251
4.064 3.954 4.327
4.116 2.254 3.916
4.094 2.173 3.774
4.293 2.536 3.755
4.269 2.674 3.861
4.390 3.260 3.725
4.353 3.456 4.040
4.444 3.769 4.187
4.482 4.234 4.037
4.307 1.978 3.746
4.324 2.038 3.548
4.422 2.244 3.624
4.626 2.376 3.468
4.705 2.871 3.534
4.676 3.125 3.623
4.541 3.408 3.650
4.676 3.869 4.006
4.833 4.004 3.784
4.486 1.865 3.582
4.496 2.031 3.527
4.776 2.319 3.260
5.002 2.453 3.282
4.974 2.827 3.383
4.742 3.075 3.504
4.923 3.356 3.527
5.142 3.715 3.652
4.689 1.500 3.411
4.908 1.807 3.191
4.840 2.343 3.556
5.204 2.249 3.154
5.064 2.407 3.496
5.188 2.745 3.414
5.327 3.214 3.420
5.219 3.657 3.350
5.083 3.819 3.610
5.092 1.409 3.218
5.020 1.679 3.109
5.045 2.039 3.257
5.265 2.355 3.359
5.261 2.394 3.200
5.584 2.380 2.973
5.312 2.931 3.083
5.684 3.277 3.354
5.667 3.506 3.291
5.533 1.009 2.739
5.424 1.326 3.006
5.453 1.750 2.931
5.522 1.950 3.167
5.380 2.174 3.177
5.816 2.173 2.933
5.874 2.672 3.118
5.721 2.884 2.947
5.707 0.440 2.489
5.684 0.763 2.780
5.627 1.290 2.688
5.618 1.696 2.891
5.567 2.083 2.863
5.649 2.109 2.746
6.103 2.127 2.605
5.859 2.680 2.879
6.040 0.312 2.567
5.788 0.765 2.560
5.960 0.821 2.558
5.776 1.417 2.447
5.949 1.591 2.665
5.973 2.000 2.852
6.141 2.396 2.840
6.011 0.265 2.181
6.249 0.769 2.414
6.249 1.001 2.251
6.282 1.449 2.604
6.306 1.549 2.333
3.268 2.626 4.105
3.619 2.717 4.332
3.611 2.932 4.417
3.537 2.120 4.138
3.578 2.601 4.173
3.635 2.905 4.116
3.710 3.076 4.347
3.839 3.388 4.197
3.639 3.652 4.470
3.673 2.133 4.207
4.127 2.309 3.957
4.051 2.309 3.927
3.926 2.854 3.932
3.958 3.186 4.163
3.940 3.580 4.147
4.252 3.654 4.000
3.892 2.157 3.925
4.011 2.181 3.630
3.779 2.573 3.769
3.834 2.860 3.889
3.832 3.275 3.703
3.883 3.691 3.997
3.750 3.812 3.751
3.784 2.269 3.658
4.014 2.270 3.470
4.103 2.458 3.503
4.285 2.745 3.430
4.291 3.391 3.678
4.039 3.688 3.870
4.249 3.777 3.681
3.945 2.035 3.509
4.151 2.144 3.619
4.424 2.373 3.465
4.366 2.587 3.387
4.517 2.939 3.273
4.622 3.269 3.595
4.380 3.463 3.461
4.652 3.993 3.432
4.236 1.988 3.364
4.355 2.202 3.211
4.796 2.275 3.157
4.742 2.500 3.220
4.573 2.973 3.055
4.784 3.191 3.361
4.965 3.604 3.308
4.885 4.015 3.396
4.566 2.024 3.233
4.875 2.253 3.219
5.036 2.097 3.005
4.850 2.467 3.131
5.208 2.969 2.973
4.980 3.076 3.163
5.131 3.450 3.196
5.088 1.506 2.719
5.105 2.068 2.977
5.168 2.244 2.968
5.093 2.113 2.799
5.144 2.665 2.972
5.434 2.990 2.791
5.387 3.069 3.085
5.073 1.194 2.547
5.222 1.801 2.746
5.193 1.802 2.844
5.467 2.147 2.895
5.523 2.128 2.751
5.414 2.741 2.800
5.606 3.001 2.734
5.496 0.963 2.405
5.694 1.419 2.468
5.498 1.680 2.680
5.640 2.149 2.612
5.552 2.417 2.608
5.671 2.302 2.648
5.884 2.520 2.614
5.578 0.699 2.279
5.724 0.978 2.328
5.831 1.424 2.162
5.702 1.756 2.318
5.983 1.929 2.531
5.942 2.267 2.436
6.183 2.426 2.364
6.103 2.569 2.231
5.901 0.728 2.059
6.067 1.011 2.264
5.997 1.403 2.180
6.234 1.657 2.290
6.292 2.070 2.214
6.020 2.363 2.489
2.246 2.287 4.455
2.335 1.841 4.224
2.566 2.332 4.306
2.652 2.123 4.082
2.734 2.384 4.230
2.704 2.973 4.300
2.508 2.196 4.264
2.877 2.222 4.061
2.981 2.370 4.155
2.909 2.837 4.138
3.094 3.155 4.419
2.957 2.256 3.914
3.142 2.187 3.763
3.461 2.345 4.078
3.424 2.797 4.079
3.362 3.256 4.049
3.443 3.623 4.236
3.292 2.347 4.105
3.559 2.255 3.946
3.399 2.591 3.868
3.427 2.877 3.949
3.693 3.012 3.820
3.692 3.594 4.167
3.746 3.833 4.227
3.492 2.188 3.909
3.697 2.031 3.513
3.931 2.377 3.643
3.777 2.856 3.642
3.716 3.134 3.712
4.067 3.353 4.033
3.878 3.775 3.728
3.975 2.243 3.654
3.861 2.420 3.487
3.551 2.681 3.306
3.838 2.896 3.458
3.827 3.238 3.413
3.611 3.531 3.573
3.650 3.938 3.790
3.497 2.096 3.185
3.812 2.290 3.196
3.870 2.527 3.304
3.978 3.077 3.125
4.060 3.144 3.242
3.999 3.685 3.463
3.941 3.999 3.434
4.075 2.245 3.116
4.376 2.469 3.107
4.289 2.550 2.885
4.401 3.050 3.284
4.233 3.416 3.027
4.354 3.593 3.420
4.310 2.147 3.000
4.696 2.350 2.839
4.720 2.812 2.827
4.717 2.879 2.920
4.436 3.145 2.971
4.620 3.629 2.952
4.534 2.107 2.669
4.723 2.208 3.014
4.735 2.233 2.854
4.888 2.500 2.757
4.781 2.891 2.672
5.027 3.244 2.723
4.987 2.000 2.609
5.019 2.397 2.666
5.184 2.234 2.517
5.102 2.675 2.428
5.165 1.731 2.531
4.926 1.977 2.440
5.227 2.414 2.665
5.587 2.426 2.497
5.533 2.616 2.329
5.352 1.284 2.031
5.459 1.673 2.213
5.216 1.899 2.343
5.357 2.526 2.373
5.713 2.238 2.065
5.749 2.498 2.157
5.438 1.249 2.086
5.706 1.465 1.969
5.784 1.753 2.055
5.673 1.848 2.038
5.640 2.216 2.287
6.082 2.401 2.121
5.722 0.801 1.826
6.028 1.118 1.963
5.850 1.500 2.019
5.939 1.664 1.933
5.965 2.128 2.022
6.014 2.369 2.168
6.275 2.491 2.068
6.093 0.815 1.402
6.008 1.045 1.545
6.312 1.296 1.716
6.284 1.799 1.612
6.278 2.226 1.992
6.136 2.205 1.781
2.360 2.056 4.205
2.301 2.711 4.070
2.283 2.726 4.275
2.138 1.415 4.112
2.250 1.465 4.019
2.226 2.078 4.087
2.152 2.351 4.025
2.436 2.071 4.135
2.595 2.718 4.176
2.541 2.867 4.019
2.606 3.271 4.195
2.410 1.486 3.946
2.429 1.936 3.744
2.380 2.380 3.839
2.742 2.316 3.881
2.812 2.697 3.914
2.805 2.939 4.015
2.700 3.090 4.165
2.743 3.365 4.047
2.823 1.986 3.666
2.964 2.119 3.758
3.028 2.396 3.526
3.288 2.491 3.733
3.101 2.823 3.858
3.090 3.209 3.806
3.013 3.535 3.755
3.237 3.950 3.892
2.952 1.868 3.675
3.169 2.323 3.474
3.533 2.089 3.398
3.319 2.609 3.517
3.380 2.779 3.632
3.517 3.410 3.810
3.412 3.526 3.690
3.530 4.074 3.747
3.460 1.813 3.601
3.347 2.346 3.388
3.621 2.219 3.317
3.854 2.574 3.385
3.903 2.818 3.423
3.742 3.341 3.538
3.678 3.413 3.501
3.922 3.985 3.740
3.679 2.152 3.205
3.500 2.490 2.879
3.725 2.742 3.109
3.727 3.132 3.338
3.572 3.324 3.152
3.722 3.687 3.327
3.687 3.809 3.202
3.476 2.283 2.904
3.798 2.330 2.799
3.677 2.558 3.084
3.737 3.168 2.954
4.002 3.382 2.965
3.901 3.631 3.023
4.028 4.062 3.098
3.830 2.346 2.838
4.017 2.439 2.689
4.244 2.510 2.869
4.208 2.883 3.012
3.989 3.360 2.935
4.032 3.673 2.799
4.156 2.547 2.684
4.490 2.695 2.558
4.520 3.047 2.626
5.435 1.539 1.683
5.436 1.799 1.931
5.419 1.915 1.770
5.723 2.405 1.744
5.600 1.029 1.414
5.790 1.418 1.686
5.617 1.607 1.696
5.903 2.237 1.753
5.813 2.485 1.896
6.221 2.431 1.777
5.901 0.888 1.299
5.934 1.100 1.324
6.198 1.512 1.363
5.998 1.966 1.636
5.935 2.105 1.607
6.299 2.266 1.700
2.010 2.372 3.755
2.267 2.511 3.956
1.956 3.018 4.100
2.301 3.348 4.126
1.914 1.127 3.564
2.009 1.340 3.621
1.877 1.702 3.758
2.187 2.029 3.901
2.201 2.407 3.969
2.497 2.334 3.852
2.482 2.664 3.652
2.264 2.883 3.695
2.494 3.322 3.999
2.300 3.753 3.977
2.144 1.251 3.609
2.479 1.809 3.443
2.171 1.899 3.752
2.369 2.329 3.494
2.792 2.162 3.420
2.680 2.752 3.614
2.878 2.799 3.781
2.883 3.350 3.619
2.832 3.626 3.762
2.589 3.765 3.817
2.459 1.720 3.373
2.651 2.093 3.278
2.768 2.160 3.459
3.047 2.161 3.335
2.994 2.650 3.437
2.868 3.063 3.407
2.849 3.310 3.376
2.855 3.621 3.479
3.111 3.836 3.745
2.827 2.092 3.351
2.757 2.142 3.188
3.337 2.405 3.217
3.111 2.557 3.207
3.275 3.117 3.151
3.312 3.469 3.429
3.391 3.589 3.297
3.337 3.817 3.561
3.275 2.094 3.273
3.145 2.304 3.089
3.466 2.193 2.946
3.678 2.608 3.196
3.635 3.008 3.109
3.711 3.167 3.136
3.472 3.652 3.135
3.488 3.936 3.221
3.632 2.316 2.901
3.337 2.264 2.943
3.316 2.831 2.984
3.578 2.948 3.054
3.477 3.298 2.846
3.531 3.555 3.168
3.296 4.128 3.189
3.505 2.423 2.705
3.700 2.838 2.654
3.790 3.033 2.533
3.631 3.351 2.864
3.674 3.889 2.910
3.719 4.157 2.726
5.509 1.362 1.385
5.455 1.620 1.150
5.458 1.955 1.263
5.822 2.162 1.508
6.028 0.851 1.094
5.811 1.153 1.165
6.063 1.552 1.123
5.751 1.694 1.329
5.914 2.104 1.438
6.203 2.689 1.159
6.303 0.629 0.907
6.214 0.842 0.783
6.357 1.151 0.980
6.153 1.534 0.905
6.198 1.937 1.048
6.139 2.043 1.153
6.141 2.510 1.313
1.988 2.279 3.370
1.949 2.716 3.544
2.014 3.157 3.501
1.837 3.163 3.813
2.027 3.599 3.776
1.914 0.854 3.092
1.811 0.982 3.359
1.725 1.250 3.388
1.729 1.696 3.342
1.971 1.862 3.479
1.942 2.189 3.573
2.333 2.448 3.388
2.273 2.553 3.450
2.161 3.114 3.484
2.121 3.514 3.457
2.292 3.488 3.733
2.188 3.882 3.705
2.089 1.273 3.401
2.322 1.835 3.124
2.086 2.220 3.464
2.266 2.280 3.572
2.549 2.294 3.141
2.665 2.542 3.241
2.684 3.005 3.499
2.419 3.391 3.603
2.400 3.606 3.433
2.496 4.128 3.592
2.782 4.465 3.567
2.607 1.762 3.192
2.340 2.060 3.169
2.418 2.386 3.054
2.944 2.259 2.928
2.781 2.580 3.043
2.951 3.112 3.039
2.933 3.279 3.324
3.033 3.538 3.379
2.856 3.913 3.475
2.947 4.280 3.459
2.862 2.159 3.150
2.863 2.191 2.907
3.222 2.475 2.912
3.187 2.585 2.862
3.090 3.143 3.035
3.124 3.447 3.179
3.018 3.728 3.231
3.125 4.177 3.105
3.089 4.166 3.365
2.999 2.572 3.054
3.297 2.436 2.737
3.247 2.653 2.913
3.388 3.204 3.057
3.562 3.310 2.808
3.492 3.649 2.955
3.457 4.027 3.105
3.208 2.435 2.820
3.182 2.713 2.392
3.072 2.998 2.508
3.118 3.460 2.542
3.270 3.677 2.860
3.138 3.925 2.720
3.408 4.581 2.670
3.554 3.133 2.565
3.520 3.476 2.398
3.462 3.800 2.520
5.733 1.079 0.597
5.866 1.277 0.859
5.576 1.411 0.670
5.839 1.925 1.000
5.821 0.570 0.537
6.137 0.845 0.579
6.056 1.140 0.540
6.052 1.685 0.709
6.091 2.033 0.573
6.205 2.280 0.625
6.325 0.286 0.359
6.103 0.728 0.481
6.391 0.826 0.544
1.640 2.463 3.258
1.765 2.853 3.416
1.912 3.205 3.384
1.893 3.374 3.461
1.894 3.748 3.657
1.943 4.107 3.514
1.664 0.580 2.857
1.555 0.652 2.970
1.547 1.238 2.953
1.643 1.517 3.177
1.721 1.842 3.103
1.799 2.086 3.296
1.582 2.510 3.160
2.180 2.284 3.220
1.902 2.872 3.260
2.008 3.063 3.076
2.107 3.392 3.123
2.306 3.728 3.369
2.311 3.987 3.321
2.298 4.308 3.424
2.077 4.765 3.680
1.931 0.940 2.912
1.854 1.379 2.962
2.020 1.855 2.897
1.997 2.261 2.927
1.971 2.387 3.139
2.258 2.568 2.937
2.187 2.756 2.849
2.214 2.917 3.218
2.455 3.586 3.033
2.463 3.788 3.337
2.599 4.229 3.224
2.623 4.248 3.475
2.490 4.711 3.543
2.291 1.638 2.726
2.276 2.237 2.787
2.162 2.314 2.939
2.724 2.470 2.607
2.802 2.702 2.698
2.509 3.218 3.076
2.712 3.544 2.793
2.531 3.837 3.033
2.630 4.219 3.114
2.665 4.398 3.037
2.924 4.687 3.034
2.748 2.223 2.729
2.616 2.352 2.922
2.799 2.446 2.734
2.908 2.819 2.540
3.027 3.247 2.582
2.855 3.603 2.825
2.916 3.798 3.034
3.037 4.136 2.847
2.943 4.293 3.064
2.898 4.714 3.122
2.790 2.604 2.573
3.245 2.903 2.410
3.420 3.205 2.432
3.436 3.444 2.492
3.364 3.698 2.855
3.246 4.145 2.763
3.294 4.503 2.733
3.206 3.248 2.267
3.249 3.680 2.279
3.173 3.785 2.369
3.274 4.047 2.526
3.285 4.521 2.687
5.567 0.857 0.252
5.696 1.023 0.477
5.426 1.455 0.577
5.569 1.605 0.644
5.758 0.551 0.321
5.979 0.712 0.164
5.999 1.060 0.476
5.847 1.458 0.376
5.889 1.612 0.345
5.932 2.172 0.502
5.978 0.331 -0.094
6.238 0.554 -0.082
6.060 0.976 0.174
6.326 1.381 0.268
6.090 1.546 0.068
6.339 1.935 0.363
6.054 2.513 0.533
1.529 2.620 3.077
1.792 2.919 3.230
1.644 3.130 3.175
1.498 3.366 3.322
1.688 3.929 3.054
1.539 4.261 3.335
1.770 4.281 3.199
1.776 4.642 3.245
1.814 5.144 3.505
1.606 5.402 3.617
1.347 0.269 2.533
1.338 0.701 2.747
1.327 0.957 2.683
1.496 1.122 2.935
1.471 1.448 2.863
1.704 1.969 2.887
1.675 2.163 2.928
1.777 2.599 3.161
1.714 2.330 2.742
1.948 2.679 2.989
1.989 3.303 2.869
2.132 3.382 3.072
2.075 3.660 3.089
1.924 3.972 3.273
1.952 4.614 3.298
2.118 4.808 3.079
1.991 4.988 3.134
2.060 5.466 3.415
1.744 0.124 2.505
1.611 0.547 2.410
1.756 0.840 2.674
1.838 1.333 2.456
1.685 1.332 2.618
1.922 1.818 2.573
1.853 2.026 2.610
1.974 2.304 2.874
2.153 2.407 2.484
2.277 2.880 2.888
2.277 3.290 2.904
2.365 3.611 2.728
2.066 3.728 2.967
2.236 4.101 3.058
2.226 4.628 3.094
2.315 4.595 3.190
2.204 4.911 3.146
2.454 5.254 3.318
2.319 2.173 2.665
2.284 2.664 2.664
2.321 2.529 2.590
2.315 2.664 2.499
2.685 3.227 2.471
2.559 3.494 2.714
2.645 3.683 2.711
2.723 4.099 2.886
2.501 4.350 2.780
2.790 4.707 3.054
2.454 5.079 3.026
2.361 2.574 2.674
2.608 2.952 2.445
2.672 2.979 2.517
2.986 3.370 2.626
2.656 3.975 2.453
2.900 4.172 2.608
2.691 4.444 2.658
3.068 4.797 2.811
3.069 3.129 2.359
3.083 3.352 2.302
3.219 3.921 2.493
3.031 4.077 2.394
3.091 4.453 2.718
2.796 3.632 2.125
2.842 4.006 2.134
2.993 4.372 2.306
3.013 4.452 2.093
3.208 4.807 2.167
5.175 0.271 0.049
5.494 0.573 0.121
5.318 1.158 0.060
5.324 1.553 0.045
5.664 1.195 0.043
5.718 1.254 -0.110
5.623 1.783 0.006
6.053 2.196 -0.087
1.421 2.402 2.837
1.281 2.909 2.704
1.377 3.286 2.679
1.375 3.587 2.764
1.367 3.778 3.119
1.379 4.103 2.876
1.455 4.438 3.118
1.629 4.706 2.992
1.539 5.305 3.028
1.516 5.625 3.308
1.374 0.226 2.280
1.349 0.537 2.511
1.207 1.094 2.400
1.428 1.212 2.298
1.513 1.562 2.462
1.315 1.711 2.732
1.304 2.209 2.818
1.374 2.357 2.769
1.655 2.468 2.692
1.729 2.721 2.685
1.658 3.252 2.777
1.749 3.537 2.866
1.820 3.800 2.731
1.683 4.009 2.679
1.847 4.534 2.942
1.697 4.917 2.846
1.852 5.279 3.202
1.730 5.526 3.123
1.568 0.256 2.280
1.679 0.747 2.125
1.718 0.813 2.316
1.570 1.318 2.311
1.787 1.719 2.546
1.850 1.837 2.385
1.778 2.304 2.623
1.717 2.636 2.617
2.122 2.739 2.295
1.847 2.963 2.418
2.100 3.394 2.512
2.057 3.641 2.453
2.272 3.752 2.728
2.242 4.177 2.619
1.951 4.648 2.861
2.107 4.864 2.814
2.059 5.098 2.786
2.299 5.582 2.972
2.172 2.554 2.259
2.182 2.998 2.456
2.250 3.230 2.516
2.308 3.414 2.286
2.386 3.874 2.556
2.557 4.192 2.529
2.593 4.481 2.715
2.345 4.942 2.656
2.511 5.246 2.761
2.371 5.356 2.707
2.626 3.350 2.253
2.519 3.470 2.155
2.500 3.897 2.214
2.581 4.197 2.255
2.691 4.375 2.588
2.721 4.961 2.653
2.708 5.293 2.509
3.060 3.715 2.135
3.004 3.890 1.964
2.883 4.365 2.199
3.137 4.430 2.274
3.061 4.911 2.293
2.750 3.854 1.701
2.859 4.344 2.044
2.657 4.533 1.914
2.950 4.964 2.065
2.818 5.304 2.120
3.177 4.289 1.906
3.023 4.603 1.790
3.051 5.045 2.007
5.972 5.675 0.563
1.407 3.791 2.773
1.228 4.230 2.855
1.332 4.672 2.933
1.282 4.706 2.883
1.324 5.306 2.998
1.367 5.604 2.905
1.014 0.412 2.070
1.327 0.772 2.171
1.075 0.990 2.243
1.294 1.182 2.183
1.092 1.500 2.103
1.651 3.463 2.497
1.490 4.052 2.587
1.530 4.279 2.478
1.838 4.428 2.525
1.778 5.064 2.841
1.621 5.226 2.920
1.617 5.566 2.653
1.270 0.120 1.625
1.394 0.363 1.714
1.517 0.650 1.865
1.772 3.194 2.301
2.082 3.646 2.198
2.035 3.871 2.491
1.969 4.396 2.333
2.114 4.391 2.332
2.165 4.803 2.436
2.062 5.298 2.745
1.962 5.381 2.751
1.512 0.149 1.533
2.349 3.541 2.052
2.115 4.116 2.232
2.346 4.074 2.181
2.230 4.454 2.119
2.359 5.059 2.293
2.481 5.135 2.598
2.513 5.564 2.357
2.575 3.788 2.116
2.479 3.827 2.005
2.633 4.105 1.923
2.559 4.661 2.026
2.679 4.795 2.040
2.633 5.318 2.257
2.627 5.463 2.506
2.936 3.789 1.711
2.895 4.429 1.803
2.912 4.783 1.877
2.939 4.929 2.009
2.793 5.192 2.236
2.624 3.827 1.513
2.675 4.295 1.707
2.726 4.526 1.743
2.606 4.854 1.847
2.840 5.402 1.920
2.798 5.719 1.767
2.992 4.532 1.445
3.076 4.527 1.389
3.058 4.923 1.573
3.046 5.188 1.525
3.207 5.749 1.894
3.452 4.953 1.510
5.479 5.741 0.165
5.737 5.739 0.085
1.077 4.650 2.553
1.296 5.049 2.473
1.431 5.074 2.721
1.364 5.723 2.621
0.828 -0.015 1.795
1.114 0.509 1.907
0.888 0.690 1.720
0.938 1.216 1.785
1.308 3.857 2.064
1.677 4.438 2.410
1.624 4.750 2.492
1.636 4.788 2.266
1.723 5.266 2.374
1.419 5.693 2.382
1.195 0.015 1.468
1.434 0.348 1.484
1.407 0.645 1.544
1.916 3.982 1.986
1.727 4.217 2.290
1.816 4.757 2.107
1.705 4.792 2.074
1.977 5.105 2.159
1.968 5.443 2.264
1.384 -0.027 1.505
1.733 0.549 1.413
2.146 3.722 1.826
2.177 3.906 1.975
1.916 4.288 1.923
1.953 4.522 1.849
2.252 4.843 2.027
2.290 5.355 2.042
2.126 5.771 2.279
1.679 0.192 1.199
2.442 3.925 1.763
2.187 4.196 1.616
2.409 4.666 1.867
2.364 4.998 1.784
2.547 5.392 2.168
2.535 5.812 1.974
2.768 3.857 1.429
2.751 4.454 1.692
2.711 4.664 1.556
2.866 4.945 1.698
2.860 5.443 1.890
2.660 5.467 1.765
2.298 4.092 1.257
2.663 4.384 1.238
2.424 4.612 1.585
2.469 5.205 1.521
2.451 5.233 1.384
2.691 5.659 1.570
2.777 4.557 1.356
2.799 4.892 1.134
2.991 5.017 1.449
2.746 5.354 1.298
3.016 5.785 1.270
3.050 4.590 0.942
3.199 4.901 1.110
3.207 5.384 1.134
3.091 5.728 1.433
3.398 5.174 0.809
3.543 5.528 1.036
5.174 5.820 0.242
0.924 4.668 2.362
1.286 5.097 2.204
1.191 5.240 2.355
1.271 5.538 2.472
0.970 0.170 1.483
0.913 0.357 1.497
0.995 0.847 1.660
1.209 4.406 1.833
1.378 4.511 1.871
1.507 4.869 2.271
1.368 5.332 2.061
1.340 5.518 2.254
1.075 0.018 1.166
1.192 0.648 1.418
1.501 4.436 1.882
1.558 4.810 1.936
1.806 5.098 1.967
1.559 5.163 1.929
1.678 5.785 2.232
1.255 0.095 1.119
1.811 3.989 1.512
1.963 4.232 1.522
1.783 4.517 1.730
2.005 4.934 1.648
2.140 5.378 1.905
2.196 5.635 2.055
1.829 0.286 1.067
2.308 4.040 1.304
2.196 4.549 1.494
2.195 4.624 1.654
2.150 4.849 1.729
2.372 5.523 1.544
2.437 5.842 1.645
2.514 3.912 1.348
2.564 4.235 1.236
2.429 4.627 1.259
2.399 5.168 1.555
2.639 5.277 1.640
2.456 5.696 1.454
2.148 4.080 0.985
2.527 4.487 0.964
2.338 4.800 1.256
2.541 5.171 1.336
2.551 5.344 1.202
2.279 5.890 1.453
2.597 4.658 0.884
2.503 4.795 1.072
2.689 5.151 0.848
2.697 5.389 0.954
2.658 5.813 0.981
3.042 4.352 0.861
2.926 4.892 0.887
3.099 5.301 0.923
2.980 5.599 1.004
2.891 5.814 1.051
3.177 4.819 0.534
3.249 5.226 0.776
3.185 5.465 0.598
3.283 5.727 0.954
3.581 5.089 0.503
3.478 5.599 0.590
3.640 5.876 0.556
3.951 5.493 0.449
3.954 5.975 0.687
4.318 5.825 0.232
4.496 5.957 0.253
4.776 5.749 0.127
1.103 5.039 1.947
0.946 5.377 2.201
1.001 5.852 2.267
0.578 0.071 0.921
0.561 0.683 1.327
1.225 4.721 1.940
1.231 5.054 1.978
1.078 5.493 1.736
1.389 5.546 1.877
0.874 0.310 1.112
1.420 4.447 1.581
1.546 4.601 1.658
1.457 5.138 1.525
1.650 5.484 1.821
1.615 5.676 1.921
1.042 0.227 0.711
1.892 4.319 1.217
1.625 4.764 1.479
1.697 4.986 1.443
1.931 5.576 1.673
1.684 5.681 1.720
1.919 4.071 1.021
2.003 4.426 1.380
2.259 4.854 1.116
1.989 5.271 1.366
2.000 5.377 1.574
2.069 5.845 1.290
2.287 4.310 1.017
2.224 4.542 0.997
2.193 4.746 0.953
2.346 4.951 1.052
2.472 5.360 1.265
2.374 5.820 1.388
2.041 4.132 0.666
2.368 4.588 0.764
2.177 4.797 0.664
2.059 5.243 0.972
2.306 5.351 1.138
2.087 5.647 1.081
2.421 4.254 0.519
2.607 4.659 0.500
2.583 4.828 0.599
2.434 5.227 0.883
2.394 5.353 0.899
2.425 5.862 0.851
2.675 4.098 0.571
2.619 4.539 0.476
2.677 4.874 0.644
2.906 5.012 0.650
2.739 5.361 0.703
2.942 5.763 0.737
3.003 4.627 0.473
3.229 4.885 0.529
3.100 5.147 0.398
2.993 5.716 0.485
3.191 5.694 0.678
3.212 4.999 0.285
3.386 5.041 0.348
3.574 5.427 0.350
3.332 5.804 0.466
3.643 5.230 0.224
3.601 5.569 0.052
3.716 5.730 0.076
4.156 5.599 -0.021
3.913 5.904 0.078
0.634 5.733 1.825
1.025 5.336 1.495
1.028 5.846 1.688
1.210 4.893 1.406
1.218 5.095 1.468
1.350 5.556 1.558
1.382 5.802 1.402
1.605 4.669 1.150
1.718 4.791 1.308
1.716 5.018 1.303
1.701 5.609 1.164
1.724 5.738 1.199
1.985 4.547 0.834
1.974 4.820 1.173
1.927 5.196 0.929
1.808 5.657 1.060
2.077 5.814 1.151
2.152 4.019 0.664
2.010 4.445 0.816
2.125 4.978 0.691
2.109 5.000 1.075
2.338 5.644 1.093
2.362 5.824 1.071
1.970 4.379 0.492
2.096 4.586 0.626
1.917 5.083 0.633
2.061 5.221 0.616
2.034 5.616 0.794
2.079 5.856 0.837
2.108 4.221 0.328
2.160 4.638 0.213
2.486 4.829 0.273
2.258 5.139 0.308
2.503 5.460 0.711
2.401 6.029 0.624
2.665 4.442 0.007
2.716 4.484 0.355
2.445 4.875 0.289
2.513 5.281 0.354
2.777 5.654 0.525
2.537 6.045 0.588
2.995 4.568 0.063
2.835 5.097 0.219
2.933 5.127 0.197
2.894 5.526 0.324
3.067 5.755 0.093
3.194 5.462 -0.124
3.087 5.851 0.160
1.440 4.896 0.988
1.555 5.184 0.782
1.390 5.697 1.105
1.787 4.756 0.687
1.912 4.796 0.551
1.640 5.126 0.619
1.822 5.626 0.909
1.889 5.836 1.017
1.930 4.261 0.567
1.944 4.669 0.360
1.967 5.011 0.585
2.219 5.410 0.520
2.171 5.509 0.872
2.122 5.938 0.793
1.963 4.218 0.244
1.928 4.739 0.328
2.071 4.957 0.285
1.825 5.396 0.436
2.075 5.602 0.303
2.033 6.106 0.560
2.195 4.300 0.142
2.013 4.808 0.037
1.988 5.017 0.055
2.063 5.460 0.054
2.407 5.586 0.264
2.326 5.857 0.412
2.305 5.274 0.054
2.604 5.719 0.193
2.453 5.833 0.181
1.516 4.468 0.339
1.606 4.880 0.550
1.613 5.268 0.547
1.509 5.621 0.462
1.787 4.189 0.066
1.891 4.539 0.143
1.998 5.014 0.370
2.064 5.192 0.492
1.899 5.594 0.310
2.117 6.025 0.453
4.548 2.815 5.339
4.551 3.108 5.385
4.804 3.615 5.208
4.656 3.764 5.343
4.827 4.154 5.390
4.926 4.488 5.594
5.139 2.825 5.226
5.189 3.042 4.970
4.848 3.477 5.296
5.010 4.028 5.247
4.946 4.159 5.457
5.235 4.336 5.502
4.919 4.730 5.298
5.215 2.524 4.900
5.300 3.017 5.064
5.232 3.123 4.808
5.167 3.506 4.890
5.258 4.045 4.924
5.398 4.026 5.019
5.544 4.436 5.163
5.503 5.035 5.423
5.665 2.191 4.759
5.400 2.620 4.753
5.447 2.723 4.548
5.448 3.118 4.667
5.456 3.517 4.660
5.497 3.956 4.959
5.575 4.266 5.119
5.599 4.619 4.953
5.778 4.720 4.926
5.916 2.125 4.334
5.757 2.412 4.408
5.957 3.042 4.601
5.909 3.085 4.765
5.817 3.599 4.605
6.034 4.062 4.865
6.058 4.225 4.946
5.793 4.460 4.713
5.963 4.687 4.989
5.780 0.138 4.125
5.649 0.262 3.907
6.071 2.755 4.581
6.008 3.363 4.416
6.031 3.454 4.437
6.089 3.767 4.466
6.360 4.150 4.787
6.051 4.589 4.680
6.364 5.066 4.847
6.074 -0.175 3.999
6.030 0.435 3.866
5.877 0.653 4.034
6.069 0.830 3.976
6.032 1.362 4.061
5.966 1.701 4.054
6.092 -0.129 3.796
6.137 0.472 3.919
4.608 3.686 5.472
4.431 3.751 5.386
4.610 3.054 5.311
4.876 3.197 5.179
4.595 3.643 5.233
4.884 4.026 5.561
4.719 4.317 5.376
4.723 4.417 5.623
4.682 2.942 4.952
4.454 3.131 5.051
4.741 3.417 4.910
4.733 4.018 4.999
4.460 4.284 5.034
4.831 2.579 4.615
4.812 3.080 4.797
4.931 3.433 4.757
4.956 3.502 4.950
4.735 3.884 5.015
4.966 4.438 4.862
5.074 4.657 4.985
5.002 2.402 4.574
5.056 2.733 4.707
5.226 2.966 4.758
5.120 3.421 4.608
5.139 3.670 4.687
5.236 3.952 4.904
5.353 4.100 4.847
5.063 4.459 4.892
5.267 4.782 5.025
5.200 2.146 4.108
5.388 2.291 4.322
5.405 2.721 4.333
5.383 3.014 4.250
5.314 3.374 4.398
5.269 3.456 4.411
5.647 3.842 4.517
5.530 4.085 4.494
5.513 4.473 4.561
5.444 4.901 4.656
5.276 1.855 4.195
5.235 1.825 4.228
5.725 1.904 4.260
5.574 2.504 4.239
5.500 2.679 4.259
5.763 2.918 4.447
5.605 3.301 4.171
5.752 3.459 4.343
5.618 3.856 4.504
5.893 4.218 4.557
5.698 4.744 4.585
5.970 4.818 4.607
5.402 0.025 3.697
5.390 0.302 3.875
5.507 0.570 3.683
5.690 1.183 3.889
5.764 1.291 4.163
5.446 1.713 3.992
5.813 1.915 3.967
5.996 2.199 3.986
5.784 2.466 4.021
5.968 2.793 3.949
6.026 2.906 3.988
6.118 3.137 4.341
6.017 3.498 4.424
5.894 4.000 4.329
5.877 4.163 4.430
5.951 4.515 4.486
6.252 4.848 4.328
5.729 -0.020 3.678
5.727 0.549 3.607
6.020 0.897 3.663
5.933 1.189 3.860
5.750 1.368 3.833
5.722 1.693 3.854
6.082 1.855 4.065
6.035 2.134 3.909
6.392 2.543 3.697
6.263 2.777 3.718
5.990 0.254 3.246
6.010 0.315 3.306
5.961 0.587 3.515
6.083 1.187 3.650
6.346 1.297 3.540
6.193 1.693 3.705
6.394 1.935 3.736
4.442 3.111 4.825
4.725 3.293 5.128
4.524 3.454 5.053
4.587 3.770 5.030
4.473 4.180 5.289
5.555 5.382 4.803
5.909 5.375 4.637
5.865 5.720 4.588
5.848 5.771 4.660
5.996 6.353 4.697
5.976 5.206 4.354
6.209 5.553 4.547
6.200 5.852 4.640
6.322 6.238 4.798
6.035 5.727 4.402
6.052 6.092 4.277
6.316 5.602 4.305
1.829 5.718 3.418
1.641 6.062 3.761
2.264 5.617 3.574
2.185 5.921 3.653
6.172 6.422 0.846
6.215 6.143 0.691
1.783 5.664 3.140
1.493 6.024 3.317
1.962 5.751 3.059
1.947 6.053 3.198
2.162 5.816 2.949
2.309 5.956 3.175
5.835 6.149 0.675
6.114 5.949 0.495
1.614 5.764 3.018
1.319 6.329 3.231
1.636 5.933 2.743
1.961 6.016 3.006
1.954 5.877 2.713
2.163 6.361 2.789
2.304 5.709 2.419
5.428 5.917 0.489
5.600 6.169 0.270
5.897 5.906 0.166
6.355 5.997 0.024
1.274 6.078 2.562
1.382 6.267 2.750
1.542 5.799 2.486
1.586 6.148 2.742
1.744 5.966 2.320
1.987 6.404 2.359
2.024 5.760 2.102
2.023 6.241 2.470
2.662 5.976 1.950
2.438 6.193 1.702
4.760 5.952 0.650
5.079 6.120 0.353
5.210 6.041 0.374
5.436 6.046 0.221
1.028 6.055 2.377
1.301 6.030 2.146
1.863 5.871 2.314
1.914 6.134 2.072
2.156 5.826 1.844
2.780 5.968 1.828
2.438 6.115 1.494
2.723 6.225 1.274
3.198 6.058 1.080
3.416 6.185 0.856
3.676 6.012 0.605
4.007 6.059 0.662
4.209 6.267 0.551
4.316 6.258 0.250
4.825 6.210 -0.070
1.102 6.151 2.158
1.331 5.976 1.919
1.422 5.895 1.920
1.696 6.036 1.774
2.081 6.003 1.505
2.361 5.968 1.295
2.290 6.260 1.221
2.736 6.289 0.981
2.780 6.162 0.845
3.251 6.335 0.583
3.285 6.170 0.585
3.755 6.028 0.240
3.842 6.383 0.273
0.814 6.035 1.835
1.016 5.932 1.829
1.567 6.284 1.685
1.592 6.305 1.552
1.889 6.089 1.162
2.297 6.309 1.205
2.189 6.252 0.965
2.417 6.176 0.746
2.530 6.288 0.445
3.001 6.334 0.296
3.391 6.115 0.288
3.745 6.427 0.076
2.196 6.138 0.703
5.514 5.166 5.219
5.770 5.135 5.106
5.871 5.589 5.319
5.955 5.268 4.935
5.946 5.468 5.080
6.098 5.838 4.993
5.919 6.267 5.328
6.460 5.050 4.982
5.441 5.243 5.023
5.725 5.418 4.864
5.853 5.674 4.662
5.866 6.055 4.994
5.936 6.134 4.888
5.933 5.368 4.459
6.248 5.484 4.694
6.010 5.989 4.621
6.267 6.185 4.631
