4.304 0.004 1.077
3.895 0.766 0.943
3.983 0.363 0.998
4.217 0.353 0.803
4.526 -0.027 0.698
3.972 0.920 0.848
4.179 0.781 0.871
4.134 0.638 0.566
4.415 0.299 0.654
4.541 0.010 0.433
5.164 0.216 0.450
3.955 0.994 0.592
3.929 0.900 0.426
4.112 0.900 0.580
4.401 0.381 0.487
4.636 0.377 0.064
4.995 0.243 0.156
3.661 1.599 0.272
3.733 1.448 0.011
4.217 1.267 0.107
4.575 1.044 0.346
4.625 0.822 -0.039
3.222 1.728 0.573
3.827 1.367 0.113
3.925 1.693 0.250
2.357 2.783 0.365
2.399 2.645 0.431
2.954 2.235 0.356
3.139 2.250 0.392
3.378 1.976 0.280
3.244 1.614 0.041
3.527 1.707 0.057
2.297 2.702 0.214
2.392 2.783 -0.131
2.654 2.731 -0.123
4.532 -0.080 1.045
4.259 0.439 1.448
4.366 0.453 1.382
4.389 0.261 1.273
4.928 0.227 0.987
3.859 0.778 1.284
4.274 0.852 1.247
4.554 0.798 1.115
4.624 0.191 0.797
4.909 0.185 1.120
5.212 -0.070 0.672
3.636 1.105 1.099
3.960 0.979 0.921
4.249 0.865 0.975
4.184 0.966 0.561
4.845 0.356 0.969
5.108 0.140 0.619
5.037 0.226 0.657
3.771 1.169 0.783
3.758 1.287 0.571
4.070 1.095 0.763
4.378 0.881 0.686
4.525 0.974 0.414
4.855 0.684 0.307
4.939 0.634 0.637
5.188 0.247 0.558
5.382 0.358 0.277
3.689 1.872 0.740
3.919 1.650 0.732
3.846 1.849 0.379
4.220 1.612 0.457
4.316 1.095 0.418
4.631 1.076 0.459
4.618 1.130 0.139
4.942 0.651 -0.040
5.280 0.746 0.046
5.423 0.240 -0.101
3.109 2.038 0.676
3.126 1.942 0.514
3.429 2.016 0.707
3.845 1.484 0.327
3.671 1.621 -0.003
4.107 1.406 0.001
4.231 1.608 0.065
4.674 1.498 -0.146
2.396 3.042 0.403
2.487 2.630 0.464
2.912 2.689 0.621
3.344 2.371 0.239
3.202 2.360 0.549
3.706 2.167 0.405
3.817 1.640 0.164
2.681 3.110 0.263
2.585 3.075 0.101
2.994 2.631 0.259
3.189 2.510 0.253
3.282 2.358 -0.059
3.805 1.959 -0.194
2.555 3.452 -0.033
2.836 2.944 0.203
4.201 0.746 1.541
4.436 0.542 1.085
4.453 0.306 1.409
4.735 -0.191 1.240
4.137 0.980 1.675
4.092 0.522 1.707
4.519 0.376 1.327
4.471 0.288 1.436
5.140 0.435 1.312
3.881 1.248 1.364
4.227 1.338 1.368
4.150 0.974 1.059
4.634 0.736 1.393
4.904 0.751 1.365
4.957 0.502 1.092
5.400 0.282 1.145
3.806 1.450 1.350
3.685 1.626 1.185
4.280 1.336 0.985
4.483 1.149 1.007
4.719 0.715 0.758
4.648 0.607 0.988
4.922 0.629 1.072
5.499 0.578 0.813
4.094 1.568 0.928
3.932 1.443 0.892
4.396 1.507 0.754
4.462 1.312 0.861
4.636 1.266 0.901
5.047 0.894 0.545
5.162 0.859 0.377
5.604 0.510 0.552
3.510 1.635 0.850
3.710 1.806 1.044
3.829 1.604 0.657
4.465 1.734 0.547
4.645 1.306 0.307
4.558 1.066 0.265
4.827 1.271 0.326
5.145 1.123 0.344
5.605 0.510 0.400
3.169 2.566 0.720
3.462 2.426 0.651
3.774 2.214 0.491
3.847 1.832 0.811
4.298 1.990 0.415
4.413 1.786 0.159
4.774 1.513 0.280
4.972 1.670 0.321
4.924 1.085 0.153
2.915 2.757 0.430
3.413 2.664 0.576
3.541 2.207 0.673
3.967 2.229 0.642
4.051 1.991 0.603
4.366 1.966 0.260
4.585 1.901 -0.131
4.826 1.579 0.141
2.692 3.282 0.747
2.701 3.131 0.657
3.173 2.747 0.598
3.417 2.537 0.573
3.595 2.789 0.233
3.956 2.405 0.190
4.221 1.956 0.172
2.548 3.661 0.491
3.194 3.410 0.105
3.104 3.004 -0.001
3.397 3.155 0.098
3.793 2.686 0.149
2.776 3.467 0.184
3.782 0.992 1.432
4.009 0.633 1.471
4.474 0.635 1.401
4.689 0.258 1.645
5.009 0.123 1.156
4.005 1.063 1.749
4.426 0.817 1.797
4.408 0.524 1.461
4.961 0.737 1.493
4.977 0.442 1.653
4.045 1.546 1.581
4.070 1.423 1.375
4.683 1.333 1.511
4.839 0.743 1.340
4.862 0.632 1.372
5.339 0.525 1.055
5.538 0.584 1.256
3.812 1.725 1.379
4.128 1.535 1.550
4.154 1.650 1.169
4.390 1.061 1.223
4.622 1.089 1.215
4.881 0.821 0.867
5.264 0.682 0.865
5.389 0.519 1.059
3.868 1.955 1.481
4.162 1.611 1.512
3.885 2.049 1.185
4.368 1.658 0.851
4.659 1.647 1.102
5.057 1.490 1.017
5.183 1.121 0.880
5.220 1.063 0.701
3.971 1.859 0.928
3.903 1.815 1.306
4.286 2.008 0.949
4.353 1.798 0.821
4.626 1.555 0.482
5.114 1.460 0.474
4.970 1.049 0.814
5.351 1.010 0.676
3.667 2.595 0.793
3.773 2.090 0.957
4.054 2.073 0.789
4.203 2.388 0.469
4.709 2.185 0.383
4.527 1.634 0.688
5.192 1.789 0.202
5.424 1.244 0.226
3.216 2.888 0.810
3.748 2.966 0.770
3.768 2.681 0.695
4.090 2.471 0.775
4.137 2.412 0.684
4.148 2.263 0.108
4.758 2.120 0.111
4.747 2.229 0.387
2.946 3.373 0.758
3.198 3.151 0.565
3.413 2.856 0.666
3.899 2.897 0.566
4.004 2.692 0.400
4.449 2.292 0.174
4.503 2.705 0.237
4.743 2.428 -0.016
3.322 3.509 0.456
3.260 3.175 0.538
3.758 3.179 0.260
3.998 2.875 0.271
4.034 2.806 0.267
4.574 2.604 0.223
2.946 3.804 0.366
3.268 3.702 -0.057
3.273 3.529 0.099
3.802 3.401 0.250
4.147 1.347 1.971
4.594 0.792 1.779
4.431 0.650 1.421
4.691 0.358 1.381
5.110 0.519 1.674
4.016 1.687 1.902
4.219 1.129 1.775
4.450 1.300 2.071
4.734 1.015 1.754
5.177 0.833 1.571
5.383 0.365 1.806
4.311 1.544 2.122
3.976 1.438 1.857
4.225 1.702 1.647
4.648 1.368 1.418
4.776 0.911 1.538
5.303 0.948 1.667
5.373 0.950 1.373
4.161 1.592 1.573
4.386 1.699 1.309
4.584 1.432 1.324
4.494 1.264 1.216
5.179 1.452 1.318
5.317 1.208 1.069
5.405 1.088 1.337
4.212 2.223 1.673
4.077 1.966 1.362
4.213 1.923 1.182
4.782 1.704 1.212
4.865 1.483 1.208
4.850 1.307 1.074
5.488 1.099 1.244
5.425 1.111 0.902
3.967 2.189 1.511
4.381 2.215 1.383
4.325 2.225 1.204
4.613 2.066 1.138
5.058 1.683 0.970
4.933 1.845 1.059
5.244 1.633 0.815
3.684 2.498 1.350
4.299 2.388 1.173
4.474 1.971 1.034
4.362 2.290 0.648
4.554 2.422 0.489
4.957 1.841 0.590
5.379 1.601 0.423
3.854 2.901 1.029
3.969 2.924 0.927
4.011 2.666 0.743
4.250 2.333 0.753
4.594 2.429 0.391
4.641 2.311 0.494
4.818 2.171 0.255
3.527 3.152 0.853
3.915 3.077 0.884
3.817 2.808 0.521
4.460 2.772 0.473
4.608 2.455 0.608
4.511 2.695 0.097
4.715 2.635 0.044
3.137 3.699 0.671
3.608 3.667 0.584
4.049 3.328 0.533
4.070 2.917 0.498
4.290 2.859 0.470
4.426 2.628 0.264
4.537 3.029 0.192
3.460 4.005 0.327
3.471 3.575 0.375
3.781 3.505 0.261
3.950 3.427 0.198
4.220 2.961 0.295
4.525 2.984 -0.051
3.643 3.808 -0.021
3.912 3.947 -0.046
4.045 1.380 1.810
4.196 1.490 1.947
4.467 1.115 1.727
5.016 0.819 1.711
5.223 0.675 1.674
5.175 0.567 1.713
4.166 1.332 1.875
4.083 1.824 2.276
4.367 1.357 2.018
4.634 1.113 1.882
5.187 1.065 1.832
5.079 0.828 1.851
5.422 0.606 1.876
4.122 1.509 2.320
4.116 1.918 1.770
4.525 1.510 2.026
4.848 1.614 1.934
5.165 1.417 1.626
5.375 0.881 1.883
5.417 1.109 1.568
4.532 2.080 1.718
4.613 2.189 1.532
4.845 1.758 1.541
4.870 1.805 1.434
4.927 1.322 1.488
5.616 1.395 1.419
4.533 2.152 1.465
4.280 2.282 1.499
4.911 2.063 1.418
4.763 1.961 1.280
5.090 1.645 1.445
5.469 1.240 1.035
4.299 2.386 1.466
4.414 2.157 1.059
4.941 2.149 1.366
4.936 1.800 0.919
5.384 1.598 0.994
4.454 2.390 1.215
4.434 2.529 1.314
4.550 2.472 0.960
4.843 2.368 0.652
4.533 2.835 0.832
4.541 2.416 1.110
4.913 2.517 0.925
4.756 2.366 0.787
4.004 3.187 1.062
4.054 3.291 0.813
4.228 3.049 0.547
4.842 2.855 0.628
4.587 3.050 0.404
3.675 3.886 0.902
4.176 3.559 0.606
4.373 3.474 0.339
4.598 3.107 0.498
4.924 2.866 0.387
4.599 3.201 0.324
3.662 3.639 0.480
4.162 3.566 0.239
4.548 3.232 0.101
4.767 3.072 0.104
4.776 2.995 0.175
3.872 4.185 0.237
3.808 3.796 0.395
4.184 3.964 0.349
4.540 3.476 -0.076
4.672 3.299 -0.153
4.356 1.638 2.410
4.580 1.332 2.117
4.830 1.382 1.867
5.151 1.207 1.834
5.257 1.097 1.744
5.658 0.761 1.675
4.237 1.790 2.094
4.239 2.052 2.592
4.606 1.483 2.417
4.795 1.486 2.394
5.107 1.352 2.008
5.285 1.208 1.994
5.786 1.013 2.120
4.668 1.952 2.233
4.384 1.943 2.081
4.568 1.690 2.249
5.138 1.583 1.877
5.047 1.674 1.751
5.579 1.304 2.063
5.532 1.073 1.652
4.754 2.263 1.964
4.672 1.871 1.995
4.916 1.626 1.544
5.182 1.677 1.576
5.666 1.291 1.495
5.140 2.254 1.529
5.160 1.851 1.399
4.454 3.637 0.515
4.664 3.142 0.711
3.924 3.860 0.562
4.462 3.929 0.582
4.517 3.745 0.630
4.610 3.286 0.264
5.267 3.670 0.043
3.927 4.304 0.479
4.140 3.973 0.357
4.211 4.152 0.393
4.748 4.024 0.414
4.742 3.588 0.175
5.036 3.593 0.077
3.715 4.668 -0.007
4.376 4.210 0.059
4.635 4.209 0.090
4.572 2.075 2.239
4.655 1.627 2.253
5.041 1.588 2.226
5.181 1.362 2.165
5.210 1.352 2.045
5.910 0.919 2.250
4.550 1.804 2.613
4.864 1.829 2.646
5.316 1.779 2.273
5.274 1.324 2.601
5.714 1.527 2.405
6.077 1.256 2.093
5.085 2.251 2.169
5.146 1.882 2.373
5.312 1.844 2.313
5.754 1.459 1.916
4.225 4.135 0.362
4.363 4.017 0.685
4.943 4.026 0.532
4.919 4.016 0.422
4.245 4.961 0.470
4.341 4.723 0.351
4.607 4.462 0.294
4.757 4.338 0.157
5.257 3.795 0.004
3.804 5.290 0.077
4.052 4.981 0.157
4.217 4.903 0.036
5.100 1.731 2.499
5.089 1.451 2.530
5.522 1.414 2.556
5.440 1.452 2.423
5.869 1.063 2.020
5.148 2.105 2.766
5.269 1.909 2.710
5.562 1.865 2.666
5.797 1.302 2.476
5.851 1.194 2.296
5.649 1.607 2.224
5.821 1.894 2.358
4.414 4.648 0.830
4.573 4.434 0.443
4.158 4.868 0.617
4.633 4.793 0.584
4.558 4.600 0.276
5.173 4.378 0.146
5.046 4.040 0.435
4.115 5.231 0.300
4.470 5.035 0.245
4.749 5.117 0.256
4.875 4.641 0.274
5.304 4.724 0.217
5.125 4.544 0.004
4.006 5.486 -0.048
4.431 5.282 0.205
5.220 2.117 2.795
5.309 1.883 2.480
5.374 1.758 2.748
5.988 1.456 2.525
5.883 1.242 2.284
5.597 2.145 2.746
5.825 1.746 2.582
5.796 1.741 2.574
6.173 1.259 2.518
4.407 5.097 0.554
4.701 4.864 0.611
4.952 5.009 0.420
4.910 4.790 0.453
5.254 4.390 0.651
4.377 5.449 0.682
4.499 5.127 0.375
4.969 4.955 0.409
5.188 4.852 0.126
5.057 4.708 0.487
5.303 4.438 0.318
4.363 5.725 0.059
4.620 5.426 0.124
4.664 5.206 0.104
4.877 5.120 -0.060
5.422 4.679 0.094
4.593 5.622 -0.203
5.693 2.255 2.938
5.671 1.621 2.753
5.764 1.445 2.783
6.187 1.247 2.591
5.958 1.988 2.927
4.596 5.451 0.743
4.796 5.213 0.976
5.108 5.234 0.829
4.385 5.612 0.815
4.882 5.424 0.827
4.942 5.080 0.748
5.002 5.010 0.648
5.557 4.901 0.628
4.426 5.714 0.598
4.669 5.658 0.451
5.258 5.552 0.386
5.397 5.026 0.275
5.420 5.021 0.182
5.740 4.995 0.365
4.662 5.855 0.132
4.884 5.851 0.225
5.061 5.837 0.002
5.568 5.611 -0.075
6.036 1.728 2.775
3.998 0.189 0.026
1.637 2.426 0.120
4.119 0.055 0.671
4.458 0.035 0.610
3.982 0.407 0.349
4.365 0.306 0.307
4.709 0.075 0.436
3.945 0.671 0.028
4.129 0.550 0.243
4.311 0.233 0.162
4.815 -0.041 0.268
1.941 2.753 0.467
2.334 2.611 -0.029
2.623 2.210 -0.047
4.128 0.016 1.162
4.106 0.395 0.952
3.965 0.438 0.694
4.429 0.435 0.587
4.513 0.177 0.795
3.579 1.007 0.857
4.139 0.965 0.814
4.460 0.626 0.770
4.430 0.592 0.539
4.688 0.424 0.373
5.141 0.008 0.347
3.915 1.105 0.643
3.868 0.838 0.208
4.263 0.660 0.244
4.431 0.514 0.101
4.966 0.306 0.319
4.865 0.113 0.344
3.595 1.261 0.230
3.969 1.186 0.456
4.271 1.258 0.047
4.417 0.901 0.096
4.391 0.945 -0.002
3.501 1.533 0.217
3.833 1.253 0.327
3.904 1.474 -0.033
2.026 2.531 0.249
2.544 2.620 0.589
2.493 2.303 0.400
3.168 2.348 0.099
2.995 1.952 -0.032
3.554 1.991 -0.115
3.512 1.747 0.078
2.419 2.706 0.040
2.689 2.938 0.225
2.930 2.648 0.056
4.532 -0.213 1.208
0.099 0.337 5.240
0.386 0.533 5.055
0.489 0.313 4.926
0.568 0.141 4.724
0.745 0.079 4.286
0.673 0.159 5.422
0.995 0.048 4.839
0.871 0.179 4.779
-0.033 4.123 3.490
-0.132 4.225 3.050
0.440 3.873 2.954
0.270 4.079 3.736
0.139 4.066 3.670
-0.060 4.552 3.684
0.041 4.506 3.199
0.574 4.251 3.173
0.348 4.028 4.362
-0.073 4.469 4.065
0.374 4.311 4.009
0.718 3.994 4.095
0.161 4.840 4.146
0.425 4.570 3.712
0.732 4.179 3.700
0.004 4.654 3.645
0.676 4.704 3.473
0.467 4.350 3.401
0.212 4.221 4.964
0.280 4.107 4.744
0.102 4.427 4.731
0.301 4.350 4.389
0.645 4.036 4.246
0.177 5.010 4.460
0.437 4.778 4.334
0.478 4.627 4.077
0.630 4.066 4.410
-0.074 5.107 4.128
0.231 4.894 4.249
0.583 4.650 4.215
0.688 4.253 4.126
1.107 4.341 3.767
0.013 5.118 3.798
0.508 4.906 3.710
0.855 4.647 3.918
0.820 4.521 3.664
1.328 4.693 3.498
0.146 4.103 5.468
0.096 4.706 5.025
0.522 4.301 4.804
0.626 4.440 4.947
0.329 5.001 4.644
0.487 4.683 4.809
0.783 4.268 4.600
0.888 4.218 4.477
1.034 3.989 4.478
-0.006 4.898 4.724
0.372 4.744 4.584
0.511 4.437 4.635
1.084 4.257 4.214
1.351 4.425 4.366
0.199 5.615 4.380
0.316 5.300 4.308
0.458 4.871 4.381
0.526 4.801 4.111
1.039 4.566 4.238
1.095 4.473 4.233
0.244 5.530 4.037
0.258 5.439 3.944
0.795 5.439 3.911
0.929 5.024 3.820
0.972 5.043 3.926
1.502 4.718 3.935
2.739 2.113 5.412
2.521 2.319 5.394
2.642 2.615 5.215
2.654 2.325 5.290
-0.080 4.622 5.604
0.344 4.292 5.661
2.794 2.919 4.794
2.875 2.475 4.613
0.379 4.700 5.127
0.604 4.774 5.009
0.945 4.382 5.118
0.782 4.255 5.008
1.182 3.906 5.058
0.031 5.045 4.948
0.255 5.145 4.851
0.484 4.974 4.746
0.661 4.629 4.715
1.267 4.631 5.008
1.222 4.291 4.686
1.449 4.182 4.879
1.856 4.154 4.672
0.343 5.178 5.015
0.551 5.042 4.679
0.515 5.115 4.724
0.685 4.698 4.610
1.103 4.636 4.760
1.354 4.548 4.752
1.594 4.066 4.689
1.990 4.069 4.537
0.239 5.349 4.413
0.512 5.314 4.683
0.531 5.376 4.546
0.922 5.162 4.493
0.956 4.644 4.221
1.482 4.836 4.270
1.507 4.304 4.014
0.226 5.655 4.339
0.295 5.756 4.102
0.584 5.275 4.408
0.853 4.981 4.020
1.342 4.907 4.231
1.316 4.744 3.805
1.951 4.747 4.131
2.743 2.495 6.018
3.051 2.251 5.934
2.603 2.911 5.674
2.744 2.590 5.676
2.954 2.598 5.670
2.412 3.151 5.441
2.701 2.887 5.472
2.823 2.698 5.168
-0.014 5.072 5.699
2.177 3.472 5.288
2.329 3.489 5.403
2.410 3.285 5.121
2.692 2.869 5.082
3.047 2.751 4.838
0.055 5.198 5.582
0.417 5.241 5.281
0.425 4.727 5.386
0.936 4.755 5.527
0.952 4.450 5.387
1.215 4.190 4.992
1.577 4.306 5.008
2.034 3.719 4.898
2.098 3.533 4.878
2.572 3.544 4.808
2.508 3.493 4.764
2.859 3.181 5.043
3.136 3.173 4.940
0.109 5.557 5.363
0.464 5.027 5.251
0.501 4.982 5.299
1.092 5.038 4.891
1.337 4.694 4.817
1.517 4.416 5.108
1.570 4.474 4.939
1.727 4.127 4.869
2.199 4.066 4.822
2.375 3.623 4.758
2.549 3.499 4.857
0.423 5.763 4.814
0.578 5.538 4.819
0.987 5.040 4.761
0.909 4.833 4.795
1.492 4.633 4.593
1.527 4.567 4.850
1.736 4.693 4.745
2.153 4.142 4.757
2.177 3.957 4.563
0.551 5.829 4.910
0.398 5.496 4.870
0.656 5.586 4.866
1.237 5.265 4.593
1.380 4.826 4.657
1.466 4.944 4.242
1.667 4.453 4.597
1.929 4.568 4.448
2.472 4.138 4.257
0.844 5.566 4.228
0.890 5.413 4.298
1.184 5.622 4.308
1.607 5.031 4.119
1.548 5.193 4.298
1.960 4.944 4.128
2.338 4.846 4.221
0.376 0.107 1.765
0.103 0.269 1.718
0.273 0.244 2.365
0.094 -0.014 2.333
0.020 0.352 2.859
0.005 0.170 2.621
0.278 1.800 1.490
0.285 0.333 3.666
-0.097 1.902 1.705
0.235 0.111 4.136
0.296 0.404 3.941
0.245 0.237 3.772
0.771 0.071 3.769
0.069 0.340 4.536
0.035 0.387 4.247
0.225 0.048 4.312
0.327 0.075 4.178
0.959 0.102 4.210
0.240 0.246 4.935
0.200 0.115 4.677
0.688 0.171 4.959
0.464 0.504 4.360
0.825 -0.007 4.505
1.263 0.108 4.370
1.189 0.249 4.566
1.451 0.474 4.466
1.498 0.217 4.278
1.463 0.162 5.183
1.444 0.315 4.954
1.708 0.232 4.534
1.697 0.216 4.576
1.864 0.086 4.383
2.288 0.474 4.194
2.400 -0.094 3.904
4.201 0.344 1.782
4.670 0.091 1.580
1.554 0.402 5.185
1.896 0.153 5.056
1.538 0.259 4.810
2.117 0.286 4.793
2.367 0.036 4.805
2.198 0.631 4.746
2.332 0.357 4.627
2.241 -0.083 4.677
2.240 0.539 4.372
2.514 0.248 4.350
2.948 0.335 4.314
3.964 0.715 1.912
4.421 0.947 2.152
4.661 0.466 1.901
4.639 0.256 1.868
1.837 0.295 5.759
1.845 0.457 5.354
2.291 -0.031 5.205
2.097 0.377 5.276
2.401 0.521 5.107
2.728 0.178 5.003
2.215 0.647 4.861
2.247 0.332 4.903
2.605 0.200 4.489
2.995 0.101 4.613
2.350 0.831 4.717
2.696 0.438 4.609
2.662 0.384 4.224
2.794 0.168 4.167
3.143 0.001 4.175
2.754 0.816 4.398
3.022 0.495 4.436
3.235 0.367 4.280
3.349 0.285 3.948
3.148 0.782 3.724
3.421 0.217 3.939
4.256 0.668 2.829
4.536 0.617 2.502
4.121 1.007 2.408
4.356 0.906 2.341
4.617 0.631 2.544
4.872 0.438 2.328
4.070 1.194 2.304
4.233 1.048 2.169
4.734 0.723 2.216
4.968 0.749 2.239
5.176 0.719 2.217
5.386 0.527 2.076
4.213 1.261 2.265
2.179 0.173 5.780
2.257 0.382 5.471
2.760 0.280 5.351
2.423 0.485 5.035
2.278 0.278 5.073
2.890 0.513 5.078
3.176 -0.116 5.153
2.345 0.841 4.906
2.352 0.777 4.924
2.832 0.340 5.124
3.005 0.370 4.902
3.558 -0.031 4.823
3.505 0.315 4.463
2.319 1.019 4.965
2.583 0.999 4.592
2.753 0.659 4.867
2.967 0.475 4.580
3.501 0.497 4.570
3.800 0.243 4.453
3.678 0.061 4.000
2.707 0.977 4.494
2.846 0.900 4.371
3.278 0.728 4.263
3.262 0.330 4.129
3.782 0.409 4.081
4.002 0.587 4.147
2.881 1.234 4.293
3.174 1.083 4.149
3.431 0.582 4.285
3.485 0.501 3.895
3.732 0.285 3.985
4.023 0.609 3.720
3.898 0.235 3.734
3.011 1.112 3.693
3.523 0.968 3.893
3.400 0.694 3.779
3.820 0.797 3.517
3.687 0.986 3.589
4.039 0.552 3.564
3.878 1.134 3.587
4.099 0.988 3.404
4.153 0.808 3.231
4.408 0.820 2.958
4.281 0.479 2.847
4.535 0.632 3.183
3.578 1.213 3.449
3.850 0.838 3.147
3.848 1.101 3.151
4.215 0.907 3.122
4.624 0.906 2.710
4.857 0.808 2.554
4.937 0.460 2.904
4.273 0.997 3.166
3.967 1.268 2.549
4.301 0.935 2.821
4.546 0.823 2.740
4.990 0.969 2.515
5.222 0.732 2.222
4.291 1.240 2.774
4.172 1.687 2.538
4.548 1.548 2.561
4.817 1.297 2.413
4.778 0.868 2.054
5.053 0.759 2.075
5.251 0.600 2.044
4.075 1.410 2.445
2.399 0.463 5.585
3.008 0.365 5.659
2.910 0.091 5.699
2.606 0.888 5.474
2.664 0.495 5.505
2.989 0.590 5.187
2.992 0.512 5.409
3.536 -0.026 5.360
3.688 0.336 4.961
2.703 0.796 5.346
3.001 0.750 4.957
2.983 0.665 5.154
3.134 0.369 5.182
3.594 0.432 5.163
3.965 -0.097 5.046
3.652 0.134 4.765
2.411 1.360 4.733
2.695 1.006 5.066
3.148 1.004 4.767
3.190 0.774 4.806
3.444 0.371 4.818
3.611 0.378 4.689
3.772 0.268 4.161
4.328 0.473 4.247
2.554 1.494 4.472
3.015 1.204 4.858
3.108 0.788 4.522
3.432 0.850 4.471
3.806 0.867 4.558
4.095 0.322 4.225
3.772 0.841 4.244
4.321 0.296 4.163
2.525 1.564 4.321
2.966 1.273 4.210
3.376 1.423 4.293
3.379 1.076 4.322
3.609 0.878 4.411
4.020 0.570 3.908
3.978 0.884 3.934
4.322 0.699 3.755
4.289 0.440 3.619
2.893 1.593 4.173
3.420 1.290 4.097
3.418 1.183 4.177
3.771 0.818 3.710
4.136 0.788 3.937
3.989 1.048 3.839
4.299 0.868 3.795
4.629 0.659 3.363
4.750 0.326 3.530
3.211 1.761 3.624
3.491 1.216 3.783
3.805 1.396 3.496
3.870 0.945 3.716
4.392 1.001 3.422
4.245 1.172 3.164
4.586 0.891 3.108
5.144 0.515 3.002
4.939 0.329 3.184
3.645 1.654 3.500
4.137 1.260 3.547
4.114 0.931 3.209
4.163 1.238 3.089
4.299 1.009 2.878
4.940 0.969 3.013
5.019 0.868 3.086
5.080 0.447 2.884
5.607 0.324 2.770
4.187 1.550 3.269
4.423 1.148 2.934
4.364 1.636 2.694
4.720 1.202 2.765
4.789 1.332 2.909
5.219 0.822 2.612
5.348 0.791 2.799
5.740 0.499 2.654
3.948 1.560 2.922
4.463 1.504 2.714
4.561 1.854 2.628
4.596 1.615 2.777
4.955 1.265 2.386
5.269 1.361 2.332
5.475 0.987 2.397
5.684 0.590 2.220
4.220 1.567 2.487
2.726 0.724 5.676
3.273 0.534 5.650
3.593 0.705 5.626
3.732 0.408 5.174
2.649 1.045 5.146
3.032 0.860 5.309
3.277 1.037 5.294
3.236 0.816 5.192
3.664 0.259 5.045
3.773 0.461 4.981
2.305 1.390 4.980
2.600 1.190 5.303
2.911 1.420 5.064
3.093 1.003 4.860
3.570 0.960 5.170
3.770 0.729 4.666
4.128 0.670 4.873
4.247 0.757 4.796
4.510 0.366 4.558
2.532 1.953 4.781
2.812 1.602 5.097
2.985 1.336 4.758
3.143 1.404 4.864
3.612 1.041 4.592
3.733 0.646 4.627
4.281 0.831 4.459
3.911 0.615 4.291
4.603 0.409 4.402
3.102 1.931 4.539
3.128 1.340 4.548
3.606 1.156 4.498
3.426 1.412 4.462
3.949 0.838 4.466
4.361 0.608 4.249
4.329 0.951 3.898
4.321 0.893 3.895
4.730 0.638 3.882
2.984 2.114 4.367
3.074 1.717 4.329
3.626 1.445 4.303
3.706 1.206 4.375
3.912 1.138 4.046
4.323 0.811 4.086
4.111 1.269 3.905
4.467 0.834 3.735
4.560 0.631 3.574
5.029 0.595 3.727
5.489 0.269 3.576
3.141 2.072 4.062
3.623 1.654 3.816
4.016 1.325 4.159
4.169 1.123 3.973
4.105 0.959 3.835
4.520 1.257 3.431
4.604 0.926 3.284
4.916 0.912 3.505
5.057 0.712 3.342
5.390 0.648 3.079
5.820 0.339 3.485
3.962 1.553 3.449
4.127 1.597 3.841
4.256 1.575 3.552
4.243 1.363 3.270
4.827 1.450 3.353
5.144 0.935 3.107
5.224 0.766 2.962
5.575 0.620 3.296
5.523 0.730 3.001
4.106 1.677 3.161
4.260 1.639 3.285
4.657 1.568 3.126
4.830 1.388 2.958
5.050 1.228 3.153
5.361 1.020 2.705
5.515 0.871 2.577
5.702 0.587 2.674
6.076 0.676 2.649
4.032 1.850 3.082
4.644 1.814 2.913
4.571 1.661 2.783
4.576 1.651 2.702
4.890 1.354 2.782
5.125 1.459 2.700
5.566 0.947 2.556
5.935 0.781 2.524
5.820 0.669 2.231
4.515 1.962 2.776
2.863 0.980 5.689
3.201 1.004 5.491
2.931 1.308 5.692
3.015 1.104 5.459
3.309 1.071 5.550
3.416 0.854 5.445
3.749 0.868 5.309
4.419 0.575 5.152
2.818 1.705 5.151
2.946 1.511 5.315
3.146 1.394 5.472
3.395 1.434 5.365
3.562 1.051 4.923
4.016 0.747 5.015
4.049 0.534 4.946
4.026 0.622 4.523
2.597 1.761 5.174
2.812 1.711 4.853
3.451 1.654 4.999
3.412 1.399 4.712
3.689 1.314 4.967
3.794 1.192 4.926
4.381 0.722 4.714
4.136 1.231 4.725
4.369 0.725 4.352
2.767 1.921 4.643
2.948 1.815 4.792
3.515 1.869 4.665
3.518 1.392 4.615
3.854 1.441 4.741
4.295 1.313 4.460
4.534 0.985 4.556
4.235 1.322 4.056
4.461 0.971 4.192
4.904 0.846 3.974
5.007 0.692 4.173
2.796 2.471 4.420
3.397 1.904 4.334
3.529 1.682 4.562
3.888 1.910 4.392
3.694 1.391 4.145
4.297 1.567 4.308
4.333 1.293 4.443
4.594 1.118 4.190
4.883 1.007 3.934
4.938 0.952 3.760
5.102 0.583 3.586
5.424 0.804 3.722
3.265 1.893 4.152
3.860 1.847 4.178
4.156 1.544 4.298
4.369 1.736 4.144
4.399 1.462 3.931
4.739 1.295 3.762
4.610 1.409 3.868
5.012 1.309 3.783
5.268 0.901 3.749
5.344 0.614 3.416
5.690 0.707 3.652
5.920 0.583 3.588
3.825 2.257 3.815
4.157 1.952 3.964
4.233 1.538 3.952
4.315 1.591 3.841
4.654 1.815 3.656
4.773 1.275 3.381
5.320 1.230 3.341
5.266 1.345 3.126
5.695 1.077 3.218
5.988 0.563 3.233
6.154 0.762 3.128
4.385 2.065 3.754
4.427 1.536 3.396
4.719 1.925 3.277
5.054 1.836 2.990
5.333 1.380 3.333
5.205 1.484 2.938
5.623 1.111 3.153
5.993 1.145 2.904
6.388 0.974 2.763
4.826 1.954 3.274
4.869 1.840 3.170
5.050 2.076 2.978
5.358 1.675 2.796
5.421 1.448 2.626
5.602 1.103 2.952
5.976 1.326 2.624
6.423 0.804 2.635
4.609 2.177 3.126
2.901 1.592 5.949
2.847 1.444 5.766
3.383 1.559 5.780
3.649 1.372 5.610
3.946 1.105 5.600
2.796 2.035 5.760
3.067 1.758 5.274
3.477 1.606 5.471
3.619 1.318 5.432
3.993 1.352 5.419
4.293 1.001 5.084
4.412 0.950 5.060
2.904 2.204 5.088
3.077 2.040 5.078
3.586 1.698 5.166
3.736 1.778 5.240
3.895 1.211 4.980
4.235 1.335 5.041
4.347 1.100 5.117
4.363 1.164 4.844
4.730 0.825 4.649
3.243 2.315 5.271
3.284 1.947 4.919
3.674 2.155 4.931
3.637 1.675 4.852
3.786 1.769 4.598
4.457 1.596 4.650
4.332 1.020 4.518
4.750 1.468 4.334
4.898 1.369 4.427
5.147 1.198 4.475
5.203 0.630 4.330
2.990 2.304 4.662
3.154 2.454 4.747
3.660 2.006 4.711
3.619 1.908 4.800
4.142 1.506 4.388
4.441 1.422 4.493
4.799 1.129 4.197
4.692 1.681 4.223
5.034 1.412 3.949
5.284 1.270 3.925
5.594 0.740 3.766
5.749 0.973 3.860
5.981 0.731 3.937
6.357 0.563 3.732
3.204 2.537 4.319
3.357 2.649 4.504
3.781 2.330 4.544
4.038 2.221 4.493
3.956 1.705 4.201
4.195 1.723 4.462
4.438 1.668 4.332
4.687 1.709 3.895
4.752 1.635 4.014
5.292 1.486 3.959
5.684 1.314 3.790
5.722 0.872 3.737
5.972 0.661 3.509
6.067 0.666 3.547
4.075 2.447 4.297
4.463 2.204 4.130
4.665 1.735 4.055
4.842 1.774 3.809
4.646 2.050 3.858
4.877 1.675 3.750
5.301 1.620 3.496
5.495 1.334 3.418
5.573 1.189 3.412
6.004 1.138 3.388
6.436 0.984 3.455
4.333 1.927 3.530
4.728 1.872 3.791
4.964 1.842 3.495
5.077 1.807 3.212
5.585 1.527 3.348
5.521 1.591 3.359
5.632 1.228 2.952
5.909 1.193 2.992
4.784 1.919 3.344
5.170 2.013 2.967
5.564 1.879 3.030
5.715 1.812 2.960
5.678 1.370 2.696
6.265 1.211 2.940
3.190 1.727 6.143
3.049 1.660 5.883
3.622 1.368 5.778
3.192 2.323 5.700
3.532 2.002 5.578
3.685 1.647 5.671
3.813 1.331 5.477
4.293 1.341 5.324
3.370 2.450 5.346
3.229 1.917 5.242
3.532 1.987 5.503
4.100 1.964 5.258
4.037 1.778 5.312
4.483 1.543 4.942
3.068 2.543 5.269
3.454 2.089 5.165
3.632 1.947 5.291
3.849 1.836 5.020
4.238 1.580 5.072
4.663 1.480 5.119
4.768 1.437 4.433
4.922 1.436 4.441
3.483 2.819 4.852
3.545 2.241 5.017
3.544 2.234 4.814
3.968 2.042 4.734
4.169 1.969 4.630
4.452 1.773 4.815
4.699 1.573 4.814
4.970 1.913 4.536
4.960 1.463 4.425
5.088 1.148 4.155
5.346 1.064 4.087
6.006 1.087 4.026
6.051 0.722 4.087
3.359 2.615 4.899
3.467 2.420 4.776
4.015 2.241 4.414
4.116 2.240 4.676
4.534 2.018 4.504
4.770 1.938 4.308
5.009 1.578 4.544
5.097 1.653 4.113
5.126 1.675 3.815
5.402 1.319 4.098
5.723 1.377 3.735
5.798 1.037 3.888
6.081 1.107 4.019
4.703 1.986 4.003
5.119 1.867 4.112
5.106 1.841 3.635
5.453 1.688 3.914
5.628 1.602 3.621
5.873 1.141 3.735
6.084 0.987 3.335
5.437 2.134 3.696
5.426 1.791 3.573
5.569 1.713 3.547
6.169 1.421 3.365
6.044 1.382 3.375
5.418 1.906 3.402
5.906 2.008 3.270
6.334 1.827 2.894
1.223 -0.022 4.289
2.819 2.728 6.328
2.958 2.130 6.092
2.474 2.772 5.844
2.773 2.468 6.241
2.974 2.438 5.855
2.361 3.019 5.674
2.479 3.236 5.813
2.938 3.037 5.593
3.144 2.683 5.775
2.287 3.432 5.777
2.469 3.453 5.812
2.504 3.403 5.758
2.709 3.017 5.323
3.178 2.793 5.651
1.759 4.182 5.403
2.024 4.052 5.456
2.433 3.586 5.676
2.668 3.413 5.512
2.647 3.408 5.234
3.188 2.993 5.302
3.434 3.096 5.370
0.900 4.712 5.620
1.418 4.813 5.464
1.477 4.522 5.429
1.994 4.233 5.505
1.962 4.117 5.095
2.293 4.021 5.284
2.619 3.730 5.274
2.848 3.574 5.033
3.247 3.556 4.814
3.406 3.387 5.048
0.523 5.398 5.576
1.133 5.186 5.240
1.279 4.925 5.045
1.285 4.884 5.041
1.546 4.881 5.202
1.753 4.550 5.047
2.134 4.326 5.101
2.599 4.172 4.909
2.521 4.081 4.886
3.022 3.929 4.756
3.005 3.683 4.835
3.366 3.354 4.520
0.633 5.631 4.892
1.154 5.266 4.918
1.028 5.222 5.184
1.511 5.176 4.713
1.584 4.910 4.989
2.035 4.745 4.681
2.434 4.257 4.966
2.249 4.070 4.864
2.782 4.019 4.608
2.891 3.733 4.800
1.227 5.538 4.624
1.433 5.166 4.642
1.488 5.211 4.471
1.769 4.981 4.868
1.838 4.926 4.460
2.168 4.635 4.591
2.483 4.489 4.500
2.953 4.299 4.393
1.225 5.735 4.801
1.204 5.586 4.365
1.584 5.171 4.573
1.704 5.138 4.558
1.998 5.185 4.547
2.282 4.754 4.229
2.593 4.864 4.297
2.923 2.920 6.389
3.140 2.722 6.355
3.240 2.834 6.344
2.431 3.298 6.208
2.819 3.048 6.243
2.969 3.054 5.891
3.287 2.781 5.650
2.552 3.837 5.829
2.579 3.529 6.023
2.908 3.330 5.523
3.128 3.130 5.465
3.407 2.966 5.616
1.963 4.289 5.853
2.007 3.924 5.599
2.285 3.858 5.684
2.750 3.709 5.742
2.828 3.347 5.562
3.362 3.446 5.597
3.620 3.057 5.159
1.649 4.481 5.332
1.917 4.345 5.719
2.483 4.246 5.318
2.364 4.267 5.471
2.915 3.702 5.215
3.123 3.571 5.124
3.225 3.410 5.301
3.625 3.451 5.254
1.263 5.292 5.372
1.492 5.120 5.322
2.051 5.070 5.343
2.292 4.595 5.179
2.109 4.299 5.418
2.356 4.263 5.149
2.929 4.273 4.885
3.133 3.997 4.807
3.294 3.761 4.818
3.562 3.472 4.672
1.410 5.224 5.147
1.801 5.131 5.157
1.920 5.026 5.260
2.250 5.069 5.057
2.607 4.469 4.919
2.587 4.317 4.913
3.095 4.272 5.028
2.911 3.930 4.919
1.373 5.389 4.797
1.609 5.209 4.711
1.953 5.095 5.044
2.104 4.798 4.738
2.602 4.631 4.618
2.910 4.727 4.775
3.020 4.505 4.641
1.630 5.789 4.765
1.648 5.564 4.660
1.923 5.508 4.403
2.451 5.275 4.569
2.722 5.123 4.570
2.723 4.874 4.481
3.010 4.462 4.335
2.525 3.509 6.081
3.194 3.616 6.083
2.967 2.984 6.259
3.285 3.059 6.164
2.403 4.172 6.045
2.725 3.979 6.014
2.918 3.426 5.959
3.432 3.230 5.890
3.432 3.023 5.788
2.589 4.163 5.833
2.457 4.226 6.032
3.029 4.046 5.664
2.865 3.899 5.526
3.507 3.736 5.531
3.588 3.420 5.626
2.096 4.750 5.542
2.125 4.897 5.469
2.627 4.662 5.389
2.635 4.354 5.792
2.821 4.220 5.598
3.341 4.140 5.403
3.333 3.969 5.207
3.650 3.658 5.521
1.930 5.102 5.575
1.868 5.085 5.603
2.037 4.742 5.389
2.595 4.765 5.314
2.769 4.348 5.134
3.157 4.471 5.365
3.389 3.945 5.055
3.695 4.012 4.942
1.907 5.607 5.398
2.310 5.418 5.042
2.534 4.974 5.284
2.400 5.075 5.044
2.584 4.766 5.195
2.999 4.518 4.768
3.527 4.108 5.067
1.802 5.792 5.162
2.134 5.565 5.157
2.242 5.419 5.051
2.483 5.091 5.138
2.502 4.958 5.074
2.796 5.016 4.917
2.902 4.653 4.605
3.348 4.565 4.564
1.669 5.960 4.999
1.911 5.791 4.577
2.221 5.370 4.754
2.335 5.571 4.756
2.835 5.299 4.738
2.957 5.032 4.627
3.120 4.670 4.304
3.434 3.023 6.323
2.493 4.039 6.235
2.769 3.769 6.361
3.362 3.672 6.236
3.680 3.573 5.954
3.479 3.198 5.993
2.727 4.663 6.041
2.876 4.289 5.930
3.081 4.026 5.708
3.190 3.926 5.652
3.419 3.884 6.029
3.793 3.554 5.979
2.276 4.892 5.716
2.728 4.729 5.792
2.925 4.591 5.595
3.279 4.221 5.659
3.396 4.283 5.495
3.718 3.883 5.362
3.944 3.740 5.598
2.262 5.015 5.578
2.476 5.174 5.531
2.882 4.735 5.468
2.699 4.522 5.649
3.202 4.514 5.324
3.518 4.125 5.252
3.628 3.976 5.416
2.089 5.765 5.542
2.059 5.560 5.559
2.392 5.000 5.201
2.893 4.841 5.285
3.019 4.887 5.345
3.257 4.490 5.144
3.414 4.354 5.309
2.288 5.989 5.417
2.111 5.648 5.146
2.557 5.530 5.034
2.885 5.260 4.811
3.236 4.943 5.031
3.313 5.048 5.041
3.671 4.872 4.948
1.947 6.118 5.153
2.521 5.982 5.039
2.589 5.770 4.936
2.895 5.243 4.622
3.159 5.108 4.720
3.560 4.847 4.900
3.734 3.913 6.391
3.950 3.661 6.281
2.759 4.500 6.041
3.357 4.323 6.223
3.289 4.089 5.856
3.636 4.125 6.072
4.067 3.512 5.773
2.824 4.759 5.708
3.110 4.714 5.718
3.421 4.149 5.795
2.609 5.161 6.023
2.949 5.177 5.494
3.179 4.713 5.638
3.265 4.627 5.521
3.818 4.575 5.336
2.526 5.544 5.661
2.803 5.467 5.387
2.903 5.094 5.438
3.116 5.193 5.579
3.237 5.015 5.439
2.536 5.683 5.479
2.894 5.713 5.239
3.232 5.183 5.277
3.058 5.178 4.984
3.340 4.836 5.165
2.159 5.913 5.096
2.764 5.988 5.262
2.619 5.810 4.978
3.196 5.326 4.815
3.454 5.428 5.133
3.515 4.971 4.776
2.957 5.195 5.773
3.403 5.148 5.757
2.521 5.924 5.532
2.789 5.555 5.572
3.306 5.734 5.168
3.427 5.169 5.512
2.651 5.930 5.457
2.903 5.942 5.393
3.304 5.911 5.338
3.554 5.651 4.966
3.834 5.207 4.949
3.157 5.927 5.248
3.338 5.906 5.312
3.830 5.763 5.192
2.994 1.936 5.968
3.671 1.808 5.952
3.778 1.752 5.790
3.230 2.176 6.050
3.468 2.130 5.725
3.527 2.105 5.849
3.787 1.855 5.548
3.450 2.343 5.528
3.456 2.460 5.811
3.904 2.321 5.364
3.994 1.941 5.265
3.183 2.478 5.255
3.453 2.540 5.209
3.911 2.207 5.235
3.948 2.041 5.051
4.525 2.078 5.294
3.425 2.747 5.006
3.857 2.700 5.066
3.879 2.587 5.076
4.367 2.258 4.867
4.295 1.914 5.064
6.189 1.022 4.073
6.087 0.952 4.090
3.655 3.148 4.883
3.610 2.629 5.044
4.216 2.629 4.868
5.597 1.463 4.081
5.929 1.361 3.907
6.280 1.240 4.009
5.592 1.953 4.023
5.711 1.575 3.632
5.995 1.387 3.596
6.061 1.629 3.610
6.097 1.526 3.368
6.243 2.097 3.361
6.424 2.020 3.415
3.827 2.122 6.373
3.251 2.335 6.251
3.889 2.390 6.225
3.845 2.081 5.878
3.664 2.544 5.609
3.715 2.487 5.622
4.234 2.480 5.591
3.471 2.615 5.753
4.006 2.888 5.582
3.952 2.570 5.619
3.740 3.159 5.152
4.072 2.784 5.328
4.195 2.422 5.169
3.563 3.399 5.223
6.176 1.738 4.417
3.854 2.449 6.437
4.101 2.473 6.153
4.281 2.296 5.963
3.611 3.004 5.923
3.744 2.754 5.989
4.419 2.397 6.034
3.569 3.193 5.908
4.100 3.055 5.864
3.946 3.204 5.524
4.179 2.872 5.478
3.908 3.431 5.294
3.926 3.227 6.221
4.273 2.667 6.014
3.987 3.399 6.021
4.254 2.856 5.728
3.929 3.457 5.812
4.196 3.462 6.275
0.433 3.293 1.804
0.707 3.395 1.803
0.088 3.897 1.502
0.139 3.625 1.460
0.688 3.224 1.728
0.751 3.152 1.485
-0.070 3.785 1.588
0.595 3.520 1.166
0.692 3.512 1.432
0.712 3.529 1.015
0.135 4.150 1.191
0.512 3.758 1.228
0.482 3.734 1.072
1.105 3.452 1.100
1.127 3.519 0.743
1.339 3.184 0.697
0.086 4.550 0.755
0.338 4.461 0.713
0.736 4.284 0.941
0.832 4.025 0.950
1.207 3.607 0.895
1.053 3.563 0.641
1.721 3.468 0.508
1.647 3.126 0.465
1.924 2.851 0.343
0.855 3.645 0.661
1.170 3.580 0.342
1.586 3.613 0.348
1.945 3.425 0.377
1.966 3.070 0.088
1.854 3.867 0.138
1.717 3.308 0.261
-0.030 3.388 2.309
0.230 3.516 1.904
0.383 3.545 1.908
0.017 3.960 1.908
0.548 3.878 1.978
-0.018 4.129 1.739
0.185 4.254 1.796
0.669 3.714 1.614
1.012 3.537 1.383
0.219 4.666 1.580
0.601 4.450 1.460
0.711 3.892 1.290
0.648 3.876 1.360
-0.008 4.808 0.918
0.621 4.246 1.171
1.858 3.427 0.380
2.080 3.338 0.498
2.129 3.465 0.295
2.218 3.715 0.227
0.173 3.739 2.217
0.238 3.989 2.554
0.045 3.906 2.176
0.553 3.753 2.199
0.204 4.138 2.258
0.502 4.122 1.928
-0.076 4.607 2.017
0.116 4.430 1.837
0.376 4.040 1.589
0.104 4.632 1.531
0.387 4.743 1.554
0.447 4.610 1.606
0.376 4.895 1.367
-0.008 4.078 2.471
0.206 3.987 2.825
0.273 4.330 2.469
0.377 4.400 2.385
0.465 3.915 2.317
0.216 4.505 2.423
0.446 4.241 2.276
0.631 4.253 2.001
0.048 4.611 2.122
0.321 4.507 1.868
-0.144 5.304 2.049
0.336 4.934 1.739
0.427 4.841 1.570
0.271 5.373 1.609
0.445 5.229 1.397
0.344 4.074 2.539
-0.026 4.554 2.875
0.250 4.261 2.908
0.445 4.536 2.791
0.677 4.570 2.835
-0.059 5.012 2.647
0.119 4.599 2.678
0.365 4.732 2.388
0.242 5.080 2.269
0.595 5.082 2.146
0.484 4.662 2.106
0.233 5.288 1.984
0.524 5.102 2.170
0.062 5.639 1.648
0.256 5.503 1.772
0.081 5.702 1.567
0.171 4.559 2.797
0.269 4.374 2.767
0.007 4.819 3.369
0.459 4.578 3.043
0.783 4.526 3.324
0.366 5.196 3.166
0.390 4.682 2.940
0.735 4.468 2.764
0.004 5.404 2.862
0.544 4.788 2.803
-0.141 5.706 2.520
0.499 5.489 2.413
0.349 5.172 2.373
0.296 5.881 2.089
0.215 5.627 2.412
0.203 6.341 1.938
0.040 4.861 3.087
0.161 4.830 3.226
0.645 4.481 3.181
0.010 5.126 3.249
0.329 5.041 3.337
0.394 4.709 3.356
0.541 4.482 3.510
0.089 5.531 3.078
0.229 5.158 3.399
0.415 5.241 3.255
0.624 4.706 3.057
0.049 5.546 3.055
0.541 5.258 2.681
0.855 5.231 2.692
0.129 5.689 2.731
-0.012 5.234 3.426
0.359 5.096 3.340
0.408 5.019 3.277
0.749 4.472 3.485
0.355 5.332 3.719
0.599 5.128 3.489
0.518 5.032 3.475
0.824 4.930 3.316
-0.163 5.681 3.677
0.379 5.749 3.173
0.720 5.408 3.387
0.895 5.137 3.332
0.221 5.415 3.764
0.565 5.362 3.813
0.731 4.948 3.630
1.169 4.847 3.533
-0.006 5.889 3.993
0.315 5.547 3.847
0.582 5.537 3.669
1.041 5.123 3.842
1.065 4.819 3.812
0.931 5.685 3.292
0.808 5.513 3.230
0.366 5.698 4.071
0.303 5.640 3.771
0.608 5.508 3.999
0.725 5.345 3.569
0.970 4.886 3.579
0.536 5.746 4.243
0.717 5.600 4.115
1.141 5.170 3.817
1.370 5.386 3.804
1.638 4.847 3.750
3.848 5.731 0.476
4.288 5.973 0.162
3.816 6.181 -0.056
3.986 6.203 -0.106
0.662 5.530 4.079
0.635 5.696 3.805
0.837 5.202 3.892
1.171 5.149 4.033
1.642 4.909 3.749
1.255 5.556 4.170
1.627 5.269 3.971
1.711 5.146 3.944
4.161 5.914 0.864
4.324 5.722 0.605
4.209 6.155 0.468
4.354 5.867 0.366
4.416 5.967 0.059
1.477 5.679 4.301
1.586 5.374 4.131
1.742 5.174 4.090
0.192 1.896 0.910
-0.039 2.217 0.539
0.020 2.095 0.098
0.181 2.734 -0.085
0.437 2.584 -0.080
0.342 1.884 0.990
0.432 1.920 0.747
-0.020 2.442 0.805
0.497 2.232 0.577
0.438 1.966 0.668
0.206 2.607 0.476
0.155 2.395 0.351
0.449 2.369 0.295
0.038 2.894 0.190
0.571 2.557 -0.003
0.650 2.616 0.188
0.913 2.212 -0.142
0.085 3.093 -0.146
0.056 3.062 0.170
0.350 1.919 1.137
0.010 2.233 1.544
0.365 2.312 0.964
0.539 2.055 1.158
-0.025 2.641 1.047
0.101 2.752 0.741
0.618 2.594 0.728
0.896 2.446 0.932
0.019 3.065 0.663
0.343 2.692 0.818
0.722 2.722 0.713
0.961 2.504 0.675
0.226 3.364 0.461
0.312 3.165 0.341
0.573 2.930 0.333
0.967 2.815 0.170
0.896 2.196 0.423
0.028 3.524 0.458
0.380 3.226 0.212
0.635 3.160 -0.015
0.742 2.586 0.143
1.160 2.770 -0.075
-0.026 2.144 1.452
0.263 2.550 1.663
0.332 2.660 1.420
0.125 2.780 1.272
0.499 2.580 1.344
0.463 2.290 1.539
0.369 3.103 1.141
0.628 2.932 1.135
0.507 2.544 1.280
0.044 3.305 0.872
0.464 2.947 0.915
0.469 2.774 0.633
0.739 2.616 0.702
1.040 2.424 0.543
-0.118 3.456 0.656
0.208 3.098 0.697
0.444 3.055 0.381
1.025 2.810 0.512
1.051 2.701 0.359
1.459 2.620 0.199
1.423 2.369 0.480
0.387 3.507 0.419
0.485 3.301 0.477
0.585 3.163 0.520
1.029 2.965 0.359
1.291 2.786 0.440
1.607 2.807 0.048
1.778 2.657 -0.093
0.071 3.654 0.325
0.524 3.453 -0.030
0.647 3.519 0.283
0.758 3.369 0.165
0.042 2.582 1.505
0.297 2.498 1.849
0.210 2.766 2.022
0.068 3.013 1.714
0.467 3.185 1.652
0.716 2.770 1.489
0.024 3.169 1.454
0.182 3.001 1.542
0.553 2.784 1.354
1.027 2.571 1.150
0.202 3.748 1.203
0.390 3.524 0.925
0.753 2.959 0.935
0.866 2.759 1.183
1.283 3.008 0.825
-0.083 3.845 0.894
0.441 3.786 0.928
0.408 3.431 1.049
0.845 3.161 0.906
1.071 3.026 0.694
1.047 3.044 0.545
1.427 2.653 0.497
1.898 2.680 0.426
-0.087 4.158 0.497
0.146 3.728 0.652
0.627 3.595 0.712
0.913 3.554 0.371
1.072 3.535 0.622
1.335 3.328 0.203
1.580 2.883 0.232
1.610 2.658 0.416
0.334 4.075 0.336
0.624 4.087 0.126
0.984 3.800 0.337
1.155 3.327 0.168
1.263 3.298 -0.024
1.832 3.310 0.117
1.809 2.914 -0.001
0.779 4.071 0.263
0.384 2.997 1.837
0.028 3.398 2.031
0.382 3.386 1.554
0.244 3.878 1.604
0.378 3.657 1.815
0.746 3.382 1.532
0.879 3.015 1.644
-0.108 3.809 1.244
0.261 3.858 1.135
0.805 3.674 1.178
1.061 3.457 1.225
0.011 4.168 1.140
0.448 3.954 1.022
0.797 3.531 0.807
0.854 3.309 0.854
1.300 3.284 1.096
1.242 3.207 0.877
0.116 4.656 0.801
0.410 4.418 0.995
0.514 4.199 0.653
0.600 3.642 0.916
1.168 3.742 0.568
1.087 3.568 0.568
1.421 3.306 0.440
1.743 3.335 0.562
2.063 2.804 0.618
0.954 4.025 0.294
1.122 3.806 0.612
1.681 3.492 0.445
1.798 3.313 0.494
2.105 3.029 0.401
1.808 3.596 0.108
1.750 3.480 0.096
1.293 5.844 4.239
1.595 5.599 4.166
2.008 5.579 4.213
2.083 5.150 4.271
2.220 4.804 3.807
4.158 6.079 1.462
4.371 5.697 1.159
4.086 6.157 0.822
4.332 6.098 0.916
4.581 6.070 0.594
1.385 5.801 4.356
1.667 5.451 4.341
1.721 5.137 4.145
2.090 5.125 4.077
2.289 4.785 4.110
1.660 5.619 4.291
2.020 5.644 4.466
2.249 5.254 4.226
2.532 5.236 4.057
3.003 5.039 4.112
2.264 5.777 4.198
2.375 5.440 3.916
4.437 5.980 1.488
4.492 6.084 1.525
4.521 5.842 1.368
4.697 6.162 1.147
1.965 5.569 4.328
1.915 5.690 4.494
2.444 5.562 4.240
2.526 5.144 4.098
2.813 5.201 4.021
1.985 5.843 4.548
2.293 5.785 4.331
2.746 5.746 4.235
2.934 5.548 4.232
3.013 5.063 4.501
2.181 6.079 4.151
2.817 5.951 4.313
3.089 5.639 4.120
3.249 5.126 3.967
4.592 6.281 1.737
4.760 6.198 1.727
4.814 6.010 1.376
2.189 5.728 4.759
2.484 5.699 4.263
2.347 5.705 4.264
2.804 5.483 4.453
2.853 5.194 4.505
2.449 6.113 4.891
2.357 5.948 4.718
2.714 5.570 4.799
2.966 5.605 4.396
3.326 5.405 4.581
3.546 5.110 4.188
2.177 6.198 4.537
2.589 5.884 4.227
2.590 6.145 4.373
3.214 5.613 4.335
3.115 5.371 4.466
3.633 5.503 4.275
2.674 6.366 4.029
3.013 5.955 4.116
3.329 5.666 4.188
3.507 5.909 4.174
2.986 5.877 3.921
3.186 5.842 3.853
3.988 6.325 2.468
4.557 6.121 2.743
4.401 6.058 2.241
4.986 5.969 2.427
4.824 6.404 1.856
2.441 6.309 4.912
2.449 5.956 4.627
2.767 5.715 4.519
3.077 5.366 4.711
3.067 5.142 4.656
3.617 5.049 4.592
2.432 6.154 4.631
2.945 5.806 5.009
3.006 5.511 4.888
3.205 5.579 4.680
3.613 5.173 4.806
2.869 6.211 4.452
2.775 6.041 4.499
3.429 5.811 4.240
3.516 5.528 4.576
3.929 5.717 4.244
3.079 6.281 4.472
3.480 6.154 4.238
3.622 5.916 4.202
3.692 5.705 4.191
3.341 6.156 3.906
3.442 6.122 4.003
3.734 5.798 3.881
3.634 6.227 3.526
3.936 6.266 3.646
3.995 5.758 3.423
4.135 6.457 3.116
4.361 6.072 3.263
4.445 6.098 2.860
4.368 6.124 2.824
4.658 5.881 2.835
4.829 6.371 2.736
4.693 6.047 2.882
5.080 6.347 2.294
2.832 5.986 4.616
3.012 5.873 4.586
3.128 5.898 4.903
3.561 5.522 4.428
3.666 5.141 4.696
3.237 6.334 5.145
3.459 6.048 5.024
3.619 5.694 4.837
3.805 5.587 4.746
3.369 6.113 4.855
3.348 6.049 4.482
3.626 5.854 4.593
3.869 5.852 4.644
3.576 6.258 4.392
3.842 5.973 4.139
3.796 5.689 4.095
4.435 5.899 4.236
3.857 6.277 3.958
4.265 6.194 4.116
4.236 5.837 3.749
4.144 6.374 4.009
4.228 5.903 3.859
4.383 5.837 3.601
4.294 6.107 3.670
4.572 5.928 3.367
5.065 5.693 3.518
4.681 6.281 2.989
4.756 6.160 2.929
5.124 6.138 2.753
3.063 6.259 5.040
3.334 5.741 4.924
3.800 5.598 4.846
3.852 5.685 4.807
3.259 6.376 5.357
3.699 6.279 4.926
3.770 5.773 5.096
3.731 6.383 5.017
3.709 6.019 4.835
4.112 5.940 4.502
3.807 6.325 4.648
4.120 6.264 4.348
4.558 6.028 4.187
4.362 6.471 4.037
4.363 6.141 4.031
4.732 6.197 3.810
4.761 6.005 3.825
4.618 6.355 3.417
5.256 5.923 3.514
5.177 6.430 3.402
3.354 6.209 5.308
3.465 6.045 5.150
3.586 6.014 5.237
3.516 6.509 5.202
4.020 6.185 5.171
3.900 6.448 5.101
4.039 5.883 5.046
4.351 6.123 4.528
4.842 6.302 4.235
4.888 6.119 3.812
5.366 6.239 4.071
5.322 6.048 3.576
3.581 6.093 5.265
3.770 6.208 5.181
5.336 6.320 4.130
6.367 6.076 3.889
4.752 5.422 1.124
4.639 5.622 1.037
4.901 5.449 0.810
4.684 5.882 1.000
4.692 5.836 0.677
4.965 5.433 0.713
5.416 5.324 0.553
4.718 6.089 0.592
5.064 5.863 0.359
5.384 5.542 0.600
5.435 5.538 0.677
4.788 5.944 0.424
5.110 5.787 0.289
5.262 5.622 0.259
5.599 5.523 0.241
5.901 5.376 -0.100
5.062 6.336 -0.105
5.195 6.017 0.111
4.856 5.512 1.374
4.708 5.828 1.220
5.212 5.720 1.476
4.735 5.968 0.968
5.286 5.794 0.841
5.526 5.704 0.922
4.843 6.116 0.830
4.993 6.201 0.862
5.285 5.998 0.810
5.263 5.998 0.400
5.458 5.773 0.406
5.642 6.009 0.176
4.948 5.757 1.621
4.885 6.226 1.579
5.341 5.774 1.573
4.846 6.028 1.405
5.355 6.039 1.172
5.362 5.687 1.011
5.291 6.082 1.055
5.392 5.897 0.871
4.988 5.762 2.314
4.910 6.100 2.158
5.466 5.789 1.873
5.199 6.250 1.642
5.263 5.936 1.737
5.268 6.286 1.155
5.035 5.727 2.710
5.299 5.864 2.129
5.389 6.113 2.094
5.531 5.983 2.168
5.540 6.294 1.810
5.114 5.733 2.934
5.233 6.031 2.814
5.548 5.726 2.920
5.518 6.035 2.331
5.843 6.099 2.244
5.867 6.182 2.433
5.347 5.671 3.458
5.416 5.910 3.287
5.435 6.040 3.272
5.613 6.241 2.813
5.875 6.226 2.748
6.014 5.972 2.671
6.180 6.241 2.773
6.246 6.342 2.461
5.505 5.989 3.864
5.488 6.360 3.511
5.971 6.269 3.269
5.892 5.828 3.314
6.141 6.038 3.082
6.122 6.256 3.058
6.042 6.419 2.924
5.796 6.260 3.673
5.787 6.052 3.955
6.289 5.816 3.518
5.813 6.153 3.591
6.051 5.988 3.611
6.161 6.393 3.977
