5.720 2.786 0.990
5.709 2.828 1.263
5.281 3.289 1.053
5.332 3.323 1.096
5.249 3.227 1.581
4.916 3.365 1.666
4.487 3.603 1.389
4.443 3.695 1.541
4.487 3.864 1.876
4.078 4.090 1.933
6.338 2.941 0.913
6.015 3.009 1.170
5.997 2.906 1.185
5.707 2.938 1.042
5.323 3.109 1.166
5.449 3.608 1.117
5.200 3.645 1.571
5.115 3.863 1.330
4.669 3.591 1.710
4.547 3.803 1.539
4.269 3.813 1.568
4.362 4.171 2.055
3.012 2.518 1.230
3.488 2.889 1.519
2.868 2.913 1.516
3.484 2.821 1.486
3.410 2.751 1.202
3.297 3.170 1.633
3.845 2.856 1.135
3.667 2.828 1.437
3.363 2.900 1.376
3.488 3.032 1.606
4.277 2.621 1.281
4.053 2.789 1.301
4.015 2.937 1.568
3.879 3.342 1.659
3.643 3.251 1.459
4.745 2.997 1.311
4.439 2.999 0.988
4.103 3.095 1.404
4.213 3.375 1.217
3.735 3.549 1.470
3.537 3.452 1.534
5.191 2.902 1.092
5.014 2.819 1.107
4.652 3.230 1.041
4.312 2.965 1.217
4.174 3.552 1.325
4.271 3.615 1.264
4.070 3.675 1.526
3.911 3.569 1.535
5.539 2.554 0.680
5.177 2.768 0.995
5.350 3.230 1.137
5.191 3.049 1.263
5.032 3.439 1.028
4.762 3.313 1.275
4.535 3.591 1.527
4.357 3.490 1.533
4.065 3.891 1.631
3.996 3.880 1.666
5.876 2.952 0.638
5.673 2.952 0.817
5.570 3.158 1.050
5.076 3.009 0.903
5.320 3.364 1.251
5.134 3.563 1.062
4.829 3.480 1.186
4.839 3.771 1.397
4.289 3.922 1.552
4.367 3.864 1.482
4.198 4.188 1.629
5.864 3.217 0.695
5.592 3.309 0.772
5.703 3.126 0.906
5.231 3.568 0.986
5.104 3.268 1.311
5.245 3.420 1.392
4.893 3.867 1.306
4.863 3.916 1.404
4.672 3.805 1.615
4.380 4.234 1.502
4.379 4.237 1.834
2.562 2.283 1.100
2.889 2.441 0.960
3.097 2.549 1.340
3.233 2.720 0.991
3.019 2.901 1.036
3.518 2.660 1.313
3.206 3.063 1.273
3.232 3.015 1.063
3.833 2.941 1.133
3.879 2.817 1.160
3.614 3.237 0.983
3.173 3.367 1.249
4.207 3.084 1.053
3.965 2.945 1.209
3.837 3.164 1.374
3.526 3.406 1.258
3.669 3.458 1.468
4.357 2.917 1.012
4.071 3.189 0.975
4.341 3.032 1.169
4.116 3.210 0.985
3.826 3.637 1.461
3.499 3.424 1.291
4.612 3.129 0.750
4.618 3.355 0.854
4.226 3.188 1.059
4.343 3.461 1.021
3.986 3.381 1.201
4.094 3.876 1.086
3.627 3.576 1.479
5.398 2.727 0.509
5.251 3.116 0.856
4.967 3.420 0.999
4.718 3.320 0.815
4.543 3.564 0.942
4.329 3.480 1.322
4.228 3.786 1.065
4.028 3.732 1.528
3.950 3.933 1.359
5.634 2.880 0.742
5.394 3.245 0.701
5.081 3.036 0.733
4.957 3.262 0.902
5.134 3.321 1.102
4.939 3.516 1.109
4.725 3.681 1.215
4.188 3.986 1.193
3.995 3.966 1.340
4.241 4.294 1.531
5.587 3.074 0.822
5.600 3.130 0.635
5.227 3.430 1.000
5.225 3.463 0.865
4.856 3.635 0.873
5.098 4.031 1.068
4.810 3.913 1.289
4.382 4.157 1.353
4.588 4.402 1.276
4.410 4.412 1.518
1.606 0.030 0.220
1.418 0.208 0.319
1.645 -0.062 0.508
1.613 0.316 0.620
2.531 2.250 0.823
2.706 2.620 1.063
2.861 2.533 0.787
3.025 2.684 0.794
2.782 2.796 1.132
3.332 2.662 0.939
3.320 2.747 0.802
2.772 3.102 0.908
3.670 2.976 0.873
3.519 2.834 0.803
3.201 3.103 1.242
3.884 2.809 0.763
3.746 3.092 0.966
3.545 3.068 0.840
3.058 3.539 1.309
3.968 2.840 0.539
3.716 3.152 0.759
3.828 3.444 1.073
3.521 3.180 1.016
3.544 3.370 1.322
4.545 2.831 0.464
4.113 3.287 0.547
4.083 3.243 1.043
3.953 3.627 0.879
3.817 3.526 1.172
3.553 3.781 1.029
4.671 3.077 0.552
4.385 3.309 0.823
4.171 3.166 0.725
4.220 3.595 0.699
3.806 3.379 0.963
3.900 3.709 1.133
3.615 3.825 1.129
5.064 2.952 0.345
4.970 3.309 0.507
4.651 3.332 0.627
4.639 3.539 0.805
4.394 3.625 0.819
4.314 3.630 0.918
4.178 3.836 1.096
3.766 4.085 0.991
5.319 2.983 0.437
5.260 3.282 0.792
4.930 3.639 0.882
4.637 3.506 0.677
4.649 3.586 0.897
4.620 3.780 0.898
4.317 3.961 1.210
4.296 4.255 1.276
4.074 4.205 1.458
5.434 3.374 0.647
5.175 3.618 0.696
5.213 3.557 0.730
5.118 3.824 0.800
4.724 3.939 0.755
4.755 4.197 0.787
4.296 4.365 1.164
4.235 4.089 1.327
4.058 4.575 1.093
1.167 0.119 0.173
1.819 -0.132 -0.141
1.413 0.021 0.330
1.201 0.019 0.063
1.939 -0.010 0.286
1.686 0.365 0.408
1.336 0.393 0.423
2.081 0.140 -0.078
1.899 0.330 -0.079
1.636 0.626 0.283
1.479 0.823 0.367
2.133 0.633 -0.009
1.927 0.395 -0.060
1.954 0.789 0.186
2.320 2.154 0.643
2.731 2.017 0.403
2.494 2.373 0.663
2.873 2.549 0.600
2.313 2.592 0.622
2.893 2.349 0.635
2.682 2.676 0.619
2.932 2.808 0.693
2.947 2.562 0.554
2.601 2.907 0.650
3.080 2.617 0.719
3.029 3.000 0.927
2.826 3.044 0.635
3.431 2.922 0.764
3.161 3.205 0.779
3.016 3.249 1.051
3.804 3.236 0.405
3.610 2.971 0.919
3.416 3.288 0.762
3.217 3.236 0.804
4.040 3.279 0.418
3.911 3.538 0.712
3.445 3.476 0.995
3.485 3.591 1.056
3.979 3.447 0.566
4.112 3.453 0.468
3.835 3.697 0.644
3.634 3.564 0.877
3.633 3.778 0.954
4.617 3.100 0.413
4.314 3.450 0.778
4.102 3.762 0.483
3.870 3.534 0.634
3.724 3.586 0.830
3.499 3.859 0.843
5.048 3.282 0.476
4.803 3.306 0.332
4.616 3.804 0.754
4.311 3.641 0.788
4.338 3.673 0.625
3.741 4.186 0.741
3.992 4.027 1.139
5.273 3.458 0.449
4.840 3.574 0.449
4.719 3.596 0.725
4.647 4.011 0.663
4.459 3.738 0.666
4.128 3.965 1.061
4.235 4.118 1.136
3.884 4.333 1.103
5.687 3.258 0.095
5.335 3.454 0.544
5.310 3.696 0.558
4.754 3.645 0.368
4.780 3.905 0.541
4.667 4.327 0.860
4.623 4.311 0.662
4.361 4.178 0.841
4.138 4.513 0.867
0.572 0.221 0.125
1.119 0.034 0.348
1.105 0.054 0.160
1.069 0.274 0.318
1.021 0.381 0.238
1.037 0.468 0.295
1.511 0.472 -0.145
1.166 0.430 0.018
1.264 0.885 0.279
1.261 0.604 0.324
1.806 0.567 -0.036
1.825 0.718 0.303
1.252 0.931 0.262
1.723 0.907 0.080
1.558 0.866 0.047
1.598 1.354 0.080
2.186 1.336 -0.075
1.955 1.401 0.395
1.534 1.239 0.104
2.188 1.091 -0.099
2.222 1.350 0.018
1.722 1.517 0.341
1.887 1.891 0.274
2.146 1.458 0.407
2.254 1.557 0.401
1.761 1.769 0.237
2.188 1.953 0.346
2.286 2.007 0.164
2.198 2.172 0.491
2.711 2.065 0.374
2.109 2.286 0.312
2.348 2.377 0.288
2.468 2.293 0.153
2.377 2.486 0.388
2.187 2.396 0.431
2.762 2.341 0.142
2.761 2.487 0.343
2.488 2.694 0.680
2.862 2.569 0.311
2.713 2.794 0.347
2.772 2.572 0.406
3.061 2.499 0.181
2.679 2.688 0.490
2.811 2.851 0.645
3.339 2.859 0.649
2.938 2.869 0.436
2.888 3.237 0.728
3.176 2.865 0.561
3.288 3.332 0.472
2.873 3.320 0.719
3.719 3.063 0.269
3.141 3.258 0.663
3.325 3.380 0.488
3.452 3.380 0.438
3.656 3.637 0.653
3.372 3.640 0.554
3.980 3.233 0.614
3.666 3.773 0.652
3.471 3.490 0.453
3.470 3.998 0.533
4.318 3.460 0.190
4.285 3.862 0.635
4.121 3.525 0.459
3.768 3.952 0.519
3.473 3.850 0.639
4.375 3.403 0.378
4.553 3.615 0.371
4.052 3.877 0.525
3.980 3.813 0.579
3.837 3.871 0.738
3.864 4.392 0.997
4.726 3.680 0.265
4.562 3.824 0.244
4.743 4.065 0.505
4.288 3.959 0.623
4.344 3.999 0.752
4.180 4.220 0.718
3.980 4.328 1.024
5.286 3.520 0.377
5.103 4.016 0.490
4.757 3.693 0.297
4.832 4.057 0.388
4.698 4.228 0.628
4.144 4.232 0.480
4.128 4.643 0.593
0.694 0.228 0.176
1.061 0.168 -0.065
0.732 0.490 0.200
3.556 0.000 6.023
3.757 0.013 5.917
4.310 0.088 5.698
3.706 0.420 5.707
3.882 0.309 5.838
4.335 0.050 5.698
3.990 0.422 5.908
3.983 0.328 6.037
4.428 0.376 5.676
4.062 0.649 5.916
4.052 0.692 5.915
4.570 0.721 6.218
4.115 0.777 6.012
4.583 0.746 6.250
4.484 0.839 6.030
4.614 1.137 5.836
4.265 1.131 6.040
4.719 1.209 6.062
4.752 1.286 6.156
4.821 1.547 6.263
4.888 1.744 6.329
4.822 1.651 6.114
6.120 2.004 6.087
5.769 1.997 5.809
5.503 2.038 6.147
6.035 1.975 6.194
6.049 2.218 5.957
6.019 2.075 6.135
3.350 -0.007 5.722
3.680 0.001 5.448
3.387 0.183 5.851
4.281 0.343 5.385
3.866 0.275 5.893
3.608 0.332 5.850
4.374 0.252 5.634
4.045 0.621 5.715
3.922 0.394 5.588
4.253 0.857 5.788
4.186 1.021 5.646
4.139 0.831 5.999
4.256 1.109 5.646
4.412 1.216 5.937
4.277 1.277 5.836
4.486 1.447 6.035
3.676 -0.191 5.477
3.238 0.343 5.501
4.075 0.066 5.198
3.851 0.405 5.248
3.355 0.521 5.539
4.189 0.310 5.438
3.636 0.442 5.291
3.795 0.549 5.608
4.327 0.305 5.646
3.736 0.360 5.730
3.890 0.531 5.526
4.230 0.826 5.519
4.115 0.978 5.602
3.925 1.232 5.746
4.054 1.206 5.814
2.926 -0.016 5.092
3.440 0.151 5.257
3.362 0.235 5.253
3.764 -0.118 5.076
3.949 -0.040 5.267
3.774 0.392 5.084
3.258 0.393 5.374
3.790 0.130 5.098
3.605 0.274 5.109
3.517 0.364 5.361
3.941 0.804 5.434
3.885 0.643 5.201
4.071 0.960 5.238
3.909 1.176 5.426
2.901 -0.048 5.234
3.691 -0.033 4.868
3.478 0.077 4.864
3.304 0.506 5.078
3.854 0.336 4.942
3.754 0.471 4.925
3.434 0.616 5.107
3.829 0.609 5.175
3.310 0.764 5.267
3.912 0.846 5.146
3.766 0.658 5.016
3.644 1.194 5.142
2.962 0.023 4.815
3.038 0.289 4.592
3.129 0.387 4.905
3.694 -0.186 4.762
3.410 -0.007 4.776
3.391 0.157 4.588
3.050 0.491 5.080
3.747 0.337 4.633
3.380 0.458 4.681
3.561 0.654 4.740
3.745 0.553 5.052
3.497 0.891 5.015
3.753 0.932 4.886
2.675 0.115 4.668
3.120 -0.183 4.449
3.240 -0.056 4.595
3.019 0.295 4.517
3.460 0.434 4.598
3.114 0.659 4.608
3.376 0.730 4.577
-0.053 1.110 5.863
0.535 1.385 5.764
0.179 1.357 5.703
0.226 1.270 5.784
0.500 1.171 5.551
0.548 1.357 5.803
0.664 1.618 5.582
0.213 1.457 6.118
-0.021 1.782 6.158
2.733 0.098 4.571
2.226 0.276 4.962
1.192 1.147 5.265
1.116 1.212 5.727
0.883 1.405 5.490
0.559 1.362 5.661
0.713 1.788 5.963
0.689 1.641 5.789
0.309 2.045 5.764
0.081 1.790 6.211
0.033 1.889 5.954
2.579 0.315 4.557
2.542 0.163 4.664
2.340 0.700 4.730
2.096 0.822 4.902
1.980 0.690 5.227
1.589 0.718 5.105
1.530 1.015 5.327
1.558 0.916 5.493
1.299 1.097 5.625
1.137 1.380 5.391
1.073 1.515 5.843
0.721 1.676 5.614
1.099 1.846 5.779
0.920 1.875 6.015
2.828 0.356 4.954
2.458 0.655 4.992
2.537 0.822 4.912
2.444 0.819 4.918
1.898 0.872 5.012
2.159 0.913 5.356
1.555 1.075 5.125
1.653 1.224 5.587
1.354 1.316 5.393
1.070 1.557 5.341
1.151 1.764 5.633
0.723 1.696 5.898
1.004 1.750 5.985
2.920 0.512 4.924
2.677 0.915 4.778
2.401 0.997 4.939
2.212 0.750 5.238
2.272 0.859 5.292
1.997 1.430 5.308
1.863 1.396 5.405
1.543 1.608 5.488
1.630 1.725 5.296
1.212 1.706 5.700
1.231 1.981 5.490
0.932 1.828 5.685
3.185 0.964 4.835
2.966 0.751 4.747
2.867 1.058 4.966
2.802 1.297 5.062
2.296 1.237 5.023
2.163 1.223 5.249
2.264 1.490 5.323
1.762 1.644 5.549
1.931 1.693 5.507
1.586 1.938 5.436
1.530 2.000 5.587
3.051 0.988 4.794
3.266 1.020 4.984
3.097 1.291 5.036
2.923 1.158 5.131
2.628 1.380 5.020
2.199 1.617 5.196
1.982 1.655 5.447
2.087 1.641 5.374
1.982 2.056 5.407
1.562 2.111 5.795
3.577 1.040 4.937
3.129 1.138 4.852
3.107 1.243 4.874
2.669 1.496 5.101
2.637 1.853 5.130
2.552 1.616 5.341
2.407 1.686 5.264
2.004 2.204 5.621
1.820 2.027 5.725
3.189 1.729 5.099
2.978 1.553 5.190
2.982 1.877 5.209
2.538 1.998 5.127
2.432 1.836 5.236
2.216 2.369 5.458
3.098 2.176 5.097
2.833 2.067 5.426
0.033 0.799 5.485
0.042 1.163 5.312
0.062 1.088 5.393
0.168 1.419 5.354
0.283 0.877 5.132
0.219 1.089 5.426
0.636 1.520 5.302
0.075 1.574 5.366
-0.158 1.582 5.822
0.603 0.883 5.048
0.752 1.056 5.255
0.314 1.289 5.352
0.656 1.458 5.354
0.529 1.446 5.447
0.412 1.850 5.578
-0.070 1.800 5.910
1.473 0.680 4.986
1.042 0.807 5.027
1.205 0.987 5.275
0.923 1.009 5.534
0.681 1.281 5.556
0.672 1.707 5.532
0.691 1.587 5.582
0.435 1.621 5.550
0.527 1.899 5.704
0.085 1.842 5.911
-0.007 2.033 5.992
2.549 0.440 4.768
2.409 0.615 4.723
2.081 0.772 4.853
1.795 0.935 4.916
1.832 1.048 5.045
1.538 1.069 5.098
1.480 1.106 5.185
1.324 1.139 5.403
0.896 1.577 5.550
0.852 1.589 5.606
0.539 1.676 5.627
0.679 1.827 5.739
0.601 1.776 5.566
0.687 1.918 5.732
0.457 2.208 5.657
2.678 0.518 4.429
2.538 0.750 4.713
2.605 0.646 4.580
2.422 1.034 4.675
2.181 1.130 5.114
1.772 1.248 5.038
1.527 1.233 5.085
1.690 1.575 4.975
1.336 1.302 5.067
1.412 1.581 5.328
0.927 1.944 5.495
0.718 1.904 5.563
0.764 2.194 5.621
0.745 2.068 5.452
2.977 0.592 4.637
2.708 0.856 4.811
2.568 0.808 4.839
2.511 1.099 4.765
2.375 1.337 5.013
1.878 1.464 5.080
1.803 1.626 4.933
1.456 1.378 5.084
1.411 1.765 5.259
1.399 1.647 5.337
1.073 1.908 5.687
0.816 2.226 5.475
1.078 2.389 5.630
2.857 1.002 4.771
2.905 1.000 4.453
2.784 0.976 4.579
2.442 1.206 4.688
2.292 1.194 5.089
2.212 1.555 5.049
1.803 1.499 5.134
2.018 1.615 5.135
1.438 1.746 5.129
1.546 1.984 5.433
1.326 1.959 5.324
0.949 2.346 5.639
3.031 1.004 4.656
2.669 1.241 4.958
2.769 1.250 4.918
2.550 1.656 5.182
2.370 1.461 4.926
2.033 1.701 5.009
2.045 1.920 5.170
1.964 1.922 5.304
1.687 1.912 5.282
1.567 2.434 5.368
3.028 1.435 4.836
2.765 1.351 4.923
2.579 1.792 4.896
2.722 1.879 5.067
2.533 1.896 5.099
2.398 1.812 5.122
2.131 2.121 5.083
2.061 2.102 5.549
1.841 2.278 5.395
3.290 1.809 4.865
2.750 1.892 4.816
2.922 1.713 5.106
2.712 2.201 5.251
2.246 2.350 5.234
2.466 2.121 5.462
2.171 2.550 5.330
2.978 2.002 4.865
2.864 2.393 4.953
2.721 2.411 5.270
0.084 1.178 5.069
-0.059 0.911 5.359
-0.003 1.146 5.183
-0.105 1.123 5.487
0.236 1.241 5.165
0.398 1.021 5.236
0.178 1.309 5.205
0.114 1.419 5.184
-0.063 1.636 5.374
0.854 0.913 5.115
0.919 1.293 5.090
0.354 1.431 5.215
0.559 1.360 5.292
0.373 1.366 5.253
0.144 1.553 5.416
0.060 1.948 5.573
1.450 1.085 4.621
1.025 0.928 4.776
1.041 1.135 5.126
0.642 1.258 5.050
0.837 1.635 5.269
0.495 1.349 5.424
0.620 1.539 5.093
0.286 1.939 5.594
0.411 2.099 5.607
0.090 2.086 5.775
1.904 0.717 4.866
1.630 0.779 4.557
1.734 1.108 5.017
1.430 1.212 4.998
1.394 1.330 5.066
0.946 1.585 5.127
0.721 1.679 5.102
0.609 1.709 5.413
0.857 1.907 5.199
0.571 2.267 5.612
0.273 2.201 5.293
0.482 2.159 5.786
-0.026 2.249 5.476
2.453 1.023 4.561
1.980 1.074 4.808
1.888 1.154 4.664
1.985 1.100 4.721
1.822 1.354 4.958
1.583 1.252 5.093
1.412 1.684 4.856
1.343 1.480 5.047
1.057 1.605 5.405
0.672 1.773 5.218
0.863 2.098 5.162
0.577 2.205 5.532
0.775 2.412 5.625
2.685 0.781 4.707
2.419 1.145 4.716
2.219 1.339 4.640
2.082 1.441 4.643
1.777 1.679 5.031
1.569 1.724 5.166
1.449 1.631 5.257
1.363 1.639 5.308
1.332 2.074 5.436
0.807 2.178 5.577
1.176 2.206 5.308
0.988 2.598 5.622
2.840 0.977 4.642
2.240 1.173 4.829
2.115 1.231 4.947
2.083 1.373 5.019
2.086 1.732 4.971
1.947 1.691 5.019
1.755 1.884 5.324
1.349 1.987 5.096
1.076 2.347 5.103
1.125 2.236 5.561
1.030 2.480 5.593
2.565 1.184 4.739
2.775 1.527 4.547
2.330 1.817 4.946
2.401 1.575 5.052
2.291 1.988 5.053
1.838 2.147 5.195
1.700 1.887 5.125
1.594 2.077 5.146
1.314 2.423 5.500
1.403 2.428 5.266
3.126 1.548 4.804
2.587 1.625 4.529
2.505 1.646 4.689
2.574 1.879 4.910
2.227 2.003 5.200
2.285 1.999 5.197
1.913 2.485 4.943
1.700 2.486 5.082
1.380 2.739 5.268
2.842 1.929 4.530
2.783 1.818 5.058
2.433 2.069 4.921
2.516 2.136 4.887
2.203 2.249 5.134
1.888 2.290 5.063
1.753 2.633 5.179
2.805 2.307 4.653
2.833 2.365 5.021
2.382 2.420 4.912
2.137 2.303 4.994
2.076 2.785 5.038
-0.087 1.068 4.907
0.282 1.092 4.871
0.048 1.013 5.160
0.071 1.407 4.988
0.376 0.975 4.887
0.335 1.079 5.146
0.092 1.395 4.961
0.207 1.554 4.948
-0.017 1.466 5.071
0.881 0.930 4.918
0.723 1.006 4.791
0.384 1.496 4.864
0.441 1.479 5.092
0.291 1.828 5.269
0.183 1.685 5.314
0.116 1.894 5.455
1.254 1.000 4.591
0.827 1.160 4.622
0.933 1.517 4.775
0.473 1.376 4.759
0.571 1.841 5.089
0.474 1.926 4.929
0.486 2.107 5.332
0.175 2.172 5.287
0.111 2.273 5.289
1.815 1.122 4.457
1.599 1.270 4.663
1.225 1.329 4.791
0.932 1.284 4.769
0.745 1.450 4.925
0.904 1.783 4.882
0.523 1.764 5.088
0.895 2.170 5.072
0.520 2.243 5.304
0.312 2.301 5.353
0.082 2.153 5.535
0.044 2.340 5.489
2.006 1.301 4.703
1.757 1.026 4.579
1.401 1.450 4.611
1.526 1.419 4.949
1.164 1.724 4.612
0.972 1.532 4.971
1.105 1.974 4.973
0.630 2.081 5.020
0.974 2.303 5.174
0.668 2.288 5.241
0.728 2.560 5.205
2.058 1.361 4.533
2.033 1.544 4.368
1.932 1.300 4.727
1.900 1.774 4.684
1.485 1.909 4.732
1.246 1.585 4.776
1.335 1.810 5.055
1.186 1.911 4.878
0.999 2.403 5.373
0.819 2.229 5.103
0.976 2.361 5.423
2.618 1.420 4.303
2.104 1.648 4.647
2.226 1.840 4.683
1.883 1.725 4.668
1.500 1.883 4.803
1.607 1.779 5.036
1.512 2.018 5.117
0.999 2.135 5.271
0.879 2.564 5.245
1.146 2.690 5.400
2.542 1.452 4.475
2.187 1.579 4.507
2.208 2.001 4.452
1.862 2.142 4.522
1.709 1.851 4.912
1.879 2.143 5.157
1.668 2.065 4.998
1.450 2.215 4.903
1.166 2.745 5.230
1.366 2.540 5.118
2.846 1.683 4.568
2.409 1.993 4.591
2.136 1.880 4.816
2.284 2.047 4.790
2.083 2.432 5.017
2.032 2.417 4.782
1.839 2.335 4.856
1.478 2.586 5.172
1.330 2.816 5.431
2.689 1.823 4.646
2.524 2.186 4.621
2.595 2.286 4.657
2.458 2.167 4.906
2.240 2.251 4.671
2.162 2.670 4.871
1.782 2.531 5.194
1.657 2.737 4.977
2.846 2.163 4.756
2.431 2.336 4.623
2.567 2.292 4.966
2.261 2.589 5.150
2.176 2.625 4.880
1.739 2.726 5.118
2.440 2.518 4.910
2.217 2.878 4.818
0.234 1.107 4.789
0.062 1.304 4.659
0.378 1.206 4.783
0.173 1.296 4.610
0.151 1.507 4.623
0.008 1.459 4.991
0.247 1.508 5.134
0.538 1.039 4.375
0.781 1.101 4.859
0.404 1.216 4.532
0.059 1.570 5.051
0.353 1.618 4.625
0.089 1.942 4.886
0.034 1.937 4.873
0.969 1.000 4.607
0.881 1.363 4.765
0.921 1.385 4.883
0.730 1.807 4.871
0.229 1.701 5.002
0.526 1.976 4.830
0.380 1.840 5.151
0.084 2.288 5.245
0.092 2.072 5.121
1.504 1.484 4.398
1.402 1.342 4.667
1.124 1.434 4.443
0.761 1.516 4.824
0.563 1.991 4.695
0.716 2.039 4.935
0.659 2.098 4.849
0.456 2.384 5.217
0.467 2.150 5.062
0.355 2.500 5.388
1.886 1.411 4.158
1.472 1.577 4.528
1.594 1.488 4.520
1.145 1.831 4.616
1.175 2.047 4.533
1.013 2.071 4.625
0.624 2.178 4.855
0.689 2.294 5.051
0.481 2.448 4.910
0.542 2.418 4.895
2.168 1.470 4.283
1.874 1.638 4.197
1.707 1.709 4.705
1.442 1.861 4.768
1.350 1.819 4.882
1.329 1.899 4.639
1.143 2.301 5.003
0.585 2.461 4.860
1.131 2.594 5.131
0.774 2.561 5.159
2.150 1.533 4.322
2.005 1.604 4.488
1.895 1.895 4.394
1.910 1.723 4.321
1.719 1.761 4.781
1.560 1.866 4.551
1.399 2.016 4.979
1.355 2.394 5.037
0.811 2.617 5.125
1.308 2.459 4.896
0.928 2.743 5.023
2.338 1.565 4.260
2.306 1.552 4.490
2.029 1.698 4.420
2.151 2.122 4.555
2.014 2.089 4.645
1.584 2.095 4.654
1.645 2.256 4.743
1.262 2.591 5.085
1.231 2.835 5.045
1.213 2.936 5.155
2.807 1.803 4.186
2.569 1.983 4.415
2.323 2.137 4.563
2.028 2.024 4.575
2.071 2.506 4.557
1.721 2.453 4.715
1.412 2.560 4.950
1.331 2.718 4.711
1.324 2.936 5.048
1.191 2.884 4.997
2.570 1.939 4.474
2.288 2.052 4.560
2.041 2.243 4.452
2.322 2.633 4.812
2.032 2.394 4.862
1.634 2.819 5.090
1.656 2.927 4.742
1.333 3.205 5.175
2.982 2.384 4.420
2.721 2.249 4.532
2.505 2.640 4.812
2.305 2.456 4.773
1.909 2.915 4.868
1.662 2.705 4.859
1.562 3.204 4.862
2.783 2.487 4.466
2.340 2.609 4.531
2.429 3.069 4.631
2.238 2.980 4.866
2.183 3.148 5.011
0.256 1.067 4.346
0.205 1.244 4.384
0.434 1.266 4.345
0.379 1.105 4.636
0.255 1.541 4.676
0.352 1.849 4.497
0.186 1.736 4.588
0.302 1.487 4.235
0.432 1.300 4.472
0.101 1.466 4.578
0.125 1.941 4.821
0.019 2.083 4.586
0.945 1.596 4.171
0.687 1.534 4.542
0.414 1.465 4.717
0.261 1.583 4.531
0.388 1.817 4.674
0.292 2.337 4.674
0.322 2.345 4.779
1.071 1.269 4.177
0.783 1.828 4.425
0.966 1.926 4.483
0.516 1.813 4.406
0.361 1.970 4.609
0.792 2.023 4.654
0.386 2.517 4.971
0.496 2.187 5.026
0.249 2.555 5.041
1.674 1.381 4.186
1.107 1.569 4.230
1.285 1.611 4.458
0.940 2.045 4.693
0.961 1.963 4.760
0.453 2.298 4.469
0.933 2.188 4.658
0.374 2.334 4.881
0.368 2.757 4.723
1.581 1.442 4.104
1.559 1.681 4.054
1.604 1.973 4.325
1.479 2.071 4.442
1.102 2.214 4.592
1.037 2.196 4.417
0.773 2.519 4.659
0.710 2.578 4.912
0.562 2.678 4.988
1.928 1.617 4.272
1.901 1.692 4.331
1.780 1.810 4.354
1.522 2.141 4.204
1.413 2.131 4.451
1.451 2.043 4.725
1.008 2.337 4.752
0.692 2.318 4.899
1.227 2.897 4.655
0.954 2.673 5.075
2.046 1.696 4.363
2.092 1.735 4.290
1.845 2.199 4.261
1.766 2.290 4.268
1.550 2.448 4.371
1.381 2.456 4.435
1.364 2.585 4.466
0.945 2.491 4.612
1.120 2.742 4.957
2.193 1.948 4.073
2.286 2.266 4.128
1.839 2.437 4.555
1.668 2.196 4.359
1.804 2.420 4.509
1.593 2.766 4.448
1.500 2.682 4.940
1.222 2.709 4.859
1.483 2.927 4.785
2.511 2.263 4.129
2.507 2.277 4.433
2.341 2.663 4.180
2.099 2.630 4.694
2.032 2.599 4.590
1.823 2.835 4.567
1.311 2.903 4.884
1.132 3.182 5.019
1.361 3.027 4.952
2.884 2.410 4.379
2.403 2.308 4.114
2.152 2.804 4.486
2.086 2.865 4.730
1.810 3.075 4.625
1.691 2.855 4.858
1.518 3.060 4.765
1.262 3.355 4.636
2.597 2.593 4.378
2.606 2.577 4.640
2.329 2.874 4.361
2.229 3.264 4.502
1.770 3.237 4.901
1.611 3.460 4.621
2.490 3.127 4.329
2.306 3.229 4.459
2.468 3.021 4.497
2.150 3.402 4.533
2.056 3.252 4.639
2.515 3.543 4.550
0.214 1.243 4.278
-0.001 1.310 4.441
0.072 1.881 4.477
0.356 1.398 4.423
0.461 1.665 4.432
-0.007 1.687 4.289
0.089 1.792 4.541
-0.077 2.160 4.409
0.465 1.669 4.399
0.471 1.977 4.385
0.186 1.676 4.576
0.398 2.258 4.474
0.336 2.353 4.596
0.070 2.261 4.827
1.056 1.763 4.069
0.628 1.640 4.111
0.462 1.927 4.389
0.230 2.171 4.605
0.627 2.124 4.571
0.408 2.319 4.527
0.217 2.466 4.850
1.182 1.908 4.056
1.302 1.674 4.041
0.860 1.932 4.467
0.598 1.889 4.310
0.767 2.321 4.628
0.662 2.327 4.643
0.674 2.466 4.588
1.493 1.653 4.117
1.362 1.835 4.158
1.297 2.128 4.366
1.203 2.264 4.341
0.755 2.219 4.302
0.633 2.490 4.473
0.699 2.828 4.345
0.650 2.660 4.611
1.807 1.658 4.174
1.648 2.198 4.276
1.584 2.140 4.133
1.578 2.104 4.341
1.030 2.509 4.467
0.865 2.607 4.498
0.849 2.703 4.449
0.793 2.763 4.594
0.971 2.779 4.733
2.168 2.098 4.135
1.911 1.850 3.959
1.856 2.216 4.342
1.548 2.297 4.133
1.382 2.196 4.087
1.282 2.350 4.297
1.131 2.673 4.419
0.982 2.673 4.747
0.996 3.109 4.773
2.560 2.243 3.990
2.068 2.388 3.969
1.778 2.367 4.168
2.047 2.432 4.458
1.704 2.700 4.283
1.427 2.535 4.396
1.313 2.816 4.481
1.114 2.999 4.389
1.165 3.084 4.818
2.445 2.496 3.988
2.450 2.252 4.038
1.993 2.608 3.996
2.012 2.835 4.176
1.919 2.767 4.154
1.723 3.015 4.367
1.612 2.878 4.325
1.409 3.166 4.464
1.317 3.264 4.736
2.816 2.463 4.173
2.430 2.691 4.089
2.463 2.880 4.241
1.983 2.953 4.139
1.713 3.020 4.316
1.640 3.162 4.456
1.599 3.404 4.531
1.326 3.245 4.543
1.459 3.390 4.898
2.385 2.672 3.971
2.614 2.997 4.085
2.283 2.883 4.358
2.178 3.178 4.403
2.101 3.066 4.493
1.808 3.230 4.744
1.486 3.387 4.806
1.918 3.481 4.654
2.625 3.104 4.194
2.550 3.008 4.164
2.285 2.988 4.253
2.358 3.129 4.621
1.934 3.364 4.734
2.111 3.376 4.673
1.878 3.686 4.831
1.649 3.992 4.938
2.635 3.427 4.145
2.414 3.331 4.388
2.237 3.716 4.355
2.434 3.609 4.578
1.989 3.732 4.683
2.055 3.967 4.806
2.466 3.719 4.339
2.134 3.643 4.357
1.977 4.071 4.869
2.471 3.964 4.866
2.286 4.842 4.825
2.200 5.014 5.248
2.706 5.274 4.878
2.499 5.353 5.233
2.400 5.228 5.147
1.948 5.217 5.129
0.167 1.763 4.300
0.146 1.944 4.210
0.060 2.100 4.161
-0.143 2.080 4.464
0.573 1.854 4.175
0.253 1.788 4.207
0.136 2.300 4.304
0.180 2.484 4.419
0.520 1.972 4.138
0.753 2.001 3.988
0.532 2.247 4.138
0.465 2.393 4.464
0.921 2.154 4.010
1.007 2.116 3.999
0.833 2.242 4.052
0.674 2.163 4.099
0.782 2.272 4.425
1.466 2.224 3.981
1.280 2.026 4.067
0.976 2.473 3.955
0.612 2.596 4.358
0.688 2.718 4.359
1.013 2.885 4.475
1.428 1.862 3.883
1.628 2.152 3.836
1.416 2.166 4.166
1.240 2.420 4.054
0.817 2.695 4.137
0.736 2.469 4.467
0.846 2.938 4.439
1.994 2.023 3.717
1.615 2.398 3.995
1.534 2.184 4.014
1.286 2.582 4.076
1.462 2.778 4.370
1.033 2.845 4.255
0.915 2.891 4.579
1.072 2.851 4.201
2.158 2.025 3.563
2.021 2.462 3.789
1.879 2.291 3.734
1.626 2.639 4.174
1.754 2.654 4.081
1.272 3.000 4.005
1.246 2.969 4.182
0.895 2.974 4.430
1.077 3.415 4.388
2.434 2.518 3.590
2.114 2.360 3.762
1.901 2.521 4.051
1.910 2.693 4.212
1.512 2.614 4.060
1.691 2.784 4.070
1.333 3.033 4.193
1.418 3.444 4.506
1.465 3.258 4.291
2.401 2.756 3.875
2.284 2.624 4.035
2.078 2.600 3.786
2.276 2.872 3.922
2.049 3.167 4.387
1.763 2.925 4.129
1.627 3.340 4.560
1.266 3.199 4.443
1.593 3.556 4.540
2.768 2.768 3.718
2.519 2.607 3.827
2.417 3.073 4.014
2.179 3.021 4.086
2.216 3.217 4.169
1.635 3.150 4.454
1.824 3.571 4.363
1.394 3.738 4.535
1.670 3.532 4.414
2.750 3.101 3.943
2.498 3.107 4.206
2.372 3.088 4.326
1.998 3.554 4.099
1.831 3.437 4.147
1.997 3.554 4.335
1.760 3.876 4.605
1.753 3.929 4.605
1.700 3.844 4.569
2.800 3.353 3.962
2.590 3.096 3.900
2.658 3.466 4.116
2.442 3.697 4.198
1.971 3.651 4.446
1.871 4.023 4.388
1.627 3.840 4.491
1.946 4.286 4.631
1.715 4.326 4.845
2.603 3.712 4.293
2.608 3.788 3.966
2.359 3.947 4.081
2.382 3.976 4.411
1.893 3.845 4.510
2.084 4.351 4.579
2.181 4.347 4.482
2.072 4.228 4.696
2.612 3.989 4.205
2.839 3.757 4.399
2.643 4.151 4.536
2.383 4.077 4.694
2.147 4.251 4.740
2.031 4.524 4.756
1.894 4.598 4.575
1.973 4.534 4.787
2.911 3.877 4.385
2.684 4.017 4.377
2.348 4.230 4.719
2.299 4.685 4.410
2.553 4.644 4.660
2.221 4.752 4.912
1.826 5.104 4.622
1.744 5.060 4.780
2.673 4.569 4.515
2.742 4.414 4.502
2.285 4.761 4.860
2.528 4.695 4.535
2.210 4.790 4.767
2.260 5.130 4.729
1.919 5.040 5.174
1.736 5.336 4.814
2.854 4.852 4.764
2.617 4.871 4.800
2.843 5.085 4.465
2.637 4.917 4.894
2.090 5.162 4.714
2.377 5.304 4.859
2.016 5.371 5.232
1.600 5.687 5.283
3.020 4.828 4.502
2.485 5.127 4.631
1.406 2.410 3.640
1.320 2.537 3.874
1.106 2.450 3.774
0.738 2.597 4.190
1.799 2.213 3.554
1.420 2.513 3.618
1.276 2.443 4.036
1.154 2.576 4.038
1.119 2.621 4.043
0.858 3.318 4.298
2.240 2.495 3.649
1.688 2.508 3.612
1.775 2.675 3.581
1.326 2.706 3.787
1.368 2.805 3.788
1.393 3.052 4.153
1.004 3.205 4.052
1.014 3.195 3.999
2.351 2.227 3.512
2.172 2.645 3.691
2.248 2.512 3.529
1.947 2.660 4.014
1.590 3.068 4.066
1.744 2.938 3.859
1.337 3.379 4.102
1.109 3.383 4.012
1.492 3.432 4.457
2.557 2.646 3.795
2.250 2.962 3.699
1.988 3.088 3.598
2.080 2.975 3.792
1.836 3.007 3.805
1.470 3.148 4.026
1.710 3.281 4.135
1.501 3.551 4.164
1.542 3.719 4.201
2.455 2.589 3.710
2.616 2.879 3.921
2.129 3.021 4.020
1.922 3.374 3.811
1.765 3.109 3.826
1.918 3.182 3.861
1.855 3.325 4.345
1.509 3.760 4.432
1.529 3.974 4.163
1.266 4.008 4.513
2.757 3.157 3.528
2.728 3.271 3.748
2.573 3.263 3.873
2.253 3.150 4.009
2.058 3.389 3.926
2.099 3.577 4.205
1.882 3.482 4.394
1.629 3.664 4.490
1.968 3.899 4.347
1.527 4.151 4.195
2.921 3.208 3.751
2.403 3.221 3.843
2.283 3.421 3.998
2.120 3.656 3.823
2.208 3.602 4.281
1.749 4.123 4.435
1.562 3.817 4.138
2.060 4.206 4.402
1.699 4.458 4.583
1.397 4.523 4.479
2.811 3.405 3.808
2.667 3.525 3.731
2.684 3.713 3.904
2.293 3.892 3.865
2.395 3.930 3.990
1.850 4.012 4.378
1.709 4.214 4.256
2.174 4.165 4.139
1.671 4.495 4.294
1.453 4.830 4.693
3.114 3.925 3.746
2.650 4.068 3.773
2.509 3.841 3.918
2.488 3.966 4.171
2.050 4.263 4.138
1.897 4.364 4.177
1.995 4.406 4.322
1.975 4.518 4.420
1.651 4.964 4.600
1.838 4.724 4.816
2.864 4.103 4.145
2.517 4.012 4.329
2.611 4.537 4.352
2.541 4.487 4.378
2.246 4.455 4.429
2.476 4.732 4.298
2.364 4.847 4.654
2.126 5.010 4.839
1.620 5.337 4.593
1.513 5.114 4.680
2.695 4.357 4.302
2.682 4.483 4.291
2.612 4.429 4.515
2.150 4.890 4.271
2.500 4.879 4.409
2.218 5.107 4.526
1.997 5.134 4.551
1.823 5.133 4.953
1.959 5.188 4.801
1.488 5.425 4.743
2.861 4.764 4.140
2.529 4.984 4.252
2.370 4.844 4.293
2.561 5.274 4.584
2.401 5.059 4.634
2.048 5.420 4.873
2.198 5.608 4.703
2.139 5.629 4.800
1.892 5.942 4.924
1.714 6.036 4.964
3.005 4.776 4.589
2.563 5.266 4.334
1.740 2.666 3.354
1.421 2.581 3.711
1.059 2.792 3.858
2.072 2.486 3.516
2.017 2.360 3.363
1.576 2.830 3.798
1.274 2.812 3.634
1.359 2.978 3.927
1.135 3.077 4.094
2.227 2.559 3.560
2.071 2.669 3.340
2.034 2.802 3.465
1.942 2.839 3.723
1.635 3.029 3.488
1.272 3.220 3.820
1.448 3.229 3.864
1.339 3.751 4.058
2.598 2.743 3.344
2.241 2.897 3.313
2.028 2.863 3.574
2.071 3.101 3.732
1.695 2.988 3.778
1.655 3.423 3.745
1.530 3.433 4.023
1.180 3.467 3.828
1.189 3.584 4.215
2.636 2.689 3.200
2.610 3.036 3.335
2.163 3.303 3.557
2.219 3.271 3.720
1.735 3.327 3.623
1.775 3.413 4.059
1.483 3.743 3.918
1.226 3.812 3.953
1.626 3.856 4.242
1.194 4.023 4.100
2.554 3.131 3.373
2.546 3.375 3.362
2.401 3.205 3.544
2.467 3.448 3.703
2.213 3.379 3.924
1.851 3.604 3.768
1.570 3.569 4.036
1.749 4.135 4.083
1.670 3.899 3.985
1.502 4.152 4.317
3.136 3.322 3.523
2.521 3.282 3.638
2.411 3.551 3.633
2.603 3.801 3.578
2.281 3.592 3.781
1.827 3.906 3.985
1.944 4.105 3.994
1.662 4.162 4.152
1.811 4.325 4.363
1.513 4.198 4.367
1.641 4.723 4.537
3.205 3.503 3.602
2.920 3.479 3.424
2.487 3.594 3.776
2.458 3.670 3.544
2.177 3.754 3.774
2.375 4.092 4.044
2.056 4.054 4.102
1.700 4.485 4.255
1.992 4.671 4.021
1.771 4.808 4.405
1.584 4.670 4.288
1.429 4.941 4.343
2.820 3.506 3.399
3.011 3.975 3.479
2.720 4.167 3.900
2.697 3.901 4.068
2.384 3.977 3.837
2.209 4.512 4.088
2.152 4.282 3.985
2.112 4.511 4.042
1.759 4.905 4.114
1.606 5.047 4.521
1.404 5.220 4.473
1.322 5.270 4.508
2.885 3.950 3.557
2.965 4.107 4.047
2.441 4.238 4.000
2.245 4.467 4.165
2.421 4.432 4.087
2.067 4.823 4.161
2.139 4.852 4.311
1.921 5.090 4.379
2.023 5.186 4.615
1.913 5.108 4.654
1.556 5.466 4.448
1.263 5.423 4.789
2.801 4.258 3.786
3.012 4.450 3.778
2.604 4.730 4.199
2.666 4.651 4.167
2.295 4.776 4.154
2.393 5.045 4.283
2.414 4.930 4.169
2.228 5.352 4.358
1.761 5.588 4.532
1.831 5.561 4.828
1.360 5.763 4.889
1.223 5.664 5.007
2.723 4.810 4.185
2.567 4.544 3.829
2.776 4.817 4.155
2.226 5.004 4.210
2.445 5.120 4.381
2.321 5.136 4.511
2.060 5.378 4.564
1.991 5.390 4.771
1.902 5.581 4.531
1.461 5.882 4.508
1.629 5.850 4.941
1.476 6.227 4.868
2.800 4.875 4.278
2.949 4.966 4.228
2.593 5.244 4.045
1.615 2.819 3.157
1.792 2.574 3.604
1.493 3.026 3.591
2.400 2.524 3.062
2.283 2.552 3.102
2.000 2.902 3.404
1.529 3.083 3.499
1.386 3.305 3.279
1.588 3.437 3.621
1.404 3.098 3.607
2.463 2.729 3.096
2.062 2.865 3.095
1.944 2.945 3.161
2.040 3.335 3.590
1.952 3.208 3.587
1.516 3.614 3.399
1.197 3.667 3.925
1.462 3.682 4.039
2.630 3.006 3.278
2.749 2.727 3.392
2.342 3.211 3.060
2.338 3.351 3.372
2.187 3.142 3.323
2.084 3.281 3.595
1.720 3.333 3.462
1.592 3.588 3.843
1.163 4.036 3.757
1.457 3.877 3.663
1.225 4.191 4.100
3.090 3.001 2.954
2.749 3.216 3.327
2.475 3.063 3.125
2.317 3.398 3.542
2.013 3.462 3.512
2.067 3.457 3.563
1.847 3.917 3.589
1.868 3.899 3.985
1.318 3.984 3.845
1.546 4.171 3.742
1.539 4.438 4.084
2.838 3.243 3.049
3.012 3.529 3.099
2.621 3.473 3.454
2.543 3.604 3.562
2.281 3.546 3.470
1.938 3.875 3.514
1.820 4.099 3.495
1.854 4.198 3.651
1.851 3.977 3.692
1.598 4.159 4.103
1.693 4.279 4.065
1.588 4.707 3.878
2.972 3.460 3.106
3.201 3.422 3.485
2.811 3.640 3.301
2.839 3.678 3.257
2.661 3.632 3.516
2.383 4.138 3.436
2.028 4.052 3.571
2.169 4.022 3.646
1.925 4.409 4.023
2.138 4.547 4.096
1.672 4.707 3.848
1.755 5.009 4.223
1.366 4.753 4.265
1.351 4.863 4.504
3.159 3.471 3.419
2.761 3.813 3.283
2.733 4.120 3.426
2.393 3.925 3.466
2.428 4.165 3.596
2.432 4.336 3.602
1.886 4.548 3.633
1.827 4.640 3.875
1.921 4.547 4.194
1.812 4.944 4.229
1.747 4.825 4.293
1.539 5.249 4.168
1.590 5.361 4.220
1.396 5.564 4.207
2.904 4.079 3.469
2.962 4.087 3.520
2.570 4.178 3.383
2.803 4.207 3.852
2.510 4.593 3.965
2.087 4.783 4.049
1.833 4.712 3.865
2.057 5.003 4.031
2.112 4.832 4.229
2.093 5.090 3.963
1.781 5.319 4.275
1.399 5.418 4.566
1.272 5.345 4.626
1.286 5.642 4.456
2.849 4.430 3.598
2.634 4.748 3.788
2.438 4.811 3.639
2.171 5.006 3.938
2.165 4.695 3.830
2.169 5.175 3.836
1.983 5.366 4.066
2.003 5.373 4.176
1.840 5.523 4.230
1.522 5.780 4.591
1.465 5.548 4.309
1.244 5.727 4.464
0.927 5.724 4.693
2.988 4.803 3.737
2.552 4.812 3.684
2.482 4.824 3.855
2.214 4.913 4.193
2.600 5.108 3.975
2.241 5.320 4.377
2.090 5.708 4.206
2.179 5.431 4.470
1.899 5.651 4.304
1.568 5.783 4.332
1.602 5.960 4.528
1.318 5.975 4.640
0.966 6.140 4.644
2.864 4.992 3.865
2.746 5.291 3.783
2.336 5.294 3.952
2.406 2.582 2.996
2.110 2.861 2.888
1.703 3.129 2.899
1.589 3.198 3.034
1.501 3.050 3.260
2.526 2.888 2.715
2.465 2.933 2.892
2.083 2.955 3.196
2.231 2.961 3.024
1.979 3.190 3.285
1.836 3.327 3.391
1.323 3.388 3.477
1.138 3.688 3.452
2.809 2.668 2.927
2.725 2.870 2.890
2.215 3.156 3.264
2.238 3.433 3.008
1.749 3.542 3.371
1.887 3.696 3.282
1.481 3.772 3.291
1.646 3.632 3.568
1.228 4.069 3.585
2.817 3.093 2.946
2.902 3.060 2.904
2.465 3.090 3.162
2.254 3.503 3.141
2.253 3.446 3.320
2.276 3.575 3.335
2.133 3.775 3.389
1.919 3.626 3.681
1.702 3.754 3.749
1.285 4.209 3.629
1.554 4.467 3.765
1.369 4.183 3.710
3.097 3.184 2.778
3.131 3.444 3.101
3.001 3.445 3.264
2.762 3.304 3.142
2.645 3.644 3.198
2.283 3.721 3.236
2.259 3.878 3.508
1.808 4.078 3.520
1.871 4.315 3.552
1.461 4.275 3.668
1.686 4.663 3.836
1.776 4.472 3.875
1.345 4.739 4.113
3.238 3.198 2.670
3.070 3.334 3.103
3.059 3.606 2.866
2.726 3.495 3.285
2.466 4.022 3.445
2.644 4.154 3.570
2.466 3.986 3.509
2.030 4.320 3.616
1.720 4.452 3.568
1.494 4.230 3.782
1.848 4.683 3.628
1.667 4.574 3.626
1.564 4.764 3.693
1.566 4.993 4.188
1.111 5.130 4.047
3.113 3.665 2.893
3.048 3.629 3.039
2.869 3.968 2.974
2.507 3.826 3.410
2.608 3.922 3.269
2.593 4.402 3.622
2.234 4.340 3.348
2.200 4.685 3.629
1.769 4.721 3.923
1.808 4.811 3.809
2.006 4.776 3.979
1.687 4.838 3.948
1.693 5.321 4.049
1.396 5.487 4.220
1.134 5.492 4.030
0.990 5.621 4.453
3.137 3.902 3.152
3.243 3.858 3.389
2.719 4.226 3.154
2.934 4.288 3.430
2.375 4.276 3.464
2.456 4.489 3.454
2.101 4.736 3.749
1.996 4.580 3.987
2.370 5.092 3.787
1.967 4.875 3.765
2.005 5.287 4.002
1.527 5.214 3.961
1.484 5.287 4.013
1.235 5.640 4.202
0.927 5.542 4.329
1.155 5.904 4.323
3.225 4.292 3.125
2.709 4.438 3.427
2.459 4.541 3.600
2.326 4.632 3.569
2.406 4.808 3.469
2.305 4.813 3.569
2.258 5.317 3.827
2.350 5.219 3.889
1.966 5.377 3.906
1.720 5.543 3.898
1.720 5.575 4.040
1.560 5.939 4.219
1.127 6.048 4.509
1.048 6.020 4.455
1.064 5.970 4.589
2.585 4.958 3.514
2.493 4.757 3.647
2.426 4.804 3.737
2.359 5.387 4.011
2.349 5.221 4.014
2.105 5.317 4.038
1.994 5.655 4.055
2.099 5.585 4.262
1.845 5.602 4.387
1.667 6.153 4.374
1.451 5.970 4.457
1.219 6.311 4.347
2.658 5.121 3.671
2.725 5.145 3.701
2.499 5.279 3.917
2.313 2.601 2.862
2.178 2.856 2.840
1.852 3.172 3.043
1.608 3.155 2.949
2.625 2.994 2.439
2.512 2.791 2.549
2.308 3.245 2.830
2.115 3.398 3.036
1.599 3.460 3.110
1.378 3.524 2.891
1.277 3.652 3.431
2.837 3.076 2.626
2.727 2.762 2.872
2.343 2.907 2.829
2.072 3.178 3.032
2.140 3.154 2.920
2.078 3.525 3.273
1.615 3.760 2.911
1.776 3.744 3.380
1.245 4.029 3.333
1.240 4.207 3.426
3.024 2.715 2.427
2.774 3.114 2.597
2.767 3.030 2.823
2.758 3.070 2.679
2.426 3.443 3.011
2.242 3.654 3.198
1.911 3.687 3.156
1.904 3.757 3.049
1.948 3.704 3.028
1.727 4.203 3.515
1.431 3.939 3.648
1.616 4.325 3.620
1.353 4.509 3.616
3.190 3.111 2.394
3.206 3.207 2.424
2.704 3.266 2.499
2.813 3.287 2.722
2.786 3.353 2.983
2.390 3.523 2.905
2.441 3.860 3.273
1.954 4.173 3.015
2.047 3.859 3.226
1.919 4.419 3.178
1.574 4.189 3.279
1.598 4.410 3.375
1.317 4.552 3.733
1.175 4.558 3.665
3.429 3.286 2.694
3.409 3.367 2.736
3.012 3.494 2.634
3.033 3.598 2.913
2.711 3.897 2.828
2.640 3.751 3.258
2.142 3.886 3.322
1.950 3.943 3.405
1.867 4.126 3.458
1.807 4.312 3.390
1.538 4.413 3.570
1.579 4.752 3.445
1.745 4.853 3.716
1.689 5.125 3.676
1.269 5.051 3.582
0.908 5.256 3.670
3.658 3.526 2.797
3.463 3.667 2.507
3.095 3.738 2.692
3.026 3.994 2.692
2.861 3.891 3.070
2.609 4.091 2.835
2.394 4.419 2.923
2.237 4.263 3.019
2.026 4.636 3.523
2.055 4.359 3.525
1.810 4.737 3.339
2.169 4.818 3.652
1.852 4.889 3.733
1.375 4.943 3.851
1.299 5.223 3.760
1.092 5.347 4.033
1.175 5.304 4.066
0.793 5.711 4.281
0.771 5.797 4.254
3.306 4.093 2.717
2.975 3.977 3.094
3.155 4.036 3.143
2.963 4.019 3.065
2.803 4.239 3.029
2.262 4.475 3.193
2.351 4.832 3.584
2.075 4.542 3.272
2.149 4.913 3.554
2.256 4.944 3.563
1.908 5.263 3.850
1.777 5.424 3.651
1.566 5.423 3.874
1.505 5.652 3.939
1.360 5.757 3.855
0.858 5.841 3.982
0.899 6.056 4.049
0.687 5.895 4.131
0.753 5.972 4.329
2.908 4.549 3.248
2.829 4.586 3.366
2.454 4.471 3.182
2.574 4.645 3.227
2.486 4.701 3.461
2.064 5.063 3.610
2.018 5.400 3.833
2.269 5.377 3.622
1.672 5.459 3.617
1.920 5.747 4.077
1.547 5.636 3.829
1.561 5.774 4.285
1.000 6.146 4.075
0.851 6.185 4.219
0.913 6.215 4.386
2.606 4.905 3.559
2.406 5.068 3.273
2.496 5.150 3.324
2.370 5.052 3.715
2.154 5.300 3.802
2.224 5.752 3.674
2.085 5.812 3.715
2.010 5.630 4.088
1.696 5.891 3.865
1.400 5.856 4.034
1.533 6.207 4.015
2.544 5.261 3.423
2.213 5.559 3.487
2.182 2.902 2.681
1.974 3.069 2.682
2.716 2.547 2.253
2.358 3.023 2.326
2.020 3.018 2.325
1.920 3.209 2.613
1.875 3.029 2.478
1.586 3.238 2.636
2.732 2.767 2.297
2.666 2.898 2.305
2.551 2.884 2.528
2.469 3.285 2.663
2.075 3.103 2.470
2.258 3.422 2.826
2.027 3.628 2.844
1.571 3.484 2.916
1.351 3.958 2.990
3.363 2.997 2.183
3.175 3.189 2.323
3.017 3.292 2.401
2.620 3.438 2.426
2.449 3.360 2.622
2.509 3.311 2.578
1.962 3.766 2.802
2.073 3.767 2.757
1.621 3.828 3.083
1.755 4.023 2.935
3.551 2.859 2.143
3.053 3.027 2.108
3.097 3.233 2.340
2.786 3.526 2.675
2.556 3.436 2.488
2.683 3.715 2.802
2.193 3.570 2.722
2.062 4.140 2.995
1.884 4.036 3.135
1.987 4.182 2.918
1.417 4.283 3.322
1.723 4.544 3.335
1.350 4.755 3.213
3.403 3.119 2.467
3.346 3.509 2.550
3.255 3.348 2.424
2.838 3.805 2.322
2.839 3.950 2.714
2.467 3.893 2.929
2.590 3.808 2.884
2.241 3.977 2.925
2.272 4.045 2.952
1.994 4.302 2.925
1.828 4.544 3.105
1.819 4.568 3.240
1.704 4.929 3.421
1.454 5.067 3.259
1.544 4.942 3.405
1.216 5.061 3.513
3.476 3.455 2.187
3.584 3.321 2.214
3.280 3.768 2.554
3.306 3.933 2.455
2.867 3.975 2.796
2.646 3.815 2.889
2.451 4.283 2.986
2.271 4.279 2.898
2.440 4.204 3.026
1.939 4.576 3.146
1.694 4.487 3.401
1.679 4.986 3.384
1.976 5.126 3.142
1.604 5.048 3.531
1.487 5.221 3.307
1.331 5.415 3.762
1.272 5.321 3.818
0.847 5.637 3.803
0.777 5.931 3.718
0.695 5.838 3.812
0.444 6.091 3.985
0.324 5.883 3.998
0.304 6.383 4.240
3.776 3.802 2.499
3.859 3.858 2.578
3.340 3.868 2.314
3.476 3.980 2.439
3.239 3.848 2.738
2.894 4.228 2.938
2.690 4.496 2.835
2.476 4.534 2.921
2.359 4.554 3.084
2.206 4.701 3.155
1.987 4.709 3.474
1.821 4.970 3.193
1.872 4.908 3.436
1.805 5.472 3.633
1.689 5.516 3.737
1.556 5.385 3.709
1.163 5.586 3.907
1.059 5.626 3.733
0.946 5.912 3.815
0.876 5.966 4.173
0.485 6.028 4.197
0.378 6.100 4.088
3.126 4.470 3.114
2.701 4.638 3.034
2.416 4.569 3.144
2.284 5.088 3.083
2.028 4.777 3.100
2.068 5.044 3.424
2.231 5.112 3.302
1.943 5.376 3.289
1.633 5.752 3.457
1.482 5.569 3.738
1.681 5.626 3.978
1.206 5.828 3.853
1.005 5.878 4.080
0.842 6.250 4.146
2.385 4.993 3.239
2.228 5.274 3.336
2.370 5.572 3.621
2.348 5.505 3.304
1.955 5.787 3.781
1.794 5.745 3.673
1.696 5.987 3.737
1.443 5.908 3.756
1.345 6.309 3.793
2.487 5.563 3.296
2.373 2.734 2.334
1.911 3.111 2.449
2.618 2.914 1.839
2.462 2.654 2.253
2.275 2.895 2.071
2.411 3.165 2.154
1.797 3.316 2.177
1.890 3.176 2.563
2.835 2.639 1.862
2.750 2.789 1.980
2.498 2.832 2.018
2.516 3.057 2.300
2.107 3.442 2.123
2.301 3.150 2.603
1.940 3.317 2.595
2.000 3.805 2.666
1.456 3.970 2.548
2.967 3.160 1.928
3.052 3.072 2.104
2.864 3.244 2.325
2.792 3.471 2.325
2.693 3.627 2.208
2.324 3.483 2.582
2.191 3.904 2.558
1.811 3.823 2.482
1.743 4.051 2.708
3.250 2.944 1.870
3.286 3.057 2.064
2.930 3.187 2.154
2.735 3.480 2.289
2.823 3.414 2.177
2.549 3.710 2.351
2.208 3.794 2.459
2.326 4.179 2.698
2.130 4.050 2.547
1.588 4.163 2.971
3.262 3.359 1.887
3.352 3.334 2.075
3.097 3.323 2.327
3.103 3.469 2.486
2.568 3.591 2.596
2.435 3.825 2.307
2.455 3.975 2.777
2.063 4.312 2.711
1.991 4.309 2.566
2.076 4.190 2.885
1.623 4.544 3.034
3.547 3.693 1.862
3.418 3.631 2.212
3.186 3.566 2.346
2.975 3.760 2.133
2.924 3.945 2.530
2.905 3.987 2.697
2.422 4.026 2.582
2.449 4.443 2.822
2.351 4.499 3.031
1.932 4.751 2.915
1.655 4.654 2.814
1.695 4.938 3.109
1.619 5.359 3.310
1.619 5.056 3.225
1.199 5.411 3.413
0.971 5.529 3.641
1.031 5.604 3.503
0.893 5.954 3.551
0.426 6.062 3.583
0.656 6.126 3.666
0.047 5.955 3.918
0.230 6.355 4.124
3.733 3.490 2.274
3.679 3.937 2.374
3.612 3.746 2.098
3.416 3.949 2.367
3.154 4.124 2.578
2.949 4.320 2.424
2.505 4.258 2.769
2.520 4.626 2.860
2.449 4.875 2.693
2.068 4.750 3.001
1.918 4.767 2.994
1.963 5.098 3.054
2.202 5.401 3.339
1.709 5.317 3.033
1.750 5.375 3.171
1.452 5.615 3.583
1.416 5.706 3.611
1.251 5.698 3.779
1.132 5.997 3.899
0.725 6.049 3.654
0.597 6.104 3.892
4.076 3.741 2.220
3.866 4.053 2.095
3.712 3.907 2.327
2.172 5.295 3.124
1.850 5.667 3.405
1.643 5.622 3.459
1.785 5.658 3.500
1.572 5.745 3.330
1.443 6.016 3.632
1.077 6.319 3.581
1.078 6.318 3.655
1.898 5.840 3.395
1.764 6.038 3.559
1.544 6.293 3.448
1.503 5.961 3.738
2.390 2.671 2.003
2.028 2.912 2.124
1.947 3.078 2.135
2.981 2.814 1.541
2.594 3.001 2.022
2.285 2.983 2.021
2.316 2.841 1.991
2.016 3.376 1.877
2.186 3.241 2.041
1.829 3.436 2.393
2.952 2.907 1.648
2.630 3.160 1.979
2.449 3.244 1.770
2.555 3.305 1.865
2.474 3.107 1.941
1.906 3.610 2.329
1.752 3.694 2.155
1.718 3.746 2.226
3.002 3.208 2.003
2.938 3.061 1.974
2.733 3.205 2.021
2.536 3.553 2.123
2.305 3.632 2.039
2.430 3.673 2.231
2.015 3.987 2.165
1.976 3.738 2.563
3.395 3.099 1.948
3.280 3.340 1.902
2.705 3.389 2.206
2.799 3.514 2.275
2.421 3.504 2.037
2.273 3.889 2.334
2.065 3.910 2.538
2.193 4.096 2.234
1.819 3.982 2.429
3.374 3.338 1.690
3.413 3.626 2.098
3.257 3.834 2.103
3.062 3.971 2.024
2.711 4.013 2.012
2.720 4.055 2.236
2.438 4.140 2.228
2.170 4.464 2.605
2.105 4.402 2.509
3.769 3.341 1.813
3.233 3.890 2.119
3.136 3.691 2.187
3.134 3.973 2.131
2.950 3.862 2.238
2.475 4.225 2.367
2.538 4.347 2.553
2.146 4.489 2.515
0.347 6.166 3.622
0.551 5.926 3.464
0.192 6.090 3.741
3.734 3.600 1.691
3.359 4.024 2.022
3.571 4.104 1.953
3.040 4.062 2.345
2.847 4.358 2.404
2.807 4.504 2.280
2.480 4.535 2.634
1.058 5.909 3.316
1.064 6.001 3.263
0.816 6.096 3.527
0.784 6.336 3.777
0.384 6.105 3.851
3.807 4.049 1.974
3.767 4.217 1.818
3.547 4.115 2.097
3.270 4.243 2.264
1.422 5.838 3.274
1.427 5.887 3.534
0.996 6.091 3.259
1.212 6.243 3.340
3.829 4.097 1.970
1.876 6.101 3.427
1.748 5.941 3.170
1.226 6.210 3.337
2.488 2.765 1.379
2.586 2.808 1.602
2.492 3.002 1.643
2.290 2.790 1.712
1.726 2.874 2.046
2.672 2.726 1.396
2.562 2.998 1.530
2.425 2.781 1.895
2.328 3.338 1.910
2.235 3.009 1.977
1.865 3.250 2.200
3.102 2.716 1.348
2.695 3.147 1.794
2.452 2.942 1.745
2.616 3.187 1.809
2.325 3.432 1.962
1.918 3.371 1.997
1.747 3.500 2.313
2.831 2.965 1.782
3.003 3.169 1.885
2.769 3.395 1.596
2.561 3.304 1.893
2.420 3.514 2.120
2.420 3.884 1.972
2.221 3.965 2.352
3.384 3.070 1.819
3.251 3.267 1.906
3.070 3.657 2.018
2.602 3.630 1.975
2.560 3.827 2.155
2.112 3.728 2.132
2.098 3.829 2.294
3.560 3.454 1.837
3.252 3.632 1.570
2.800 3.773 1.599
2.603 3.713 2.144
2.860 3.750 2.016
2.428 4.305 2.087
2.187 4.331 2.383
3.685 3.494 1.562
3.488 3.714 1.892
3.089 4.046 1.942
3.047 3.864 2.128
2.572 4.346 1.946
2.596 4.264 2.317
0.204 6.411 3.465
3.519 4.030 1.770
3.276 3.949 1.615
3.089 3.869 1.747
3.078 4.226 2.059
3.065 4.201 2.252
0.785 6.211 3.425
0.626 6.359 3.203
3.593 4.013 1.664
3.599 4.106 1.729
3.329 4.250 1.984
0.931 6.096 3.365
3.943 3.973 1.578
3.667 4.417 1.938
2.597 2.601 1.361
2.082 2.406 1.348
2.005 2.862 1.420
2.116 2.831 1.744
2.643 2.475 1.175
2.516 2.983 1.522
2.432 2.786 1.523
2.235 2.788 1.396
1.942 3.017 1.595
2.825 2.607 1.137
2.452 3.058 1.423
2.349 3.118 1.657
1.972 3.193 1.695
1.853 3.483 1.737
1.994 3.629 1.783
2.926 3.110 1.287
2.879 3.206 1.503
2.620 3.118 1.322
2.300 3.321 1.791
2.335 3.639 1.731
1.945 3.680 1.638
3.154 3.046 1.138
2.893 3.452 1.311
2.477 3.499 1.418
2.277 3.548 1.712
2.220 3.613 1.813
2.014 3.583 1.972
2.022 3.707 1.823
3.245 3.276 1.258
3.115 3.703 1.338
2.597 3.373 1.757
2.507 3.758 1.559
2.436 3.683 1.540
2.285 4.129 1.627
3.443 3.415 1.486
3.225 3.734 1.652
2.899 3.789 1.794
2.884 3.821 1.561
2.539 4.118 1.725
2.614 4.150 1.890
3.221 3.554 1.227
3.367 3.610 1.588
2.903 3.829 1.707
3.113 3.963 1.843
2.523 4.400 1.589
3.536 3.776 1.354
3.372 3.893 1.680
3.272 4.058 1.803
2.832 4.324 1.625
3.911 4.203 1.292
3.606 3.980 1.377
3.140 4.146 1.681
3.729 4.135 1.511
2.454 2.320 1.037
2.014 2.463 0.878
1.761 2.437 1.431
2.475 2.323 0.829
2.127 2.695 1.002
1.910 2.713 1.375
1.966 2.945 1.146
2.557 2.499 1.033
2.158 2.735 1.048
2.109 3.184 1.402
1.755 2.993 1.476
1.905 3.357 1.551
2.444 2.871 0.941
2.646 2.824 0.966
2.316 2.972 1.104
1.941 3.444 1.192
2.140 3.302 1.296
1.651 3.350 1.406
2.907 2.977 1.124
2.414 3.106 1.095
2.254 3.382 1.239
2.339 3.447 1.250
1.981 3.563 1.292
2.100 3.482 1.709
3.072 3.195 1.268
2.982 3.454 1.180
2.821 3.679 1.572
2.526 3.516 1.271
2.210 3.911 1.378
1.989 3.810 1.595
3.001 3.663 1.406
3.137 3.500 1.247
2.560 3.695 1.426
2.663 3.849 1.350
2.255 3.902 1.526
2.146 4.055 1.552
3.184 3.754 1.029
3.189 3.651 1.495
2.944 3.929 1.367
2.870 3.794 1.398
2.526 3.962 1.627
3.452 3.928 1.115
3.417 3.816 1.125
3.192 4.132 1.350
2.936 4.194 1.338
3.349 3.912 1.443
3.536 4.264 1.229
3.381 4.408 1.612
3.556 4.015 1.302
3.609 4.108 1.307
3.800 4.141 1.491
2.228 2.134 0.818
1.708 2.201 0.679
1.495 2.705 0.774
2.243 2.548 0.682
2.072 2.466 0.805
1.936 2.733 0.818
1.871 3.006 1.300
2.190 2.624 0.773
2.043 2.736 0.941
2.002 2.707 1.129
1.976 3.210 1.315
1.653 3.310 1.228
2.536 2.862 0.720
2.088 2.939 1.022
2.276 3.237 1.229
1.793 3.194 1.152
1.710 3.142 1.307
2.578 2.867 0.886
2.222 3.159 1.091
2.315 3.451 0.963
2.223 3.311 1.250
1.940 3.419 1.187
2.951 3.257 0.990
2.504 3.400 0.882
2.216 3.469 0.953
2.038 3.718 1.241
2.065 3.524 1.171
1.941 3.549 1.480
3.112 3.328 1.142
2.555 3.264 0.984
2.726 3.580 0.953
2.239 3.704 1.175
2.237 3.697 1.102
2.993 3.509 1.039
2.685 3.730 1.103
2.658 3.887 1.105
2.636 3.787 1.419
2.120 3.905 1.428
2.990 3.778 0.942
2.988 3.938 1.282
2.754 3.979 0.966
2.474 4.154 1.278
3.228 3.807 1.191
3.077 4.151 1.110
2.894 4.275 1.319
3.522 4.026 0.840
3.330 4.203 1.013
3.693 4.234 1.294
1.783 2.042 0.711
1.959 1.981 0.368
1.873 2.235 0.577
1.297 2.472 0.553
2.032 2.352 0.643
1.855 2.271 0.828
1.599 2.644 0.770
1.331 2.720 1.068
2.271 2.657 0.780
1.768 2.768 0.586
1.699 2.625 0.804
1.535 2.652 0.878
1.399 3.166 0.924
2.117 2.569 0.761
2.138 2.723 0.599
1.835 2.964 0.813
1.630 2.998 0.777
1.632 3.055 0.858
2.234 2.680 0.656
2.277 3.036 0.646
2.183 3.080 0.803
1.745 3.020 1.120
1.503 3.380 1.004
2.411 2.842 0.643
2.292 3.398 0.775
2.223 3.124 0.716
2.142 3.220 0.757
1.760 3.595 0.825
2.890 3.095 0.840
2.733 3.179 1.011
2.526 3.561 1.029
2.256 3.629 0.761
1.844 3.758 1.226
2.804 3.239 0.665
2.559 3.500 0.931
2.306 3.745 0.971
2.205 3.875 1.177
1.963 3.932 0.875
3.158 3.635 0.985
2.748 3.735 0.672
2.459 3.887 0.866
2.539 4.055 1.059
3.287 3.630 0.657
2.895 4.017 0.949
2.960 4.175 1.179
3.181 4.001 0.745
3.006 3.917 1.115
3.569 4.316 1.017
3.062 0.132 6.169
2.669 0.204 6.019
3.418 0.260 6.002
2.946 0.386 6.204
2.786 0.530 6.327
3.317 0.354 5.905
3.305 0.587 6.261
3.103 0.565 6.321
3.625 0.621 6.215
3.636 0.762 6.203
3.225 0.522 6.499
3.808 0.574 6.130
3.672 0.883 6.177
3.640 0.606 6.089
3.720 0.877 6.042
3.808 1.175 6.040
4.025 1.135 6.107
3.999 1.401 6.284
4.398 1.331 6.442
4.284 1.372 6.312
2.382 -0.103 6.068
3.325 0.147 5.885
3.119 0.231 5.886
2.931 0.095 5.989
2.381 0.262 6.149
3.355 0.032 5.852
3.137 0.159 6.073
2.902 0.339 5.932
2.677 0.565 6.239
2.432 0.468 6.384
3.368 0.206 5.637
3.006 0.308 5.879
3.187 0.463 5.976
3.053 0.953 6.293
2.612 0.948 6.230
3.684 0.614 5.999
3.536 0.861 5.832
3.342 0.711 6.077
2.867 0.801 5.958
3.063 1.041 6.265
3.895 0.933 5.806
3.722 0.726 6.022
3.377 0.793 6.045
3.051 0.887 6.328
2.970 1.440 6.509
3.782 0.936 6.165
3.415 0.858 6.015
3.254 0.952 6.156
3.277 1.353 6.029
3.845 1.131 5.818
3.649 1.363 6.190
3.606 1.497 6.338
3.253 1.504 6.220
3.880 1.071 6.182
4.108 1.390 6.191
3.740 1.635 6.371
3.620 1.701 6.235
4.078 1.461 5.987
4.093 1.461 6.188
3.808 1.694 6.228
4.595 1.784 6.173
2.550 0.093 5.668
2.503 0.071 5.601
2.197 0.210 5.903
3.054 -0.091 5.801
3.046 0.009 5.600
2.827 0.280 5.771
2.712 0.474 5.924
2.238 0.734 5.987
3.336 0.426 5.612
3.079 0.255 5.580
2.749 0.404 5.595
2.575 0.474 5.965
2.270 0.720 6.023
2.532 0.717 6.284
3.216 0.471 5.875
3.330 0.777 5.909
2.836 0.587 5.928
2.795 0.759 5.977
2.857 1.119 5.787
2.579 0.871 6.124
3.531 0.561 5.811
3.499 0.810 5.884
2.981 0.646 5.652
2.931 1.080 5.752
2.631 0.951 6.240
2.585 1.120 6.095
3.555 0.670 5.811
3.500 1.124 5.773
3.194 0.916 6.018
3.008 1.392 5.806
2.844 1.195 6.032
2.875 1.239 5.977
3.592 1.093 5.939
3.678 1.103 5.618
3.388 1.463 5.739
3.254 1.378 5.943
3.280 1.296 6.328
3.005 1.680 6.173
3.949 1.269 5.971
3.498 1.190 5.976
3.336 1.560 6.100
3.313 1.647 5.826
3.003 1.762 6.197
3.828 1.549 5.869
4.039 1.475 5.906
3.481 1.431 5.974
3.614 1.828 6.128
2.331 0.128 5.669
2.571 0.122 5.538
2.382 0.344 5.634
2.346 0.244 5.449
2.157 0.667 5.693
2.858 0.293 5.465
2.822 0.159 5.325
2.659 0.456 5.618
2.663 0.521 5.784
2.171 0.609 5.867
2.296 0.708 5.661
2.973 0.564 5.633
2.873 0.510 5.382
2.986 0.421 5.655
2.550 0.821 5.616
2.600 0.792 5.541
2.363 0.758 5.835
2.275 0.874 5.965
3.455 0.412 5.481
3.328 0.869 5.570
2.929 0.627 5.520
2.955 0.975 5.481
2.529 0.916 5.648
2.461 0.992 5.812
2.390 1.132 5.874
3.334 0.875 5.566
3.242 0.659 5.729
3.229 0.772 5.535
2.877 0.923 5.724
2.620 1.180 5.969
2.325 1.401 6.096
