4.668 6.086 0.507
4.841 6.337 0.712
5.006 6.103 0.578
5.118 6.085 0.991
4.887 5.842 0.919
5.004 6.118 1.076
5.125 5.780 0.976
4.974 5.574 1.216
4.670 6.175 0.285
4.574 6.153 0.843
4.730 5.996 0.773
4.814 6.221 1.096
4.788 6.031 0.818
4.762 5.821 1.195
4.647 5.658 1.152
4.806 5.968 1.473
4.948 5.473 1.469
4.924 5.454 1.577
4.065 6.095 0.674
4.219 6.101 0.800
4.385 6.251 1.235
4.339 5.915 1.142
4.544 5.833 1.451
4.437 5.904 1.364
4.448 5.912 1.615
4.349 5.671 1.371
4.493 5.813 1.785
4.577 5.460 1.876
3.883 5.881 0.804
4.272 6.039 1.272
4.073 5.822 1.216
4.316 6.055 1.452
4.127 5.683 1.206
4.306 5.795 1.780
4.155 5.651 1.618
4.510 5.643 2.111
4.423 5.301 1.781
3.569 5.979 1.034
3.842 6.044 1.486
3.712 5.877 1.127
4.146 6.260 1.878
3.847 5.983 1.565
3.723 5.730 1.419
4.230 6.072 2.042
4.150 6.035 2.005
4.016 5.438 1.575
4.209 6.081 2.236
3.899 5.590 1.926
3.863 5.460 2.053
3.744 6.246 1.494
3.644 5.795 1.420
3.500 5.939 1.662
3.437 5.609 1.377
3.758 5.999 2.133
3.631 5.764 1.803
3.571 5.507 1.953
3.889 6.180 2.407
3.991 5.884 2.232
3.751 5.886 2.338
3.894 5.315 1.967
3.247 6.338 1.361
3.283 5.766 1.479
3.316 6.152 1.683
3.472 5.921 1.554
3.454 6.165 2.171
3.601 5.965 2.162
3.379 5.497 1.919
3.722 6.366 2.398
3.574 6.089 2.275
3.586 5.888 2.247
3.485 5.554 2.052
3.015 6.220 1.657
3.036 5.772 1.447
3.242 6.013 2.022
3.033 5.884 1.826
3.279 6.153 2.080
3.221 5.937 2.277
2.956 5.545 1.976
3.430 6.335 2.759
3.189 5.847 2.462
3.091 5.608 2.512
3.048 5.365 2.158
2.795 6.377 1.633
2.809 6.075 1.687
2.849 6.056 1.811
2.898 5.924 1.848
2.925 6.345 2.348
2.906 5.974 2.340
2.813 5.755 1.910
2.881 6.024 2.678
3.058 5.826 2.370
2.794 5.586 2.344
2.340 6.272 1.951
2.490 5.907 1.728
2.550 5.983 2.165
2.543 5.973 2.053
2.798 6.099 2.384
2.461 5.858 2.409
2.498 5.709 2.044
2.722 6.150 2.514
2.502 5.840 2.588
2.436 5.552 2.440
2.021 6.202 1.659
2.250 6.118 1.727
1.917 5.907 1.761
2.258 5.961 2.211
2.187 5.942 1.842
2.392 6.138 2.410
2.195 5.880 2.422
2.125 5.646 2.292
2.489 6.099 2.897
2.513 5.674 2.756
2.328 5.578 2.485
1.601 5.967 1.572
1.691 6.182 2.052
1.804 5.871 1.781
1.857 6.233 2.246
2.029 5.861 1.985
2.173 6.381 2.763
1.839 5.991 2.428
1.918 5.752 2.366
2.125 6.077 2.916
2.166 5.951 2.842
1.978 5.623 2.508
1.536 6.207 1.744
1.551 6.428 1.898
1.415 6.018 1.766
1.706 6.226 2.207
1.646 6.025 2.288
1.690 6.276 2.548
1.889 6.120 2.688
1.736 5.755 2.367
1.783 6.138 3.031
1.863 5.901 2.666
1.591 5.613 2.731
1.071 6.107 1.915
1.360 6.211 2.075
1.347 5.993 2.114
1.418 6.105 2.501
1.389 6.010 2.225
1.634 6.207 2.921
1.502 6.047 2.492
1.458 5.874 2.585
1.474 5.997 3.130
1.603 5.808 2.790
0.996 6.341 1.757
1.042 5.860 2.022
0.928 6.224 2.339
0.975 5.811 2.288
1.328 6.214 2.827
1.193 6.048 2.619
1.316 6.157 3.084
6.148 6.367 0.488
5.989 5.986 0.158
6.181 6.082 0.798
6.164 5.846 0.594
6.207 6.337 1.025
6.152 5.810 0.717
6.243 5.679 0.703
6.091 5.697 0.131
6.093 5.460 0.276
5.940 5.324 0.370
5.816 5.102 -0.007
6.177 5.483 0.455
6.115 5.297 0.384
5.627 5.777 0.175
5.523 5.438 -0.062
5.834 5.573 0.428
5.523 5.214 0.365
5.757 5.154 0.134
5.493 4.932 -0.141
5.695 5.565 0.652
5.715 5.025 0.624
5.789 4.946 0.436
5.343 5.878 0.197
5.297 5.681 0.288
5.240 5.435 0.028
5.271 5.219 -0.143
5.337 5.530 0.538
5.300 5.136 0.376
5.207 4.944 0.344
5.257 4.861 0.059
5.541 5.347 0.762
5.509 5.292 0.591
5.507 4.738 0.569
5.360 4.479 0.448
5.710 5.399 1.126
5.506 4.912 0.939
5.484 4.928 0.720
4.862 5.886 0.028
4.960 5.819 0.517
5.176 5.586 0.087
4.869 5.153 0.010
5.030 4.466 0.086
5.318 5.612 0.562
5.175 5.214 0.577
5.221 5.179 0.353
4.918 4.899 0.301
4.880 4.628 0.001
4.880 4.378 0.419
5.312 5.454 0.833
5.332 5.098 0.815
5.122 4.912 0.455
4.975 4.690 0.524
4.999 4.479 0.238
5.382 5.144 1.237
5.235 5.032 0.825
5.277 4.749 0.940
5.267 4.458 0.714
5.255 4.784 1.078
5.290 4.760 1.115
4.910 6.051 0.229
4.561 5.718 0.055
4.825 5.794 0.375
4.686 5.399 0.192
4.704 5.189 0.084
4.822 4.940 0.063
4.631 4.434 0.126
4.663 4.206 0.016
4.942 5.495 0.774
4.808 5.398 0.730
4.874 5.241 0.479
4.720 4.657 0.221
4.521 4.435 0.313
4.604 4.402 0.387
4.860 5.504 0.940
4.794 5.337 0.770
4.967 4.844 0.678
4.784 4.825 0.651
4.732 4.565 0.252
4.642 4.268 0.706
4.912 5.453 1.051
4.839 4.952 1.058
5.078 4.947 0.982
4.727 4.492 0.753
4.706 4.248 0.816
5.031 4.085 0.795
5.180 5.027 1.450
5.070 4.945 1.451
4.891 4.474 1.187
4.880 4.314 1.005
4.840 4.214 0.906
4.393 6.092 0.009
4.588 6.020 0.359
4.324 5.731 0.154
4.494 5.219 -0.136
4.388 4.589 -0.107
4.656 5.731 0.706
4.649 5.615 0.474
4.410 5.109 0.414
4.406 4.849 0.153
4.483 4.542 -0.062
4.276 4.529 0.206
4.427 4.306 -0.027
4.522 5.724 0.796
4.496 5.347 0.516
4.400 5.088 0.648
4.543 4.749 0.263
4.457 4.533 0.311
4.615 4.505 0.599
4.447 4.109 0.381
4.830 5.355 1.013
4.605 5.205 0.913
4.652 4.886 0.896
4.645 4.624 0.715
4.561 4.370 0.417
4.650 4.416 0.822
4.650 3.875 0.505
4.791 5.298 1.377
4.796 5.117 1.126
4.579 4.685 0.957
4.440 4.640 0.769
4.643 4.357 0.841
4.658 4.228 1.020
4.576 3.735 0.690
4.940 5.121 1.381
4.648 5.010 1.496
4.695 4.495 1.239
4.723 4.410 1.278
4.580 4.019 0.857
4.084 6.156 0.155
4.148 5.713 -0.135
4.023 5.932 0.550
4.063 5.729 0.281
4.235 5.549 0.115
4.126 4.607 0.084
4.329 5.932 0.562
4.302 5.469 0.629
4.239 5.151 0.391
3.957 5.117 0.066
3.913 4.692 0.038
4.260 4.571 0.418
4.017 4.206 0.079
4.156 5.446 1.021
4.213 5.295 0.921
4.324 4.949 0.475
4.236 4.746 0.340
3.933 4.738 0.227
4.143 4.346 0.594
4.256 4.133 0.454
4.520 5.523 1.027
4.304 5.138 0.978
4.206 4.822 0.752
4.229 4.832 0.612
4.054 4.440 0.561
4.088 4.299 0.682
4.352 4.012 0.694
4.457 5.431 1.275
4.477 5.219 1.239
4.379 4.676 1.000
4.249 4.706 0.860
4.143 4.392 0.956
4.335 4.219 1.019
4.299 3.904 1.057
4.618 5.200 1.498
4.480 4.833 1.606
4.379 4.598 1.201
4.337 4.262 1.153
4.396 4.082 0.957
3.749 5.772 0.448
3.942 5.506 0.333
3.729 5.265 0.223
3.793 5.103 0.113
3.666 4.797 0.132
3.954 5.695 0.703
3.924 5.558 0.464
3.923 5.225 0.312
3.774 5.174 0.418
3.839 4.653 0.034
3.803 4.460 0.339
4.069 5.724 0.816
3.829 5.211 0.772
3.922 5.106 0.605
3.961 4.889 0.515
3.855 4.746 0.398
3.779 4.567 0.836
3.736 4.030 0.678
4.273 5.436 1.347
4.024 5.094 1.025
4.049 4.987 1.108
3.961 4.735 0.842
3.814 4.390 0.531
3.974 4.285 0.755
3.762 4.140 0.960
4.258 5.301 1.471
4.221 4.959 1.308
4.114 4.815 1.128
3.976 4.672 1.196
3.792 4.376 0.760
3.879 4.269 1.226
3.941 3.888 1.166
4.035 3.713 0.735
4.265 5.316 1.590
4.351 5.096 1.462
3.970 4.634 1.434
4.044 4.265 1.283
3.929 4.255 1.144
3.852 5.643 0.901
3.692 5.513 0.824
3.696 5.302 0.450
3.825 5.693 1.149
3.595 5.498 0.763
3.796 4.955 0.941
3.680 4.721 0.734
3.458 4.287 0.668
3.960 5.424 1.458
3.625 5.245 1.312
3.742 5.075 0.901
3.644 4.688 0.810
3.740 4.427 0.935
3.542 4.367 0.880
3.504 4.020 1.028
4.019 5.177 1.423
3.719 5.236 1.306
3.679 4.901 1.360
3.698 4.440 1.242
3.513 4.206 1.079
3.741 4.256 1.141
3.781 4.024 1.068
3.728 3.570 1.167
4.120 5.367 1.892
3.849 5.094 1.624
3.871 4.544 1.698
3.753 4.501 1.288
3.719 4.152 1.393
3.506 5.889 0.827
3.423 5.777 1.239
3.530 5.404 1.068
3.437 5.139 0.983
3.463 5.341 1.454
3.311 5.306 1.172
3.333 4.834 1.074
3.276 4.828 0.916
3.367 4.250 0.953
3.763 5.477 1.716
3.559 5.136 1.676
3.425 4.827 1.321
3.445 4.525 1.388
3.419 4.324 1.025
3.445 4.157 1.293
3.309 3.812 1.252
3.796 5.364 1.939
3.764 4.844 1.764
3.711 4.666 1.533
3.677 4.466 1.467
3.345 4.124 1.473
3.105 5.557 1.369
3.048 5.527 1.240
3.168 5.587 1.671
3.122 5.116 1.246
3.268 5.060 1.267
3.283 5.502 1.595
3.330 5.004 1.549
3.382 4.824 1.560
3.229 4.677 1.442
3.162 4.162 1.486
3.350 5.380 2.065
3.461 4.862 1.819
3.356 4.850 1.700
3.229 4.480 1.743
3.097 4.280 1.479
2.847 5.812 1.380
2.886 5.658 1.507
2.783 5.176 1.353
3.136 5.490 1.688
3.084 5.227 1.591
3.038 4.765 1.486
2.234 1.428 0.278
2.329 1.468 0.170
2.959 5.257 2.096
2.970 4.979 1.889
3.023 4.580 1.838
2.962 4.601 1.832
2.609 5.532 1.519
2.549 5.449 1.654
2.708 5.153 1.391
2.660 5.344 1.981
2.808 5.257 1.727
2.036 1.915 0.294
2.120 1.611 0.361
2.113 1.399 0.081
2.996 5.167 2.329
2.735 4.873 2.102
2.851 4.819 1.906
2.225 5.532 1.873
1.699 1.864 -0.053
2.326 5.356 2.016
1.706 1.832 0.318
1.768 1.745 0.167
1.578 1.230 0.104
1.513 1.255 -0.029
2.578 5.115 2.353
2.570 4.934 2.289
2.064 5.671 1.928
1.425 2.014 0.384
1.313 1.762 0.018
1.413 1.483 -0.067
2.034 5.418 2.011
1.492 2.004 0.430
1.544 1.652 0.260
1.336 1.513 0.273
1.272 1.272 0.006
1.269 0.899 -0.134
2.394 5.315 2.469
1.172 1.838 0.066
1.208 1.682 0.193
1.157 1.478 -0.017
1.245 1.792 0.523
1.313 1.511 0.449
0.991 1.470 0.218
1.080 1.117 0.347
1.010 0.999 0.260
0.852 2.069 0.029
0.738 1.670 0.400
0.677 1.479 0.089
0.776 1.268 0.209
0.901 1.585 0.518
0.910 1.236 0.631
0.902 1.018 0.428
0.619 0.717 0.029
0.594 0.717 -0.005
0.935 6.069 1.514
1.289 5.931 1.795
0.511 1.887 0.119
0.458 1.673 0.167
0.631 1.917 0.597
0.436 1.690 0.191
0.603 1.411 0.220
0.557 1.214 -0.014
0.534 1.494 0.572
0.433 1.263 0.287
0.616 0.936 0.452
0.442 0.774 0.114
0.497 0.355 0.160
0.781 6.098 1.321
0.642 5.956 1.290
0.836 5.928 1.805
0.195 2.157 -0.023
0.894 5.774 1.835
0.218 1.788 0.055
0.088 1.532 0.079
0.344 1.540 0.296
0.335 1.163 0.122
-0.050 0.958 0.140
0.331 0.741 0.320
-0.018 0.636 0.159
6.393 5.794 0.026
6.146 5.390 0.242
5.817 5.733 0.255
6.171 5.455 0.424
6.059 5.121 0.260
5.961 4.950 0.108
6.124 5.368 0.474
6.047 5.111 0.632
-0.124 6.044 2.132
0.057 6.098 2.298
0.134 6.026 2.609
0.190 6.033 2.714
0.442 6.299 1.825
0.518 5.978 2.229
0.744 6.272 2.469
0.638 5.843 2.296
0.790 6.213 2.953
0.986 6.136 2.967
0.462 6.250 1.904
0.239 6.072 2.347
0.613 6.026 2.679
0.515 6.058 2.493
-0.081 6.249 2.165
0.181 6.199 2.272
0.239 6.164 2.904
0.076 5.940 2.455
0.139 5.812 2.183
-0.059 5.772 2.503
-0.081 5.539 2.281
0.228 5.959 1.068
0.555 6.077 1.200
0.393 5.867 1.188
0.368 5.951 1.704
0.427 5.784 1.539
0.652 6.065 1.757
0.357 5.831 1.584
0.502 5.920 2.196
0.071 6.315 1.299
0.171 6.080 1.303
0.107 5.765 0.951
0.173 6.009 1.796
0.173 5.803 1.477
0.162 5.444 1.419
0.408 5.863 1.780
0.359 5.725 1.788
0.077 5.490 1.549
0.458 5.809 2.289
0.370 5.660 2.021
0.557 5.635 2.411
0.003 5.847 2.081
-0.020 5.803 2.396
0.178 5.281 2.505
6.313 3.379 5.207
6.144 3.082 5.443
5.891 3.283 5.602
5.852 3.130 5.824
5.978 3.188 6.166
6.267 3.002 5.928
6.024 2.775 6.196
5.910 3.188 5.686
5.955 3.060 6.106
4.766 5.355 1.899
5.526 2.888 6.114
4.297 5.669 2.164
4.418 5.378 2.047
4.290 5.188 2.433
5.407 2.923 6.289
4.130 5.810 2.635
4.302 5.674 2.423
4.204 5.180 2.105
4.339 5.387 2.740
4.187 5.309 2.614
4.269 5.118 2.871
4.102 6.153 2.821
4.026 5.837 2.636
3.714 5.748 2.437
3.748 5.234 2.210
4.110 5.897 3.089
4.025 5.642 2.771
3.935 5.404 2.663
3.906 5.314 2.628
4.209 5.685 3.139
4.030 5.156 3.072
3.921 5.000 2.837
3.581 6.267 2.833
3.631 5.749 2.638
3.599 5.763 2.496
3.409 5.430 2.246
3.714 6.157 3.061
3.640 6.062 2.942
3.860 5.818 2.855
3.474 5.368 2.712
3.554 5.048 2.481
3.847 6.046 3.456
3.953 5.977 3.418
3.646 5.410 2.991
3.672 5.442 2.867
3.678 5.148 3.047
3.837 6.255 3.745
4.081 6.008 3.747
3.557 6.206 2.798
3.421 5.773 2.644
3.155 5.616 2.592
3.284 5.524 2.507
3.655 6.218 3.163
3.446 6.065 3.294
3.455 5.619 3.079
3.462 5.506 2.964
3.207 5.323 2.788
3.632 6.126 3.605
3.441 5.920 3.449
3.356 5.517 3.170
3.453 5.263 3.027
3.472 5.113 3.042
3.878 6.201 4.085
3.557 6.004 3.753
3.613 5.727 3.618
3.548 5.399 3.337
3.847 6.020 4.022
3.776 5.703 3.866
3.936 6.219 4.431
3.852 6.277 5.182
3.907 6.250 5.525
2.985 6.165 3.140
3.011 5.753 2.939
3.168 5.754 2.720
3.098 5.529 2.667
3.199 6.422 3.359
3.272 5.967 3.295
3.292 5.725 3.008
3.207 5.623 2.946
3.182 5.281 2.640
3.138 5.989 3.690
3.300 5.685 3.386
3.128 5.442 3.452
3.052 5.259 3.033
3.113 4.915 2.946
3.290 6.200 3.930
3.515 6.038 3.701
3.416 5.730 3.836
3.143 5.362 3.732
3.390 6.152 4.144
3.466 5.870 4.118
3.675 6.237 4.611
3.611 6.070 4.484
3.755 6.010 4.805
3.810 6.183 5.145
3.441 6.209 5.542
3.501 5.938 5.079
3.530 6.409 5.669
3.454 6.141 5.605
3.757 6.177 5.862
2.811 6.031 3.033
2.620 6.068 2.924
2.869 5.717 2.808
2.567 5.516 2.670
2.822 6.325 3.453
2.723 6.134 3.310
2.782 5.680 3.332
2.924 5.658 2.958
2.829 5.372 2.954
3.128 6.006 3.740
2.867 5.839 3.631
2.767 5.685 3.437
2.990 5.271 3.293
2.968 5.204 3.173
3.231 6.278 3.925
3.243 5.917 3.873
3.127 5.546 3.701
2.966 5.483 3.538
3.180 5.921 4.232
3.161 5.737 4.095
3.234 5.530 4.139
3.373 6.235 4.682
3.161 6.040 4.736
3.131 5.534 4.425
3.253 6.120 4.952
3.374 5.803 4.973
3.493 6.149 5.260
3.492 6.056 5.293
3.239 6.120 5.591
3.160 5.995 5.375
3.079 5.720 5.196
3.372 6.054 5.621
3.155 5.703 5.693
3.300 6.066 5.942
3.486 5.760 5.839
3.336 5.544 5.727
3.447 5.783 6.127
2.475 6.196 3.009
2.366 5.841 2.914
2.284 5.817 2.885
2.291 5.344 2.735
2.807 6.224 3.569
2.699 6.175 3.296
2.458 5.822 3.209
2.432 5.652 3.281
2.448 5.282 3.092
2.887 6.020 3.731
2.540 5.882 3.524
2.593 5.541 3.410
2.478 5.241 3.483
2.734 6.080 4.284
2.762 6.003 4.144
2.664 5.755 4.018
3.029 6.208 4.440
2.943 5.952 4.453
2.710 5.619 4.286
2.997 6.197 4.892
2.987 6.034 4.660
2.967 5.777 4.686
3.236 6.150 5.082
3.055 5.662 4.975
3.169 6.192 5.329
3.337 5.845 5.239
3.148 5.796 5.176
2.947 6.089 5.469
3.036 5.807 5.315
2.747 5.605 5.270
3.009 6.035 5.825
2.824 5.807 5.651
2.786 5.411 5.501
3.177 6.307 6.101
3.179 5.972 6.211
3.211 5.802 5.949
2.934 5.202 5.809
3.145 5.591 6.048
2.911 5.106 5.859
3.027 5.135 6.167
2.183 6.227 3.210
2.048 5.874 3.146
2.017 5.549 2.858
2.238 5.441 2.780
2.307 6.140 3.653
2.282 5.904 3.240
2.221 5.343 3.332
2.438 6.145 3.870
2.265 5.726 3.762
2.495 5.776 3.535
2.461 6.131 4.347
2.685 6.010 4.009
2.376 5.733 3.856
2.782 6.279 4.518
2.674 5.794 4.462
2.748 6.202 4.819
2.616 6.020 4.771
2.747 5.655 4.483
2.704 6.045 5.019
2.823 5.669 5.192
2.867 6.071 5.715
2.937 5.920 5.396
2.770 5.670 5.310
2.704 6.276 5.703
2.787 5.824 5.557
2.579 5.847 5.372
2.782 5.962 5.750
2.607 5.656 5.732
2.678 5.552 5.436
2.860 6.011 6.148
2.909 5.797 6.279
2.953 5.651 6.131
2.743 5.320 5.738
2.905 5.458 6.341
2.903 5.401 6.058
2.586 5.013 6.118
2.842 4.785 6.242
2.048 6.341 3.292
2.010 5.925 3.241
1.919 5.624 3.086
1.931 6.070 3.712
2.077 5.731 3.307
2.245 6.061 3.956
1.998 5.997 3.731
2.213 6.348 4.289
2.288 6.021 4.335
2.384 6.098 4.527
2.374 6.221 4.980
2.393 5.992 4.930
2.704 6.235 5.107
2.627 5.885 5.077
2.587 6.309 5.742
2.763 6.034 5.399
2.749 5.833 5.269
2.496 6.045 5.837
2.275 6.018 5.602
2.206 5.608 5.379
2.452 6.023 5.918
2.417 5.851 5.771
2.485 5.600 5.591
2.709 5.791 6.202
2.409 5.680 5.916
2.450 5.309 5.784
2.444 5.149 5.857
2.406 5.210 6.202
2.357 5.145 6.192
2.646 4.457 6.202
1.617 6.079 3.391
2.177 6.113 5.236
2.311 5.947 5.370
2.349 5.745 5.210
2.296 6.063 5.724
2.351 5.827 5.546
2.147 5.793 5.533
2.151 6.315 5.939
1.915 5.849 5.655
2.078 5.700 5.389
2.328 6.017 5.906
2.113 5.749 5.867
2.037 5.696 5.885
2.201 5.693 6.036
2.263 5.417 5.974
2.244 5.154 5.946
2.025 5.029 6.091
2.220 4.828 6.020
2.193 4.507 6.114
2.149 4.461 6.058
2.220 3.846 6.375
1.922 6.053 5.566
2.163 6.146 5.786
2.215 5.823 5.570
2.094 5.680 5.435
6.396 1.156 1.701
6.059 0.888 1.557
6.306 0.683 1.534
6.130 0.818 1.565
6.033 0.441 1.452
6.393 0.137 1.685
6.254 1.844 1.526
6.210 1.610 1.393
6.314 1.219 1.753
6.091 1.070 1.692
6.256 0.806 1.381
6.256 2.244 2.293
6.142 2.211 2.326
6.115 1.840 2.039
6.141 1.555 2.125
6.025 1.343 1.994
5.951 0.980 1.671
6.390 2.090 2.655
6.226 2.020 2.570
6.048 1.720 2.385
5.945 1.319 2.345
5.951 1.096 1.978
6.001 0.990 1.791
5.793 0.643 1.681
6.379 1.543 2.517
6.200 1.415 2.564
6.105 0.978 2.493
6.035 0.852 2.108
6.104 0.347 1.976
5.840 0.157 1.822
6.177 1.259 2.675
6.123 0.805 2.512
6.096 0.743 2.425
6.050 0.468 2.423
6.018 -0.047 2.050
6.205 0.636 2.889
6.060 0.563 2.524
6.033 0.241 2.412
6.188 0.228 2.800
6.234 2.303 2.031
6.145 1.877 1.697
5.875 1.763 1.757
6.056 2.428 2.502
6.316 1.955 2.175
6.097 1.820 2.190
6.044 1.506 1.787
6.090 1.269 1.821
5.767 1.220 1.738
5.938 2.713 2.426
5.882 2.247 2.538
5.863 2.189 2.157
5.821 1.949 2.307
5.875 1.502 2.002
5.712 1.441 2.037
6.264 2.920 2.992
5.997 2.584 2.920
5.939 2.134 2.740
6.083 1.830 2.478
5.849 1.583 2.571
5.860 1.315 2.457
5.609 1.302 2.263
5.614 0.923 2.175
5.973 2.621 2.818
6.287 2.497 3.162
6.153 2.402 3.050
5.915 2.195 2.900
5.965 1.853 2.954
6.116 1.517 2.574
5.779 1.328 2.469
5.828 1.072 2.285
5.851 0.653 2.404
5.769 0.603 2.297
6.271 2.978 3.272
6.087 2.517 3.258
6.338 2.404 3.317
6.322 2.281 3.443
6.300 1.810 3.327
6.107 1.537 3.194
6.118 1.477 2.887
5.936 1.122 2.822
6.002 0.731 2.622
5.927 0.692 2.544
5.851 0.487 2.527
6.396 2.557 3.400
6.258 2.224 3.463
6.114 1.957 3.610
6.092 1.372 3.276
5.930 1.202 3.356
6.063 1.100 3.034
6.090 0.842 2.831
5.880 0.393 2.611
5.968 0.358 2.475
6.231 1.508 3.602
6.094 1.550 3.447
6.138 1.154 3.496
6.064 0.990 3.281
6.136 0.733 3.235
5.888 0.343 3.159
6.215 0.954 3.775
6.228 0.563 3.592
5.967 2.643 2.160
5.688 2.328 2.104
5.879 1.843 2.021
5.688 1.614 1.803
6.090 2.764 2.733
6.093 2.467 2.526
5.917 2.071 2.318
5.987 1.736 2.100
5.689 1.485 2.026
5.633 1.463 1.955
5.622 2.938 2.772
5.808 2.797 2.672
5.498 2.477 2.398
5.456 2.166 2.273
5.630 1.717 2.422
5.545 1.618 2.025
5.320 1.324 2.070
5.723 3.059 2.745
5.751 2.898 3.038
5.656 2.509 2.948
5.776 2.384 2.741
5.703 1.875 2.523
5.617 1.790 2.476
5.380 1.543 2.241
5.325 1.253 2.274
5.562 1.059 2.058
6.046 3.023 3.380
5.744 2.652 3.003
5.743 2.776 3.214
5.763 2.321 3.143
5.633 2.193 3.201
5.565 1.930 3.056
5.506 1.666 2.939
5.587 1.483 2.633
5.713 1.065 2.370
5.449 0.771 2.396
6.109 2.946 3.403
6.000 2.481 3.199
6.008 2.343 3.446
5.769 2.271 3.298
5.732 2.042 3.139
5.762 1.762 3.252
5.787 1.290 2.960
5.630 1.254 2.739
5.506 0.806 2.698
5.410 0.490 2.466
6.150 3.013 3.749
5.981 2.719 3.611
5.810 2.377 3.599
6.015 2.458 3.748
6.049 2.109 3.850
5.950 1.860 3.587
5.778 1.641 3.364
5.731 1.215 3.372
5.841 0.996 2.984
5.588 0.774 3.018
6.305 3.263 4.338
6.309 2.885 4.235
6.112 2.551 4.032
6.080 2.429 3.882
6.276 2.326 3.957
6.107 1.986 3.837
5.963 1.599 3.777
5.883 1.419 3.638
5.914 1.292 3.504
5.868 0.980 3.334
6.409 3.023 4.324
6.290 2.655 4.271
5.999 2.535 4.296
6.164 2.270 4.220
6.301 1.983 4.201
6.164 1.837 4.279
5.988 1.342 3.877
6.126 1.194 4.060
5.932 0.922 3.809
6.345 2.132 4.465
6.054 1.974 4.401
6.280 2.006 4.557
6.146 1.621 4.599
6.189 1.466 4.402
6.140 1.270 4.314
6.168 1.974 4.543
6.344 1.385 4.670
6.111 1.088 4.434
5.506 3.016 2.072
5.445 2.538 1.938
5.582 2.475 1.946
5.435 2.345 1.853
5.485 2.954 2.393
5.564 2.690 2.191
5.643 2.428 1.997
5.495 1.859 1.995
5.401 1.893 1.775
5.689 2.942 2.938
5.747 2.656 2.663
5.688 2.473 2.530
5.711 2.144 2.243
5.557 1.839 2.426
5.554 1.448 2.126
5.420 1.479 1.978
5.862 2.830 2.805
5.414 3.082 3.031
5.514 2.540 2.875
5.515 2.503 2.691
5.130 2.100 2.381
5.405 2.003 2.406
5.318 1.486 2.141
5.062 1.445 2.061
5.455 2.981 2.909
5.557 2.901 3.295
5.554 2.379 2.869
5.562 2.246 2.842
5.262 1.974 2.680
5.228 1.760 2.688
5.180 1.637 2.548
5.110 1.347 2.257
5.520 3.037 3.220
5.377 2.779 3.237
5.681 2.580 3.303
5.709 2.325 3.143
5.473 2.218 3.009
5.494 1.756 3.062
5.474 1.554 2.799
5.309 1.268 2.571
5.269 1.197 2.419
5.726 3.013 3.419
5.627 2.644 3.508
5.666 2.324 3.529
5.706 2.086 3.591
5.625 1.890 3.308
5.620 1.553 3.191
5.504 1.599 3.187
5.260 1.334 2.914
5.352 0.835 2.723
5.785 3.040 3.773
5.574 2.676 3.898
5.800 2.485 3.511
5.718 2.462 4.007
5.531 2.206 3.729
5.482 1.871 3.712
5.575 1.558 3.443
5.549 1.450 3.235
5.417 1.210 3.295
5.961 3.245 4.321
5.805 2.712 4.317
5.846 2.475 4.171
5.876 2.475 3.854
5.800 2.040 4.146
5.663 1.782 4.196
5.811 1.650 3.817
5.784 1.357 3.736
5.563 1.180 3.576
6.090 3.228 4.721
6.012 2.877 4.433
5.986 2.811 4.277
5.741 2.490 4.248
5.904 2.272 4.030
5.840 2.121 4.450
5.976 1.818 4.438
5.910 1.509 4.116
5.757 1.184 4.064
6.152 2.939 5.128
6.031 2.776 4.989
5.923 2.440 4.754
5.924 2.457 4.495
5.721 2.217 4.414
6.034 2.052 4.685
5.978 1.523 4.520
5.872 1.415 4.262
6.258 3.109 5.232
6.242 2.641 5.141
6.062 2.571 4.861
6.117 2.194 4.905
5.839 1.952 4.706
5.915 1.781 4.891
6.098 1.327 4.731
6.088 1.152 4.520
6.123 2.652 5.424
6.059 2.575 5.407
6.286 2.393 5.148
6.065 1.930 4.914
6.131 1.690 4.797
6.217 1.707 5.077
6.211 1.403 4.905
6.181 2.445 5.451
6.139 2.036 5.507
6.024 1.709 5.360
6.030 1.694 5.277
6.215 1.402 5.437
5.995 1.064 5.118
6.396 1.573 5.695
6.151 1.497 5.578
6.084 1.159 5.789
6.356 1.158 5.772
4.969 3.928 1.220
5.046 4.789 1.472
5.016 4.382 1.507
4.860 4.240 1.266
4.805 4.007 1.041
5.032 3.364 1.797
5.042 2.930 1.594
5.309 3.505 2.285
5.054 3.151 2.144
5.090 2.758 1.749
5.213 2.738 1.610
4.985 2.216 1.454
5.230 3.287 2.322
5.180 3.092 2.453
5.207 2.942 2.167
5.046 2.830 2.035
5.023 2.479 2.173
4.974 2.179 1.955
4.904 2.012 1.572
5.463 3.167 2.506
5.550 3.013 2.645
5.196 2.790 2.440
5.230 2.694 2.266
5.153 2.313 2.198
5.062 1.959 1.967
5.237 1.858 1.958
5.125 1.388 1.794
5.311 2.950 2.497
5.378 3.095 3.046
5.294 2.602 2.701
5.423 2.587 2.599
5.381 2.249 2.352
5.415 1.949 2.522
5.337 1.753 2.309
5.093 1.462 2.169
5.400 2.871 3.087
5.215 2.798 2.915
5.088 2.511 2.796
5.064 2.378 2.895
5.086 2.181 2.440
4.997 1.885 2.282
4.741 1.685 2.488
4.838 1.489 2.066
5.184 3.218 3.087
5.244 3.026 3.133
5.127 2.717 3.092
5.213 2.674 3.208
5.054 2.408 3.122
4.949 2.185 2.764
5.074 1.909 2.831
5.055 1.629 2.638
4.925 1.381 2.419
5.344 3.182 3.517
5.207 2.789 3.147
5.443 2.524 3.520
5.322 2.450 3.481
5.146 2.294 3.198
5.007 2.012 3.113
5.086 1.489 2.875
5.007 1.424 2.912
5.147 0.990 2.708
5.218 2.776 3.703
5.424 2.672 3.387
5.387 2.445 3.900
5.357 2.099 3.621
5.368 2.027 3.349
5.076 1.845 3.209
5.136 1.354 3.181
5.036 1.271 3.053
5.588 2.870 3.984
5.439 2.387 3.879
5.337 2.188 3.953
5.463 2.245 4.027
5.498 1.677 3.824
5.461 1.668 3.432
5.122 1.275 3.359
5.523 2.752 4.356
5.665 2.460 4.141
5.550 2.379 4.026
5.526 2.223 4.252
5.635 1.936 4.204
5.511 1.553 3.836
5.522 1.533 3.903
5.523 2.975 4.750
5.673 2.589 4.677
5.442 2.598 4.483
5.700 2.168 4.339
5.654 2.055 4.590
5.560 1.676 4.484
5.422 1.677 4.368
5.927 3.261 4.959
5.763 2.814 4.995
5.721 2.491 4.777
5.758 2.176 4.551
5.710 2.148 4.357
5.805 1.862 4.660
5.607 1.649 4.677
5.447 1.257 4.599
5.867 2.797 5.170
5.728 2.632 5.218
5.843 2.290 4.994
5.776 2.202 4.942
5.503 1.889 4.585
5.663 1.750 5.076
5.838 1.612 4.723
6.113 2.904 5.518
5.799 2.699 5.440
5.917 2.343 5.177
5.644 1.930 5.297
5.795 1.786 5.046
5.985 1.599 5.124
5.692 1.201 5.201
6.039 2.533 5.660
6.014 2.357 5.762
5.903 2.191 5.432
5.711 2.026 5.283
5.665 1.545 5.300
5.982 1.495 5.467
5.759 1.212 5.303
6.227 2.617 6.124
5.883 2.306 6.037
6.058 2.156 5.895
5.939 1.636 5.772
5.791 1.332 5.568
5.822 1.398 5.602
5.876 1.235 5.567
5.969 2.087 6.042
6.002 1.963 6.058
6.072 1.648 5.761
5.957 1.149 5.877
6.125 1.119 6.000
5.920 0.845 5.709
6.152 1.840 6.280
6.196 1.448 6.148
6.165 1.288 6.087
6.257 1.012 6.363
5.884 0.700 5.998
6.206 1.059 6.427
4.765 3.974 1.117
4.510 3.599 1.060
4.761 4.916 1.795
4.876 4.701 1.750
4.708 4.456 1.595
4.650 4.119 1.435
4.752 3.969 1.344
4.908 3.790 1.391
4.814 3.514 1.399
4.763 3.158 1.085
5.044 4.681 2.038
4.802 4.503 1.755
4.885 4.018 1.621
4.658 3.907 1.553
4.849 3.575 1.629
4.741 3.576 1.774
4.786 3.286 1.641
4.663 2.749 1.165
4.954 4.066 2.107
4.947 4.042 1.745
4.838 3.833 1.681
5.004 3.635 2.163
4.779 3.145 2.011
4.645 2.970 1.589
4.660 2.630 1.754
4.516 2.602 1.471
5.115 3.915 2.226
4.953 3.672 1.999
4.946 3.233 2.154
5.037 3.155 2.241
4.747 2.695 2.045
4.652 2.512 1.885
4.670 2.349 1.661
4.794 2.168 1.413
4.854 3.480 2.428
5.059 3.217 2.133
5.000 3.412 2.341
4.961 3.017 2.404
5.036 2.763 2.227
5.007 2.385 2.240
4.795 2.205 1.954
4.910 1.926 1.702
5.171 3.346 2.745
4.955 3.412 2.414
5.239 3.026 2.827
5.047 2.673 2.599
5.157 2.532 2.650
5.025 2.332 2.372
4.792 1.897 2.150
4.879 1.840 2.046
4.895 1.529 1.868
5.147 3.408 2.938
4.981 3.142 2.761
5.251 3.053 3.046
5.122 2.857 2.866
4.893 2.558 2.749
5.073 2.048 2.480
4.973 1.931 2.486
4.930 1.757 2.168
4.970 1.254 2.277
5.294 3.177 3.113
5.198 3.065 3.120
4.786 2.900 3.117
4.663 2.862 2.869
4.745 2.433 2.838
4.811 2.019 2.525
4.547 1.871 2.555
4.452 1.485 2.326
4.482 1.510 2.219
4.913 3.154 3.185
4.817 3.023 3.002
4.788 2.846 3.363
5.046 2.428 3.157
4.841 2.338 2.896
4.876 1.909 2.769
4.840 1.816 2.680
4.759 1.453 2.488
4.480 1.154 2.552
4.805 2.721 3.378
5.094 2.749 3.593
4.947 2.333 3.402
5.069 2.259 3.318
4.810 2.054 3.065
4.774 1.767 3.098
4.663 1.230 2.918
4.943 2.787 3.754
5.040 2.678 3.816
4.913 2.403 3.849
4.899 2.089 3.522
4.877 1.570 3.343
4.736 1.448 3.343
4.986 2.665 3.955
5.108 2.522 4.230
5.213 1.982 3.981
5.165 1.717 3.810
4.862 1.730 3.713
5.195 2.761 4.121
5.219 2.422 4.245
5.281 2.155 4.270
5.260 2.130 4.151
5.233 1.864 4.098
5.407 2.563 4.446
5.126 2.122 4.455
5.261 1.941 4.703
5.257 1.964 4.603
5.350 2.580 4.744
5.483 2.283 4.857
5.203 2.078 4.660
5.552 1.943 4.840
5.629 3.012 5.508
5.625 2.613 5.179
5.548 2.283 5.287
5.618 2.236 4.885
5.364 1.783 4.813
5.550 1.879 5.101
5.794 2.901 5.665
5.669 2.654 5.341
5.440 2.324 5.305
5.504 2.115 5.230
5.331 1.810 5.091
5.526 1.500 5.335
5.634 2.634 5.816
5.847 2.322 5.703
5.517 2.195 5.531
5.529 1.815 5.568
5.704 1.608 5.447
5.530 1.510 5.508
5.415 1.312 5.599
5.937 2.380 6.044
5.680 2.368 6.012
5.801 1.830 5.878
5.627 1.886 5.827
5.749 1.458 5.429
5.666 1.477 5.826
5.627 0.950 5.721
5.673 2.027 6.127
5.693 1.890 5.980
5.664 1.572 6.000
5.625 1.274 5.962
5.762 1.148 5.988
5.690 0.985 6.046
5.876 1.606 6.251
5.799 1.057 6.199
5.601 0.605 6.243
4.492 4.031 1.503
4.449 3.556 1.159
4.256 3.302 1.032
4.724 4.906 1.841
4.663 4.896 1.661
4.555 4.625 1.682
4.354 4.357 1.333
4.377 3.850 1.375
4.542 3.799 1.672
4.381 3.751 1.311
4.399 3.221 1.407
4.372 3.110 1.207
4.521 4.848 2.230
4.473 4.595 2.042
4.396 4.447 2.004
4.342 4.242 1.743
4.523 3.965 1.486
4.478 3.845 1.869
4.584 3.495 1.721
4.428 3.297 1.695
4.210 2.795 1.568
4.235 2.605 1.425
4.687 4.339 2.422
4.538 4.138 2.150
4.528 3.954 1.906
4.400 3.628 1.980
4.720 3.628 2.031
4.693 3.335 2.015
4.402 3.148 1.778
4.462 2.677 1.652
4.395 2.539 1.392
4.327 2.409 1.414
4.605 3.931 2.431
4.670 3.666 2.105
4.729 3.393 2.220
4.552 3.437 2.305
4.680 3.068 2.211
4.519 2.923 2.111
4.427 2.517 1.777
4.552 2.338 1.923
4.428 2.110 1.483
4.765 4.052 2.539
4.876 3.757 2.602
4.833 3.306 2.396
4.689 3.235 2.741
4.677 3.129 2.288
4.762 2.642 2.289
4.554 2.471 2.191
4.576 2.054 1.917
4.365 1.966 2.043
4.510 1.800 1.647
4.721 3.564 2.583
4.714 3.153 2.688
4.874 3.016 2.917
4.905 2.987 2.840
4.841 2.566 2.600
4.636 2.242 2.568
4.627 1.892 2.337
4.456 1.908 2.000
4.622 1.470 1.939
4.941 3.450 3.028
4.904 3.029 2.810
4.925 3.010 3.203
4.841 2.772 3.052
4.933 2.559 2.779
4.809 2.207 2.818
4.736 1.992 2.425
4.484 1.686 2.533
4.446 1.508 2.153
4.878 3.122 3.379
5.001 2.862 3.261
4.577 3.092 3.050
4.592 2.654 2.928
4.548 2.611 2.910
4.458 2.102 2.731
4.354 2.009 2.624
4.239 1.815 2.565
4.146 1.353 2.370
4.581 3.005 3.170
4.573 2.767 3.304
4.612 2.471 3.208
4.694 2.204 3.195
4.653 1.880 2.921
4.626 1.908 3.038
4.384 1.383 2.598
4.657 2.663 3.338
4.863 2.388 3.598
4.538 2.107 3.559
4.504 1.736 3.356
4.566 1.593 3.230
4.643 1.225 2.836
4.707 2.329 3.856
4.573 1.991 3.793
4.484 1.575 3.623
5.533 3.002 5.762
5.511 2.498 5.572
5.238 2.260 5.627
5.091 2.088 5.189
5.218 1.715 5.396
5.524 2.514 5.952
5.490 2.579 5.929
5.277 2.321 5.548
5.219 1.945 5.505
5.154 1.717 5.548
5.489 1.663 5.512
5.569 2.680 6.381
5.488 2.443 6.245
5.308 1.948 5.812
5.455 1.905 5.678
5.152 1.629 5.746
5.226 1.286 6.097
5.211 1.020 5.632
5.506 1.745 6.044
5.392 1.569 6.215
5.539 1.519 5.784
5.511 1.172 6.020
5.360 0.887 6.095
5.377 1.227 6.252
5.464 0.696 6.203
3.970 4.102 1.560
4.055 3.755 1.465
4.152 3.625 1.114
4.285 4.980 1.899
4.313 4.897 1.857
4.157 4.449 1.649
4.132 4.394 1.605
4.178 3.938 1.346
4.092 4.003 1.667
4.174 3.762 1.697
4.202 3.456 1.315
3.955 3.193 1.244
4.490 4.871 2.177
4.209 4.602 1.969
4.359 4.205 2.085
4.382 4.275 1.819
4.090 3.780 1.567
4.223 3.645 2.048
4.055 3.367 1.818
4.123 3.028 1.665
4.186 2.833 1.371
4.097 2.552 1.508
3.913 2.361 1.298
4.604 4.869 2.596
4.341 4.577 2.281
4.215 4.246 2.033
4.354 4.101 1.937
4.370 3.567 1.788
4.400 3.645 2.323
4.118 3.356 2.079
4.223 2.908 2.040
4.056 2.609 1.729
4.197 2.541 1.801
3.936 2.124 1.425
3.900 2.023 1.388
4.344 4.389 2.467
4.298 4.015 2.320
4.441 3.669 2.477
4.480 3.660 2.056
4.411 3.442 2.384
4.209 3.102 2.233
4.205 2.770 2.088
4.390 2.706 2.127
4.123 2.544 1.990
4.030 2.023 1.643
4.067 1.792 1.530
4.571 3.982 2.794
4.586 3.789 2.588
4.399 3.338 2.484
4.347 3.226 2.626
4.577 2.845 2.627
4.473 2.687 2.297
4.411 2.584 2.393
4.404 2.352 2.084
4.273 1.825 2.033
4.014 1.848 1.691
4.352 3.686 2.778
4.358 3.361 2.771
4.442 3.065 3.016
4.506 2.822 2.861
4.523 2.652 2.752
4.253 2.262 2.352
4.306 2.180 2.287
4.204 1.649 2.143
4.084 1.679 1.971
4.567 3.521 3.029
4.535 3.004 2.848
4.621 2.925 3.125
4.611 2.552 3.041
4.423 2.489 2.837
4.427 2.243 2.808
4.517 1.905 2.804
4.289 1.515 2.436
4.234 1.509 2.499
4.693 3.094 3.294
4.381 3.117 3.293
4.311 2.787 3.216
4.315 2.397 2.989
4.002 2.106 2.703
4.117 2.020 2.646
4.014 1.752 2.615
3.901 1.577 2.335
4.429 2.830 3.371
4.362 2.693 3.274
4.165 2.321 3.396
4.356 2.027 2.968
4.055 1.894 2.937
4.170 1.619 2.975
4.341 2.306 3.342
4.367 1.887 3.224
4.148 1.776 3.051
5.235 2.842 6.041
5.192 2.599 6.080
5.160 2.295 5.709
5.111 2.289 6.048
5.195 2.108 6.015
5.159 1.702 5.755
5.122 1.197 5.863
5.182 1.707 6.317
4.958 1.512 6.144
5.179 1.124 6.283
4.984 0.782 6.088
5.284 1.325 6.441
5.293 0.390 6.246
3.750 4.093 1.442
3.918 3.878 1.212
3.658 3.579 1.268
3.683 3.350 1.089
4.093 4.969 2.000
3.854 4.701 2.079
3.774 4.536 1.799
3.883 4.224 1.487
3.925 4.022 1.389
3.987 3.703 1.825
3.942 3.486 1.700
3.643 3.271 1.505
3.654 3.121 1.293
3.507 2.703 1.330
4.103 4.990 2.152
4.004 4.491 2.196
4.030 4.288 2.077
4.118 4.058 2.068
3.806 3.897 1.836
3.805 3.835 1.932
3.765 3.629 1.879
3.830 3.146 1.780
3.722 2.773 1.650
3.786 2.639 1.389
3.702 2.294 1.262
3.702 2.200 1.126
4.184 4.799 2.721
4.218 4.568 2.305
4.102 4.078 2.289
3.876 4.063 2.119
4.024 3.683 1.850
4.083 3.565 2.123
3.949 3.229 2.225
3.842 3.062 1.951
3.873 2.759 1.700
3.946 2.699 1.733
3.903 2.165 1.606
3.713 2.119 1.292
3.777 1.893 1.427
4.192 4.449 2.627
4.026 3.976 2.594
3.927 3.789 2.425
4.083 3.653 2.345
4.077 3.504 2.639
4.186 3.115 2.517
3.917 2.776 2.099
4.040 2.556 2.186
3.777 2.252 2.098
3.968 2.006 1.715
3.889 1.825 1.792
3.769 1.707 1.521
4.102 4.003 2.956
4.101 3.630 2.694
3.934 3.408 2.631
4.125 3.355 2.748
4.146 2.903 2.712
4.046 2.787 2.595
4.082 2.508 2.221
4.112 2.270 2.232
3.977 2.080 2.123
3.945 1.851 1.819
3.711 1.347 1.723
4.380 3.425 2.746
4.171 3.335 2.788
4.094 3.145 2.913
4.252 2.743 2.794
4.199 2.674 2.885
3.954 2.414 2.714
4.095 2.172 2.628
4.126 1.789 2.457
3.842 1.675 2.349
4.015 1.287 2.163
4.098 3.156 3.030
4.193 3.049 3.214
4.407 2.806 3.048
4.310 2.577 3.078
4.035 2.218 3.023
4.019 2.086 2.591
4.187 1.675 2.424
4.007 1.567 2.536
4.211 2.840 3.218
4.102 2.745 3.250
3.817 2.489 3.214
3.931 2.347 3.078
3.893 2.082 2.861
3.827 1.770 2.614
3.704 1.339 2.624
3.691 1.318 2.555
3.835 2.289 3.399
3.827 2.161 3.350
3.776 1.919 3.047
3.778 1.602 2.818
4.827 2.625 6.074
4.785 2.219 6.203
4.737 1.985 6.261
4.843 1.620 6.389
3.627 4.057 1.640
3.456 3.653 1.584
3.388 3.444 1.189
3.451 3.262 1.039
3.745 5.104 2.170
3.698 4.920 1.867
3.792 4.538 1.801
3.428 4.138 1.644
3.602 4.184 1.767
3.635 3.883 2.021
3.589 3.535 1.738
3.648 3.508 1.494
3.613 2.972 1.391
3.221 2.714 1.431
3.260 2.468 1.165
2.957 0.597 0.139
3.787 4.950 2.342
3.855 4.622 2.133
3.828 4.360 2.171
3.664 4.275 1.984
3.760 3.788 1.934
3.593 3.623 2.051
3.569 3.522 2.012
3.667 3.080 1.869
3.664 2.976 1.811
3.509 2.768 1.489
3.285 2.326 1.354
3.448 2.225 1.397
3.190 1.846 1.096
3.076 1.612 0.968
3.009 0.160 0.138
3.868 4.740 2.561
3.689 4.626 2.444
3.907 4.203 2.256
3.677 3.941 2.201
3.604 3.618 2.029
3.792 3.653 2.498
3.807 3.462 2.179
3.581 3.205 2.105
3.548 2.725 1.833
3.624 2.586 1.683
3.371 2.253 1.550
3.471 1.882 1.481
3.511 1.826 1.242
3.336 1.518 1.391
3.113 1.258 1.144
3.825 4.707 2.880
3.790 4.297 2.829
3.880 4.033 2.584
3.904 3.880 2.643
3.702 3.606 2.249
3.665 3.384 2.669
3.706 3.267 2.360
3.849 2.787 2.373
3.650 2.787 2.320
3.764 2.383 2.054
3.533 2.184 1.992
3.341 1.848 1.921
3.423 1.511 1.756
3.555 1.209 1.671
3.806 3.796 2.933
3.838 3.741 2.841
3.828 3.356 2.591
3.734 3.334 2.927
3.834 2.962 2.614
3.670 2.624 2.510
3.615 2.607 2.519
3.686 2.306 2.401
3.505 2.089 2.148
3.449 1.804 1.874
3.666 1.574 1.868
3.428 1.311 1.733
4.040 3.434 2.905
3.733 3.397 2.686
3.850 3.303 2.936
3.744 2.798 2.833
3.883 2.453 2.856
3.737 2.198 2.771
3.893 2.242 2.536
3.677 1.975 2.322
3.708 1.659 2.214
3.674 1.385 2.284
3.792 3.109 3.063
3.828 2.699 3.356
3.845 2.513 3.161
3.726 2.154 3.089
3.646 1.852 2.948
3.738 1.671 2.678
3.592 1.315 2.695
3.810 1.240 2.291
3.812 2.460 3.263
3.567 2.212 3.054
3.652 1.999 3.021
3.585 1.756 2.822
3.383 1.320 2.690
3.259 1.242 2.402
3.544 1.988 3.148
3.482 1.574 3.023
3.370 1.232 2.978
3.248 3.871 1.634
3.347 3.898 1.513
3.068 3.691 1.475
2.839 1.364 0.401
2.679 1.296 0.151
2.702 0.787 0.086
3.609 4.979 2.189
3.526 4.933 2.174
3.478 4.408 2.017
3.202 4.345 1.956
3.081 4.022 1.686
3.469 3.754 2.105
3.154 3.799 1.853
3.121 3.248 1.741
3.154 3.285 1.466
3.129 3.015 1.373
3.091 2.763 1.098
3.031 2.290 1.169
2.996 2.201 0.900
2.941 1.815 0.866
2.980 1.664 0.689
2.645 1.267 0.685
2.719 0.885 0.276
2.629 0.899 0.449
2.545 0.417 0.147
2.527 0.084 0.147
3.705 4.791 2.595
3.321 4.686 2.242
3.434 4.559 2.359
3.220 3.996 1.945
3.218 3.743 1.965
3.368 3.813 2.334
3.268 3.495 1.891
3.308 3.311 1.833
3.054 2.934 1.841
3.143 2.699 1.667
3.145 2.452 1.539
2.916 2.175 1.211
2.876 1.764 1.400
3.020 1.745 0.988
3.006 1.510 1.065
2.996 1.080 0.872
2.632 0.933 0.542
2.843 0.707 0.609
2.758 0.319 0.566
2.537 0.099 0.279
3.592 4.785 2.595
3.503 4.354 2.741
3.523 4.153 2.337
3.490 4.023 2.429
3.447 3.774 2.270
3.486 3.423 2.572
3.391 3.486 2.189
3.502 3.161 2.064
3.385 2.876 2.013
3.289 2.677 1.753
3.125 2.238 1.739
3.033 2.142 1.479
3.161 1.680 1.648
2.966 1.576 1.395
3.105 1.366 1.315
2.767 0.973 0.904
2.774 0.671 0.843
2.789 0.318 0.904
3.740 4.501 2.930
3.746 4.478 2.778
3.651 4.103 2.728
3.499 3.739 2.443
3.580 3.665 2.438
3.562 3.520 2.664
3.436 3.194 2.549
3.352 3.053 2.488
3.333 2.625 2.297
3.384 2.264 2.146
3.367 2.262 1.889
3.214 1.947 1.853
3.144 1.639 1.773
3.051 1.332 1.554
3.026 1.214 1.509
2.902 0.847 1.363
3.711 3.672 2.731
3.414 3.350 2.673
3.703 3.277 2.963
3.436 2.948 2.786
3.462 2.722 2.759
3.497 2.574 2.667
3.497 2.356 2.294
3.458 1.894 2.215
3.301 1.759 2.212
3.066 1.572 1.823
3.268 1.248 1.758
3.120 0.822 1.694
3.503 3.391 2.779
3.517 2.842 2.951
3.652 2.608 2.954
3.643 2.407 2.632
3.501 2.147 2.507
3.415 1.736 2.510
3.413 1.594 2.271
3.253 1.182 2.155
3.330 1.016 1.985
3.666 2.412 3.037
3.503 2.305 2.960
3.506 2.005 2.814
3.637 1.756 2.927
3.538 1.570 2.786
3.321 1.028 2.583
3.251 2.219 3.105
3.108 2.042 2.827
3.187 1.771 2.691
3.035 1.615 2.720
3.254 1.119 2.617
3.065 1.096 2.387
3.310 1.642 3.262
3.071 1.238 3.122
3.197 0.904 2.878
3.039 4.074 1.797
2.675 2.035 0.743
2.419 1.848 0.614
2.533 1.549 0.319
2.415 1.272 0.296
2.328 0.907 0.107
3.055 4.945 2.366
3.276 4.711 2.194
3.114 4.498 2.230
2.860 4.467 2.098
3.030 4.198 1.916
2.920 3.734 2.154
3.030 3.767 1.767
2.890 3.396 1.709
2.908 3.193 1.642
2.836 2.910 1.478
2.898 2.710 1.353
2.645 2.474 1.338
2.529 1.989 1.214
2.436 1.949 1.103
2.506 1.498 0.684
2.383 1.225 0.736
2.484 0.996 0.510
2.434 0.813 0.309
2.427 0.494 0.089
2.324 0.364 -0.058
3.277 5.079 2.519
3.121 4.669 2.399
3.183 4.375 2.264
3.020 4.127 2.333
3.076 3.829 2.202
3.144 3.813 2.325
2.985 3.646 2.224
2.967 3.244 2.102
2.826 2.859 1.811
2.958 2.668 1.687
2.704 2.308 1.470
2.909 2.305 1.629
2.881 1.884 1.482
2.645 1.592 1.274
2.468 1.278 1.026
2.402 1.143 0.863
2.521 0.882 0.882
2.576 0.655 0.568
2.563 0.463 0.476
2.240 0.064 0.396
3.489 4.790 2.955
3.290 4.556 2.815
3.268 4.380 2.657
3.187 3.891 2.532
3.047 3.639 2.202
3.124 3.498 2.413
3.121 3.475 2.417
2.996 3.190 2.278
2.933 2.656 2.175
2.909 2.519 1.904
2.860 2.223 1.995
2.775 2.172 1.570
2.677 1.822 1.719
2.701 1.422 1.494
2.679 1.236 1.223
2.621 0.845 1.327
2.712 0.623 1.146
2.566 0.348 0.831
2.621 0.093 0.901
3.376 3.715 2.675
3.183 3.450 2.671
3.413 3.513 2.634
3.042 3.291 2.704
3.140 3.037 2.507
2.960 2.539 2.317
2.908 2.428 2.339
2.981 2.075 2.258
2.772 1.994 1.981
3.016 1.555 1.776
2.809 1.252 1.794
2.816 1.145 1.685
2.738 1.012 1.395
2.774 0.518 1.216
2.643 0.517 1.273
3.113 3.475 2.838
3.189 3.220 2.730
3.261 2.720 2.801
3.094 2.384 2.707
2.979 2.199 2.498
3.024 1.925 2.259
3.116 1.839 2.149
2.772 1.621 2.148
3.016 1.388 1.976
2.776 1.108 1.851
2.738 0.871 1.585
3.283 2.767 2.935
3.397 2.232 2.887
3.335 2.286 2.841
3.240 2.009 2.609
2.940 1.621 2.439
3.038 1.198 2.152
2.853 0.923 2.014
2.753 0.905 2.200
3.171 2.287 3.141
3.390 1.821 2.829
3.101 1.722 2.878
3.163 1.545 2.795
3.118 1.152 2.699
3.196 0.843 2.328
3.075 2.080 2.936
3.061 1.583 2.766
2.772 1.323 2.700
2.666 1.240 2.518
2.749 0.947 2.617
2.775 0.822 2.292
2.871 1.494 3.157
2.799 1.178 3.190
2.867 0.999 2.828
2.788 0.837 2.764
2.190 2.098 0.599
2.023 1.848 0.526
2.199 1.372 0.565
2.053 1.127 0.521
2.179 1.044 0.212
2.120 0.655 -0.048
2.876 5.101 2.364
2.958 4.832 2.289
2.871 4.501 1.998
2.380 2.560 1.571
2.493 2.349 1.126
2.338 2.209 1.005
2.261 1.959 1.136
2.299 1.504 0.744
2.318 1.481 0.810
2.190 0.891 0.704
2.215 0.957 0.367
2.031 0.560 0.366
1.866 0.114 0.204
1.925 0.026 -0.053
2.804 5.128 2.586
3.046 4.685 2.503
3.005 4.334 2.533
2.582 3.012 2.097
2.634 2.636 1.689
2.504 2.309 1.766
2.426 2.150 1.708
2.282 1.912 1.245
2.370 1.678 1.414
2.201 1.587 0.991
2.379 1.038 0.833
2.395 0.811 0.770
2.322 0.709 0.795
2.143 0.247 0.550
2.070 0.261 0.390
3.059 4.692 3.078
2.649 3.252 2.352
2.895 2.824 2.192
2.737 2.461 2.066
2.446 2.404 1.860
2.713 1.926 1.874
2.380 1.951 1.577
2.350 1.471 1.584
2.282 1.455 1.216
2.174 0.889 1.164
2.398 0.630 0.957
2.108 0.604 1.075
2.227 0.248 0.772
2.690 3.060 2.682
2.928 2.590 2.436
2.674 2.265 2.335
2.604 2.083 2.135
2.713 2.011 2.056
2.447 1.506 2.086
2.391 1.486 1.630
2.576 1.068 1.719
2.316 0.827 1.587
2.471 0.683 1.496
2.166 0.527 1.183
2.841 2.739 2.993
3.017 2.537 2.707
2.679 2.414 2.685
2.770 2.159 2.501
2.841 1.695 2.184
2.698 1.497 2.104
2.625 1.377 2.195
2.420 0.979 1.936
2.399 0.672 1.600
2.535 0.449 1.651
2.940 2.489 3.126
2.800 2.167 2.906
2.927 1.827 2.584
2.713 1.756 2.506
2.765 1.380 2.271
2.765 1.140 2.283
2.769 0.777 2.050
2.490 0.685 2.126
3.042 2.007 3.113
2.790 1.619 2.841
2.921 1.528 2.894
2.834 1.089 2.752
2.734 0.850 2.368
2.530 0.649 2.337
2.687 1.859 3.017
2.544 1.595 3.038
2.592 1.332 2.825
2.353 1.276 2.838
2.540 1.067 2.455
2.426 0.829 2.355
2.354 0.467 2.311
2.613 1.651 3.105
2.722 1.452 3.254
2.510 1.141 2.880
2.492 0.754 2.886
2.447 0.585 2.734
2.797 0.978 3.398
2.747 0.668 2.944
2.094 2.145 0.843
1.904 1.671 0.869
1.701 1.385 0.454
1.647 1.053 0.594
1.745 0.913 0.219
1.616 0.709 0.249
1.591 0.290 0.111
2.473 5.238 2.467
2.497 4.904 2.466
2.296 2.536 1.426
2.176 2.127 1.388
2.121 1.835 1.099
2.140 1.606 0.906
1.746 1.346 0.843
1.708 1.107 0.852
1.805 0.826 0.615
1.752 0.647 0.403
1.620 0.341 0.290
1.730 0.051 0.077
2.730 4.807 2.872
2.384 2.569 1.777
2.124 2.310 1.756
1.984 1.823 1.328
1.948 1.739 1.331
2.097 1.353 1.327
2.027 1.220 1.102
1.988 0.878 0.941
1.876 0.707 0.662
1.893 0.443 0.673
1.866 0.101 0.631
2.426 2.472 2.182
2.494 2.424 1.968
2.442 2.190 1.960
2.306 1.956 1.887
2.019 1.438 1.451
2.052 1.168 1.375
2.219 1.151 1.198
2.047 0.804 1.168
1.799 0.406 0.904
1.918 0.310 1.085
2.584 2.603 2.494
2.604 2.392 2.265
2.320 2.190 2.386
2.303 1.948 2.238
2.388 1.695 1.914
2.393 1.353 1.741
2.146 1.031 1.731
2.224 0.726 1.747
2.175 0.587 1.455
2.123 0.362 1.406
2.057 0.222 1.231
2.646 2.555 2.680
2.636 2.266 2.836
2.335 2.028 2.528
2.337 1.678 2.472
2.519 1.645 2.181
2.384 1.196 2.081
2.292 1.114 1.810
2.233 0.848 1.847
2.314 0.356 1.766
2.077 0.367 1.467
2.501 2.210 3.036
2.649 1.907 2.893
2.326 1.520 2.706
2.387 1.273 2.608
2.524 1.153 2.459
2.348 0.854 2.193
2.272 0.705 2.059
2.194 0.365 2.093
2.676 1.975 3.294
2.546 1.574 3.036
2.404 1.538 2.992
2.586 1.112 2.807
2.597 0.978 2.623
2.287 0.646 2.343
2.238 0.322 2.206
2.356 2.080 3.098
2.492 1.927 3.192
2.121 1.524 3.134
2.087 1.320 2.960
2.110 0.870 2.705
1.991 0.563 2.712
2.134 0.525 2.473
1.938 0.038 2.148
2.363 1.647 3.352
2.332 1.337 3.162
2.163 0.919 3.026
2.367 0.842 2.886
2.234 0.733 2.646
2.244 0.235 2.586
2.524 1.169 3.422
2.484 0.852 3.282
2.270 0.685 3.149
2.378 0.437 2.946
2.087 0.115 2.840
2.429 0.572 3.559
2.496 0.230 3.406
1.830 2.057 0.918
1.575 1.583 0.715
1.731 1.367 0.765
1.622 1.248 0.473
1.496 1.101 0.346
1.284 0.655 0.150
1.209 0.367 -0.007
1.675 2.292 1.193
1.595 2.017 1.138
1.638 1.666 1.040
1.483 1.483 0.899
1.589 0.991 0.809
1.471 0.804 0.622
1.641 0.487 0.447
1.506 0.219 0.341
1.528 0.054 0.384
1.774 2.179 1.808
1.856 1.895 1.491
1.923 1.773 1.336
1.823 1.282 1.200
1.736 1.241 1.131
1.670 0.878 0.895
1.497 0.779 0.896
1.621 0.292 0.778
1.655 0.005 0.633
2.203 2.460 2.202
1.891 2.137 2.006
1.949 1.771 1.997
1.942 1.721 1.542
1.773 1.333 1.573
1.765 1.058 1.383
1.594 0.643 1.453
1.808 0.688 1.088
1.743 0.225 0.909
2.174 2.340 2.406
2.184 2.273 2.197
2.204 1.832 2.138
1.951 1.539 2.075
1.896 1.468 2.061
2.069 1.157 1.800
1.806 0.858 1.511
1.851 0.727 1.451
1.904 0.241 1.381
1.657 0.029 1.328
2.342 2.140 2.728
2.166 2.175 2.581
2.098 1.924 2.321
2.237 1.677 2.166
2.064 1.445 2.157
1.890 1.150 2.115
1.758 0.788 1.841
1.870 0.560 1.961
1.985 0.289 1.730
2.318 2.123 2.829
2.272 1.739 2.853
2.196 1.799 2.834
2.150 1.536 2.743
2.027 1.213 2.460
2.105 0.801 2.253
1.982 0.442 2.058
1.942 0.198 1.977
2.429 1.917 3.258
2.327 1.855 3.031
2.293 1.385 2.851
2.331 1.076 3.011
2.128 0.921 2.540
1.957 0.731 2.436
2.094 0.512 2.271
2.122 0.042 2.383
1.982 1.735 3.247
2.085 1.455 3.053
1.950 1.298 2.933
1.831 1.157 2.789
1.745 0.608 2.768
1.751 0.470 2.439
1.788 0.346 2.368
2.108 1.544 3.450
2.081 1.402 3.423
2.141 0.969 3.242
1.985 0.759 3.059
1.785 0.611 2.838
1.912 0.419 2.807
1.933 0.062 2.739
2.312 1.514 3.599
2.207 1.352 3.711
1.934 0.994 3.480
2.066 0.747 3.213
1.946 0.392 3.165
2.019 0.174 2.954
2.163 0.907 3.839
2.243 0.917 3.580
2.092 0.447 3.507
1.980 0.237 3.404
2.022 -0.126 3.393
2.087 0.384 3.885
2.250 0.252 3.721
1.370 1.774 0.742
1.263 1.328 0.603
1.198 1.162 0.698
1.020 0.878 0.341
1.204 0.781 0.356
0.910 0.530 0.149
1.145 0.314 0.248
1.628 1.715 1.133
1.394 1.538 1.179
1.280 1.459 1.051
1.290 1.205 1.026
1.412 0.978 0.594
1.052 0.706 0.666
1.299 0.289 0.429
0.959 -0.056 0.341
1.418 1.882 1.623
1.474 1.646 1.540
1.601 1.614 1.398
1.398 1.220 1.316
1.262 1.087 1.076
1.380 0.794 0.827
1.195 0.467 0.795
1.183 0.116 0.643
1.684 2.269 1.985
1.711 1.901 2.025
1.461 1.546 1.685
1.542 1.422 1.765
1.629 1.215 1.342
1.488 0.964 1.456
1.210 0.610 1.173
1.377 0.223 1.125
1.949 2.356 2.554
1.919 2.020 2.207
1.743 1.642 2.244
1.577 1.395 2.037
1.533 1.240 1.927
1.590 0.783 1.596
1.465 0.695 1.692
1.603 0.249 1.427
1.750 2.025 2.762
1.772 1.948 2.441
1.901 1.544 2.535
1.575 1.301 2.164
1.805 0.955 2.191
1.594 0.599 2.124
1.664 0.567 1.926
1.543 0.317 1.601
1.856 1.821 3.009
1.902 1.503 2.764
1.733 1.351 2.528
1.815 1.006 2.554
1.615 0.731 2.306
1.808 0.498 2.179
1.751 0.238 2.108
2.115 1.939 3.084
1.872 1.431 2.951
1.973 1.142 2.794
1.996 1.115 2.929
1.981 0.657 2.625
1.694 0.466 2.454
1.676 0.358 2.245
1.895 1.712 3.458
1.857 1.652 3.280
1.707 1.294 2.878
1.723 0.947 2.990
1.633 0.811 2.576
1.364 0.607 2.705
1.390 0.066 2.326
1.931 1.641 3.399
1.702 1.234 3.412
1.792 1.216 3.123
1.556 0.924 2.990
1.705 0.424 2.931
1.715 0.346 2.939
1.662 -0.038 2.637
1.956 1.383 3.922
1.862 1.332 3.571
1.713 0.817 3.365
1.683 0.678 3.474
1.826 0.384 3.339
1.770 0.027 3.108
1.975 1.311 4.173
2.025 1.013 4.033
1.923 0.917 3.750
1.701 0.428 3.610
1.791 0.423 3.398
1.698 0.110 3.470
2.061 1.019 4.237
1.810 0.613 3.848
2.018 0.378 3.871
1.935 0.001 3.763
2.108 0.552 4.337
2.009 0.231 3.997
2.011 0.150 4.113
1.953 0.062 4.283
0.933 1.940 0.935
1.122 1.468 0.813
0.861 1.107 0.888
0.821 1.069 0.658
0.885 0.653 0.276
0.776 0.458 0.342
0.650 0.192 0.136
1.124 1.597 1.215
1.230 1.535 1.187
1.043 1.051 1.069
0.957 0.898 0.755
0.812 0.743 0.854
0.692 0.388 0.422
1.182 1.750 1.519
1.284 1.447 1.471
0.977 1.351 1.498
1.244 0.861 1.356
0.968 0.538 1.084
1.075 0.275 1.002
1.416 1.873 1.957
1.299 1.426 1.742
1.241 1.473 1.755
1.075 0.988 1.719
1.121 0.738 1.560
1.018 0.489 1.208
1.406 1.932 2.573
1.403 1.734 2.343
1.284 1.494 2.066
1.434 1.258 2.153
1.171 1.088 1.877
1.272 0.659 1.555
1.789 2.183 2.862
1.540 1.759 2.645
1.666 1.558 2.598
1.505 1.277 2.488
1.496 0.935 2.165
1.236 0.755 2.171
1.395 0.685 2.046
1.865 1.809 3.112
1.526 1.630 2.977
1.735 1.526 2.626
1.535 1.301 2.682
1.519 0.797 2.372
1.275 0.463 2.294
1.481 0.229 2.131
1.822 1.864 3.163
1.690 1.636 3.017
1.584 1.091 2.945
1.577 0.918 2.748
1.713 0.738 2.795
1.354 0.429 2.444
1.392 0.083 2.379
1.405 1.736 3.239
1.397 1.523 3.310
1.215 1.335 3.233
1.212 0.974 2.917
1.098 0.602 2.726
1.360 0.665 2.578
1.151 0.259 2.574
1.677 2.078 3.911
1.518 1.705 3.734
1.456 1.512 3.538
1.604 1.234 3.374
1.555 0.826 3.107
1.439 0.579 3.086
1.205 0.410 2.990
1.258 0.164 2.902
1.512 1.805 4.166
1.794 1.495 4.036
1.596 1.309 3.731
1.632 0.960 3.691
1.401 0.551 3.478
1.353 0.421 3.238
1.237 0.252 3.254
1.801 1.429 4.177
1.565 1.082 3.872
1.563 1.006 3.848
1.599 0.653 3.853
1.564 0.142 3.546
1.429 -0.056 3.326
1.826 1.083 4.515
1.834 0.950 4.326
1.528 0.602 4.005
1.681 0.346 4.142
1.591 0.118 3.661
1.815 0.884 4.559
1.592 0.674 4.283
1.583 0.117 4.211
1.710 -0.034 3.969
1.642 0.410 4.509
1.788 0.159 4.383
0.510 1.364 0.748
0.525 1.112 0.626
0.432 0.758 0.569
1.121 1.235 1.975
0.800 0.953 1.775
1.237 1.577 2.199
1.261 1.545 2.252
1.098 1.085 1.984
1.090 0.983 2.097
1.212 1.950 2.677
1.144 1.706 2.773
1.326 1.213 2.471
1.000 1.152 2.396
0.919 0.682 2.043
1.526 1.857 3.197
1.243 1.778 3.152
1.216 1.416 2.754
1.324 1.098 2.656
1.191 1.018 2.481
1.111 0.704 2.542
1.102 0.371 2.296
1.641 1.970 3.263
1.335 1.441 3.088
1.417 1.320 3.245
1.178 1.056 2.799
1.163 0.642 2.869
1.163 0.342 2.634
1.150 0.331 2.535
1.187 2.147 3.584
1.056 1.964 3.469
1.205 1.502 3.349
0.913 1.461 3.188
0.918 0.929 3.201
1.062 0.596 3.077
0.789 0.523 2.781
0.764 0.269 2.766
1.165 1.925 3.751
1.272 1.603 3.630
1.348 1.337 3.714
1.012 1.079 3.604
1.074 0.881 3.354
0.969 0.743 3.019
0.833 0.483 2.868
0.847 0.096 2.799
1.261 1.662 4.257
1.264 1.366 3.995
1.415 1.258 3.671
1.071 0.985 3.603
1.127 0.783 3.732
1.279 0.523 3.324
1.029 0.332 3.382
1.393 1.577 4.248
1.427 1.340 4.346
1.278 1.010 4.243
1.297 0.885 4.101
1.357 0.751 3.938
1.294 0.355 3.793
1.230 0.147 3.462
1.532 1.380 4.601
1.531 1.087 4.355
1.381 0.984 4.183
1.520 0.608 4.085
1.294 0.285 4.118
1.106 0.177 4.037
1.603 1.188 4.837
1.344 0.657 4.691
1.458 0.671 4.357
1.518 0.428 4.185
1.231 -0.120 4.223
1.574 0.377 4.843
1.389 0.098 4.475
1.130 1.798 2.907
1.051 1.730 2.786
0.786 1.297 2.557
0.851 0.947 2.537
1.279 2.101 3.323
1.147 1.820 3.236
1.070 1.536 2.785
0.959 1.328 2.835
0.909 0.944 2.699
0.924 0.710 2.653
1.326 2.095 3.677
1.244 1.866 3.313
0.971 1.692 3.296
1.102 1.356 3.228
1.199 1.194 2.964
0.944 0.849 2.841
1.072 0.646 2.674
0.703 0.138 2.799
6.352 1.493 1.788
6.274 1.050 1.519
6.163 0.640 1.396
6.068 0.555 1.544
6.231 0.469 1.613
6.281 0.330 1.751
6.174 1.556 1.725
6.366 1.591 1.361
6.197 1.358 1.605
6.178 1.019 1.650
6.291 0.950 1.367
1.895 6.073 5.844
1.874 6.041 5.836
1.812 6.064 6.001
1.977 5.731 6.075
1.931 5.692 5.710
1.927 5.657 6.188
1.843 5.574 6.072
1.913 5.077 5.872
1.958 5.108 6.290
1.891 4.627 5.997
1.749 4.375 6.150
1.674 3.665 6.164
1.749 6.185 5.805
1.934 6.010 5.932
1.632 6.241 5.863
1.528 6.207 6.180
1.657 5.884 6.080
1.540 5.309 6.150
1.633 3.555 6.231
1.380 6.176 6.060
0.314 2.288 3.846
0.383 2.074 3.876
0.338 1.847 3.787
0.180 1.561 3.653
0.340 1.259 3.424
0.339 1.086 3.348
0.482 2.519 4.478
0.490 2.268 4.250
0.572 1.949 3.961
0.570 1.528 3.959
0.500 1.488 3.999
0.363 1.306 3.693
0.259 0.856 3.608
0.167 0.684 3.537
0.664 2.441 4.669
0.501 2.219 4.675
