0.041 2.907 1.508
0.202 2.864 1.938
0.076 2.901 1.931
0.069 3.007 2.258
0.041 2.877 2.118
0.126 2.920 2.538
0.212 2.800 2.937
-0.075 2.969 2.805
0.186 2.731 3.415
0.071 2.839 3.247
0.099 2.747 3.653
0.104 3.002 3.908
0.047 3.119 1.080
0.171 2.913 1.489
0.429 2.921 1.765
0.410 3.123 1.453
0.126 3.307 1.411
0.071 3.598 1.270
0.436 2.911 1.675
0.472 3.002 1.966
0.260 3.151 1.841
0.127 3.452 1.733
0.401 2.977 1.978
0.281 3.221 2.199
0.136 3.409 2.038
0.314 3.170 2.274
0.101 3.336 2.556
0.073 3.530 2.361
0.393 3.163 2.704
0.100 3.196 2.552
0.123 3.425 2.714
0.193 3.184 2.817
0.087 3.372 2.833
0.013 3.486 2.949
0.392 3.009 3.192
0.134 3.370 3.065
0.033 3.567 2.987
0.362 2.922 3.686
0.293 3.139 3.492
0.056 3.378 3.469
0.352 3.220 3.998
0.118 3.267 3.796
0.288 3.172 4.181
-0.022 3.416 4.133
0.152 3.257 4.517
-0.068 3.385 4.721
0.414 2.853 1.033
0.301 3.059 0.850
0.149 3.247 0.807
0.494 2.986 1.277
0.178 3.262 1.135
0.142 3.433 0.980
0.367 2.984 1.620
0.315 3.185 1.555
0.066 3.350 1.356
0.031 3.546 1.292
0.514 2.986 1.631
0.647 3.141 1.671
0.621 3.375 1.637
0.504 3.613 1.440
0.306 3.707 1.313
0.156 3.880 1.014
0.803 3.149 1.698
0.668 3.284 1.982
0.428 3.454 1.868
0.294 3.560 1.694
0.147 3.842 1.578
0.039 4.004 1.402
0.616 3.174 1.955
0.585 3.401 2.181
0.414 3.529 2.126
0.176 3.851 1.986
0.116 3.930 1.808
0.539 3.353 2.290
0.428 3.477 2.424
0.234 3.748 2.356
0.085 3.800 2.130
0.457 3.372 2.510
0.256 3.522 2.659
0.209 3.693 2.579
-0.069 3.893 2.369
0.279 3.603 2.674
0.157 3.753 2.923
0.171 3.896 2.775
0.355 3.436 3.234
0.291 3.722 3.076
0.228 3.822 3.148
-0.096 4.073 3.118
0.560 3.432 3.514
0.385 3.640 3.368
0.138 3.757 3.265
0.118 3.953 3.421
0.584 3.271 3.929
0.326 3.594 3.742
0.134 3.724 3.659
0.038 3.861 3.512
0.449 3.498 4.129
0.286 3.676 4.113
0.111 3.911 3.828
0.356 3.448 4.435
0.103 3.772 4.392
-0.051 4.027 4.262
0.323 3.636 4.805
0.058 3.817 4.554
0.169 3.765 5.004
0.014 3.917 4.925
0.149 3.902 5.255
1.917 1.485 0.013
1.749 1.608 0.331
1.766 1.771 0.280
1.411 2.002 0.037
1.500 2.199 0.339
1.090 2.609 0.639
0.911 2.808 0.512
0.677 2.993 0.302
1.046 2.645 0.650
1.041 2.761 0.847
0.779 3.003 0.682
0.782 3.131 0.633
0.536 3.382 0.461
1.032 2.805 0.985
0.952 2.805 1.202
0.779 3.081 1.045
0.512 3.209 0.812
0.527 3.579 0.693
0.307 3.759 0.481
0.844 2.793 1.256
0.826 3.042 1.414
0.633 3.095 1.230
0.520 3.382 1.133
0.301 3.629 0.923
0.253 3.818 0.853
-0.042 3.987 0.703
0.881 3.011 1.377
0.610 3.168 1.771
0.500 3.208 1.476
0.415 3.447 1.497
0.353 3.663 1.252
0.023 3.903 1.201
0.803 3.137 1.622
1.030 3.232 1.677
0.777 3.542 1.538
0.687 3.642 1.401
0.426 3.871 1.279
0.280 4.007 1.022
0.171 4.322 0.888
1.044 3.255 1.683
0.636 3.641 1.733
0.615 3.747 1.608
0.363 3.990 1.511
0.190 4.131 1.291
0.141 4.414 1.299
0.700 3.685 2.088
0.528 3.904 1.853
0.339 4.060 1.670
0.116 4.336 1.700
0.594 3.765 2.367
0.314 4.082 2.196
0.657 3.649 4.187
0.481 3.738 4.136
0.404 3.962 3.958
0.594 3.783 4.417
0.445 3.998 4.416
0.302 4.048 4.178
0.015 4.564 4.362
0.583 3.896 4.773
0.420 3.986 4.497
0.263 4.303 4.480
0.088 4.420 4.215
0.302 3.981 4.936
0.279 4.121 4.903
0.144 4.294 4.650
0.206 4.022 5.318
0.191 4.197 5.123
2.051 1.651 0.004
1.968 1.743 0.352
1.972 2.092 0.160
1.697 2.302 -0.030
1.479 2.606 0.205
1.320 2.803 -0.041
1.882 1.908 0.596
1.819 2.203 0.375
1.622 2.342 0.362
1.511 2.525 0.229
1.440 2.665 0.345
1.341 2.955 0.175
1.185 3.019 0.008
1.783 2.261 0.784
1.546 2.432 0.586
1.310 2.660 0.375
1.247 2.815 0.728
1.231 3.037 0.567
0.922 3.277 0.438
0.787 3.483 0.308
1.565 2.669 0.832
1.265 2.848 0.715
1.180 2.890 0.845
1.032 3.200 0.780
0.910 3.410 0.592
0.761 3.620 0.433
0.557 3.759 0.232
1.211 3.012 0.825
1.207 3.032 1.128
1.011 3.331 0.982
0.804 3.395 0.874
0.774 3.699 0.741
0.539 3.821 0.523
0.271 4.056 0.343
1.052 3.033 1.230
0.996 3.260 1.477
0.839 3.365 1.246
0.798 3.514 1.143
0.677 3.744 0.944
0.475 3.941 0.859
0.173 4.221 0.676
0.945 3.250 1.417
0.921 3.236 1.803
0.729 3.504 1.616
0.726 3.790 1.348
0.425 3.873 1.153
0.420 4.034 1.104
0.098 4.261 0.907
0.973 3.255 1.684
1.093 3.627 1.569
0.873 3.882 1.440
0.676 4.174 1.337
0.515 4.382 1.198
0.346 4.476 0.944
0.932 3.707 1.762
0.855 3.955 1.573
0.673 4.264 1.452
0.474 4.360 1.275
0.779 3.980 4.505
0.698 4.101 4.371
0.772 4.046 4.813
0.493 4.274 4.523
0.472 4.455 4.525
0.074 4.809 4.645
0.647 4.191 5.100
0.448 4.418 4.782
0.316 4.471 4.722
0.224 4.816 4.634
0.009 4.850 4.717
0.510 4.322 5.285
0.397 4.413 5.085
0.261 4.727 4.859
0.174 4.973 4.811
2.486 1.813 0.077
2.310 2.085 0.293
2.133 2.177 0.208
1.974 2.388 0.047
1.742 2.780 0.255
1.693 3.026 -0.011
2.154 2.100 0.658
2.034 2.399 0.495
1.847 2.614 0.274
1.657 2.679 0.093
1.721 2.964 0.380
1.516 3.081 0.161
1.337 3.286 0.095
2.174 2.313 0.842
1.997 2.546 0.798
1.843 2.569 0.505
1.632 2.778 0.486
1.595 3.044 0.660
1.304 3.227 0.478
1.346 3.439 0.422
1.172 3.598 0.282
0.879 3.888 0.120
1.931 2.508 0.999
1.771 2.674 0.813
1.471 3.054 0.627
1.567 3.062 0.860
1.329 3.267 0.874
1.064 3.467 0.642
0.943 3.633 0.454
0.819 3.992 0.347
0.756 4.113 0.223
1.644 2.825 1.114
1.550 3.034 0.947
1.329 3.223 1.287
1.183 3.403 0.970
1.041 3.543 0.896
0.812 3.930 0.810
0.796 4.138 0.549
0.670 4.190 0.411
1.297 3.174 1.156
1.250 3.433 1.358
1.101 3.556 1.298
1.015 3.717 1.222
0.797 3.930 0.946
0.659 4.241 0.792
0.579 4.454 0.726
1.246 3.380 1.465
0.961 3.717 1.568
0.861 3.928 1.374
0.764 4.109 1.276
0.562 4.277 1.005
0.359 4.427 1.019
1.346 3.837 1.565
1.211 4.139 1.431
0.885 4.273 1.298
0.843 4.367 1.202
0.614 4.769 0.958
0.809 4.395 1.453
0.982 4.132 4.766
0.892 4.453 4.538
0.965 4.214 5.066
0.676 4.497 4.770
0.662 4.761 4.776
0.241 4.960 4.713
0.820 4.336 5.215
0.641 4.740 5.179
0.396 4.805 4.926
0.270 5.155 4.834
2.691 2.006 0.140
2.565 2.162 0.278
2.366 2.479 0.097
2.330 2.677 0.117
1.987 3.017 0.216
1.926 3.122 0.072
2.475 2.375 0.665
2.315 2.450 0.494
2.148 2.632 0.266
1.981 2.841 0.227
1.961 3.015 0.495
1.839 3.291 0.365
1.489 3.538 0.046
2.302 2.321 0.834
2.214 2.680 0.764
2.118 2.894 0.582
1.854 3.008 0.506
1.871 3.127 0.613
1.653 3.332 0.499
1.431 3.598 0.384
1.267 3.794 0.251
1.085 4.016 0.176
2.125 2.758 0.989
1.902 3.007 0.749
1.709 3.087 0.666
1.737 3.192 0.920
1.548 3.533 0.869
1.404 3.675 0.688
1.324 3.828 0.385
1.112 4.034 0.262
0.977 4.283 0.084
0.808 4.508 0.023
1.768 3.034 1.049
1.703 3.203 0.845
1.586 3.364 1.256
1.487 3.505 0.973
1.409 3.743 0.948
1.161 4.076 0.728
1.003 4.242 0.514
0.749 4.359 0.440
0.722 4.581 0.236
1.679 3.493 1.295
1.394 3.744 1.213
1.303 3.999 1.166
1.050 4.046 0.917
0.971 4.391 0.770
0.725 4.596 0.691
0.623 4.809 0.503
1.367 3.811 1.655
1.151 3.962 1.444
0.886 4.361 1.358
0.851 4.503 1.146
0.586 4.650 0.951
1.235 4.410 1.255
0.993 4.665 1.046
0.992 4.905 0.945
1.096 4.570 5.042
0.964 4.736 4.816
0.955 4.648 5.348
0.909 4.760 5.016
0.630 4.948 4.995
2.853 2.242 0.125
2.808 2.324 0.286
2.626 2.553 0.156
2.440 2.838 0.082
2.297 3.075 0.125
2.147 3.364 -0.024
2.610 2.384 0.656
2.546 2.583 0.382
2.388 2.843 0.230
2.129 3.179 0.246
2.163 3.122 0.392
2.060 3.401 0.276
1.815 3.612 0.089
2.547 2.637 0.880
2.361 2.766 0.682
2.279 2.929 0.614
2.171 3.192 0.450
2.025 3.331 0.656
1.969 3.564 0.597
1.666 3.768 0.368
1.648 3.951 0.296
1.359 4.086 0.148
2.372 2.822 0.943
2.198 3.121 0.732
2.042 3.304 0.759
2.001 3.543 0.959
1.721 3.607 0.855
1.539 3.886 0.699
1.471 4.041 0.528
1.259 4.241 0.405
1.154 4.504 0.185
1.108 4.801 -0.015
2.019 3.287 1.013
1.894 3.407 1.033
1.923 3.653 1.151
1.702 3.688 1.120
1.545 3.893 0.978
1.491 4.137 0.721
1.163 4.483 0.618
1.022 4.595 0.349
0.987 4.793 0.341
0.745 5.111 0.117
1.849 3.631 1.236
1.675 3.872 1.285
1.524 4.140 1.102
1.261 4.314 1.019
1.185 4.575 0.884
0.909 4.697 0.693
0.751 4.897 0.572
1.110 4.363 1.234
1.032 4.617 1.065
0.808 4.933 0.941
1.251 4.908 1.082
1.155 4.949 1.023
0.978 5.245 0.860
1.450 4.665 4.932
1.231 4.708 5.312
1.119 4.923 5.072
3.045 2.358 0.033
2.992 2.580 0.358
2.953 2.683 0.109
2.626 3.050 0.043
2.443 3.250 0.226
2.373 3.509 -0.074
3.014 2.674 0.551
2.718 2.943 0.363
2.671 3.032 0.271
2.485 3.249 0.172
2.361 3.346 0.423
2.282 3.525 0.199
2.103 3.906 0.139
2.785 2.762 0.863
2.766 3.047 0.731
2.624 3.117 0.592
2.276 3.311 0.467
2.336 3.592 0.699
2.120 3.822 0.517
1.977 3.951 0.379
1.739 4.100 0.269
1.740 4.353 0.038
2.442 3.262 0.830
2.181 3.508 0.689
1.945 3.875 0.830
1.902 4.004 0.614
1.730 4.313 0.566
1.594 4.451 0.397
1.510 4.713 0.213
1.339 4.954 -0.020
1.884 3.880 1.043
1.827 4.169 0.798
1.649 4.394 0.796
1.420 4.685 0.541
1.285 4.839 0.455
1.178 5.044 0.317
1.070 5.281 0.199
1.708 4.320 1.123
1.494 4.540 1.071
1.348 4.603 0.937
1.177 4.903 0.657
0.985 5.215 0.641
0.920 5.284 0.367
1.266 4.916 1.095
1.201 5.064 0.896
0.932 5.316 0.828
1.319 5.303 1.063
1.221 5.329 0.840
1.153 5.536 0.741
1.560 4.964 5.184
3.280 2.575 0.103
3.196 2.808 0.410
3.030 2.992 0.259
3.210 2.842 0.531
2.922 3.104 0.553
2.203 4.079 0.382
2.078 4.260 0.253
1.983 4.555 0.005
2.141 4.193 0.708
2.013 4.359 0.570
1.832 4.651 0.429
1.691 4.798 0.128
1.467 5.132 0.026
1.916 4.484 0.776
1.702 4.703 0.582
1.504 4.949 0.543
1.451 5.240 0.259
1.358 5.369 0.059
1.836 4.697 0.928
1.686 4.819 0.897
1.480 5.003 0.661
1.323 5.375 0.654
1.109 5.546 0.430
0.944 5.644 0.285
1.366 5.316 0.878
1.186 5.456 0.787
1.132 5.634 0.739
1.668 5.379 0.887
1.451 5.603 0.788
1.222 5.879 0.617
1.163 5.991 0.476
2.149 4.796 0.174
1.993 4.915 0.365
1.847 5.000 0.106
1.810 5.239 0.124
2.058 5.046 0.543
1.850 5.119 0.448
1.623 5.295 0.293
1.488 5.627 0.108
1.263 5.712 0.024
1.831 5.062 0.956
1.673 5.332 0.682
1.606 5.409 0.602
1.394 5.629 0.410
1.229 5.948 0.172
1.166 6.034 0.064
1.630 5.306 1.021
1.440 5.682 0.763
1.251 5.800 0.706
1.141 6.093 0.536
1.778 5.649 1.068
1.661 5.861 0.914
1.651 5.939 0.625
1.317 6.110 0.428
1.454 6.037 0.955
2.092 5.290 0.223
1.967 5.414 0.074
2.162 5.051 0.523
2.081 5.265 0.405
1.957 5.611 0.238
1.714 5.853 0.174
1.560 5.930 -0.021
1.901 5.399 0.655
1.739 5.764 0.531
1.603 5.778 0.501
1.417 5.996 0.220
1.875 5.549 1.002
1.777 5.844 0.911
1.522 5.901 0.687
1.336 6.237 0.623
2.087 5.831 1.020
1.975 5.968 0.895
1.866 6.089 0.681
1.855 6.109 0.983
2.315 5.297 0.241
2.254 5.606 0.104
2.348 5.597 0.563
2.147 5.688 0.374
1.878 5.837 0.106
1.785 6.153 -0.008
2.239 5.658 0.638
2.009 5.914 0.603
1.856 6.038 0.393
1.752 6.309 0.354
2.074 5.779 1.056
1.957 5.977 0.802
1.721 6.128 0.652
2.251 6.184 0.892
2.072 6.266 1.007
2.459 5.864 0.075
2.380 5.960 0.328
2.214 6.032 0.073
2.373 5.831 0.630
2.342 6.013 0.597
2.218 6.256 0.445
2.246 6.157 0.833
2.553 6.048 0.339
2.598 6.101 0.595
2.319 0.952 0.080
2.475 1.216 0.175
2.813 1.369 0.091
3.107 1.350 0.268
3.074 1.518 0.101
3.601 1.321 0.084
3.514 1.305 0.406
3.507 1.405 0.239
3.369 1.717 0.143
3.903 1.397 0.261
3.848 1.465 -0.026
4.049 1.288 0.675
3.770 1.406 0.541
3.639 1.668 0.206
3.430 1.865 0.038
4.361 1.386 0.340
4.132 1.560 0.094
3.997 1.665 0.098
4.355 1.321 0.796
4.259 1.465 0.537
4.158 1.563 0.490
3.817 1.789 0.310
3.739 2.111 0.073
4.650 1.303 0.567
4.473 1.414 0.280
4.383 1.634 0.169
4.132 1.987 0.082
4.692 1.165 0.901
4.546 1.427 0.806
4.381 1.655 0.697
4.334 1.800 0.366
4.220 2.060 0.340
4.046 2.304 0.154
4.984 1.261 0.308
4.903 1.531 0.125
4.999 1.271 0.716
5.008 1.491 0.565
4.744 1.676 0.299
4.678 1.801 0.239
4.436 2.065 -0.036
4.988 1.473 0.821
4.937 1.585 0.650
4.766 1.884 0.557
4.462 1.991 0.520
4.381 2.304 0.355
4.123 2.332 0.203
5.460 1.270 0.418
5.349 1.547 0.283
5.200 1.643 0.076
5.375 1.434 0.702
5.261 1.745 0.572
5.101 1.923 0.316
4.940 2.081 0.295
4.701 2.298 0.096
5.423 1.315 1.014
5.252 1.523 0.939
5.127 1.837 0.784
4.894 1.958 0.604
4.709 2.190 0.437
4.516 2.355 0.271
4.459 2.654 0.091
5.788 1.465 0.062
5.698 1.438 0.490
5.511 1.608 0.136
5.352 1.870 0.127
5.541 1.537 0.633
5.360 1.780 0.407
5.326 2.137 0.307
5.056 2.269 0.252
4.973 2.489 -0.002
5.724 1.577 1.032
5.381 1.703 0.823
5.401 1.846 0.754
5.109 2.256 0.694
5.054 2.405 0.366
4.766 2.503 0.372
6.168 1.229 0.116
5.993 1.536 0.094
5.947 1.653 0.462
5.697 1.930 0.283
5.585 2.017 0.073
5.740 1.765 0.741
5.602 2.039 0.532
5.439 2.287 0.251
5.381 2.433 0.261
5.152 2.621 0.015
5.739 1.905 0.904
5.531 2.206 0.729
5.354 2.367 0.598
5.332 2.475 0.504
5.060 2.793 0.221
6.274 1.844 0.046
6.063 1.772 0.442
5.979 2.027 0.289
5.731 2.304 0.123
5.973 1.950 0.755
5.898 2.184 0.506
5.731 2.324 0.355
5.681 2.674 0.187
5.372 2.804 0.011
5.892 2.323 0.816
5.679 2.551 0.628
5.525 2.812 0.469
5.417 2.995 0.324
6.122 2.263 0.290
6.150 2.513 0.197
6.189 2.331 0.494
5.980 2.568 0.339
5.879 2.734 0.128
5.772 3.071 0.109
6.317 2.705 0.386
6.002 2.894 0.275
5.956 3.238 0.111
1.069 0.092 4.341
0.934 0.226 4.484
0.843 0.365 4.337
1.079 0.142 4.941
0.923 0.355 4.844
0.801 0.587 4.711
0.511 0.669 4.483
0.446 0.941 4.349
0.249 1.085 4.123
0.082 1.358 4.074
0.659 0.713 4.898
0.437 0.875 4.828
0.377 0.964 4.691
0.101 1.223 4.505
0.114 1.546 4.204
0.503 0.931 4.994
0.209 1.236 4.946
0.063 1.466 4.726
0.103 1.199 5.051
-0.068 1.398 4.905
1.563 0.072 4.337
0.189 1.584 4.310
0.089 1.803 4.070
0.328 1.619 4.682
0.083 1.720 4.461
0.059 2.046 4.496
0.213 1.623 4.988
-0.006 1.866 4.719
0.236 2.265 3.610
0.304 2.200 4.043
-0.034 2.343 3.846
0.280 2.053 4.417
0.193 2.343 4.218
0.105 2.298 4.683
0.088 2.413 4.414
-0.007 2.453 5.006
0.265 2.685 3.839
0.418 2.541 4.306
0.281 2.661 4.146
0.381 2.480 4.672
0.343 2.666 4.455
0.197 2.858 4.433
0.414 2.528 4.878
0.161 2.808 4.754
-0.078 2.962 4.559
0.067 2.910 4.961
0.491 2.956 4.139
0.399 2.786 4.615
0.280 3.023 4.340
0.326 2.954 4.837
0.258 3.056 4.578
0.270 3.055 4.994
0.202 3.316 4.866
0.133 3.117 5.262
0.169 3.314 5.219
2.941 -0.047 4.599
0.490 3.222 4.462
0.616 3.126 4.878
0.542 3.363 4.713
0.477 3.158 4.990
0.462 3.353 4.907
0.388 3.443 5.291
0.340 3.473 5.160
0.404 3.402 5.569
0.214 3.588 5.411
1.966 1.402 0.247
3.215 0.149 4.409
0.767 3.525 4.724
0.818 3.462 5.049
0.609 3.678 4.865
0.687 3.529 5.273
0.565 3.654 5.240
0.611 3.693 5.600
0.411 3.970 5.385
2.471 1.243 0.382
2.307 1.587 0.277
2.217 1.634 0.494
3.730 0.162 4.118
3.764 0.072 4.457
1.052 3.716 4.582
1.084 3.563 5.041
0.855 3.849 4.992
0.844 3.696 5.349
0.800 3.960 5.222
0.852 3.757 5.498
0.783 4.135 5.403
2.752 1.374 0.382
2.609 1.762 0.324
2.689 1.517 0.568
2.500 1.716 0.570
2.371 1.890 0.654
3.739 0.030 3.917
3.572 0.204 4.212
4.111 0.035 4.295
3.818 0.359 4.039
4.186 0.063 4.686
1.186 3.793 4.979
1.050 3.890 4.966
1.247 3.837 5.239
1.125 4.030 5.199
1.163 3.845 5.811
1.108 4.002 5.550
0.868 4.327 5.437
3.077 1.338 0.517
2.979 1.619 0.332
2.876 1.864 0.142
2.992 1.462 0.895
2.863 1.685 0.585
2.669 1.951 0.539
2.840 1.871 0.962
2.686 2.026 0.760
3.983 0.117 3.109
4.035 0.077 3.545
3.977 0.195 3.522
4.036 0.211 3.916
3.726 0.482 3.754
3.997 0.029 4.221
3.799 0.287 4.050
4.361 0.105 4.343
4.200 0.314 4.183
4.063 0.562 4.146
1.406 4.178 4.816
1.610 3.796 5.493
1.466 4.144 5.210
1.335 4.207 5.159
1.670 3.771 5.821
1.583 4.075 5.785
1.288 4.172 5.583
1.203 4.419 5.443
3.426 1.369 0.684
3.370 1.642 0.593
3.091 1.828 0.475
3.067 2.092 0.243
3.410 1.469 0.980
3.308 1.735 0.716
3.182 1.983 0.677
3.007 2.116 0.550
3.065 1.780 0.993
3.034 2.160 0.830
2.862 2.218 0.820
2.688 2.350 1.028
4.396 -0.044 3.056
4.348 0.163 2.852
4.143 0.368 2.759
4.494 0.108 3.262
4.264 0.240 3.230
4.157 0.526 2.987
4.512 0.086 3.720
4.315 0.163 3.624
4.235 0.445 3.426
4.007 0.576 3.208
4.435 0.102 4.074
4.259 0.374 3.955
4.154 0.596 3.631
4.341 0.141 4.429
4.236 0.379 4.295
4.130 0.462 4.155
4.503 0.493 4.205
4.360 0.570 4.221
4.175 0.863 3.980
1.967 3.839 5.619
1.862 4.032 5.516
1.730 4.161 5.234
1.509 4.377 5.119
2.054 3.733 5.955
1.777 3.927 5.955
1.653 4.248 5.647
1.630 4.322 5.582
1.339 4.484 5.387
3.968 1.366 0.915
3.724 1.624 0.647
3.576 1.850 0.530
3.347 2.006 0.410
3.310 2.151 0.315
3.892 1.303 1.187
3.720 1.561 1.071
3.600 1.794 0.857
3.450 1.830 0.795
3.358 2.078 0.747
3.192 2.326 0.535
3.780 1.405 1.603
3.792 1.669 1.415
3.541 1.862 1.187
3.468 2.081 1.107
3.196 2.198 0.888
3.011 2.354 0.681
4.766 0.058 2.888
4.639 0.265 2.733
4.581 0.536 2.570
4.362 0.634 2.300
2.981 2.591 1.041
4.773 0.271 3.172
4.552 0.376 2.856
4.467 0.523 2.738
4.179 0.794 2.654
4.149 1.067 2.544
4.793 0.142 3.538
4.649 0.256 3.330
4.390 0.501 3.112
4.353 0.649 3.104
4.132 1.008 2.837
4.894 0.041 3.939
4.644 0.114 3.729
4.612 0.470 3.516
4.368 0.599 3.545
4.290 0.907 3.384
4.007 1.120 3.113
4.776 0.171 4.251
4.547 0.428 3.990
4.552 0.568 3.917
4.236 0.745 3.670
4.089 1.054 3.458
4.470 0.403 4.210
4.297 0.723 4.056
4.177 0.924 3.972
4.707 0.905 4.051
4.366 0.970 3.957
4.281 1.172 3.883
2.268 3.715 5.825
2.297 4.026 5.702
2.054 4.284 5.386
1.867 4.348 5.392
1.814 4.669 5.188
2.328 3.709 6.112
2.220 3.942 6.070
2.200 4.077 5.966
1.900 4.243 5.795
1.776 4.524 5.652
1.609 4.811 5.494
4.508 1.063 1.148
4.303 1.373 1.043
4.066 1.461 0.825
4.057 1.846 0.775
3.774 1.973 0.595
3.591 2.275 0.458
3.489 2.331 0.174
4.532 1.005 1.474
4.270 1.180 1.376
4.278 1.500 1.313
3.925 1.723 1.088
3.968 1.850 0.964
3.781 2.014 0.775
3.542 2.265 0.624
3.451 2.606 0.608
4.558 0.861 1.949
4.408 1.165 1.752
4.310 1.351 1.632
4.125 1.658 1.458
4.020 1.736 1.324
3.833 2.010 1.296
3.709 2.274 1.010
3.516 2.333 0.952
3.336 2.528 0.866
5.133 0.038 2.942
5.100 0.198 2.878
4.859 0.484 2.675
4.786 0.663 2.586
4.707 0.906 2.466
4.519 1.044 2.290
4.291 1.331 2.103
4.139 1.454 1.857
3.939 1.756 1.819
3.778 1.817 1.687
3.654 2.024 1.489
3.540 2.248 1.327
5.054 0.074 3.249
4.947 0.388 3.185
4.772 0.542 2.977
4.730 0.750 2.723
4.473 1.068 2.579
4.456 1.200 2.533
4.176 1.395 2.407
4.150 1.578 2.161
5.112 0.122 3.604
5.075 0.265 3.482
4.906 0.518 3.291
4.778 0.733 3.193
4.678 0.854 3.116
4.505 1.148 2.890
4.179 1.337 2.678
4.081 1.622 2.540
5.198 0.121 3.895
4.877 0.426 3.707
4.722 0.698 3.533
4.600 0.765 3.548
4.571 0.988 3.238
4.238 1.246 3.154
4.152 1.391 2.947
5.105 0.288 4.132
4.851 0.442 4.083
4.718 0.733 3.801
4.479 0.948 3.663
4.378 1.226 3.492
4.323 1.360 3.427
4.647 0.822 4.151
4.385 1.059 3.908
4.304 1.351 3.866
4.894 1.048 4.093
4.627 1.307 3.948
4.573 1.369 3.868
4.300 1.606 3.767
2.457 4.117 5.438
2.465 4.317 5.238
2.730 3.828 5.911
2.702 3.998 5.770
2.373 4.202 5.704
2.197 4.335 5.452
2.100 4.595 5.384
2.698 3.931 6.212
2.605 4.100 5.991
2.364 4.326 5.844
2.127 4.422 5.746
2.116 4.774 5.580
1.961 4.963 5.526
4.833 1.090 1.368
4.644 1.354 1.143
4.500 1.539 1.088
4.307 1.671 0.780
4.135 2.035 0.786
4.139 2.170 0.603
3.901 2.369 0.409
3.774 2.650 0.327
4.801 1.075 1.629
4.674 1.326 1.645
4.554 1.517 1.454
4.347 1.678 1.359
4.205 1.826 1.205
4.117 2.059 1.031
4.028 2.323 0.911
3.761 2.535 0.742
3.560 2.704 0.616
4.881 0.831 2.216
4.827 1.085 1.967
4.631 1.368 1.806
4.479 1.632 1.715
4.378 1.785 1.476
4.218 1.930 1.416
4.022 2.245 1.171
3.956 2.358 1.166
3.752 2.556 0.888
3.454 2.887 0.830
5.342 0.489 2.876
5.143 0.677 2.602
5.080 0.868 2.628
4.812 1.044 2.481
4.617 1.240 2.200
4.492 1.553 2.052
4.289 1.650 2.012
4.305 1.971 1.779
4.019 1.993 1.583
4.024 2.351 1.462
5.271 0.328 3.179
5.126 0.577 3.121
5.082 0.758 2.882
4.810 0.966 2.860
4.812 1.214 2.599
4.584 1.468 2.482
4.442 1.592 2.412
4.367 1.849 2.254
4.231 1.958 2.078
5.203 0.362 3.424
5.048 0.583 3.256
4.920 0.810 3.111
4.846 1.171 3.047
4.765 1.300 2.982
4.478 1.533 2.681
4.415 1.764 2.563
4.154 1.937 2.413
5.275 0.494 3.805
5.108 0.785 3.578
4.966 0.985 3.537
4.645 1.281 3.232
4.642 1.412 3.260
4.333 1.528 3.034
4.191 1.729 2.954
5.038 0.691 3.947
4.878 1.005 3.843
4.871 1.142 3.679
4.703 1.360 3.634
4.441 1.462 3.513
4.360 1.817 3.186
4.867 1.053 4.143
4.671 1.315 3.936
4.523 1.532 3.826
4.407 1.714 3.609
5.062 1.251 4.054
4.880 1.404 3.994
4.833 1.656 3.812
4.681 1.736 3.588
4.486 2.089 3.531
4.768 1.806 3.993
4.488 1.871 3.955
3.004 3.920 5.571
2.924 4.144 5.463
2.753 4.318 5.446
2.532 4.426 5.189
3.143 3.789 6.072
3.089 3.980 6.000
2.902 4.088 5.788
2.597 4.468 5.593
2.474 4.613 5.454
2.438 4.818 5.427
2.896 4.034 6.269
2.734 4.277 6.095
2.527 4.551 5.898
2.351 4.752 5.802
2.344 4.963 5.658
4.984 1.372 1.408
4.921 1.431 1.195
4.752 1.641 0.955
4.511 1.962 0.919
4.535 2.191 0.698
4.279 2.293 0.509
4.068 2.578 0.406
3.928 2.756 0.293
5.177 1.271 1.728
4.922 1.410 1.629
4.801 1.583 1.366
4.626 1.856 1.257
4.468 1.960 1.017
4.399 2.192 0.980
4.285 2.525 0.776
3.981 2.754 0.636
5.113 1.032 2.220
4.962 1.306 2.032
4.899 1.583 1.810
4.635 1.771 1.582
4.664 1.888 1.557
4.504 2.231 1.332
4.215 2.379 1.199
4.021 2.504 1.063
5.336 0.875 2.765
5.232 1.026 2.445
5.120 1.256 2.468
4.884 1.451 2.247
4.778 1.573 2.010
4.716 1.877 1.921
4.410 2.041 1.841
4.360 2.375 1.657
4.186 2.558 1.460
5.379 0.753 3.176
5.201 0.885 2.857
5.065 1.198 2.899
4.916 1.401 2.727
4.890 1.578 2.504
4.599 1.846 2.434
4.495 1.878 2.169
4.321 2.140 1.959
4.304 2.409 1.967
5.371 0.868 3.374
5.305 1.033 3.114
5.004 1.351 3.107
4.851 1.506 2.914
4.796 1.685 2.717
4.666 1.849 2.599
4.502 2.169 2.488
5.509 0.787 3.746
5.180 0.968 3.709
5.192 1.117 3.518
4.935 1.350 3.283
4.896 1.539 3.166
4.575 1.830 3.078
4.524 2.093 2.771
4.447 2.237 2.790
5.075 0.983 3.836
4.995 1.250 3.767
4.948 1.599 3.626
4.669 1.697 3.370
4.589 1.912 3.211
4.419 2.096 3.063
5.158 1.117 4.183
4.847 1.309 4.012
4.873 1.546 3.762
4.563 1.763 3.620
4.537 2.080 3.509
5.360 1.482 4.088
5.161 1.567 3.941
5.110 1.792 3.929
4.812 2.103 3.634
4.760 2.241 3.480
4.643 2.438 3.366
5.172 1.702 4.238
4.896 1.913 4.013
4.693 2.219 3.847
4.665 2.429 3.784
3.498 3.897 5.416
3.168 4.082 5.161
3.010 4.297 5.090
3.446 3.768 5.899
3.257 4.029 5.633
3.153 4.246 5.577
3.015 4.379 5.405
2.852 4.711 5.152
3.382 3.865 6.029
3.218 4.170 5.925
3.111 4.337 5.740
2.967 4.476 5.727
2.680 4.830 5.523
2.599 4.931 5.404
3.196 4.290 6.223
2.929 4.541 5.935
2.928 4.721 5.815
2.665 4.853 5.795
2.548 4.990 5.570
5.317 1.463 1.405
5.194 1.644 1.211
5.004 1.915 1.112
4.934 2.027 0.960
4.727 2.381 0.743
4.603 2.488 0.523
4.345 2.725 0.382
5.289 1.483 1.695
5.180 1.664 1.541
4.952 1.853 1.362
4.955 2.020 1.294
4.749 2.284 1.212
4.619 2.415 1.014
4.354 2.718 0.891
5.386 1.216 2.124
5.326 1.467 1.878
5.144 1.649 1.733
4.873 1.961 1.656
4.873 2.214 1.485
4.640 2.229 1.480
4.585 2.500 1.173
5.390 1.277 2.638
5.325 1.340 2.420
5.183 1.621 2.334
5.030 1.767 2.175
4.868 1.958 1.943
4.749 2.337 1.777
4.547 2.475 1.549
5.479 1.194 2.876
5.330 1.413 2.750
5.253 1.435 2.574
5.138 1.725 2.540
4.975 2.034 2.359
4.762 2.172 2.293
4.553 2.391 2.028
5.622 1.013 3.294
5.393 1.212 3.268
5.310 1.516 3.049
5.086 1.749 2.819
4.969 1.959 2.732
4.912 2.104 2.650
4.729 2.293 2.504
5.432 1.117 3.695
5.298 1.318 3.507
5.160 1.476 3.301
5.123 1.771 3.195
4.816 1.879 2.922
4.801 2.223 2.883
4.585 2.492 2.798
5.380 1.286 3.823
5.224 1.402 3.809
5.030 1.716 3.584
4.966 1.813 3.492
4.774 1.998 3.327
4.630 2.226 3.066
5.290 1.358 4.138
5.247 1.564 4.031
4.965 1.844 3.907
4.793 2.060 3.702
4.747 2.174 3.431
4.456 2.329 3.443
5.460 1.772 3.949
5.165 2.008 3.790
5.000 2.206 3.633
4.848 2.341 3.587
4.751 2.691 3.334
5.330 1.923 4.156
5.106 2.051 4.073
4.981 2.327 4.046
4.781 2.523 3.788
4.725 2.636 3.630
5.175 2.142 4.272
4.918 2.400 4.192
4.861 2.644 4.102
4.559 2.883 3.913
4.843 2.472 4.520
4.742 2.676 4.254
3.782 3.985 5.257
3.678 4.079 5.032
3.428 4.374 4.823
3.828 3.976 5.518
3.740 4.125 5.336
3.453 4.256 5.193
3.308 4.533 5.180
3.298 4.634 5.053
3.779 3.906 5.759
3.501 4.269 5.744
3.392 4.342 5.550
3.266 4.702 5.318
3.111 4.820 5.183
3.663 4.017 5.995
3.437 4.331 5.832
3.254 4.590 5.753
3.210 4.711 5.649
3.036 4.850 5.431
2.845 5.052 5.412
3.291 4.450 6.198
3.179 4.616 6.043
2.976 4.803 5.886
2.899 5.162 5.694
5.464 1.687 1.275
5.472 1.945 1.173
5.212 2.100 0.959
5.141 2.248 0.900
4.953 2.508 0.811
4.684 2.699 0.546
5.466 1.731 1.484
5.357 1.933 1.394
5.213 2.176 1.201
5.007 2.449 1.112
4.810 2.626 0.908
5.403 1.687 2.026
5.382 1.831 1.745
5.162 2.073 1.770
5.045 2.269 1.476
4.849 2.453 1.400
5.476 1.620 2.480
5.491 1.833 2.284
5.355 1.915 2.036
5.198 2.187 1.965
4.921 2.356 1.777
5.587 1.432 2.828
5.559 1.738 2.687
5.292 1.951 2.554
5.231 2.133 2.419
5.083 2.367 2.255
4.890 2.541 2.139
5.790 1.351 3.153
5.521 1.706 3.029
5.322 1.776 2.976
5.228 1.948 2.854
5.118 2.169 2.530
4.941 2.366 2.419
5.494 1.448 3.451
5.357 1.758 3.368
5.295 1.886 3.095
5.038 2.193 2.952
4.999 2.410 2.792
4.787 2.646 2.685
5.561 1.509 3.911
5.498 1.590 3.682
5.420 1.803 3.641
5.120 2.080 3.455
4.978 2.362 3.228
4.874 2.458 3.203
5.332 1.785 4.079
5.303 1.953 3.736
5.082 2.105 3.743
4.861 2.329 3.574
4.825 2.656 3.314
5.573 1.890 4.094
5.501 2.249 3.738
5.342 2.269 3.702
5.155 2.555 3.510
5.030 2.870 3.359
5.543 2.106 4.194
5.483 2.325 4.012
5.295 2.435 3.964
5.021 2.694 3.880
5.035 2.920 3.702
5.520 2.095 4.565
5.361 2.467 4.257
5.141 2.688 4.138
4.930 2.708 4.070
4.770 3.078 3.831
5.311 2.492 4.719
4.966 2.745 4.530
4.993 2.845 4.217
4.798 3.201 4.152
4.538 3.401 4.054
4.910 2.938 4.659
4.803 2.975 4.594
4.585 3.288 4.428
4.553 3.556 4.265
4.771 3.211 4.732
4.513 3.339 4.756
4.351 3.640 4.626
4.258 3.812 4.360
4.492 3.517 5.026
4.296 3.673 4.751
4.087 3.844 4.729
3.930 4.216 4.497
4.402 3.589 5.209
4.153 3.835 5.057
4.109 4.098 4.994
3.878 4.218 4.661
3.772 4.506 4.587
4.299 3.806 5.412
4.100 3.855 5.253
4.075 4.225 5.205
3.737 4.433 5.066
3.785 4.594 4.918
3.517 4.864 4.769
3.951 3.960 5.596
3.864 4.342 5.496
3.710 4.519 5.359
3.568 4.722 5.060
3.402 4.975 4.989
3.942 4.097 5.888
3.716 4.333 5.745
3.684 4.584 5.588
3.502 4.831 5.441
3.336 5.027 5.296
3.877 4.229 6.165
3.697 4.491 6.014
3.561 4.681 5.816
3.441 4.985 5.611
3.164 5.099 5.464
3.674 4.669 6.284
3.421 4.841 5.941
3.354 5.003 5.947
3.211 5.157 5.660
5.663 2.115 1.194
5.536 2.249 1.087
5.321 2.433 0.921
5.233 2.716 0.652
5.515 2.167 1.523
5.287 2.302 1.324
5.222 2.583 1.210
5.342 2.294 1.675
5.644 2.042 2.504
5.385 2.225 2.298
5.814 1.807 3.030
5.670 2.102 3.017
5.416 2.118 2.805
5.349 2.494 2.593
5.929 1.689 3.386
5.584 1.876 3.219
5.556 2.155 3.254
5.468 2.357 2.955
5.225 2.492 2.974
5.684 1.782 3.830
5.631 1.972 3.507
5.433 2.309 3.455
5.283 2.543 3.338
5.170 2.612 3.096
5.705 1.849 3.916
5.500 2.168 3.930
5.335 2.348 3.737
5.228 2.623 3.476
4.959 2.694 3.299
5.946 1.878 4.052
5.898 2.105 4.050
5.718 2.414 3.802
5.492 2.627 3.654
5.395 2.651 3.596
5.339 2.986 3.389
5.875 1.947 4.455
5.814 2.211 4.289
5.672 2.513 4.143
5.414 2.583 3.959
5.324 2.872 3.747
5.144 3.107 3.699
5.887 2.250 4.692
5.716 2.462 4.577
5.510 2.473 4.338
5.296 2.706 4.235
5.240 3.063 4.155
5.053 3.222 3.846
4.945 3.375 3.778
5.693 2.584 4.717
5.455 2.709 4.716
5.277 2.811 4.368
5.253 3.063 4.335
5.083 3.390 4.171
4.762 3.511 3.983
5.317 2.887 4.944
5.136 3.005 4.685
4.972 3.175 4.664
4.804 3.339 4.380
4.662 3.604 4.257
4.590 3.949 4.194
5.179 3.145 5.088
4.872 3.347 4.831
4.747 3.555 4.601
4.661 3.767 4.503
4.473 4.043 4.352
4.428 4.102 4.282
4.885 3.410 5.091
4.665 3.581 5.033
4.529 3.893 4.717
4.411 4.056 4.556
4.186 4.330 4.524
4.046 4.566 4.443
4.688 3.661 5.418
4.564 3.743 5.259
4.444 4.059 4.983
4.310 4.176 4.919
4.211 4.402 4.816
4.002 4.659 4.528
3.788 4.850 4.401
4.452 3.867 5.491
4.354 4.074 5.355
4.131 4.392 5.089
4.168 4.526 4.980
3.958 4.636 4.961
3.759 5.021 4.632
4.543 4.097 5.785
4.236 4.318 5.469
4.094 4.412 5.414
4.039 4.584 5.213
3.728 4.945 5.137
3.647 5.111 5.072
3.550 5.256 4.819
4.272 4.378 5.770
4.020 4.586 5.654
3.924 4.679 5.622
3.665 5.014 5.465
3.675 5.147 5.303
3.528 5.459 5.129
4.158 4.372 6.081
4.001 4.762 5.956
3.760 4.838 5.889
3.674 5.070 5.555
3.401 5.207 5.569
3.777 4.733 6.238
3.732 5.075 6.028
3.511 5.220 5.869
3.305 5.525 5.646
5.484 2.555 0.876
5.905 2.122 3.383
5.734 2.303 3.235
5.627 2.518 3.095
6.054 2.028 3.708
5.783 2.206 3.499
5.578 2.336 3.530
5.513 2.543 3.356
5.301 2.810 3.232
6.143 1.999 4.184
5.826 2.153 4.087
5.705 2.403 3.827
5.594 2.475 3.710
5.357 2.699 3.594
5.294 2.865 3.335
0.331 0.014 3.927
0.283 0.102 4.266
0.177 0.155 4.200
0.083 0.405 4.155
0.246 0.188 4.654
0.180 0.297 4.430
0.324 0.130 5.122
0.105 0.265 4.939
0.001 0.513 4.778
0.199 0.086 5.241
0.055 0.286 5.068
0.686 0.020 4.155
0.622 0.349 4.012
0.526 0.169 4.331
0.523 0.347 4.294
0.384 0.580 3.991
0.586 0.016 4.857
0.482 0.319 4.636
0.367 0.596 4.380
0.202 0.652 4.276
0.120 0.942 4.096
0.618 -0.034 5.216
0.617 0.208 5.117
0.424 0.352 4.849
0.351 0.745 4.788
0.063 0.954 4.609
0.361 0.461 5.229
0.103 0.808 5.049
0.005 1.017 4.890
0.021 0.877 5.318
1.013 0.026 4.171
0.929 0.089 4.544
0.833 0.429 4.364
1.147 0.023 4.918
0.895 0.313 4.709
0.751 0.562 4.601
0.528 0.722 4.530
0.342 0.899 4.259
0.336 1.104 4.140
0.157 1.341 3.941
0.647 0.591 4.893
0.450 0.865 4.671
0.243 1.065 4.611
0.124 1.275 4.510
-0.019 1.442 4.337
0.475 0.857 4.923
0.309 1.172 4.927
0.085 1.437 4.676
0.232 1.354 5.128
0.047 1.483 5.046
6.263 3.658 4.539
6.074 3.870 4.337
6.076 3.667 4.832
6.055 4.018 4.610
5.960 4.132 4.342
6.142 3.620 5.162
5.980 3.885 5.100
6.027 3.972 4.813
5.822 4.229 4.705
5.670 4.389 4.539
5.381 4.650 4.455
5.261 4.911 4.266
5.211 5.097 4.134
4.683 5.749 3.712
5.658 4.355 4.906
5.627 4.640 4.726
5.474 4.845 4.760
5.177 4.945 4.510
5.079 5.263 4.358
4.830 5.528 4.122
4.707 5.640 4.085
4.530 5.851 3.840
5.526 4.681 5.139
5.250 4.927 4.813
5.138 5.208 4.688
5.026 5.239 4.603
4.802 5.526 4.395
4.593 5.816 4.296
4.429 5.888 4.193
5.248 4.990 5.144
5.005 5.342 5.040
4.922 5.420 4.809
4.783 5.637 4.745
4.652 5.825 4.638
4.512 6.042 4.401
5.007 5.461 5.230
4.890 5.589 5.137
4.550 5.693 5.026
4.506 6.035 4.827
4.234 6.264 4.779
4.729 5.753 5.459
4.516 5.865 5.240
4.424 6.146 5.155
4.986 5.854 3.597
5.404 5.338 4.363
5.233 5.570 4.117
5.041 5.743 3.987
4.760 6.067 3.923
5.346 5.378 4.776
5.309 5.534 4.641
5.128 5.725 4.439
4.837 5.982 4.239
4.709 6.112 4.112
5.372 5.371 4.977
5.176 5.667 4.916
4.976 5.775 4.822
4.736 6.106 4.561
4.649 6.323 4.438
4.938 5.714 5.231
4.943 5.890 5.036
4.715 6.235 4.795
4.851 6.138 5.324
5.078 6.158 3.613
5.222 6.010 3.990
4.996 6.251 3.893
5.334 5.940 4.415
5.051 6.066 4.274
5.157 5.979 4.648
5.017 6.235 4.549
5.145 6.240 5.001
4.940 6.339 5.167
5.469 6.207 4.705
6.302 2.108 4.057
6.037 2.284 3.894
6.027 2.426 3.764
5.920 2.767 3.693
5.588 2.906 3.444
6.258 2.233 4.311
5.977 2.342 4.289
5.919 2.629 4.059
5.690 2.841 3.868
5.614 2.979 3.889
5.321 3.324 3.737
6.125 2.252 4.682
5.897 2.560 4.436
5.811 2.733 4.387
5.634 2.901 4.172
5.546 3.148 4.016
5.299 3.439 3.926
5.118 3.511 3.672
5.994 2.470 4.936
5.927 2.669 4.725
5.615 2.890 4.687
5.616 3.067 4.526
5.366 3.379 4.382
5.185 3.476 4.163
5.162 3.801 4.109
5.826 2.743 4.968
5.609 2.989 4.972
5.439 3.153 4.820
5.381 3.504 4.495
5.133 3.712 4.487
5.032 3.898 4.373
4.763 3.941 4.063
5.412 3.200 5.092
5.296 3.358 5.056
5.182 3.524 4.826
4.988 3.805 4.695
4.988 3.839 4.528
4.814 4.137 4.359
4.559 4.374 4.287
4.419 4.602 4.128
5.176 3.465 5.181
5.063 3.645 5.059
5.015 3.932 5.040
4.757 4.038 4.854
4.710 4.193 4.577
4.409 4.446 4.520
4.394 4.645 4.331
4.277 4.791 4.119
4.957 3.678 5.258
4.857 3.914 5.106
4.617 4.228 5.046
4.491 4.468 4.935
4.472 4.546 4.663
4.309 4.704 4.644
4.032 4.959 4.386
3.896 5.117 4.360
4.779 3.983 5.366
4.588 4.390 5.343
4.482 4.560 5.240
4.289 4.740 4.941
4.163 5.007 4.845
4.016 5.217 4.761
3.872 5.231 4.618
4.437 4.399 5.586
4.440 4.615 5.325
4.172 4.873 5.210
4.077 4.966 5.192
3.879 5.298 5.061
3.715 5.422 4.720
4.423 4.598 5.864
4.293 4.737 5.750
4.157 4.876 5.601
4.071 5.236 5.324
3.828 5.337 5.329
3.650 5.535 5.050
4.137 4.865 5.945
4.002 5.129 5.729
3.805 5.207 5.698
3.678 5.476 5.436
6.048 2.303 3.490
5.981 2.620 3.466
5.813 2.709 3.274
6.336 2.190 4.226
6.212 2.382 4.052
5.917 2.475 3.929
5.760 2.651 3.602
5.771 2.914 3.443
6.203 2.794 3.844
6.013 2.908 3.767
5.820 3.190 3.614
6.299 2.651 4.286
6.044 2.821 4.178
6.053 2.983 3.927
5.735 3.299 3.906
5.721 3.374 3.684
6.140 2.711 4.477
6.085 2.839 4.362
5.785 3.220 4.304
5.705 3.423 4.002
5.501 3.501 3.965
6.309 2.605 4.953
6.027 2.840 4.751
6.028 2.967 4.538
5.810 3.265 4.439
5.631 3.405 4.305
5.529 3.570 4.083
5.380 3.865 4.001
6.069 2.688 5.146
6.047 2.906 5.094
5.768 3.132 4.853
5.784 3.447 4.712
5.586 3.651 4.683
5.328 3.830 4.355
5.326 3.940 4.332
4.979 4.142 4.109
4.946 4.471 3.883
5.986 3.161 5.222
5.709 3.193 5.088
5.502 3.482 5.079
5.534 3.641 4.786
5.305 3.983 4.614
5.194 4.046 4.459
4.890 4.324 4.299
4.904 4.487 4.235
4.780 4.832 4.088
5.499 3.563 5.342
5.433 3.836 5.144
5.167 3.926 4.847
5.078 4.182 4.828
4.845 4.547 4.622
4.791 4.691 4.469
4.510 4.804 4.307
4.391 5.155 4.177
4.234 5.358 3.978
5.312 3.992 5.391
5.191 4.053 5.154
5.047 4.358 5.041
4.858 4.571 4.956
4.582 4.787 4.797
4.409 4.920 4.508
4.420 5.174 4.437
4.256 5.347 4.345
4.125 5.509 4.106
5.117 4.173 5.431
4.934 4.450 5.369
4.738 4.695 5.122
4.562 4.922 5.020
4.356 5.142 4.834
4.333 5.402 4.777
4.002 5.598 4.594
3.980 5.810 4.515
4.785 4.572 5.502
4.690 4.880 5.480
4.444 4.938 5.307
4.270 5.217 5.043
4.201 5.445 4.933
3.939 5.730 4.904
3.905 5.908 4.700
4.482 4.883 5.749
4.364 5.024 5.495
4.278 5.245 5.396
4.042 5.637 5.269
3.846 5.846 5.058
4.240 5.290 5.826
4.099 5.488 5.661
3.903 5.732 5.432
6.183 2.610 3.811
6.091 2.918 3.612
5.879 3.089 3.646
6.295 3.152 4.031
6.104 3.410 3.857
6.259 3.040 4.466
6.214 3.270 4.238
5.976 3.425 4.054
5.788 3.759 3.959
6.280 3.267 4.620
5.962 3.467 4.541
5.898 3.606 4.361
5.619 3.897 4.257
5.556 4.035 4.006
6.144 3.236 4.940
6.007 3.312 4.982
5.914 3.539 4.790
5.687 3.688 4.493
5.550 4.029 4.343
5.486 4.130 4.375
5.337 4.335 4.059
6.092 3.341 5.372
6.093 3.442 5.149
5.881 3.758 4.999
5.689 3.872 4.760
5.636 4.007 4.712
5.479 4.268 4.647
5.155 4.468 4.404
5.129 4.671 4.163
4.925 4.897 4.058
4.711 5.099 3.930
5.699 3.890 5.224
5.573 4.024 5.158
5.359 4.119 4.985
5.195 4.355 4.905
5.183 4.564 4.577
5.043 4.908 4.506
4.800 4.996 4.423
4.688 5.323 4.252
4.595 5.531 4.062
4.298 5.690 3.929
5.347 4.358 5.165
5.223 4.471 5.141
4.996 4.720 4.891
4.813 5.002 4.810
4.826 5.145 4.559
4.505 5.348 4.523
4.485 5.545 4.347
4.220 5.840 4.106
5.079 4.748 5.350
4.891 4.828 5.184
4.717 5.082 4.995
4.668 5.239 4.969
4.461 5.473 4.700
4.435 5.694 4.572
4.166 5.801 4.487
4.855 5.061 5.465
4.758 5.175 5.352
4.547 5.435 5.105
4.351 5.670 4.946
4.157 5.902 4.769
4.039 6.067 4.703
4.577 5.228 5.513
4.443 5.531 5.304
4.347 5.788 5.287
4.092 5.993 5.127
3.981 6.203 4.943
6.345 3.601 4.580
6.126 3.911 4.368
6.077 3.804 4.771
6.106 3.863 4.565
5.878 4.123 4.462
6.332 3.721 5.239
6.152 3.913 4.974
5.842 4.099 4.775
5.682 4.225 4.667
5.517 4.439 4.519
5.403 4.687 4.453
5.249 4.972 4.296
5.216 5.156 4.055
4.676 5.713 3.642
5.737 4.367 4.993
5.505 4.581 4.736
5.346 4.895 4.576
5.206 4.959 4.423
5.064 5.265 4.400
4.936 5.438 4.285
4.710 5.688 4.128
4.606 5.825 3.918
5.371 4.726 4.986
5.350 4.902 4.974
5.222 5.214 4.763
4.886 5.405 4.551
4.755 5.445 4.461
4.640 5.732 4.301
4.445 6.057 4.067
5.125 4.964 5.092
5.097 5.329 5.068
4.875 5.410 4.850
4.653 5.708 4.731
4.576 5.821 4.481
4.486 6.092 4.342
4.966 5.308 5.283
4.686 5.510 5.100
4.557 5.769 4.959
4.557 5.964 4.890
4.414 6.234 4.694
4.758 5.669 5.418
4.507 5.937 5.245
4.401 6.213 5.150
4.466 5.835 3.497
4.382 6.241 3.304
4.549 6.111 3.749
4.262 6.252 3.687
4.422 6.240 4.054
4.734 6.262 3.027
4.703 6.093 3.517
4.628 6.256 3.854
4.178 5.911 3.975
4.068 6.011 4.193
3.887 6.303 4.629
4.462 5.982 3.563
4.360 6.194 3.445
4.495 6.127 3.664
4.218 6.227 3.699
4.396 6.160 3.929
0.134 3.753 5.628
0.532 3.786 5.782
0.348 4.017 5.651
0.361 4.005 5.889
0.723 4.044 5.837
0.552 4.236 5.680
0.753 4.077 6.159
0.567 4.230 6.010
0.365 4.489 6.244
1.047 3.889 5.980
1.000 4.130 5.803
0.862 4.309 5.748
1.102 3.958 6.162
0.805 4.215 6.162
0.696 4.423 5.940
0.707 4.657 6.113
1.468 3.919 6.118
1.421 4.118 5.925
1.328 4.332 5.843
0.996 4.579 5.651
1.380 4.258 6.165
1.222 4.414 6.069
1.093 4.552 5.845
0.866 4.763 6.119
1.894 3.954 6.310
1.841 4.041 6.079
1.638 4.271 6.048
1.384 4.440 5.759
1.421 4.711 5.778
1.467 4.422 6.329
1.294 4.712 6.129
1.264 4.794 5.974
1.046 4.840 6.153
2.076 4.188 6.081
1.959 4.376 5.941
1.729 4.692 5.844
1.612 4.792 5.611
1.690 4.524 6.303
1.531 4.869 6.072
1.399 4.977 5.954
1.381 5.172 6.166
2.179 4.435 6.085
2.139 4.632 6.045
2.038 4.803 5.832
1.799 5.073 5.710
2.002 4.844 6.198
1.860 5.029 6.063
1.811 5.218 5.867
1.552 5.255 6.103
2.600 4.644 6.181
2.402 4.835 5.941
2.221 5.091 5.770
2.092 5.329 5.605
2.174 5.026 6.240
2.021 5.057 6.055
2.792 4.719 6.176
2.568 4.995 5.939
2.405 5.194 5.886
2.541 5.159 6.320
3.030 5.045 6.207
2.855 5.261 6.033
3.311 5.134 6.173
0.270 4.159 5.423
0.094 4.363 5.403
0.054 4.216 5.875
0.071 4.458 6.038
0.531 4.405 5.464
0.358 4.542 5.322
0.199 4.705 5.277
0.437 4.409 5.677
0.154 4.774 5.706
-0.006 4.949 5.500
0.333 4.635 6.026
0.068 4.882 5.949
-0.069 5.008 6.169
0.309 5.127 5.001
0.022 5.313 4.981
0.617 4.524 5.509
0.617 4.741 5.296
0.301 4.895 5.167
0.298 5.265 5.173
0.105 5.246 5.341
0.527 4.724 5.741
0.492 4.779 5.693
0.357 4.998 5.474
0.037 5.367 5.336
0.045 5.328 5.553
0.410 4.819 6.092
0.267 4.949 5.799
0.287 5.291 5.683
0.132 5.437 5.539
0.207 5.021 6.252
0.059 5.293 5.923
0.040 5.488 6.344
0.518 5.271 5.004
0.881 4.695 5.438
0.839 4.856 5.339
0.572 5.210 5.153
0.411 5.373 5.051
0.331 5.445 5.374
0.259 5.580 5.141
0.911 4.898 5.759
0.685 5.154 5.631
0.453 5.295 5.455
0.344 5.469 5.344
0.380 5.565 5.529
0.175 5.712 5.488
0.754 5.068 6.022
0.690 5.245 5.922
0.392 5.314 5.782
0.360 5.544 5.491
0.214 5.691 5.909
0.102 5.873 5.701
0.532 5.387 6.147
0.321 5.600 6.052
0.102 5.771 5.848
0.173 5.869 6.104
0.191 5.615 6.291
0.090 5.853 6.186
1.099 4.980 5.530
1.071 5.017 5.460
0.857 5.418 5.269
0.581 5.669 5.293
0.984 4.948 5.717
0.962 5.319 5.735
0.691 5.529 5.555
0.674 5.666 5.247
0.546 5.706 5.512
0.310 6.083 5.548
0.167 6.231 5.360
0.935 5.245 6.003
0.744 5.444 5.878
0.601 5.475 5.646
0.442 5.858 5.574
0.338 5.955 5.808
0.231 6.070 5.785
0.670 5.420 6.129
0.502 5.650 5.968
0.476 5.967 5.955
0.307 6.077 6.201
0.193 6.236 6.002
0.460 5.820 6.192
0.337 6.096 6.137
1.445 5.042 5.437
1.330 5.195 5.354
1.318 5.265 5.855
1.224 5.520 5.608
1.224 5.324 6.001
1.026 5.583 5.977
