4.677 6.215 0.619
4.868 6.293 0.676
4.972 6.077 0.336
4.727 6.224 0.039
4.990 6.156 0.293
4.948 5.920 0.410
4.538 6.163 0.192
4.817 6.040 0.455
5.061 6.002 0.145
5.013 5.894 0.010
4.888 5.639 0.211
4.843 5.731 0.265
0.126 6.265 2.955
3.989 6.284 5.880
4.658 6.129 5.659
4.321 6.105 5.594
4.433 6.144 5.868
3.611 6.289 5.347
3.916 6.132 5.564
4.126 5.978 5.773
4.211 5.927 6.041
3.494 5.990 5.494
3.692 5.969 5.685
3.841 5.925 5.943
4.025 5.852 6.135
3.287 5.727 5.938
3.622 5.683 6.188
3.370 5.434 6.273
4.758 6.341 5.666
4.430 6.108 5.201
4.649 6.183 5.319
4.727 6.015 5.512
3.728 6.355 4.930
3.831 6.186 4.955
4.048 5.995 5.169
4.205 5.855 5.357
4.615 5.830 5.672
3.191 6.095 4.755
3.464 6.195 5.001
3.653 5.985 5.240
3.892 5.875 5.379
4.209 5.653 5.618
4.335 5.659 5.754
3.177 5.942 5.215
3.489 5.793 5.379
3.706 5.813 5.457
3.794 5.694 5.770
3.998 5.486 5.826
4.416 5.339 6.208
3.141 5.595 5.470
3.444 5.536 5.719
3.600 5.533 5.857
3.980 5.360 6.190
3.176 5.325 5.737
3.361 5.280 5.999
3.589 5.201 6.165
3.260 5.042 6.240
4.842 6.239 5.110
4.396 6.208 5.106
4.648 6.185 5.180
4.720 5.909 5.580
4.040 6.233 4.394
4.043 6.127 4.685
4.332 5.988 4.971
4.564 5.934 5.102
3.533 6.170 4.440
3.730 5.911 4.757
3.909 5.884 4.818
4.236 5.900 5.007
4.263 5.677 5.260
4.582 5.580 5.461
3.280 5.968 4.502
3.604 5.919 4.814
3.807 5.710 5.103
3.890 5.561 5.174
4.155 5.574 5.413
4.334 5.364 5.510
2.979 5.816 4.685
3.202 5.605 5.021
3.445 5.656 5.107
3.715 5.538 5.343
3.961 5.244 5.529
4.258 5.219 5.853
4.347 5.187 5.962
3.129 5.394 5.181
3.365 5.484 5.395
3.478 5.309 5.522
3.784 5.195 5.662
3.843 5.054 5.893
4.133 4.898 5.995
2.997 5.124 5.386
3.218 5.154 5.740
3.618 4.905 5.955
3.820 5.027 6.070
3.873 4.905 6.297
2.956 5.009 5.793
3.378 4.952 6.067
3.399 4.728 6.262
3.012 4.590 6.180
4.487 6.144 4.513
4.531 6.102 4.670
3.848 6.261 4.573
4.081 6.181 4.665
4.414 5.870 4.878
4.617 5.800 5.101
3.756 6.107 4.100
4.018 5.930 4.348
4.243 5.720 4.424
4.505 5.714 4.625
3.421 5.882 4.103
3.644 5.847 4.350
3.843 5.823 4.384
4.095 5.604 4.755
4.273 5.552 4.816
4.429 5.442 4.977
3.130 5.849 4.223
3.424 5.639 4.468
3.508 5.619 4.597
3.705 5.580 4.708
3.921 5.462 4.923
4.304 5.259 5.210
4.455 5.129 5.418
2.881 5.537 4.393
3.189 5.556 4.571
3.329 5.322 4.752
3.447 5.400 4.982
3.736 5.334 5.177
3.991 5.194 5.443
4.229 4.948 5.581
4.446 4.829 5.794
2.865 5.344 4.816
3.108 5.152 4.928
3.438 5.128 5.195
3.613 5.048 5.233
3.850 4.879 5.431
4.085 4.868 5.706
4.285 4.662 5.967
4.329 4.588 6.112
2.792 5.072 5.088
3.012 5.041 5.312
3.314 4.938 5.499
3.664 4.762 5.746
3.818 4.765 5.976
4.107 4.599 6.135
4.285 4.490 6.299
3.031 4.681 5.680
3.312 4.531 5.891
3.460 4.583 6.090
3.845 4.505 6.227
0.153 6.149 3.042
3.036 4.512 6.015
3.452 4.438 6.175
0.002 5.984 3.182
0.264 5.948 3.364
0.123 5.587 3.544
3.799 6.098 4.097
4.061 5.908 4.360
4.280 5.870 4.615
4.385 5.663 4.653
0.121 5.906 2.038
0.366 5.919 2.211
0.214 5.649 2.400
0.140 5.405 2.300
0.050 5.174 2.212
0.198 2.137 0.473
0.003 1.858 0.006
0.155 1.929 0.292
0.017 1.658 0.431
0.303 1.648 0.106
0.007 1.501 0.262
0.076 1.080 -0.063
0.109 6.282 2.252
0.226 6.038 2.465
0.201 6.076 2.633
0.249 6.058 2.153
0.376 5.784 2.334
0.081 5.821 2.498
3.694 5.780 3.576
3.932 5.606 3.719
4.120 5.488 3.995
3.103 5.547 3.572
3.457 5.544 3.723
3.633 5.286 3.960
3.831 5.364 3.986
4.128 5.231 4.182
2.691 5.512 3.442
3.009 5.466 3.621
3.269 5.261 3.722
3.429 5.254 4.016
3.648 5.178 4.150
3.926 5.037 4.471
4.066 4.943 4.633
2.398 5.475 3.291
2.519 5.461 3.622
2.695 5.346 3.754
2.903 5.172 3.973
3.282 5.069 4.230
3.440 4.842 4.329
3.577 4.729 4.634
3.887 4.753 4.805
4.103 4.734 4.883
1.941 5.308 3.296
2.011 5.401 3.647
2.248 5.134 3.658
2.516 5.001 3.942
2.808 4.971 4.147
3.058 4.778 4.373
3.321 4.722 4.422
3.332 4.786 4.752
3.756 4.622 4.915
3.887 4.517 5.024
4.013 4.314 5.409
1.982 5.503 3.462
1.684 5.158 3.435
1.828 5.217 3.714
2.167 5.034 3.940
2.266 4.912 4.060
2.527 4.775 4.264
2.715 4.733 4.535
2.897 4.508 4.794
3.258 4.525 4.855
3.556 4.373 5.188
3.706 4.355 5.175
3.925 4.268 5.540
4.128 4.121 5.670
4.394 3.978 5.874
4.660 3.778 6.148
4.685 3.683 6.294
0.505 5.846 2.445
0.767 5.690 2.625
0.990 5.685 2.978
1.332 5.404 3.050
1.478 5.402 3.310
1.728 5.356 3.511
1.442 5.166 3.586
3.643 3.913 5.536
3.906 3.971 5.763
4.098 3.719 5.971
4.310 3.663 6.201
0.285 5.608 2.704
0.577 5.472 2.860
0.749 5.463 3.090
1.017 5.201 3.335
1.281 5.301 3.430
1.548 5.110 3.624
3.596 3.783 5.961
3.923 3.526 6.057
0.256 5.447 2.807
0.398 5.254 3.111
0.499 5.276 3.287
0.923 5.119 3.510
1.064 4.994 3.706
0.217 5.188 3.087
0.300 5.027 3.314
0.500 5.021 3.473
0.094 4.866 3.540
3.544 5.737 3.604
3.972 5.596 3.799
4.201 5.493 4.039
3.555 5.434 3.044
3.664 5.403 3.254
3.904 5.290 3.458
3.033 5.588 3.054
3.155 5.395 3.323
3.546 5.196 3.575
3.825 5.262 3.656
3.961 4.995 3.908
2.639 5.358 3.120
2.885 5.365 3.174
3.025 5.304 3.407
3.369 4.996 3.610
3.524 5.005 3.862
3.671 4.887 4.058
4.014 4.750 4.197
2.139 5.259 2.981
2.485 5.350 3.271
2.650 5.176 3.511
2.892 4.921 3.645
3.088 4.863 3.774
3.331 4.849 4.075
3.464 4.620 4.158
3.746 4.611 4.286
2.082 5.423 2.986
1.853 5.172 3.262
2.180 5.048 3.250
2.476 4.991 3.596
2.603 4.778 3.704
2.834 4.791 3.977
2.986 4.604 4.046
3.203 4.537 4.255
3.537 4.323 4.454
1.438 5.448 2.714
1.689 5.242 2.863
1.955 5.090 3.202
1.712 4.971 3.420
1.990 4.845 3.538
2.223 4.863 3.784
2.421 4.779 3.986
2.510 4.498 4.140
2.754 4.426 4.271
0.569 5.549 2.279
0.860 5.479 2.431
0.992 5.270 2.614
1.310 5.282 2.831
1.497 5.127 3.157
1.793 5.116 3.322
1.567 4.823 3.361
1.635 4.710 3.549
2.066 4.525 3.974
4.298 3.455 5.929
4.658 3.417 6.338
0.472 5.306 2.495
0.607 5.233 2.589
0.933 5.180 2.901
1.077 4.987 3.116
1.221 4.910 3.209
1.618 4.887 3.462
1.399 4.596 3.585
4.057 3.255 6.102
0.203 5.206 2.709
0.438 5.129 2.884
0.681 5.016 3.101
0.775 4.900 3.268
1.018 4.714 3.512
1.218 4.776 3.661
0.289 4.944 3.038
0.447 4.859 3.067
0.576 4.713 3.317
0.921 4.550 3.596
0.289 4.649 3.402
0.334 4.461 3.443
3.572 5.468 3.050
3.667 5.418 3.340
3.921 5.240 3.472
3.401 5.462 2.843
3.470 5.348 2.887
3.759 5.124 3.057
3.869 5.070 3.279
2.861 5.390 2.766
3.140 5.195 2.886
3.298 5.111 3.159
3.546 5.050 3.225
3.675 5.019 3.601
4.050 4.824 3.773
2.537 5.245 2.707
2.693 5.284 2.924
2.911 5.030 2.968
3.081 4.965 3.221
3.424 4.808 3.445
3.663 4.710 3.631
3.800 4.660 3.847
2.456 5.175 2.654
2.126 5.127 2.701
2.489 4.916 3.014
2.561 4.930 3.320
2.899 4.847 3.465
3.172 4.663 3.610
3.247 4.617 3.736
3.562 4.555 3.896
2.123 5.172 2.547
2.189 5.101 2.757
2.089 4.961 3.031
2.200 4.843 3.106
2.431 4.659 3.475
2.578 4.729 3.461
2.895 4.448 3.850
3.125 4.398 3.868
1.470 5.222 2.469
1.740 5.009 2.882
2.120 5.039 2.945
1.824 4.670 3.198
2.054 4.608 3.415
2.344 4.504 3.550
2.567 4.492 3.595
2.699 4.344 3.820
1.028 5.129 2.337
1.132 4.986 2.449
1.340 5.039 2.690
1.524 4.841 2.985
1.699 4.803 3.027
1.670 4.517 3.267
1.774 4.520 3.388
2.131 4.465 3.636
0.405 5.143 2.361
0.672 5.074 2.428
0.811 4.878 2.755
1.184 4.854 2.956
1.441 4.776 2.987
1.662 4.696 3.227
1.346 4.481 3.515
1.527 4.338 3.623
4.368 2.849 6.115
0.351 5.071 2.347
0.515 4.899 2.668
0.627 4.663 2.738
0.894 4.653 3.054
1.215 4.510 3.196
1.414 4.549 3.382
1.251 4.165 3.507
0.154 4.707 2.584
0.188 4.641 2.805
0.465 4.549 2.891
0.743 4.557 3.281
0.806 4.437 3.300
1.247 4.370 3.475
0.032 4.461 3.009
0.190 4.425 3.243
0.416 4.209 3.403
0.604 4.162 3.595
0.086 4.328 3.349
0.182 4.062 3.588
3.376 5.397 2.853
3.458 5.294 2.942
3.686 5.172 3.227
4.000 5.098 3.242
3.268 5.282 2.367
3.388 5.048 2.575
3.602 5.002 2.656
3.707 5.003 3.022
4.136 4.943 3.045
2.798 5.251 2.270
2.858 5.178 2.613
3.162 4.938 2.671
3.279 4.934 2.914
3.604 4.718 3.202
3.860 4.741 3.394
2.753 5.230 2.220
2.427 4.970 2.510
2.725 5.015 2.633
2.866 4.925 2.751
3.045 4.696 3.045
3.396 4.579 3.222
3.556 4.425 3.379
2.485 5.019 2.528
2.328 4.819 2.577
2.421 4.652 2.864
2.702 4.703 2.912
2.848 4.614 3.135
3.208 4.454 3.441
3.307 4.372 3.549
2.097 5.006 2.452
2.254 4.952 2.588
1.991 4.701 2.856
2.292 4.496 3.075
2.587 4.518 3.109
2.730 4.320 3.293
2.884 4.167 3.673
1.692 4.822 2.294
1.781 4.720 2.523
1.971 4.609 2.690
1.865 4.513 2.962
2.015 4.493 3.205
2.396 4.247 3.409
2.478 4.233 3.503
1.117 4.863 2.246
1.428 4.716 2.505
1.557 4.702 2.722
1.785 4.455 2.895
1.674 4.387 3.106
1.811 4.330 3.196
2.117 4.233 3.387
0.679 4.849 2.275
0.998 4.663 2.388
1.268 4.578 2.724
1.308 4.407 2.885
1.645 4.290 3.175
1.314 4.289 3.343
1.593 4.159 3.542
0.357 4.716 2.315
0.544 4.630 2.354
0.790 4.411 2.632
0.908 4.373 2.756
1.252 4.183 3.108
1.526 4.161 3.179
1.229 4.058 3.440
0.121 4.503 2.467
0.298 4.402 2.595
0.616 4.388 2.727
0.813 4.228 3.060
1.080 4.148 3.115
1.209 4.119 3.462
0.883 3.803 3.548
0.031 4.263 2.675
0.318 4.272 2.980
0.463 4.118 3.234
0.833 4.077 3.305
1.010 3.944 3.505
0.068 3.935 3.151
0.374 3.949 3.276
0.496 3.736 3.511
0.152 3.796 3.494
3.494 5.247 2.452
3.860 5.295 2.708
4.113 5.007 2.917
3.139 5.375 2.312
3.302 5.257 2.600
3.651 5.046 2.681
3.875 5.030 2.991
4.144 4.911 3.127
2.991 5.192 1.862
3.318 5.063 2.217
3.519 4.958 2.432
3.745 4.841 2.500
3.933 4.591 2.662
4.062 4.571 3.046
3.040 5.089 1.932
2.838 4.868 2.240
2.905 4.819 2.238
3.316 4.839 2.408
3.357 4.618 2.624
3.646 4.413 2.828
3.792 4.371 3.035
2.668 4.987 2.203
2.481 4.797 2.326
2.859 4.598 2.595
3.104 4.683 2.690
3.125 4.486 2.776
3.352 4.443 3.166
3.646 4.241 3.382
2.440 4.843 2.286
2.394 4.719 2.369
2.576 4.621 2.596
2.776 4.323 2.793
3.069 4.192 3.122
3.210 4.207 3.252
2.225 4.676 2.228
2.374 4.659 2.539
2.207 4.521 2.592
2.403 4.263 2.674
2.451 4.147 2.947
2.884 4.192 3.228
2.015 4.463 2.486
2.019 4.406 2.554
1.885 4.299 2.645
2.123 4.231 3.012
2.365 4.063 3.076
1.449 4.597 2.233
1.583 4.438 2.488
1.996 4.181 2.774
1.656 4.041 2.918
1.852 4.125 3.010
0.993 4.516 2.301
1.199 4.416 2.425
1.523 4.317 2.701
1.582 4.202 2.964
1.451 3.878 2.986
1.785 3.873 3.263
0.643 4.463 2.294
0.706 4.350 2.331
0.999 4.240 2.617
1.185 4.096 2.809
1.518 4.008 2.981
1.168 3.708 3.165
0.161 4.233 2.091
0.312 4.270 2.337
0.653 4.002 2.685
0.922 4.027 2.687
0.921 3.850 2.942
1.230 3.835 3.145
0.955 3.689 3.315
0.206 4.043 2.474
0.356 4.009 2.710
0.698 3.920 2.945
0.706 3.698 3.046
1.047 3.604 3.294
0.707 3.529 3.525
0.128 3.697 2.814
0.298 3.693 3.098
0.485 3.542 3.353
0.883 3.475 3.453
0.114 3.535 3.353
0.305 3.296 3.384
0.069 3.100 3.684
3.755 5.263 1.865
3.949 5.156 2.105
3.997 5.131 2.215
3.370 5.292 2.099
3.563 5.019 2.222
3.816 5.000 2.439
4.004 4.880 2.651
2.995 5.097 2.042
3.249 5.126 2.098
3.349 4.799 2.459
3.673 4.855 2.632
3.900 4.645 2.686
4.076 4.539 2.886
3.052 5.058 1.999
2.967 4.906 1.882
3.304 4.701 1.949
3.386 4.601 2.108
3.721 4.455 2.402
3.998 4.475 2.649
4.259 4.435 2.830
3.142 4.915 1.852
2.736 4.690 1.923
3.069 4.579 2.106
3.218 4.598 2.241
3.441 4.291 2.644
3.739 4.184 2.648
3.905 4.077 2.993
2.748 4.639 1.897
2.655 4.495 2.094
2.839 4.532 2.335
3.042 4.246 2.552
3.250 4.117 2.622
3.538 4.082 2.764
2.506 4.531 2.129
2.446 4.324 2.329
2.591 4.259 2.363
2.876 4.165 2.675
3.135 4.041 2.921
2.458 4.370 2.163
2.142 4.152 2.371
2.394 3.986 2.542
2.714 3.953 2.766
2.275 4.129 2.471
1.906 4.088 2.596
2.071 3.992 2.698
1.675 4.234 2.427
2.001 4.043 2.639
1.711 3.893 2.744
1.263 4.150 2.235
1.517 3.957 2.392
1.681 3.987 2.750
1.471 3.704 2.762
0.971 3.942 2.266
1.106 3.906 2.479
1.277 3.895 2.622
1.404 3.794 2.835
1.325 3.462 3.002
0.325 4.049 2.314
0.542 3.945 2.317
0.784 3.672 2.680
1.140 3.546 2.807
1.419 3.624 2.988
1.126 3.276 3.172
0.123 3.691 2.291
0.369 3.633 2.664
0.602 3.536 2.747
0.882 3.409 3.050
1.003 3.354 3.216
0.927 3.181 3.239
0.250 3.415 2.706
0.480 3.360 2.918
0.678 3.354 2.998
0.962 3.254 3.330
0.759 3.133 3.490
0.188 3.310 2.950
0.426 3.245 3.363
0.674 3.139 3.569
0.340 2.907 3.540
0.254 3.032 3.513
0.529 2.919 3.701
4.581 6.010 0.647
4.199 6.298 0.238
4.448 6.267 0.551
4.609 6.090 0.712
4.317 5.830 0.854
4.026 6.012 0.552
4.186 6.099 0.710
4.312 6.005 0.889
4.161 5.664 0.984
4.305 5.725 1.204
3.911 5.891 0.823
4.114 5.766 0.926
3.845 5.540 1.279
4.060 5.514 1.483
4.458 5.284 1.602
3.938 5.572 1.174
3.725 5.496 1.319
3.946 5.320 1.640
4.092 5.132 1.769
4.275 4.961 2.025
3.685 5.419 1.256
3.523 5.244 1.518
3.767 5.013 1.668
3.897 5.054 1.800
4.250 4.982 2.076
4.433 4.746 2.368
3.494 5.185 1.376
3.191 5.119 1.728
3.504 5.046 1.845
3.644 4.807 2.010
3.910 4.743 2.317
4.238 4.565 2.402
4.323 4.521 2.713
3.347 4.958 1.526
3.033 4.861 1.718
3.381 4.683 2.026
3.408 4.670 2.265
3.800 4.611 2.447
3.854 4.393 2.589
4.232 4.370 2.710
3.015 4.993 1.851
3.194 4.657 1.496
3.371 4.597 1.691
3.439 4.366 2.041
3.677 4.297 2.129
4.086 4.101 2.405
4.102 4.087 2.589
3.133 4.551 1.656
3.074 4.294 1.968
3.437 4.178 2.153
3.531 4.055 2.223
3.867 3.936 2.634
2.966 4.250 2.102
3.134 4.185 2.253
3.435 3.885 2.521
0.803 3.593 2.300
0.907 3.604 2.513
1.091 3.346 2.594
0.292 3.465 2.199
0.592 3.390 2.256
0.696 3.329 2.484
0.867 3.164 2.673
0.997 2.960 3.082
-0.067 3.475 2.225
0.243 3.183 2.414
0.457 3.237 2.607
0.647 3.071 2.830
0.860 3.022 3.192
0.798 2.708 3.196
0.073 2.999 2.772
0.184 2.953 2.805
0.533 2.981 3.091
0.678 2.851 3.378
0.416 2.584 3.523
-0.017 2.751 3.068
0.174 2.731 3.265
0.466 2.672 3.482
4.695 5.787 0.536
4.919 5.683 0.737
4.127 5.983 0.118
4.513 5.991 0.255
4.521 5.870 0.590
4.402 5.597 0.627
4.632 5.617 0.957
3.735 6.084 0.198
4.027 5.846 0.221
4.206 5.837 0.559
4.436 5.734 0.712
4.292 5.545 0.749
4.444 5.411 1.123
4.513 5.183 1.115
3.730 5.643 0.484
3.941 5.589 0.711
4.199 5.514 0.793
3.962 5.281 1.078
4.241 5.169 1.267
4.526 4.996 1.353
4.696 4.879 1.589
3.857 5.418 0.676
3.875 5.266 0.917
3.739 5.088 1.125
3.995 5.068 1.404
4.233 4.842 1.485
4.487 4.900 1.844
4.667 4.756 1.890
3.527 5.169 0.988
3.857 5.204 1.254
3.625 4.901 1.401
3.669 4.776 1.569
3.920 4.805 1.688
4.202 4.644 1.829
4.349 4.560 2.159
4.679 4.522 2.349
3.624 4.923 1.326
3.204 4.828 1.364
3.588 4.652 1.736
3.838 4.598 1.939
3.877 4.452 2.111
4.306 4.410 2.229
4.500 4.335 2.401
3.389 4.737 1.384
3.011 4.536 1.520
3.247 4.528 1.807
3.497 4.406 1.948
3.772 4.207 2.156
3.878 4.284 2.491
4.150 4.032 2.581
3.108 4.647 1.654
3.377 4.326 1.500
3.689 4.091 1.898
3.734 3.994 1.978
3.949 4.056 2.131
4.332 3.941 2.420
3.486 3.997 1.940
3.616 3.901 2.127
3.832 3.758 2.332
0.304 3.294 2.089
0.505 3.202 2.075
0.668 3.170 2.405
0.122 3.113 2.040
0.336 2.969 2.328
0.613 2.915 2.467
0.862 2.923 2.726
0.647 2.655 3.131
0.189 2.946 2.567
0.313 2.777 2.774
0.647 2.598 2.967
0.677 2.461 3.164
0.427 2.378 3.140
0.165 2.619 2.737
0.438 2.541 2.971
0.620 2.349 3.121
4.726 5.507 0.248
4.934 5.369 0.556
4.541 5.612 0.112
4.658 5.646 0.288
4.384 5.386 0.530
4.628 5.272 0.623
4.997 5.152 0.800
3.936 5.645 0.182
4.262 5.530 0.255
4.533 5.424 0.564
4.292 5.188 0.544
4.367 5.200 0.862
4.793 5.093 1.109
4.968 5.020 1.335
3.622 5.444 -0.000
3.897 5.469 0.349
4.013 5.326 0.379
4.191 5.254 0.656
4.112 5.120 0.687
4.213 5.011 0.937
4.544 4.932 1.185
4.582 4.645 1.415
5.007 4.629 1.686
3.541 5.385 0.488
3.784 5.289 0.665
4.126 5.162 0.805
3.754 4.814 0.995
3.919 4.777 1.162
4.318 4.677 1.350
4.364 4.493 1.502
4.673 4.439 1.707
4.956 4.343 1.963
3.647 5.115 0.845
3.780 5.003 0.860
3.588 4.840 1.181
3.913 4.694 1.276
4.055 4.627 1.433
4.202 4.510 1.717
4.536 4.321 1.855
4.667 4.260 2.196
3.616 4.622 1.117
3.385 4.455 1.137
3.619 4.448 1.562
3.800 4.439 1.602
3.975 4.293 1.793
4.163 4.095 2.020
4.459 3.963 2.263
3.380 4.664 1.326
3.339 4.278 1.509
3.686 4.256 1.764
3.801 4.017 2.017
4.044 4.004 2.235
4.272 3.854 2.313
3.721 4.013 1.538
3.982 3.820 1.867
4.129 3.798 2.067
4.277 3.531 2.244
0.219 2.812 1.840
0.278 2.775 2.054
0.523 2.699 2.247
4.008 0.839 5.543
0.057 2.570 2.296
0.293 2.582 2.513
0.670 2.411 2.630
0.480 2.092 3.030
3.698 0.549 5.803
0.245 2.290 2.676
0.485 2.212 2.793
0.542 2.242 3.112
4.655 5.217 0.145
5.006 5.312 0.257
4.788 5.246 0.232
4.541 5.136 0.377
4.708 4.969 0.454
4.917 4.934 0.740
4.343 5.370 0.173
4.451 5.240 0.210
4.216 4.894 0.548
4.576 4.873 0.556
4.655 4.858 0.941
5.050 4.571 1.063
5.171 4.589 1.314
3.860 5.103 0.086
4.002 5.176 0.314
4.235 4.980 0.461
4.112 4.734 0.645
4.368 4.653 0.770
4.474 4.644 0.890
4.804 4.547 1.198
4.846 4.347 1.403
5.219 4.208 1.563
3.631 5.044 0.213
3.931 4.869 0.475
4.007 4.876 0.648
3.837 4.577 0.648
4.069 4.608 1.051
4.352 4.419 1.083
4.431 4.273 1.317
4.734 4.201 1.435
5.032 4.012 1.841
5.196 4.125 1.926
3.572 4.870 0.508
3.941 4.665 0.682
3.543 4.376 0.865
3.814 4.310 1.161
4.060 4.303 1.199
4.223 4.160 1.427
4.478 4.034 1.671
4.658 3.867 1.884
5.034 3.838 2.008
3.615 4.473 0.940
3.715 4.192 1.289
3.958 4.143 1.454
4.042 4.100 1.607
4.379 3.875 1.901
4.539 3.832 2.027
4.647 3.772 2.214
3.547 3.860 1.569
3.881 3.777 1.748
3.992 3.716 2.064
4.201 3.654 2.237
3.917 3.695 1.682
4.243 3.478 1.901
4.407 3.325 2.088
0.223 2.744 1.857
0.311 2.597 1.945
3.864 0.508 5.509
0.109 2.455 2.052
0.417 2.291 2.309
3.502 0.474 5.332
3.653 0.284 5.540
0.314 2.222 2.338
0.526 2.000 2.658
4.639 4.828 0.132
4.670 4.843 0.379
5.119 4.656 0.541
4.678 5.030 0.163
4.422 4.716 0.250
4.639 4.729 0.573
4.691 4.477 0.754
5.103 4.447 0.805
5.259 4.326 1.010
5.385 4.120 1.327
4.196 4.805 0.048
4.384 4.690 0.225
4.151 4.472 0.379
4.377 4.397 0.493
4.607 4.415 0.852
4.860 4.246 0.967
5.070 4.074 1.200
5.264 3.960 1.424
5.417 3.967 1.679
5.749 3.789 1.894
3.654 4.828 -0.066
4.014 4.727 0.117
4.132 4.529 0.511
3.938 4.486 0.453
4.051 4.335 0.809
4.348 4.320 0.986
4.596 4.017 1.146
4.765 3.915 1.284
4.938 3.990 1.651
5.270 3.863 1.798
5.567 3.670 2.033
3.818 4.422 0.589
3.871 4.138 0.959
4.236 4.061 1.186
4.346 3.963 1.373
4.589 3.876 1.456
4.812 3.747 1.729
5.038 3.535 1.830
5.271 3.476 2.071
4.016 3.975 1.374
4.069 3.840 1.549
4.283 3.677 1.740
4.625 3.442 1.964
4.773 3.448 2.014
3.904 3.570 1.613
4.193 3.509 1.788
4.470 3.472 2.054
4.206 3.306 1.660
4.519 3.249 1.925
4.591 2.964 1.943
4.107 0.549 5.032
0.133 2.497 1.347
0.251 2.437 1.551
3.675 0.510 5.095
3.941 0.378 5.305
0.102 2.311 1.704
0.194 2.253 1.803
3.250 0.373 4.953
3.449 0.357 5.141
3.752 0.185 5.407
0.140 2.056 2.112
0.351 1.886 2.148
4.321 4.562 0.067
4.735 4.391 0.294
4.815 4.182 0.362
4.989 4.115 0.721
5.286 4.134 0.919
5.583 4.083 1.128
5.697 3.962 1.187
5.828 3.811 1.390
6.151 3.769 1.623
4.488 4.428 0.175
4.241 4.296 0.230
4.355 4.180 0.342
4.526 4.181 0.526
4.899 4.094 0.911
5.014 3.957 0.974
5.362 3.899 1.111
5.531 3.678 1.296
5.732 3.706 1.530
5.989 3.377 1.850
6.081 3.404 1.957
4.109 4.436 0.333
4.085 4.038 0.631
4.418 4.051 0.821
4.695 3.882 0.873
4.790 3.746 1.242
4.964 3.605 1.381
5.188 3.622 1.620
5.398 3.431 1.798
5.725 3.427 2.060
5.911 3.131 2.159
4.128 3.839 1.033
4.503 3.642 1.195
4.716 3.529 1.260
4.878 3.374 1.439
5.125 3.266 1.697
5.362 3.359 1.966
5.427 3.229 2.061
4.125 3.474 1.296
4.310 3.514 1.358
4.747 3.304 1.588
4.755 3.243 1.835
5.124 3.201 2.089
4.275 3.250 1.699
4.471 3.087 1.711
4.566 3.041 2.078
4.561 2.980 1.507
4.729 2.686 1.883
4.819 2.705 2.017
3.942 0.239 4.627
4.333 0.275 4.834
-0.001 2.386 1.168
3.708 0.260 4.663
3.870 0.256 4.787
3.962 -0.024 4.976
0.013 1.948 1.530
3.090 0.241 4.701
3.443 0.105 4.853
3.583 -0.079 5.084
0.036 1.624 1.750
5.465 3.725 0.921
5.762 3.742 1.158
6.014 3.607 1.234
6.139 3.489 1.476
4.838 3.688 0.609
5.117 3.590 0.722
5.290 3.503 0.936
5.582 3.447 1.218
5.866 3.349 1.467
5.981 3.220 1.597
6.320 3.067 1.831
4.699 3.530 0.844
5.012 3.584 1.028
5.109 3.395 1.163
5.383 3.294 1.399
5.486 3.195 1.627
5.862 3.014 1.669
5.924 2.931 1.964
6.253 2.779 2.227
4.404 3.549 0.920
4.793 3.367 1.183
4.894 3.275 1.377
5.048 3.231 1.494
5.314 3.109 1.802
5.634 2.986 2.025
5.700 2.860 2.143
4.561 3.059 1.282
4.625 3.006 1.377
4.803 2.997 1.642
5.030 2.815 1.817
5.380 2.738 1.982
4.414 2.893 1.566
4.619 2.736 1.816
4.964 2.703 1.988
4.615 2.745 1.336
4.720 2.648 1.587
4.896 2.454 1.764
5.273 2.359 1.920
3.913 0.280 4.307
4.218 0.185 4.469
4.402 0.035 4.820
0.172 2.113 1.052
3.460 0.252 4.267
3.616 0.111 4.485
0.194 1.874 1.247
3.066 0.099 4.142
5.858 3.354 0.834
5.969 3.309 1.013
6.328 3.210 1.232
5.504 3.370 0.791
5.588 3.120 0.987
5.737 3.010 1.302
5.939 2.957 1.392
6.247 2.875 1.587
4.846 3.371 0.686
5.084 3.073 0.984
5.485 3.159 1.208
5.517 2.879 1.418
5.854 2.865 1.653
6.000 2.648 1.663
6.195 2.646 1.964
4.746 3.198 0.993
4.903 3.068 1.098
5.216 2.802 1.265
5.316 2.786 1.566
5.716 2.586 1.735
5.889 2.661 1.986
6.060 2.474 2.183
4.494 2.954 1.027
4.630 2.912 1.293
5.071 2.706 1.510
5.279 2.684 1.721
5.338 2.472 1.827
5.713 2.309 2.172
4.536 2.675 1.385
4.740 2.500 1.556
4.913 2.424 1.715
5.270 2.249 1.942
4.496 2.368 1.220
4.907 2.343 1.344
5.097 2.157 1.576
5.353 2.041 1.941
5.493 2.091 2.035
4.678 2.164 1.592
4.801 1.981 1.850
4.911 1.835 2.000
4.128 0.031 4.008
4.303 -0.011 4.150
3.784 0.004 3.938
0.274 1.702 0.878
3.396 0.125 3.873
6.079 3.084 0.859
5.694 2.974 0.829
5.835 2.853 1.115
6.078 2.707 1.292
5.314 2.804 0.846
5.404 2.893 1.025
5.692 2.631 1.284
5.836 2.642 1.404
6.143 2.461 1.600
4.918 2.801 1.035
5.323 2.731 1.215
5.438 2.449 1.386
5.572 2.401 1.629
5.821 2.363 1.703
6.138 2.203 1.910
4.807 2.580 1.069
5.047 2.423 1.167
5.300 2.461 1.450
5.520 2.275 1.731
5.746 2.083 1.937
5.792 1.959 2.142
4.628 2.329 1.282
4.886 2.380 1.501
5.044 2.225 1.609
5.271 2.094 1.881
5.412 2.091 2.012
4.600 2.067 1.075
4.763 1.958 1.348
5.097 1.891 1.467
5.314 1.952 1.689
5.558 1.646 1.736
5.721 1.623 2.020
4.549 1.982 1.324
4.800 1.897 1.598
5.074 1.761 1.855
5.308 1.530 1.870
4.626 1.644 1.747
4.769 1.431 1.904
5.114 1.466 2.210
4.170 0.097 3.476
4.407 0.120 3.564
3.943 -0.092 3.696
0.172 1.469 0.568
-0.002 1.450 0.640
5.869 2.730 0.886
6.083 2.620 1.098
5.593 2.500 0.853
5.820 2.570 0.990
5.981 2.396 1.239
6.124 2.268 1.377
5.129 2.509 0.777
5.325 2.485 0.992
5.582 2.394 1.190
5.833 2.113 1.274
6.027 2.008 1.603
6.130 1.922 1.690
4.735 2.336 0.876
5.139 2.305 1.202
5.264 2.033 1.245
5.412 1.948 1.397
5.743 1.989 1.590
5.949 1.894 1.986
4.722 2.050 1.048
4.843 2.069 1.300
5.045 1.966 1.408
5.318 1.753 1.669
5.515 1.699 1.750
5.778 1.610 2.032
4.569 1.973 0.782
4.817 1.775 0.963
5.120 1.617 1.334
5.360 1.484 1.498
5.543 1.388 1.653
5.704 1.462 1.766
4.395 1.762 1.095
4.741 1.625 1.272
4.918 1.498 1.325
5.193 1.467 1.555
5.374 1.351 1.803
5.570 1.299 1.880
4.550 1.535 1.383
4.594 1.409 1.502
4.984 1.196 1.671
5.065 1.179 2.029
5.249 0.976 2.144
4.542 1.162 1.596
4.604 0.981 1.864
4.948 0.992 2.063
5.140 0.940 2.220
4.584 0.851 2.159
4.696 0.902 2.215
4.800 0.789 2.519
4.556 0.623 2.468
4.732 0.453 2.533
4.917 0.366 2.721
4.520 0.429 2.699
4.632 0.196 2.942
5.015 0.275 3.196
4.159 0.274 2.963
4.574 0.167 3.185
4.118 0.050 3.152
0.515 1.531 0.278
0.386 1.308 0.296
-0.002 1.226 0.514
6.298 2.175 0.849
5.711 2.317 0.811
6.104 2.165 1.093
6.334 2.114 1.290
5.280 2.249 0.699
5.638 1.966 0.901
5.880 1.857 1.142
6.109 1.855 1.313
6.129 1.691 1.602
4.815 2.002 0.726
5.095 2.069 0.948
5.401 1.959 1.044
5.588 1.782 1.179
5.684 1.695 1.406
6.023 1.478 1.686
4.752 2.027 0.752
4.965 1.766 1.114
5.097 1.818 1.347
5.418 1.513 1.356
5.449 1.440 1.576
5.668 1.469 1.783
4.818 1.751 0.613
4.879 1.518 0.817
5.181 1.365 1.062
5.449 1.436 1.327
5.525 1.286 1.563
5.898 1.063 1.570
4.549 1.561 0.706
4.634 1.484 0.913
4.942 1.407 1.134
5.231 1.185 1.477
5.391 1.070 1.662
5.506 1.055 1.885
4.391 1.336 0.851
4.452 1.233 1.065
4.798 1.191 1.342
4.949 0.991 1.494
5.137 0.918 1.801
5.411 0.699 2.018
4.244 1.155 1.333
4.464 0.891 1.414
4.812 0.883 1.666
5.050 0.691 1.902
5.295 0.651 2.077
5.505 0.529 2.187
4.402 0.864 1.632
4.586 0.776 1.781
4.792 0.639 2.060
5.013 0.573 2.153
5.223 0.454 2.535
4.371 0.504 1.919
4.524 0.448 2.181
4.860 0.213 2.486
5.048 0.082 2.526
5.258 0.015 2.731
4.359 0.314 2.451
4.535 0.177 2.468
4.845 0.008 2.700
3.983 0.004 2.608
0.599 1.146 0.030
0.358 0.987 0.154
5.605 1.869 0.667
5.892 1.745 1.020
5.965 1.574 1.064
5.114 1.748 0.690
5.484 1.652 0.833
5.596 1.571 1.206
5.806 1.339 1.244
4.636 1.574 0.615
5.033 1.525 0.761
5.087 1.516 1.111
5.314 1.421 1.148
5.503 1.347 1.466
5.866 1.245 1.745
4.691 1.393 0.552
4.919 1.407 0.626
5.217 1.130 0.794
5.340 1.096 1.064
5.644 0.953 1.365
4.691 1.332 0.624
4.908 1.219 0.778
5.053 1.109 1.039
5.216 0.878 1.281
5.369 0.802 1.504
5.568 0.706 1.506
4.263 1.003 0.884
4.619 1.050 0.867
4.818 0.838 1.177
5.130 0.734 1.432
5.215 0.645 1.619
5.556 0.640 1.654
4.160 0.902 0.806
4.405 0.817 1.171
4.682 0.638 1.257
4.729 0.655 1.573
5.113 0.431 1.812
5.275 0.417 2.016
5.568 0.181 1.999
4.253 0.674 1.325
4.382 0.558 1.496
4.488 0.457 1.642
4.807 0.303 1.841
5.033 0.261 2.058
5.321 0.045 2.207
5.411 0.121 2.566
4.121 0.362 1.680
4.431 0.362 1.778
4.513 0.249 1.920
4.699 0.053 2.208
4.053 0.125 2.041
0.314 0.802 0.079
5.255 1.568 0.525
5.438 1.345 0.803
5.656 1.189 1.019
4.901 1.485 0.512
5.019 1.334 0.723
5.174 1.305 0.831
5.545 1.147 0.970
5.604 0.896 1.232
4.887 1.085 0.172
5.039 0.972 0.562
5.290 1.003 0.636
5.536 0.839 0.940
4.345 1.086 0.124
4.688 0.934 0.408
4.924 0.861 0.526
5.125 0.708 0.731
5.230 0.759 0.910
5.477 0.542 1.133
4.232 1.020 0.431
4.520 0.912 0.641
4.649 0.834 0.669
4.962 0.712 0.946
4.987 0.559 1.092
5.324 0.352 1.425
5.412 0.405 1.656
3.892 0.687 0.454
4.080 0.718 0.834
4.479 0.575 1.044
4.631 0.434 1.019
4.832 0.445 1.419
5.127 0.299 1.539
5.370 0.148 1.603
5.522 0.151 1.804
3.908 0.538 0.803
4.205 0.487 1.117
4.466 0.240 1.216
4.583 0.272 1.463
4.967 0.046 1.693
4.072 0.273 1.337
4.204 0.177 1.341
4.502 0.047 1.671
4.821 1.144 0.379
5.103 1.094 0.470
5.218 0.873 0.599
5.594 0.892 0.770
3.933 5.845 3.876
4.087 5.622 4.049
4.201 5.652 4.212
3.302 5.696 3.905
3.629 5.671 4.003
3.710 5.514 4.185
3.944 5.500 4.568
4.349 5.373 4.714
3.010 5.615 3.864
3.078 5.493 3.997
3.401 5.555 4.159
3.691 5.438 4.371
3.917 5.148 4.700
4.024 5.139 4.756
4.378 5.006 5.127
2.665 5.630 3.969
2.841 5.377 4.192
3.059 5.228 4.311
3.299 5.112 4.545
3.625 5.199 4.698
3.872 5.033 4.915
4.034 4.862 5.135
4.253 4.712 5.446
2.606 5.306 4.162
2.773 5.338 4.438
2.885 5.157 4.590
3.267 5.140 4.844
3.457 5.019 4.814
3.534 4.855 5.153
3.741 4.646 5.231
3.964 4.532 5.631
4.200 4.434 5.655
4.552 4.311 5.813
2.794 4.921 4.770
2.917 4.952 4.845
3.100 4.749 5.078
3.447 4.606 5.353
3.681 4.559 5.416
3.913 4.411 5.693
3.998 4.214 5.757
4.256 4.227 6.124
4.378 4.087 6.362
0.552 6.123 2.694
3.155 4.547 5.371
3.401 4.431 5.519
3.561 4.177 5.828
3.924 4.268 6.051
4.115 4.068 6.232
0.231 5.962 2.956
0.560 5.862 2.973
0.825 5.536 3.327
3.393 4.037 5.937
3.707 3.986 6.162
0.199 5.616 3.033
0.432 5.479 3.104
0.625 5.386 3.371
-0.003 5.482 3.433
0.340 5.408 3.471
3.825 5.729 3.815
4.141 5.647 4.186
4.188 5.532 4.229
3.723 5.606 3.456
3.791 5.517 3.684
4.092 5.473 3.993
3.307 5.533 3.435
3.528 5.465 3.776
3.609 5.435 3.821
3.804 5.251 4.154
4.050 5.066 4.247
2.726 5.546 3.514
2.887 5.466 3.657
3.239 5.430 3.835
3.451 5.109 3.995
3.620 5.228 4.332
3.997 4.978 4.366
4.008 4.903 4.664
2.257 5.559 3.452
2.568 5.363 3.562
2.686 5.312 3.695
3.006 5.065 3.989
3.120 5.043 4.093
3.342 4.896 4.273
3.681 4.782 4.553
3.813 4.743 4.686
4.014 4.689 5.027
1.989 5.322 3.377
2.121 5.291 3.608
2.326 5.217 3.661
2.576 5.219 4.000
2.841 5.082 4.194
2.893 4.974 4.428
3.113 4.882 4.642
3.479 4.576 4.804
3.598 4.569 4.933
3.802 4.378 5.228
4.182 4.413 5.414
1.912 5.535 3.282
1.695 5.294 3.529
1.883 5.140 3.751
2.193 5.145 3.869
2.421 4.847 4.104
2.664 4.930 4.178
2.847 4.771 4.602
3.039 4.706 4.746
3.336 4.565 4.905
3.349 4.509 5.108
3.670 4.390 5.342
3.924 4.231 5.474
4.217 4.036 5.754
4.376 4.026 5.854
4.646 3.972 5.951
4.675 3.777 6.317
0.540 5.872 2.506
0.692 5.688 2.778
0.977 5.520 2.802
1.241 5.411 3.133
1.401 5.420 3.206
1.792 5.193 3.430
1.566 4.991 3.642
3.709 3.923 5.553
3.900 3.955 5.799
4.005 3.761 5.920
4.288 3.582 6.118
0.377 5.566 2.567
0.652 5.445 2.766
0.886 5.434 3.031
1.095 5.351 3.363
1.234 5.295 3.556
1.522 4.982 3.763
3.755 3.678 5.963
3.981 3.549 6.144
0.195 5.478 2.802
0.470 5.237 2.905
0.677 5.216 3.215
0.821 5.107 3.389
1.139 5.039 3.520
0.043 5.243 3.280
0.302 5.012 3.344
0.542 4.980 3.553
0.160 4.918 3.630
3.594 5.617 3.431
3.840 5.605 3.754
4.166 5.543 4.018
5.101 3.333 6.326
5.249 2.977 6.227
4.798 3.088 6.214
5.699 2.684 6.307
5.112 2.651 6.314
4.687 2.687 6.184
5.539 2.251 6.233
4.971 2.184 6.087
4.461 2.186 6.131
5.685 1.876 6.243
5.303 1.957 6.143
4.801 1.886 6.040
4.494 1.787 6.032
4.241 1.705 6.353
5.009 1.408 6.141
4.545 1.419 6.189
4.266 1.458 6.156
4.425 1.137 6.365
4.079 1.301 6.143
4.726 1.191 5.950
4.850 1.105 6.212
4.292 1.005 5.922
4.599 1.080 6.141
4.660 0.973 6.234
3.990 1.012 6.008
4.322 0.798 6.290
3.906 0.810 6.191
4.367 0.806 5.732
4.477 0.807 5.995
4.656 0.696 6.009
5.068 0.611 6.377
4.111 0.786 5.844
4.219 0.515 6.144
4.545 0.546 6.120
3.877 0.552 5.979
4.100 0.401 6.245
4.349 0.646 5.458
4.561 0.484 5.741
4.775 0.475 5.776
4.169 0.387 5.681
4.469 0.386 5.846
4.512 0.153 6.115
4.890 0.234 6.122
3.870 0.252 5.705
4.096 0.245 5.977
4.467 -0.024 6.277
4.399 0.326 5.276
4.556 0.307 5.514
4.120 0.284 5.389
4.489 -0.001 5.717
3.886 0.111 5.585
4.597 0.065 5.216
5.238 0.493 0.087
4.624 0.602 0.081
4.943 0.445 0.281
5.183 0.261 0.461
4.618 0.467 0.290
4.848 0.290 0.382
5.009 0.217 0.580
5.239 0.049 0.719
4.192 0.229 0.173
4.289 0.102 0.454
4.511 0.079 0.617
3.674 0.142 0.020
3.849 0.202 0.253
4.193 -0.077 0.573
3.296 0.122 0.010
3.363 0.158 0.236
5.258 0.592 0.150
5.108 0.079 0.028
4.532 0.035 0.059
4.795 0.071 0.221
4.866 0.856 0.149
5.085 0.784 0.166
5.334 0.809 0.493
4.454 0.983 0.041
4.593 0.851 0.153
4.998 0.694 0.400
5.220 0.605 0.580
5.434 0.375 0.757
4.309 0.757 0.160
4.464 0.547 0.499
4.593 0.406 0.476
4.876 0.404 0.687
5.085 0.292 0.939
5.412 0.279 1.173
3.716 0.686 0.184
3.913 0.593 0.244
4.310 0.468 0.583
4.553 0.426 0.739
4.706 0.159 1.026
4.806 0.208 1.106
5.120 -0.056 1.365
3.548 0.411 0.222
3.926 0.436 0.528
4.010 0.283 0.727
4.320 0.268 0.826
4.392 0.033 0.990
3.847 0.067 0.923
3.978 0.026 0.981
5.013 0.877 -0.012
5.177 0.944 0.222
5.433 0.647 0.362
5.183 0.525 0.084
4.848 0.586 -0.045
4.854 0.461 0.264
5.278 0.229 0.534
4.531 0.446 0.262
4.835 0.206 0.342
4.940 0.167 0.603
5.245 0.062 0.696
4.036 0.351 0.070
4.405 0.255 0.401
4.554 -0.003 0.536
3.580 0.175 0.216
3.857 0.250 0.361
4.187 0.140 0.387
3.149 0.170 -0.044
3.429 -0.019 0.268
5.273 0.688 0.168
0.304 2.636 3.771
0.279 2.740 3.720
-0.052 2.008 4.502
0.092 1.676 5.026
-0.011 1.515 5.320
-0.105 1.078 5.685
0.238 2.420 3.641
0.552 2.409 3.679
0.031 2.624 3.462
0.348 2.357 3.497
0.048 2.196 3.698
0.308 2.079 4.013
0.154 2.208 3.690
0.062 2.047 3.987
0.390 2.010 4.256
0.042 1.635 4.313
0.335 1.586 4.662
0.008 1.382 4.779
0.262 1.246 4.959
0.135 1.095 5.047
0.198 1.051 5.379
0.042 0.887 5.355
0.232 2.172 3.260
0.483 2.176 3.654
0.058 2.218 3.263
0.394 2.271 3.296
0.066 2.153 3.599
0.292 2.042 3.762
0.566 1.751 3.850
0.146 2.158 3.413
0.136 1.699 3.902
0.409 1.757 4.124
0.441 1.655 4.249
0.181 1.575 4.305
0.277 1.399 4.521
0.486 1.303 4.654
0.225 1.109 4.613
0.255 1.157 4.699
0.506 1.036 5.033
0.130 0.899 4.936
0.287 0.737 5.003
0.071 0.553 5.267
0.310 1.950 3.290
0.559 1.896 3.466
3.546 0.560 5.879
0.042 2.060 2.956
0.393 2.026 3.227
0.144 1.798 3.293
0.468 1.729 3.443
0.607 1.530 3.695
0.076 1.849 3.427
0.252 1.592 3.695
0.308 1.439 3.768
0.575 1.321 3.990
0.765 1.249 4.308
0.103 1.350 4.054
0.285 1.228 4.196
0.487 1.052 4.321
0.729 1.034 4.686
0.231 0.896 4.450
0.450 0.944 4.678
0.607 0.767 4.840
0.720 0.716 5.016
0.135 0.583 4.798
0.313 0.647 4.954
0.700 0.424 5.023
0.132 0.366 5.053
0.471 0.234 5.327
-0.066 0.060 5.148
0.422 1.702 3.061
3.375 0.338 5.652
3.583 0.236 5.752
0.296 1.904 2.890
0.541 1.812 3.066
0.204 1.519 3.229
0.474 1.560 3.452
0.732 1.404 3.424
3.067 0.239 5.593
3.205 0.170 6.005
0.193 1.669 3.075
0.199 1.206 3.461
0.339 1.155 3.793
0.627 0.962 3.836
0.878 0.963 4.168
1.105 0.807 4.185
0.163 1.101 3.854
0.494 0.807 4.080
0.587 0.896 4.344
0.863 0.799 4.470
1.130 0.488 4.681
1.243 0.545 4.886
-0.109 0.935 3.999
0.278 0.727 4.078
0.406 0.687 4.429
0.678 0.475 4.644
0.926 0.317 4.733
1.158 0.241 5.073
-0.071 0.466 4.263
0.227 0.386 4.566
0.534 0.390 4.638
0.730 0.351 4.860
0.929 0.110 5.127
0.055 0.294 4.618
0.216 0.138 4.956
0.415 -0.009 5.138
-0.107 0.040 5.150
2.870 0.232 4.950
3.045 0.147 5.060
3.309 0.051 5.281
0.001 1.735 2.427
0.218 1.621 2.666
0.204 1.264 2.956
2.497 0.195 4.912
2.704 0.044 5.175
2.938 -0.021 5.376
-0.030 1.352 2.654
0.300 1.287 3.033
0.113 1.248 3.092
0.355 0.971 3.218
0.530 0.832 3.387
0.726 0.739 3.712
0.980 0.684 3.842
1.172 0.703 4.119
1.413 0.553 4.276
1.652 0.512 4.461
1.788 0.328 4.647
2.087 0.109 4.965
2.299 0.075 4.969
0.012 1.096 3.105
-0.023 0.757 3.336
0.255 0.832 3.599
0.517 0.701 3.810
0.649 0.438 4.149
0.912 0.552 4.131
1.048 0.291 4.534
1.374 0.332 4.665
1.646 0.089 4.716
1.843 -0.086 4.991
0.121 0.511 3.868
0.269 0.502 3.936
0.509 0.298 4.172
0.599 0.225 4.342
1.002 0.084 4.628
1.152 0.028 4.832
0.067 0.293 4.131
0.279 0.270 4.309
0.572 0.140 4.426
0.022 0.115 4.495
2.758 0.237 4.465
2.918 -0.025 4.702
2.102 0.249 4.269
2.371 0.060 4.525
2.480 -0.069 4.816
1.313 0.387 3.789
1.315 0.191 4.103
1.580 0.039 4.317
1.898 0.032 4.446
0.444 0.336 3.676
0.694 0.294 3.906
0.953 0.170 4.030
1.234 -0.009 4.350
0.334 0.253 3.840
0.486 0.022 4.013
0.869 0.018 4.305
0.042 0.077 4.043
2.665 0.083 4.282
1.576 0.087 3.862
3.660 0.281 6.091
3.671 0.078 5.962
3.980 0.129 6.222
