4.917 5.586 6.356
6.278 5.541 5.105
6.043 5.544 5.480
5.908 5.492 5.603
5.582 5.504 5.619
5.499 5.372 5.650
5.130 5.342 5.806
4.857 5.420 5.997
4.851 5.320 6.359
6.066 5.041 6.142
5.782 5.073 6.183
6.091 4.978 5.663
5.806 5.299 5.737
5.712 5.010 6.107
5.594 5.098 6.029
6.001 5.250 5.802
5.721 5.166 5.886
5.529 5.362 5.897
5.553 5.406 5.837
5.286 5.307 5.887
5.081 5.203 6.401
5.928 5.112 5.418
5.661 5.284 5.408
5.314 5.254 5.469
5.189 5.229 5.683
4.882 5.319 6.061
4.886 5.188 6.172
4.733 5.161 6.216
5.970 4.864 6.144
5.744 4.824 6.062
5.544 4.804 6.249
5.303 5.026 6.151
5.497 4.968 6.323
6.227 5.191 5.563
5.754 5.057 5.742
5.601 4.751 6.005
5.276 4.925 5.852
4.976 5.197 5.900
5.110 4.821 6.066
5.827 4.977 5.448
5.711 5.011 5.305
5.311 5.061 5.542
5.076 5.175 5.852
5.141 5.222 5.949
5.052 5.063 6.006
4.826 5.079 6.175
6.209 3.003 4.713
6.137 2.768 4.669
6.141 2.635 4.380
6.064 2.594 4.874
5.767 2.445 4.616
6.060 2.198 4.934
6.286 2.264 4.465
5.840 2.509 4.651
5.780 2.435 4.693
6.150 2.168 4.816
6.208 2.018 4.861
6.058 2.181 4.993
6.011 2.137 4.505
5.772 2.380 4.730
5.754 2.354 4.512
5.977 1.858 5.158
5.970 1.751 4.942
6.043 2.029 4.663
5.883 1.975 4.928
6.153 1.806 4.216
6.094 1.759 4.557
5.815 2.078 4.887
6.136 1.545 5.140
6.072 1.555 4.877
5.846 1.460 4.854
6.129 1.445 4.507
6.049 1.843 4.571
5.690 1.734 4.919
5.540 1.473 4.858
6.132 1.910 4.532
6.114 1.912 4.478
5.789 1.874 4.587
5.637 1.760 4.802
6.218 1.472 5.612
6.349 1.206 5.098
5.864 1.201 5.172
5.968 1.552 5.391
6.008 1.210 4.885
5.798 1.315 4.950
5.781 1.213 4.924
6.325 1.483 4.574
6.074 1.539 4.500
6.027 1.315 4.842
5.607 1.356 4.760
5.917 1.302 4.321
5.750 1.388 4.374
5.557 1.641 4.556
5.323 1.410 4.922
6.189 1.136 5.762
6.333 0.939 5.186
5.860 1.118 5.442
6.185 0.936 4.902
5.940 1.034 5.042
5.801 1.137 5.447
6.324 1.102 4.937
5.866 1.217 5.141
5.786 1.319 5.051
5.509 1.038 5.133
6.058 1.310 4.555
6.105 1.170 4.801
5.996 0.965 4.588
5.498 1.274 4.775
5.250 1.070 5.032
5.883 1.210 4.529
6.018 1.379 4.496
5.566 1.037 4.531
5.307 1.254 4.881
6.405 0.959 5.674
5.954 0.634 5.533
5.989 0.836 5.357
6.136 0.586 5.250
5.502 0.730 5.486
6.323 0.856 4.812
6.132 0.965 5.232
5.699 0.842 5.039
5.631 1.058 5.485
5.170 0.897 5.527
6.194 0.997 4.623
5.875 0.982 4.744
5.812 1.002 5.040
5.619 0.981 5.083
5.395 0.914 5.333
5.999 0.902 4.322
6.043 1.123 4.732
5.728 0.799 4.714
5.363 1.088 4.838
5.406 0.836 4.857
6.361 1.221 4.265
6.232 0.896 4.065
5.681 1.002 4.403
5.761 0.893 4.301
5.250 1.094 4.463
5.337 0.803 4.954
6.206 0.425 5.360
6.083 0.480 5.591
6.003 0.514 5.672
5.739 0.666 5.855
6.243 0.348 5.463
5.750 0.760 5.184
5.528 0.607 5.532
5.294 0.666 5.758
5.311 0.520 5.941
6.002 0.417 5.116
6.019 0.731 5.170
5.934 0.730 5.073
5.467 0.527 5.161
5.488 0.502 5.368
4.948 0.512 5.482
6.373 0.711 4.663
5.901 0.767 4.882
5.936 0.715 5.094
5.858 0.602 4.818
5.546 0.658 5.300
5.087 0.563 5.280
5.174 0.674 5.602
5.961 0.908 4.536
5.826 0.735 4.352
5.760 0.608 4.549
5.361 0.676 4.798
5.542 0.857 4.823
5.266 0.682 5.254
6.010 0.891 4.263
5.812 0.848 4.441
6.023 0.795 4.249
5.506 0.956 4.415
5.233 0.891 4.778
5.096 0.722 4.600
5.144 0.100 6.145
6.132 0.180 5.436
6.194 0.353 5.706
5.575 0.218 5.853
5.602 0.317 5.619
5.368 0.233 5.787
5.049 0.505 5.924
4.878 0.130 6.324
6.244 0.149 5.063
5.897 0.349 5.200
5.735 0.257 5.513
5.369 0.209 5.746
5.464 0.515 5.955
4.984 0.504 5.754
5.050 0.481 6.181
4.799 0.147 6.257
6.151 0.374 4.918
6.131 0.411 4.930
5.750 0.405 5.202
5.520 0.579 5.396
5.233 0.180 5.288
5.097 0.500 5.544
5.051 0.301 5.807
4.599 0.560 5.806
6.437 0.224 4.544
5.878 0.367 4.866
5.623 0.610 4.913
5.487 0.328 4.811
5.629 0.294 5.079
5.344 0.492 5.144
4.785 0.493 5.305
4.740 0.400 5.475
6.239 0.401 4.323
5.819 0.331 4.450
5.587 0.596 4.698
5.381 0.400 4.643
5.288 0.466 4.761
5.051 0.392 4.878
4.757 0.546 5.178
5.946 0.687 4.022
5.754 0.707 4.214
5.664 0.598 4.432
5.501 0.389 4.600
4.959 0.600 4.581
4.869 0.562 5.039
6.183 0.054 5.494
6.041 0.066 5.482
5.978 0.123 5.562
5.779 0.031 5.608
5.315 -0.155 5.869
5.154 0.260 6.083
5.111 0.222 6.295
4.617 0.241 6.341
6.301 0.222 4.911
5.864 0.086 5.013
5.841 0.092 5.409
5.513 0.308 5.396
5.216 0.304 5.775
5.446 0.228 5.531
5.194 -0.002 5.897
4.979 0.247 5.969
4.485 -0.077 6.106
4.296 -0.044 6.406
6.020 0.249 4.935
5.908 0.350 4.807
5.525 0.215 5.122
5.668 0.036 5.167
5.316 0.058 5.289
5.085 -0.064 5.280
4.773 0.086 5.464
4.785 0.349 5.718
4.320 0.048 5.900
5.991 0.323 4.690
5.893 0.007 4.796
5.849 0.156 4.674
5.585 0.042 4.986
5.340 0.155 4.944
5.325 0.149 5.168
5.110 -0.020 5.457
4.809 0.155 5.304
4.647 0.276 5.428
6.297 0.085 4.559
5.759 0.033 4.567
5.716 0.446 4.809
5.377 0.147 4.838
5.257 0.156 4.833
4.920 0.228 5.067
4.769 0.172 4.952
4.753 0.373 5.157
5.575 0.517 4.052
5.338 0.378 4.183
5.549 0.394 4.299
5.355 0.145 4.802
5.163 0.350 4.940
4.828 0.360 4.764
5.688 -0.005 4.538
5.725 0.071 4.413
5.386 0.089 4.470
5.058 0.216 4.633
4.863 0.165 5.038
4.680 -0.176 4.981
4.709 0.228 5.071
4.466 0.099 5.345
5.788 0.205 4.187
5.572 0.005 4.533
5.218 0.166 4.417
5.225 0.135 4.790
5.105 -0.077 4.691
4.642 0.104 5.049
4.584 -0.062 4.949
5.491 4.630 6.103
5.077 4.903 6.333
5.692 4.892 5.586
5.725 4.759 5.788
5.267 4.909 6.123
5.279 4.931 6.085
5.058 4.740 6.144
5.770 4.561 5.401
5.583 4.918 5.415
5.472 4.576 5.408
5.225 4.806 5.661
5.203 4.649 5.986
5.001 4.632 6.046
5.380 4.395 5.820
5.377 4.696 5.951
6.034 4.584 5.493
5.756 4.726 5.488
5.525 4.511 5.402
5.262 4.744 5.503
5.005 4.672 5.777
5.631 4.177 5.312
5.407 4.277 5.504
5.322 4.463 5.511
6.255 6.479 5.359
5.847 6.312 5.169
5.704 6.309 5.611
5.549 6.161 5.822
5.272 6.419 5.723
6.119 6.154 5.234
6.121 6.476 5.405
5.800 6.390 5.466
5.604 6.370 5.779
5.505 6.454 5.946
5.888 5.859 5.214
5.634 6.057 5.486
5.283 5.877 5.644
5.129 6.190 5.656
5.039 5.837 5.853
5.561 6.219 5.336
5.465 5.953 5.237
5.325 6.153 5.691
5.713 5.965 5.486
5.582 6.197 5.327
5.440 5.959 5.558
5.211 6.243 5.646
5.168 5.973 6.029
5.853 5.865 5.511
5.431 5.597 5.436
5.434 5.724 5.524
5.428 5.933 5.602
4.896 5.612 5.607
4.974 5.840 5.780
5.582 5.972 5.054
5.543 5.842 5.335
5.512 5.669 5.183
5.167 6.042 5.512
4.871 5.702 5.684
5.248 6.065 5.314
4.991 5.903 5.127
5.965 5.686 5.415
5.818 5.879 5.628
5.359 5.786 5.438
5.070 5.969 5.800
4.825 5.716 5.649
4.778 5.845 6.013
5.860 5.598 5.080
5.649 5.728 5.459
5.471 5.712 5.486
5.261 5.411 5.469
5.179 5.559 5.776
4.625 5.526 5.743
4.595 5.397 5.932
5.526 5.574 5.243
5.312 5.695 5.331
5.358 5.655 5.396
5.218 5.582 5.338
4.860 5.469 5.501
4.829 5.788 5.564
5.356 5.694 5.158
5.071 5.852 5.000
5.089 5.868 5.030
4.718 5.536 5.379
4.610 5.869 5.343
4.967 5.605 5.144
4.863 5.872 5.124
3.154 6.277 4.138
2.795 6.183 4.454
3.084 6.310 4.120
2.892 6.040 3.803
2.743 6.272 3.966
3.081 6.321 3.566
2.563 6.244 3.875
2.319 6.342 3.994
3.206 6.093 3.601
2.859 6.363 3.461
2.365 6.249 3.416
2.306 6.421 3.945
2.975 6.254 3.323
2.691 6.480 3.370
2.607 6.066 3.612
2.091 6.306 3.770
6.033 5.408 5.441
5.448 5.437 5.202
5.347 5.606 5.574
5.106 5.507 5.451
5.088 5.479 5.678
4.918 5.442 5.692
4.776 5.417 6.112
5.753 5.511 5.399
5.762 5.364 5.495
5.607 5.510 5.659
5.031 5.216 5.704
4.941 5.151 5.907
4.621 5.359 6.015
4.407 5.202 6.015
5.700 5.554 4.837
5.407 5.435 5.260
5.417 5.425 5.265
5.283 5.413 5.548
4.810 5.530 5.608
4.759 5.430 5.453
4.448 5.480 5.948
5.543 5.247 4.735
5.375 5.462 5.132
5.180 5.497 5.006
5.129 5.279 5.140
4.894 5.532 5.457
4.481 5.489 5.356
4.239 5.394 5.533
5.037 5.468 4.508
5.227 5.262 4.853
4.640 5.391 4.962
4.681 5.622 5.261
4.193 5.313 5.002
5.015 5.462 4.445
4.705 5.510 4.652
4.480 5.662 4.952
4.174 5.609 5.185
4.576 5.610 4.736
4.380 5.454 4.931
3.168 5.683 4.532
3.224 5.913 4.691
3.163 5.886 4.385
3.164 5.717 4.472
2.898 5.882 4.594
3.126 6.024 4.069
3.137 5.756 4.114
2.774 5.729 4.398
3.175 5.661 3.949
3.114 6.082 3.792
2.945 5.820 3.947
2.373 5.828 4.124
3.006 5.978 3.491
2.997 5.858 3.880
2.539 5.717 3.606
2.703 5.849 3.867
2.937 6.164 3.302
2.917 5.818 3.473
2.734 6.026 3.419
2.430 5.838 3.740
2.805 6.124 3.032
2.587 6.007 3.069
2.493 5.924 3.414
2.346 6.182 3.547
2.674 6.279 2.730
2.552 6.130 2.826
2.517 5.943 3.331
2.164 6.019 3.321
2.756 6.294 2.794
2.614 5.933 2.747
2.418 6.237 3.008
2.152 6.114 2.873
2.501 6.003 2.546
2.618 6.378 2.593
2.474 5.979 2.488
1.847 6.131 2.996
1.866 6.017 2.862
2.544 6.093 2.351
2.342 6.307 2.530
1.933 6.032 2.609
1.942 6.422 2.454
1.557 6.053 2.786
2.558 6.080 1.723
2.437 6.411 1.774
2.264 6.146 2.023
2.181 6.391 2.088
1.904 6.382 2.170
1.529 6.132 2.659
5.626 5.306 5.393
5.630 5.347 5.237
5.555 5.159 5.430
5.376 5.193 5.623
5.099 5.514 5.855
4.895 5.091 5.722
4.523 5.370 6.035
5.865 5.084 5.139
5.774 5.135 5.201
5.463 5.176 5.391
5.167 5.072 5.647
4.857 4.868 5.777
4.529 4.944 5.978
4.637 4.970 5.909
5.778 4.950 5.126
5.410 5.277 5.022
5.169 5.105 5.113
5.068 4.939 5.261
4.665 5.134 5.354
4.517 5.194 5.666
4.215 5.050 5.825
5.489 5.002 4.584
5.505 5.109 4.971
4.923 5.401 5.220
5.083 5.309 5.342
4.826 5.305 5.360
4.406 5.329 5.585
4.108 5.081 5.470
5.622 5.147 4.734
4.988 5.392 4.867
4.917 5.184 4.834
5.007 5.374 4.745
4.659 5.041 4.952
4.440 5.152 4.960
4.093 5.268 5.318
5.097 5.480 4.471
4.823 5.318 4.828
4.889 5.145 4.811
4.531 5.387 4.649
4.299 5.312 5.188
3.943 5.330 5.244
3.794 5.119 5.021
4.670 5.468 4.207
4.712 5.361 4.334
4.387 5.262 4.751
3.990 5.162 4.877
3.907 5.332 5.114
3.909 5.521 5.237
4.399 5.153 4.293
4.344 5.161 4.427
4.147 5.183 4.670
3.779 5.261 4.488
3.543 5.483 4.678
3.408 5.549 4.787
4.228 5.650 4.194
3.903 5.319 4.478
3.492 5.486 4.701
3.524 5.482 4.469
3.449 5.650 4.717
3.001 5.271 4.849
3.613 5.585 3.980
3.501 5.703 4.381
3.570 5.612 4.615
3.149 5.704 4.777
3.140 5.583 4.714
3.851 5.425 3.893
3.587 5.468 3.932
3.033 5.675 4.123
2.925 5.671 4.216
2.897 5.711 4.601
3.538 5.369 3.895
2.977 5.480 3.998
2.876 5.733 3.945
2.563 5.611 4.160
3.008 5.634 3.894
2.986 5.434 3.677
3.000 5.741 3.816
2.575 5.701 3.887
2.989 5.840 3.517
2.894 5.748 3.512
2.838 5.708 3.555
2.662 5.515 3.829
2.734 5.912 3.426
2.673 5.567 3.528
2.333 5.788 3.453
2.348 5.668 3.874
2.718 5.956 2.945
2.439 5.730 3.225
2.622 5.945 3.158
2.197 5.707 3.332
2.901 6.001 2.823
2.627 5.640 2.828
2.061 5.846 2.912
1.889 5.962 3.257
2.330 5.685 2.716
2.135 5.915 2.790
2.062 6.010 2.974
2.459 5.792 2.617
2.036 6.074 2.888
1.734 5.986 2.876
2.332 6.071 2.347
2.035 5.882 2.725
2.514 6.103 1.422
2.049 6.232 1.568
2.787 6.252 1.062
2.310 6.300 0.989
2.440 6.020 1.009
2.264 6.393 1.317
2.569 6.041 0.418
2.734 6.241 0.830
2.316 6.318 0.981
2.362 6.403 1.172
1.789 6.067 1.223
2.883 6.391 0.205
2.550 6.440 0.482
5.747 5.264 5.349
5.594 5.277 5.362
5.495 5.097 5.558
4.985 5.053 5.402
4.800 5.029 5.439
4.692 5.038 5.848
4.741 5.241 5.846
2.441 6.095 4.254
2.343 5.903 4.371
2.288 6.237 4.148
1.889 6.294 4.277
1.853 6.328 4.334
2.005 6.316 3.961
1.980 6.381 3.796
1.667 6.354 3.909
1.905 6.257 3.886
1.987 6.448 4.009
1.547 6.247 3.945
1.610 6.379 3.831
2.791 5.891 4.622
2.433 5.973 4.636
2.259 5.869 4.555
2.234 5.693 4.090
2.382 5.833 4.510
1.939 5.744 4.410
2.330 6.082 3.897
1.968 5.854 4.268
1.834 5.913 4.318
2.104 5.904 3.860
2.036 6.152 4.069
1.662 6.193 3.857
2.059 5.849 3.573
2.010 6.003 3.609
1.506 5.868 4.055
1.792 6.234 3.505
1.797 6.190 3.776
1.390 6.286 3.553
1.988 6.243 3.294
1.664 6.124 3.351
1.579 6.042 3.274
1.472 6.140 2.962
1.334 6.306 3.300
1.530 6.053 2.776
2.895 5.695 4.619
2.721 5.714 4.483
2.223 5.549 4.787
2.306 5.427 4.563
2.116 5.633 4.308
1.945 5.408 4.664
2.355 5.511 4.375
2.273 5.573 4.159
2.081 5.624 4.526
2.466 5.618 3.935
1.946 5.726 4.034
2.021 5.507 4.029
1.945 5.725 3.703
2.067 5.841 3.908
1.690 5.827 3.864
2.082 5.766 3.450
1.764 5.989 3.566
1.679 5.657 3.689
1.878 5.660 3.413
1.674 5.791 3.571
1.504 5.799 3.724
1.589 5.806 3.106
1.752 5.994 3.309
1.550 6.009 2.852
5.817 3.477 4.665
5.619 3.590 4.601
5.626 3.860 4.719
5.596 3.702 4.867
6.275 3.810 4.234
5.955 3.774 4.583
5.540 3.887 4.795
5.359 3.774 4.672
5.199 3.494 4.771
4.853 3.606 4.931
6.184 3.572 3.778
5.904 3.963 4.059
5.984 3.589 4.338
5.531 3.960 4.301
5.483 3.630 4.298
4.991 3.681 4.583
4.851 3.668 4.579
4.599 3.538 5.037
6.371 3.833 3.565
5.958 3.594 3.774
6.002 3.773 3.870
5.813 3.907 4.043
5.302 3.919 4.258
5.352 3.699 4.427
5.088 3.589 4.526
4.653 3.985 4.413
4.680 3.791 4.696
4.357 3.817 4.993
6.309 4.053 3.408
6.044 3.666 3.667
5.787 3.883 3.858
5.634 3.647 3.649
5.378 3.787 4.124
5.321 4.011 3.884
4.932 3.828 4.376
4.752 3.727 4.155
4.688 4.020 4.591
4.128 4.048 4.532
4.163 3.637 4.648
6.114 3.882 2.972
6.028 3.921 3.360
5.799 4.088 3.516
5.456 4.053 3.301
5.283 3.993 3.567
5.176 3.994 3.974
5.098 3.947 4.029
4.988 4.129 3.835
4.689 3.969 4.026
4.474 4.127 4.304
4.009 3.829 4.178
4.180 3.813 4.374
3.603 3.847 4.515
6.138 3.845 2.788
6.024 4.143 3.070
5.569 4.160 3.236
5.609 3.879 3.484
5.328 4.047 3.525
4.863 4.132 3.757
4.801 4.087 3.486
4.678 4.000 3.769
4.310 3.817 3.890
4.334 3.927 3.962
4.103 3.909 4.370
3.732 4.119 4.472
3.506 4.182 4.439
3.565 4.048 4.736
3.078 3.854 4.871
6.326 3.904 2.687
5.858 3.838 2.657
5.745 4.050 2.754
3.923 4.092 3.940
3.934 3.994 4.190
3.315 4.128 4.370
3.097 4.099 4.393
3.318 3.923 4.402
2.968 4.050 4.687
6.102 4.072 2.483
6.063 4.193 2.190
3.477 4.036 4.095
3.394 3.929 4.155
2.918 3.854 4.170
2.817 4.120 4.284
5.976 3.927 2.348
3.272 4.190 4.093
2.889 4.232 4.089
2.573 4.103 4.396
6.012 3.995 2.297
2.815 4.079 3.679
2.327 4.208 4.228
6.439 4.019 1.701
2.259 4.140 3.738
5.884 3.493 4.842
5.706 3.846 4.572
5.396 3.576 4.738
5.567 3.777 4.947
6.079 3.411 4.695
6.114 3.396 4.599
5.763 3.481 4.957
5.610 3.458 4.685
6.080 3.664 4.137
6.066 3.575 4.196
5.568 3.475 4.491
5.457 3.476 4.602
5.308 3.669 4.944
6.220 3.325 4.044
6.182 3.323 4.228
5.831 3.700 4.231
5.730 3.675 4.507
5.197 3.688 4.641
4.946 3.642 4.783
4.993 3.652 4.545
6.401 3.637 3.566
6.253 3.612 3.718
5.847 3.664 3.814
5.799 3.528 4.217
5.396 3.649 4.318
5.406 3.674 4.332
4.870 3.584 4.321
4.847 3.787 4.509
4.376 3.748 4.421
5.950 3.420 3.293
5.933 3.793 3.548
5.596 3.758 3.456
5.305 3.700 3.704
5.227 3.778 3.969
5.152 3.600 4.221
4.795 3.825 4.109
4.566 3.711 4.113
4.594 3.455 4.334
6.252 3.600 3.330
5.787 3.797 3.006
5.736 3.483 3.157
5.532 3.645 3.538
5.378 3.751 3.576
5.037 3.460 3.732
4.852 3.686 3.837
4.549 3.506 4.061
4.583 3.697 4.055
4.421 3.847 4.127
6.201 3.779 3.029
5.889 3.928 2.976
5.452 3.734 2.940
5.336 3.675 3.195
5.325 3.857 3.272
4.936 3.945 3.658
4.802 3.823 3.777
4.419 3.809 3.961
4.605 3.763 3.928
6.247 3.737 2.437
5.945 3.605 2.740
5.975 3.838 2.657
5.405 3.699 3.011
5.341 3.747 3.028
5.048 3.939 3.045
6.019 3.972 2.774
6.276 3.965 2.223
5.665 3.865 2.536
5.491 3.872 2.694
2.896 3.637 4.419
6.256 3.743 2.429
5.912 3.928 2.562
5.766 3.953 2.246
2.850 4.029 4.266
5.962 3.797 2.130
5.930 3.843 2.356
2.679 3.801 4.143
6.075 3.870 1.722
6.183 3.746 2.034
6.136 3.764 1.565
6.064 3.799 1.101
6.486 3.890 0.764
6.092 3.609 4.290
6.185 3.285 4.608
5.956 3.322 4.722
5.682 3.421 4.870
6.393 3.305 4.583
6.191 3.107 4.384
5.633 3.399 4.478
5.432 3.186 5.036
6.089 3.393 4.321
5.961 3.432 4.112
5.978 3.081 4.225
5.844 3.441 4.322
5.508 3.429 4.433
5.118 3.450 4.661
6.265 3.390 3.820
5.872 3.471 4.137
5.715 3.341 4.398
5.326 3.372 4.455
5.134 3.130 4.473
5.201 3.402 4.758
6.094 3.303 3.601
5.893 3.489 3.657
5.733 3.501 4.028
5.716 3.525 3.922
5.230 3.540 4.232
5.148 3.109 4.406
4.999 3.514 4.565
4.854 3.112 4.519
6.197 3.516 3.533
6.104 3.244 3.541
5.868 3.534 3.735
5.660 3.564 3.717
5.211 3.483 3.857
5.147 3.156 4.119
4.700 3.541 3.967
4.737 3.233 4.119
6.285 3.541 3.182
6.099 3.290 3.306
5.685 3.283 3.113
5.689 3.632 3.565
5.354 3.228 3.739
5.236 3.303 3.638
4.799 3.261 3.952
4.958 3.512 4.131
6.206 3.663 2.886
5.860 3.500 2.651
5.976 3.507 2.762
5.528 3.584 3.256
5.617 3.630 3.231
5.179 3.327 3.343
4.917 3.375 3.664
4.924 3.706 3.829
6.072 3.556 2.515
5.942 3.320 2.423
6.078 3.541 2.812
5.859 3.671 2.731
5.400 3.385 3.090
5.485 3.602 3.110
4.972 3.320 2.994
6.298 3.730 2.531
6.090 3.382 2.350
5.678 3.519 2.586
5.603 3.792 2.432
5.368 3.356 2.842
6.173 3.796 2.352
6.082 3.651 2.125
5.722 3.716 2.096
5.531 3.516 2.459
6.141 3.704 2.023
5.912 3.639 1.989
5.646 3.501 1.960
6.094 3.855 1.529
5.886 3.763 1.696
5.562 3.598 1.977
6.335 3.899 1.253
5.934 3.575 1.423
5.664 3.697 1.434
5.950 3.650 1.158
6.049 3.618 1.059
6.200 3.830 0.842
6.194 3.825 0.859
6.156 3.295 4.650
5.925 3.083 4.435
5.969 3.111 4.476
5.780 3.239 4.875
6.227 2.892 4.193
5.919 3.150 4.614
5.794 3.008 4.833
6.461 3.082 4.234
5.839 3.079 4.147
6.030 3.080 4.262
5.483 3.101 4.677
5.444 2.991 4.644
6.000 3.041 3.828
6.082 2.951 3.795
5.492 2.863 3.964
5.407 2.850 4.268
5.227 3.248 4.307
4.962 3.008 4.462
6.325 3.070 3.607
5.978 2.949 3.548
5.862 3.316 3.663
5.681 2.900 3.812
5.279 2.925 3.906
5.174 3.231 4.124
5.069 3.325 4.313
6.057 3.157 3.329
6.135 3.325 3.475
5.771 2.914 3.557
5.541 3.139 3.595
5.431 3.275 3.901
5.304 3.145 3.814
5.264 3.256 3.781
6.144 3.369 2.799
6.009 3.407 3.149
5.866 3.300 3.396
5.415 3.321 3.526
5.515 3.305 3.669
5.241 3.406 3.813
4.826 3.381 3.637
6.293 3.208 2.559
5.950 3.358 2.953
5.786 3.430 2.882
5.485 3.026 3.176
5.312 3.373 3.367
5.038 3.162 3.157
5.073 3.411 3.423
6.458 3.345 2.567
6.135 3.513 2.385
5.991 3.381 2.742
5.635 3.183 2.867
5.434 3.295 2.902
5.085 3.112 3.020
6.154 3.410 2.266
5.903 3.377 2.288
5.862 3.510 2.452
5.747 3.527 2.724
5.368 3.362 2.831
6.195 3.213 2.053
6.121 3.394 2.485
6.025 3.332 2.219
5.560 3.240 2.239
5.471 3.601 2.435
5.915 3.278 1.864
5.815 3.355 1.973
5.690 3.231 1.680
5.324 3.605 1.785
6.157 3.411 1.849
5.949 3.435 1.956
5.655 3.486 1.932
5.505 3.343 1.703
6.330 3.515 1.518
6.222 3.437 1.515
5.693 3.484 1.647
5.727 3.678 1.566
6.146 3.356 1.228
6.019 3.514 1.165
5.533 3.441 1.359
6.298 3.595 0.943
6.187 3.362 0.764
5.665 3.546 0.887
6.075 3.764 0.566
6.054 3.465 0.783
5.982 2.746 4.408
5.801 2.727 4.508
5.574 3.121 4.656
5.952 2.517 4.532
6.070 2.553 4.634
5.765 2.501 4.501
6.354 2.840 4.169
5.793 2.780 4.182
5.915 2.877 4.237
5.408 2.599 4.235
5.241 2.688 4.508
5.921 2.653 3.710
5.890 2.810 4.023
5.460 2.997 4.051
5.491 2.676 4.005
5.165 2.795 4.163
6.028 2.940 3.614
6.069 3.031 3.643
5.624 2.937 3.800
5.740 2.844 3.844
5.230 2.891 4.030
5.039 2.788 3.951
6.429 2.728 3.402
5.885 2.750 3.088
5.637 2.795 3.642
5.616 2.930 3.561
5.504 2.916 3.689
5.423 2.688 3.961
4.976 2.771 4.084
5.919 2.885 2.847
5.983 2.885 2.972
5.916 2.811 3.304
5.464 3.036 3.542
5.079 2.753 3.557
5.309 3.044 3.815
6.387 2.981 2.715
5.963 2.955 2.777
5.941 2.974 2.869
5.567 2.809 2.868
5.454 2.780 2.926
5.261 3.022 3.428
6.095 3.041 2.776
6.005 2.905 2.458
5.845 3.247 2.377
5.479 2.994 2.857
5.586 3.205 2.920
5.108 2.924 2.865
5.952 2.947 2.552
6.027 3.222 2.330
5.761 2.894 2.334
5.547 3.203 2.482
6.390 3.031 2.207
5.779 3.056 2.317
5.932 3.292 2.041
5.750 3.022 2.224
5.558 3.021 2.426
6.095 3.214 1.730
5.862 3.134 1.965
5.986 3.161 2.087
5.847 3.237 1.854
5.495 3.212 1.950
6.029 3.227 1.424
5.992 3.033 1.728
5.724 3.188 2.008
5.820 3.105 1.687
6.293 3.150 1.263
6.010 3.411 1.520
6.005 3.308 1.525
5.409 3.286 1.803
5.342 3.524 1.634
6.129 3.238 1.239
5.732 3.444 1.296
5.771 3.077 1.310
5.550 3.343 1.444
5.958 3.533 0.726
6.120 3.471 0.926
5.649 3.521 0.999
5.679 3.447 1.091
6.415 3.263 0.583
6.245 3.368 0.730
5.786 3.320 0.564
5.750 3.530 0.640
5.759 3.625 0.273
5.781 3.352 0.559
5.952 2.716 4.471
5.851 2.549 4.455
5.827 2.699 4.646
6.030 2.456 4.160
5.926 2.277 4.372
5.576 2.540 4.537
6.129 2.704 4.194
6.063 2.373 4.329
5.625 2.298 4.438
5.726 2.470 4.493
5.220 2.701 4.325
6.330 2.647 3.891
5.952 2.636 3.969
5.901 2.621 3.814
5.533 2.643 3.905
5.394 2.511 4.006
5.215 2.629 4.254
6.189 2.601 3.374
5.768 2.404 3.488
5.755 2.576 3.910
5.447 2.777 3.876
5.397 2.513 3.896
6.310 2.458 3.076
6.047 2.490 3.387
5.831 2.749 3.426
5.824 2.535 3.732
5.464 2.751 3.710
5.097 2.840 3.953
6.100 2.691 2.804
6.033 2.704 3.143
5.641 2.545 3.029
5.552 2.789 3.328
5.257 2.607 3.273
6.345 2.572 2.719
5.873 2.891 2.519
5.916 2.804 2.713
5.459 2.649 2.907
5.368 2.595 3.107
6.253 2.758 2.522
5.962 2.739 2.575
6.081 2.907 2.363
5.758 2.632 2.552
5.523 2.973 2.928
6.407 2.795 2.119
5.991 2.775 2.304
5.775 2.872 2.047
5.611 2.765 2.365
5.427 2.872 2.326
5.954 3.054 2.120
5.789 2.891 2.229
5.602 2.938 2.037
5.586 2.846 1.985
6.301 3.109 1.548
6.206 2.759 1.762
5.595 2.770 2.186
5.897 2.806 1.663
5.320 2.883 1.723
6.147 2.819 1.756
6.097 2.975 1.493
5.598 2.959 1.879
5.607 2.960 1.809
6.100 3.089 1.283
6.122 2.830 1.242
5.796 2.938 1.524
5.570 2.961 1.803
5.253 3.252 1.418
6.294 3.148 0.946
6.216 3.030 0.860
5.713 2.873 1.070
5.721 2.961 1.446
5.496 2.956 1.284
5.394 3.001 1.105
6.320 2.892 0.832
5.766 3.096 0.716
5.950 3.020 1.138
5.567 3.101 1.262
5.341 3.288 1.125
6.292 3.105 0.590
6.077 2.935 0.267
5.880 3.203 0.552
5.826 3.323 0.569
5.619 3.266 0.784
6.059 3.406 0.280
5.764 3.318 0.131
5.872 3.240 0.613
5.321 3.367 0.429
5.341 3.306 0.881
5.400 3.275 0.411
5.349 3.220 0.483
6.124 2.437 4.507
5.875 2.541 4.446
5.669 2.677 4.500
6.055 2.420 4.029
5.903 2.291 4.301
5.802 2.370 4.475
5.469 2.360 4.434
6.324 2.330 3.813
6.093 2.096 3.944
5.825 2.304 4.387
5.324 2.174 4.100
6.428 2.225 3.646
5.838 2.548 3.767
5.709 2.131 3.704
5.686 2.398 4.098
5.535 2.473 3.974
6.237 2.566 3.551
5.961 2.609 3.600
5.548 2.471 3.548
5.501 2.188 3.934
5.091 2.247 3.957
6.410 2.324 2.875
5.981 2.442 3.069
5.795 2.212 3.512
5.355 2.229 3.278
5.463 2.628 3.658
6.130 2.308 2.668
6.043 2.514 2.741
5.810 2.539 2.923
5.675 2.450 2.976
5.424 2.383 3.379
6.078 2.497 2.622
6.195 2.722 2.774
5.889 2.637 2.496
5.931 2.323 2.919
5.537 2.688 2.983
6.073 2.407 2.590
6.253 2.650 2.238
5.645 2.521 2.285
5.589 2.749 2.524
6.438 2.547 2.275
5.873 2.797 2.149
6.015 2.637 2.216
5.500 2.646 2.099
6.011 2.468 1.939
5.963 2.653 2.213
5.987 2.582 1.853
5.563 2.481 2.159
6.184 2.630 1.581
5.987 2.569 1.903
5.703 2.622 2.079
5.657 2.557 1.970
5.915 2.685 1.573
5.690 2.957 1.798
5.445 2.839 1.742
5.736 2.816 1.781
6.305 2.888 1.383
5.956 2.992 1.130
5.837 2.797 1.451
5.440 2.770 1.423
5.426 2.865 1.467
6.295 2.983 0.649
5.880 2.823 1.176
5.827 3.034 0.953
5.445 2.671 1.332
5.549 2.627 1.295
5.176 2.812 0.976
6.121 2.942 0.672
5.999 3.045 0.758
5.734 3.086 0.737
5.369 2.898 1.213
5.234 2.963 1.316
5.278 2.761 1.141
6.224 2.849 0.207
6.172 2.807 0.248
5.870 2.835 0.546
5.802 2.845 0.704
5.454 3.144 0.870
5.082 3.061 0.943
4.859 2.773 0.735
6.281 2.924 -0.058
6.095 2.866 0.439
5.503 2.772 0.450
5.548 3.175 0.534
5.471 3.028 0.545
5.023 2.943 0.531
5.915 2.857 0.171
5.399 2.885 0.175
5.487 2.992 0.312
5.020 3.244 0.306
5.185 2.970 0.142
5.007 3.128 0.299
5.068 3.172 0.130
6.415 2.122 4.148
5.973 2.287 4.333
5.721 2.071 4.357
5.473 2.244 4.337
6.248 1.777 4.009
6.101 1.827 4.373
5.679 1.835 4.547
5.491 1.956 4.612
6.154 1.945 4.080
5.937 2.250 3.954
5.826 1.835 4.201
5.431 2.085 4.284
6.434 2.249 3.654
6.165 2.115 3.766
5.824 2.267 3.784
5.423 2.108 3.948
5.455 2.163 3.881
5.866 2.128 3.227
5.917 1.990 3.536
5.673 2.345 3.514
5.363 2.040 3.568
6.038 2.002 3.136
5.886 2.227 3.036
5.766 2.144 3.173
5.601 2.088 3.651
5.984 2.360 3.022
5.663 2.383 2.855
6.313 2.352 2.146
6.200 2.351 1.457
5.906 2.614 1.725
6.117 2.673 1.531
6.033 2.480 1.557
5.676 2.654 1.698
5.428 2.741 1.608
6.367 2.591 1.136
5.801 2.500 1.076
5.928 2.712 1.431
5.434 2.443 1.375
5.270 2.489 1.195
6.390 2.527 0.721
6.207 2.808 1.060
5.736 2.696 0.982
5.572 2.690 1.128
5.503 2.616 1.246
5.470 2.666 0.969
6.078 2.807 0.605
5.793 2.731 0.867
5.478 2.527 1.073
5.566 2.448 0.841
5.184 2.632 1.083
5.109 2.468 0.924
5.973 2.906 0.131
5.980 2.640 0.498
5.884 2.551 0.744
5.585 2.661 0.882
5.402 2.760 0.810
5.328 2.869 1.070
5.080 2.592 0.670
5.935 2.792 0.043
5.657 2.769 0.408
5.843 2.969 0.236
5.523 2.570 0.312
5.389 2.906 0.697
4.899 2.572 0.551
4.883 2.969 0.282
5.502 2.903 0.333
5.325 2.698 0.260
5.143 2.845 0.591
4.813 3.015 0.330
4.766 3.033 0.404
4.719 2.660 0.252
5.330 2.931 0.156
5.122 2.714 0.222
4.670 2.747 0.301
4.880 2.731 0.015
4.360 2.854 0.380
4.642 2.782 -0.050
4.413 3.027 -0.054
4.061 2.940 -0.057
3.867 2.888 0.257
6.045 2.028 4.174
5.840 1.841 4.424
5.857 1.803 4.420
5.450 2.110 4.397
6.349 1.576 3.964
5.832 1.688 4.256
5.726 1.561 4.494
5.416 1.980 4.503
6.311 1.864 3.857
5.910 1.741 3.781
5.774 1.743 4.091
5.622 1.664 4.400
5.987 2.023 3.447
6.065 1.633 3.890
5.557 1.668 3.870
5.513 1.717 4.076
6.056 2.081 3.120
5.844 1.932 3.530
6.348 2.282 1.440
6.205 2.279 1.468
6.012 2.156 1.175
5.713 2.328 1.328
5.780 2.104 1.363
6.001 2.213 0.867
5.928 2.457 1.109
5.978 2.400 0.815
5.457 2.378 1.187
5.432 2.321 1.046
6.078 2.472 0.583
5.861 2.496 0.377
6.051 2.490 0.661
5.809 2.589 0.775
5.389 2.356 0.781
5.112 2.336 1.091
5.331 2.387 0.782
6.105 2.625 0.020
5.958 2.351 0.525
5.646 2.417 0.705
5.677 2.657 0.525
5.192 2.591 0.522
5.213 2.386 0.787
5.205 2.550 0.576
6.079 2.629 -0.023
5.904 2.685 0.173
5.443 2.483 0.223
5.576 2.551 0.401
4.990 2.296 0.575
5.140 2.451 0.660
4.705 2.613 0.363
4.565 2.518 0.419
5.650 2.623 -0.115
5.476 2.634 0.380
5.183 2.431 0.559
4.947 2.767 0.399
4.776 2.453 0.174
4.466 2.690 0.383
5.263 2.681 0.064
5.122 2.832 -0.052
4.750 2.396 0.116
4.814 2.803 -0.173
4.246 2.623 0.104
4.231 2.616 0.453
4.740 2.779 0.071
4.079 2.547 0.235
3.791 2.640 0.029
3.809 2.822 0.167
3.761 2.854 0.323
3.210 2.616 -0.015
6.338 1.861 4.116
6.188 1.962 4.242
5.755 1.948 4.478
5.656 1.859 4.494
6.024 1.306 3.954
5.893 1.298 4.028
5.622 1.685 4.124
5.689 1.531 4.502
6.375 1.577 3.623
6.146 1.524 3.697
5.720 1.485 3.889
5.830 1.618 3.987
5.246 1.584 4.220
5.803 1.649 3.833
5.702 1.805 3.527
6.261 2.004 1.157
6.208 2.229 0.783
6.147 2.128 0.709
5.556 2.102 0.968
6.164 2.249 0.405
5.909 2.315 0.701
5.931 2.225 0.535
5.832 2.048 0.919
5.215 2.075 1.069
5.132 2.274 0.965
6.184 2.124 0.370
6.144 2.368 0.267
5.805 2.397 0.430
5.576 2.303 0.396
5.247 2.445 0.679
5.154 2.008 0.607
4.865 2.344 0.409
5.935 2.364 -0.078
5.694 2.350 0.313
5.331 2.345 0.440
5.089 2.206 0.623
4.898 2.430 0.698
4.873 2.530 0.306
4.486 2.291 0.427
5.337 2.347 -0.142
5.391 2.236 0.350
5.274 2.365 0.176
4.765 2.322 0.321
4.757 2.312 0.204
4.653 2.234 0.324
4.362 2.287 0.503
5.162 2.296 0.053
4.626 2.204 0.006
4.585 2.577 0.147
4.188 2.226 0.126
4.323 2.480 0.314
4.440 2.368 -0.194
4.008 2.631 0.244
3.698 2.442 0.303
3.730 2.516 0.478
3.484 2.596 0.303
3.278 2.333 0.162
3.348 2.689 -0.141
2.968 2.649 0.072
2.593 2.451 0.008
5.975 1.334 4.053
6.062 1.410 4.214
5.664 1.571 4.331
5.444 1.742 4.581
6.041 1.319 4.183
5.779 1.434 4.338
5.710 1.404 4.157
5.331 1.178 4.201
6.233 1.275 3.943
5.867 1.263 3.968
5.437 1.192 4.098
6.297 1.843 0.863
5.970 1.722 1.032
6.215 1.917 0.560
6.132 2.102 0.375
6.016 1.988 0.450
5.806 2.073 0.529
6.282 1.878 0.035
5.733 1.934 0.483
5.733 1.800 0.476
5.700 1.923 0.685
5.091 1.894 0.671
4.875 2.057 0.641
5.674 2.059 0.287
5.763 1.991 0.200
5.383 1.965 0.481
5.271 1.970 0.278
5.105 2.019 0.790
4.959 2.205 0.319
4.660 2.135 0.589
5.197 2.190 0.008
4.844 2.105 0.079
4.989 2.232 0.151
4.782 2.199 0.295
4.721 2.069 0.302
4.097 2.350 0.401
5.047 2.247 0.270
4.616 2.141 0.303
4.202 2.112 0.004
4.334 2.147 0.325
4.177 2.401 0.359
3.910 2.432 -0.002
3.684 2.060 0.075
3.749 2.158 0.147
3.363 2.288 0.130
3.521 2.463 0.286
3.182 2.269 0.151
3.156 2.137 0.016
2.547 2.482 0.113
2.762 2.224 0.069
6.263 1.314 3.815
5.956 1.212 4.142
5.714 1.226 4.056
5.592 1.179 4.538
6.364 0.941 4.048
5.932 1.065 4.140
5.567 0.961 4.302
5.363 1.197 4.108
5.505 0.894 4.255
6.089 1.708 0.342
5.877 1.911 0.420
5.848 1.839 0.738
5.993 1.693 -0.027
5.920 1.768 0.272
5.581 1.862 0.352
5.248 1.776 0.339
5.538 2.006 0.014
5.741 1.571 0.321
5.302 1.950 0.311
5.295 1.674 0.263
4.676 1.699 0.534
5.310 1.727 0.185
4.788 1.845 0.423
4.824 1.961 0.311
4.747 2.034 -0.089
4.570 2.025 0.418
4.924 1.936 0.058
4.679 1.868 0.182
4.209 1.949 -0.045
3.983 2.006 0.321
4.028 1.960 0.139
3.901 1.870 0.320
3.820 2.232 0.182
3.450 2.207 0.401
3.293 2.156 0.156
3.276 1.841 0.373
2.859 2.015 0.367
3.021 1.881 0.489
2.971 1.891 -0.040
2.917 2.084 0.137
2.762 2.260 0.314
2.341 2.089 0.234
2.223 2.084 0.320
1.987 2.179 -0.165
6.027 1.240 3.812
5.753 0.976 4.104
5.876 1.171 4.285
5.334 1.193 4.420
5.177 1.051 4.565
5.919 0.696 3.845
5.506 1.018 4.030
5.653 0.939 4.314
5.116 0.775 4.579
6.363 1.489 0.382
5.852 1.457 0.507
6.078 1.358 0.231
5.748 1.659 0.051
5.597 1.437 0.200
5.427 1.554 -0.101
5.340 1.674 0.419
1.683 1.566 2.250
4.972 1.624 -0.015
4.964 1.400 0.302
4.792 1.762 0.274
1.122 1.630 1.920
4.560 1.858 -0.049
4.445 1.917 0.051
3.968 1.591 0.037
1.331 1.603 1.834
3.808 1.599 0.231
3.440 1.545 -0.005
3.369 1.969 0.459
3.258 1.626 0.093
3.168 1.896 0.297
3.020 1.896 0.558
2.413 1.713 0.378
2.316 1.878 0.558
3.009 1.796 0.147
2.862 1.956 0.325
2.703 1.846 0.261
2.179 1.702 0.391
2.084 1.870 0.383
2.494 1.981 0.176
2.242 2.000 0.112
2.014 1.907 0.267
1.838 2.071 0.043
1.867 1.821 -0.062
5.910 0.996 4.189
5.507 0.781 4.268
5.475 1.025 4.470
5.304 0.956 4.380
5.667 0.664 4.094
5.403 0.372 4.390
5.195 0.520 4.401
5.150 0.427 4.552
5.929 1.404 0.200
6.053 1.486 0.149
5.725 1.259 -0.020
1.450 1.155 2.590
5.525 1.390 0.090
1.736 1.613 2.180
1.426 1.339 2.335
1.913 1.635 1.747
1.436 1.566 2.044
1.334 1.271 1.902
1.819 1.473 1.647
1.570 1.456 1.767
1.602 1.675 1.764
1.323 1.546 1.723
2.047 1.376 0.798
2.026 1.524 1.200
1.668 1.582 1.099
1.271 1.521 1.217
1.335 1.532 1.444
0.947 1.621 1.705
3.247 1.475 0.033
2.849 1.470 0.336
2.635 1.398 0.438
2.652 1.461 0.612
2.291 1.701 0.399
2.313 1.580 0.480
1.974 1.581 0.960
1.662 1.526 0.880
1.534 1.674 1.184
1.290 1.500 1.286
1.074 1.794 1.159
2.763 1.641 0.273
2.358 1.457 0.085
2.270 1.519 0.411
2.178 1.588 0.518
2.066 1.829 0.629
1.536 1.820 0.817
1.267 1.858 0.964
2.335 1.901 -0.181
2.093 1.651 0.265
1.896 1.756 0.104
1.802 1.805 0.312
1.576 1.674 0.531
1.853 1.621 0.164
1.743 1.596 0.241
5.822 0.515 3.978
5.354 0.581 4.451
5.331 0.499 4.388
5.100 0.490 4.491
5.646 0.361 4.188
5.206 0.568 4.426
5.068 0.465 4.643
4.631 0.367 4.390
1.861 1.063 2.557
1.753 1.078 2.282
1.733 1.124 2.507
1.763 1.114 1.939
1.750 1.207 2.152
1.582 1.118 2.365
1.744 1.403 1.413
1.839 1.281 1.985
1.316 1.096 1.854
1.435 1.357 2.225
2.169 1.129 1.095
2.148 1.044 1.168
1.745 1.171 1.495
1.376 1.397 1.465
1.232 1.474 1.720
0.965 1.236 1.860
2.782 1.480 0.423
2.530 1.278 0.736
2.247 1.525 0.637
2.121 1.430 1.003
1.958 1.376 0.937
1.750 1.524 1.269
1.576 1.114 1.427
1.099 1.345 1.281
1.213 1.289 1.531
3.358 1.242 0.009
2.876 1.525 0.080
2.810 1.332 0.349
2.505 1.433 0.203
2.489 1.360 0.368
1.989 1.141 0.573
2.129 1.199 0.801
1.941 1.193 0.741
1.720 1.170 1.003
1.441 1.389 1.349
1.001 1.569 1.411
0.855 1.412 1.563
2.509 1.400 0.021
2.613 1.514 0.173
2.097 1.374 0.408
1.886 1.449 0.408
1.980 1.359 0.737
1.663 1.325 0.596
1.352 1.543 0.673
1.410 1.336 1.175
0.820 1.541 1.252
2.041 1.386 0.203
1.939 1.586 0.359
1.940 1.601 0.554
1.660 1.520 0.398
1.311 1.529 0.519
1.990 1.446 0.211
1.593 1.442 0.390
1.162 1.336 0.114
5.439 0.561 4.205
5.016 0.457 4.461
5.057 0.259 4.574
4.678 0.328 4.436
5.555 0.287 4.099
5.045 0.057 4.182
4.979 -0.107 4.245
4.699 0.116 4.490
4.665 0.156 4.720
1.628 0.627 2.941
1.708 0.821 2.536
1.811 0.892 2.673
2.046 0.874 2.307
1.897 0.832 2.152
1.460 0.940 2.409
2.014 0.765 1.775
1.703 0.851 2.045
1.722 0.841 2.223
1.159 0.852 2.176
2.097 0.984 1.352
1.788 0.828 1.599
1.577 1.011 1.661
1.563 1.126 1.670
1.258 1.145 2.110
2.327 0.994 1.058
2.249 0.988 1.257
1.969 1.172 1.451
1.862 1.069 1.202
1.625 1.037 1.298
1.416 1.184 1.616
1.321 0.992 1.854
2.697 1.258 0.544
2.441 1.178 0.768
2.163 1.108 1.026
1.967 0.981 1.040
1.704 0.971 1.068
1.793 1.129 1.340
1.633 1.116 1.418
1.431 0.928 1.515
1.097 1.033 1.758
2.995 1.112 0.310
2.701 1.257 0.437
2.518 1.073 0.271
2.564 1.337 0.587
2.004 0.940 0.645
2.147 0.950 0.802
1.607 0.949 0.740
1.461 0.942 0.867
1.222 0.981 1.058
1.321 1.124 1.175
0.935 1.240 1.356
2.408 1.307 -0.123
2.262 1.015 0.308
2.136 0.999 0.329
1.804 1.217 0.302
1.735 1.230 0.432
1.754 1.267 0.709
1.530 1.353 0.749
1.033 1.158 0.998
0.837 0.996 0.916
0.872 0.993 0.940
2.060 1.102 -0.126
2.058 1.384 0.167
1.729 1.447 0.142
1.573 1.295 0.638
1.232 1.301 0.474
0.919 1.265 0.731
1.791 1.329 -0.124
1.471 1.057 0.332
1.388 1.352 0.454
1.147 1.427 0.207
1.105 1.448 0.032
5.631 0.099 4.094
5.354 0.219 4.469
4.884 0.154 4.379
4.714 -0.086 4.310
4.387 0.305 4.739
1.734 0.601 2.966
1.863 0.498 2.522
1.783 0.334 2.813
1.937 0.377 2.263
1.909 0.516 2.182
1.598 0.508 2.330
2.271 0.679 1.765
1.788 0.573 1.865
1.899 0.427 2.311
1.503 0.834 2.332
1.966 0.762 1.730
1.854 0.847 1.669
1.560 0.791 2.100
1.407 0.874 2.143
1.447 0.824 1.909
2.252 0.831 1.407
2.040 0.559 1.201
1.676 0.661 1.648
1.494 0.604 1.448
1.329 0.574 1.749
1.040 0.793 1.824
2.396 0.956 0.813
2.375 0.803 1.099
1.837 0.940 1.316
1.674 0.560 1.257
1.547 0.946 1.590
1.547 0.815 1.398
1.104 1.002 1.873
2.601 0.886 0.808
2.010 0.696 0.551
2.018 0.873 0.944
1.909 0.721 1.193
1.414 0.673 1.184
1.322 0.963 1.158
1.288 0.740 1.518
1.142 0.859 1.398
2.557 0.808 0.178
2.355 0.832 0.288
2.436 0.685 0.262
2.296 0.813 0.790
2.008 1.046 0.812
1.881 0.662 0.724
1.262 0.924 0.929
1.289 0.708 0.848
1.184 1.101 1.283
1.086 1.108 1.324
2.511 0.794 -0.096
2.126 1.074 0.305
2.087 1.139 0.402
1.727 0.865 0.324
1.559 1.013 0.651
1.406 0.984 0.538
1.299 0.808 0.671
1.024 1.114 1.125
0.660 0.845 1.165
1.867 0.800 0.009
1.968 1.085 0.251
1.445 1.056 0.206
1.408 1.142 0.189
1.155 1.032 0.631
0.886 1.176 0.498
0.953 0.998 0.840
1.427 0.817 0.230
1.540 1.060 0.393
0.930 1.070 0.347
0.704 0.978 0.388
1.054 0.931 0.063
1.074 1.111 0.339
2.141 0.345 3.259
2.138 0.215 2.586
1.874 0.449 2.951
2.119 0.148 2.224
2.019 0.127 2.351
1.552 0.358 2.634
2.138 0.300 1.919
2.049 0.425 2.101
1.848 0.508 2.419
1.760 0.578 2.413
2.112 0.604 2.020
1.664 0.409 2.226
1.828 0.293 2.259
1.360 0.489 2.185
1.939 0.426 1.600
1.975 0.326 1.844
1.681 0.282 1.883
1.636 0.332 2.076
1.275 0.465 2.056
2.152 0.661 1.299
2.189 0.421 1.220
2.016 0.713 1.516
1.587 0.323 1.750
1.496 0.325 1.805
0.996 0.468 1.936
2.320 0.514 1.183
1.704 0.572 1.314
1.540 0.722 1.200
1.384 0.723 1.449
1.394 0.418 1.674
1.161 0.394 1.886
2.192 0.487 0.401
2.268 0.610 0.700
2.127 0.813 0.965
1.864 0.385 0.910
1.365 0.571 1.251
1.299 0.791 1.047
0.952 0.785 1.221
0.869 0.809 1.636
2.572 0.559 0.113
2.135 0.650 0.364
2.140 0.538 0.549
2.088 0.592 0.756
1.878 0.649 0.719
1.536 0.866 0.709
1.280 0.808 1.089
1.164 0.467 1.095
0.807 0.596 1.118
2.591 0.553 -0.079
2.240 0.766 0.085
1.822 0.487 0.366
1.556 0.915 0.429
1.752 0.710 0.663
1.369 0.511 0.794
1.202 0.874 0.725
1.065 0.831 0.767
1.724 0.798 0.124
1.829 0.729 0.031
1.534 0.755 0.317
1.258 0.888 0.284
0.989 0.775 0.478
0.762 0.530 0.875
1.726 0.867 -0.157
1.147 0.818 -0.034
1.314 0.728 0.249
0.672 1.017 0.482
1.106 0.924 0.136
2.410 -0.000 2.380
1.933 -0.064 2.813
1.638 -0.131 2.672
2.258 0.053 2.427
2.102 -0.043 2.349
2.034 0.150 2.582
1.555 -0.160 2.768
2.017 0.041 2.199
2.153 0.112 2.029
1.949 0.078 2.393
1.641 -0.016 2.283
2.136 0.002 1.865
1.636 0.372 2.179
1.566 0.269 2.256
1.203 0.258 2.214
1.904 0.131 1.406
2.068 0.210 1.555
1.590 0.142 1.998
1.691 0.162 2.103
1.246 0.204 2.001
1.907 0.148 1.470
1.753 0.157 1.418
1.616 0.399 1.656
1.532 0.154 1.906
1.358 0.311 1.936
2.182 0.478 1.003
1.893 0.226 1.158
1.846 0.160 1.386
1.603 0.310 1.318
1.063 0.170 1.609
0.940 0.229 1.676
1.957 0.576 0.542
2.098 0.180 0.980
1.585 0.345 0.952
1.508 0.514 1.133
1.153 0.350 0.984
1.333 0.459 1.351
1.053 0.483 1.475
2.127 0.223 0.252
2.108 0.224 0.369
1.702 0.300 0.771
1.826 0.642 0.735
1.441 0.559 0.997
1.215 0.342 0.815
1.128 0.401 1.038
0.927 0.242 1.015
2.417 0.580 0.077
2.052 0.555 0.290
1.850 0.432 0.213
1.942 0.668 0.521
1.496 0.458 0.388
1.159 0.414 0.877
1.281 0.641 0.933
1.013 0.683 0.986
1.713 0.441 0.163
1.751 0.290 0.326
1.412 0.368 0.534
0.974 0.694 0.595
0.828 0.677 0.711
1.430 0.717 0.192
1.014 0.418 0.434
0.758 0.529 0.400
0.877 0.682 -0.143
2.176 -0.078 1.426
1.737 -0.097 1.423
1.400 0.235 1.561
1.139 0.242 1.486
0.961 -0.107 1.905
1.952 0.277 1.165
1.729 -0.099 1.314
1.387 0.038 1.192
1.432 0.206 1.683
0.908 0.160 1.648
2.138 0.273 0.964
1.613 0.168 0.781
1.329 0.176 0.896
1.130 0.224 0.985
0.965 0.020 1.106
0.734 0.167 1.429
1.917 0.343 0.341
1.958 0.297 0.437
1.757 0.250 0.714
1.460 0.006 0.603
1.283 0.047 0.968
0.943 0.209 1.274
2.119 0.157 0.233
2.054 0.060 0.091
1.712 0.100 0.181
1.322 0.086 0.450
1.270 0.048 0.792
0.970 0.353 0.934
1.563 0.051 -0.175
1.759 0.178 0.297
1.403 0.427 0.245
1.230 0.148 0.525
0.918 0.413 0.573
1.345 0.155 -0.069
0.894 0.118 0.278
0.964 0.463 0.044
1.348 0.135 -0.028
1.453 -0.084 0.391
1.248 0.200 -0.179
5.849 4.614 5.082
5.712 4.674 5.037
5.157 4.677 5.405
5.011 4.849 5.553
4.906 4.775 5.688
4.707 4.790 5.977
4.457 4.920 5.843
5.778 4.829 4.829
5.513 4.831 4.864
5.606 4.986 5.244
5.270 4.900 5.082
4.964 4.982 5.511
4.971 4.803 5.226
4.620 4.867 5.566
4.578 4.734 5.457
5.668 4.954 4.627
5.355 5.128 4.555
5.437 4.842 4.900
5.288 4.977 4.871
4.963 4.862 5.263
4.760 5.030 5.166
4.526 4.868 5.569
4.168 5.100 5.531
5.156 4.985 4.305
5.387 4.925 4.676
4.988 4.807 4.830
4.623 4.832 4.699
4.705 4.777 5.063
4.398 5.122 5.302
4.117 5.142 5.326
4.109 4.963 5.432
5.452 4.891 4.349
5.137 5.040 4.360
4.953 4.851 4.449
4.753 5.210 4.832
4.330 5.232 4.873
4.204 5.204 4.848
3.860 5.028 5.210
4.026 4.830 5.177
4.901 5.036 4.260
4.591 5.033 4.245
4.602 5.189 4.281
4.178 5.036 4.701
4.210 4.920 4.808
3.951 5.077 4.718
3.801 5.284 5.202
3.648 5.274 5.101
4.616 5.069 4.385
4.287 4.966 4.369
4.236 5.163 4.456
4.159 5.192 4.478
3.819 5.224 4.549
3.573 5.214 4.648
3.330 5.149 4.841
3.367 5.315 5.188
4.435 5.406 3.908
4.246 5.133 4.184
3.913 5.280 4.246
3.647 5.054 4.371
3.307 4.985 4.795
3.221 5.199 4.874
2.883 5.348 4.971
4.034 5.100 4.210
3.779 5.096 3.959
3.643 5.322 4.269
3.529 5.089 4.262
3.209 5.341 4.388
2.698 5.201 4.704
3.704 5.155 4.021
3.591 5.489 4.213
3.251 5.209 4.189
2.787 5.510 4.217
2.776 5.252 4.612
3.640 5.407 3.927
3.445 5.123 3.736
3.019 5.364 4.072
2.713 5.382 4.168
2.635 5.128 4.327
3.251 5.434 3.488
2.820 5.380 3.673
2.787 5.606 3.910
2.521 5.537 4.130
3.248 5.296 3.267
2.776 5.254 3.691
2.507 5.338 3.880
2.262 5.528 3.767
2.848 5.699 3.325
2.661 5.543 3.432
2.375 5.525 3.631
2.444 5.401 3.515
2.432 5.432 3.330
2.483 5.661 3.480
2.002 5.616 3.454
2.560 5.771 3.087
2.133 5.546 2.960
1.903 5.398 3.423
1.986 5.736 2.675
2.037 5.750 2.948
2.206 6.133 0.629
2.309 5.961 0.819
2.554 6.116 0.270
2.437 6.133 0.584
2.173 6.176 0.558
2.144 5.954 0.782
1.654 6.029 1.108
2.556 6.167 0.138
2.580 6.157 0.392
2.163 5.998 0.091
1.861 6.239 0.504
1.889 6.007 0.780
1.559 6.162 0.755
5.766 4.672 5.276
5.762 4.974 5.267
5.481 4.971 5.154
5.094 4.802 5.517
5.055 4.732 5.493
4.813 4.896 5.906
4.297 4.745 5.989
5.893 4.538 5.103
5.499 4.634 5.185
5.207 4.745 5.494
5.031 4.410 5.545
5.060 4.516 5.703
4.848 4.476 5.932
5.887 4.532 4.774
5.746 4.500 5.011
5.173 4.610 4.975
5.016 4.629 4.977
4.906 4.563 5.353
4.737 4.729 5.543
4.455 4.631 5.360
4.397 4.564 5.765
5.739 4.903 4.764
5.395 4.529 4.770
5.339 4.760 5.002
5.092 4.733 4.704
4.895 4.690 5.173
4.754 4.793 5.371
4.253 4.679 5.410
4.412 4.596 5.421
5.414 4.898 4.528
5.452 4.921 4.347
4.996 4.543 4.781
4.918 4.618 4.631
4.796 4.907 4.672
4.553 4.975 4.755
4.151 4.847 5.292
4.068 4.693 5.199
3.881 4.800 5.425
5.498 5.005 3.984
5.035 4.954 4.077
4.833 4.999 4.298
4.765 4.773 4.549
4.449 4.640 4.583
4.317 4.718 4.550
4.396 4.808 4.808
3.808 4.866 4.937
3.987 4.922 5.075
3.462 4.847 5.435
5.234 5.010 3.961
4.800 4.970 4.387
4.492 4.816 4.437
4.398 5.022 4.324
4.089 4.728 4.468
4.216 5.064 4.912
3.933 4.798 4.752
3.747 4.697 5.014
3.379 4.999 4.848
4.966 4.838 4.118
4.635 4.796 4.125
4.569 4.949 4.053
4.091 4.997 4.377
4.109 4.983 4.719
3.757 4.935 4.816
3.321 4.835 4.762
3.522 4.984 4.705
2.969 4.922 4.954
4.421 4.864 3.752
4.196 4.872 4.007
3.938 4.841 4.142
3.909 4.916 4.397
3.850 5.007 4.330
3.196 5.052 4.601
3.394 4.924 4.479
3.066 5.150 4.824
4.092 5.234 3.926
3.549 5.107 4.013
3.280 4.810 4.212
3.407 5.064 4.368
2.901 5.172 4.676
3.024 5.080 4.533
3.789 5.077 3.731
3.398 5.226 3.745
3.463 4.951 4.199
3.171 5.211 4.004
2.844 4.917 4.464
2.908 5.254 4.432
3.618 4.935 3.722
3.283 5.269 3.953
2.859 4.974 4.063
3.046 5.313 4.254
2.519 5.093 3.990
3.255 5.224 3.564
2.939 5.078 3.852
2.797 5.178 4.045
2.489 5.364 4.027
3.066 5.076 3.325
3.013 5.055 3.683
2.650 5.079 3.433
2.515 5.052 3.628
2.577 5.153 3.188
2.359 5.042 3.261
2.051 5.405 3.689
2.579 5.453 3.088
1.987 5.264 3.176
2.041 5.249 3.015
2.562 5.913 0.477
2.211 5.905 0.531
2.848 5.982 -0.203
2.391 5.818 0.104
2.035 6.053 0.090
1.862 5.856 0.492
1.692 5.862 0.318
5.734 4.428 4.912
5.578 4.563 4.998
5.338 4.580 5.304
4.953 4.690 5.441
4.912 4.503 5.361
4.542 4.613 5.779
5.583 4.410 5.016
5.374 4.587 5.329
5.457 4.409 5.361
5.225 4.149 5.576
4.882 4.259 5.685
5.563 4.316 4.575
5.368 4.272 4.666
5.565 4.408 4.915
5.063 4.485 4.999
4.978 4.235 5.158
4.821 4.588 5.434
4.688 4.367 5.279
5.825 4.688 4.439
5.838 4.615 4.463
5.325 4.446 4.827
5.357 4.553 4.739
4.883 4.489 4.908
4.677 4.662 4.977
4.777 4.243 5.360
4.248 4.275 5.446
4.176 4.262 5.273
5.664 4.641 4.344
5.653 4.611 4.293
5.344 4.541 4.498
5.125 4.597 4.620
4.806 4.430 4.808
4.593 4.484 4.786
4.406 4.408 4.707
4.427 4.469 5.030
4.232 4.584 4.997
3.962 4.322 5.432
5.570 4.629 4.263
5.144 4.712 4.039
5.203 4.654 4.159
4.755 4.772 4.440
4.696 4.457 4.396
4.564 4.626 4.503
4.137 4.428 4.722
3.887 4.799 5.024
3.968 4.589 5.183
3.690 4.484 5.205
5.294 4.391 3.933
4.872 4.700 4.071
5.061 4.790 4.241
4.625 4.740 4.176
4.442 4.405 4.458
4.477 4.713 4.348
4.034 4.462 4.430
3.620 4.688 4.828
3.512 4.592 4.690
3.241 4.682 5.247
3.345 4.601 5.027
4.775 4.784 3.840
4.828 4.565 4.069
4.704 4.644 4.087
4.455 4.734 4.067
4.055 4.674 4.408
4.059 4.643 4.501
3.624 4.591 4.739
3.380 4.833 4.618
3.367 4.553 4.981
3.174 4.663 5.157
4.202 4.554 3.753
4.294 4.744 3.881
3.960 4.679 4.299
3.579 4.571 4.357
3.486 4.863 4.418
3.368 4.641 4.522
3.214 4.721 4.755
3.081 4.677 4.715
4.024 4.894 3.708
3.845 4.670 3.771
3.842 4.581 3.948
3.491 4.782 4.345
3.430 4.551 4.254
3.062 4.710 4.566
2.708 4.566 4.367
3.905 5.040 3.606
3.672 4.935 3.647
3.571 5.028 4.099
2.993 4.880 4.233
2.767 5.017 4.416
2.944 4.885 4.309
3.527 5.019 3.786
3.375 4.979 3.591
2.985 4.982 3.761
2.784 5.081 3.932
2.523 5.065 4.334
3.220 4.826 3.780
2.847 4.876 3.817
2.912 4.853 3.765
2.464 4.736 3.856
2.589 5.022 3.287
2.477 4.914 3.842
2.267 5.160 3.797
2.632 4.840 3.388
2.441 4.957 3.566
1.944 5.045 3.151
2.628 5.521 -0.080
2.057 5.410 0.134
2.125 5.566 0.199
5.830 4.418 4.832
5.639 4.261 4.984
5.254 4.305 5.366
5.262 4.250 5.507
4.748 4.410 5.388
5.754 4.181 4.938
5.629 4.335 4.851
5.567 3.965 5.098
5.413 4.343 5.216
5.241 4.292 5.271
5.757 4.325 4.755
5.757 4.379 4.647
5.393 4.240 5.002
5.325 4.056 5.100
5.226 4.119 4.907
4.862 4.218 5.239
4.923 4.248 5.133
5.835 4.129 4.363
5.412 4.238 4.239
5.423 4.078 4.613
5.248 4.059 4.500
5.067 4.255 4.894
5.003 4.366 5.116
4.716 4.442 5.293
4.513 4.349 5.073
5.935 4.186 4.131
5.614 4.365 4.004
5.385 4.277 4.270
5.486 4.324 4.221
5.103 4.057 4.736
4.835 4.188 4.644
4.759 4.396 4.902
4.363 4.325 4.894
4.432 4.139 5.076
4.219 4.208 5.274
5.652 4.397 3.624
5.677 4.498 4.012
5.604 4.428 4.151
4.987 4.178 3.971
5.146 4.553 4.516
4.598 4.397 4.656
4.750 4.229 4.595
4.536 4.203 4.872
4.330 4.210 4.716
4.028 4.326 5.093
3.930 4.322 5.220
5.286 4.374 3.716
5.147 4.564 3.735
4.928 4.341 4.039
4.904 4.174 4.058
4.683 4.589 4.433
4.411 4.226 4.501
4.070 4.348 4.680
4.095 4.344 4.539
3.797 4.595 4.551
3.478 4.329 4.984
3.547 4.363 5.183
3.068 4.600 5.171
5.144 4.637 3.812
5.155 4.449 3.559
4.546 4.609 3.916
4.443 4.323 4.165
4.142 4.321 4.139
4.274 4.257 4.182
4.100 4.526 4.590
3.567 4.538 4.513
3.702 4.530 4.804
3.397 4.303 4.611
2.938 4.488 5.065
4.561 4.284 3.818
4.571 4.494 3.988
4.328 4.556 4.112
3.819 4.411 4.148
3.821 4.282 4.098
3.416 4.292 4.122
3.228 4.324 4.294
3.072 4.641 4.588
2.954 4.365 4.671
4.140 4.365 3.859
3.824 4.568 3.671
3.722 4.383 4.071
3.603 4.585 4.237
3.038 4.593 4.058
3.198 4.342 4.463
2.744 4.546 4.472
3.648 4.601 3.941
3.429 4.669 3.849
3.284 4.548 3.994
2.868 4.505 4.321
2.619 4.496 4.266
3.042 4.629 3.789
3.035 4.628 3.872
2.835 4.576 4.066
2.472 4.589 4.076
3.068 4.592 3.532
2.451 4.605 3.738
2.481 4.560 3.719
2.328 4.890 3.655
2.370 4.871 3.646
2.071 4.832 3.365
5.954 4.283 4.899
5.869 4.151 5.116
5.333 4.093 5.185
5.091 4.058 5.247
5.010 3.912 5.487
5.850 3.731 4.626
5.646 3.932 5.057
5.279 4.029 4.982
5.435 3.754 5.027
5.954 3.994 4.378
5.704 3.944 4.423
5.501 3.861 4.748
5.454 4.052 4.774
5.081 4.024 4.806
5.033 3.785 5.338
6.187 4.146 4.052
6.006 4.211 4.508
5.403 4.215 4.349
5.247 3.781 4.442
5.348 4.175 4.698
5.183 4.010 4.976
4.964 4.185 4.772
4.535 3.836 5.028
6.018 4.131 3.855
5.668 4.049 4.131
5.479 4.185 3.894
5.655 4.020 4.068
5.470 3.989 4.231
4.928 4.229 4.321
4.636 4.238 4.640
4.631 4.113 4.604
4.607 4.187 4.899
4.020 3.963 4.914
5.960 4.064 3.532
5.873 3.913 3.592
5.713 4.249 4.077
5.225 4.012 4.084
4.963 4.040 4.001
5.133 4.266 4.067
4.884 4.013 4.391
4.628 4.225 4.651
4.259 4.141 4.540
4.158 4.020 4.881
4.023 4.102 4.763
5.650 4.177 3.455
5.431 3.929 3.662
5.418 4.258 3.804
5.384 4.057 3.678
4.976 3.946 4.093
4.651 4.288 3.840
4.768 4.358 4.214
4.432 4.166 4.418
4.315 4.331 4.338
4.102 4.204 4.427
3.845 4.378 4.527
3.368 4.032 4.876
3.544 4.336 4.830
5.626 4.390 3.401
5.510 4.152 3.607
5.218 4.300 3.778
4.964 4.272 3.915
4.892 4.342 3.947
4.628 4.341 3.891
4.410 4.347 4.007
4.177 3.997 4.367
3.797 4.018 4.346
3.483 4.415 4.284
3.351 4.069 4.527
3.168 4.191 4.860
3.239 4.032 4.822
4.629 4.389 3.516
4.352 4.044 3.807
4.119 4.252 4.115
4.065 4.378 4.090
3.873 4.050 4.108
3.558 4.438 4.425
3.276 4.213 4.225
3.042 4.141 4.640
2.970 4.383 4.606
3.672 4.395 3.864
3.576 4.397 3.866
3.411 4.364 4.001
3.201 4.155 4.148
3.165 4.330 4.278
2.730 4.084 4.375
3.499 4.496 3.968
3.278 4.147 4.163
3.081 4.204 4.075
2.653 4.503 4.373
3.111 4.287 3.661
2.604 4.306 3.765
2.528 4.231 3.968
2.789 4.336 3.637
2.257 4.282 3.683
2.257 4.631 3.641
5.698 3.849 4.940
5.566 4.106 4.769
5.635 3.961 4.865
5.292 3.830 5.109
5.822 3.619 4.501
5.699 3.527 4.744
5.629 3.437 4.891
5.580 3.746 5.104
6.168 3.629 4.150
5.994 3.628 4.405
5.496 3.644 4.445
5.312 3.603 4.583
5.319 3.789 4.761
5.023 3.685 4.733
6.116 3.925 3.865
5.803 3.950 3.913
5.565 3.748 4.234
5.600 3.774 4.332
5.447 3.716 4.503
5.168 3.583 4.714
5.181 3.801 4.865
4.618 3.815 4.727
6.277 3.854 3.802
6.016 3.708 3.780
5.881 3.813 3.745
5.525 4.005 4.159
5.450 3.754 4.031
5.055 3.788 4.207
4.886 3.736 4.626
4.689 3.869 4.678
4.459 3.958 4.656
4.458 3.672 4.910
5.944 3.987 3.546
5.917 3.717 3.548
5.631 3.838 3.672
5.451 3.954 3.767
5.275 4.058 3.837
5.255 3.928 4.302
4.971 3.860 4.205
4.483 3.644 4.454
4.415 4.036 4.477
4.224 3.640 4.457
4.027 3.723 4.760
6.182 4.031 2.932
6.210 3.886 3.202
5.695 3.854 3.404
5.649 4.109 3.460
5.368 4.000 3.517
5.161 3.765 3.581
5.187 3.993 3.900
4.898 3.727 4.139
4.582 3.942 4.212
4.490 3.763 4.385
4.303 3.866 4.586
4.094 3.994 4.372
3.989 4.141 4.509
5.951 3.883 3.126
5.920 4.146 2.911
5.740 4.004 3.296
5.392 3.899 3.127
5.496 3.960 3.499
5.092 4.072 3.412
4.793 4.145 3.709
4.570 3.874 3.922
4.312 3.970 3.968
4.130 4.152 3.847
4.036 3.936 4.041
4.031 4.102 4.216
3.572 4.174 4.600
3.336 4.025 4.658
3.333 4.132 4.655
6.231 3.970 2.831
5.852 3.951 2.581
5.972 4.217 2.748
3.800 3.810 4.082
3.691 4.148 4.054
3.528 4.200 4.360
3.359 3.801 4.400
3.270 3.874 4.466
2.929 3.879 4.556
6.261 4.216 2.714
6.250 3.857 2.622
3.473 4.086 4.051
3.179 4.215 4.061
2.796 4.093 4.098
2.805 4.019 4.432
6.251 3.968 2.517
3.066 4.031 3.956
2.934 3.913 4.244
2.564 4.281 4.234
6.044 4.066 2.041
2.858 4.383 3.885
2.754 4.346 4.216
6.181 4.252 1.919
2.466 4.407 3.842
6.209 3.771 4.502
5.892 3.482 4.738
5.598 3.698 4.961
5.562 3.611 5.052
0.852 3.929 6.212
0.961 4.145 6.215
0.882 3.823 6.286
0.853 3.866 6.118
1.542 4.026 5.838
1.052 4.105 6.155
0.827 3.809 6.053
0.659 4.042 6.031
0.478 4.246 5.810
0.529 4.070 5.913
2.614 3.885 4.852
2.583 4.041 4.686
