1.122 3.328 -0.134
0.242 3.097 0.068
0.629 3.221 0.538
0.882 3.197 0.237
1.220 3.360 0.344
1.282 3.429 0.129
1.712 3.487 0.041
0.488 3.220 0.527
0.594 2.942 0.617
0.886 2.913 0.587
1.149 3.060 0.450
1.591 3.136 0.491
0.448 2.853 0.807
0.604 2.987 0.598
0.911 2.812 1.070
1.221 2.825 0.954
3.260 3.500 0.244
3.591 3.563 0.130
0.298 2.501 1.072
0.555 2.680 1.211
0.782 2.864 1.028
0.286 2.836 0.110
0.436 2.823 0.073
0.512 2.760 0.277
0.926 2.886 0.200
1.129 3.004 0.195
0.464 2.844 0.316
0.785 2.590 0.586
1.084 2.751 0.325
1.167 2.789 0.389
1.538 2.885 0.244
1.923 3.001 0.105
0.785 2.596 0.453
1.197 2.467 0.849
0.448 2.606 0.130
0.942 2.476 -0.085
0.454 2.501 0.239
1.018 2.590 0.198
1.441 2.539 0.243
1.632 2.602 0.072
0.932 2.279 0.091
1.192 2.318 -0.124
1.699 2.215 0.077
2.184 2.335 0.144
0.097 0.983 0.325
0.290 1.212 0.190
0.634 1.173 0.223
0.000 0.963 0.211
0.427 0.898 0.130
0.764 1.029 0.121
0.124 0.489 0.178
0.383 6.079 1.924
0.842 6.070 1.776
0.096 5.988 2.086
0.413 5.950 2.002
0.906 6.196 1.953
1.033 6.061 1.962
0.128 5.970 2.147
0.503 5.759 2.435
0.650 5.781 2.335
1.100 6.030 2.298
0.085 5.756 2.606
0.301 5.840 2.476
0.531 5.713 2.740
0.711 5.602 2.511
2.695 6.290 2.116
0.286 5.408 2.971
0.507 5.654 2.863
5.349 5.726 0.062
5.548 5.696 0.233
5.647 5.609 0.130
5.482 5.262 -0.040
5.736 5.606 -0.133
0.181 5.920 6.097
0.216 5.566 6.262
0.180 5.430 6.071
0.285 5.204 5.818
0.435 5.056 6.216
0.056 4.611 5.984
0.501 4.809 6.085
0.589 4.450 6.183
0.310 4.320 5.720
0.271 4.070 6.254
0.700 4.188 6.056
0.530 3.837 5.999
0.661 3.772 6.304
1.918 6.146 6.117
1.127 6.154 5.701
1.578 6.357 5.562
1.305 6.192 5.610
1.703 6.138 5.910
1.896 6.349 5.569
2.160 6.141 5.810
2.499 6.195 5.892
2.694 6.152 5.795
4.970 6.338 6.249
5.850 6.386 6.194
0.587 6.372 4.831
1.097 6.323 4.996
0.588 6.216 4.909
1.066 6.308 4.953
1.142 5.990 5.254
1.365 6.043 5.139
1.610 6.390 5.122
1.011 5.940 5.079
1.640 5.999 5.326
1.947 6.014 5.296
2.232 6.162 5.107
2.400 6.268 5.026
2.044 5.834 5.631
2.356 6.166 5.502
2.694 6.145 5.207
2.953 6.210 5.137
2.386 5.821 5.728
2.611 5.854 5.455
3.058 6.138 5.420
3.346 6.160 5.389
0.736 5.220 6.385
2.982 5.731 5.706
3.253 5.782 5.701
3.549 5.878 5.537
3.930 5.992 5.437
3.539 5.959 5.932
3.779 5.908 5.713
4.251 5.997 5.755
4.126 5.888 6.103
4.375 6.014 5.969
4.598 5.913 5.874
4.878 6.166 5.869
4.350 5.619 6.316
4.784 5.909 6.193
5.069 5.925 6.032
5.380 5.975 5.860
5.396 6.006 6.340
5.866 5.966 6.041
6.193 6.002 6.376
0.460 6.209 4.876
0.920 5.949 4.361
1.313 6.099 4.263
0.360 6.018 4.608
0.702 6.043 4.550
0.927 6.018 4.359
1.005 5.918 4.802
1.431 6.121 4.615
0.768 5.817 4.900
1.153 6.014 4.744
2.554 5.767 5.235
2.808 6.058 5.182
3.279 5.931 4.926
2.793 5.760 5.532
3.172 5.780 5.205
3.247 5.870 5.270
3.739 6.101 5.136
3.874 6.079 5.006
0.794 5.082 6.028
0.924 5.057 5.891
2.963 5.643 5.692
3.134 5.504 5.621
3.446 5.647 5.330
3.897 5.759 5.389
4.122 5.858 5.232
4.498 6.044 5.115
1.211 4.918 6.302
1.289 4.999 6.085
3.437 5.430 5.850
3.596 5.448 5.753
4.057 5.791 5.661
4.322 5.734 5.646
4.453 5.949 5.366
3.542 5.275 6.062
3.694 5.370 6.105
3.956 5.489 5.860
4.481 5.682 5.687
4.759 5.783 5.800
4.998 5.858 5.528
4.044 5.165 6.398
4.106 5.348 6.215
4.409 5.368 6.130
4.933 5.539 6.010
5.210 5.572 5.871
4.941 5.373 6.179
5.162 5.630 6.247
5.631 5.545 6.028
-0.090 6.261 4.235
0.687 6.221 4.278
0.181 6.180 4.429
0.619 6.061 4.212
0.805 6.342 4.181
0.823 5.971 4.590
1.306 6.312 4.459
0.449 6.033 4.704
0.673 6.078 4.569
0.886 5.993 4.417
0.865 5.946 4.211
0.008 5.544 4.524
0.476 5.756 4.499
0.650 5.606 4.452
1.075 5.939 4.194
3.373 5.793 4.788
3.126 5.516 5.223
3.498 5.533 5.015
3.726 5.603 5.044
4.110 5.758 4.707
4.262 5.772 4.772
0.651 4.778 5.929
1.132 4.726 5.952
1.327 5.056 5.835
1.865 4.865 5.785
2.889 5.375 5.468
3.118 5.365 5.491
3.549 5.579 5.164
3.857 5.414 5.170
4.076 5.519 5.023
4.368 5.810 4.967
5.922 6.072 4.601
0.721 4.571 6.081
0.995 4.590 5.978
1.306 4.728 6.108
1.739 4.797 5.770
1.877 4.771 6.042
3.446 5.316 5.672
3.702 5.321 5.695
3.976 5.444 5.575
4.338 5.601 5.406
4.565 5.607 5.343
4.925 5.737 5.195
5.950 6.160 4.807
1.519 4.516 6.133
1.787 4.734 6.023
3.379 4.922 5.983
3.943 5.200 5.725
4.252 5.171 5.595
4.439 5.285 5.523
4.640 5.571 5.493
4.875 5.642 5.532
6.148 6.000 5.047
3.648 4.772 6.170
4.040 5.026 5.983
4.211 5.066 6.093
4.590 5.141 5.934
4.974 5.293 5.882
5.253 5.242 5.607
4.284 4.844 6.158
4.680 5.042 6.104
5.042 5.122 6.088
0.627 6.155 3.478
0.211 6.027 3.502
0.429 6.228 3.483
0.720 6.164 3.814
-0.042 6.009 3.871
0.347 6.125 3.784
0.570 6.112 3.738
0.814 5.966 3.996
0.150 5.900 4.366
0.387 5.812 4.213
0.690 5.994 3.947
0.832 5.915 4.208
0.149 5.508 4.529
0.236 5.685 4.405
0.685 5.637 4.401
1.061 5.933 4.273
2.526 5.928 3.505
2.868 6.007 3.515
3.160 6.217 3.442
3.454 6.156 3.467
0.040 5.182 4.521
0.315 5.277 4.396
0.606 5.423 4.119
1.673 4.788 5.474
3.322 5.317 4.742
3.664 5.320 4.633
4.069 5.490 4.740
4.414 5.678 4.636
6.221 6.152 3.894
0.788 4.511 5.648
0.901 4.569 5.540
1.186 4.649 5.528
1.663 4.748 5.519
1.746 4.737 5.728
3.135 5.068 5.329
3.643 5.283 5.225
3.893 5.216 4.955
4.127 5.243 4.953
4.393 5.387 4.961
4.727 5.510 4.733
5.978 6.058 4.391
0.994 4.340 5.990
1.167 4.510 5.892
1.572 4.633 5.913
1.670 4.671 5.805
1.767 4.486 5.872
3.415 4.790 5.514
3.813 4.997 5.335
4.088 5.182 5.372
4.438 5.192 5.192
4.744 5.399 5.012
5.023 5.340 4.985
6.001 5.821 4.537
0.911 4.092 6.400
1.231 4.425 6.144
1.681 4.292 6.198
1.945 4.436 5.957
1.960 4.420 6.158
3.439 4.768 5.873
3.714 4.840 5.765
4.238 4.873 5.604
4.440 4.944 5.436
4.612 5.050 5.253
6.139 5.517 4.728
2.158 4.419 6.138
3.678 4.641 5.894
4.105 4.712 5.998
4.379 4.685 5.823
4.676 5.036 5.829
4.923 5.084 5.544
3.981 4.536 6.067
4.308 4.596 5.927
0.599 5.856 3.453
0.208 5.983 3.404
0.448 6.040 3.230
0.791 5.852 3.524
0.057 5.620 3.776
0.458 5.712 3.788
0.819 5.720 3.661
0.832 5.762 3.937
2.460 6.141 3.415
2.557 6.374 3.211
0.252 5.600 4.028
0.437 5.479 3.993
0.839 5.586 3.980
2.448 6.022 3.636
2.854 6.060 3.613
3.078 6.035 3.494
3.373 6.141 3.443
0.114 5.276 4.475
0.320 5.460 4.346
0.686 5.422 4.154
2.269 5.732 3.584
2.593 5.790 3.345
2.859 5.864 3.326
3.160 5.962 3.141
0.085 4.890 4.365
0.318 4.932 4.043
2.468 5.560 3.851
2.716 5.491 3.689
1.619 4.624 5.055
1.784 4.765 4.980
3.965 5.525 4.240
4.107 5.472 4.112
4.474 5.534 4.090
1.216 4.599 5.245
1.640 4.638 4.874
1.649 4.517 5.219
1.847 4.632 5.096
3.347 4.997 4.668
3.786 5.189 4.548
3.953 5.107 4.559
4.393 5.207 4.438
4.688 5.316 4.210
0.783 4.277 5.673
1.041 4.295 5.573
1.481 4.332 5.431
1.656 4.367 5.192
1.902 4.240 5.556
3.360 4.845 5.110
3.555 5.028 5.084
3.834 5.071 4.776
4.179 5.208 4.703
4.499 5.174 4.551
4.927 5.155 4.566
1.027 3.988 5.929
1.183 4.213 5.835
1.386 4.352 5.637
1.670 4.299 5.680
1.905 4.124 5.705
3.568 4.629 5.369
3.660 4.692 5.186
3.965 4.740 5.018
4.278 4.966 5.106
4.703 5.080 4.909
4.869 5.111 4.911
6.228 5.358 4.461
1.084 3.917 5.989
1.303 3.943 5.902
1.531 4.113 5.878
1.840 4.312 5.688
3.211 4.280 5.602
3.617 4.541 5.430
3.922 4.470 5.382
4.305 4.557 5.258
4.490 4.778 5.391
4.856 4.964 5.117
6.415 5.376 4.776
1.490 3.964 6.241
1.873 4.034 6.026
3.537 4.125 5.803
3.693 4.396 5.838
4.038 4.303 5.651
4.332 4.488 5.620
4.613 4.751 5.598
3.499 4.158 6.322
3.949 4.322 6.020
4.028 4.279 5.955
4.322 4.510 6.018
0.691 5.631 3.174
2.196 6.150 2.651
2.404 6.254 2.467
0.387 5.540 3.322
0.539 5.657 3.266
0.846 5.671 3.460
2.121 6.049 2.923
2.475 6.188 2.977
2.954 6.106 2.618
0.213 5.354 3.696
0.424 5.325 3.452
0.662 5.508 3.415
2.007 5.654 3.305
2.337 5.835 3.157
2.566 5.988 3.110
2.940 6.174 3.030
3.149 6.266 2.873
3.592 6.361 2.717
0.293 5.119 3.935
0.527 5.194 3.823
2.067 5.575 3.434
2.592 5.609 3.486
2.845 5.942 3.482
3.010 5.834 3.229
0.002 5.048 4.359
0.324 4.993 4.070
0.661 3.535 6.001
0.199 3.379 4.892
0.017 3.338 4.414
0.095 3.090 4.725
0.375 3.038 5.103
0.093 3.033 4.460
0.236 2.660 4.616
0.323 2.759 4.581
0.241 2.724 4.757
0.574 2.812 4.892
0.362 2.458 5.197
0.867 2.577 4.969
0.086 2.578 4.062
0.134 2.401 4.597
0.560 2.564 4.428
0.047 2.235 4.773
0.245 2.255 4.833
0.732 2.541 4.593
0.487 2.240 5.048
0.844 2.180 4.806
0.852 2.185 5.035
1.077 1.934 5.420
0.169 2.252 4.385
0.558 2.213 4.105
0.388 2.187 4.649
0.712 2.211 4.453
0.477 1.967 4.734
0.871 1.986 4.651
0.756 1.844 5.073
0.972 1.968 4.995
1.160 1.806 5.119
1.253 1.518 5.551
-0.108 2.519 3.047
0.595 1.921 4.398
0.444 1.565 4.655
0.908 1.605 4.422
0.659 1.380 4.887
0.861 1.713 4.925
0.800 1.348 5.038
0.969 1.524 4.926
1.126 1.344 5.400
-0.117 2.688 2.978
-0.044 2.367 2.775
0.605 1.521 3.963
0.878 1.398 4.220
0.619 1.233 4.723
1.003 1.267 4.746
0.723 1.080 4.880
0.995 1.149 4.819
1.074 0.828 5.382
1.142 0.942 5.017
1.057 0.872 5.494
1.439 0.787 5.286
0.094 2.409 2.691
0.055 1.992 2.604
0.207 2.074 2.762
0.735 1.044 4.304
0.961 1.036 4.585
0.799 0.755 4.845
1.019 1.002 4.596
0.613 0.475 5.290
1.068 0.773 5.178
1.127 0.671 5.064
0.678 0.246 5.457
1.032 0.394 5.330
1.365 0.576 5.337
0.598 0.050 5.791
0.935 0.304 5.673
1.133 0.421 5.640
0.038 2.147 2.478
0.098 1.686 2.416
0.334 1.576 2.580
0.027 1.399 3.045
0.128 1.277 3.410
0.092 1.042 3.659
0.979 0.522 4.660
1.092 0.682 4.512
0.824 0.142 5.071
0.925 0.256 4.808
1.344 0.508 4.868
0.559 -0.017 5.501
0.819 0.151 5.323
1.116 0.213 5.259
1.420 0.322 5.188
1.187 0.068 5.411
1.600 0.060 5.311
0.045 1.782 2.489
0.126 1.238 2.472
0.039 1.022 2.921
0.291 0.866 3.238
0.042 0.706 3.570
0.341 0.906 3.402
1.111 0.154 4.813
1.334 0.085 5.023
0.076 0.967 2.707
0.327 0.673 2.915
0.195 0.437 3.446
0.396 0.445 3.109
0.191 0.292 3.669
0.030 0.649 2.349
0.106 0.493 2.610
0.373 0.531 2.698
0.690 0.407 2.583
0.140 0.202 3.116
0.321 0.136 3.180
0.817 0.277 2.911
0.127 0.053 3.487
0.554 0.187 3.264
0.749 0.076 3.221
0.081 0.094 2.801
0.315 0.094 2.521
0.694 -0.047 2.764
0.160 0.680 1.314
0.150 0.436 0.835
0.170 0.238 1.167
0.075 0.232 0.792
0.644 3.509 6.098
2.068 5.291 3.380
2.272 5.308 3.435
2.564 5.557 3.372
2.760 5.447 3.187
5.013 6.248 2.437
5.251 6.275 2.390
0.020 4.770 4.026
1.723 5.010 3.903
2.051 5.220 3.827
2.437 5.283 3.615
2.668 5.231 3.469
4.747 5.936 2.889
4.947 5.923 2.623
5.475 6.097 2.547
5.614 6.141 2.461
1.623 4.809 4.085
2.024 4.895 3.993
2.246 4.927 4.069
2.484 5.074 3.795
4.468 5.630 3.241
5.049 5.715 3.180
5.304 5.769 3.040
5.550 5.902 3.016
1.430 4.568 4.461
1.853 4.684 4.614
1.964 4.767 4.401
2.211 4.662 4.135
4.433 5.368 3.703
4.653 5.631 3.360
5.132 5.526 3.442
5.205 5.724 3.336
1.506 4.605 4.668
1.602 4.376 4.898
1.810 4.470 4.760
2.212 4.595 4.609
4.292 5.265 3.822
4.447 5.280 3.956
4.900 5.398 3.658
5.268 5.579 3.686
1.129 4.326 4.922
1.453 4.271 4.924
1.796 4.132 5.175
1.890 4.247 4.995
4.116 5.049 4.219
4.263 4.980 4.245
4.731 5.154 4.228
4.991 5.120 4.111
1.156 4.142 5.159
1.391 3.987 5.107
1.757 4.117 5.080
1.869 3.984 5.398
4.022 4.617 4.607
4.284 4.773 4.665
4.649 5.030 4.484
4.936 4.872 4.380
0.886 3.862 5.613
1.332 3.781 5.641
1.612 4.002 5.581
1.683 4.097 5.262
3.900 4.485 5.061
4.008 4.595 4.799
4.233 4.789 4.826
4.739 4.887 4.629
1.043 3.602 5.834
1.461 3.616 5.874
1.654 3.943 5.806
3.728 4.328 5.274
3.767 4.398 5.219
4.252 4.454 5.303
4.481 4.551 5.098
1.214 3.525 6.056
1.541 3.634 6.185
3.433 3.892 5.744
3.705 3.962 5.627
4.113 4.228 5.549
4.212 4.269 5.486
6.172 4.708 4.796
3.360 3.595 6.241
3.695 3.935 5.947
3.783 3.779 5.981
4.109 3.986 5.910
6.055 4.510 5.266
6.370 4.777 5.042
3.819 3.729 6.417
4.030 3.844 6.148
5.873 4.344 5.547
6.003 4.549 5.628
5.574 4.175 5.820
5.949 4.066 5.708
6.159 4.258 5.691
5.670 3.961 6.262
6.194 4.067 5.986
0.647 5.503 3.012
2.411 5.859 2.436
2.712 6.152 2.384
2.984 6.085 2.239
3.469 6.359 1.975
0.141 5.308 3.331
0.231 5.341 3.236
0.579 5.324 2.999
2.267 5.646 2.755
2.455 5.697 2.651
2.912 6.020 2.456
3.070 5.926 2.352
0.159 5.216 3.444
0.433 5.260 3.462
2.090 5.433 3.000
2.261 5.644 3.171
2.610 5.771 2.842
2.976 5.712 2.887
0.183 4.815 3.853
1.860 5.210 3.356
2.111 5.419 3.517
2.436 5.470 3.254
2.825 5.512 3.329
4.834 6.275 2.384
5.374 6.361 2.417
0.206 4.657 3.986
1.655 4.732 3.471
2.093 5.041 3.425
2.210 5.171 3.115
2.548 5.211 3.086
4.610 5.787 2.283
5.107 5.918 2.310
5.220 6.060 2.131
5.612 6.022 2.179
1.442 4.709 3.918
1.704 4.654 3.580
1.994 4.757 3.476
2.456 4.933 3.390
2.654 5.120 3.361
4.063 5.568 2.833
4.560 5.505 2.876
4.681 5.739 2.585
5.224 5.828 2.461
5.360 5.933 2.429
5.780 5.796 2.270
1.455 4.411 4.268
1.611 4.514 4.048
2.023 4.702 4.017
2.277 4.725 3.819
2.570 4.626 3.834
2.704 4.819 3.656
4.357 5.423 3.059
4.702 5.392 3.044
4.812 5.503 2.963
5.155 5.561 2.798
5.672 5.757 2.867
1.268 4.299 4.236
1.416 4.125 4.452
1.824 4.411 4.159
1.942 4.478 4.212
2.492 4.549 4.055
2.637 4.686 3.864
4.109 5.083 3.530
4.519 5.250 3.327
4.717 5.317 3.192
4.931 5.443 3.160
5.473 5.531 3.134
5.787 5.614 2.929
1.519 4.218 4.487
1.697 4.222 4.533
1.793 4.060 4.687
2.181 4.184 4.479
2.411 4.225 4.319
2.648 4.594 4.224
4.261 4.868 3.702
4.540 5.046 3.634
4.938 4.971 3.542
5.317 5.093 3.603
5.645 5.346 3.398
1.173 4.003 4.856
1.474 4.163 4.689
1.803 3.987 4.783
2.109 3.981 4.841
2.280 4.129 4.774
4.415 4.865 4.061
4.809 4.943 3.941
5.116 5.039 3.944
5.286 4.979 3.606
1.467 3.900 4.955
1.768 3.845 4.939
3.228 3.735 5.758
3.522 3.576 5.553
3.652 3.862 5.616
5.723 4.479 4.892
6.180 4.516 4.583
2.716 3.148 6.043
2.979 3.360 5.917
3.257 3.399 5.860
3.553 3.607 5.827
4.027 3.540 5.869
5.805 4.315 5.112
5.975 4.394 4.930
3.474 3.424 6.315
3.755 3.326 6.143
4.117 3.573 5.887
5.606 3.928 5.583
5.943 4.057 5.343
6.260 4.280 5.193
4.200 3.461 6.374
5.388 3.762 5.983
5.519 3.715 5.665
6.105 3.775 5.674
6.128 4.077 5.456
5.399 3.698 6.216
5.841 3.551 6.063
6.007 3.780 5.969
6.276 3.713 6.113
2.027 5.305 2.847
2.380 5.194 2.789
5.149 6.009 2.029
5.411 6.262 1.921
1.712 4.745 3.533
2.092 4.947 3.172
2.348 5.188 3.212
2.593 5.047 3.059
4.686 5.913 2.481
4.901 5.811 2.199
5.217 5.952 2.158
5.444 6.142 2.188
1.377 4.596 3.349
1.825 4.592 3.351
2.005 4.609 3.139
2.336 4.827 2.963
4.492 5.501 2.458
4.791 5.398 2.164
5.034 5.737 2.060
5.275 5.830 2.140
1.214 4.254 3.705
1.409 4.302 3.576
1.769 4.411 3.557
2.004 4.445 3.259
2.405 4.647 3.347
2.846 4.751 3.337
4.169 5.122 2.762
4.425 5.206 2.513
4.856 5.388 2.551
5.031 5.406 2.407
5.318 5.679 2.413
1.105 4.302 3.722
1.346 4.179 3.916
1.565 4.174 3.901
1.949 4.305 3.736
2.190 4.429 3.775
2.647 4.557 3.466
2.781 4.684 3.461
3.937 4.804 3.087
4.419 5.013 3.050
4.784 5.128 2.800
5.017 5.102 2.750
5.362 5.277 2.533
5.481 5.320 2.604
1.460 4.000 3.925
1.584 4.034 4.324
1.698 4.192 4.067
2.149 4.017 4.158
2.519 4.105 4.052
2.674 4.390 3.743
2.853 4.454 3.667
4.313 4.694 3.240
4.372 4.895 3.108
4.811 5.010 3.057
4.970 5.190 3.004
5.448 5.169 3.075
5.779 5.290 2.969
1.425 3.907 4.148
1.721 3.704 4.392
2.050 3.854 4.433
2.123 4.109 4.400
2.479 4.061 4.318
2.917 4.069 3.998
4.252 4.504 3.616
4.600 4.858 3.517
4.844 4.801 3.513
5.218 5.041 3.257
5.424 4.911 3.341
5.943 5.230 3.139
1.651 3.758 4.407
2.153 3.798 4.788
2.331 3.767 4.582
2.751 3.939 4.520
4.789 4.512 3.814
5.079 4.537 3.733
5.357 4.681 3.543
5.769 4.879 3.340
3.013 3.280 5.513
3.149 3.286 5.460
3.359 3.324 5.480
5.790 4.125 4.707
6.210 4.299 4.599
2.683 2.906 6.081
3.029 3.144 5.908
3.424 3.223 5.737
3.490 3.282 5.790
3.892 3.352 5.531
5.383 3.954 5.080
5.772 3.938 5.055
5.903 4.125 4.847
2.906 2.711 6.140
3.225 2.978 6.167
3.460 3.110 6.103
3.608 3.119 6.027
4.052 3.084 5.849
5.639 3.691 5.244
5.956 3.744 5.177
6.023 3.886 5.147
3.808 2.905 6.125
4.264 3.128 5.994
5.521 3.561 5.639
5.753 3.664 5.676
5.866 3.492 5.421
5.512 3.216 6.077
5.753 3.273 5.886
6.126 3.559 5.677
6.072 3.178 5.984
6.236 3.450 6.069
1.281 4.557 3.257
1.716 4.670 3.321
2.088 4.645 3.269
2.187 4.745 3.032
4.318 5.298 2.229
4.640 5.456 2.146
5.101 5.745 2.087
5.440 5.682 2.040
1.068 4.215 3.281
1.480 4.177 3.304
1.811 4.288 2.984
2.048 4.449 2.914
4.057 5.154 2.329
4.484 5.234 2.310
4.744 5.262 2.057
5.129 5.434 2.079
1.079 4.123 3.283
1.377 4.079 3.488
1.536 4.130 3.548
1.928 4.128 3.326
2.267 4.168 3.178
2.365 4.353 3.183
3.954 4.931 2.676
4.184 4.873 2.515
4.578 5.028 2.423
4.985 5.201 2.301
5.118 5.236 2.180
5.550 5.257 2.043
1.153 3.982 3.485
1.469 3.776 3.682
1.632 3.892 3.811
2.012 3.972 3.575
2.192 4.178 3.448
2.512 4.290 3.506
2.941 4.198 3.323
4.163 4.640 2.788
4.295 4.744 2.777
4.561 4.808 2.783
4.861 5.010 2.521
5.184 5.174 2.400
5.555 5.038 2.470
1.292 3.769 3.888
1.476 3.783 4.157
1.843 3.773 4.086
2.150 3.857 3.811
2.375 3.928 3.896
2.720 4.069 3.688
2.898 4.204 3.564
4.435 4.658 3.014
4.789 4.831 2.958
5.270 4.680 2.836
5.429 4.906 2.726
5.611 4.844 2.557
1.409 3.629 4.006
2.038 3.741 4.207
2.136 3.728 4.253
2.508 3.664 3.953
2.788 3.974 3.984
3.008 3.962 3.725
4.605 4.359 3.363
4.854 4.570 3.210
5.142 4.570 3.226
5.419 4.784 2.906
5.972 4.885 2.845
2.307 3.480 4.367
2.732 3.787 4.397
2.954 3.820 4.210
5.016 4.350 3.512
5.254 4.623 3.486
5.635 4.489 3.417
6.035 4.670 3.048
2.645 2.776 5.522
2.969 2.952 5.545
5.345 3.596 4.707
5.619 3.785 4.653
5.991 4.012 4.506
2.345 2.547 5.861
2.758 2.660 5.685
3.105 2.909 5.728
3.385 3.011 5.471
3.554 2.871 5.472
5.263 3.369 4.870
5.553 3.414 4.916
5.817 3.569 4.748
6.049 3.721 4.749
2.403 2.709 5.756
2.518 2.538 6.118
2.901 2.434 5.970
3.115 2.634 6.032
3.452 2.606 5.853
3.896 2.704 5.869
4.005 2.960 5.624
5.392 3.363 5.306
5.671 3.342 5.252
5.888 3.482 5.197
6.258 3.558 4.990
2.536 2.500 6.233
3.264 2.534 6.307
3.642 2.609 6.218
3.966 2.593 6.133
4.175 2.823 5.975
5.493 3.259 5.547
5.698 3.136 5.360
6.150 3.241 5.339
3.909 2.595 6.253
4.275 2.615 6.249
5.840 3.152 5.665
6.159 3.190 5.462
6.001 3.023 5.858
1.031 4.158 3.259
1.325 4.157 3.303
1.813 4.324 2.972
1.898 4.508 3.081
4.165 4.947 2.310
4.481 5.107 2.081
4.759 5.111 2.150
4.985 5.212 1.911
1.110 4.106 3.397
1.223 3.936 3.208
1.489 3.904 3.030
1.678 4.053 2.794
3.801 4.728 2.262
4.014 4.688 2.145
4.338 4.741 2.000
4.768 5.064 1.930
0.701 3.823 3.274
1.281 3.769 3.224
1.350 3.564 3.250
1.644 3.789 3.126
1.770 4.014 3.017
2.276 4.115 3.047
2.432 3.996 2.820
4.126 4.532 2.482
4.283 4.707 2.219
4.598 4.615 2.368
4.794 4.682 2.266
5.169 4.901 1.999
1.073 3.621 3.363
1.196 3.822 3.350
1.345 3.561 3.721
1.633 3.575 3.440
2.073 3.862 3.300
2.204 3.813 3.424
2.503 3.977 3.189
4.197 4.353 2.752
4.356 4.600 2.733
4.659 4.426 2.576
5.084 4.577 2.408
5.403 4.893 2.277
5.643 4.717 2.277
1.400 3.686 3.524
1.870 3.364 3.683
2.190 3.675 3.813
2.488 3.556 3.673
2.814 3.788 3.534
3.120 3.867 3.366
4.498 4.361 2.773
4.849 4.478 2.737
5.103 4.489 2.695
5.584 4.699 2.511
5.685 4.833 2.631
2.044 3.432 4.103
2.145 3.360 3.846
2.514 3.417 3.772
2.789 3.643 3.609
3.273 3.569 3.654
5.125 4.213 2.915
5.285 4.372 2.952
5.711 4.558 2.882
5.756 4.567 2.769
6.063 4.764 2.570
2.647 3.470 4.070
3.023 3.443 4.106
3.316 3.517 3.863
3.699 3.755 3.789
5.484 4.124 3.157
5.620 4.233 3.078
5.896 4.382 3.122
3.470 3.366 4.103
3.875 3.455 4.160
6.129 4.163 3.168
1.020 2.704 5.081
4.572 3.428 4.302
4.961 3.544 4.257
1.874 2.692 5.310
2.301 2.613 5.577
2.695 2.558 5.244
3.055 2.744 5.260
4.852 3.269 4.624
4.979 3.303 4.695
5.474 3.320 4.369
5.689 3.535 4.353
2.147 2.405 5.531
2.446 2.604 5.467
2.388 2.221 5.673
2.884 2.464 5.742
3.205 2.488 5.480
3.346 2.688 5.435
5.219 3.042 4.713
5.385 3.350 4.822
5.813 3.346 4.589
6.054 3.474 4.513
2.212 2.207 5.913
2.478 2.219 5.664
2.734 2.146 5.927
2.775 2.293 5.912
3.269 2.313 5.856
3.640 2.460 5.660
3.935 2.454 5.676
5.313 3.069 5.008
5.581 3.021 5.016
5.811 3.353 4.888
6.238 3.382 4.791
2.672 2.209 5.890
2.852 2.139 6.174
3.115 2.183 6.057
3.283 2.087 6.151
3.540 2.389 5.814
3.918 2.297 5.938
4.274 2.456 5.856
5.712 2.926 5.112
6.116 3.198 5.266
2.588 2.106 6.201
3.834 2.247 6.221
4.211 2.269 6.095
4.358 2.428 6.028
5.818 2.778 5.632
6.310 3.019 5.352
4.541 2.106 6.409
4.941 2.308 6.191
2.539 4.823 1.807
0.896 3.935 2.949
1.411 4.235 2.807
3.534 4.715 1.959
3.792 4.696 1.932
3.967 4.804 1.781
0.591 3.888 3.026
1.076 3.857 2.684
1.009 3.748 3.210
1.492 3.999 2.937
1.601 3.995 2.843
3.813 4.574 2.197
4.148 4.693 2.225
4.414 4.980 2.093
4.804 4.907 1.919
0.861 3.880 3.072
1.224 3.813 3.075
1.082 3.605 2.918
1.477 3.699 2.935
3.565 4.349 1.982
3.860 4.358 1.926
4.138 4.437 1.904
4.515 4.451 1.901
0.444 3.314 2.979
0.937 3.453 2.925
1.307 3.450 2.910
1.349 3.392 3.146
1.610 3.654 3.115
1.994 3.494 2.875
4.072 4.269 2.298
4.333 4.446 2.239
4.592 4.401 2.035
4.973 4.528 2.127
0.905 3.297 3.285
1.328 3.545 3.187
1.819 3.445 3.426
2.149 3.387 3.145
2.403 3.591 3.266
4.393 4.166 2.401
4.821 4.307 2.334
5.037 4.296 2.361
5.470 4.352 2.110
2.040 3.293 3.447
2.418 3.438 3.532
2.708 3.365 3.418
4.950 4.251 2.679
5.069 4.126 2.407
5.433 4.373 2.528
5.805 4.499 2.454
2.658 3.208 3.686
2.905 3.287 3.428
3.273 3.416 3.420
3.379 3.480 3.392
5.316 4.039 2.638
5.695 4.305 2.609
6.053 4.123 2.574
6.130 4.467 2.580
3.033 3.205 3.938
3.318 3.316 3.748
3.661 3.435 3.739
4.046 3.607 3.421
5.700 4.151 2.841
5.983 3.988 2.736
0.924 2.527 4.567
3.053 3.125 4.009
3.533 3.075 4.072
3.791 3.148 3.786
4.206 3.367 3.794
4.270 3.533 3.776
6.107 3.980 3.223
1.007 2.327 4.649
1.394 2.543 4.570
1.763 2.542 4.585
3.710 2.878 4.306
3.905 2.973 4.200
4.082 3.077 4.003
4.439 3.253 3.986
4.824 3.423 3.994
1.215 2.184 5.078
1.503 2.406 4.926
1.704 2.529 4.856
2.335 2.290 4.895
4.056 2.987 4.301
4.477 2.962 4.222
4.707 3.010 4.329
4.947 3.073 4.142
5.360 3.226 4.021
1.383 2.189 5.294
1.715 2.244 5.194
1.974 2.214 5.144
2.330 2.230 4.901
2.297 2.249 5.391
2.747 2.436 5.096
4.606 2.733 4.706
4.727 3.073 4.595
4.946 2.995 4.511
5.390 3.090 4.160
5.693 3.177 4.296
1.467 1.832 5.621
1.703 2.025 5.518
2.088 2.003 5.280
2.341 2.146 5.222
2.564 1.965 5.499
2.846 2.226 5.439
3.194 2.186 5.276
4.940 2.681 4.809
5.147 2.975 4.752
5.646 2.948 4.642
5.861 3.054 4.325
2.163 2.109 5.582
2.548 2.030 5.576
2.503 2.029 5.754
3.040 1.962 5.701
3.347 2.200 5.663
3.528 2.257 5.569
5.389 2.755 4.826
5.528 2.945 4.895
6.033 2.985 4.576
6.337 3.045 4.682
2.761 1.968 5.675
2.955 1.773 6.101
3.337 1.896 5.784
3.695 2.182 5.767
4.042 2.094 5.550
6.105 2.911 4.870
3.447 1.737 6.075
3.680 1.959 6.158
4.072 1.940 5.968
4.536 2.027 5.940
4.318 1.734 6.301
4.416 1.873 6.122
4.947 1.912 6.086
5.083 1.863 6.294
5.213 1.954 6.021
5.543 2.119 6.039
2.216 4.346 1.675
2.679 4.681 1.523
2.744 4.552 1.489
3.079 4.670 1.278
3.487 4.737 1.265
5.083 5.365 0.814
5.334 5.379 0.616
0.155 3.888 2.457
0.433 3.978 2.189
0.911 3.936 2.521
2.777 4.428 1.688
2.929 4.645 1.722
3.437 4.537 1.598
3.519 4.782 1.404
5.536 5.194 0.971
0.200 3.765 2.669
0.718 3.695 2.370
0.867 3.814 2.373
0.898 3.668 2.695
1.345 3.919 2.475
2.790 4.321 2.066
3.030 4.311 1.915
3.464 4.461 1.981
3.812 4.467 1.799
4.148 4.627 1.603
0.154 3.472 3.011
0.353 3.561 2.912
0.730 3.636 2.817
0.912 3.632 2.678
1.077 3.674 2.811
1.432 3.790 2.725
3.444 4.432 2.006
3.744 4.523 2.072
4.182 4.484 1.994
4.562 4.608 1.686
0.591 3.325 3.038
0.861 3.483 2.971
1.260 3.471 2.983
1.176 3.247 2.753
3.253 4.040 2.084
3.691 4.091 1.866
3.967 4.149 1.705
4.253 4.281 1.632
0.201 2.922 2.970
0.551 3.048 2.987
0.765 3.154 2.956
1.176 3.219 2.601
3.236 3.112 3.239
3.477 3.381 3.087
6.052 4.004 2.377
6.323 4.073 2.227
0.800 2.386 4.135
3.018 2.833 3.610
3.456 3.049 3.670
3.745 2.975 3.329
3.890 3.081 3.344
4.231 3.228 3.361
6.110 3.702 2.553
0.869 2.251 4.396
1.369 2.333 4.164
1.653 2.342 4.084
3.271 2.785 4.050
3.509 2.743 3.879
3.913 3.041 3.695
4.225 2.963 3.610
4.415 3.022 3.559
4.823 3.171 3.554
6.188 3.783 2.868
0.991 2.106 4.515
1.469 2.125 4.478
1.594 2.374 4.309
2.027 2.319 4.554
3.536 2.694 4.205
3.877 2.736 3.913
4.255 2.825 3.894
4.575 2.843 3.829
4.797 2.933 3.678
1.130 1.963 4.939
1.490 2.123 4.773
1.815 2.072 4.559
2.110 2.278 4.574
2.340 2.205 4.779
3.621 2.603 4.274
4.043 2.535 4.164
4.411 2.795 4.134
4.532 2.912 4.129
5.077 2.982 4.074
5.203 2.890 3.784
1.330 1.757 5.176
1.691 1.954 5.059
1.937 1.927 4.829
2.274 2.160 4.836
2.320 1.891 5.116
4.159 2.587 4.460
4.384 2.642 4.331
4.765 2.679 4.288
5.038 2.778 4.130
5.470 2.992 4.243
1.383 1.743 5.476
1.876 1.701 5.279
2.153 1.980 5.222
2.444 1.849 5.227
2.591 1.868 5.320
4.808 2.571 4.483
5.324 2.477 4.557
5.576 2.696 4.372
1.836 1.478 5.537
2.346 1.599 5.547
2.400 1.764 5.383
4.147 1.600 6.073
4.663 1.611 5.869
4.748 1.780 5.937
5.055 1.788 5.745
4.515 1.267 6.301
4.792 1.485 6.298
5.081 1.648 6.094
5.325 1.587 6.094
5.623 1.902 5.868
6.024 1.838 5.837
0.696 3.738 1.852
2.078 4.005 1.617
2.287 4.211 1.402
2.510 4.306 1.423
2.892 4.365 1.219
3.157 4.553 1.147
3.585 4.600 1.073
5.069 4.982 0.617
5.452 4.992 0.321
0.055 3.471 2.080
0.369 3.566 2.069
0.926 3.843 1.903
0.980 3.498 2.282
2.555 4.052 1.581
2.686 4.278 1.596
3.046 4.333 1.401
3.317 4.433 1.451
3.653 4.359 1.416
3.964 4.631 1.279
5.143 4.770 0.776
5.405 5.070 0.668
0.101 3.439 2.629
0.329 3.427 2.274
0.694 3.514 2.283
0.834 3.549 2.078
1.156 3.414 2.413
2.560 3.934 2.049
3.009 3.895 1.812
3.165 4.106 1.858
3.357 4.119 1.783
3.869 4.251 1.641
4.014 4.395 1.478
5.566 4.944 0.979
0.078 3.274 2.674
0.405 3.280 2.713
0.743 3.380 2.485
0.937 3.328 2.356
1.311 3.252 2.853
3.375 3.799 2.060
3.531 3.984 2.026
4.035 4.261 1.834
4.300 4.157 1.844
0.176 2.955 3.101
0.626 3.106 2.992
0.938 3.167 2.937
1.120 3.305 2.655
2.971 3.461 1.919
3.462 3.682 1.823
3.570 3.627 1.742
3.864 3.956 1.779
5.663 4.460 1.094
0.421 2.806 2.732
0.710 2.845 2.736
0.790 3.041 2.776
3.307 2.678 3.274
3.612 2.842 3.190
4.027 2.883 3.229
4.290 2.996 3.164
4.743 3.163 2.995
1.017 1.851 4.284
1.180 2.180 4.001
1.542 2.191 4.087
1.887 1.968 4.159
3.579 2.667 3.745
3.955 2.724 3.630
4.163 2.740 3.460
4.359 2.940 3.374
4.794 2.897 3.167
6.200 3.438 2.813
1.252 1.869 4.442
1.457 1.998 4.345
1.582 2.139 4.311
2.033 1.993 4.065
2.063 2.066 4.302
3.687 2.494 3.798
4.034 2.562 3.689
4.405 2.524 3.788
4.477 2.687 3.675
4.761 2.892 3.409
5.268 2.839 3.349
1.221 1.551 4.605
1.505 1.734 4.545
1.886 1.958 4.636
2.169 2.060 4.503
2.247 1.854 4.582
3.836 2.347 4.118
4.097 2.468 3.950
4.436 2.431 3.955
4.808 2.407 3.842
5.123 2.690 3.675
5.434 2.637 3.603
1.453 1.431 5.098
1.797 1.492 4.980
1.930 1.765 4.738
2.241 1.752 4.539
2.481 1.784 4.930
3.910 2.147 4.313
4.093 2.134 4.281
4.466 2.435 4.123
4.726 2.450 4.184
5.246 2.387 4.125
1.458 1.400 5.152
1.797 1.498 5.055
2.073 1.479 4.927
2.377 1.745 5.055
4.741 2.217 4.454
4.898 2.281 4.434
1.773 1.305 5.501
2.047 1.363 5.362
2.187 1.331 5.359
4.910 1.437 5.686
5.279 1.656 5.600
5.549 1.674 5.539
4.763 1.348 6.142
5.038 1.294 5.877
5.185 1.466 5.878
5.500 1.433 5.810
5.813 1.461 5.574
0.749 3.394 1.917
2.441 4.027 1.343
2.735 3.918 1.120
2.928 3.977 1.085
3.221 4.218 0.860
3.666 4.293 0.991
3.929 4.297 0.868
4.965 4.640 0.379
5.286 4.763 0.175
0.297 3.383 2.083
0.536 3.256 1.830
0.745 3.560 1.902
1.032 3.205 1.918
2.481 3.895 1.622
2.707 3.855 1.544
2.962 3.991 1.348
3.438 4.160 1.163
3.628 4.084 1.021
4.080 4.217 0.913
5.254 4.480 0.549
5.347 4.758 0.633
-0.052 3.017 2.316
0.448 3.159 2.273
0.577 3.342 2.265
0.873 3.197 1.896
0.987 3.251 2.395
2.578 3.559 1.892
2.884 3.737 1.784
3.162 3.808 1.704
3.448 3.871 1.565
3.831 3.936 1.314
4.049 4.114 1.334
5.324 4.579 0.824
5.701 4.644 0.809
0.270 2.773 2.476
0.614 2.893 2.476
0.881 2.939 2.525
1.096 3.193 2.233
3.012 3.646 1.986
3.426 3.567 1.764
3.666 3.825 1.874
3.881 3.817 1.555
5.620 4.484 1.009
0.361 2.677 2.897
0.586 2.689 2.823
0.812 2.830 2.689
2.773 3.275 1.841
3.000 3.170 1.924
3.343 3.358 1.691
3.594 3.499 1.738
5.535 4.100 0.970
5.667 4.252 1.009
0.212 2.593 2.768
0.599 2.684 2.453
4.306 2.743 2.616
4.466 2.969 2.679
1.592 1.905 3.576
1.979 1.866 3.797
3.708 2.639 2.983
4.042 2.541 2.900
4.221 2.686 2.986
4.635 2.920 2.682
4.877 2.786 2.750
0.904 1.835 3.907
1.442 1.770 3.997
1.515 1.823 3.707
1.980 1.846 3.788
2.070 1.908 3.840
3.551 2.200 3.605
3.844 2.470 3.289
4.216 2.595 3.309
4.371 2.596 3.230
4.690 2.680 3.203
5.169 2.801 2.889
1.257 1.664 4.142
1.355 1.580 4.180
1.756 1.646 3.975
2.042 1.731 3.861
2.127 1.730 4.190
3.686 2.277 3.653
3.881 2.241 3.503
4.268 2.317 3.473
4.697 2.540 3.495
4.878 2.373 3.389
5.130 2.629 3.235
1.250 1.281 4.633
1.472 1.380 4.464
1.813 1.508 4.454
2.107 1.787 4.244
2.215 1.630 4.395
3.490 1.814 4.108
3.797 1.855 3.947
4.066 1.941 4.015
4.526 2.117 3.720
4.726 2.333 3.772
5.104 2.452 3.668
1.429 1.351 4.810
1.690 1.295 4.737
2.079 1.443 4.674
2.378 1.588 4.527
3.693 1.618 4.454
3.919 1.924 4.366
4.195 1.794 4.079
4.554 1.969 4.085
4.741 1.986 3.825
5.018 2.229 3.982
1.644 1.153 5.150
1.862 1.238 4.882
2.252 1.422 4.798
3.988 1.726 4.551
4.380 1.880 4.346
4.662 1.771 4.220
1.654 1.043 5.340
3.092 0.510 6.199
5.319 1.251 5.285
5.581 1.381 5.188
5.705 1.364 5.148
6.129 1.426 5.032
2.609 0.415 6.199
2.770 0.387 6.038
3.078 0.576 5.939
4.879 1.057 5.812
5.021 0.929 5.834
5.239 1.040 5.759
5.751 1.255 5.564
6.009 1.412 5.514
6.326 1.466 5.363
0.941 3.268 1.633
2.386 3.598 1.214
2.593 3.632 0.944
3.096 3.913 0.900
3.148 3.838 0.838
3.668 4.016 0.807
3.950 3.989 0.606
4.992 4.417 0.346
5.453 4.555 0.243
0.161 3.026 1.786
0.659 2.955 1.804
0.966 3.182 1.631
1.074 2.940 1.813
2.380 3.411 1.314
2.900 3.563 1.345
3.172 3.745 1.159
3.339 3.812 0.959
3.655 3.768 0.839
5.097 4.414 0.453
5.477 4.563 0.506
0.107 2.814 2.187
0.436 2.821 1.942
0.558 3.069 2.027
0.916 3.169 1.814
2.294 3.239 1.790
2.614 3.441 1.684
2.788 3.331 1.502
3.316 3.450 1.456
3.480 3.722 1.208
3.751 3.835 1.102
5.239 4.249 0.772
5.569 4.178 0.642
0.225 2.476 2.499
0.548 2.569 2.183
0.797 2.740 2.115
2.893 3.156 1.955
3.038 3.179 1.805
3.400 3.356 1.605
3.753 3.498 1.535
5.387 4.146 1.117
5.898 3.980 0.788
0.404 2.422 2.744
0.577 2.514 2.580
2.548 2.923 1.922
2.699 2.908 1.805
3.064 2.941 1.483
3.296 2.984 1.495
5.158 3.800 1.056
5.387 3.834 0.684
5.786 3.710 0.650
0.335 2.260 2.541
2.228 2.549 2.194
2.700 2.542 1.986
3.002 2.748 2.098
5.032 3.302 1.347
5.244 3.479 1.191
5.693 3.495 1.176
5.912 3.559 0.969
2.073 2.203 2.398
2.360 2.498 2.522
2.612 2.623 2.211
5.160 3.294 1.582
5.431 3.487 1.471
1.884 2.186 2.802
2.271 2.305 2.727
4.636 2.945 1.900
4.939 3.050 1.845
5.399 3.065 1.672
1.889 1.958 3.175
2.122 1.844 3.236
2.427 2.099 2.993
4.103 2.561 2.462
4.569 2.803 2.332
4.937 2.813 2.202
5.016 2.831 2.095
1.452 1.793 3.459
1.927 1.869 3.176
2.051 1.674 3.393
2.235 1.893 3.462
4.157 2.346 2.864
4.311 2.505 2.775
4.542 2.548 2.561
4.957 2.521 2.614
5.201 2.703 2.333
1.093 1.339 3.688
1.411 1.620 3.807
1.769 1.533 3.742
1.885 1.833 3.469
2.136 1.632 3.898
3.829 2.205 3.253
4.106 2.127 3.150
4.490 2.303 2.954
4.732 2.248 2.874
5.205 2.421 2.786
1.279 1.211 4.059
1.337 1.226 4.086
1.814 1.497 3.968
1.953 1.588 3.818
2.138 1.416 4.194
3.736 1.985 3.477
4.154 2.050 3.530
4.451 2.093 3.485
4.707 2.201 3.386
4.867 2.309 3.219
1.165 1.173 4.309
1.622 1.148 4.390
2.025 1.239 4.055
2.328 1.384 3.977
3.515 1.478 3.948
3.918 1.580 3.770
4.189 1.881 3.822
4.438 1.944 3.523
4.834 2.085 3.400
4.921 2.062 3.517
1.570 0.851 4.551
1.822 1.141 4.554
1.905 1.149 4.295
3.554 1.473 4.053
3.853 1.601 3.976
4.361 1.528 3.974
4.492 1.770 3.920
4.918 1.955 3.647
1.625 0.928 4.803
1.927 0.770 4.813
3.558 1.328 4.509
3.776 1.257 4.354
4.023 1.376 4.413
4.522 1.401 4.365
1.702 0.711 5.095
3.542 1.150 4.669
3.918 1.185 4.670
4.110 1.288 4.497
3.037 0.774 5.129
3.515 0.940 5.229
3.797 0.967 5.117
6.292 1.566 4.159
2.895 0.526 5.555
3.395 0.658 5.563
3.507 0.584 5.457
5.680 1.449 4.737
6.024 1.398 4.609
2.874 0.472 5.738
3.050 0.377 6.026
3.323 0.542 5.777
5.529 0.991 5.015
5.741 1.255 4.989
6.193 1.222 4.939
2.482 0.123 5.969
2.789 0.358 6.094
3.002 0.382 5.931
3.297 0.099 6.235
3.644 0.350 6.078
5.114 0.770 5.639
5.422 0.947 5.342
5.663 0.983 5.358
6.026 0.897 5.318
2.987 0.033 6.289
3.264 0.137 6.276
0.930 3.036 1.514
2.461 3.321 0.936
2.587 3.517 0.864
3.137 3.504 0.811
3.231 3.625 0.749
3.514 3.761 0.612
3.882 3.824 0.426
0.351 2.624 1.560
0.613 2.946 1.665
0.795 2.931 1.355
2.528 3.298 1.098
2.697 3.438 0.970
3.242 3.518 0.892
3.369 3.355 0.791
3.802 3.503 0.897
5.339 4.064 0.209
5.640 4.011 0.239
0.218 2.394 2.092
0.406 2.629 1.975
0.801 2.526 1.873
2.475 3.099 1.588
2.779 3.100 1.366
2.900 3.293 1.334
3.143 3.208 1.241
3.620 3.389 1.173
5.340 3.823 0.453
5.541 3.974 0.536
0.329 2.236 2.274
0.674 2.553 2.039
0.712 2.589 2.174
2.483 2.756 1.907
2.854 3.058 1.802
3.081 2.892 1.617
3.416 3.130 1.422
5.073 3.644 0.821
5.464 3.629 0.898
5.836 3.985 0.791
0.453 2.289 2.421
2.088 2.579 1.683
2.571 2.415 1.682
2.797 2.683 1.427
3.053 2.608 1.351
4.786 3.373 0.751
5.290 3.302 0.719
5.538 3.450 0.745
5.810 3.491 0.579
1.717 2.197 2.093
2.063 2.239 2.023
2.434 2.327 1.923
2.745 2.422 2.045
2.953 2.464 1.686
4.834 3.097 1.146
5.148 3.182 1.103
5.255 3.357 1.022
5.804 3.380 1.024
5.947 3.493 0.912
1.935 1.994 2.590
2.205 2.086 2.334
2.477 2.159 2.237
2.893 2.117 2.176
3.046 2.322 1.936
4.515 2.889 1.673
4.838 2.917 1.404
5.072 3.021 1.439
5.506 3.092 1.236
5.872 3.184 1.169
1.847 1.726 2.923
1.890 1.701 2.720
2.298 1.896 2.715
2.749 1.958 2.607
2.874 2.043 2.446
4.333 2.545 1.976
4.718 2.574 1.919
4.895 2.806 1.656
5.214 2.744 1.747
5.748 3.029 1.471
5.884 3.147 1.545
1.602 1.645 2.935
1.729 1.584 3.047
2.143 1.732 2.914
2.336 1.677 2.786
2.773 1.810 2.692
4.570 2.405 2.251
4.749 2.414 2.167
5.272 2.618 2.127
5.344 2.694 1.955
5.895 2.839 1.694
1.618 1.416 3.303
1.743 1.668 3.199
2.068 1.508 3.286
2.380 1.403 3.358
2.707 1.694 3.149
4.371 2.054 2.593
4.720 2.356 2.505
5.108 2.477 2.252
5.240 2.448 2.125
1.645 1.363 3.531
2.086 1.553 3.412
2.037 1.162 3.730
4.648 2.021 2.838
4.895 2.212 2.665
5.263 2.195 2.678
1.620 1.049 3.678
1.831 1.095 3.846
2.054 1.211 3.534
4.355 1.886 3.292
4.705 2.000 2.976
1.215 0.717 4.245
1.670 1.074 4.049
1.949 0.893 4.060
3.744 1.414 3.535
4.111 1.523 3.647
4.467 1.676 3.558
1.529 0.685 4.363
3.551 0.985 4.147
3.722 1.136 4.025
4.032 1.274 3.902
4.266 1.374 3.738
1.675 0.463 4.620
3.240 0.742 4.546
3.677 0.960 4.481
3.934 0.946 4.308
4.123 1.262 4.312
4.452 1.095 4.202
6.066 1.717 3.714
6.398 1.637 3.415
3.077 0.744 4.895
3.489 0.595 4.655
3.768 0.884 4.562
3.971 0.797 4.567
4.417 0.930 4.485
5.829 1.562 4.072
6.202 1.533 3.816
2.922 0.381 5.121
3.137 0.406 5.175
3.375 0.422 5.032
3.783 0.523 4.765
4.078 0.871 4.718
6.042 1.417 4.096
6.186 1.368 4.173
2.899 0.417 5.207
2.958 0.166 5.475
3.344 0.222 5.337
3.589 0.280 5.321
3.853 0.559 5.178
4.156 0.678 4.920
5.864 1.030 4.612
5.987 1.243 4.399
3.094 0.088 5.564
3.251 0.017 5.809
3.435 0.254 5.596
3.641 0.387 5.568
4.150 0.199 5.479
5.604 0.912 5.024
5.787 0.879 4.856
6.297 0.999 4.841
3.225 -0.048 5.705
3.613 0.108 5.959
5.740 0.566 5.271
6.128 0.676 5.016
3.091 3.248 0.599
3.258 3.473 0.452
3.729 3.318 0.327
0.449 2.559 1.410
0.718 2.402 1.217
2.762 3.157 0.902
3.236 3.091 0.794
5.539 3.997 0.143
0.282 2.332 1.807
0.322 2.364 1.738
2.272 2.643 1.438
2.652 2.650 1.401
2.843 2.769 1.171
3.394 2.975 1.174
5.407 3.524 0.413
5.728 3.633 0.419
0.282 2.105 1.984
2.321 2.392 1.799
2.556 2.679 1.605
2.750 2.745 1.490
3.166 2.806 1.444
4.991 3.217 0.774
5.152 3.489 0.811
5.579 3.374 0.562
5.933 3.498 0.533
2.004 2.056 1.658
2.204 2.206 1.475
2.432 2.257 1.461
2.935 2.443 1.340
4.564 2.780 0.873
5.028 2.954 0.731
5.185 3.013 0.542
5.627 3.335 0.515
1.828 1.904 1.928
2.191 1.809 2.068
2.517 1.893 1.718
2.546 2.180 1.796
2.943 2.182 1.707
4.520 2.685 1.253
4.732 2.831 0.992
4.996 2.792 0.936
5.305 2.988 0.853
5.719 3.108 0.710
6.133 3.157 0.692
1.707 1.692 2.498
1.850 1.816 2.406
2.115 1.897 2.098
2.477 1.885 2.219
2.937 1.925 2.032
3.179 2.043 1.870
4.697 2.592 1.391
4.889 2.585 1.277
5.175 2.587 1.216
5.593 2.798 1.146
5.836 2.780 0.861
1.681 1.627 2.433
1.827 1.500 2.634
2.075 1.565 2.643
2.356 1.557 2.497
2.577 1.618 2.268
3.075 1.938 2.150
3.273 1.840 2.287
4.499 2.319 1.696
4.611 2.243 1.743
5.164 2.505 1.550
5.306 2.509 1.355
5.535 2.536 1.323
5.992 2.878 1.317
1.783 1.381 2.609
1.859 1.183 2.916
2.293 1.478 2.861
2.548 1.392 2.625
2.667 1.547 2.652
3.068 1.685 2.582
4.572 2.266 2.054
4.863 2.280 1.905
5.139 2.346 1.794
5.484 2.439 1.797
5.929 2.599 1.672
6.135 2.696 1.584
1.917 1.184 2.880
1.978 1.079 3.216
2.320 1.130 3.200
2.717 1.199 3.000
2.983 1.275 2.842
4.844 1.877 2.247
4.995 1.955 2.064
5.261 2.123 1.983
5.665 2.369 2.071
2.142 1.043 3.048
3.303 0.706 3.903
3.729 0.876 3.815
4.106 1.010 3.734
6.171 1.538 3.088
3.102 0.481 4.489
3.271 0.516 4.177
3.671 0.763 4.247
3.995 0.819 4.034
4.206 0.730 3.901
5.699 1.342 3.373
6.046 1.458 3.362
2.789 0.282 4.764
3.011 0.237 4.641
3.336 0.511 4.460
3.751 0.589 4.327
4.118 0.684 4.233
4.399 0.618 4.363
5.719 1.270 3.703
6.244 1.213 3.718
2.728 0.349 4.806
2.958 0.050 4.962
3.295 0.208 4.823
3.465 0.356 4.815
3.803 0.414 4.646
4.244 0.563 4.603
4.394 0.624 4.608
5.604 0.850 4.227
6.017 0.974 3.988
6.171 0.967 4.008
2.885 0.189 4.958
3.358 -0.013 5.080
3.568 0.226 5.045
4.074 0.310 5.052
4.170 0.309 4.955
5.810 0.702 4.397
5.965 0.816 4.388
4.055 0.170 5.182
4.490 0.270 5.233
6.033 0.498 4.596
6.351 0.644 4.578
2.034 2.083 1.540
2.372 2.126 1.592
2.496 2.299 1.420
2.768 2.482 1.440
4.642 2.983 0.638
4.917 3.064 0.708
5.287 3.132 0.564
5.550 3.137 0.394
1.721 1.812 1.614
2.077 1.740 1.558
2.136 1.911 1.369
2.457 2.023 1.388
4.505 2.526 0.781
4.602 2.577 0.636
4.902 2.636 0.598
5.159 2.767 0.403
1.364 1.373 1.983
1.696 1.618 1.984
2.092 1.717 1.889
2.474 1.727 1.685
2.695 1.965 1.499
3.077 1.842 1.508
4.289 2.408 0.928
4.552 2.360 0.831
4.911 2.625 0.893
5.214 2.613 0.841
5.548 2.717 0.663
5.674 2.827 0.488
1.515 1.325 1.991
1.695 1.436 2.358
2.001 1.396 2.202
2.317 1.525 2.154
2.551 1.535 1.846
2.956 1.609 1.679
3.202 1.808 1.723
4.371 2.035 1.382
4.738 2.100 1.335
4.816 2.418 1.144
5.341 2.551 1.124
5.656 2.405 0.984
5.847 2.497 0.733
1.567 1.298 2.195
1.793 1.037 2.506
2.173 1.192 2.370
2.226 1.368 2.401
2.567 1.548 2.209
2.940 1.576 2.131
3.278 1.624 1.923
4.502 2.084 1.524
4.728 2.123 1.364
5.028 2.307 1.436
5.241 2.242 1.202
5.694 2.286 1.194
6.093 2.528 1.087
1.867 1.232 2.550
1.860 1.110 2.710
2.109 1.217 2.714
2.548 1.306 2.628
2.803 1.298 2.449
3.216 1.414 2.238
3.346 1.433 2.263
5.025 2.021 1.663
5.111 1.905 1.624
5.579 2.185 1.555
5.945 2.213 1.573
6.243 2.199 1.436
1.906 1.063 2.698
2.398 0.831 2.764
2.621 0.996 2.699
2.981 1.143 2.779
3.133 1.240 2.508
5.412 1.864 1.979
5.589 2.112 1.706
6.055 1.944 1.777
2.886 0.238 3.858
3.045 0.584 3.956
3.356 0.561 3.849
5.816 1.301 2.989
6.081 1.268 2.949
2.680 0.199 4.218
3.130 0.065 4.192
3.185 0.244 4.012
3.686 0.411 4.108
3.822 0.386 4.041
5.585 1.159 3.376
6.007 1.115 3.368
2.714 0.186 4.314
3.238 0.167 4.578
3.516 0.219 4.303
3.812 0.363 4.355
4.155 0.313 4.327
4.230 0.528 4.225
5.564 0.805 3.734
5.868 1.019 3.453
6.060 0.961 3.405
3.926 0.109 4.668
4.217 0.229 4.507
4.506 0.377 4.339
5.756 0.680 3.821
5.977 0.789 3.966
6.288 0.849 3.795
4.226 0.110 4.638
4.684 0.243 4.470
6.234 0.484 4.077
6.362 0.506 4.443
1.783 1.764 1.496
2.007 1.835 1.505
2.271 1.915 1.415
2.635 2.059 1.260
4.488 2.558 0.719
4.796 2.636 0.743
4.992 2.723 0.365
5.359 2.849 0.535
1.318 1.387 1.647
1.739 1.568 1.444
1.954 1.522 1.320
2.306 1.686 1.092
4.040 2.210 0.721
4.373 2.366 0.403
4.629 2.255 0.384
5.138 2.348 0.456
1.387 1.433 1.400
1.630 1.290 1.885
1.898 1.168 1.636
2.199 1.381 1.520
2.380 1.323 1.618
2.660 1.619 1.440
4.181 2.137 0.973
4.436 2.233 0.899
4.928 2.129 0.765
5.025 2.218 0.641
5.459 2.393 0.367
5.719 2.479 0.388
1.552 1.254 1.642
1.739 1.037 1.945
1.899 1.118 2.046
2.265 1.231 1.942
2.583 1.214 1.855
2.795 1.378 1.521
3.094 1.591 1.463
4.305 1.804 1.204
4.592 1.962 1.101
5.083 2.140 0.857
5.258 2.184 0.781
5.454 2.181 0.888
5.775 2.363 0.579
1.561 1.069 2.015
1.731 0.989 2.338
1.965 0.933 2.168
2.304 1.011 2.138
2.759 1.235 1.975
3.085 1.117 1.841
3.240 1.383 1.810
4.729 1.795 1.384
4.982 1.808 1.145
5.552 1.925 0.981
5.639 1.964 1.099
5.895 2.068 0.973
1.901 0.857 2.416
2.113 0.911 2.475
2.589 0.825 2.292
2.946 0.922 2.205
3.197 1.059 2.117
3.437 1.196 1.971
4.994 1.677 1.709
5.359 1.748 1.362
5.438 1.964 1.341
5.908 1.985 1.275
6.246 2.012 1.293
2.673 0.773 2.697
2.887 0.913 2.541
3.331 0.902 2.537
3.480 1.038 2.431
5.686 1.785 1.641
5.858 1.721 1.644
6.284 1.768 1.517
2.854 0.189 3.771
3.237 0.213 3.714
5.411 0.777 2.870
5.627 0.889 2.796
5.880 1.104 2.701
3.249 -0.064 3.827
3.743 0.100 3.816
3.792 0.292 3.609
5.454 0.594 3.333
5.618 0.757 3.059
6.120 0.839 2.981
3.953 0.185 4.051
5.654 0.604 3.456
5.756 0.514 3.518
6.055 0.725 3.319
5.959 0.408 3.579
6.163 0.403 4.037
1.282 1.222 1.467
1.677 1.464 1.314
2.119 1.631 1.302
2.206 1.660 1.149
4.007 2.132 0.707
4.369 2.280 0.573
4.692 2.243 0.555
5.003 2.519 0.200
1.255 1.442 1.412
1.513 1.099 1.424
1.731 1.210 1.326
1.947 1.355 1.053
3.868 1.774 0.487
4.202 1.948 0.376
4.517 1.951 0.479
4.865 2.106 0.338
1.123 0.984 1.492
1.398 0.920 1.232
1.414 1.043 1.534
1.720 0.962 1.554
2.191 1.201 1.538
2.375 1.121 1.216
4.359 1.790 0.689
4.552 1.951 0.713
4.787 1.810 0.612
5.234 2.151 0.277
5.446 2.091 0.196
1.212 0.935 1.786
1.622 0.897 1.498
1.580 0.744 1.956
1.890 0.820 1.772
2.193 0.818 1.713
2.523 0.890 1.489
2.999 1.100 1.549
4.659 1.602 0.872
5.109 1.670 0.740
5.233 1.931 0.762
5.504 2.026 0.584
1.664 0.749 1.981
2.072 0.569 2.064
2.480 0.791 1.929
2.675 0.971 1.703
2.900 0.961 1.792
3.463 1.093 1.502
4.814 1.558 1.025
5.059 1.653 0.907
5.472 1.667 1.068
5.834 1.680 0.735
6.148 1.826 0.845
2.503 0.517 2.223
3.002 0.632 2.227
3.201 0.770 2.129
3.432 0.791 1.913
3.788 0.984 1.862
5.162 1.516 1.273
5.565 1.662 1.195
5.813 1.703 1.186
6.275 1.658 0.903
3.025 0.567 2.298
3.332 0.557 2.238
3.552 0.722 2.214
3.861 0.896 2.035
6.126 1.594 1.326
1.226 0.145 3.045
3.402 0.653 2.633
3.787 0.619 2.472
4.081 0.613 2.189
4.416 0.914 2.251
4.190 0.467 2.726
4.557 0.776 2.426
4.813 0.816 2.281
4.474 0.606 2.711
4.800 0.483 2.554
5.333 0.559 2.564
5.587 0.713 2.398
4.967 0.552 2.850
5.422 0.515 2.897
5.565 0.549 2.763
5.988 0.586 2.503
5.193 0.423 3.209
5.340 0.304 2.960
5.879 0.527 2.874
5.927 0.457 2.958
5.570 0.245 3.296
5.793 0.398 3.199
6.133 0.526 3.076
6.094 0.218 3.461
2.634 1.877 0.130
0.151 1.344 0.847
0.524 1.228 0.648
2.994 1.895 0.272
3.212 2.043 0.112
3.669 1.971 0.149
0.381 1.139 1.033
0.602 1.236 0.878
0.797 1.385 1.002
1.385 1.238 1.176
1.604 1.306 0.838
3.386 1.753 0.307
3.823 1.987 0.399
3.870 1.901 0.257
4.357 2.037 0.223
0.758 1.091 1.404
0.976 1.051 1.233
1.150 1.189 1.181
1.404 0.999 1.411
1.849 1.016 1.333
2.039 1.384 1.080
3.726 1.833 0.596
4.058 1.877 0.366
4.449 2.015 0.208
4.720 2.071 0.366
1.100 1.051 1.448
1.503 1.081 1.226
1.358 0.764 1.214
1.865 0.868 1.113
3.693 1.507 0.493
3.722 1.381 0.264
4.167 1.544 0.359
4.463 1.578 0.143
0.911 0.503 1.390
1.136 0.661 1.148
1.433 0.758 1.179
1.637 0.702 1.403
1.931 0.747 1.333
4.404 1.397 0.449
4.462 1.638 0.334
4.809 1.772 0.308
1.389 0.396 1.394
1.671 0.643 1.551
5.825 1.614 0.706
3.157 0.654 1.795
3.351 0.656 1.612
3.805 0.816 1.721
5.920 1.407 0.900
6.222 1.590 0.789
3.313 0.526 2.162
3.537 0.423 1.932
3.834 0.718 1.937
4.346 0.625 1.851
4.426 0.668 1.764
5.963 1.323 1.332
3.389 0.293 2.487
3.643 0.301 2.320
3.973 0.476 2.222
4.254 0.455 2.073
4.660 0.679 1.868
4.947 0.753 1.747
3.859 0.168 2.587
4.171 0.192 2.273
4.409 0.285 2.442
4.890 0.541 2.268
5.169 0.474 2.139
3.940 0.177 2.830
4.346 0.157 2.781
4.649 0.346 2.615
4.851 0.247 2.511
5.208 0.278 2.309
5.480 0.628 2.140
4.676 -0.052 2.921
5.017 0.067 2.753
5.425 0.173 2.561
5.566 0.442 2.453
5.187 -0.130 2.888
5.468 0.162 2.761
5.870 0.324 2.733
5.968 0.287 2.814
6.005 -0.026 3.121
6.232 0.172 2.908
0.145 0.968 0.769
0.440 0.920 0.494
0.624 1.207 0.531
1.144 1.121 0.527
2.631 1.409 0.106
3.129 1.565 0.112
0.228 0.877 0.878
0.470 0.841 0.753
0.758 1.118 0.846
1.281 1.168 0.678
1.284 1.066 0.828
1.739 0.988 0.906
3.180 1.617 0.372
3.287 1.558 0.328
3.789 1.680 0.181
4.111 1.855 -0.051
0.542 0.558 1.335
0.759 0.689 1.096
1.026 0.860 1.014
1.324 0.860 0.923
1.563 0.858 1.143
1.728 0.909 1.060
3.603 1.485 0.346
3.841 1.497 0.493
4.032 1.681 0.343
4.572 1.736 0.155
0.851 0.635 1.358
1.256 0.823 1.366
1.370 0.753 1.195
1.597 0.568 0.914
3.334 0.967 0.459
3.725 1.081 0.197
3.999 1.230 0.076
4.132 1.444 0.216
0.464 0.080 1.321
0.772 0.409 1.178
1.146 0.485 1.061
1.582 0.509 0.920
3.853 0.519 1.438
3.592 0.179 1.735
4.019 0.329 1.742
4.119 0.419 1.568
4.680 0.511 1.528
4.741 0.458 1.421
3.754 0.195 2.142
4.070 0.115 1.953
4.318 0.164 1.884
4.654 0.406 1.866
4.934 0.502 1.618
4.584 0.080 2.011
4.823 0.244 1.982
5.190 0.183 1.900
5.536 0.240 1.981
4.880 -0.042 2.412
5.343 0.025 2.336
5.437 0.248 2.074
5.727 0.170 2.419
1.013 0.925 0.334
0.102 0.699 0.522
0.563 0.712 0.414
0.728 0.846 0.407
0.988 1.042 0.091
1.218 0.878 0.494
0.444 0.623 0.673
0.675 0.576 0.681
0.827 0.687 0.504
1.284 0.831 0.436
1.371 0.723 0.643
2.928 1.066 0.125
3.065 1.124 0.131
3.463 1.406 -0.011
0.305 0.510 0.973
0.816 0.446 1.052
1.150 0.637 0.755
1.328 0.766 0.648
1.558 0.430 0.900
3.328 1.159 0.275
3.515 1.045 0.199
3.875 1.196 0.144
4.201 1.362 0.142
0.648 0.139 1.147
0.943 0.266 1.260
1.076 0.332 1.068
1.423 0.521 0.961
3.113 0.549 0.370
3.306 0.917 0.255
3.692 0.965 0.110
3.937 0.892 0.091
0.882 0.170 1.070
1.115 0.139 0.775
4.085 0.088 1.419
4.309 0.093 1.511
4.687 0.066 1.347
4.776 0.222 1.290
4.631 0.130 1.696
5.021 0.030 1.386
5.198 0.347 1.424
5.518 -0.039 1.542
1.235 0.768 0.087
0.194 0.276 0.341
0.530 0.369 0.103
0.838 0.508 0.152
1.123 0.759 -0.098
1.345 0.410 0.327
0.196 0.128 0.477
0.543 0.199 0.355
0.831 0.471 0.302
1.103 0.629 0.314
1.457 0.287 0.430
2.953 0.820 0.029
0.394 0.094 0.762
0.868 0.129 0.687
1.202 0.381 0.739
1.471 0.476 0.471
3.152 0.633 0.328
3.192 0.908 0.157
3.579 0.846 0.262
3.887 1.049 0.093
1.015 -0.100 1.028
1.233 0.092 0.923
2.640 0.201 0.142
3.033 0.533 0.079
3.467 0.406 -0.090
2.944 0.152 0.451
3.203 0.176 0.450
4.509 0.098 0.867
4.883 0.165 0.827
5.108 0.238 0.645
5.049 0.012 0.968
5.223 0.073 0.971
0.192 0.043 0.125
0.530 0.120 0.119
1.259 0.104 0.143
0.808 0.018 0.210
0.879 0.262 0.236
1.174 0.245 0.167
2.667 0.427 0.187
2.969 0.504 0.134
3.288 0.354 0.074
1.848 5.323 3.607
2.342 5.324 3.282
2.667 5.330 3.258
2.945 5.631 3.183
5.013 6.154 2.379
5.117 6.152 2.379
0.032 4.590 4.074
1.834 4.981 3.839
2.196 5.160 3.806
2.288 5.250 3.770
2.591 5.308 3.607
4.864 5.825 2.721
4.947 5.913 2.636
5.512 6.080 2.734
5.822 6.127 2.497
1.709 4.635 4.276
1.987 4.924 4.141
2.248 4.825 4.080
2.586 5.162 3.831
4.718 5.622 3.234
4.907 5.684 3.235
5.128 5.969 3.046
5.432 6.100 2.800
1.391 4.535 4.659
1.835 4.699 4.511
1.977 4.804 4.261
2.407 4.763 4.313
4.366 5.389 3.615
4.780 5.481 3.461
5.083 5.696 3.274
5.279 5.618 3.282
1.324 4.635 4.650
1.439 4.262 4.716
1.830 4.593 4.823
2.044 4.666 4.682
4.153 5.163 3.977
4.594 5.320 3.936
4.835 5.306 3.744
5.287 5.413 3.558
1.300 4.371 4.945
1.575 4.289 4.709
1.742 4.322 5.071
2.006 4.290 5.027
4.227 5.089 4.179
4.446 5.115 4.188
4.712 5.275 4.148
4.890 5.130 3.989
1.018 3.935 5.416
1.342 4.027 5.109
1.674 4.271 5.209
1.739 4.138 5.394
3.878 4.802 4.690
4.317 4.840 4.660
4.506 4.928 4.399
4.772 5.064 4.399
1.047 3.724 5.576
1.103 3.834 5.543
1.452 3.950 5.394
1.909 4.001 5.469
3.703 4.460 5.106
3.940 4.454 4.855
4.284 4.510 4.695
4.746 4.727 4.737
1.129 3.693 5.853
1.239 3.737 5.735
1.534 3.927 5.676
3.499 4.333 5.501
3.953 4.261 5.327
4.231 4.429 5.218
4.488 4.549 5.209
1.176 3.604 6.112
1.436 3.689 6.040
3.328 4.122 5.842
3.833 4.055 5.710
4.055 4.213 5.430
4.247 4.206 5.389
6.111 4.868 4.760
3.168 3.850 5.990
3.560 3.803 6.016
3.878 4.064 5.901
4.285 4.130 5.915
6.014 4.481 5.138
6.352 4.536 5.247
3.591 3.729 6.228
3.952 3.669 6.083
5.891 4.303 5.445
6.009 4.328 5.565
5.660 4.079 5.894
6.028 4.267 5.871
6.373 4.349 5.788
5.879 3.928 6.250
6.072 4.131 6.064
0.564 5.420 2.983
2.442 5.858 2.434
2.715 6.148 2.362
3.001 6.052 2.256
3.373 6.228 2.170
-0.067 5.138 3.219
0.402 5.184 3.203
0.582 5.356 2.942
2.367 5.868 2.750
2.581 5.797 2.743
2.895 5.794 2.582
3.047 6.026 2.357
0.196 5.146 3.443
0.409 5.296 3.448
2.151 5.448 3.182
2.320 5.461 3.105
2.762 5.760 2.988
2.951 5.808 2.859
0.313 4.814 3.728
2.059 5.334 3.544
2.275 5.213 3.503
2.535 5.404 3.378
2.786 5.617 3.155
4.902 6.185 2.436
5.161 6.382 2.261
-0.012 4.682 3.985
5.692 5.382 0.399
5.968 5.691 0.303
6.219 5.724 0.448
5.665 5.399 0.843
6.038 5.550 0.566
