4.776 6.158 0.114
4.340 5.898 0.651
4.695 5.442 0.787
4.548 5.527 1.075
4.446 3.362 2.230
4.144 3.308 2.479
4.160 3.323 2.266
3.910 3.168 2.770
4.784 5.806 0.200
4.911 5.837 -0.030
4.488 5.729 0.575
4.426 5.182 0.679
3.853 3.685 1.696
4.235 3.740 1.950
3.787 3.549 2.354
4.561 5.689 0.155
4.734 5.380 -0.015
4.046 3.387 1.922
3.365 4.358 1.060
3.533 3.721 1.189
2.901 2.104 3.055
3.495 4.130 0.671
3.072 4.239 0.571
2.575 2.064 2.513
2.546 1.985 2.537
3.394 4.254 0.634
3.262 4.531 0.501
3.087 4.477 0.498
2.825 4.057 0.546
2.468 2.097 2.040
2.821 2.157 2.550
2.831 1.782 2.645
2.700 1.815 2.609
3.335 4.777 0.420
3.108 4.198 0.263
3.331 3.958 0.749
2.858 4.056 0.207
2.513 2.492 1.742
2.399 2.075 1.888
2.251 1.895 2.414
2.561 1.797 2.204
2.480 1.766 2.713
2.800 4.636 0.314
2.794 4.348 0.279
2.855 4.261 0.608
2.642 3.859 0.466
2.527 2.597 1.550
2.277 2.528 1.675
2.054 2.065 1.904
2.222 2.277 2.330
2.034 1.797 2.322
2.868 4.416 0.036
2.864 4.292 0.076
2.077 2.910 1.342
2.338 2.695 1.564
2.317 2.377 1.787
1.870 2.431 1.894
1.951 1.970 1.736
2.475 4.269 -0.034
2.036 2.747 1.290
2.154 2.813 1.552
1.797 2.454 1.470
1.947 2.564 1.449
1.659 2.165 1.503
1.758 2.037 2.078
1.676 2.807 1.140
1.630 2.705 1.228
1.649 2.637 1.306
1.949 2.443 1.363
1.386 2.028 1.415
1.901 2.930 0.874
1.720 2.485 1.019
1.624 2.556 1.031
1.749 2.606 1.384
1.354 3.194 0.249
1.401 2.842 0.755
1.603 2.463 0.751
1.148 2.483 0.969
1.457 2.876 0.610
1.527 2.833 0.808
0.424 1.338 1.023
-0.029 1.036 1.490
0.280 1.700 0.745
4.710 3.165 2.876
4.659 2.931 2.857
4.419 3.069 3.249
4.446 2.580 3.004
4.387 2.864 3.388
5.188 5.857 0.535
5.029 5.442 0.717
5.186 5.516 1.078
5.225 5.054 0.903
4.950 5.021 1.088
5.311 4.787 1.300
4.812 3.404 2.437
4.596 3.520 2.787
4.438 2.989 2.986
4.493 2.961 2.997
4.465 3.023 3.201
5.388 6.028 0.186
5.029 5.863 0.449
4.985 5.484 0.950
5.095 5.412 1.051
4.962 4.979 1.297
4.715 5.238 0.940
4.630 3.485 2.524
4.249 3.605 2.523
4.384 3.064 2.825
4.134 3.200 2.693
4.539 2.834 3.035
4.698 5.825 0.311
4.699 5.594 0.655
4.724 5.555 0.490
4.735 5.070 0.657
4.657 4.877 0.670
4.354 3.729 2.015
4.176 3.417 2.120
4.269 3.463 2.675
4.388 2.986 2.788
4.650 6.202 0.058
4.976 5.875 0.344
4.497 5.828 0.284
4.523 5.613 0.646
4.153 3.484 1.681
4.119 3.532 2.205
4.384 3.267 2.372
4.367 2.781 2.093
4.890 5.364 -0.169
4.634 5.594 0.030
4.182 4.125 1.224
3.989 3.812 1.533
4.038 3.527 1.792
4.198 3.106 2.208
4.118 3.097 2.309
4.631 5.251 -0.096
3.868 3.946 1.474
4.253 3.613 1.636
4.272 3.701 1.639
3.852 3.191 1.867
4.001 3.532 1.582
3.962 3.238 2.009
3.802 4.041 0.860
4.016 3.949 0.929
3.854 3.748 1.189
3.941 3.565 1.585
3.864 3.523 1.584
3.956 3.019 1.987
3.617 4.074 0.789
3.655 3.672 1.097
3.849 3.559 1.394
3.896 3.346 1.386
3.731 3.448 1.249
3.362 1.948 2.992
3.395 4.327 0.557
3.610 3.842 0.928
3.629 3.692 1.089
3.401 3.890 0.893
3.246 3.605 1.101
3.294 2.138 2.626
2.796 1.498 2.596
3.721 4.322 0.368
3.438 4.195 0.237
3.552 3.847 0.440
3.064 3.577 1.042
3.236 3.437 0.909
3.034 1.897 2.273
2.664 1.556 2.350
3.643 4.048 0.278
3.667 4.381 0.614
3.374 3.940 0.572
3.049 4.013 0.610
3.151 3.591 0.876
2.467 1.941 2.366
2.588 1.783 2.429
2.454 1.923 2.220
3.427 4.465 0.157
3.095 4.110 0.405
2.777 4.037 0.302
2.690 1.788 2.296
2.253 1.951 2.082
2.700 1.663 2.629
2.969 4.017 0.289
3.161 4.226 0.325
1.917 2.538 0.820
2.134 2.281 1.162
1.931 3.044 0.250
1.760 3.018 0.701
1.971 2.656 0.607
1.469 2.181 0.897
1.856 3.314 -0.009
1.422 2.777 0.529
1.446 2.487 0.304
1.368 2.360 0.625
1.427 2.475 0.559
1.642 3.048 0.204
1.362 2.840 0.445
1.205 2.577 0.522
1.313 2.455 0.546
1.266 2.969 0.153
1.049 2.851 0.524
1.211 2.986 -0.127
0.860 2.360 0.082
0.710 0.943 1.394
0.353 1.302 1.086
0.347 1.077 1.386
0.136 1.271 0.802
-0.204 1.244 1.103
4.941 3.074 2.313
4.479 2.705 2.541
5.261 5.110 0.482
4.292 3.515 2.050
4.584 3.015 2.226
4.296 3.170 2.637
5.212 5.565 0.386
5.008 5.342 0.258
5.001 5.346 0.366
4.614 3.810 1.666
4.386 3.476 2.120
4.069 3.078 2.241
4.007 3.054 2.247
4.954 5.881 0.145
4.989 5.607 0.090
4.669 3.443 1.702
4.412 3.673 2.025
4.728 3.343 2.029
4.263 3.244 1.944
4.236 3.819 1.371
4.514 3.897 1.569
4.511 3.341 1.611
4.192 3.399 1.714
4.212 3.101 1.639
4.217 3.240 1.977
4.398 4.197 0.679
4.490 3.611 1.236
4.035 3.430 1.231
4.311 3.454 1.307
4.208 3.048 1.790
4.040 2.903 1.419
4.004 2.699 1.993
4.237 4.153 0.905
3.958 3.589 1.069
3.974 3.801 0.925
3.787 3.523 1.263
3.762 3.255 1.241
3.612 3.264 1.741
3.439 1.896 2.737
3.772 3.859 0.387
3.774 4.046 0.455
3.966 3.563 1.115
3.623 3.679 1.151
3.516 3.113 1.289
3.905 3.381 1.486
3.820 2.789 1.651
3.322 1.478 2.476
4.179 4.189 0.406
3.534 3.973 0.333
3.751 3.793 0.728
3.376 3.788 0.806
3.708 3.499 0.981
3.743 3.152 0.784
3.522 2.935 1.035
3.238 1.510 2.648
3.160 1.773 2.773
3.576 3.862 0.702
3.747 3.749 0.145
3.348 3.758 0.486
3.323 3.731 0.598
3.443 3.602 0.533
3.277 3.162 0.899
3.112 1.547 2.266
2.923 1.294 2.219
3.778 3.991 0.610
3.413 3.817 0.176
3.469 3.698 0.304
3.345 3.693 0.713
2.818 1.264 2.555
3.472 3.946 0.184
2.195 2.928 0.298
1.627 2.584 0.760
1.699 2.752 0.259
1.541 2.772 0.094
1.904 2.419 0.344
1.528 2.536 0.745
1.426 2.560 -0.149
1.405 2.488 0.514
1.514 2.460 0.484
1.091 2.850 -0.074
1.536 2.206 -0.037
1.503 2.125 0.285
0.991 0.886 1.590
1.299 2.674 -0.077
0.948 1.180 1.484
0.619 0.851 1.084
0.327 1.074 0.625
0.519 1.027 0.911
0.006 1.240 0.547
0.346 1.036 0.993
4.819 3.844 1.441
4.349 3.292 1.503
4.447 3.127 2.152
4.580 3.209 2.103
4.510 3.770 1.491
4.416 3.483 1.545
4.398 3.024 1.584
4.547 3.339 1.785
4.383 3.793 0.863
4.507 3.713 1.211
4.245 3.590 1.159
4.395 3.576 1.335
4.571 3.310 1.313
4.363 2.813 1.537
4.443 2.652 1.641
4.220 4.096 0.623
4.185 3.516 1.132
4.285 3.637 1.369
4.360 3.442 1.234
4.350 3.414 1.417
4.409 3.242 1.284
3.914 2.995 1.741
3.743 1.396 2.743
4.457 4.249 0.314
4.165 3.612 0.762
3.932 3.426 0.586
4.320 3.397 0.950
4.049 3.368 1.273
3.887 3.333 1.313
4.238 2.794 1.661
3.943 2.744 1.852
3.642 1.652 2.830
4.022 3.766 0.755
4.035 4.027 0.456
4.167 3.621 0.504
3.809 3.424 0.528
3.911 3.222 1.124
4.058 3.217 0.862
3.983 3.008 1.133
3.981 2.699 1.303
3.721 1.678 2.548
3.907 4.034 0.688
3.810 3.603 0.312
3.641 3.971 0.273
3.882 3.581 0.481
3.556 3.278 0.767
3.590 3.105 0.958
3.430 3.152 1.145
3.786 2.738 1.482
3.082 1.271 2.162
3.939 3.617 0.374
3.711 4.082 0.436
3.506 3.400 0.257
3.599 3.482 0.389
3.699 3.398 0.758
3.569 3.269 0.913
3.401 2.830 0.864
3.000 1.620 2.475
3.557 3.852 0.181
3.522 3.474 0.213
3.110 3.393 0.399
3.442 3.023 0.341
2.104 2.328 0.336
1.587 2.180 0.156
1.729 2.418 0.011
1.726 2.421 0.205
1.379 1.205 1.302
1.207 2.258 0.177
1.225 2.298 0.178
1.234 0.915 1.318
1.129 2.157 -0.172
0.917 0.690 0.929
0.715 0.820 1.287
0.652 0.965 1.010
0.273 0.890 0.803
4.670 3.646 1.401
4.877 3.523 1.531
4.794 3.510 1.544
4.658 2.953 2.014
4.601 3.575 1.191
5.015 3.459 1.388
4.664 3.065 1.507
4.778 3.374 1.204
4.762 3.583 0.614
4.894 3.726 1.062
4.876 3.650 1.132
4.531 3.213 1.113
4.452 3.181 1.347
4.442 2.668 1.305
4.400 1.332 2.830
4.580 3.818 0.575
4.567 3.816 0.616
4.475 3.725 0.822
4.257 3.316 1.091
4.596 3.362 1.124
4.254 2.899 1.241
4.368 2.765 1.553
4.112 1.597 2.378
4.616 4.119 0.514
4.363 3.837 0.556
4.091 3.665 0.564
4.483 3.350 0.419
4.480 3.424 0.999
4.117 3.329 0.894
4.017 2.853 0.927
4.374 2.830 1.055
4.190 2.435 1.449
4.029 1.592 2.598
4.166 3.965 0.162
4.325 4.032 0.046
3.864 3.434 0.324
4.301 3.164 0.373
3.815 3.108 0.512
3.833 2.818 0.773
3.990 2.912 0.841
3.647 2.947 0.957
4.017 2.689 1.194
3.390 1.095 2.311
4.285 3.566 0.150
3.960 3.755 -0.044
3.639 3.594 0.600
3.807 3.203 0.330
3.719 3.062 0.727
4.020 2.798 0.580
3.829 3.008 0.795
3.942 2.515 0.947
3.492 1.325 2.538
3.947 3.896 0.206
3.722 3.306 0.269
3.807 3.587 0.639
3.499 3.164 0.379
3.680 2.751 0.836
3.809 2.791 0.691
3.358 2.750 0.826
3.334 1.477 2.314
3.624 3.025 0.616
3.396 2.997 0.834
1.879 2.041 0.199
1.450 0.863 1.052
1.226 2.253 0.220
1.091 0.870 1.352
1.189 0.720 1.045
0.682 0.513 1.079
0.367 0.850 1.017
4.699 3.519 1.183
5.029 3.726 1.131
4.874 3.121 1.092
4.692 3.120 1.478
5.016 3.521 0.839
5.204 3.273 0.826
4.958 3.282 1.199
5.068 3.381 1.123
4.497 1.208 2.479
4.962 3.831 0.610
5.020 3.584 0.452
4.628 3.621 0.763
4.500 3.347 1.131
4.644 3.300 1.259
4.719 2.835 0.979
4.487 1.100 2.663
4.875 3.515 0.231
4.756 3.659 0.176
4.570 3.613 0.773
4.662 3.308 0.665
4.347 3.425 0.980
4.460 2.807 1.092
4.413 2.959 1.253
4.191 2.657 1.258
4.144 1.515 2.499
4.296 1.406 2.288
4.892 3.876 0.377
4.398 3.941 0.110
4.519 3.276 0.670
4.317 3.401 0.640
4.150 3.264 0.652
4.053 2.919 0.913
4.492 2.814 0.932
4.386 2.749 0.904
4.032 1.511 2.257
4.638 3.650 0.347
4.218 3.658 0.282
4.480 3.356 0.146
4.045 3.165 0.543
3.922 3.009 0.629
4.245 2.933 0.499
4.308 2.652 0.965
3.918 2.761 1.059
4.034 2.599 1.382
3.580 1.028 2.335
4.343 3.478 0.048
3.810 3.461 0.039
4.107 3.443 0.142
4.053 3.015 0.499
4.094 2.738 0.718
3.728 2.933 0.741
3.571 2.338 0.996
3.991 2.416 1.287
3.668 1.276 1.896
3.766 3.090 0.299
4.007 2.775 0.126
3.726 2.968 0.498
3.892 2.483 0.651
3.365 2.429 0.954
3.350 2.055 0.754
3.363 2.775 0.481
3.565 2.547 0.548
3.316 2.172 0.472
1.569 0.876 0.957
1.322 0.417 1.121
1.063 0.832 0.895
1.342 0.715 0.581
0.660 0.436 0.515
4.825 3.634 0.984
4.750 3.492 0.748
4.852 3.446 0.866
4.760 2.870 0.918
4.233 1.353 2.893
5.254 3.741 0.387
5.212 3.491 0.600
4.843 3.263 0.794
4.906 3.170 0.769
4.740 1.709 2.447
4.779 1.210 2.674
4.929 3.944 0.651
4.824 3.734 0.086
5.178 3.422 0.486
4.974 3.170 0.551
4.935 3.301 0.869
4.539 2.745 1.141
4.215 1.486 2.283
4.666 1.444 2.379
4.744 3.406 0.206
4.624 3.354 0.410
4.918 3.657 0.451
4.827 3.374 0.253
4.684 3.323 0.772
4.511 2.795 0.587
4.327 2.454 0.802
4.348 1.318 2.392
4.050 1.375 2.430
4.640 3.400 0.042
4.799 3.422 0.107
4.714 3.215 0.283
4.213 3.410 0.506
4.216 3.018 0.727
4.171 2.641 0.897
4.428 2.580 0.627
4.299 2.477 0.832
3.759 1.300 2.428
4.710 3.571 0.012
4.086 3.406 0.093
4.545 3.312 0.147
4.244 3.046 0.703
4.193 2.788 0.615
4.383 2.610 0.852
4.245 2.672 0.695
3.995 2.273 0.955
3.878 1.154 2.163
4.245 3.137 0.188
4.217 3.177 0.254
4.117 2.794 0.596
3.748 2.656 0.814
3.680 2.361 0.744
3.629 2.426 0.694
3.594 2.759 0.228
3.758 2.496 0.636
3.587 2.497 0.683
3.557 2.208 0.896
3.608 2.435 0.965
3.786 2.390 0.486
3.844 2.670 0.156
3.506 2.362 0.481
3.684 2.328 0.827
2.193 0.875 0.774
1.734 0.610 0.905
2.034 0.910 0.991
1.707 0.841 0.977
1.448 0.429 0.530
1.348 0.354 0.933
1.157 0.696 0.729
1.353 0.638 0.836
4.922 3.834 0.506
5.054 3.300 0.656
5.169 3.475 0.990
4.771 3.208 1.155
4.700 1.184 2.675
4.339 1.164 2.668
5.071 3.538 0.536
1.721 5.477 5.724
1.824 5.064 6.066
1.744 5.140 6.300
1.620 5.176 5.815
1.258 5.290 6.095
1.121 4.895 6.203
1.113 5.986 4.168
1.054 6.299 4.383
1.021 5.977 4.442
0.623 5.876 4.198
0.642 6.388 3.969
0.511 6.022 4.498
0.794 5.926 4.341
0.223 6.193 4.460
0.307 5.860 4.178
0.538 5.800 4.343
-0.059 5.783 4.275
0.055 5.775 4.581
-0.160 5.573 4.842
2.534 5.890 6.083
2.523 5.932 6.136
2.074 5.554 6.111
2.105 5.619 5.997
1.924 5.323 6.063
2.219 5.527 5.668
2.043 5.511 6.089
1.756 5.431 6.233
1.582 5.509 5.854
1.984 5.288 5.770
1.402 5.199 6.402
1.988 5.220 5.676
1.944 5.116 5.692
1.607 5.005 6.116
1.683 4.875 6.283
1.545 5.180 6.051
1.491 4.894 5.818
0.918 6.081 4.091
0.905 5.947 4.554
0.725 5.760 4.751
0.680 6.155 3.960
0.713 6.097 4.069
0.406 5.512 4.498
0.738 5.544 4.340
0.268 6.166 3.859
0.414 5.708 3.905
0.459 5.607 4.427
0.173 5.345 4.417
0.436 5.205 4.691
0.308 5.070 4.630
0.182 5.724 4.274
0.189 5.765 4.054
0.102 5.641 4.058
0.069 4.960 4.468
0.021 5.042 4.423
0.228 4.905 4.736
-0.233 5.735 4.245
2.476 6.403 5.450
2.533 5.773 5.514
2.533 5.609 5.731
2.634 5.481 5.736
2.601 5.536 6.238
2.433 5.287 6.371
2.478 6.166 5.462
2.187 5.526 5.843
2.260 5.635 5.927
2.021 5.280 6.025
2.354 5.415 6.158
2.329 5.587 5.651
2.037 5.609 5.832
2.075 5.626 5.793
2.125 5.453 5.803
1.930 4.905 6.140
2.175 5.756 5.672
2.077 5.120 5.571
1.865 5.384 5.771
1.723 5.010 5.779
1.894 5.693 5.566
1.795 5.546 5.252
1.848 4.950 5.543
2.147 4.795 5.489
0.585 5.675 3.979
0.923 5.599 4.324
0.628 5.541 4.288
0.640 5.013 4.738
0.838 5.051 4.871
0.716 5.761 4.086
0.757 5.674 3.873
0.776 5.550 4.159
0.283 4.952 4.153
0.202 4.818 4.652
0.249 4.940 4.651
0.267 5.663 3.890
0.109 5.673 4.052
0.436 5.275 3.960
0.182 4.962 4.257
0.321 4.736 4.410
0.021 4.941 4.377
-0.076 4.549 4.740
0.149 5.500 3.801
0.102 5.298 3.796
0.265 5.062 3.870
-0.114 5.221 4.065
-0.092 4.755 4.285
2.988 6.295 5.427
2.998 6.009 5.170
2.516 5.774 5.317
2.656 5.793 5.644
2.651 5.404 5.545
2.606 5.236 5.821
2.401 5.006 5.902
2.459 6.083 5.429
2.298 5.541 5.162
2.603 5.474 5.455
2.573 5.287 5.537
2.238 5.025 6.090
2.562 4.859 6.215
2.236 5.043 6.377
2.206 6.013 5.516
2.000 5.794 5.140
2.269 5.618 5.452
2.286 5.398 5.645
2.006 4.967 5.871
1.892 5.069 6.061
2.155 5.465 5.457
2.230 5.622 5.555
2.144 5.137 5.368
2.070 5.209 5.687
2.034 5.527 5.060
2.141 5.626 4.955
2.189 5.122 5.521
2.021 4.948 5.449
0.866 5.590 4.334
0.808 5.229 4.195
0.566 4.866 4.412
0.827 4.915 4.768
0.619 5.347 3.753
0.848 5.230 4.102
0.625 5.046 3.952
0.745 5.026 4.297
0.349 4.611 4.554
0.593 4.652 4.437
0.625 4.384 4.652
0.641 5.465 3.603
0.262 5.035 3.947
0.634 5.136 4.241
0.482 4.839 4.035
0.182 4.732 4.535
0.558 4.486 4.297
0.400 4.307 4.819
0.337 5.460 3.871
0.005 5.100 3.671
-0.018 4.993 3.948
0.254 5.145 4.148
0.014 4.622 4.259
0.274 4.533 4.639
0.148 4.493 4.606
0.044 5.257 3.347
0.284 4.936 3.499
-0.203 5.148 3.850
2.961 6.020 4.983
2.626 5.951 5.009
2.548 5.750 5.554
2.616 5.411 5.230
2.711 5.124 5.711
2.517 5.317 5.698
2.494 5.212 6.003
2.762 5.849 4.948
2.746 5.668 5.180
2.595 5.881 5.423
2.505 5.530 5.434
2.731 5.517 5.400
2.605 5.289 5.712
2.452 4.832 6.048
2.631 5.799 4.695
2.400 5.727 5.310
2.326 5.244 5.130
2.385 5.437 5.445
2.248 4.999 5.380
2.124 4.868 5.686
2.379 5.545 4.895
1.955 5.571 5.281
2.292 5.147 5.515
2.297 4.968 5.573
2.215 5.612 4.851
2.581 5.354 4.843
2.145 5.256 4.801
2.435 4.957 5.321
1.000 5.011 4.106
1.128 4.700 4.229
0.679 4.771 4.655
0.878 4.297 4.540
0.872 5.113 3.696
0.975 5.112 3.938
0.695 4.802 4.176
0.681 4.438 4.071
0.382 4.228 4.595
0.488 4.260 4.742
0.428 5.352 3.455
0.590 5.144 3.564
0.560 5.055 3.919
0.272 4.822 3.891
0.595 4.398 4.226
0.495 4.443 4.074
0.610 4.518 4.318
0.365 5.056 3.514
0.355 5.216 3.535
0.588 4.672 3.751
0.435 4.536 4.189
0.294 4.813 4.170
0.106 4.228 4.328
0.002 4.291 4.191
0.411 5.181 3.361
0.093 5.139 3.500
0.006 4.821 3.492
-0.100 4.594 3.939
0.224 4.655 4.113
-0.116 4.434 3.990
0.002 5.045 3.328
2.889 5.817 4.806
2.799 5.883 4.784
2.699 5.391 4.973
2.856 5.268 5.538
2.857 5.108 5.645
2.755 5.026 5.459
2.804 4.580 5.769
2.978 5.969 4.601
2.712 5.439 4.732
2.754 5.233 5.290
2.610 5.173 5.321
2.915 5.269 5.349
2.766 4.966 5.787
2.355 4.544 5.529
2.682 5.957 4.591
2.321 5.354 5.031
2.669 5.494 4.810
2.758 5.345 5.195
2.393 5.031 5.181
2.148 5.172 5.354
2.225 4.885 5.771
2.249 5.766 4.841
2.051 5.212 5.039
2.429 5.191 4.767
2.507 5.089 5.071
2.473 5.830 4.480
2.710 5.356 4.503
2.190 5.039 4.864
2.388 4.981 5.113
1.312 5.133 4.125
1.236 4.797 3.928
0.787 4.817 4.323
0.874 4.249 4.223
0.864 4.058 4.508
0.612 4.881 3.905
0.770 4.780 4.017
0.823 4.545 3.827
0.622 4.536 4.075
0.964 4.233 4.160
0.958 4.164 4.281
0.622 4.201 4.336
0.643 5.023 3.176
0.883 4.788 3.857
0.780 4.942 3.924
0.821 4.679 4.070
0.805 4.638 4.060
0.390 4.532 3.967
0.642 4.134 4.101
0.685 3.861 4.265
0.475 5.336 3.075
0.290 4.864 3.694
0.369 4.851 3.885
0.302 4.417 3.674
0.232 4.573 3.894
0.179 4.151 3.946
0.077 3.952 4.178
0.056 5.158 3.340
0.415 4.902 3.425
0.161 4.496 3.253
0.074 4.269 3.741
-0.054 4.090 3.572
0.357 4.172 4.092
-0.077 3.929 4.228
-0.030 5.144 3.121
0.326 4.949 3.410
-0.196 4.397 3.537
0.156 4.265 3.791
3.070 5.547 4.657
3.067 5.445 4.806
3.018 5.451 4.928
3.261 4.986 5.057
3.068 5.153 5.569
2.759 4.831 5.563
2.704 4.831 5.741
3.063 5.782 4.737
3.099 5.413 4.864
2.854 5.226 5.055
2.716 4.975 4.829
2.548 4.798 5.263
2.533 4.895 5.342
2.415 4.479 5.411
2.978 5.441 4.743
2.925 5.326 4.667
2.707 5.053 5.078
2.577 5.196 5.116
2.513 5.093 5.252
2.601 4.748 5.094
2.525 5.640 4.417
2.426 5.671 4.465
2.292 5.390 4.628
2.148 4.899 4.950
2.608 5.786 4.254
2.586 5.499 4.078
2.811 5.180 4.441
2.441 5.253 4.664
2.483 5.555 4.067
0.938 4.105 4.665
0.963 3.733 4.643
1.302 5.970 2.698
1.149 4.575 3.871
0.784 4.289 4.470
0.787 3.939 4.441
1.200 3.867 4.654
1.217 6.162 2.413
0.700 4.804 3.984
0.684 4.623 3.757
1.012 4.461 3.968
0.706 4.036 4.224
0.794 4.118 4.466
0.581 4.087 4.708
1.091 6.398 2.187
1.154 6.221 2.452
1.012 4.629 3.472
0.693 4.755 3.448
0.655 4.539 3.945
0.698 4.472 3.759
0.523 4.143 3.966
0.753 4.141 4.410
1.176 6.155 2.027
0.391 4.634 3.386
0.750 4.488 3.700
0.398 4.613 3.915
0.358 4.010 4.043
0.580 4.210 3.734
0.183 3.742 3.905
0.522 5.085 3.011
0.403 4.667 3.300
0.358 4.379 3.524
0.258 4.601 3.349
0.428 4.097 3.873
0.212 3.914 4.029
0.668 6.010 2.136
0.221 4.645 2.829
0.037 4.526 3.347
0.143 4.667 3.081
0.118 4.361 3.173
0.126 4.021 3.384
0.204 5.189 2.579
-0.235 4.574 3.022
3.482 5.498 4.340
3.301 5.412 4.499
3.059 4.987 4.724
3.057 4.814 4.788
3.002 4.730 5.482
2.848 4.486 5.280
2.935 4.750 5.770
3.242 5.446 4.707
3.065 5.464 4.700
3.134 5.391 4.567
3.022 4.993 5.209
3.014 5.080 5.283
2.648 4.954 5.257
3.023 5.560 4.041
2.610 5.310 4.225
2.635 5.125 4.810
2.949 4.983 4.947
2.507 4.933 5.071
2.821 4.717 4.735
2.458 5.884 4.120
2.429 5.484 4.007
2.640 5.120 4.623
2.530 5.147 4.814
2.612 5.752 3.695
2.552 5.510 4.204
2.822 5.306 3.914
2.966 5.140 4.019
2.482 5.633 3.339
2.594 5.631 3.924
2.536 5.655 3.774
2.809 5.284 3.883
2.585 5.799 3.316
2.275 5.973 3.379
2.483 5.624 3.531
2.132 5.321 3.913
2.610 5.932 3.302
2.089 5.675 3.058
2.006 5.702 3.538
2.147 5.426 3.684
2.428 6.119 2.892
2.265 6.155 3.095
2.107 5.751 3.126
1.826 5.488 3.143
2.112 6.275 2.295
1.972 6.197 2.462
2.093 6.115 2.667
1.881 5.552 3.079
1.271 3.727 4.933
2.101 5.985 2.609
1.611 6.009 2.317
1.578 5.870 2.750
1.946 5.710 2.694
1.464 3.832 4.613
1.184 3.758 4.643
1.723 6.215 2.372
1.725 6.290 2.327
1.505 6.075 2.235
0.948 3.836 3.901
1.040 3.993 4.543
0.923 3.468 4.328
1.676 6.402 2.566
1.541 6.067 2.479
0.925 4.298 3.859
1.112 3.928 4.182
0.687 3.900 4.135
0.873 3.622 4.276
1.738 6.539 2.298
1.516 6.083 2.190
0.824 4.082 3.810
1.016 4.269 3.934
0.584 4.069 4.192
0.836 3.754 4.165
1.544 6.017 1.804
0.758 4.236 3.346
0.779 4.454 3.618
0.500 4.388 3.772
0.322 4.078 3.625
0.249 4.476 3.156
0.640 4.542 3.457
0.605 4.254 3.347
0.660 3.836 3.318
0.323 4.668 2.962
0.182 4.286 2.809
0.187 4.388 3.097
0.383 4.093 3.414
0.355 5.027 2.692
0.224 4.603 2.503
-0.075 4.417 2.840
0.000 4.337 2.879
0.069 4.711 2.402
3.197 5.300 4.873
3.439 5.288 4.779
3.124 4.899 4.780
3.126 4.496 5.302
3.162 5.185 4.510
2.995 5.447 4.676
2.882 4.772 4.729
3.175 4.761 4.849
2.790 5.446 4.231
2.672 5.217 4.083
2.963 5.258 4.265
2.611 4.769 4.465
2.770 5.731 3.856
2.540 5.573 4.178
2.879 5.441 4.060
2.960 5.045 4.423
2.298 2.991 6.079
2.290 2.818 6.329
2.286 3.015 6.306
1.838 3.280 5.771
1.912 3.355 5.679
2.160 3.125 5.795
1.756 2.900 5.930
2.209 3.621 5.193
2.019 3.532 5.372
2.054 3.173 5.474
1.614 3.073 5.662
1.602 3.475 4.964
1.633 3.369 5.292
1.511 3.111 5.732
1.622 2.887 5.359
1.464 3.601 5.043
1.809 3.670 5.061
1.756 3.598 5.115
1.468 3.007 5.223
1.213 3.595 4.995
1.556 3.237 4.757
1.109 3.287 5.294
1.325 3.654 4.948
1.426 3.448 5.036
1.073 3.797 4.798
0.680 1.691 5.845
0.522 1.816 5.985
0.386 2.123 5.789
0.588 1.917 6.169
0.359 1.634 5.985
0.160 2.168 5.689
0.105 2.093 5.972
0.276 1.497 6.009
-0.061 1.631 6.270
-0.083 2.119 5.296
0.182 2.303 5.395
0.235 1.599 5.362
0.139 1.792 5.819
2.214 2.850 6.462
2.210 3.448 6.014
1.993 2.840 6.298
2.243 2.995 6.458
2.505 3.160 5.865
2.291 3.305 5.621
2.135 2.658 6.074
2.282 2.469 6.311
2.563 3.710 5.526
2.390 3.616 5.194
2.088 3.129 5.513
2.272 3.232 5.704
2.102 3.079 5.687
2.343 2.947 5.973
2.108 3.554 5.206
1.901 3.475 5.114
2.050 3.056 5.118
2.292 3.199 5.542
1.789 3.182 5.555
2.077 2.956 5.945
1.743 3.548 4.621
1.626 3.197 5.163
1.898 3.200 5.118
1.972 3.208 5.229
1.720 2.687 5.652
1.579 2.506 5.615
1.523 3.409 4.817
1.554 3.205 5.071
1.746 2.999 5.107
1.370 2.843 5.506
1.538 3.043 5.481
1.293 3.412 4.666
1.334 3.555 5.026
1.518 3.058 4.861
1.604 3.230 5.171
1.520 3.736 4.552
1.415 3.422 4.640
1.062 3.363 4.803
0.753 1.173 6.483
0.884 3.503 4.631
0.874 3.042 4.655
0.846 1.576 6.110
0.479 1.326 6.179
2.796 2.915 5.846
2.304 3.078 5.585
2.308 3.177 5.570
2.134 2.841 5.918
2.427 2.644 6.146
2.703 3.001 5.485
2.767 3.047 5.310
2.381 2.963 5.547
2.530 2.976 5.924
2.659 3.485 4.987
2.514 3.384 5.365
2.559 3.253 5.251
2.484 3.133 5.520
2.448 2.919 5.780
2.035 2.943 5.670
2.135 3.273 4.770
2.155 3.534 5.255
2.120 3.319 5.255
2.391 3.220 5.303
2.366 2.858 5.710
2.226 2.485 5.752
2.326 3.231 4.678
2.019 3.088 4.835
2.069 3.230 5.235
2.101 3.226 5.463
1.789 2.755 5.260
2.074 2.566 5.717
2.118 3.501 4.610
1.590 3.179 4.685
1.776 3.327 5.126
1.483 2.789 5.150
1.473 2.521 4.986
1.925 2.364 5.543
1.450 3.600 4.758
1.425 3.336 4.859
1.677 2.961 4.954
1.779 2.887 5.092
1.255 2.512 5.059
1.016 1.388 6.065
1.593 3.418 4.574
1.449 3.339 4.816
1.424 3.159 4.906
1.546 2.538 5.034
1.034 1.492 6.292
0.586 1.118 6.035
1.177 3.432 4.293
1.435 2.923 4.564
2.458 3.323 5.144
2.464 2.935 5.457
2.470 2.860 5.900
2.658 2.493 5.972
2.817 3.431 5.357
2.597 3.396 5.163
2.642 2.781 5.160
2.361 2.601 5.410
2.291 3.284 4.582
2.279 3.047 5.191
2.747 2.863 5.122
2.280 2.964 5.386
2.608 2.833 5.293
2.582 2.563 5.714
2.402 3.495 4.755
2.220 3.264 5.060
2.268 3.105 5.256
2.217 2.873 5.298
1.940 2.689 5.198
2.200 2.400 5.528
2.315 3.522 4.874
2.385 3.025 4.528
2.239 2.807 4.745
1.797 2.961 5.096
1.788 2.455 5.386
1.747 2.563 5.600
1.911 3.448 4.485
1.757 3.166 4.491
2.104 2.820 4.949
1.869 2.928 4.754
1.567 2.836 5.145
1.816 2.437 5.305
1.115 1.018 6.278
1.537 3.275 4.438
1.659 3.195 4.591
1.942 2.878 4.588
1.861 2.747 4.755
1.599 2.457 4.817
1.392 2.295 5.159
1.534 1.251 6.136
1.193 1.164 5.982
1.492 2.959 4.031
1.761 3.259 4.221
1.429 2.725 4.807
1.663 2.591 4.522
1.127 2.470 5.136
1.459 2.816 4.192
1.067 2.612 4.605
2.811 3.357 5.304
2.576 3.262 5.457
2.529 3.131 5.207
2.703 3.004 5.334
2.701 3.090 4.819
2.998 2.892 4.684
2.787 2.971 4.987
2.798 2.826 5.308
2.730 3.515 4.837
2.668 3.159 4.991
2.727 2.747 5.054
2.575 2.748 5.206
2.641 2.813 5.482
2.393 3.479 4.463
2.680 3.078 4.602
2.187 2.953 4.841
2.619 2.478 4.842
2.245 2.701 4.947
2.318 2.232 5.527
2.115 3.382 4.593
2.132 3.159 4.859
2.183 2.581 4.735
1.973 2.643 4.655
2.130 2.353 5.331
2.270 2.180 4.983
1.524 1.165 6.375
1.972 3.053 4.416
2.228 2.993 4.303
1.926 2.547 4.941
2.173 2.527 4.609
2.119 2.663 4.956
2.049 2.516 5.321
1.368 0.866 6.128
1.621 0.799 6.058
1.983 3.337 4.266
1.612 2.766 4.274
1.530 2.579 4.715
1.915 2.324 4.785
1.934 2.175 4.890
1.786 2.438 4.985
1.156 0.704 6.264
0.980 0.578 6.347
1.564 3.186 4.348
1.732 2.998 4.057
1.843 2.472 4.260
1.728 2.457 4.524
1.432 2.167 4.700
1.572 2.146 4.970
1.176 2.520 4.080
1.345 2.385 4.736
1.101 2.229 4.686
0.223 2.454 3.454
0.170 2.186 3.671
2.768 3.334 4.565
2.982 3.031 4.902
2.777 3.044 5.221
2.537 2.670 5.314
2.932 3.223 4.632
3.103 3.064 4.929
2.894 3.012 4.985
2.729 2.856 4.313
2.644 2.775 4.957
2.667 2.917 4.860
2.769 2.332 5.029
2.206 1.144 6.453
2.644 3.058 4.610
2.612 2.638 4.444
2.457 2.618 4.489
2.413 2.512 4.676
2.664 2.230 5.199
2.091 1.166 6.103
2.183 0.877 5.961
2.430 2.929 4.236
2.093 2.923 4.322
2.084 2.405 4.519
2.001 2.675 4.809
2.311 2.196 4.930
1.983 2.048 5.310
1.887 1.073 6.023
1.686 0.854 6.045
2.449 3.168 3.981
2.076 2.999 4.527
2.252 2.448 4.664
1.970 2.266 4.797
2.259 2.316 4.672
2.047 2.048 5.113
1.306 0.696 6.025
1.546 0.675 5.985
1.779 3.117 3.980
1.799 2.656 4.521
1.843 2.344 4.638
2.110 2.211 4.456
1.693 2.103 4.509
1.843 2.189 5.121
1.240 0.237 6.240
1.042 0.155 6.362
1.624 2.956 4.030
1.654 2.731 4.157
1.459 2.132 4.505
1.481 2.192 4.338
1.686 2.109 5.024
1.321 2.127 4.256
1.464 1.968 4.535
1.285 1.939 4.839
0.360 2.338 3.503
0.212 2.501 3.278
-0.011 2.296 3.446
0.204 2.409 3.613
0.193 1.973 3.732
3.188 3.388 4.413
2.676 2.918 4.707
2.861 2.750 4.999
3.356 3.156 4.663
2.936 2.748 4.868
2.920 1.007 6.116
2.576 1.019 6.343
2.684 2.861 4.356
2.765 2.759 4.630
2.842 2.515 4.884
2.415 1.033 6.354
2.368 0.669 5.871
2.292 0.445 6.080
2.626 3.027 4.169
2.687 2.805 4.343
2.379 2.857 4.395
2.383 2.203 4.826
2.040 0.604 6.031
1.775 0.373 6.225
2.278 2.935 4.431
2.687 2.921 4.460
2.468 2.375 4.724
2.568 2.449 4.498
2.309 2.185 4.772
1.563 0.603 6.217
1.495 0.643 6.354
2.118 3.012 4.208
2.101 2.555 4.084
2.356 2.509 4.373
2.426 2.558 4.300
1.904 2.246 4.487
1.941 1.811 4.880
1.716 0.243 6.255
1.327 0.327 6.087
2.068 2.470 4.045
2.229 2.363 4.171
2.067 2.445 4.668
1.855 2.094 4.313
1.959 2.079 4.674
1.572 0.094 6.300
1.559 2.249 3.985
1.830 2.328 4.360
1.624 2.203 4.464
1.555 1.686 4.527
1.667 1.814 4.624
1.469 1.923 3.964
1.352 2.064 4.445
1.711 1.987 4.509
1.723 1.610 4.749
1.112 1.498 4.416
-0.005 0.078 5.074
0.551 2.137 3.095
-0.183 0.690 4.851
0.260 0.255 4.773
0.282 2.371 2.981
0.456 1.971 3.061
0.450 2.209 3.379
0.254 2.398 2.680
-0.070 2.378 2.960
0.002 2.104 3.336
3.064 2.781 4.639
3.231 2.723 4.810
2.610 0.989 6.280
2.908 0.872 6.251
3.189 2.607 4.265
2.803 1.232 5.905
2.968 0.982 6.024
2.521 0.723 6.214
2.749 0.547 5.812
2.433 0.798 6.252
2.756 3.048 4.451
2.698 2.541 4.564
2.307 0.970 5.871
2.409 0.968 5.846
2.287 0.570 5.933
2.103 0.135 6.255
3.006 3.048 4.301
2.618 2.727 4.551
2.130 0.349 6.008
2.346 2.685 4.066
2.661 2.475 4.231
1.916 0.032 6.056
2.210 2.162 4.195
2.518 2.197 4.310
2.329 2.180 4.563
2.305 2.057 4.086
2.176 2.010 4.627
1.975 1.552 4.726
1.906 2.252 4.158
1.986 1.967 4.101
1.923 1.503 4.327
1.568 1.468 4.567
1.922 2.055 4.122
1.604 1.757 4.556
1.533 1.705 4.796
1.601 1.569 4.750
1.647 1.623 4.154
1.250 1.360 4.680
1.361 1.248 4.571
1.406 1.096 4.640
1.276 1.279 4.580
0.862 1.439 4.241
1.223 0.837 4.351
1.312 0.848 4.871
1.122 0.786 4.813
0.711 1.141 4.147
0.797 0.768 4.596
1.119 0.937 4.425
1.020 0.500 4.635
0.526 0.897 4.232
0.897 1.135 4.508
0.410 0.922 4.333
0.341 0.400 4.806
0.335 0.190 4.956
0.528 0.450 5.070
0.281 0.581 4.363
0.663 0.753 4.798
0.144 0.475 4.988
0.062 0.327 4.886
0.228 0.016 4.550
0.002 0.289 4.506
0.208 0.336 4.455
0.249 0.200 4.804
0.578 1.942 2.972
0.182 2.200 2.617
0.094 1.727 2.721
-0.251 2.004 2.729
3.260 1.826 5.761
3.329 1.371 5.973
3.543 1.478 5.815
3.387 1.091 6.235
3.381 1.855 6.041
3.290 1.599 6.038
3.395 1.192 5.967
3.072 1.017 6.194
3.022 1.470 5.807
2.971 0.999 6.199
3.222 0.860 6.223
2.784 0.740 6.273
3.245 2.830 4.205
2.986 1.112 6.167
2.858 1.197 6.160
2.860 0.766 6.429
2.760 0.712 5.990
3.001 1.352 5.524
3.029 0.882 5.517
2.810 0.991 5.949
2.866 0.810 6.294
1.921 1.128 4.415
1.552 1.524 4.349
1.941 1.543 4.658
1.711 1.147 4.573
1.539 1.206 4.915
1.569 1.413 4.145
1.321 1.357 4.465
1.629 1.115 4.526
1.524 0.765 4.614
1.255 0.795 4.727
1.114 0.372 5.097
1.473 1.677 4.215
1.132 1.204 4.133
1.076 0.842 4.196
1.240 1.005 4.441
1.400 0.925 4.703
1.134 0.635 4.792
1.005 0.210 5.156
0.868 1.011 4.261
0.987 0.782 4.084
0.946 0.650 4.383
0.828 0.836 4.698
0.675 0.389 4.687
1.114 0.325 4.644
0.812 0.154 5.004
0.985 1.330 3.816
0.641 1.168 4.002
0.578 0.793 4.252
0.505 0.656 4.230
0.974 0.610 4.553
0.783 0.450 4.652
0.621 0.155 5.050
0.689 0.108 4.592
0.567 1.195 4.235
0.847 0.699 4.314
0.692 0.446 4.161
0.606 0.458 4.350
0.528 0.107 4.580
0.544 0.204 4.761
0.415 0.232 4.868
0.426 0.459 3.806
0.157 0.345 3.919
0.561 0.318 4.483
0.055 0.041 4.545
0.426 0.154 4.453
0.043 0.110 4.215
0.138 -0.098 4.108
3.489 1.734 5.365
3.719 1.635 5.723
3.719 1.308 5.908
3.710 1.152 5.722
3.524 1.046 5.817
3.466 0.719 6.307
3.443 0.601 6.315
3.317 1.794 5.398
3.254 1.378 5.895
3.360 1.314 5.916
3.191 1.049 5.910
3.385 0.804 6.025
2.981 0.494 6.420
3.122 0.844 6.186
3.255 1.372 5.329
2.974 1.089 5.550
3.045 0.995 5.968
2.876 0.699 6.162
2.794 0.772 5.963
3.040 0.921 6.230
3.000 1.445 5.739
3.056 0.889 5.714
2.614 0.741 5.743
3.024 0.617 6.092
2.855 1.124 5.370
3.351 0.870 5.345
3.069 0.754 5.524
2.973 0.542 5.845
1.923 1.352 4.265
1.811 0.794 4.584
1.861 0.672 4.561
1.795 0.429 4.971
1.375 0.478 4.800
1.883 1.554 3.887
1.582 1.169 4.100
1.772 0.719 4.410
1.595 0.582 4.430
1.361 0.522 4.441
1.614 0.635 4.811
1.170 0.533 4.817
1.371 1.465 3.735
1.160 1.366 4.169
1.561 1.185 4.012
1.151 0.987 4.408
1.127 0.694 4.413
1.163 0.443 4.446
1.130 0.078 4.584
1.107 0.047 4.803
1.177 1.328 3.809
1.199 1.019 4.167
1.420 1.039 3.919
1.048 0.862 4.475
1.155 0.289 4.180
0.904 0.553 4.455
0.739 0.038 4.812
1.062 0.115 4.670
1.255 1.001 4.037
0.791 0.975 3.953
1.164 0.739 4.273
0.968 0.296 4.283
0.883 0.373 4.589
0.696 0.076 4.320
0.978 0.868 3.812
0.992 0.754 3.807
0.766 0.390 4.162
0.693 0.185 4.171
0.588 0.122 4.349
0.616 -0.126 4.385
0.739 0.927 3.870
0.586 0.533 4.167
0.419 0.500 4.005
0.716 0.259 4.207
0.674 0.106 4.586
0.221 0.041 4.204
3.671 0.713 6.283
4.015 1.923 5.328
3.882 1.547 5.383
3.968 1.589 5.606
3.621 1.240 5.536
3.802 1.191 5.674
3.418 0.965 6.269
3.670 0.557 6.255
3.550 0.562 6.362
3.701 1.493 4.985
3.765 1.525 5.356
3.307 1.468 5.610
3.497 0.937 5.712
3.413 1.060 5.930
3.308 0.857 5.995
3.186 0.636 6.072
3.156 0.516 6.021
3.436 1.565 5.226
3.103 1.299 5.189
3.463 1.198 5.811
3.186 0.731 5.542
2.971 0.557 5.759
3.130 0.656 6.111
3.382 1.246 5.146
3.126 1.270 5.499
3.012 1.064 5.726
2.743 0.848 5.525
3.387 1.256 4.874
3.307 0.937 5.343
3.293 0.695 5.195
3.372 0.963 5.470
2.123 0.621 4.044
1.942 0.732 4.451
1.818 0.408 4.374
1.597 0.130 4.724
1.717 0.876 3.927
1.410 0.764 4.412
1.520 0.718 4.091
1.658 0.430 4.493
1.624 0.404 4.447
1.508 -0.013 4.738
1.577 0.994 3.913
1.651 0.941 3.900
1.464 0.952 4.295
1.525 0.430 3.944
1.393 0.675 4.115
1.215 0.130 4.736
1.143 -0.050 4.694
1.140 1.236 3.408
1.384 0.853 3.864
1.436 0.843 4.171
1.415 0.426 4.249
0.930 0.410 4.089
0.995 0.403 4.649
1.320 0.085 4.434
0.892 0.985 3.693
1.234 1.128 3.456
1.231 0.568 3.905
1.208 0.594 4.156
1.006 0.069 4.346
1.011 -0.085 4.371
0.650 0.684 3.653
0.894 0.783 3.711
0.904 0.448 3.946
0.899 0.434 4.221
1.004 0.089 4.067
0.975 1.005 3.666
0.938 0.433 3.407
0.405 0.258 3.793
0.645 0.082 3.861
0.386 0.056 4.250
3.571 0.439 5.958
4.080 1.771 5.039
3.886 1.442 5.430
4.042 1.200 5.490
3.996 1.446 5.420
3.567 0.796 5.384
3.830 0.706 5.761
3.882 0.622 6.199
3.441 0.689 6.230
3.535 0.427 6.119
3.767 1.366 5.234
3.394 1.384 5.198
3.625 0.970 5.303
3.855 0.713 5.459
3.787 0.765 5.441
3.409 0.681 6.009
3.417 0.471 6.118
3.594 1.299 5.241
3.505 1.302 4.899
3.325 1.118 5.019
3.206 1.031 5.191
3.371 0.722 5.522
3.503 0.620 5.866
3.150 1.128 5.079
3.335 1.166 4.945
3.031 1.102 5.486
3.043 0.726 5.412
3.299 1.216 4.679
3.579 0.974 4.907
3.192 0.777 4.878
3.179 0.899 5.234
2.244 0.969 3.958
1.750 0.362 4.500
2.182 0.150 4.214
1.664 0.381 4.733
1.863 0.279 4.795
1.697 0.861 3.807
1.774 0.847 3.811
1.558 0.540 3.958
1.670 0.242 4.038
1.518 -0.015 4.315
1.828 0.624 3.605
1.795 0.833 3.875
1.403 0.671 3.809
1.288 0.037 4.027
1.594 0.273 4.438
1.630 0.833 3.494
1.557 0.943 3.376
1.613 0.836 4.030
1.204 0.514 3.673
1.451 0.100 3.938
1.118 0.084 4.337
1.005 0.655 3.452
1.365 0.482 3.303
1.319 0.582 3.811
1.227 0.523 3.696
0.899 0.155 4.124
1.025 -0.132 4.011
0.968 0.669 3.143
0.784 0.848 3.293
1.173 0.603 3.567
0.784 0.488 3.486
0.631 -0.050 3.946
0.659 0.675 3.435
1.003 0.260 3.487
0.736 0.212 3.628
0.510 0.036 3.818
3.615 0.407 5.845
3.980 1.809 5.034
3.829 1.258 4.897
3.985 1.484 5.324
4.165 1.317 5.306
4.011 0.868 5.314
4.078 0.562 5.735
3.776 0.464 5.944
3.876 0.345 5.802
3.806 1.778 4.962
3.685 1.103 4.941
3.724 1.191 5.108
3.939 0.732 5.522
3.799 0.989 5.452
3.535 0.829 5.634
3.832 0.509 5.959
3.740 1.708 4.879
3.553 1.044 4.928
3.481 1.076 5.165
3.544 1.135 4.900
3.502 0.932 5.506
3.686 0.614 5.572
3.461 0.359 5.396
3.225 1.262 4.458
3.367 0.812 5.113
3.486 0.704 5.017
3.044 0.806 5.410
3.576 1.069 4.656
3.448 0.952 4.789
3.537 0.741 4.511
3.691 1.029 4.772
1.852 0.428 4.390
2.115 0.279 4.637
2.116 0.804 3.790
2.055 0.152 3.871
1.618 0.067 4.026
1.743 0.242 4.237
1.852 0.412 3.595
1.932 0.465 4.017
1.896 0.525 3.666
1.802 0.308 4.061
1.681 0.418 3.416
1.521 0.435 3.724
1.615 0.386 3.645
1.376 -0.145 4.220
1.318 0.616 3.444
1.350 0.494 3.361
1.533 0.180 3.271
1.428 0.017 3.610
1.200 0.043 3.628
1.324 0.639 3.057
1.265 0.245 3.401
0.922 0.447 3.501
1.166 0.294 3.785
1.250 0.711 2.912
0.714 0.184 3.072
0.778 0.551 3.423
0.714 0.098 3.380
1.013 0.552 3.036
0.490 0.320 3.242
3.978 1.498 4.853
4.236 1.323 4.964
3.788 0.639 5.461
3.804 0.714 5.100
4.008 0.770 5.402
4.090 0.268 5.908
3.776 1.571 4.651
4.157 1.293 5.016
4.143 1.080 5.004
3.831 0.912 5.230
4.089 0.739 5.298
3.927 0.567 5.144
3.536 0.191 5.694
3.962 1.192 4.348
3.671 1.320 4.511
3.788 0.918 5.123
3.674 0.888 5.016
3.598 0.642 5.358
3.354 0.401 5.265
3.311 1.447 4.220
3.703 1.327 4.455
3.340 0.712 4.816
3.242 0.515 4.875
3.876 1.533 4.061
3.592 0.902 4.434
3.620 1.071 4.282
3.350 0.971 4.512
3.482 1.315 4.247
3.427 1.039 4.191
3.661 1.106 4.531
3.391 1.234 3.696
3.563 1.224 3.704
3.088 1.923 3.036
2.771 1.865 3.092
1.950 0.073 3.885
1.694 0.095 4.174
1.976 0.344 3.841
1.641 0.027 3.853
1.453 0.722 3.120
1.744 0.092 3.380
1.782 0.266 3.512
1.490 0.392 3.186
1.307 0.045 3.465
1.319 0.162 3.463
1.295 0.728 2.983
1.351 0.349 3.101
1.386 0.373 3.523
1.172 0.140 3.280
1.249 0.439 2.613
1.012 0.361 3.131
1.190 0.469 3.094
1.286 -0.098 3.413
0.741 0.718 2.382
1.162 0.548 2.649
0.782 0.496 3.106
0.760 -0.126 3.262
0.930 0.575 2.459
0.602 0.255 2.433
0.073 1.256 1.712
4.183 1.049 4.720
4.422 1.182 4.984
4.281 0.484 4.890
4.128 0.368 5.318
4.000 0.234 5.132
4.069 0.487 5.322
3.888 1.140 4.280
3.794 1.076 4.750
4.094 0.693 4.631
4.160 0.530 4.915
3.819 0.805 4.852
3.915 0.479 5.552
3.663 1.179 4.648
4.108 0.845 4.392
3.993 0.930 4.781
3.600 0.752 5.061
3.744 0.343 5.060
3.703 1.288 3.997
3.735 1.294 4.424
3.831 1.227 4.597
3.388 0.580 4.788
4.137 1.527 3.828
3.713 0.889 3.753
3.547 0.982 4.313
3.623 1.053 4.163
3.460 1.380 3.720
3.565 1.077 3.781
3.521 1.355 3.965
3.348 0.663 4.100
3.782 0.911 4.250
3.326 1.825 3.194
3.662 1.433 3.466
3.747 1.414 3.419
3.602 0.924 3.671
3.524 0.645 3.684
3.622 1.846 2.908
3.171 1.640 3.174
3.183 1.416 3.269
3.115 1.181 3.594
3.282 1.045 3.803
3.309 1.779 2.830
3.163 1.438 3.395
2.948 1.357 3.508
2.896 0.903 3.264
2.862 0.875 3.803
3.149 1.315 2.727
2.751 1.330 3.010
2.809 1.358 3.029
2.683 1.072 3.047
2.569 1.269 2.966
2.988 1.413 2.962
2.681 1.387 3.050
2.552 1.383 2.503
1.304 0.117 3.141
1.416 0.060 3.130
1.033 0.296 2.491
1.057 0.427 2.818
1.163 -0.057 3.138
0.956 0.448 2.169
0.906 0.549 2.295
1.126 0.324 2.477
1.208 0.098 2.807
1.084 1.004 1.648
0.901 0.727 2.194
1.016 0.811 2.014
1.081 0.580 2.627
0.851 0.092 2.468
0.845 1.206 1.738
0.503 0.876 1.746
0.583 0.438 1.932
0.811 0.355 2.175
0.513 0.480 2.293
0.555 -0.062 2.530
0.779 1.170 1.806
0.769 0.573 1.980
0.374 0.678 1.664
0.581 0.710 1.808
0.658 0.479 2.011
0.628 0.726 1.685
0.588 0.945 1.732
0.218 0.772 1.750
0.081 0.585 1.777
-0.050 0.958 1.593
0.127 0.550 1.346
0.280 0.678 1.510
0.034 0.837 0.995
4.382 0.523 4.879
3.894 1.291 4.081
4.093 0.747 4.695
3.698 0.606 4.832
3.758 1.168 3.585
3.692 0.955 4.136
3.621 0.834 3.966
3.952 0.977 4.093
3.807 1.379 3.600
4.235 1.414 3.937
4.142 1.031 3.660
3.990 0.826 4.114
3.814 1.214 3.427
4.038 1.292 3.390
3.802 1.208 3.619
3.545 1.028 4.033
3.711 0.675 3.786
3.866 1.566 3.251
3.465 1.328 3.401
3.908 1.252 3.249
3.766 1.130 3.496
3.648 0.668 3.863
3.271 0.664 4.069
3.348 1.330 2.707
3.694 1.344 3.086
3.590 0.918 3.123
3.408 1.179 3.366
3.244 0.862 3.642
3.471 0.632 3.914
3.293 1.525 2.617
3.530 1.391 2.906
3.405 1.342 2.973
3.374 0.766 3.487
2.979 1.075 3.349
3.266 1.550 2.586
3.050 1.115 2.810
3.218 1.249 3.259
2.994 0.853 3.368
3.062 0.558 3.230
3.111 1.350 2.390
3.091 1.001 2.735
3.082 1.132 2.930
2.863 1.118 3.221
2.562 1.498 2.328
2.581 1.101 2.668
1.399 0.624 2.542
1.583 0.207 2.620
1.403 0.659 1.818
1.160 0.739 2.214
0.974 0.648 2.339
0.986 0.380 2.218
1.054 0.003 2.435
1.192 1.052 1.564
0.987 0.574 1.678
0.988 0.437 1.757
1.090 0.649 2.311
1.158 0.440 2.389
0.737 0.118 2.196
1.018 0.924 1.680
0.878 0.538 1.694
0.762 0.310 1.958
0.833 0.519 2.215
0.883 -0.026 1.891
0.805 -0.134 2.531
0.832 1.096 1.191
0.450 0.812 1.777
0.712 0.333 1.471
0.524 0.277 1.898
0.452 0.283 1.894
0.284 0.649 1.143
0.440 0.666 1.706
0.419 0.260 1.834
0.664 0.502 1.683
0.313 0.230 1.713
0.515 0.806 1.114
0.212 0.753 1.370
0.181 0.404 1.619
0.024 0.221 1.695
0.145 0.771 1.038
-0.109 0.481 1.253
-0.210 0.533 1.287
3.992 1.093 3.728
4.031 1.273 3.985
3.997 1.049 3.753
3.854 0.845 4.203
4.116 1.605 3.219
3.987 1.100 3.573
4.184 1.288 3.465
4.243 0.971 3.614
4.261 1.279 3.232
4.167 1.351 3.323
3.677 1.040 3.433
4.101 1.066 3.680
3.695 0.887 3.822
3.730 0.766 3.817
3.671 1.467 2.708
4.044 1.413 3.148
3.919 1.047 3.053
3.785 1.056 3.637
3.503 0.690 3.456
3.496 0.415 3.506
3.460 1.539 2.680
3.470 1.410 2.806
3.333 1.095 2.930
3.541 0.753 3.486
3.736 0.936 3.237
3.224 0.447 3.628
3.405 1.367 2.679
3.353 1.154 2.818
3.293 0.971 3.153
3.446 0.951 3.382
3.124 0.861 3.273
3.293 0.569 3.401
3.160 1.281 2.396
3.172 1.272 2.782
3.372 0.717 2.786
3.076 0.641 3.018
3.031 0.595 3.080
3.107 0.443 3.515
3.071 1.416 2.677
3.035 1.284 2.592
2.853 0.881 2.590
2.845 0.957 3.021
3.062 0.682 3.015
2.888 1.073 2.125
3.062 0.988 2.567
2.497 0.942 2.800
1.606 1.125 1.402
1.625 0.591 1.754
1.276 0.244 1.703
1.177 0.451 2.230
1.053 0.219 2.046
1.354 0.577 1.445
1.171 0.824 1.699
1.154 0.297 1.648
1.208 0.142 2.207
0.934 -0.163 2.266
1.075 0.661 1.231
1.076 0.524 1.375
0.950 0.670 1.848
0.713 0.480 1.744
0.747 -0.063 1.850
0.578 0.440 1.180
0.742 0.711 1.241
0.759 0.411 1.350
0.486 0.333 1.792
0.430 0.013 2.000
0.749 0.555 1.146
0.510 0.251 1.077
0.279 0.223 1.216
0.628 0.235 1.345
0.671 0.720 1.000
0.213 0.359 1.168
0.290 0.212 1.263
0.451 0.355 1.497
0.015 0.585 1.044
0.428 0.426 0.846
0.178 0.416 1.418
0.247 -0.147 1.633
4.077 1.123 3.181
4.399 1.310 3.239
4.341 0.860 3.552
3.815 1.017 3.925
4.126 1.659 2.967
4.394 1.387 3.021
4.106 1.115 3.076
4.415 0.638 3.333
4.306 1.434 2.988
3.900 1.010 3.246
3.983 1.262 3.266
4.088 0.954 3.478
4.033 0.394 3.375
3.885 1.095 2.701
4.168 0.909 2.760
3.586 0.913 2.854
3.980 1.009 3.063
3.624 0.426 3.393
3.526 0.277 3.396
3.857 1.121 2.891
3.761 1.324 2.845
3.465 0.895 3.002
3.487 0.870 3.034
3.810 0.396 3.259
3.380 0.161 3.469
3.407 1.121 2.334
3.413 1.193 2.571
3.285 0.910 2.955
3.685 0.513 2.766
3.610 0.763 3.217
3.209 0.115 3.389
3.268 1.052 2.252
3.065 0.930 2.688
3.491 0.724 2.511
3.113 0.470 3.030
3.321 0.535 2.818
3.130 0.547 3.358
2.900 1.094 2.138
2.939 1.169 2.677
3.071 0.619 2.363
3.028 0.587 2.691
3.248 0.513 3.088
2.723 0.841 2.214
2.978 0.898 2.588
2.861 0.406 2.579
1.361 0.681 1.294
1.442 0.756 1.361
1.615 0.174 1.965
1.551 0.038 1.784
1.233 0.035 2.080
1.615 0.789 1.279
1.125 0.537 1.260
1.355 0.374 1.646
1.290 -0.072 1.677
1.104 0.595 1.164
0.902 0.280 1.628
1.026 0.431 1.640
1.029 0.016 1.816
1.210 0.706 1.037
0.878 0.576 1.180
0.691 0.284 1.695
1.086 -0.143 1.503
0.648 0.559 0.896
0.874 0.141 1.129
0.880 0.035 1.257
0.272 0.561 1.164
0.288 0.491 1.234
0.596 0.385 1.276
0.173 0.374 0.550
0.319 -0.025 1.217
0.391 0.049 1.253
4.073 1.435 2.813
4.574 1.131 2.862
4.347 1.295 3.332
4.436 1.114 3.236
4.629 1.303 2.643
4.568 0.873 3.241
4.602 1.120 3.372
4.076 1.325 2.696
4.270 0.908 2.735
4.397 0.983 2.935
4.345 0.478 2.956
3.963 0.512 3.131
4.267 1.351 2.357
3.853 1.043 2.933
3.717 0.655 2.826
4.041 0.379 2.946
3.651 0.393 3.470
3.829 0.177 3.163
4.030 0.851 2.396
3.550 1.145 2.765
3.865 0.807 2.742
3.583 0.392 3.191
3.824 0.530 3.054
3.835 0.155 3.464
3.558 1.198 2.407
3.565 0.607 2.518
3.418 0.497 2.472
3.518 0.713 2.731
3.747 0.351 3.042
3.324 0.012 3.297
3.178 1.179 2.057
3.612 1.093 2.624
3.488 0.537 2.572
3.380 0.456 2.950
3.198 0.234 2.759
2.986 0.011 3.089
3.381 0.742 2.178
3.196 0.622 2.258
3.005 0.717 2.530
3.122 0.313 2.685
3.128 0.533 2.602
2.849 0.126 2.998
3.176 0.469 2.159
2.901 0.541 2.504
2.888 0.082 2.575
1.804 0.759 1.284
1.879 0.510 1.331
1.373 0.153 1.513
1.492 -0.067 1.839
1.406 0.532 1.332
1.591 0.294 1.448
1.439 0.249 1.620
1.182 0.443 0.860
1.190 0.041 1.181
0.973 0.281 1.625
1.228 0.255 0.751
1.044 0.072 1.240
0.961 -0.036 1.560
0.996 0.084 0.653
0.852 0.271 0.927
1.000 0.209 0.927
0.846 0.578 0.791
0.511 0.061 0.978
0.171 -0.169 0.761
4.512 1.013 2.658
4.523 1.139 3.173
4.146 0.981 3.005
4.560 0.886 2.493
4.590 1.002 2.645
4.185 0.902 2.384
4.432 0.858 3.009
4.269 0.931 2.958
4.164 0.787 3.237
4.172 0.995 2.666
4.388 0.669 2.390
4.307 0.542 3.064
4.200 0.415 2.872
4.023 0.549 3.196
3.846 0.700 2.548
3.933 0.694 2.699
3.635 0.671 2.824
3.824 0.338 2.757
3.665 0.097 3.165
3.564 1.166 2.043
3.717 0.697 2.490
3.789 0.319 2.503
3.666 0.626 2.904
3.524 0.044 2.894
3.323 -0.112 3.215
3.696 0.742 2.367
3.593 0.722 2.428
3.325 0.394 2.580
3.506 0.315 2.419
3.141 0.407 2.819
3.199 0.844 2.329
3.534 0.531 2.446
3.264 0.413 2.624
3.147 0.066 2.803
3.057 0.242 2.416
2.876 0.309 2.491
1.848 0.658 1.276
1.784 0.601 1.392
1.735 0.057 1.383
1.839 -0.118 1.500
1.761 0.536 0.827
1.461 0.185 1.274
1.653 0.283 1.587
1.606 0.429 0.924
1.546 0.338 0.884
0.896 0.295 0.629
1.138 0.352 0.826
0.898 -0.048 0.974
1.118 -0.219 1.081
4.811 0.885 2.495
4.682 0.873 2.905
1.695 5.150 6.223
1.481 4.959 6.139
1.150 4.473 6.201
1.282 5.063 5.812
1.098 4.462 6.168
0.721 4.655 6.243
0.871 4.620 5.996
0.507 4.505 5.812
0.669 4.344 6.331
0.757 4.325 6.330
0.294 4.103 6.278
0.486 3.756 6.354
-0.135 3.654 6.214
0.483 4.015 5.945
-0.085 3.610 6.335
0.277 3.699 6.228
0.265 3.360 6.110
0.287 3.594 5.817
0.078 3.214 5.969
0.127 3.188 6.310
0.424 3.101 6.388
0.007 3.310 5.692
-0.030 2.888 5.907
-0.084 2.827 6.079
0.191 2.782 6.312
0.677 2.889 6.083
0.274 2.390 6.111
0.436 3.189 5.603
0.311 2.759 5.748
0.421 2.550 6.164
0.033 2.269 6.213
-0.100 2.888 5.796
-0.104 2.723 5.936
0.340 2.419 5.973
0.201 2.385 6.073
0.554 2.471 5.708
0.362 2.562 6.198
0.198 2.302 6.248
0.216 2.113 6.510
0.403 2.978 5.549
-0.094 2.535 5.565
0.341 2.299 5.700
-0.147 2.161 5.938
0.057 1.857 6.298
1.996 3.190 6.136
1.892 3.416 5.974
0.709 1.939 6.230
0.502 1.876 6.485
0.204 2.423 5.808
0.126 1.989 5.842
0.075 1.675 6.378
0.013 2.655 5.819
0.360 2.326 5.708
0.102 1.820 5.846
0.043 1.800 6.231
0.171 1.570 6.155
0.052 2.779 5.314
-0.085 2.396 5.225
1.983 3.164 6.334
2.197 3.113 6.228
2.248 3.042 6.228
1.984 2.710 6.502
2.136 3.291 5.770
2.160 3.448 5.635
1.793 3.007 6.056
2.105 2.696 6.013
1.681 3.296 5.182
2.181 3.454 5.538
1.731 3.270 5.509
2.039 2.957 6.068
1.717 3.586 5.186
1.692 3.245 5.078
1.560 3.223 5.700
1.425 2.977 5.646
1.827 3.888 4.871
1.496 3.441 5.320
1.729 3.236 5.057
1.406 3.294 5.397
1.155 3.394 4.783
1.154 3.513 5.057
1.315 3.489 5.157
1.474 3.624 4.630
1.373 3.305 4.629
1.188 3.605 4.663
0.514 1.980 6.107
0.679 1.451 6.350
0.396 1.924 5.976
0.460 1.542 6.040
0.444 1.789 6.373
0.091 2.196 5.376
0.181 2.003 5.750
0.452 1.912 5.999
0.203 1.550 5.878
-0.103 2.379 5.069
0.229 1.973 5.712
0.051 1.671 5.480
0.262 1.530 5.830
2.570 3.039 6.405
1.990 3.141 5.898
2.220 3.008 6.096
2.218 2.952 6.099
5.634 1.489 -0.032
6.096 1.547 0.363
6.053 1.245 0.356
5.587 1.069 0.407
5.597 1.409 0.279
5.517 0.969 0.233
5.447 1.145 0.201
3.919 0.012 0.531
4.141 0.439 0.072
3.877 -0.100 0.309
3.688 0.282 -0.128
6.308 0.927 1.412
5.976 0.718 1.559
6.386 1.277 0.633
6.146 1.370 0.651
6.164 0.941 0.836
6.074 0.729 1.284
6.037 1.445 0.538
5.772 1.299 0.564
6.015 1.119 0.503
5.842 0.931 0.975
5.651 1.482 0.285
5.787 1.657 0.321
5.563 1.428 0.140
5.481 1.248 0.586
6.054 1.293 -0.059
5.898 1.092 0.273
5.969 0.834 0.347
5.681 0.856 -0.033
6.303 1.282 0.230
5.786 1.576 0.316
5.779 0.938 0.483
5.256 3.723 0.532
5.492 3.361 0.180
5.039 3.438 0.855
5.035 1.530 1.967
4.531 1.073 2.294
4.749 0.887 2.421
5.130 3.700 -0.120
5.147 3.743 0.412
5.181 3.390 0.372
5.051 3.211 0.316
4.889 3.099 0.649
4.743 2.859 0.574
4.472 1.501 1.992
4.766 1.071 2.568
5.064 3.832 0.247
5.262 3.713 0.118
4.839 3.465 0.180
4.794 3.038 0.020
5.048 3.197 0.245
4.940 3.125 0.682
4.715 2.662 0.485
4.332 1.003 2.364
5.004 3.659 0.022
4.630 3.466 0.212
4.327 3.042 0.132
4.427 2.774 0.651
4.635 2.859 0.415
4.308 2.414 0.634
4.533 3.087 0.363
4.504 2.678 0.462
4.412 2.530 0.361
4.036 2.736 0.742
4.274 2.275 0.730
4.123 2.996 -0.026
4.389 2.721 0.439
4.347 2.236 0.294
3.858 2.127 0.691
3.989 2.243 0.777
3.881 2.455 0.397
3.866 2.488 0.495
3.726 1.991 0.605
3.819 2.036 0.691
3.527 2.056 0.117
3.469 2.102 0.663
3.492 1.775 0.549
3.350 2.072 0.774
3.601 1.987 0.370
3.222 1.502 0.557
3.475 1.617 0.990
2.955 1.570 0.459
2.938 1.608 0.878
2.891 1.603 0.581
2.951 1.626 0.768
2.977 1.302 0.659
2.830 1.010 0.695
2.407 1.015 0.433
2.830 1.304 1.000
2.543 0.771 0.818
2.338 0.991 0.521
2.162 0.707 0.877
2.565 0.898 0.877
1.966 1.080 0.848
1.895 0.880 0.847
1.886 0.470 0.865
2.088 0.847 0.750
2.150 0.426 0.841
2.018 0.390 0.592
1.451 0.638 0.541
1.500 0.425 0.527
5.494 1.866 2.150
5.540 1.967 2.318
6.019 4.620 -0.118
5.920 4.338 0.409
5.898 3.892 0.562
5.064 1.658 2.071
5.306 1.440 2.268
5.130 1.396 2.348
5.955 4.324 -0.054
5.839 4.081 0.444
5.837 3.801 0.478
5.723 3.789 0.573
5.543 3.299 0.795
4.899 1.596 2.112
5.141 1.344 2.411
5.026 1.488 2.430
4.739 1.066 2.557
5.461 3.986 0.069
5.446 3.798 0.084
5.365 3.308 0.190
5.001 3.530 0.573
4.963 3.095 0.667
5.412 3.269 0.458
4.804 1.299 1.859
4.906 1.182 2.151
4.484 0.874 2.586
5.559 3.676 0.317
5.391 3.613 0.547
5.137 3.110 0.062
5.191 2.930 0.108
4.758 1.421 2.096
5.124 1.502 1.930
4.826 1.169 1.985
4.851 1.139 2.135
5.328 3.684 0.153
5.502 3.406 0.427
5.346 3.554 -0.222
5.322 3.016 0.166
4.399 1.000 1.761
4.844 0.813 2.343
5.316 3.096 -0.109
3.927 2.044 0.230
4.120 1.725 0.771
3.886 1.820 0.929
3.993 1.884 0.040
3.871 1.582 0.646
3.526 1.640 0.390
3.406 1.502 0.792
3.575 2.172 0.299
3.297 1.786 0.299
3.635 1.626 0.344
3.344 1.654 0.699
3.642 1.031 0.539
3.294 1.177 0.910
3.543 1.523 0.229
3.465 1.376 0.630
3.379 1.168 0.389
3.233 1.123 0.463
3.128 0.852 1.115
3.150 0.614 0.849
3.289 1.458 0.270
2.817 1.446 0.367
3.190 1.037 0.326
2.956 1.094 0.637
2.721 1.005 0.994
2.621 0.837 1.290
3.121 1.240 0.193
2.800 1.073 0.473
2.679 1.275 0.390
2.574 1.111 0.366
2.569 0.603 1.048
2.597 0.384 0.784
2.529 1.033 0.409
2.793 1.317 0.603
2.311 1.030 0.556
2.556 0.539 0.532
2.534 0.567 0.672
2.394 0.529 0.847
2.144 1.273 0.224
2.448 1.111 0.476
2.172 0.823 0.395
2.121 0.435 0.520
2.153 0.353 0.644
2.016 0.728 0.329
2.009 0.224 0.696
1.819 0.151 0.675
5.886 2.201 1.551
5.868 1.937 1.853
5.456 1.860 2.203
5.404 1.732 2.390
5.374 1.722 2.057
5.640 1.398 2.366
6.171 4.065 -0.232
5.890 4.006 0.000
6.275 3.691 0.365
5.954 3.705 0.455
5.388 1.954 1.935
5.520 1.739 1.798
5.429 1.589 2.305
5.119 1.530 2.051
5.381 1.414 2.551
6.032 3.682 -0.156
5.565 3.626 0.379
5.937 3.518 0.465
5.431 3.480 0.137
5.291 1.826 1.871
4.937 1.431 2.028
5.068 1.344 2.309
5.268 1.025 2.361
4.794 0.782 2.479
5.480 3.486 0.077
5.709 3.235 0.474
5.320 3.445 0.193
5.274 3.170 0.279
4.752 1.755 1.914
5.014 1.486 1.884
4.891 1.227 2.357
5.062 0.957 2.004
5.587 3.611 -0.219
5.129 3.181 -0.075
5.286 3.379 -0.225
5.303 1.409 1.274
5.334 1.360 1.487
5.258 0.917 2.102
4.845 1.163 1.846
5.667 3.462 0.013
3.908 1.789 0.313
3.794 1.375 0.245
3.709 1.502 0.859
3.767 0.904 0.998
3.443 1.118 0.729
3.628 1.759 0.046
3.390 1.410 0.636
3.548 1.233 0.490
3.298 1.031 0.473
3.420 1.211 0.674
3.461 0.969 0.995
3.335 1.634 0.105
3.144 1.221 0.078
3.387 1.479 0.279
3.247 0.958 0.750
3.389 0.947 0.541
3.310 0.767 0.856
3.265 0.426 1.188
3.357 1.339 0.351
3.309 1.096 0.095
3.187 0.837 0.177
2.919 1.104 0.837
3.230 0.497 1.012
2.876 0.566 1.092
3.015 1.453 -0.126
3.080 1.306 0.410
2.688 1.098 0.361
2.845 0.883 0.702
3.037 0.365 0.472
3.011 0.227 0.959
2.727 1.056 0.166
2.609 1.107 0.442
2.409 0.506 0.617
2.563 0.333 0.607
2.570 0.161 0.683
2.592 0.077 0.859
2.681 0.670 0.323
2.602 0.635 0.431
2.231 0.519 0.327
2.458 0.314 0.618
2.391 0.101 0.649
1.961 0.637 0.302
2.237 0.293 0.375
