0.734 4.384 4.636
3.504 4.205 6.284
3.248 4.077 6.106
0.676 4.404 4.737
0.397 4.414 4.668
0.109 4.509 4.469
3.127 4.493 6.181
3.101 4.343 5.971
2.821 4.408 5.782
0.654 4.907 4.890
0.358 4.951 4.855
0.036 4.935 4.600
3.208 4.589 6.144
3.086 4.743 6.237
2.690 4.633 6.002
2.286 4.713 5.735
2.033 4.605 5.655
0.386 0.099 2.822
0.056 0.143 2.860
1.943 0.248 3.660
1.756 0.228 3.690
0.372 0.384 2.889
0.180 0.461 2.755
2.992 0.352 4.274
2.701 0.110 4.146
2.413 0.262 3.976
2.097 0.328 4.008
1.956 0.319 3.819
2.002 0.512 3.989
1.540 0.579 3.843
4.213 0.569 5.199
2.559 0.463 4.380
2.306 0.644 4.248
2.298 0.649 4.043
1.986 0.625 4.014
2.113 0.665 3.625
0.097 0.752 2.814
3.153 0.725 4.286
2.799 0.688 4.022
2.641 0.661 3.886
2.173 0.673 3.745
2.036 0.525 3.642
2.272 0.862 3.974
0.377 2.162 3.507
0.178 2.079 3.258
3.449 2.063 4.996
3.271 2.131 4.841
2.865 2.076 4.733
2.539 1.988 4.616
2.490 2.018 4.396
0.347 2.400 3.413
0.175 2.544 3.427
3.423 2.385 5.153
3.007 2.189 4.991
2.793 2.367 4.766
2.651 2.405 4.523
2.221 2.245 4.571
2.138 2.468 4.325
1.797 2.536 4.227
0.578 2.681 3.483
0.054 2.618 3.563
3.412 2.502 5.006
3.017 2.632 5.034
2.879 2.708 4.986
2.443 2.464 4.663
2.218 2.741 4.540
2.140 2.687 4.505
1.867 2.582 4.264
1.856 3.035 4.256
0.424 2.857 3.691
0.169 2.875 3.714
3.313 2.837 5.237
3.134 2.917 5.078
2.667 2.919 4.822
2.580 2.974 4.803
2.356 2.876 4.617
2.006 2.930 4.541
1.850 2.939 4.495
1.706 3.322 4.353
1.487 3.078 4.432
0.249 3.196 3.886
0.239 3.242 3.551
3.114 3.163 5.063
2.633 3.072 5.040
2.431 3.072 4.952
2.164 3.285 4.779
1.950 3.188 4.591
1.781 3.173 4.507
1.733 3.479 4.607
1.530 3.410 4.585
-0.055 3.428 3.879
2.843 3.483 4.992
2.551 3.320 4.882
2.228 3.582 4.891
1.996 3.402 4.597
1.760 3.479 4.489
1.544 3.794 4.742
2.372 3.734 5.102
2.090 3.665 5.027
1.808 3.831 4.839
1.510 3.628 4.644
0.152 4.811 4.349
2.696 4.824 5.839
2.609 4.750 5.509
2.175 4.967 5.513
2.194 0.022 3.345
0.900 0.137 2.660
0.512 0.189 2.516
0.293 0.300 2.603
3.504 -0.078 3.994
3.138 0.009 3.995
2.758 -0.053 3.931
2.767 0.127 3.586
2.335 0.207 3.499
2.084 0.106 3.379
2.175 0.327 3.438
1.727 0.304 3.376
0.499 0.502 2.679
0.168 0.529 2.665
3.477 0.251 4.135
3.204 0.381 4.082
2.749 0.309 3.822
2.513 0.260 3.806
2.441 0.303 3.803
2.070 0.288 3.427
1.994 0.643 3.567
0.287 0.722 2.762
3.063 0.516 4.215
2.779 0.708 3.910
2.426 0.717 3.902
2.160 0.554 3.728
1.951 0.518 3.613
0.524 0.912 2.635
0.428 0.825 2.560
0.051 0.805 2.389
3.490 0.766 4.189
3.271 0.674 3.813
3.089 0.644 3.715
2.582 0.677 3.550
2.387 0.784 3.478
0.408 2.228 2.952
0.169 2.317 2.859
2.923 2.201 4.337
2.801 2.247 4.168
2.398 2.072 4.217
2.120 2.030 3.872
1.968 2.342 4.068
0.471 2.454 3.205
0.376 2.573 3.008
0.159 2.582 2.996
3.404 2.416 4.671
3.083 2.337 4.406
2.735 2.289 4.438
2.439 2.338 4.288
2.329 2.411 4.234
1.897 2.434 3.890
1.823 2.837 4.050
0.658 2.795 3.512
0.443 2.667 3.358
0.150 2.720 3.101
3.556 2.570 4.946
3.099 2.608 4.818
2.961 2.578 4.660
2.678 2.565 4.466
2.308 2.824 4.435
2.141 2.690 4.225
1.839 2.814 3.958
1.905 2.992 4.075
0.518 3.014 3.597
0.283 3.096 3.401
0.026 2.975 3.109
3.338 2.838 5.066
3.102 3.043 4.783
2.960 2.917 4.755
2.541 2.849 4.418
2.341 3.118 4.359
2.005 3.032 4.256
1.914 3.109 4.073
1.760 3.209 4.225
0.625 3.371 3.640
0.124 3.415 3.400
3.353 3.324 5.087
3.272 3.246 4.867
3.021 3.285 4.730
2.765 3.315 4.540
2.367 3.312 4.392
2.128 3.162 4.415
1.726 3.426 4.292
1.698 3.471 4.369
0.464 3.719 3.613
0.219 3.583 3.426
3.049 3.437 4.918
2.923 3.589 4.788
2.607 3.629 4.699
2.323 3.578 4.691
2.175 3.621 4.562
1.799 3.524 4.245
0.137 3.825 3.619
2.885 3.909 4.927
2.540 3.743 4.849
2.313 3.933 4.828
1.905 3.748 4.523
2.385 4.831 5.204
2.227 5.080 4.969
0.185 -0.087 2.041
2.321 0.240 3.226
0.968 0.377 2.647
0.509 0.196 2.509
0.299 0.323 2.276
0.056 0.249 2.108
3.822 0.014 3.913
3.508 0.171 3.766
3.177 0.091 3.855
3.131 0.207 3.720
2.685 0.118 3.526
2.568 0.266 3.475
2.340 0.110 3.152
2.077 0.496 3.358
0.802 0.584 2.622
0.668 0.662 2.451
0.447 0.498 2.349
0.161 0.696 2.314
3.477 0.284 4.017
3.251 0.542 3.708
2.974 0.428 3.821
2.760 0.424 3.443
2.444 0.322 3.366
2.255 0.515 3.378
0.467 0.945 2.553
0.216 0.938 2.423
-0.003 0.904 2.257
3.595 0.596 3.975
3.178 0.758 3.870
2.924 0.601 3.679
2.583 0.860 3.535
2.517 0.704 3.512
0.961 1.004 2.597
0.702 0.815 2.200
0.457 1.069 2.259
0.104 0.929 2.153
4.014 0.653 3.854
3.742 0.739 3.865
3.357 0.821 3.689
3.109 0.773 3.664
2.895 0.837 3.318
0.805 1.175 2.456
0.534 1.169 2.522
0.288 1.100 2.243
3.522 1.030 3.835
3.413 0.969 3.839
2.040 2.254 3.534
1.916 2.312 3.600
0.333 2.337 2.704
2.796 2.255 4.062
2.530 2.105 3.996
2.243 2.347 3.643
2.020 2.215 3.501
2.108 2.533 3.737
1.870 2.527 3.603
0.490 2.626 2.883
0.175 2.700 2.709
3.107 2.605 4.285
2.972 2.458 4.201
2.692 2.542 3.873
2.428 2.532 3.920
2.080 2.518 3.659
2.170 2.780 3.702
1.781 2.779 3.777
0.750 2.945 3.102
0.574 2.776 2.956
0.268 2.815 2.885
3.302 2.693 4.345
3.195 2.903 4.343
2.863 2.926 4.132
2.480 2.720 3.956
2.339 2.922 4.057
2.065 2.716 3.699
1.954 3.007 3.797
0.721 3.227 3.315
0.514 3.243 3.208
0.155 3.195 2.963
3.610 3.111 4.746
3.442 3.180 4.468
2.970 2.964 4.463
2.760 3.183 4.392
2.653 3.075 4.200
2.155 3.045 4.091
2.030 3.101 3.959
1.868 3.486 4.017
0.559 3.471 3.324
0.238 3.390 3.092
0.045 3.462 3.143
3.545 3.221 4.929
3.354 3.401 4.751
3.132 3.361 4.525
2.675 3.279 4.371
2.489 3.381 4.366
2.347 3.497 4.126
2.071 3.506 4.024
0.547 3.592 3.425
0.436 3.748 3.188
0.054 3.870 3.167
3.481 3.705 4.807
3.126 3.644 4.826
2.899 3.637 4.559
2.812 3.734 4.463
2.367 3.744 4.375
2.074 3.577 4.127
0.466 4.124 3.532
0.279 3.953 3.331
-0.006 4.049 3.168
3.427 3.808 4.926
3.261 3.904 4.796
3.023 3.804 4.607
2.799 3.892 4.522
2.383 3.973 4.365
1.766 4.958 4.569
2.222 5.000 4.718
1.906 5.022 4.811
1.862 5.125 4.575
2.455 -0.103 2.777
0.967 0.137 2.170
0.850 0.002 1.937
0.643 0.147 1.775
0.380 0.061 1.754
-0.072 0.225 1.581
2.391 -0.028 2.900
2.386 0.305 2.955
0.932 0.380 2.243
0.797 0.276 2.256
0.394 0.415 1.905
0.328 0.320 1.969
4.085 0.271 3.803
3.759 0.286 3.503
3.449 0.108 3.437
3.085 0.344 3.495
2.756 0.361 3.265
2.489 0.200 3.063
2.416 0.227 2.838
0.950 0.521 2.335
0.784 0.718 2.121
0.545 0.570 2.082
0.182 0.584 1.851
3.808 0.560 3.927
3.643 0.444 3.714
3.287 0.523 3.503
3.259 0.645 3.370
2.915 0.423 3.339
2.517 0.591 3.189
0.859 0.871 2.592
0.648 0.892 2.426
0.335 0.813 2.255
0.203 1.063 2.104
3.808 0.743 4.075
3.627 0.674 3.869
3.397 0.877 3.749
3.218 0.904 3.411
2.692 0.892 3.421
1.276 1.112 2.327
1.131 1.001 2.169
0.714 0.898 2.102
0.689 1.110 1.804
0.215 1.005 1.847
4.425 0.800 3.835
3.899 0.785 3.819
3.866 0.849 3.606
3.528 0.885 3.329
3.134 0.977 3.362
1.675 1.345 2.590
1.284 1.226 2.351
1.119 1.426 2.190
0.705 1.297 2.207
0.653 1.325 2.020
4.644 1.188 4.215
4.122 1.160 3.850
4.040 1.040 3.771
3.653 1.259 3.600
3.549 1.274 3.613
1.705 1.571 2.901
1.618 1.620 2.771
1.381 1.428 2.641
0.978 1.483 2.464
4.873 1.297 4.214
4.441 1.332 4.104
4.252 1.542 4.038
3.828 1.332 3.907
3.797 1.447 3.685
1.915 1.678 3.169
1.840 1.933 2.798
1.396 1.830 2.632
1.216 1.799 2.757
4.797 1.800 4.453
4.362 1.744 4.166
4.186 1.665 4.250
2.195 2.144 3.334
1.908 2.204 3.194
1.617 2.033 3.052
1.554 2.098 2.836
4.777 1.976 4.613
4.501 1.895 4.417
2.634 2.017 3.478
2.362 1.978 3.284
2.283 2.243 3.401
2.056 2.462 3.366
1.670 2.306 2.981
0.104 2.522 2.320
4.525 2.120 4.671
2.713 2.222 3.754
2.617 2.280 3.420
2.129 2.335 3.503
2.139 2.725 3.361
1.991 2.666 3.322
0.355 2.617 2.444
-0.014 2.741 2.276
4.622 2.503 4.559
3.392 2.711 4.130
3.069 2.671 3.862
2.787 2.507 3.765
2.566 2.628 3.625
2.255 2.685 3.400
2.267 2.900 3.636
1.989 2.954 3.548
0.681 3.033 2.872
0.214 2.941 2.633
-0.023 3.106 2.353
3.339 2.920 4.090
3.037 2.953 3.939
2.833 2.803 3.919
2.557 2.878 3.825
2.290 2.828 3.468
2.135 3.202 3.764
0.933 3.386 2.906
0.431 3.236 2.892
0.240 3.153 2.609
-0.111 3.337 2.442
3.523 3.054 4.409
3.128 3.073 4.058
2.906 3.190 3.966
2.643 3.296 4.008
2.303 3.273 3.827
2.100 3.280 3.715
0.858 3.632 2.959
0.433 3.660 2.900
0.122 3.664 2.667
3.741 3.439 4.531
3.289 3.404 4.485
3.030 3.577 4.211
2.932 3.583 4.154
2.663 3.521 4.144
2.249 3.416 3.829
0.936 3.872 3.272
0.849 3.865 3.030
0.440 3.912 3.135
0.165 3.845 2.797
4.043 3.828 4.795
3.611 3.571 4.576
3.354 3.709 4.648
3.029 3.737 4.480
2.720 3.635 4.165
2.698 3.825 4.171
1.172 3.995 3.543
0.962 4.109 3.461
0.564 4.102 3.141
0.545 4.043 3.125
0.165 4.002 2.925
3.824 4.052 4.946
3.586 3.845 4.846
3.285 4.016 4.754
2.968 4.063 4.394
2.798 4.066 4.256
1.456 4.468 3.812
1.162 4.311 3.693
0.847 4.422 3.350
0.777 4.474 3.421
0.488 4.399 3.237
4.068 4.262 5.215
3.841 4.319 5.020
3.467 4.202 4.944
3.258 4.263 4.700
1.635 4.566 3.848
1.503 4.527 3.811
1.149 4.782 3.585
0.979 4.586 3.638
4.295 4.490 5.469
3.978 4.657 5.343
3.809 4.501 5.216
3.507 4.472 4.945
1.937 4.812 4.186
1.622 4.956 4.180
1.275 4.796 4.041
1.049 4.834 3.776
4.297 4.678 5.336
3.932 4.840 5.253
3.877 4.839 5.294
1.815 4.797 4.258
1.780 5.067 4.396
1.609 5.051 4.096
1.347 5.313 4.094
4.317 5.080 5.487
3.939 5.167 5.391
2.466 5.228 4.613
2.143 5.048 4.433
1.967 5.225 4.437
2.643 0.087 2.539
0.986 0.073 1.689
0.656 0.171 1.639
0.284 0.210 1.545
0.252 0.247 1.382
3.815 0.111 3.228
3.546 0.088 3.203
3.338 0.055 2.920
3.060 0.219 2.935
2.847 0.080 2.779
2.603 0.107 2.592
1.204 0.492 2.004
0.859 0.538 2.023
0.674 0.474 1.840
0.497 0.541 1.517
0.119 0.509 1.448
4.038 0.440 3.509
3.899 0.293 3.383
3.442 0.369 3.308
3.347 0.437 3.087
3.057 0.491 2.838
2.746 0.518 2.943
1.480 0.707 2.174
1.060 0.596 2.092
0.891 0.612 1.902
0.603 0.616 1.738
0.419 0.647 1.785
0.086 0.665 1.671
3.983 0.621 3.599
3.669 0.738 3.477
3.632 0.558 3.394
3.308 0.630 3.254
3.025 0.585 3.045
2.728 0.781 2.959
1.433 1.039 2.294
1.024 0.893 2.229
0.702 1.160 2.051
0.522 1.058 1.976
0.197 1.146 1.789
4.231 0.748 3.949
4.028 0.755 3.748
3.722 0.785 3.696
3.497 0.923 3.422
3.224 0.920 3.430
1.889 1.047 2.106
1.507 1.009 2.223
1.279 1.154 1.939
0.833 1.058 1.934
0.700 1.061 1.784
4.693 1.056 3.703
4.522 1.034 3.606
4.031 0.852 3.539
4.003 0.927 3.285
3.665 1.009 3.289
2.239 1.458 2.524
1.951 1.433 2.470
1.628 1.280 2.381
1.556 1.364 2.280
1.098 1.527 2.112
0.957 1.459 1.897
4.936 1.112 3.939
4.658 1.321 3.732
4.395 1.302 3.687
4.062 1.229 3.638
3.914 1.354 3.446
3.638 1.267 3.404
2.222 1.686 2.826
1.947 1.627 2.667
1.666 1.623 2.402
1.383 1.598 2.312
1.127 1.793 2.048
0.938 1.652 1.917
4.900 1.539 4.056
4.519 1.613 4.010
4.302 1.636 3.754
3.990 1.681 3.639
3.853 1.460 3.483
2.554 2.022 2.991
2.249 1.980 2.924
1.951 2.051 2.520
1.698 1.876 2.475
1.307 1.987 2.407
1.237 1.823 2.325
4.936 1.845 4.149
4.468 1.744 4.084
4.293 1.703 3.867
4.145 1.969 3.715
2.424 1.964 2.877
2.500 2.096 3.038
2.110 2.302 2.983
1.870 2.331 2.700
1.680 2.178 2.669
1.425 2.142 2.613
4.864 2.218 4.272
4.561 1.991 4.105
4.164 2.121 3.850
4.009 2.003 3.969
2.774 2.222 3.092
2.341 2.083 3.084
2.345 2.475 3.128
2.176 2.563 2.889
1.725 2.447 2.717
1.711 2.426 2.771
4.874 2.245 4.252
4.501 2.283 4.070
2.841 2.534 3.254
2.551 2.557 3.372
2.457 2.539 3.056
2.344 2.745 3.307
2.113 2.870 3.024
1.872 2.685 3.021
0.179 2.857 1.983
4.764 2.543 4.526
2.834 2.636 3.453
2.555 2.604 3.437
2.299 2.758 3.094
2.392 3.064 3.408
0.442 3.041 2.245
0.133 2.979 2.333
3.068 3.120 3.654
2.869 2.963 3.448
2.635 3.041 3.467
2.270 3.127 3.390
0.665 3.513 2.539
0.541 3.486 2.524
0.121 3.261 2.254
3.360 3.136 3.998
3.182 3.222 3.773
2.799 3.304 3.612
2.422 3.167 3.539
1.027 3.741 2.887
0.496 3.731 2.737
0.441 3.551 2.529
0.149 3.815 2.343
3.703 3.652 4.296
3.655 3.563 4.095
3.410 3.570 3.965
2.972 3.576 3.840
2.783 3.632 3.859
1.408 3.976 3.101
1.252 3.900 3.038
0.778 4.007 2.892
0.656 3.813 2.699
0.407 3.942 2.675
3.959 3.771 4.448
3.764 3.844 4.302
3.408 3.692 4.313
3.286 3.767 4.258
3.014 3.878 3.970
1.640 4.181 3.473
1.391 4.130 3.141
1.114 4.113 3.095
0.938 4.351 2.929
0.679 4.324 2.771
0.282 4.200 2.711
4.692 3.977 4.824
4.222 3.977 4.726
4.048 4.206 4.652
3.774 4.072 4.640
3.575 4.140 4.238
3.141 4.169 4.292
1.859 4.504 3.533
1.530 4.596 3.533
1.242 4.444 3.385
0.976 4.512 3.192
0.904 4.503 2.988
0.469 4.364 2.887
4.511 4.315 5.087
4.212 4.333 4.819
4.106 4.417 4.654
3.720 4.390 4.699
3.395 4.308 4.366
2.074 4.747 4.005
1.809 4.643 3.869
1.443 4.626 3.535
1.183 4.718 3.511
1.029 4.723 3.206
0.865 4.731 3.226
4.557 4.697 5.164
4.273 4.513 4.927
3.928 4.575 4.700
3.788 4.767 4.697
3.406 4.690 4.430
1.976 4.736 3.749
2.104 5.065 4.000
1.917 4.976 3.890
1.644 5.025 3.727
1.181 4.928 3.570
1.045 5.114 3.454
4.303 4.840 5.247
4.066 4.957 5.089
3.795 4.878 4.952
3.628 4.831 4.906
2.180 4.929 4.176
2.175 5.034 4.028
2.082 5.165 4.058
1.639 5.340 3.989
1.426 5.216 3.725
1.122 5.217 3.555
1.069 5.407 3.513
4.479 5.240 5.359
4.136 5.328 5.233
3.766 5.132 5.058
2.162 5.215 4.218
2.123 5.363 3.923
0.574 0.095 1.109
0.264 -0.014 1.057
0.151 0.075 0.882
0.794 0.230 1.420
0.445 0.329 1.341
0.310 0.241 1.204
0.079 0.333 1.056
3.799 0.074 2.877
3.401 0.131 2.840
3.286 0.119 2.717
2.995 0.259 2.592
1.343 0.443 1.842
0.972 0.495 1.575
0.695 0.688 1.367
0.443 0.587 1.250
0.366 0.574 1.168
3.928 0.378 3.163
3.664 0.315 3.038
3.534 0.437 2.911
3.194 0.532 2.617
1.496 0.765 1.907
1.194 0.795 1.823
1.091 0.740 1.757
0.822 0.890 1.469
0.401 0.854 1.382
4.511 0.792 3.411
4.303 0.665 3.471
3.803 0.838 3.332
3.784 0.603 2.983
3.440 0.830 2.998
1.666 0.961 2.137
1.416 1.019 1.962
1.343 1.085 2.019
1.017 1.261 1.864
0.708 1.072 1.626
4.770 0.898 3.658
4.360 1.011 3.691
4.208 0.858 3.527
4.006 1.067 3.422
3.649 0.921 3.299
2.088 1.149 2.162
2.005 1.299 1.969
1.618 1.285 1.927
1.284 1.145 1.708
1.195 1.142 1.462
5.007 1.029 3.512
4.829 0.929 3.367
4.443 0.983 3.216
4.251 1.068 3.264
4.048 1.166 3.047
2.487 1.415 2.301
2.013 1.410 2.245
1.874 1.354 1.973
1.605 1.387 1.847
1.431 1.538 1.744
0.934 1.611 1.612
5.146 1.313 3.593
4.869 1.281 3.622
4.625 1.294 3.501
4.207 1.390 3.271
3.920 1.336 3.172
2.718 1.854 2.661
2.262 1.726 2.331
1.949 1.780 2.204
1.934 1.666 2.061
1.640 1.632 1.920
1.148 1.701 1.796
0.882 1.909 1.725
5.001 1.484 3.717
4.695 1.670 3.678
4.390 1.589 3.470
4.230 1.541 3.455
4.048 1.664 3.253
2.715 1.622 2.621
2.507 1.906 2.798
2.291 1.991 2.498
2.024 2.126 2.421
1.812 2.170 2.226
1.583 2.185 2.016
1.322 1.937 1.925
5.090 1.840 3.778
4.727 1.923 3.884
4.348 1.880 3.505
4.241 1.876 3.429
3.922 2.016 3.495
2.604 2.079 2.781
2.603 2.207 2.817
2.308 2.316 2.597
1.876 2.400 2.431
1.732 2.409 2.377
1.373 2.288 2.233
1.253 2.432 2.123
4.993 2.303 3.898
4.721 2.219 3.723
4.330 2.204 3.697
4.165 2.308 3.556
2.932 2.355 2.984
2.440 2.387 2.820
2.505 2.569 2.822
2.122 2.466 2.591
1.864 2.687 2.586
1.677 2.530 2.429
1.540 2.618 2.245
4.950 2.528 4.131
4.570 2.369 4.082
4.379 2.532 3.898
2.738 2.513 3.065
2.547 2.534 2.994
2.396 2.895 2.906
2.160 2.798 2.784
2.052 2.851 2.704
4.794 2.766 4.054
4.546 2.809 3.912
2.580 2.827 2.985
1.726 3.987 3.141
1.558 3.917 2.922
1.320 4.076 2.799
0.856 3.910 2.647
0.730 4.109 2.398
4.328 3.773 4.514
4.223 3.906 4.353
4.049 3.868 4.234
3.604 4.054 4.065
1.970 4.386 3.428
1.719 4.188 3.193
1.443 4.194 3.043
1.149 4.201 2.877
0.843 4.214 2.700
0.617 4.402 2.482
4.620 4.078 4.646
4.486 4.297 4.504
4.190 4.274 4.430
3.756 4.193 4.373
3.655 4.164 4.063
2.176 4.557 3.636
2.065 4.687 3.456
1.773 4.609 3.367
1.589 4.539 3.005
1.193 4.671 3.110
0.971 4.656 2.787
0.682 4.475 2.592
4.540 4.438 4.887
4.344 4.461 4.503
3.993 4.376 4.560
3.903 4.493 4.247
3.631 4.385 4.301
2.120 4.514 3.390
2.126 4.708 3.602
1.930 4.854 3.441
1.635 4.919 3.216
1.424 4.727 3.195
1.267 4.822 3.113
0.865 4.781 3.036
0.663 4.851 2.925
4.557 4.680 4.903
4.228 4.687 4.740
3.971 4.716 4.643
3.674 4.810 4.318
3.570 4.842 4.341
2.238 4.721 3.698
2.245 5.186 3.779
2.018 5.137 3.514
1.722 5.167 3.507
1.503 5.227 3.287
1.189 5.141 3.163
0.960 5.016 3.155
4.685 5.013 5.084
4.177 5.054 4.865
4.008 5.144 4.541
3.667 5.031 4.619
3.504 5.016 4.272
2.586 5.071 3.992
2.075 5.100 3.596
2.261 5.449 3.881
1.796 5.319 3.604
1.688 5.400 3.639
1.255 5.419 3.279
1.099 5.300 3.311
4.431 5.256 5.134
4.320 5.423 4.863
4.079 5.213 4.680
3.804 5.422 4.541
2.475 5.263 4.069
2.120 5.460 3.794
1.746 0.984 1.824
1.427 0.883 1.710
4.525 0.790 3.125
4.384 0.801 3.095
4.005 0.887 2.991
2.131 1.313 2.222
1.917 1.286 2.086
1.634 1.107 1.827
1.246 1.251 1.787
1.020 1.125 1.567
5.090 1.115 3.499
4.708 0.950 3.406
4.476 1.078 3.280
4.215 1.076 3.340
3.904 1.107 3.142
2.451 1.244 1.977
2.337 1.215 1.929
1.993 1.252 1.864
1.670 1.252 1.593
1.402 1.427 1.426
5.088 1.203 3.325
4.936 1.093 3.280
4.747 1.231 2.981
4.338 1.154 2.979
2.648 1.666 2.151
2.482 1.536 2.207
2.342 1.451 1.845
2.053 1.567 1.694
1.830 1.460 1.606
1.482 1.472 1.540
0.231 1.689 0.903
5.055 1.547 3.397
4.988 1.518 3.269
4.742 1.368 3.306
4.458 1.469 3.180
4.074 1.533 3.028
2.870 1.546 2.318
2.679 1.764 2.351
2.511 1.739 2.144
2.140 1.954 2.099
1.895 1.951 1.927
1.641 1.802 1.901
1.304 1.910 1.625
1.266 1.827 1.564
0.086 2.055 1.078
5.267 1.829 3.464
4.970 1.752 3.564
4.588 1.630 3.354
4.429 1.759 3.285
4.103 1.871 3.006
2.788 1.951 2.400
2.667 2.158 2.351
2.460 2.013 2.189
2.277 2.024 2.241
2.049 2.178 1.942
1.546 2.109 1.979
1.334 2.052 1.639
1.121 2.211 1.685
0.139 2.305 1.164
5.223 1.901 3.712
4.739 1.961 3.579
4.712 2.151 3.335
4.178 2.169 3.188
4.166 1.971 3.115
2.608 2.239 2.381
2.566 2.419 2.646
2.471 2.399 2.279
2.081 2.494 2.148
1.931 2.515 2.179
1.695 2.423 1.977
1.243 2.532 1.933
0.027 2.479 1.267
5.107 2.416 3.884
4.840 2.265 3.545
4.621 2.342 3.379
4.211 2.375 3.248
4.119 2.454 3.321
2.646 2.430 2.596
2.691 2.768 2.558
2.368 2.627 2.495
2.184 2.758 2.411
1.723 2.810 2.110
1.698 2.604 1.938
1.227 2.685 1.945
4.940 2.640 3.818
4.708 2.626 3.803
4.516 2.693 3.632
4.209 2.500 3.559
2.645 2.751 2.720
2.168 2.836 2.492
1.891 2.869 2.206
5.136 2.870 3.987
4.709 2.777 3.707
4.508 2.840 3.638
2.178 4.199 2.865
1.995 4.092 2.824
1.547 4.100 2.629
1.272 4.001 2.428
4.852 4.004 4.200
4.693 4.116 4.165
4.262 3.864 3.917
4.065 3.982 3.989
2.426 4.247 3.277
2.175 4.397 3.084
1.942 4.505 2.946
1.725 4.474 2.705
1.454 4.419 2.593
1.026 4.553 2.536
4.811 4.267 4.449
4.448 4.305 4.334
4.156 4.249 4.065
3.977 4.176 3.920
3.842 4.264 3.886
2.409 4.421 3.231
2.275 4.507 3.141
1.983 4.599 3.081
1.721 4.798 3.002
1.680 4.596 2.758
1.313 4.679 2.709
1.133 4.645 2.733
0.832 4.572 2.497
4.690 4.568 4.392
4.616 4.640 4.397
4.313 4.428 4.172
3.909 4.613 4.223
3.700 4.679 4.060
2.419 4.597 3.230
2.401 4.936 3.345
2.064 5.067 3.255
1.767 4.849 2.982
1.689 4.988 2.978
1.409 5.064 2.846
1.131 5.047 2.591
0.834 5.117 2.553
4.665 4.799 4.515
4.508 4.832 4.362
4.348 4.792 4.297
3.915 4.724 4.189
3.558 4.869 4.197
2.404 5.056 3.267
2.325 5.314 3.555
2.129 5.163 3.470
1.902 5.295 3.142
1.381 5.300 3.062
1.154 5.332 3.032
1.097 5.268 2.909
0.605 5.311 2.785
4.674 5.143 4.657
4.358 4.991 4.503
4.045 5.241 4.451
4.019 5.040 4.390
3.583 5.189 4.130
2.297 5.239 3.429
2.137 5.473 3.683
2.063 5.417 3.539
1.822 5.509 3.398
1.364 5.653 3.250
1.302 5.537 3.063
0.918 5.421 2.762
4.675 5.378 4.735
4.497 5.529 4.649
4.252 5.423 4.390
3.948 5.342 4.396
3.648 5.395 4.203
2.323 5.436 3.639
2.427 1.393 2.029
2.160 1.401 1.875
1.961 1.362 1.805
1.808 1.256 1.605
1.602 1.348 1.377
5.269 1.274 3.292
5.056 1.280 3.238
4.743 1.043 2.972
4.473 1.244 3.051
2.078 0.063 6.239
0.906 1.005 6.102
0.462 0.960 5.911
1.032 0.833 6.124
0.900 1.077 6.008
0.827 1.240 6.059
0.654 1.404 5.946
1.151 1.338 6.283
0.670 1.164 6.010
0.874 1.666 6.199
0.544 1.566 6.193
0.623 1.452 6.172
0.577 1.756 6.298
0.591 0.127 5.339
0.366 0.293 5.001
0.144 0.219 4.990
2.376 0.060 6.283
2.095 0.159 6.117
0.805 0.415 5.337
0.386 0.572 5.339
0.127 0.413 5.169
2.386 0.330 6.308
1.117 0.780 5.681
0.812 0.700 5.585
0.408 0.699 5.270
0.205 0.796 5.356
0.863 0.853 5.786
0.985 1.175 5.620
0.674 1.119 5.721
0.540 1.036 5.604
0.025 1.241 5.267
1.231 0.991 5.792
1.035 1.043 5.622
0.956 1.217 5.851
0.781 1.330 5.722
0.522 1.290 5.530
1.534 1.288 6.185
1.217 1.334 6.065
0.900 1.238 5.722
0.769 1.685 6.055
0.600 1.598 5.822
1.524 1.532 6.134
1.112 1.651 5.965
0.940 1.741 6.085
0.737 1.966 5.936
1.051 1.911 6.170
0.987 2.053 6.032
0.960 2.072 6.404
0.010 3.305 6.333
6.355 3.928 2.177
5.944 5.715 2.761
6.036 5.792 2.772
6.124 6.192 3.099
5.938 6.179 2.827
6.232 5.432 2.380
6.163 5.645 2.382
6.280 6.107 2.492
6.072 6.307 2.695
5.966 1.369 3.504
5.695 1.324 3.120
5.823 1.653 3.357
5.494 1.482 3.253
5.767 1.901 3.458
5.536 1.837 3.432
5.746 1.981 3.592
5.387 2.012 3.478
5.457 2.268 3.750
5.590 4.028 4.227
5.314 3.987 4.224
5.572 4.450 4.471
5.348 4.361 4.200
5.469 4.491 4.405
5.110 4.749 4.469
5.495 4.786 4.734
5.268 4.881 4.521
5.237 5.233 4.628
5.177 5.060 4.488
5.126 5.408 4.644
5.782 0.935 3.276
5.973 1.277 3.465
5.511 1.238 3.376
6.155 1.348 3.337
6.074 1.276 3.224
5.800 1.286 2.953
5.965 1.546 3.330
5.573 1.597 3.070
5.872 1.848 3.460
5.781 1.866 3.210
5.588 2.268 3.265
5.708 2.413 3.303
6.145 3.532 4.216
6.025 3.585 3.942
6.142 3.741 4.315
6.004 3.969 4.269
5.747 3.753 3.956
5.295 3.800 4.002
5.936 4.157 4.358
5.599 4.197 4.184
5.340 4.154 3.823
5.779 4.315 4.349
5.617 4.411 4.175
5.355 4.457 4.128
5.613 4.728 4.338
5.417 4.612 4.068
5.640 4.866 4.249
5.156 5.080 4.307
5.204 5.162 4.395
6.043 0.750 3.087
5.990 0.943 3.005
5.913 1.121 2.794
6.180 1.350 3.299
5.927 1.473 3.162
5.649 1.284 2.899
6.213 1.379 2.797
5.768 1.475 2.669
6.170 1.591 2.954
5.942 1.643 2.776
6.181 1.938 3.207
5.761 2.094 2.918
6.108 3.436 3.630
6.053 3.566 3.785
5.743 3.742 3.662
6.134 4.022 3.880
5.711 4.067 3.737
5.453 4.070 3.732
5.951 4.174 3.899
5.865 4.357 3.936
5.511 4.184 3.577
5.922 4.604 3.958
5.712 4.463 3.994
5.383 4.493 3.902
5.759 4.795 3.900
5.458 4.955 3.873
5.524 5.169 4.015
6.256 0.635 2.639
6.275 0.932 2.818
6.080 0.749 2.682
6.252 1.199 2.819
5.945 1.211 2.570
6.137 1.402 2.921
5.942 1.435 2.841
6.140 1.627 2.781
6.007 1.516 2.524
6.252 1.906 2.699
5.944 1.768 2.507
6.024 3.286 3.120
5.980 3.386 3.329
6.202 3.739 3.557
5.883 3.838 3.346
5.801 3.838 3.312
6.266 3.984 3.690
5.968 4.105 3.515
5.654 4.048 3.407
6.126 4.401 3.706
5.889 4.255 3.552
5.771 4.326 3.492
6.046 4.655 3.715
5.905 4.542 3.681
5.627 4.739 3.674
6.009 0.835 2.260
6.119 0.931 2.184
6.097 1.347 2.403
6.389 1.655 2.761
5.970 1.544 2.497
6.190 3.263 3.102
6.239 3.473 3.171
5.778 3.591 2.829
6.070 3.838 3.231
5.823 4.039 3.158
6.066 4.298 3.219
5.763 4.251 3.128
6.130 4.461 3.361
5.746 4.529 3.077
6.220 4.706 3.539
5.869 4.637 3.484
6.347 0.915 1.981
6.240 1.164 2.126
6.242 1.291 2.249
6.079 3.080 2.605
5.964 3.451 2.549
6.124 3.676 2.794
6.215 3.912 2.829
6.017 3.978 2.709
6.284 4.148 2.919
5.921 4.253 2.870
6.277 4.598 3.171
6.368 5.856 3.658
6.130 5.945 3.569
6.187 3.085 2.220
6.126 3.259 2.310
6.123 3.505 2.227
6.198 3.735 2.347
6.240 4.126 2.629
5.806 5.909 3.215
6.072 6.158 3.430
5.811 6.094 3.226
6.277 3.934 2.249
6.009 5.584 2.751
5.968 5.898 2.980
6.388 6.044 3.113
5.993 6.057 3.047
5.694 1.959 1.126
5.558 1.990 1.037
5.153 2.042 0.949
4.812 1.880 0.773
4.564 2.002 0.661
5.996 2.360 1.347
5.600 2.353 1.194
5.539 2.219 1.062
5.076 2.389 0.806
5.028 2.184 0.702
3.402 2.719 0.085
3.261 2.586 -0.039
6.078 2.397 1.455
5.803 2.583 1.296
5.665 2.501 1.398
5.260 2.615 1.195
5.081 2.453 0.919
3.629 3.010 0.368
3.548 2.806 0.241
3.342 2.974 0.147
2.873 3.032 0.135
6.104 2.712 1.722
5.911 2.874 1.537
5.538 2.926 1.523
5.316 2.910 1.211
3.646 3.028 0.488
3.862 3.126 0.562
3.599 3.179 0.332
3.145 3.082 0.136
2.801 3.331 0.130
6.180 3.134 1.753
5.950 2.966 1.641
5.486 3.196 1.542
4.107 3.209 0.720
3.738 3.294 0.663
3.622 3.566 0.503
3.390 3.388 0.521
3.130 3.384 0.332
6.128 3.479 1.889
5.912 3.407 1.628
4.158 3.434 0.958
3.951 3.595 0.644
3.821 3.470 0.685
3.603 3.793 0.646
3.483 3.833 0.485
5.957 3.541 1.868
4.495 3.857 1.072
4.218 3.673 0.871
3.853 3.732 0.851
3.701 3.677 0.844
3.569 3.964 0.813
4.695 4.053 1.475
4.288 4.086 1.337
4.222 4.059 1.095
3.936 4.006 0.874
3.590 4.031 0.756
2.074 4.432 0.156
4.891 4.315 1.592
4.602 4.131 1.383
4.408 4.419 1.222
4.166 4.347 1.104
3.942 4.379 1.041
2.210 4.749 0.299
2.076 4.561 0.138
1.788 4.807 0.116
5.034 4.581 1.838
4.863 4.471 1.693
4.514 4.649 1.589
4.379 4.549 1.373
4.134 4.690 1.244
2.500 4.852 0.600
2.128 4.895 0.514
1.809 5.077 0.164
1.703 5.022 0.260
1.489 5.030 -0.038
5.470 4.744 2.077
5.244 4.761 2.022
4.859 4.832 1.647
4.480 4.892 1.514
4.385 4.753 1.598
2.652 5.310 0.895
2.288 5.204 0.693
2.226 5.160 0.634
1.811 5.223 0.333
1.475 5.335 0.299
5.519 5.140 2.306
5.465 5.096 2.184
5.172 5.130 2.015
4.716 4.981 1.984
4.551 5.231 1.696
2.829 5.534 1.114
2.651 5.604 0.816
2.304 5.375 0.778
2.005 5.622 0.720
1.788 5.577 0.488
5.959 5.453 2.385
5.693 5.451 2.271
5.312 5.453 2.207
4.973 5.474 2.091
4.731 5.509 1.911
3.055 5.785 1.254
2.769 5.745 1.031
2.730 5.807 0.895
2.334 5.645 0.829
1.942 5.744 0.796
5.869 5.553 2.616
5.484 5.503 2.511
5.169 5.541 2.244
5.118 5.557 2.120
3.239 5.904 1.362
3.140 6.080 1.288
2.855 5.911 1.237
2.677 6.171 0.938
2.197 6.020 0.954
0.774 6.168 0.088
5.734 5.876 2.587
5.525 6.047 2.521
5.293 5.964 2.546
3.282 5.963 1.392
5.853 6.313 2.851
5.361 6.273 2.606
3.663 6.197 1.822
4.716 0.870 0.282
4.485 0.909 0.175
4.999 1.075 0.318
4.798 1.190 0.268
4.472 1.099 0.227
4.127 1.121 -0.132
5.363 1.411 0.710
5.085 1.469 0.588
4.703 1.548 0.306
4.449 1.410 0.156
4.073 1.513 -0.018
5.509 1.706 1.003
5.359 1.718 0.711
4.928 1.714 0.563
4.591 1.802 0.523
4.569 1.749 0.355
5.680 2.009 1.197
5.513 1.898 1.071
5.131 1.938 0.904
4.877 2.064 0.684
4.662 2.168 0.558
6.243 2.056 1.097
6.008 2.175 0.968
5.634 1.989 0.643
5.199 2.035 0.450
4.975 2.056 0.540
6.206 2.232 1.207
5.967 2.429 1.067
5.503 2.302 0.876
5.272 2.294 0.656
5.140 2.436 0.658
3.869 2.666 -0.034
5.937 2.665 1.314
5.734 2.529 0.922
5.565 2.606 0.792
5.187 2.593 0.760
3.997 2.745 0.002
3.871 2.904 0.142
3.646 2.952 -0.071
5.896 2.778 1.267
5.652 3.051 1.153
5.476 2.916 0.977
5.352 2.895 0.895
3.940 3.133 0.221
3.853 3.389 0.260
3.621 3.430 0.032
3.317 3.208 -0.015
6.247 3.284 1.368
5.948 3.335 1.493
5.746 3.090 1.325
5.401 3.261 1.165
4.076 3.224 0.450
3.994 3.313 0.235
3.913 3.437 0.292
3.499 3.559 0.301
3.177 3.640 0.162
6.123 3.547 1.711
6.065 3.391 1.505
5.781 3.364 1.223
4.157 3.681 0.376
3.716 3.631 0.517
3.900 3.919 0.542
3.565 3.793 0.208
3.242 3.936 0.160
6.234 3.664 1.607
4.039 3.965 0.607
3.826 3.980 0.385
3.977 4.226 0.645
2.453 4.659 0.120
5.140 4.691 1.388
4.818 4.525 1.358
2.784 5.076 0.475
2.532 4.976 0.367
2.278 5.089 0.176
1.931 5.130 -0.017
5.673 4.801 1.897
5.438 4.992 1.773
5.316 4.830 1.535
5.001 4.821 1.401
4.611 4.851 1.437
3.468 5.155 0.788
3.097 5.374 0.772
2.933 5.243 0.591
2.557 5.426 0.394
2.305 5.187 0.224
2.098 5.377 0.098
5.988 5.078 2.295
5.654 5.248 1.911
5.406 5.093 1.920
5.254 5.155 1.731
5.019 5.124 1.749
4.661 5.327 1.487
3.368 5.631 1.001
2.955 5.648 0.846
2.818 5.609 0.605
2.368 5.458 0.629
2.263 5.677 0.256
1.888 5.747 0.267
6.021 5.565 2.322
5.828 5.330 2.269
5.547 5.563 2.069
5.252 5.370 1.807
4.925 5.490 1.696
3.442 5.945 1.218
3.285 5.769 0.884
3.032 5.916 0.972
2.708 5.951 0.823
2.486 5.749 0.499
2.251 5.762 0.428
5.910 5.781 2.388
5.789 5.612 2.222
5.303 5.642 2.057
5.006 5.848 1.821
4.836 5.827 1.730
3.417 5.758 1.082
3.612 5.988 1.242
3.254 6.202 1.025
2.984 6.107 1.065
2.833 6.108 0.706
2.574 6.187 0.709
2.111 6.188 0.482
5.902 6.040 2.589
5.706 5.916 2.280
5.484 6.067 2.171
5.188 6.145 2.179
3.686 6.156 1.334
3.604 6.017 1.178
5.802 1.705 0.772
5.738 1.781 0.725
5.252 1.795 0.556
5.064 1.880 0.425
6.164 2.006 1.085
5.770 1.989 0.986
5.658 2.020 0.816
5.356 2.148 0.585
5.041 1.978 0.573
6.351 2.118 0.762
5.888 2.202 0.741
5.829 2.119 0.563
5.425 2.090 0.312
6.223 2.444 0.878
5.836 2.484 0.700
5.771 2.611 0.505
5.549 2.568 0.362
6.259 2.633 1.056
6.027 2.867 0.917
5.558 2.779 0.677
5.354 2.687 0.423
6.281 2.988 1.006
5.812 3.041 0.935
5.730 2.942 0.658
5.415 2.940 0.710
4.068 3.412 0.026
6.097 3.174 1.050
5.954 3.404 1.058
5.488 3.294 0.940
5.348 3.202 0.827
4.026 3.294 -0.094
3.934 3.616 0.259
6.134 3.466 1.311
5.922 3.489 1.096
5.468 3.529 0.858
3.925 3.760 0.206
3.758 3.863 0.111
6.095 3.996 1.431
3.129 5.126 0.382
3.106 5.232 0.211
2.777 5.171 -0.015
6.097 4.942 1.880
6.022 5.018 1.635
5.539 5.025 1.689
5.256 4.877 1.339
5.085 5.137 1.390
3.538 5.382 0.661
3.248 5.506 0.531
2.883 5.530 0.412
2.770 5.390 0.109
2.368 5.420 0.012
6.116 5.303 2.001
5.798 5.155 1.669
5.693 5.388 1.587
5.472 5.374 1.499
5.018 5.362 1.419
3.820 5.649 0.898
3.319 5.691 0.550
3.207 5.759 0.541
2.872 5.740 0.297
2.561 5.632 0.211
2.347 5.574 0.038
6.063 5.572 1.993
5.846 5.498 1.969
5.484 5.590 1.832
5.240 5.586 1.471
5.018 5.672 1.532
3.712 5.622 0.744
3.729 5.800 0.787
3.347 5.975 0.735
3.201 6.012 0.586
2.786 6.017 0.540
2.647 6.086 0.467
2.244 5.972 0.200
2.136 6.113 0.094
5.921 5.868 2.182
5.864 5.723 1.932
5.392 5.802 1.879
5.236 5.819 1.822
5.056 5.990 1.525
3.709 5.826 1.016
3.646 6.107 1.111
3.435 6.147 0.967
3.238 6.138 0.576
2.798 6.298 0.540
2.705 6.169 0.545
2.423 6.370 0.260
6.091 6.218 2.224
5.849 6.225 2.029
5.455 5.990 1.968
5.352 6.142 1.926
4.979 6.054 1.526
3.603 6.252 1.090
6.089 0.660 0.106
6.231 2.154 0.718
5.886 2.066 0.548
5.641 2.149 0.556
5.451 2.267 0.413
6.167 2.315 0.492
5.921 2.236 0.113
6.220 2.454 0.410
5.780 2.533 0.203
5.690 2.478 0.320
6.065 2.978 0.514
5.704 2.847 0.340
5.579 2.968 0.239
6.033 3.195 0.617
5.777 3.270 0.585
5.606 3.017 0.280
6.278 3.370 0.933
5.923 3.318 0.789
5.762 3.343 0.529
5.510 3.368 0.495
6.334 3.621 0.829
5.874 3.593 0.735
5.590 3.638 0.745
5.554 3.680 0.541
6.202 4.000 1.030
5.862 3.961 0.909
5.588 3.848 0.916
3.649 5.327 0.234
3.431 5.144 0.182
5.896 5.034 1.530
5.793 5.228 1.281
3.768 5.438 0.350
3.640 5.413 0.395
3.340 5.566 0.138
3.011 5.553 0.080
6.197 5.452 1.718
6.110 5.347 1.592
5.697 5.465 1.306
5.384 5.378 1.342
3.995 5.376 0.417
3.881 5.801 0.469
3.588 5.880 0.329
3.333 5.873 0.298
3.149 5.878 0.127
6.286 5.584 1.755
5.888 5.618 1.748
5.569 5.771 1.584
5.399 5.583 1.494
5.251 5.728 1.238
3.704 5.781 0.592
3.683 5.957 0.570
3.576 6.103 0.530
3.229 6.044 0.438
2.898 6.167 0.186
2.758 6.011 0.041
6.139 5.949 1.844
5.812 6.010 1.635
5.617 5.890 1.638
5.409 5.906 1.498
5.076 5.906 1.220
3.716 6.071 0.728
6.266 6.254 2.062
5.759 6.161 1.948
5.693 6.095 1.777
5.397 6.239 1.530
5.114 6.179 1.433
6.050 2.149 0.383
5.762 2.428 0.326
6.127 2.295 0.232
6.139 2.673 0.075
6.030 2.657 0.143
6.277 2.809 0.357
5.801 3.052 0.035
5.723 2.981 0.058
6.122 3.090 0.485
5.877 3.266 0.333
5.593 3.218 0.169
6.233 3.571 0.626
5.977 3.442 0.316
5.645 3.406 0.178
5.942 3.875 0.559
5.728 3.943 0.474
5.533 3.699 0.302
5.303 3.953 0.083
6.180 4.002 0.731
5.825 4.063 0.627
5.514 4.037 0.334
5.217 4.224 0.295
4.114 5.348 0.144
6.079 5.251 1.322
4.211 5.144 0.179
4.086 5.418 0.108
3.862 5.463 0.234
3.757 5.519 0.010
6.072 5.468 1.230
5.780 5.382 1.058
5.502 5.550 0.920
4.319 5.529 0.277
3.997 5.500 0.207
3.830 5.737 0.222
3.797 5.974 0.206
3.397 5.989 0.104
6.082 5.621 1.509
5.813 5.667 1.374
5.518 5.786 1.050
4.199 5.734 0.333
3.840 5.978 0.225
3.920 6.230 0.412
3.585 6.278 0.338
3.398 6.018 0.111
6.019 6.068 1.483
5.811 5.923 1.401
5.653 6.002 1.214
5.197 6.049 0.982
3.851 6.227 0.284
6.206 2.372 0.128
6.020 3.447 -0.026
6.332 3.623 0.171
6.106 3.675 0.236
6.158 3.783 0.370
5.915 4.042 0.207
5.635 3.973 0.005
6.073 4.146 0.423
6.002 4.111 0.252
5.689 4.185 0.104
5.401 4.315 0.113
5.977 4.436 0.455
5.475 4.485 0.187
5.281 4.397 0.017
5.259 4.804 0.286
5.087 4.878 0.195
4.961 5.105 0.082
4.703 5.150 0.049
4.769 5.274 0.261
6.361 5.648 1.100
4.601 5.673 0.182
4.444 5.641 0.067
4.078 5.824 -0.028
6.312 5.778 1.067
6.063 5.863 0.897
4.341 6.009 0.106
4.146 6.056 0.122
4.011 6.309 0.192
3.899 6.361 0.086
6.207 6.067 1.301
6.028 6.204 1.036
5.729 6.271 0.828
4.004 6.279 0.201
5.905 4.338 0.113
5.909 4.601 0.174
5.755 4.558 0.043
5.785 4.944 0.101
5.386 5.049 -0.017
5.380 5.329 0.222
4.970 5.461 -0.123
6.131 6.364 0.725
2.851 1.253 1.878
2.813 1.376 1.688
2.366 1.339 1.752
2.078 1.517 1.611
1.889 1.349 1.471
0.257 1.406 0.485
-0.074 1.475 0.391
5.436 1.221 3.086
5.155 1.195 3.088
4.895 1.211 2.869
3.037 1.375 1.869
2.983 1.544 1.968
2.603 1.788 1.985
2.437 1.648 1.772
2.198 1.703 1.658
1.873 1.650 1.471
1.647 1.612 1.267
0.352 1.763 0.638
5.201 1.408 3.324
5.158 1.670 3.145
4.807 1.618 2.909
4.478 1.606 2.679
3.185 1.537 2.102
2.831 1.579 2.089
2.887 1.825 1.979
2.581 1.828 1.882
2.413 1.960 1.894
1.954 2.033 1.708
1.940 1.896 1.512
1.411 1.845 1.472
0.233 1.902 0.855
5.248 1.774 3.223
4.894 1.889 3.083
4.750 1.746 2.947
4.375 1.925 2.779
4.149 1.854 2.675
2.747 1.823 2.067
2.924 2.344 2.236
2.502 2.098 2.183
2.176 2.249 2.027
1.981 2.190 1.773
1.707 2.226 1.678
1.558 2.178 1.620
1.284 2.410 1.365
0.308 2.452 0.926
5.269 2.196 3.290
4.838 1.984 3.207
4.600 2.080 3.240
4.381 1.994 2.989
4.228 2.046 2.836
2.919 2.155 2.227
2.831 2.444 2.295
2.578 2.498 2.018
2.343 2.412 2.066
1.938 2.521 1.873
1.816 2.520 1.596
1.366 2.631 1.536
1.275 2.478 1.510
5.248 2.340 3.564
4.861 2.509 3.493
4.804 2.465 3.307
4.389 2.432 2.993
4.106 2.491 2.870
2.826 2.621 2.178
2.587 2.740 2.271
2.242 2.742 2.052
1.970 2.908 2.101
1.739 2.949 1.707
1.416 2.734 1.713
1.117 2.826 1.557
5.125 2.755 3.455
4.861 2.564 3.475
4.753 2.585 3.429
4.480 2.659 3.295
4.104 2.701 3.021
1.961 3.004 2.080
1.564 3.160 1.808
1.427 3.149 1.711
4.860 2.836 3.585
4.590 3.072 3.505
4.336 2.927 3.233
3.977 3.124 3.009
2.544 4.152 2.761
2.395 4.234 2.604
1.953 4.086 2.671
1.719 4.296 2.531
5.098 4.161 3.946
4.721 4.096 3.939
4.352 4.032 3.780
2.656 4.088 2.780
2.497 4.406 3.038
2.271 4.542 2.871
2.084 4.353 2.747
1.886 4.429 2.470
1.410 4.526 2.303
4.932 4.391 4.197
4.627 4.262 4.081
4.301 4.509 3.790
4.112 4.469 3.671
2.952 4.331 2.983
2.601 4.594 2.829
2.392 4.719 3.002
2.126 4.784 2.831
2.081 4.733 2.820
1.599 4.748 2.588
1.525 4.887 2.447
1.091 4.741 2.420
5.046 4.661 4.348
4.603 4.628 4.049
4.269 4.600 4.037
4.108 4.761 3.776
3.901 4.747 3.755
2.901 4.647 3.109
2.435 4.686 3.039
2.396 4.967 3.108
2.319 5.145 3.115
1.914 5.111 2.759
1.664 4.953 2.584
1.364 5.122 2.463
1.137 5.168 2.436
0.964 5.028 2.270
4.955 4.783 4.487
4.575 4.982 4.207
4.285 4.991 4.160
4.119 4.953 3.947
3.677 4.964 3.676
2.355 5.148 3.075
2.554 5.312 3.099
2.281 5.426 2.981
2.012 5.238 2.922
1.733 5.313 2.820
1.380 5.249 2.604
1.022 5.220 2.414
0.752 5.451 2.433
4.751 5.139 4.535
4.460 5.130 4.438
4.429 5.197 4.124
4.089 5.178 3.962
3.667 5.336 4.007
2.326 5.293 3.360
2.264 5.582 3.241
1.790 5.704 3.153
1.743 5.649 3.019
1.459 5.526 2.782
1.016 5.739 2.754
0.697 5.611 2.630
4.929 5.520 4.436
4.514 5.427 4.325
4.373 5.373 4.399
4.050 5.468 4.140
3.869 5.495 3.976
1.907 0.081 0.634
1.669 0.154 0.510
2.723 0.951 1.660
0.015 1.230 0.335
5.327 1.050 3.169
2.880 1.378 1.818
2.623 1.239 1.694
2.284 1.309 1.555
2.216 1.511 1.446
1.888 1.346 1.396
0.172 1.504 0.397
-0.042 1.555 0.315
5.394 1.320 3.153
4.988 1.340 2.921
4.878 1.205 2.897
3.057 1.284 1.879
3.195 1.348 1.639
2.844 1.475 1.647
2.535 1.504 1.341
2.269 1.547 1.175
0.704 1.583 0.552
0.324 1.450 0.210
0.033 1.586 0.185
5.458 1.362 2.745
5.254 1.481 2.764
3.280 1.513 1.647
3.136 1.543 1.624
3.154 1.815 1.724
2.831 1.673 1.637
2.567 1.850 1.578
2.245 1.682 1.409
1.956 1.741 1.325
0.451 1.995 0.451
0.149 1.820 0.176
5.320 1.723 2.845
5.147 1.615 2.765
4.912 1.615 2.562
4.632 1.751 2.524
3.389 1.618 1.918
2.941 1.635 1.845
2.880 1.971 1.813
2.693 1.940 1.663
2.363 2.031 1.642
2.176 2.120 1.508
2.052 1.960 1.423
1.677 2.137 1.044
0.440 2.021 0.349
0.188 2.241 0.401
5.342 1.952 2.935
5.168 2.041 2.883
4.854 1.868 2.680
4.509 1.872 2.718
3.071 1.928 1.838
2.858 2.176 1.825
2.715 2.425 1.827
2.488 2.463 1.786
2.145 2.477 1.592
1.915 2.371 1.348
1.653 2.324 1.128
1.327 2.421 1.219
0.185 2.388 0.402
5.292 2.156 3.149
5.096 2.276 3.131
4.897 2.119 2.772
4.499 2.136 2.861
4.235 2.292 2.478
2.880 2.384 2.014
2.593 2.613 2.024
2.320 2.549 1.765
2.150 2.739 1.547
1.921 2.705 1.436
1.501 2.619 1.422
1.235 2.727 1.331
0.020 2.614 0.487
5.465 2.391 3.206
5.132 2.463 3.128
4.804 2.464 2.920
4.493 2.590 2.916
4.219 2.588 2.837
4.113 2.625 2.698
2.412 3.009 1.871
2.175 2.845 1.764
1.871 2.806 1.437
1.577 3.027 1.349
1.222 2.862 1.227
1.134 2.956 1.109
5.111 2.678 3.284
4.642 2.778 3.136
4.469 2.674 2.892
4.212 2.878 2.699
4.075 2.780 2.630
2.203 3.061 1.697
1.888 3.205 1.573
1.671 3.136 1.521
1.270 3.088 1.357
1.086 3.213 1.214
4.773 3.061 3.237
4.435 2.960 2.924
4.158 2.953 2.993
3.954 3.059 2.754
3.675 3.006 2.750
1.554 3.349 1.686
1.186 3.615 1.354
1.024 3.602 1.340
0.689 3.546 1.113
4.276 3.412 2.879
3.765 3.456 2.785
3.640 3.361 2.774
0.883 3.880 1.453
0.718 3.757 1.190
0.299 3.784 1.200
3.504 3.777 2.785
3.459 3.829 2.615
2.635 3.884 2.513
0.766 4.156 1.441
0.441 4.039 1.143
0.081 4.043 1.197
3.397 4.020 2.906
2.944 4.116 2.576
2.752 4.127 2.425
2.624 4.236 2.716
2.391 4.277 2.385
2.103 4.366 2.324
0.340 4.445 1.234
-0.021 4.496 1.294
4.981 4.266 3.703
4.892 4.197 3.788
3.369 4.126 2.951
3.017 4.314 2.795
2.764 4.383 2.626
2.552 4.571 2.616
2.501 4.521 2.421
2.098 4.499 2.324
2.011 4.463 2.299
1.645 4.476 2.223
0.193 4.597 1.447
0.153 4.737 1.187
5.157 4.577 3.782
4.747 4.594 3.656
4.537 4.562 3.567
3.089 4.505 2.790
2.625 4.448 2.706
2.717 4.959 2.690
2.320 4.773 2.515
2.019 4.818 2.605
1.915 4.810 2.507
1.664 4.978 2.289
5.089 4.766 3.925
4.842 4.864 3.895
4.650 4.777 3.872
4.200 4.717 3.559
2.995 4.712 3.013
2.709 4.919 2.829
2.606 5.133 2.816
2.402 5.271 2.628
1.938 5.058 2.590
1.950 5.055 2.475
1.472 5.101 2.208
1.181 5.160 2.184
5.060 4.912 4.076
4.736 5.101 3.952
4.337 5.161 3.797
4.076 4.986 3.695
3.818 5.141 3.573
2.691 5.042 2.888
2.282 5.321 2.718
2.001 5.441 2.676
1.645 5.434 2.587
1.603 5.373 2.388
1.187 5.372 2.325
0.854 5.379 2.071
5.082 5.334 4.132
4.634 5.259 4.197
4.461 5.230 3.800
4.258 5.427 3.792
3.912 5.480 3.593
2.263 5.826 2.797
2.051 5.773 2.767
1.717 5.721 2.782
1.366 5.845 2.618
1.185 5.674 2.343
0.894 5.816 2.201
4.960 5.518 4.377
4.617 5.679 4.297
4.347 5.496 3.935
4.245 5.568 3.993
3.959 5.758 3.692
3.467 5.690 3.684
2.382 0.192 0.875
2.189 0.088 0.756
1.831 0.200 0.621
1.721 0.091 0.335
1.501 0.273 0.219
4.417 -0.071 1.670
2.207 0.385 0.860
1.789 0.498 0.647
1.536 0.389 0.475
1.495 0.437 0.258
4.832 0.385 1.998
4.526 0.262 2.034
4.319 0.186 1.732
4.059 0.160 1.673
1.530 0.591 0.624
1.207 0.756 0.480
0.952 0.776 0.398
4.390 0.505 1.977
4.076 0.541 1.672
3.843 0.640 1.629
1.147 1.102 0.489
0.709 0.870 0.256
0.627 1.062 0.167
4.054 0.758 1.899
3.741 0.949 1.718
3.327 1.015 1.694
3.245 1.178 1.654
2.731 1.155 1.374
0.616 1.155 0.318
0.537 1.236 0.276
0.145 1.231 -0.059
5.385 1.056 2.662
3.615 1.080 1.722
3.256 1.292 1.556
3.026 1.143 1.604
3.066 1.504 1.618
2.926 1.409 1.583
2.491 1.500 1.234
2.297 1.553 1.317
0.725 1.467 0.402
0.534 1.435 0.369
0.239 1.551 0.261
5.347 1.259 2.754
5.234 1.304 2.601
3.229 1.490 1.759
3.111 1.444 1.750
3.108 1.489 1.468
3.033 1.487 1.311
2.737 1.637 1.136
1.136 1.749 0.380
0.946 1.732 0.119
0.462 1.745 -0.104
5.666 1.430 2.742
3.782 1.430 1.567
3.375 1.428 1.660
3.222 1.596 1.336
3.135 1.898 1.360
2.953 1.741 1.406
2.752 1.985 1.217
2.432 1.804 1.159
0.732 1.956 0.140
0.585 1.950 0.256
5.558 1.757 2.645
5.404 1.823 2.652
3.582 1.802 1.609
3.182 1.904 1.367
3.055 2.206 1.558
2.831 2.088 1.390
2.620 2.122 1.254
2.274 2.105 1.132
2.047 2.057 1.145
0.530 2.197 0.109
0.338 2.234 0.148
5.595 1.963 2.936
5.210 1.942 2.541
4.938 2.029 2.681
3.109 2.192 1.677
2.729 2.474 1.614
2.647 2.398 1.543
2.294 2.520 1.242
2.068 2.586 1.028
1.814 2.354 0.935
5.423 2.422 3.016
5.249 2.217 2.634
5.063 2.343 2.704
4.765 2.391 2.434
2.472 2.765 1.462
2.280 2.671 1.380
2.136 2.823 1.288
1.851 2.661 1.110
1.455 2.767 0.931
5.099 2.531 2.765
5.065 2.506 2.625
4.767 2.648 2.714
4.349 2.630 2.494
4.051 2.706 2.218
2.323 3.051 1.436
2.043 3.023 1.326
1.648 2.950 1.256
1.515 3.025 0.967
1.186 3.012 0.922
4.765 2.822 2.699
4.490 2.899 2.683
4.335 2.882 2.498
4.095 2.825 2.460
3.692 2.860 2.168
1.820 3.341 1.457
1.806 3.445 1.377
1.427 3.309 1.023
1.119 3.446 0.993
0.958 3.323 1.006
4.944 3.105 2.909
4.733 3.233 2.807
4.435 3.078 2.636
4.186 3.236 2.463
3.925 3.244 2.463
3.632 3.182 2.163
1.683 3.480 1.399
1.239 3.657 1.262
1.069 3.561 1.011
0.766 3.576 1.072
0.665 3.548 0.926
4.534 3.556 2.901
4.338 3.590 2.604
3.923 3.461 2.507
3.780 3.588 2.356
3.358 3.481 2.429
3.114 3.545 2.149
2.844 3.743 2.129
1.262 3.821 1.230
1.114 4.015 1.065
0.802 3.942 0.989
0.501 3.828 0.836
0.155 4.013 0.801
4.387 3.765 2.813
3.861 3.680 2.575
3.718 3.644 2.513
3.574 3.817 2.498
3.085 3.932 2.210
2.822 3.806 2.213
2.963 4.083 2.145
2.533 4.168 2.043
1.120 4.294 1.242
0.806 4.058 1.115
0.372 4.173 0.945
0.121 4.145 0.868
3.911 3.921 2.793
3.678 3.965 2.615
3.384 4.005 2.526
3.065 3.994 2.291
2.890 4.007 2.356
2.943 4.454 2.280
2.445 4.333 2.226
2.436 4.431 2.001
0.649 4.441 1.228
0.479 4.579 1.083
0.195 4.540 1.079
5.172 4.238 3.508
3.524 4.225 2.741
3.311 4.229 2.516
3.078 4.452 2.563
2.874 4.515 2.229
2.716 4.613 2.493
2.567 4.806 2.186
2.147 4.803 2.226
0.360 4.803 1.330
0.061 4.764 1.020
5.308 4.610 3.641
4.984 4.539 3.617
3.456 4.690 2.651
3.018 4.633 2.496
2.875 4.695 2.355
2.909 4.961 2.459
2.565 4.982 2.325
2.281 4.962 2.266
2.032 4.967 2.176
0.125 4.945 1.232
5.038 4.806 3.788
4.884 4.928 3.620
4.710 4.911 3.392
3.175 4.961 2.554
2.879 4.887 2.394
2.444 5.274 2.371
2.103 5.148 2.257
2.035 5.245 2.226
1.594 5.174 2.125
5.220 5.054 3.731
4.895 5.240 3.772
4.547 5.144 3.549
4.319 5.032 3.496
2.199 5.467 2.518
1.909 5.400 2.407
1.695 5.414 2.302
1.354 5.695 1.961
1.092 5.709 1.960
5.033 5.307 3.910
4.858 5.296 3.701
4.469 5.429 3.590
4.339 5.353 3.409
4.085 5.498 3.358
1.885 5.949 2.279
1.523 5.812 2.317
1.468 5.937 2.245
1.181 5.979 1.974
0.914 5.754 1.757
4.872 5.795 3.923
4.493 5.716 3.755
4.153 5.701 3.723
4.122 5.832 3.557
3.641 5.711 3.333
2.267 0.257 0.367
2.187 0.153 0.105
1.702 0.308 0.195
5.206 0.107 1.999
5.097 0.151 1.676
4.655 0.114 1.602
4.588 0.183 1.556
4.161 0.002 1.327
2.194 0.423 0.483
2.137 0.535 0.447
1.889 0.437 0.075
1.360 0.390 0.206
5.055 0.344 1.923
4.784 0.300 1.752
4.366 0.322 1.496
4.090 0.431 1.294
4.031 0.275 1.360
3.553 0.557 1.202
1.880 0.801 0.416
1.683 0.750 0.305
1.341 0.695 0.284
1.147 0.922 -0.018
4.685 0.542 1.697
4.405 0.584 1.725
3.999 0.785 1.592
3.746 0.645 1.524
3.569 0.593 1.384
3.236 1.073 1.323
1.572 1.060 0.491
1.494 1.198 0.356
1.068 1.037 0.231
4.382 0.953 1.646
4.172 0.863 1.506
3.773 1.047 1.545
3.438 0.947 1.330
3.301 0.858 1.096
3.177 1.370 1.433
3.042 1.166 1.291
1.495 1.386 0.461
1.244 1.361 0.146
0.787 1.488 0.115
5.738 1.310 2.517
4.271 1.356 1.868
3.931 1.228 1.820
3.696 1.166 1.592
3.418 1.201 1.491
3.340 1.192 1.172
3.166 1.692 1.259
2.950 1.578 1.213
2.807 1.576 1.244
1.212 1.757 0.431
0.740 1.777 0.157
0.572 1.743 0.043
5.631 1.596 2.660
3.633 1.399 1.809
3.586 1.589 1.652
3.131 1.499 1.344
3.326 1.649 1.201
3.017 1.805 1.149
1.464 1.796 0.128
1.279 1.658 0.189
4.119 1.500 1.542
3.764 1.649 1.357
3.604 1.677 1.164
3.443 1.602 1.230
3.250 1.941 1.114
3.031 1.964 1.081
0.789 1.906 -0.002
3.471 2.015 1.411
3.371 1.856 1.247
1.942 2.795 0.731
1.523 2.801 0.609
4.908 2.836 2.409
4.535 2.679 2.334
2.157 3.037 1.161
1.852 3.027 0.904
1.564 3.073 0.857
1.170 3.140 0.617
0.910 3.199 0.655
4.891 3.066 2.411
4.487 3.116 2.260
4.218 3.115 2.198
3.923 3.067 1.979
3.734 3.057 1.832
2.025 3.297 1.262
1.786 3.542 1.101
1.669 3.347 0.940
1.332 3.491 0.654
0.931 3.539 0.662
0.672 3.372 0.506
0.477 3.484 0.280
4.718 3.376 2.661
4.434 3.430 2.486
4.089 3.178 2.260
3.819 3.396 2.247
3.583 3.429 1.873
3.334 3.350 1.845
3.019 3.702 1.671
1.710 3.703 1.245
1.558 3.694 0.917
1.273 3.642 0.727
0.972 3.819 0.758
0.632 3.856 0.623
0.317 3.884 0.584
4.768 3.512 2.526
4.297 3.483 2.572
4.029 3.677 2.223
3.960 3.570 2.224
3.603 3.629 1.952
3.448 3.707 1.957
2.962 3.599 1.839
3.195 4.015 1.948
1.704 4.108 1.115
1.489 4.120 1.143
1.268 3.924 0.841
0.912 4.102 0.892
0.542 4.131 0.746
0.410 3.891 0.496
0.120 4.080 0.488
4.364 3.952 2.677
4.179 3.788 2.544
3.761 3.766 2.326
3.536 3.938 2.285
3.272 3.803 2.023
3.170 3.932 1.806
3.028 4.186 2.134
2.682 4.274 1.776
1.458 4.336 1.308
1.020 4.273 1.012
0.924 4.245 1.019
0.644 4.275 0.781
0.416 4.303 0.538
-0.011 4.354 0.461
4.356 4.209 2.543
4.104 4.248 2.599
3.800 4.159 2.518
3.673 4.196 2.260
3.317 4.286 2.231
2.969 4.263 2.076
3.110 4.461 2.171
2.593 4.581 2.066
1.321 4.606 1.338
1.145 4.485 1.276
0.912 4.580 0.940
0.483 4.607 0.911
0.424 4.574 0.594
-0.047 4.551 0.523
4.151 4.317 2.525
3.702 4.574 2.493
3.588 4.547 2.276
3.149 4.584 2.314
2.875 4.369 2.116
2.972 4.641 2.259
2.609 4.794 2.161
0.761 4.727 1.210
0.641 4.902 1.069
0.262 4.798 0.860
0.038 4.798 0.660
3.833 4.815 2.509
3.360 4.819 2.581
3.083 4.608 2.270
2.885 4.845 2.142
1.713 5.898 1.959
1.439 5.980 1.952
1.209 6.037 1.779
0.928 5.952 1.528
4.440 5.701 3.515
4.245 5.686 3.232
3.934 5.868 3.130
3.531 5.770 2.874
2.569 0.173 0.124
5.250 0.259 1.475
4.968 0.334 1.470
4.578 0.273 1.275
4.189 0.205 0.957
3.979 0.186 0.846
3.745 0.366 0.711
2.117 0.725 0.122
5.016 0.538 1.649
4.694 0.584 1.439
4.424 0.410 1.225
4.361 0.549 1.179
4.035 0.371 1.022
3.773 0.656 0.972
3.362 0.720 0.979
2.085 0.750 0.112
1.822 0.918 -0.047
4.986 0.876 1.755
4.802 0.684 1.494
4.540 0.818 1.509
4.212 0.726 1.302
4.093 0.873 1.153
3.811 0.938 1.056
3.385 0.888 0.887
3.475 1.180 0.950
2.095 1.022 0.241
1.958 1.198 0.227
1.667 1.133 -0.002
4.691 1.118 1.511
4.393 1.121 1.404
4.239 1.084 1.425
3.922 1.149 1.114
3.685 1.001 1.175
3.506 1.029 0.834
3.322 1.377 1.052
3.070 1.277 0.923
1.677 1.363 0.186
1.633 1.534 -0.013
4.741 1.299 1.767
4.426 1.364 1.705
4.290 1.368 1.505
3.948 1.436 1.291
3.626 1.288 1.234
3.389 1.289 1.035
3.257 1.618 1.223
3.173 1.700 1.072
1.503 1.826 0.139
1.142 1.872 -0.029
4.065 1.674 1.438
3.775 1.699 1.356
3.549 1.575 1.379
3.393 1.619 1.254
3.419 1.725 0.883
1.882 1.734 -0.055
4.579 1.741 1.377
4.373 1.665 1.408
3.882 1.786 1.117
3.822 1.705 1.124
3.457 1.766 0.977
1.572 3.105 0.610
1.341 3.241 0.504
1.219 3.362 0.346
1.000 3.356 0.242
4.633 3.021 2.057
4.490 3.257 1.787
4.087 3.228 1.857
3.927 3.262 1.743
3.594 3.134 1.617
3.282 3.332 1.491
1.943 3.599 0.699
1.525 3.410 0.718
1.369 3.394 0.598
1.170 3.461 0.307
0.767 3.559 0.247
0.560 3.461 -0.022
4.721 3.474 2.283
4.617 3.395 2.166
4.267 3.391 2.073
4.026 3.319 1.957
3.858 3.483 1.632
3.392 3.516 1.589
3.399 3.323 1.519
3.242 3.736 1.518
1.890 3.695 0.832
1.709 3.671 0.685
1.400 3.859 0.502
1.071 3.793 0.562
0.763 3.822 0.268
0.435 3.835 0.333
0.360 3.971 0.194
4.790 3.682 2.364
4.469 3.614 2.216
4.390 3.766 2.117
4.052 3.727 2.059
3.731 3.775 1.947
3.489 3.792 1.657
3.094 3.705 1.521
3.183 3.935 1.542
1.879 4.164 0.935
1.469 4.188 0.817
1.404 4.157 0.760
1.046 4.032 0.603
0.681 4.177 0.405
0.665 4.028 0.420
0.369 4.254 0.268
4.808 4.081 2.468
4.578 3.902 2.455
4.363 3.890 2.185
3.942 3.927 2.043
3.819 3.904 1.835
3.438 4.044 1.867
3.235 3.963 1.577
3.231 4.298 1.838
1.751 4.230 0.959
1.693 4.263 1.005
1.304 4.457 0.929
0.949 4.494 0.538
0.856 4.434 0.567
0.492 4.495 0.421
0.363 4.558 0.209
4.478 4.235 2.469
4.325 4.283 2.347
3.922 4.197 2.243
3.546 4.210 1.968
3.400 4.400 1.748
3.243 4.353 1.787
3.131 4.628 1.725
1.471 4.747 1.126
1.145 4.578 0.894
0.962 4.810 0.748
0.740 4.669 0.492
0.448 4.569 0.596
0.318 4.737 0.359
4.501 4.425 2.648
4.155 4.505 2.278
3.876 4.652 2.164
3.540 4.499 2.081
3.407 4.611 1.910
3.202 4.547 1.721
1.273 5.069 0.880
0.903 4.826 0.748
0.649 5.001 0.771
0.418 4.970 0.450
4.214 4.864 2.513
3.840 4.742 2.225
3.632 4.748 2.129
3.338 4.803 2.157
1.212 5.941 1.642
1.191 6.041 1.458
0.807 6.146 1.114
3.927 5.992 3.001
3.597 5.991 2.772
3.520 6.084 2.607
5.099 0.395 1.040
4.629 0.403 1.045
4.405 0.333 0.961
4.210 0.388 0.667
4.007 0.424 0.663
3.580 0.600 0.542
5.290 0.550 1.461
5.052 0.450 1.159
4.670 0.696 0.939
4.459 0.715 0.946
4.103 0.514 0.867
4.008 0.636 0.771
3.509 0.716 0.472
3.670 0.847 0.526
5.292 0.906 1.565
4.985 0.893 1.319
4.736 0.780 1.250
4.351 0.768 1.105
4.244 1.016 0.804
3.916 0.863 0.862
3.559 0.851 0.695
3.537 1.326 0.740
2.265 1.297 0.048
5.079 0.999 1.563
4.896 1.164 1.293
4.548 1.217 1.159
4.264 1.076 1.243
