6.417 1.935 5.261
1.280 4.581 3.498
1.318 4.176 3.602
1.952 4.327 3.990
3.549 2.989 4.791
3.959 2.792 4.614
4.006 2.729 5.102
4.170 2.828 5.045
4.537 2.318 4.843
0.983 4.514 4.260
1.368 4.004 4.018
1.759 4.025 4.222
2.011 3.969 4.075
3.655 2.956 5.009
3.824 2.936 5.344
4.021 2.522 5.419
4.367 2.653 5.348
4.462 2.594 5.129
0.942 4.389 4.480
1.100 4.416 4.317
1.608 4.164 4.230
1.916 4.209 4.316
2.088 3.696 4.608
4.150 2.781 5.344
4.394 2.935 5.658
4.221 2.438 5.628
4.438 2.242 5.630
4.795 2.355 5.466
1.086 4.388 4.766
1.555 4.344 4.771
1.939 3.845 4.907
1.810 3.719 4.601
2.240 3.564 5.011
3.911 2.609 5.942
4.335 2.458 5.835
4.470 2.478 5.913
4.684 2.422 5.821
5.184 2.395 5.884
1.659 4.404 5.143
1.527 3.809 5.219
2.060 3.993 4.896
2.275 4.056 4.852
2.418 3.680 5.244
4.281 2.414 6.146
4.350 2.752 6.038
4.650 2.215 6.075
5.137 2.309 6.275
1.469 3.888 5.254
2.001 3.999 5.078
2.185 3.804 5.530
2.202 3.715 5.195
2.277 3.789 5.490
1.706 3.775 5.567
1.825 3.850 5.744
2.115 3.543 5.722
2.401 3.689 5.509
2.828 3.615 5.871
2.574 3.589 6.158
1.891 4.099 5.634
1.914 3.736 5.819
2.558 3.562 5.962
2.794 3.561 5.850
2.908 3.638 6.263
2.229 3.998 5.949
2.330 3.455 6.194
4.014 2.707 0.820
4.306 2.976 0.697
4.409 2.719 0.856
4.992 2.435 0.991
2.434 3.855 0.134
4.117 3.133 0.680
4.067 2.733 1.008
4.328 3.131 1.292
4.444 2.639 1.310
4.511 2.484 1.078
4.708 2.694 1.342
5.228 2.696 1.480
2.182 4.005 0.510
2.422 3.691 0.427
4.109 2.717 1.061
4.103 2.870 1.394
4.320 2.977 1.589
4.577 2.480 1.701
4.721 2.389 1.832
4.987 2.149 1.872
2.056 4.062 0.899
2.523 3.687 0.739
2.742 3.798 0.972
4.490 2.544 1.530
4.757 2.427 1.599
5.111 2.705 2.004
5.085 2.535 1.939
5.114 2.444 1.900
1.887 4.037 1.203
2.067 4.087 0.952
2.648 3.960 1.132
2.489 3.522 1.368
4.768 2.753 2.280
4.765 2.536 2.392
5.216 2.602 2.044
5.270 2.211 2.160
5.584 2.225 2.192
2.140 4.230 1.333
2.335 4.145 1.555
2.582 3.892 1.134
2.686 3.693 1.255
2.879 3.764 1.701
4.963 2.738 2.139
5.000 2.500 2.203
5.007 2.503 2.661
5.579 2.449 2.569
5.897 2.241 2.468
1.968 4.105 1.748
2.371 3.753 1.523
2.283 3.669 1.546
2.755 3.602 1.720
3.081 3.659 1.818
4.707 2.587 2.839
5.306 2.160 3.021
5.215 2.027 2.799
5.430 2.060 2.840
5.628 2.264 3.204
2.062 3.676 1.717
2.478 3.940 2.080
2.637 3.884 1.907
2.679 3.573 2.104
3.328 3.485 2.207
4.910 2.285 2.977
5.438 2.420 3.062
5.567 1.955 3.347
5.560 2.052 3.191
5.717 2.064 3.248
2.653 3.867 2.137
2.588 3.591 2.172
2.903 3.697 2.088
3.117 3.286 2.612
3.082 3.190 2.564
5.001 2.536 3.305
5.384 2.374 3.405
5.422 2.156 3.362
6.035 1.986 3.588
6.011 1.644 3.534
2.686 3.617 2.696
2.888 3.631 2.536
2.893 3.661 2.823
3.199 3.362 2.688
3.606 3.325 2.842
3.798 2.986 3.088
5.430 2.392 3.719
5.438 2.134 3.583
5.925 2.202 4.049
6.100 1.857 4.125
6.096 1.899 3.871
2.541 3.551 2.798
2.723 3.537 3.029
3.168 3.304 3.076
3.263 3.019 3.292
3.408 3.000 3.152
3.305 3.408 3.366
3.955 3.201 3.461
5.519 2.294 4.160
5.978 2.210 4.285
6.060 1.855 4.323
6.219 1.578 4.062
2.663 3.635 3.332
2.884 3.540 3.341
3.512 3.158 3.448
3.693 3.390 3.554
3.526 3.445 3.790
3.446 3.308 3.581
4.027 3.050 3.742
5.496 1.810 4.316
5.662 2.026 4.221
6.017 1.739 4.427
3.030 3.309 3.292
3.108 3.089 3.662
3.601 3.219 3.478
3.138 2.831 3.612
3.692 2.907 3.793
5.539 1.662 4.351
5.376 1.881 4.185
6.006 1.520 4.402
5.836 1.420 4.656
6.201 1.658 4.459
2.725 3.091 3.388
3.049 3.174 3.666
2.943 3.055 3.488
3.560 2.879 3.750
3.384 3.156 4.074
3.506 2.613 3.892
3.918 2.971 4.034
5.720 1.661 4.357
5.789 1.454 4.732
5.693 1.745 4.722
6.194 1.282 4.806
2.952 3.452 3.683
3.220 2.908 3.982
3.296 2.815 3.880
3.650 3.107 3.978
3.795 2.810 4.434
5.931 1.690 4.905
3.955 2.466 5.000
4.024 2.393 4.869
1.047 4.112 4.067
1.379 3.850 4.138
3.668 2.392 5.295
3.920 2.566 5.400
4.245 2.380 5.295
4.329 2.326 5.217
4.825 2.355 5.401
1.246 4.034 4.091
1.575 3.658 4.430
1.580 3.715 4.243
1.965 3.753 4.516
2.292 3.330 4.777
3.853 2.370 5.375
4.102 2.124 5.289
4.546 2.353 5.787
4.885 2.130 5.868
4.818 2.254 5.546
1.169 3.771 4.663
1.438 3.633 4.537
1.887 3.905 4.902
1.935 3.658 4.667
2.163 3.442 4.761
4.047 2.624 5.469
4.234 2.367 5.597
4.374 2.521 6.042
4.789 2.063 5.784
4.880 2.235 5.921
4.990 1.763 6.224
5.341 1.922 6.282
1.576 3.771 5.076
1.738 3.648 4.780
1.571 3.621 5.045
2.116 3.717 5.192
2.009 3.385 5.083
2.512 3.143 5.411
2.501 2.984 5.526
3.965 2.416 6.216
3.927 2.440 6.072
4.418 2.161 5.997
4.595 2.406 5.941
4.859 2.000 6.278
1.261 4.195 5.309
1.233 3.745 5.038
1.580 3.810 5.365
1.703 3.543 5.434
2.097 3.672 5.255
2.475 3.516 5.708
2.733 3.082 5.815
2.662 2.973 5.726
1.313 4.043 5.269
1.763 3.834 5.660
1.740 3.750 5.373
1.923 3.747 5.871
2.161 3.502 5.778
2.269 3.058 5.688
2.531 2.956 5.985
2.546 2.982 5.982
2.743 3.308 6.336
1.706 3.940 5.890
1.941 3.572 5.836
2.065 3.472 5.717
2.454 3.500 6.094
2.350 3.050 6.217
2.776 3.067 6.252
1.399 3.751 6.270
1.613 3.636 6.012
1.686 3.606 6.212
2.132 3.518 6.157
4.035 2.663 1.063
4.089 2.545 0.674
4.306 2.610 0.872
3.888 2.810 0.744
3.631 2.846 0.706
4.212 2.829 0.694
4.290 2.782 0.911
4.209 2.746 1.292
4.540 2.392 1.920
4.831 1.961 2.114
2.146 3.504 0.964
2.164 3.684 1.294
4.905 2.160 1.996
4.778 2.284 2.438
5.317 1.951 2.206
5.268 1.998 2.215
5.415 1.847 2.408
2.092 3.717 1.512
2.118 3.747 1.176
2.305 3.448 1.471
2.803 3.625 1.414
2.965 3.423 1.583
5.112 2.258 2.613
5.164 2.290 2.275
5.060 2.073 2.721
5.589 1.875 2.843
5.644 1.948 2.494
2.384 3.684 1.516
2.416 3.764 1.761
2.869 3.546 1.560
2.741 3.552 1.739
3.100 3.417 1.687
5.004 2.028 2.541
4.924 2.181 2.665
4.980 2.148 2.615
5.654 1.668 3.051
5.852 1.996 2.838
6.032 1.737 2.800
5.974 1.570 3.341
2.300 3.553 2.105
2.217 3.318 1.843
2.632 3.324 1.998
2.938 3.105 2.158
2.937 3.266 2.376
3.403 3.118 2.367
3.410 2.719 2.158
4.916 2.132 2.817
4.960 2.043 2.891
5.416 1.811 3.092
5.580 2.015 3.362
5.842 1.740 3.120
5.829 1.733 3.525
5.927 1.407 3.493
2.272 3.518 1.929
2.032 3.604 2.075
2.543 3.423 2.498
2.821 3.541 2.520
2.816 3.083 2.481
2.959 2.933 2.226
3.173 3.216 2.525
3.648 3.104 2.890
4.993 2.127 3.501
5.276 2.257 3.186
5.437 1.889 3.523
5.741 1.801 3.493
5.950 1.857 3.461
5.920 1.822 3.412
6.045 1.238 3.696
2.126 3.604 2.468
2.674 3.453 2.628
2.875 3.600 2.675
2.711 3.117 2.772
3.173 2.950 2.631
3.224 3.198 3.023
3.691 2.977 2.840
3.332 2.686 3.358
3.907 3.047 3.223
5.148 1.881 3.616
5.086 2.168 3.833
5.713 1.933 3.906
5.574 1.708 3.550
6.126 1.691 4.090
6.373 1.434 4.056
2.473 3.491 2.705
2.448 3.178 3.030
2.942 3.106 2.970
3.114 3.007 2.786
3.278 2.933 2.965
3.233 3.007 2.996
3.512 2.844 3.568
3.429 2.834 3.583
5.110 1.856 3.743
5.293 1.806 4.022
5.410 1.874 3.917
5.568 1.532 4.108
5.978 1.886 3.956
5.836 1.710 4.218
2.226 3.700 2.950
2.303 3.557 2.844
2.623 3.074 3.262
2.886 3.323 3.350
3.191 2.799 3.404
3.207 2.844 3.538
3.209 3.089 3.851
3.581 2.996 3.761
5.355 1.646 4.267
5.733 1.999 4.312
5.719 1.669 4.310
6.118 1.738 4.577
6.081 1.665 4.522
2.535 3.173 3.251
2.789 3.067 3.374
3.380 2.898 3.521
3.230 3.169 3.805
3.066 2.912 3.511
5.124 1.790 3.997
5.038 1.769 4.304
5.538 1.458 4.471
5.503 1.477 4.182
5.693 1.105 4.184
2.082 3.241 3.506
2.747 2.998 3.164
2.962 2.903 3.581
2.898 2.716 3.446
3.346 2.748 3.635
5.192 1.347 4.576
5.411 1.385 4.553
2.898 3.231 3.593
2.990 2.932 3.603
4.457 2.179 5.304
4.621 1.916 5.354
1.909 3.272 4.484
1.790 3.271 4.757
4.268 2.068 5.427
4.448 2.152 5.521
4.549 2.153 5.615
4.800 1.614 5.607
5.112 1.846 5.785
1.283 3.786 4.890
1.541 3.661 4.636
2.018 3.480 4.703
2.010 3.339 4.934
2.244 3.029 4.795
3.930 2.131 5.530
4.334 2.043 5.753
4.541 1.797 5.691
4.448 2.104 5.808
4.651 1.606 5.981
4.775 1.660 6.032
5.147 1.449 6.074
1.082 3.893 4.707
1.668 3.536 5.178
1.675 3.735 4.838
2.072 3.154 5.075
2.021 3.458 5.075
2.498 3.140 5.082
2.420 3.184 5.553
2.790 2.969 5.734
3.602 2.387 6.045
4.248 2.387 6.158
4.275 1.951 6.359
4.709 2.185 6.408
4.685 1.871 6.394
1.087 3.929 5.304
1.218 3.734 5.081
1.689 3.629 5.442
1.851 3.406 5.543
2.016 3.301 5.475
2.424 3.331 5.337
2.211 3.025 5.399
2.754 3.138 5.661
2.414 2.740 6.058
1.309 3.881 5.700
1.747 3.345 5.692
1.572 3.229 5.396
1.701 3.240 5.635
2.045 2.992 5.896
2.483 2.867 5.996
2.782 2.880 6.110
2.731 3.082 6.338
2.646 3.022 6.216
1.052 3.856 5.734
1.501 3.726 5.561
1.511 3.556 5.946
1.995 3.313 5.784
1.863 3.169 5.859
2.425 3.231 6.167
2.597 2.887 6.380
1.518 3.656 5.846
1.597 3.289 6.045
1.998 3.301 5.992
2.197 2.974 6.115
6.229 1.140 1.408
3.716 2.626 0.616
3.887 2.371 0.546
5.161 1.957 2.197
5.422 1.417 2.171
2.591 3.041 1.261
2.576 2.914 1.664
4.955 1.768 2.445
5.289 1.547 2.663
5.277 1.824 2.759
5.848 1.734 2.786
5.764 1.536 2.536
2.395 3.151 1.534
2.253 3.062 1.496
2.606 3.123 1.729
2.727 3.127 1.904
3.229 2.939 1.953
4.535 1.926 2.668
4.815 1.967 2.689
4.937 1.644 2.644
5.510 1.879 2.915
5.428 1.791 3.119
6.033 1.522 3.164
6.116 1.082 3.129
1.814 3.475 1.773
2.432 3.147 2.175
2.685 3.253 1.932
2.617 3.050 2.002
2.858 3.166 1.989
2.961 2.784 2.296
3.239 2.565 2.226
3.636 2.538 2.348
4.516 1.959 2.941
5.021 1.824 2.834
5.025 1.669 2.945
5.254 1.443 3.238
5.610 1.319 3.397
5.583 1.702 3.338
5.803 1.366 3.139
6.081 1.087 3.586
2.091 3.721 1.971
2.394 3.242 2.052
2.262 3.129 2.120
2.351 3.092 2.313
2.980 3.055 2.350
3.179 3.017 2.472
3.454 2.666 2.336
3.674 2.530 2.834
3.606 2.450 2.818
5.010 2.043 3.230
5.240 2.063 3.107
4.999 1.597 3.412
5.201 1.444 3.304
5.596 1.541 3.435
5.706 1.258 3.627
5.926 1.294 3.443
2.236 3.322 2.579
2.295 3.161 2.577
2.341 3.104 2.448
2.786 2.836 2.558
3.201 3.119 2.821
3.425 2.821 2.734
3.411 2.436 2.925
3.313 2.481 3.189
3.470 2.755 3.014
4.777 2.185 3.517
4.833 1.709 3.382
5.179 1.598 3.786
5.235 1.453 3.611
5.391 1.643 3.907
5.565 1.558 3.647
5.831 1.327 4.130
6.063 1.110 4.038
2.020 3.426 2.895
2.471 3.368 2.553
2.332 3.169 3.016
2.462 3.090 3.116
3.104 3.145 3.109
3.133 2.679 2.988
3.329 2.705 3.159
3.195 2.801 3.323
3.650 2.555 3.219
4.915 1.622 3.964
4.859 1.499 3.853
5.311 1.660 4.140
5.566 1.469 4.220
5.935 1.249 4.174
5.885 1.078 3.971
6.334 1.015 4.248
2.009 3.318 3.089
2.531 3.312 3.201
2.610 3.317 2.921
2.753 3.088 3.191
3.116 2.800 3.108
3.112 2.634 3.500
3.061 2.622 3.610
4.940 1.972 4.043
5.067 1.412 4.116
5.698 1.636 4.181
5.682 1.624 4.223
5.944 1.296 4.197
2.239 3.177 3.570
2.639 3.186 3.562
3.021 2.815 3.640
3.197 2.643 3.556
3.133 2.600 3.598
4.504 1.519 4.230
4.656 1.780 3.941
4.881 1.368 4.327
5.158 1.506 4.344
5.471 1.241 4.469
2.130 2.991 3.481
2.251 2.918 3.333
2.449 2.659 3.614
2.435 2.970 3.236
2.652 2.385 3.650
4.109 1.927 5.501
4.613 1.810 5.434
4.453 1.797 5.972
5.006 1.196 5.661
5.335 1.355 5.674
1.743 3.083 4.623
1.843 3.129 4.891
2.151 3.229 5.102
2.259 2.919 4.759
2.610 2.756 5.215
2.456 2.524 5.102
3.772 2.063 5.636
4.365 1.770 5.639
4.604 1.734 5.746
4.464 1.399 5.964
4.702 1.482 6.302
5.058 1.180 5.998
5.097 1.364 6.167
1.116 3.465 5.050
1.526 3.271 4.920
1.866 3.292 4.922
2.105 2.942 5.094
1.944 2.719 5.189
2.442 2.621 5.217
2.826 2.850 5.263
2.494 2.746 5.758
4.001 1.942 6.270
3.962 1.649 5.929
4.252 1.494 6.007
4.700 1.573 6.417
1.174 3.481 5.226
1.421 3.380 5.513
1.853 3.081 5.270
2.114 2.906 5.535
1.946 2.844 5.689
2.266 2.733 5.493
2.806 2.909 5.497
2.314 2.585 5.792
4.008 1.963 6.045
1.058 3.491 5.479
1.466 3.127 5.451
1.693 3.263 5.504
1.877 3.176 5.582
2.198 3.132 5.508
2.149 2.731 5.740
2.506 2.657 5.856
2.650 2.722 6.231
0.889 3.604 5.777
1.121 3.425 5.751
1.333 3.263 5.949
1.628 2.891 5.990
1.900 2.764 6.207
2.350 2.759 5.892
2.616 2.735 5.986
0.985 3.600 5.739
1.491 3.481 6.122
1.222 3.470 6.105
1.828 2.998 6.059
1.752 2.732 6.104
1.443 3.554 6.300
5.065 1.397 2.752
5.205 1.484 2.611
5.561 1.423 2.811
5.511 1.125 2.529
6.147 1.198 2.732
2.390 3.206 1.603
2.835 2.808 1.673
2.927 2.757 1.783
3.244 2.801 1.699
3.122 2.286 1.909
3.484 2.349 2.108
4.785 1.725 2.835
5.135 1.292 2.595
5.019 1.661 2.708
5.247 1.292 2.798
5.599 1.289 2.825
6.036 0.895 3.330
6.352 1.106 3.145
1.909 3.168 1.888
2.106 2.763 1.897
2.382 3.103 2.025
2.751 2.901 1.955
2.889 2.406 2.282
3.413 2.307 2.482
3.414 2.193 2.104
3.269 2.316 2.359
4.690 1.858 3.069
4.682 1.502 3.272
4.908 1.618 3.075
5.413 1.411 3.142
5.409 1.031 3.345
5.892 1.243 3.317
6.258 1.081 3.567
2.030 3.265 1.914
2.459 3.072 2.012
2.352 2.644 2.237
2.818 2.508 2.134
2.694 2.850 2.369
3.219 2.670 2.569
3.145 2.176 2.417
3.423 2.445 2.660
4.704 1.579 3.193
4.621 1.531 3.516
5.035 1.260 3.208
5.399 1.507 3.564
5.672 1.259 3.446
5.696 0.915 3.849
5.972 1.165 3.522
2.001 3.390 2.250
2.232 3.090 2.642
2.240 2.644 2.362
2.393 2.805 2.635
2.639 2.672 2.708
3.103 2.388 2.510
3.320 2.340 2.707
3.399 2.460 3.289
4.577 1.691 3.455
4.563 1.800 3.589
5.253 1.348 3.501
5.208 1.546 3.837
5.380 1.150 3.720
5.666 0.927 3.606
5.815 1.201 4.062
1.674 3.219 2.646
1.982 3.100 2.480
2.516 2.739 2.803
2.597 2.970 2.789
2.705 2.786 2.794
3.162 2.488 2.919
3.325 2.545 3.171
3.156 2.361 3.531
4.563 1.669 3.629
4.473 1.860 3.993
5.157 1.361 3.890
5.115 1.529 3.837
5.372 1.073 4.130
5.732 1.119 4.205
5.660 1.121 4.062
1.980 3.241 2.754
2.089 3.233 3.048
2.467 3.009 2.995
2.348 3.017 3.104
2.720 2.462 3.370
2.873 2.738 3.144
3.391 2.728 3.504
4.553 1.829 4.171
5.089 1.746 3.919
4.964 1.664 4.122
5.270 1.274 4.220
5.692 1.019 4.355
1.895 3.099 3.136
2.363 2.837 3.149
2.445 2.971 3.331
2.491 2.715 3.657
3.063 2.708 3.609
4.105 1.692 4.057
4.312 1.555 4.258
4.914 1.415 3.996
4.809 1.265 4.300
5.206 1.032 4.226
1.620 3.131 3.162
1.798 2.849 3.243
1.841 2.643 3.519
2.461 2.602 3.197
2.407 2.449 3.469
4.710 1.269 4.220
4.594 1.404 4.159
1.923 3.121 3.555
2.131 2.506 3.517
5.132 1.126 5.552
5.321 1.290 5.725
2.149 2.673 4.612
2.414 2.388 4.642
2.509 2.228 4.987
4.400 1.320 5.585
4.761 1.555 5.705
5.068 1.118 5.675
5.045 0.895 5.634
5.206 0.825 5.896
1.510 2.932 4.625
1.874 2.526 4.811
2.255 2.393 4.793
2.186 2.266 5.238
2.476 2.537 5.089
2.768 2.542 5.513
2.783 2.163 5.251
3.857 1.702 5.807
4.337 1.367 6.113
4.731 1.387 6.049
4.570 1.481 6.176
4.721 1.338 6.226
5.380 0.786 6.176
5.278 0.653 6.098
1.532 2.949 5.058
1.621 2.853 5.085
1.971 2.624 4.958
2.184 2.455 5.385
2.411 2.310 5.513
2.334 2.368 5.597
2.359 2.511 5.450
2.526 2.344 5.521
3.721 1.711 6.143
4.216 1.567 6.321
4.027 1.451 6.109
4.272 1.476 6.173
1.010 3.053 5.128
1.473 3.001 5.103
1.728 3.118 5.462
2.004 2.851 5.244
2.231 2.821 5.614
2.384 2.650 5.638
2.661 2.482 5.791
2.390 2.654 5.946
3.563 1.716 6.280
0.947 2.960 5.581
1.198 3.308 5.714
1.579 3.075 5.330
1.520 2.979 5.808
1.915 2.820 5.626
1.952 2.794 5.917
2.307 2.481 6.065
2.273 2.738 6.296
0.909 3.574 5.792
0.814 3.200 5.730
1.133 3.117 5.531
1.658 3.000 5.697
1.501 3.063 6.148
1.742 2.706 5.788
2.231 2.466 5.988
2.431 2.240 5.998
0.518 3.299 5.741
0.708 3.101 5.702
1.310 2.912 5.774
1.287 3.088 5.933
1.783 3.123 6.146
2.026 2.580 6.091
0.952 3.355 6.251
1.312 3.013 6.384
5.503 1.168 1.495
5.591 1.019 1.533
2.474 2.562 0.675
2.619 2.264 0.451
5.621 1.023 2.262
6.068 0.918 2.807
2.897 2.582 1.722
3.459 2.226 1.856
3.423 2.074 2.300
5.101 1.372 2.530
5.333 1.005 2.880
5.399 0.708 2.555
5.821 0.994 2.950
5.976 0.478 3.153
2.406 2.587 1.710
2.612 2.563 1.912
2.967 2.277 1.775
2.909 2.090 2.010
3.459 1.897 2.236
3.334 2.385 2.115
3.395 1.906 2.434
4.892 1.442 2.662
5.320 1.412 2.758
5.163 1.160 3.085
5.571 1.127 2.930
5.880 0.904 2.893
6.050 0.959 2.918
6.091 0.731 3.443
2.206 2.658 1.966
2.295 2.390 2.177
2.546 2.555 2.057
3.010 2.553 2.298
3.143 2.318 2.049
3.453 2.307 2.360
3.253 2.154 2.488
3.516 2.046 2.513
4.693 1.624 2.913
4.873 1.440 2.840
4.980 1.303 3.221
5.498 1.147 2.957
5.715 0.736 3.274
5.957 0.777 3.557
5.887 0.498 3.154
6.313 0.873 3.221
2.165 2.870 1.955
2.314 2.685 2.032
2.256 2.673 2.123
2.580 2.691 2.571
2.782 2.337 2.648
3.146 2.082 2.401
3.038 1.970 2.809
3.387 1.953 2.971
4.283 1.279 3.189
4.596 1.145 3.111
5.067 1.344 3.284
5.298 1.024 3.575
5.506 1.176 3.415
5.706 1.070 3.662
6.049 0.921 3.543
1.975 2.793 2.639
1.985 2.733 2.311
2.087 2.648 2.481
2.345 2.407 2.446
2.790 2.606 2.773
3.009 2.150 2.853
2.929 2.397 2.688
3.040 1.961 2.993
4.214 1.373 3.463
4.687 1.321 3.646
4.837 1.326 3.386
4.813 1.070 3.498
4.978 1.223 3.960
5.184 1.015 3.534
5.360 1.051 3.626
5.668 0.810 4.086
1.646 3.107 2.643
1.708 2.973 2.540
1.907 3.024 2.474
2.399 2.482 3.052
2.382 2.797 3.098
2.585 2.316 2.887
2.931 2.211 2.976
3.022 1.990 2.986
4.115 1.891 3.644
4.442 1.489 3.987
4.398 1.218 3.565
4.614 1.164 3.757
5.221 1.027 3.998
5.327 1.256 4.107
5.380 0.712 4.310
1.729 3.317 3.000
1.832 2.945 2.761
2.056 2.650 3.197
1.917 2.818 3.126
2.322 2.656 2.920
2.575 2.340 3.102
2.587 2.228 3.001
4.075 1.558 4.252
4.402 1.313 3.941
4.930 1.376 4.194
4.960 1.010 3.967
5.107 1.279 4.219
1.708 3.072 3.404
1.955 3.101 3.482
1.966 2.622 3.277
2.103 2.505 3.450
2.734 2.458 3.538
3.827 1.584 3.829
4.174 1.060 4.198
4.419 1.233 4.099
4.717 1.000 3.906
5.015 0.901 4.044
1.514 2.824 3.255
1.453 2.790 3.295
1.614 2.469 3.417
1.903 2.412 3.238
2.179 2.198 3.389
3.560 1.406 4.070
3.667 1.683 4.040
4.117 1.354 4.400
4.337 1.333 4.502
4.442 1.084 4.343
0.795 2.754 3.361
1.030 2.922 3.439
1.564 2.704 3.639
1.541 2.670 3.271
2.076 2.548 3.516
3.637 1.585 4.521
3.787 1.685 4.652
1.127 3.167 3.534
1.073 3.138 3.357
2.730 1.977 4.806
2.847 1.726 4.569
5.736 0.441 5.621
5.622 0.314 5.419
2.321 2.307 4.960
2.899 2.057 5.098
2.738 2.051 5.008
4.877 0.894 5.652
4.984 0.823 5.737
5.314 0.487 5.486
5.495 0.385 5.931
5.459 0.322 5.817
2.162 2.264 4.790
2.254 2.331 4.532
2.762 2.039 4.773
2.243 2.331 4.910
2.840 2.041 4.994
4.468 1.135 5.878
4.823 0.811 5.814
4.662 0.619 5.857
4.997 0.704 5.687
5.312 0.512 6.076
1.926 2.275 5.051
2.062 2.386 4.895
2.161 2.061 5.045
2.380 2.324 5.120
2.540 2.357 5.175
2.570 2.207 5.305
3.822 1.426 5.633
4.012 1.336 5.663
4.654 1.068 5.985
4.537 0.998 5.948
4.594 0.933 6.323
4.847 0.849 5.951
5.109 0.899 6.217
1.299 3.005 5.015
1.525 2.538 5.166
1.549 2.720 4.932
2.184 2.508 5.188
2.197 2.472 5.523
2.182 2.411 5.573
2.486 2.148 5.521
2.610 2.178 5.682
3.712 1.623 6.140
4.038 1.482 6.154
4.584 1.128 6.303
4.350 1.056 6.508
1.448 2.821 5.450
1.334 2.850 5.253
1.608 2.663 5.467
1.718 2.325 5.441
2.153 2.202 5.339
2.165 2.105 5.756
2.485 2.346 5.727
3.519 1.727 6.097
0.705 2.841 5.550
0.925 2.589 5.288
1.355 2.581 5.684
1.608 2.505 5.762
1.608 2.456 5.683
2.205 2.107 5.968
2.397 2.084 5.669
0.602 3.062 5.456
0.665 3.202 5.759
1.112 2.815 5.925
1.197 2.876 5.817
1.780 2.434 5.955
1.553 2.272 6.076
1.769 2.383 5.774
0.774 3.021 6.083
0.697 3.061 5.953
1.204 2.795 5.766
1.001 2.633 6.014
1.616 2.526 6.286
1.913 2.686 6.386
2.050 2.608 6.438
0.347 3.332 6.141
0.474 3.205 6.344
0.693 2.872 6.181
4.341 1.556 1.008
4.530 1.423 1.307
5.130 1.077 1.117
5.186 0.794 1.132
5.543 1.075 1.367
1.661 2.531 0.122
1.987 2.530 0.529
2.171 2.500 0.632
2.534 2.367 0.663
2.653 2.300 0.764
4.641 1.147 1.126
4.888 1.110 1.344
1.911 2.959 0.413
1.785 2.703 0.465
3.527 1.615 1.716
4.049 1.430 1.460
3.549 1.964 1.968
3.478 1.529 1.823
3.661 1.530 2.010
5.700 0.588 2.734
5.741 0.396 2.356
5.843 0.277 2.708
6.301 0.358 2.673
3.126 1.956 1.631
3.153 2.087 1.708
3.537 1.680 1.742
3.111 2.140 2.109
3.567 1.860 2.291
5.321 0.791 2.633
5.666 0.727 2.854
5.593 0.331 2.628
6.186 0.399 2.948
6.322 0.149 2.868
2.524 2.234 1.960
2.932 2.173 1.730
3.046 2.053 2.207
3.018 2.134 2.185
3.348 1.992 2.558
3.361 1.992 2.222
4.742 0.943 2.669
4.900 0.890 2.877
5.266 0.813 3.139
5.394 0.694 3.111
5.601 0.740 3.118
5.967 0.535 2.965
5.868 0.334 3.426
2.329 2.340 1.946
2.207 2.587 2.049
2.452 2.432 1.923
2.785 1.919 1.966
2.879 1.780 2.029
2.991 1.734 2.488
3.166 1.714 2.394
3.187 2.001 2.687
4.476 1.267 2.799
4.968 1.115 3.142
5.300 1.045 3.284
5.506 0.731 3.448
5.779 0.722 3.239
5.877 0.731 3.274
6.230 0.603 3.336
1.832 2.586 2.380
2.318 2.613 2.166
2.336 2.392 2.146
2.600 2.251 2.540
2.939 1.878 2.714
3.345 1.843 2.481
3.285 1.971 2.635
4.547 1.424 3.354
4.708 1.316 3.114
5.027 0.997 3.574
5.034 1.095 3.563
5.544 0.581 3.454
5.629 0.845 3.548
5.636 0.475 3.807
1.857 2.719 2.554
1.757 2.456 2.576
2.339 2.443 2.570
2.323 2.378 2.670
2.772 2.264 2.497
2.961 2.119 2.550
2.900 2.014 2.971
3.891 1.334 3.639
4.494 1.154 3.391
4.319 1.387 3.749
4.851 1.016 3.752
5.251 0.850 3.639
5.323 0.695 3.590
5.611 0.903 3.691
1.594 2.679 2.698
1.618 2.726 2.816
1.947 2.420 2.868
1.922 2.508 2.802
2.105 2.506 2.915
2.543 2.346 2.843
2.620 2.028 2.928
4.230 1.516 3.890
4.224 1.249 3.690
4.706 1.035 3.913
4.763 1.029 3.810
4.695 0.884 3.978
5.123 0.750 4.171
5.474 0.875 4.247
1.614 2.833 2.589
1.393 2.846 3.038
1.620 2.777 2.712
1.954 2.527 3.074
2.338 2.331 3.041
2.718 2.211 3.387
2.718 2.296 3.429
3.804 1.676 4.156
4.216 1.487 3.895
4.344 1.120 4.170
4.793 1.335 4.262
4.677 0.855 4.262
1.496 2.780 3.059
1.783 2.509 2.902
1.981 2.860 3.003
1.900 2.633 3.231
2.271 2.595 3.211
3.887 1.569 3.855
3.894 1.322 4.116
4.300 0.970 4.178
4.052 0.820 4.000
4.747 0.812 3.877
0.989 2.682 3.162
1.414 2.380 2.874
1.358 2.499 3.179
1.462 2.529 2.971
1.990 2.081 3.377
3.309 1.341 4.103
3.822 1.440 4.320
3.698 1.249 4.099
4.081 0.998 4.063
4.228 0.795 4.266
0.763 3.028 3.379
1.038 2.661 3.159
1.019 2.500 3.194
1.403 2.408 3.549
1.567 2.650 3.696
3.125 1.612 4.241
3.162 1.672 4.359
3.243 1.110 4.464
3.592 1.238 4.437
4.102 1.330 4.290
5.749 0.127 4.951
0.610 3.124 3.616
0.897 2.753 3.709
0.854 2.605 3.490
1.498 2.358 3.528
2.849 1.923 4.224
3.178 1.501 4.657
3.357 1.358 4.546
3.467 1.459 4.777
3.590 1.202 4.803
5.216 0.425 5.469
5.410 0.367 5.333
0.312 3.041 3.828
0.552 2.732 3.922
0.740 2.819 3.989
2.335 1.985 4.813
2.857 1.674 4.528
2.711 1.590 4.837
2.936 1.342 4.629
3.273 1.293 4.822
4.913 0.362 5.651
5.427 0.237 5.586
5.607 0.284 5.681
0.233 2.799 3.762
0.770 2.919 3.997
2.335 1.827 4.387
2.589 1.848 4.616
2.380 1.826 4.950
2.606 1.773 4.956
3.146 1.600 4.951
4.664 0.845 5.358
5.120 0.378 5.805
5.445 0.212 5.747
5.330 0.006 5.590
0.432 2.732 4.017
2.352 2.143 4.959
2.497 1.735 4.979
2.092 1.971 5.316
2.777 1.786 5.172
2.839 1.760 5.410
4.573 0.879 5.755
5.043 0.805 5.670
4.893 0.465 6.139
5.394 0.549 6.141
5.482 0.388 6.075
2.004 2.100 4.683
2.362 2.113 5.127
2.192 2.181 4.993
2.063 1.839 5.171
2.466 1.770 5.603
4.377 0.970 6.152
4.616 0.696 6.075
4.899 0.653 6.139
5.003 0.609 5.948
4.927 0.531 6.302
1.649 2.488 5.299
1.650 1.952 5.017
1.874 2.100 5.053
2.231 1.866 5.446
2.239 2.194 5.687
3.931 0.785 6.379
4.102 0.852 5.979
4.454 0.760 6.270
1.140 2.463 5.365
1.344 2.124 5.325
1.543 2.040 5.411
1.964 2.102 5.614
2.438 1.740 5.395
0.883 2.796 5.596
1.041 2.441 5.408
1.304 2.124 5.706
1.451 2.085 5.531
1.756 1.880 5.781
0.661 2.692 5.751
0.846 2.660 5.531
1.183 2.278 5.580
1.302 2.208 5.821
1.554 2.275 5.774
0.415 2.679 5.782
0.888 2.685 6.049
1.094 2.854 5.899
1.064 2.521 5.860
1.319 2.651 5.989
0.237 2.880 6.032
0.346 3.141 6.041
0.864 2.953 6.267
0.874 2.745 6.096
4.318 1.434 1.151
4.400 1.135 1.254
4.776 0.899 0.898
4.626 0.721 1.169
4.852 0.731 1.234
1.678 2.844 0.324
1.845 2.245 0.454
1.982 2.588 0.205
2.326 2.364 0.521
2.424 2.137 0.423
3.758 1.237 1.408
4.312 1.211 1.063
4.116 0.886 1.220
4.463 0.845 1.509
4.830 1.048 1.482
1.313 2.387 0.307
1.627 2.435 0.486
2.038 2.363 0.447
2.003 2.521 0.854
3.787 1.541 1.269
3.568 1.551 1.233
3.797 1.388 1.522
4.288 0.981 1.444
4.235 1.249 1.610
6.436 -0.146 2.050
1.469 2.568 0.660
1.357 2.710 0.629
1.694 2.315 0.797
3.287 1.572 1.362
3.255 1.280 1.549
3.871 1.298 1.538
3.971 1.134 1.736
4.019 0.946 2.055
5.994 0.067 2.590
5.916 -0.177 2.281
1.232 2.567 0.964
1.535 2.688 1.027
3.240 1.717 1.376
3.352 1.506 2.014
3.304 1.330 2.026
3.768 1.431 2.081
3.920 1.511 1.960
5.764 0.560 2.552
6.076 0.469 2.612
5.857 -0.031 2.679
1.349 2.707 0.910
3.012 1.997 1.652
3.346 1.625 1.910
3.046 1.633 2.151
3.318 1.639 2.129
3.502 1.399 2.383
5.263 0.317 2.563
5.710 0.217 2.609
5.577 0.125 2.652
6.183 0.150 2.985
2.944 1.662 1.998
2.915 2.035 1.813
3.051 1.793 2.125
3.196 1.812 2.089
3.149 1.691 2.541
4.919 0.861 3.107
5.350 0.651 2.903
5.675 0.259 3.141
5.956 0.486 3.202
5.881 0.261 3.250
2.608 1.814 2.307
2.694 1.864 1.936
2.657 1.926 2.318
3.075 1.616 2.061
2.921 1.898 2.597
5.015 0.641 3.008
4.767 0.742 3.180
5.244 0.455 2.993
5.350 0.494 3.326
5.452 0.341 3.277
2.272 2.132 2.515
2.132 1.843 2.256
2.585 2.149 2.463
2.760 1.587 2.658
2.894 1.529 2.307
4.504 0.804 3.055
4.876 0.700 3.604
4.809 0.811 3.342
4.933 0.516 3.699
5.629 0.213 3.353
1.941 2.132 2.453
1.966 2.328 2.521
2.204 1.881 2.430
2.449 2.125 2.409
2.860 1.630 2.975
4.193 1.064 3.468
4.226 0.793 3.341
4.676 0.837 3.637
4.662 0.785 3.522
5.014 0.717 3.590
1.734 2.548 2.856
1.989 2.397 2.592
1.918 2.326 2.571
2.164 2.074 2.932
2.267 1.966 2.687
3.699 0.937 3.483
4.184 0.967 3.721
4.412 0.899 3.568
4.838 0.593 4.065
4.620 0.731 4.084
1.012 2.721 3.005
1.305 2.278 2.877
1.822 2.202 3.211
2.047 2.465 3.060
2.103 2.333 3.222
3.426 1.189 3.684
4.061 1.081 3.996
4.245 1.130 3.863
4.468 0.768 4.055
4.520 0.914 4.226
0.960 2.989 2.985
1.077 2.783 2.980
1.511 2.575 3.273
1.832 2.604 3.332
1.617 2.242 3.415
3.279 1.061 3.949
3.296 1.210 3.622
3.582 0.728 3.742
3.957 0.628 3.839
3.993 0.853 4.004
0.394 2.460 2.726
0.602 2.741 2.885
1.296 2.258 3.290
1.188 2.056 3.118
1.678 2.398 3.263
2.700 1.214 3.904
3.067 1.205 4.115
3.394 1.078 4.099
3.600 1.058 3.921
3.649 1.226 4.079
3.662 0.643 4.173
4.037 0.959 4.400
5.708 0.022 4.911
0.641 2.600 3.047
0.793 2.555 3.344
0.897 2.567 3.527
1.074 2.067 3.509
1.234 2.257 3.541
2.573 1.545 4.232
2.765 1.169 4.236
3.297 1.229 4.192
3.550 0.916 4.379
3.491 1.138 4.448
3.921 0.746 4.310
3.828 0.618 4.414
5.315 0.018 5.195
0.585 2.643 3.259
0.892 2.623 3.599
0.735 2.199 3.484
1.077 2.179 3.814
1.559 2.170 3.713
2.375 1.716 4.202
2.393 1.572 4.130
3.028 1.583 4.414
3.236 1.496 4.736
3.223 1.263 4.760
3.519 1.175 4.847
3.608 1.177 4.699
5.139 0.343 5.043
5.331 -0.061 5.361
0.479 2.555 3.807
0.895 2.801 3.926
0.996 2.501 3.919
0.939 2.474 3.944
2.554 1.516 4.123
2.555 1.861 4.425
2.671 1.646 4.545
2.749 1.351 4.618
2.815 1.078 4.712
3.310 1.209 5.072
3.530 1.253 4.945
4.765 0.495 5.529
5.094 0.423 5.268
5.409 0.036 5.446
0.587 2.560 4.025
0.376 2.374 3.992
0.922 2.494 4.234
2.246 1.639 4.350
2.439 1.837 4.725
2.469 1.829 5.056
2.339 1.379 4.870
2.944 1.474 4.846
2.712 1.188 4.861
2.971 1.259 5.074
3.383 1.169 5.030
4.605 0.606 5.381
4.804 0.370 5.520
5.438 0.137 5.576
5.382 -0.155 5.698
0.526 2.560 4.025
0.438 2.432 4.106
0.763 2.363 4.405
1.878 1.837 4.864
2.510 1.801 4.792
2.436 1.689 5.220
2.445 1.472 4.890
2.622 1.298 4.977
2.976 1.149 5.168
4.487 0.430 5.721
4.980 0.419 6.075
5.059 0.196 6.052
5.204 0.213 6.240
0.003 2.525 4.495
1.866 1.892 5.080
2.452 1.513 4.837
1.957 1.611 5.489
2.546 1.589 5.532
2.821 1.664 5.337
4.316 0.403 6.012
4.402 0.159 6.221
5.054 0.129 6.239
4.916 0.150 6.192
1.945 2.098 5.418
2.075 1.822 5.485
2.069 1.854 5.234
4.554 0.684 6.276
1.834 1.754 5.210
1.973 1.885 5.459
0.994 2.379 5.971
1.076 2.097 5.781
0.139 2.525 5.525
0.249 2.637 5.700
0.657 2.572 6.099
0.545 2.662 6.062
1.212 2.354 6.079
-0.158 2.877 6.144
0.450 2.652 5.935
0.726 2.326 6.085
0.496 2.576 6.184
3.462 0.993 0.597
3.884 1.142 1.103
3.872 0.835 1.166
4.087 0.906 0.881
4.276 0.573 1.236
4.838 0.413 1.433
4.907 0.531 1.056
1.367 2.304 -0.083
1.831 2.194 0.051
1.592 2.132 0.034
2.214 2.152 0.508
2.071 1.676 0.516
3.528 1.150 1.046
3.980 1.333 1.126
4.002 1.091 1.470
4.307 0.975 1.309
4.443 0.676 1.490
4.802 0.758 1.212
4.890 0.394 1.770
1.102 2.604 0.339
1.666 2.533 0.717
1.650 2.370 0.488
2.145 1.971 0.388
2.187 2.009 0.530
3.475 1.539 1.456
3.656 1.129 1.416
3.733 1.037 1.376
4.033 0.819 1.463
3.863 0.651 1.494
4.106 0.885 1.880
4.638 0.488 1.808
1.392 2.678 0.711
1.692 2.304 0.615
1.882 2.129 0.941
1.775 2.276 0.638
2.968 1.300 1.522
3.307 1.258 1.395
3.522 1.104 1.679
3.487 1.328 1.613
3.786 0.825 1.583
3.878 0.923 1.576
4.180 0.995 1.847
5.521 0.186 2.495
1.035 2.684 0.697
1.557 2.091 1.040
1.461 2.242 1.139
3.162 1.574 1.317
2.922 1.177 1.648
2.901 1.522 1.895
3.194 1.452 2.072
3.607 1.214 2.157
3.742 1.266 1.932
3.785 1.060 2.120
4.292 0.713 1.925
5.767 0.073 2.505
0.879 2.675 1.387
1.136 2.268 1.186
1.430 2.032 1.178
3.067 1.393 1.872
3.296 1.169 1.651
3.119 1.347 2.177
3.243 1.250 2.043
3.493 1.240 2.144
3.804 1.295 2.033
5.395 -0.083 2.739
5.543 0.118 2.800
1.060 2.374 1.581
2.760 1.528 1.795
3.130 1.652 2.241
3.039 1.200 2.083
3.034 1.266 2.135
3.503 1.114 2.556
5.290 0.482 3.157
5.655 0.061 3.156
5.453 -0.169 3.068
2.442 1.829 2.237
2.499 1.681 2.097
3.122 1.616 2.284
5.305 0.144 3.201
5.124 0.242 3.407
2.273 1.684 2.615
2.787 1.397 2.650
4.140 0.816 3.631
4.450 0.683 3.431
1.812 1.887 2.804
1.972 1.737 2.612
3.503 0.915 3.828
3.786 0.729 3.848
4.172 1.079 3.529
4.232 0.569 3.765
4.575 0.831 3.636
0.693 2.694 2.907
0.932 2.315 2.966
1.275 2.428 2.673
1.668 2.192 2.955
1.645 1.898 3.094
3.270 1.276 3.670
3.720 1.237 3.907
3.612 0.776 4.087
4.193 0.888 3.756
4.209 0.633 3.977
0.390 2.685 3.015
1.033 2.372 3.176
0.867 2.646 3.162
1.316 2.188 3.363
1.730 2.180 3.191
3.150 1.027 3.792
2.952 0.846 3.864
3.388 0.784 3.673
3.812 0.659 3.772
4.087 0.598 3.946
0.496 2.489 2.972
0.567 2.081 2.901
0.893 2.132 2.924
1.239 2.075 2.916
2.608 1.166 4.072
2.741 1.158 3.806
2.919 1.019 4.121
3.319 0.789 3.941
3.735 0.995 4.006
3.673 0.723 4.084
4.154 0.374 4.042
0.235 2.338 3.310
0.594 2.135 3.158
0.909 2.158 3.337
1.028 2.219 3.174
1.410 1.697 3.343
2.407 1.631 4.259
2.762 1.460 4.155
2.788 1.094 4.115
2.915 0.943 4.198
3.088 1.081 4.084
3.551 0.880 4.200
3.643 0.598 4.645
3.865 0.527 4.720
0.453 2.686 3.597
0.845 2.291 3.646
0.752 2.277 3.798
1.012 2.227 3.754
1.417 2.221 3.876
2.424 1.626 4.131
2.134 1.648 4.401
2.701 1.198 4.300
2.506 0.926 4.204
3.203 1.021 4.658
3.347 1.167 4.662
3.428 0.995 4.674
3.812 0.790 4.453
0.119 2.581 3.817
0.364 2.211 3.966
0.837 2.157 3.700
1.002 1.909 4.027
2.391 1.417 4.357
2.250 1.182 4.658
2.353 1.489 4.465
2.811 1.034 4.849
2.835 1.102 4.570
3.326 1.033 4.643
3.375 0.861 4.806
3.509 0.864 4.882
4.451 0.165 5.360
0.259 2.647 4.030
0.517 2.484 3.735
0.552 2.032 4.280
0.866 2.164 4.205
1.843 1.646 4.576
2.226 1.419 4.800
2.218 1.616 4.652
2.496 1.111 4.703
2.450 1.242 4.940
2.837 1.182 4.985
3.303 1.128 4.994
3.160 1.065 5.354
4.486 0.339 5.405
4.886 -0.213 5.736
0.179 2.752 4.218
0.386 2.445 4.412
0.533 2.276 4.338
1.852 1.660 4.472
2.076 1.328 4.799
2.264 1.442 5.254
2.239 1.594 4.986
2.371 1.022 4.945
2.977 1.142 5.036
3.137 0.974 5.459
4.761 -0.080 5.992
0.352 2.714 4.601
0.566 2.395 4.382
2.045 1.273 4.848
2.223 1.215 5.221
2.402 1.062 5.666
0.373 2.650 5.863
0.333 2.308 6.225
0.597 2.443 6.211
3.565 0.941 0.591
3.510 0.764 0.860
3.955 0.627 0.839
4.051 0.504 1.021
4.282 0.612 1.097
4.560 0.330 1.212
4.793 0.004 1.145
1.234 2.080 -0.054
1.239 2.015 0.425
1.773 1.772 0.133
1.910 1.709 0.120
2.322 1.608 0.422
2.977 1.129 1.206
3.219 0.935 1.200
3.429 0.810 1.282
3.661 0.953 1.135
4.313 0.601 1.384
4.417 0.624 1.206
4.283 0.554 1.470
4.883 0.508 1.423
0.921 1.995 0.524
1.530 2.248 0.235
1.561 1.866 0.423
1.795 1.740 0.593
2.138 1.847 0.903
2.939 1.014 1.170
3.155 1.109 1.348
3.202 1.052 1.214
3.778 1.014 1.366
3.787 0.534 1.256
3.989 0.504 1.788
4.362 0.564 1.459
4.411 0.352 1.861
1.231 2.319 0.452
1.490 1.897 0.944
1.372 2.049 0.875
1.532 1.622 0.737
3.284 0.965 1.390
2.943 1.278 1.584
3.340 0.784 1.482
3.390 0.989 1.618
3.471 0.577 1.858
3.844 0.581 1.808
4.107 0.440 1.718
4.349 0.413 2.060
1.031 2.282 1.053
1.306 2.112 1.107
1.237 1.751 1.259
1.462 1.761 1.096
2.813 1.408 1.438
2.941 0.946 1.329
2.872 1.119 1.808
3.204 1.085 1.747
3.482 1.065 1.822
3.520 0.684 2.117
3.636 0.906 1.804
4.167 0.707 2.251
0.734 2.253 1.220
0.994 2.305 0.981
1.485 2.063 1.418
2.806 1.408 1.919
3.151 1.026 1.639
3.072 1.197 2.141
3.344 1.246 2.173
3.384 1.209 2.308
3.581 0.817 2.413
3.901 0.758 2.529
0.826 2.396 1.443
1.368 2.156 1.531
2.819 1.094 2.134
3.091 0.973 2.287
3.466 0.779 2.278
3.316 0.725 3.561
3.452 0.820 3.662
0.843 2.434 2.726
1.011 2.152 2.695
3.137 0.938 3.737
3.396 0.814 3.562
3.347 0.672 3.616
3.702 0.654 3.691
4.079 0.432 4.082
0.488 2.640 3.042
0.551 2.065 3.000
1.131 2.029 3.201
0.979 1.914 3.333
2.756 1.227 3.475
2.657 0.793 3.920
2.978 0.812 3.755
3.196 0.682 3.785
3.708 0.622 3.863
0.530 2.247 2.794
0.856 2.179 2.828
0.860 1.865 2.978
2.531 1.210 3.835
2.656 1.195 3.854
2.825 0.798 3.914
3.231 0.896 4.020
3.349 0.551 3.941
3.615 0.674 3.995
3.883 0.543 4.005
0.500 2.116 2.897
0.379 2.315 3.385
0.610 1.808 3.482
0.979 1.798 3.341
2.454 1.351 3.987
2.482 1.265 3.783
2.570 1.133 3.965
2.664 0.699 4.308
2.975 0.636 4.149
3.090 0.496 4.426
3.265 0.696 4.510
3.743 0.685 4.195
0.370 2.141 3.617
0.405 2.140 3.410
0.658 1.934 3.509
1.112 1.939 3.778
2.241 0.992 4.169
2.149 0.973 4.068
2.384 0.876 4.178
2.449 0.986 4.228
2.893 0.915 4.461
3.207 0.943 4.559
3.299 0.677 4.829
3.632 0.313 4.701
0.335 2.190 3.890
0.334 2.259 3.825
0.744 2.129 3.823
1.033 2.118 3.731
2.399 1.202 4.420
1.985 1.266 4.765
2.567 1.043 4.436
2.817 1.139 4.671
2.867 0.950 4.585
2.955 0.811 4.837
3.363 0.561 4.914
3.414 0.241 5.079
-0.078 2.356 3.846
0.234 2.313 4.014
0.617 2.187 4.169
0.535 1.849 4.191
2.111 1.398 4.435
2.136 1.310 4.580
2.259 1.033 5.068
2.356 0.855 5.156
2.656 0.735 5.144
2.751 0.780 4.843
3.343 0.797 5.285
3.585 0.450 5.212
0.282 2.296 3.927
0.336 2.029 4.484
0.646 2.216 4.196
0.556 1.769 4.173
1.801 1.154 4.911
2.444 0.968 5.068
2.610 0.949 5.046
2.812 0.723 5.295
2.981 0.760 5.114
3.041 0.590 5.321
0.245 2.098 4.630
0.555 2.282 4.701
0.076 2.363 6.289
3.262 0.685 0.874
3.487 0.876 0.860
3.763 0.666 1.018
3.694 0.412 0.929
4.082 0.328 1.187
4.066 0.075 1.299
4.272 0.101 1.081
1.343 1.927 0.084
1.576 1.562 0.224
1.434 1.639 0.032
1.676 1.629 0.212
2.996 0.806 0.855
2.865 0.855 1.124
3.366 0.740 1.004
3.263 0.610 0.919
3.474 0.478 1.327
4.012 0.474 1.229
4.317 0.419 1.473
4.576 0.137 1.595
1.087 2.042 0.242
1.163 1.668 0.426
1.502 1.691 0.318
1.788 1.546 0.512
3.138 1.004 0.842
2.798 1.086 1.350
3.373 0.751 1.107
3.636 0.648 1.214
3.534 0.383 1.329
4.069 0.270 1.617
4.136 0.449 1.621
4.264 0.133 1.841
0.742 2.129 0.460
1.294 1.685 0.751
1.267 1.606 0.679
1.804 1.700 0.988
3.196 1.114 1.074
3.084 0.679 1.585
2.933 0.884 1.703
3.508 0.475 1.704
3.826 0.449 1.664
3.668 0.197 1.850
4.222 0.481 1.711
4.109 0.009 1.935
0.894 1.818 0.624
1.359 1.871 0.694
1.137 1.577 0.780
1.497 1.853 1.309
2.902 1.118 1.559
2.868 1.019 2.003
3.164 0.859 1.782
3.502 0.827 2.096
3.293 0.621 1.981
3.510 0.484 1.890
3.985 0.271 2.124
4.104 0.059 2.033
0.882 2.142 1.123
1.242 1.863 0.986
1.448 1.733 1.142
1.562 1.894 1.181
2.721 1.161 1.953
2.888 0.901 2.300
3.485 0.729 2.327
3.410 0.816 2.123
3.762 0.267 2.449
3.883 0.123 2.244
0.598 2.182 1.315
0.997 2.133 1.277
1.257 1.560 1.726
2.740 0.748 3.838
2.604 1.035 3.444
2.856 0.966 3.704
3.202 0.369 3.648
3.473 0.328 3.802
0.244 2.412 3.149
0.347 2.097 2.846
0.598 1.688 3.068
2.515 0.813 3.447
2.247 0.654 3.669
2.700 0.512 3.911
2.760 0.510 3.782
3.208 0.557 3.567
0.451 2.062 2.994
0.477 1.773 2.946
2.076 1.064 3.539
1.957 1.081 3.574
2.622 0.910 3.818
2.817 0.692 3.993
2.977 0.502 3.929
3.090 0.176 3.967
3.310 0.414 4.153
0.057 1.894 2.887
0.418 1.594 3.326
0.551 1.958 3.331
1.821 1.208 3.730
2.103 0.784 3.651
2.174 1.107 4.246
2.425 0.830 4.137
2.647 0.749 3.912
2.567 0.593 3.994
2.867 0.207 4.531
3.081 0.518 4.619
3.324 0.037 4.410
-0.057 2.207 3.184
0.146 1.964 3.696
0.348 1.683 3.273
0.736 1.600 3.775
2.009 1.003 4.021
2.167 0.689 3.945
2.028 1.077 4.314
2.520 1.055 4.149
2.482 0.772 4.450
2.851 0.344 4.469
2.709 0.573 4.468
3.215 0.315 4.698
3.214 0.277 4.694
-0.166 2.118 3.405
0.127 1.960 3.771
0.359 1.516 3.934
0.494 1.730 3.916
1.859 0.700 4.020
1.774 0.951 4.359
2.320 0.765 4.629
2.490 0.950 4.462
2.851 0.590 4.576
2.863 0.379 5.024
3.338 0.242 4.701
3.298 0.178 4.903
3.453 0.318 4.930
0.031 1.837 4.063
0.319 1.667 3.969
0.841 1.517 3.956
1.116 1.498 4.400
1.866 0.731 4.585
1.952 0.794 4.606
2.165 1.000 4.740
2.399 0.509 4.889
2.724 0.749 5.124
2.900 0.492 5.108
3.325 0.024 5.134
3.248 -0.021 5.236
0.028 2.001 4.119
0.202 2.050 4.298
0.526 1.737 4.185
0.800 1.757 4.522
2.400 0.892 5.157
2.375 0.739 5.406
2.534 0.474 5.058
3.050 0.661 5.288
3.067 0.113 5.633
-0.059 2.160 4.369
0.309 1.660 4.462
0.681 1.779 4.814
2.833 0.673 5.813
2.654 0.202 5.744
0.100 1.898 4.823
0.026 2.054 4.648
3.187 0.739 0.492
2.990 0.734 0.748
3.200 0.499 0.692
3.742 0.200 1.009
3.897 0.376 0.828
4.164 -0.079 1.097
1.132 1.664 0.216
1.140 1.538 0.247
1.254 1.623 0.005
2.738 0.671 0.799
3.015 0.575 0.543
3.093 0.640 1.238
2.952 0.502 0.893
3.405 0.555 1.338
3.850 0.456 1.012
3.679 -0.004 1.415
3.873 0.257 1.428
1.128 1.527 0.485
1.229 1.380 0.272
1.114 1.690 0.746
1.662 1.202 0.632
2.944 0.604 0.862
3.169 0.467 0.988
2.772 0.509 1.288
3.101 0.796 1.172
3.323 0.523 1.349
3.728 0.220 1.623
3.661 0.090 1.578
3.960 0.241 1.570
0.894 1.954 0.792
1.029 1.376 0.602
1.265 1.541 0.840
1.560 1.457 0.939
2.650 0.791 1.220
2.707 0.943 1.737
3.202 0.795 1.521
3.169 0.523 1.798
3.323 0.102 1.610
3.604 0.146 1.740
3.854 0.158 1.992
0.935 1.858 0.826
1.213 1.606 0.843
1.246 1.491 1.053
1.334 1.605 0.996
1.563 1.525 1.281
2.940 0.766 1.688
3.064 0.778 1.991
3.295 0.611 1.979
3.171 0.572 2.021
3.542 0.404 2.237
3.861 0.122 2.110
0.621 1.726 1.379
1.079 1.450 0.969
1.229 1.554 1.499
1.639 1.230 1.385
1.460 1.280 1.511
3.322 0.370 2.367
3.565 0.314 2.086
3.792 0.213 2.137
3.734 0.378 2.214
3.831 -0.142 2.446
0.860 1.968 1.449
1.027 1.694 1.233
1.275 1.411 1.300
1.404 1.600 1.571
3.719 0.324 2.735
3.552 0.414 2.565
0.757 1.576 1.575
1.155 1.495 1.890
2.544 0.568 3.220
2.831 0.354 3.356
2.067 1.042 3.498
2.604 0.617 3.759
2.954 0.624 3.562
2.795 0.453 3.867
3.183 0.468 3.579
0.198 1.935 2.683
0.485 1.681 2.905
2.294 0.731 3.514
2.287 0.734 3.318
2.562 0.632 3.504
2.720 0.610 3.396
2.838 0.043 3.951
-0.097 1.501 2.817
2.086 0.787 3.214
2.118 0.705 3.626
2.077 0.865 3.939
2.392 0.563 3.773
2.431 0.658 4.063
2.512 0.429 3.823
2.838 -0.074 3.835
3.294 -0.141 4.315
0.326 1.625 2.915
0.175 1.642 3.320
0.657 1.458 3.259
1.895 0.805 3.927
2.268 0.480 3.584
2.199 0.586 3.795
2.060 0.381 3.875
2.689 0.434 4.331
2.617 0.131 4.229
2.733 -0.039 4.436
2.994 0.268 4.170
-0.222 1.888 3.406
0.115 1.601 3.644
0.491 1.394 3.321
1.829 0.604 3.948
1.973 0.744 3.796
1.775 0.843 4.330
2.332 0.463 4.579
2.332 0.303 4.219
2.363 0.547 4.422
2.768 0.063 4.462
3.036 0.050 4.596
0.011 1.756 3.612
0.391 1.326 3.786
0.613 1.490 3.967
2.053 0.794 4.503
1.852 0.721 4.535
2.370 0.359 4.452
2.708 0.226 4.507
2.877 0.369 4.621
3.119 0.062 4.695
3.306 -0.071 4.941
0.093 1.927 4.134
0.085 1.439 4.159
0.589 1.658 4.056
0.978 1.386 4.341
2.023 0.462 4.685
2.047 0.720 4.746
2.223 0.162 4.817
2.520 0.410 5.251
3.048 0.086 4.859
2.949 0.247 5.139
0.062 1.707 4.040
0.265 1.730 4.050
0.489 1.382 4.426
0.642 1.131 4.361
2.274 0.242 5.076
2.747 0.483 5.343
2.865 0.123 5.374
3.123 -0.095 5.256
0.078 1.780 4.394
0.524 1.626 4.810
0.407 1.255 4.644
2.562 0.232 5.598
2.963 0.335 5.803
3.214 0.063 5.665
0.178 1.773 5.019
0.561 1.387 4.842
0.779 1.523 4.821
0.601 1.445 4.911
0.531 1.284 5.257
0.792 1.068 5.267
0.792 1.304 5.809
1.088 0.964 5.976
1.234 0.994 6.075
1.211 1.368 5.907
1.313 1.040 6.082
1.285 1.055 6.112
2.641 0.430 0.737
3.342 0.486 1.051
3.202 0.041 0.657
3.596 -0.218 0.717
0.674 1.254 0.037
0.951 1.509 0.106
1.414 1.421 0.005
2.627 0.596 0.693
2.912 0.618 0.552
2.902 0.553 1.042
2.975 0.395 1.033
3.006 0.047 1.105
3.463 0.130 1.021
0.717 1.673 0.159
0.962 1.146 0.657
1.225 1.401 0.698
2.768 0.317 0.775
2.781 0.536 1.032
2.863 0.447 1.330
2.986 0.497 1.254
3.143 0.037 1.483
3.354 -0.129 1.695
0.520 1.606 0.831
1.088 1.595 0.630
1.176 1.504 0.963
1.226 1.356 0.977
2.841 0.304 1.276
2.706 0.113 1.763
3.152 0.350 1.634
3.540 0.194 1.514
0.708 1.768 0.988
1.100 1.353 0.855
1.018 1.041 1.162
1.265 1.355 1.160
1.678 1.170 0.990
2.937 0.378 2.021
2.812 0.449 2.061
3.157 0.231 1.747
3.574 0.202 1.801
0.442 1.464 1.281
0.843 1.358 1.218
0.935 1.115 1.466
1.270 1.368 1.403
1.415 1.084 1.572
3.175 0.215 1.944
3.500 -0.232 2.162
0.285 1.547 1.180
0.793 1.279 1.514
0.845 1.344 1.532
1.113 1.210 1.534
1.601 0.922 1.486
3.275 0.037 2.378
0.564 1.270 1.773
0.837 1.119 1.937
1.251 1.263 1.770
1.108 1.125 1.842
1.409 1.225 1.743
1.229 1.359 2.175
1.771 1.134 2.392
1.849 0.597 2.764
2.191 0.677 2.965
2.370 0.694 3.196
2.548 0.484 3.521
2.464 0.159 3.598
1.508 0.660 3.066
2.032 0.681 2.978
2.229 0.674 3.026
2.049 0.579 3.416
2.282 0.392 3.526
2.365 0.143 3.793
2.563 0.380 3.943
0.166 1.861 2.977
1.768 0.637 3.650
2.228 0.834 3.409
2.042 0.176 3.543
2.496 0.200 3.632
2.477 0.048 3.449
1.690 0.547 3.122
1.595 0.662 3.191
1.819 0.221 3.684
2.165 0.456 3.900
1.998 0.263 3.821
2.381 0.443 3.637
2.452 0.311 3.765
1.852 0.627 3.832
1.890 0.320 3.924
1.833 0.606 4.047
1.981 0.576 4.296
2.329 0.126 4.331
2.528 -0.087 4.272
-0.009 1.378 3.318
1.831 0.496 4.010
2.293 0.331 4.064
2.391 0.069 4.516
2.608 0.081 4.310
0.246 1.596 3.831
0.516 1.555 3.991
2.173 0.470 4.404
2.427 0.122 4.489
2.636 0.214 4.578
0.352 1.295 3.775
0.241 0.992 4.213
2.149 0.320 5.092
2.786 0.178 5.204
0.371 1.198 4.324
0.153 1.107 4.221
0.316 0.910 4.591
2.653 -0.054 5.179
-0.170 1.340 4.420
0.110 1.110 4.638
0.470 1.141 4.593
0.505 0.968 4.593
0.159 1.171 4.796
0.444 1.014 4.895
0.780 0.966 4.880
0.959 1.156 4.997
0.261 1.278 4.855
0.569 1.406 5.420
0.775 1.136 5.430
0.666 1.160 5.267
1.146 0.860 5.255
0.084 1.361 5.642
0.594 0.950 5.340
0.523 0.870 5.639
0.995 0.971 5.407
1.455 0.583 5.523
1.289 0.806 5.822
0.498 1.170 5.593
0.654 1.089 5.572
0.822 0.678 6.013
1.291 0.797 6.062
1.325 0.517 6.164
1.094 0.717 6.122
0.808 0.943 6.181
0.769 0.918 6.079
1.166 0.834 6.005
1.320 0.660 6.239
2.740 0.064 0.832
2.781 0.006 0.768
0.883 1.217 -0.026
2.521 0.452 0.869
2.693 0.188 0.712
2.778 0.330 0.746
2.869 0.086 1.020
0.837 1.255 0.146
1.085 1.212 0.223
2.429 0.088 0.763
2.949 0.271 1.526
0.830 1.063 0.473
0.891 1.304 0.656
1.179 1.080 0.626
0.517 1.359 0.771
0.967 1.063 0.668
0.752 0.909 1.020
1.018 1.127 1.088
0.717 1.112 1.241
0.832 1.000 1.125
0.677 1.132 1.159
0.941 0.958 1.545
1.148 0.641 1.440
0.563 1.080 1.560
0.954 1.130 1.703
1.214 1.221 1.457
1.075 1.020 1.538
1.453 0.821 1.464
0.803 1.335 1.990
1.014 1.232 1.951
1.151 0.923 1.765
1.686 0.692 1.873
1.816 0.644 1.945
0.876 0.866 2.244
0.980 1.116 2.392
1.402 0.557 2.044
1.585 0.518 2.075
2.010 0.620 2.548
0.931 1.154 2.207
1.539 0.882 2.516
1.422 0.666 2.389
1.926 0.678 2.725
2.253 0.671 2.723
2.123 0.336 3.165
1.364 0.724 2.744
1.541 0.785 2.862
1.951 0.526 3.062
2.050 0.553 2.746
2.199 0.198 2.828
2.307 0.607 3.086
2.090 0.100 3.315
1.340 0.710 2.959
1.822 0.556 3.006
1.755 0.738 3.124
2.017 0.345 3.472
2.119 0.185 3.739
2.079 0.105 3.642
2.665 0.182 3.532
1.399 0.479 3.497
1.918 0.558 3.179
2.245 0.149 3.656
1.975 -0.059 3.651
2.120 0.001 3.295
1.074 0.766 3.438
1.670 0.332 3.483
1.675 0.413 3.340
1.736 0.052 3.590
2.005 0.121 3.495
2.032 0.042 3.665
1.325 0.350 3.630
1.366 0.372 3.605
1.819 0.143 3.536
2.134 0.012 3.985
0.092 0.859 3.900
0.103 0.860 4.411
0.093 0.789 4.326
0.512 0.641 4.457
0.903 0.781 4.414
0.146 1.059 4.826
0.158 1.051 4.489
0.571 0.574 4.629
0.882 0.738 4.662
0.327 0.894 4.714
0.260 1.164 4.708
0.603 0.897 5.129
0.672 0.871 5.128
0.822 0.719 4.856
1.456 0.507 4.958
0.254 0.918 4.825
0.201 0.799 5.319
0.372 0.972 5.073
0.699 0.716 5.376
1.047 0.544 5.105
1.389 0.538 5.323
1.228 0.429 5.988
0.103 0.965 5.154
0.455 1.021 5.418
0.558 0.737 5.407
0.763 0.570 5.528
0.969 0.483 5.723
1.393 0.270 5.814
1.021 0.605 5.816
1.678 0.438 5.846
0.073 0.992 5.472
0.518 0.892 5.660
0.594 0.853 5.544
0.699 0.744 6.001
0.928 0.645 6.129
1.219 0.511 5.939
0.992 0.294 6.329
0.053 0.917 6.095
0.357 1.056 5.869
0.724 1.024 6.065
0.632 0.842 5.895
1.138 0.474 6.002
1.339 0.588 6.393
2.423 0.410 0.673
2.612 0.164 0.415
0.729 0.830 0.869
1.109 0.567 1.132
0.659 0.707 1.388
1.064 1.031 1.293
1.268 0.776 1.475
1.465 0.420 1.379
1.374 0.696 1.695
0.720 0.973 1.521
1.049 0.671 1.458
1.020 0.873 1.494
1.646 0.336 1.634
1.516 0.272 1.852
0.630 0.676 1.845
0.688 1.014 1.800
1.364 0.720 1.944
1.098 0.374 1.832
1.528 0.633 1.841
1.733 0.157 1.887
1.767 0.418 2.053
0.472 1.111 1.801
0.819 0.740 2.114
1.183 0.445 1.873
1.155 0.758 1.989
1.611 0.191 2.364
1.605 0.098 2.124
1.889 0.181 2.554
2.249 0.212 2.595
0.888 0.823 2.561
1.075 0.619 2.513
1.383 0.835 2.669
1.321 0.233 2.503
1.740 0.166 2.619
1.956 0.286 2.712
2.303 0.253 2.668
1.986 0.064 2.993
2.007 -0.037 2.824
0.673 0.628 2.496
1.161 0.652 2.879
1.210 0.669 2.952
1.783 0.175 2.760
1.901 0.268 2.670
1.792 0.220 2.858
1.715 0.253 3.319
2.189 -0.164 3.273
0.653 0.487 2.676
0.937 0.642 2.887
1.508 0.395 2.768
1.388 0.285 3.230
1.548 0.448 3.039
2.204 0.002 3.024
2.091 0.347 3.533
2.193 0.108 3.784
1.393 0.609 3.453
1.496 0.532 3.465
1.659 0.429 3.536
2.007 0.169 3.224
0.651 0.265 3.131
1.367 0.451 3.402
1.084 0.264 3.164
1.346 -0.140 3.283
1.402 0.252 3.680
1.539 0.067 3.404
0.548 0.459 4.253
0.595 0.504 4.392
0.064 1.045 4.785
0.013 0.785 4.615
0.507 0.482 4.845
0.707 0.196 4.946
1.017 0.100 5.074
0.141 0.940 4.660
0.301 0.678 4.717
0.524 0.490 5.017
0.978 0.490 5.238
1.088 0.114 5.383
1.187 0.358 5.707
0.010 0.617 5.335
0.606 0.517 5.225
0.377 0.651 5.121
0.935 0.427 5.518
1.157 0.183 5.619
1.199 0.218 5.310
1.130 0.356 5.524
0.028 0.608 5.455
0.252 0.390 5.311
0.695 0.326 5.703
0.913 0.591 5.520
0.801 0.396 5.687
1.376 0.362 5.922
0.872 -0.014 6.228
1.225 -0.017 5.929
0.135 0.843 5.755
0.629 0.516 5.924
0.497 0.291 5.963
0.807 0.150 5.776
1.009 0.270 5.995
1.140 -0.010 6.262
0.168 0.559 6.087
0.313 0.404 5.863
0.377 0.460 5.917
0.905 0.055 6.429
1.143 0.002 6.294
0.256 0.546 6.441
0.986 0.546 1.410
1.577 0.221 1.173
0.938 0.272 1.621
0.971 0.490 1.601
1.469 0.044 1.579
1.439 0.280 1.799
1.608 -0.028 1.798
0.698 0.575 1.575
0.754 0.618 2.022
0.743 0.325 2.064
1.259 0.098 1.814
1.675 0.299 2.102
1.855 0.273 2.044
0.695 0.434 2.092
0.967 0.409 2.239
1.045 0.452 2.269
0.987 0.489 2.232
1.490 0.002 2.361
1.406 0.134 2.218
0.674 0.661 2.223
1.069 0.391 2.586
0.993 0.472 2.228
1.173 0.006 2.758
1.701 0.023 2.609
0.570 0.667 2.600
0.798 0.565 2.426
1.066 0.142 2.738
1.208 0.352 2.694
1.621 -0.057 2.866
1.809 0.099 3.082
0.688 0.261 2.653
0.868 0.530 3.043
1.039 0.357 2.979
1.264 -0.034 2.883
1.795 0.219 3.187
0.696 0.367 3.248
1.311 0.474 3.153
1.581 0.337 3.089
1.460 0.028 3.590
0.735 0.477 2.909
0.594 0.122 3.060
1.199 -0.173 3.031
0.166 0.412 4.625
0.609 0.257 4.603
0.562 0.029 4.992
0.981 0.333 4.782
0.312 0.501 4.988
0.180 0.115 5.091
0.530 0.281 5.018
0.783 0.178 4.942
-0.120 0.537 4.998
0.165 0.600 5.276
0.555 0.242 5.512
0.460 -0.000 5.156
0.696 -0.084 5.187
0.025 0.260 5.265
0.616 0.088 5.540
0.523 -0.006 5.446
0.680 0.218 5.703
0.204 0.154 5.567
0.476 0.253 5.563
0.357 -0.057 5.762
0.938 0.001 5.689
0.094 0.225 5.723
0.178 0.410 6.216
0.589 0.205 6.073
0.919 -0.152 5.948
0.268 0.553 6.326
0.956 0.114 1.736
0.955 0.111 1.441
0.868 0.223 1.733
0.754 0.044 2.035
0.947 -0.125 2.097
0.391 0.286 2.128
0.721 0.120 2.172
1.122 0.050 2.276
0.360 0.538 2.288
0.725 0.144 2.428
1.187 0.140 2.346
0.329 0.371 2.419
0.887 0.310 2.724
1.039 -0.024 2.459
0.936 0.227 2.616
0.324 0.615 2.628
0.783 0.107 2.723
0.577 -0.059 2.796
0.908 -0.145 3.102
0.581 0.105 2.959
0.763 -0.002 3.399
0.963 -0.119 3.245
0.076 0.357 2.991
0.596 0.196 3.275
0.141 0.249 3.276
0.350 0.043 4.566
0.433 0.109 5.014
0.137 0.196 5.159
0.174 -0.026 5.009
0.261 0.179 5.528
0.023 -0.115 5.632
0.057 0.022 5.823
-0.099 -0.108 5.868
0.005 0.209 6.297
0.541 0.329 2.153
0.603 0.168 2.231
0.257 0.453 2.716
0.176 0.085 2.494
0.767 0.019 2.679
0.042 0.394 2.873
0.250 0.374 2.568
0.708 0.106 2.632
0.399 -0.002 3.217
0.252 -0.124 3.290
4.953 4.006 3.749
5.187 4.110 4.155
5.526 3.742 3.907
5.746 3.559 4.334
5.852 3.883 4.179
2.524 5.417 2.996
2.721 5.419 2.991
3.051 5.326 3.029
3.186 4.919 3.352
3.051 5.026 3.349
4.709 4.376 4.139
5.206 4.045 4.330
5.156 3.793 4.514
5.675 3.901 4.383
5.647 3.788 4.440
2.074 5.552 3.230
2.462 5.615 3.477
2.705 5.594 3.671
2.990 5.113 3.430
2.805 5.080 3.403
4.408 4.542 4.218
4.656 4.167 4.156
5.006 3.995 4.561
5.365 4.002 4.625
5.599 3.821 4.601
1.970 5.753 3.618
2.442 5.788 3.493
2.388 5.231 3.909
2.465 5.589 3.788
4.111 4.307 4.418
