-1.967 -1.084 3.066
-2.388 -2.741 3.184
-2.459 -3.017 3.204
-2.529 -3.293 3.224
-2.599 -3.569 3.243
-2.669 -3.845 3.263
-2.739 -4.122 3.283
-1.616 0.297 2.968
-1.673 0.331 3.246
-1.743 0.055 3.266
-1.813 -0.221 3.285
-1.883 -0.498 3.305
-1.954 -0.774 3.325
-2.024 -1.050 3.344
-2.445 -2.707 3.462
-2.515 -2.983 3.482
-2.585 -3.259 3.502
-2.656 -3.535 3.521
-2.726 -3.811 3.541
-2.796 -4.087 3.560
-1.673 0.331 3.246
-1.729 0.365 3.524
-1.800 0.089 3.544
-1.870 -0.187 3.563
-1.940 -0.463 3.583
-2.010 -0.740 3.603
-2.080 -1.016 3.622
-2.502 -2.673 3.740
-2.572 -2.949 3.760
-2.642 -3.225 3.779
-2.712 -3.501 3.799
-2.782 -3.777 3.819
-2.852 -4.053 3.838
-1.729 0.365 3.524
-1.786 0.399 3.802
-1.856 0.123 3.821
-1.926 -0.153 3.841
-1.997 -0.429 3.861
-2.067 -0.705 3.880
-2.137 -0.982 3.900
-2.558 -2.638 4.018
-2.628 -2.915 4.038
-2.698 -3.191 4.057
-2.769 -3.467 4.077
-2.839 -3.743 4.097
-2.909 -4.019 4.116
-1.786 0.399 3.802
-1.913 0.157 4.099
-1.983 -0.119 4.119
-2.053 -0.395 4.139
-2.123 -0.671 4.158
-2.194 -0.947 4.178
-2.685 -2.880 4.315
-2.755 -3.157 4.335
-2.825 -3.433 4.355
-2.895 -3.709 4.374
-2.966 -3.985 4.394
-2.252 0.362 5.766
-2.322 0.086 5.786
-2.393 -0.190 5.806
-2.463 -0.466 5.825
-3.024 -2.675 5.983
-3.095 -2.952 6.002
-3.165 -3.228 6.022
-3.235 -3.504 6.041
-0.994 -0.079 -0.088
-1.064 -0.355 -0.068
-1.134 -0.631 -0.049
-1.205 -0.907 -0.029
-1.275 -1.184 -0.010
-1.345 -1.460 0.010
-1.766 -3.117 0.128
-1.836 -3.393 0.148
-1.906 -3.669 0.167
-1.977 -3.945 0.187
-2.047 -4.221 0.207
-2.117 -4.497 0.226
-0.994 -0.079 -0.088
-1.051 -0.045 0.190
-1.121 -0.321 0.209
-1.191 -0.597 0.229
-1.261 -0.873 0.249
-1.331 -1.149 0.268
-1.401 -1.426 0.288
-1.823 -3.082 0.406
-1.893 -3.359 0.426
-1.963 -3.635 0.445
-2.033 -3.911 0.465
-2.103 -4.187 0.484
-2.174 -4.463 0.504
-1.051 -0.045 0.190
-1.107 -0.011 0.468
-1.177 -0.287 0.487
-1.247 -0.563 0.507
-1.318 -0.839 0.527
-1.388 -1.115 0.546
-1.458 -1.391 0.566
-1.879 -3.048 0.684
-1.949 -3.324 0.703
-2.020 -3.601 0.723
-2.090 -3.877 0.743
-2.160 -4.153 0.762
-2.230 -4.429 0.782
-1.107 -0.011 0.468
-1.164 0.023 0.745
-1.234 -0.253 0.765
-1.304 -0.529 0.785
-1.374 -0.805 0.804
-1.444 -1.081 0.824
-1.515 -1.357 0.844
-1.936 -3.014 0.962
-2.006 -3.290 0.981
-2.076 -3.566 1.001
-2.146 -3.843 1.021
-2.217 -4.119 1.040
-2.287 -4.395 1.060
-1.164 0.023 0.745
-1.290 -0.219 1.043
-1.361 -0.495 1.063
-1.431 -0.771 1.082
-1.501 -1.047 1.102
-1.571 -1.323 1.122
-2.063 -3.256 1.259
-2.133 -3.532 1.279
-2.203 -3.808 1.298
-2.273 -4.085 1.318
-2.343 -4.361 1.338
-1.630 -0.014 2.710
-1.700 -0.290 2.730
-1.770 -0.566 2.749
-1.840 -0.842 2.769
-2.402 -3.051 2.926
-2.472 -3.327 2.946
-2.542 -3.603 2.965
-2.613 -3.880 2.985
-1.831 0.327 2.627
-1.901 0.051 2.647
-1.971 -0.225 2.667
-2.041 -0.501 2.686
-2.603 -2.711 2.843
-2.673 -2.987 2.863
-2.743 -3.263 2.883
-2.813 -3.539 2.902
-1.831 0.327 2.627
-1.887 0.361 2.905
-1.957 0.085 2.925
-2.028 -0.191 2.944
-2.098 -0.467 2.964
-2.168 -0.743 2.984
-2.659 -2.676 3.121
-2.730 -2.953 3.141
-2.800 -3.229 3.161
-2.870 -3.505 3.180
-2.940 -3.781 3.200
-1.887 0.361 2.905
-1.944 0.395 3.183
-2.014 0.119 3.203
-2.084 -0.157 3.222
-2.154 -0.433 3.242
-2.225 -0.709 3.262
-2.295 -0.985 3.281
-2.716 -2.642 3.399
-2.786 -2.918 3.419
-2.856 -3.195 3.438
-2.927 -3.471 3.458
-2.997 -3.747 3.478
-3.067 -4.023 3.497
-1.944 0.395 3.183
-2.000 0.429 3.461
-2.071 0.153 3.480
-2.141 -0.123 3.500
-2.211 -0.399 3.520
-2.281 -0.675 3.539
-2.351 -0.951 3.559
-2.773 -2.608 3.677
-2.843 -2.884 3.697
-2.913 -3.160 3.716
-2.983 -3.437 3.736
-3.053 -3.713 3.756
-3.123 -3.989 3.775
-2.000 0.429 3.461
-2.127 0.187 3.758
-2.197 -0.089 3.778
-2.268 -0.365 3.798
-2.338 -0.641 3.817
-2.408 -0.917 3.837
-2.899 -2.850 3.974
-2.969 -3.126 3.994
-3.040 -3.402 4.014
-3.110 -3.679 4.033
-3.180 -3.955 4.053
-2.254 -0.055 4.056
-2.324 -0.331 4.075
-2.394 -0.607 4.095
-2.465 -0.883 4.115
-3.026 -3.092 4.272
-3.096 -3.368 4.292
-3.166 -3.644 4.311
-3.237 -3.921 4.331
-2.453 0.703 5.684
-2.523 0.426 5.703
-2.593 0.150 5.723
-2.664 -0.126 5.743
-3.225 -2.335 5.900
-3.295 -2.611 5.919
-3.366 -2.887 5.939
-3.436 -3.163 5.959
-2.453 0.703 5.684
-1.265 -0.015 -0.151
-1.335 -0.291 -0.132
-1.405 -0.567 -0.112
-1.476 -0.843 -0.092
-1.546 -1.119 -0.073
-2.037 -3.052 0.065
-2.107 -3.328 0.085
-2.177 -3.604 0.104
-2.248 -3.881 0.124
-2.318 -4.157 0.144
-1.265 -0.015 -0.151
-1.322 0.020 0.127
-1.392 -0.257 0.146
-1.462 -0.533 0.166
-1.532 -0.809 0.186
-1.602 -1.085 0.205
-1.672 -1.361 0.225
-2.094 -3.018 0.343
-2.164 -3.294 0.362
-2.234 -3.570 0.382
-2.304 -3.846 0.402
-2.374 -4.123 0.421
-2.445 -4.399 0.441
-1.322 0.020 0.127
-1.378 0.054 0.404
-1.448 -0.222 0.424
-1.518 -0.499 0.444
-1.589 -0.775 0.463
-1.659 -1.051 0.483
-1.729 -1.327 0.503
-2.150 -2.984 0.621
-2.220 -3.260 0.640
-2.291 -3.536 0.660
-2.361 -3.812 0.680
-2.431 -4.088 0.699
-2.501 -4.365 0.719
-1.378 0.054 0.404
-1.505 -0.188 0.702
-1.575 -0.464 0.722
-1.645 -0.741 0.741
-1.715 -1.017 0.761
-1.786 -1.293 0.781
-2.277 -3.226 0.918
-2.347 -3.502 0.938
-2.417 -3.778 0.957
-2.488 -4.054 0.977
-2.558 -4.330 0.997
-1.632 -0.430 0.999
-1.702 -0.706 1.019
-1.772 -0.983 1.039
-1.842 -1.259 1.058
-2.404 -3.468 1.216
-2.474 -3.744 1.235
-2.544 -4.020 1.255
-2.614 -4.296 1.275
-1.831 0.327 2.627
-1.901 0.051 2.647
-1.971 -0.225 2.667
-2.041 -0.501 2.686
-2.603 -2.711 2.843
-2.673 -2.987 2.863
-2.743 -3.263 2.883
-2.813 -3.539 2.902
-1.831 0.327 2.627
-2.102 0.391 2.564
-2.172 0.115 2.584
-2.242 -0.161 2.603
-2.804 -2.370 2.761
-2.874 -2.646 2.780
-2.944 -2.922 2.800
-3.014 -3.199 2.820
-2.032 0.667 2.545
-2.102 0.391 2.564
-2.158 0.425 2.842
-2.228 0.149 2.862
-2.299 -0.127 2.881
-2.369 -0.403 2.901
-2.930 -2.612 3.058
-3.001 -2.888 3.078
-3.071 -3.164 3.097
-3.141 -3.441 3.117
-2.158 0.425 2.842
-2.215 0.460 3.120
-2.285 0.183 3.140
-2.355 -0.093 3.159
-2.425 -0.369 3.179
-2.496 -0.645 3.198
-2.987 -2.578 3.336
-3.057 -2.854 3.356
-3.127 -3.130 3.375
-3.198 -3.406 3.395
-3.268 -3.682 3.415
-2.215 0.460 3.120
-2.342 0.218 3.417
-2.412 -0.059 3.437
-2.482 -0.335 3.457
-2.552 -0.611 3.476
-2.622 -0.887 3.496
-3.114 -2.820 3.634
-3.184 -3.096 3.653
-3.254 -3.372 3.673
-3.324 -3.648 3.692
-3.394 -3.924 3.712
-2.468 -0.024 3.715
-2.539 -0.300 3.735
-2.609 -0.577 3.754
-2.679 -0.853 3.774
-3.240 -3.062 3.931
-3.311 -3.338 3.951
-3.381 -3.614 3.970
-3.451 -3.890 3.990
-2.595 -0.266 4.012
-2.665 -0.542 4.032
-2.736 -0.819 4.052
-2.806 -1.095 4.071
-3.367 -3.304 4.229
-3.437 -3.580 4.248
-3.508 -3.856 4.268
-3.578 -4.132 4.287
-2.792 -0.784 4.330
-2.862 -1.061 4.349
-3.564 -3.822 4.546
-3.634 -4.098 4.565
-2.667 0.733 5.343
-3.369 -2.029 5.539
-3.440 -2.305 5.559
-2.597 1.009 5.323
-2.667 0.733 5.343
-2.724 0.767 5.621
-2.794 0.491 5.640
-2.864 0.215 5.660
-3.426 -1.994 5.817
-3.496 -2.271 5.837
-3.566 -2.547 5.856
-3.636 -2.823 5.876
-2.654 1.043 5.601
-2.724 0.767 5.621
-1.536 0.050 -0.214
-1.606 -0.226 -0.195
-1.676 -0.502 -0.175
-1.747 -0.779 -0.155
-2.308 -2.988 0.002
-2.378 -3.264 0.022
-2.448 -3.540 0.041
-2.519 -3.816 0.061
-1.536 0.050 -0.214
-1.593 0.084 0.064
-1.663 -0.192 0.083
-1.733 -0.468 0.103
-1.803 -0.744 0.122
-1.873 -1.021 0.142
-2.365 -2.954 0.280
-2.435 -3.230 0.299
-2.505 -3.506 0.319
-2.575 -3.782 0.339
-2.645 -4.058 0.358
-1.593 0.084 0.064
-1.719 -0.158 0.361
-1.789 -0.434 0.381
-1.860 -0.710 0.400
-1.930 -0.986 0.420
-2.000 -1.263 0.440
-2.491 -3.196 0.577
-2.562 -3.472 0.597
-2.632 -3.748 0.616
-2.702 -4.024 0.636
-2.772 -4.300 0.656
-1.846 -0.400 0.659
-1.916 -0.676 0.678
-1.986 -0.952 0.698
-2.057 -1.228 0.717
-2.618 -3.438 0.875
-2.688 -3.714 0.894
-2.759 -3.990 0.914
-2.829 -4.266 0.934
-1.973 -0.642 0.956
-2.043 -0.918 0.976
-2.113 -1.194 0.995
-2.183 -1.470 1.015
-2.745 -3.680 1.172
-2.815 -3.956 1.192
-2.885 -4.232 1.211
-2.955 -4.508 1.231
-2.170 -1.160 1.273
-2.240 -1.436 1.293
-2.942 -4.198 1.489
-3.012 -4.474 1.509
-2.045 0.357 2.286
-2.747 -2.404 2.483
-2.817 -2.680 2.502
-1.975 0.633 2.267
-2.045 0.357 2.286
-2.102 0.391 2.564
-2.172 0.115 2.584
-2.242 -0.161 2.603
-2.804 -2.370 2.761
-2.874 -2.646 2.780
-2.944 -2.922 2.800
-3.014 -3.199 2.820
-2.032 0.667 2.545
-2.102 0.391 2.564
-2.373 0.456 2.501
-2.443 0.180 2.521
-3.004 -2.030 2.678
-3.075 -2.306 2.698
-3.145 -2.582 2.717
-3.215 -2.858 2.737
-3.776 -5.067 2.894
-2.302 0.732 2.481
-2.373 0.456 2.501
-2.429 0.490 2.779
-2.499 0.214 2.799
-3.201 -2.548 2.995
-3.272 -2.824 3.015
-2.429 0.490 2.779
-3.007 -0.754 3.989
-3.077 -1.030 4.008
-3.779 -3.792 4.205
-3.849 -4.068 4.224
-3.063 -0.720 4.266
-3.133 -0.996 4.286
-3.203 -1.272 4.306
-3.274 -1.548 4.325
-3.835 -3.758 4.483
-3.905 -4.034 4.502
-3.976 -4.310 4.522
-4.046 -4.586 4.542
-3.190 -0.962 4.564
-3.260 -1.238 4.584
-3.330 -1.514 4.603
-3.400 -1.790 4.623
-3.962 -4.000 4.780
-4.032 -4.276 4.800
-4.102 -4.552 4.819
-4.173 -4.828 4.839
-3.246 -0.928 4.842
-3.317 -1.204 4.861
-3.387 -1.480 4.881
-3.457 -1.756 4.901
-3.527 -2.032 4.920
-4.019 -3.965 5.058
-4.089 -4.242 5.078
-4.159 -4.518 5.097
-4.229 -4.794 5.117
-2.755 1.005 4.704
-2.882 0.763 5.002
-3.373 -1.170 5.139
-3.443 -1.446 5.159
-3.514 -1.722 5.179
-3.584 -1.998 5.198
-3.654 -2.274 5.218
-4.145 -4.207 5.355
-4.215 -4.484 5.375
-4.286 -4.760 5.395
-2.812 1.039 4.982
-2.882 0.763 5.002
-2.938 0.797 5.280
-3.500 -1.412 5.437
-3.570 -1.688 5.456
-3.640 -1.964 5.476
-3.711 -2.240 5.496
-4.272 -4.449 5.653
-4.342 -4.726 5.673
-2.868 1.073 5.260
-2.938 0.797 5.280
-2.995 0.831 5.557
-3.065 0.555 5.577
-3.627 -1.654 5.734
-3.697 -1.930 5.754
-3.767 -2.206 5.774
-3.837 -2.482 5.793
-4.399 -4.691 5.950
-2.925 1.108 5.538
-2.995 0.831 5.557
-1.807 0.114 -0.277
-1.877 -0.162 -0.258
-2.579 -2.923 -0.061
-2.649 -3.200 -0.042
-1.807 0.114 -0.277
-2.384 -1.130 0.932
-2.454 -1.406 0.952
-3.156 -4.167 1.148
-3.226 -4.444 1.168
-2.441 -1.096 1.210
-2.511 -1.372 1.230
-2.581 -1.648 1.249
-2.651 -1.924 1.269
-3.213 -4.133 1.426
-3.283 -4.409 1.446
-3.353 -4.686 1.466
-3.423 -4.962 1.485
-2.568 -1.338 1.508
-2.638 -1.614 1.527
-2.708 -1.890 1.547
-2.778 -2.166 1.567
-3.340 -4.375 1.724
-3.410 -4.651 1.743
-3.480 -4.928 1.763
-3.550 -5.204 1.783
-2.624 -1.304 1.785
-2.694 -1.580 1.805
-2.764 -1.856 1.825
-2.835 -2.132 1.844
-2.905 -2.408 1.864
-3.396 -4.341 2.002
-3.466 -4.617 2.021
-3.537 -4.893 2.041
-3.607 -5.170 2.061
-2.133 0.629 1.648
-2.260 0.387 1.945
-2.751 -1.546 2.083
-2.821 -1.822 2.103
-2.891 -2.098 2.122
-2.961 -2.374 2.142
-3.032 -2.650 2.162
-3.523 -4.583 2.299
-3.593 -4.859 2.319
-3.663 -5.135 2.338
-2.189 0.664 1.926
-2.260 0.387 1.945
-2.316 0.422 2.223
-2.878 -1.788 2.380
-2.948 -2.064 2.400
-3.018 -2.340 2.420
-3.088 -2.616 2.439
-3.650 -4.825 2.597
-3.720 -5.101 2.616
-2.246 0.698 2.204
-2.316 0.422 2.223
-2.373 0.456 2.501
-2.443 0.180 2.521
-3.004 -2.030 2.678
-3.075 -2.306 2.698
-3.145 -2.582 2.717
-3.215 -2.858 2.737
-3.776 -5.067 2.894
-2.302 0.732 2.481
-2.373 0.456 2.501
-2.644 0.520 2.438
-3.205 -1.689 2.595
-3.275 -1.965 2.615
-3.346 -2.241 2.634
-3.416 -2.517 2.654
-3.977 -4.727 2.811
-4.047 -5.003 2.831
-2.573 0.796 2.418
-2.644 0.520 2.438
-3.404 -0.932 4.223
-3.474 -1.208 4.243
-3.545 -1.484 4.262
-3.615 -1.760 4.282
-4.176 -3.969 4.439
-4.247 -4.246 4.459
-4.317 -4.522 4.478
-4.387 -4.798 4.498
-3.461 -0.898 4.501
-3.531 -1.174 4.520
-3.601 -1.450 4.540
-3.671 -1.726 4.560
-3.742 -2.002 4.579
-4.233 -3.935 4.717
-4.303 -4.211 4.737
-4.373 -4.488 4.756
-4.444 -4.764 4.776
-2.970 1.035 4.363
-3.096 0.793 4.661
-3.517 -0.864 4.779
-3.588 -1.140 4.798
-3.658 -1.416 4.818
-3.728 -1.692 4.838
-3.798 -1.968 4.857
-3.868 -2.244 4.877
-4.290 -3.901 4.995
-4.360 -4.177 5.014
-4.430 -4.453 5.034
-4.500 -4.729 5.054
-3.026 1.069 4.641
-3.096 0.793 4.661
-3.153 0.827 4.939
-3.574 -0.829 5.057
-3.644 -1.106 5.076
-3.714 -1.382 5.096
-3.785 -1.658 5.115
-3.855 -1.934 5.135
-3.925 -2.210 5.155
-4.346 -3.867 5.273
-4.416 -4.143 5.292
-4.486 -4.419 5.312
-4.557 -4.695 5.332
-3.083 1.104 4.919
-3.153 0.827 4.939
-3.209 0.862 5.216
-3.701 -1.071 5.354
-3.771 -1.347 5.374
-3.841 -1.624 5.393
-3.911 -1.900 5.413
-3.982 -2.176 5.433
-4.473 -4.109 5.570
-4.543 -4.385 5.590
-4.613 -4.661 5.609
-3.139 1.138 5.197
-3.209 0.862 5.216
-3.266 0.896 5.494
-3.828 -1.313 5.652
-3.898 -1.589 5.671
-3.968 -1.866 5.691
-4.038 -2.142 5.710
-4.600 -4.351 5.868
-4.670 -4.627 5.887
-3.196 1.172 5.475
-3.266 0.896 5.494
-2.782 -1.308 1.167
-2.852 -1.584 1.186
-2.922 -1.860 1.206
-2.993 -2.136 1.226
-3.554 -4.345 1.383
-3.624 -4.621 1.402
-3.694 -4.897 1.422
-3.765 -5.173 1.442
-2.839 -1.273 1.444
-2.909 -1.549 1.464
-2.979 -1.826 1.484
-3.049 -2.102 1.503
-3.119 -2.378 1.523
-3.611 -4.311 1.661
-3.681 -4.587 1.680
-3.751 -4.863 1.700
-3.821 -5.139 1.720
-2.347 0.660 1.307
-2.474 0.418 1.604
-2.895 -1.239 1.722
-2.965 -1.515 1.742
-3.035 -1.791 1.762
-3.106 -2.068 1.781
-3.176 -2.344 1.801
-3.246 -2.620 1.821
-3.667 -4.277 1.939
-3.737 -4.553 1.958
-3.808 -4.829 1.978
-3.878 -5.105 1.997
-2.404 0.694 1.585
-2.474 0.418 1.604
-2.531 0.452 1.882
-2.952 -1.205 2.000
-3.022 -1.481 2.020
-3.092 -1.757 2.039
-3.162 -2.033 2.059
-3.232 -2.310 2.079
-3.303 -2.586 2.098
-3.724 -4.243 2.216
-3.794 -4.519 2.236
-3.864 -4.795 2.256
-3.934 -5.071 2.275
-2.460 0.728 1.863
-2.531 0.452 1.882
-2.587 0.486 2.160
-3.078 -1.447 2.298
-3.149 -1.723 2.317
-3.219 -1.999 2.337
-3.289 -2.275 2.357
-3.359 -2.552 2.376
-3.851 -4.485 2.514
-3.921 -4.761 2.534
-3.991 -5.037 2.553
-2.517 0.762 2.140
-2.587 0.486 2.160
-2.644 0.520 2.438
-3.205 -1.689 2.595
-3.275 -1.965 2.615
-3.346 -2.241 2.634
-3.416 -2.517 2.654
-3.977 -4.727 2.811
-4.047 -5.003 2.831
-2.573 0.796 2.418
-2.644 0.520 2.438
-3.406 -1.348 2.512
-3.476 -1.625 2.532
-3.546 -1.901 2.552
-3.617 -2.177 2.571
-4.178 -4.386 2.729
-4.248 -4.662 2.748
-4.318 -4.938 2.768
-2.844 0.861 2.355
-3.675 -0.867 4.160
-3.745 -1.144 4.180
-3.816 -1.420 4.199
-3.886 -1.696 4.219
-3.956 -1.972 4.238
-4.447 -3.905 4.376
-4.518 -4.181 4.396
-4.588 -4.457 4.415
-4.658 -4.733 4.435
-3.184 1.066 4.022
-3.311 0.824 4.320
-3.732 -0.833 4.438
-3.802 -1.109 4.457
-3.872 -1.386 4.477
-3.942 -1.662 4.497
-4.013 -1.938 4.516
-4.083 -2.214 4.536
-4.504 -3.871 4.654
-4.574 -4.147 4.674
-4.644 -4.423 4.693
-4.715 -4.699 4.713
-3.241 1.100 4.300
-3.311 0.824 4.320
-3.367 0.858 4.598
-3.788 -0.799 4.716
-3.859 -1.075 4.735
-3.929 -1.351 4.755
-3.999 -1.628 4.775
-4.069 -1.904 4.794
-4.139 -2.180 4.814
-4.561 -3.837 4.932
-4.631 -4.113 4.951
-4.701 -4.389 4.971
-4.771 -4.665 4.991
-3.297 1.134 4.578
-3.367 0.858 4.598
-3.424 0.892 4.876
-3.845 -0.765 4.993
-3.915 -1.041 5.013
-3.985 -1.317 5.033
-4.056 -1.593 5.052
-4.126 -1.870 5.072
-4.196 -2.146 5.092
-4.617 -3.803 5.210
-4.687 -4.079 5.229
-4.757 -4.355 5.249
-4.828 -4.631 5.269
-3.354 1.168 4.856
-3.424 0.892 4.876
-3.480 0.926 5.153
-3.902 -0.731 5.271
-3.972 -1.007 5.291
-4.042 -1.283 5.311
-4.112 -1.559 5.330
-4.182 -1.835 5.350
-4.253 -2.112 5.370
-4.674 -3.768 5.487
-4.744 -4.045 5.507
-4.814 -4.321 5.527
-4.884 -4.597 5.546
-3.410 1.202 5.134
-3.480 0.926 5.153
-4.028 -0.973 5.569
-4.099 -1.249 5.588
-4.169 -1.525 5.608
-4.239 -1.801 5.628
-4.800 -4.010 5.785
-4.871 -4.287 5.805
-4.941 -4.563 5.824
-3.467 1.236 5.412
-3.053 -1.243 1.104
-3.123 -1.519 1.123
-3.193 -1.795 1.143
-3.264 -2.072 1.163
-3.334 -2.348 1.182
-3.825 -4.281 1.320
-3.895 -4.557 1.339
-3.965 -4.833 1.359
-4.036 -5.109 1.379
-2.562 0.690 0.966
-2.688 0.448 1.263
-3.110 -1.209 1.381
-3.180 -1.485 1.401
-3.250 -1.761 1.421
-3.320 -2.037 1.440
-3.390 -2.314 1.460
-3.460 -2.590 1.480
-3.882 -4.247 1.598
-3.952 -4.523 1.617
-4.022 -4.799 1.637
-4.092 -5.075 1.657
-2.618 0.724 1.244
-2.688 0.448 1.263
-2.745 0.482 1.541
-3.166 -1.175 1.659
-3.236 -1.451 1.679
-3.306 -1.727 1.699
-3.377 -2.003 1.718
-3.447 -2.279 1.738
-3.517 -2.556 1.758
-3.938 -4.212 1.875
-4.008 -4.489 1.895
-4.079 -4.765 1.915
-4.149 -5.041 1.934
-2.675 0.758 1.522
-2.745 0.482 1.541
-2.802 0.516 1.819
-3.223 -1.141 1.937
-3.293 -1.417 1.957
-3.363 -1.693 1.976
-3.433 -1.969 1.996
-3.503 -2.245 2.016
-3.574 -2.521 2.035
-3.995 -4.178 2.153
-4.065 -4.454 2.173
-4.135 -4.730 2.193
-4.205 -5.007 2.212
-2.731 0.792 1.800
-2.802 0.516 1.819
-2.858 0.550 2.097
-3.279 -1.107 2.215
-3.349 -1.383 2.235
-3.420 -1.659 2.254
-3.490 -1.935 2.274
-3.560 -2.211 2.294
-3.630 -2.487 2.313
-4.051 -4.144 2.431
-4.122 -4.420 2.451
-4.192 -4.696 2.470
-4.262 -4.972 2.490
-2.788 0.826 2.077
-2.858 0.550 2.097
-3.406 -1.348 2.512
-3.476 -1.625 2.532
-3.546 -1.901 2.552
-3.617 -2.177 2.571
-4.178 -4.386 2.729
-4.248 -4.662 2.748
-4.318 -4.938 2.768
-2.844 0.861 2.355
-3.607 -1.008 2.430
-3.677 -1.284 2.449
-3.747 -1.560 2.469
-3.817 -1.836 2.489
-4.379 -4.046 2.646
-4.449 -4.322 2.666
-4.519 -4.598 2.685
-4.589 -4.874 2.705
-3.525 0.854 3.979
-4.016 -1.079 4.116
-4.087 -1.355 4.136
-4.157 -1.631 4.156
-4.227 -1.908 4.175
-4.297 -2.184 4.195
-4.789 -4.117 4.333
-4.859 -4.393 4.352
-4.929 -4.669 4.372
-3.455 1.130 3.959
-3.525 0.854 3.979
-3.582 0.888 4.257
-4.003 -0.769 4.375
-4.073 -1.045 4.394
-4.143 -1.321 4.414
-4.213 -1.597 4.434
-4.284 -1.873 4.453
-4.354 -2.150 4.473
-4.775 -3.806 4.591
-4.845 -4.083 4.610
-4.915 -4.359 4.630
-4.986 -4.635 4.650
-3.512 1.164 4.237
-3.582 0.888 4.257
-3.638 0.922 4.535
-4.059 -0.735 4.652
-4.130 -1.011 4.672
-4.200 -1.287 4.692
-4.270 -1.563 4.711
-4.340 -1.839 4.731
-4.410 -2.115 4.751
-4.832 -3.772 4.869
-4.902 -4.048 4.888
-4.972 -4.325 4.908
-5.042 -4.601 4.928
-3.568 1.198 4.515
-3.638 0.922 4.535
-3.695 0.956 4.812
-4.116 -0.701 4.930
-4.186 -0.977 4.950
-4.256 -1.253 4.970
-4.327 -1.529 4.989
-4.397 -1.805 5.009
-4.467 -2.081 5.029
-4.888 -3.738 5.146
-4.958 -4.014 5.166
-5.028 -4.290 5.186
-5.099 -4.567 5.205
-3.625 1.232 4.793
-3.695 0.956 4.812
-4.173 -0.666 5.208
-4.243 -0.943 5.228
-4.313 -1.219 5.247
-4.383 -1.495 5.267
-4.453 -1.771 5.287
-4.945 -3.704 5.424
-5.015 -3.980 5.444
-5.085 -4.256 5.464
-5.155 -4.532 5.483
-3.681 1.267 5.071
-4.229 -0.632 5.486
-4.299 -0.908 5.506
-4.370 -1.185 5.525
-4.440 -1.461 5.545
-5.001 -3.670 5.702
-5.071 -3.946 5.722
-5.142 -4.222 5.741
-5.212 -4.498 5.761
-2.903 0.478 0.923
-3.394 -1.455 1.060
-3.464 -1.731 1.080
-3.535 -2.007 1.099
-3.605 -2.283 1.119
-3.675 -2.559 1.139
-4.166 -4.492 1.276
-4.236 -4.769 1.296
-4.307 -5.045 1.316
-2.833 0.754 0.903
-2.903 0.478 0.923
-2.959 0.512 1.200
-3.381 -1.145 1.318
-3.451 -1.421 1.338
-3.521 -1.697 1.358
-3.591 -1.973 1.377
-3.661 -2.249 1.397
-3.731 -2.525 1.417
-4.153 -4.182 1.534
-4.223 -4.458 1.554
-4.293 -4.734 1.574
-4.363 -5.011 1.593
-2.889 0.788 1.181
-2.959 0.512 1.200
-3.016 0.546 1.478
-3.437 -1.110 1.596
-3.507 -1.387 1.616
-3.577 -1.663 1.635
-3.648 -1.939 1.655
-3.718 -2.215 1.675
-3.788 -2.491 1.694
-4.209 -4.148 1.812
-4.279 -4.424 1.832
-4.350 -4.700 1.852
-4.420 -4.976 1.871
-2.946 0.823 1.459
-3.016 0.546 1.478
-3.073 0.581 1.756
-3.494 -1.076 1.874
-3.564 -1.352 1.894
-3.634 -1.629 1.913
-3.704 -1.905 1.933
-3.774 -2.181 1.953
-3.845 -2.457 1.972
-4.266 -4.114 2.090
-4.336 -4.390 2.110
-4.406 -4.666 2.129
-4.476 -4.942 2.149
-3.002 0.857 1.736
-3.073 0.581 1.756
-3.550 -1.042 2.152
-3.620 -1.318 2.171
-3.691 -1.594 2.191
-3.761 -1.871 2.211
-3.831 -2.147 2.230
-4.322 -4.080 2.368
-4.393 -4.356 2.388
-4.463 -4.632 2.407
-4.533 -4.908 2.427
-3.059 0.891 2.014
-3.607 -1.008 2.430
-3.677 -1.284 2.449
-3.747 -1.560 2.469
-3.817 -1.836 2.489
-4.379 -4.046 2.646
-4.449 -4.322 2.666
-4.519 -4.598 2.685
-4.589 -4.874 2.705
-3.808 -0.667 2.347
-3.878 -0.944 2.367
-3.948 -1.220 2.386
-4.018 -1.496 2.406
-4.580 -3.705 2.563
-4.650 -3.981 2.583
-4.720 -4.257 2.602
-4.790 -4.533 2.622
-3.740 0.884 3.638
-4.441 -1.877 3.834
-4.512 -2.154 3.854
-3.669 1.160 3.618
-3.740 0.884 3.638
-3.796 0.918 3.916
-4.358 -1.291 4.073
-4.428 -1.567 4.093
-4.498 -1.843 4.112
-4.568 -2.119 4.132
-5.130 -4.328 4.289
-5.200 -4.605 4.309
-3.726 1.194 3.896
-3.796 0.918 3.916
-3.853 0.952 4.194
-4.344 -0.981 4.331
-4.414 -1.257 4.351
-4.484 -1.533 4.370
-4.555 -1.809 4.390
-4.625 -2.085 4.410
-5.116 -4.018 4.547
-5.186 -4.294 4.567
-5.257 -4.570 4.587
-3.783 1.228 4.174
-3.853 0.952 4.194
-3.909 0.987 4.471
-4.330 -0.670 4.589
-4.401 -0.946 4.609
-4.471 -1.223 4.629
-4.541 -1.499 4.648
-4.611 -1.775 4.668
-4.681 -2.051 4.688
-5.103 -3.708 4.806
-5.173 -3.984 4.825
-5.243 -4.260 4.845
-5.313 -4.536 4.864
-3.839 1.263 4.452
-3.909 0.987 4.471
-4.387 -0.636 4.867
-4.457 -0.912 4.887
-4.527 -1.188 4.907
-4.598 -1.465 4.926
-4.668 -1.741 4.946
-5.159 -3.674 5.083
-5.229 -3.950 5.103
-5.299 -4.226 5.123
-5.370 -4.502 5.142
-3.896 1.297 4.730
-4.373 -0.326 5.125
-4.444 -0.602 5.145
-4.514 -0.878 5.165
-4.584 -1.154 5.184
-4.654 -1.430 5.204
-5.145 -3.363 5.342
-5.216 -3.640 5.361
-5.286 -3.916 5.381
-5.356 -4.192 5.401
-5.426 -4.468 5.420
-4.430 -0.292 5.403
-4.500 -0.568 5.423
-4.570 -0.844 5.443
-4.641 -1.120 5.462
-5.202 -3.329 5.619
-5.272 -3.605 5.639
-5.342 -3.882 5.659
-5.413 -4.158 5.678
-3.117 0.508 0.582
-3.819 -2.253 0.778
-3.889 -2.529 0.798
-3.047 0.785 0.562
-3.117 0.508 0.582
-3.174 0.543 0.859
-3.735 -1.667 1.017
-3.806 -1.943 1.036
-3.876 -2.219 1.056
-3.946 -2.495 1.076
-4.507 -4.704 1.233
-4.578 -4.980 1.252
-3.104 0.819 0.840
-3.174 0.543 0.859
-3.230 0.577 1.137
-3.722 -1.356 1.275
-3.792 -1.632 1.295
-3.862 -1.909 1.314
-3.932 -2.185 1.334
-4.002 -2.461 1.353
-4.494 -4.394 1.491
-4.564 -4.670 1.511
-4.634 -4.946 1.530
-3.160 0.853 1.118
-3.230 0.577 1.137
-3.287 0.611 1.415
-3.708 -1.046 1.533
-3.778 -1.322 1.553
-3.848 -1.598 1.572
-3.919 -1.874 1.592
-3.989 -2.151 1.612
-4.059 -2.427 1.631
-4.480 -4.084 1.749
-4.550 -4.360 1.769
-4.621 -4.636 1.789
-4.691 -4.912 1.808
-3.217 0.887 1.395
-3.287 0.611 1.415
-3.765 -1.012 1.811
-3.835 -1.288 1.831
-3.905 -1.564 1.850
-3.975 -1.840 1.870
-4.045 -2.116 1.890
-4.537 -4.049 2.027
-4.607 -4.326 2.047
-4.677 -4.602 2.066
-4.747 -4.878 2.086
-3.273 0.921 1.673
-3.751 -0.702 2.069
-3.821 -0.978 2.089
-3.891 -1.254 2.108
-3.962 -1.530 2.128
-4.032 -1.806 2.148
-4.523 -3.739 2.285
-4.593 -4.015 2.305
-4.664 -4.291 2.325
-4.734 -4.568 2.344
-4.804 -4.844 2.364
-3.808 -0.667 2.347
-3.878 -0.944 2.367
-3.948 -1.220 2.386
-4.018 -1.496 2.406
-4.580 -3.705 2.563
-4.650 -3.981 2.583
-4.720 -4.257 2.602
-4.790 -4.533 2.622
-4.008 -0.327 2.264
-4.079 -0.603 2.284
-4.149 -0.879 2.304
-4.219 -1.155 2.323
-4.781 -3.364 2.480
-4.851 -3.641 2.500
-4.921 -3.917 2.520
-4.991 -4.193 2.539
-3.995 -0.017 2.522
-4.065 -0.293 2.542
-4.135 -0.569 2.562
-4.205 -0.845 2.581
-4.767 -3.054 2.739
-4.837 -3.330 2.758
-4.907 -3.606 2.778
-4.977 -3.883 2.798
-3.981 0.294 2.781
-4.051 0.018 2.800
-4.122 -0.259 2.820
-4.192 -0.535 2.840
-4.753 -2.744 2.997
-4.823 -3.020 3.016
-4.894 -3.296 3.036
-4.964 -3.572 3.056
-3.968 0.604 3.039
-4.038 0.328 3.058
-4.108 0.052 3.078
-4.178 -0.224 3.098
-4.740 -2.434 3.255
-4.810 -2.710 3.275
-4.880 -2.986 3.294
-4.950 -3.262 3.314
-3.954 0.914 3.297
-4.024 0.638 3.317
-4.094 0.362 3.336
-4.165 0.086 3.356
-4.726 -2.123 3.513
-4.796 -2.399 3.533
-4.866 -2.676 3.552
-4.937 -2.952 3.572
-3.954 0.914 3.297
-4.011 0.948 3.575
-4.081 0.672 3.594
-4.151 0.396 3.614
-4.712 -1.813 3.771
-4.783 -2.089 3.791
-4.853 -2.365 3.811
-4.923 -2.641 3.830
-3.940 1.225 3.555
-4.011 0.948 3.575
-4.067 0.983 3.853
-4.137 0.706 3.872
-4.699 -1.503 4.030
-4.769 -1.779 4.049
-4.839 -2.055 4.069
-4.909 -2.331 4.088
-5.471 -4.540 4.246
-3.997 1.259 3.833
-4.067 0.983 3.853
-4.124 1.017 4.131
-4.685 -1.192 4.288
-4.755 -1.469 4.307
-4.826 -1.745 4.327
-4.896 -2.021 4.347
-5.457 -4.230 4.504
-5.528 -4.506 4.524
-4.054 1.293 4.111
-4.124 1.017 4.131
-4.672 -0.882 4.546
-4.742 -1.158 4.566
-4.812 -1.434 4.585
-4.882 -1.711 4.605
-5.444 -3.920 4.762
-5.514 -4.196 4.782
-5.584 -4.472 4.801
-4.110 1.327 4.389
-4.658 -0.572 4.804
-4.728 -0.848 4.824
-4.798 -1.124 4.843
-4.869 -1.400 4.863
-5.430 -3.609 5.020
-5.500 -3.885 5.040
-5.570 -4.162 5.060
-5.641 -4.438 5.079
-4.644 -0.261 5.062
-4.715 -0.538 5.082
-4.785 -0.814 5.102
-4.855 -1.090 5.121
-5.416 -3.299 5.278
-5.487 -3.575 5.298
-5.557 -3.851 5.318
-5.627 -4.127 5.337
-4.631 0.049 5.321
-4.701 -0.227 5.340
-4.771 -0.503 5.360
-4.841 -0.780 5.379
-5.403 -2.989 5.537
-5.473 -3.265 5.556
-5.543 -3.541 5.576
-5.613 -3.817 5.596
-3.372 -0.392 -0.534
-3.443 -0.668 -0.514
-3.513 -0.945 -0.495
-3.583 -1.221 -0.475
-4.145 -3.430 -0.318
-4.215 -3.706 -0.298
-4.285 -3.982 -0.278
-4.355 -4.258 -0.259
-3.359 -0.082 -0.276
-3.429 -0.358 -0.256
-3.499 -0.634 -0.236
-3.569 -0.910 -0.217
-4.131 -3.120 -0.060
-4.201 -3.396 -0.040
-4.271 -3.672 -0.020
-4.342 -3.948 -0.001
-3.345 0.228 -0.018
-3.415 -0.048 0.002
-3.486 -0.324 0.022
-3.556 -0.600 0.041
-4.117 -2.809 0.199
-4.188 -3.085 0.218
-4.258 -3.362 0.238
-4.328 -3.638 0.258
-3.332 0.539 0.241
-3.402 0.262 0.260
-3.472 -0.014 0.280
-3.542 -0.290 0.300
-4.104 -2.499 0.457
-4.174 -2.775 0.476
-4.244 -3.051 0.496
-4.314 -3.327 0.516
-3.332 0.539 0.241
-3.388 0.573 0.519
-3.458 0.297 0.538
-3.529 0.020 0.558
-4.090 -2.189 0.715
-4.160 -2.465 0.735
-4.231 -2.741 0.754
-4.301 -3.017 0.774
-3.318 0.849 0.499
-3.388 0.573 0.519
-3.445 0.607 0.796
-3.515 0.331 0.816
-4.077 -1.878 0.973
-4.147 -2.155 0.993
-4.217 -2.431 1.013
-4.287 -2.707 1.032
-4.849 -4.916 1.189
-3.375 0.883 0.777
-3.445 0.607 0.796
-3.501 0.641 1.074
-4.063 -1.568 1.231
-4.133 -1.844 1.251
-4.203 -2.120 1.271
-4.273 -2.396 1.290
-4.835 -4.606 1.448
-4.905 -4.882 1.467
-3.431 0.917 1.055
-3.501 0.641 1.074
-4.049 -1.258 1.490
-4.119 -1.534 1.509
-4.190 -1.810 1.529
-4.260 -2.086 1.549
-4.821 -4.295 1.706
-4.892 -4.571 1.725
-4.962 -4.848 1.745
-3.488 0.951 1.332
-4.036 -0.947 1.748
-4.106 -1.224 1.767
-4.176 -1.500 1.787
-4.246 -1.776 1.807
-4.808 -3.985 1.964
-4.878 -4.261 1.984
-4.948 -4.537 2.003
-5.018 -4.813 2.023
-4.022 -0.637 2.006
-4.092 -0.913 2.026
-4.162 -1.189 2.045
-4.233 -1.466 2.065
-4.794 -3.675 2.222
-4.864 -3.951 2.242
-4.935 -4.227 2.261
-5.005 -4.503 2.281
-4.008 -0.327 2.264
-4.079 -0.603 2.284
-4.149 -0.879 2.304
-4.219 -1.155 2.323
-4.781 -3.364 2.480
-4.851 -3.641 2.500
-4.921 -3.917 2.520
-4.991 -4.193 2.539
-4.209 0.014 2.181
-4.279 -0.262 2.201
-4.350 -0.539 2.221
-4.420 -0.815 2.240
-4.981 -3.024 2.398
-5.052 -3.300 2.417
-5.122 -3.576 2.437
-5.192 -3.852 2.457
-4.196 0.324 2.440
-4.266 0.048 2.459
-4.336 -0.228 2.479
-4.406 -0.504 2.499
-4.476 -0.781 2.518
-4.968 -2.714 2.656
-5.038 -2.990 2.675
-5.108 -3.266 2.695
-5.178 -3.542 2.715
-5.248 -3.818 2.734
-4.182 0.634 2.698
-4.252 0.358 2.718
-4.322 0.082 2.737
-4.393 -0.194 2.757
-4.463 -0.470 2.776
-4.954 -2.403 2.914
-5.024 -2.679 2.934
-5.094 -2.956 2.953
-5.165 -3.232 2.973
-5.235 -3.508 2.993
-4.168 0.945 2.956
-4.239 0.668 2.976
-4.309 0.392 2.995
-4.379 0.116 3.015
-4.449 -0.160 3.035
-4.519 -0.436 3.054
-4.940 -2.093 3.172
-5.011 -2.369 3.192
-5.081 -2.645 3.212
-5.151 -2.921 3.231
-5.221 -3.198 3.251
-5.291 -3.474 3.270
-4.168 0.945 2.956
-4.225 0.979 3.234
-4.295 0.703 3.254
-4.365 0.426 3.273
-4.436 0.150 3.293
-4.506 -0.126 3.313
-4.997 -2.059 3.450
-5.067 -2.335 3.470
-5.137 -2.611 3.489
-5.208 -2.887 3.509
-5.278 -3.163 3.529
-4.225 0.979 3.234
-4.282 1.013 3.512
-4.352 0.737 3.531
-4.422 0.461 3.551
-4.492 0.184 3.571
-5.054 -2.025 3.728
-5.124 -2.301 3.748
-5.194 -2.577 3.767
-5.264 -2.853 3.787
-4.282 1.013 3.512
-4.338 1.047 3.790
-4.408 0.771 3.809
-5.110 -1.991 4.006
-5.180 -2.267 4.025
-4.338 1.047 3.790
-4.832 0.389 5.238
-4.902 0.113 5.257
-4.972 -0.163 5.277
-5.042 -0.439 5.297
-5.604 -2.648 5.454
-5.674 -2.924 5.474
-5.744 -3.201 5.493
-5.814 -3.477 5.513
-3.573 -0.052 -0.617
-3.643 -0.328 -0.597
-3.714 -0.604 -0.577
-3.784 -0.880 -0.558
-3.854 -1.156 -0.538
-4.345 -3.089 -0.401
-4.416 -3.365 -0.381
-4.486 -3.642 -0.361
-4.556 -3.918 -0.342
-4.626 -4.194 -0.322
-3.560 0.259 -0.358
-3.630 -0.018 -0.339
-3.700 -0.294 -0.319
-3.770 -0.570 -0.300
-3.840 -0.846 -0.280
-4.332 -2.779 -0.142
-4.402 -3.055 -0.123
-4.472 -3.331 -0.103
-4.542 -3.607 -0.083
-4.613 -3.884 -0.064
-3.546 0.569 -0.100
-3.616 0.293 -0.081
-3.686 0.017 -0.061
-3.757 -0.260 -0.041
-3.827 -0.536 -0.022
-3.897 -0.812 -0.002
-4.318 -2.469 0.116
-4.388 -2.745 0.136
-4.459 -3.021 0.155
-4.529 -3.297 0.175
-4.599 -3.573 0.194
-4.669 -3.849 0.214
-3.546 0.569 -0.100
-3.603 0.603 0.178
-3.673 0.327 0.197
-3.743 0.051 0.217
-3.813 -0.225 0.237
-3.883 -0.502 0.256
-4.375 -2.435 0.394
-4.445 -2.711 0.413
-4.515 -2.987 0.433
-4.585 -3.263 0.453
-4.655 -3.539 0.472
-3.603 0.603 0.178
-3.659 0.637 0.455
-3.729 0.361 0.475
-3.800 0.085 0.495
-3.870 -0.191 0.514
-4.431 -2.400 0.672
-4.501 -2.677 0.691
-4.572 -2.953 0.711
-4.642 -3.229 0.731
-3.659 0.637 0.455
-3.716 0.671 0.733
-3.786 0.395 0.753
-4.488 -2.366 0.949
-4.558 -2.642 0.969
-3.716 0.671 0.733
-4.209 0.014 2.181
-4.279 -0.262 2.201
-4.350 -0.539 2.221
-4.420 -0.815 2.240
-4.981 -3.024 2.398
-5.052 -3.300 2.417
-5.122 -3.576 2.437
-5.192 -3.852 2.457
-4.410 0.354 2.099
-4.480 0.078 2.118
-4.550 -0.198 2.138
-4.621 -0.474 2.158
-5.182 -2.683 2.315
-5.252 -2.960 2.335
-5.323 -3.236 2.354
-5.393 -3.512 2.374
-4.396 0.664 2.357
-4.467 0.388 2.377
-4.537 0.112 2.396
-4.607 -0.164 2.416
-4.677 -0.440 2.436
-5.169 -2.373 2.573
-5.239 -2.649 2.593
-5.309 -2.925 2.612
-5.379 -3.202 2.632
-5.449 -3.478 2.652
-4.383 0.975 2.615
-4.453 0.699 2.635
-4.523 0.422 2.654
-4.593 0.146 2.674
-4.664 -0.130 2.694
-4.734 -0.406 2.713
-5.155 -2.063 2.831
-5.225 -2.339 2.851
-5.295 -2.615 2.871
-5.365 -2.891 2.890
-5.436 -3.167 2.910
-5.506 -3.443 2.930
-4.383 0.975 2.615
-4.439 1.009 2.893
-4.510 0.733 2.913
-4.580 0.457 2.932
-4.650 0.180 2.952
-4.720 -0.096 2.972
-4.790 -0.372 2.991
-5.211 -2.029 3.109
-5.282 -2.305 3.129
-5.352 -2.581 3.148
-5.422 -2.857 3.168
-5.492 -3.133 3.188
-5.562 -3.409 3.207
-4.439 1.009 2.893
-4.496 1.043 3.171
-4.566 0.767 3.190
-4.636 0.491 3.210
-4.707 0.215 3.230
-4.777 -0.061 3.249
-4.847 -0.338 3.269
-5.268 -1.994 3.387
-5.338 -2.271 3.407
-5.408 -2.547 3.426
-5.479 -2.823 3.446
-5.549 -3.099 3.466
-5.619 -3.375 3.485
-4.496 1.043 3.171
-4.553 1.077 3.449
-4.623 0.801 3.468
-4.693 0.525 3.488
-4.763 0.249 3.508
-4.833 -0.027 3.527
-5.325 -1.960 3.665
-5.395 -2.236 3.684
-5.465 -2.513 3.704
-5.535 -2.789 3.724
-5.605 -3.065 3.743
-4.553 1.077 3.449
-5.032 0.730 5.155
-5.103 0.454 5.175
-5.173 0.178 5.194
-5.243 -0.099 5.214
-5.804 -2.308 5.371
-5.875 -2.584 5.391
-5.945 -2.860 5.411
-6.015 -3.136 5.430
-3.774 0.289 -0.699
-3.844 0.013 -0.680
-3.914 -0.263 -0.660
-3.985 -0.540 -0.640
-4.055 -0.816 -0.621
-4.546 -2.749 -0.483
-4.616 -3.025 -0.464
-4.687 -3.301 -0.444
-4.757 -3.577 -0.424
-4.827 -3.853 -0.405
-3.760 0.599 -0.441
-3.831 0.323 -0.422
-3.901 0.047 -0.402
-3.971 -0.229 -0.382
-4.041 -0.505 -0.363
-4.111 -0.782 -0.343
-4.533 -2.438 -0.225
-4.603 -2.715 -0.205
-4.673 -2.991 -0.186
-4.743 -3.267 -0.166
-4.813 -3.543 -0.146
-4.884 -3.819 -0.127
-3.760 0.599 -0.441
-3.817 0.633 -0.163
-3.887 0.357 -0.144
-3.957 0.081 -0.124
-4.028 -0.195 -0.104
-4.098 -0.471 -0.085
-4.168 -0.747 -0.065
-4.589 -2.404 0.053
-4.659 -2.680 0.072
-4.730 -2.957 0.092
-4.800 -3.233 0.112
-4.870 -3.509 0.131
-4.940 -3.785 0.151
-3.817 0.633 -0.163
-3.874 0.667 0.114
-3.944 0.391 0.134
-4.014 0.115 0.154
-4.084 -0.161 0.173
-4.154 -0.437 0.193
-4.225 -0.713 0.213
-4.646 -2.370 0.331
-4.716 -2.646 0.350
-4.786 -2.922 0.370
-4.856 -3.199 0.390
-4.926 -3.475 0.409
-4.997 -3.751 0.429
-3.874 0.667 0.114
-3.930 0.702 0.392
-4.000 0.425 0.412
-4.071 0.149 0.432
-4.141 -0.127 0.451
-4.211 -0.403 0.471
-4.702 -2.336 0.608
-4.772 -2.612 0.628
-4.843 -2.888 0.648
-4.913 -3.164 0.667
-4.983 -3.441 0.687
-3.930 0.702 0.392
-4.410 0.354 2.099
-4.480 0.078 2.118
-4.550 -0.198 2.138
-4.621 -0.474 2.158
-5.182 -2.683 2.315
-5.252 -2.960 2.335
-5.323 -3.236 2.354
-5.393 -3.512 2.374
-4.611 0.695 2.016
-4.681 0.419 2.036
-4.751 0.142 2.055
-4.821 -0.134 2.075
-5.383 -2.343 2.232
-5.453 -2.619 2.252
-5.523 -2.895 2.271
-5.594 -3.171 2.291
-4.597 1.005 2.274
-4.667 0.729 2.294
-4.738 0.453 2.313
-4.808 0.177 2.333
-4.878 -0.100 2.353
-4.948 -0.376 2.372
-5.369 -2.033 2.490
-5.440 -2.309 2.510
-5.510 -2.585 2.530
-5.580 -2.861 2.549
-5.650 -3.137 2.569
-5.720 -3.413 2.589
-4.597 1.005 2.274
-4.654 1.039 2.552
-4.724 0.763 2.572
-4.794 0.487 2.591
-4.864 0.211 2.611
-4.935 -0.065 2.631
-5.005 -0.342 2.650
-5.426 -1.998 2.768
-5.496 -2.275 2.788
-5.566 -2.551 2.807
-5.636 -2.827 2.827
-5.707 -3.103 2.847
-5.777 -3.379 2.866
-4.654 1.039 2.552
-4.710 1.073 2.830
-4.781 0.797 2.850
-4.851 0.521 2.869
-4.921 0.245 2.889
-4.991 -0.031 2.908
-5.061 -0.307 2.928
-5.482 -1.964 3.046
-5.553 -2.240 3.066
-5.623 -2.517 3.085
-5.693 -2.793 3.105
-5.763 -3.069 3.125
-5.833 -3.345 3.144
-4.710 1.073 2.830
-4.767 1.107 3.108
-4.837 0.831 3.127
-4.907 0.555 3.147
-4.978 0.279 3.167
-5.048 0.003 3.186
-5.118 -0.273 3.206
-5.539 -1.930 3.324
-5.609 -2.206 3.344
-5.679 -2.482 3.363
-5.750 -2.759 3.383
-5.820 -3.035 3.402
-5.890 -3.311 3.422
-4.767 1.107 3.108
-4.894 0.865 3.405
-4.964 0.589 3.425
-5.034 0.313 3.445
-5.104 0.037 3.464
-5.174 -0.239 3.484
-5.666 -2.172 3.621
-5.736 -2.448 3.641
-5.806 -2.724 3.661
-5.876 -3.001 3.680
-5.947 -3.277 3.700
-5.233 1.070 5.072
-5.303 0.794 5.092
-5.374 0.518 5.112
-5.444 0.242 5.131
-6.005 -1.967 5.288
-6.075 -2.243 5.308
-6.146 -2.519 5.328
-6.216 -2.796 5.347
-3.975 0.629 -0.782
-4.045 0.353 -0.763
-4.115 0.077 -0.743
-4.185 -0.199 -0.723
-4.256 -0.475 -0.704
-4.326 -0.751 -0.684
-4.747 -2.408 -0.566
-4.817 -2.684 -0.546
-4.887 -2.961 -0.527
-4.958 -3.237 -0.507
-5.028 -3.513 -0.487
-5.098 -3.789 -0.468
-3.975 0.629 -0.782
-4.031 0.663 -0.504
-4.102 0.387 -0.485
-4.172 0.111 -0.465
-4.242 -0.165 -0.445
-4.312 -0.441 -0.426
-4.382 -0.717 -0.406
-4.804 -2.374 -0.288
-4.874 -2.650 -0.269
-4.944 -2.926 -0.249
-5.014 -3.203 -0.229
-5.084 -3.479 -0.210
-5.155 -3.755 -0.190
-4.031 0.663 -0.504
-4.088 0.698 -0.226
-4.158 0.421 -0.207
-4.228 0.145 -0.187
-4.299 -0.131 -0.168
-4.369 -0.407 -0.148
-4.439 -0.683 -0.128
-4.860 -2.340 -0.010
-4.930 -2.616 0.009
-5.001 -2.892 0.029
-5.071 -3.168 0.049
-5.141 -3.444 0.068
-5.211 -3.721 0.088
-4.088 0.698 -0.226
-4.145 0.732 0.051
-4.215 0.456 0.071
-4.285 0.180 0.091
-4.355 -0.097 0.110
-4.425 -0.373 0.130
-4.496 -0.649 0.150
-4.917 -2.306 0.268
-4.987 -2.582 0.287
-5.057 -2.858 0.307
-5.127 -3.134 0.326
-5.197 -3.410 0.346
-5.268 -3.686 0.366
-4.145 0.732 0.051
-4.271 0.490 0.349
-4.342 0.214 0.369
-4.412 -0.062 0.388
-4.482 -0.339 0.408
-4.552 -0.615 0.427
-5.043 -2.548 0.565
-5.114 -2.824 0.585
-5.184 -3.100 0.604
-5.254 -3.376 0.624
-5.324 -3.652 0.644
-4.611 0.695 2.016
-4.681 0.419 2.036
-4.751 0.142 2.055
-4.821 -0.134 2.075
-5.383 -2.343 2.232
-5.453 -2.619 2.252
-5.523 -2.895 2.271
-5.594 -3.171 2.291
-4.812 1.035 1.933
-4.882 0.759 1.953
-4.952 0.483 1.973
-5.022 0.207 1.992
-5.584 -2.002 2.149
-5.654 -2.278 2.169
-5.724 -2.555 2.189
-5.794 -2.831 2.208
-4.812 1.035 1.933
-4.868 1.069 2.211
-4.938 0.793 2.231
-5.009 0.517 2.250
-5.079 0.241 2.270
-5.149 -0.035 2.290
-5.640 -1.968 2.427
-5.711 -2.244 2.447
-5.781 -2.520 2.467
-5.851 -2.797 2.486
-5.921 -3.073 2.506
-4.868 1.069 2.211
-4.925 1.104 2.489
-4.995 0.827 2.509
-5.065 0.551 2.528
-5.135 0.275 2.548
-5.206 -0.001 2.568
-5.276 -0.277 2.587
-5.697 -1.934 2.705
-5.767 -2.210 2.725
-5.837 -2.486 2.744
-5.907 -2.762 2.764
-5.978 -3.039 2.784
-6.048 -3.315 2.803
-4.925 1.104 2.489
-4.981 1.138 2.767
-5.052 0.862 2.786
-5.122 0.585 2.806
-5.192 0.309 2.826
-5.262 0.033 2.845
-5.332 -0.243 2.865
-5.753 -1.900 2.983
-5.824 -2.176 3.003
-5.894 -2.452 3.022
-5.964 -2.728 3.042
-6.034 -3.004 3.062
-6.104 -3.281 3.081
-4.981 1.138 2.767
-5.108 0.896 3.064
-5.178 0.620 3.084
-5.249 0.343 3.104
-5.319 0.067 3.123
-5.389 -0.209 3.143
-5.880 -2.142 3.280
-5.950 -2.418 3.300
-6.021 -2.694 3.320
-6.091 -2.970 3.339
-6.161 -3.246 3.359
-5.235 0.654 3.362
-5.305 0.378 3.381
-5.375 0.101 3.401
-5.445 -0.175 3.421
-6.007 -2.384 3.578
-6.077 -2.660 3.598
-6.147 -2.936 3.617
-6.218 -3.212 3.637
-5.434 1.411 4.990
-5.504 1.135 5.009
-5.574 0.859 5.029
-5.645 0.583 5.049
-6.206 -1.627 5.206
-6.276 -1.903 5.225
-6.346 -2.179 5.245
-6.417 -2.455 5.265
-5.434 1.411 4.990
-4.246 0.694 -0.845
-4.316 0.418 -0.826
-4.386 0.141 -0.806
-4.456 -0.135 -0.786
-4.527 -0.411 -0.767
-5.018 -2.344 -0.629
-5.088 -2.620 -0.609
-5.158 -2.896 -0.590
-5.229 -3.172 -0.570
-5.299 -3.448 -0.551
-4.246 0.694 -0.845
-4.302 0.728 -0.567
-4.373 0.452 -0.548
-4.443 0.176 -0.528
-4.513 -0.101 -0.508
-4.583 -0.377 -0.489
-4.653 -0.653 -0.469
-5.075 -2.310 -0.351
-5.145 -2.586 -0.332
-5.215 -2.862 -0.312
-5.285 -3.138 -0.292
-5.355 -3.414 -0.273
-5.426 -3.690 -0.253
-4.302 0.728 -0.567
-4.359 0.762 -0.290
-4.429 0.486 -0.270
-4.499 0.210 -0.250
-4.570 -0.066 -0.231
-4.640 -0.343 -0.211
-4.710 -0.619 -0.191
-5.131 -2.276 -0.073
-5.201 -2.552 -0.054
-5.272 -2.828 -0.034
-5.342 -3.104 -0.014
-5.412 -3.380 0.005
-5.482 -3.656 0.025
-4.359 0.762 -0.290
-4.486 0.520 0.008
-4.556 0.244 0.028
-4.626 -0.032 0.047
-4.696 -0.308 0.067
-4.767 -0.585 0.087
-5.258 -2.518 0.224
-5.328 -2.794 0.244
-5.398 -3.070 0.263
-5.468 -3.346 0.283
-5.539 -3.622 0.303
-4.613 0.278 0.305
-4.683 0.002 0.325
-4.753 -0.274 0.345
-4.823 -0.550 0.364
-5.385 -2.760 0.522
-5.455 -3.036 0.541
-5.525 -3.312 0.561
-5.595 -3.588 0.581
-4.812 1.035 1.933
-4.882 0.759 1.953
-4.952 0.483 1.973
-5.022 0.207 1.992
-5.584 -2.002 2.149
-5.654 -2.278 2.169
-5.724 -2.555 2.189
-5.794 -2.831 2.208
-4.812 1.035 1.933
-5.083 1.100 1.870
-5.153 0.824 1.890
-5.223 0.547 1.909
-5.785 -1.662 2.067
-5.855 -1.938 2.086
-5.925 -2.214 2.106
-5.995 -2.490 2.126
-5.012 1.376 1.850
-5.083 1.100 1.870
-5.139 1.134 2.148
-5.209 0.858 2.168
-5.280 0.582 2.187
-5.350 0.305 2.207
-5.911 -1.904 2.364
-5.982 -2.180 2.384
-6.052 -2.456 2.403
-6.122 -2.732 2.423
-5.139 1.134 2.148
-5.196 1.168 2.426
-5.266 0.892 2.445
-5.336 0.616 2.465
-5.406 0.340 2.485
-5.477 0.063 2.504
-5.968 -1.870 2.642
-6.038 -2.146 2.662
-6.108 -2.422 2.681
-6.178 -2.698 2.701
-6.249 -2.974 2.721
-5.196 1.168 2.426
-5.323 0.926 2.723
-5.393 0.650 2.743
-5.463 0.374 2.763
-5.533 0.098 2.782
-5.603 -0.179 2.802
-6.095 -2.112 2.939
-6.165 -2.388 2.959
-6.235 -2.664 2.979
-6.305 -2.940 2.998
-6.375 -3.216 3.018
-5.449 0.684 3.021
-5.520 0.408 3.040
-5.590 0.132 3.060
-5.660 -0.144 3.080
-6.221 -2.354 3.237
-6.292 -2.630 3.257
-6.362 -2.906 3.276
-6.432 -3.182 3.296
-5.576 0.442 3.318
-5.646 0.166 3.338
-5.716 -0.110 3.358
-5.787 -0.386 3.377
-6.348 -2.596 3.534
-6.418 -2.872 3.554
-6.489 -3.148 3.574
-6.559 -3.424 3.593
-5.773 -0.076 3.635
-5.843 -0.352 3.655
-6.545 -3.114 3.852
-6.615 -3.390 3.871
-5.648 1.441 4.649
-6.350 -1.320 4.845
-6.421 -1.596 4.865
-5.578 1.717 4.629
-5.648 1.441 4.649
-5.705 1.475 4.926
-5.775 1.199 4.946
-5.845 0.923 4.966
-6.407 -1.286 5.123
-6.477 -1.562 5.143
-6.547 -1.838 5.162
-6.617 -2.115 5.182
-5.635 1.751 4.907
-5.705 1.475 4.926
-4.517 0.758 -0.908
-4.587 0.482 -0.889
-4.657 0.206 -0.869
-4.727 -0.070 -0.849
-5.289 -2.279 -0.692
-5.359 -2.556 -0.673
-5.429 -2.832 -0.653
-5.500 -3.108 -0.633
-4.517 0.758 -0.908
-4.573 0.792 -0.631
-4.644 0.516 -0.611
-4.714 0.240 -0.591
-4.784 -0.036 -0.572
-4.854 -0.312 -0.552
-5.346 -2.245 -0.414
-5.416 -2.521 -0.395
-5.486 -2.798 -0.375
-5.556 -3.074 -0.355
-5.626 -3.350 -0.336
-4.573 0.792 -0.631
-4.700 0.550 -0.333
-4.770 0.274 -0.313
-4.841 -0.002 -0.294
-4.911 -0.278 -0.274
-4.981 -0.554 -0.254
-5.472 -2.487 -0.117
-5.543 -2.763 -0.097
-5.613 -3.040 -0.078
-5.683 -3.316 -0.058
-5.753 -3.592 -0.038
-4.827 0.308 -0.036
-4.897 0.032 -0.016
-4.967 -0.244 0.004
-5.038 -0.520 0.023
-5.599 -2.729 0.181
-5.669 -3.005 0.200
-5.739 -3.282 0.220
-5.810 -3.558 0.240
-4.954 0.066 0.262
-5.024 -0.210 0.282
-5.094 -0.486 0.301
-5.164 -0.762 0.321
-5.726 -2.971 0.478
-5.796 -3.247 0.498
-5.866 -3.524 0.517
-5.936 -3.800 0.537
-5.151 -0.452 0.579
-5.221 -0.728 0.599
-5.923 -3.489 0.795
-5.993 -3.766 0.815
-5.026 1.065 1.592
-5.728 -1.696 1.789
-5.798 -1.972 1.808
-4.956 1.342 1.573
-5.026 1.065 1.592
-5.083 1.100 1.870
-5.153 0.824 1.890
-5.223 0.547 1.909
-5.785 -1.662 2.067
-5.855 -1.938 2.086
-5.925 -2.214 2.106
-5.995 -2.490 2.126
-5.012 1.376 1.850
-5.083 1.100 1.870
-5.354 1.164 1.807
-5.424 0.888 1.827
-5.985 -1.321 1.984
-6.056 -1.597 2.004
-6.126 -1.874 2.023
-6.196 -2.150 2.043
-6.757 -4.359 2.200
-5.283 1.440 1.787
-5.354 1.164 1.807
-5.410 1.198 2.085
-5.480 0.922 2.105
-6.182 -1.839 2.301
-6.253 -2.116 2.321
-5.410 1.198 2.085
-5.987 -0.046 3.295
-6.058 -0.322 3.314
-6.760 -3.083 3.511
-6.830 -3.360 3.530
-6.044 -0.012 3.572
-6.114 -0.288 3.592
-6.184 -0.564 3.612
-6.255 -0.840 3.631
-6.816 -3.049 3.789
-6.886 -3.325 3.808
-6.957 -3.602 3.828
-7.027 -3.878 3.847
-6.171 -0.254 3.870
-6.241 -0.530 3.890
-6.311 -0.806 3.909
-6.381 -1.082 3.929
-6.943 -3.291 4.086
-7.013 -3.567 4.106
-7.083 -3.844 4.125
-7.153 -4.120 4.145
-6.227 -0.220 4.148
-6.298 -0.496 4.167
-6.368 -0.772 4.187
-6.438 -1.048 4.207
-6.508 -1.324 4.226
-6.999 -3.257 4.364
-7.070 -3.533 4.384
-7.140 -3.809 4.403
-7.210 -4.086 4.423
-5.736 1.713 4.010
-5.863 1.471 4.308
-6.354 -0.462 4.445
-6.424 -0.738 4.465
-6.495 -1.014 4.485
-6.565 -1.290 4.504
-6.635 -1.566 4.524
-7.126 -3.499 4.661
-7.196 -3.775 4.681
-7.267 -4.051 4.701
-5.793 1.748 4.288
-5.863 1.471 4.308
-5.919 1.506 4.586
-6.481 -0.704 4.743
-6.551 -0.980 4.762
-6.621 -1.256 4.782
-6.692 -1.532 4.802
-7.253 -3.741 4.959
-7.323 -4.017 4.979
-5.849 1.782 4.566
-5.919 1.506 4.586
-5.976 1.540 4.863
-6.046 1.264 4.883
-6.608 -0.946 5.040
-6.678 -1.222 5.060
-6.748 -1.498 5.080
-6.818 -1.774 5.099
-7.380 -3.983 5.256
-5.906 1.816 4.844
-5.976 1.540 4.863
-4.788 0.823 -0.971
-4.858 0.546 -0.952
-5.560 -2.215 -0.755
-5.630 -2.491 -0.736
-4.788 0.823 -0.971
-5.365 -0.422 0.238
-5.435 -0.698 0.258
-6.137 -3.459 0.454
-6.207 -3.735 0.474
-5.422 -0.387 0.516
-5.492 -0.664 0.536
-5.562 -0.940 0.555
-5.632 -1.216 0.575
-6.194 -3.425 0.732
-6.264 -3.701 0.752
-6.334 -3.977 0.771
-6.404 -4.253 0.791
-5.548 -0.629 0.814
-5.619 -0.906 0.833
-5.689 -1.182 0.853
-5.759 -1.458 0.872
-6.321 -3.667 1.030
-6.391 -3.943 1.049
-6.461 -4.219 1.069
-6.531 -4.495 1.089
-5.605 -0.595 1.091
-5.675 -0.871 1.111
-5.745 -1.148 1.131
-5.816 -1.424 1.150
-5.886 -1.700 1.170
-6.377 -3.633 1.308
-6.447 -3.909 1.327
-6.518 -4.185 1.347
-6.588 -4.461 1.366
-5.114 1.338 0.954
-5.241 1.096 1.251
-5.732 -0.837 1.389
-5.802 -1.113 1.409
-5.872 -1.390 1.428
-5.942 -1.666 1.448
-6.013 -1.942 1.467
-6.504 -3.875 1.605
-6.574 -4.151 1.625
-6.644 -4.427 1.644
-5.170 1.372 1.232
-5.241 1.096 1.251
-5.297 1.130 1.529
-5.859 -1.079 1.686
-5.929 -1.355 1.706
-5.999 -1.632 1.726
-6.069 -1.908 1.745
-6.631 -4.117 1.903
-6.701 -4.393 1.922
-5.227 1.406 1.510
-5.297 1.130 1.529
-5.354 1.164 1.807
-5.424 0.888 1.827
-5.985 -1.321 1.984
-6.056 -1.597 2.004
-6.126 -1.874 2.023
-6.196 -2.150 2.043
-6.757 -4.359 2.200
-5.283 1.440 1.787
-5.354 1.164 1.807
-5.625 1.228 1.744
-6.186 -0.981 1.901
-6.256 -1.257 1.921
-6.327 -1.533 1.940
-6.397 -1.809 1.960
-6.958 -4.018 2.117
-7.028 -4.294 2.137
-5.554 1.505 1.724
-5.625 1.228 1.744
-6.385 -0.224 3.529
-6.455 -0.500 3.549
-6.526 -0.776 3.568
-6.596 -1.052 3.588
-7.157 -3.261 3.745
-7.228 -3.537 3.765
-7.298 -3.813 3.784
-7.368 -4.089 3.804
-6.442 -0.189 3.807
-6.512 -0.465 3.826
-6.582 -0.742 3.846
-6.652 -1.018 3.866
-6.723 -1.294 3.885
-7.214 -3.227 4.023
-7.284 -3.503 4.043
-7.354 -3.779 4.062
-7.424 -4.055 4.082
-5.950 1.744 3.669
-6.077 1.502 3.967
-6.498 -0.155 4.085
-6.569 -0.431 4.104
-6.639 -0.707 4.124
-6.709 -0.984 4.144
-6.779 -1.260 4.163
-6.849 -1.536 4.183
-7.270 -3.193 4.301
-7.341 -3.469 4.320
-7.411 -3.745 4.340
-7.481 -4.021 4.360
-6.007 1.778 3.947
-6.077 1.502 3.967
-6.134 1.536 4.245
-6.555 -0.121 4.362
-6.625 -0.397 4.382
-6.695 -0.673 4.402
-6.766 -0.949 4.421
-6.836 -1.226 4.441
-6.906 -1.502 4.461
-7.327 -3.159 4.579
-7.397 -3.435 4.598
-7.467 -3.711 4.618
-7.538 -3.987 4.638
-6.064 1.812 4.225
-6.134 1.536 4.245
-6.190 1.570 4.522
-6.682 -0.363 4.660
-6.752 -0.639 4.680
-6.822 -0.915 4.699
-6.892 -1.191 4.719
-6.963 -1.468 4.739
-7.454 -3.401 4.876
-7.524 -3.677 4.896
-7.594 -3.953 4.915
-6.120 1.846 4.503
-6.190 1.570 4.522
-6.247 1.604 4.800
-6.809 -0.605 4.957
-6.879 -0.881 4.977
-6.949 -1.157 4.997
-7.019 -1.433 5.016
-7.581 -3.643 5.174
-7.651 -3.919 5.193
-6.177 1.880 4.781
-6.247 1.604 4.800
-5.763 -0.599 0.473
-5.833 -0.875 0.492
-5.903 -1.151 0.512
-5.973 -1.428 0.532
-6.535 -3.637 0.689
-6.605 -3.913 0.708
-6.675 -4.189 0.728
-6.746 -4.465 0.748
-5.819 -0.565 0.750
-5.890 -0.841 0.770
-5.960 -1.117 0.790
-6.030 -1.393 0.809
-6.100 -1.670 0.829
-6.592 -3.603 0.967
-6.662 -3.879 0.986
-6.732 -4.155 1.006
-6.802 -4.431 1.026
-5.328 1.368 0.613
-5.455 1.126 0.910
-5.876 -0.531 1.028
-5.946 -0.807 1.048
-6.016 -1.083 1.068
-6.087 -1.359 1.087
-6.157 -1.635 1.107
-6.227 -1.912 1.127
-6.648 -3.568 1.244
-6.718 -3.845 1.264
-6.789 -4.121 1.284
-6.859 -4.397 1.303
-5.385 1.402 0.891
-5.455 1.126 0.910
-5.512 1.160 1.188
-5.933 -0.497 1.306
-6.003 -0.773 1.326
-6.073 -1.049 1.345
-6.143 -1.325 1.365
-6.213 -1.601 1.385
-6.284 -1.877 1.404
-6.705 -3.534 1.522
-6.775 -3.810 1.542
-6.845 -4.087 1.562
-6.915 -4.363 1.581
-5.441 1.436 1.169
-5.512 1.160 1.188
-5.568 1.194 1.466
-6.059 -0.739 1.604
-6.130 -1.015 1.623
-6.200 -1.291 1.643
-6.270 -1.567 1.663
-6.340 -1.843 1.682
-6.832 -3.776 1.820
-6.902 -4.052 1.839
-6.972 -4.329 1.859
-5.498 1.470 1.446
-5.568 1.194 1.466
-5.625 1.228 1.744
-6.186 -0.981 1.901
-6.256 -1.257 1.921
-6.327 -1.533 1.940
-6.397 -1.809 1.960
-6.958 -4.018 2.117
-7.028 -4.294 2.137
-5.554 1.505 1.724
-5.625 1.228 1.744
-6.387 -0.640 1.818
-6.457 -0.916 1.838
-6.527 -1.192 1.858
-6.598 -1.469 1.877
-7.159 -3.678 2.035
-7.229 -3.954 2.054
-7.299 -4.230 2.074
-5.825 1.569 1.661
-6.656 -0.159 3.466
-6.726 -0.435 3.485
-6.797 -0.711 3.505
-6.867 -0.988 3.525
-6.937 -1.264 3.544
-7.428 -3.197 3.682
-7.499 -3.473 3.702
-7.569 -3.749 3.721
-7.639 -4.025 3.741
-6.165 1.774 3.328
-6.292 1.532 3.626
-6.713 -0.125 3.744
-6.783 -0.401 3.763
-6.853 -0.677 3.783
-6.923 -0.953 3.803
-6.994 -1.230 3.822
-7.064 -1.506 3.842
-7.485 -3.163 3.960
-7.555 -3.439 3.979
-7.625 -3.715 3.999
-7.695 -3.991 4.019
-6.221 1.808 3.606
-6.292 1.532 3.626
-6.348 1.566 3.904
-6.769 -0.091 4.022
-6.840 -0.367 4.041
-6.910 -0.643 4.061
-6.980 -0.919 4.080
-7.050 -1.195 4.100
-7.120 -1.472 4.120
-7.541 -3.128 4.238
-7.612 -3.405 4.257
-7.682 -3.681 4.277
-7.752 -3.957 4.297
-6.278 1.842 3.884
-6.348 1.566 3.904
-6.405 1.600 4.181
-6.826 -0.057 4.299
-6.896 -0.333 4.319
-6.966 -0.609 4.339
-7.037 -0.885 4.358
-7.107 -1.161 4.378
-7.177 -1.437 4.398
-7.598 -3.094 4.516
-7.668 -3.370 4.535
-7.738 -3.646 4.555
-7.809 -3.923 4.574
-6.335 1.876 4.162
-6.405 1.600 4.181
-6.461 1.634 4.459
-6.883 -0.023 4.577
-6.953 -0.299 4.597
-7.023 -0.575 4.617
-7.093 -0.851 4.636
-7.163 -1.127 4.656
-7.234 -1.403 4.675
-7.655 -3.060 4.793
-7.725 -3.336 4.813
-7.795 -3.612 4.833
-7.865 -3.888 4.852
-6.391 1.910 4.440
-6.461 1.634 4.459
-7.009 -0.264 4.875
-7.080 -0.541 4.894
-7.150 -0.817 4.914
-7.220 -1.093 4.934
-7.781 -3.302 5.091
-7.852 -3.578 5.111
-7.922 -3.854 5.130
-6.448 1.945 4.718
-6.034 -0.535 0.409
-6.104 -0.811 0.429
-6.174 -1.087 0.449
-6.244 -1.363 0.468
-6.315 -1.639 0.488
-6.806 -3.572 0.626
-6.876 -3.848 0.645
-6.946 -4.125 0.665
-7.017 -4.401 0.685
-5.543 1.398 0.272
-5.669 1.156 0.569
-6.090 -0.501 0.687
-6.161 -0.777 0.707
-6.231 -1.053 0.727
-6.301 -1.329 0.746
-6.371 -1.605 0.766
-6.441 -1.881 0.786
-6.863 -3.538 0.904
-6.933 -3.814 0.923
-7.003 -4.090 0.943
-7.073 -4.367 0.962
-5.599 1.432 0.550
-5.669 1.156 0.569
-5.726 1.190 0.847
-6.147 -0.466 0.965
-6.217 -0.743 0.985
-6.287 -1.019 1.004
-6.358 -1.295 1.024
-6.428 -1.571 1.044
-6.498 -1.847 1.063
-6.919 -3.504 1.181
-6.989 -3.780 1.201
-7.060 -4.056 1.221
-7.130 -4.332 1.240
-5.656 1.467 0.828
-5.726 1.190 0.847
-5.783 1.225 1.125
-6.204 -0.432 1.243
-6.274 -0.708 1.263
-6.344 -0.985 1.282
-6.414 -1.261 1.302
-6.484 -1.537 1.322
-6.555 -1.813 1.341
-6.976 -3.470 1.459
-7.046 -3.746 1.479
-7.116 -4.022 1.499
-7.186 -4.298 1.518
-5.712 1.501 1.105
-5.783 1.225 1.125
-5.839 1.259 1.403
-6.260 -0.398 1.521
-6.330 -0.674 1.541
-6.401 -0.950 1.560
-6.471 -1.227 1.580
