5.413 0.819 3.772
5.235 0.759 3.548
5.328 0.539 3.220
5.436 0.789 2.910
5.039 0.447 1.208
5.350 0.599 1.112
5.341 0.633 0.576
5.094 0.652 0.574
4.998 0.567 0.325
5.146 0.363 0.315
5.336 0.746 4.556
5.555 0.692 4.061
5.260 0.689 4.021
5.263 0.678 3.789
5.047 0.516 3.755
5.012 0.301 3.675
5.167 0.280 1.241
5.234 0.089 1.097
5.052 0.169 1.000
4.908 0.363 0.670
4.756 0.049 0.783
5.200 0.417 0.544
5.268 0.558 4.493
5.122 0.605 4.488
5.359 0.576 4.206
5.187 0.603 4.095
5.265 0.532 3.616
5.067 0.036 1.924
4.945 0.075 1.373
5.054 -0.042 1.090
4.854 0.140 1.109
4.777 -0.055 0.965
5.223 0.496 4.803
4.925 0.432 4.513
5.176 0.241 4.538
5.141 0.353 3.981
5.035 0.509 4.153
5.173 0.066 4.977
5.143 0.280 4.679
5.191 -0.070 4.669
5.062 0.110 4.572
5.161 0.131 4.162
5.085 0.110 5.451
4.866 -0.218 5.280
6.337 1.954 2.717
6.369 1.982 2.352
6.195 2.241 2.045
6.378 2.152 1.885
5.969 2.225 1.549
6.179 1.887 3.170
6.155 2.107 2.930
6.194 1.766 2.972
6.027 1.921 2.571
5.927 2.091 2.250
6.189 1.920 2.172
6.075 1.971 2.017
6.055 2.025 1.618
6.049 1.735 0.082
6.136 2.163 4.809
6.101 1.560 3.477
5.797 1.692 3.295
6.166 1.829 2.969
5.941 1.977 3.050
5.891 1.577 2.798
6.076 1.514 2.308
6.157 1.572 2.102
5.940 1.907 1.909
6.007 1.858 1.933
5.957 1.547 0.394
5.782 1.614 0.068
5.601 1.370 0.132
6.235 1.840 5.402
6.279 1.843 5.424
6.319 1.689 5.286
6.241 1.848 4.762
6.175 1.893 3.558
5.702 1.538 3.609
5.669 1.726 3.387
5.792 1.707 2.940
6.035 1.616 2.891
5.774 1.783 2.509
5.658 1.482 2.610
5.810 1.711 2.390
6.025 1.384 1.806
5.592 1.683 1.912
5.644 1.445 0.501
5.763 1.333 0.454
5.875 1.648 0.254
5.585 1.269 -0.024
6.218 1.629 5.607
5.859 1.744 5.390
5.827 1.809 5.012
6.043 1.774 5.075
6.071 1.836 4.017
6.050 1.414 3.624
5.956 1.569 3.388
5.948 1.250 3.222
5.806 1.186 3.226
5.806 1.401 2.898
5.717 1.184 2.858
5.847 1.222 2.689
5.638 1.214 2.250
5.628 1.382 1.938
5.735 1.207 1.862
5.598 1.447 0.915
5.670 1.495 0.417
5.659 1.184 0.462
5.325 1.450 0.049
5.780 1.630 5.867
5.935 1.494 5.338
5.662 1.634 5.096
5.660 1.396 4.898
5.569 1.310 4.050
5.600 1.240 3.419
5.692 1.063 3.741
5.623 1.454 3.294
5.505 1.128 3.309
5.365 1.398 3.120
5.741 1.075 2.640
5.642 1.113 2.441
5.618 1.288 2.335
5.533 1.196 1.989
5.321 1.227 0.909
5.463 1.169 0.459
5.359 0.896 0.502
5.462 1.143 0.132
5.959 1.396 5.606
5.559 1.450 5.338
5.500 1.221 5.113
5.427 1.495 4.009
5.581 1.039 3.752
5.269 0.896 3.424
5.418 0.868 3.451
5.227 1.212 3.169
5.242 1.130 2.934
5.504 1.161 2.890
5.566 1.174 2.589
5.335 1.195 2.153
5.156 0.942 0.839
5.238 1.026 0.653
5.389 0.681 0.336
5.020 1.091 0.013
5.442 1.039 5.628
5.732 1.346 5.680
5.613 1.066 4.023
5.444 1.255 3.653
5.436 1.031 3.697
5.137 0.854 3.331
5.298 1.044 3.346
5.170 1.031 3.115
5.236 0.706 2.579
5.278 0.800 2.649
5.088 0.724 0.559
5.021 0.906 0.576
5.205 0.772 0.439
5.112 0.566 -0.061
5.557 0.857 5.881
5.200 0.929 3.708
5.364 0.717 3.805
4.990 0.534 3.766
5.116 0.902 3.449
5.098 0.569 3.311
4.929 0.872 3.229
4.999 0.485 2.825
5.200 0.709 0.782
4.912 0.788 0.535
4.738 0.499 0.272
4.735 0.568 0.352
5.367 0.759 3.907
4.955 0.905 3.519
4.540 -0.212 5.634
6.094 2.307 2.857
6.127 2.067 2.506
6.091 2.049 2.323
5.991 1.924 1.932
6.370 2.028 1.659
6.116 2.422 3.386
6.332 2.054 3.154
6.186 2.267 2.811
6.047 2.247 2.446
6.290 2.323 2.532
6.037 1.983 1.990
5.926 2.025 1.921
5.817 2.113 0.378
6.374 2.417 5.327
6.287 2.133 5.332
6.160 1.965 3.642
6.177 2.216 3.417
6.012 2.179 3.030
5.942 2.115 2.675
6.006 2.048 2.547
5.873 2.106 2.495
6.136 2.115 2.026
5.966 2.008 2.075
5.884 2.067 1.670
5.728 2.135 0.663
5.772 1.922 0.385
6.387 2.432 5.350
6.285 2.108 5.449
5.988 2.194 5.048
5.878 2.119 5.140
5.789 2.188 3.429
5.993 1.868 3.375
5.931 2.020 3.565
6.038 1.707 3.220
5.897 1.680 3.104
6.014 1.765 2.634
5.623 1.848 2.503
5.918 1.871 2.409
5.574 2.008 1.816
5.585 1.896 1.668
5.526 1.992 0.677
5.813 1.845 0.591
5.681 1.546 0.272
5.523 1.619 -0.069
5.899 2.022 5.707
6.082 2.213 5.572
5.763 2.092 5.210
6.090 2.045 4.898
6.032 1.974 4.023
5.875 1.867 3.458
5.842 1.961 3.474
5.829 1.976 3.337
5.472 1.825 2.960
5.725 1.915 2.960
5.470 1.604 2.836
5.509 1.739 2.547
5.567 1.879 2.450
5.490 1.614 2.238
5.745 1.696 1.645
5.626 1.407 0.767
5.450 1.821 0.402
5.311 1.539 0.432
5.637 1.568 -0.044
6.040 1.650 5.740
5.771 1.656 5.388
6.009 1.889 5.386
5.959 1.905 5.002
5.662 1.943 3.657
5.901 1.687 3.810
5.552 1.720 3.769
5.582 1.805 3.435
5.372 1.475 3.402
5.335 1.321 3.095
5.486 1.360 2.901
5.363 1.310 2.527
5.340 1.407 2.092
5.699 1.625 2.275
5.684 1.717 1.737
5.569 1.325 0.663
5.143 1.434 0.442
5.409 1.174 0.365
5.481 1.299 0.150
5.873 1.795 5.556
5.502 1.610 5.331
5.467 1.773 5.414
5.624 1.641 4.995
5.613 1.579 4.065
5.493 1.716 3.846
5.617 1.359 3.589
5.400 1.617 3.279
5.468 1.413 3.268
5.195 1.502 2.941
5.515 1.312 2.976
5.197 1.165 2.630
5.314 1.494 2.337
5.361 1.265 1.872
5.339 1.495 1.651
5.426 1.402 0.783
5.106 1.058 0.408
5.153 1.209 0.073
5.362 1.090 0.121
5.782 1.362 5.616
5.679 1.571 5.330
5.486 1.455 5.279
5.587 1.690 4.881
5.425 1.452 3.852
5.477 1.482 3.696
5.137 1.341 3.697
5.146 1.052 3.260
5.065 1.210 3.216
5.485 1.182 3.162
5.183 1.295 2.629
5.325 1.140 2.348
5.047 1.156 2.491
5.220 1.367 1.994
4.988 1.053 0.840
5.232 1.035 0.687
4.858 1.036 0.101
4.958 1.092 0.202
5.465 1.534 5.794
5.244 1.228 5.429
5.220 1.321 5.244
5.263 1.060 3.816
5.160 1.124 3.440
5.390 0.975 3.666
5.184 0.832 3.299
5.121 0.928 3.050
5.023 1.050 2.988
5.326 0.985 2.987
4.961 0.837 2.497
5.178 1.201 2.435
5.125 0.812 0.756
5.126 0.929 0.135
4.683 0.883 0.079
5.386 1.120 5.659
5.339 1.054 5.619
5.121 0.843 3.879
4.986 1.050 3.561
5.057 0.795 3.117
5.053 1.015 3.240
5.002 0.863 2.874
4.702 0.614 2.586
4.856 0.764 0.214
4.870 0.511 0.152
5.331 0.977 5.921
4.071 -0.194 3.466
4.136 -0.233 3.327
4.421 0.052 5.825
4.195 0.199 5.818
6.300 2.240 3.188
6.430 2.406 2.892
6.041 2.344 2.596
6.425 2.591 2.468
6.042 2.236 2.306
6.160 2.338 3.452
6.177 2.145 2.914
6.346 2.248 2.744
6.256 2.132 2.792
5.922 2.195 2.364
5.859 2.374 2.310
5.966 2.385 2.023
5.830 2.281 0.305
6.269 2.313 5.346
6.289 2.345 4.915
6.015 2.359 3.618
5.833 2.372 3.523
6.047 2.450 3.249
5.991 2.430 2.653
5.762 2.318 2.839
6.064 2.389 2.259
5.765 2.502 2.252
5.993 2.221 0.480
5.799 2.099 0.324
5.925 2.313 5.754
5.991 2.637 5.481
5.816 2.545 3.368
6.021 2.421 3.562
5.809 2.438 3.479
5.914 2.013 3.016
5.951 2.418 3.032
5.723 2.299 2.481
5.799 2.055 2.352
5.893 2.176 2.202
5.616 2.235 2.052
5.689 1.936 0.809
5.825 2.104 0.363
5.784 2.159 0.347
5.988 2.235 5.545
5.956 2.263 5.168
6.132 2.225 5.305
5.723 2.305 3.760
5.694 2.208 3.725
5.605 2.264 3.563
5.662 2.236 3.360
5.440 2.228 3.162
5.480 2.151 3.081
5.702 2.140 2.797
5.650 2.226 2.412
5.564 2.009 2.221
5.644 1.978 1.944
5.681 2.127 1.723
5.599 1.851 0.648
5.669 1.867 0.508
5.639 2.029 0.226
5.650 1.906 0.122
5.905 1.978 5.750
5.869 2.275 5.149
5.878 1.948 5.367
5.679 1.978 4.907
5.937 2.262 3.967
5.796 1.938 3.438
5.396 1.805 3.829
5.744 1.741 3.552
5.640 1.845 3.195
5.388 1.632 2.804
5.342 1.783 2.551
5.531 2.048 2.487
5.556 1.641 2.362
5.228 1.889 1.889
5.578 1.689 1.706
5.537 1.663 0.808
5.525 1.775 0.527
5.497 1.822 0.397
5.459 1.686 0.177
5.816 2.212 5.691
5.816 1.928 5.422
5.761 1.890 5.371
5.852 2.096 4.829
5.770 1.925 3.720
5.545 2.088 3.733
5.535 1.927 3.740
5.541 1.613 3.243
5.146 1.778 3.030
5.440 1.767 3.011
5.420 1.614 2.539
5.163 1.867 2.311
5.219 1.738 2.385
5.366 1.693 1.952
5.523 1.863 1.777
5.438 1.388 0.822
5.126 1.618 0.430
5.291 1.492 0.057
5.147 1.418 0.063
5.484 1.803 5.418
5.433 1.885 5.262
5.295 1.597 5.170
5.307 1.853 5.060
5.327 1.765 3.921
5.395 1.709 3.540
5.368 1.756 3.678
5.370 1.444 3.424
5.142 1.684 3.015
5.289 1.512 2.833
5.127 1.385 2.565
5.047 1.662 2.529
5.278 1.671 2.397
5.020 1.615 1.997
5.171 1.577 1.858
4.952 1.381 0.524
4.959 1.496 0.685
5.200 1.222 0.374
4.892 1.339 0.125
5.171 1.669 5.875
5.211 1.423 5.518
5.177 1.812 5.150
5.573 1.731 4.947
5.161 1.626 3.655
5.046 1.584 3.694
5.138 1.528 3.830
4.992 1.464 3.396
5.022 1.158 3.280
4.978 1.402 3.162
4.979 1.524 2.602
4.983 1.377 2.550
4.853 1.142 2.322
5.091 1.077 2.232
5.094 1.334 1.874
5.122 1.020 0.618
4.716 1.126 0.194
4.831 1.257 0.172
5.296 1.561 5.497
5.409 1.585 5.557
5.410 1.554 5.453
5.070 1.432 5.006
5.315 1.614 3.844
4.862 0.963 3.497
5.045 1.345 3.158
4.966 0.978 2.945
4.860 1.296 2.884
5.021 1.275 2.595
4.735 1.219 2.446
4.950 1.069 2.319
4.713 1.204 0.245
4.873 0.865 0.001
5.005 1.147 5.906
5.103 1.515 5.373
4.946 1.253 5.123
4.977 1.060 3.296
4.786 1.063 2.847
4.856 0.996 2.728
4.770 0.961 2.567
4.819 1.060 2.206
4.435 0.788 0.264
4.758 1.184 5.833
5.136 0.983 5.655
4.328 0.358 3.757
4.314 0.264 3.135
4.001 0.287 3.046
4.259 -0.012 2.951
4.136 0.110 2.893
3.789 0.216 0.267
4.352 0.482 5.871
3.937 0.148 3.758
4.124 0.289 5.767
4.139 0.158 5.755
3.857 0.193 3.959
5.973 2.470 3.191
5.956 2.570 3.180
5.882 2.642 2.659
5.993 2.649 2.688
6.211 2.658 2.310
5.845 2.421 0.404
6.154 2.490 5.444
5.856 2.567 3.496
5.781 2.279 3.212
5.775 2.345 3.015
5.882 2.325 2.731
5.900 2.166 2.634
6.076 2.244 2.427
5.828 2.170 2.116
6.007 2.246 0.616
5.787 2.024 0.149
6.177 2.386 5.595
6.024 2.392 5.244
5.848 2.524 3.693
5.592 2.613 3.353
5.668 2.498 3.387
5.968 2.507 3.176
5.665 2.749 2.791
5.852 2.493 2.796
5.935 2.559 2.317
5.763 2.326 0.517
5.611 2.440 0.213
5.585 2.280 0.319
5.791 2.539 5.510
5.822 2.592 3.558
5.721 2.479 3.745
5.581 2.232 3.429
5.454 2.291 3.259
5.735 2.408 2.945
5.410 2.533 3.090
5.809 2.398 2.917
5.808 2.187 2.368
5.377 2.220 2.165
5.245 2.007 0.758
5.528 2.167 0.448
5.228 2.064 0.110
5.937 2.284 5.804
5.851 2.627 5.400
5.778 2.513 3.796
5.507 2.209 3.544
5.640 2.177 3.779
5.485 2.285 3.337
5.322 2.026 3.171
5.671 2.021 2.769
5.339 2.105 2.935
5.225 2.122 2.291
5.320 2.107 2.475
5.633 2.241 1.959
5.177 1.944 0.826
5.474 2.238 0.272
5.110 1.990 0.237
5.268 2.141 0.098
5.702 2.284 5.684
5.734 2.356 5.447
5.593 2.188 5.244
5.667 2.032 3.730
5.632 2.072 3.721
5.322 2.072 3.405
5.579 1.970 3.562
5.580 1.926 3.308
5.109 1.972 2.929
5.400 1.889 2.703
5.404 1.937 2.523
5.163 1.882 2.482
5.265 2.136 2.258
5.457 1.811 1.719
5.189 2.053 0.599
4.931 1.822 0.580
5.253 1.686 0.489
5.342 1.619 0.017
5.356 2.009 5.491
5.433 2.313 5.261
5.433 1.894 4.968
5.397 1.916 4.759
5.434 2.124 3.965
5.166 2.064 3.764
5.126 1.838 3.847
5.258 1.648 3.411
5.274 1.817 3.244
5.365 1.956 3.017
5.367 1.756 2.530
5.087 1.680 2.369
4.910 1.585 2.264
5.198 1.724 1.945
5.086 1.707 1.613
4.998 1.588 0.523
4.844 1.814 0.491
4.841 1.837 0.177
4.918 1.866 -0.057
5.424 2.052 5.534
5.359 1.961 5.197
5.398 1.749 5.077
5.131 1.813 4.815
5.377 1.776 4.040
5.118 1.841 3.558
5.201 1.771 3.596
4.979 1.742 3.485
4.881 1.544 3.182
5.185 1.624 2.933
5.004 1.619 2.754
5.052 1.716 2.553
4.885 1.466 2.178
5.088 1.578 1.896
4.928 1.417 1.769
4.805 1.357 0.357
5.013 1.408 0.214
4.959 1.601 -0.089
5.391 1.954 5.741
5.010 1.948 5.369
5.072 1.966 5.262
5.419 1.875 5.159
5.015 1.914 3.484
4.773 1.527 3.227
5.125 1.567 3.065
5.073 1.667 3.122
4.863 1.376 2.797
4.815 1.582 2.609
4.918 1.479 2.457
4.889 1.243 2.275
4.676 1.229 1.758
4.937 1.508 0.252
4.854 1.321 0.254
5.324 1.718 5.740
5.257 1.837 5.435
5.243 1.702 5.290
5.030 1.665 5.120
5.015 1.422 3.477
4.974 1.420 2.967
4.879 1.435 2.918
4.835 1.486 2.687
4.841 1.190 2.204
4.689 1.271 2.257
4.484 1.418 1.845
4.436 1.112 0.235
4.713 1.549 5.662
4.902 1.354 5.709
4.681 1.333 5.298
4.768 1.368 5.154
4.604 1.106 2.952
4.820 1.277 2.712
4.800 1.020 2.685
4.507 1.196 2.348
4.756 1.019 2.040
4.521 1.228 1.745
4.922 1.503 5.766
4.772 1.438 5.530
4.536 1.371 5.192
4.524 1.228 4.909
3.817 0.369 3.670
4.074 0.101 3.559
3.873 0.208 3.404
3.986 0.370 3.253
3.862 0.125 2.716
3.961 0.128 1.089
3.829 0.097 0.660
3.882 0.177 0.501
3.515 0.354 0.003
3.478 0.012 0.163
3.827 0.404 3.848
3.986 0.534 3.975
3.866 -0.049 3.894
4.000 0.063 3.511
3.563 -0.048 3.453
3.557 0.178 3.245
3.942 0.241 3.103
3.732 0.140 2.470
3.825 -0.191 0.850
4.140 0.482 5.940
4.011 0.153 4.099
4.023 0.152 3.853
3.882 0.055 6.015
3.838 0.071 5.741
5.980 2.522 3.571
5.998 2.647 3.255
5.825 2.698 3.210
5.992 2.706 2.655
5.794 2.555 2.812
5.536 2.385 0.549
5.783 2.638 0.400
5.902 2.506 0.175
5.903 2.597 3.607
6.015 2.779 3.592
6.029 2.639 3.665
5.563 2.329 3.340
5.594 2.377 2.925
5.827 2.500 2.690
5.805 2.355 2.865
5.967 2.546 2.562
5.765 2.612 0.656
5.599 2.155 0.318
5.431 2.506 0.346
5.746 2.853 5.651
5.698 2.498 3.890
5.969 2.451 3.547
5.606 2.548 3.796
5.793 2.455 3.350
5.570 2.815 2.903
5.780 2.642 2.675
5.768 2.865 2.664
5.416 2.731 0.915
5.626 2.545 0.686
5.390 2.708 0.612
5.506 2.476 0.087
5.598 2.675 4.113
5.894 2.830 3.693
5.485 2.752 3.582
5.528 2.762 3.542
5.490 2.304 3.481
5.698 2.332 3.072
5.656 2.613 2.857
5.220 2.713 2.485
5.509 2.678 2.417
5.170 2.564 2.192
5.371 2.318 1.128
5.188 2.569 0.849
5.230 2.577 0.228
5.187 2.190 0.004
5.212 2.238 0.025
5.690 2.690 5.656
5.543 2.494 5.540
5.446 2.421 4.047
5.447 2.336 3.998
5.326 2.518 3.490
5.471 2.292 3.530
5.296 2.420 3.227
5.272 2.237 3.108
5.224 2.455 2.879
5.275 2.447 2.506
5.099 2.189 2.391
5.392 2.106 2.368
5.328 2.193 0.841
5.375 2.309 0.595
4.926 2.293 0.434
5.063 2.186 0.253
5.515 2.243 5.502
5.656 2.274 5.263
5.393 2.138 3.653
5.238 2.514 3.614
5.254 2.365 3.612
5.291 2.261 3.195
5.055 2.076 2.992
5.159 2.038 2.963
5.364 2.065 2.790
5.122 2.029 2.299
4.913 2.230 2.407
5.259 2.271 1.829
5.111 2.046 0.912
5.061 1.948 0.251
5.186 2.069 0.484
5.109 2.195 -0.196
5.277 2.148 5.799
5.500 2.169 5.549
5.175 2.438 5.076
5.359 2.293 3.728
5.350 2.126 3.851
5.053 1.864 3.418
5.186 1.953 3.558
5.170 2.179 2.976
5.183 1.757 3.172
4.831 2.156 2.725
4.863 1.839 2.640
5.094 1.960 2.093
5.051 2.111 2.035
4.933 1.914 2.054
4.843 1.831 0.477
4.970 1.877 0.154
4.592 2.032 0.157
5.163 1.931 5.515
5.086 2.221 5.218
5.067 1.954 5.382
4.961 1.907 4.762
5.126 2.114 3.812
4.937 1.677 3.290
4.958 1.897 3.295
4.929 1.898 3.175
4.634 1.883 2.964
4.983 2.016 2.544
4.773 1.594 2.412
4.649 1.904 1.960
4.781 1.640 1.856
4.711 1.828 0.248
4.566 1.880 0.133
5.005 1.752 5.459
4.997 1.778 5.639
4.887 1.849 5.258
4.787 1.947 4.771
4.692 1.456 3.316
4.538 1.624 3.418
4.917 1.440 3.110
4.608 1.616 2.599
4.925 1.529 2.330
4.563 1.545 2.565
4.875 1.665 2.283
4.548 1.765 1.866
4.410 1.521 1.805
4.592 1.702 0.094
4.745 1.364 0.092
4.853 2.006 5.688
4.734 1.623 5.316
4.767 1.775 5.288
4.697 1.687 5.170
4.701 1.914 4.777
4.516 1.269 2.947
4.631 1.475 2.964
4.516 1.561 2.495
4.505 1.243 2.408
4.649 1.422 2.162
4.694 1.379 2.012
4.548 1.266 1.745
4.644 1.603 5.856
4.651 1.758 5.571
4.668 1.478 5.174
4.913 1.369 4.989
4.801 1.487 5.032
4.209 1.309 2.676
4.179 1.309 2.798
4.404 1.152 2.162
4.222 1.038 1.979
4.546 1.286 1.830
4.561 1.400 1.529
4.355 1.126 1.513
4.475 1.232 5.717
4.810 1.235 5.728
4.501 1.427 5.367
4.669 1.631 5.268
4.684 1.550 4.930
4.387 1.227 4.567
4.129 0.973 2.297
4.012 1.122 1.946
4.313 0.858 1.980
4.357 1.115 1.780
4.430 1.181 1.479
4.107 0.976 1.411
4.269 1.214 5.377
4.427 1.366 5.408
4.473 1.420 4.842
4.431 1.390 4.812
4.415 1.198 4.520
4.357 1.218 4.611
4.182 1.113 1.944
4.273 0.982 1.743
3.853 0.868 1.383
4.020 0.708 1.293
4.170 1.021 1.021
4.166 1.074 5.092
4.272 1.058 4.772
4.340 0.934 4.876
4.036 1.136 4.578
4.146 0.944 4.042
4.049 0.868 1.817
4.025 0.664 1.597
3.839 0.478 1.251
3.888 0.633 1.031
3.712 0.808 1.035
4.127 0.939 4.942
4.293 1.013 4.442
4.327 0.805 4.398
4.197 0.683 4.213
4.196 0.740 3.792
3.906 0.453 3.815
3.811 0.854 3.444
3.831 0.364 1.414
3.841 0.733 1.495
3.924 0.438 0.925
3.865 0.384 1.050
3.834 0.263 0.759
3.904 0.492 0.268
4.130 0.805 4.734
4.132 0.706 4.448
4.148 0.787 4.192
3.934 0.611 3.899
4.155 0.793 3.998
3.690 0.591 3.725
3.870 0.336 3.407
3.751 0.243 3.577
3.881 0.626 3.075
3.653 0.437 1.444
3.533 0.168 0.945
3.536 0.194 0.993
3.684 0.226 0.634
3.311 0.110 0.297
3.597 0.217 0.107
3.626 0.165 -0.173
4.010 0.505 4.373
3.893 0.716 4.429
3.870 0.628 4.231
3.561 0.345 3.920
3.738 0.237 3.708
3.536 0.134 3.621
3.392 0.385 3.332
3.420 0.186 3.023
3.424 0.281 2.711
3.538 0.318 0.975
3.526 -0.021 0.953
3.401 0.199 0.639
3.164 -0.074 0.569
3.487 0.348 0.483
3.263 0.252 0.061
3.434 0.517 4.084
3.749 0.219 3.843
3.573 0.533 3.707
3.380 0.281 3.939
3.430 0.015 3.608
3.445 0.277 3.466
3.357 0.068 3.107
3.335 -0.143 3.179
3.174 0.153 2.556
3.225 -0.111 2.724
3.634 0.387 5.888
3.679 0.118 5.666
3.609 0.359 4.432
3.376 0.325 4.281
3.304 0.081 3.708
3.666 0.068 6.106
3.573 0.282 5.725
6.141 3.433 1.824
6.213 3.481 1.667
6.286 3.450 1.481
5.957 3.201 0.938
5.846 3.106 0.678
6.141 3.297 4.527
6.425 3.232 3.920
6.199 3.385 3.899
6.099 3.015 1.312
6.002 3.010 1.352
5.743 2.917 1.144
5.699 3.120 0.855
5.670 2.994 0.416
5.982 3.078 4.541
6.163 3.158 4.223
6.263 3.480 4.045
6.034 3.434 3.826
6.158 3.328 3.727
6.078 3.154 3.677
5.757 3.246 3.324
5.635 2.752 1.177
5.768 2.681 1.264
5.836 2.942 0.664
5.665 2.690 0.620
5.931 3.091 0.272
5.862 3.057 0.253
5.808 2.977 4.260
6.165 3.257 4.200
6.051 3.250 4.121
5.964 3.252 3.826
6.103 2.856 3.428
5.836 3.027 3.666
5.930 3.000 3.284
5.605 2.771 3.112
5.861 2.818 2.729
5.782 2.961 1.070
5.552 2.738 1.080
5.762 2.825 0.753
5.409 2.751 0.616
5.475 2.807 0.327
5.962 2.916 4.166
5.771 2.982 3.898
5.826 2.649 3.953
5.655 2.703 3.439
5.839 2.582 3.395
5.722 2.921 3.120
5.486 2.777 3.098
5.448 2.436 2.953
5.356 2.832 2.603
5.646 2.771 0.835
5.663 2.682 0.439
5.434 2.660 0.323
5.335 2.701 -0.000
5.441 2.714 3.951
5.469 2.553 3.754
5.590 2.857 3.383
5.361 2.997 3.396
5.647 2.624 3.179
5.526 2.937 3.217
5.606 2.727 2.668
5.132 2.648 1.026
5.516 2.820 0.772
5.190 2.720 0.554
5.097 2.854 0.656
5.201 2.522 0.075
5.619 3.066 4.213
5.680 3.089 3.953
5.517 2.793 3.919
5.304 2.891 3.558
5.534 2.724 3.806
5.293 2.592 3.505
5.213 2.598 3.033
5.340 2.576 2.995
5.386 2.786 2.815
5.010 2.292 0.737
5.245 2.405 0.568
4.965 2.721 0.645
4.904 2.687 0.436
5.057 2.685 0.182
5.521 2.911 3.992
5.177 2.892 3.684
5.276 2.723 3.817
5.027 2.610 3.431
4.934 2.478 3.295
5.018 2.328 2.941
5.109 2.347 2.816
5.236 2.604 2.478
4.926 2.395 2.636
4.889 2.540 0.563
4.786 2.292 0.637
5.055 2.233 0.257
4.770 2.219 -0.155
5.516 2.844 5.783
5.290 2.450 3.612
5.251 2.696 3.523
5.115 2.448 3.612
5.066 2.495 3.376
4.961 2.315 3.198
4.886 2.179 2.772
5.008 2.078 2.914
4.817 2.262 2.659
4.940 2.153 2.254
5.053 1.985 0.322
4.987 2.215 0.191
4.701 2.009 -0.127
5.408 2.332 5.596
5.175 2.636 5.484
5.109 2.429 3.804
4.915 2.274 3.540
4.876 1.990 3.186
4.765 1.970 2.852
4.963 2.275 2.668
4.713 2.146 2.513
4.901 1.938 2.155
4.824 2.256 2.066
4.674 2.212 0.263
4.431 1.746 0.032
4.942 2.323 5.516
4.833 2.466 5.514
5.177 2.014 5.038
4.572 1.930 3.137
4.842 1.769 2.776
4.894 2.044 2.693
4.490 2.013 2.711
4.785 1.946 2.165
4.825 2.080 2.243
4.663 2.062 1.712
4.469 1.967 0.067
4.697 2.302 5.847
5.051 2.219 5.462
4.666 2.147 5.303
4.749 1.980 4.994
4.334 1.784 3.118
4.417 1.562 2.631
4.768 1.710 2.444
4.723 1.528 2.419
4.620 1.807 2.142
4.496 1.759 1.924
4.671 1.488 1.776
4.533 1.906 5.512
4.644 2.085 5.700
4.892 2.134 5.450
4.743 1.717 4.881
4.555 1.711 4.995
4.209 1.822 2.727
4.221 1.643 2.576
4.464 1.642 2.488
4.134 1.346 2.125
4.450 1.780 1.962
4.306 1.745 1.837
4.414 1.292 1.504
4.641 1.560 5.880
4.804 1.555 5.385
4.662 1.823 5.304
4.706 1.753 5.201
4.431 1.683 4.679
4.362 1.738 4.668
4.445 1.626 2.430
4.450 1.595 2.247
4.186 1.502 2.340
4.044 1.591 1.885
4.166 1.403 1.850
3.986 1.234 1.676
4.282 1.433 1.180
4.414 1.460 5.863
4.477 1.634 5.296
4.538 1.438 5.263
4.416 1.634 4.846
4.378 1.538 4.994
4.331 1.395 4.588
4.435 1.382 4.160
3.879 1.155 2.275
3.864 1.096 2.004
4.028 1.122 1.781
3.874 1.098 1.914
3.969 1.059 1.648
3.990 1.043 1.497
3.793 1.008 0.974
4.128 1.609 5.538
4.217 1.209 5.257
4.058 1.484 5.204
4.223 1.267 4.624
4.405 1.413 4.401
4.103 1.415 4.247
4.412 1.195 4.019
3.887 0.973 2.201
3.973 0.912 2.150
3.682 1.189 1.753
3.686 0.889 1.573
3.672 1.095 1.329
3.990 0.848 1.037
3.828 0.879 0.937
3.969 1.002 5.403
4.042 1.266 5.317
4.217 1.393 4.791
4.321 0.947 4.556
4.029 1.335 4.491
4.288 1.367 4.333
4.071 1.259 3.878
4.076 0.997 3.580
3.996 0.964 2.029
3.681 0.721 1.660
3.558 0.771 1.750
3.774 0.841 1.488
3.927 0.616 1.165
3.691 1.014 1.033
3.565 0.795 0.791
4.111 1.016 5.045
3.810 1.115 4.671
4.186 1.184 4.802
4.067 0.792 4.267
3.887 0.849 4.432
3.773 0.996 4.062
4.045 1.184 3.818
3.753 0.750 3.645
3.801 0.609 3.548
3.725 0.680 1.634
3.540 0.437 1.779
3.677 0.590 1.125
3.710 0.548 1.094
3.476 0.626 1.122
3.677 0.778 0.760
3.394 0.838 0.205
3.626 0.703 4.772
3.926 0.716 4.835
3.644 0.857 4.473
3.543 0.754 4.214
3.729 0.919 3.951
3.915 0.870 3.735
3.659 0.650 3.879
3.594 0.594 3.502
3.571 0.543 3.164
3.616 0.266 1.644
3.465 0.254 1.389
3.322 0.241 1.252
3.344 0.680 0.943
3.252 0.354 0.513
3.268 0.505 0.330
3.370 0.335 0.417
3.434 0.493 4.602
3.427 0.519 4.449
3.464 0.742 4.429
3.734 0.425 4.219
3.499 0.470 4.021
3.281 0.471 3.851
3.325 0.542 3.576
3.533 0.635 3.197
3.250 0.448 3.214
3.103 0.335 1.427
3.080 0.139 1.273
3.488 0.343 0.697
3.044 0.398 0.554
3.407 0.356 0.272
3.293 0.253 0.377
3.408 0.132 -0.111
3.362 0.455 4.644
3.517 0.653 4.309
3.697 0.390 4.001
3.687 0.425 4.019
3.498 0.157 3.852
3.387 0.361 3.504
3.387 0.394 3.559
3.039 0.111 3.269
3.413 0.126 2.988
3.349 -0.006 1.340
2.999 -0.024 1.130
3.246 0.053 0.828
3.165 -0.125 0.323
2.845 -0.150 0.221
3.211 0.182 0.107
3.490 0.363 4.356
3.511 0.097 4.185
3.553 0.236 3.745
3.282 0.193 4.029
3.387 0.175 3.882
3.374 0.316 3.423
2.989 -0.047 2.962
2.915 -0.054 2.852
2.934 -0.157 2.877
3.384 0.228 5.843
3.353 -0.090 4.240
3.264 0.194 3.938
2.955 -0.091 5.979
3.146 0.259 5.609
6.134 3.411 2.032
5.811 3.505 1.703
5.847 3.252 1.571
5.835 3.570 1.435
5.730 3.466 1.188
5.717 3.248 0.641
5.612 3.219 0.755
6.173 3.537 4.870
6.110 3.824 4.748
6.028 3.716 4.591
5.989 3.679 4.188
6.074 3.387 4.225
6.176 3.492 4.043
6.242 3.738 3.628
5.895 3.580 3.596
6.015 3.042 1.721
5.774 3.267 1.684
5.965 3.364 1.101
5.881 2.992 0.861
5.945 2.990 0.838
5.585 3.187 0.810
5.781 3.066 0.281
5.772 3.425 4.733
5.894 3.377 4.530
5.926 3.374 4.248
6.101 3.184 4.336
5.767 3.610 4.022
5.746 3.406 3.502
5.755 3.589 3.643
5.687 3.422 3.292
5.962 3.009 3.246
5.616 2.944 1.724
5.658 3.098 1.493
5.587 2.842 1.046
5.662 3.040 0.865
5.533 2.800 0.797
5.310 3.035 0.260
5.744 3.235 -0.026
5.866 3.325 4.867
5.655 3.249 4.526
6.032 3.292 4.241
5.590 3.028 3.867
5.671 3.365 3.893
5.736 2.949 3.762
5.612 3.026 3.500
5.640 2.788 3.265
5.409 3.024 3.269
5.512 2.982 1.205
5.607 2.766 0.979
5.662 2.638 0.672
5.271 2.716 0.411
5.470 2.895 0.263
5.193 2.655 0.041
5.458 2.982 4.291
5.737 2.953 3.982
5.665 3.171 3.945
5.559 2.889 3.815
5.724 3.239 3.536
5.419 2.914 3.423
5.548 2.877 3.114
5.544 2.698 2.916
5.304 2.674 2.723
5.360 2.509 1.031
5.426 2.727 0.993
5.211 2.842 0.803
5.185 2.545 0.467
5.063 2.672 0.277
5.308 2.930 4.071
5.367 3.081 4.140
5.700 2.657 3.954
5.326 2.858 3.423
5.426 2.965 3.584
5.403 3.071 3.342
5.073 2.895 2.899
5.274 3.029 1.509
5.271 2.974 1.285
4.958 2.701 0.803
5.023 2.805 0.835
5.289 2.781 0.361
5.247 2.930 0.109
5.230 2.827 4.537
5.447 2.839 4.307
5.159 3.193 3.788
5.249 3.041 3.936
5.067 3.120 3.626
5.063 2.736 3.686
4.905 2.739 3.310
5.341 2.958 3.168
5.274 2.733 2.855
5.007 2.684 1.222
5.074 2.783 1.133
5.038 2.605 0.905
4.945 2.662 0.640
4.943 2.735 0.253
4.720 2.497 -0.211
5.188 2.781 4.464
4.972 2.765 4.239
5.365 2.699 4.012
4.977 2.891 3.610
5.131 2.839 3.498
4.904 2.606 3.478
5.177 2.810 3.392
4.848 2.689 2.894
4.950 2.535 2.510
4.730 2.336 0.707
5.003 2.493 0.441
4.878 2.605 0.241
4.976 2.591 0.234
5.068 2.800 3.660
5.043 2.676 3.804
4.789 2.277 3.167
4.854 2.225 3.019
4.813 2.668 2.898
4.809 2.608 2.546
4.814 2.286 2.381
4.437 2.258 0.213
4.783 2.452 -0.115
4.992 2.721 5.596
4.874 2.215 3.340
4.599 2.423 3.133
4.575 2.266 2.571
4.431 2.086 2.490
4.456 2.000 2.458
4.666 2.118 0.091
4.796 2.215 5.463
4.861 2.542 5.539
4.558 2.156 2.824
4.296 2.213 2.838
4.494 1.899 2.447
4.268 2.261 2.492
4.630 1.948 2.209
4.252 1.880 1.655
4.513 2.022 5.633
4.537 2.006 5.307
4.550 2.432 4.996
4.592 2.345 5.054
4.386 1.857 2.568
4.395 1.670 2.760
4.361 1.724 2.216
4.447 2.083 2.004
4.194 1.954 1.681
4.162 2.044 1.690
4.513 1.675 1.488
4.610 1.951 5.704
4.568 2.110 5.442
4.703 2.164 5.389
4.464 2.075 5.133
4.491 1.989 4.740
4.328 1.909 4.519
4.133 1.617 2.544
4.336 1.559 2.126
4.320 1.887 1.989
4.270 1.738 1.863
4.078 1.715 1.783
4.173 1.598 1.235
3.910 1.734 1.345
4.578 1.742 5.514
4.419 1.949 5.688
4.185 1.991 5.423
4.305 1.961 4.873
4.441 2.024 4.782
4.340 1.663 4.772
4.153 1.904 4.206
3.860 1.477 2.781
4.015 1.403 2.458
4.271 1.491 1.990
3.906 1.433 1.740
3.963 1.597 1.786
4.115 1.283 1.685
4.045 1.668 1.295
3.985 1.653 1.265
3.764 1.688 0.630
4.148 1.891 5.511
4.343 1.844 5.653
4.490 1.728 5.450
4.450 1.716 5.006
4.030 1.518 4.821
4.198 1.890 4.610
3.973 1.757 4.501
4.061 1.707 3.949
4.220 1.745 3.893
3.954 1.354 2.424
3.774 1.153 2.085
4.063 1.568 2.078
3.949 1.564 1.741
3.952 1.321 1.467
3.956 1.271 1.256
3.662 1.228 1.061
3.743 1.160 0.891
4.099 1.401 5.389
4.294 1.741 5.370
4.277 1.494 5.267
4.161 1.370 4.799
4.268 1.710 4.754
3.934 1.274 4.596
4.180 1.649 4.349
4.068 1.689 3.811
4.037 1.354 3.736
3.979 1.147 2.200
3.738 1.110 2.304
3.863 1.202 1.765
3.867 1.246 1.927
3.710 1.135 1.447
3.674 1.225 1.404
3.471 1.303 1.037
3.896 1.054 0.793
3.449 1.285 0.651
4.005 1.261 5.742
3.820 1.267 5.168
4.165 1.219 5.162
4.153 1.129 5.100
3.775 1.152 4.685
3.913 1.414 4.447
3.682 1.483 4.211
4.104 1.223 3.810
4.057 1.214 3.892
3.716 1.338 3.850
3.561 1.086 3.789
3.734 0.804 2.356
3.543 1.090 1.799
3.710 0.866 1.829
3.540 0.936 1.321
3.560 1.054 1.472
3.321 0.825 0.938
3.704 1.137 0.723
3.536 0.846 0.682
3.530 0.785 0.355
3.742 1.247 5.386
3.673 1.257 4.884
3.712 1.269 5.041
3.956 1.159 4.546
3.883 0.972 4.673
3.734 1.084 4.185
3.597 1.166 4.005
3.537 0.984 3.658
3.619 0.781 3.895
3.597 1.078 3.559
3.375 0.976 1.837
3.379 0.646 1.607
3.216 0.669 1.350
3.490 0.610 1.146
3.306 0.984 1.198
3.470 0.565 0.966
3.231 0.541 0.883
3.301 0.933 0.471
3.561 1.235 5.276
3.703 1.071 5.147
3.745 0.760 4.901
3.479 0.857 4.528
3.472 0.783 4.319
3.696 1.103 3.926
3.700 0.987 3.629
3.503 0.738 3.624
3.262 0.872 3.608
3.520 0.805 3.424
3.517 0.606 1.896
3.099 0.790 1.826
3.381 0.747 1.812
3.435 0.733 1.396
3.110 0.487 0.965
3.215 0.567 1.131
3.344 0.478 0.766
3.343 0.621 0.239
3.386 0.757 0.037
3.401 1.007 5.057
3.659 0.712 4.892
3.505 0.705 4.662
3.496 0.845 4.445
3.322 0.977 4.396
3.430 0.848 3.954
3.311 0.543 3.755
3.464 0.641 3.797
3.331 0.666 3.474
3.070 0.395 3.214
3.350 0.393 1.699
3.263 0.315 1.518
3.151 0.359 1.126
2.931 0.370 1.039
3.033 0.636 0.805
2.986 0.519 0.361
2.886 0.547 0.275
3.395 0.442 4.705
3.143 0.711 4.455
3.219 0.815 4.400
3.315 0.515 4.139
3.445 0.514 4.061
3.032 0.412 3.964
3.343 0.321 3.472
3.270 0.530 3.416
2.979 0.418 3.256
2.884 0.265 1.394
3.190 0.200 1.324
2.877 0.322 1.096
2.848 0.088 0.803
3.141 0.374 0.655
2.940 0.049 0.150
2.659 0.169 -0.030
3.207 0.480 4.525
3.383 0.433 4.256
3.332 0.484 4.040
3.278 0.558 4.043
2.818 0.054 3.686
3.056 0.090 3.524
3.120 0.266 3.501
3.055 0.017 3.333
2.803 0.021 2.791
2.816 -0.044 0.960
2.866 0.259 0.878
2.798 0.306 0.639
2.717 0.193 0.400
2.558 0.125 -0.105
3.149 0.129 3.972
2.850 0.101 3.853
2.612 -0.117 3.580
3.030 -0.023 3.659
2.655 -0.172 3.388
2.838 0.212 2.792
2.647 0.117 2.732
3.189 0.089 5.810
2.979 -0.193 5.875
5.812 3.440 3.662
5.739 3.626 2.361
5.710 3.383 1.960
5.938 3.649 1.543
5.882 3.442 1.450
5.893 3.358 1.414
5.494 3.437 1.007
5.875 3.351 0.716
5.632 3.522 0.555
5.554 3.566 0.371
5.796 3.681 5.069
6.064 3.871 4.971
6.198 3.772 4.773
6.177 3.860 4.620
5.827 3.942 4.500
6.032 3.510 4.320
5.787 3.841 3.933
6.008 3.731 3.925
6.072 3.745 3.278
5.904 3.636 3.624
5.905 3.593 3.373
5.715 3.510 1.886
5.616 3.289 1.549
5.743 3.383 1.691
5.807 3.422 1.104
5.366 3.409 0.979
5.467 3.407 0.837
5.407 3.402 0.503
5.291 3.439 0.396
5.413 3.353 0.161
5.701 3.402 4.933
5.797 3.530 4.877
5.594 3.616 4.414
5.930 3.560 4.562
5.791 3.416 4.091
5.724 3.346 3.968
5.719 3.541 3.500
5.923 3.285 3.422
5.600 3.566 3.718
5.590 3.407 3.328
5.653 3.388 1.681
5.461 3.001 1.457
5.334 3.408 1.133
5.347 3.204 1.007
5.433 3.125 0.628
5.451 3.237 0.733
5.533 3.068 0.206
5.413 3.010 0.397
5.571 3.618 5.049
5.881 3.165 4.532
5.420 3.259 4.559
5.449 3.221 4.067
5.809 3.301 4.117
5.748 3.453 3.918
5.728 3.116 3.543
5.589 3.194 3.489
5.322 3.380 3.212
5.294 3.216 3.049
5.244 2.888 1.624
5.485 3.108 1.667
5.319 3.020 1.469
5.379 3.072 1.054
5.238 3.132 0.872
5.431 2.969 0.550
5.368 2.885 0.298
5.190 2.868 0.404
5.388 3.145 4.661
5.677 3.436 4.767
5.534 3.199 4.251
5.499 3.006 4.281
5.412 3.322 3.870
5.670 3.332 3.976
5.306 3.322 3.478
5.070 3.214 3.708
5.325 2.900 3.120
5.155 2.853 3.219
5.375 2.753 1.333
5.218 2.798 1.072
5.045 2.882 1.074
5.271 2.962 0.736
5.275 2.708 0.571
4.885 2.700 0.387
5.126 2.820 4.570
5.246 3.144 4.110
5.391 3.180 4.170
5.524 2.917 3.768
5.130 2.907 3.341
5.071 3.062 3.755
5.232 3.315 3.297
4.938 3.245 1.770
5.147 3.083 1.418
4.797 3.220 1.224
4.758 2.930 0.964
5.148 3.208 0.680
4.971 2.963 0.248
4.693 3.118 0.277
5.309 3.023 4.568
5.384 3.393 4.660
5.190 2.991 4.149
4.974 3.136 4.021
5.144 2.974 3.933
5.276 3.135 3.373
4.909 2.903 3.452
4.749 2.945 3.282
4.972 2.981 1.484
4.796 2.892 1.304
4.903 2.701 0.759
4.998 2.657 0.732
4.920 2.993 0.534
4.554 2.715 0.335
4.840 2.792 4.273
4.844 3.007 4.162
4.992 2.779 4.154
4.863 2.818 3.918
4.793 2.855 3.794
4.247 1.873 2.534
4.103 1.921 1.906
4.134 2.100 2.135
4.040 1.799 1.486
4.238 2.213 1.343
4.139 1.981 1.267
4.603 2.215 5.500
4.490 2.233 5.135
4.216 2.033 4.866
4.303 2.043 4.635
4.538 2.095 4.660
4.283 1.954 4.374
4.049 1.732 2.431
4.181 1.756 2.364
4.170 1.673 1.892
4.084 1.709 1.912
4.149 1.856 1.679
4.116 1.842 1.086
3.856 1.954 1.250
4.027 1.925 5.725
4.437 2.002 5.446
4.105 1.767 5.110
4.051 2.166 5.031
4.203 1.787 4.763
4.110 2.105 4.280
4.029 1.867 4.140
3.981 1.634 2.206
3.668 1.873 1.998
3.791 1.646 1.946
4.033 1.867 1.701
3.779 1.426 1.472
3.582 1.744 1.086
3.568 1.777 1.090
3.959 1.664 0.818
4.312 1.831 5.486
3.961 1.863 5.188
3.837 1.973 5.145
3.912 1.823 5.076
3.846 1.593 4.519
4.018 1.704 4.548
3.873 1.873 4.297
4.158 1.575 3.981
3.951 1.535 3.689
3.912 1.524 2.227
3.808 1.742 2.058
3.654 1.381 2.173
3.535 1.483 1.732
3.636 1.279 1.679
3.619 1.562 1.089
3.736 1.442 1.138
3.754 1.215 0.983
3.777 1.616 0.779
4.137 1.523 5.336
3.960 1.607 5.154
3.835 1.783 5.158
4.070 1.807 5.037
3.886 1.505 4.824
3.674 1.740 4.486
3.735 1.645 4.094
3.825 1.733 3.799
3.974 1.360 3.542
3.480 1.569 3.622
3.807 1.454 3.712
3.478 1.405 2.569
3.535 1.165 2.219
3.540 1.208 1.772
3.506 1.195 1.750
3.750 1.327 1.666
3.537 1.077 1.243
3.591 1.202 0.880
3.591 1.249 0.924
3.480 1.211 0.791
3.650 1.231 0.601
3.967 1.336 5.786
3.814 1.478 5.262
3.827 1.527 5.273
3.873 1.600 5.091
3.991 1.498 4.424
3.641 1.489 4.612
3.705 1.539 4.140
3.887 1.511 4.216
3.838 1.426 3.863
3.768 1.235 4.013
3.424 1.091 3.637
3.256 1.304 2.232
3.365 1.197 2.444
3.273 1.320 1.869
3.206 1.104 1.871
3.550 1.264 1.627
3.165 1.273 1.205
3.571 1.179 1.300
3.315 1.037 0.944
3.387 1.181 0.741
3.218 0.922 0.605
3.842 1.361 5.470
3.557 1.524 5.303
3.743 1.350 4.952
3.655 1.498 5.059
3.646 1.515 4.446
3.376 1.444 4.682
3.688 1.182 4.272
3.758 1.227 3.919
3.323 1.367 3.566
3.613 0.979 3.655
3.475 1.163 3.409
3.311 1.212 2.017
3.267 1.074 1.990
3.165 1.114 1.756
3.264 0.831 1.775
3.158 1.079 1.355
3.160 0.711 1.119
2.989 0.779 1.037
3.125 0.697 0.759
3.243 1.130 0.229
3.539 0.999 5.575
3.345 1.123 4.973
3.471 1.148 5.124
3.486 1.062 4.645
3.373 1.189 4.490
3.459 1.250 4.019
3.446 1.000 3.971
3.194 0.940 3.872
3.424 0.768 3.610
3.419 0.749 3.629
3.314 0.864 2.031
3.075 0.770 1.697
3.164 0.722 1.595
3.312 0.913 1.453
2.953 1.000 1.293
3.267 0.642 0.680
2.956 0.615 0.786
3.138 0.929 0.516
3.171 0.797 5.284
3.334 0.905 4.723
3.104 0.772 4.540
3.257 0.878 4.590
3.310 0.878 4.104
3.307 0.752 4.002
3.470 0.741 3.595
3.044 0.821 3.707
2.979 0.920 3.504
2.907 0.512 1.957
3.165 0.511 1.630
2.806 0.750 1.194
2.788 0.473 1.243
3.055 0.542 1.167
2.672 0.351 0.723
2.762 0.711 0.653
3.059 0.937 4.803
3.069 0.630 4.911
3.108 0.746 4.729
2.960 0.612 4.245
3.008 0.519 4.264
2.921 0.602 3.971
3.058 0.398 3.855
3.176 0.737 3.431
2.776 0.602 1.426
2.936 0.398 1.204
2.810 0.367 1.166
3.004 0.538 0.875
2.619 0.545 0.726
2.664 0.350 0.395
3.239 0.657 4.942
3.074 0.686 4.765
2.880 0.542 4.183
3.059 0.460 3.972
2.842 0.695 3.793
5.502 3.769 3.508
5.573 3.683 3.060
5.626 3.693 2.285
5.734 3.913 1.969
5.670 3.558 1.746
5.519 3.713 1.687
5.364 3.738 1.385
5.471 3.869 0.872
5.724 3.737 1.000
5.412 3.597 0.712
5.346 3.665 0.301
5.681 3.660 0.332
5.648 3.819 5.129
5.909 3.777 4.838
5.567 4.042 5.043
5.767 3.967 4.616
5.898 3.947 4.387
5.789 3.959 4.022
5.537 3.806 3.995
5.920 3.614 3.618
5.875 3.896 3.554
5.374 3.628 3.696
5.320 3.767 3.292
5.347 3.706 2.407
5.538 3.533 1.847
5.227 3.782 1.743
5.248 3.611 1.724
5.192 3.550 1.254
5.196 3.666 0.983
5.410 3.293 0.801
5.397 3.667 0.834
5.191 3.414 0.186
5.303 3.659 -0.063
5.870 3.592 5.437
5.796 3.554 5.103
5.470 3.868 4.839
5.697 3.570 4.430
5.820 3.830 4.315
5.686 3.668 4.014
5.677 3.699 3.909
5.619 3.750 3.736
5.473 3.861 3.609
5.289 3.631 3.556
5.370 3.362 3.446
5.543 3.530 2.091
5.425 3.425 1.588
5.394 3.552 1.492
5.152 3.444 1.161
5.133 3.383 0.906
5.340 3.364 1.058
5.444 3.315 0.419
5.220 3.261 0.407
5.287 3.307 0.015
5.444 3.510 5.273
5.535 3.439 5.041
5.278 3.478 4.435
5.597 3.611 4.409
5.260 3.731 4.099
5.490 3.700 3.837
5.449 3.714 3.703
5.468 3.365 3.596
5.273 3.132 3.341
5.408 3.371 3.255
5.194 3.256 1.828
5.337 3.369 1.560
5.347 3.054 1.301
5.237 2.974 0.858
5.003 3.354 1.052
5.107 3.045 0.480
4.873 2.952 0.554
5.114 3.239 0.039
5.484 3.272 5.040
5.535 3.293 4.776
5.559 3.487 4.600
5.527 3.566 4.088
5.322 3.101 3.932
5.445 3.230 3.943
5.447 3.195 3.592
5.205 3.015 3.499
5.040 2.899 3.469
4.847 3.039 1.595
5.022 2.876 1.226
4.823 3.012 1.194
4.968 3.141 0.668
4.731 2.936 0.458
4.787 3.194 0.476
4.709 2.917 0.414
5.228 3.173 4.682
5.355 3.249 4.610
5.237 2.981 4.046
5.193 3.344 4.195
5.078 3.282 3.656
5.171 2.896 3.725
5.036 3.173 3.676
4.768 3.167 1.737
4.599 3.109 1.482
5.004 2.953 1.278
4.893 3.167 0.998
4.638 3.281 0.922
4.968 3.189 0.660
4.803 3.112 0.435
4.951 3.510 5.112
5.212 3.195 4.923
5.152 3.440 4.398
4.968 3.250 4.030
4.985 3.512 3.814
4.917 3.077 3.601
4.816 3.329 3.783
4.586 3.123 1.413
4.744 3.174 1.513
4.745 2.952 0.899
4.689 3.112 1.070
4.524 2.899 0.906
4.821 2.990 4.884
4.745 2.925 4.709
4.659 3.123 4.340
4.775 2.902 3.916
4.901 3.236 3.865
3.747 2.097 1.812
4.033 2.317 1.702
3.771 2.099 1.681
3.776 2.004 1.006
3.976 2.268 1.085
4.305 2.161 4.909
4.109 2.258 4.899
4.213 2.310 4.544
4.076 2.142 4.266
3.889 2.342 4.013
3.871 1.976 2.056
3.600 1.991 2.118
3.691 1.735 1.621
3.626 2.004 1.534
3.969 1.950 1.220
3.594 1.961 1.240
3.703 1.903 0.700
4.212 2.386 5.478
4.128 2.177 5.076
4.061 2.354 5.028
4.062 2.202 4.689
3.814 2.182 4.597
3.879 2.142 4.316
3.956 2.242 3.720
3.911 1.769 3.718
3.722 1.823 2.444
3.753 1.688 2.055
3.572 1.837 1.975
3.551 1.758 1.495
3.531 1.878 1.534
3.578 1.793 1.399
3.772 1.689 1.026
3.613 1.876 0.949
3.503 1.717 0.762
4.137 2.226 5.695
3.812 1.928 5.324
3.878 2.101 5.148
3.778 2.117 4.930
3.783 1.817 4.816
3.688 2.000 4.614
3.732 2.006 4.382
3.594 2.096 3.803
3.623 2.127 3.736
3.793 1.577 3.513
3.497 1.948 3.698
3.529 1.630 2.353
3.491 1.703 2.270
3.618 1.875 1.837
3.752 1.557 1.719
3.585 1.452 1.291
3.400 1.737 1.122
3.481 1.364 1.073
3.654 1.424 0.898
3.661 1.710 0.502
3.667 1.767 0.206
3.968 1.683 5.504
3.643 1.814 5.122
3.557 1.897 5.034
3.521 1.798 4.985
3.853 1.823 4.463
3.747 1.807 4.362
3.726 1.955 4.173
3.578 1.810 3.762
3.864 1.889 3.614
3.462 1.681 3.815
3.574 1.570 3.309
3.464 1.529 2.582
3.575 1.502 2.251
3.219 1.431 1.752
3.163 1.443 1.523
3.136 1.409 1.556
3.238 1.508 1.366
3.304 1.211 1.251
3.100 1.256 0.859
3.205 1.548 0.674
3.109 1.277 0.474
3.596 1.763 5.351
3.577 1.799 5.389
3.735 1.494 5.065
3.695 1.432 4.970
3.773 1.418 4.615
3.366 1.741 4.580
3.341 1.433 4.226
3.451 1.674 3.992
3.406 1.339 3.829
3.286 1.624 3.998
3.178 1.597 3.598
3.255 1.472 2.670
3.065 1.476 2.293
3.386 1.174 2.060
3.088 1.069 1.569
3.227 1.449 1.321
3.188 1.172 1.108
3.231 1.154 1.260
3.059 1.406 1.079
3.343 1.158 0.661
3.039 1.112 0.535
3.379 1.270 5.506
3.267 1.311 5.167
3.541 1.458 5.179
3.504 1.328 5.134
3.509 1.464 4.685
3.451 1.308 4.335
3.296 1.266 4.315
3.201 1.233 3.894
3.144 1.345 3.918
3.077 1.134 3.635
3.439 1.120 3.452
3.320 0.988 2.230
3.272 1.158 2.396
3.130 1.008 2.179
3.079 0.930 1.929
3.134 1.160 1.494
2.937 1.038 1.261
2.832 1.111 1.171
2.883 1.287 0.749
3.086 1.015 0.626
2.856 0.830 0.560
3.225 1.140 5.385
3.304 1.188 5.239
3.261 1.420 5.373
3.112 1.401 5.042
3.174 1.408 4.490
3.462 1.135 4.509
3.050 1.079 4.394
3.046 1.341 4.111
3.468 1.050 3.839
3.175 1.006 3.754
3.047 1.003 3.564
2.757 0.748 2.282
2.785 0.955 2.227
3.059 0.731 2.002
2.982 0.939 1.682
2.923 0.799 1.127
2.728 0.709 1.113
3.088 0.694 0.893
2.817 0.868 0.806
3.062 0.900 0.361
3.391 1.334 5.307
3.197 0.912 5.167
3.391 0.896 5.014
3.337 1.111 4.848
3.163 0.860 4.599
3.096 0.870 4.219
2.992 0.904 3.926
2.865 1.074 3.925
3.180 0.814 3.827
2.775 0.794 2.115
2.611 0.535 1.810
2.578 0.741 1.739
2.553 0.638 1.418
2.946 0.823 1.172
2.664 0.897 0.995
2.669 0.938 0.941
3.068 1.054 5.204
3.051 1.168 5.096
3.192 1.052 4.518
3.162 1.062 4.498
2.793 0.740 4.156
3.065 0.756 3.996
3.166 0.935 4.024
2.612 0.474 1.743
2.727 0.537 1.596
2.699 0.598 1.611
2.398 0.478 1.007
2.714 0.677 1.019
2.915 0.900 4.899
2.646 0.714 4.954
2.985 0.759 4.327
2.651 0.848 4.129
2.764 0.796 4.036
5.594 3.982 3.512
5.646 4.043 3.225
5.207 3.840 2.203
5.313 3.720 2.019
5.297 4.050 1.730
5.504 3.668 1.594
5.268 3.681 1.322
5.313 3.751 1.060
5.269 3.622 1.041
5.445 3.919 0.406
5.465 3.780 0.403
5.164 3.903 -0.063
5.460 4.052 5.130
5.543 3.967 4.866
5.768 3.858 4.928
5.702 3.794 4.498
5.435 3.996 4.522
5.555 4.021 4.130
5.714 3.754 3.723
5.543 3.839 3.518
5.553 3.920 3.276
5.472 3.929 3.360
5.556 3.801 3.201
5.130 3.502 2.031
5.434 3.690 1.875
5.183 3.574 1.603
5.485 3.512 1.320
5.123 3.667 1.057
5.132 3.605 1.119
5.358 3.764 1.017
5.198 3.559 0.445
5.312 3.740 0.352
4.972 3.592 0.035
5.697 3.762 5.417
5.293 3.973 5.075
5.603 3.626 4.750
5.250 3.751 4.449
5.559 3.817 4.611
5.391 3.657 4.217
5.505 3.972 3.906
5.581 3.597 3.514
5.415 3.604 3.630
5.106 3.423 3.640
5.341 3.743 3.452
5.252 3.555 2.074
4.962 3.771 1.803
4.908 3.757 1.643
4.906 3.349 1.422
4.935 3.597 1.272
4.873 3.574 1.169
5.090 3.369 0.633
4.937 3.502 0.453
5.196 3.487 0.455
4.907 3.427 0.256
5.353 3.807 5.464
5.286 3.757 5.224
5.130 3.661 5.115
5.167 3.506 4.700
5.477 3.750 4.495
5.055 3.615 4.237
5.234 3.425 3.935
5.118 3.394 3.688
5.479 3.555 3.538
5.070 3.546 3.565
5.316 3.602 3.559
5.057 3.140 1.982
4.983 3.488 1.954
4.752 3.440 1.357
4.726 3.215 1.219
4.888 3.484 1.208
4.954 3.436 0.670
4.834 3.102 0.755
4.916 3.479 0.478
4.841 3.159 0.404
5.301 3.371 5.074
5.370 3.627 4.986
5.124 3.391 4.444
5.244 3.604 4.637
5.089 3.502 4.361
5.329 3.559 3.889
4.968 3.324 3.717
5.035 3.371 3.681
4.982 3.178 3.688
4.793 3.079 1.917
4.608 3.372 1.337
4.746 2.944 1.246
4.803 3.160 1.138
4.974 3.161 0.790
4.876 3.138 0.658
4.750 3.194 0.384
5.067 3.177 4.779
4.839 3.329 4.819
4.825 3.133 4.245
5.118 3.297 4.454
4.801 3.068 3.915
4.920 3.471 3.789
5.043 3.400 3.436
4.760 3.172 1.894
4.874 3.555 1.848
4.614 3.327 1.625
4.435 3.456 1.173
4.454 3.468 1.283
4.537 3.202 1.088
4.653 3.032 0.690
4.987 3.408 5.307
5.107 3.423 5.079
4.956 3.552 4.812
4.866 3.453 4.506
4.875 3.595 4.132
4.776 3.511 4.200
4.986 3.385 3.760
4.439 3.223 1.943
4.707 2.993 1.367
4.685 3.010 1.246
4.663 2.997 1.174
4.533 3.159 0.872
4.891 3.433 4.940
4.506 3.502 4.664
4.775 3.329 4.340
4.775 3.376 4.252
4.471 3.256 4.140
3.824 2.369 1.610
3.719 2.251 1.364
3.705 2.157 1.056
3.915 2.288 1.034
3.486 2.105 0.765
4.089 2.595 4.946
3.826 2.555 4.492
4.064 2.228 4.186
4.155 2.352 3.908
3.965 2.331 3.756
3.685 2.317 3.906
3.796 1.901 1.770
3.505 2.085 1.844
3.706 2.106 1.701
3.701 1.992 1.162
3.781 2.089 0.812
3.508 1.973 0.606
3.610 2.074 0.818
3.863 2.238 5.192
3.704 2.151 4.614
3.645 2.414 4.437
3.788 2.259 4.587
3.982 2.130 4.395
3.800 2.307 4.064
3.658 2.341 3.531
3.545 2.012 3.595
3.779 2.056 3.313
3.710 1.789 2.295
3.550 1.771 1.873
3.318 1.974 1.914
3.637 2.049 1.558
3.316 2.100 1.234
3.572 2.108 1.130
3.524 1.952 1.024
3.327 2.055 0.499
3.360 1.973 0.159
3.769 2.346 5.371
3.807 2.242 5.050
3.815 2.203 4.850
3.847 2.022 4.861
3.700 1.889 4.434
3.865 1.981 4.099
3.535 1.975 3.751
3.649 1.885 3.659
3.727 1.789 3.771
3.389 1.804 3.679
3.186 1.598 2.282
3.202 1.816 2.153
3.462 1.711 2.021
3.252 1.642 1.587
3.354 1.719 1.522
3.402 1.860 1.145
3.169 1.753 1.026
3.391 1.803 1.037
3.350 1.877 0.478
3.388 1.470 0.241
3.485 2.079 5.458
3.734 1.790 5.300
3.748 2.186 5.209
3.725 1.775 4.866
3.368 1.891 4.878
3.544 1.845 4.338
3.436 2.001 3.961
3.710 1.844 3.872
3.292 2.065 3.527
3.410 1.554 3.808
3.353 1.488 3.536
3.428 1.621 2.510
3.211 1.477 2.107
3.207 1.427 1.962
3.408 1.463 1.953
3.005 1.751 1.689
3.237 1.474 1.404
3.198 1.384 1.249
3.025 1.335 0.765
3.001 1.732 0.788
3.122 1.491 0.584
3.322 1.847 5.635
3.501 1.601 5.332
3.223 1.864 5.099
3.442 1.856 4.743
3.475 1.683 4.649
3.478 1.836 4.289
3.266 1.684 4.075
3.162 1.722 4.216
3.476 1.923 3.832
3.012 1.586 3.920
3.244 1.535 3.582
3.305 1.430 2.469
2.911 1.598 2.384
2.991 1.543 1.952
3.065 1.304 1.680
3.127 1.294 1.509
2.808 1.342 1.203
2.952 1.186 0.874
2.951 1.439 0.650
3.204 1.397 0.631
3.107 1.274 0.504
3.523 1.580 5.739
3.351 1.512 5.317
3.246 1.437 5.045
3.429 1.787 4.884
3.216 1.587 4.527
3.077 1.729 4.352
3.088 1.772 4.213
3.304 1.729 4.038
3.324 1.472 3.934
2.971 1.401 3.921
2.948 1.443 3.639
3.173 1.261 2.311
2.792 1.053 2.190
2.855 1.293 2.162
2.771 1.149 1.871
2.749 1.476 1.542
3.026 1.176 1.351
2.838 1.178 1.162
2.733 1.223 0.970
2.942 1.031 0.797
2.963 1.160 0.243
3.166 1.413 5.430
3.360 1.503 5.351
3.285 1.559 4.928
3.006 1.553 4.711
3.039 1.525 4.522
3.173 1.194 4.625
3.270 1.460 4.172
3.217 1.432 3.855
3.171 1.327 3.677
2.801 1.033 3.801
2.866 0.933 2.619
2.824 0.906 2.129
2.681 1.010 2.229
2.638 0.940 1.945
2.618 1.023 1.784
2.596 1.068 1.249
2.692 0.914 1.257
2.605 0.836 0.828
2.851 1.224 0.895
2.907 1.459 5.550
3.235 1.172 5.523
2.811 1.215 5.040
3.108 1.142 5.127
2.997 1.211 4.579
2.731 1.455 4.556
3.072 1.180 4.253
2.986 1.356 4.112
2.734 1.238 3.591
2.699 1.099 2.368
2.723 0.879 2.092
2.754 0.838 2.071
2.703 1.117 1.508
2.577 0.848 1.489
2.765 1.059 1.259
2.697 0.834 1.103
2.682 1.182 5.319
2.998 1.148 5.380
2.875 0.922 5.109
2.654 1.112 4.877
2.700 1.003 4.671
2.660 1.087 4.371
2.558 1.155 3.990
2.289 0.786 2.269
2.500 0.615 1.621
2.387 0.557 1.427
2.270 0.955 1.375
2.501 0.571 1.225
2.709 1.087 5.103
2.822 1.112 5.201
2.812 0.890 4.750
2.757 0.847 4.675
2.818 0.848 4.380
2.133 0.216 5.025
1.861 0.158 5.016
2.124 0.040 4.527
1.799 -0.020 4.203
1.743 0.029 4.173
5.144 4.120 3.679
5.508 4.228 3.505
5.300 4.180 2.094
5.296 3.896 1.741
5.206 4.006 1.915
4.994 3.942 1.727
5.060 3.783 1.375
4.982 3.804 1.217
5.284 4.144 0.920
4.974 3.968 0.681
5.375 3.910 0.420
5.103 4.024 -0.039
5.557 4.293 5.452
5.629 4.301 4.937
5.549 4.376 4.925
5.465 4.253 4.837
5.450 4.102 4.393
5.579 4.303 4.049
5.330 4.036 3.915
5.266 4.101 3.898
5.248 3.999 3.544
5.260 3.987 3.603
5.187 3.733 3.207
5.039 4.041 2.373
5.326 3.707 1.919
4.859 4.052 1.756
5.086 3.634 1.644
4.838 3.657 1.083
5.268 3.632 1.242
5.249 3.957 0.904
4.927 3.816 0.539
5.126 3.821 0.277
4.762 3.637 0.327
5.499 4.166 5.233
5.471 3.828 5.286
5.391 3.957 5.070
5.061 3.967 4.420
5.508 3.982 4.493
5.312 3.985 4.348
5.228 4.158 3.998
5.424 3.794 3.894
5.081 3.698 3.644
4.852 3.672 3.307
5.031 3.653 3.245
5.184 3.601 1.983
4.746 3.667 2.203
5.166 3.732 1.732
4.707 3.552 1.500
4.857 3.411 1.189
4.955 3.838 1.203
4.915 3.546 1.053
5.095 3.603 0.608
4.929 3.543 0.354
4.900 3.585 0.210
5.081 3.690 5.139
5.277 3.877 5.278
4.937 3.760 5.008
4.973 3.781 4.881
4.954 4.017 4.214
4.934 3.605 4.287
5.306 3.717 4.111
5.162 3.888 3.719
5.264 3.923 3.371
5.098 3.794 3.731
5.038 3.576 2.051
4.714 3.609 2.018
4.786 3.653 1.655
4.809 3.542 1.674
4.776 3.400 1.255
4.849 3.346 1.097
4.720 3.583 0.911
4.840 3.397 0.490
4.772 3.461 0.289
4.878 3.913 5.215
4.961 3.658 5.197
5.005 3.553 4.829
4.963 3.573 4.445
5.228 3.501 4.472
4.844 3.513 4.431
5.015 3.590 3.952
5.051 3.603 3.598
5.021 3.364 3.469
4.857 3.539 2.144
4.586 3.319 1.898
4.700 3.247 1.628
4.839 3.273 1.439
4.407 3.198 1.262
4.652 3.372 0.683
4.584 3.172 0.706
4.707 3.362 5.013
4.930 3.268 4.934
5.048 3.678 4.705
4.661 3.661 4.675
4.957 3.415 4.161
4.598 3.644 3.927
4.701 3.585 3.623
4.708 3.630 2.304
4.429 3.658 1.800
4.412 3.339 1.818
4.682 3.395 1.728
4.582 3.221 1.397
4.490 3.273 1.261
4.206 3.602 1.095
4.808 3.705 5.546
4.509 3.464 5.185
4.527 3.607 5.018
4.651 3.398 4.897
4.600 3.638 4.465
4.755 3.788 4.209
4.580 3.655 4.031
4.443 3.272 2.188
4.358 3.430 1.806
4.228 3.392 1.841
4.291 3.447 1.696
4.124 3.491 1.473
4.104 3.111 1.078
4.755 3.525 5.155
4.699 3.594 5.001
4.495 3.521 5.158
4.587 3.486 4.691
4.725 3.622 4.422
4.478 3.501 4.388
3.560 2.708 3.505
3.620 2.439 3.324
3.649 2.655 1.674
3.519 2.170 1.368
3.544 2.177 0.801
3.509 2.525 0.897
3.419 2.223 0.377
3.626 2.305 0.428
3.848 2.805 4.377
3.898 2.565 4.158
3.887 2.396 4.002
3.637 2.668 4.076
3.720 2.582 3.481
3.837 2.247 3.850
3.729 2.348 3.646
3.332 2.334 1.822
3.612 2.463 1.392
3.399 2.227 1.108
3.423 2.321 1.052
3.410 2.311 0.943
3.368 2.142 0.457
3.235 2.162 0.159
3.719 2.651 5.005
3.622 2.423 4.568
3.843 2.399 4.589
3.439 2.283 4.148
3.715 2.370 3.922
3.507 2.564 3.934
3.642 2.259 3.841
3.271 2.200 3.311
3.426 2.197 2.004
3.117 2.122 1.646
3.458 1.869 1.353
3.405 1.882 1.093
3.354 2.108 0.828
3.041 1.883 0.700
3.354 1.881 0.384
3.465 2.027 0.240
3.616 2.155 4.841
3.768 2.477 4.901
3.471 2.409 4.409
3.609 2.254 4.463
3.271 2.258 4.114
3.641 2.262 3.768
3.338 2.195 3.837
3.193 1.806 3.873
3.364 1.813 3.728
3.232 1.721 2.251
3.355 1.913 1.910
3.100 2.051 1.662
3.255 2.087 1.323
3.343 2.076 1.112
3.248 1.716 0.946
3.240 1.702 0.988
3.304 1.888 0.822
3.070 1.994 0.423
3.598 2.259 5.166
3.525 1.874 4.939
3.588 2.162 4.759
3.527 2.152 4.569
3.305 2.038 4.612
3.290 2.024 4.111
3.103 1.800 3.869
3.356 2.005 3.570
3.230 1.864 3.668
3.085 1.754 3.616
2.853 1.738 2.436
3.105 1.859 2.308
2.948 1.719 2.034
2.936 1.884 1.558
2.817 1.639 1.698
3.045 1.557 1.149
3.117 1.891 1.288
3.171 1.493 0.639
2.777 1.491 0.684
2.963 1.814 0.322
3.283 1.827 5.346
3.399 2.000 5.466
3.213 2.126 5.112
3.080 1.876 5.103
3.432 1.814 4.597
3.246 1.896 4.575
2.989 2.011 4.297
3.236 1.776 4.135
3.247 2.063 3.746
3.190 1.500 3.803
3.196 1.721 3.615
2.864 1.788 2.449
3.139 1.789 2.319
2.786 1.557 2.113
3.019 1.619 1.999
2.918 1.384 1.795
2.685 1.581 1.221
2.681 1.594 0.987
2.775 1.339 1.113
2.882 1.368 0.564
2.690 1.486 0.312
3.379 1.908 5.347
3.337 1.775 5.182
3.112 1.814 4.978
3.216 1.754 4.684
3.052 1.948 4.871
3.172 1.495 4.378
2.863 1.764 4.256
2.900 1.619 3.798
2.945 1.473 3.934
3.099 1.697 3.994
2.608 1.297 2.549
2.988 1.503 2.471
2.606 1.369 1.867
2.598 1.423 1.633
2.812 1.558 1.451
2.553 1.199 1.420
2.873 1.323 1.292
2.662 1.432 0.837
2.471 1.577 0.446
2.940 1.414 5.626
2.836 1.475 5.374
3.129 1.601 5.167
2.765 1.458 4.877
2.782 1.322 4.902
3.106 1.724 4.698
2.714 1.534 4.420
3.122 1.393 4.083
2.791 1.414 4.025
2.495 1.189 2.526
2.579 1.437 2.073
2.680 1.245 2.182
2.541 1.026 1.585
2.545 1.357 1.423
2.793 1.199 1.242
2.437 0.995 1.309
2.368 1.418 0.925
2.982 1.210 5.445
2.672 1.290 5.251
3.008 1.476 5.151
3.011 1.170 4.976
2.838 1.599 4.745
2.762 1.418 4.540
2.591 1.436 4.315
2.559 1.250 4.205
2.515 1.110 2.399
2.414 1.113 2.413
2.523 0.922 2.165
2.428 0.973 1.954
2.497 1.035 1.458
2.641 0.976 1.282
2.392 1.255 1.171
2.760 1.287 5.745
2.478 1.215 5.574
2.562 1.165 5.296
2.468 1.165 5.101
2.883 1.354 4.515
2.697 1.197 4.404
2.857 1.386 4.440
2.139 0.869 2.624
2.203 0.866 2.422
2.312 1.063 2.302
2.086 1.006 1.691
2.294 0.995 1.419
2.512 1.002 1.334
2.568 0.961 5.744
