0.478 5.962 3.097
0.542 5.983 3.011
0.189 5.323 3.254
0.122 5.379 3.230
0.287 5.650 3.354
0.527 6.021 3.326
0.455 6.209 3.398
0.107 5.456 3.583
0.083 5.906 3.427
0.257 5.930 3.306
2.034 2.226 2.537
1.872 2.516 2.497
2.089 2.496 2.340
1.977 2.799 2.259
2.212 3.281 2.221
2.756 5.043 1.973
2.751 5.171 2.209
2.712 5.582 2.165
2.971 5.638 2.074
3.034 5.933 1.972
0.692 1.504 3.047
1.046 1.886 2.969
0.773 1.977 2.913
1.095 2.347 2.810
1.574 4.297 2.755
1.589 4.759 2.748
1.765 4.894 2.716
1.763 5.202 2.598
0.579 1.333 3.002
0.932 1.625 3.004
0.749 1.701 3.129
0.521 2.029 3.149
0.565 2.113 3.078
0.695 2.456 3.005
0.676 2.739 3.111
1.360 4.632 2.676
1.218 4.778 2.928
1.415 5.142 2.657
1.570 5.216 2.580
1.695 5.494 2.772
1.710 5.684 2.510
0.635 1.519 3.323
0.409 1.647 3.287
0.532 1.705 3.533
0.815 1.949 3.382
0.696 2.188 3.395
1.069 2.436 3.303
1.407 4.417 3.088
1.277 4.479 3.154
1.530 4.802 3.194
1.584 4.907 3.024
1.743 5.399 2.934
1.568 5.686 3.001
0.429 0.956 3.515
0.779 1.452 3.458
0.705 1.462 3.484
0.517 1.681 3.520
0.673 1.914 3.596
0.485 2.160 3.498
0.834 2.521 3.511
0.612 2.815 3.457
0.977 2.882 3.228
1.033 4.212 3.193
1.118 4.729 3.286
1.411 4.889 3.169
1.230 4.992 3.099
1.380 5.253 3.139
1.508 5.490 3.043
1.362 5.859 2.846
0.563 1.331 3.621
0.628 1.682 3.645
0.119 1.922 3.691
0.393 2.198 3.766
0.503 2.431 3.744
0.338 2.484 3.599
0.549 2.985 3.625
0.509 3.201 3.596
0.997 4.671 3.375
0.982 4.806 3.372
0.998 5.062 3.290
1.246 5.606 3.153
1.117 5.892 3.298
1.366 6.048 2.997
1.234 6.372 2.944
0.155 1.650 3.602
0.088 1.629 3.756
-0.088 1.855 3.808
0.106 2.252 3.594
0.299 2.457 3.854
0.135 2.693 3.820
0.103 2.994 3.729
0.213 3.314 3.456
0.269 3.258 3.668
0.850 4.626 3.384
0.872 4.854 3.518
0.841 5.440 3.232
0.935 5.497 3.373
0.832 5.874 3.311
0.960 6.084 3.431
-0.064 1.859 3.840
-0.004 2.919 3.817
0.206 3.170 3.624
0.134 3.454 3.686
0.408 3.898 3.564
0.595 5.045 3.472
0.504 5.216 3.326
0.689 5.733 3.617
0.778 5.981 3.422
0.840 6.189 3.300
0.185 3.794 3.937
0.550 5.601 3.651
0.569 5.632 3.528
0.651 5.842 3.507
0.742 6.059 3.359
0.268 5.757 3.547
0.461 5.976 3.815
2.115 2.246 2.528
2.075 2.320 2.528
2.270 2.573 2.469
2.151 3.008 2.401
2.466 3.082 2.552
2.366 3.224 2.391
2.797 5.249 2.413
3.045 5.563 2.370
2.937 5.694 2.158
3.132 6.052 2.181
1.465 0.082 2.933
1.595 0.314 2.728
1.938 2.808 2.562
1.968 2.946 2.615
2.039 3.152 2.788
2.037 3.473 2.722
2.333 3.764 2.544
2.523 5.589 2.446
2.781 5.800 2.382
2.849 6.100 2.190
1.218 0.334 2.921
1.357 0.383 3.085
1.761 3.391 2.831
1.850 3.669 2.662
1.877 3.943 2.844
2.006 3.962 2.782
2.545 6.275 2.477
1.056 0.224 3.031
1.197 0.518 3.100
1.382 0.901 3.132
1.402 1.131 3.192
1.177 1.527 3.042
1.550 3.630 2.963
1.679 4.006 2.863
1.739 4.144 2.851
1.767 4.491 2.623
1.913 4.701 2.712
1.106 0.726 3.073
0.940 1.008 3.062
1.024 1.090 3.115
1.206 1.497 3.304
1.098 1.622 3.096
1.107 1.841 3.186
1.020 2.219 3.079
1.586 4.010 3.016
1.612 4.106 2.799
1.816 4.589 3.063
1.709 4.686 2.991
1.692 4.889 2.802
1.845 5.140 2.659
0.589 0.863 3.541
0.882 1.179 3.288
0.844 1.274 3.294
0.802 1.697 3.307
0.703 1.469 3.324
0.868 1.980 3.400
0.823 2.188 3.365
0.977 2.421 3.279
1.242 4.384 3.128
1.328 4.547 3.091
1.522 4.815 2.869
1.484 4.915 2.857
1.690 5.194 2.872
1.728 5.494 2.879
0.472 0.937 3.562
0.625 1.521 3.411
0.572 1.757 3.288
0.670 1.655 3.783
0.959 2.011 3.590
1.033 2.194 3.560
1.427 3.831 3.461
1.568 4.184 3.160
1.474 4.403 3.258
1.623 4.959 3.248
1.532 4.950 3.201
1.909 5.376 3.049
0.471 0.688 3.884
0.762 1.202 3.571
0.793 1.306 3.567
0.789 1.648 3.641
0.697 1.640 3.617
0.503 2.082 3.901
0.794 2.147 3.802
0.829 2.535 3.634
1.194 4.478 3.532
1.387 4.673 3.441
1.520 4.886 3.386
1.330 4.955 3.246
1.407 5.456 3.150
1.469 5.775 3.341
0.546 1.220 3.887
0.580 1.473 3.826
0.645 1.704 3.601
0.218 1.703 3.915
0.369 2.150 3.735
0.544 2.294 3.927
0.410 2.579 3.822
0.470 2.730 3.652
1.092 4.840 3.570
1.037 4.977 3.595
1.086 5.061 3.541
1.391 5.320 3.367
1.260 5.588 3.419
1.555 6.042 3.209
0.270 1.339 3.859
0.552 1.677 3.900
0.066 2.141 3.841
0.386 2.520 3.889
0.321 2.601 3.912
0.243 2.909 3.912
0.297 3.206 3.888
1.061 4.973 3.599
1.149 5.439 3.651
1.156 5.675 3.533
1.214 5.844 3.666
1.013 6.008 3.429
-0.084 2.524 3.915
0.280 2.551 4.106
0.330 3.134 4.007
0.260 3.337 3.926
0.312 3.557 4.076
0.377 3.772 4.022
0.933 5.328 3.809
0.790 5.768 3.735
1.031 5.920 3.809
0.854 6.117 3.666
-0.129 3.223 4.008
0.134 3.449 4.205
0.004 3.849 4.187
0.182 4.068 4.012
0.683 5.504 3.984
0.526 6.009 3.975
0.622 6.110 3.795
-0.091 4.335 4.000
0.592 6.068 3.780
0.355 6.429 3.839
2.123 2.443 2.895
2.293 2.537 2.926
2.323 3.010 2.918
2.447 3.143 2.613
2.402 3.308 2.798
2.696 3.488 2.753
2.798 3.744 2.828
2.889 5.102 2.582
3.149 5.412 2.371
2.931 5.820 2.421
3.307 5.996 2.436
1.705 0.232 3.134
1.840 0.387 3.208
1.971 0.845 2.949
2.058 2.835 3.043
2.206 3.014 2.833
2.300 3.318 2.952
2.207 3.320 2.696
2.457 3.780 3.010
2.319 3.812 2.640
2.489 4.264 2.697
2.708 5.503 2.768
2.731 5.937 2.561
2.945 6.170 2.665
1.461 0.281 3.376
1.440 0.387 3.156
1.730 0.878 3.204
1.534 1.262 3.014
1.441 1.244 3.156
2.088 3.063 2.909
1.986 3.442 2.908
1.983 3.637 2.938
2.144 3.937 3.101
2.031 3.902 3.105
2.260 4.259 2.855
2.668 5.770 2.602
2.751 6.159 2.841
1.364 0.372 3.289
1.167 0.789 3.343
1.298 0.962 3.449
1.515 1.318 3.374
1.578 1.355 3.247
1.216 1.537 3.271
1.434 1.763 3.407
1.874 3.382 3.249
1.884 3.648 3.095
1.853 3.984 3.216
2.112 3.968 2.893
2.151 4.359 3.145
2.088 4.635 2.907
2.468 6.153 2.948
1.084 0.390 3.446
1.005 0.747 3.481
1.074 1.041 3.513
1.104 1.120 3.472
1.164 1.449 3.340
0.910 1.710 3.593
1.153 1.752 3.564
1.049 1.944 3.597
1.644 3.422 3.111
1.619 3.561 3.169
1.532 3.926 3.140
1.695 4.087 3.180
1.672 4.468 3.080
1.678 4.901 3.045
1.863 5.028 2.970
0.760 0.605 3.596
0.845 0.725 3.554
0.899 0.915 3.420
1.079 1.330 3.401
0.899 1.405 3.437
0.902 1.767 3.733
0.841 1.917 3.554
0.914 2.114 3.434
1.414 4.051 3.385
1.462 4.396 3.223
1.616 4.579 3.171
1.523 4.724 3.181
1.555 5.150 3.113
1.848 5.201 3.313
0.760 0.876 3.589
0.633 1.120 3.587
0.858 1.476 3.682
0.786 1.456 3.463
0.929 1.724 3.913
0.909 1.770 3.761
1.380 3.904 3.488
1.556 4.173 3.530
1.639 4.313 3.482
1.751 4.416 3.619
1.841 4.725 3.362
1.898 5.116 3.449
0.785 0.401 3.935
0.958 0.951 4.015
0.910 1.127 4.026
0.889 1.323 4.063
0.850 1.757 3.849
0.625 1.644 4.148
0.756 1.875 3.998
0.777 2.224 3.844
1.236 4.201 3.709
1.464 4.509 3.812
1.314 4.710 3.567
1.347 4.794 3.529
1.585 5.278 3.417
0.662 1.253 4.151
0.527 1.478 3.933
0.784 1.748 3.856
0.677 2.183 4.129
0.763 2.320 4.081
1.388 4.970 3.765
1.442 5.023 3.574
0.423 3.052 4.153
0.295 3.171 4.357
0.547 3.359 4.240
1.163 6.200 3.859
-0.072 3.165 4.259
0.102 3.412 4.252
0.239 3.426 4.400
0.264 3.782 4.419
0.297 4.189 4.110
0.504 4.334 4.384
0.986 6.147 3.971
0.103 3.730 4.383
0.081 4.245 4.348
0.023 4.455 4.409
0.387 4.865 4.427
0.534 6.137 4.089
-0.037 4.690 4.583
0.217 4.935 4.316
2.267 2.494 3.160
2.409 2.592 3.092
2.400 2.835 3.134
2.518 3.022 2.933
2.809 3.408 3.011
2.765 3.683 2.961
2.889 3.844 2.804
2.769 4.037 2.898
3.094 5.654 2.643
3.112 5.673 2.733
3.288 6.058 2.818
1.763 0.290 3.471
1.854 0.540 3.238
1.864 0.909 3.246
1.936 0.840 3.134
1.804 1.484 3.451
2.079 2.601 3.319
2.132 2.861 3.037
2.299 3.057 3.034
2.454 3.493 2.967
2.602 3.853 3.223
2.436 3.851 3.104
2.705 4.257 3.021
3.029 5.383 2.878
2.847 5.687 2.768
2.967 6.053 2.647
1.514 0.146 3.412
1.646 0.450 3.378
1.719 0.661 3.389
1.840 1.086 3.495
2.039 1.314 3.395
1.638 1.408 3.488
2.161 2.850 3.348
2.000 3.118 3.131
2.126 3.190 3.327
2.113 3.391 3.105
2.129 3.844 3.253
2.314 3.938 3.162
2.322 4.355 3.276
2.486 4.416 3.267
2.631 5.911 2.844
2.888 6.251 2.970
1.307 0.246 3.742
1.446 0.754 3.617
1.583 1.002 3.595
1.547 1.320 3.555
1.771 1.359 3.562
1.551 1.564 3.646
1.413 1.728 3.528
1.740 3.156 3.447
1.800 3.386 3.565
1.902 3.561 3.324
2.104 3.852 3.319
1.976 4.001 3.362
2.232 4.255 3.432
2.061 4.618 3.223
2.554 5.913 2.942
2.477 6.362 3.053
1.199 0.433 3.776
1.140 0.532 3.552
1.461 0.950 3.859
1.258 1.335 3.724
1.486 1.453 3.470
1.087 1.545 3.787
1.208 1.832 3.760
1.749 3.067 3.719
1.819 3.581 3.660
1.667 3.830 3.359
1.923 3.872 3.546
1.886 4.221 3.287
1.798 4.551 3.451
1.848 4.609 3.342
2.014 4.810 3.258
1.017 0.383 3.886
0.972 0.689 3.929
1.236 1.100 3.740
0.989 1.292 3.860
1.271 1.468 3.624
0.811 1.638 3.992
1.040 1.848 3.733
1.484 3.826 3.502
1.514 3.930 3.689
1.498 4.326 3.465
1.812 4.465 3.429
1.588 4.666 3.577
1.856 5.027 3.641
0.602 0.694 3.935
0.737 0.905 4.037
0.802 0.960 3.794
0.803 1.435 4.004
0.906 1.768 3.940
1.039 1.791 4.099
1.531 3.336 4.030
1.625 3.696 3.935
1.778 4.032 3.900
1.783 4.322 3.784
1.903 4.520 3.684
1.923 4.684 3.570
0.838 0.505 4.165
0.793 0.834 4.317
0.815 1.082 4.139
1.181 1.522 4.153
1.030 1.676 4.186
1.438 4.038 4.092
1.575 4.348 4.069
1.753 4.744 3.812
0.839 0.980 4.443
0.785 1.092 4.360
0.859 1.587 4.232
0.187 3.437 4.469
0.381 3.682 4.424
0.327 3.999 4.351
0.590 4.487 4.593
-0.109 3.412 4.599
0.160 3.516 4.730
0.233 4.059 4.551
0.200 4.193 4.550
0.233 4.320 4.754
0.472 4.661 4.429
0.558 4.853 4.537
-0.061 4.365 4.738
0.076 4.562 4.804
0.053 4.776 4.708
0.331 5.095 4.654
0.280 5.445 4.716
0.165 5.220 4.631
2.155 1.366 3.382
2.572 2.582 3.273
2.680 2.818 3.321
2.786 3.184 3.375
2.736 3.217 3.228
2.954 3.810 3.306
2.788 3.853 3.129
2.871 4.179 3.091
3.459 5.636 2.811
3.366 6.005 3.062
2.122 0.183 3.567
2.083 0.340 3.714
2.238 0.914 3.460
2.237 1.181 3.532
2.267 1.240 3.623
2.131 1.481 3.723
2.264 2.697 3.450
2.542 2.952 3.510
2.410 3.212 3.497
2.661 3.534 3.514
2.681 3.743 3.390
2.791 3.837 3.402
2.834 4.252 3.424
2.825 4.666 3.360
3.151 5.793 2.960
3.200 6.170 3.040
1.830 0.337 3.825
1.774 0.425 3.525
1.951 0.759 3.807
2.139 1.217 3.769
1.949 1.371 3.511
1.813 1.582 3.705
1.944 1.693 3.603
1.981 2.855 3.464
2.343 2.891 3.421
2.124 3.324 3.614
2.295 3.425 3.653
2.308 3.903 3.614
2.391 4.110 3.351
2.357 4.316 3.237
2.407 4.593 3.465
2.843 6.010 3.260
2.925 6.324 3.107
1.501 0.216 3.825
1.624 0.444 3.893
1.747 1.062 3.852
1.691 1.014 3.703
1.627 1.238 3.833
1.587 1.399 3.848
1.528 1.603 3.807
2.024 2.806 3.685
1.978 3.225 3.524
2.076 3.181 3.636
1.956 3.510 3.677
2.299 3.735 3.516
2.078 4.191 3.504
2.259 4.498 3.644
2.178 4.726 3.499
2.777 5.964 3.440
2.863 6.070 3.231
1.163 0.576 4.004
1.509 0.644 3.923
1.382 0.927 3.838
1.488 1.174 3.942
1.631 1.590 3.900
1.483 1.458 3.892
1.482 1.794 4.050
1.840 3.301 3.806
1.739 3.440 3.601
1.841 3.593 3.893
1.842 3.890 3.747
2.004 4.275 3.709
1.924 4.292 3.531
2.185 4.851 3.595
2.550 6.172 3.582
1.112 0.667 4.256
1.076 0.924 4.154
1.166 1.082 4.113
1.439 1.367 3.926
1.183 1.424 4.019
0.948 1.486 4.246
1.648 3.382 4.016
1.638 3.857 3.793
1.839 4.165 3.669
1.901 4.321 3.840
1.780 4.656 3.743
1.844 4.752 3.676
0.730 0.453 4.243
0.856 0.724 4.337
1.117 1.161 4.117
0.983 1.464 4.033
1.039 1.676 4.048
1.749 3.365 4.070
1.756 3.389 4.211
1.850 3.880 3.984
1.663 3.961 4.018
1.825 4.197 3.962
1.954 4.437 3.875
2.176 6.063 3.928
0.950 0.536 4.522
1.074 0.815 4.298
1.102 0.946 4.256
1.322 1.288 4.533
1.559 3.589 4.329
1.568 3.889 4.200
1.468 3.907 4.284
0.775 0.580 4.715
0.729 1.058 4.741
0.742 1.007 4.519
0.586 3.985 4.767
0.754 4.044 4.811
0.749 4.204 4.655
0.859 4.697 4.792
0.876 4.814 4.605
-0.136 1.830 4.922
0.369 3.502 5.006
0.293 3.884 5.011
0.474 4.013 5.044
0.345 4.408 4.976
0.564 4.832 4.954
0.450 4.883 4.732
0.768 5.073 4.760
0.032 3.598 5.125
0.113 4.009 5.061
0.127 4.292 4.827
0.358 4.449 4.911
0.217 4.927 5.114
0.180 4.893 4.889
0.420 5.180 4.933
0.098 4.770 5.041
-0.009 5.136 5.074
0.091 5.506 5.064
2.476 1.253 3.755
2.561 1.595 3.586
2.790 2.761 3.641
2.770 3.266 3.338
2.875 3.334 3.383
2.809 3.562 3.431
3.193 3.946 3.349
3.009 4.047 3.398
3.261 4.294 3.261
3.357 5.723 3.064
3.570 5.929 3.277
2.126 0.079 3.711
2.180 0.462 3.973
2.321 0.868 3.920
2.204 1.072 3.783
2.519 1.405 3.689
1.980 1.450 3.755
2.094 1.769 3.725
2.580 2.728 3.557
2.573 2.784 3.772
2.630 3.176 3.686
2.822 3.318 3.751
2.826 3.792 3.652
2.867 3.912 3.580
2.852 4.132 3.513
2.771 4.406 3.489
3.192 5.732 3.293
3.197 6.047 3.245
1.935 0.186 4.046
2.072 0.545 4.004
1.909 0.941 3.995
2.246 1.117 3.858
2.180 1.364 3.700
2.008 1.408 3.982
1.974 1.584 3.963
2.176 2.774 3.959
2.293 3.016 3.934
2.487 3.389 3.900
2.408 3.636 3.693
2.679 3.786 3.705
2.649 3.930 3.531
2.618 4.214 3.634
2.578 4.681 3.701
3.197 5.945 3.554
3.007 6.100 3.262
1.688 0.274 4.033
1.725 0.567 3.975
1.744 0.949 3.891
1.780 1.311 4.171
1.821 1.529 3.976
1.695 1.560 4.173
1.857 1.590 4.083
1.896 2.851 4.002
2.159 3.201 3.793
2.315 3.295 3.867
2.360 3.663 3.924
2.134 3.980 3.981
2.247 4.079 3.726
2.497 4.556 3.740
2.520 4.510 3.615
2.940 5.831 3.527
2.705 6.383 3.691
1.531 0.382 4.067
1.506 0.715 4.249
1.539 1.120 4.250
1.799 1.101 4.090
1.801 1.382 4.245
1.342 1.493 4.227
1.951 3.030 4.076
1.917 3.245 3.949
2.050 3.443 3.931
2.001 3.818 4.077
1.968 3.866 3.829
2.215 4.126 3.879
2.288 4.600 3.743
2.344 4.537 3.841
2.515 6.192 3.805
1.261 0.390 4.503
1.392 0.808 4.242
1.186 1.189 4.315
1.341 1.137 4.081
1.569 1.712 4.145
1.732 3.144 4.213
1.524 3.364 3.957
1.862 3.707 4.130
1.851 3.903 4.150
1.791 4.193 4.028
1.933 4.428 3.923
2.162 5.981 3.856
1.148 0.444 4.307
0.998 0.747 4.521
1.078 0.950 4.283
1.204 1.498 4.235
1.822 2.913 4.433
1.855 3.193 4.485
1.664 3.318 4.382
1.722 3.597 4.463
1.835 4.112 4.461
1.981 4.215 4.266
2.244 5.846 4.046
2.293 5.942 4.230
1.216 0.661 4.553
1.134 0.911 4.543
1.205 1.241 4.616
1.592 3.023 4.688
1.609 3.123 4.408
1.677 3.479 4.331
1.519 3.759 4.337
2.329 5.903 4.191
2.365 6.041 4.100
0.755 0.554 4.925
1.042 0.839 4.970
0.213 1.871 5.298
0.436 2.262 5.190
0.812 4.474 5.094
0.714 4.627 4.760
0.883 4.755 4.845
0.868 5.019 4.796
0.996 5.235 4.790
-0.059 1.227 5.195
-0.058 1.285 5.399
0.047 1.698 5.236
0.058 2.083 5.102
-0.076 2.319 5.301
0.541 3.733 5.204
0.452 4.322 5.171
0.702 4.296 5.088
0.539 4.786 5.009
0.529 4.909 4.929
0.872 5.237 5.135
0.857 5.438 4.912
0.160 3.667 5.320
0.248 4.108 5.250
0.289 4.153 5.413
0.433 4.598 5.125
0.361 4.596 5.336
0.522 5.201 5.185
0.680 5.239 5.276
0.760 5.632 5.081
-0.056 4.481 5.470
0.053 4.583 5.339
0.048 4.768 5.187
0.298 5.032 5.141
0.381 5.216 5.106
-0.088 5.153 5.437
0.116 5.278 5.398
2.588 1.094 3.903
2.431 1.564 3.834
2.820 2.743 3.811
2.872 3.057 3.805
3.071 3.476 3.741
2.974 3.583 3.664
3.076 3.882 3.813
3.096 4.082 3.628
3.361 4.274 3.652
3.400 4.665 3.526
3.828 5.929 3.450
2.257 0.084 4.147
2.286 0.625 3.929
2.308 0.817 3.907
2.548 1.157 4.070
2.672 1.438 3.901
2.405 1.442 4.100
2.365 1.580 3.891
2.854 3.043 3.928
2.695 3.087 3.747
2.714 3.593 3.745
2.833 3.597 3.881
3.059 4.084 3.667
2.845 4.224 3.569
3.113 4.511 3.565
3.350 5.877 3.485
3.552 5.942 3.370
1.940 0.381 4.260
2.135 0.405 4.016
2.341 0.762 4.076
2.089 1.001 4.030
2.253 1.154 3.995
1.953 1.248 4.151
1.953 1.805 4.299
2.369 2.805 4.051
2.511 2.884 4.046
2.577 3.105 3.837
2.440 3.660 4.019
2.650 3.648 3.920
2.817 3.908 3.836
2.644 4.458 3.687
2.797 4.519 3.794
3.147 5.753 3.598
3.239 6.292 3.571
1.769 0.191 4.428
1.781 0.605 4.274
1.817 0.986 4.271
2.007 1.194 4.263
2.026 1.540 4.280
1.790 1.317 4.236
1.994 2.711 4.118
2.176 2.939 4.057
2.119 3.314 4.224
2.418 3.516 4.128
2.485 3.745 4.176
2.445 4.005 4.023
2.562 4.273 3.900
2.744 4.819 3.962
2.746 5.861 3.714
2.984 6.114 3.720
2.869 6.391 3.781
1.597 0.542 4.594
1.777 0.542 4.379
1.583 0.976 4.354
1.925 1.099 4.460
1.856 1.544 4.419
1.921 2.952 4.137
2.161 2.967 4.391
1.880 3.378 4.233
2.026 3.505 4.292
2.041 3.838 4.008
2.294 4.009 4.164
2.184 4.608 4.023
2.748 5.616 4.066
2.559 5.960 3.929
1.401 0.668 4.705
1.383 0.714 4.391
1.381 0.905 4.402
1.398 1.341 4.520
1.540 2.825 4.474
1.828 3.297 4.581
1.707 3.318 4.324
1.879 3.816 4.425
1.935 3.824 4.343
2.168 4.133 4.314
2.498 5.716 4.135
2.446 6.228 4.119
1.048 0.510 4.641
1.323 0.882 4.644
1.112 0.914 4.628
1.913 2.573 4.747
1.714 2.997 4.708
1.712 3.181 4.542
2.073 3.534 4.515
1.867 3.705 4.427
2.217 3.973 4.540
2.298 5.653 4.425
2.520 5.863 4.390
2.601 6.113 4.234
1.190 0.564 4.950
1.193 0.658 4.932
1.402 2.351 4.722
1.362 2.733 4.743
1.542 3.004 4.766
1.698 3.199 4.765
1.595 3.618 4.661
1.892 3.755 4.588
2.178 5.286 4.584
2.329 5.778 4.558
2.379 5.731 4.602
2.346 6.275 4.305
1.091 0.537 5.153
1.155 2.186 5.057
1.341 2.496 4.970
1.449 2.756 4.812
1.211 3.109 5.077
1.507 3.223 4.727
2.034 5.221 4.643
1.931 5.513 4.622
2.130 5.736 4.558
2.117 6.074 4.509
2.136 6.404 4.673
1.036 1.925 5.361
0.867 2.521 5.122
1.097 2.629 5.211
0.910 2.719 5.144
1.297 3.038 4.891
1.737 4.923 4.991
1.738 5.398 4.960
1.572 5.621 4.798
1.643 5.882 4.584
1.681 6.164 4.674
0.729 1.775 5.513
0.795 2.254 5.143
0.851 2.398 5.208
0.824 2.765 5.108
0.989 3.002 5.048
1.331 4.850 5.017
1.512 4.976 4.792
1.350 5.506 4.842
1.422 5.695 4.941
1.603 5.974 4.842
0.432 1.655 5.458
0.654 1.899 5.462
0.277 1.844 5.384
0.239 2.289 5.560
0.411 2.395 5.255
0.658 2.747 5.467
0.801 4.242 5.307
1.057 4.653 5.316
0.886 4.779 5.029
0.987 5.289 4.922
1.045 5.379 5.062
1.101 5.520 4.940
0.127 1.370 5.451
0.226 1.570 5.508
0.393 1.882 5.556
0.044 1.942 5.534
0.036 2.287 5.687
0.262 2.730 5.554
0.623 4.080 5.177
0.873 4.585 5.440
0.879 4.639 5.261
0.965 4.889 5.208
0.900 5.372 5.076
0.839 5.343 5.066
0.963 5.887 5.067
0.187 1.784 5.519
0.121 1.878 5.675
0.493 3.810 5.356
0.328 4.319 5.647
0.353 4.519 5.442
0.658 4.772 5.562
0.579 5.177 5.463
0.689 5.152 5.233
0.686 5.563 5.157
0.027 3.710 5.576
-0.039 3.961 5.642
0.193 4.336 5.780
0.314 4.563 5.442
0.363 4.833 5.622
0.258 5.217 5.526
0.471 5.245 5.353
-0.035 4.738 5.553
-0.074 4.870 5.801
0.311 5.004 5.750
2.592 1.300 4.173
2.848 1.386 4.144
2.902 1.914 4.090
3.145 3.173 4.116
3.278 3.440 3.931
3.265 3.502 3.972
3.187 3.910 3.902
3.264 4.187 3.672
3.386 4.254 3.692
3.418 4.851 3.683
2.399 0.232 4.231
2.491 0.584 4.249
2.620 0.907 4.423
2.644 1.053 4.342
2.671 1.106 4.217
2.451 1.417 4.290
2.619 1.525 4.271
2.972 2.763 4.284
2.961 3.054 4.167
2.836 3.530 4.117
3.081 3.610 3.929
3.046 4.086 3.992
3.242 4.359 4.124
3.167 4.388 3.884
3.675 6.162 3.734
2.011 0.441 4.589
2.229 0.501 4.338
2.281 0.753 4.275
2.278 1.072 4.298
2.592 1.175 4.170
2.166 1.408 4.357
2.552 3.005 4.427
2.756 3.249 4.315
2.566 3.583 4.190
2.628 3.855 4.273
2.722 4.190 4.134
2.900 4.341 4.076
2.862 4.528 4.054
3.286 5.795 3.956
3.320 6.225 3.875
1.982 0.179 4.694
1.878 0.705 4.501
2.235 0.753 4.623
2.085 1.112 4.648
2.095 1.545 4.422
2.226 2.722 4.470
2.359 3.154 4.527
2.435 3.309 4.299
2.650 3.503 4.235
2.467 3.982 4.172
2.771 4.154 4.230
2.759 4.523 4.127
2.897 5.750 3.953
3.139 6.005 3.962
2.951 6.130 4.084
1.713 0.506 4.680
1.941 0.730 4.525
1.916 0.803 4.501
2.012 1.241 4.718
2.005 2.695 4.667
2.175 2.885 4.669
1.971 3.091 4.580
2.271 3.335 4.616
2.320 3.799 4.516
2.206 4.004 4.481
2.433 4.028 4.410
2.821 5.698 4.245
2.854 6.095 4.111
1.502 0.466 5.004
1.699 0.844 4.965
1.558 1.174 4.903
1.750 1.110 4.887
1.896 2.545 4.819
1.805 2.947 4.589
1.948 3.331 4.493
1.917 3.313 4.578
2.141 3.737 4.442
2.192 4.013 4.663
2.367 5.620 4.275
2.466 5.946 4.502
2.608 5.929 4.126
1.271 0.459 5.119
1.486 0.966 5.038
1.835 2.283 5.059
1.959 2.698 4.786
2.098 3.063 5.005
2.040 3.306 4.996
2.194 3.399 4.995
2.137 3.577 4.801
2.518 5.431 4.803
2.695 5.426 4.519
2.646 5.784 4.523
2.678 6.088 4.705
1.213 0.451 5.294
1.322 1.832 5.036
1.565 2.146 5.104
1.592 2.468 5.098
1.813 2.723 5.098
1.825 3.113 5.130
1.967 3.242 5.038
1.879 3.519 4.904
2.273 5.282 4.765
2.293 5.250 4.816
2.482 5.636 4.761
2.429 5.839 4.723
2.352 6.016 4.641
1.127 0.609 5.350
1.082 2.120 5.166
1.193 2.279 5.362
1.293 2.417 5.075
1.600 2.813 5.234
1.511 3.000 5.247
1.412 3.185 5.127
1.725 3.746 4.999
1.962 5.012 5.075
1.943 5.145 5.050
2.151 5.466 4.814
2.046 5.711 5.031
2.321 5.917 4.656
2.146 6.092 4.663
1.046 1.746 5.537
0.915 1.985 5.321
1.133 2.190 5.468
1.139 2.636 5.189
1.158 2.946 5.335
1.334 3.320 5.417
1.438 3.494 5.151
1.619 4.713 5.102
1.855 5.009 4.997
1.638 5.221 5.166
1.717 5.492 4.891
2.039 5.810 4.911
1.815 6.127 5.127
0.789 1.738 5.424
0.864 1.768 5.448
0.630 2.286 5.644
0.926 2.570 5.478
0.972 2.826 5.658
0.866 3.103 5.476
1.006 3.054 5.260
1.429 4.875 5.398
1.509 4.926 5.323
1.537 5.406 5.340
1.563 5.697 5.196
1.731 5.919 5.237
1.766 6.250 5.136
0.672 1.489 5.545
0.597 1.741 5.488
0.590 1.986 5.700
0.448 2.346 5.589
0.466 2.404 5.553
0.503 2.728 5.644
0.794 2.900 5.726
1.146 4.542 5.222
1.236 4.868 5.210
1.386 5.175 5.512
1.496 5.254 5.411
1.380 5.685 5.435
1.435 5.775 5.255
1.438 6.067 5.356
0.536 1.272 5.745
0.488 1.635 5.888
0.400 2.090 5.724
0.293 2.171 5.951
0.231 2.151 5.706
0.276 2.726 5.912
0.588 2.742 5.700
0.866 4.258 5.540
1.027 4.610 5.586
0.948 5.020 5.668
1.067 5.175 5.539
1.188 5.575 5.592
1.330 5.803 5.294
0.267 1.360 5.817
0.072 1.790 5.702
0.433 2.041 5.933
0.171 2.004 5.816
0.073 2.349 5.860
0.007 2.500 5.969
0.422 4.242 5.757
0.509 4.656 5.565
0.571 4.859 5.486
0.720 5.165 5.493
0.964 5.320 5.634
0.885 5.415 5.636
0.197 1.976 5.867
0.139 4.140 5.889
0.475 4.399 5.719
0.289 4.616 5.912
0.579 4.650 5.614
0.607 5.175 5.602
0.727 5.516 5.541
0.035 4.232 6.065
0.175 4.413 5.857
0.001 4.699 5.880
0.132 4.770 5.925
2.635 1.389 4.556
2.765 1.666 4.553
2.999 1.849 4.439
3.187 3.708 4.273
3.310 3.967 3.978
3.449 4.170 3.922
3.551 4.525 4.084
3.675 4.567 3.901
3.731 5.066 4.073
2.662 0.561 4.570
2.832 0.662 4.360
2.785 0.846 4.595
2.918 1.227 4.496
2.379 1.357 4.627
2.601 1.580 4.386
3.188 3.560 4.242
3.089 3.528 4.274
3.336 4.121 4.383
3.333 4.198 4.334
3.253 4.407 4.089
2.343 0.235 4.693
2.442 0.635 4.505
2.301 0.852 4.502
2.411 1.181 4.450
2.391 1.290 4.581
2.817 3.191 4.487
2.771 3.535 4.358
2.954 3.846 4.517
3.048 3.961 4.457
2.879 4.360 4.450
3.609 6.289 4.252
2.072 0.294 4.763
2.203 0.509 4.812
2.019 0.707 4.910
2.417 1.205 4.642
2.252 2.663 4.765
2.637 3.019 4.727
2.397 3.492 4.431
2.543 3.576 4.704
2.662 3.675 4.557
2.623 3.996 4.360
3.199 5.933 4.251
3.207 6.059 4.332
1.678 0.509 5.034
1.778 0.536 5.019
1.865 0.925 4.729
2.058 2.439 4.808
2.162 2.915 4.948
2.354 3.252 4.707
2.428 3.540 4.608
2.479 3.558 4.733
2.491 3.798 4.666
2.667 5.615 4.398
2.993 5.734 4.591
2.860 6.199 4.468
1.499 0.329 4.900
1.780 0.578 5.102
1.692 2.533 5.019
1.860 2.641 4.881
1.811 2.763 4.867
2.195 3.345 4.804
1.912 3.290 5.021
2.021 3.853 4.856
2.573 5.383 4.687
2.519 5.588 4.697
2.558 5.845 4.421
2.622 5.956 4.647
1.237 0.578 5.250
1.834 1.976 5.251
1.869 2.456 5.132
2.148 2.722 5.160
1.963 2.885 5.300
2.239 3.148 5.021
2.247 3.311 4.963
2.742 4.936 4.767
2.783 5.433 4.687
2.828 5.506 4.852
2.873 5.670 4.737
2.991 5.959 4.687
1.435 1.892 5.525
1.812 2.106 5.283
1.711 2.437 5.506
1.937 2.617 5.396
1.813 2.827 5.264
1.831 3.181 5.079
1.873 3.572 5.221
2.303 4.895 4.927
2.505 5.139 5.011
2.519 5.260 4.874
2.580 5.574 4.868
2.421 5.828 4.826
2.658 6.282 4.763
1.330 1.743 5.474
1.428 2.186 5.575
1.603 2.195 5.333
1.379 2.451 5.485
1.712 2.802 5.429
1.606 2.922 5.351
1.769 3.232 5.497
1.780 3.669 5.206
2.099 4.753 5.287
2.051 5.076 5.229
2.310 5.233 5.303
2.098 5.328 5.097
2.449 5.746 5.082
2.391 5.925 5.185
2.283 6.349 4.864
1.355 1.666 5.649
1.172 1.903 5.719
1.284 2.196 5.602
1.066 2.178 5.706
1.248 2.676 5.428
1.260 2.923 5.731
1.575 2.964 5.492
1.557 3.313 5.588
1.683 4.788 5.504
1.896 4.988 5.306
1.967 5.357 5.278
2.069 5.593 5.407
1.865 5.674 5.267
2.244 6.160 5.323
0.841 1.446 5.644
1.023 1.657 5.711
1.004 1.938 5.682
0.820 2.153 5.748
0.902 2.245 5.631
1.206 2.779 5.554
1.082 3.087 5.779
1.329 3.128 5.668
1.077 3.442 5.678
1.693 4.907 5.332
1.458 5.030 5.549
1.566 5.450 5.460
1.579 5.479 5.233
1.653 5.851 5.274
2.023 6.098 5.421
0.820 1.693 5.845
0.944 1.819 5.874
0.665 1.957 6.105
0.782 2.354 5.776
0.888 2.426 5.946
0.730 2.629 5.705
0.746 3.123 5.914
1.041 3.155 5.793
1.403 4.508 5.758
1.270 4.748 5.468
1.496 4.961 5.401
1.613 5.378 5.620
1.670 5.605 5.631
1.413 5.928 5.562
1.693 6.299 5.278
0.553 1.862 5.866
0.764 1.980 6.121
0.217 2.014 6.222
0.599 2.461 6.048
0.517 2.564 6.192
0.657 2.943 5.977
0.621 3.263 5.960
1.116 4.537 5.792
1.167 4.786 5.614
1.004 5.081 5.853
1.281 5.614 5.551
1.335 5.710 5.482
1.289 5.999 5.617
0.465 1.941 5.996
0.394 1.998 6.222
0.125 2.100 6.233
0.348 2.380 6.251
0.408 2.507 6.033
0.932 4.880 5.953
0.687 5.175 5.713
0.835 5.413 5.668
0.910 5.624 5.904
0.054 1.877 6.090
0.255 2.020 6.064
0.115 6.035 6.281
3.097 1.274 4.598
2.984 1.616 4.626
2.957 1.907 4.488
3.263 2.052 4.666
3.740 4.053 4.444
3.708 3.999 4.217
3.687 4.506 4.154
3.793 4.701 4.324
3.959 4.798 4.142
2.699 1.003 4.829
2.795 1.319 4.830
2.139 2.492 5.009
2.172 2.656 5.032
2.229 2.952 5.088
2.535 2.961 4.997
2.542 3.438 4.903
3.069 5.563 4.608
2.915 5.770 4.499
3.179 6.145 4.740
3.247 6.415 4.584
1.884 2.142 5.425
2.030 2.498 5.106
2.110 2.793 5.267
2.169 2.977 5.224
2.226 3.369 5.131
2.040 3.362 5.046
2.683 5.066 4.967
2.722 5.448 4.786
2.703 5.633 4.948
2.974 5.714 4.953
2.717 6.254 4.680
1.946 1.774 5.374
2.006 2.260 5.340
2.031 2.460 5.438
2.287 2.608 5.276
2.201 3.048 5.498
2.116 3.338 5.393
2.835 4.647 5.150
2.636 5.012 5.091
2.820 5.474 5.033
2.690 5.526 4.993
2.893 5.987 5.046
3.113 6.233 4.899
1.761 1.664 5.826
1.768 2.121 5.656
1.966 2.201 5.546
1.908 2.375 5.749
2.025 2.731 5.555
2.032 2.837 5.357
2.220 3.255 5.336
2.235 4.630 5.269
2.551 4.806 5.137
2.569 5.012 5.372
2.722 5.264 5.264
2.540 5.689 5.254
2.739 5.879 5.328
2.781 6.268 5.062
1.685 1.610 5.813
1.486 1.732 5.683
1.610 1.950 5.622
1.516 2.314 5.662
1.806 2.713 5.737
1.626 2.761 5.643
1.704 2.974 5.812
1.800 3.211 5.445
2.319 4.749 5.389
2.118 4.974 5.322
2.186 5.345 5.263
2.479 5.552 5.436
2.330 5.542 5.208
2.486 6.101 5.163
2.541 6.406 5.397
1.286 1.374 5.993
1.529 1.661 5.845
1.245 1.959 6.096
1.383 2.135 5.827
1.454 2.481 5.716
1.320 2.482 5.858
1.596 2.893 5.631
1.464 3.106 5.882
1.484 3.466 5.841
2.097 4.782 5.698
1.989 4.901 5.520
2.022 5.372 5.677
2.082 5.595 5.359
2.310 5.635 5.450
2.104 5.955 5.261
1.150 1.381 5.931
1.196 1.991 5.915
1.117 1.755 5.943
0.892 2.292 5.873
1.165 2.593 5.915
1.204 2.612 5.822
1.174 2.788 5.887
1.401 3.034 5.734
1.510 3.631 5.882
1.602 4.703 5.805
1.768 5.051 5.768
1.814 5.187 5.757
1.779 5.408 5.786
1.948 5.854 5.640
1.891 6.202 5.606
0.842 1.617 6.050
0.978 1.865 6.239
0.686 2.031 6.073
0.915 2.313 6.286
0.721 2.665 6.163
0.998 2.882 6.019
0.884 2.852 5.948
0.918 3.166 5.864
0.962 3.436 5.928
1.321 4.782 5.709
1.695 5.124 5.673
1.455 5.393 5.872
1.772 5.826 5.590
1.579 5.978 5.666
1.919 6.306 5.513
0.511 1.536 6.076
0.615 2.029 6.111
0.648 2.621 6.212
0.812 2.852 6.339
0.752 2.942 6.193
0.977 3.368 6.163
1.253 4.964 5.965
1.255 5.335 6.077
1.272 5.292 5.906
1.466 5.878 5.735
1.609 6.104 5.842
1.540 6.333 5.976
2.943 1.658 4.975
3.038 1.604 4.932
3.405 1.906 4.807
3.172 2.341 4.832
4.003 4.473 4.489
3.907 4.512 4.553
3.828 5.023 4.350
3.906 5.290 4.451
4.004 5.297 4.534
2.227 2.151 5.215
2.172 2.191 5.392
2.407 2.670 5.429
2.610 2.884 5.087
3.199 5.354 5.084
3.037 5.399 5.025
3.102 5.884 4.868
2.130 1.982 5.503
2.065 2.284 5.442
2.050 2.505 5.406
2.139 2.774 5.403
2.146 2.795 5.404
2.199 3.167 5.490
2.694 4.674 5.072
2.623 5.177 5.204
2.650 5.212 5.273
3.012 5.544 5.028
3.108 5.895 4.886
3.017 5.942 5.108
2.148 1.497 5.784
2.084 1.880 5.619
2.243 2.253 5.804
2.135 2.432 5.814
2.352 2.824 5.488
2.514 3.064 5.500
2.791 4.570 5.571
2.707 4.799 5.329
2.732 4.934 5.304
2.984 5.138 5.335
2.996 5.684 5.207
3.019 5.817 5.309
2.177 1.768 5.798
1.692 1.686 5.848
1.817 2.044 5.789
2.077 2.050 5.783
1.898 2.363 5.980
2.098 2.789 5.751
2.159 2.916 5.785
2.218 3.339 5.831
2.591 4.510 5.559
2.710 4.845 5.633
2.518 5.094 5.512
2.527 5.376 5.640
2.779 5.682 5.475
2.937 5.950 5.241
2.736 6.270 5.375
1.852 1.523 5.960
1.755 1.753 6.028
1.482 1.643 5.919
1.706 2.080 5.932
1.612 2.254 5.947
1.785 2.547 5.841
1.678 2.729 6.037
1.921 3.190 6.017
1.794 3.222 5.961
2.380 4.638 5.555
2.342 4.745 5.554
2.467 5.309 5.732
2.323 5.398 5.763
2.530 5.641 5.482
2.771 5.828 5.466
2.554 6.092 5.448
1.617 1.631 6.021
1.624 1.632 6.073
1.384 1.797 6.304
1.324 2.034 6.110
1.434 2.326 6.183
1.605 2.470 5.999
1.551 2.752 6.057
1.566 3.191 6.035
1.661 3.448 6.030
2.151 4.543 5.660
2.130 4.849 5.667
2.157 5.306 5.696
2.273 5.406 5.680
2.233 5.611 5.677
2.377 6.077 5.534
1.172 1.528 6.152
1.324 1.832 6.266
1.158 2.196 6.361
1.341 2.363 6.327
1.137 2.635 6.136
1.515 2.821 6.275
1.305 3.094 6.096
1.387 3.454 5.948
1.878 4.648 6.110
1.760 5.068 6.089
1.776 5.161 5.783
1.989 5.668 6.023
2.191 5.809 5.831
2.156 6.035 5.773
1.108 3.205 6.377
1.197 3.698 6.379
1.656 5.301 5.980
1.723 5.274 6.033
1.844 5.687 6.087
1.979 5.749 6.093
1.986 6.051 5.915
1.350 5.498 6.304
1.387 5.572 6.065
1.746 6.093 6.161
1.608 6.123 6.017
3.471 1.734 5.127
3.266 2.037 4.897
3.263 2.266 5.041
3.435 2.704 5.047
3.676 2.989 4.881
4.041 4.969 4.628
4.015 5.021 4.728
4.365 5.385 4.468
4.400 5.625 4.647
2.228 1.973 5.525
2.266 1.903 5.573
2.607 2.197 5.476
3.186 4.807 5.136
3.170 5.087 5.338
3.323 5.395 5.045
1.946 1.528 5.904
2.061 1.717 5.910
2.097 2.236 5.666
2.081 2.562 5.716
2.128 2.573 5.796
2.274 2.811 5.720
2.651 4.540 5.567
2.863 4.663 5.380
2.800 5.000 5.490
3.012 5.175 5.192
2.988 5.543 5.169
3.142 5.791 5.147
1.926 1.722 5.707
-0.112 5.512 -0.011
0.165 5.470 0.125
-0.106 0.331 -0.055
-0.078 4.398 -0.003
0.129 4.693 -0.145
0.128 5.205 0.238
0.019 5.735 -0.068
-0.127 4.803 0.375
0.019 4.928 0.504
0.155 5.293 0.408
0.168 5.937 0.496
0.797 2.267 0.077
0.180 0.439 0.115
0.341 0.507 0.273
0.643 2.775 -0.048
0.686 3.085 0.033
0.751 3.238 0.178
0.531 3.357 0.016
0.149 1.037 0.227
0.411 2.941 0.107
0.262 3.214 0.336
0.531 3.626 -0.038
0.492 3.980 -0.000
0.432 4.034 0.247
0.481 4.186 -0.131
0.276 3.239 0.171
0.237 3.598 0.175
0.263 4.022 0.135
0.446 4.051 0.305
0.326 4.594 0.024
0.452 4.834 0.202
0.197 4.003 0.378
0.258 4.344 0.431
0.102 4.330 0.341
0.199 4.733 0.364
0.295 5.148 0.055
-0.120 4.838 0.350
0.012 5.261 0.316
0.277 5.355 0.334
0.044 4.483 0.723
0.117 4.706 0.629
0.130 4.973 0.647
0.402 4.923 0.508
-0.054 5.513 0.540
0.903 2.224 0.148
0.983 2.658 0.324
1.099 2.895 0.047
0.879 3.024 -0.024
1.184 3.293 0.266
1.019 3.670 -0.071
1.223 3.966 0.068
0.298 0.209 0.504
0.519 0.376 0.452
0.274 0.665 0.293
0.563 0.981 0.487
0.702 2.754 0.211
0.748 2.885 0.483
0.787 3.141 0.346
0.847 3.388 0.085
0.975 3.829 0.040
0.884 4.015 0.110
1.142 4.195 0.105
0.024 0.363 0.561
0.017 0.656 0.728
0.293 0.806 0.681
0.226 1.000 0.509
0.004 1.487 0.739
0.269 2.766 0.295
0.326 3.091 0.600
0.508 3.250 0.232
0.650 3.706 0.541
0.706 3.765 0.465
0.602 4.238 0.383
0.622 4.392 0.181
0.960 4.715 0.106
1.339 5.806 0.154
1.138 6.320 0.102
-0.005 1.048 0.754
0.223 1.379 0.700
0.145 3.270 0.609
0.197 3.274 0.651
0.525 3.587 0.616
0.588 4.047 0.449
0.552 4.016 0.346
0.559 4.372 0.538
0.464 4.668 0.538
1.159 6.447 0.345
0.066 3.475 0.708
0.308 3.694 0.767
0.061 3.834 0.713
0.438 4.332 0.579
0.447 4.544 0.612
0.324 4.835 0.548
0.350 4.989 0.622
0.058 4.160 0.800
0.200 4.469 0.753
0.312 4.831 0.723
0.111 5.010 0.460
-0.089 3.805 0.938
-0.026 4.178 0.956
0.336 4.188 0.786
0.047 4.430 1.022
0.378 4.725 0.756
0.037 5.080 1.029
1.159 2.555 0.303
1.025 2.846 0.386
1.147 3.054 0.546
1.015 3.465 0.351
1.423 3.637 0.256
1.236 3.809 0.230
1.447 4.130 0.218
1.726 5.609 0.015
1.870 5.963 0.170
1.808 6.156 0.077
0.312 0.108 0.733
0.309 0.480 0.743
0.365 0.623 0.607
0.467 0.984 0.678
0.536 1.436 0.822
0.616 2.542 0.527
0.691 2.856 0.430
0.927 3.333 0.354
0.888 3.548 0.604
0.855 3.843 0.443
1.050 4.086 0.502
1.093 4.298 0.497
1.210 4.413 0.311
1.574 5.552 0.095
1.369 6.009 0.151
1.657 6.257 0.051
0.010 0.149 0.868
0.216 0.667 0.703
0.415 0.697 0.631
0.548 1.076 0.719
0.410 1.297 0.889
0.097 1.520 0.898
0.220 1.862 1.010
0.444 2.723 0.795
0.538 2.905 0.687
0.511 3.397 0.467
0.715 3.729 0.761
0.642 3.753 0.677
0.699 3.995 0.427
0.814 4.405 0.652
0.951 4.588 0.486
1.194 5.816 0.246
1.486 6.093 0.170
0.157 0.690 1.120
0.233 0.903 0.756
0.194 1.150 0.977
0.274 1.473 0.919
0.055 1.833 0.998
0.194 2.930 0.763
0.542 3.203 0.618
0.484 3.779 0.724
0.676 4.044 0.885
0.782 4.317 0.657
0.582 4.306 0.723
0.715 4.677 0.524
1.178 5.876 0.573
1.226 6.267 0.444
0.189 3.106 1.048
0.147 3.560 0.953
0.414 3.662 0.740
0.493 4.064 0.976
0.268 4.245 0.640
0.426 4.359 0.899
0.547 4.631 0.611
-0.083 3.818 0.957
-0.032 4.084 0.858
0.112 4.433 0.951
0.286 4.424 0.829
0.260 4.910 1.044
0.077 3.107 1.250
0.038 3.590 1.402
0.069 3.766 1.177
0.142 4.101 1.288
0.251 4.311 1.164
0.454 4.669 1.110
-0.008 4.239 1.178
0.896 1.409 0.722
1.279 2.469 0.524
1.128 2.896 0.689
1.125 3.137 0.504
1.407 3.504 0.699
1.451 3.720 0.681
1.580 4.119 0.521
1.523 4.107 0.593
1.488 4.431 0.441
1.955 5.894 0.442
1.916 6.082 0.427
0.405 0.246 1.028
0.469 0.450 0.889
0.822 0.817 0.735
0.885 1.122 0.853
0.690 1.149 0.882
0.672 1.504 0.944
0.475 1.724 1.040
0.746 2.524 0.978
1.034 3.056 0.895
0.902 3.107 0.874
1.195 3.521 0.799
1.026 3.708 0.773
1.261 4.123 0.582
1.128 4.292 0.638
1.339 4.666 0.763
1.628 5.908 0.488
1.651 6.023 0.321
0.425 0.222 0.966
0.460 0.742 1.024
0.535 0.747 0.902
0.329 1.108 0.865
0.422 1.281 0.915
0.409 1.330 1.019
0.583 1.707 1.158
0.577 2.697 1.115
0.712 3.051 0.894
0.812 3.160 0.714
0.965 3.492 0.876
0.805 3.902 0.889
0.982 4.015 0.885
1.212 4.427 0.879
1.004 4.658 0.545
1.484 5.950 0.739
1.558 6.251 0.504
0.106 0.300 1.113
0.160 0.564 1.258
0.301 0.979 1.300
0.252 1.218 1.188
0.271 1.441 0.963
0.129 1.683 1.094
0.171 1.932 1.315
0.580 2.674 0.899
0.598 3.273 0.924
0.676 3.524 1.133
0.572 3.675 1.021
0.812 3.921 0.831
0.726 4.228 0.858
0.908 4.262 0.931
0.787 4.533 0.755
1.230 5.859 0.775
1.111 6.297 0.744
0.146 1.160 1.243
0.038 1.370 1.392
0.242 3.079 1.202
0.312 3.283 1.018
0.156 3.445 1.178
0.297 3.762 0.962
0.288 4.135 1.034
0.380 4.273 0.954
0.717 4.320 0.926
0.582 4.592 0.931
0.984 5.896 0.923
-0.029 3.188 1.160
0.077 3.654 1.429
0.099 3.650 1.102
0.239 4.086 1.316
0.186 4.343 1.137
0.203 4.660 1.094
0.010 3.150 1.573
-0.005 3.377 1.504
0.108 3.332 1.500
0.194 3.817 1.421
0.224 3.867 1.603
0.562 4.293 1.242
0.975 6.237 1.355
0.020 3.661 1.586
0.158 3.819 1.611
0.154 4.157 1.730
0.651 6.172 1.144
1.098 1.248 1.045
0.895 1.705 1.161
1.141 3.064 1.047
1.423 3.238 0.996
1.378 3.461 0.944
1.357 3.693 0.655
1.634 4.070 0.741
1.488 4.191 0.820
1.628 4.336 0.651
1.975 6.157 0.669
0.825 0.118 1.049
0.611 0.678 1.262
0.972 0.778 1.257
0.946 1.209 1.191
0.894 1.425 1.182
0.670 1.282 1.222
0.932 1.730 1.028
1.076 2.946 0.949
1.194 3.374 1.112
1.264 3.510 0.987
1.318 3.652 0.890
1.303 4.057 1.069
1.474 4.231 0.969
1.425 4.670 0.857
1.836 5.815 0.565
1.960 6.203 0.805
0.282 0.279 1.279
0.381 0.516 1.356
0.618 1.003 1.145
0.683 1.227 1.168
0.728 1.233 1.179
0.647 1.486 1.411
0.616 1.879 1.437
0.736 2.865 1.122
0.770 3.134 1.215
0.817 3.177 1.068
1.166 3.625 1.104
0.891 3.687 1.092
1.275 3.904 1.040
1.193 4.283 1.062
1.368 4.705 1.085
1.435 5.909 0.874
1.528 6.068 0.796
0.196 0.452 1.425
0.139 0.675 1.367
0.441 0.788 1.525
0.500 1.176 1.448
0.510 1.375 1.514
0.244 1.399 1.399
0.443 2.895 1.359
0.631 3.189 1.273
0.723 3.212 1.418
0.683 3.600 1.221
0.693 3.926 1.049
0.791 4.268 1.095
1.011 4.584 0.972
1.136 4.511 1.128
1.281 5.806 1.105
1.439 5.828 0.850
1.481 6.235 0.835
0.137 0.819 1.664
0.036 0.887 1.433
0.177 1.360 1.629
0.249 1.616 1.633
-0.150 1.619 1.487
0.472 2.838 1.571
0.406 3.001 1.343
0.395 3.363 1.227
0.492 3.537 1.221
0.443 3.792 1.213
0.523 4.210 1.235
0.724 4.584 1.343
0.899 5.955 1.168
1.169 6.244 1.012
0.134 1.549 1.553
-0.013 3.109 1.570
0.113 3.386 1.460
0.125 3.374 1.645
0.167 3.687 1.321
0.476 4.142 1.357
0.581 4.423 1.307
0.817 5.995 1.352
0.056 2.702 1.874
0.331 2.926 1.969
0.347 3.274 1.667
0.493 3.635 1.877
0.530 3.654 1.628
0.509 3.932 1.808
0.766 5.781 1.416
1.025 6.065 1.572
-0.172 2.916 1.840
-0.096 3.146 1.940
0.071 3.722 1.894
0.358 3.826 1.714
0.580 5.558 1.495
0.785 6.004 1.616
0.626 6.258 1.617
0.362 5.500 1.791
0.263 5.772 1.835
0.420 6.144 1.888
0.586 6.437 1.841
-0.056 5.401 2.043
-0.013 5.494 1.766
0.150 5.688 2.013
0.986 1.222 1.272
1.293 1.599 1.131
1.566 3.082 1.138
1.434 3.411 1.193
1.784 3.594 0.922
1.723 3.852 1.120
1.894 4.040 0.836
1.693 4.345 0.793
1.840 4.705 0.973
2.130 6.159 0.744
0.867 0.400 1.473
0.762 0.460 1.268
1.046 0.602 1.466
0.922 0.985 1.514
1.185 1.415 1.448
0.878 1.208 1.312
1.054 1.658 1.445
1.189 2.868 1.332
1.266 3.275 1.239
1.439 3.537 1.311
1.581 3.891 1.279
1.547 3.869 0.977
1.468 4.410 0.993
1.474 4.609 1.144
1.958 6.195 0.894
0.549 0.323 1.476
0.752 0.703 1.416
0.876 1.008 1.428
0.812 1.231 1.644
0.746 1.443 1.545
0.677 1.373 1.733
0.833 2.821 1.354
1.115 3.017 1.214
1.172 3.252 1.245
1.123 3.666 1.395
1.222 3.773 1.126
1.206 4.113 1.164
1.452 4.264 1.286
1.301 4.786 1.034
1.622 5.845 1.032
1.820 6.016 1.187
0.277 0.271 1.534
0.405 0.802 1.594
0.384 0.812 1.511
0.568 1.288 1.632
0.690 1.386 1.433
0.486 1.646 1.692
0.864 2.797 1.624
0.588 3.123 1.655
0.746 3.397 1.470
0.938 3.557 1.512
0.931 3.802 1.381
1.095 4.103 1.326
0.912 4.256 1.531
1.339 5.584 1.110
1.391 6.052 1.302
1.372 6.391 1.182
0.171 0.425 1.843
0.047 0.723 1.655
0.203 0.905 1.649
0.300 1.208 1.740
0.500 1.570 1.677
0.362 2.598 1.802
0.288 2.943 1.773
0.579 3.047 1.471
0.495 3.389 1.663
0.660 3.563 1.757
0.671 4.104 1.406
0.657 4.195 1.341
1.009 4.327 1.316
1.085 5.818 1.235
1.089 5.901 1.359
-0.117 1.140 1.946
0.103 1.196 1.997
0.239 2.559 1.683
0.303 3.097 1.690
0.392 3.110 1.618
0.226 3.492 1.804
0.547 3.794 1.827
0.346 3.992 1.660
0.766 6.044 1.330
0.850 6.271 1.368
0.419 2.573 2.010
0.471 2.798 2.228
0.428 2.945 1.932
0.574 3.216 1.927
0.495 3.419 1.922
0.730 3.854 1.807
1.041 5.486 1.867
1.171 6.004 1.774
1.273 6.156 1.605
0.060 2.656 2.182
-0.022 2.696 2.297
0.302 3.117 2.279
0.090 3.474 2.007
0.113 3.648 1.961
0.542 5.397 1.998
0.644 5.522 1.936
0.744 5.972 1.875
1.065 6.193 1.856
0.426 5.321 2.042
0.407 5.612 2.188
0.387 5.765 2.148
0.717 6.185 1.918
0.794 6.227 1.969
0.113 5.008 2.036
0.335 5.347 2.012
0.177 5.584 2.164
0.466 5.875 2.053
0.267 6.160 2.162
0.070 5.573 2.406
0.104 5.864 2.390
0.122 6.318 2.190
1.338 1.205 1.512
1.398 1.590 1.376
1.302 1.711 1.665
1.766 3.392 1.457
1.707 3.709 1.384
1.879 4.050 1.200
1.937 4.055 1.339
1.824 4.553 1.253
2.024 4.897 1.003
0.976 0.457 1.796
1.130 0.716 1.449
1.219 1.176 1.484
1.072 1.350 1.648
0.794 1.424 1.705
1.200 1.770 1.637
1.363 3.126 1.343
1.589 3.523 1.500
1.472 3.673 1.414
1.618 4.018 1.236
1.820 4.148 1.370
1.615 4.376 1.459
0.645 0.244 1.959
0.632 0.701 1.953
0.771 0.696 1.702
1.002 1.076 1.869
0.947 1.239 1.532
0.792 1.420 1.707
1.297 3.120 1.528
1.177 3.107 1.658
1.143 3.402 1.666
1.367 3.853 1.494
1.276 4.176 1.334
1.541 4.227 1.311
1.986 6.157 1.303
0.525 0.394 1.989
0.670 0.558 2.071
0.653 0.893 1.784
0.513 1.310 1.780
0.756 1.485 1.928
0.890 2.672 1.734
0.914 3.099 1.622
0.966 3.268 1.670
0.893 3.635 1.594
1.038 3.941 1.626
1.324 3.989 1.732
1.716 5.947 1.401
1.673 6.416 1.532
0.122 0.444 2.156
0.194 0.710 2.046
0.413 1.027 2.089
0.470 1.176 1.881
0.664 2.700 2.081
0.708 3.072 1.748
0.647 3.164 1.759
0.554 3.275 1.682
0.866 3.726 1.870
0.740 3.985 1.795
1.404 5.727 1.581
1.249 6.175 1.614
0.068 0.675 2.284
0.197 0.875 2.232
-0.027 1.028 2.113
0.377 2.403 2.043
0.225 2.641 1.971
0.334 2.915 2.088
0.309 3.132 1.836
0.484 3.526 2.016
0.587 3.680 1.942
1.034 5.584 1.627
1.227 5.871 1.671
1.270 6.272 1.528
4.003 0.400 -0.153
3.994 0.327 0.144
3.995 0.505 -0.068
3.550 0.446 0.010
3.634 0.659 0.101
3.642 0.244 0.169
3.707 0.464 0.308
3.594 0.424 0.165
3.967 2.412 0.068
4.187 2.610 0.086
3.264 0.136 0.455
3.544 0.455 0.232
3.461 0.645 0.439
3.608 2.138 0.090
3.600 2.536 0.268
3.718 2.763 0.007
3.972 3.013 0.154
3.749 3.142 0.149
4.040 3.379 0.008
3.237 0.002 0.415
3.272 0.310 0.363
3.517 1.962 0.351
3.472 2.251 0.236
3.348 2.400 0.305
3.568 2.769 0.284
3.743 3.214 0.309
3.531 3.490 0.326
4.173 4.818 -0.127
2.826 0.039 0.634
2.902 1.722 0.424
3.034 1.994 0.466
3.070 2.356 0.551
3.294 2.774 0.482
3.433 2.733 0.575
3.214 3.230 0.538
3.900 4.878 0.105
3.851 4.859 0.157
4.023 5.280 0.216
3.899 5.712 0.028
2.644 -0.051 0.807
2.784 1.797 0.861
2.896 2.098 0.648
2.849 2.169 0.555
2.904 2.339 0.478
3.017 2.602 0.601
3.016 2.989 0.648
3.342 4.629 0.174
3.478 4.909 0.298
3.602 5.166 0.282
3.531 5.309 0.304
3.857 5.593 0.171
2.574 1.344 0.686
2.706 1.675 0.832
2.758 2.018 0.783
2.612 2.396 0.598
2.663 2.619 0.800
2.871 2.927 0.844
3.023 4.197 0.564
3.405 4.615 0.585
3.299 5.065 0.417
3.312 5.219 0.345
3.548 5.339 0.295
3.465 5.506 0.215
2.085 1.266 0.984
2.361 1.446 1.034
2.446 1.764 0.787
2.471 2.001 0.786
2.560 2.149 1.017
2.349 2.647 0.897
2.873 4.341 0.595
2.943 4.453 0.801
2.941 4.597 0.629
2.980 4.822 0.486
3.080 5.194 0.413
3.074 5.462 0.640
1.714 1.165 1.018
2.029 1.251 1.195
1.991 1.787 1.150
2.235 1.846 1.130
2.245 2.027 0.900
2.227 2.238 0.862
2.445 3.951 0.999
2.701 4.239 0.910
2.838 4.584 0.587
2.878 4.628 0.608
2.919 4.925 0.783
3.042 5.201 0.594
1.776 1.004 1.152
1.561 1.028 1.482
1.552 1.498 1.384
1.632 1.639 1.180
1.758 2.069 1.282
1.926 2.339 1.212
2.338 3.801 0.836
2.254 4.081 0.848
2.373 4.298 0.963
2.435 4.705 0.780
2.731 4.829 0.905
2.649 5.000 0.972
1.768 0.810 1.492
1.559 1.064 1.300
1.606 1.235 1.293
1.380 1.493 1.333
1.598 1.742 1.456
1.687 1.886 1.496
1.930 3.741 1.215
1.895 3.810 1.238
2.288 4.146 1.193
2.165 4.250 0.950
2.384 4.616 1.180
2.303 4.857 1.083
1.169 0.688 1.628
1.343 0.835 1.498
1.267 1.371 1.352
4.693 0.241 -0.098
4.616 0.105 -0.014
4.513 0.265 -0.021
4.252 0.520 0.291
4.252 0.621 -0.058
4.482 0.805 -0.019
4.691 1.131 -0.002
4.431 1.556 -0.019
4.173 0.077 0.185
4.443 0.420 0.150
3.977 0.496 0.426
4.322 0.555 0.300
4.190 1.109 0.362
4.283 1.218 0.097
4.111 0.281 0.252
4.140 0.459 0.180
3.837 0.501 0.343
3.852 0.651 0.342
3.882 1.140 0.248
4.594 3.012 0.156
4.585 3.062 0.148
4.392 3.325 -0.002
4.646 3.807 0.086
3.623 0.259 0.241
4.020 0.557 0.410
4.128 3.104 0.225
4.454 3.347 0.214
4.164 3.644 0.231
3.603 0.098 0.717
3.446 0.157 0.718
3.812 2.640 0.487
3.885 2.584 0.356
3.964 2.845 0.208
4.517 5.313 0.066
3.435 -0.028 0.785
3.326 1.873 0.786
3.714 2.442 0.672
3.522 2.636 0.676
3.634 2.731 0.659
4.163 4.904 0.115
4.434 5.126 0.275
4.319 5.520 0.043
3.250 1.643 0.874
3.072 1.820 0.760
3.120 1.999 0.871
3.506 2.327 0.675
3.493 2.634 0.654
3.329 2.768 0.572
3.856 4.613 0.376
4.019 4.697 0.336
4.085 5.113 0.452
3.906 5.433 0.397
4.087 5.529 0.482
2.922 1.264 0.975
2.857 1.508 1.134
2.912 1.641 0.777
2.986 2.010 0.875
3.191 2.134 0.981
2.979 2.293 0.842
3.192 2.739 0.721
3.546 4.361 0.670
3.586 4.666 0.509
3.791 4.752 0.397
3.834 5.245 0.371
3.720 5.421 0.630
3.765 5.535 0.604
2.474 1.325 1.260
2.736 1.512 1.026
2.629 1.593 1.190
2.684 1.993 1.074
2.777 2.202 1.145
3.000 2.577 0.891
2.906 2.760 0.858
3.326 4.099 0.861
3.442 4.202 0.867
3.537 4.754 0.681
3.389 4.811 0.842
3.524 5.179 0.806
3.519 5.393 0.710
3.725 5.779 0.637
2.364 0.923 1.387
2.228 1.113 1.407
2.217 1.586 1.203
2.519 1.950 1.113
2.589 1.974 1.056
2.491 2.503 0.986
2.503 2.605 1.251
2.838 3.870 1.054
3.072 4.020 0.961
3.073 4.325 0.905
3.099 4.777 0.793
3.170 5.086 0.884
3.317 5.065 0.751
3.423 5.518 0.626
3.468 5.751 0.638
2.298 0.887 1.375
2.042 1.157 1.423
2.157 1.419 1.502
1.970 1.514 1.264
2.147 1.905 1.376
2.401 2.134 1.442
2.190 2.359 1.357
2.261 2.509 1.384
2.680 3.866 0.899
2.718 4.410 0.907
3.014 4.342 0.909
2.974 4.945 1.057
2.860 5.069 0.759
3.217 5.265 0.884
3.027 5.557 1.049
2.010 0.891 1.458
2.174 1.158 1.465
1.938 1.129 1.431
1.692 1.432 1.357
1.859 1.827 1.552
1.845 1.989 1.312
1.902 2.343 1.486
2.171 2.457 1.341
2.440 3.960 1.216
2.537 4.163 1.049
2.616 4.141 1.248
2.768 4.699 1.129
2.600 4.737 1.093
2.677 5.158 1.221
2.765 5.369 0.988
2.863 5.540 1.166
1.899 0.940 1.608
1.934 1.235 1.446
1.385 1.067 1.568
1.612 1.657 1.693
1.749 1.888 1.734
1.591 1.975 1.445
1.717 2.439 1.583
2.125 3.946 1.232
2.103 4.075 1.478
2.439 4.415 1.226
2.539 4.693 1.219
2.306 4.995 1.100
2.534 4.998 1.120
2.414 5.468 1.310
1.595 0.607 1.843
1.587 1.028 1.848
1.480 1.400 1.528
4.950 0.203 0.245
4.855 0.568 0.063
5.197 0.783 0.087
5.274 1.047 0.081
4.995 0.043 0.291
4.835 0.234 0.293
4.900 0.685 0.168
4.786 0.990 0.086
4.950 0.988 0.114
4.898 1.253 -0.007
5.111 1.732 0.244
5.042 1.957 0.011
4.719 0.151 0.343
4.524 0.334 0.099
4.588 0.260 0.423
4.633 0.617 0.408
4.624 0.904 0.451
4.686 1.029 0.094
4.597 1.290 0.066
4.662 1.794 0.040
5.256 3.138 0.037
4.318 -0.034 0.439
4.440 0.233 0.244
4.360 0.544 0.624
4.223 0.640 0.372
4.268 0.795 0.479
4.318 1.215 0.452
4.430 1.469 0.367
4.844 3.476 0.031
4.841 3.674 0.039
4.929 3.695 -0.023
5.154 4.235 -0.119
5.011 4.422 -0.004
4.067 0.287 0.695
4.395 0.397 0.555
4.221 0.616 0.564
4.253 1.152 0.670
4.929 3.750 0.109
4.950 4.069 0.101
3.172 1.391 1.188
3.346 1.734 0.948
3.186 1.844 1.182
3.563 1.942 1.156
3.454 2.330 0.985
4.060 4.335 0.698
4.093 4.427 0.825
4.051 4.840 0.495
3.999 5.150 0.461
4.062 5.367 0.542
4.179 5.673 0.739
2.769 1.026 1.104
2.809 1.328 1.192
3.209 1.556 1.226
3.264 1.823 1.199
3.066 2.351 1.054
3.312 2.309 1.045
3.432 2.595 1.032
3.620 4.163 0.789
3.853 4.454 0.873
3.625 4.702 0.936
3.697 4.811 0.842
3.863 4.967 0.700
3.898 5.234 0.820
3.860 5.555 0.526
2.598 1.002 1.335
2.556 1.245 1.303
2.812 1.582 1.194
2.715 1.850 1.216
2.939 1.989 1.255
2.803 2.384 1.065
3.154 2.368 1.338
2.931 2.941 1.197
3.207 3.957 1.076
3.468 3.990 0.911
3.608 4.217 0.857
3.641 4.628 0.934
3.505 4.955 1.048
3.669 5.097 0.984
3.617 5.458 0.892
3.688 5.836 0.802
2.613 0.809 1.402
2.236 1.118 1.661
2.356 1.140 1.454
2.619 1.501 1.510
2.632 1.923 1.376
2.735 2.200 1.238
2.723 2.293 1.447
2.881 2.468 1.185
3.061 3.785 1.153
2.995 4.156 1.119
3.387 4.488 1.252
3.211 4.619 0.941
3.482 5.081 1.016
3.278 5.101 1.150
3.505 5.464 1.139
3.686 5.848 0.926
2.370 0.822 1.685
2.245 1.155 1.579
2.087 0.957 1.802
2.152 1.222 1.600
2.381 1.445 1.514
2.212 1.840 1.452
2.399 2.075 1.396
2.597 2.242 1.558
2.469 2.635 1.608
2.946 4.053 1.394
2.920 4.175 1.377
3.085 4.475 1.136
3.130 4.932 1.203
3.257 4.903 1.140
3.318 5.440 1.312
3.217 5.592 1.078
3.145 5.932 1.071
2.166 0.779 1.705
2.272 1.177 1.612
2.086 1.069 1.630
2.044 1.509 1.726
2.126 1.820 1.637
2.050 2.058 1.784
2.181 2.379 1.832
2.386 2.293 1.632
2.242 2.900 1.500
2.641 4.182 1.368
2.710 4.290 1.477
2.892 4.588 1.399
2.889 4.689 1.481
2.961 5.069 1.327
3.022 5.370 1.306
2.904 5.654 1.251
1.787 1.023 1.830
1.958 1.253 1.720
1.606 1.104 1.908
1.843 1.321 1.808
1.938 1.736 1.920
1.746 2.073 1.675
2.023 2.347 1.807
2.168 2.499 1.631
2.235 4.274 1.601
2.382 4.266 1.641
2.395 4.745 1.506
2.581 5.082 1.601
2.655 5.207 1.430
2.673 5.500 1.431
1.692 1.050 2.077
1.561 1.203 1.901
5.426 0.023 -0.036
5.571 0.310 -0.058
5.771 0.666 -0.028
5.432 0.060 0.231
5.116 0.141 0.334
5.383 0.580 0.034
5.520 0.689 0.200
5.340 0.796 -0.042
5.593 1.275 -0.049
5.622 1.406 0.200
5.819 1.586 -0.073
5.198 0.131 0.357
5.021 0.328 0.523
5.286 0.627 0.179
5.254 0.634 0.275
5.396 1.078 0.226
5.273 1.203 0.099
5.392 1.440 0.368
5.459 1.678 0.151
5.813 3.108 -0.149
4.973 0.070 0.364
4.836 0.351 0.602
4.867 0.696 0.334
5.009 0.638 0.466
5.163 1.041 0.226
5.030 1.355 0.474
5.146 1.477 0.367
5.175 1.868 0.386
5.592 3.163 0.269
5.740 3.534 0.052
5.644 3.572 0.119
5.672 3.987 0.201
5.824 4.081 -0.125
4.715 0.186 0.531
4.795 0.419 0.585
4.633 0.217 0.439
4.622 0.776 0.494
4.752 0.985 0.454
4.732 1.307 0.611
4.799 1.268 0.451
5.083 1.791 0.573
4.843 1.978 0.500
5.237 3.364 0.158
5.504 3.510 0.117
5.487 3.908 0.179
5.543 4.083 0.338
5.549 4.383 0.045
5.559 4.402 -0.053
5.689 4.787 -0.071
5.638 4.954 0.011
4.753 0.281 0.485
4.385 0.587 0.734
4.633 0.827 0.500
4.666 1.199 0.618
4.501 1.533 0.685
4.761 1.624 0.511
5.040 3.632 0.473
5.331 3.998 0.166
5.128 4.223 0.419
5.171 4.547 0.290
5.256 4.694 0.278
5.319 4.818 0.148
3.107 0.985 1.372
3.352 1.346 1.295
3.392 1.553 1.296
3.526 1.994 1.231
3.495 2.004 1.080
4.151 3.920 1.175
4.077 4.388 0.984
3.936 4.485 0.980
4.217 4.789 0.912
4.103 5.040 1.009
2.928 0.684 1.445
3.139 1.066 1.546
3.147 1.324 1.614
3.068 1.557 1.272
3.166 1.933 1.204
3.318 2.164 1.299
3.200 2.571 1.175
3.688 3.894 1.285
3.832 3.849 1.134
3.956 4.444 1.138
3.701 4.659 1.233
3.814 4.888 1.050
3.973 5.173 1.116
4.171 5.483 0.917
3.010 0.779 1.530
2.638 0.862 1.713
2.951 1.268 1.465
2.805 1.409 1.442
