5.780 2.177 5.908
5.785 2.258 5.906
5.371 2.632 5.903
5.283 2.777 5.865
4.847 3.049 5.873
3.976 4.312 5.536
5.912 2.769 5.800
5.593 2.811 5.743
5.492 3.110 5.735
5.297 3.500 5.697
4.916 3.476 5.637
5.866 3.214 5.791
5.567 3.305 5.742
5.484 3.599 5.748
5.132 3.834 5.770
5.134 3.886 5.569
5.939 3.630 5.595
5.724 3.897 5.661
5.289 3.879 5.381
5.049 4.138 5.506
5.129 4.379 5.594
5.933 4.139 5.621
5.674 4.352 5.310
5.441 4.661 5.272
5.033 4.542 5.545
4.838 5.079 5.272
5.871 4.591 5.319
5.737 4.860 5.307
5.432 4.955 5.416
5.090 5.066 5.473
5.111 5.325 5.262
1.902 2.062 6.396
2.806 1.599 6.381
3.739 1.197 6.260
3.392 1.566 6.151
3.113 1.721 6.055
2.774 2.063 6.301
3.639 1.857 6.349
3.197 1.874 6.051
3.203 2.255 5.968
2.829 2.387 5.976
2.525 2.577 6.100
5.205 0.645 6.152
5.041 0.737 6.207
3.662 2.212 6.118
3.271 2.393 5.913
3.078 2.666 6.020
3.050 3.046 5.826
2.556 3.125 5.921
5.196 0.651 6.256
5.283 0.726 6.142
5.227 1.196 6.128
4.930 1.362 6.142
4.871 1.579 6.264
3.954 2.405 6.023
3.531 2.642 5.937
3.519 3.056 5.956
3.069 3.188 5.905
2.873 3.276 5.961
5.995 0.300 6.290
5.841 0.530 6.383
5.627 0.861 6.288
5.595 0.779 5.946
5.358 0.953 5.745
4.934 1.094 5.924
4.141 2.047 5.698
3.744 2.383 5.870
3.390 2.538 5.538
3.202 2.938 5.591
2.943 3.016 5.721
2.830 3.207 5.511
6.310 -0.115 5.970
5.776 0.269 6.028
5.666 0.433 5.752
5.412 0.708 5.904
5.813 1.146 5.792
5.433 1.302 5.921
5.112 1.273 5.627
3.882 2.783 5.676
3.631 2.915 5.460
3.239 3.289 5.592
3.100 3.401 5.461
6.084 0.490 5.957
5.994 0.739 5.773
5.719 1.086 5.882
5.759 1.364 5.737
5.558 1.518 5.734
5.431 1.541 5.774
5.192 1.992 5.481
3.539 3.555 5.440
3.460 3.872 5.543
5.900 1.339 5.662
5.592 2.022 5.571
5.321 2.121 5.545
5.155 2.412 5.486
5.085 2.459 5.533
5.726 2.381 5.371
5.556 2.604 5.415
5.363 2.867 5.327
4.850 3.176 5.379
4.603 3.326 5.507
5.921 2.566 5.314
5.590 2.989 5.256
5.431 3.223 5.306
5.265 3.125 5.386
5.119 3.645 5.185
4.638 3.818 5.460
5.719 3.127 5.464
5.476 3.110 5.514
5.585 3.485 5.445
5.328 3.637 5.132
4.850 3.919 5.331
4.594 4.316 5.095
5.989 3.225 5.471
5.949 3.454 5.309
5.512 3.738 5.367
5.558 4.071 5.140
5.249 4.027 5.257
4.999 4.548 5.189
4.594 4.559 5.289
6.269 3.552 5.279
5.717 4.062 5.260
5.540 4.219 5.102
5.571 4.377 5.028
5.033 4.473 5.272
5.013 4.796 4.932
6.190 4.105 5.134
5.953 4.415 5.228
5.795 4.641 5.119
5.304 4.798 5.057
5.254 5.127 4.988
4.858 5.483 4.958
1.342 0.394 6.273
1.253 0.946 6.122
1.133 0.962 6.337
0.683 1.138 6.245
1.525 0.864 6.123
1.165 1.282 6.058
1.057 1.342 6.056
2.722 0.074 6.107
1.361 1.738 6.067
3.164 -0.012 6.029
3.092 0.165 5.994
2.842 0.385 6.113
2.779 0.815 5.967
3.410 0.180 6.228
3.460 0.517 6.014
3.270 0.698 5.962
2.811 0.875 5.972
2.629 1.147 5.889
3.670 0.889 6.162
3.200 0.844 5.949
3.254 1.105 6.127
3.038 1.399 6.102
2.485 1.868 5.832
2.238 1.846 6.015
4.802 0.058 6.070
3.731 0.946 6.118
3.655 1.330 5.989
3.425 1.353 6.033
2.992 1.769 5.791
2.876 2.021 5.758
2.710 2.182 5.660
4.880 0.050 5.950
4.907 0.258 6.137
4.660 0.601 5.913
3.671 1.479 5.956
3.651 1.758 5.749
3.391 1.748 5.950
3.265 2.094 5.818
2.995 2.221 5.819
2.738 2.771 5.817
5.212 -0.114 6.131
4.811 0.310 5.950
5.160 0.660 5.884
5.047 0.893 6.067
4.172 1.688 5.884
3.630 1.869 5.771
3.400 2.055 5.628
3.310 2.435 5.894
2.958 2.492 5.565
2.910 2.799 5.645
2.551 2.962 5.491
5.505 0.100 5.946
5.350 0.327 5.806
5.159 0.427 6.025
5.255 0.859 5.983
5.340 1.017 5.846
5.103 1.132 5.690
3.974 1.989 5.796
3.891 2.532 5.541
3.586 2.707 5.514
3.139 2.734 5.764
3.240 3.061 5.792
2.760 3.360 5.681
6.237 -0.084 6.042
5.742 0.126 5.829
5.787 0.412 6.060
5.324 0.929 5.949
4.705 5.691 6.364
4.580 6.148 6.186
0.525 6.197 6.340
0.008 6.297 6.096
1.160 5.482 6.293
0.968 5.799 6.260
0.857 6.058 6.391
0.458 6.145 6.030
1.202 5.729 6.212
1.490 5.921 6.155
1.280 5.935 6.026
1.045 6.171 6.177
1.942 5.496 6.203
1.590 5.640 6.281
1.671 6.053 6.090
1.610 6.225 5.998
2.904 4.707 6.205
2.596 4.997 6.350
1.850 5.938 6.050
1.947 6.180 6.194
3.722 4.592 6.157
3.419 4.791 6.404
2.988 4.950 6.049
2.795 5.278 6.080
2.050 6.216 6.048
3.841 4.916 6.242
3.635 4.976 6.262
3.228 5.368 6.067
4.783 5.947 5.861
4.448 6.053 5.963
0.349 5.896 6.280
0.051 6.322 6.185
1.148 5.227 5.854
0.932 5.675 5.997
0.629 5.882 5.963
0.186 5.977 5.776
-0.014 6.283 6.076
2.839 3.518 6.152
2.301 4.040 6.113
1.258 5.136 5.931
0.931 5.360 6.100
1.276 5.524 5.953
0.935 5.570 5.992
0.907 5.975 6.043
0.518 6.261 6.006
2.761 4.005 6.029
2.773 4.197 6.210
2.391 4.417 6.212
1.325 5.391 5.915
1.186 5.460 5.848
1.386 5.663 6.005
1.204 6.046 5.833
1.056 6.081 5.679
3.198 4.092 6.228
2.924 4.492 5.976
2.847 4.762 6.028
2.260 4.834 6.052
1.882 5.645 5.885
1.642 5.854 6.024
1.725 5.935 5.644
1.417 6.198 5.858
3.395 4.453 5.914
3.122 4.720 6.153
2.762 4.802 6.024
2.544 4.992 6.090
1.789 5.872 5.935
1.831 6.093 5.906
3.528 4.397 6.029
3.473 4.825 5.877
3.035 4.994 5.912
2.964 5.202 5.837
1.975 6.289 5.688
3.683 4.917 5.864
3.720 4.882 5.820
3.521 5.112 5.949
3.060 5.546 5.920
3.783 5.336 5.598
3.698 5.375 5.820
3.258 5.832 5.704
4.657 5.727 5.622
0.825 4.895 6.023
0.618 5.238 5.970
0.360 5.692 6.068
1.109 4.929 6.011
0.671 5.180 5.941
1.140 5.236 6.113
0.682 5.614 6.007
0.638 5.909 5.959
0.237 5.903 6.013
-0.033 6.102 5.879
2.564 3.616 6.256
2.271 3.739 6.231
1.157 5.007 5.900
0.902 5.218 6.149
0.846 5.159 5.840
0.806 5.302 5.624
0.674 5.865 5.750
0.171 5.756 5.515
2.512 3.640 5.859
1.430 4.633 5.814
1.101 4.835 5.801
0.905 5.249 5.772
1.229 5.409 5.761
0.915 5.590 5.584
0.695 5.869 5.475
0.610 6.299 5.433
2.777 3.720 5.984
2.711 4.103 5.729
1.468 5.067 5.750
1.190 5.439 5.756
1.621 5.637 5.531
1.196 6.059 5.404
0.989 6.146 5.694
3.103 4.157 5.718
3.013 4.129 5.663
2.667 4.340 5.775
1.561 5.558 5.658
1.857 5.986 5.542
1.640 6.313 5.294
3.217 4.109 5.564
3.084 4.387 5.534
2.710 4.878 5.629
2.730 4.822 5.555
1.677 6.039 5.587
3.648 4.677 5.738
3.428 4.868 5.730
3.250 5.114 5.515
3.008 5.148 5.548
2.572 5.436 5.649
3.916 4.912 5.694
3.544 5.035 5.443
3.337 5.202 5.356
3.113 5.564 5.348
2.912 5.568 5.283
3.954 5.118 5.314
3.398 5.282 5.499
3.227 5.713 5.402
3.130 5.961 5.250
2.757 6.058 5.443
3.842 5.742 5.217
3.532 5.720 5.288
3.170 6.118 5.415
0.874 2.406 6.335
0.902 2.605 6.182
0.454 2.885 6.140
1.446 2.292 6.044
1.428 2.689 6.244
0.951 2.978 6.087
0.631 3.036 6.300
0.479 3.421 6.107
1.508 2.949 6.175
1.158 3.044 6.222
1.152 3.501 6.120
0.801 3.774 6.090
0.508 3.975 5.993
1.552 3.233 6.019
1.358 3.542 6.005
1.056 3.964 6.130
0.723 3.911 5.839
0.388 4.201 5.997
0.671 4.926 5.920
1.509 3.870 5.821
1.316 4.025 5.839
0.878 4.355 5.719
0.690 4.420 5.956
0.410 4.593 5.713
0.771 4.904 5.738
0.577 5.252 5.836
1.634 4.279 5.702
1.238 4.641 5.654
1.175 4.939 5.730
0.913 4.982 5.609
0.902 5.324 5.754
0.912 5.399 5.647
0.448 5.766 5.711
0.166 5.969 5.596
2.599 3.556 5.871
1.441 4.862 5.890
1.148 5.114 5.765
1.096 5.357 5.802
1.111 5.169 5.538
0.793 5.325 5.255
0.391 5.738 5.276
1.654 4.632 5.484
1.374 4.857 5.389
1.302 5.044 5.409
0.924 5.295 5.366
1.107 5.435 5.367
0.954 5.575 5.167
0.909 5.707 5.135
2.985 3.754 5.361
1.516 4.930 5.259
1.614 5.167 5.183
1.080 5.462 5.304
1.344 5.552 5.077
1.254 5.986 5.195
0.797 6.217 5.369
2.991 4.003 5.317
2.742 4.383 5.364
1.584 5.776 5.192
3.346 4.260 5.240
3.220 4.616 5.420
2.985 4.530 5.412
3.523 4.321 5.246
3.270 4.552 5.294
3.031 5.001 5.278
2.986 5.010 5.383
2.699 5.475 5.358
3.399 4.933 5.274
3.202 5.140 5.271
3.164 5.304 5.263
2.898 5.461 5.113
2.774 5.707 5.080
2.361 6.032 5.211
3.882 5.227 5.084
3.436 5.414 4.923
3.233 5.465 5.162
2.963 5.804 5.071
2.966 6.084 4.905
2.462 6.202 5.061
3.809 5.750 5.033
3.549 5.683 4.912
3.168 6.030 5.015
2.988 6.096 4.890
3.784 6.096 4.948
3.700 6.233 4.926
3.827 6.377 4.790
0.885 1.586 5.919
0.983 2.053 6.080
0.662 2.285 6.064
1.268 2.042 6.122
1.052 2.375 6.047
0.599 2.518 5.785
0.463 2.894 6.012
1.105 2.755 5.809
0.895 2.826 5.679
0.625 2.940 5.995
0.398 3.200 5.740
0.200 3.694 5.733
1.343 2.680 5.839
1.253 3.016 5.700
1.086 3.472 5.577
0.880 3.467 5.662
0.507 3.709 5.566
0.163 4.072 5.515
0.452 4.435 5.454
1.432 3.474 5.674
1.094 3.448 5.743
1.068 3.667 5.494
0.579 3.936 5.624
0.341 4.061 5.762
0.370 4.510 5.457
0.598 4.674 5.342
0.374 5.028 5.306
1.699 3.556 5.697
1.342 3.660 5.678
1.155 3.918 5.768
1.091 4.145 5.593
0.573 4.368 5.459
0.568 4.777 5.676
0.737 4.789 5.369
0.462 5.149 5.553
1.779 4.040 5.394
1.266 4.074 5.416
1.200 4.599 5.343
0.955 4.706 5.376
0.890 4.999 5.359
1.021 5.315 5.403
0.659 5.514 5.226
0.479 5.507 5.203
1.693 4.444 5.363
1.298 4.843 5.530
1.189 4.971 5.350
1.028 5.328 5.382
4.898 0.980 4.477
4.493 1.295 4.527
4.198 1.284 4.547
4.028 1.513 4.517
4.039 1.836 4.530
3.513 2.264 4.365
5.785 -0.007 4.708
5.259 0.766 4.507
5.044 1.096 4.454
4.929 1.234 4.572
4.435 1.774 4.399
4.533 2.026 4.426
3.996 2.118 4.361
2.935 3.083 4.158
6.150 -0.047 4.522
5.705 1.028 4.289
5.675 1.279 4.518
5.319 1.448 4.228
4.998 1.725 4.347
4.783 2.012 4.431
4.558 1.996 4.145
3.334 3.289 4.179
3.293 3.505 4.214
5.922 0.861 4.304
6.058 1.326 4.358
5.835 1.431 4.228
5.604 1.510 4.346
5.331 1.725 4.178
5.045 2.181 4.267
3.797 3.340 4.237
3.811 3.363 4.086
3.394 3.658 3.916
6.270 0.877 4.561
6.140 1.120 4.523
6.108 1.351 4.433
6.164 1.499 4.463
5.653 1.735 4.339
5.446 2.070 4.205
4.434 3.166 4.133
3.993 3.384 4.179
3.873 3.666 3.897
3.494 4.069 4.093
6.187 1.389 4.365
6.358 1.891 4.359
6.135 2.228 4.104
4.995 3.295 4.087
4.472 3.314 3.872
4.483 3.823 4.173
3.974 4.087 4.039
3.809 4.208 4.098
5.207 3.232 3.868
4.953 3.510 4.081
4.676 3.746 3.965
4.672 3.886 3.944
4.386 4.039 3.880
4.150 4.552 3.894
5.749 3.049 3.824
5.566 3.604 3.914
5.334 3.573 3.944
4.876 3.756 3.906
4.915 4.165 3.711
4.405 4.234 3.793
6.281 3.392 3.809
6.163 3.524 4.077
5.884 3.713 3.847
5.342 4.031 3.942
5.374 4.056 3.798
5.228 4.503 3.871
6.308 3.680 3.751
5.859 3.918 3.830
5.824 4.058 3.908
5.545 4.538 3.830
1.472 0.131 5.083
0.818 1.052 4.971
1.971 -0.061 4.866
1.118 0.917 4.979
0.699 1.171 4.872
2.601 0.180 4.903
1.705 0.846 5.003
1.455 1.171 4.621
1.241 1.513 4.722
3.040 0.209 4.913
2.112 1.031 4.840
1.905 1.070 4.920
1.660 1.301 4.895
1.315 1.717 4.770
3.580 -0.057 4.803
2.518 0.972 4.854
2.145 1.345 4.872
2.179 1.448 4.525
1.916 1.732 4.786
1.410 1.773 4.504
3.927 -0.046 4.765
2.844 0.857 4.704
2.625 1.237 4.516
2.336 1.290 4.495
2.123 1.698 4.614
1.998 2.075 4.572
1.699 2.261 4.719
4.299 -0.014 4.794
3.324 1.114 4.483
3.175 1.300 4.546
2.955 1.345 4.456
2.628 1.773 4.700
2.451 2.074 4.712
2.372 2.068 4.449
4.756 0.169 4.589
3.885 1.101 4.749
3.851 1.222 4.562
3.482 1.392 4.435
3.130 1.616 4.544
2.843 1.721 4.325
2.765 2.289 4.321
4.931 0.057 4.703
4.420 0.840 4.507
4.182 1.220 4.435
4.069 1.520 4.408
3.661 1.479 4.611
3.492 2.013 4.509
3.171 1.998 4.324
5.461 0.081 4.573
4.669 0.973 4.408
4.715 1.300 4.608
4.431 1.381 4.516
4.062 1.488 4.396
3.916 2.026 4.350
3.534 2.254 4.447
5.792 0.119 4.666
5.071 0.543 4.377
4.791 0.853 4.192
4.721 1.025 4.166
4.177 1.310 3.994
3.938 1.575 4.015
4.042 1.800 4.040
2.688 3.106 4.056
5.571 0.498 4.104
5.392 0.774 4.206
4.971 1.161 4.175
4.716 1.404 4.001
4.716 1.433 4.162
4.437 1.827 4.210
4.001 2.161 3.995
3.080 2.999 4.103
2.994 3.245 3.870
5.447 0.709 4.324
5.747 0.750 3.942
5.588 0.955 4.161
5.280 1.425 4.027
4.868 1.557 4.163
4.754 1.622 4.021
4.635 2.043 4.007
3.655 3.085 4.021
3.217 3.121 3.690
3.273 3.381 3.842
5.686 0.844 4.190
6.156 1.243 4.140
5.722 1.366 4.019
5.426 1.588 3.908
5.408 1.878 4.122
5.092 2.175 3.983
4.644 2.083 3.874
3.811 3.341 3.748
3.476 3.341 3.955
3.393 3.702 3.711
6.374 1.025 4.156
5.882 1.219 4.115
6.306 1.308 3.888
5.862 1.457 3.788
5.909 1.869 3.805
5.518 2.063 3.866
5.091 2.220 3.863
4.184 3.271 3.934
4.028 3.468 3.675
3.845 3.614 3.790
3.526 3.921 3.749
6.316 1.198 3.933
6.283 1.805 3.907
5.894 2.034 3.753
5.852 2.209 3.680
4.630 3.460 3.541
4.341 3.542 3.567
4.209 3.806 3.759
3.855 4.018 3.644
4.889 3.452 3.717
4.386 3.809 3.734
4.196 4.077 3.707
5.167 3.740 3.754
5.189 3.877 3.410
6.137 3.099 3.523
5.873 3.479 3.611
5.900 3.716 3.392
5.407 3.800 3.375
6.271 3.695 3.342
5.908 3.877 3.594
0.825 0.726 4.495
0.728 0.764 4.754
0.965 1.028 4.460
0.996 1.294 4.419
1.506 0.924 4.332
1.345 0.994 4.533
1.236 1.564 4.444
1.739 0.979 4.556
1.635 1.508 4.327
1.405 1.634 4.560
3.079 0.330 4.432
2.080 0.968 4.461
1.984 1.257 4.307
1.616 1.691 4.345
1.687 2.002 4.397
2.486 1.394 4.304
2.351 1.653 4.140
2.187 1.760 4.162
1.887 2.033 4.202
2.607 1.772 4.248
2.353 1.977 4.387
3.487 1.507 4.104
3.210 1.706 4.108
4.472 1.026 4.260
4.113 1.126 4.134
4.042 1.357 4.314
3.529 1.436 4.182
4.972 0.492 4.312
4.850 0.833 4.099
4.404 1.003 4.311
4.248 1.307 3.986
4.116 1.630 4.095
3.994 1.694 3.994
2.580 2.849 3.824
5.275 0.243 4.078
4.938 0.655 3.759
4.619 0.675 3.789
4.525 0.966 3.997
4.260 1.170 3.725
3.951 1.546 3.955
2.936 2.514 3.549
2.531 2.887 3.545
5.206 0.456 3.814
5.448 0.553 4.024
5.247 0.955 3.996
4.867 1.219 3.993
4.598 1.163 3.610
4.544 1.496 3.638
4.151 1.612 3.716
3.236 2.726 3.558
3.061 3.069 3.535
2.966 2.949 3.547
5.601 0.466 3.715
5.599 0.893 3.643
5.319 0.912 3.904
5.414 1.281 3.726
5.020 1.369 3.803
4.735 1.759 3.649
4.667 1.816 3.646
3.471 3.016 3.585
3.507 3.038 3.514
3.058 3.443 3.627
5.567 0.804 3.747
5.786 1.004 3.876
5.827 1.164 3.658
5.449 1.567 3.497
5.390 1.771 3.621
5.091 2.026 3.700
4.937 2.243 3.646
3.732 3.069 3.513
3.706 3.289 3.632
3.338 3.620 3.539
6.180 0.907 3.784
5.797 1.152 3.912
6.322 1.283 3.756
6.082 1.339 3.633
5.654 1.591 3.738
5.446 1.949 3.406
5.286 2.199 3.617
4.873 2.257 3.615
4.239 3.458 3.295
3.962 3.654 3.504
3.441 3.857 3.550
6.357 1.238 3.555
6.319 1.739 3.528
6.075 2.066 3.432
5.678 2.242 3.469
5.611 2.540 3.473
4.304 3.512 3.258
4.184 3.819 3.432
3.829 3.955 3.214
6.153 3.572 3.318
4.654 5.101 2.972
0.772 0.570 4.217
0.716 0.912 4.366
1.347 0.730 4.364
1.003 0.845 4.098
0.725 0.919 4.312
1.428 0.982 4.035
1.178 1.043 4.014
0.913 1.461 4.123
2.545 0.041 4.092
1.892 0.912 4.012
1.388 1.212 4.229
1.157 1.415 3.955
2.997 0.097 4.237
1.971 1.315 4.197
1.766 1.501 4.022
1.413 1.676 3.828
3.593 0.130 4.048
1.941 1.836 4.011
1.761 1.825 3.798
4.211 0.669 3.759
3.909 0.896 3.851
5.269 0.490 3.808
5.003 0.591 3.753
4.767 0.808 3.732
4.460 1.029 4.024
4.135 1.323 3.812
4.211 1.555 3.637
2.767 2.690 3.511
2.662 3.042 3.519
5.162 0.434 3.860
5.401 0.203 3.741
4.862 0.529 3.456
4.702 0.817 3.534
4.613 0.913 3.588
4.375 1.150 3.572
3.130 2.386 3.370
2.992 2.666 3.518
2.673 2.957 3.219
5.478 0.092 3.564
5.123 0.241 3.478
5.439 0.580 3.573
5.305 0.767 3.512
4.965 0.833 3.554
4.813 1.143 3.586
4.636 1.564 3.284
4.304 1.728 3.236
3.232 2.706 3.262
3.106 2.853 3.163
2.979 3.128 3.398
5.653 0.356 3.702
5.368 0.486 3.417
5.661 0.890 3.296
5.420 1.078 3.381
5.057 1.251 3.575
5.036 1.499 3.240
4.655 1.654 3.256
4.487 1.922 3.178
3.745 2.905 3.147
3.439 3.101 3.332
3.237 3.409 3.037
6.006 0.347 3.548
5.735 0.580 3.461
5.874 0.981 3.551
5.842 1.278 3.502
5.294 1.303 3.289
5.034 1.497 3.364
4.907 2.070 3.147
4.884 1.977 3.164
3.755 3.135 3.023
3.399 3.291 3.155
3.282 3.514 3.108
6.062 0.898 3.401
6.131 1.145 3.484
5.955 1.342 3.267
5.602 1.755 3.125
5.498 2.001 3.353
5.274 2.167 3.132
4.895 2.213 3.101
3.766 3.495 3.003
3.692 3.721 3.089
6.021 1.327 3.434
5.972 1.665 3.124
5.773 2.064 3.273
5.729 2.093 3.236
5.428 2.209 3.341
5.094 2.731 3.210
3.769 4.148 2.819
5.232 4.251 2.932
4.796 4.553 2.909
4.836 5.002 2.599
1.001 0.336 4.108
0.939 0.509 3.862
0.418 0.738 4.074
1.425 0.405 4.051
1.042 0.787 3.886
0.750 0.991 3.702
1.630 0.618 3.670
1.321 0.990 4.009
0.944 1.115 3.638
2.749 0.224 3.751
1.653 1.162 3.874
1.470 1.238 3.701
1.428 1.475 3.793
3.031 -0.069 3.977
2.971 0.291 3.890
1.714 1.304 3.867
1.396 1.562 3.711
3.423 0.131 3.763
3.211 0.151 3.857
3.186 0.633 3.710
4.808 0.185 3.737
4.825 0.165 3.491
4.370 0.603 3.735
2.772 2.250 3.590
2.557 2.658 3.567
4.824 -0.039 3.642
5.337 0.461 3.606
5.093 0.470 3.476
4.655 0.857 3.536
4.688 0.872 3.667
4.177 1.044 3.620
2.969 2.236 3.221
2.792 2.720 3.401
2.685 2.891 3.350
5.551 0.202 3.564
5.171 0.124 3.735
5.244 0.148 3.174
5.018 0.472 3.186
4.749 0.589 3.364
4.655 0.821 3.225
3.390 1.901 3.193
2.919 2.265 3.216
2.807 2.447 3.167
2.453 2.892 2.917
5.014 0.158 3.373
5.572 0.332 3.062
5.266 0.799 3.155
5.136 0.919 3.021
4.717 1.112 3.208
4.567 1.466 2.961
3.578 2.446 3.026
3.487 2.641 2.846
2.932 2.786 2.985
2.924 3.008 2.832
5.618 0.047 3.330
5.461 0.591 3.142
5.700 0.762 3.026
5.405 1.019 3.142
5.193 1.004 3.166
5.030 1.337 3.154
4.767 1.520 2.915
4.662 1.663 2.953
3.573 2.723 2.952
3.129 3.122 2.838
2.973 3.044 2.975
5.748 0.302 3.184
5.655 0.569 3.068
6.061 1.049 3.227
5.609 1.249 3.073
5.413 1.491 3.097
5.287 1.582 3.104
4.862 2.013 2.806
4.711 2.083 3.123
3.613 3.315 2.674
3.423 3.515 2.654
6.069 0.850 3.071
5.889 1.487 2.811
5.501 1.710 2.798
5.510 1.825 3.059
5.043 2.198 2.854
4.861 2.256 2.775
4.772 2.499 2.946
3.784 3.612 2.634
3.693 3.854 2.740
6.018 1.930 2.772
5.758 1.963 3.032
5.584 2.109 2.689
5.062 2.353 2.819
4.956 2.731 2.740
5.633 2.377 2.942
5.393 2.784 2.912
5.016 3.012 2.909
4.758 3.322 2.701
5.492 3.304 2.492
4.999 3.289 2.483
4.796 3.761 2.748
5.570 3.720 2.707
5.271 3.869 2.540
4.955 4.262 2.404
4.690 4.494 2.500
5.389 3.964 2.307
5.280 4.384 2.303
4.912 4.495 2.518
4.793 4.686 2.459
1.150 0.046 3.867
0.861 0.166 3.628
0.627 0.381 3.508
0.479 0.839 3.760
1.113 0.551 3.646
1.119 0.865 3.658
0.936 1.114 3.591
1.514 0.719 3.626
1.300 0.806 3.361
0.862 1.133 3.531
2.764 0.155 3.517
2.491 0.387 3.705
1.622 1.144 3.430
1.281 1.357 3.544
2.975 -0.140 3.551
2.746 0.326 3.475
2.573 0.510 3.614
1.611 1.756 3.355
3.615 -0.152 3.657
3.378 0.120 3.629
2.921 0.474 3.289
2.734 0.750 3.467
2.496 0.842 3.555
3.457 0.883 3.319
2.925 0.802 3.416
2.706 1.301 3.218
3.361 1.139 3.373
2.967 1.440 3.381
2.766 1.610 3.275
2.765 1.879 3.323
4.548 0.106 3.260
4.357 0.401 3.130
3.469 1.749 3.163
2.984 1.878 3.184
2.714 1.984 2.998
2.528 2.235 2.981
2.202 2.493 3.236
5.122 0.089 3.224
5.118 0.407 3.101
4.726 0.855 3.100
4.403 0.983 3.177
3.480 2.103 3.246
2.899 2.131 2.988
2.814 2.584 3.106
2.738 2.618 2.910
5.252 0.209 3.293
4.982 0.321 2.851
5.084 0.480 3.006
4.868 0.521 2.975
3.390 1.811 2.784
3.140 2.024 2.889
2.900 2.329 2.784
2.753 2.520 2.650
2.672 2.647 2.778
5.259 0.253 2.822
5.378 0.267 2.889
5.336 0.681 2.935
4.812 1.017 2.680
4.717 0.908 2.947
3.358 2.176 2.808
3.209 2.381 2.687
3.128 2.831 2.609
2.947 2.921 2.594
5.459 0.245 2.754
5.300 0.213 2.800
5.510 0.651 2.858
5.299 0.942 2.970
5.113 1.112 2.642
4.951 1.329 2.769
4.769 1.599 2.619
3.449 2.833 2.530
3.143 2.779 2.628
2.989 2.989 2.705
5.638 0.442 2.789
5.777 0.952 2.603
5.260 1.230 2.843
5.204 1.610 2.811
4.944 1.834 2.677
4.668 1.915 2.625
3.201 3.219 2.601
5.500 1.403 2.508
5.297 1.629 2.436
5.014 1.903 2.656
5.032 2.357 2.408
4.658 2.586 2.615
5.519 1.806 2.519
5.274 2.225 2.368
5.203 2.443 2.539
4.760 2.815 2.496
4.667 2.967 2.279
4.300 3.027 2.343
5.738 2.512 2.463
5.404 2.853 2.535
5.289 2.916 2.284
4.941 3.271 2.367
4.676 3.308 2.236
4.545 3.723 2.386
5.550 2.777 2.239
5.279 3.108 2.290
5.144 3.438 2.428
4.830 3.456 2.465
4.756 3.676 2.409
5.901 3.032 2.420
5.665 3.464 2.224
5.471 3.617 2.076
5.290 3.958 2.092
4.939 4.152 2.253
4.670 4.108 2.209
5.950 3.526 2.329
5.510 3.684 2.285
5.507 4.106 2.040
5.254 4.260 1.960
4.849 4.343 2.259
4.806 4.763 1.928
0.824 0.207 3.367
0.557 0.309 3.485
0.436 0.823 3.400
1.140 0.580 3.351
0.952 0.723 3.354
0.551 0.956 3.147
1.329 0.780 3.345
0.793 1.146 3.174
2.417 0.141 3.134
1.308 1.232 3.099
2.745 0.167 3.312
2.594 0.557 3.234
2.226 0.566 2.943
3.482 0.036 3.277
2.998 0.310 2.959
2.650 0.597 2.905
2.692 1.015 3.187
2.435 1.166 3.040
3.658 0.323 2.977
3.205 0.796 2.994
2.955 0.765 3.167
2.724 1.057 3.069
2.544 1.216 2.921
2.212 1.582 3.053
3.390 1.031 2.827
3.323 1.108 2.977
2.983 1.321 2.743
2.831 1.453 2.762
2.427 1.909 2.813
2.254 2.017 2.864
4.784 0.167 3.006
3.395 1.447 2.956
3.226 1.665 2.915
3.018 1.770 2.927
3.002 2.085 2.941
2.682 2.201 2.607
2.442 2.605 2.719
5.280 0.209 2.830
4.941 0.238 2.787
4.620 0.629 2.952
3.702 1.626 2.898
3.250 2.096 2.708
2.872 2.213 2.660
2.729 2.409 2.617
2.477 2.851 2.839
5.120 0.168 2.906
5.180 0.137 2.717
4.778 0.270 2.438
3.633 1.383 2.545
3.656 1.864 2.540
3.342 1.877 2.522
3.009 2.058 2.323
2.680 2.556 2.519
2.549 2.739 2.306
5.232 0.174 2.623
5.431 0.343 2.442
5.208 0.480 2.541
3.518 1.998 2.237
3.286 2.341 2.220
3.189 2.609 2.243
5.427 -0.007 2.751
5.445 0.212 2.646
5.169 1.780 2.262
4.763 1.989 2.414
4.555 2.257 2.272
4.306 2.459 2.286
5.432 2.112 2.119
5.022 2.354 2.030
4.816 2.678 2.206
4.817 2.805 2.290
4.414 3.086 2.047
4.084 3.289 1.987
5.441 2.510 2.009
5.313 2.599 2.081
4.942 2.833 1.964
4.822 2.908 2.081
4.573 3.188 2.203
4.514 3.658 1.961
5.976 2.614 2.184
5.416 2.860 2.156
5.340 2.987 2.083
5.039 3.169 1.905
5.006 3.351 1.840
4.568 3.893 2.111
4.582 4.149 1.933
5.904 3.179 2.064
5.551 3.191 1.785
5.491 3.443 1.933
5.110 3.834 1.847
5.030 3.973 1.862
4.575 4.312 1.875
6.174 3.240 1.876
5.725 3.426 1.940
5.465 3.679 1.735
5.322 3.866 1.978
5.118 4.191 1.843
4.901 4.325 1.730
1.046 0.084 2.887
0.609 0.214 2.853
0.584 0.534 2.973
0.978 0.667 2.868
2.292 0.252 3.014
2.915 0.193 2.996
2.679 0.443 2.822
2.440 0.495 2.807
2.020 0.677 2.600
3.263 0.252 2.889
3.029 0.412 2.965
2.858 0.599 2.938
2.520 0.824 2.616
2.238 1.086 2.719
1.985 1.088 2.502
3.446 0.287 2.674
3.444 0.666 2.775
3.006 0.825 2.839
2.947 0.870 2.543
2.487 1.107 2.822
2.181 1.381 2.503
2.027 1.821 2.759
3.870 0.494 2.519
3.649 0.714 2.772
3.429 0.950 2.681
3.071 1.236 2.730
2.817 1.327 2.670
2.703 1.750 2.449
2.276 1.897 2.447
4.805 0.246 2.625
3.706 0.901 2.738
3.506 1.316 2.561
3.250 1.429 2.494
2.858 1.703 2.603
2.874 1.880 2.525
2.432 2.295 2.505
5.280 -0.041 2.739
4.916 0.410 2.634
3.642 1.570 2.412
3.345 1.727 2.391
3.189 2.085 2.527
3.146 2.172 2.484
2.816 2.304 2.365
2.481 2.783 2.334
5.052 0.067 2.487
5.173 0.110 2.141
4.074 1.317 2.141
3.657 1.492 2.129
3.394 1.515 2.106
3.249 1.992 1.973
3.165 2.038 1.912
2.929 2.265 2.171
5.113 -0.080 2.336
3.666 1.981 2.237
3.340 2.263 2.067
4.747 2.242 1.990
4.338 2.512 1.972
4.068 2.631 1.950
6.214 0.761 2.033
6.342 1.269 2.139
5.215 2.150 1.884
4.830 2.638 1.853
4.546 2.622 1.691
4.254 3.022 1.740
4.305 3.222 1.883
6.256 1.150 2.048
5.708 2.463 1.945
5.492 2.683 1.906
5.065 2.659 1.726
4.691 2.827 1.779
4.646 3.236 1.596
4.357 3.502 1.673
4.061 3.547 1.651
5.701 2.700 1.749
5.548 2.786 1.544
5.288 3.089 1.760
5.074 3.108 1.716
4.685 3.534 1.632
4.452 3.681 1.773
4.540 4.095 1.573
5.900 2.654 1.505
5.660 3.050 1.538
5.550 3.239 1.727
5.228 3.583 1.646
5.127 3.728 1.747
4.968 3.773 1.725
4.659 4.145 1.349
5.900 3.094 1.675
5.942 3.535 1.492
5.620 3.663 1.676
5.358 4.044 1.641
5.124 4.007 1.616
4.676 4.311 1.366
0.856 0.030 2.528
2.871 -0.012 2.477
2.486 0.228 2.531
2.225 0.471 2.555
2.076 0.599 2.299
1.976 1.048 2.439
3.387 0.004 2.332
3.187 0.101 2.417
2.732 0.476 2.384
2.622 0.567 2.295
2.388 1.031 2.217
1.889 1.219 2.451
1.728 1.437 2.293
3.506 0.294 2.502
3.143 0.449 2.396
3.007 0.624 2.459
2.735 0.971 2.192
2.701 1.030 2.448
2.377 1.347 2.406
2.207 1.559 2.108
3.629 0.389 2.217
3.536 0.596 2.457
3.218 0.803 2.411
2.900 1.128 2.284
2.652 1.363 2.413
2.414 1.501 2.109
2.462 1.741 2.083
3.838 0.649 2.440
3.756 1.000 2.100
3.591 1.253 2.113
3.080 1.388 2.162
2.953 1.593 2.306
2.763 1.795 2.255
2.695 2.017 2.149
5.001 0.193 2.372
3.957 1.125 2.041
3.723 1.526 2.053
3.606 1.828 2.039
3.163 1.906 1.981
3.096 2.036 2.123
2.915 2.195 2.228
5.256 -0.071 2.140
3.971 0.985 1.877
3.930 1.106 1.852
3.526 1.229 1.747
3.518 1.526 1.992
3.080 1.862 1.610
2.863 2.225 1.666
4.475 1.289 1.833
4.045 1.211 1.784
3.726 1.474 1.940
3.711 1.903 1.712
5.820 0.888 1.769
5.607 1.146 1.556
4.392 2.523 1.371
4.033 2.580 1.693
3.896 2.966 1.442
3.606 3.084 1.517
6.114 0.481 1.697
6.138 0.960 1.595
6.406 1.021 1.493
5.925 1.334 1.600
4.955 2.295 1.365
4.664 2.657 1.347
4.428 2.856 1.528
4.384 2.996 1.589
4.206 3.358 1.262
3.866 3.307 1.308
6.382 1.035 1.751
6.151 1.446 1.660
5.135 2.327 1.413
5.007 2.715 1.581
4.698 2.990 1.369
4.412 3.266 1.320
4.238 3.225 1.398
4.081 3.696 1.296
5.865 2.406 1.587
5.535 2.763 1.409
5.237 3.077 1.505
5.178 3.346 1.198
4.733 3.507 1.163
4.436 3.594 1.170
4.515 4.025 1.120
5.934 2.771 1.200
5.593 2.881 1.315
5.483 3.039 1.272
5.346 3.246 1.298
5.070 3.589 1.272
4.747 3.839 1.199
4.489 4.076 1.226
6.387 3.036 1.238
6.105 3.211 1.407
5.831 3.406 1.329
5.671 3.754 1.319
5.436 3.825 1.269
4.953 4.008 1.313
1.528 0.644 2.171
2.582 0.093 2.309
2.391 0.585 2.320
2.138 0.590 2.002
1.889 1.013 2.257
1.485 1.243 1.910
2.879 0.140 1.980
2.620 0.311 2.194
2.553 0.789 2.080
2.370 0.741 2.212
1.932 1.131 2.197
1.773 1.477 2.065
3.307 0.519 2.094
2.940 0.631 1.946
2.608 1.078 2.151
2.451 1.088 2.108
2.426 1.307 2.102
2.045 1.554 1.929
3.532 0.426 1.867
3.434 0.745 2.152
3.035 0.924 1.970
2.868 1.214 2.094
2.685 1.380 1.995
2.422 1.556 1.804
2.226 1.786 1.797
3.734 0.703 2.113
3.733 0.897 2.096
3.446 0.963 2.004
3.347 1.206 1.842
3.057 1.424 1.704
2.902 1.943 1.963
3.968 0.831 1.795
3.965 1.153 1.771
3.646 1.342 1.707
3.265 1.642 1.917
3.146 1.771 1.842
2.839 1.871 1.816
4.393 0.566 1.707
3.988 0.681 1.711
3.723 0.874 1.388
3.613 1.374 1.524
3.394 1.585 1.534
3.165 1.647 1.289
4.676 0.704 1.511
4.729 0.813 1.619
4.384 1.075 1.615
4.192 1.297 1.397
3.706 1.598 1.423
5.149 0.721 1.584
5.187 0.826 1.358
4.620 0.981 1.627
4.675 1.329 1.432
4.381 1.609 1.228
3.088 3.037 1.308
5.785 0.539 1.567
5.670 0.942 1.366
5.437 0.951 1.497
4.993 1.086 1.472
3.734 2.704 1.144
3.347 2.749 1.102
3.090 3.142 1.257
5.768 0.593 1.651
5.832 0.635 1.342
5.763 1.180 1.315
5.612 1.119 1.371
4.078 2.653 1.166
3.715 2.994 1.269
3.442 3.124 0.979
3.361 3.442 1.123
6.366 0.533 1.321
5.972 0.691 1.538
6.188 0.987 1.245
5.824 1.336 1.366
5.691 1.530 1.292
4.742 2.427 1.013
4.462 2.698 1.280
4.388 2.901 1.246
4.164 2.986 1.003
3.744 3.342 1.130
3.731 3.717 1.158
6.055 1.194 1.374
6.207 1.543 1.325
5.421 2.488 1.173
4.934 2.798 1.205
4.969 2.785 1.147
4.415 3.123 0.958
4.166 3.432 1.192
4.262 3.734 1.035
5.543 2.778 1.014
5.155 2.807 0.887
5.130 3.175 1.167
4.928 3.215 1.086
4.403 3.604 1.091
4.178 3.645 1.033
5.984 2.533 1.125
5.548 3.014 1.156
5.334 3.071 0.973
5.236 3.271 0.928
4.912 3.634 1.041
4.861 3.888 0.931
6.311 2.777 0.830
5.991 3.246 0.809
5.628 3.488 0.728
5.445 3.720 0.882
5.303 3.768 0.724
0.543 0.752 1.854
0.964 0.738 1.863
0.980 0.697 1.704
1.762 0.430 1.815
1.567 0.749 1.769
1.182 0.816 1.829
0.978 0.980 1.852
2.210 0.401 1.787
1.948 0.740 1.899
1.606 0.684 1.875
1.449 1.082 1.835
1.402 1.239 1.833
2.769 0.295 1.718
2.570 0.744 1.774
2.415 0.885 1.747
1.939 1.149 1.723
1.906 1.199 1.724
1.442 1.624 1.805
3.159 0.354 1.741
3.121 0.437 1.833
2.548 0.808 1.778
2.631 1.088 1.581
2.199 1.265 1.530
2.165 1.484 1.506
3.663 0.229 1.797
3.492 0.442 1.857
3.309 0.715 1.624
3.005 0.890 1.528
2.548 1.215 1.695
2.301 1.501 1.618
3.989 0.657 1.540
3.535 0.908 1.498
3.588 1.073 1.506
3.087 1.265 1.479
2.944 1.637 1.646
2.691 1.838 1.546
4.290 0.600 1.466
4.191 0.688 1.722
3.742 1.154 1.466
3.765 1.192 1.421
3.323 1.606 1.461
3.027 1.890 1.526
4.690 0.450 1.387
4.295 0.497 1.400
3.994 0.781 1.414
3.893 1.153 1.208
3.515 1.082 1.331
3.544 1.621 1.298
2.561 2.193 1.186
5.183 0.381 1.317
4.694 0.489 1.090
4.672 0.843 1.262
4.164 0.896 1.274
3.908 1.180 1.058
3.784 1.599 1.195
2.807 2.384 0.915
2.582 2.652 0.858
5.389 0.349 1.242
5.108 0.627 1.074
4.871 0.925 1.105
4.723 1.058 1.076
4.696 1.228 1.114
4.369 1.416 1.264
3.295 2.500 0.863
3.077 2.847 0.787
5.510 0.242 1.322
5.668 0.671 1.204
5.545 0.575 1.053
5.375 1.135 0.940
4.994 1.284 0.985
4.640 1.494 1.192
3.726 2.642 0.961
3.479 2.863 0.738
3.087 3.067 1.043
6.117 0.180 1.297
5.811 0.609 1.100
5.827 0.905 1.048
5.815 0.813 0.982
5.588 1.232 1.169
5.109 1.327 1.094
5.151 1.499 1.157
4.131 2.444 0.988
3.781 2.734 0.991
3.695 2.911 0.822
3.184 3.388 0.953
6.144 0.358 1.194
5.854 0.836 1.241
6.342 0.791 0.870
5.980 1.311 1.168
5.560 1.313 0.919
4.282 2.823 0.788
4.050 3.166 0.845
3.671 3.140 0.724
3.712 3.422 0.846
6.067 0.966 0.995
6.280 1.351 0.893
4.800 2.705 0.895
4.408 3.099 0.686
4.412 3.400 0.778
4.101 3.339 0.680
3.840 3.806 0.665
5.062 2.649 0.810
4.993 3.052 0.627
4.910 3.296 0.629
4.674 3.358 0.604
6.028 2.590 0.702
5.801 2.816 0.767
5.414 2.959 0.668
5.138 3.361 0.756
5.161 3.668 0.598
6.288 2.767 0.821
5.743 3.122 0.684
5.764 3.127 0.518
5.417 3.552 0.603
0.295 0.265 1.693
0.824 0.236 1.794
0.504 0.590 1.633
1.342 0.334 1.692
1.171 0.714 1.546
0.748 0.938 1.482
1.699 0.480 1.414
1.207 0.850 1.485
1.206 0.998 1.643
1.946 0.573 1.318
1.672 0.953 1.364
1.590 0.888 1.277
1.458 1.320 1.313
2.587 0.521 1.410
2.318 0.860 1.523
2.115 0.876 1.466
1.906 1.120 1.295
1.650 1.493 1.231
2.924 0.619 1.448
2.511 0.606 1.241
2.444 1.090 1.178
2.223 1.157 1.417
1.813 1.530 1.428
3.381 0.485 1.294
3.201 0.625 1.415
2.775 0.975 1.271
2.520 1.159 1.201
3.927 0.341 1.410
3.983 0.419 1.291
3.698 0.932 1.160
3.300 0.971 1.331
3.316 1.290 1.132
4.677 0.369 1.366
4.273 0.606 1.202
3.962 0.778 1.265
4.007 1.161 1.053
3.782 1.104 1.179
3.277 1.297 1.285
2.332 2.389 1.250
4.579 0.219 0.818
4.374 0.328 0.977
4.083 0.693 0.865
3.980 0.877 1.053
3.675 1.312 0.738
2.757 2.222 0.842
2.318 2.128 0.774
5.139 0.332 1.068
4.658 0.622 0.740
4.436 0.603 0.877
4.155 0.882 0.773
4.215 1.058 1.004
2.943 2.485 0.688
2.695 2.616 0.614
5.624 0.077 0.910
5.326 0.571 0.855
4.810 0.585 1.004
4.589 0.731 0.784
4.402 1.276 0.765
4.200 1.220 0.837
3.504 2.214 0.787
2.969 2.685 0.784
3.047 2.837 0.449
5.406 0.269 0.920
5.628 0.404 0.759
5.365 0.522 0.624
5.270 0.861 0.741
4.880 1.011 0.780
4.697 1.201 0.567
4.443 1.621 0.722
3.640 2.550 0.540
3.238 2.699 0.537
3.134 3.160 0.596
5.964 0.217 0.940
5.551 0.444 0.900
5.993 0.590 0.873
5.836 0.887 0.789
5.471 1.295 0.683
5.093 1.451 0.573
5.009 1.508 0.520
3.898 2.870 0.567
3.590 3.078 0.535
3.210 3.328 0.468
6.007 0.567 0.620
5.859 0.523 0.740
6.054 0.872 0.632
5.850 1.280 0.746
5.770 1.387 0.696
5.451 1.736 0.462
4.164 2.990 0.561
3.671 3.132 0.536
3.625 3.464 0.512
6.065 0.716 0.820
4.086 3.490 0.494
6.157 2.739 0.272
5.885 3.016 0.203
4.634 4.298 0.239
0.688 0.092 1.342
0.264 0.203 1.379
1.178 -0.098 1.281
0.764 0.349 1.255
0.445 0.659 1.421
1.389 0.097 1.107
1.187 0.561 1.370
0.823 0.754 1.096
1.614 0.447 1.191
1.432 0.875 1.106
1.148 0.936 1.189
1.812 0.709 1.070
1.370 0.792 1.166
1.270 1.109 1.099
1.969 1.095 1.038
1.847 1.137 1.218
1.369 1.440 1.156
4.233 0.319 0.967
3.709 0.295 1.132
3.745 0.783 1.122
4.670 0.223 1.138
4.343 0.492 0.934
4.039 0.642 1.033
3.661 0.919 0.802
3.441 1.248 0.965
2.610 1.899 0.815
2.505 2.257 0.914
4.668 0.273 0.690
4.142 0.461 0.662
3.944 0.516 0.701
3.836 0.990 0.685
2.961 1.694 0.601
2.752 1.965 0.593
2.337 2.265 0.245
4.926 0.309 0.641
4.890 0.217 0.457
4.463 0.446 0.472
4.345 0.892 0.677
4.088 0.942 0.669
3.177 2.042 0.429
2.745 2.106 0.223
2.628 2.406 0.316
5.327 0.005 0.392
5.214 0.258 0.437
4.867 0.653 0.590
4.691 0.933 0.401
4.478 1.143 0.631
4.345 1.138 0.343
3.162 2.097 0.289
3.027 2.595 0.297
2.685 2.726 0.271
5.399 0.147 0.728
5.492 0.370 0.468
5.467 0.618 0.418
5.172 0.848 0.346
5.101 1.171 0.533
4.660 1.472 0.374
4.528 1.563 0.234
3.443 2.512 0.376
3.366 2.817 0.124
2.958 2.895 0.144
5.612 0.519 0.367
5.771 0.735 0.444
5.658 0.918 0.523
5.399 0.893 0.235
5.143 1.316 0.400
4.894 1.364 0.477
4.818 1.641 0.126
3.780 2.658 0.318
3.571 2.835 0.283
3.120 3.049 0.299
5.968 0.642 0.349
6.125 0.821 0.271
5.715 1.074 0.374
5.792 1.425 0.362
5.443 1.663 0.207
5.093 1.917 0.211
5.007 1.823 0.146
3.692 3.088 -0.030
3.445 3.552 -0.048
6.220 0.939 0.198
0.214 0.359 1.163
0.614 0.212 0.896
0.440 0.428 1.051
1.386 0.235 0.793
0.822 0.395 0.867
0.892 0.789 0.822
1.479 0.491 0.932
1.092 0.524 0.847
1.003 0.973 0.953
1.601 0.833 0.708
1.135 1.133 0.734
1.350 1.306 0.531
2.073 1.835 0.603
4.598 -0.017 0.645
4.389 0.369 0.500
3.845 0.799 0.730
3.769 0.810 0.395
2.817 1.897 0.528
2.710 1.963 0.606
2.216 2.180 0.320
4.499 -0.012 0.349
4.262 0.168 0.140
4.097 0.434 0.232
3.222 1.301 0.054
2.907 1.764 0.164
2.488 1.779 0.041
2.212 2.273 -0.073
4.743 0.086 0.299
4.591 0.494 0.340
4.594 0.567 0.061
4.188 0.832 0.224
2.887 1.850 0.114
2.899 1.989 -0.043
2.460 2.353 0.101
5.502 0.074 0.378
5.213 0.477 0.267
5.088 0.532 0.278
4.812 0.622 0.067
4.569 0.967 0.095
4.261 1.062 0.050
3.322 2.272 -0.068
5.360 0.202 0.383
5.518 0.144 0.280
5.296 0.525 0.062
5.057 0.880 0.241
4.809 0.932 0.232
4.696 1.261 -0.049
4.391 1.596 -0.114
5.675 0.387 0.135
5.897 0.375 0.233
5.472 0.863 0.006
5.252 0.822 0.103
5.021 1.395 -0.002
5.000 1.543 -0.130
5.867 0.437 0.110
0.170 0.238 0.791
0.624 0.006 0.773
0.336 0.316 0.546
1.089 0.155 0.747
1.137 0.359 0.599
0.725 0.583 0.562
1.251 0.519 0.583
0.972 0.781 0.377
1.558 0.761 0.611
1.144 0.935 0.300
2.608 0.126 0.670
2.704 1.356 0.261
2.289 1.697 0.251
1.999 2.105 0.192
4.417 0.183 0.491
4.258 0.162 0.255
3.858 0.631 0.260
3.160 1.609 0.158
2.767 1.607 0.108
2.431 1.881 0.013
2.493 2.304 0.112
4.444 -0.132 -0.075
0.175 0.203 0.426
0.575 -0.013 0.214
0.358 0.410 0.377
0.969 0.401 0.351
0.610 0.372 0.078
1.264 0.601 0.308
1.010 0.765 0.099
2.107 0.176 0.151
1.277 0.991 0.273
2.537 0.051 0.096
2.428 0.178 0.055
2.857 0.023 0.177
2.858 0.232 0.283
2.464 0.581 -0.033
2.483 0.767 -0.093
3.056 0.542 0.221
2.826 0.680 0.125
4.351 0.004 0.021
0.170 0.046 -0.059
0.562 0.160 0.028
5.268 0.694 5.728
5.021 0.918 5.574
4.181 1.817 5.575
3.880 2.149 5.411
3.805 2.398 5.399
3.675 2.540 5.178
3.157 2.900 5.466
3.061 2.931 5.336
5.707 0.281 5.653
5.637 0.413 5.648
5.542 0.589 5.482
5.601 0.936 5.580
3.712 2.732 5.340
3.636 3.175 5.188
5.977 0.481 5.572
5.992 0.746 5.340
5.759 0.867 5.468
5.306 2.875 5.148
5.035 2.865 4.977
4.558 3.139 5.058
5.627 2.587 4.974
5.204 3.138 5.141
5.306 3.194 5.129
4.996 3.483 5.050
4.749 3.740 5.168
4.484 3.969 4.946
5.912 2.822 4.947
5.489 3.070 4.855
5.394 3.287 4.880
5.226 3.702 4.888
4.827 3.835 4.773
4.789 3.954 4.819
4.419 4.330 5.051
6.088 3.069 5.098
5.988 3.434 5.065
5.561 3.751 4.891
5.406 3.982 4.957
5.297 4.008 4.767
4.785 4.179 4.690
4.650 4.431 4.708
6.056 3.504 4.927
5.811 4.002 4.941
5.685 4.148 4.677
5.348 4.456 4.960
4.973 4.497 4.726
5.001 4.998 4.685
6.100 4.096 4.698
6.004 4.368 4.622
5.506 4.563 4.623
5.393 4.754 4.740
5.206 5.099 4.783
1.845 0.125 6.096
1.775 0.242 6.110
1.571 0.555 6.058
1.184 0.777 5.902
1.153 0.865 5.883
3.295 0.654 5.811
3.156 0.730 5.818
2.739 0.942 5.630
2.673 1.185 5.785
2.470 1.572 5.821
3.477 0.585 5.866
3.140 0.905 5.525
3.167 1.000 5.797
2.728 1.554 5.783
2.453 1.722 5.493
2.428 1.786 5.644
4.672 0.088 5.633
3.597 0.992 5.544
3.699 1.249 5.637
3.215 1.249 5.675
3.206 1.737 5.458
2.661 1.776 5.591
2.500 1.947 5.447
2.486 2.436 5.486
4.755 0.090 5.875
4.783 0.082 5.611
4.772 0.611 5.533
3.887 1.247 5.700
3.762 1.543 5.380
3.464 1.672 5.526
3.258 1.711 5.471
3.196 2.113 5.344
2.856 2.416 5.536
2.681 2.639 5.541
5.343 -0.086 5.597
4.805 0.058 5.597
5.287 0.369 5.726
4.784 0.805 5.488
4.151 1.516 5.657
3.619 2.025 5.558
3.639 2.093 5.278
3.125 2.414 5.247
2.919 2.378 5.412
3.003 2.928 5.264
5.453 0.094 5.662
5.282 0.577 5.722
5.411 0.633 5.519
5.152 0.787 5.489
4.203 1.664 5.439
4.150 1.897 5.225
3.584 2.424 5.335
3.451 2.632 5.270
3.185 2.880 5.231
3.189 2.880 5.176
5.708 0.263 5.501
5.810 0.570 5.703
5.236 0.688 5.599
5.487 0.547 5.327
4.464 1.368 4.977
4.200 1.849 5.080
4.130 1.851 5.023
3.629 2.424 5.111
3.413 2.355 5.136
3.272 2.569 5.050
5.791 0.177 5.122
5.672 0.560 5.141
5.465 0.600 5.316
4.215 2.260 4.982
3.954 2.333 5.064
4.779 2.866 4.739
4.836 3.324 4.701
4.518 3.250 4.710
4.261 3.443 4.773
5.525 3.089 4.712
5.106 3.046 4.669
4.749 3.545 4.571
4.718 3.628 4.853
4.249 3.919 4.530
4.276 4.173 4.513
5.875 2.751 4.817
5.649 3.174 4.816
5.360 3.492 4.546
5.215 3.689 4.505
4.790 3.928 4.517
4.778 3.913 4.545
4.394 4.143 4.613
6.062 2.966 4.682
5.971 3.358 4.763
5.674 3.612 4.417
5.454 3.837 4.397
5.115 4.142 4.643
4.986 4.134 4.534
4.807 4.611 4.329
6.439 3.391 4.653
6.082 3.605 4.519
5.894 3.869 4.386
5.444 4.193 4.452
5.509 4.461 4.540
5.248 4.547 4.502
5.040 4.790 4.575
6.150 3.731 4.309
5.977 3.994 4.638
5.703 4.461 4.346
5.751 4.622 4.503
5.316 4.786 4.397
1.495 0.125 5.571
1.256 0.301 5.464
2.947 0.969 5.375
2.697 0.938 5.548
2.184 1.337 5.322
2.136 1.660 5.257
1.800 1.865 5.374
3.157 0.807 5.378
2.876 1.171 5.309
2.752 1.377 5.248
2.623 1.459 5.114
2.404 1.747 5.172
2.084 2.127 5.283
4.396 0.255 5.290
3.777 0.800 5.148
3.641 1.111 5.180
3.419 1.243 5.241
3.009 1.589 5.276
2.652 1.923 5.080
2.593 1.861 5.215
2.476 2.332 5.244
4.928 0.304 5.181
3.943 1.250 5.213
3.610 1.423 5.307
3.496 1.715 5.128
3.174 1.849 5.266
3.117 1.922 5.090
2.918 2.415 5.213
2.433 2.474 5.085
4.987 0.186 5.526
5.048 0.228 5.411
4.282 1.267 5.050
3.963 1.509 5.019
3.898 1.822 5.026
3.412 2.111 5.229
3.371 2.231 5.078
2.891 2.410 5.023
2.943 2.877 4.949
5.325 0.248 5.349
4.967 0.388 5.147
5.231 0.602 5.079
4.431 1.424 5.047
4.145 1.698 4.978
3.859 1.844 5.042
3.896 2.064 4.976
3.498 2.338 4.893
3.407 2.611 5.052
5.679 0.305 5.231
5.533 0.502 5.227
5.397 0.689 5.309
4.716 1.293 4.889
4.504 1.396 4.650
4.148 1.891 4.608
3.897 1.804 4.747
3.880 2.191 4.588
3.604 2.314 4.743
5.718 0.193 5.077
5.527 0.246 4.893
4.769 1.623 4.611
4.477 1.664 4.594
4.415 1.757 4.722
4.243 2.134 4.643
6.215 0.163 4.860
5.170 1.759 4.633
4.806 1.943 4.513
6.127 1.196 4.555
5.727 1.449 4.776
5.726 1.608 4.642
3.584 3.615 4.407
3.513 3.671 4.448
6.059 1.234 4.668
6.098 1.344 4.725
5.852 1.788 4.702
5.758 2.044 4.719
4.799 2.938 4.285
4.534 3.153 4.365
4.320 3.397 4.309
4.038 3.790 4.270
3.595 3.834 4.194
6.379 1.286 4.606
6.253 1.884 4.533
5.113 3.173 4.303
4.967 3.416 4.243
4.521 3.469 4.512
4.282 3.937 4.348
4.090 4.179 4.448
3.774 4.144 4.395
5.487 3.046 4.400
5.338 3.440 4.465
5.202 3.689 4.398
4.683 3.943 4.409
4.596 4.022 4.425
4.378 4.198 4.306
5.889 2.940 4.147
5.966 3.291 4.156
5.466 3.649 4.193
5.174 3.589 4.122
5.097 3.855 4.200
4.863 4.071 4.261
4.447 4.340 4.209
6.275 3.240 4.113
5.960 3.680 4.271
5.922 3.695 4.323
5.427 3.979 4.283
5.174 4.076 4.153
5.131 4.620 4.229
6.129 3.909 4.079
6.178 3.902 4.216
5.654 4.048 4.123
5.586 4.538 4.203
5.159 4.757 4.048
1.637 0.251 5.292
1.035 1.498 5.118
1.822 1.332 5.043
1.554 1.558 4.998
1.464 1.882 4.893
2.366 0.881 5.144
2.377 1.266 4.886
2.047 1.573 4.850
1.861 1.796 4.900
1.650 1.989 4.999
3.374 0.786 5.140
3.169 1.172 4.927
2.715 1.398 5.137
2.444 1.375 4.947
2.166 1.615 4.949
2.173 2.127 4.995
1.657 2.223 4.844
4.411 0.094 5.253
3.472 0.998 4.962
3.248 1.365 5.065
2.860 1.600 4.860
2.731 1.633 4.759
2.528 2.102 4.693
2.201 2.050 4.708
4.771 0.263 4.949
3.874 1.207 4.887
3.736 1.376 4.866
3.587 1.535 4.758
3.216 1.891 5.030
2.915 1.959 4.882
2.792 2.219 4.768
2.715 2.587 4.899
4.874 0.039 4.940
4.974 0.472 4.875
4.344 1.254 4.780
3.964 1.609 4.743
3.598 1.778 4.648
3.304 2.131 4.653
3.083 2.157 4.742
3.062 2.352 4.903
5.325 0.157 4.844
5.149 0.203 5.099
4.766 1.071 4.904
4.315 1.506 4.726
4.332 1.554 4.865
3.971 1.801 4.747
3.595 2.082 4.754
3.365 2.512 4.654
5.862 0.231 5.052
5.727 0.310 4.763
4.668 1.125 4.385
4.632 1.294 4.420
4.225 1.401 4.524
4.121 1.654 4.521
3.879 1.714 4.290
3.650 2.074 4.423
5.831 0.121 4.561
5.202 0.919 4.526
5.129 1.321 4.368
4.834 1.291 4.576
4.494 1.729 4.411
4.280 1.993 4.365
4.076 2.226 4.256
2.880 3.259 4.218
6.117 0.152 4.623
5.798 1.109 4.374
5.451 1.115 4.461
5.213 1.367 4.478
5.036 1.476 4.235
4.661 2.039 4.279
4.724 2.052 4.210
3.557 3.357 4.135
3.334 3.534 4.304
5.760 0.957 4.626
6.122 1.227 4.287
5.589 1.564 4.509
5.510 1.543 4.359
5.261 1.894 4.170
5.140 2.191 4.096
3.933 3.432 4.314
3.502 3.444 3.942
3.362 3.854 4.143
6.237 1.102 4.529
6.058 1.013 4.351
6.162 1.560 4.176
5.982 1.476 4.136
5.673 1.713 4.122
5.392 2.203 4.248
4.189 3.261 4.214
4.054 3.386 4.030
3.794 3.883 4.160
3.599 3.790 3.877
6.195 1.344 4.369
6.408 1.856 4.355
6.156 1.938 4.164
4.881 3.294 3.943
4.709 3.646 3.939
4.371 3.782 3.877
4.193 4.101 4.103
3.879 4.099 3.836
5.462 3.281 3.889
5.080 3.356 3.907
4.819 3.542 3.874
4.639 4.043 4.024
4.479 4.324 3.909
4.119 4.347 3.733
5.637 3.222 3.995
5.378 3.420 4.042
5.116 3.601 4.065
4.918 3.788 4.011
4.809 4.233 3.705
4.473 4.246 3.986
6.184 3.250 3.887
6.090 3.627 3.949
5.665 3.741 4.019
5.688 3.895 4.017
5.363 4.174 3.914
5.045 4.345 3.861
6.233 3.608 3.971
5.889 3.846 3.964
5.835 4.131 3.688
5.458 4.411 3.605
1.450 -0.013 4.970
0.761 1.138 4.972
2.068 0.130 4.789
1.197 0.909 4.902
1.042 1.221 4.701
2.441 0.183 5.067
1.645 0.839 4.694
1.383 1.072 4.894
1.058 1.486 4.927
3.014 0.140 4.718
1.895 1.026 4.684
1.719 1.384 4.905
1.698 1.577 4.783
1.233 1.829 4.783
3.342 0.178 4.924
2.460 1.104 4.639
2.311 1.141 4.564
1.875 1.321 4.587
1.991 1.643 4.777
1.689 1.801 4.516
3.917 -0.038 4.950
3.067 0.883 4.729
2.596 1.235 4.597
2.538 1.468 4.574
2.275 1.847 4.476
1.924 2.055 4.412
1.787 2.133 4.654
4.516 0.148 4.779
3.559 1.029 4.527
3.316 1.150 4.583
2.919 1.527 4.420
2.764 1.680 4.692
2.361 1.822 4.612
2.182 2.149 4.436
4.666 -0.094 4.574
3.808 0.834 4.676
3.666 1.188 4.443
3.342 1.470 4.624
3.272 1.821 4.631
2.983 1.954 4.555
2.638 2.004 4.617
4.805 0.029 4.637
4.326 0.921 4.493
3.966 1.024 4.700
3.944 1.595 4.453
3.658 1.632 4.313
3.499 1.959 4.439
3.263 2.192 4.587
5.452 0.006 4.717
4.673 0.791 4.645
4.701 1.342 4.583
4.441 1.423 4.303
4.251 1.545 4.630
3.852 2.019 4.507
3.675 2.163 4.351
5.779 0.057 4.795
0.489 5.514 3.871
0.068 5.576 3.932
2.471 3.171 4.160
2.270 3.342 4.156
1.940 3.751 4.197
1.891 3.891 4.326
1.636 4.368 4.019
1.214 4.354 4.067
0.736 5.362 3.812
0.680 5.723 3.811
0.365 5.953 4.064
0.255 6.157 4.054
2.694 3.422 4.054
2.621 3.618 4.321
2.412 4.010 4.263
1.960 4.352 4.186
1.618 4.498 3.973
1.240 5.457 3.857
1.016 5.467 3.767
0.813 5.796 3.767
0.788 5.932 3.800
0.495 6.115 3.924
3.056 3.733 4.075
2.844 3.966 4.257
2.530 4.058 4.136
2.159 4.595 4.203
1.166 5.186 3.952
1.527 5.671 4.049
1.280 5.839 3.894
0.943 6.199 3.891
0.760 6.343 3.791
3.133 3.782 4.218
2.925 4.160 4.122
2.864 4.539 3.899
1.907 5.450 4.064
1.477 5.445 3.933
1.731 5.911 3.687
1.598 6.114 3.664
1.412 6.380 3.924
3.369 4.006 3.982
3.352 4.420 4.135
2.263 5.356 3.928
1.876 5.570 3.891
1.745 5.622 3.675
2.060 5.846 3.590
1.752 6.392 3.777
3.547 4.539 3.859
2.659 5.496 3.926
2.361 5.683 3.980
2.087 5.673 3.935
1.888 6.168 3.822
2.384 6.159 3.860
3.044 5.359 3.934
2.970 5.400 3.901
2.792 5.908 3.743
2.396 5.851 3.582
2.282 6.086 3.638
3.520 5.241 3.786
3.244 5.465 3.746
3.185 5.699 3.729
3.017 6.115 3.761
2.876 6.283 3.730
4.091 5.387 3.605
3.986 5.524 3.661
3.546 5.708 3.806
3.335 6.080 3.448
3.344 6.398 3.432
4.552 5.414 3.742
4.278 5.715 3.543
4.029 5.929 3.616
3.960 6.033 3.527
3.725 6.103 3.535
0.273 1.150 4.897
0.312 1.552 4.754
0.790 1.617 4.874
0.329 1.735 4.759
0.059 1.858 4.815
1.000 1.812 4.898
0.710 1.871 4.721
0.428 2.233 4.563
0.947 1.919 4.555
0.839 2.147 4.730
1.192 1.968 4.579
0.107 3.462 4.360
0.792 3.304 4.344
0.444 3.563 4.455
0.186 3.600 4.337
0.313 4.215 4.312
1.151 3.274 4.389
0.697 3.586 4.203
0.618 3.839 4.351
0.492 3.957 4.460
0.248 4.309 4.188
0.524 4.274 4.300
1.487 3.247 4.504
1.342 3.451 4.310
1.221 3.653 4.371
0.858 4.141 4.430
0.699 4.080 4.282
0.532 4.326 4.229
1.873 3.376 4.289
1.901 3.625 4.459
1.503 3.917 4.090
1.505 3.885 4.409
1.149 4.358 4.037
1.032 4.272 4.348
0.472 5.411 4.138
0.180 5.729 3.958
2.409 3.404 4.415
2.305 3.446 4.144
1.871 3.884 4.223
1.946 3.856 4.291
1.392 4.268 4.085
1.290 4.365 4.247
0.729 4.907 3.635
0.384 5.123 3.788
-0.012 5.622 3.650
2.320 3.208 4.004
2.267 3.493 3.828
2.062 3.674 4.026
1.811 3.979 3.907
1.442 3.992 3.670
1.149 5.043 3.798
0.864 5.312 3.501
0.615 5.374 3.732
0.261 5.629 3.702
-0.030 5.946 3.561
2.624 3.384 3.908
2.433 3.711 3.793
2.245 3.749 3.709
2.062 4.086 3.888
0.947 4.921 3.776
1.263 5.288 3.678
0.974 5.657 3.630
0.692 5.565 3.420
0.424 5.887 3.579
0.232 6.140 3.434
2.873 3.759 3.667
2.597 3.749 3.922
2.313 4.162 3.721
2.210 4.314 3.657
1.367 5.441 3.507
1.632 5.463 3.475
1.123 5.762 3.570
1.087 6.082 3.576
0.988 6.361 3.549
3.285 3.870 3.590
2.873 4.259 3.616
2.839 4.326 3.696
1.759 5.127 3.428
1.561 5.353 3.435
1.687 5.575 3.359
1.385 6.083 3.293
1.414 6.125 3.533
3.400 3.987 3.809
3.038 4.486 3.606
2.761 4.592 3.792
1.974 5.528 3.600
1.743 5.811 3.434
1.902 5.863 3.319
1.865 6.271 3.498
3.495 4.323 3.765
2.048 5.586 3.356
1.979 6.032 3.377
2.172 6.081 3.437
2.848 5.832 3.294
2.372 5.984 3.227
2.034 6.076 3.532
2.919 5.929 3.318
3.793 5.392 3.434
3.685 5.653 3.330
3.366 5.891 3.360
4.456 5.182 3.423
4.141 5.344 3.226
4.221 5.725 3.227
3.807 5.908 3.219
3.669 6.120 3.131
0.222 1.233 4.380
0.265 1.252 4.691
0.638 1.533 4.318
0.544 1.577 4.463
0.061 1.855 4.505
0.808 1.601 4.594
0.497 1.783 4.435
0.469 2.164 4.218
0.101 2.304 4.385
1.255 1.679 4.239
1.019 1.936 4.173
0.602 2.263 4.264
1.454 2.012 4.356
1.165 2.445 4.229
1.396 2.405 4.112
0.453 3.553 4.046
0.252 3.636 3.944
0.100 4.110 3.902
0.685 3.728 3.848
0.379 3.785 3.929
0.177 4.231 3.865
1.229 3.381 3.905
0.953 3.583 3.978
1.913 3.170 4.156
1.742 3.428 4.021
1.503 3.543 3.780
1.341 3.736 3.900
0.429 5.230 3.890
0.454 5.147 3.715
-0.006 5.352 3.826
2.333 3.057 4.111
2.211 3.612 3.736
2.146 3.529 4.008
1.660 3.881 4.029
1.584 3.951 3.738
0.674 4.769 3.481
0.643 4.867 3.459
0.503 5.335 3.482
-0.076 5.591 3.502
2.419 3.192 3.448
2.020 3.495 3.484
2.072 3.730 3.559
1.559 3.939 3.588
0.760 4.598 3.614
1.139 4.863 3.278
0.766 5.100 3.388
0.436 5.552 3.403
0.200 5.760 3.477
0.220 6.074 3.148
2.759 3.325 3.489
2.462 3.768 3.414
2.207 3.960 3.554
1.819 4.139 3.607
1.145 5.165 3.533
1.176 5.330 3.206
1.100 5.496 3.158
0.742 5.699 3.216
0.377 5.830 3.305
0.314 5.985 3.231
2.781 3.618 3.428
2.580 3.847 3.411
2.277 4.233 3.316
2.075 4.176 3.534
1.148 5.197 3.406
1.474 5.541 3.211
1.162 5.815 3.178
1.170 5.875 3.182
0.706 6.308 3.188
3.232 3.647 3.496
2.869 3.907 3.302
2.756 4.097 3.477
2.511 4.484 3.251
1.846 5.332 3.219
1.308 5.585 3.200
1.598 5.630 3.270
1.381 5.972 3.270
1.193 5.971 2.953
3.376 3.884 3.251
3.093 4.350 3.340
2.729 4.414 3.178
1.995 5.398 3.173
1.876 5.598 3.152
1.972 5.945 3.081
1.736 6.131 3.131
3.763 4.268 3.288
3.474 4.334 3.199
2.129 5.727 3.194
4.359 5.138 2.964
4.422 5.243 2.980
4.089 5.750 3.044
0.476 1.175 4.178
0.253 1.412 4.387
0.434 1.279 4.089
0.252 1.600 4.231
-0.059 1.612 4.236
0.825 1.454 3.955
0.419 1.821 3.983
0.334 2.041 4.165
0.234 2.163 4.124
0.892 1.728 3.980
0.962 1.887 4.058
0.709 2.304 4.070
0.214 2.623 3.839
1.112 2.117 3.952
1.169 2.099 3.821
0.843 2.628 3.861
1.655 2.141 4.073
1.377 2.311 3.912
2.260 2.850 3.753
1.802 2.969 3.645
0.742 4.703 3.575
0.498 4.985 3.240
0.229 5.366 3.532
-0.047 5.576 3.402
2.492 3.302 3.570
2.209 3.244 3.589
1.946 3.707 3.555
1.604 3.884 3.547
0.954 4.901 3.397
0.614 4.537 3.065
0.366 4.911 3.189
0.343 5.259 3.153
0.005 5.350 2.983
2.456 3.237 3.397
2.131 3.463 3.449
1.928 3.412 3.206
0.909 4.494 3.166
0.821 4.633 3.011
1.023 4.864 3.137
0.708 5.241 2.929
0.632 5.312 3.125
0.435 5.476 2.980
0.153 5.820 3.046
2.585 3.329 3.068
2.525 3.473 3.087
2.191 3.849 3.039
1.133 4.614 2.916
0.871 4.772 3.023
1.242 5.166 3.150
1.082 5.238 3.125
0.801 5.495 2.972
0.463 5.736 2.970
0.385 6.156 2.699
2.890 3.640 3.273
2.474 3.866 3.249
2.386 3.818 3.023
2.134 4.401 3.074
1.521 4.756 2.974
1.051 5.191 2.935
1.417 5.454 2.823
1.308 5.619 2.896
0.947 5.705 2.885
0.924 6.029 2.833
2.921 3.815 3.135
2.764 4.096 3.236
2.736 4.357 3.025
2.506 4.577 3.083
1.463 5.346 2.870
1.729 5.733 2.685
1.285 5.897 2.907
1.112 5.980 2.660
3.507 3.897 3.184
3.126 4.160 3.034
2.809 4.569 2.841
2.698 4.800 3.053
1.704 5.507 2.786
1.633 5.880 2.660
3.739 4.091 2.944
3.206 4.259 2.839
3.010 4.634 3.028
2.700 4.816 2.969
4.640 5.044 2.692
4.222 5.267 2.766
0.381 1.079 3.785
0.096 1.162 3.764
0.548 1.266 3.862
0.160 1.311 3.798
0.186 1.614 3.618
0.665 1.656 3.786
0.556 1.694 3.625
0.391 2.035 3.784
-0.034 2.162 3.568
0.995 1.697 3.845
0.794 1.817 3.535
0.686 2.065 3.745
0.232 2.533 3.799
1.176 1.832 3.619
0.906 2.295 3.776
0.778 2.250 3.577
0.408 2.579 3.729
1.574 2.075 3.689
1.370 2.510 3.520
0.998 2.717 3.645
0.568 4.292 3.105
