1.203 5.670 1.150
1.771 4.972 1.822
-0.041 6.027 0.551
0.469 5.872 0.607
0.362 5.547 0.822
0.650 5.468 1.096
1.764 4.929 1.846
0.155 5.533 0.906
0.281 5.456 1.032
1.485 4.658 1.873
-0.044 5.745 0.524
0.333 5.321 0.669
1.374 4.596 1.398
1.736 4.614 1.526
1.113 4.472 1.306
1.062 4.393 1.548
1.556 4.191 1.677
0.580 4.329 1.128
0.666 4.462 1.640
0.962 4.128 1.621
1.224 3.964 1.869
0.380 4.401 1.053
0.278 4.398 1.315
0.705 4.052 1.585
0.690 3.823 1.521
0.121 4.002 1.133
0.253 4.202 1.289
0.253 3.784 1.473
0.102 3.682 1.460
0.309 3.712 1.571
2.776 6.391 1.175
2.824 5.986 1.353
2.319 6.267 0.790
2.436 5.953 1.038
1.474 6.168 0.639
1.908 6.129 0.643
2.152 5.957 1.048
1.110 6.352 0.450
1.510 6.029 0.742
1.442 5.970 0.994
0.805 6.171 0.558
1.168 6.119 0.728
1.159 5.887 0.818
1.291 5.609 1.021
0.235 6.101 0.248
0.341 6.041 0.324
0.425 5.896 0.431
0.635 5.644 0.543
1.081 5.780 0.898
1.890 5.016 1.684
-0.100 5.869 0.051
0.167 5.881 0.231
0.583 5.656 0.569
0.663 5.416 0.732
1.939 4.537 1.590
0.151 5.500 0.406
0.128 5.540 0.630
1.429 4.682 1.382
1.515 4.604 1.725
0.149 5.654 0.014
1.291 4.476 1.227
1.345 4.343 1.413
1.784 4.235 1.302
0.790 4.585 1.055
1.108 4.564 1.137
1.185 4.081 1.459
1.379 4.213 1.518
0.464 4.630 0.958
0.555 4.225 1.070
0.798 3.993 1.070
1.242 4.036 1.517
1.305 3.704 1.695
0.195 4.503 0.805
0.440 4.342 1.040
0.438 4.159 1.171
0.622 3.891 1.423
0.897 3.649 1.342
1.053 3.749 1.771
0.259 4.062 0.995
0.273 4.035 1.086
0.651 3.692 1.203
0.629 3.759 1.321
1.097 3.463 1.489
-0.015 3.526 1.066
0.307 3.672 1.313
0.332 3.480 1.578
2.510 6.373 0.511
2.762 6.154 0.660
2.936 5.848 0.967
3.292 5.949 1.085
2.145 6.360 0.620
2.298 6.089 0.753
2.549 6.056 0.863
2.780 5.857 1.045
1.597 6.441 0.062
1.742 6.162 0.435
2.062 5.989 0.601
1.979 6.014 0.763
2.234 5.590 0.960
1.180 6.230 0.107
1.394 6.005 0.109
1.505 6.013 0.398
1.872 5.724 0.626
1.965 5.653 0.592
0.924 6.090 0.060
1.195 5.703 0.420
1.323 5.800 0.478
0.607 5.866 -0.076
0.692 5.846 0.138
1.045 5.580 0.341
0.201 5.740 0.132
0.665 5.473 0.254
1.777 4.793 1.344
1.739 4.667 1.296
0.084 5.524 0.264
1.148 4.636 1.134
1.472 4.463 1.320
1.761 4.277 1.414
1.057 4.767 0.836
1.357 4.495 0.961
1.546 4.392 1.026
1.841 4.236 1.072
0.727 4.579 0.658
0.911 4.558 0.626
1.164 4.296 0.942
1.294 3.936 1.164
1.636 3.826 1.226
0.329 4.484 0.491
0.489 4.392 0.495
0.849 4.008 0.882
1.024 3.879 1.082
1.076 3.991 0.978
1.341 3.835 1.373
0.161 4.419 0.463
0.339 3.946 0.786
0.756 3.895 1.033
0.924 3.662 1.104
0.848 3.742 1.130
1.188 3.676 1.394
0.180 3.921 0.692
0.052 3.888 0.678
0.308 3.779 0.900
0.772 3.518 1.012
0.787 3.353 1.061
1.069 3.448 1.349
-0.000 3.514 0.614
0.046 3.372 1.028
0.277 3.556 1.238
0.773 3.122 1.380
0.712 3.202 1.330
-0.152 3.420 0.972
0.300 3.045 1.295
2.239 6.185 0.027
2.747 5.995 0.179
2.782 5.878 0.365
2.899 5.896 0.643
3.316 5.699 0.783
2.052 6.061 -0.059
2.255 6.185 0.309
2.318 5.884 0.236
2.737 5.762 0.567
2.701 5.721 0.769
2.935 5.366 1.024
1.761 5.887 0.102
2.009 5.703 0.146
2.088 5.694 0.520
2.391 5.510 0.605
2.632 5.469 0.893
1.840 5.650 0.239
1.798 4.475 0.822
2.098 4.548 1.218
1.269 4.576 0.747
1.386 4.644 0.866
1.771 4.412 0.884
1.861 4.330 1.201
1.023 4.640 0.410
1.329 4.633 0.455
1.501 4.167 0.663
1.619 4.240 0.898
1.722 4.066 1.089
0.709 4.503 0.075
0.838 4.266 0.481
1.130 4.385 0.334
1.329 3.928 0.571
1.351 4.012 0.747
1.723 3.917 0.843
0.549 4.325 0.286
0.801 4.261 0.567
1.075 3.900 0.408
0.962 3.795 0.719
1.247 3.618 0.756
1.561 3.467 1.185
0.419 4.147 0.414
0.570 3.839 0.612
0.736 3.832 0.597
0.762 3.599 0.793
1.070 3.381 0.908
1.236 3.393 1.266
0.065 3.788 0.485
0.211 3.899 0.522
0.532 3.779 0.489
0.546 3.272 0.927
0.947 3.429 0.820
1.029 2.988 0.999
0.000 3.464 0.524
0.350 3.212 0.659
0.360 3.234 0.742
0.772 3.199 1.044
1.071 3.048 1.121
0.240 2.982 0.743
0.301 3.059 0.846
0.506 2.824 1.153
2.692 6.167 -0.030
2.778 5.821 0.400
2.964 5.811 0.332
3.134 5.518 0.563
2.276 5.760 -0.039
2.492 5.633 0.043
2.669 5.511 0.481
2.885 5.635 0.623
3.150 5.278 0.775
2.233 5.612 0.173
2.433 5.692 0.233
2.578 5.403 0.224
2.842 5.328 0.542
2.937 5.122 0.737
1.092 4.702 0.427
1.230 4.479 0.491
1.636 4.197 0.767
1.712 4.094 0.891
1.957 3.891 1.053
1.365 4.594 0.019
1.532 4.414 0.392
1.724 4.315 0.394
1.811 3.955 0.406
2.171 4.058 0.700
0.825 4.298 0.131
1.076 3.940 0.128
1.549 3.793 0.614
1.511 3.743 0.585
1.724 3.671 0.786
0.970 4.127 -0.015
0.934 4.067 0.479
1.259 3.897 0.374
1.533 3.431 0.693
1.513 3.523 0.644
0.469 4.000 -0.083
0.554 3.915 0.056
0.850 3.512 0.524
0.856 3.404 0.535
1.190 3.521 0.667
1.285 3.376 0.752
0.490 3.691 0.338
0.463 3.611 0.452
0.951 3.425 0.608
0.926 3.008 0.676
1.164 3.014 0.893
0.215 3.332 0.190
0.410 3.377 0.295
0.594 2.921 0.472
0.651 2.830 0.873
0.941 2.707 1.039
0.554 2.751 0.774
0.507 2.620 0.992
0.937 2.525 0.888
2.842 5.575 -0.061
3.063 5.612 0.303
3.288 5.222 0.542
2.688 5.414 -0.004
3.179 5.351 0.364
3.299 5.274 0.280
2.723 5.419 -0.041
2.960 4.962 0.367
3.104 4.980 0.630
1.411 4.566 0.003
1.446 4.602 0.092
1.252 4.596 0.197
1.270 4.348 0.085
1.764 4.016 0.534
1.834 3.918 0.420
2.114 3.920 0.779
1.542 4.126 0.023
2.051 4.019 0.130
1.406 3.985 0.091
1.639 3.841 0.065
1.776 3.761 0.523
1.850 3.382 0.466
0.937 3.599 0.021
1.391 3.478 0.202
1.352 3.562 0.334
1.753 3.151 0.715
0.758 3.451 0.252
1.118 3.234 0.199
1.396 3.349 0.530
1.605 3.170 0.498
0.627 3.283 0.144
0.661 3.231 0.059
0.911 3.080 0.179
1.264 3.109 0.490
1.355 2.870 0.744
0.661 2.939 0.330
0.864 3.022 0.515
0.950 2.964 0.642
1.143 2.661 0.621
0.755 2.420 0.766
0.990 2.607 0.602
3.642 5.190 0.114
3.116 5.192 -0.137
3.145 4.959 0.143
3.040 4.926 -0.096
3.176 4.815 0.087
2.909 4.629 0.220
1.665 4.020 0.173
1.790 3.764 0.290
1.700 3.466 0.332
1.176 3.308 -0.055
1.304 3.207 0.204
1.511 3.108 0.357
1.128 3.050 0.154
1.160 2.897 0.218
1.341 2.554 0.538
0.898 2.649 0.210
0.989 2.555 0.480
1.268 2.552 0.520
0.656 2.457 0.450
1.024 2.459 0.545
0.864 2.044 0.747
3.124 4.478 0.164
1.424 2.756 0.091
1.129 2.357 0.112
1.038 2.091 0.448
0.820 1.753 0.415
0.513 1.726 0.413
1.202 2.144 0.052
0.818 1.822 0.271
0.607 1.546 0.295
0.118 6.271 3.898
0.382 6.122 4.068
0.823 6.006 4.306
0.061 6.141 3.883
0.155 5.859 4.147
0.301 5.781 4.007
0.211 5.564 4.003
0.278 5.445 4.169
0.240 5.239 4.130
0.746 6.144 3.810
1.007 6.076 4.140
0.285 6.214 3.626
0.316 6.096 3.928
0.709 5.897 4.038
2.348 4.560 5.516
2.789 4.609 5.609
2.788 4.450 6.057
3.105 4.286 6.301
0.783 5.645 4.445
0.983 5.470 4.564
1.420 5.575 4.614
2.176 4.351 5.652
2.107 4.490 5.527
2.606 4.079 5.705
2.528 4.009 6.046
2.856 3.872 6.087
0.688 5.374 4.191
0.907 5.552 4.391
1.592 4.280 5.509
1.736 4.178 5.525
2.056 4.174 5.635
2.140 3.866 5.949
2.620 4.021 6.081
2.726 3.548 6.262
0.549 5.308 4.260
1.390 4.522 5.106
1.398 4.320 5.361
1.510 3.984 5.492
1.831 4.047 5.944
2.213 3.922 5.920
2.390 3.465 6.193
1.387 4.423 5.449
0.946 4.111 5.230
1.281 3.991 5.448
1.380 3.795 5.731
1.545 3.589 5.698
1.803 3.533 6.027
0.935 4.333 5.314
1.004 4.060 5.367
0.850 3.895 5.245
1.040 3.828 5.583
1.158 3.765 5.825
1.609 3.471 5.751
0.566 4.041 5.190
0.507 3.899 5.285
0.698 3.793 5.370
0.780 3.826 5.352
1.000 3.629 5.597
1.150 3.591 5.781
0.161 4.134 4.872
0.311 3.906 4.978
0.538 3.687 5.260
0.673 3.701 5.547
0.340 3.340 5.449
0.709 3.421 5.738
-0.032 3.819 5.233
0.122 3.814 5.215
0.422 3.347 5.438
0.368 3.225 5.584
-0.097 3.303 5.479
0.422 3.311 5.644
0.898 2.649 6.201
0.310 2.447 5.986
0.083 2.414 6.043
0.414 2.142 6.330
0.019 2.042 6.244
3.687 6.069 5.074
3.903 6.050 5.103
4.184 5.993 5.453
3.274 6.236 5.049
3.544 5.898 5.059
3.523 5.904 5.347
2.733 6.103 4.852
3.208 5.824 5.146
3.199 5.674 5.211
4.392 5.041 6.032
2.508 6.252 4.878
2.798 6.084 4.991
2.671 5.921 4.838
2.901 5.593 4.918
4.136 4.713 5.941
4.300 4.889 6.085
2.167 6.342 4.560
2.491 5.886 4.654
2.685 6.024 4.799
2.309 5.566 4.891
3.585 4.920 5.964
3.836 4.543 5.969
1.553 6.152 4.434
1.707 6.274 4.371
1.962 5.920 4.786
2.369 5.935 4.731
2.562 5.695 4.984
3.166 4.695 6.040
3.496 4.688 5.969
3.748 4.451 6.353
1.369 6.038 4.113
1.533 5.967 4.293
1.751 5.929 4.681
1.959 5.678 4.606
2.222 5.430 4.837
2.813 4.801 5.896
3.232 4.339 6.074
3.200 4.472 5.957
3.480 4.138 6.354
1.053 5.868 4.076
1.092 5.750 4.406
1.350 5.746 4.410
1.585 5.356 4.668
2.604 4.583 5.765
2.644 4.524 5.801
3.029 4.305 5.943
3.127 4.203 6.113
0.934 5.806 4.126
1.110 5.544 4.467
1.311 5.623 4.688
2.372 4.527 5.142
2.454 4.493 5.350
2.812 4.401 5.729
3.124 4.203 5.696
3.122 4.069 6.059
3.505 3.788 5.919
0.865 5.478 3.924
1.167 5.487 4.217
2.030 4.619 4.991
2.188 4.280 5.263
2.394 4.070 5.369
2.450 3.960 5.649
2.648 3.782 5.864
2.999 3.760 5.852
0.693 5.271 4.056
0.946 5.371 4.136
1.410 4.410 4.988
1.889 4.373 5.161
1.888 4.163 5.240
2.062 4.153 5.364
2.356 3.736 5.654
2.740 3.749 5.712
2.724 3.607 6.033
0.605 5.320 4.132
1.614 4.261 4.834
1.400 4.092 4.952
1.560 3.913 5.137
1.791 3.845 5.323
1.982 3.750 5.543
2.053 3.686 5.867
2.331 3.607 5.798
0.529 4.853 4.289
1.501 4.277 5.102
1.107 4.123 4.940
1.200 3.955 5.334
1.673 3.694 5.347
1.829 3.635 5.584
1.973 3.320 5.899
2.185 3.237 5.810
1.049 4.177 4.955
1.292 4.097 5.220
1.011 3.913 5.044
1.262 3.504 5.313
1.520 3.398 5.448
1.661 3.248 5.563
1.884 3.147 5.621
0.835 4.004 5.025
1.107 3.741 5.316
0.650 3.402 5.265
0.798 3.565 5.284
1.023 3.108 5.515
0.339 3.906 4.910
0.737 3.642 4.964
0.803 3.617 5.067
0.505 3.293 5.285
0.131 3.593 5.059
0.345 3.499 5.079
0.718 3.449 5.254
1.150 2.276 5.983
0.487 2.149 5.848
0.840 2.104 6.157
1.059 2.071 6.138
0.006 2.226 5.729
0.382 2.103 5.868
0.743 1.835 5.930
0.714 1.577 6.126
0.121 1.702 6.001
0.250 1.703 6.072
0.067 1.405 6.038
3.507 6.072 4.794
3.861 5.949 4.898
4.136 6.093 4.872
4.156 5.678 5.347
4.515 5.499 5.314
5.534 4.922 6.356
3.182 6.019 4.564
3.431 5.867 4.827
3.580 6.001 5.029
3.602 5.614 5.113
4.127 5.691 5.298
5.106 5.007 6.070
5.278 4.752 6.072
3.098 6.002 4.457
3.070 5.952 4.525
3.157 5.682 4.657
3.520 5.772 4.805
3.398 5.507 5.247
4.605 4.614 6.280
2.843 5.969 4.487
3.113 6.120 4.679
2.701 5.676 4.518
3.108 5.727 4.762
4.456 4.582 6.280
2.380 5.989 4.475
2.387 5.857 4.418
2.699 5.885 4.685
4.319 4.069 6.284
2.285 5.778 4.454
3.422 4.324 5.734
3.722 4.120 5.989
1.398 6.053 4.061
1.931 5.908 4.185
2.913 4.415 5.402
3.125 4.489 5.729
3.197 4.138 5.686
3.714 3.924 5.869
1.183 5.703 3.986
1.323 5.543 4.181
2.302 4.514 5.323
2.616 4.517 5.459
2.815 4.439 5.657
2.889 4.204 5.750
3.054 4.071 5.750
3.434 3.987 6.129
1.026 5.716 3.928
1.001 5.515 4.095
2.417 4.563 4.784
2.405 4.274 5.014
2.818 4.381 5.089
2.735 3.998 5.188
3.001 3.947 5.534
3.100 3.757 5.498
1.135 5.393 3.665
1.958 4.362 4.749
2.127 4.424 4.751
2.120 4.176 4.964
2.417 4.232 5.097
2.694 4.012 5.199
2.945 3.769 5.612
2.925 3.648 5.814
0.684 5.180 3.843
1.804 4.528 4.733
1.771 4.448 4.757
1.688 4.275 4.868
2.141 3.842 5.146
2.125 3.996 5.342
2.548 3.822 5.263
2.499 3.394 5.447
2.939 3.271 5.655
0.627 4.990 3.850
1.654 4.415 4.690
1.487 4.044 4.703
1.580 3.991 5.117
1.821 3.716 4.959
2.206 3.465 5.168
2.145 3.398 5.616
2.521 3.243 5.565
2.651 3.205 5.801
0.598 4.784 3.967
1.091 4.141 4.487
1.520 3.913 4.917
1.167 4.034 4.871
1.410 3.813 4.973
1.748 3.390 5.034
1.965 3.320 5.163
2.217 3.092 5.402
2.324 3.055 5.684
0.234 4.460 3.835
1.224 3.979 4.554
1.094 3.678 4.860
0.891 3.811 4.822
1.357 3.669 5.148
1.366 3.318 5.187
1.645 3.359 5.443
1.861 3.054 5.551
1.970 3.057 5.629
1.182 3.687 4.950
0.709 3.569 4.958
1.123 3.338 5.194
1.240 3.205 5.221
1.405 3.134 5.263
1.022 3.382 4.957
0.382 2.138 5.521
0.635 1.950 5.716
0.939 1.908 5.830
0.973 1.746 5.855
0.246 2.009 5.193
0.127 1.908 5.527
0.298 1.822 5.832
0.806 1.798 5.782
0.740 1.540 5.990
0.951 1.342 6.223
0.234 1.746 5.602
0.144 1.499 5.856
0.564 1.591 6.056
0.641 1.351 5.906
0.894 1.302 6.264
0.243 1.482 5.865
0.103 1.477 5.805
0.595 1.004 6.074
3.399 6.200 4.273
3.666 6.147 4.292
3.729 6.024 4.621
4.152 5.851 4.875
4.291 5.828 4.970
4.562 5.626 5.174
5.411 4.806 5.888
5.797 4.608 5.995
6.056 4.349 6.412
3.356 6.290 4.275
3.126 6.054 4.225
3.303 5.863 4.579
3.724 5.613 4.626
4.038 5.759 4.934
4.182 5.428 4.870
4.340 5.245 5.125
5.317 4.535 5.853
5.423 4.474 6.268
3.158 6.357 4.094
3.219 6.104 4.471
3.055 5.881 4.299
3.120 5.834 4.476
3.624 5.375 4.877
3.737 5.268 4.721
4.009 5.138 5.177
4.931 4.430 6.016
5.320 4.151 6.265
3.213 5.836 4.330
2.861 4.563 5.218
3.138 4.372 5.165
2.091 4.401 4.888
2.365 4.562 4.884
2.819 4.371 5.101
2.734 3.961 5.299
3.158 3.937 5.377
3.335 4.020 5.662
0.924 5.521 3.761
2.047 4.735 4.536
2.278 4.312 4.713
2.615 4.397 4.820
2.699 4.180 4.721
2.884 3.963 5.201
3.136 3.789 5.293
4.293 3.253 5.973
4.326 2.897 6.153
1.997 4.675 4.465
1.863 4.215 4.473
1.978 4.226 4.551
2.182 4.043 4.904
2.684 3.972 5.037
2.768 3.876 4.971
3.043 3.780 5.388
3.859 2.991 6.229
4.176 2.630 6.162
0.906 5.246 3.682
1.998 4.480 4.388
1.619 4.069 4.574
1.994 4.036 4.737
2.011 3.690 4.860
2.496 3.852 5.084
2.417 3.732 5.298
2.847 3.497 5.150
2.829 3.126 5.571
3.852 2.626 6.297
0.659 4.704 3.680
1.506 4.220 4.334
1.737 3.984 4.559
1.615 3.982 4.408
1.581 3.927 4.740
2.132 3.530 4.783
2.296 3.419 5.122
2.480 3.386 5.353
2.595 3.138 5.457
2.650 2.883 5.357
3.449 2.540 6.202
0.652 4.515 3.876
1.508 3.783 4.713
1.402 3.566 4.761
1.586 3.718 4.856
1.693 3.356 4.967
1.918 3.426 5.116
2.324 3.011 5.110
2.354 2.831 5.599
2.575 2.836 5.480
3.548 2.179 6.404
0.249 4.434 3.815
1.231 3.837 4.625
1.007 3.329 4.498
1.498 3.334 4.727
1.385 3.249 4.901
1.585 2.909 5.298
2.004 2.857 5.201
2.053 2.664 5.369
0.143 4.131 3.679
1.242 3.521 4.656
1.217 3.038 5.004
1.393 2.968 5.185
1.697 2.844 5.191
0.261 2.495 5.061
0.494 2.118 4.926
0.588 2.081 5.133
0.658 1.869 5.473
0.934 1.662 5.502
0.206 2.581 4.809
0.336 2.074 5.235
0.347 1.788 5.260
0.631 1.817 5.435
0.849 1.779 5.626
0.976 1.391 5.863
0.226 1.719 5.241
0.415 1.517 5.498
0.742 1.225 5.537
0.747 1.121 5.820
0.174 1.170 5.383
0.258 1.148 5.846
0.674 0.892 5.962
0.631 0.726 6.216
3.408 6.282 4.201
3.786 5.807 4.247
3.776 5.833 4.324
4.119 5.810 4.576
4.298 5.353 4.544
4.716 5.351 4.880
4.615 5.060 4.865
5.628 4.608 5.654
5.711 4.413 6.014
5.799 4.481 6.105
6.274 4.372 6.345
3.639 6.103 3.938
3.432 5.859 4.042
3.657 5.712 4.101
3.716 5.673 4.349
3.942 5.318 4.427
4.322 5.229 4.795
4.357 5.050 5.107
4.448 4.902 4.965
5.439 4.400 5.801
5.600 3.948 5.976
5.919 4.021 6.089
3.323 5.900 4.018
3.540 5.669 4.368
3.695 5.409 4.575
3.922 5.055 4.811
3.830 5.029 4.653
4.209 4.809 4.798
5.280 4.041 6.001
5.573 3.922 6.172
2.608 4.389 4.606
2.086 4.602 4.497
2.346 4.525 4.545
2.632 4.370 4.667
2.749 4.095 4.855
2.964 3.896 5.040
3.307 3.781 5.168
4.352 3.174 5.957
4.547 2.866 6.165
2.083 4.455 4.233
2.297 4.489 4.271
2.341 4.157 4.182
2.562 4.048 4.337
2.713 3.876 4.815
2.942 4.029 4.709
3.903 3.233 5.534
4.364 2.928 5.979
4.381 2.708 5.909
4.717 2.833 6.129
2.064 4.607 4.147
2.184 4.375 4.255
1.913 4.378 4.149
2.180 3.998 4.537
2.341 4.098 4.393
2.684 3.955 4.788
2.911 3.570 4.938
2.918 3.646 5.202
4.250 2.802 6.019
4.236 2.540 5.855
4.438 2.631 6.054
1.740 4.412 3.862
2.037 4.394 4.027
1.791 4.004 4.239
2.159 3.887 4.373
2.222 3.558 4.606
2.527 3.486 4.644
2.821 3.278 4.904
2.875 3.145 5.220
4.027 2.410 5.874
4.152 2.211 6.234
4.108 2.102 6.397
0.976 4.630 3.379
1.516 4.309 4.034
1.697 4.112 4.268
1.694 3.958 4.486
1.788 3.598 4.502
2.189 3.617 4.575
2.232 3.485 4.974
2.460 3.319 5.010
2.795 3.137 5.247
3.019 2.848 5.329
3.733 2.139 6.032
3.764 2.051 6.038
0.813 4.683 3.467
1.729 3.933 4.429
1.398 3.751 4.342
1.595 3.503 4.370
1.759 3.209 4.770
2.078 3.002 4.921
2.162 2.845 5.000
2.461 2.889 5.224
2.706 2.592 5.410
3.589 1.974 6.099
0.580 4.154 3.489
0.735 4.023 3.656
1.527 3.402 4.272
1.434 3.322 4.673
1.719 2.963 4.767
2.006 2.793 4.802
2.219 2.766 4.923
2.082 2.732 5.354
2.367 2.345 5.431
0.294 4.190 3.733
0.532 3.818 3.628
1.799 2.607 5.031
1.768 2.674 5.160
2.224 2.332 5.130
2.434 2.396 5.500
0.045 3.898 3.651
0.248 3.652 3.876
0.504 2.510 4.730
2.439 1.145 6.241
0.093 2.657 4.422
0.445 2.385 4.514
0.323 2.225 4.795
0.388 2.261 4.989
0.728 2.012 5.043
0.828 1.861 5.248
2.225 0.763 6.006
-0.081 2.593 4.525
0.428 2.303 4.712
0.167 2.209 4.777
0.103 1.897 4.926
0.472 1.605 5.093
0.841 1.551 5.177
0.766 1.313 5.429
0.109 2.145 4.718
-0.103 1.862 4.890
0.394 1.376 5.024
0.381 1.215 5.429
0.728 1.071 5.465
0.729 1.230 5.494
0.217 1.226 5.069
0.189 1.178 5.167
0.636 1.074 5.347
0.531 0.838 5.651
0.888 0.730 5.723
3.620 5.811 3.875
3.995 5.744 3.926
4.090 5.557 3.966
4.166 5.496 4.398
4.338 5.446 4.496
4.830 5.057 4.632
4.877 5.031 4.629
5.865 4.455 5.592
5.991 4.185 5.829
6.420 3.996 5.814
3.529 5.794 3.778
3.694 5.727 4.024
3.926 5.611 4.254
4.069 5.197 4.499
4.273 5.271 4.490
4.588 4.971 4.649
4.500 4.723 4.832
5.840 4.010 5.649
5.822 3.874 5.865
6.149 3.786 6.063
6.408 3.861 6.015
3.819 5.255 4.309
3.721 5.000 4.292
4.068 4.821 4.476
4.198 4.937 4.874
4.613 4.657 4.740
6.020 3.729 6.003
5.989 3.469 6.394
2.371 6.161 3.084
2.395 6.138 3.258
3.967 4.598 4.458
4.220 4.494 4.939
4.195 4.429 4.795
2.017 6.166 3.106
2.171 5.882 3.421
2.409 4.611 3.968
2.537 4.404 4.414
2.844 4.344 4.478
4.297 3.214 5.751
4.286 3.014 5.582
4.636 3.173 5.867
4.701 2.885 5.971
2.301 4.829 4.020
2.400 4.594 4.168
2.401 4.590 4.100
2.293 4.381 4.248
2.771 4.268 4.385
2.818 4.033 4.486
3.036 3.678 4.800
3.934 3.102 5.758
4.324 3.019 5.660
4.561 2.872 5.829
4.492 2.597 6.139
2.073 4.685 3.928
2.272 4.432 4.009
2.277 4.312 3.798
2.458 4.297 4.039
2.632 4.031 4.200
3.067 3.748 4.501
3.991 3.034 5.332
4.054 2.954 5.466
4.407 2.728 5.518
4.459 2.688 5.713
4.909 2.653 5.947
4.818 2.505 6.007
1.892 4.635 3.493
2.144 4.582 3.877
2.472 4.332 3.885
2.014 4.070 4.061
2.303 3.972 4.294
2.475 3.943 4.319
2.734 3.749 4.497
3.034 3.600 4.468
4.051 2.851 5.496
3.992 2.455 5.762
4.441 2.639 5.834
4.584 2.248 5.828
4.677 2.106 6.212
4.917 1.961 6.276
2.124 4.102 3.843
2.247 4.240 3.951
2.118 3.880 3.931
2.154 3.769 4.031
2.339 3.741 4.168
2.653 3.401 4.446
2.681 3.228 4.653
3.135 3.239 4.933
3.957 2.482 5.601
4.154 2.121 5.997
4.515 2.015 5.958
4.533 1.886 6.086
2.106 3.990 4.011
1.734 3.731 4.007
2.002 3.354 4.328
2.227 3.421 4.432
2.181 3.172 4.629
2.416 3.194 4.599
2.782 2.908 4.805
4.003 2.124 5.851
4.137 1.727 6.065
4.321 1.863 6.055
0.615 4.424 3.063
1.578 3.704 3.907
1.631 3.129 4.261
1.850 3.229 4.296
2.072 2.820 4.554
2.176 2.685 4.791
2.502 2.597 5.053
2.892 2.443 4.941
3.837 1.733 6.230
4.023 1.378 6.276
0.572 4.132 3.148
0.778 3.919 3.476
1.714 2.758 4.364
1.870 2.900 4.657
1.986 2.499 4.928
2.253 2.389 4.921
2.440 2.241 5.090
2.581 2.279 5.251
0.197 3.764 3.159
0.475 3.958 3.674
0.754 3.771 3.649
1.825 2.479 4.945
2.025 2.393 4.914
2.289 2.266 5.375
2.389 2.033 5.511
2.719 1.986 5.564
0.153 3.830 3.524
0.287 3.715 3.395
0.685 3.498 3.765
2.100 1.895 5.118
2.196 2.053 5.217
2.536 1.786 5.439
2.609 1.495 5.699
2.712 1.565 5.889
0.015 3.264 3.480
0.380 3.385 3.709
0.675 3.129 3.935
0.699 2.658 4.197
1.799 1.776 5.182
2.124 1.503 5.393
2.396 1.470 5.631
2.709 1.096 5.819
2.896 1.075 6.031
0.010 2.864 3.742
0.302 2.935 4.134
0.461 2.773 4.157
0.733 2.546 4.247
0.518 2.448 4.537
0.691 2.366 4.474
1.816 1.131 5.516
2.127 1.272 5.731
2.263 0.847 5.712
2.468 1.020 5.848
2.672 0.550 6.138
0.049 2.738 3.943
0.472 2.570 4.055
0.476 2.221 4.398
0.204 2.291 4.246
0.729 2.092 4.558
0.866 1.938 4.738
1.848 1.080 5.570
2.268 0.901 5.797
2.444 0.621 5.988
2.710 0.663 6.402
0.042 2.404 4.083
0.292 2.102 4.576
0.200 2.077 4.513
0.175 1.592 4.744
0.664 1.621 4.879
0.901 1.557 4.814
1.856 0.737 6.082
2.316 0.568 5.977
2.426 0.304 6.265
0.218 2.088 4.629
0.237 1.372 4.855
0.317 1.371 4.766
0.416 1.285 5.074
0.616 1.226 5.051
2.031 0.308 5.981
0.252 1.032 4.736
0.382 0.995 4.922
0.492 0.831 5.368
0.718 0.574 5.270
1.870 0.147 6.374
3.808 5.750 3.871
4.132 5.357 3.934
4.421 5.377 3.898
4.376 5.275 4.253
4.622 5.094 4.490
5.047 4.886 4.611
6.110 4.275 5.358
6.152 4.229 5.698
4.124 5.433 3.829
4.080 5.138 4.203
4.308 4.917 4.130
4.405 5.004 4.428
4.735 4.704 4.503
4.977 4.482 4.595
6.024 3.985 5.516
5.996 3.812 5.665
2.600 6.163 3.004
3.950 4.786 4.153
4.254 4.657 4.207
4.359 4.763 4.450
4.526 4.641 4.833
4.908 4.516 4.808
4.958 4.062 5.121
6.000 3.461 5.914
6.087 3.327 5.957
2.480 5.997 2.895
2.616 5.965 2.898
2.912 5.960 3.322
4.001 4.723 4.400
4.052 4.494 4.571
4.527 4.327 4.525
4.647 4.293 4.729
4.743 3.996 4.850
6.131 3.079 6.289
2.295 6.030 2.995
2.210 5.931 3.161
2.507 5.603 3.177
2.664 5.559 3.488
3.963 4.221 4.627
4.017 3.951 4.758
4.231 4.085 5.082
4.450 3.923 4.983
4.688 3.722 5.125
4.810 3.310 5.524
1.850 5.523 2.930
2.022 5.574 3.271
2.226 5.525 3.356
2.589 5.273 3.322
2.768 5.215 3.475
2.743 4.788 3.892
4.187 3.531 5.001
4.369 3.506 5.216
4.507 3.497 5.371
4.619 3.348 5.588
5.007 3.121 5.449
2.110 5.473 2.987
2.235 5.067 3.199
2.417 4.963 3.576
2.458 4.912 3.750
2.747 4.706 3.683
2.727 4.516 3.690
2.695 4.425 4.103
4.080 3.354 5.049
4.193 3.167 5.275
4.572 2.993 5.362
4.642 2.819 5.752
4.835 2.859 5.930
2.088 4.821 3.240
2.108 4.738 3.551
2.376 4.730 3.615
2.510 4.586 3.937
2.322 4.231 4.031
2.722 4.108 4.033
2.850 3.891 4.331
2.794 3.961 4.460
3.853 3.182 5.080
4.164 2.955 5.238
4.393 2.897 5.431
4.566 2.560 5.888
4.697 2.449 5.980
5.033 2.379 6.112
2.074 4.687 3.554
2.210 4.462 3.638
2.502 4.279 3.913
2.387 4.052 3.817
2.825 3.972 3.682
2.911 3.969 4.104
3.771 3.129 4.833
4.030 2.861 4.952
4.313 2.936 5.305
4.548 2.634 5.139
4.590 2.716 5.490
5.015 2.534 5.830
1.677 4.676 3.278
1.861 4.326 3.401
2.226 4.370 3.347
2.287 4.150 3.737
2.225 3.798 3.614
2.451 3.763 3.931
2.690 3.536 4.112
4.232 2.766 5.358
4.194 2.321 5.514
4.357 2.464 5.365
4.535 2.218 5.760
4.830 2.134 5.934
1.859 4.059 3.303
1.880 3.957 3.678
2.330 3.871 3.701
1.872 3.572 3.706
2.361 3.646 3.764
2.567 3.291 3.921
2.805 3.145 4.255
4.312 2.265 5.533
4.526 1.934 5.574
4.696 1.769 5.891
1.865 3.552 3.680
2.235 3.223 4.328
2.347 3.144 4.411
2.764 2.960 4.614
4.558 1.723 6.007
4.506 1.477 6.292
2.263 2.773 4.233
2.343 2.588 4.655
2.665 2.506 4.737
2.909 2.306 4.862
4.233 1.451 6.107
4.296 1.170 6.302
0.755 4.162 2.999
0.947 3.700 3.161
2.393 2.549 4.471
2.628 2.167 4.881
2.715 2.165 4.741
2.969 1.997 5.170
2.877 1.715 5.284
4.293 0.841 6.281
0.594 3.967 3.201
0.643 3.602 3.372
0.798 3.601 3.565
2.141 2.334 4.595
2.155 2.014 4.873
2.358 2.006 4.920
2.779 1.985 5.223
2.800 1.771 5.221
2.976 1.446 5.573
0.127 3.632 3.163
0.517 3.339 3.348
0.556 3.389 3.324
0.768 3.325 3.535
1.213 2.875 3.669
1.186 2.634 3.960
2.215 1.841 4.812
2.166 1.903 4.913
2.386 1.595 5.084
2.597 1.332 5.318
2.946 1.447 5.567
3.127 1.251 5.554
0.056 3.478 3.046
0.076 3.379 3.481
0.585 3.211 3.546
0.798 3.026 3.609
1.020 2.655 3.909
0.867 2.738 4.050
0.668 2.408 4.149
1.759 1.801 4.992
2.044 1.394 5.041
2.409 1.465 5.211
2.558 1.291 5.404
2.672 1.156 5.385
2.775 0.828 5.817
3.057 0.977 5.879
0.196 2.853 3.556
0.160 2.749 3.617
0.487 2.595 3.662
0.698 2.428 4.013
0.701 2.407 3.922
0.789 2.040 4.235
0.893 2.163 4.312
1.827 1.441 5.054
1.960 1.263 5.293
2.348 1.108 5.461
2.416 1.012 5.495
2.606 0.690 5.888
2.893 0.599 5.771
0.078 2.482 3.664
0.217 2.584 3.735
0.331 2.412 4.013
0.755 2.295 3.952
0.280 1.976 4.105
0.530 1.887 4.431
1.939 0.879 5.356
1.959 0.864 5.341
2.223 0.754 5.599
2.527 0.616 5.925
2.691 0.415 5.959
2.737 0.183 6.240
0.032 2.388 3.990
0.259 2.245 4.035
0.480 2.140 4.293
0.162 1.893 4.117
0.439 1.789 4.547
0.771 1.490 4.474
1.758 0.628 5.681
2.145 0.322 5.706
2.145 0.321 5.928
2.530 0.189 6.050
0.042 2.049 4.093
0.428 1.883 4.357
0.198 1.696 4.383
0.369 1.383 4.564
0.538 1.215 4.433
1.924 0.125 5.775
-0.059 1.529 4.280
-0.043 1.019 4.338
0.141 0.894 4.515
0.399 0.987 4.836
0.489 0.720 4.840
4.580 5.222 3.720
4.514 5.095 4.053
4.925 4.796 4.258
4.226 4.870 4.019
4.340 4.697 4.072
4.678 4.842 4.074
4.804 4.569 4.341
5.215 4.532 4.427
2.517 6.312 2.559
2.863 6.102 2.784
3.050 5.755 2.986
4.073 4.814 4.036
4.358 4.474 4.403
4.682 4.424 4.327
5.034 4.360 4.512
5.174 3.934 4.615
5.185 3.875 5.071
6.237 3.196 5.675
2.361 5.977 2.749
2.645 5.643 2.719
2.939 5.767 2.791
3.154 5.540 2.910
4.072 4.412 4.270
4.267 4.253 4.294
4.484 4.093 4.375
4.554 4.084 4.769
4.928 3.786 4.877
5.180 3.609 4.887
5.435 3.367 4.966
6.430 2.684 6.051
2.381 5.673 2.767
2.277 5.523 2.920
2.620 5.382 2.898
2.875 5.437 3.218
2.928 5.229 3.332
3.130 4.971 3.516
4.001 3.934 4.489
4.255 3.948 4.380
4.310 3.879 4.649
4.799 3.760 4.940
4.971 3.487 4.848
4.917 3.285 5.180
5.894 2.564 5.818
2.041 5.520 2.723
2.263 5.247 2.940
2.466 5.134 2.885
2.708 5.114 3.231
2.663 4.773 3.256
3.217 4.654 3.531
2.816 4.493 3.733
3.204 4.441 3.854
3.970 3.537 4.684
4.183 3.642 4.686
4.530 3.447 4.894
4.605 3.429 5.063
5.026 3.038 5.179
4.936 3.017 5.531
1.876 5.303 2.772
2.072 5.231 2.835
2.264 4.969 3.087
2.528 4.970 3.201
2.672 4.691 3.313
2.872 4.449 3.618
2.770 4.257 3.671
2.678 4.396 3.785
3.720 3.517 4.512
4.215 3.319 4.864
4.241 3.106 4.792
4.396 2.952 5.218
4.523 3.036 5.124
4.754 2.910 5.574
5.216 2.765 5.533
1.816 4.782 3.103
2.219 4.747 2.941
2.291 4.554 3.108
2.454 4.596 3.356
2.697 4.475 3.502
2.452 4.113 3.754
2.563 4.091 3.895
2.993 3.698 4.006
3.861 3.127 4.696
4.125 2.849 5.090
4.274 2.955 5.322
4.422 2.623 5.329
4.814 2.417 5.591
4.745 2.519 5.701
1.846 4.419 3.226
2.135 4.392 3.403
2.168 4.409 3.531
2.487 4.144 3.760
2.618 4.066 3.259
2.573 3.814 3.644
3.909 3.212 4.582
3.858 3.137 4.503
4.001 2.934 4.747
4.255 2.821 4.746
4.422 2.427 5.130
4.745 2.351 5.239
1.886 4.748 2.936
2.059 4.593 2.956
2.130 4.416 2.947
2.231 3.977 3.394
2.417 3.839 3.302
2.203 3.877 3.576
4.165 2.328 5.006
4.370 2.148 5.257
2.035 4.023 3.128
2.315 3.990 3.363
2.295 3.791 3.419
2.523 2.350 4.574
2.726 2.033 4.595
3.070 1.898 4.984
3.265 1.713 4.832
3.195 1.543 5.114
4.486 0.649 6.185
0.467 3.530 2.869
0.622 3.649 3.016
0.911 3.431 3.279
1.098 3.165 3.322
1.318 2.781 3.697
2.437 2.132 4.620
2.383 1.957 4.775
2.846 1.659 4.927
3.096 1.353 4.868
3.275 1.256 5.161
3.505 1.202 5.526
4.249 0.624 6.019
0.279 3.555 2.824
0.567 3.114 2.877
0.898 3.063 3.068
1.049 2.981 3.401
1.146 2.854 3.720
1.468 2.847 3.852
0.998 2.390 3.739
2.027 1.581 4.471
2.286 1.721 4.799
2.560 1.430 5.096
2.694 1.222 4.951
2.885 1.020 5.392
2.989 0.969 5.589
3.360 0.834 5.641
4.103 0.461 6.418
-0.015 3.087 2.947
0.203 2.917 3.140
0.602 3.026 3.457
0.845 2.689 3.311
0.926 2.664 3.631
1.007 2.361 3.601
0.881 2.141 3.677
1.900 1.469 4.538
2.018 1.523 4.725
2.215 1.246 4.951
2.625 0.911 5.175
2.886 0.766 5.147
2.926 0.726 5.458
3.000 0.501 5.810
-0.018 3.021 3.187
0.286 2.839 3.278
0.710 2.721 3.596
0.923 2.534 3.606
0.885 2.322 3.943
0.720 2.085 3.998
1.108 1.975 4.044
1.658 1.400 4.801
1.934 1.280 4.856
2.152 1.021 5.208
2.384 0.869 5.360
2.496 0.706 5.197
2.878 0.574 5.695
3.098 0.458 5.561
0.292 2.379 3.508
0.475 2.444 3.713
0.615 2.021 3.650
0.757 2.227 3.811
0.699 1.738 4.028
0.866 1.668 4.127
1.832 1.073 5.040
1.805 0.905 5.002
2.115 0.695 5.171
2.203 0.495 5.396
2.669 0.326 5.503
2.693 0.166 5.730
0.180 2.073 3.611
0.458 2.054 3.722
0.702 1.862 4.066
0.446 1.508 4.082
1.871 0.570 4.995
2.029 0.533 5.184
2.044 0.322 5.494
2.484 0.073 5.593
2.474 0.145 5.772
0.301 1.794 3.729
0.350 1.479 4.084
4.638 4.583 3.788
4.939 4.350 3.946
5.320 4.234 4.374
5.365 4.091 4.323
2.692 5.886 2.239
2.913 5.912 2.553
3.167 5.879 2.661
4.599 4.409 4.173
4.649 4.324 4.003
5.062 4.098 4.355
4.978 3.954 4.492
5.269 3.675 4.500
5.396 3.512 4.781
2.606 5.740 2.193
2.679 5.740 2.330
3.067 5.413 2.848
3.154 5.565 2.788
3.167 5.403 3.181
3.334 4.801 3.132
4.282 4.056 4.098
4.587 3.862 4.039
4.823 3.984 4.252
4.880 3.754 4.453
5.167 3.539 4.710
5.464 3.518 5.005
2.266 5.744 2.374
2.464 5.466 2.429
2.795 5.348 2.598
2.954 5.267 2.726
3.151 5.028 3.166
3.422 4.994 3.184
3.124 4.529 3.229
4.053 4.091 4.147
4.432 3.719 4.391
4.497 3.500 4.484
4.653 3.479 4.619
4.934 3.259 4.689
5.149 3.102 4.767
5.336 3.123 5.112
6.022 2.414 5.809
2.304 5.275 2.547
2.201 5.095 2.692
2.471 5.039 2.724
2.782 4.805 3.014
2.939 4.987 3.071
3.250 4.681 3.295
3.051 4.504 3.315
3.099 4.404 3.423
4.050 3.737 4.022
4.087 3.453 4.344
4.279 3.432 4.592
4.686 3.122 4.549
4.786 2.954 4.948
5.099 2.851 4.915
5.049 2.675 5.015
1.860 5.343 2.471
2.172 5.093 2.680
2.461 4.751 2.891
2.633 4.563 3.056
2.713 4.553 3.221
3.028 4.356 3.139
2.668 4.281 3.516
2.871 3.976 3.654
3.883 3.336 4.421
4.056 3.129 4.626
4.177 3.106 4.706
4.442 2.763 4.749
4.778 2.798 5.016
5.049 2.571 5.306
1.741 5.121 2.696
1.983 4.777 2.553
2.302 4.605 3.019
2.177 4.485 3.193
2.437 4.366 3.291
2.751 4.086 3.193
2.553 4.106 3.593
2.685 3.795 3.631
3.845 3.303 4.420
4.072 2.902 4.578
4.231 2.990 4.834
4.316 2.716 4.948
4.685 2.675 5.135
4.687 2.337 5.123
1.826 4.541 2.638
1.974 4.278 3.095
2.169 4.294 3.005
2.393 4.220 3.116
2.371 3.933 3.499
2.692 3.765 3.161
3.676 3.147 4.099
3.968 3.037 4.104
3.944 2.702 4.384
4.322 2.783 4.454
4.427 2.503 4.719
4.576 2.352 4.874
1.496 4.603 2.461
1.699 4.321 2.396
1.968 4.408 2.824
2.088 4.215 2.870
2.520 3.937 3.111
2.494 3.826 3.357
1.798 2.709 3.578
2.930 2.055 4.357
3.009 1.723 4.634
3.343 1.567 4.925
3.489 1.391 4.907
3.648 1.292 5.025
0.794 3.456 2.745
0.803 3.437 2.920
0.865 3.201 3.012
1.237 3.072 3.167
1.324 3.079 3.240
1.522 2.811 3.290
1.426 2.712 3.417
2.354 1.735 4.283
2.606 1.846 4.626
2.736 1.476 4.531
2.937 1.519 4.782
3.414 1.363 4.802
3.375 1.169 5.270
3.754 0.894 5.119
0.485 3.443 2.470
0.774 2.969 2.852
0.879 2.962 3.023
1.217 2.860 3.003
1.123 2.782 3.341
1.492 2.484 3.512
1.142 2.346 3.356
2.391 1.450 4.459
2.511 1.462 4.400
2.671 1.227 4.681
2.854 1.311 4.670
3.020 1.141 4.834
3.145 1.012 5.223
3.297 0.765 5.494
4.264 -0.027 6.144
0.165 3.075 2.723
0.543 2.848 3.024
0.556 2.762 2.889
0.993 2.512 3.296
1.096 2.552 3.303
1.312 2.358 3.657
1.179 2.155 3.657
2.026 1.245 4.534
2.294 1.229 4.691
2.549 0.945 4.837
2.699 0.769 4.824
2.829 0.857 4.926
3.231 0.620 5.308
3.197 0.497 5.483
0.018 3.040 2.698
0.313 2.751 2.846
0.273 2.447 2.902
0.546 2.589 3.304
0.705 2.095 3.311
1.086 2.058 3.661
1.018 2.082 3.717
1.764 1.171 4.368
2.021 0.868 4.753
2.402 0.749 4.685
2.495 0.903 5.082
2.742 0.502 5.221
2.967 0.524 5.210
3.089 0.171 5.396
0.200 2.634 3.075
0.171 2.463 2.991
0.474 2.285 3.390
0.455 1.998 3.560
0.982 1.945 3.676
0.803 1.611 3.803
1.576 0.809 4.458
1.737 0.945 4.715
1.913 0.776 4.828
2.093 0.337 4.894
2.340 0.226 5.171
2.522 0.188 5.235
-0.090 2.275 3.162
0.398 1.999 3.427
0.456 1.694 3.672
0.817 1.606 3.661
1.471 0.491 4.753
1.701 0.536 4.723
1.907 0.222 5.064
2.098 0.119 5.178
-0.116 1.703 3.323
0.249 1.605 3.729
5.128 4.196 4.061
5.442 3.854 4.055
5.772 3.981 4.242
2.935 5.792 2.243
3.354 5.674 2.464
3.440 5.279 2.705
3.470 5.479 2.793
3.688 5.065 2.784
4.679 4.239 3.779
4.902 3.993 3.754
5.137 3.816 4.160
5.176 3.838 4.414
5.362 3.489 4.429
5.787 3.445 4.603
6.013 3.387 4.914
2.626 5.772 2.069
2.691 5.498 2.170
2.865 5.318 2.494
3.399 5.313 2.497
3.443 5.008 2.899
3.525 4.882 2.888
3.274 4.892 2.963
4.507 3.933 3.811
4.814 3.698 4.011
4.666 3.597 3.976
5.027 3.561 4.453
5.283 3.542 4.385
5.616 3.389 4.580
5.679 3.137 4.858
2.342 5.382 1.979
2.782 5.205 2.453
2.990 5.123 2.402
3.138 4.893 2.495
3.305 4.704 2.834
3.531 4.863 2.982
3.265 4.565 3.193
4.069 3.947 3.765
4.326 3.539 3.980
4.609 3.318 4.178
5.023 3.502 4.365
5.047 3.202 4.395
5.087 2.935 4.534
5.406 2.942 4.785
6.111 2.449 5.541
2.140 5.156 2.068
2.567 5.048 2.467
2.603 5.033 2.487
2.939 4.871 2.702
3.123 4.492 2.709
3.403 4.541 2.981
3.185 4.276 3.018
3.908 3.481 3.781
4.362 3.351 3.947
4.354 3.274 4.362
4.711 3.175 4.424
4.670 2.910 4.552
4.945 2.897 4.685
5.399 2.582 4.963
5.930 2.222 5.383
1.857 5.103 2.100
2.112 4.816 2.526
2.604 4.858 2.492
2.719 4.512 2.735
2.864 4.336 3.033
2.949 4.197 3.117
2.850 4.049 3.234
3.769 3.190 3.992
4.003 3.249 4.248
4.354 3.153 4.233
4.626 2.949 4.493
4.741 2.915 4.449
4.703 2.780 4.651
4.924 2.398 4.890
5.872 1.929 5.698
1.787 4.712 2.225
1.949 4.766 2.475
2.066 4.624 2.800
2.294 4.393 2.740
2.772 4.327 2.875
2.768 4.086 3.015
2.548 3.934 3.191
3.697 2.966 4.009
3.912 2.875 4.151
3.912 2.673 4.160
4.339 2.867 4.418
4.508 2.395 4.768
4.728 2.354 4.832
1.709 4.484 2.305
1.801 4.556 2.468
2.141 4.469 2.622
2.272 4.193 2.931
2.514 3.888 3.090
2.775 4.007 3.303
3.712 3.146 3.633
3.884 3.047 3.823
4.116 2.904 3.753
4.084 2.823 4.261
4.386 2.528 4.082
4.383 2.414 4.588
5.644 1.451 5.361
1.556 4.305 2.148
2.043 4.332 2.353
2.284 4.280 2.301
2.415 4.018 2.479
2.633 4.038 2.672
3.669 2.852 3.760
3.657 2.450 3.942
3.990 2.647 4.005
5.681 1.329 5.289
1.416 4.402 2.247
1.711 4.204 2.315
1.846 3.927 2.498
1.825 2.847 3.068
4.036 1.423 4.737
1.680 2.843 3.096
2.005 3.021 3.250
1.615 2.635 3.293
1.953 2.379 3.191
3.056 1.777 4.308
3.411 1.458 4.680
3.644 1.199 4.722
3.712 1.344 4.671
4.094 1.029 5.082
1.069 3.168 2.739
1.254 2.834 2.753
1.499 2.628 2.921
1.790 2.573 3.109
1.510 2.344 3.138
1.623 2.117 3.287
2.615 1.608 4.062
2.817 1.441 4.266
3.136 1.252 4.590
3.359 1.023 4.798
3.578 0.804 4.988
3.885 0.877 4.977
0.422 3.282 2.366
0.609 3.153 2.690
0.773 2.806 2.856
1.172 2.624 2.849
1.400 2.449 3.238
1.621 2.396 3.206
1.271 2.195 3.438
1.429 2.096 3.316
2.454 1.392 4.239
2.383 1.302 4.184
2.714 1.170 4.607
2.939 1.131 4.751
3.034 0.699 4.827
3.243 0.871 4.947
3.686 0.484 5.144
0.278 2.892 2.620
0.431 2.713 2.485
0.767 2.593 2.646
0.814 2.544 2.928
0.953 2.344 3.225
1.204 2.185 3.379
1.013 2.134 3.296
2.045 1.379 4.066
2.389 1.233 4.170
2.402 1.102 4.596
2.772 0.634 4.815
3.098 0.637 4.959
3.066 0.592 5.048
3.371 0.214 5.069
0.170 2.651 2.546
0.170 2.683 2.657
0.615 2.352 2.957
0.576 2.300 2.919
0.867 2.029 3.129
1.225 1.981 3.259
0.974 1.777 3.282
1.956 0.856 4.128
2.159 0.884 4.512
2.245 0.880 4.471
2.498 0.543 4.812
2.590 0.444 5.028
3.047 0.323 5.030
0.141 2.279 2.570
0.171 2.267 2.840
0.619 2.008 2.910
0.763 2.052 3.177
0.949 1.599 3.291
1.546 0.909 4.035
1.645 0.735 4.125
2.073 0.572 4.388
2.165 0.566 4.583
2.348 0.510 4.903
2.625 0.257 4.952
2.750 -0.035 5.048
0.095 2.024 2.815
0.370 1.856 3.230
0.441 1.873 3.362
1.672 0.729 4.364
1.792 0.299 4.613
2.069 0.151 4.563
2.211 0.174 4.656
0.223 1.467 3.287
3.887 5.057 2.683
4.130 5.045 2.917
5.470 3.981 3.847
5.872 3.762 4.055
6.000 3.728 4.420
6.059 3.358 4.307
3.550 5.212 2.230
3.909 5.090 2.466
3.844 4.962 2.636
3.729 4.679 2.597
3.842 4.669 2.776
4.960 4.003 3.508
5.106 3.772 3.831
5.290 3.529 3.918
5.471 3.320 4.323
5.816 3.334 4.239
5.767 3.368 4.668
2.843 5.268 1.945
2.943 5.261 2.018
3.295 5.108 2.516
3.631 4.813 2.659
3.618 4.988 2.584
3.589 4.691 2.568
3.668 4.482 2.844
4.889 3.657 3.854
4.852 3.595 4.015
4.989 3.520 4.037
5.517 3.161 4.048
5.562 3.034 4.341
5.913 3.003 4.680
2.634 5.214 1.780
2.581 5.006 2.144
2.933 4.976 2.295
2.979 4.928 2.302
3.422 4.589 2.654
3.418 4.569 2.803
3.185 4.385 2.744
3.624 4.175 2.957
4.496 3.561 3.699
4.584 3.400 3.683
4.643 3.413 4.040
5.023 3.227 4.193
5.132 3.184 4.194
5.191 2.733 4.346
5.446 2.739 4.435
2.144 5.212 1.853
2.506 5.093 2.246
2.730 4.853 2.226
2.921 4.599 2.515
3.065 4.648 2.575
3.193 4.304 2.601
2.988 4.137 2.988
4.169 3.342 3.794
4.428 3.445 3.761
4.578 3.135 4.098
4.677 3.064 4.142
5.106 2.742 4.493
5.006 2.570 4.312
5.472 2.469 4.715
6.042 1.987 5.339
2.254 4.938 2.012
2.230 4.729 2.327
2.636 4.600 2.240
2.910 4.444 2.509
2.918 4.389 2.561
3.305 4.217 3.004
2.989 4.087 2.768
3.858 3.428 3.711
3.763 3.117 3.891
4.297 2.937 3.730
4.183 2.974 3.906
4.689 2.854 4.239
4.691 2.444 4.441
5.056 2.400 4.489
5.891 1.680 5.538
1.944 4.792 1.917
2.014 4.533 2.363
2.196 4.497 2.286
2.687 4.284 2.500
2.848 3.923 2.803
2.750 3.865 3.023
3.429 3.053 3.572
3.811 3.060 3.737
4.103 2.725 3.973
4.195 2.601 4.010
4.220 2.536 4.160
4.386 2.328 4.530
5.847 1.523 5.437
1.878 4.559 2.041
1.789 4.329 2.387
2.254 4.280 2.516
2.382 3.917 2.584
2.616 3.914 2.703
3.263 3.213 3.259
3.596 2.840 3.449
3.980 2.864 3.414
4.001 2.629 3.740
4.195 2.567 3.667
4.287 2.429 4.041
5.512 1.351 4.868
5.982 1.394 5.083
1.783 4.215 1.813
2.182 4.322 2.056
2.114 4.136 2.145
2.369 3.810 2.301
3.162 2.743 3.177
3.604 2.856 3.417
3.681 2.569 3.497
3.794 2.495 3.736
4.196 2.308 3.878
5.066 1.585 5.009
5.328 1.172 5.086
5.593 1.226 5.082
1.450 4.191 1.846
1.877 4.022 2.238
2.979 2.802 3.233
2.945 2.635 3.194
3.409 2.681 3.552
3.528 2.476 3.620
4.859 1.322 4.826
4.887 1.074 4.888
5.287 1.054 5.046
5.339 0.914 5.160
1.339 3.976 2.035
2.236 2.751 2.956
2.422 2.943 2.940
2.627 2.801 3.221
2.776 2.526 3.232
3.171 2.298 3.321
4.583 1.329 4.676
4.703 1.068 4.755
4.916 1.044 5.151
4.964 0.726 5.035
2.207 3.011 2.859
2.148 2.712 2.830
2.411 2.420 3.008
2.252 2.366 3.096
2.571 2.123 3.550
3.835 1.275 4.227
3.921 1.079 4.542
4.074 1.177 4.768
4.513 0.900 4.941
4.614 0.924 4.902
1.904 2.852 2.760
2.147 2.634 2.827
1.762 2.527 2.954
1.971 2.269 3.079
2.301 2.328 3.449
3.403 1.363 4.246
3.805 1.230 4.519
3.679 0.912 4.560
4.004 0.989 4.711
4.076 0.771 4.817
4.534 0.709 4.954
1.322 3.053 2.416
1.340 2.819 2.609
1.712 2.634 2.680
1.726 2.357 2.870
1.762 2.417 3.110
1.794 2.009 3.033
3.073 1.141 4.291
3.221 0.997 4.367
3.323 1.103 4.651
3.474 0.976 4.666
3.985 0.552 4.867
4.002 0.465 4.888
0.830 2.982 2.217
1.071 2.637 2.420
1.311 2.744 2.522
1.351 2.339 2.955
1.496 2.351 3.164
1.344 2.100 3.113
1.800 1.939 3.195
2.537 1.167 3.926
2.658 1.052 4.190
2.888 0.864 4.200
3.294 0.743 4.668
3.301 0.739 4.763
3.493 0.469 4.746
0.248 2.966 2.146
0.598 2.626 2.525
0.907 2.431 2.631
1.162 2.207 2.531
1.199 2.023 2.950
1.377 2.221 3.200
1.155 1.982 3.160
2.219 1.272 3.844
2.364 0.837 3.930
2.790 0.634 4.117
2.843 0.481 4.489
2.883 0.685 4.757
3.295 0.260 4.597
0.218 2.432 2.297
0.590 2.463 2.554
0.612 2.175 2.460
0.869 2.203 2.658
1.118 2.167 2.796
1.118 1.983 3.037
1.811 1.142 3.842
2.202 0.992 3.844
2.221 0.570 4.158
2.504 0.765 4.190
2.785 0.312 4.464
3.009 0.452 4.595
2.903 0.192 4.638
-0.144 2.396 2.444
0.303 2.086 2.445
0.497 1.999 2.789
0.521 1.851 2.834
0.813 1.658 2.884
1.807 0.977 3.896
1.820 0.627 4.003
1.932 0.687 4.297
2.261 0.387 4.187
2.428 0.135 4.544
2.530 -0.043 4.790
0.061 1.972 2.573
0.267 1.719 2.794
0.334 1.700 2.732
1.313 0.755 3.892
1.271 0.694 4.014
1.506 0.619 3.956
1.674 0.186 4.291
2.111 0.044 4.434
-0.013 1.620 2.657
0.656 0.683 3.461
0.935 0.644 3.792
1.176 0.458 3.770
1.454 0.284 4.070
1.764 0.066 4.101
0.335 0.670 3.548
0.478 0.325 3.491
0.988 0.151 3.892
1.027 0.079 4.085
1.133 0.129 4.292
4.090 4.922 2.389
4.296 4.948 2.663
4.620 4.908 2.592
4.804 4.654 2.718
6.147 3.757 4.043
4.267 5.085 2.403
4.122 4.988 2.319
4.322 4.820 2.684
4.293 4.748 2.714
5.716 3.495 3.977
6.045 3.240 3.984
6.228 3.192 4.112
3.780 5.060 1.933
3.686 4.846 2.379
4.168 4.874 2.358
3.698 4.513 2.334
4.119 4.397 2.682
4.059 4.423 2.608
5.256 3.520 3.583
5.565 3.526 3.812
5.654 3.214 3.935
5.932 3.361 4.133
5.919 2.881 4.074
6.413 2.974 4.426
3.077 5.092 1.772
3.460 5.035 2.181
3.541 4.718 2.103
3.657 4.479 2.486
3.785 4.505 2.413
3.929 4.461 2.544
4.896 3.720 3.585
5.030 3.434 3.585
5.281 3.087 3.749
5.306 3.290 4.002
5.783 2.887 4.057
5.907 2.979 4.453
2.722 4.863 1.781
2.993 5.015 2.130
3.089 4.575 2.163
3.409 4.626 2.442
3.711 4.325 2.544
3.288 4.054 2.384
4.519 3.635 3.510
4.464 3.180 3.599
4.869 3.155 3.637
5.115 3.192 3.980
5.301 2.749 4.174
5.483 2.828 4.223
5.496 2.729 4.230
2.597 4.894 1.825
2.475 4.668 1.888
2.735 4.849 1.896
3.111 4.480 2.060
3.099 4.485 2.258
3.280 4.146 2.553
3.159 4.073 2.698
4.375 3.156 3.232
4.574 2.996 3.716
4.541 3.127 3.836
4.931 2.705 3.963
4.902 2.617 4.074
5.330 2.449 4.369
6.173 1.948 5.141
2.290 4.651 1.923
2.555 4.539 1.834
2.603 4.512 2.149
2.705 4.214 2.117
2.975 4.300 2.353
3.117 3.991 2.643
3.864 3.045 3.440
4.025 3.101 3.542
4.298 2.834 3.748
4.600 2.802 3.922
4.510 2.666 3.872
4.774 2.458 4.131
5.917 1.590 5.236
1.911 4.494 1.694
2.135 4.487 1.960
2.270 4.353 2.085
2.708 4.138 2.364
2.860 3.923 2.393
3.503 3.259 3.067
3.505 3.050 3.527
3.929 2.896 3.557
3.887 2.619 3.773
4.241 2.502 3.992
4.584 2.533 3.939
5.654 1.453 5.127
5.792 1.416 4.990
1.818 4.367 1.729
1.925 4.107 2.192
2.086 4.184 2.112
2.570 3.803 2.283
3.350 3.260 2.609
3.399 2.903 2.767
3.902 2.834 2.979
4.022 2.543 3.163
3.992 2.678 3.323
4.205 2.501 3.434
5.595 1.627 4.618
5.642 1.199 4.738
5.895 1.280 5.098
1.951 4.028 1.609
2.260 3.870 1.625
2.363 3.863 2.095
2.979 3.184 2.743
3.151 3.053 2.987
3.499 2.823 3.043
3.703 2.499 3.289
3.856 2.556 3.493
3.802 2.378 3.478
5.219 1.322 4.508
5.446 1.468 4.521
5.384 1.280 4.756
5.875 0.909 4.837
1.715 4.132 1.773
2.017 3.636 1.834
2.419 2.902 2.527
2.844 2.880 2.589
2.873 2.546 2.842
2.959 2.588 3.050
3.183 2.495 3.100
3.612 2.214 3.370
3.567 2.292 3.366
4.842 1.326 4.303
5.025 1.103 4.474
5.097 1.026 4.522
5.265 0.788 4.861
5.560 0.910 5.032
1.473 3.845 1.717
2.361 3.096 2.484
2.340 2.956 2.509
2.500 2.801 2.745
2.588 2.451 2.917
2.956 2.236 2.941
3.260 2.285 3.340
3.347 2.144 3.365
4.418 1.421 4.388
4.503 1.303 4.406
4.661 1.078 4.532
5.108 1.036 4.613
5.004 0.854 4.820
5.316 0.472 5.104
1.388 3.670 1.785
2.357 2.911 2.617
2.287 2.714 2.744
2.257 2.362 2.984
2.542 2.204 2.860
2.673 2.183 3.298
2.961 1.894 3.266
4.156 0.930 4.133
4.462 0.819 4.531
4.429 0.866 4.506
4.791 0.830 4.774
5.036 0.331 4.812
5.098 0.339 5.155
2.018 2.715 2.517
2.096 2.666 2.738
1.754 2.232 2.722
2.307 2.215 2.799
2.246 2.038 3.068
2.689 2.047 3.159
3.808 1.011 4.313
3.917 0.971 4.468
4.168 0.881 4.512
4.472 0.440 4.662
4.484 0.358 4.697
4.920 0.299 5.079
1.679 2.685 2.492
1.590 2.394 2.616
2.090 2.291 2.659
1.857 2.232 2.598
1.982 1.940 2.837
2.230 1.731 2.914
3.415 0.996 3.981
3.553 0.819 4.388
3.826 0.697 4.326
4.062 0.660 4.614
4.312 0.419 4.871
1.497 2.402 2.572
1.459 2.358 2.484
1.598 2.158 2.584
1.375 1.848 2.929
2.824 0.872 4.088
3.224 0.800 4.032
3.395 0.747 4.405
3.524 0.399 4.313
3.697 0.369 4.711
0.989 2.347 2.444
1.050 2.076 2.337
1.502 2.053 2.684
1.426 1.770 2.728
2.354 0.942 3.816
2.656 0.586 4.106
3.040 0.686 4.246
3.161 0.505 4.412
0.288 2.327 1.906
0.620 2.211 2.103
0.836 2.186 2.330
0.909 2.072 2.335
0.961 1.809 2.498
2.082 0.800 3.772
2.474 0.486 3.871
2.390 0.421 4.076
2.661 0.312 4.226
0.149 2.089 2.088
0.500 2.044 2.345
0.595 1.833 2.467
0.651 1.950 2.550
1.397 0.683 3.330
1.856 0.794 3.631
1.860 0.425 3.786
2.304 0.369 3.993
2.243 0.265 4.161
0.296 1.984 2.455
0.191 1.784 2.308
1.138 0.833 3.383
1.198 0.751 3.637
1.592 0.505 3.606
1.882 0.143 3.842
2.044 -0.010 3.965
2.139 -0.027 4.302
0.890 0.593 3.367
1.002 0.575 3.479
1.255 0.414 3.714
1.226 0.235 3.683
1.460 0.092 3.707
0.275 0.509 3.148
0.678 0.503 3.084
0.590 0.450 3.572
0.919 0.236 3.609
1.108 -0.139 3.808
0.306 0.668 3.054
4.496 5.066 2.025
4.573 4.794 2.385
4.604 4.477 2.304
4.741 4.620 2.731
5.126 4.229 2.802
5.277 4.045 2.890
4.022 5.187 2.015
4.163 4.979 1.993
3.998 4.904 2.049
4.189 4.465 2.426
4.604 4.419 2.293
4.902 4.205 2.672
4.917 4.327 2.727
5.957 3.569 3.627
5.969 3.233 3.975
3.887 5.032 2.116
4.111 4.781 2.013
3.852 4.468 2.185
4.270 4.230 2.177
4.297 4.394 2.386
4.602 4.015 2.646
5.677 3.487 3.356
5.897 3.044 3.784
6.096 3.173 3.919
6.011 2.981 3.923
3.506 4.634 1.908
3.652 4.610 2.095
3.807 4.392 2.298
3.816 4.414 2.150
3.924 4.311 2.351
5.201 3.110 3.682
5.545 3.103 3.767
5.650 2.759 3.885
5.926 2.648 4.150
6.118 2.387 4.345
2.984 4.764 1.579
3.452 4.667 1.738
3.626 4.373 1.948
3.767 4.185 2.178
3.506 4.083 2.464
5.014 3.081 3.611
5.017 3.018 3.552
5.243 2.690 3.697
5.633 2.546 3.867
2.871 4.737 1.451
2.955 4.589 1.980
3.113 4.362 2.066
3.179 4.139 2.161
3.392 3.968 2.235
4.246 2.959 3.193
4.619 2.980 3.485
4.576 2.767 3.531
5.006 2.579 3.487
4.962 2.541 3.675
2.382 4.652 1.338
2.684 4.447 1.758
2.577 4.486 1.665
2.787 4.263 2.046
3.787 3.172 3.236
4.208 2.740 3.353
4.251 2.714 3.421
4.615 2.449 3.691
4.865 2.427 3.658
6.055 1.727 4.799
6.219 1.553 4.951
2.236 4.355 1.449
2.244 4.346 1.766
2.574 4.076 1.964
3.188 3.129 2.870
3.487 3.038 2.762
3.830 2.946 2.969
3.976 2.719 3.322
4.026 2.591 3.440
4.190 2.457 3.756
5.382 1.651 4.504
5.779 1.375 4.781
6.056 1.192 4.971
1.937 4.060 1.585
2.291 4.126 1.789
2.365 3.725 1.783
3.351 3.026 2.546
3.441 2.813 2.543
3.534 2.773 2.560
3.797 2.768 3.042
3.842 2.614 3.117
4.374 2.234 3.067
5.533 1.362 4.137
5.521 1.249 4.474
5.867 1.209 4.447
6.123 1.041 4.752
1.916 4.178 1.269
2.279 4.018 1.525
2.695 3.184 2.234
3.122 2.740 2.416
3.317 2.655 2.510
3.315 2.550 2.668
3.483 2.535 2.946
4.007 2.228 3.205
4.009 2.179 3.164
4.854 1.497 3.917
5.157 1.445 4.311
5.364 1.057 4.392
5.603 0.929 4.703
5.930 0.832 4.910
1.735 3.925 1.379
2.018 3.637 1.726
2.798 3.238 2.246
2.547 2.724 2.398
2.839 2.530 2.532
3.064 2.693 2.809
3.147 2.364 2.788
3.475 2.424 3.030
3.455 1.959 3.027
3.888 2.152 3.233
4.552 1.514 3.970
4.809 1.253 4.177
5.134 0.924 4.245
5.058 1.038 4.435
5.577 0.812 4.794
5.693 0.525 4.942
1.527 3.762 1.340
2.546 2.850 2.438
2.360 2.805 2.251
2.784 2.625 2.407
2.672 2.488 2.786
3.148 2.152 2.663
3.370 2.031 3.021
3.434 1.796 3.156
4.289 1.171 3.945
4.551 0.904 4.251
4.670 1.036 4.483
5.034 0.830 4.668
5.236 0.579 4.546
5.454 0.312 4.861
1.476 3.390 1.557
2.107 2.713 2.119
2.588 2.728 2.364
2.183 2.587 2.429
2.473 2.275 2.696
2.762 2.307 2.724
2.936 1.910 2.719
3.113 1.935 3.066
3.195 1.730 3.056
4.310 0.927 4.219
4.516 0.733 4.183
4.632 0.660 4.488
4.980 0.557 4.617
4.955 0.291 4.533
5.400 0.374 5.005
1.933 2.584 2.400
2.270 2.583 2.349
2.003 2.064 2.618
2.275 2.027 2.483
2.525 1.846 2.843
2.764 1.911 3.031
2.936 1.549 3.104
3.969 0.662 4.049
4.132 0.414 4.309
4.293 0.568 4.399
4.730 0.237 4.635
4.724 0.115 4.880
1.652 2.468 2.399
2.036 2.189 2.488
1.661 1.842 2.636
1.861 1.660 2.656
2.358 1.820 2.764
3.913 0.667 4.006
4.051 0.484 4.308
4.333 0.388 4.322
4.292 0.008 4.675
1.567 2.313 2.434
1.832 2.109 2.537
1.413 0.723 3.195
1.808 0.766 3.074
1.932 0.366 3.329
2.105 0.250 3.356
2.270 0.367 3.561
-0.088 2.001 1.861
1.143 0.829 2.949
1.170 0.567 3.058
1.531 0.639 3.280
1.637 0.183 3.567
1.846 0.324 3.651
2.135 0.185 3.784
0.033 1.533 2.233
0.751 0.716 2.871
0.933 0.710 3.090
0.943 0.352 3.102
1.367 0.192 3.437
1.351 0.005 3.576
0.553 0.786 2.712
0.358 0.416 2.868
0.567 0.277 2.994
0.726 0.270 3.255
0.958 0.063 3.448
0.481 0.288 3.000
4.365 4.920 1.688
4.460 4.631 1.922
4.862 4.502 2.324
5.059 4.468 2.452
5.072 4.362 2.375
5.587 4.116 2.724
3.339 5.498 1.181
4.362 5.075 1.657
4.481 4.645 1.919
4.041 4.618 2.000
4.497 4.563 1.991
4.499 4.233 2.288
4.950 4.281 2.418
5.193 3.921 2.392
5.312 3.872 2.714
6.360 3.095 3.643
3.847 4.852 1.576
4.058 4.413 1.902
3.857 4.373 1.799
4.139 4.364 1.962
4.554 4.194 2.381
4.535 3.925 2.599
5.997 2.947 3.601
6.098 2.597 3.835
3.748 4.495 1.722
3.902 4.335 1.857
3.912 4.325 1.876
3.903 3.968 2.078
6.066 2.416 3.830
3.824 4.314 1.848
3.667 3.103 2.584
4.167 2.849 2.699
4.395 2.729 2.846
4.485 2.780 3.124
5.960 1.421 4.579
6.268 1.414 4.580
2.099 4.239 1.211
3.385 2.991 2.220
3.584 3.033 2.358
3.658 2.974 2.640
3.981 2.692 2.949
4.089 2.681 2.950
4.147 2.356 3.218
5.500 1.652 4.241
5.488 1.303 4.212
5.815 1.316 4.612
5.860 1.077 4.552
2.041 3.996 1.418
2.168 3.774 1.718
3.139 3.133 2.060
3.320 2.877 2.098
3.655 2.783 2.434
3.630 2.702 2.423
3.815 2.601 2.711
4.011 2.235 2.887
5.273 1.613 3.814
5.482 1.484 3.987
5.619 1.086 4.033
5.753 1.015 4.366
6.034 0.833 4.520
2.018 3.880 1.185
2.997 2.998 1.953
2.995 3.052 2.097
3.015 2.932 2.276
3.401 2.566 2.340
3.636 2.426 2.595
3.734 2.195 2.723
3.758 2.296 2.702
4.090 2.226 2.850
4.902 1.424 3.600
5.113 1.373 3.978
5.421 1.150 4.079
5.613 1.143 4.207
5.730 0.782 4.447
5.974 0.582 4.664
1.963 3.804 1.090
2.883 3.007 2.188
2.839 2.780 2.079
2.919 2.443 2.164
3.212 2.430 2.552
3.222 2.223 2.561
3.374 1.952 2.725
3.864 2.153 2.725
3.922 1.993 2.883
4.712 1.215 3.565
4.764 1.219 3.732
5.019 0.842 3.945
5.187 0.717 4.063
5.656 0.581 4.331
5.774 0.525 4.527
1.647 3.424 1.095
2.567 2.724 1.998
2.564 2.458 2.204
2.837 2.516 2.364
3.010 2.090 2.553
3.216 1.943 2.670
3.256 2.084 2.727
3.384 1.611 2.756
3.613 1.787 2.925
4.347 0.909 3.626
4.692 0.952 4.041
4.875 0.688 4.170
4.990 0.742 4.248
5.481 0.342 4.316
5.583 0.385 4.687
1.327 3.046 1.130
2.436 2.326 2.266
2.320 2.402 2.111
2.689 2.057 2.488
2.673 1.890 2.632
3.012 1.841 2.712
2.965 1.655 2.905
3.414 1.472 3.054
3.488 1.269 3.006
4.199 0.629 3.813
4.659 0.829 3.961
4.862 0.349 4.130
