0.010 0.236 3.647
0.936 2.044 6.243
0.925 1.696 6.228
0.768 1.567 6.089
0.562 0.586 4.096
0.226 0.410 3.745
0.140 0.323 3.722
0.106 0.187 3.740
0.179 -0.087 3.575
1.479 2.039 6.281
1.191 1.971 6.045
1.070 1.867 5.907
0.823 1.378 5.797
0.269 0.755 3.971
0.487 0.674 3.463
0.536 0.327 3.197
0.204 0.107 3.259
0.304 0.220 3.049
1.565 1.927 5.839
1.222 2.100 5.881
1.081 1.861 5.726
1.303 1.861 5.407
1.144 1.506 5.488
0.712 0.498 3.466
0.340 0.473 3.453
0.339 0.606 3.040
0.278 0.543 3.311
0.312 0.037 2.858
0.354 0.079 2.699
1.477 1.968 5.942
1.311 2.248 5.461
1.337 2.028 5.398
1.264 1.576 5.252
1.235 1.470 5.203
1.269 1.486 5.056
0.986 1.280 4.814
0.586 0.946 3.169
0.428 0.604 3.172
0.386 0.650 3.075
0.259 0.194 2.967
0.522 0.311 2.401
0.483 0.025 2.278
1.585 2.243 5.858
1.525 2.030 5.435
1.481 1.944 5.500
1.666 1.986 5.223
1.462 1.766 4.743
1.117 1.697 4.754
1.228 1.396 4.377
1.503 1.409 4.150
0.691 0.621 3.359
1.013 0.577 2.912
0.938 0.559 2.865
0.810 0.324 2.400
0.468 0.369 2.218
0.403 0.238 2.496
0.233 0.009 2.109
1.703 2.614 5.737
1.839 2.215 5.158
1.633 2.326 5.003
1.567 1.962 5.220
1.503 1.707 4.770
1.388 1.946 4.779
1.257 1.684 4.535
1.278 1.739 4.057
1.361 1.575 4.024
1.534 1.675 4.117
0.963 0.854 2.982
0.871 0.495 2.699
0.674 0.523 2.365
0.802 0.474 2.516
0.492 0.515 2.112
0.589 0.004 1.870
0.659 -0.090 1.554
1.718 2.224 5.335
1.858 2.121 5.007
1.950 2.130 4.802
1.724 2.270 4.523
1.568 1.893 4.388
1.406 1.624 4.517
1.661 1.735 4.155
1.625 1.864 4.107
1.705 1.741 3.622
0.898 0.966 2.491
0.825 0.814 2.163
0.719 0.459 2.077
0.668 0.600 2.215
0.641 0.162 1.837
0.653 0.388 1.656
0.428 0.102 1.287
2.160 2.307 5.122
1.931 2.490 5.053
1.744 2.391 4.680
1.824 2.304 4.358
1.777 2.015 4.596
1.892 1.801 4.090
1.386 1.633 4.140
1.919 2.054 3.767
1.546 1.580 3.632
1.802 1.484 3.306
1.076 0.913 2.327
0.813 0.737 1.919
1.022 0.684 1.630
1.065 0.377 1.733
0.786 0.311 1.428
0.910 0.225 1.145
0.457 0.292 1.138
2.276 2.345 4.754
2.115 2.437 4.635
2.072 2.190 4.007
1.957 1.900 4.274
1.941 1.953 3.877
0.191 0.568 6.421
-0.023 0.839 5.915
-0.038 0.356 5.542
0.197 0.665 6.256
-0.008 0.276 6.056
-0.004 0.391 5.897
0.250 0.071 5.492
0.184 0.470 5.416
0.030 0.446 5.435
0.362 0.682 6.355
0.286 0.397 6.124
0.117 0.354 5.593
0.356 0.107 5.608
0.473 -0.064 3.730
1.310 1.433 6.219
0.389 0.283 3.867
0.446 0.281 3.945
0.612 0.158 3.567
1.603 1.888 6.345
1.234 1.675 6.167
1.454 1.311 5.806
1.212 1.355 5.577
1.283 1.443 5.280
0.871 0.463 3.770
0.427 0.336 3.434
0.296 0.004 3.463
0.266 0.019 3.310
1.686 1.982 5.875
1.599 1.777 5.717
1.196 1.626 5.719
1.473 1.563 5.514
1.345 1.215 5.076
0.987 1.368 5.072
0.706 0.526 3.474
0.685 0.260 3.086
0.484 0.083 3.252
0.710 -0.089 2.850
1.741 1.813 5.664
1.807 2.103 5.673
1.686 1.797 5.381
1.632 1.570 5.105
1.644 1.403 5.306
1.411 1.641 4.802
1.301 1.054 4.673
1.545 1.049 4.290
0.915 0.606 3.342
0.732 0.518 3.126
0.839 0.499 2.926
0.688 0.431 2.610
0.714 -0.110 2.417
1.839 1.948 5.771
2.002 1.948 5.538
1.696 2.028 5.520
1.781 1.961 5.011
1.480 1.501 4.936
1.545 1.423 4.754
1.193 1.270 4.883
1.411 1.187 4.679
1.352 1.597 4.098
1.195 1.156 4.032
1.075 0.566 3.056
1.086 0.704 2.955
0.872 0.453 2.950
0.838 0.498 2.437
0.628 0.264 2.717
0.453 0.264 2.087
2.228 2.283 5.723
1.942 2.059 5.304
1.678 2.211 5.269
1.856 1.742 5.165
1.833 1.777 4.871
1.542 1.451 4.880
1.506 1.747 4.408
1.498 1.374 4.381
1.517 1.612 4.334
1.523 1.419 4.211
0.970 0.748 2.788
0.905 0.790 2.748
0.883 0.410 2.428
0.992 0.130 2.323
0.932 0.030 2.172
0.693 0.250 1.863
2.395 2.233 5.554
2.190 2.151 5.413
1.785 2.223 5.108
1.835 2.179 4.957
1.685 2.076 4.719
1.792 1.923 4.761
1.625 1.796 4.384
1.745 1.346 4.155
1.911 1.535 3.859
1.880 1.317 4.060
1.013 0.927 2.887
1.318 0.598 2.401
1.145 0.486 2.413
1.067 0.677 1.997
0.916 0.414 2.193
0.920 0.333 1.983
0.727 0.217 1.736
2.301 2.415 5.030
2.047 2.077 5.132
1.935 2.097 4.612
2.176 1.937 4.525
2.020 1.689 4.553
1.809 2.005 4.369
1.622 1.556 3.945
1.935 1.763 3.864
1.625 1.699 3.862
1.115 0.881 2.344
1.001 0.558 2.390
1.168 0.430 2.123
1.152 0.339 2.115
1.170 0.220 1.785
0.801 0.013 1.431
0.853 0.090 1.184
2.374 2.426 5.061
2.209 2.103 4.597
2.272 1.929 4.477
1.840 1.913 4.467
1.757 1.706 3.950
1.696 1.879 4.045
0.024 0.429 6.210
0.005 0.074 5.598
0.113 0.720 6.371
0.137 0.615 6.186
-0.079 0.389 6.023
0.173 -0.016 5.863
0.177 0.258 5.591
0.383 0.363 6.294
0.505 0.284 5.742
0.020 -0.109 5.897
0.710 0.712 6.059
0.342 0.513 5.954
0.282 0.425 5.726
1.728 1.583 5.996
1.512 1.145 6.052
1.496 1.355 5.574
1.294 1.262 5.309
1.115 1.177 5.080
0.897 0.332 3.568
0.700 0.276 3.516
1.766 1.528 5.993
1.783 1.485 5.744
1.496 1.266 5.824
1.526 1.146 5.696
1.252 1.327 5.420
1.138 1.359 5.236
1.145 0.823 4.912
1.379 0.823 4.755
0.725 0.222 3.423
0.930 0.339 3.133
0.864 0.000 2.933
1.713 1.967 6.015
1.856 1.881 5.715
1.567 1.774 5.674
1.874 1.614 5.351
1.514 1.444 5.408
1.319 1.060 4.977
1.634 1.259 4.884
1.491 1.066 4.531
1.487 1.109 4.474
1.286 1.005 4.331
0.835 0.446 3.203
0.859 0.471 3.053
1.078 -0.024 3.017
1.013 0.256 2.788
1.885 1.763 5.619
1.824 1.616 5.689
2.038 1.918 5.394
1.625 1.634 5.191
1.575 1.353 4.826
1.437 1.334 4.626
1.519 1.292 4.844
1.412 1.019 4.497
1.510 1.258 4.430
1.672 1.110 4.353
1.354 0.531 3.112
1.138 0.472 2.956
0.950 0.502 2.940
1.014 0.023 2.553
0.657 -0.077 2.487
2.359 2.022 5.623
2.080 1.845 5.433
2.226 1.662 5.483
2.131 1.966 4.876
1.938 1.464 5.011
1.686 1.713 4.496
1.748 1.257 4.486
1.830 1.324 4.134
1.593 1.239 4.123
1.501 1.073 4.149
1.115 0.618 3.205
1.137 0.361 3.158
1.365 0.623 2.728
1.214 0.320 2.687
1.215 0.306 2.164
0.904 0.051 2.002
2.507 2.236 5.400
2.455 2.131 5.317
1.975 2.028 5.361
2.215 1.962 4.945
1.883 1.694 4.616
1.996 1.416 4.746
1.803 1.527 4.572
1.729 1.568 4.146
1.748 1.653 4.021
1.899 1.384 4.117
1.526 0.790 2.604
1.401 0.299 2.586
1.280 0.422 2.414
1.387 0.120 2.033
0.940 0.032 2.041
1.097 -0.016 1.824
2.372 2.558 5.439
2.477 2.094 5.189
2.218 2.168 5.154
2.284 2.021 4.795
2.349 1.942 4.782
2.200 1.954 4.240
2.070 1.810 4.414
1.876 1.665 3.951
2.292 1.693 3.918
2.000 1.334 3.874
1.700 0.689 2.815
1.582 0.523 2.438
1.479 0.588 2.342
1.149 0.435 1.988
1.395 0.442 1.849
1.102 0.095 1.719
1.200 0.034 1.322
2.757 2.474 4.979
2.548 2.276 4.774
2.298 1.949 4.698
2.548 2.148 4.476
2.420 1.906 4.089
2.307 1.881 3.969
2.186 1.845 3.777
0.174 0.356 6.116
0.154 -0.122 5.851
0.219 0.252 5.756
0.301 0.329 6.106
0.215 0.010 5.893
0.289 0.042 5.732
0.301 0.130 6.320
0.238 0.018 5.988
0.821 0.321 6.027
0.765 0.130 5.995
1.571 1.213 5.910
1.488 0.976 5.866
1.399 0.889 5.618
1.565 0.836 5.278
1.489 0.804 5.261
1.267 0.507 5.008
1.881 1.640 5.907
1.858 1.561 5.885
1.632 1.095 5.442
1.628 1.242 5.434
1.337 0.832 5.170
1.276 0.890 4.785
1.244 0.781 4.740
1.623 0.696 4.693
1.538 0.621 4.598
0.832 0.164 3.369
0.829 -0.127 3.522
2.119 1.882 5.953
2.030 1.742 5.894
1.899 1.614 5.754
1.602 1.230 5.169
1.540 1.218 5.039
1.811 1.108 5.244
1.444 0.982 4.801
1.560 0.668 4.616
1.531 0.938 4.692
1.597 0.624 4.467
1.066 0.419 3.584
1.198 0.237 3.116
1.183 -0.150 2.972
2.167 1.838 5.779
2.040 1.507 5.863
1.969 1.755 5.408
1.849 1.380 5.304
1.714 1.193 5.222
2.037 1.198 4.718
1.831 1.247 4.644
1.809 1.126 4.611
1.658 1.257 4.369
1.723 0.857 4.235
1.449 0.341 3.113
1.493 0.160 3.238
1.259 -0.107 2.928
1.182 0.007 2.640
2.447 1.876 5.699
2.397 2.047 5.264
2.297 1.849 5.206
2.189 1.504 5.352
2.051 1.216 5.006
1.919 1.119 4.530
1.902 1.229 4.800
1.720 0.934 4.560
2.087 1.325 4.484
1.807 1.282 4.137
1.400 0.397 3.306
1.291 0.435 3.054
1.230 0.235 2.786
1.416 -0.020 2.705
2.278 2.173 5.589
2.444 1.757 5.182
2.201 1.766 5.361
2.227 1.889 5.047
2.397 1.338 5.000
2.192 1.532 4.566
1.875 1.281 4.602
2.063 1.431 4.091
2.198 1.562 4.055
1.697 0.424 3.242
1.405 0.262 2.875
1.259 0.282 2.842
1.238 0.144 2.579
1.185 0.145 2.145
2.448 1.965 5.267
2.755 1.956 5.000
2.325 2.005 5.204
2.267 1.741 5.086
2.220 1.906 4.756
2.405 1.598 4.572
2.144 1.589 4.155
2.323 1.535 4.337
2.101 1.681 3.982
1.936 0.671 2.665
1.945 0.833 2.538
1.475 0.507 2.387
1.700 0.235 2.177
1.535 0.270 1.980
1.430 -0.014 1.813
2.621 2.385 5.475
2.713 2.357 5.102
2.497 1.944 5.131
2.540 1.967 4.830
2.378 2.010 4.663
2.347 1.628 4.262
2.205 1.388 4.334
2.162 1.596 4.137
0.252 0.100 6.471
0.344 -0.051 6.355
0.391 0.185 5.739
0.683 0.084 6.414
1.594 0.239 5.069
1.109 0.497 4.905
1.756 0.997 5.509
1.732 0.691 5.452
1.443 0.658 5.578
1.411 0.529 5.180
1.591 0.222 4.994
1.562 0.374 4.724
1.631 0.303 4.785
1.857 1.165 5.982
1.814 1.219 5.757
1.835 1.114 5.486
1.542 0.759 5.336
1.648 0.681 5.219
1.629 0.732 4.648
1.582 0.881 4.799
1.450 0.713 4.490
2.214 1.196 5.820
1.863 1.437 5.460
2.221 1.252 5.500
2.103 0.869 5.449
1.755 0.798 5.196
1.662 1.035 4.945
1.589 0.761 4.663
1.937 0.690 4.392
1.789 0.854 4.592
2.361 1.616 6.057
2.085 1.466 5.863
1.999 1.427 5.541
1.988 1.351 5.077
2.061 1.135 4.961
1.792 1.148 5.125
2.043 0.726 4.847
1.701 1.023 4.628
2.041 1.147 4.380
1.928 0.969 4.461
1.303 0.063 3.304
1.643 -0.083 3.060
2.332 2.004 5.811
2.648 1.891 5.348
2.178 1.691 5.203
2.407 1.346 5.399
2.391 1.406 4.773
2.189 1.143 4.765
1.858 1.220 4.384
1.770 0.999 4.363
2.015 1.277 4.480
1.557 0.496 3.297
1.773 0.185 2.948
1.350 0.120 2.725
2.781 2.021 5.703
2.644 1.885 5.280
2.467 1.527 5.192
2.225 1.498 4.912
2.122 1.205 4.946
2.064 1.397 4.673
2.078 1.305 4.646
2.255 1.288 4.318
2.429 1.131 4.102
1.704 0.617 2.976
1.625 0.406 2.935
1.710 0.088 2.801
1.366 0.299 2.720
2.989 1.952 5.331
2.745 1.814 5.281
2.627 1.669 4.977
2.567 1.703 5.016
2.505 1.508 4.720
2.334 1.346 4.282
2.568 1.124 4.408
2.378 1.182 4.127
1.845 0.656 3.135
1.653 0.247 2.835
1.686 0.194 2.776
1.656 -0.013 2.219
1.538 0.117 2.168
2.766 2.058 5.535
2.894 2.120 5.059
2.655 1.878 5.056
2.619 1.898 4.620
2.800 1.424 4.616
2.577 1.678 4.391
2.321 1.621 4.285
1.357 0.282 5.008
1.546 0.109 4.966
1.550 0.471 5.506
1.376 0.063 5.083
1.385 0.379 4.873
1.467 0.338 4.739
1.457 -0.024 4.833
1.988 0.706 5.514
1.631 0.563 5.318
1.689 0.613 4.977
1.426 0.258 5.127
1.818 0.181 5.017
1.697 0.161 4.689
1.511 0.049 4.715
1.830 0.754 5.797
1.755 0.555 5.518
2.032 0.891 5.020
1.963 0.331 4.889
1.563 0.515 5.067
1.688 0.481 4.713
1.733 0.208 4.731
1.935 0.366 4.358
2.099 1.120 5.997
2.134 0.906 5.659
2.203 0.927 5.244
1.987 0.884 5.309
1.996 0.623 5.238
1.905 0.447 5.149
1.993 0.466 4.883
1.847 0.776 4.689
1.819 0.662 4.623
2.613 1.355 5.894
2.282 1.233 5.745
2.244 1.184 5.337
2.242 0.855 4.960
2.243 0.886 5.026
2.214 0.751 4.583
2.233 0.509 4.821
2.186 0.792 4.299
1.606 0.150 3.367
2.920 1.792 5.620
2.804 1.359 5.799
2.729 1.176 5.475
2.385 1.408 5.359
2.341 1.308 4.934
2.506 1.235 4.900
2.050 1.109 4.538
2.347 0.633 4.477
2.324 0.762 4.446
1.613 0.281 3.009
1.653 0.006 2.868
2.823 1.921 5.571
2.866 1.699 5.444
2.447 1.402 5.344
2.838 1.607 5.074
2.579 1.245 4.822
2.584 1.287 4.713
2.369 0.911 4.304
2.132 0.753 4.254
1.881 0.593 3.227
2.206 0.200 2.862
2.062 0.100 2.674
1.656 0.098 2.479
2.849 2.038 5.664
3.127 1.704 5.356
2.788 1.443 5.082
2.931 1.289 4.998
2.544 1.183 4.686
2.380 1.380 4.442
2.535 1.220 4.446
2.229 0.321 3.242
2.213 0.583 3.076
2.166 0.295 2.887
1.799 0.236 2.629
2.013 0.019 2.237
3.120 2.184 5.104
2.923 1.684 5.109
2.842 1.705 5.063
2.891 1.420 4.910
2.633 1.321 4.597
2.684 1.186 4.416
1.825 0.197 5.419
1.504 0.295 5.553
1.385 0.199 5.117
1.924 0.116 4.837
1.425 0.054 4.938
1.909 0.539 5.325
1.812 0.026 5.366
1.647 0.230 5.110
1.904 0.361 4.766
1.595 0.285 4.759
1.621 0.088 4.448
2.093 0.465 5.569
2.095 0.729 5.247
1.738 0.161 4.907
2.010 0.469 5.054
1.828 0.499 4.760
2.047 0.345 4.512
1.876 0.221 4.337
2.427 0.957 5.508
2.076 0.610 5.256
2.414 0.532 4.940
2.182 0.572 5.041
2.174 0.181 4.991
2.155 0.727 4.603
1.925 0.456 4.465
2.522 1.110 5.780
2.628 1.103 5.405
2.404 0.742 5.101
2.316 0.883 5.158
2.426 0.435 4.816
2.360 0.318 4.797
2.535 0.485 4.438
3.007 1.490 5.682
2.775 1.106 5.368
2.631 1.058 5.058
2.548 0.809 4.937
2.287 0.947 4.896
2.526 0.612 4.786
2.467 0.649 4.424
1.932 -0.073 3.365
2.947 1.500 5.588
2.923 1.433 5.650
2.798 1.140 5.513
2.619 1.390 5.282
2.827 0.876 5.056
2.795 1.165 4.880
2.360 0.878 4.593
2.064 0.138 3.310
1.941 0.289 3.022
2.245 -0.170 2.950
2.943 1.885 5.325
3.299 1.774 5.228
3.160 1.521 5.295
2.855 1.352 4.860
2.999 1.119 4.917
2.893 1.193 4.797
2.440 0.548 3.445
2.462 0.247 3.052
2.353 0.429 2.971
2.198 0.342 2.763
2.369 0.193 2.566
3.359 1.782 5.523
3.070 1.626 5.076
3.233 1.355 4.891
2.938 1.425 5.019
3.174 1.129 4.524
-0.079 6.159 4.782
0.240 6.367 4.684
0.268 5.964 4.483
0.262 6.056 4.288
-0.113 6.206 4.318
0.399 6.292 4.101
0.344 6.401 5.639
0.303 6.226 5.606
-0.047 5.845 5.195
-0.108 5.836 5.060
0.589 6.496 5.241
0.447 6.167 5.291
0.313 5.922 5.143
0.218 5.868 5.007
0.133 5.584 4.588
0.350 6.333 5.208
0.518 6.059 4.783
0.500 6.009 4.801
0.042 5.745 4.704
0.263 5.639 4.165
0.375 6.411 4.852
0.352 5.938 4.586
0.580 6.146 4.541
0.436 5.920 4.137
0.475 6.223 4.260
0.352 6.234 4.479
0.464 5.960 4.046
0.686 6.236 4.348
0.422 6.213 3.858
0.650 6.270 3.995
0.507 6.332 6.193
0.379 5.919 5.905
0.551 6.192 5.755
0.277 5.979 5.549
0.456 5.971 5.434
0.203 5.566 5.099
0.294 5.734 4.650
0.707 6.087 5.413
0.444 6.054 5.583
0.314 6.173 5.383
0.346 5.679 4.972
0.190 5.707 4.773
0.014 5.400 4.835
-0.039 5.372 4.407
0.640 6.384 5.531
0.693 6.332 5.182
0.366 6.103 4.980
0.429 6.083 4.832
0.274 5.605 4.625
0.439 5.740 4.292
0.593 6.194 5.069
0.829 6.198 4.731
0.808 5.950 4.656
0.340 5.764 4.307
0.208 5.686 4.441
0.738 6.384 4.506
0.739 6.260 4.714
0.624 5.988 4.438
0.739 5.740 4.140
0.645 6.244 4.442
0.634 6.295 4.155
0.662 6.142 4.021
1.000 6.234 3.986
0.810 6.150 3.788
1.109 6.019 3.677
0.796 6.369 6.076
0.870 6.036 5.784
0.677 5.723 5.663
0.578 5.631 5.694
0.399 5.584 5.499
0.230 5.466 5.183
0.337 5.344 4.970
1.020 6.185 5.694
0.969 5.901 5.558
0.604 5.939 5.351
0.652 6.041 5.303
0.688 5.780 5.071
0.619 5.646 4.822
0.439 5.472 4.696
1.009 6.303 5.696
1.053 6.282 5.567
0.945 5.985 5.298
0.708 5.958 4.918
0.525 5.773 5.019
0.662 5.592 4.746
0.680 5.587 4.504
1.189 6.279 5.011
1.123 6.252 4.912
0.958 5.797 4.997
0.963 5.652 4.841
0.532 5.672 4.327
0.824 5.649 4.183
1.138 6.428 5.018
0.810 6.051 4.559
0.975 5.935 4.451
0.971 5.775 4.160
0.669 5.865 4.039
1.261 6.015 4.617
1.092 5.991 4.349
0.799 5.832 4.034
1.056 5.800 4.149
0.972 6.084 4.087
1.266 6.237 4.277
1.187 5.756 3.849
1.465 6.022 3.937
1.389 5.991 3.591
1.433 6.022 3.639
1.036 6.180 6.076
1.091 5.917 6.095
0.809 5.837 5.765
0.567 5.563 5.850
0.605 5.589 5.511
0.551 5.198 5.170
0.991 5.826 5.810
1.055 6.047 5.684
0.663 5.644 5.441
0.837 5.515 5.441
0.836 5.635 5.071
1.145 5.911 5.264
0.752 5.733 5.274
0.689 5.458 4.991
0.706 5.826 4.873
0.778 5.699 4.132
0.778 5.719 4.234
1.338 5.852 4.285
1.059 5.705 3.962
1.106 6.042 4.012
1.151 5.735 3.791
1.284 6.093 3.650
1.725 6.213 3.402
1.782 6.319 3.374
1.275 6.111 6.245
0.886 5.741 6.249
0.841 5.427 5.958
0.967 5.316 5.637
1.053 5.949 5.942
1.154 5.527 4.054
1.309 5.827 3.767
1.685 6.080 3.611
1.775 6.105 3.363
1.507 5.562 6.243
1.377 5.453 6.216
1.076 5.306 5.896
2.222 6.293 5.211
1.952 6.291 4.798
1.934 5.760 3.404
1.940 6.013 3.584
1.567 5.277 5.925
2.356 6.218 5.762
2.137 5.993 5.204
2.177 5.887 5.375
2.328 6.373 5.693
2.418 6.398 5.307
2.086 6.013 5.223
1.998 5.873 5.035
2.500 6.512 5.201
2.300 5.937 5.111
2.318 6.203 4.693
2.436 6.327 4.795
2.441 6.074 4.430
2.350 6.494 4.380
2.398 5.578 3.243
2.317 5.700 3.203
2.642 6.260 3.270
2.698 5.991 3.231
2.983 6.406 3.172
2.986 6.231 2.951
3.389 6.335 3.015
1.202 4.228 4.788
1.296 4.765 4.860
1.384 4.712 4.849
2.044 5.580 5.166
2.554 6.208 5.587
2.429 5.769 5.634
2.078 5.958 5.174
2.275 5.467 5.268
2.138 5.515 5.028
2.452 6.479 5.703
2.493 6.245 5.403
2.581 6.028 5.139
2.197 5.901 5.078
2.254 5.947 4.990
2.244 5.827 4.995
2.532 6.314 5.416
2.550 6.134 5.085
2.278 5.955 5.055
2.375 5.964 4.751
2.134 5.720 4.883
2.864 6.318 5.234
2.406 6.317 4.644
2.535 6.108 4.852
2.685 6.111 4.459
2.934 6.325 4.918
2.465 6.142 4.667
3.018 6.195 4.211
2.447 5.808 3.160
2.887 5.664 3.202
2.957 5.905 3.133
3.163 6.050 3.306
3.281 5.985 2.926
3.335 6.052 3.430
3.141 6.061 3.240
3.013 5.739 2.792
3.433 6.335 3.030
3.484 6.035 3.053
3.557 6.228 2.652
1.184 4.682 5.265
1.092 4.504 5.140
1.298 4.090 4.755
1.505 4.834 5.262
1.595 4.704 5.271
1.411 4.738 4.917
1.381 4.339 4.956
1.985 5.049 5.484
1.550 4.695 5.032
1.596 4.887 5.233
1.761 4.673 4.678
1.583 4.748 4.450
2.211 5.429 5.359
2.108 5.159 5.162
2.008 4.779 4.871
1.606 4.980 4.632
1.649 4.739 4.857
1.747 4.404 4.743
2.445 5.516 5.302
1.940 5.505 5.118
2.267 5.064 5.238
1.832 5.272 4.938
1.725 4.894 4.660
2.044 4.660 4.465
2.477 5.864 5.491
2.369 5.760 5.594
2.442 5.718 5.561
2.377 5.504 5.313
2.128 5.578 5.070
2.161 5.326 4.788
2.104 5.237 4.710
2.623 6.290 5.713
2.668 5.798 5.757
2.550 5.763 5.564
2.608 5.782 5.394
2.289 5.477 5.031
2.339 5.516 4.917
2.057 5.470 4.679
2.995 6.239 5.648
2.891 6.215 5.606
2.561 5.874 5.189
2.468 5.985 5.280
2.535 5.943 5.065
2.528 5.628 4.752
2.537 5.647 4.278
3.011 6.190 5.070
2.775 6.318 5.104
2.685 6.162 5.078
2.708 5.672 4.961
2.535 5.637 4.543
3.006 6.372 4.970
2.920 6.228 4.816
3.042 6.143 4.487
3.199 6.388 4.581
2.534 5.776 3.163
2.836 5.673 3.392
2.955 5.632 3.396
2.991 5.762 3.069
3.227 5.788 3.032
3.500 5.739 3.379
3.110 5.930 3.301
3.228 5.706 3.101
3.597 6.421 3.793
3.740 6.352 3.554
3.676 5.907 3.355
3.207 5.823 3.299
3.372 6.014 3.248
3.608 6.070 3.338
3.557 6.021 3.287
3.693 5.837 2.891
3.368 5.878 2.953
3.558 6.499 3.059
3.864 6.052 2.706
3.696 6.236 2.728
3.692 6.232 2.894
3.653 6.138 2.374
4.084 6.484 2.277
1.799 4.468 5.613
1.675 4.125 5.365
1.341 4.462 5.079
1.334 4.147 5.172
1.782 4.961 5.443
1.743 4.749 5.375
1.556 4.537 5.255
1.402 4.425 5.171
1.415 4.408 4.701
1.840 4.867 5.769
1.784 4.706 5.528
1.919 4.561 5.045
1.909 4.727 4.996
1.546 4.268 4.944
1.825 4.223 4.649
2.453 4.968 5.503
2.338 5.018 5.426
2.210 5.191 5.511
2.067 4.862 5.118
1.779 4.706 4.691
1.633 4.636 4.887
1.651 4.441 4.406
2.216 5.256 5.425
2.205 5.053 5.273
2.104 5.128 5.213
2.141 4.943 5.022
2.096 4.753 4.757
1.947 4.801 4.491
1.956 4.671 4.482
2.637 5.790 5.617
2.684 5.396 5.451
2.428 5.120 5.145
2.551 5.018 4.915
2.176 5.314 4.631
2.410 5.099 4.780
2.010 4.727 4.533
1.915 4.872 4.377
2.808 5.790 5.715
2.586 5.461 5.297
2.484 5.598 5.391
2.564 5.616 5.229
2.371 5.162 4.746
2.212 5.362 4.641
2.508 5.027 4.578
3.218 6.067 5.771
3.156 6.008 5.633
2.887 6.018 5.298
3.028 5.806 5.038
2.784 5.745 5.003
2.880 5.401 4.689
2.395 5.350 4.720
3.118 6.097 5.711
3.138 6.109 5.160
2.962 5.788 5.254
2.994 5.997 5.119
2.754 5.465 4.932
3.021 5.484 4.755
3.003 6.285 5.139
2.927 6.009 5.107
2.934 5.761 4.847
2.961 5.629 4.484
3.320 6.399 4.966
2.692 5.431 3.277
2.969 5.800 3.384
3.105 5.712 3.116
3.476 5.789 3.725
3.420 5.632 3.357
3.079 5.476 2.940
3.413 6.047 3.595
3.425 5.758 3.579
3.682 5.461 3.168
3.279 5.636 3.100
3.929 6.232 4.018
3.893 6.109 3.860
3.682 5.997 3.428
3.553 5.690 3.307
3.424 5.969 3.109
3.424 5.493 3.138
3.753 6.060 3.467
3.675 6.356 3.692
3.895 6.170 3.159
3.856 5.937 3.151
3.476 5.713 2.690
3.971 6.408 3.390
4.025 6.226 2.981
4.062 5.810 3.058
4.008 6.064 2.867
4.236 6.225 2.818
4.024 6.037 2.801
3.920 5.901 2.770
4.035 6.126 2.692
3.953 6.277 2.301
4.037 6.189 2.536
1.852 4.530 5.688
1.670 4.241 5.609
1.616 4.400 5.519
1.559 4.207 5.244
1.694 3.927 4.869
2.197 4.526 5.929
1.722 4.504 5.656
1.806 4.557 5.567
1.582 4.404 5.263
1.782 4.367 5.144
1.446 4.097 4.981
2.302 4.907 5.642
2.320 4.878 5.692
2.223 4.766 5.297
2.051 4.706 5.057
2.110 4.321 5.101
1.782 4.256 5.067
1.610 4.023 4.933
2.384 4.904 5.868
2.363 4.747 5.488
2.107 4.925 5.533
2.013 4.883 5.173
2.211 4.607 4.705
1.825 4.612 4.899
2.163 4.535 4.339
2.817 5.164 5.698
2.487 5.166 5.358
2.374 4.991 5.176
2.270 4.693 5.170
2.072 4.567 4.844
2.000 4.895 4.862
2.241 4.703 4.811
2.164 4.560 4.508
2.529 5.499 5.471
2.455 5.305 5.311
2.750 5.223 5.003
2.573 5.040 4.844
2.350 4.851 5.085
2.483 4.626 4.426
2.190 4.582 4.431
2.434 4.450 4.430
2.940 5.543 5.626
3.026 5.491 5.496
2.780 5.400 5.044
2.731 5.176 4.984
2.725 5.223 4.777
2.713 4.952 4.312
2.532 4.803 4.140
2.935 5.721 5.117
2.979 5.444 5.307
2.702 5.209 5.040
2.616 5.346 4.738
2.832 5.133 4.564
2.754 5.083 4.155
3.263 5.811 4.998
2.904 5.669 4.959
2.834 5.529 4.822
2.737 5.585 4.378
3.474 5.633 3.887
3.154 5.359 3.314
3.015 5.496 3.251
3.643 6.073 3.856
3.337 5.811 3.559
3.280 5.563 3.575
3.351 5.486 3.103
4.023 5.757 4.082
3.948 5.595 3.978
3.456 5.673 3.634
3.716 5.346 3.512
3.514 5.334 3.116
4.199 5.911 3.841
4.229 5.986 4.058
3.765 5.975 3.778
4.062 5.601 3.216
3.925 5.639 3.123
3.549 5.320 2.916
4.185 6.420 3.924
4.170 6.279 3.636
3.952 6.163 3.576
3.933 5.760 3.308
4.103 5.530 3.095
3.843 5.623 3.186
4.481 6.021 3.490
4.427 6.151 3.297
4.323 6.167 2.994
4.120 5.785 3.201
4.003 5.815 2.832
4.291 6.189 3.202
4.460 5.888 2.832
4.068 6.071 2.672
4.221 5.905 2.863
4.464 6.407 3.075
4.144 6.029 2.823
4.125 5.738 2.362
4.528 5.978 2.773
4.406 6.131 2.301
4.586 6.179 2.262
2.274 4.610 5.843
1.845 4.485 5.583
1.921 4.379 5.357
1.620 4.004 5.294
1.660 4.156 5.037
1.440 3.861 5.133
2.444 4.813 6.050
2.411 4.422 5.692
2.294 4.325 5.494
2.230 4.437 5.214
1.836 4.200 5.389
1.707 4.080 4.841
1.618 3.954 5.107
2.486 4.779 5.906
2.301 4.819 5.695
2.247 4.614 5.627
2.120 4.520 5.332
1.952 4.398 5.278
1.845 4.246 5.120
1.824 3.821 4.973
2.733 4.827 5.921
2.623 4.765 5.641
2.560 4.444 5.141
2.201 4.625 5.056
2.320 4.598 4.869
2.305 4.333 4.942
1.976 3.957 4.684
2.510 5.124 5.401
2.688 4.976 5.166
2.696 4.822 4.971
2.325 4.820 5.245
2.332 4.534 4.829
2.173 4.373 4.773
2.159 4.269 4.638
2.747 5.260 5.479
2.713 4.771 5.468
2.905 5.071 5.149
2.846 4.877 4.935
2.731 4.725 4.812
2.283 4.741 4.533
2.331 4.207 4.293
2.822 5.096 5.370
2.859 4.920 5.199
2.655 5.013 4.832
2.569 5.097 4.929
2.835 4.674 4.441
2.535 4.464 4.465
2.584 4.455 3.961
2.974 5.295 5.178
3.159 5.374 5.205
3.042 4.901 4.602
2.838 5.230 4.598
2.639 4.840 4.316
2.820 4.918 4.408
3.625 5.531 3.734
3.653 5.615 3.840
3.260 5.539 3.317
3.498 5.438 3.317
3.669 5.629 3.968
3.702 5.629 3.836
3.555 5.788 3.604
3.809 5.690 3.297
3.751 5.219 3.406
4.066 5.682 4.417
4.044 5.454 3.808
3.755 5.687 3.844
3.944 5.416 3.403
3.625 5.281 3.238
3.863 5.276 3.259
4.442 6.280 4.216
4.184 6.054 4.129
4.127 5.799 4.076
3.864 5.848 3.611
3.892 5.579 3.555
4.164 5.644 3.260
4.049 5.319 3.214
4.596 5.967 4.195
4.386 5.949 3.679
4.527 5.873 3.784
4.376 5.868 3.694
4.251 5.642 3.170
4.097 5.579 3.218
4.215 5.433 2.947
4.742 6.398 3.880
4.422 6.282 3.442
4.510 5.928 3.588
4.385 5.966 3.034
4.348 5.645 2.934
4.065 5.660 2.687
4.728 6.067 3.524
4.550 6.280 3.055
4.413 5.684 3.123
4.218 6.028 2.665
4.483 5.545 2.617
4.675 6.516 3.400
4.422 6.072 3.190
4.412 5.801 2.710
4.591 6.121 2.951
4.233 5.656 2.355
4.631 6.510 3.219
4.658 6.076 2.639
4.516 6.085 2.584
4.800 5.716 2.394
5.054 6.078 2.603
4.725 6.164 2.326
4.629 6.226 2.518
2.237 4.310 6.162
1.985 4.408 5.838
2.346 4.252 5.755
2.119 3.835 5.469
2.116 3.917 5.473
1.862 3.553 5.091
1.711 3.454 5.002
2.545 4.428 5.928
2.311 4.473 5.840
2.175 4.473 5.693
2.332 3.983 5.295
2.356 4.178 5.505
2.236 4.045 4.925
1.750 3.754 5.073
2.628 4.535 5.873
2.420 4.681 5.906
2.328 4.240 5.601
2.160 4.333 5.246
2.427 3.899 5.258
2.303 3.888 4.909
2.037 3.830 5.022
2.725 4.677 5.969
2.699 4.458 5.550
2.664 4.588 5.428
2.520 4.318 4.974
2.385 4.202 5.153
2.225 4.336 4.633
2.475 3.832 4.841
2.715 4.657 5.402
2.850 4.696 5.294
2.556 4.637 5.172
2.814 4.672 5.034
2.715 4.417 4.863
2.557 4.478 4.580
2.416 4.150 4.706
2.877 5.126 5.476
2.898 4.767 5.432
2.992 4.807 4.980
3.016 4.842 4.796
2.482 4.325 4.841
2.434 4.221 4.381
2.657 4.201 4.509
3.222 5.125 4.989
2.805 4.728 5.137
2.962 4.764 4.558
3.008 4.669 4.483
2.790 4.573 4.479
2.760 4.369 4.023
3.236 5.114 4.647
3.168 4.849 4.838
3.146 4.519 4.608
3.011 4.404 4.189
2.688 4.520 4.110
3.769 5.401 4.297
3.913 5.654 3.732
3.561 5.447 3.757
3.519 5.116 3.595
4.108 5.826 4.177
4.159 5.915 3.931
3.970 5.552 3.977
3.919 5.605 3.754
3.559 5.410 3.219
3.780 5.219 3.286
4.158 5.797 4.314
4.194 5.813 4.252
4.149 5.477 3.865
4.060 5.201 4.063
4.207 5.250 3.527
4.109 5.358 3.701
3.651 5.033 3.306
4.491 5.927 4.291
4.698 5.806 4.036
4.168 5.671 4.038
4.131 5.549 3.916
4.471 5.412 3.884
3.931 5.241 3.352
4.223 5.189 3.456
3.993 5.212 3.340
4.697 5.818 4.341
4.632 5.837 4.147
4.517 5.836 3.698
4.296 5.490 3.448
4.107 5.360 3.499
4.388 5.539 3.193
4.023 5.196 3.216
4.996 6.339 3.956
4.517 5.820 3.848
4.421 5.836 3.733
4.682 5.904 3.478
4.390 5.790 3.393
4.144 5.442 3.231
4.502 5.352 2.875
4.748 6.052 3.867
5.064 6.200 3.450
4.978 5.867 3.523
4.608 5.771 3.350
4.818 5.801 3.343
4.690 5.679 3.092
4.326 5.738 2.525
4.963 6.220 3.408
5.034 5.962 3.159
4.856 5.978 2.981
4.711 5.714 3.181
4.775 5.789 2.864
4.691 5.682 2.835
4.946 6.131 2.998
4.839 5.992 3.025
4.686 6.070 3.031
4.898 5.828 2.686
4.527 5.836 2.475
5.333 6.338 2.669
5.014 6.330 2.589
4.788 5.985 2.309
4.743 6.050 2.232
5.236 6.325 2.256
4.809 6.133 2.132
2.362 4.239 6.331
2.417 4.079 6.084
2.386 3.900 5.719
2.410 3.911 5.573
2.141 3.498 5.389
2.045 3.474 5.168
1.976 3.627 5.219
2.799 4.634 6.224
2.466 4.242 6.180
2.603 4.047 5.932
2.402 4.091 5.500
2.163 3.786 5.560
2.069 4.071 5.129
2.101 3.704 5.368
2.304 3.618 5.155
2.731 4.442 6.036
2.786 4.520 5.571
2.580 4.096 5.415
2.628 4.203 5.599
2.450 3.995 5.107
2.465 3.993 5.159
2.132 3.745 5.049
3.033 4.424 5.781
2.630 4.650 5.635
2.512 4.423 5.248
2.752 4.069 5.430
2.641 4.157 4.820
2.541 4.028 4.806
2.659 3.959 4.752
3.254 4.499 5.460
2.844 4.657 5.303
3.103 4.578 5.454
2.854 4.371 5.202
2.565 4.253 5.038
2.456 4.034 4.944
2.728 4.140 4.402
3.061 4.776 5.299
3.182 4.582 4.944
3.188 4.615 5.078
2.878 4.184 4.533
2.989 4.026 4.600
2.790 4.260 4.178
3.375 4.826 5.041
3.248 4.637 4.875
2.818 4.327 4.485
3.105 4.440 4.453
2.837 4.006 4.323
3.180 4.734 4.574
3.308 4.438 4.327
3.284 4.669 4.429
3.200 4.438 4.036
4.399 5.449 4.650
4.204 5.562 4.413
4.112 5.611 4.222
4.087 5.403 4.137
4.102 5.008 3.928
4.150 5.958 4.260
4.259 5.420 4.454
4.198 5.488 4.263
4.220 5.361 4.056
3.853 5.085 3.793
3.804 5.074 3.284
3.798 5.241 3.295
-0.095 6.351 0.100
-0.046 6.077 0.081
0.239 6.080 0.860
0.305 6.329 0.368
0.348 6.147 0.540
0.056 5.758 0.040
0.559 6.171 0.222
0.301 5.893 0.137
0.413 6.207 0.184
0.401 6.055 0.009
0.249 6.174 1.062
0.027 6.218 0.747
-0.013 5.978 0.275
0.198 5.964 0.061
0.574 6.353 0.645
0.467 6.147 0.307
0.386 5.971 0.404
0.141 5.875 0.210
0.835 6.181 0.891
0.549 5.997 0.637
0.377 5.748 0.615
0.566 5.993 0.599
0.343 5.737 0.008
0.391 5.802 0.029
0.449 6.437 0.792
0.537 5.961 0.422
0.389 5.888 0.013
0.232 5.709 0.063
0.942 6.160 0.199
0.668 6.117 0.221
-0.077 6.015 4.008
-0.143 6.213 3.456
0.253 6.239 0.954
0.174 6.015 0.801
0.322 5.638 0.600
0.211 5.724 0.429
0.286 5.795 0.101
0.716 6.217 0.914
0.475 6.273 0.770
0.376 5.893 0.559
0.414 5.623 0.456
0.145 5.879 0.397
-0.001 5.452 0.073
0.757 5.989 1.018
0.682 6.267 1.129
0.633 6.121 0.569
0.695 5.888 0.393
0.339 5.755 0.213
0.526 5.810 0.446
1.058 6.154 1.052
0.805 5.939 0.490
0.686 6.083 0.569
0.510 6.034 0.210
0.428 5.862 0.015
0.982 5.947 0.275
1.000 5.844 0.155
0.883 5.799 -0.001
0.976 6.188 0.217
0.118 5.884 4.208
0.387 6.120 3.891
0.320 6.152 3.497
0.119 6.136 3.851
0.243 6.167 3.307
0.597 6.134 3.246
0.571 5.898 1.212
0.579 5.935 0.998
0.422 5.970 1.012
0.255 5.648 0.739
0.775 6.267 1.162
0.716 5.845 1.128
0.858 6.004 1.003
0.598 5.808 0.595
0.429 5.858 0.416
0.412 5.556 0.252
1.141 6.033 1.236
0.791 5.786 1.072
0.973 5.770 1.075
0.656 5.856 0.956
0.688 5.823 0.405
0.683 5.380 0.227
1.001 6.096 1.516
1.161 6.314 1.351
1.312 6.026 1.290
1.369 6.064 1.185
0.952 6.246 0.749
1.061 6.125 0.736
1.180 5.645 0.471
0.680 5.762 0.075
0.654 5.311 0.136
1.022 6.227 1.090
1.391 6.374 0.753
1.385 6.220 0.517
0.934 6.247 0.571
0.897 6.072 0.244
1.151 5.799 0.052
1.527 6.174 0.665
1.387 6.173 0.519
1.305 6.160 -0.020
0.975 6.044 0.226
1.578 6.059 0.185
1.149 6.101 0.252
0.174 5.501 4.216
0.130 5.832 3.846
0.237 5.763 3.878
0.317 5.872 3.921
0.175 5.993 3.544
0.300 5.844 3.910
0.605 5.857 3.801
0.501 6.001 3.698
0.763 5.803 3.373
0.630 5.841 3.323
0.197 4.896 1.591
0.953 6.074 3.471
0.674 6.231 3.278
0.494 6.073 2.997
1.044 6.180 3.027
0.950 6.002 1.691
0.901 5.667 1.414
0.959 5.602 1.324
0.602 5.741 0.852
0.863 5.918 1.538
1.009 5.880 1.482
0.910 6.120 1.205
1.218 5.990 1.132
1.101 5.956 0.949
0.756 5.808 1.038
0.849 5.656 0.772
0.926 5.747 0.546
1.019 6.039 1.727
1.118 6.027 1.291
1.383 6.217 1.493
1.397 5.682 1.370
1.271 5.935 1.233
1.222 5.546 0.937
1.196 5.340 0.755
1.342 6.027 1.803
1.315 5.864 1.430
1.434 5.926 1.248
1.570 6.319 1.235
1.466 5.887 0.847
1.121 5.941 0.860
1.191 5.875 0.601
0.952 5.577 0.673
0.987 5.542 0.389
1.601 6.104 1.333
1.340 5.950 1.201
1.792 6.156 1.271
1.370 6.334 1.173
1.301 6.196 0.796
1.497 5.682 0.337
1.352 5.684 0.530
1.197 5.546 0.016
1.262 5.447 -0.142
1.775 6.053 1.058
1.539 6.303 0.891
1.652 6.004 0.822
1.411 6.084 0.468
1.434 5.689 0.371
1.532 5.970 0.193
1.633 6.316 0.701
1.425 6.184 0.231
1.584 5.754 0.017
1.544 6.404 -0.044
0.341 5.480 4.258
0.132 5.657 3.883
0.119 5.647 4.018
0.575 5.720 3.908
0.272 5.512 3.643
0.164 4.723 2.397
0.565 6.071 3.824
0.785 5.765 3.771
0.359 5.805 3.661
0.254 4.845 1.871
0.852 6.115 3.474
0.899 5.746 3.285
0.869 5.632 3.524
0.028 4.570 1.568
0.264 4.538 1.135
1.056 6.198 3.331
0.786 5.897 3.241
0.973 5.881 3.251
0.577 5.893 2.937
0.397 4.586 1.192
0.072 4.837 1.081
-0.006 4.629 1.015
0.880 6.359 3.256
1.097 6.263 3.410
0.837 6.068 3.218
0.908 6.046 3.019
0.736 5.607 2.415
0.269 4.602 0.825
-0.014 4.742 0.689
-0.185 4.439 0.367
0.947 6.281 3.140
1.060 6.196 2.773
0.982 5.847 2.603
0.945 5.639 2.649
0.913 5.671 2.478
0.190 4.488 0.192
0.340 4.610 0.160
1.312 6.296 2.762
1.134 6.237 2.493
0.843 6.216 2.134
0.846 5.870 2.144
0.983 5.516 1.827
0.834 5.835 1.507
0.770 5.806 1.499
1.475 6.445 2.202
1.193 5.978 2.191
1.034 5.908 2.005
1.204 5.830 1.844
1.138 5.949 1.873
1.057 5.855 1.438
1.107 5.833 1.143
0.768 5.564 0.981
1.078 5.330 1.128
1.336 6.230 2.079
1.191 5.966 1.717
0.981 5.921 1.633
1.344 5.762 1.440
1.302 5.980 1.272
1.407 5.920 1.319
1.302 5.950 0.914
1.054 5.547 1.057
0.865 5.387 0.477
1.245 6.375 1.977
1.457 6.049 1.401
1.066 5.968 1.489
1.621 5.972 1.440
1.541 5.694 1.092
1.194 5.751 0.931
1.319 5.640 0.651
1.876 6.211 2.228
1.674 6.151 2.004
1.558 5.933 1.497
1.513 5.940 1.478
1.524 6.116 1.443
1.350 5.763 0.885
1.573 5.762 1.070
1.424 5.764 0.931
1.349 5.348 0.678
1.763 6.148 1.668
1.730 6.232 1.384
1.630 5.712 1.074
1.694 5.883 1.233
1.883 5.764 0.771
1.535 6.002 0.745
1.470 5.830 0.584
1.292 5.360 0.654
1.210 5.544 0.268
1.628 6.224 1.380
1.531 5.957 1.099
2.094 6.050 0.909
1.923 6.273 0.724
1.634 5.772 0.858
1.506 5.655 0.351
1.590 5.664 0.511
1.691 5.638 0.141
1.888 6.231 0.888
2.129 6.096 0.575
2.069 6.212 0.343
1.874 5.701 0.496
1.716 5.837 0.356
1.998 5.983 0.497
2.139 6.208 -0.014
1.911 5.887 -0.140
2.082 6.264 0.240
0.617 5.284 4.196
0.718 5.742 4.184
0.700 5.281 3.804
-0.184 4.500 1.971
0.881 5.485 3.611
0.913 5.740 3.544
0.519 5.607 3.296
0.032 4.421 1.501
0.276 4.301 1.565
0.891 5.954 3.528
0.901 5.752 3.403
0.972 5.677 3.442
0.926 5.614 3.220
0.105 4.469 1.415
0.138 4.204 1.335
0.244 4.211 0.880
1.106 5.854 3.697
0.854 5.822 3.606
0.958 5.577 3.278
1.036 5.672 2.875
0.603 5.655 2.593
0.391 4.441 1.156
0.025 4.570 0.982
0.096 4.510 0.715
-0.084 4.403 0.841
0.005 4.097 0.587
1.391 6.263 3.184
1.266 5.736 3.446
0.985 5.698 3.217
0.883 5.691 3.081
0.901 5.588 2.570
1.049 5.673 2.316
0.552 4.669 0.727
0.245 4.262 0.828
0.354 4.262 0.322
0.117 4.406 0.210
0.205 4.364 0.086
1.489 6.141 3.289
1.499 5.990 3.044
1.464 5.983 2.816
0.940 5.893 2.856
1.250 5.942 2.465
1.228 5.623 2.443
0.928 5.346 2.092
1.059 5.250 1.798
0.687 4.746 0.593
0.180 4.571 0.551
0.220 4.550 0.219
0.430 4.349 -0.145
1.361 6.210 3.006
1.354 6.033 2.650
1.335 5.954 2.558
1.295 5.995 2.623
1.195 5.873 2.069
1.125 5.569 1.946
0.924 5.437 1.758
0.962 5.395 1.942
0.900 5.488 1.590
0.325 4.784 0.115
0.234 4.526 0.276
1.720 6.354 2.774
1.527 6.007 2.669
1.223 6.155 2.105
1.168 5.632 2.128
1.381 5.494 1.807
1.215 5.473 1.892
1.390 5.820 1.557
1.043 5.408 1.525
1.116 5.625 1.415
1.587 6.127 2.108
1.671 5.946 1.963
1.367 6.080 2.040
1.412 6.030 1.530
1.297 5.929 1.517
1.348 6.051 1.663
1.180 5.878 1.150
1.323 5.435 0.895
1.432 5.353 0.986
1.509 6.123 2.205
1.457 6.177 1.653
1.378 6.150 1.818
1.416 5.859 1.523
1.604 5.615 1.300
1.511 5.324 1.202
1.434 5.517 1.128
1.864 6.382 2.368
1.961 6.112 2.225
1.603 6.099 2.020
1.762 5.834 1.734
1.796 5.621 1.477
1.726 5.547 1.496
1.732 5.699 1.209
1.369 5.709 0.944
2.050 6.063 1.795
2.068 6.196 1.856
1.598 5.876 1.434
1.746 5.557 1.098
2.003 5.879 1.323
1.922 6.022 0.892
1.659 5.711 0.859
1.873 5.373 0.482
1.815 6.263 1.525
2.074 5.671 1.075
1.738 5.993 0.900
1.967 5.669 0.557
2.042 5.674 0.256
1.931 5.417 0.143
1.905 5.577 -0.075
0.152 4.734 3.878
0.012 4.672 3.488
-0.157 3.935 1.876
0.645 5.256 3.859
0.307 4.445 1.993
0.249 4.148 1.532
0.914 5.481 4.023
0.915 5.484 3.812
0.729 5.096 3.501
0.579 5.381 3.421
0.245 4.333 1.387
-0.052 4.092 1.202
-0.163 3.810 1.352
1.027 5.880 3.732
0.994 5.525 3.611
0.879 5.382 3.352
0.794 5.363 3.354
0.612 5.407 2.787
0.502 4.142 1.315
0.330 4.431 1.367
0.241 3.905 1.117
0.243 4.052 0.937
-0.133 3.958 0.719
1.348 5.793 3.521
1.215 5.520 3.587
1.127 5.420 3.414
1.071 5.601 2.987
1.191 5.370 2.918
0.723 5.024 2.462
0.938 5.126 2.603
0.186 4.149 1.047
0.142 4.254 1.118
0.352 4.158 0.610
0.042 3.769 0.393
0.118 3.943 0.411
-0.195 3.623 0.192
1.398 5.849 3.380
1.547 5.831 3.089
1.246 5.788 3.027
1.188 5.593 2.714
0.993 5.416 2.893
1.059 5.406 2.433
1.127 5.205 2.315
0.837 5.047 2.018
0.428 4.479 0.901
0.557 4.250 0.746
0.403 4.100 0.461
0.260 3.920 0.158
0.364 4.141 0.178
0.166 3.802 0.184
1.576 6.037 3.317
1.720 6.024 3.249
1.569 5.646 2.982
1.376 5.559 2.649
1.318 5.386 2.436
0.982 5.212 2.610
1.177 5.068 2.304
1.258 5.307 2.116
1.396 5.368 2.021
0.991 5.287 1.545
0.549 4.458 0.550
0.693 4.520 0.521
0.594 4.247 0.622
0.577 4.025 0.432
0.225 4.258 0.269
1.814 5.940 2.996
1.507 6.223 2.977
1.671 5.799 3.024
1.274 5.643 2.555
1.414 5.465 2.665
1.167 5.571 2.455
1.279 5.354 1.858
1.324 5.074 1.880
1.431 5.246 1.863
1.320 5.518 1.763
0.938 4.614 0.289
0.672 4.670 0.108
0.723 4.143 -0.015
1.643 6.080 2.807
1.911 5.896 2.871
1.817 6.032 2.634
1.567 5.665 2.483
1.286 5.718 2.149
1.356 5.463 1.931
1.213 5.261 1.728
1.532 5.682 1.481
1.215 5.504 1.659
1.437 5.333 1.067
0.979 4.622 0.203
2.023 6.333 2.534
1.891 5.982 2.386
1.664 5.850 2.341
1.449 5.983 2.330
1.664 5.599 2.199
1.338 5.512 1.851
1.535 5.346 1.422
1.769 5.862 1.553
1.516 5.541 1.335
1.676 5.404 1.214
1.942 6.133 2.240
1.799 6.098 1.909
1.689 6.090 1.949
1.612 5.889 1.702
1.710 5.459 1.370
1.917 5.694 1.321
1.833 5.243 1.271
1.067 4.319 0.124
2.094 5.910 2.517
1.876 6.152 2.371
2.087 5.908 1.969
1.967 5.656 2.035
1.662 5.414 1.931
1.667 5.592 1.302
1.914 5.670 1.477
2.400 5.949 2.223
2.087 5.787 1.700
1.920 5.988 1.536
1.981 5.655 1.568
1.961 5.862 1.345
0.448 4.708 4.455
0.368 4.614 3.936
0.237 4.095 3.862
0.104 4.246 3.627
-0.041 4.187 3.231
0.237 3.605 1.407
0.197 3.795 1.182
1.021 5.317 4.103
0.873 5.075 3.700
1.151 5.016 3.690
0.725 5.143 3.587
0.422 3.838 1.525
0.211 4.010 1.209
0.233 3.755 1.080
0.058 3.349 0.900
1.147 5.547 3.702
1.422 5.265 3.814
1.059 5.237 3.581
1.111 5.118 3.055
0.815 4.947 2.851
0.745 4.792 2.988
0.290 4.118 1.006
0.590 3.863 1.167
0.110 3.653 0.863
0.032 3.609 0.814
0.196 3.442 0.553
0.138 3.507 0.141
1.394 5.542 3.508
1.592 5.427 3.649
1.251 5.323 3.052
1.129 5.130 3.199
1.065 4.927 2.887
1.122 5.247 2.491
0.757 5.133 2.661
1.123 4.789 2.023
0.730 4.148 1.264
0.705 4.025 0.778
0.587 3.958 0.752
0.454 3.850 0.591
0.252 3.845 0.365
0.422 3.596 0.266
1.582 5.656 3.395
1.656 5.856 3.168
1.505 5.646 3.208
1.199 5.185 2.817
1.364 5.322 2.698
1.158 5.106 2.669
0.927 4.992 2.298
0.930 4.788 2.411
0.969 5.069 2.034
0.949 4.788 1.788
0.737 4.294 1.035
0.475 4.063 0.829
0.783 3.842 0.770
0.500 4.131 0.619
0.342 3.721 0.387
0.263 3.526 0.230
1.790 6.081 3.287
1.863 5.955 3.367
1.424 5.854 3.169
1.561 5.406 2.601
1.209 5.542 2.473
1.287 5.428 2.655
1.313 5.284 2.337
1.338 4.809 2.247
1.165 5.159 1.686
1.299 4.944 1.977
0.796 4.408 0.900
0.867 4.134 0.819
0.560 4.009 0.237
0.520 3.840 0.413
0.794 3.983 0.023
2.051 6.077 3.291
1.829 5.867 3.146
1.583 5.906 2.617
1.854 5.647 2.661
1.611 5.631 2.621
1.431 5.275 2.204
1.190 5.424 2.115
1.354 4.953 1.951
1.540 5.035 1.725
1.241 5.234 1.485
0.756 4.261 0.665
0.642 4.435 0.497
0.869 4.244 -0.087
2.204 6.294 2.903
2.085 5.975 3.044
1.957 5.897 2.758
1.776 5.885 2.301
1.881 5.509 2.443
1.782 5.363 1.989
1.517 5.473 1.733
1.699 5.260 1.861
1.861 5.619 1.804
1.642 5.260 1.494
1.295 4.747 0.460
0.938 4.411 0.114
2.306 6.214 2.978
2.072 5.751 2.616
2.025 5.904 2.181
1.642 5.833 1.970
1.865 5.396 2.157
1.531 5.359 1.643
1.718 5.263 1.445
1.686 5.411 1.418
1.869 5.175 1.367
1.141 4.417 0.276
1.982 6.170 2.394
2.028 5.886 2.171
2.205 5.741 1.952
2.014 5.897 1.754
1.915 5.491 1.733
1.858 5.342 1.580
1.995 5.322 1.488
1.563 4.429 0.163
1.432 4.280 0.165
2.537 6.153 2.453
2.421 5.931 2.620
2.103 5.840 2.478
2.256 5.876 2.308
2.045 5.501 2.111
1.869 5.493 1.852
1.834 5.505 1.778
2.674 6.262 2.412
2.481 6.127 2.280
2.179 6.017 2.145
2.206 5.851 1.876
3.041 6.143 1.017
2.703 6.190 0.439
2.874 6.126 0.399
0.368 4.652 4.335
0.655 4.443 4.259
0.188 4.458 4.310
0.264 4.251 4.023
0.130 4.099 3.521
-0.016 4.039 3.394
0.226 3.085 0.812
0.931 4.895 3.449
1.207 4.847 3.403
0.188 3.504 1.031
0.467 3.748 0.855
0.474 3.319 1.019
0.238 3.254 0.855
0.208 3.239 0.353
0.027 2.853 0.462
1.156 5.043 3.641
1.493 5.036 3.295
1.095 5.103 3.354
1.028 4.835 3.293
1.268 4.691 2.761
0.851 4.845 2.918
1.135 4.636 2.331
0.831 4.097 1.067
0.524 3.702 1.049
0.305 3.875 0.748
0.455 3.395 0.896
0.365 3.422 0.303
0.359 3.527 0.185
0.372 3.389 0.214
1.563 5.318 3.818
1.339 5.335 3.510
1.530 5.281 3.418
1.366 5.233 2.934
1.355 5.228 2.740
1.252 4.833 2.733
1.244 4.589 2.675
0.857 4.803 2.373
1.118 4.756 2.172
1.263 4.434 2.107
0.549 4.093 1.156
0.525 3.766 1.102
0.467 3.913 0.608
0.497 3.820 0.539
0.389 3.431 0.288
0.563 3.451 0.410
0.428 3.088 -0.013
1.730 5.807 3.655
1.908 5.454 3.487
1.464 5.237 3.126
1.606 4.997 3.059
1.554 5.238 2.951
1.382 4.947 2.576
1.207 4.732 2.186
1.145 4.755 2.381
1.335 4.792 2.197
1.369 4.956 1.677
1.111 4.383 1.093
0.890 4.153 0.979
0.786 3.756 0.747
0.498 3.853 0.340
0.653 3.450 0.398
0.309 3.453 -0.055
2.044 5.898 3.477
1.850 5.589 3.091
1.937 5.660 3.181
1.486 5.559 2.912
1.629 5.427 2.860
1.549 4.919 2.659
1.409 4.973 2.375
1.381 4.740 2.009
1.317 5.178 2.152
1.307 4.729 1.712
1.027 4.302 0.716
0.774 3.978 0.762
0.940 3.970 0.636
0.669 3.701 0.131
0.523 3.867 -0.046
1.862 5.694 3.310
1.820 5.567 3.237
1.933 5.435 2.657
1.886 5.482 2.653
1.784 5.384 2.309
1.683 5.312 2.421
1.774 4.895 1.996
1.642 5.212 1.984
1.466 5.122 1.899
1.588 4.795 1.684
1.030 4.481 0.633
0.979 4.073 0.593
0.846 3.915 0.347
0.799 4.182 0.182
2.249 5.723 3.315
1.991 5.965 2.881
1.950 5.567 2.511
2.000 5.621 2.781
1.811 5.607 2.183
1.586 5.412 2.172
1.730 5.072 1.826
1.460 4.900 2.008
1.995 5.399 1.790
1.475 4.431 0.740
1.448 4.480 0.506
1.126 4.357 0.310
1.166 4.036 -0.044
2.532 6.192 2.768
2.054 5.761 2.729
1.938 5.697 2.646
2.150 5.572 2.483
1.925 5.501 2.129
1.770 5.568 1.955
1.655 5.149 1.808
1.782 5.278 1.683
1.779 5.112 1.327
1.318 4.661 0.439
1.486 4.402 -0.028
2.314 6.171 2.777
2.182 6.180 2.598
2.296 5.643 2.087
2.048 5.570 1.872
1.929 5.537 1.727
2.232 5.650 1.773
1.981 5.532 1.670
1.619 4.489 0.255
1.460 4.124 0.477
1.476 4.045 0.249
2.844 5.801 2.626
2.735 5.887 2.698
2.258 5.804 2.591
2.556 5.504 2.168
2.562 5.529 2.092
2.050 5.650 1.814
2.164 5.368 1.991
1.526 4.390 -0.029
2.930 6.191 2.704
2.935 6.102 2.338
2.693 5.972 2.444
2.683 5.817 2.414
2.673 5.523 2.051
3.000 5.960 0.968
3.049 6.167 1.232
3.209 6.099 1.336
3.006 6.179 0.898
2.745 6.070 0.641
2.974 6.078 0.539
2.971 5.989 0.198
3.419 6.369 1.104
3.091 6.354 0.555
2.931 6.090 0.742
3.490 6.341 0.431
3.249 5.961 0.491
3.546 6.494 0.533
3.410 5.962 0.554
3.195 6.243 0.244
3.351 6.310 -0.072
3.523 6.263 0.424
3.488 6.117 0.071
0.785 4.661 4.798
0.860 4.571 4.612
0.804 4.067 4.155
0.377 4.223 4.215
0.455 4.217 3.914
0.199 3.893 3.525
0.105 3.067 0.532
-0.007 2.939 0.268
0.982 4.382 3.429
1.066 4.475 3.210
1.166 4.580 2.920
1.024 4.422 2.394
1.125 4.105 2.374
0.382 3.284 0.919
0.282 3.483 1.058
0.114 3.079 0.643
0.200 3.039 0.509
-0.041 2.844 0.184
0.080 2.801 0.267
1.284 5.104 3.619
1.185 4.643 3.449
1.502 4.500 3.187
1.214 4.530 3.130
0.932 4.598 2.824
1.190 4.414 2.602
1.107 4.651 2.381
1.117 4.506 2.131
0.883 3.524 1.317
0.768 3.582 1.014
0.518 3.244 0.835
0.697 3.153 0.676
0.526 3.125 0.367
0.338 2.950 0.123
0.365 3.034 0.078
1.459 4.996 3.388
1.674 5.074 3.415
1.582 4.819 3.255
1.441 4.639 2.879
1.152 4.711 2.625
1.243 4.775 2.794
1.232 4.236 2.275
1.384 4.597 2.357
1.361 4.401 2.107
0.748 3.726 0.833
0.795 3.773 0.888
0.695 3.360 0.733
0.408 3.598 0.400
0.625 3.333 0.446
0.450 3.156 -0.139
1.801 5.281 3.524
1.599 5.289 3.202
1.549 5.095 3.154
1.733 4.966 2.891
1.419 4.864 2.664
1.322 4.952 2.464
1.269 4.692 2.222
1.424 4.781 2.347
1.459 4.660 1.962
1.646 4.612 1.967
1.065 4.185 0.918
1.119 3.639 0.990
0.970 3.905 0.841
0.702 3.690 0.296
0.851 3.570 0.507
0.506 3.377 0.137
2.102 5.471 3.250
1.904 5.354 3.429
1.871 5.148 2.845
2.039 5.243 2.906
1.725 4.962 2.609
1.753 4.772 2.628
1.364 5.062 2.335
1.669 4.722 2.145
1.780 4.895 1.829
1.564 4.519 1.915
1.180 3.874 1.115
1.202 4.142 0.508
1.027 3.814 0.329
0.745 3.975 0.490
0.945 3.763 0.191
2.211 5.615 3.229
2.305 5.339 3.023
2.098 5.474 3.146
1.951 5.367 2.819
2.110 5.182 2.684
1.955 5.061 2.536
1.760 4.872 2.368
1.644 4.727 1.969
1.998 4.916 1.770
1.314 4.289 0.780
1.283 3.922 0.701
1.185 3.747 0.475
1.283 4.084 0.286
1.216 3.669 0.216
2.539 5.691 2.973
2.281 5.523 2.818
2.146 5.384 2.581
2.046 5.570 2.594
1.891 5.467 2.321
1.953 5.038 2.010
1.949 5.015 1.922
1.578 4.746 1.770
1.926 5.160 1.893
1.550 4.334 0.516
1.405 3.985 0.450
1.397 3.986 0.192
1.153 4.120 0.278
2.532 6.104 3.077
2.398 5.933 2.703
2.369 5.538 2.537
2.447 5.506 2.473
2.135 5.348 2.080
2.095 5.274 1.894
2.053 5.213 1.788
2.035 4.882 1.695
1.750 4.388 0.623
1.783 4.365 0.364
1.382 4.077 -0.039
2.643 5.917 2.698
2.736 5.719 2.837
2.447 5.601 2.630
2.204 5.776 2.317
2.372 5.434 2.262
2.068 5.596 2.172
2.166 5.073 1.554
1.836 4.434 0.849
1.826 4.289 0.380
1.922 4.196 0.372
1.813 3.855 0.223
3.006 5.969 3.060
2.547 5.806 2.623
2.878 5.850 2.715
2.716 5.535 2.419
2.470 5.456 2.272
2.278 5.369 1.852
2.090 4.755 0.367
1.954 4.317 0.303
2.020 4.465 0.301
1.688 4.418 0.130
2.760 6.232 2.703
3.054 5.866 2.541
2.654 5.660 2.179
2.609 5.421 2.082
2.401 4.604 0.198
1.963 4.504 0.093
2.110 4.539 0.045
3.178 6.069 2.532
2.892 5.537 0.996
3.032 5.540 0.543
3.067 5.395 0.633
2.921 5.881 1.226
2.920 5.775 0.877
3.106 5.898 0.957
3.137 5.617 0.673
3.138 5.420 0.382
3.286 6.007 1.161
3.507 5.751 1.179
3.263 6.066 1.134
2.969 5.794 0.782
3.054 5.671 0.622
3.168 5.602 0.470
3.116 5.581 0.297
3.556 6.106 1.400
3.557 5.938 1.247
3.494 6.196 0.785
3.228 5.832 0.650
3.413 5.920 0.680
3.467 5.942 0.277
3.518 6.106 0.917
3.460 6.088 0.460
3.396 5.883 0.559
3.629 6.239 0.543
3.685 5.947 0.066
3.848 6.211 0.619
3.736 6.014 0.253
3.772 6.228 0.041
3.785 5.875 0.043
3.795 6.109 0.351
0.128 2.874 2.427
0.723 4.154 4.655
0.662 4.201 4.741
0.839 3.966 4.322
0.543 3.944 4.015
0.790 3.931 3.919
0.002 3.189 2.276
-0.056 3.072 2.345
0.044 2.863 1.877
1.197 4.343 4.420
1.054 4.334 4.292
0.842 4.000 4.061
0.774 4.012 2.908
0.919 4.225 2.533
1.158 4.053 2.599
1.063 3.996 2.393
0.367 2.727 0.748
0.164 2.820 0.515
0.133 2.680 0.384
-0.129 2.227 0.153
1.272 4.101 3.031
1.054 4.119 2.719
0.995 4.115 2.519
1.145 3.952 2.365
1.214 4.129 2.505
0.998 4.156 2.396
0.401 3.046 0.704
0.420 3.067 0.616
0.562 2.924 0.732
0.299 2.756 0.269
0.445 2.627 0.415
0.172 2.269 -0.025
1.552 4.639 3.277
1.444 4.486 3.212
1.256 4.528 2.819
1.486 4.335 2.752
1.259 4.413 2.729
1.253 4.194 2.291
1.129 3.966 2.357
0.580 3.375 1.194
0.486 3.115 0.584
0.461 3.050 0.418
0.419 3.027 0.275
0.410 2.729 0.065
0.590 2.620 -0.010
1.802 5.220 3.707
1.908 5.065 3.335
1.536 4.695 3.125
1.521 4.483 2.908
1.519 4.779 2.761
1.464 4.375 2.726
1.438 4.161 2.289
1.727 4.280 2.442
1.264 4.268 2.021
0.841 3.610 0.960
0.867 3.450 1.041
0.725 3.468 0.522
0.589 3.067 0.563
0.621 3.318 0.233
0.816 2.781 0.079
2.171 5.249 3.367
1.891 5.153 3.224
2.048 5.020 3.266
1.867 5.022 2.872
1.654 4.759 2.674
1.458 4.699 2.543
1.486 4.621 2.220
1.849 4.423 1.974
1.740 4.512 1.850
1.213 3.900 1.045
0.865 3.472 0.481
0.984 3.282 0.472
1.036 3.309 0.148
0.985 3.056 0.033
2.114 5.283 3.375
2.134 5.270 3.503
2.218 5.183 3.232
1.800 4.925 3.130
1.712 5.023 2.861
1.607 4.633 2.343
1.588 4.511 2.215
1.865 4.463 2.094
1.889 4.878 2.241
1.394 4.027 1.072
1.123 3.977 0.934
1.327 3.554 0.592
1.062 3.725 0.460
1.235 3.613 -0.022
1.067 3.494 0.156
2.575 5.375 3.289
2.327 5.228 3.040
2.092 5.417 3.061
2.358 4.935 2.927
2.200 5.138 2.479
1.752 5.052 2.520
1.813 4.888 1.994
2.065 4.629 1.836
1.800 4.694 1.801
1.486 4.138 0.661
1.572 3.900 0.505
1.490 3.932 0.576
1.226 3.818 0.097
1.388 3.551 -0.080
2.535 5.636 3.397
2.226 5.576 2.795
2.344 5.377 2.893
2.266 5.116 2.562
2.287 5.302 2.220
2.092 5.012 2.234
2.025 4.952 2.001
1.975 4.684 2.064
1.571 4.246 1.019
1.896 4.200 0.646
1.702 4.059 0.624
1.591 3.713 0.466
1.443 3.864 0.244
2.818 5.904 3.072
2.790 5.454 2.919
2.658 5.674 2.501
2.634 5.613 2.615
2.485 5.461 2.246
2.080 5.200 2.228
2.279 4.816 1.986
1.710 4.299 0.609
2.011 4.454 0.688
1.542 4.387 0.200
1.704 4.066 0.350
3.030 5.989 2.809
2.796 5.835 2.850
2.656 5.698 2.646
2.453 5.474 2.341
2.569 5.206 2.302
2.588 5.088 2.091
2.246 4.297 0.976
2.025 4.068 0.512
1.857 4.071 0.541
1.795 3.863 0.592
1.714 3.841 0.118
3.098 5.815 3.126
2.833 5.495 2.652
2.805 5.687 2.607
2.922 5.527 2.450
2.637 5.253 1.998
2.191 4.733 0.871
2.094 4.551 0.628
2.150 4.441 0.381
2.317 4.040 0.433
2.270 4.009 0.126
1.951 4.117 0.023
3.072 5.596 2.825
3.178 5.547 2.828
3.137 5.685 2.503
2.902 5.589 2.265
2.410 5.024 1.074
2.631 4.627 0.824
2.514 4.692 0.745
2.570 4.572 0.577
2.294 4.513 0.075
2.247 4.334 0.090
3.028 6.053 2.515
3.056 5.643 2.455
2.936 5.244 1.214
2.705 5.062 1.025
2.726 4.946 0.500
2.722 4.855 0.420
2.494 4.813 0.516
2.336 4.441 -0.104
3.275 6.024 2.734
2.990 5.429 0.903
3.010 5.079 1.121
2.639 5.058 0.944
2.767 4.840 0.447
2.639 4.650 0.457
2.785 4.583 0.044
3.127 5.204 1.173
3.080 5.407 0.960
3.282 5.519 0.587
3.108 5.089 0.414
2.989 5.265 0.615
3.067 4.821 0.038
3.015 5.434 1.364
3.083 5.437 1.110
3.265 5.415 0.723
3.016 5.461 0.822
3.133 5.581 0.369
2.985 5.386 0.406
3.424 5.800 1.533
3.578 5.885 1.287
3.422 5.517 0.938
3.359 5.469 1.022
3.419 5.760 0.594
3.484 5.530 0.288
3.150 5.627 0.236
3.954 6.064 1.646
3.611 6.182 1.342
3.762 5.730 0.908
3.705 5.719 0.816
3.266 5.854 0.732
3.423 5.927 0.530
3.516 5.945 0.311
3.401 5.779 -0.057
3.803 6.075 1.153
3.902 5.942 1.075
3.779 5.728 0.712
3.660 5.757 0.614
3.964 5.937 0.595
3.554 5.794 0.071
4.093 6.127 0.606
3.937 6.142 0.704
3.937 5.758 0.385
3.952 6.304 0.357
3.732 6.205 0.614
3.938 6.137 0.037
0.085 3.001 2.795
0.164 2.734 2.464
-0.107 2.385 2.137
0.180 2.561 2.068
1.149 4.022 4.668
1.005 4.029 4.733
0.770 4.152 4.264
1.091 3.746 4.171
0.468 3.158 2.553
0.397 2.965 2.402
0.361 2.757 2.518
0.229 2.523 2.406
0.095 2.403 1.800
-0.049 2.540 1.740
1.134 4.254 4.399
1.024 4.205 4.349
1.242 3.849 4.388
0.923 3.346 3.024
0.719 3.305 2.595
0.433 2.981 2.360
0.709 3.062 2.331
0.357 2.911 2.210
0.333 2.904 1.852
1.613 4.575 4.512
1.341 4.043 4.270
1.042 3.691 2.643
0.683 3.452 2.607
0.617 3.350 2.669
0.655 3.330 2.096
0.834 3.026 2.018
0.635 2.908 1.950
1.226 3.958 2.733
0.925 3.781 2.835
0.842 3.326 2.377
0.994 3.666 2.243
0.715 3.241 2.287
0.861 3.098 1.764
0.114 2.394 0.552
0.028 1.896 0.147
1.254 4.079 2.846
1.372 3.828 2.844
1.061 3.800 2.636
1.094 3.621 2.453
1.260 3.843 2.619
1.075 3.634 2.279
