4.755 0.804 5.419
4.997 0.647 5.165
5.175 0.755 4.764
5.207 0.968 4.676
5.074 0.181 5.596
5.232 0.179 5.377
5.351 0.274 5.185
5.418 0.347 4.901
5.600 0.229 4.868
5.024 0.340 5.586
4.987 0.399 5.394
5.191 0.599 5.153
5.446 0.645 4.958
5.567 0.633 4.809
4.840 0.775 5.722
5.113 0.758 5.568
5.076 0.783 5.325
5.400 0.958 5.054
5.582 0.992 4.873
5.745 0.113 5.300
5.998 0.048 5.022
5.292 0.143 5.696
5.482 0.273 5.403
5.680 0.186 5.279
5.917 0.461 4.844
5.235 0.509 5.831
5.335 0.555 5.581
5.487 0.544 5.426
5.603 0.710 5.092
5.946 0.569 5.036
5.131 0.823 5.907
5.273 0.738 5.802
5.405 0.852 5.457
5.708 0.959 5.194
5.692 0.847 5.007
5.930 0.001 5.269
6.323 0.174 5.193
5.699 0.200 5.792
5.736 0.373 5.731
5.901 0.367 5.276
6.275 0.401 5.151
5.601 0.655 5.908
5.669 0.695 5.562
5.979 0.745 5.289
6.157 0.715 5.225
5.260 0.829 6.158
5.372 0.850 5.959
5.600 0.947 5.667
5.769 0.941 5.500
5.899 0.956 5.197
6.025 0.327 5.906
6.325 0.431 5.512
5.651 0.601 6.164
5.846 0.507 5.724
6.045 0.790 5.700
5.757 0.741 6.138
5.815 1.043 5.725
6.005 0.942 5.660
6.296 0.950 5.461
6.026 1.008 6.041
5.553 -0.047 3.570
5.788 0.178 3.358
6.088 0.254 3.071
6.276 0.128 2.742
5.598 0.250 3.266
5.928 0.507 2.971
6.015 0.572 2.811
6.355 0.496 2.462
5.951 0.188 3.620
6.101 0.197 3.328
6.295 0.100 3.205
6.057 0.356 3.130
6.312 0.791 3.068
5.523 0.488 4.394
5.566 0.873 4.362
5.876 0.327 4.510
5.773 0.618 4.496
6.031 0.940 4.197
5.642 1.017 4.629
5.927 0.878 4.314
6.165 0.461 4.699
6.139 0.762 4.388
6.043 0.568 4.743
6.095 0.751 4.547
6.144 0.920 4.471
5.918 0.874 4.621
6.158 1.147 4.583
6.317 0.770 4.866
6.334 1.096 4.873
0.674 0.852 2.746
0.746 1.002 2.521
1.005 0.892 2.344
0.990 1.007 2.102
1.190 1.028 1.884
0.408 0.976 3.066
0.542 1.094 2.867
0.610 1.190 2.588
0.818 1.119 2.445
1.119 1.263 2.087
0.040 1.423 3.317
0.383 1.371 2.930
0.411 1.432 2.775
0.631 1.588 2.578
0.768 1.604 2.279
-0.012 1.517 3.179
0.273 1.633 2.946
0.361 1.744 2.856
0.683 1.825 2.597
0.233 1.914 3.004
0.220 2.075 2.976
0.055 2.319 3.144
1.130 2.612 1.721
0.969 2.704 1.940
1.068 2.725 1.754
0.740 3.095 2.144
0.833 2.984 2.065
1.007 3.100 1.583
0.371 3.201 2.535
0.640 3.245 2.121
0.776 3.406 1.853
1.116 3.372 1.674
0.287 3.623 2.675
0.310 3.676 2.546
0.557 3.573 2.101
0.806 3.592 1.855
0.903 3.670 1.861
0.025 3.702 2.682
0.432 3.834 2.458
0.570 3.944 2.331
0.550 3.897 2.089
0.189 4.122 2.708
0.379 4.167 2.473
0.554 4.261 2.166
-0.061 4.350 2.782
0.172 4.562 2.542
0.562 5.618 1.734
0.182 5.896 2.005
0.481 6.016 1.722
-0.047 6.164 2.214
1.141 0.340 2.231
1.315 0.392 2.186
1.541 0.356 1.852
1.674 0.438 1.605
0.859 0.500 2.544
1.001 0.680 2.416
1.118 0.605 2.013
1.472 0.718 1.807
1.666 0.798 1.518
0.570 0.805 2.911
0.642 0.905 2.475
0.977 0.826 2.437
1.209 0.912 2.177
1.270 1.097 1.813
0.737 0.768 3.108
0.711 0.955 3.113
1.071 0.890 2.678
1.177 0.907 2.634
1.310 0.911 2.416
0.103 0.971 3.780
0.473 1.059 3.355
0.530 1.136 3.336
0.620 1.118 2.918
0.988 1.315 2.728
1.116 1.361 2.634
1.413 1.312 2.345
0.079 1.318 3.661
0.392 1.298 3.374
0.382 1.473 3.243
0.763 1.403 2.983
0.955 1.602 2.666
1.036 1.622 2.659
0.117 1.730 3.695
0.230 1.686 3.448
0.444 1.575 3.257
0.512 1.752 2.893
0.790 1.690 2.698
1.073 1.734 2.484
0.094 2.002 3.598
0.113 1.872 3.439
0.254 1.933 3.151
0.521 1.934 3.106
0.639 2.201 2.841
0.105 2.309 3.392
0.294 2.205 3.331
0.485 2.371 3.072
0.179 2.439 3.466
0.146 2.620 3.173
1.310 3.260 1.786
0.676 3.472 2.609
0.766 3.658 2.494
-0.095 3.740 3.352
0.139 3.703 3.117
0.417 3.739 2.950
0.520 3.947 2.540
0.689 3.940 2.492
0.094 4.106 3.161
0.174 4.182 2.833
0.584 4.232 2.701
0.787 4.211 2.302
-0.008 4.299 3.252
0.208 4.510 2.864
0.388 4.559 2.709
0.277 4.850 2.979
0.437 4.769 2.636
0.028 5.105 2.815
0.115 5.200 2.819
0.578 6.019 1.941
1.489 0.365 2.161
0.788 0.652 2.891
0.985 0.572 2.775
1.325 0.563 2.509
1.389 0.660 2.292
0.608 0.845 3.142
0.855 0.754 3.042
0.989 0.973 2.669
1.181 1.096 2.526
1.367 0.932 2.350
0.751 0.811 3.586
0.976 0.847 3.480
0.937 0.880 3.073
1.303 0.886 2.934
1.292 1.005 2.805
0.443 1.043 3.898
0.692 1.038 3.723
0.724 1.229 3.464
1.031 1.084 3.218
1.141 1.207 3.085
1.395 1.318 2.747
0.261 1.426 4.219
0.464 1.341 3.775
0.632 1.455 3.544
0.802 1.434 3.459
1.034 1.402 3.073
1.115 1.620 2.872
1.230 1.655 2.824
0.176 1.581 4.211
0.287 1.578 3.993
0.506 1.732 3.792
0.682 1.720 3.558
0.784 1.784 3.158
1.078 1.952 3.078
1.151 1.989 2.727
0.013 1.788 4.076
0.191 1.995 3.931
0.508 1.987 3.621
0.611 2.041 3.530
0.718 2.153 3.248
1.037 2.122 3.099
1.173 2.192 2.870
0.219 2.294 3.996
0.419 2.375 3.689
0.632 2.445 3.576
0.829 2.440 3.102
0.916 2.305 2.919
0.225 2.417 3.957
0.394 2.624 3.753
0.483 2.677 3.486
-0.074 3.823 3.828
0.114 3.825 3.647
0.420 3.965 3.350
0.484 3.808 3.086
0.759 4.005 2.916
0.188 4.011 3.633
0.287 4.194 3.370
0.586 4.100 3.159
0.841 4.293 2.896
0.085 4.496 3.527
0.257 4.450 3.315
0.357 4.530 3.054
0.698 4.408 2.826
0.049 4.703 3.655
0.166 4.687 3.311
0.494 4.824 3.211
0.559 4.833 2.908
0.241 5.099 3.413
0.421 5.085 3.227
0.497 5.130 2.970
0.198 5.301 3.455
0.167 5.471 3.128
0.036 5.613 3.388
1.194 0.675 3.093
0.698 0.882 3.642
0.868 0.902 3.318
0.911 0.871 3.078
1.114 1.026 2.913
1.445 1.084 2.614
0.784 0.886 3.936
0.988 0.937 3.827
1.159 0.865 3.462
1.259 1.062 3.287
1.508 0.996 3.203
0.422 1.074 4.195
0.716 1.135 4.015
0.725 1.152 3.803
0.963 1.173 3.637
1.267 1.262 3.258
1.504 1.178 3.220
1.547 1.216 2.799
0.293 1.471 4.424
0.655 1.409 4.204
0.863 1.339 3.873
0.875 1.544 3.745
1.045 1.616 3.287
1.429 1.455 3.183
1.451 1.724 2.948
0.448 1.552 4.412
0.400 1.582 4.055
0.670 1.624 3.740
0.895 1.675 3.572
1.014 1.782 3.384
1.190 1.767 3.075
1.504 1.840 2.885
0.181 1.907 4.391
0.549 2.001 4.053
0.622 1.956 3.978
0.778 2.121 3.604
1.114 2.205 3.433
1.231 2.194 3.129
1.484 2.312 2.813
0.534 2.264 4.039
0.487 2.338 3.880
0.750 2.431 3.650
1.026 2.456 3.522
1.064 2.522 3.196
1.246 2.467 2.935
0.717 2.531 3.599
0.902 2.714 3.422
1.179 2.714 3.066
0.180 3.860 4.174
0.178 3.808 4.071
0.520 3.857 3.671
0.517 3.895 3.604
0.115 4.135 4.167
0.240 4.180 3.866
0.407 4.067 3.605
0.475 4.175 3.400
0.741 4.298 3.378
0.204 4.303 4.070
0.260 4.419 3.613
0.582 4.577 3.476
0.807 4.526 3.134
0.809 4.449 3.033
-0.005 4.544 3.946
0.216 4.805 3.834
0.460 4.774 3.639
0.533 4.731 3.164
0.776 4.820 3.081
0.138 4.823 4.063
0.148 5.077 3.777
0.430 4.955 3.570
0.496 5.065 3.221
0.661 5.053 3.165
0.130 5.267 3.666
0.351 5.240 3.658
0.449 5.341 3.355
0.785 5.362 3.083
-0.016 5.618 3.801
0.399 5.750 3.522
0.464 5.791 3.209
0.559 5.748 3.119
0.747 0.786 4.046
0.871 0.838 3.874
0.949 0.913 3.655
1.161 0.937 3.445
1.483 1.031 3.037
0.770 0.765 4.447
0.954 0.780 4.367
1.060 0.887 4.067
1.352 1.005 3.828
1.376 1.017 3.435
0.805 1.142 4.477
0.889 1.228 4.356
1.168 1.120 3.963
1.188 1.119 3.808
1.344 1.190 3.467
1.501 1.322 3.197
0.666 1.487 4.530
0.738 1.432 4.347
0.953 1.582 4.032
1.074 1.422 3.830
1.414 1.622 3.508
1.484 1.605 3.414
1.758 1.629 3.000
0.632 1.615 4.462
0.767 1.829 4.173
0.935 1.795 4.152
0.994 1.825 3.854
1.184 1.783 3.675
1.415 1.922 3.299
1.673 1.981 3.226
0.681 2.048 4.246
0.803 2.049 4.172
1.064 2.183 3.794
1.293 2.179 3.655
1.361 2.178 3.480
1.607 2.182 3.084
0.944 2.317 4.180
1.095 2.461 3.896
1.153 2.431 3.512
1.370 2.514 3.402
1.658 2.421 3.263
1.732 2.530 3.028
1.105 2.623 3.622
1.309 2.889 3.294
1.440 2.863 3.101
1.792 3.006 2.991
0.139 3.837 4.666
0.377 3.740 4.466
0.426 3.798 4.215
0.783 3.815 3.852
0.187 3.933 4.559
0.290 4.152 4.269
0.328 4.157 4.061
0.653 4.237 3.974
0.683 4.149 3.683
0.997 4.358 3.410
-0.005 4.337 4.518
0.234 4.484 4.305
0.260 4.449 4.087
0.550 4.350 3.853
0.625 4.431 3.677
0.822 4.494 3.417
0.260 4.583 4.462
0.233 4.593 4.147
0.381 4.825 3.940
0.571 4.773 3.789
0.943 4.951 3.385
1.178 4.934 3.224
0.048 4.948 4.432
0.198 4.922 4.132
0.517 5.032 4.049
0.637 5.012 3.796
0.714 5.070 3.463
0.903 5.292 3.182
0.135 5.273 4.465
0.310 5.259 4.273
0.482 5.321 3.954
0.629 5.433 3.597
0.854 5.319 3.556
0.846 5.484 3.329
1.094 5.469 3.005
0.259 5.589 4.062
0.434 5.620 3.603
0.699 5.774 3.430
0.995 5.787 3.308
1.108 5.874 3.071
0.526 6.031 3.602
0.774 6.051 3.302
0.848 0.608 4.338
0.954 0.477 4.252
1.307 0.670 3.984
0.702 0.878 4.608
0.890 0.828 4.286
1.075 0.975 4.143
1.292 0.921 3.768
1.477 0.976 3.540
0.928 0.911 4.843
0.880 0.922 4.761
1.051 0.818 4.476
1.373 1.068 4.133
1.507 0.910 3.905
2.757 1.368 2.628
0.799 1.036 4.906
0.892 1.199 4.655
1.013 1.164 4.439
1.315 1.208 4.111
1.546 1.318 3.952
1.545 1.283 3.868
0.767 1.415 4.723
0.931 1.368 4.464
1.344 1.465 4.145
1.520 1.502 4.047
1.496 1.627 3.730
1.867 1.590 3.585
0.992 1.854 4.424
1.062 1.927 4.184
1.355 1.803 3.900
1.661 1.898 3.693
1.839 2.076 3.651
1.853 2.030 3.284
0.073 1.858 5.681
0.989 2.240 4.294
1.406 2.064 3.954
1.434 2.306 3.809
1.780 2.151 3.653
1.781 2.352 3.269
2.113 2.349 2.975
0.249 2.060 5.442
1.239 2.335 3.992
1.375 2.394 3.752
1.613 2.656 3.665
1.736 2.482 3.255
1.849 2.682 3.006
2.069 2.818 2.954
-0.033 2.421 5.488
0.143 2.417 5.205
1.331 2.851 3.793
1.627 2.927 3.618
1.793 2.823 3.398
1.887 2.862 3.158
2.144 2.918 2.920
0.078 2.854 5.366
0.148 2.721 5.329
0.306 2.961 4.943
1.514 3.016 3.648
1.520 3.089 3.352
1.809 3.244 3.025
1.969 3.405 2.841
2.099 3.450 2.731
0.231 3.214 5.330
0.299 3.173 5.075
0.454 3.191 4.885
1.771 3.449 3.101
2.049 3.492 2.803
2.043 3.620 2.581
0.116 3.284 5.131
0.354 3.362 4.896
0.369 3.385 4.885
0.663 3.644 4.644
1.769 3.886 2.799
2.142 3.845 2.564
-0.087 3.581 5.128
0.205 3.631 4.943
0.247 3.678 4.681
0.682 3.723 4.663
0.663 3.908 4.238
1.879 4.219 2.630
0.060 3.957 5.096
0.223 4.000 4.796
0.541 4.211 4.472
0.577 4.127 4.293
0.856 4.093 4.137
1.169 4.161 3.800
2.058 4.438 2.723
0.312 4.286 4.815
0.525 4.276 4.700
0.583 4.363 4.432
0.909 4.594 4.118
0.981 4.617 3.772
1.273 4.649 3.670
0.351 4.769 4.645
0.556 4.705 4.218
0.826 4.888 4.226
0.792 4.844 3.859
1.054 4.817 3.653
0.233 4.917 4.717
0.550 5.142 4.378
0.658 5.158 4.244
0.840 5.022 3.792
0.956 5.067 3.688
1.091 5.120 3.525
0.309 5.257 4.379
0.674 5.295 4.025
0.870 5.330 3.914
1.070 5.441 3.641
1.224 5.397 3.375
1.430 5.484 3.112
0.853 5.732 3.883
0.989 5.682 3.633
0.963 5.861 3.465
1.238 5.897 3.224
1.457 5.935 3.008
0.748 6.007 3.728
1.001 6.062 3.343
1.325 6.076 3.200
1.339 6.083 3.058
1.483 6.325 2.718
0.644 0.204 5.370
0.676 0.233 5.153
0.836 0.168 4.869
1.071 0.297 4.764
1.277 0.412 4.304
2.478 0.607 2.898
2.526 0.534 2.889
2.676 0.731 2.479
0.565 0.512 5.048
0.813 0.439 4.948
1.077 0.596 4.551
1.338 0.632 4.482
1.398 0.697 4.252
2.490 0.825 2.888
2.673 0.871 2.519
0.936 0.696 4.781
1.114 0.858 4.679
1.148 0.886 4.372
1.393 0.894 4.101
1.655 0.898 4.047
2.533 1.313 2.593
0.967 0.745 5.357
0.924 0.886 4.965
1.165 0.959 4.888
1.320 0.912 4.664
1.518 0.943 4.276
2.770 1.211 3.042
2.786 1.336 2.730
1.004 1.164 5.165
1.249 1.186 4.739
1.456 1.131 4.764
1.494 1.295 4.314
1.616 1.363 4.300
1.336 1.492 4.579
1.542 1.472 4.418
1.675 1.600 4.256
1.488 1.856 4.316
1.853 2.050 3.845
2.017 2.064 3.605
0.165 1.875 6.093
0.135 1.896 5.833
1.696 2.339 3.939
1.817 2.211 3.635
2.106 2.428 3.573
2.138 2.357 3.321
-0.061 2.010 6.062
0.284 2.181 5.953
0.301 2.147 5.502
0.463 2.271 5.471
1.639 2.483 3.856
1.786 2.502 3.702
1.919 2.665 3.555
2.224 2.781 3.249
2.466 2.675 2.950
0.043 2.415 5.937
0.419 2.633 5.597
0.387 2.614 5.312
0.736 2.619 5.288
1.778 2.947 3.877
1.879 2.844 3.586
2.122 2.909 3.169
2.182 2.975 3.127
2.519 2.982 2.756
-0.039 2.699 5.914
0.145 2.719 5.738
0.362 2.734 5.413
0.714 2.995 5.192
0.748 2.881 5.006
1.797 3.229 3.722
1.753 3.143 3.619
2.122 3.219 3.413
2.277 3.382 3.074
2.314 3.325 2.836
0.196 3.003 5.770
0.402 3.089 5.519
0.567 3.208 5.154
0.722 3.344 4.914
0.951 3.355 4.583
1.790 3.519 3.586
2.036 3.583 3.198
2.117 3.512 3.162
2.288 3.782 2.829
0.227 3.382 5.559
0.340 3.474 5.439
0.582 3.354 5.253
0.573 3.411 4.915
0.809 3.503 4.597
1.744 3.890 3.666
1.979 3.890 3.214
2.194 3.863 3.049
2.309 3.900 2.900
0.051 3.780 5.588
0.361 3.803 5.407
0.316 3.817 5.085
0.496 3.946 4.938
0.829 3.780 4.730
1.019 3.798 4.574
1.808 4.035 3.375
1.925 4.151 3.098
2.344 4.254 2.823
0.095 4.097 5.446
0.377 4.063 5.199
0.657 4.138 5.029
0.723 4.136 4.632
0.917 4.172 4.590
2.130 4.564 2.761
0.364 4.360 4.944
0.531 4.348 4.769
0.923 4.471 4.514
0.900 4.519 4.232
0.807 4.706 4.552
0.993 4.866 4.278
1.090 4.909 4.001
0.934 5.172 4.282
1.111 5.148 3.993
1.170 5.165 3.745
1.502 5.219 3.676
0.915 5.491 4.008
1.329 5.426 3.910
1.498 5.570 3.686
1.497 5.615 3.376
1.855 5.575 3.258
0.105 5.505 5.208
1.029 5.854 4.190
1.065 5.805 3.804
1.414 5.730 3.653
1.394 5.929 3.444
1.802 5.969 3.210
1.876 5.901 3.008
0.114 5.934 5.047
0.985 6.038 3.856
1.380 6.129 3.761
1.572 6.217 3.490
1.654 6.283 3.266
0.059 6.183 5.163
0.692 0.137 5.648
0.796 0.047 5.638
1.023 0.190 5.258
1.084 0.369 5.104
1.334 0.319 4.949
1.623 0.443 4.726
2.470 0.466 3.569
2.543 0.704 3.096
2.727 0.659 2.993
2.927 0.811 2.849
0.577 0.431 5.908
0.829 0.356 5.638
0.842 0.528 5.408
1.099 0.563 5.104
1.384 0.533 4.884
1.354 0.653 4.618
2.488 0.932 3.153
2.822 0.927 2.978
2.929 1.007 2.881
0.831 0.759 5.255
1.029 0.876 5.215
1.275 0.874 4.967
1.275 1.017 4.543
1.481 0.873 4.380
2.750 1.228 2.882
2.955 1.327 2.666
0.930 0.851 5.617
1.003 0.839 5.569
1.299 0.938 5.260
1.581 0.946 4.935
1.565 1.041 4.937
2.715 1.292 3.310
2.941 1.296 3.176
3.188 1.486 2.931
1.334 1.273 5.324
1.488 1.109 5.149
3.148 1.595 3.060
0.339 2.035 6.218
0.420 2.211 5.907
0.718 2.218 5.667
0.701 2.227 5.618
0.964 2.420 5.358
2.036 2.505 4.028
2.240 2.749 3.617
2.380 2.823 3.389
2.589 2.719 3.135
2.907 2.803 3.131
0.054 2.408 6.334
0.418 2.521 6.161
0.552 2.613 5.751
0.771 2.592 5.493
0.789 2.744 5.321
1.205 2.561 5.202
2.040 2.934 3.832
2.194 3.021 3.726
2.355 2.990 3.507
2.594 3.036 3.201
2.608 3.173 2.930
0.420 2.715 6.178
0.346 2.874 5.952
0.590 3.008 5.469
0.753 2.921 5.412
0.959 2.859 5.189
1.275 3.074 4.888
1.846 3.097 4.013
2.214 3.300 3.792
2.358 3.255 3.575
2.539 3.377 3.174
2.634 3.524 3.137
0.192 3.049 6.029
0.539 3.017 5.716
0.484 3.121 5.683
0.760 3.168 5.352
1.080 3.308 5.185
1.135 3.313 5.008
1.920 3.562 3.894
2.172 3.505 3.675
2.145 3.689 3.593
2.440 3.750 3.382
2.673 3.711 3.135
0.157 3.431 5.962
0.315 3.426 5.924
0.539 3.598 5.718
0.659 3.522 5.407
0.900 3.686 5.100
1.187 3.651 4.934
1.953 3.833 3.848
2.151 4.003 3.537
2.293 4.009 3.205
2.459 4.115 3.047
-0.020 3.779 6.046
0.357 3.662 5.972
0.396 3.702 5.692
0.574 3.831 5.485
0.931 3.847 5.023
1.058 3.898 4.893
2.000 4.136 3.693
2.216 4.310 3.514
2.294 4.285 3.283
2.495 4.299 2.958
0.326 4.104 5.813
0.434 4.027 5.628
0.590 4.213 5.365
0.654 4.053 5.272
0.964 4.162 5.046
2.111 4.400 3.256
2.276 4.670 3.169
0.113 5.111 5.730
1.675 5.683 3.863
1.749 5.753 3.449
1.877 5.629 3.295
0.006 5.398 5.688
0.250 5.620 5.428
0.418 5.631 5.097
1.261 5.944 4.039
1.450 5.812 3.699
1.663 5.839 3.593
1.877 6.046 3.371
2.078 5.925 3.098
-0.034 5.680 5.701
0.266 5.761 5.400
0.297 5.925 5.286
1.201 6.219 4.144
1.487 6.212 3.883
1.690 6.219 3.564
1.722 6.370 3.492
0.170 6.208 5.422
0.366 6.175 5.356
0.431 6.373 5.077
0.724 0.080 6.100
0.756 0.246 5.975
1.058 0.105 5.728
1.328 0.305 5.445
1.262 0.327 5.191
1.445 0.474 5.033
1.736 0.288 4.693
2.692 0.512 3.548
2.921 0.593 3.417
3.032 0.646 3.110
3.202 0.853 3.000
0.807 0.578 6.061
0.847 0.382 5.748
1.224 0.453 5.529
1.387 0.663 5.386
1.475 0.533 5.106
1.669 0.601 4.711
2.477 0.947 3.683
2.901 0.841 3.464
2.944 1.067 3.250
3.219 1.067 2.933
0.988 0.781 5.736
1.143 0.840 5.570
1.167 0.785 5.365
1.491 0.859 5.079
1.522 1.075 4.740
2.687 1.204 3.408
2.888 1.303 3.272
3.081 1.352 2.842
1.071 0.822 6.207
1.017 0.736 5.822
1.373 0.935 5.699
1.568 0.854 5.444
1.715 1.072 5.174
2.810 1.330 3.709
2.936 1.353 3.646
3.096 1.375 3.279
3.190 1.296 3.234
0.767 2.226 6.179
0.755 2.315 5.943
0.898 2.405 5.825
1.276 2.439 5.391
1.243 2.466 5.299
2.622 2.640 3.669
2.942 2.840 3.315
3.087 2.913 3.134
0.624 2.446 6.300
0.862 2.687 5.898
0.967 2.553 5.749
1.122 2.808 5.491
1.427 2.707 5.191
1.451 2.871 5.144
2.267 2.901 3.831
2.468 3.060 3.792
2.819 3.166 3.483
3.000 3.067 3.223
0.514 2.815 6.280
0.728 2.890 5.923
0.990 2.980 5.658
1.061 2.919 5.536
1.255 2.897 5.430
1.426 3.136 4.963
2.150 3.177 4.145
2.306 3.231 4.037
2.501 3.478 3.565
2.808 3.314 3.544
2.799 3.410 3.275
0.339 3.165 6.223
0.702 3.219 6.071
0.772 3.211 5.850
0.896 3.198 5.546
1.297 3.389 5.426
1.402 3.303 5.049
2.204 3.514 4.242
2.366 3.648 4.044
2.372 3.609 3.738
2.530 3.685 3.446
2.884 3.677 3.204
0.486 3.486 6.223
0.618 3.394 6.094
0.753 3.572 5.861
0.963 3.477 5.484
1.191 3.691 5.440
1.340 3.756 5.044
2.057 3.837 4.255
2.263 3.967 4.049
2.320 3.935 3.614
2.506 3.902 3.415
2.842 4.075 3.183
0.458 3.646 6.167
0.388 3.710 6.101
0.660 3.802 5.932
0.918 3.873 5.574
1.103 3.984 5.443
2.260 4.084 3.902
2.390 4.329 3.801
2.590 4.153 3.350
2.819 4.290 3.187
0.508 4.035 6.152
0.566 4.018 5.856
0.701 4.196 5.699
2.277 4.553 3.731
2.472 4.479 3.544
2.535 4.719 3.293
0.296 5.267 6.217
0.360 5.159 5.907
0.630 5.415 5.514
2.320 5.746 3.566
2.270 5.705 3.331
0.155 5.396 6.207
0.335 5.549 5.817
0.484 5.481 5.750
0.715 5.554 5.348
1.784 5.947 4.010
1.884 5.912 3.796
2.203 5.923 3.556
2.351 6.173 3.279
0.151 5.773 6.199
0.155 5.785 5.880
0.397 6.001 5.668
0.684 5.924 5.409
0.836 6.122 5.299
1.632 6.105 4.149
1.857 6.208 3.793
0.002 6.202 6.096
0.275 6.062 5.961
0.293 6.266 5.545
0.505 6.333 5.540
1.088 0.220 6.150
1.321 0.158 5.896
1.454 0.388 5.702
1.717 0.341 5.542
1.711 0.513 5.083
1.960 0.515 4.883
2.714 0.677 4.151
2.844 0.614 3.917
3.168 0.763 3.547
3.246 0.840 3.448
3.561 0.864 3.019
1.117 0.570 6.203
1.094 0.511 5.896
1.480 0.673 5.606
1.438 0.690 5.540
1.789 0.682 5.270
2.034 0.841 4.985
2.602 0.819 4.164
2.922 1.049 3.923
2.900 1.060 3.645
3.152 1.071 3.326
3.452 1.191 3.025
0.944 0.826 6.184
1.164 0.914 5.888
1.392 0.954 5.765
1.534 1.025 5.563
1.592 1.067 5.336
2.711 1.382 3.948
2.861 1.244 3.521
3.200 1.346 3.424
3.351 1.461 3.221
1.455 0.766 5.997
1.615 0.921 5.783
1.664 1.079 5.675
2.686 1.180 4.223
2.992 1.333 4.102
3.165 1.287 3.754
3.305 1.385 3.577
3.537 1.383 3.372
1.312 1.263 6.232
2.959 1.550 4.128
3.137 1.659 3.704
1.160 2.307 6.172
1.184 2.284 6.032
1.342 2.400 5.742
1.719 2.458 5.532
1.662 2.520 5.298
3.149 2.803 3.709
3.336 2.775 3.357
0.980 2.671 6.082
1.139 2.673 5.870
1.442 2.666 5.672
1.499 2.715 5.523
1.788 2.733 5.255
2.546 3.042 3.976
2.810 2.983 3.891
3.079 3.084 3.670
3.125 3.203 3.324
0.959 2.897 6.123
1.170 3.010 5.893
1.372 3.120 5.760
1.506 3.114 5.572
1.558 3.111 5.391
2.477 3.395 4.046
2.826 3.290 3.790
2.884 3.347 3.728
3.083 3.456 3.362
0.946 3.164 6.290
1.122 3.137 6.055
1.112 3.204 5.843
1.401 3.341 5.560
1.609 3.310 5.331
2.381 3.666 4.307
2.477 3.532 4.144
2.801 3.817 3.911
2.956 3.690 3.555
2.976 3.892 3.518
0.896 3.386 6.187
0.859 3.666 5.975
1.115 3.477 5.808
1.273 3.539 5.487
2.333 3.764 4.459
2.560 3.846 4.034
2.634 3.988 3.806
2.877 3.934 3.618
2.864 4.086 3.366
0.717 3.905 6.156
0.802 3.897 5.878
1.119 3.839 5.687
1.160 3.888 5.594
2.167 4.195 4.263
2.489 4.133 4.091
2.591 4.374 3.956
2.858 4.192 3.594
2.824 4.283 3.523
0.657 4.036 6.203
0.867 4.236 6.012
2.049 4.405 4.437
2.410 4.633 4.197
2.477 4.600 3.879
2.592 4.664 3.555
2.857 4.560 3.354
0.742 5.416 6.062
0.872 5.246 5.794
0.862 5.467 5.550
1.091 5.381 5.381
2.639 5.696 3.370
0.659 5.480 6.133
0.803 5.584 5.850
0.834 5.564 5.686
1.122 5.869 5.409
2.145 5.980 4.006
2.488 6.037 3.757
2.661 6.247 3.526
0.484 5.762 6.013
0.544 5.972 5.973
0.807 5.905 5.635
0.976 6.060 5.456
2.058 6.184 4.308
0.492 6.276 6.005
0.598 6.325 5.741
0.727 6.253 5.508
1.388 0.414 6.209
1.712 0.330 5.911
1.965 0.411 5.616
2.088 0.478 5.361
2.104 0.465 5.263
2.987 0.762 4.147
3.133 0.617 4.018
3.231 0.694 3.760
3.576 0.936 3.621
3.677 0.789 3.359
1.519 0.599 6.096
1.520 0.612 5.797
1.685 0.683 5.592
2.087 0.621 5.311
2.973 1.081 4.140
2.934 1.022 3.937
3.329 1.073 3.886
3.382 1.183 3.538
3.622 1.165 3.335
1.336 0.906 6.188
1.629 0.930 5.821
1.825 0.945 5.731
2.826 1.132 4.228
2.994 1.272 4.091
3.100 1.255 3.692
3.412 1.285 3.478
3.668 1.440 3.318
1.704 0.937 6.169
2.793 1.212 4.580
3.081 1.407 4.474
3.181 1.337 4.181
3.369 1.411 3.951
3.503 1.323 3.774
2.648 1.473 4.795
2.757 1.652 4.746
3.076 1.600 4.462
3.102 1.706 4.256
3.397 1.714 4.061
2.411 1.655 5.188
2.518 1.659 4.945
2.615 1.929 4.707
2.924 1.980 4.447
3.171 1.978 4.363
2.092 2.107 5.458
2.207 2.083 5.119
2.578 2.011 4.975
2.759 2.204 4.583
1.934 2.301 5.655
2.178 2.283 5.303
2.249 2.448 5.169
2.365 2.234 5.014
1.346 2.355 6.223
1.758 2.555 5.765
1.929 2.481 5.551
1.990 2.508 5.397
2.306 2.641 5.229
3.449 3.056 3.634
1.465 2.784 6.259
1.568 2.733 5.916
1.772 2.814 5.685
1.955 2.735 5.382
2.002 2.829 5.295
3.056 3.011 4.129
3.311 3.131 3.842
3.377 3.306 3.685
1.409 2.988 6.227
1.574 3.124 6.030
1.694 3.209 5.569
1.977 3.046 5.366
2.830 3.424 4.376
2.918 3.442 3.926
3.180 3.373 3.830
3.235 3.564 3.610
1.167 3.169 6.153
1.518 3.354 6.001
1.747 3.271 5.617
2.787 3.570 4.296
2.982 3.605 3.937
3.114 3.700 3.922
3.356 3.838 3.540
1.238 3.623 6.128
1.359 3.669 5.983
1.546 3.621 5.774
2.563 3.846 4.444
2.715 3.942 4.408
2.770 4.149 3.972
3.152 4.089 3.854
3.113 4.186 3.716
1.145 3.848 6.272
1.235 4.052 5.951
2.296 4.221 4.805
2.350 4.341 4.591
2.660 4.188 4.369
2.723 4.427 4.087
2.862 4.466 3.883
3.138 4.289 3.557
2.219 4.474 4.694
2.412 4.633 4.650
2.420 4.604 4.368
2.672 4.705 4.165
3.035 4.760 3.871
1.895 4.810 4.958
2.143 4.707 4.718
2.254 4.849 4.584
2.403 4.889 4.223
1.790 4.955 5.270
1.848 4.874 4.938
2.004 5.071 4.902
2.323 5.009 4.665
1.212 5.244 5.843
1.409 5.294 5.400
1.672 5.362 5.398
1.792 5.187 5.127
2.128 5.304 4.742
1.019 5.420 6.079
1.160 5.491 5.887
1.495 5.579 5.556
1.505 5.416 5.261
1.645 5.582 5.006
2.921 5.738 3.806
0.855 5.664 6.323
0.977 5.759 5.979
1.202 5.833 5.774
1.366 5.866 5.516
1.491 5.891 5.189
2.627 6.003 3.957
2.900 6.181 3.632
0.803 5.829 6.332
0.893 6.016 5.949
0.977 6.100 5.767
1.158 6.166 5.490
0.636 6.222 6.303
0.766 6.387 6.002
1.679 0.263 6.232
1.961 0.424 6.007
2.030 0.322 5.946
2.277 0.369 5.503
3.260 0.727 4.468
3.241 0.879 4.100
3.442 0.910 3.921
3.600 0.811 3.735
3.915 1.019 3.533
1.707 0.799 6.166
1.910 0.740 5.795
3.054 1.046 4.496
3.211 0.954 4.087
3.450 1.131 3.929
3.581 1.127 3.674
3.879 1.191 3.562
1.855 0.887 5.992
2.826 1.350 4.767
2.923 1.295 4.375
3.232 1.362 4.138
3.320 1.357 3.857
3.700 1.315 3.806
2.845 1.351 5.056
3.078 1.279 4.942
3.313 1.281 4.694
3.464 1.351 4.510
3.510 1.349 4.139
2.725 1.508 5.329
2.937 1.425 4.976
3.091 1.654 4.819
3.253 1.586 4.699
3.299 1.724 4.354
3.684 1.651 4.123
2.510 1.727 5.500
2.662 1.784 5.331
2.896 1.906 5.216
2.848 1.992 4.909
3.042 1.869 4.633
3.310 2.001 4.366
2.057 2.034 5.721
2.413 2.036 5.632
2.587 2.043 5.491
2.694 2.047 5.183
2.809 2.247 4.889
3.036 2.186 4.564
2.194 2.210 5.859
2.208 2.276 5.569
2.565 2.404 5.400
2.634 2.314 5.098
2.911 2.543 5.011
3.100 2.492 4.788
1.952 2.401 6.188
2.023 2.478 5.760
2.243 2.524 5.651
2.409 2.651 5.286
2.565 2.663 5.044
2.668 2.870 5.003
3.723 2.906 3.879
1.757 2.692 5.984
2.071 2.903 5.905
2.296 2.847 5.666
2.395 2.885 5.366
3.505 3.268 3.740
1.712 3.059 6.169
1.948 3.069 5.785
2.157 3.289 5.709
3.340 3.609 3.915
3.644 3.599 3.723
1.778 3.393 6.220
3.038 3.888 4.129
3.287 3.718 3.902
3.554 3.899 3.847
2.727 4.053 4.727
3.031 4.003 4.452
3.138 3.979 4.166
3.298 4.238 3.953
3.344 4.196 3.826
2.394 4.268 4.958
2.710 4.255 4.812
2.844 4.360 4.546
2.958 4.474 4.278
3.153 4.350 3.985
1.960 4.524 5.450
2.268 4.541 5.343
2.289 4.525 5.030
2.650 4.650 4.730
2.855 4.491 4.590
2.886 4.543 4.259
1.747 4.582 5.810
1.919 4.660 5.551
2.167 4.700 5.356
2.338 4.925 4.902
2.575 4.876 4.751
2.751 4.792 4.601
1.624 4.975 5.677
2.029 4.985 5.519
2.059 5.146 5.190
2.233 4.967 4.917
2.349 5.023 4.785
2.565 5.218 4.414
1.407 5.237 6.000
1.711 5.143 5.782
1.784 5.172 5.609
2.118 5.203 5.216
2.163 5.389 5.042
2.400 5.398 4.862
1.169 5.330 6.221
1.517 5.538 5.915
1.696 5.475 5.679
1.755 5.573 5.544
1.982 5.569 5.149
2.037 5.611 5.122
1.294 5.785 6.118
1.497 5.907 5.844
1.626 5.869 5.814
1.612 5.852 5.547
2.018 6.036 5.328
3.026 6.326 3.754
1.091 6.140 6.145
1.412 6.073 6.003
1.517 6.211 5.739
2.051 0.480 6.315
2.291 0.461 5.956
3.566 0.914 4.252
3.789 0.914 4.254
4.004 0.899 3.911
4.218 0.818 3.745
2.171 0.705 6.328
3.047 1.060 4.747
3.328 1.017 4.656
3.460 1.042 4.462
3.680 1.170 4.141
3.863 1.175 3.861
2.795 1.115 5.144
3.149 1.189 4.945
3.408 1.302 4.532
3.550 1.297 4.450
3.528 1.367 4.208
3.072 1.244 5.393
3.081 1.172 5.219
3.201 1.442 4.930
3.613 1.286 4.706
3.758 1.439 4.509
2.676 1.511 5.837
2.852 1.637 5.519
2.985 1.654 5.397
3.277 1.697 4.957
3.343 1.565 4.736
3.617 1.707 4.597
2.420 1.642 6.030
2.650 1.878 5.798
2.786 1.787 5.662
3.093 1.747 5.349
3.070 1.853 5.041
3.514 1.870 4.781
3.661 2.001 4.515
2.441 1.950 6.049
2.632 2.051 5.801
2.846 2.151 5.427
2.980 2.235 5.395
3.144 2.072 4.957
3.439 2.314 4.728
3.616 2.365 4.638
2.297 2.280 6.068
2.476 2.406 5.667
2.635 2.425 5.465
3.018 2.488 5.447
3.078 2.599 5.012
3.241 2.440 4.800
2.206 2.696 6.061
2.570 2.631 5.762
2.714 2.657 5.562
2.857 2.672 5.327
2.883 2.695 5.149
3.288 2.795 4.868
2.252 3.018 6.005
2.491 3.006 5.784
2.578 2.904 5.639
2.655 3.025 5.280
2.649 4.308 5.436
2.596 4.254 5.201
2.774 4.289 4.999
3.002 4.313 4.665
2.201 4.533 5.788
2.174 4.428 5.553
2.552 4.502 5.492
2.670 4.476 5.114
2.814 4.524 4.976
2.877 4.764 4.677
1.957 4.617 5.917
2.259 4.793 5.658
2.451 4.660 5.459
2.494 4.915 5.062
2.801 4.982 4.876
2.873 4.856 4.828
1.755 4.825 6.072
2.041 4.991 5.798
2.035 5.116 5.565
2.220 5.184 5.454
2.422 5.012 5.071
2.612 5.057 5.052
2.986 5.097 4.773
1.667 5.194 6.224
1.819 5.247 5.924
2.124 5.280 5.665
2.170 5.415 5.477
2.558 5.359 5.118
2.669 5.593 4.950
2.776 5.387 4.631
1.743 5.649 6.211
1.833 5.572 5.890
1.914 5.490 5.629
2.199 5.648 5.554
2.318 5.598 5.258
2.485 5.676 4.902
1.659 5.929 6.072
1.696 5.842 5.806
1.845 5.955 5.710
2.105 6.003 5.493
2.383 6.136 5.216
3.380 1.116 5.151
3.567 1.104 4.756
3.668 1.022 4.627
3.060 1.114 5.519
3.150 1.332 5.274
3.217 1.227 5.119
3.489 1.330 4.758
3.686 1.416 4.611
2.920 1.259 5.812
3.060 1.316 5.758
3.313 1.322 5.432
3.455 1.278 5.302
3.645 1.447 4.922
2.654 1.592 6.249
3.040 1.583 5.835
3.050 1.578 5.682
3.357 1.596 5.566
3.392 1.705 5.316
3.753 1.630 5.130
3.800 1.653 4.767
2.822 1.720 6.071
2.916 1.867 5.912
2.935 1.989 5.822
3.239 1.833 5.396
3.408 1.884 5.374
3.691 2.127 5.079
3.792 2.065 4.902
2.699 1.998 6.078
2.795 2.131 5.893
3.034 2.117 5.765
3.141 2.160 5.565
3.307 2.197 5.223
3.568 2.419 5.135
3.837 2.258 4.806
2.490 2.392 6.159
2.725 2.285 5.957
2.849 2.454 5.676
3.150 2.561 5.461
3.214 2.514 5.294
3.365 2.504 5.106
3.611 2.761 4.837
2.760 2.689 5.891
2.947 2.796 5.770
3.149 2.855 5.591
3.118 2.923 5.350
3.458 2.931 5.184
2.901 3.081 5.897
2.921 3.088 5.449
3.069 3.244 5.216
2.540 4.105 5.700
2.746 4.214 5.539
2.976 4.319 5.400
3.042 4.332 5.088
2.268 4.466 6.019
2.405 4.543 5.923
2.806 4.606 5.641
2.957 4.492 5.445
2.930 4.513 5.078
3.221 4.797 4.980
2.333 4.615 6.045
2.430 4.881 5.947
2.628 4.875 5.734
2.762 4.863 5.372
2.911 5.056 5.131
3.192 5.085 5.014
2.075 4.933 6.158
2.396 5.172 5.929
2.512 5.162 5.727
2.848 5.153 5.492
2.958 5.118 5.263
3.006 5.311 4.983
2.158 5.217 6.013
2.299 5.395 5.928
2.590 5.290 5.682
2.597 5.561 5.380
2.767 5.390 5.109
3.112 5.451 4.976
2.002 5.642 6.124
2.250 5.565 5.929
2.482 5.628 5.513
2.740 5.694 5.516
2.766 5.794 5.129
2.967 5.971 5.022
1.961 5.867 6.030
2.133 5.832 5.959
2.352 6.067 5.603
2.558 6.163 5.384
2.697 6.036 5.062
3.034 1.123 5.815
3.280 1.285 5.788
3.320 1.444 5.495
3.608 1.245 5.177
3.744 1.538 5.023
-0.058 0.181 0.707
0.160 0.213 0.361
0.237 0.460 0.556
0.280 0.739 0.706
0.214 0.264 1.166
0.230 0.307 0.830
0.427 0.304 0.807
-0.038 0.397 1.107
0.193 0.590 0.968
0.390 0.516 0.555
0.213 0.909 0.792
0.504 0.730 1.019
0.624 0.907 0.951
0.407 1.313 0.838
0.129 2.309 1.084
0.264 2.385 0.910
-0.046 2.629 1.271
0.264 2.563 0.889
0.132 2.983 1.003
0.037 3.238 0.990
-0.041 3.505 1.108
0.051 0.240 1.677
0.341 0.135 1.196
0.409 0.184 1.022
0.677 0.424 0.783
0.211 0.465 1.649
0.282 0.574 1.379
0.502 0.464 1.097
0.565 0.619 0.742
0.475 0.737 1.223
0.485 0.918 0.996
0.446 0.834 1.417
0.481 0.826 1.345
0.778 1.044 1.066
0.250 2.286 1.696
0.181 2.351 1.387
0.576 2.486 1.189
0.141 2.650 1.608
0.167 2.609 1.433
0.383 2.798 1.224
0.296 2.873 1.299
0.403 3.118 1.135
0.130 3.125 1.366
0.363 3.236 1.112
-0.077 3.517 1.407
0.368 3.663 1.082
0.264 3.875 1.250
0.232 4.143 1.123
0.209 0.056 1.852
0.473 0.336 1.644
0.501 0.204 1.431
0.701 0.350 1.361
0.991 0.398 1.096
0.256 0.556 1.867
0.575 0.625 1.404
0.708 0.646 1.291
0.784 0.741 1.144
0.373 0.773 1.654
0.534 1.002 1.247
0.738 1.025 1.034
0.505 0.931 2.060
0.768 0.889 1.856
0.765 0.927 1.530
1.112 0.861 1.352
0.659 1.052 1.692
0.318 2.257 1.675
0.444 2.487 1.433
0.755 2.339 1.214
0.081 2.658 2.036
0.389 2.749 1.848
0.399 2.684 1.531
0.567 2.780 1.244
-0.054 3.000 2.038
0.278 2.806 1.708
0.463 3.088 1.545
0.555 3.037 1.406
0.111 3.266 1.693
0.324 3.205 1.551
0.537 3.439 1.375
0.012 3.400 1.731
0.391 3.665 1.543
0.449 3.573 1.270
0.060 3.713 1.871
0.108 3.834 1.623
0.430 4.038 1.459
0.077 4.193 1.681
0.216 4.229 1.329
0.065 5.247 1.481
0.133 5.775 1.370
0.382 0.264 2.050
0.590 0.254 1.900
0.739 0.317 1.785
1.085 0.240 1.567
1.060 0.392 1.286
0.230 0.597 2.236
0.588 0.507 1.996
0.813 0.571 1.797
0.844 0.513 1.388
1.054 0.779 1.196
0.537 0.747 2.032
0.673 0.799 1.708
0.743 0.869 1.434
1.008 1.005 1.250
0.466 0.711 2.510
0.663 0.998 2.265
0.923 1.025 1.881
1.004 1.026 1.688
1.192 1.097 1.398
0.345 1.009 2.506
0.334 1.168 2.359
0.519 1.081 2.043
0.754 1.309 1.921
0.117 1.487 2.513
0.892 2.431 1.707
1.057 2.589 1.407
0.436 2.602 1.897
0.570 2.704 1.675
0.757 2.738 1.406
0.295 2.852 2.203
0.549 3.018 1.957
0.663 3.138 1.880
0.837 3.099 1.462
0.061 3.102 2.415
0.128 3.303 2.256
0.460 3.328 2.021
0.471 3.388 1.686
0.749 3.494 1.502
0.160 3.407 2.253
0.294 3.651 1.965
0.419 3.570 1.909
0.727 3.708 1.531
0.118 3.723 2.256
0.241 3.756 2.040
0.373 4.014 1.717
0.524 3.954 1.427
0.053 3.979 2.236
0.225 4.112 1.989
0.505 4.083 1.856
0.245 5.487 1.574
0.040 5.654 1.953
0.370 5.593 1.724
-0.112 5.964 1.906
0.298 6.090 1.746
0.716 0.191 2.240
0.921 0.290 2.249
1.128 0.469 2.013
1.188 0.460 1.531
1.357 0.429 1.369
0.488 0.469 2.497
0.749 0.655 2.005
0.822 0.666 1.819
1.057 0.565 1.542
1.214 0.850 1.313
0.580 0.953 2.326
0.746 0.901 2.177
0.940 0.809 1.929
1.019 1.008 1.640
1.358 0.906 1.378
0.664 0.877 2.815
0.863 0.951 2.439
1.005 0.918 2.263
0.992 1.054 2.163
1.252 1.129 1.846
0.404 1.166 2.986
0.543 1.093 2.773
0.718 1.056 2.705
0.770 1.155 2.318
1.187 1.198 2.198
-0.030 1.201 3.346
0.326 1.383 3.097
0.496 1.357 2.826
0.553 1.594 2.694
0.760 1.633 2.475
-0.110 1.583 3.220
0.311 1.562 3.069
0.287 1.645 2.703
0.465 1.821 2.732
0.200 2.014 2.994
0.398 2.079 2.746
0.026 2.276 2.971
1.291 2.638 1.590
0.956 2.855 1.897
1.088 2.840 1.685
0.773 3.140 2.162
0.778 3.072 1.995
1.052 3.088 1.681
0.433 3.205 2.401
0.647 3.311 2.073
0.897 3.384 2.025
0.983 3.387 1.698
0.205 3.522 2.540
0.509 3.455 2.504
0.630 3.699 2.177
0.803 3.641 1.962
0.953 3.643 1.724
0.153 3.832 2.665
0.407 3.746 2.489
0.598 4.024 2.150
0.685 4.040 2.109
0.203 4.120 2.787
0.301 4.104 2.464
0.522 4.251 2.280
0.109 4.305 2.569
0.141 4.311 2.359
0.367 5.661 1.922
0.117 6.119 2.153
0.538 6.011 1.804
-0.108 6.168 2.187
1.181 0.419 2.387
1.142 0.282 2.207
1.303 0.433 1.867
1.636 0.455 1.649
0.801 0.661 2.681
0.865 0.565 2.449
1.212 0.737 2.196
1.232 0.761 1.968
1.496 0.681 1.514
0.602 0.818 2.727
0.752 0.780 2.497
0.905 0.808 2.438
1.046 0.920 2.113
1.373 1.088 1.824
5.688 1.752 6.335
5.978 1.860 5.937
6.149 1.989 5.735
5.887 2.110 6.153
5.924 3.466 5.715
5.728 3.757 6.004
6.055 3.685 5.703
5.587 3.758 6.063
5.744 3.839 5.987
5.772 4.023 5.683
5.465 4.254 6.008
5.746 4.272 6.014
5.695 4.247 5.609
5.416 4.486 6.072
5.673 4.402 5.799
5.814 4.507 5.580
5.196 4.644 6.245
5.394 4.802 5.894
5.322 5.158 6.290
5.819 1.156 6.340
6.044 1.289 5.990
6.271 1.395 5.772
5.707 1.432 6.192
6.108 1.584 6.042
6.214 1.475 5.701
5.792 1.813 6.168
5.807 1.948 6.072
6.073 1.805 5.715
6.161 1.774 6.123
6.129 2.059 6.158
6.101 4.085 5.747
6.260 1.485 6.303
6.197 1.936 6.323
3.365 1.376 6.122
3.442 1.202 5.909
3.489 1.373 5.790
3.781 1.432 5.471
3.250 1.591 6.192
3.285 1.670 5.945
3.554 1.740 5.659
3.649 1.631 5.499
3.921 1.617 5.091
2.990 1.773 6.140
3.267 1.996 5.968
3.601 1.946 5.692
3.674 1.941 5.545
3.924 1.966 5.224
3.957 2.061 4.852
2.934 2.101 6.230
3.132 2.294 5.863
3.429 2.336 5.728
3.710 2.255 5.381
3.752 2.339 5.340
3.965 2.449 5.053
3.050 2.380 6.165
3.120 2.604 6.010
3.256 2.645 5.648
3.446 2.666 5.453
3.602 2.566 5.359
3.880 2.658 5.031
2.819 2.636 6.143
3.011 2.711 5.933
3.412 2.873 5.715
3.462 2.987 5.562
3.685 2.996 5.334
3.898 2.969 4.981
3.360 3.204 5.658
3.491 3.219 5.378
3.479 3.142 5.307
3.775 3.373 5.104
2.730 4.141 6.125
2.869 4.250 6.129
2.917 4.286 5.752
3.096 4.227 5.575
2.448 4.581 6.133
2.734 4.517 6.009
2.811 4.510 5.786
3.088 4.672 5.552
3.209 4.599 5.444
2.547 4.726 6.281
2.553 4.841 6.098
2.916 4.963 5.824
3.078 5.033 5.519
3.133 4.936 5.250
3.484 5.129 5.068
2.374 5.108 6.230
2.644 4.993 5.963
2.757 5.244 5.890
3.108 5.088 5.454
3.058 5.231 5.415
3.280 5.270 5.223
2.499 5.308 6.378
2.470 5.519 5.941
2.655 5.455 5.796
2.980 5.389 5.651
3.077 5.603 5.278
3.308 5.517 5.049
2.481 5.617 5.965
2.655 5.867 5.848
2.822 5.928 5.665
3.153 5.833 5.259
3.270 5.796 5.020
2.367 6.070 5.961
2.519 6.000 5.967
2.713 6.127 5.582
3.035 6.015 5.397
3.237 6.203 5.084
3.394 0.985 6.211
3.483 0.912 5.788
3.164 1.389 6.213
3.302 1.303 5.949
3.608 1.229 5.533
3.708 1.343 5.556
3.693 1.315 6.031
3.748 1.369 5.828
3.460 1.529 6.188
3.687 1.756 5.854
3.999 1.790 5.537
4.258 1.703 5.412
3.426 1.959 6.182
3.750 1.950 5.877
3.862 2.137 5.732
4.119 2.203 5.509
3.557 2.140 6.029
3.519 2.238 5.900
3.866 2.455 5.612
4.093 2.306 5.520
4.219 2.476 5.130
3.346 2.632 6.059
3.543 2.528 5.806
3.807 2.701 5.721
3.973 2.664 5.544
4.136 2.721 5.150
4.285 2.727 5.024
3.330 2.845 6.113
3.579 2.793 5.951
3.599 2.989 5.793
3.831 3.022 5.476
3.998 3.014 5.286
4.350 2.975 4.929
3.518 3.233 5.574
3.749 3.266 5.534
4.103 3.416 5.290
4.186 3.357 5.040
4.334 3.363 4.812
4.030 3.718 5.350
4.000 3.727 4.884
4.332 3.716 4.830
4.194 4.102 4.747
4.441 4.134 4.548
4.251 4.250 4.424
2.961 4.275 6.286
3.244 4.294 6.079
4.369 4.711 4.613
2.944 4.472 6.171
3.150 4.490 6.093
3.434 4.568 5.742
2.810 4.836 6.163
2.968 4.955 6.085
3.354 4.832 5.768
3.435 4.896 5.639
2.852 5.132 6.332
2.994 5.114 6.045
3.262 5.147 5.862
3.488 5.319 5.576
3.661 5.329 5.205
2.745 5.430 6.162
2.932 5.559 5.889
3.165 5.453 5.848
3.361 5.637 5.449
3.479 5.737 5.352
2.844 5.702 6.124
2.883 5.830 6.140
3.118 5.859 5.727
3.220 5.842 5.543
3.515 6.044 5.226
3.671 5.975 4.997
2.766 5.971 6.082
3.099 6.066 5.770
3.281 6.096 5.461
3.259 6.348 5.370
3.562 6.378 5.150
4.797 0.934 4.583
5.169 1.156 4.395
3.681 1.088 6.095
4.888 1.339 4.469
3.758 1.295 6.171
3.918 1.528 5.773
3.884 1.307 6.328
5.230 1.724 4.510
3.878 1.731 6.158
3.954 1.711 6.150
4.034 1.953 6.126
3.998 2.015 5.806
3.915 2.250 6.027
4.166 2.481 5.924
4.196 2.477 5.611
4.332 2.355 5.434
3.881 2.573 6.046
3.880 2.574 5.907
4.077 2.822 5.687
4.379 2.719 5.430
4.545 2.831 5.205
4.002 3.073 5.982
4.106 2.951 5.675
4.314 3.078 5.294
4.365 3.146 5.039
4.767 3.049 5.025
3.831 3.139 5.806
4.118 3.303 5.643
4.217 3.237 5.415
4.412 3.384 5.273
4.610 3.548 4.904
4.743 3.572 4.835
4.066 3.652 5.753
4.041 3.546 5.313
4.339 3.604 5.071
4.621 3.697 4.998
4.712 3.684 4.619
4.096 3.885 5.301
4.272 3.883 5.100
4.463 3.991 4.880
4.658 4.186 4.727
4.338 4.241 5.219
4.428 4.257 5.060
4.637 4.271 4.701
4.308 4.615 5.088
4.413 4.606 4.880
3.333 4.638 6.275
4.472 4.821 4.786
3.406 4.978 6.138
3.557 5.092 5.840
3.362 5.201 6.130
3.518 5.400 5.874
3.555 5.315 5.687
3.105 5.544 6.084
3.378 5.600 5.880
3.459 5.653 5.828
3.805 5.601 5.470
3.128 5.876 6.203
3.274 5.902 5.864
3.597 5.964 5.694
3.559 5.947 5.453
3.799 6.013 5.365
3.185 6.281 6.038
3.490 6.241 5.668
3.582 6.374 5.398
4.775 1.031 5.259
4.955 1.037 4.986
5.039 1.223 4.773
5.280 1.064 4.564
4.018 1.098 6.369
4.885 1.396 5.166
4.990 1.287 4.905
5.184 1.342 4.749
3.816 1.392 6.186
5.205 1.729 4.698
5.192 1.798 5.120
5.433 1.806 4.735
5.400 2.029 4.724
4.335 2.714 5.713
4.669 2.673 5.654
4.440 3.106 5.916
4.589 3.212 5.495
4.588 3.031 5.250
4.847 3.133 5.129
5.203 3.204 4.876
4.256 3.425 5.855
4.557 3.386 5.508
4.762 3.350 5.276
4.806 3.580 5.177
4.918 3.654 4.764
4.168 3.603 5.947
4.508 3.574 5.531
4.507 3.736 5.388
4.651 3.800 5.140
4.949 3.748 4.951
4.452 3.990 5.677
4.402 4.058 5.413
4.673 4.004 5.263
5.003 4.018 5.001
4.381 4.135 5.505
4.505 4.412 5.486
4.684 4.226 5.072
4.934 4.531 5.018
4.269 4.530 5.342
4.464 4.595 5.276
4.795 4.641 4.857
4.515 4.996 5.089
4.610 5.065 5.026
3.630 5.950 5.912
3.784 5.939 5.638
4.099 6.014 5.362
4.188 6.100 5.105
3.608 6.227 5.916
4.916 1.062 5.531
5.046 1.159 5.144
5.272 1.008 5.155
5.396 1.141 4.826
4.782 1.397 5.529
5.191 1.270 5.323
5.259 1.318 5.090
5.387 1.511 4.701
5.195 1.752 5.116
5.498 1.881 4.917
5.252 1.700 5.427
5.489 1.719 5.187
5.515 1.779 5.137
4.731 3.236 5.867
4.986 3.288 5.574
5.051 3.225 5.368
5.238 3.330 5.023
4.554 3.326 5.962
4.730 3.429 5.846
4.770 3.345 5.647
5.184 3.463 5.256
5.139 3.530 4.983
4.580 3.728 5.893
4.762 3.651 5.860
4.712 3.646 5.527
5.116 3.707 5.288
5.262 3.794 5.124
4.436 3.871 6.116
4.443 4.018 5.798
4.823 4.068 5.517
4.804 4.118 5.400
5.195 4.271 5.139
4.376 4.345 5.710
4.682 4.394 5.630
4.979 4.284 5.409
5.098 4.438 5.236
4.367 4.693 5.759
4.741 4.521 5.677
4.831 4.677 5.332
4.994 4.627 5.123
4.443 5.065 5.524
4.782 5.053 5.266
4.966 4.950 5.251
4.205 6.202 5.628
4.386 6.282 5.403
4.617 6.086 5.222
5.030 1.089 5.955
5.231 1.035 5.797
5.277 1.151 5.382
5.424 1.234 5.177
5.814 1.277 4.916
5.221 1.345 5.797
5.281 1.317 5.556
5.384 1.563 5.360
5.719 1.637 5.125
5.279 1.666 5.585
5.392 1.661 5.218
5.480 1.808 5.025
5.272 1.789 5.929
5.386 1.804 5.603
5.565 1.752 5.510
5.831 1.904 5.211
5.432 2.026 5.722
5.150 3.220 5.694
5.273 3.357 5.588
5.618 3.236 5.334
4.866 3.398 5.930
5.097 3.570 5.827
5.178 3.689 5.620
5.473 3.509 5.243
4.904 3.625 5.971
4.944 3.694 5.717
5.154 3.957 5.447
5.364 3.848 5.347
4.740 4.117 6.254
4.868 4.027 5.955
4.923 4.218 5.694
5.149 4.139 5.561
5.341 4.236 5.281
4.624 4.274 6.185
4.819 4.228 5.887
4.898 4.399 5.638
5.104 4.531 5.478
5.320 4.478 5.408
4.566 4.475 6.194
4.715 4.721 5.955
4.781 4.608 5.885
5.086 4.855 5.500
5.114 4.704 5.358
4.673 4.831 6.133
4.816 4.988 5.780
4.965 5.108 5.563
5.167 5.184 5.263
4.687 6.118 5.485
4.875 6.306 5.460
5.125 1.097 6.238
5.403 1.133 5.842
5.679 1.159 5.746
5.750 1.336 5.525
6.061 1.351 5.212
5.048 1.379 6.222
5.308 1.420 5.842
5.525 1.344 5.575
5.607 1.398 5.425
5.958 1.433 5.280
5.238 1.743 6.010
5.349 1.715 5.759
5.751 1.919 5.468
5.871 1.786 5.188
5.553 1.697 6.041
5.728 1.922 5.890
5.818 1.796 5.712
6.058 1.937 5.417
5.494 2.021 6.216
5.537 2.157 5.856
5.699 3.250 5.701
5.874 3.381 5.374
5.244 3.443 5.843
5.541 3.722 5.682
5.788 3.598 5.539
5.071 3.884 6.065
5.184 3.953 5.996
5.460 3.797 5.666
5.673 3.972 5.464
5.090 4.013 6.155
5.248 4.226 5.813
5.507 4.164 5.740
5.465 4.360 5.449
4.926 4.347 6.157
5.280 4.317 6.004
5.425 4.562 5.847
5.411 4.523 5.525
4.863 4.703 6.290
4.967 4.751 5.885
5.161 4.824 5.849
5.521 4.768 5.567
4.726 5.050 6.233
4.910 4.960 5.849
5.254 5.001 5.865
4.694 5.268 6.209
5.223 6.150 5.423
5.531 1.092 5.954
5.863 1.115 5.841
5.955 1.323 5.644
6.102 1.251 5.385
5.668 1.459 5.949
5.786 1.627 5.719
5.861 1.529 5.502
6.246 1.650 5.317
5.555 1.683 6.031
5.753 1.848 5.801
6.004 1.823 5.699
5.952 1.867 5.370
5.848 1.910 6.371
5.904 1.742 5.923
6.091 1.847 5.870
5.797 2.136 5.993
5.876 3.472 5.730
5.862 3.766 5.880
5.874 3.769 5.612
5.483 3.969 6.036
5.575 3.988 5.867
5.749 4.044 5.714
5.473 4.111 6.091
5.559 4.286 5.982
5.788 4.193 5.749
5.415 4.545 6.209
5.623 4.607 5.915
5.786 4.643 5.613
5.255 4.749 6.273
5.462 4.741 5.855
5.123 5.158 6.093
5.879 1.120 6.303
6.104 1.316 6.105
6.150 1.344 5.686
5.697 1.374 6.364
6.023 1.470 5.986
6.147 1.646 5.769
5.850 1.915 6.216
5.845 1.893 6.142
5.998 1.968 5.858
6.307 3.116 5.335
6.220 3.492 5.295
6.075 3.798 5.346
6.134 4.139 5.164
6.089 3.960 5.456
6.097 4.024 5.235
5.920 4.268 5.433
6.041 5.950 4.990
6.276 5.934 4.920
5.852 6.079 5.365
6.027 6.161 5.070
6.056 6.288 4.858
5.689 6.204 5.160
6.147 4.186 5.498
6.108 5.890 5.563
6.237 5.934 5.245
6.043 5.917 5.333
5.999 6.127 5.411
6.193 6.262 5.320
5.921 6.145 5.804
5.912 6.161 5.484
6.189 6.200 5.698
6.163 6.243 5.841
6.325 6.168 5.717
5.175 1.709 3.796
5.106 1.867 3.579
5.517 1.711 3.461
5.541 1.808 3.062
5.743 1.839 2.959
5.171 1.680 3.718
5.050 1.975 3.692
5.128 1.983 3.578
5.344 2.193 3.354
5.479 2.214 3.088
5.678 2.114 2.873
5.810 2.279 2.751
4.914 1.911 3.926
4.887 2.010 3.760
4.804 2.412 3.843
5.190 2.382 3.564
5.351 2.306 3.388
5.491 2.443 3.240
5.780 2.492 2.925
5.858 2.443 2.742
4.657 2.253 4.131
5.028 2.284 3.937
4.935 2.727 3.741
5.004 2.535 3.579
5.115 2.738 3.239
5.484 2.773 3.135
5.522 2.676 3.028
5.795 2.943 2.748
5.981 2.811 2.315
4.928 2.529 3.744
4.907 2.867 3.955
5.026 2.938 3.561
5.109 2.881 3.499
5.383 3.143 3.121
5.628 3.167 2.889
5.780 3.145 2.628
5.951 3.158 2.557
4.906 2.883 3.964
4.967 3.187 3.496
5.013 3.226 3.265
5.161 3.419 3.037
5.494 3.368 2.795
5.722 3.356 2.807
5.769 3.392 2.338
5.164 3.756 3.221
5.292 3.594 2.884
5.634 3.708 2.632
4.437 4.791 3.849
4.509 4.784 3.558
4.881 4.719 3.519
4.910 4.740 3.201
6.126 5.042 1.531
4.344 4.537 3.860
4.293 4.908 3.874
4.590 4.995 3.558
4.798 4.948 3.356
4.867 4.989 3.262
5.087 5.021 2.904
5.178 5.250 2.767
6.327 5.360 1.642
4.325 4.988 4.050
4.348 4.896 3.861
4.390 5.359 3.830
4.462 5.227 3.567
4.581 5.433 3.478
4.802 5.405 3.230
4.922 5.528 3.112
5.217 5.593 2.749
6.075 5.839 1.611
4.228 5.193 4.230
4.438 5.341 4.049
4.278 5.552 4.026
4.312 5.663 3.767
4.532 5.568 3.581
4.705 5.651 3.310
4.884 5.850 2.970
5.048 5.660 2.732
5.319 5.937 2.504
6.137 5.899 1.711
6.283 5.977 1.419
4.243 5.644 3.836
4.136 5.804 3.918
4.478 5.891 3.793
4.475 5.857 3.410
4.795 6.037 3.250
4.996 5.972 2.942
5.014 5.995 2.920
5.362 6.147 2.585
4.299 5.931 4.066
4.254 6.266 3.637
4.534 6.131 3.520
4.613 6.393 3.346
5.370 1.596 3.519
5.594 1.671 3.420
5.065 1.821 3.874
5.135 1.763 3.618
5.403 1.752 3.315
5.512 1.889 3.043
5.835 2.042 2.877
4.952 1.864 3.806
5.212 1.862 4.082
5.442 1.866 3.662
5.637 1.816 3.388
5.881 1.954 3.162
5.005 1.857 4.169
5.331 1.795 4.018
5.230 2.000 3.865
5.333 2.019 3.860
5.591 2.114 3.618
5.879 2.270 3.296
6.055 2.267 3.160
5.112 2.045 4.312
5.325 1.997 3.989
5.253 2.340 3.909
5.398 2.368 3.657
5.627 2.373 3.640
5.805 2.497 3.198
5.881 2.544 3.154
6.000 2.703 2.817
5.278 2.344 3.975
5.022 2.646 3.992
5.309 2.757 3.893
5.439 2.734 3.578
5.580 2.697 3.234
5.846 2.728 3.033
5.994 2.906 2.796
6.229 2.906 2.639
5.025 2.787 3.929
5.181 3.107 3.764
5.344 3.136 3.455
5.674 3.087 3.325
5.846 3.026 3.024
5.886 3.139 2.911
6.192 3.267 2.593
5.412 3.252 3.665
5.567 3.263 3.402
5.705 3.421 3.007
5.997 3.381 2.913
6.189 3.644 2.583
6.195 3.528 2.344
5.392 3.657 3.375
5.702 3.724 3.035
5.918 3.754 2.858
6.049 3.863 2.695
6.259 3.914 2.337
5.759 4.160 2.984
6.076 4.169 2.655
6.203 4.166 2.354
5.950 4.462 2.367
6.344 4.417 2.143
4.621 4.173 4.283
4.648 4.367 4.170
6.270 4.715 2.200
4.438 4.267 4.428
4.774 4.400 4.145
4.619 4.753 4.221
4.950 4.882 3.833
5.028 4.888 3.685
4.603 4.748 4.323
4.754 4.824 4.178
4.480 5.092 3.991
4.892 5.145 3.810
4.985 5.043 3.512
5.103 5.091 3.524
5.386 5.239 3.283
6.342 5.471 2.124
4.373 5.021 4.269
4.512 4.980 4.044
4.540 5.380 3.989
4.708 5.463 3.797
4.958 5.253 3.712
5.037 5.428 3.507
5.152 5.464 3.172
5.365 5.492 2.832
4.235 5.200 4.423
4.663 5.420 4.244
4.511 5.676 4.030
4.711 5.686 3.892
4.792 5.565 3.571
5.002 5.824 3.343
5.198 5.782 3.305
5.447 5.768 2.836
4.525 5.478 3.997
4.645 5.984 3.812
4.890 6.040 3.591
5.071 5.993 3.461
5.054 6.066 3.281
5.241 6.076 3.025
5.441 6.069 2.720
4.571 6.240 3.996
4.704 6.319 3.766
5.103 1.155 4.204
5.258 1.397 3.850
5.572 1.662 3.689
5.206 1.441 4.128
5.286 1.595 4.007
5.268 1.791 3.925
5.527 1.811 3.745
5.601 1.945 3.552
5.750 2.006 3.309
5.100 1.669 4.115
5.260 1.699 4.079
5.399 1.726 4.141
5.722 1.792 3.929
5.972 1.988 3.751
5.406 1.766 4.294
5.620 1.702 4.103
5.420 2.100 4.067
5.763 2.038 3.866
5.790 2.253 3.772
5.933 2.289 3.417
5.186 2.158 4.335
5.437 2.190 4.185
5.397 2.345 4.228
5.566 2.458 3.994
5.631 2.492 3.704
5.889 2.506 3.570
6.084 2.689 3.356
5.370 2.323 4.250
5.524 2.652 3.988
5.788 2.769 3.664
5.787 2.765 3.401
6.123 2.951 3.399
6.289 3.050 3.006
5.672 3.064 3.855
5.938 3.230 3.490
6.036 3.240 3.396
6.155 3.328 3.124
5.646 3.509 3.570
5.874 3.548 3.373
5.997 3.612 3.147
5.800 3.671 3.390
5.940 3.875 3.113
6.211 3.949 2.889
5.877 4.116 3.183
6.302 4.164 2.854
4.783 3.763 4.586
4.964 4.047 4.192
6.111 4.535 2.916
4.858 4.070 4.363
5.040 4.096 4.293
4.883 4.426 4.144
5.222 4.383 4.130
6.149 4.695 2.936
6.214 4.893 2.580
4.674 4.279 4.386
4.962 4.478 4.186
4.821 4.811 4.209
5.176 4.920 3.970
5.205 4.752 3.856
6.116 4.968 2.706
4.638 4.769 4.430
4.844 4.749 4.301
4.736 4.953 4.179
5.071 5.066 4.059
5.250 5.099 3.732
4.753 5.051 4.480
4.728 5.170 4.245
4.833 5.391 4.312
4.956 5.450 4.071
5.178 5.332 3.708
5.415 5.410 3.493
4.524 5.200 4.406
4.756 5.453 4.188
5.007 5.571 4.079
5.174 5.756 3.780
5.229 5.749 3.605
5.489 5.764 3.501
4.987 6.022 3.982
5.199 6.145 3.535
5.462 6.134 3.457
5.666 6.249 3.101
5.683 6.276 2.905
5.712 1.212 4.278
5.410 1.190 4.422
5.748 1.235 4.106
5.631 1.602 4.289
5.733 1.461 3.843
5.501 1.435 4.356
5.458 1.415 4.085
5.397 1.717 4.091
5.773 1.980 3.927
5.970 1.996 3.616
5.423 1.648 4.374
5.609 1.781 4.106
5.746 1.786 4.367
5.916 1.809 4.052
5.512 1.899 4.561
5.664 1.961 4.353
5.581 2.125 4.421
5.839 2.299 4.127
5.452 2.089 4.575
5.706 2.053 4.338
6.141 3.611 3.397
5.986 3.766 3.604
6.270 3.970 3.322
5.134 3.470 4.643
5.180 4.030 4.506
6.105 4.072 3.372
5.232 3.874 4.751
5.423 4.018 4.442
5.120 4.239 4.487
6.053 4.446 3.276
5.145 4.090 4.663
5.207 4.134 4.517
5.233 4.383 4.505
5.349 4.646 4.197
6.306 4.656 3.163
4.913 4.480 4.763
5.203 4.466 4.486
5.131 4.747 4.350
5.189 4.745 4.155
6.202 4.948 2.953
4.957 4.847 4.749
5.213 4.707 4.429
5.009 4.960 4.350
5.150 5.205 4.139
4.956 5.053 4.698
4.982 5.108 4.431
5.968 1.222 4.435
5.970 1.409 4.022
5.639 1.345 4.599
5.972 1.224 4.300
5.769 1.447 4.273
6.079 1.653 4.104
5.637 1.627 4.627
5.692 1.686 4.461
5.872 1.748 4.387
5.909 1.807 4.112
5.623 1.801 4.603
5.754 1.894 4.309
6.071 1.816 4.554
5.900 1.966 4.860
5.895 1.874 4.646
5.572 3.221 4.872
5.641 3.755 4.614
5.420 3.500 4.889
5.620 3.565 4.691
5.589 4.079 4.572
5.308 4.013 4.956
5.631 3.990 4.563
5.402 4.224 4.713
5.342 4.091 4.867
5.541 4.229 4.640
5.352 4.468 4.597
5.271 4.539 4.831
5.482 4.459 4.614
5.267 4.961 4.785
5.059 4.800 4.996
5.392 4.894 4.651
5.184 5.066 4.812
6.141 1.433 4.413
5.886 1.380 4.765
6.192 1.260 4.586
6.052 1.481 4.457
5.843 1.542 4.758
6.164 1.740 4.633
6.025 1.979 4.495
5.866 1.939 4.682
6.079 1.986 4.611
6.149 2.029 4.959
5.774 3.366 4.846
5.768 3.363 5.024
5.891 3.399 4.748
5.808 3.582 4.751
5.694 3.609 5.163
5.839 3.647 4.694
5.652 3.907 4.886
5.990 4.106 4.661
5.701 3.981 5.073
5.857 3.934 4.920
5.737 4.175 4.767
5.553 4.218 5.029
5.607 4.169 4.781
5.765 4.493 4.856
5.435 4.610 5.043
5.670 4.446 4.849
5.278 4.846 4.951
6.223 1.264 5.003
6.306 1.565 4.608
5.959 1.669 4.919
6.194 1.730 4.758
6.064 1.811 4.987
6.198 3.084 4.889
6.090 2.985 5.161
6.090 3.074 5.073
6.112 3.457 4.877
5.839 3.392 5.111
6.207 3.461 5.085
6.183 3.814 5.102
6.256 3.749 4.759
5.855 3.815 5.269
6.114 3.788 5.057
6.000 3.952 4.969
6.296 4.197 4.807
5.850 3.916 5.321
6.080 4.010 5.100
6.050 4.196 5.097
5.731 4.195 5.198
5.940 4.392 5.010
5.706 4.467 5.224
5.580 4.872 5.378
5.758 6.099 4.922
5.813 6.078 4.697
6.137 3.169 5.506
6.051 3.333 5.426
6.151 3.777 5.526
6.162 4.014 5.116
6.042 4.158 5.488
6.098 4.179 5.262
5.986 4.442 5.475
6.149 5.927 5.127
6.114 5.933 4.797
5.922 6.103 5.325
5.860 6.142 5.029
6.084 6.320 4.875
