1.289 5.308 3.882
0.735 6.328 3.866
1.054 6.201 4.135
0.112 6.260 3.926
0.546 5.960 3.904
0.685 5.987 4.074
1.044 5.771 3.961
1.168 5.688 3.872
0.169 5.782 3.647
0.436 5.489 3.782
0.878 5.345 3.874
1.222 5.484 3.630
1.843 6.181 3.901
1.054 6.360 3.702
1.314 5.900 3.794
1.800 6.049 3.607
0.378 6.140 3.706
0.559 6.147 3.689
0.907 5.919 3.738
1.229 5.950 3.403
0.241 5.987 3.391
0.489 5.841 3.442
0.961 5.504 3.328
1.171 5.575 3.425
2.117 6.124 3.535
2.343 6.048 3.208
1.606 6.046 3.400
1.646 6.138 3.332
2.083 5.897 3.163
0.801 6.057 3.329
0.923 5.943 3.350
1.316 5.843 3.401
0.416 6.146 3.138
0.555 5.906 3.137
0.921 5.806 3.128
2.517 6.174 2.971
1.911 6.081 3.111
2.122 6.170 3.049
2.310 5.892 2.828
2.022 6.165 2.502
2.343 6.194 2.566
0.320 4.620 6.387
0.446 4.758 6.084
0.917 4.354 6.337
5.823 4.142 6.251
5.082 4.282 6.143
5.318 4.086 6.088
5.414 4.014 6.279
4.143 3.970 6.220
4.550 4.034 6.326
4.695 4.005 6.070
5.040 3.927 6.086
4.063 3.977 6.242
4.202 3.857 6.233
4.276 3.647 6.024
4.753 3.581 5.926
3.832 4.063 6.082
4.038 3.688 6.140
3.923 3.589 5.886
4.251 3.420 5.902
6.088 2.847 5.561
3.458 3.792 5.915
3.631 3.517 5.848
3.799 3.422 6.124
3.797 3.338 5.805
5.695 2.443 5.478
5.780 2.474 5.591
6.324 2.283 5.492
2.859 3.635 6.117
3.148 3.437 6.013
3.495 3.530 6.028
3.823 3.221 5.902
6.085 4.724 6.313
6.270 4.701 6.144
5.357 4.778 6.295
5.502 4.832 6.022
5.717 4.457 6.253
6.040 4.335 6.171
4.843 4.844 6.113
5.171 4.591 6.006
5.330 4.571 5.993
5.512 4.197 6.034
5.926 4.124 6.088
4.324 4.606 5.899
4.637 4.254 5.907
4.942 4.297 5.819
5.091 4.142 5.919
5.596 4.206 6.010
5.977 3.792 5.972
2.770 5.283 6.125
4.452 4.481 5.978
4.116 4.398 5.744
4.531 4.106 5.991
4.768 4.028 5.817
5.265 3.799 5.791
5.464 3.928 5.787
4.223 4.264 5.802
3.992 4.065 5.952
4.247 3.825 5.795
4.819 3.759 5.548
5.114 3.761 5.697
3.726 4.172 5.772
3.969 3.988 5.655
3.873 3.728 5.840
4.132 3.485 5.782
3.978 3.650 5.625
5.252 5.134 6.139
5.743 5.059 6.016
6.003 5.078 6.059
5.039 5.080 5.775
5.315 5.049 6.030
5.458 4.976 6.017
5.763 4.617 5.855
6.040 4.564 5.759
2.910 5.919 6.180
4.535 4.902 5.675
4.829 4.652 5.772
5.096 4.691 5.613
5.302 4.495 5.900
5.569 4.602 5.626
5.913 4.344 5.762
3.025 5.445 5.905
4.480 4.934 5.948
4.312 4.734 5.670
4.675 4.453 5.656
4.799 4.316 5.519
5.254 4.448 5.616
5.560 4.199 5.732
5.996 4.113 5.556
2.937 5.194 5.859
4.459 4.493 5.683
4.076 4.460 5.500
4.512 4.149 5.476
4.949 4.285 5.465
5.044 4.180 5.587
5.371 3.824 5.406
5.754 3.880 5.531
2.838 4.994 5.745
4.330 4.301 5.763
4.167 3.951 5.330
4.314 3.901 5.355
4.636 4.006 5.282
5.002 3.842 5.538
5.445 3.623 5.408
4.197 4.247 5.648
5.153 5.524 5.897
5.308 5.448 5.749
4.710 5.275 5.604
4.941 5.339 5.639
5.380 4.932 5.633
5.365 4.904 5.680
5.832 4.746 5.395
4.530 5.476 5.680
4.662 5.181 5.678
4.628 4.995 5.573
4.958 4.665 5.528
5.262 4.760 5.603
5.727 4.672 5.360
6.017 4.396 5.220
3.091 5.760 5.622
4.320 4.988 5.440
4.453 4.934 5.484
4.648 4.601 5.466
4.911 4.412 5.517
5.388 4.535 5.227
5.689 4.310 5.259
5.984 4.157 5.086
2.834 5.376 5.508
4.312 4.871 5.252
4.150 4.601 5.216
4.579 4.427 5.154
4.793 4.300 5.343
5.036 4.106 5.185
5.349 4.135 4.992
5.877 3.855 5.169
2.538 5.158 5.312
4.198 4.365 5.362
4.258 3.969 5.039
4.735 4.106 5.156
4.906 3.882 5.102
5.168 3.880 5.095
5.589 3.590 5.052
2.691 4.768 5.236
4.700 6.285 5.761
4.870 5.873 5.400
5.221 5.775 5.457
5.479 5.425 5.362
4.445 5.719 5.368
4.906 5.790 5.438
4.645 5.542 5.227
4.798 5.451 5.388
5.350 5.232 5.284
5.677 5.021 5.369
4.227 5.667 5.421
4.649 5.296 5.495
4.452 5.221 5.238
4.878 4.940 5.095
5.213 4.779 5.242
5.361 4.902 5.188
5.713 4.854 5.164
4.427 5.026 5.254
4.282 4.842 5.248
4.512 4.613 5.055
4.936 4.704 5.054
5.242 4.600 5.076
5.515 4.263 5.085
5.862 4.310 4.866
2.842 5.352 5.126
4.211 4.756 5.101
4.470 4.662 4.936
4.849 4.361 5.058
5.253 4.112 4.871
5.362 4.304 4.888
5.825 3.911 4.718
2.631 5.308 5.067
2.876 5.241 5.267
4.665 3.933 4.636
5.166 4.151 4.617
5.271 3.751 4.796
5.802 3.646 4.684
6.021 3.569 4.660
2.511 4.781 4.925
3.017 4.859 4.930
5.104 3.502 4.610
5.404 3.387 4.722
5.852 3.403 4.581
2.617 4.796 4.949
2.783 4.660 5.030
4.962 6.187 5.447
4.497 6.375 5.453
4.758 6.262 5.266
4.650 5.924 5.088
4.925 5.855 5.017
4.054 6.084 5.401
4.554 6.166 5.032
4.630 5.844 5.248
4.499 5.748 5.052
4.926 5.421 5.056
5.296 5.219 4.874
4.390 5.886 5.204
4.735 5.726 4.968
4.672 5.353 5.092
4.734 5.231 4.832
5.213 4.947 4.743
5.298 5.009 4.968
4.638 5.312 4.783
4.832 4.853 4.816
5.078 4.893 4.772
5.218 4.802 4.794
5.551 4.406 4.530
4.806 4.537 4.586
5.125 4.407 4.626
5.322 4.399 4.595
5.821 4.011 4.410
2.684 5.323 4.933
3.119 5.243 4.781
5.036 4.068 4.416
5.483 4.143 4.258
5.515 3.955 4.380
6.037 3.834 4.522
2.662 5.088 4.632
2.881 4.999 4.798
3.141 4.729 4.736
5.083 3.683 4.137
5.492 3.744 4.115
5.842 3.473 4.404
6.156 3.510 4.068
2.339 4.634 4.490
2.937 4.607 4.430
3.028 4.698 4.442
3.443 4.330 4.686
5.473 3.211 4.165
5.579 3.231 4.119
5.947 3.074 4.248
2.189 4.344 4.405
2.540 4.464 4.579
2.936 4.142 4.310
3.326 4.243 4.415
3.618 4.070 4.195
4.996 6.443 4.945
4.955 6.293 4.910
4.953 5.842 4.803
4.154 6.091 5.093
4.492 6.122 4.800
4.668 5.851 4.851
4.797 5.894 4.670
4.214 6.112 4.782
4.202 5.956 4.837
4.576 5.734 4.684
5.526 4.154 4.167
5.520 3.934 4.208
6.062 3.789 4.124
2.556 5.300 4.350
3.027 5.063 4.478
3.089 4.883 4.268
3.683 5.005 4.227
5.233 3.824 3.951
5.676 3.666 4.078
6.024 3.694 4.035
6.326 3.479 3.972
2.647 4.912 4.409
2.835 4.650 4.317
3.051 4.517 4.092
3.540 4.700 4.204
3.768 4.383 4.056
3.780 3.976 3.980
5.583 3.570 3.811
5.728 3.384 3.848
6.124 3.121 3.742
2.312 4.602 4.124
2.821 4.571 4.064
2.935 4.430 4.086
3.301 4.409 4.025
3.431 4.118 4.187
3.785 3.870 3.968
4.708 6.194 4.731
4.553 6.353 4.460
4.910 5.964 4.392
3.766 6.133 4.614
3.978 5.958 4.546
5.845 3.838 3.776
3.029 5.225 4.052
3.166 4.923 4.007
3.450 4.983 3.965
4.035 4.798 3.836
4.054 4.361 3.813
5.464 3.916 3.830
5.996 3.642 3.671
6.085 3.420 3.476
2.655 4.931 3.834
2.918 4.954 3.854
3.171 4.908 4.094
3.462 4.556 3.896
3.760 4.479 3.936
4.051 4.349 3.753
3.987 4.045 3.826
5.329 3.565 3.476
5.635 3.537 3.360
5.979 3.292 3.629
2.348 4.763 3.893
2.755 4.695 3.712
2.980 4.614 3.961
3.455 4.433 3.623
3.624 4.115 3.797
3.752 4.160 3.842
6.105 5.328 3.905
4.199 4.958 3.567
3.416 5.338 3.694
3.417 5.039 3.581
3.843 5.097 3.723
4.277 5.019 3.549
4.036 4.632 3.459
5.909 3.867 3.486
6.033 3.696 3.211
2.815 5.145 3.616
3.236 5.065 3.692
3.470 4.882 3.732
3.897 4.650 3.590
3.888 4.589 3.507
3.978 4.230 3.475
5.412 3.837 3.353
5.888 3.395 3.115
6.237 3.533 3.093
2.314 4.854 3.530
2.682 4.845 3.382
3.088 4.639 3.356
3.351 4.621 3.449
3.679 4.499 3.332
3.904 4.211 3.576
5.967 6.037 3.867
5.762 5.744 3.608
5.993 5.473 3.737
6.261 5.440 3.821
5.394 5.494 3.533
5.683 5.264 3.477
5.214 5.380 3.649
5.200 5.248 3.634
4.498 5.137 3.339
4.621 4.997 3.504
5.036 5.051 3.549
4.391 5.355 3.571
4.258 5.133 3.224
4.530 4.922 3.134
3.702 5.356 3.560
4.020 4.970 3.504
4.211 4.846 3.316
3.923 4.535 3.089
4.463 4.590 3.145
6.145 3.820 2.975
3.036 5.015 3.467
3.409 4.985 3.115
3.896 4.811 3.378
4.103 4.842 3.362
4.000 4.586 3.250
5.764 3.522 2.972
6.202 3.729 2.975
2.734 4.802 3.386
3.045 4.941 3.062
3.425 4.640 3.076
3.812 4.669 3.082
4.024 4.289 3.227
5.823 6.041 3.407
6.242 5.989 3.554
5.248 5.990 3.415
5.664 5.891 3.501
5.965 5.569 3.415
6.363 5.654 3.450
4.920 5.824 3.254
5.288 5.807 3.425
5.661 5.696 3.175
5.983 5.572 3.307
6.235 5.482 3.337
4.375 5.622 3.106
4.603 5.709 3.246
4.981 5.245 3.041
5.512 5.192 3.106
5.847 5.120 3.047
3.037 6.274 3.569
4.506 5.731 3.430
4.282 5.390 3.132
4.745 5.223 2.961
4.947 5.150 3.066
5.424 4.984 2.940
4.296 5.300 3.003
4.179 5.106 3.055
4.562 4.963 2.876
4.671 4.880 3.141
3.935 5.169 2.914
4.286 5.046 3.199
4.134 4.726 2.804
4.337 4.724 2.803
3.540 4.926 3.110
3.921 4.899 3.062
4.112 4.824 2.795
6.171 3.706 2.506
3.523 4.666 2.712
3.581 4.530 2.759
5.757 6.206 3.203
5.956 6.211 3.193
4.878 6.318 3.148
5.412 6.111 3.304
5.540 5.847 3.227
5.834 5.936 3.052
6.198 5.864 2.886
4.499 6.036 3.262
5.073 5.994 3.039
5.146 5.745 3.050
5.579 5.864 3.106
6.003 5.596 2.922
5.992 5.314 2.821
4.719 6.173 3.210
4.384 5.748 2.904
4.682 5.662 2.978
4.999 5.672 2.892
5.409 5.337 2.899
5.808 5.406 2.895
6.091 5.162 2.677
4.535 5.653 3.115
4.386 5.613 2.748
4.747 5.294 2.779
5.015 5.204 2.915
5.143 5.268 2.743
5.578 4.902 2.811
2.939 6.113 3.000
4.194 5.670 2.825
4.293 5.177 2.637
4.369 5.073 2.751
4.706 4.861 2.619
5.180 4.991 2.598
4.269 5.056 2.706
4.379 4.677 2.718
5.313 6.322 2.818
5.560 6.199 2.740
5.999 5.988 2.928
4.519 6.105 2.893
5.043 6.202 2.863
5.292 6.085 2.736
5.427 5.835 2.756
5.861 5.611 2.488
6.054 5.732 2.558
4.546 6.029 2.806
4.666 6.010 2.611
4.707 5.963 2.632
5.009 5.568 2.452
5.430 5.497 2.493
5.700 5.349 2.616
6.124 5.415 2.476
4.441 5.992 2.690
4.334 5.502 2.386
4.532 5.432 2.412
5.003 5.430 2.411
5.410 5.385 2.330
5.557 5.137 2.247
5.967 4.930 2.388
2.803 6.316 2.612
4.346 5.570 2.529
4.401 5.190 2.379
4.970 4.978 2.458
5.000 4.908 2.467
5.433 4.822 2.267
2.574 5.831 2.542
5.573 2.182 6.168
5.774 2.126 6.206
6.067 2.176 6.107
6.201 2.958 6.045
3.899 3.455 6.107
5.896 2.662 6.231
5.991 2.595 6.067
3.885 3.296 6.356
3.904 3.243 6.025
5.158 2.718 5.846
5.762 2.469 6.061
5.920 2.449 5.931
6.178 2.287 5.730
2.975 3.354 6.159
3.105 3.235 6.382
3.534 3.398 6.303
3.712 3.080 6.135
5.856 4.153 6.414
5.016 4.072 6.412
5.372 4.018 6.169
5.501 3.999 6.228
4.308 4.228 6.055
4.442 3.901 6.233
4.976 3.859 6.250
5.234 3.915 6.150
4.259 3.964 6.133
3.993 3.715 5.918
4.206 3.714 5.987
4.515 3.623 5.952
3.672 3.909 6.206
4.111 3.964 6.104
3.832 3.719 5.840
4.084 3.400 5.999
5.932 2.543 5.640
3.399 3.877 6.169
3.653 3.605 6.172
3.974 3.503 5.911
3.650 3.417 5.677
5.526 2.614 5.625
6.019 2.564 5.638
6.100 2.480 5.604
3.002 3.797 5.997
3.253 3.556 5.802
3.616 3.265 5.716
3.872 3.300 5.764
2.274 6.307 2.466
2.280 5.853 2.321
2.463 6.175 1.812
4.991 6.153 0.498
5.459 6.280 0.330
4.314 6.340 0.167
4.594 6.074 0.370
4.873 5.872 0.217
4.429 6.179 0.350
4.117 5.801 0.048
4.547 5.863 0.060
3.678 6.299 0.237
3.935 6.056 0.339
4.348 5.786 0.083
4.263 5.675 0.188
3.264 5.944 0.085
3.406 5.833 -0.047
3.726 5.705 -0.014
3.947 5.584 0.018
5.510 6.193 2.367
4.813 6.190 2.583
5.150 6.145 2.258
5.622 5.830 2.294
5.815 5.916 2.307
4.371 5.867 2.373
4.979 5.880 2.393
5.197 5.958 2.382
5.376 5.582 2.227
5.689 5.430 2.140
5.871 5.301 2.096
4.540 5.865 2.431
4.760 5.563 2.256
4.953 5.459 2.272
5.380 5.471 2.028
5.755 5.306 2.039
5.782 5.141 2.203
3.133 6.368 2.275
5.034 5.079 2.035
5.261 5.063 2.088
5.478 5.047 1.844
5.936 4.816 1.993
2.856 6.032 2.302
2.994 5.883 2.120
5.368 4.714 1.907
5.738 4.548 1.679
2.493 5.677 2.122
5.253 6.298 2.053
5.670 6.023 2.044
5.003 5.926 2.164
5.234 6.088 1.925
5.303 5.923 1.908
5.788 5.562 1.868
4.914 5.762 1.943
5.349 5.574 1.732
5.568 5.356 1.934
6.021 5.201 1.628
5.076 5.310 1.721
5.545 5.093 1.585
5.841 5.007 1.530
6.155 4.707 1.616
2.732 6.248 2.021
3.034 6.115 1.857
5.449 4.745 1.624
5.753 4.709 1.620
6.130 4.636 1.362
2.478 5.837 1.933
3.062 5.751 1.804
3.063 5.749 1.890
5.605 4.472 1.566
5.843 4.250 1.385
6.329 4.114 1.319
2.813 5.384 1.734
3.152 5.341 1.651
3.585 5.190 1.470
5.479 5.586 1.613
5.938 5.516 1.394
5.403 5.189 1.202
5.677 5.012 1.475
5.963 4.875 1.170
2.938 6.256 1.673
3.311 6.077 1.667
5.271 5.108 1.116
5.544 5.003 1.168
6.082 4.687 1.114
2.803 5.958 1.490
3.038 5.780 1.636
3.387 5.904 1.649
3.668 5.586 1.373
3.902 5.445 1.389
5.625 4.471 1.013
6.016 4.364 1.188
6.134 4.215 0.853
2.479 5.822 1.574
2.967 5.753 1.454
3.068 5.505 1.204
3.306 5.562 1.457
3.641 5.278 1.451
5.700 5.372 1.130
6.253 4.990 1.132
3.451 6.293 1.233
3.752 6.072 1.230
5.586 5.075 0.855
6.131 4.838 0.711
2.799 6.022 1.140
2.971 6.173 1.084
3.430 5.774 1.049
3.501 5.805 1.018
3.956 5.747 1.184
3.942 5.292 0.812
5.602 4.659 0.668
5.794 4.574 0.864
6.161 4.274 0.746
2.549 6.043 1.216
2.961 5.673 1.143
2.988 5.578 0.916
3.435 5.543 1.149
3.777 5.269 0.963
4.096 5.341 1.000
6.314 5.181 0.838
3.651 6.196 0.839
4.033 6.238 1.075
4.098 5.805 0.759
5.576 5.076 0.530
5.980 4.991 0.650
2.979 6.242 0.797
3.425 6.021 0.748
3.698 5.981 0.723
3.787 5.968 0.663
4.217 5.711 0.934
4.094 5.258 0.745
5.737 4.895 0.648
6.034 4.803 0.376
6.350 4.590 0.469
2.652 6.054 0.802
2.786 5.838 0.963
3.229 5.604 0.608
3.306 5.609 0.673
3.765 5.518 0.786
4.121 5.369 0.535
4.277 6.185 0.516
4.520 6.130 0.558
3.866 6.074 0.759
4.240 6.259 0.677
4.377 5.710 0.564
6.210 5.056 0.167
3.206 6.078 0.639
3.754 6.130 0.651
3.795 5.869 0.660
4.367 5.773 0.429
4.214 5.400 0.520
5.743 4.811 0.230
6.024 4.671 0.104
6.171 4.772 0.144
2.760 5.892 0.467
3.206 5.755 0.361
3.533 5.707 0.254
3.722 5.500 0.285
4.096 5.541 0.358
4.969 6.104 0.452
5.416 6.008 0.429
4.189 6.161 0.196
4.559 6.151 0.415
5.044 5.862 0.366
4.396 6.267 0.238
4.389 6.054 0.213
4.516 5.966 0.075
3.578 6.150 0.303
4.014 6.068 0.317
4.369 6.106 0.241
3.998 5.583 -0.072
3.187 5.862 0.271
3.520 5.872 0.173
3.844 5.653 0.240
4.036 5.825 0.016
1.758 3.168 5.649
1.276 2.846 5.537
1.593 3.008 5.432
0.777 2.916 5.489
0.952 2.665 5.435
1.185 2.453 5.387
0.146 2.819 5.319
0.592 2.548 5.464
0.953 2.351 5.260
1.244 2.226 5.243
0.341 2.243 5.144
0.343 2.238 5.243
0.722 2.278 5.322
0.135 2.021 5.069
0.447 2.031 5.168
0.339 0.648 4.657
0.063 0.606 4.347
0.403 0.312 4.545
0.357 -0.061 4.446
0.048 4.635 6.052
0.317 4.296 6.054
1.572 3.179 5.827
1.342 3.476 5.574
1.643 3.359 5.556
0.956 3.314 5.188
1.105 3.133 5.145
1.608 3.187 5.215
0.419 3.239 5.216
0.623 3.070 5.128
1.107 3.023 5.017
1.514 2.825 5.147
0.121 2.862 5.169
0.447 2.974 5.215
0.482 2.728 5.197
0.873 2.424 4.944
1.267 2.397 4.882
0.140 2.608 5.148
0.467 2.280 5.040
0.946 2.352 5.032
1.012 2.095 4.760
0.243 2.211 4.801
0.458 2.240 4.863
0.763 1.841 4.858
0.506 0.762 4.357
0.102 0.605 4.140
0.525 0.327 4.046
0.405 0.174 3.969
1.218 3.495 5.382
1.612 3.161 5.329
0.968 3.815 5.105
1.436 3.671 5.151
1.689 3.417 5.187
0.475 3.589 5.211
0.957 3.539 4.921
1.176 3.140 5.086
1.489 3.039 5.108
0.126 3.408 4.954
0.525 3.298 5.061
0.767 3.221 4.753
1.053 3.037 4.816
1.240 3.013 4.790
0.193 3.129 4.768
0.366 2.971 4.858
0.698 2.808 4.646
0.857 2.709 4.910
1.164 2.658 4.652
0.367 2.651 4.685
0.683 2.375 4.655
0.793 2.594 4.791
1.123 2.333 4.642
0.124 2.456 4.694
0.286 2.422 4.697
0.626 2.010 4.464
1.072 2.176 4.411
0.059 0.848 4.142
0.529 1.062 4.070
0.144 0.815 3.914
0.456 0.670 3.794
0.420 0.277 3.825
0.105 0.222 3.596
0.907 3.613 5.155
1.427 3.512 5.256
1.504 3.387 5.059
0.720 4.086 4.934
1.139 3.693 4.729
1.193 3.802 4.648
1.776 3.386 4.905
0.353 3.748 4.738
0.684 3.644 4.934
0.913 3.556 4.585
1.375 3.435 4.581
1.511 3.346 4.609
0.215 3.367 4.664
0.482 3.273 4.597
0.674 3.103 4.561
1.030 3.006 4.714
1.318 2.942 4.440
0.484 3.145 4.437
0.759 2.876 4.494
0.940 2.664 4.416
1.286 2.745 4.322
0.397 2.909 4.290
0.475 2.717 4.225
0.838 2.559 4.411
1.003 2.378 4.422
0.524 2.288 4.132
0.643 2.357 4.346
0.941 2.152 4.072
0.351 1.120 3.835
0.207 0.964 3.580
0.368 0.729 3.529
0.278 0.434 3.448
0.257 0.200 3.294
0.887 3.741 5.034
1.004 3.751 4.863
1.273 3.769 4.956
1.583 3.664 4.870
0.474 4.320 4.475
0.795 3.894 4.482
1.196 3.766 4.683
1.459 3.839 4.646
0.206 3.850 4.465
0.489 3.832 4.435
1.049 3.762 4.250
1.330 3.556 4.420
1.603 3.506 4.389
0.267 3.445 4.381
0.569 3.623 4.411
0.749 3.359 4.402
1.076 3.221 4.297
1.335 3.271 4.180
0.199 3.213 4.179
0.754 2.969 4.010
0.970 3.121 4.189
1.191 2.787 3.954
0.699 2.814 4.028
1.030 2.663 4.121
1.250 2.529 3.891
0.722 2.299 3.862
1.028 2.372 3.723
0.233 0.981 3.312
0.252 0.448 3.310
0.064 0.174 3.004
0.092 0.136 3.027
0.219 4.704 4.936
0.589 4.495 4.575
0.910 4.472 4.829
0.353 4.125 4.589
0.870 3.990 4.542
1.023 4.054 4.649
1.284 3.967 4.499
0.106 4.352 4.279
0.515 4.238 4.333
0.711 4.319 4.359
1.226 3.958 4.097
0.465 3.830 4.035
0.640 3.832 4.179
0.998 3.922 3.971
1.138 3.549 4.222
0.396 3.531 3.975
0.942 3.651 4.137
1.157 3.477 4.099
1.297 3.062 3.821
0.709 3.226 3.865
1.125 2.984 3.978
1.167 3.035 3.793
1.034 2.948 3.859
1.230 2.502 3.696
1.135 2.366 3.623
0.072 0.588 2.606
0.001 0.063 2.626
0.130 4.951 4.627
0.496 4.990 4.418
0.691 4.828 4.573
0.267 4.773 4.619
0.704 4.571 4.331
0.863 4.595 4.429
0.126 4.454 4.174
0.359 4.430 4.193
0.819 4.297 4.238
1.229 4.032 4.284
0.260 4.623 4.102
0.434 4.355 3.842
0.873 4.133 3.843
0.048 5.287 4.433
0.505 5.069 4.113
0.839 4.981 4.279
1.100 4.969 4.345
0.340 4.650 4.292
0.429 4.544 4.139
0.771 4.629 4.204
0.187 4.651 4.143
0.557 4.274 4.022
0.625 4.203 4.117
0.293 4.612 3.658
0.594 4.527 3.867
0.105 5.421 3.891
0.563 5.066 3.963
0.766 4.986 3.798
1.034 4.922 3.858
0.064 4.964 4.033
0.287 4.897 3.836
0.567 4.763 3.646
0.314 4.826 3.635
0.334 4.564 3.609
0.241 4.761 3.584
0.269 2.986 2.909
0.163 2.845 2.575
0.086 5.554 3.706
0.410 5.318 3.615
0.788 5.203 3.652
0.095 5.166 3.619
0.271 4.938 3.646
0.720 4.954 3.554
0.045 4.947 3.312
1.578 4.426 2.838
1.678 3.924 2.878
1.034 4.011 2.725
1.613 3.876 2.850
0.310 3.922 2.794
0.708 3.704 2.722
1.170 3.428 2.528
0.049 3.517 2.455
0.211 3.576 2.535
0.661 3.450 2.517
0.359 3.411 2.484
0.053 2.941 2.479
0.635 1.721 1.679
0.624 1.414 1.658
0.006 1.285 1.793
0.431 1.071 1.459
0.205 5.725 3.393
0.432 5.310 3.357
0.782 5.431 3.247
-0.052 5.231 3.113
0.334 5.064 3.196
1.673 4.312 2.993
1.555 4.393 2.558
1.657 4.356 2.519
0.880 4.499 2.642
1.420 4.343 2.675
1.799 4.297 2.370
0.640 4.375 2.452
0.998 3.947 2.348
1.268 3.913 2.539
1.537 3.870 2.467
0.092 4.016 2.358
0.489 3.803 2.414
0.820 3.684 2.508
1.064 3.661 2.408
1.286 3.729 2.358
-0.092 3.889 2.191
0.307 3.668 2.322
0.816 3.382 2.101
1.053 3.573 2.357
0.326 3.533 2.086
0.482 3.271 1.966
0.253 3.055 1.904
0.625 1.775 1.445
0.047 1.780 1.515
0.614 1.535 1.344
-0.097 1.426 1.429
0.345 1.335 1.422
0.365 0.905 1.282
0.283 0.673 0.997
0.010 5.886 3.105
1.363 4.372 2.644
1.903 4.579 2.550
0.991 4.905 2.344
1.575 4.735 2.287
1.908 4.458 2.263
0.878 4.523 2.396
1.193 4.417 2.299
1.410 4.293 2.372
1.528 4.422 2.175
0.719 4.241 2.112
0.837 4.178 2.142
1.099 4.141 2.220
1.346 3.818 2.039
0.140 4.126 2.264
0.425 4.223 2.066
0.937 4.047 2.034
1.133 3.684 1.845
1.334 3.878 2.027
0.070 3.913 2.034
0.238 3.748 1.869
0.645 3.606 1.858
1.027 3.548 1.806
1.368 3.569 1.736
0.344 3.380 1.801
0.678 3.250 1.718
0.947 3.398 1.635
0.503 2.208 1.285
0.649 1.903 1.328
0.312 1.944 1.055
0.575 1.853 1.096
0.113 1.579 1.150
0.248 1.597 0.921
0.363 1.097 1.018
0.269 1.048 0.771
-0.035 0.593 0.567
1.150 4.901 2.565
1.474 4.673 2.261
1.850 4.574 2.239
0.840 5.006 1.981
1.062 4.772 2.058
1.586 4.959 2.172
1.686 4.628 2.032
0.639 4.933 1.923
0.944 4.656 1.951
1.449 4.432 1.868
1.668 4.553 1.982
0.194 4.609 1.763
0.661 4.555 1.713
0.946 4.421 1.848
1.111 4.119 1.836
1.381 4.126 1.836
0.205 4.283 1.815
0.394 4.215 1.802
0.925 4.034 1.566
1.236 3.907 1.866
1.544 4.001 1.611
0.298 4.088 1.567
0.725 3.874 1.568
0.960 3.808 1.603
1.216 3.507 1.547
0.667 3.510 1.422
0.885 3.547 1.426
1.271 3.420 1.577
0.205 2.462 1.092
0.425 2.436 0.965
0.056 2.092 0.917
0.493 1.851 0.952
-0.071 1.758 0.628
0.415 1.423 0.858
0.433 1.409 0.720
0.054 0.938 0.424
-0.000 0.833 0.275
0.970 5.196 2.138
1.144 5.031 2.243
1.648 4.809 2.086
1.722 4.781 2.121
0.207 2.372 5.453
-0.003 1.942 5.404
1.651 3.128 5.610
1.003 2.979 5.514
1.577 2.951 5.504
0.846 2.679 5.623
1.081 2.798 5.377
1.392 2.685 5.461
0.361 2.806 5.487
0.587 2.407 5.258
0.811 2.475 5.536
1.258 2.403 5.252
0.091 2.388 5.439
0.532 2.163 5.127
0.957 2.074 5.339
0.083 2.028 5.261
0.266 2.110 5.103
0.527 0.788 4.479
0.178 0.620 4.564
0.365 0.229 4.467
0.278 0.227 4.442
-0.103 4.528 6.308
0.164 4.257 6.047
1.502 3.019 5.725
4.331 1.911 5.443
4.729 2.108 5.349
5.061 1.690 5.296
5.170 1.778 5.105
2.060 3.178 5.645
2.160 2.824 5.486
2.542 2.959 5.720
3.821 1.978 5.398
4.211 1.753 5.108
4.460 1.714 5.384
4.870 1.479 5.309
1.667 2.813 5.438
1.920 2.607 5.593
3.604 1.728 5.042
3.659 1.537 5.104
4.138 1.349 5.053
4.365 1.278 5.258
1.600 2.378 5.466
3.124 1.736 5.237
3.348 1.311 5.030
3.526 1.190 5.168
3.812 1.253 5.068
6.041 0.350 4.917
3.186 1.485 5.279
3.022 1.230 5.050
3.211 1.071 4.861
3.532 0.987 4.921
5.695 0.190 4.806
5.972 -0.007 4.497
2.584 1.382 5.117
2.867 1.330 5.126
2.948 0.902 4.963
3.144 0.780 4.859
5.119 0.171 4.610
2.296 1.422 4.959
2.508 1.288 4.866
2.786 0.882 4.987
2.581 0.656 4.605
1.596 1.036 4.798
2.148 1.009 4.842
2.415 0.728 4.947
2.783 0.686 4.803
1.500 1.058 4.798
1.578 0.949 4.667
1.816 0.878 4.652
2.218 0.475 4.821
0.828 0.820 4.607
1.046 0.714 4.481
1.542 0.719 4.493
1.714 0.354 4.412
0.899 0.636 4.490
1.235 0.399 4.518
1.253 0.224 4.564
0.545 0.402 4.571
0.853 0.284 4.533
5.363 2.376 5.392
5.621 2.154 5.639
5.952 2.051 5.465
6.153 1.935 5.298
2.609 3.659 5.829
2.772 3.252 5.832
2.926 3.131 5.939
3.441 3.002 5.909
4.730 2.131 5.454
4.965 2.078 5.349
5.523 2.098 5.272
5.667 1.734 5.496
1.983 3.482 5.939
2.503 3.176 5.904
2.601 2.912 5.537
2.986 3.027 5.794
4.313 1.908 5.370
4.596 2.114 5.292
4.863 1.788 5.371
5.311 1.659 5.195
1.929 2.881 5.745
2.207 2.846 5.491
2.364 2.908 5.444
3.993 2.214 5.284
4.398 2.265 4.976
4.809 1.973 5.162
5.115 1.865 4.840
1.852 3.148 5.232
2.157 3.112 5.490
3.588 2.116 4.925
4.074 1.897 4.855
4.282 1.950 4.797
4.547 1.720 4.763
4.683 1.811 4.846
1.689 2.815 5.281
2.178 2.885 5.214
3.089 2.141 5.111
3.617 1.957 4.800
3.694 1.639 4.951
4.181 1.683 4.659
4.255 1.348 4.782
4.608 1.330 4.807
6.381 0.773 4.579
1.671 2.655 4.940
3.106 1.944 4.896
3.145 1.612 4.813
3.511 1.747 4.751
3.608 1.560 4.780
3.899 1.274 4.830
4.444 1.273 4.777
5.754 0.757 4.669
6.014 0.448 4.335
1.563 2.265 4.838
3.103 1.560 4.747
2.788 1.505 4.565
3.334 1.409 4.735
3.598 1.364 4.758
3.980 1.246 4.458
4.172 0.896 4.543
5.802 0.386 4.556
6.016 0.265 4.210
2.936 1.574 4.627
2.768 1.241 4.708
2.974 0.873 4.492
3.357 0.994 4.614
5.446 -0.087 4.188
2.384 1.416 4.670
2.705 1.012 4.444
0.632 0.594 4.327
1.255 0.368 4.386
0.584 0.486 4.011
0.905 0.353 4.059
0.551 0.114 4.080
5.006 2.125 5.301
2.151 3.385 5.463
3.958 2.196 5.259
4.336 2.041 5.039
4.671 2.238 4.961
4.833 1.906 4.989
2.059 3.209 5.265
2.382 3.080 5.357
3.866 2.524 4.693
4.054 2.445 4.702
4.420 2.488 4.674
4.845 2.226 4.640
1.878 3.292 5.001
3.503 2.347 4.655
3.577 2.217 4.607
4.025 2.332 4.855
4.117 2.090 4.806
4.616 1.800 4.524
4.711 1.814 4.555
1.955 2.913 4.793
3.313 2.251 4.623
3.259 2.216 4.631
3.471 1.926 4.678
3.669 1.797 4.518
4.072 1.822 4.670
4.553 1.667 4.321
4.634 1.423 4.502
5.979 1.182 4.385
6.394 1.043 4.422
1.658 2.911 4.917
3.320 1.958 4.526
3.019 1.722 4.455
3.507 1.753 4.318
3.663 1.499 4.589
3.976 1.582 4.334
4.361 1.395 4.365
4.488 1.265 4.234
5.889 0.613 4.198
6.158 0.617 4.297
1.588 2.386 4.722
3.092 1.740 4.388
3.075 1.539 4.466
3.367 1.591 4.514
3.414 1.216 4.190
3.721 1.159 4.299
4.115 1.202 4.174
5.688 0.511 4.096
6.003 0.472 4.171
1.499 2.103 4.465
2.793 1.440 4.326
3.099 1.299 4.118
3.499 1.038 4.245
3.852 0.885 4.212
5.788 0.046 3.999
0.822 0.634 3.736
0.405 0.326 3.565
3.846 2.698 4.798
4.214 2.583 4.653
4.475 2.362 4.734
4.559 2.291 4.567
1.935 3.138 4.998
3.654 2.647 4.631
3.722 2.589 4.534
4.069 2.538 4.641
4.437 2.468 4.609
3.634 2.861 4.411
3.513 2.433 4.489
3.566 2.485 4.322
4.072 2.302 4.455
4.280 2.284 4.169
4.691 2.187 4.431
5.935 1.286 4.190
1.903 3.094 4.785
3.328 2.474 4.408
3.275 2.378 4.170
3.458 2.066 4.197
3.943 2.006 4.332
4.087 1.764 4.312
4.555 1.907 4.153
4.926 1.653 4.276
5.930 1.032 4.033
1.541 2.945 4.483
3.319 2.393 4.419
3.164 2.108 4.358
3.554 1.758 4.188
3.622 1.608 3.999
3.857 1.608 4.142
4.385 1.472 3.922
4.510 1.341 3.955
6.192 0.600 3.735
1.592 2.440 4.359
3.203 1.933 4.367
3.343 1.688 3.984
3.723 1.309 3.881
3.901 1.291 4.098
4.165 1.278 3.892
4.613 1.096 3.843
6.175 0.486 3.581
1.618 2.367 4.388
3.555 1.118 3.941
3.923 1.085 3.695
4.083 1.003 3.665
6.307 -0.061 3.585
1.155 2.156 4.167
2.506 0.135 3.432
3.119 0.079 3.506
2.345 0.119 3.222
2.305 0.160 3.214
0.608 0.448 3.269
0.367 0.025 3.226
3.370 2.925 4.652
3.737 2.577 4.374
4.143 2.418 4.425
4.498 2.542 4.586
3.514 2.986 4.740
3.642 2.861 4.238
3.945 2.656 4.181
4.062 2.853 4.343
6.227 1.704 3.981
3.109 3.141 4.137
3.461 2.866 4.331
3.438 2.826 4.135
3.539 2.495 3.975
4.111 2.397 4.126
4.375 2.130 4.077
4.697 2.244 3.885
5.962 1.683 3.876
3.358 2.803 4.064
3.359 2.435 4.024
3.622 2.411 4.136
3.720 2.166 3.938
4.040 2.039 3.961
4.517 1.822 3.867
5.885 1.249 3.809
1.739 2.926 4.348
3.141 2.392 4.117
3.424 1.977 3.847
3.748 1.771 3.992
4.101 1.741 3.763
4.246 1.737 3.801
4.690 1.564 3.784
6.070 0.806 3.699
1.691 2.863 4.114
3.191 1.803 3.804
3.691 1.670 3.832
4.060 1.355 3.559
4.361 1.434 3.466
4.478 1.230 3.476
1.451 2.328 3.954
1.793 2.162 3.852
3.714 1.302 3.637
4.143 1.201 3.526
4.414 1.058 3.573
4.787 0.947 3.442
1.390 2.148 3.829
1.796 1.855 3.893
4.112 0.546 3.192
4.639 0.669 3.157
1.390 1.706 3.621
1.436 1.679 3.699
2.295 0.955 3.169
2.527 0.276 3.265
2.602 0.338 2.994
2.918 0.065 2.948
1.900 0.444 3.375
2.385 0.272 3.206
2.400 0.002 3.151
2.465 -0.036 2.970
1.880 0.405 3.255
2.142 0.207 3.043
0.436 0.210 3.148
3.666 3.126 4.365
6.071 2.097 4.228
3.410 3.232 4.260
3.517 3.338 4.318
3.324 3.016 4.180
3.806 2.941 4.055
4.262 2.818 4.155
6.130 1.891 4.026
3.187 3.214 4.410
3.508 3.044 4.124
3.636 3.116 4.022
3.933 2.982 3.971
6.058 2.237 3.667
6.306 2.040 3.618
2.830 3.168 4.082
3.212 3.201 4.120
3.688 2.921 4.093
3.237 2.631 3.935
3.562 2.550 3.877
4.128 2.667 3.901
6.043 1.607 3.428
3.246 2.786 3.874
3.219 2.685 3.757
3.738 2.298 3.535
3.853 2.291 3.570
4.347 2.287 3.755
3.672 2.139 3.585
3.929 1.770 3.575
4.397 1.895 3.532
1.564 2.680 3.846
3.972 1.551 3.286
4.068 1.351 3.259
4.561 1.413 3.249
4.873 1.214 3.430
1.459 2.510 3.579
1.820 2.298 3.520
3.961 1.099 3.143
4.468 1.021 3.291
4.717 0.870 3.231
5.081 0.745 3.070
1.194 2.114 3.517
1.742 2.193 3.602
1.826 2.010 3.546
4.142 1.003 3.213
4.121 0.608 3.060
4.753 0.729 3.142
4.852 0.701 3.105
5.372 0.417 2.865
1.259 2.071 3.244
1.569 2.027 3.491
1.972 1.714 3.364
2.083 1.752 3.394
4.034 0.373 2.981
4.567 0.487 2.973
4.906 0.192 2.737
5.084 0.058 2.857
5.283 0.082 2.732
1.507 1.666 3.318
1.661 1.434 3.196
1.924 1.367 3.240
2.482 1.217 3.125
2.656 0.983 3.091
4.512 -0.032 2.693
1.591 1.150 3.180
1.749 1.020 3.010
2.298 0.990 3.016
2.417 0.819 3.123
2.404 0.434 2.828
2.555 0.452 2.723
1.935 0.680 2.829
1.909 0.591 3.005
2.395 0.588 2.843
2.210 0.222 2.712
2.584 0.027 2.865
2.943 0.121 2.843
2.106 0.289 2.771
2.303 0.271 2.807
0.278 -0.018 2.517
3.693 3.538 4.246
5.532 2.876 3.906
6.054 2.912 3.852
6.042 2.539 4.091
2.603 4.197 4.167
2.904 3.906 4.356
3.102 3.943 4.107
3.419 3.919 4.119
3.610 3.579 4.307
3.599 3.277 3.961
3.884 3.395 3.960
5.790 2.510 3.761
6.086 2.341 3.792
2.674 3.626 4.351
3.149 3.472 4.265
3.441 3.643 4.062
3.533 3.205 3.915
3.464 3.212 4.016
3.783 3.054 3.855
5.959 2.137 3.639
6.258 1.847 3.673
3.044 3.139 4.043
3.177 3.043 3.826
3.386 3.204 3.975
3.573 3.256 3.613
5.660 2.366 3.390
6.019 2.278 3.404
6.113 2.034 3.283
2.549 3.442 3.720
2.756 3.323 3.827
3.263 3.381 3.691
3.686 3.215 3.640
4.706 1.561 3.026
4.744 1.341 2.799
1.542 2.607 3.442
1.894 2.461 3.372
4.242 1.191 2.884
4.471 1.150 2.820
4.744 1.144 2.944
5.125 1.054 2.739
5.227 0.694 2.727
1.379 2.429 3.189
1.766 2.147 3.311
2.072 2.294 3.273
2.232 2.035 3.282
4.064 0.984 2.901
4.252 0.793 2.915
4.726 0.613 2.836
4.859 0.573 2.537
5.068 0.533 2.681
5.461 0.269 2.565
1.420 2.039 3.009
1.451 2.027 3.075
1.998 1.923 3.038
2.053 1.704 3.144
2.611 1.642 3.112
2.510 1.251 2.678
4.229 0.507 2.793
4.601 0.409 2.765
4.857 0.227 2.642
5.077 0.164 2.410
5.230 0.278 2.485
1.084 1.905 2.854
1.519 1.733 2.906
1.800 1.471 3.060
1.987 1.501 2.853
2.239 1.191 2.955
2.726 1.138 2.943
2.496 0.825 2.716
4.055 0.187 2.619
4.291 0.234 2.632
4.631 0.263 2.289
1.183 1.258 2.910
1.527 1.343 2.832
1.973 1.306 2.624
2.159 1.119 2.691
2.422 1.083 2.710
2.464 0.511 2.533
1.317 1.010 2.657
1.627 0.783 2.710
2.164 0.821 2.503
2.466 0.791 2.696
2.242 0.503 2.443
1.513 0.681 2.596
2.011 0.499 2.362
2.307 0.418 2.513
3.605 3.733 3.944
5.176 2.990 3.597
5.642 2.977 3.590
5.950 2.754 3.617
6.272 2.763 3.660
2.351 4.391 4.161
2.612 4.317 3.933
2.930 4.119 4.084
3.171 3.994 4.020
3.508 3.989 3.920
3.628 3.712 3.793
3.578 3.537 3.930
5.322 2.806 3.572
5.870 2.622 3.474
6.170 2.614 3.444
2.478 3.923 3.814
2.890 3.763 3.780
3.202 3.573 3.895
3.435 3.557 3.743
3.541 3.583 3.921
3.541 3.268 3.820
5.775 2.185 3.437
6.073 2.119 3.441
6.278 2.215 3.439
2.681 3.529 3.707
2.795 3.313 3.582
3.119 3.403 3.641
3.530 3.262 3.678
5.234 2.529 2.966
5.806 2.306 3.028
6.002 2.199 3.119
2.322 3.861 3.618
2.464 3.795 3.456
3.078 3.516 3.371
3.398 3.296 3.476
4.600 1.269 2.723
4.855 1.288 2.413
5.092 0.943 2.632
5.398 0.928 2.375
5.724 0.909 2.571
1.859 2.570 2.869
2.095 2.314 2.833
2.208 2.234 2.945
2.484 1.969 2.776
2.941 1.720 2.700
4.479 0.866 2.456
4.750 0.758 2.421
4.996 0.631 2.236
5.154 0.734 2.430
5.646 0.644 2.383
1.134 2.363 2.775
1.663 2.051 2.755
1.790 2.114 2.708
2.284 1.799 2.526
2.474 1.585 2.719
2.706 1.748 2.665
2.682 1.331 2.463
4.017 0.852 2.480
4.575 0.793 2.434
4.855 0.355 2.285
5.202 0.516 2.160
5.257 0.397 2.057
5.669 0.130 2.176
1.232 2.089 2.820
1.352 1.841 2.615
1.868 1.875 2.618
2.207 1.512 2.651
2.395 1.569 2.570
2.566 1.302 2.352
2.556 1.135 2.307
3.947 0.587 2.279
4.278 0.404 2.285
4.676 0.356 1.985
5.030 0.092 2.070
0.985 1.849 2.412
1.263 1.487 2.445
1.460 1.374 2.427
1.900 1.244 2.586
2.090 1.232 2.321
2.706 1.238 2.345
2.568 0.896 2.208
3.779 0.154 2.200
4.218 -0.080 2.195
1.047 1.136 2.423
1.643 1.155 2.246
1.854 1.208 2.482
2.037 1.006 2.221
2.269 0.953 2.081
1.248 0.874 2.309
1.804 0.696 2.245
3.881 3.865 3.607
5.315 3.146 3.416
5.545 3.120 3.206
5.967 3.060 3.247
6.102 3.074 3.338
2.388 4.606 3.653
2.528 4.453 3.782
2.901 4.415 3.679
3.302 4.115 3.719
3.655 4.097 3.754
3.824 3.912 3.650
3.559 3.466 3.408
5.187 2.989 3.257
5.506 2.985 3.149
5.865 2.919 3.204
6.116 2.612 3.280
1.984 4.290 3.668
2.580 4.014 3.717
2.777 3.812 3.489
3.174 3.779 3.610
3.325 3.604 3.402
3.593 3.490 3.434
5.397 2.506 3.213
5.708 2.408 3.078
5.984 2.441 2.923
2.345 3.765 3.322
2.598 3.678 3.305
2.863 3.649 3.576
3.104 3.358 3.522
5.125 2.892 2.850
5.349 2.829 2.980
5.733 2.631 2.875
6.062 2.424 2.611
2.029 4.059 3.362
2.454 4.014 3.309
2.604 3.703 2.996
2.853 3.690 3.191
2.606 2.592 2.736
2.901 2.133 2.402
4.694 1.374 2.224
4.989 1.161 2.035
5.487 0.932 2.063
5.644 0.773 1.958
5.877 0.907 2.184
2.060 2.256 2.399
2.148 2.353 2.424
2.452 2.118 2.404
2.763 2.092 2.498
2.905 1.774 2.455
4.296 1.105 1.972
4.809 0.968 2.269
5.083 0.983 2.182
5.253 0.834 2.068
5.660 0.811 1.876
5.907 0.635 1.871
1.753 2.142 2.376
1.902 2.128 2.588
2.178 2.131 2.399
2.577 1.949 2.258
2.714 1.671 2.217
2.623 1.369 2.185
4.203 0.944 1.966
4.457 0.674 1.994
4.784 0.781 2.021
5.127 0.646 1.939
5.570 0.389 1.711
5.628 0.337 1.910
1.323 1.951 2.519
1.545 1.972 2.209
1.827 1.791 2.325
1.943 1.755 2.298
2.300 1.527 2.231
2.528 1.438 2.222
2.446 1.259 2.058
3.959 0.749 1.986
4.454 0.329 1.709
4.613 0.218 1.854
5.020 0.198 1.813
5.130 0.152 1.670
1.196 1.638 2.212
1.373 1.620 2.161
1.471 1.477 2.207
1.895 1.598 2.156
2.098 1.262 2.156
2.674 1.084 1.935
3.789 0.213 1.605
4.198 0.061 1.658
4.613 -0.069 1.665
1.042 1.606 2.260
1.230 1.321 2.233
1.343 1.235 2.009
1.686 1.093 2.060
2.053 1.160 1.995
3.802 -0.113 1.717
1.215 1.125 2.064
1.380 1.028 1.895
3.638 4.177 3.139
5.456 3.480 3.077
5.663 3.244 2.967
6.094 3.144 2.994
6.120 2.905 2.881
2.280 4.439 3.605
2.643 4.533 3.524
2.763 4.264 3.545
3.142 4.173 3.426
3.377 4.266 3.331
3.797 4.020 3.303
4.824 3.064 3.167
5.121 3.062 3.145
5.507 3.004 2.801
5.893 2.795 2.843
5.998 2.734 3.019
2.016 4.210 3.287
2.575 4.384 3.289
2.887 4.258 3.257
2.965 3.988 3.083
3.454 4.014 3.170
5.072 2.910 2.933
5.231 2.750 2.918
5.724 2.616 2.957
6.087 2.601 2.906
2.066 3.962 3.363
2.385 3.915 3.183
2.704 3.759 3.001
3.029 3.696 3.181
4.922 3.200 2.489
5.118 2.939 2.535
5.266 2.903 2.371
5.648 2.864 2.342
2.201 4.117 2.982
2.323 3.905 2.753
2.528 4.065 2.679
4.404 3.046 2.518
4.709 2.899 2.310
4.895 2.538 2.276
2.033 4.026 2.708
2.277 3.889 2.823
4.102 2.635 2.504
4.275 2.646 2.526
4.513 2.627 2.493
3.543 2.499 2.242
3.834 2.550 2.294
6.390 1.655 1.994
3.151 2.596 2.226
3.539 2.249 2.207
3.608 2.364 2.061
5.966 1.270 2.103
6.263 1.099 1.985
2.860 2.464 2.307
2.915 2.590 2.102
2.857 2.071 1.991
3.306 1.951 2.231
4.981 1.198 1.925
5.338 1.344 1.749
5.696 1.060 1.910
5.849 0.927 1.918
2.369 2.301 2.107
2.490 2.275 2.290
2.873 2.255 2.016
2.869 1.879 1.995
4.667 1.042 1.761
4.863 1.161 1.710
5.381 0.809 1.587
5.542 0.644 1.592
5.912 0.511 1.733
1.750 2.392 2.254
2.156 2.177 2.218
2.682 1.903 1.887
2.846 1.999 1.927
2.739 1.604 1.975
4.089 1.081 1.805
4.392 0.932 1.624
4.774 0.632 1.567
5.098 0.495 1.557
5.420 0.564 1.429
1.633 1.961 1.988
1.632 1.997 2.130
2.208 1.848 1.897
2.338 1.667 1.836
2.764 1.508 1.854
4.110 0.670 1.445
4.452 0.501 1.528
4.665 0.440 1.395
5.065 0.516 1.398
1.149 1.848 1.942
1.510 1.782 1.861
1.802 1.849 1.847
2.093 1.651 1.940
2.409 1.481 1.679
3.759 0.690 1.335
3.804 0.390 1.365
4.160 0.367 1.493
4.710 0.339 1.263
0.742 1.650 1.895
1.321 1.642 1.726
1.378 1.260 1.608
1.683 1.161 1.599
3.290 0.419 1.584
3.419 0.191 1.525
3.773 0.148 1.435
4.043 -0.047 1.389
0.695 1.218 1.686
0.970 1.254 1.797
1.331 1.005 1.690
3.090 0.012 1.334
0.534 1.108 1.597
5.334 3.645 2.964
5.525 3.308 2.869
6.019 3.143 2.812
6.244 3.249 2.709
2.237 4.634 3.201
2.557 4.671 3.054
2.800 4.648 3.250
3.231 4.209 3.063
3.457 4.284 2.868
4.872 3.209 2.611
5.287 3.219 2.779
5.652 2.979 2.478
5.882 2.952 2.640
6.108 2.839 2.461
2.275 4.562 3.160
2.395 4.428 3.158
2.930 4.365 3.102
3.200 4.226 2.907
4.748 3.182 2.703
5.126 2.935 2.440
5.521 2.683 2.611
5.773 2.771 2.634
1.983 4.195 2.962
2.308 4.160 2.980
2.676 3.940 2.999
4.550 3.156 2.302
4.796 3.137 2.344
5.177 3.015 2.179
5.409 2.791 2.275
2.130 4.264 2.575
2.473 4.103 2.510
4.032 3.241 2.082
4.302 3.041 2.064
4.635 2.853 1.997
4.843 2.895 2.132
2.053 4.105 2.310
2.368 3.906 2.422
3.671 2.836 2.004
3.980 2.822 2.186
4.118 2.634 2.093
4.474 2.666 2.000
4.747 2.693 2.040
1.907 3.906 2.393
3.162 2.944 2.147
3.663 2.643 2.101
3.980 2.646 2.087
3.995 2.486 1.794
4.500 2.488 1.949
6.111 1.759 1.779
6.330 1.487 1.603
3.318 3.020 2.239
3.242 2.659 1.984
3.508 2.595 1.933
3.866 2.382 1.704
4.155 2.069 1.694
5.985 1.530 1.486
6.285 1.453 1.440
2.608 2.701 1.827
3.181 2.403 2.088
3.036 2.354 1.736
3.131 2.297 1.650
3.611 2.170 1.652
5.555 1.426 1.664
5.623 1.281 1.620
6.113 1.209 1.499
2.596 2.431 2.007
3.023 2.165 1.956
2.741 2.145 1.865
5.189 0.896 1.384
5.747 0.971 1.507
5.852 0.927 1.346
2.399 2.219 1.899
2.492 1.999 1.748
2.794 1.885 1.590
4.989 0.720 1.246
5.174 0.802 1.274
1.751 2.152 1.569
2.002 2.066 1.686
3.964 0.840 1.188
4.527 0.793 1.342
4.824 0.572 1.210
1.425 2.030 1.499
1.654 1.958 1.612
3.458 0.710 1.253
3.627 0.521 1.234
3.997 0.388 1.245
4.198 0.458 1.087
1.067 1.856 1.547
1.408 1.813 1.450
1.690 1.358 1.399
3.025 0.551 1.235
3.410 0.422 1.140
3.514 0.291 1.187
3.969 0.372 0.999
4.129 0.126 0.926
0.684 1.543 1.502
1.000 1.522 1.397
2.512 0.390 1.011
2.664 0.249 1.125
2.982 0.330 1.054
3.542 -0.015 1.011
0.671 1.238 1.413
1.987 0.357 0.995
2.557 0.097 1.025
2.618 0.243 0.849
0.430 0.992 1.146
1.972 0.238 1.141
1.794 0.051 0.781
1.826 0.100 0.962
5.794 3.468 2.467
6.113 3.363 2.260
2.506 4.889 2.671
2.878 4.652 2.815
3.172 4.612 2.620
4.762 3.478 2.524
5.343 3.472 2.475
5.703 3.419 2.376
2.087 4.689 2.882
2.643 4.480 2.843
2.734 4.201 2.576
4.641 3.375 2.286
4.686 3.306 2.186
4.955 2.959 2.338
5.300 2.981 2.373
1.973 4.319 2.508
2.347 4.140 2.433
4.249 3.496 1.984
4.386 3.431 2.118
4.817 3.364 1.920
5.104 3.308 1.930
1.998 4.488 2.458
3.765 3.472 1.831
4.164 3.469 1.935
4.410 3.284 1.964
4.554 3.181 2.025
5.050 2.998 1.707
1.814 4.211 2.127
2.241 4.136 2.096
3.477 3.267 2.024
3.528 2.966 1.683
3.837 2.891 1.756
4.404 2.997 1.811
4.641 2.715 1.624
4.988 2.560 1.672
1.812 3.843 1.900
3.348 3.285 2.007
3.235 3.032 1.726
3.550 3.001 1.713
3.710 2.582 1.707
4.195 2.605 1.586
4.452 2.624 1.527
4.604 2.321 1.537
5.999 1.766 1.571
6.201 1.731 1.401
1.568 3.523 1.857
3.251 3.137 1.709
3.236 2.643 1.686
3.394 2.418 1.450
3.555 2.320 1.587
4.162 2.293 1.454
4.247 2.119 1.619
5.908 1.660 1.184
6.187 1.379 1.165
3.104 2.646 1.794
2.840 2.480 1.504
3.122 2.186 1.389
3.418 2.336 1.305
3.915 2.145 1.495
6.172 1.358 1.008
2.949 2.412 1.351
3.260 0.871 0.916
3.741 0.815 0.775
1.052 2.024 1.090
2.563 0.808 1.039
2.850 0.744 0.764
3.178 0.479 0.736
3.633 0.400 0.936
3.919 0.518 0.681
0.858 1.636 1.109
2.211 0.813 0.900
2.408 0.470 0.612
2.719 0.466 0.772
3.249 0.285 0.534
3.380 0.141 0.707
3.686 0.235 0.784
0.779 1.165 1.064
2.172 0.718 0.642
2.034 0.606 0.574
2.561 0.307 0.701
2.712 0.224 0.547
2.892 -0.049 0.640
0.432 0.966 0.880
2.118 0.568 0.710
1.918 0.333 0.712
2.325 -0.092 0.366
0.585 0.765 0.626
1.895 0.070 0.513
4.350 3.517 2.106
4.405 3.355 1.855
4.678 3.408 2.055
5.146 3.064 2.023
1.964 4.294 2.337
4.064 3.672 1.888
4.229 3.667 1.761
4.521 3.546 1.798
4.854 3.617 1.654
3.327 3.813 1.826
3.776 3.687 1.683
4.058 3.435 1.572
4.358 3.312 1.418
4.609 3.163 1.582
5.135 3.027 1.392
2.016 4.352 2.000
3.627 3.495 1.622
3.415 3.533 1.445
3.530 3.102 1.467
4.076 3.163 1.454
4.129 3.190 1.419
4.425 2.823 1.601
4.727 2.715 1.334
6.147 2.296 1.133
1.897 3.961 1.906
3.308 3.408 1.443
3.141 3.087 1.441
3.658 2.843 1.326
3.979 2.748 1.550
4.143 2.840 1.301
4.543 2.586 1.176
4.925 2.436 1.271
6.003 2.154 1.294
1.603 3.589 1.598
3.215 3.261 1.455
3.262 2.778 1.490
3.327 2.753 1.383
3.598 2.537 1.305
3.990 2.547 1.130
4.493 2.291 1.030
4.474 2.151 1.140
6.058 1.661 1.120
1.692 3.522 1.438
3.287 2.953 1.487
3.250 2.272 1.161
3.453 2.298 1.211
3.794 2.006 1.121
4.198 2.028 1.092
3.178 1.335 0.728
3.478 0.965 0.718
5.999 0.202 0.401
2.416 1.085 0.625
2.668 0.892 0.692
2.990 0.769 0.629
3.203 0.649 0.530
3.594 0.742 0.392
0.799 1.740 0.688
2.285 1.102 0.755
2.377 0.872 0.620
2.461 0.560 0.505
2.813 0.466 0.279
3.192 0.611 0.502
3.331 0.215 0.253
3.826 0.073 0.397
0.865 1.373 0.619
2.142 0.944 0.381
1.958 0.733 0.189
2.580 0.368 0.397
2.857 0.489 0.185
3.051 0.268 0.401
3.163 0.158 0.103
0.472 1.239 0.630
2.272 0.701 0.347
1.985 0.222 0.301
2.174 0.328 0.261
2.673 -0.104 0.097
0.376 0.764 0.496
2.133 0.465 0.079
0.500 0.517 0.450
3.995 3.975 1.695
4.114 3.571 1.860
4.364 3.601 1.609
4.825 3.331 1.721
1.723 0.266 6.187
2.029 -0.055 6.304
5.871 0.454 6.355
4.103 0.491 6.189
4.552 0.047 6.173
4.806 0.208 6.032
4.051 -0.028 5.884
1.280 1.088 6.227
1.588 1.172 6.335
1.814 1.009 6.217
2.003 0.850 6.041
1.004 0.737 6.008
1.429 0.743 6.211
1.684 0.765 6.209
2.149 0.527 6.034
2.175 0.383 5.958
0.890 0.734 6.140
1.412 0.326 5.852
1.447 0.243 5.844
2.048 0.382 5.971
2.278 -0.061 5.719
1.074 0.317 5.893
1.570 -0.112 5.860
5.079 1.472 6.280
5.373 1.111 6.256
5.793 1.020 5.972
6.270 0.868 6.012
4.296 -0.098 5.611
1.374 1.223 5.981
1.622 1.096 6.045
1.732 0.872 5.924
2.012 1.031 5.834
2.365 0.956 5.970
2.770 0.393 5.689
1.230 1.025 5.745
1.327 0.919 5.883
1.675 0.680 5.621
1.915 0.460 5.717
2.243 0.421 5.649
2.734 0.450 5.782
2.533 0.116 5.619
0.917 0.864 5.815
1.314 0.755 5.563
1.668 0.508 5.765
1.741 0.373 5.620
2.125 0.381 5.596
2.576 0.229 5.654
0.882 0.363 5.743
1.040 0.287 5.550
1.643 0.084 5.563
1.838 0.037 5.460
0.918 0.049 5.545
5.574 1.511 6.131
6.043 1.325 6.142
6.340 1.348 6.359
5.302 1.479 6.331
5.614 1.281 6.212
5.752 0.950 6.099
6.032 1.014 6.141
4.829 1.595 5.755
5.144 1.359 5.814
5.716 1.223 5.870
5.777 1.387 5.762
2.336 2.784 6.144
2.418 2.415 6.090
2.634 2.453 6.202
2.928 2.301 6.077
2.840 0.708 5.366
4.774 -0.102 5.330
1.513 1.197 5.756
1.848 1.179 5.510
2.197 0.930 5.412
2.554 0.901 5.677
2.821 0.861 5.580
2.711 0.470 5.443
0.985 1.228 5.611
1.360 1.068 5.484
1.901 0.759 5.456
2.191 0.826 5.597
2.195 0.469 5.519
2.593 0.653 5.509
2.369 0.326 5.125
1.014 0.989 5.538
1.222 0.811 5.448
1.597 0.499 5.268
1.818 0.409 5.313
2.276 0.300 5.270
2.656 0.253 5.169
0.752 0.725 5.184
1.214 0.375 5.400
1.659 0.456 5.302
1.652 0.139 5.356
1.966 -0.056 5.006
0.646 0.412 5.033
1.170 0.234 5.203
1.225 0.184 5.249
5.264 1.987 6.326
5.437 1.879 6.255
5.874 1.850 5.976
6.073 1.677 6.019
3.414 2.336 6.173
4.903 1.882 6.100
5.491 1.701 6.179
5.740 1.646 5.831
5.982 1.464 5.977
6.208 1.228 5.770
3.386 2.486 6.149
3.556 2.353 6.348
4.997 1.502 6.025
5.284 1.551 5.950
5.451 1.482 5.682
5.900 1.111 5.933
2.215 2.737 6.215
2.577 2.554 6.222
2.792 2.539 6.238
2.931 2.419 6.037
4.689 1.889 5.771
5.024 1.669 5.527
5.426 1.744 5.592
5.481 1.562 5.452
1.788 2.862 5.863
2.226 2.758 5.840
2.564 2.673 5.973
2.970 2.502 5.845
4.738 1.280 5.413
1.878 2.760 5.890
3.085 1.220 5.264
5.354 0.173 5.095
5.630 0.087 4.962
2.642 1.175 5.321
3.019 1.237 5.240
2.886 0.820 5.216
3.083 0.792 5.054
4.891 0.124 5.015
1.717 1.371 5.135
2.065 1.293 5.299
2.564 0.963 5.273
2.768 0.769 5.303
2.526 0.654 5.100
1.392 1.255 5.122
1.885 1.015 5.070
2.228 1.045 5.295
2.245 0.609 5.016
2.761 0.478 5.041
2.479 0.240 4.988
0.931 1.036 5.223
1.327 0.776 5.129
1.656 0.761 5.081
2.008 0.527 5.116
2.331 0.534 4.919
2.527 0.512 5.046
0.975 0.595 4.833
1.341 0.643 4.787
1.582 0.263 5.043
1.895 0.437 4.788
2.036 0.043 4.742
0.754 0.393 4.718
1.135 0.159 4.971
1.398 0.009 4.692
1.717 -0.023 4.860
0.657 0.050 4.642
3.591 2.966 6.112
5.305 2.100 5.835
5.525 2.112 5.762
5.847 2.021 5.664
6.008 1.866 5.866
2.046 3.472 6.183
2.404 3.290 6.294
2.765 3.218 6.010
3.040 3.184 6.270
3.407 2.851 6.049
3.796 3.030 5.973
4.837 2.237 5.759
5.119 1.824 5.578
5.252 1.915 5.720
5.561 1.600 5.832
6.161 1.563 5.708
1.979 3.313 5.948
2.202 3.004 6.052
2.548 2.847 6.102
2.867 2.912 5.846
3.290 2.807 6.002
4.497 1.769 5.698
4.917 1.635 5.562
5.140 1.445 5.528
5.624 1.540 5.451
2.054 2.907 6.137
2.026 2.697 5.949
2.563 2.617 5.828
2.751 2.428 5.837
4.441 2.133 5.230
4.527 1.819 5.249
4.913 1.823 5.203
5.196 1.584 5.315
1.840 3.002 5.717
2.266 2.939 5.639
2.622 2.958 5.421
3.776 2.053 5.232
4.280 1.807 5.113
4.394 1.604 5.229
4.729 1.406 5.220
1.810 2.705 5.672
2.203 2.710 5.641
3.544 1.876 5.179
3.631 1.507 5.110
4.213 1.455 5.088
4.451 1.491 5.027
1.559 2.444 5.266
2.958 1.713 5.279
3.469 1.438 5.186
3.766 1.220 4.951
3.805 1.353 5.118
6.138 0.456 4.888
3.202 1.742 5.290
2.890 1.264 4.909
3.189 1.169 5.057
3.490 1.075 4.990
5.719 0.149 4.709
6.052 0.138 4.628
2.781 1.324 4.900
3.071 1.296 4.980
2.749 1.147 5.017
3.142 0.811 4.822
5.202 0.079 4.438
2.054 1.157 4.807
2.639 1.307 4.761
2.790 0.865 4.979
2.706 0.920 4.799
1.695 1.039 4.972
1.955 1.000 4.788
2.283 0.919 4.831
2.520 0.622 4.825
1.384 1.125 4.773
1.604 0.978 4.571
1.988 0.800 4.640
2.096 0.713 4.826
0.965 0.801 4.855
1.297 0.657 4.609
1.421 0.673 4.561
1.721 0.394 4.707
0.719 0.461 4.724
1.084 0.569 4.443
1.228 0.237 4.641
0.700 0.289 4.333
1.091 0.157 4.409
5.119 2.239 5.391
5.545 2.426 5.396
5.840 1.978 5.403
6.130 2.012 5.410
2.304 3.636 5.775
2.889 3.352 5.876
2.919 3.402 5.639
3.438 3.106 5.745
4.667 2.289 5.367
5.176 2.273 5.331
5.253 2.101 5.448
5.829 1.884 5.367
1.916 3.303 5.818
2.174 3.086 5.863
2.548 3.188 5.729
3.120 2.909 5.832
4.185 1.907 5.415
4.510 1.802 5.306
4.848 1.999 5.291
5.159 1.688 5.116
1.873 3.222 5.680
2.159 2.994 5.504
2.537 2.965 5.726
0.459 5.351 1.949
0.797 5.125 1.793
1.239 5.015 1.961
1.343 5.073 1.615
0.347 5.132 1.584
0.766 4.728 1.662
1.071 4.748 1.825
1.321 4.513 1.508
1.851 4.419 1.584
0.171 4.887 1.649
0.522 4.468 1.503
0.907 4.472 1.617
1.322 4.496 1.645
1.678 4.096 1.468
0.659 4.473 1.437
0.686 4.065 1.495
1.293 3.964 1.250
1.492 4.008 1.278
0.603 3.854 1.395
1.051 3.625 1.112
1.177 3.801 1.227
0.852 3.667 1.264
1.165 3.457 1.237
0.060 2.592 0.794
0.090 2.280 0.673
0.690 1.895 0.564
0.243 1.787 0.399
0.544 1.702 0.387
0.304 1.581 0.373
0.182 1.230 0.143
0.025 0.876 0.187
0.509 5.223 1.960
1.058 5.157 1.977
1.039 5.104 1.703
1.610 4.924 1.703
0.324 5.647 1.570
0.616 5.245 1.450
1.069 5.265 1.680
1.261 5.196 1.651
0.592 5.267 1.440
0.873 5.145 1.545
1.002 4.879 1.216
1.555 4.862 1.255
0.582 4.766 1.382
0.888 4.681 1.330
1.318 4.646 1.131
1.649 4.264 1.292
0.895 4.419 1.208
0.984 4.371 1.178
1.284 3.992 1.159
0.855 3.976 1.137
1.267 3.734 0.802
1.128 3.377 0.935
0.092 2.475 0.373
0.167 2.185 0.198
0.122 1.865 0.099
0.302 1.731 -0.019
0.273 6.378 1.821
0.427 5.974 1.805
0.800 5.820 1.809
0.217 5.863 1.728
0.510 5.889 1.625
0.656 5.564 1.802
0.896 5.540 1.814
0.245 5.560 1.572
0.488 5.373 1.706
0.822 5.426 1.515
1.094 5.221 1.495
0.455 5.638 1.240
0.618 5.611 1.236
0.767 5.491 1.305
0.325 5.213 1.073
0.633 5.144 1.188
1.092 4.950 1.128
1.477 4.013 0.516
1.156 3.632 0.347
0.439 6.314 1.633
0.774 5.968 1.568
1.185 6.013 1.361
0.292 6.028 1.323
0.385 6.018 1.447
0.793 5.832 1.495
0.939 5.526 1.209
0.168 5.507 1.444
0.639 5.660 1.362
0.944 5.445 1.342
-0.116 5.954 1.069
0.350 5.874 1.129
0.538 5.569 0.951
0.097 3.442 0.097
0.997 6.116 1.200
1.331 6.102 1.166
0.198 6.255 1.126
0.560 6.135 1.228
0.677 5.786 1.106
1.142 5.927 0.863
0.020 5.967 1.165
0.370 5.939 0.820
0.487 5.560 0.816
0.164 6.015 0.682
0.348 5.925 0.597
-0.051 4.308 -0.118
1.185 6.229 0.837
0.487 6.155 0.638
0.701 6.150 0.906
0.163 6.201 0.624
0.290 6.064 0.811
0.121 6.173 0.493
0.116 6.273 0.573
2.790 5.968 0.189
2.960 5.763 0.029
3.501 4.162 1.387
4.018 3.798 1.506
4.221 3.785 1.387
4.669 3.742 1.242
3.562 4.146 1.517
3.421 3.856 1.531
3.929 3.589 1.360
3.974 3.592 1.402
4.340 3.334 1.232
4.748 3.422 1.274
6.128 2.529 0.955
3.413 3.920 1.270
3.227 3.618 1.174
3.593 3.356 1.382
4.106 3.247 1.338
4.428 3.239 1.089
4.718 2.934 1.148
5.037 2.833 1.045
6.255 2.240 1.089
1.944 4.186 1.491
3.343 3.514 1.430
3.330 3.156 1.273
3.669 2.964 1.248
3.698 2.875 1.195
4.073 2.857 0.893
4.441 2.575 1.056
4.734 2.667 1.012
1.669 3.745 1.303
3.327 3.172 1.133
3.571 2.816 1.134
3.603 2.613 0.948
4.083 2.557 0.888
4.230 2.329 1.052
4.578 2.180 0.968
1.543 3.531 1.310
1.832 3.585 1.031
3.566 2.313 0.888
4.098 2.278 0.891
4.360 2.165 0.671
4.656 2.122 0.750
1.351 3.207 1.044
1.881 3.249 1.044
2.495 1.645 0.259
2.951 1.399 0.549
3.250 1.261 0.393
5.142 0.547 -0.009
5.609 0.224 0.055
5.906 0.044 0.193
2.418 1.469 0.570
2.396 1.139 0.252
2.678 1.290 0.243
3.088 1.057 0.229
3.260 0.796 0.317
2.503 1.414 0.195
2.144 0.957 0.178
2.438 0.985 0.278
2.966 0.800 -0.061
3.306 0.442 0.246
3.634 0.423 0.185
0.645 1.744 0.285
2.349 0.909 0.192
2.273 0.713 -0.111
2.318 0.413 0.171
0.594 1.169 0.249
2.210 0.678 0.108
0.559 0.973 0.248
0.891 0.979 0.173
3.463 3.991 1.475
4.030 3.944 1.451
4.264 3.729 1.421
4.680 3.568 1.447
3.583 4.029 1.624
3.664 4.126 1.163
4.048 3.996 1.172
4.203 3.799 1.192
5.922 3.339 0.797
3.508 4.271 1.258
3.772 4.125 1.248
3.405 3.965 0.916
3.693 3.822 1.180
4.251 3.706 0.877
4.317 3.634 0.861
6.151 2.756 0.762
3.208 4.179 1.251
3.699 3.867 1.028
3.523 3.563 0.847
3.817 3.576 0.978
4.130 3.343 0.980
4.224 3.281 1.005
4.466 3.053 0.699
3.550 3.660 1.114
3.432 3.250 0.854
3.742 3.214 0.826
4.106 2.911 0.892
4.419 2.774 0.845
4.634 2.807 0.841
1.589 4.030 1.015
3.824 2.745 0.583
4.116 2.627 0.481
4.306 2.546 0.474
4.636 2.555 0.607
4.973 2.468 0.360
1.567 3.718 0.867
1.823 3.660 0.867
3.896 2.393 0.445
4.216 2.283 0.604
4.677 2.176 0.362
5.027 1.942 0.457
1.545 3.505 0.616
1.763 3.265 0.695
2.214 3.128 0.644
4.273 1.938 0.222
4.519 1.994 0.155
4.860 1.742 0.366
4.918 1.695 0.203
1.461 3.131 0.817
1.583 3.044 0.690
1.947 2.786 0.653
2.363 2.880 0.580
4.664 1.415 0.130
4.791 1.253 0.016
5.151 1.317 -0.017
1.499 2.600 0.550
1.686 2.748 0.515
2.025 2.621 0.484
2.394 2.295 0.397
2.763 1.999 0.163
1.672 2.340 0.169
1.932 2.214 0.288
2.406 2.126 0.425
2.534 2.049 0.376
2.558 1.521 -0.034
2.961 1.479 -0.077
1.902 2.042 0.105
2.336 1.648 0.214
2.673 1.606 0.163
2.249 1.585 -0.141
5.892 4.123 1.371
6.120 3.804 1.298
3.148 5.208 1.571
3.446 5.144 1.621
3.511 4.728 1.564
3.704 4.401 1.426
3.979 4.273 1.444
6.001 3.610 1.181
6.279 3.543 1.081
3.108 4.781 1.541
3.643 4.493 1.191
3.898 4.352 1.334
3.682 4.182 1.329
3.937 4.225 1.285
4.403 3.934 1.127
6.094 3.184 0.887
3.186 4.410 1.410
3.673 4.196 1.294
3.770 4.274 0.894
4.054 4.267 0.710
5.920 3.404 0.552
5.964 3.241 0.526
2.968 4.636 0.982
