3.186 -3.983 1.623
2.907 -3.651 1.816
2.833 -3.704 1.458
2.625 -3.347 1.625
2.212 -3.164 1.688
2.083 -3.228 1.511
1.982 -2.998 1.752
2.793 -3.618 1.275
2.583 -3.553 1.248
2.378 -3.145 1.357
2.358 -2.980 1.416
3.832 -3.810 0.382
3.604 -3.749 0.398
3.481 -3.754 0.380
3.119 -3.269 0.673
1.387 -1.934 0.442
1.013 -1.861 0.132
1.090 -1.608 0.299
0.702 -1.324 0.127
3.694 -4.026 0.376
3.818 -3.770 0.255
3.587 -3.856 0.337
3.289 -3.643 0.363
3.005 -3.355 0.108
2.886 -3.346 0.203
2.651 -2.866 0.093
1.577 -2.012 0.270
1.539 -1.922 0.100
1.452 -1.619 0.062
0.961 -1.499 -0.178
0.635 -1.421 0.021
0.480 -1.193 0.077
0.426 -1.202 -0.006
3.939 -3.887 0.124
3.779 -3.715 0.048
3.074 -4.674 3.554
2.781 -4.570 3.611
3.045 -4.662 3.560
2.980 -4.333 3.111
2.940 -4.183 3.236
2.803 -4.147 3.265
3.309 -4.756 3.219
3.068 -4.526 3.302
2.733 -4.789 3.029
2.843 -4.653 3.067
2.559 -4.397 3.172
3.248 -4.984 3.202
3.234 -4.999 3.139
2.772 -4.558 3.077
3.027 -4.646 2.699
2.581 -4.584 2.881
2.614 -4.263 2.972
2.295 -4.128 2.676
3.104 -4.970 2.852
2.781 -4.560 2.943
3.015 -4.782 2.774
2.664 -4.365 2.724
2.674 -4.426 2.715
2.360 -4.212 2.725
2.117 -4.046 2.638
1.925 -3.868 2.562
3.386 -4.892 2.673
2.865 -4.662 2.478
3.092 -4.587 2.436
3.000 -4.537 2.424
2.673 -4.039 2.278
2.456 -4.099 2.575
2.202 -3.898 2.234
2.234 -3.614 2.342
2.016 -3.417 2.425
3.034 -4.442 2.283
3.120 -4.606 2.045
2.903 -4.261 2.297
2.739 -4.373 2.233
2.678 -3.911 2.239
2.340 -3.949 2.126
2.157 -3.763 1.900
2.092 -3.409 1.994
1.744 -3.357 2.061
3.375 -4.540 2.135
2.963 -4.115 2.048
2.957 -3.982 2.007
2.502 -4.013 1.879
2.379 -3.577 1.836
2.134 -3.683 1.669
1.797 -3.445 1.703
1.809 -3.372 1.648
2.825 -4.161 1.706
2.732 -3.848 1.801
2.440 -3.880 1.483
2.477 -3.477 1.578
2.079 -3.490 1.490
1.788 -3.125 1.489
1.843 -3.033 1.578
2.547 -3.842 1.438
2.144 -3.290 1.318
2.225 -3.435 1.296
1.911 -3.230 1.302
1.710 -2.902 1.475
2.160 -3.208 1.031
1.932 -3.011 1.033
1.773 -2.776 1.087
1.529 -2.552 0.966
3.935 -4.839 1.068
1.968 -3.065 0.768
1.842 -2.718 0.828
1.661 -2.543 0.717
4.012 -4.624 1.054
3.953 -4.706 0.813
3.274 -4.126 0.619
1.768 -2.762 0.588
1.444 -2.359 0.347
1.236 -2.398 0.683
1.082 -2.140 0.323
3.999 -4.802 0.811
3.966 -4.454 0.499
3.503 -4.357 0.596
3.558 -4.070 0.730
3.597 -3.979 0.333
3.380 -3.825 0.273
3.089 -3.557 0.367
1.504 -2.349 0.319
1.177 -2.033 0.265
1.160 -2.170 0.274
0.834 -1.873 0.168
0.821 -1.981 0.203
4.022 -4.486 0.210
3.809 -4.082 0.207
3.837 -4.003 0.466
3.510 -3.912 0.109
3.441 -3.867 0.168
3.227 -3.645 -0.076
2.916 -3.567 0.085
2.725 -3.393 0.243
1.699 -2.426 -0.087
1.396 -2.286 -0.201
1.301 -2.008 0.009
1.064 -1.787 -0.025
0.838 -1.787 -0.207
0.771 -1.454 0.043
0.537 -1.441 -0.024
3.902 -4.379 0.090
3.661 -4.210 0.146
3.647 -4.040 0.205
3.353 -5.066 3.623
2.946 -5.041 3.732
2.721 -4.730 3.530
3.174 -5.039 3.490
3.034 -4.941 3.408
2.815 -4.666 3.191
2.795 -4.673 3.188
2.861 -4.628 3.124
2.656 -4.374 3.121
3.256 -4.830 3.165
2.884 -4.774 3.113
2.999 -4.768 3.115
2.851 -5.027 2.989
2.484 -4.651 2.946
3.455 -5.470 2.952
3.234 -5.187 3.161
2.791 -4.974 3.163
2.661 -4.828 3.139
2.861 -4.752 3.034
2.458 -4.513 2.812
2.537 -4.555 2.739
2.259 -4.143 2.530
3.204 -5.092 3.078
2.845 -4.987 2.754
2.707 -4.882 2.746
2.843 -4.878 2.617
2.596 -4.799 2.735
2.482 -4.351 2.325
2.298 -4.153 2.452
1.995 -3.943 2.484
2.966 -4.827 2.500
2.930 -4.793 2.653
2.715 -4.728 2.278
2.728 -4.744 2.333
2.589 -4.310 2.230
2.210 -4.165 2.375
2.031 -3.854 2.261
1.949 -3.843 2.308
1.708 -3.769 2.222
2.921 -4.744 2.418
2.597 -4.425 2.028
2.497 -4.468 2.140
2.535 -4.225 1.952
2.263 -4.028 1.844
1.972 -3.897 1.887
1.923 -3.589 1.969
1.484 -3.624 1.891
2.721 -4.335 1.895
2.293 -4.036 1.763
2.354 -3.890 1.613
1.890 -3.681 1.691
1.771 -3.773 1.754
1.578 -3.598 1.865
1.259 -3.199 1.637
2.535 -4.238 1.366
2.308 -4.004 1.590
2.202 -3.762 1.580
1.974 -3.460 1.335
1.544 -3.301 1.421
1.591 -3.130 1.628
1.253 -3.218 1.243
3.668 -4.970 1.539
2.453 -3.775 1.158
2.222 -3.632 1.072
1.982 -3.484 1.160
1.798 -3.476 1.269
1.682 -3.223 1.283
1.440 -2.863 1.077
1.351 -2.746 1.273
3.642 -5.047 1.225
3.674 -4.706 1.387
2.162 -3.530 1.167
1.859 -3.553 0.819
1.798 -3.345 0.981
1.784 -3.086 1.068
1.202 -2.867 0.919
1.297 -2.734 0.998
1.081 -2.490 0.732
3.816 -5.083 0.954
3.712 -4.981 0.974
3.447 -4.772 1.101
3.368 -4.280 1.067
2.147 -3.334 0.919
2.019 -3.404 0.609
1.848 -2.984 0.576
1.559 -2.905 0.786
1.202 -2.631 0.763
0.994 -2.459 0.534
0.945 -2.370 0.515
3.621 -4.971 0.825
3.614 -4.639 0.908
3.305 -4.553 0.850
3.217 -4.480 0.708
3.552 -4.238 0.627
3.080 -4.256 0.732
2.054 -3.153 0.534
1.724 -3.072 0.309
1.550 -2.755 0.350
1.427 -2.808 0.374
1.026 -2.581 0.235
1.067 -2.185 0.257
0.808 -2.367 0.328
4.065 -4.727 0.755
4.028 -4.599 0.631
3.517 -4.680 0.577
3.408 -4.479 0.395
3.210 -4.387 0.216
3.127 -4.150 0.411
2.942 -3.777 0.196
1.700 -2.901 0.315
1.442 -2.612 0.228
1.320 -2.728 0.277
1.349 -2.584 0.056
0.793 -2.258 0.114
0.887 -2.090 0.266
0.575 -2.074 -0.080
3.864 -4.733 0.416
3.890 -4.594 0.361
3.495 -4.347 0.253
3.444 -4.460 0.285
3.460 -4.348 0.062
3.099 -3.924 0.097
3.175 -4.030 0.109
3.028 -3.705 0.082
1.678 -2.850 -0.195
1.588 -2.723 -0.186
1.180 -2.348 -0.164
1.164 -2.173 0.085
0.728 -2.171 -0.197
0.808 -2.028 -0.146
0.429 -1.910 0.026
3.959 -4.781 0.189
4.001 -4.756 -0.002
3.740 -4.286 0.297
3.377 -4.255 0.096
3.113 -5.168 3.541
2.727 -5.067 3.421
2.818 -5.024 3.250
3.436 -5.605 3.308
2.856 -5.271 3.358
2.973 -5.040 3.242
2.697 -4.910 3.188
2.702 -5.008 3.074
2.654 -4.917 2.973
3.427 -5.450 2.990
2.928 -5.180 3.040
2.878 -4.955 3.066
2.673 -4.999 2.821
2.708 -5.309 2.887
2.238 -5.039 2.827
3.254 -5.522 3.058
2.968 -5.364 2.836
2.648 -5.347 2.894
2.623 -5.202 2.901
2.469 -5.170 2.708
2.539 -4.954 2.717
2.466 -4.756 2.690
2.987 -5.358 2.675
2.717 -5.155 2.840
2.638 -5.234 2.727
2.719 -4.959 2.459
2.554 -4.670 2.496
2.302 -4.709 2.526
2.224 -4.381 2.569
2.644 -5.057 2.547
2.241 -4.505 2.253
2.070 -4.235 2.268
2.068 -4.295 2.109
2.389 -4.287 2.008
1.883 -4.317 2.038
1.888 -4.094 1.911
1.646 -3.783 2.067
2.011 -3.940 1.635
1.821 -3.995 1.617
1.629 -3.777 1.470
1.606 -3.693 1.645
1.481 -3.417 1.563
2.087 -3.928 1.459
2.047 -3.936 1.381
1.783 -3.670 1.565
1.409 -3.418 1.384
1.157 -3.423 1.429
1.019 -3.222 1.435
0.724 -3.061 1.357
3.499 -5.047 1.525
3.348 -4.966 1.307
2.051 -4.052 1.270
1.738 -3.860 1.025
1.686 -3.569 1.014
1.444 -3.240 1.287
1.169 -3.343 1.143
0.943 -3.157 0.886
0.780 -3.005 1.150
3.580 -5.062 1.330
3.444 -5.018 1.070
3.335 -5.075 1.142
3.062 -4.558 1.039
2.036 -3.711 0.850
1.923 -3.762 0.720
1.731 -3.417 1.041
1.311 -3.220 0.941
1.343 -2.993 0.794
1.150 -2.882 0.850
0.816 -2.825 0.709
0.716 -2.630 0.622
3.692 -5.044 0.849
3.462 -5.131 1.207
3.314 -4.820 1.182
3.203 -4.578 1.037
3.169 -4.744 0.613
2.013 -3.781 0.578
1.637 -3.233 0.711
1.640 -3.323 0.635
1.365 -3.254 0.466
1.302 -3.030 0.605
0.942 -2.920 0.642
0.509 -2.673 0.436
3.757 -5.285 0.824
3.592 -5.017 0.867
3.324 -4.841 0.744
3.193 -4.565 0.910
3.187 -4.592 0.384
3.039 -4.243 0.440
2.140 -3.424 0.500
1.766 -3.289 0.216
1.597 -3.124 0.609
1.433 -3.221 0.450
1.182 -2.985 0.157
0.921 -2.814 0.332
0.665 -2.391 0.282
0.581 -2.394 0.384
3.623 -5.118 0.510
3.625 -5.027 0.352
3.415 -4.854 0.382
3.015 -4.470 0.428
3.521 -4.394 0.298
3.107 -4.139 0.081
1.724 -3.234 0.032
1.755 -3.178 0.220
1.631 -2.999 0.113
1.127 -2.912 -0.091
1.073 -2.818 0.101
0.835 -2.522 -0.088
0.695 -2.178 0.007
3.701 -4.953 0.352
3.534 -4.924 0.306
3.493 -4.574 0.223
3.143 -4.270 0.208
3.237 -4.256 -0.016
3.114 -4.149 0.198
2.949 -4.121 -0.100
1.719 -3.043 -0.353
1.575 -2.906 -0.027
1.306 -2.672 -0.266
1.131 -2.618 -0.412
0.695 -2.279 -0.180
0.527 -2.047 -0.188
0.286 -2.241 -0.206
4.020 -5.104 -0.043
3.856 -4.615 0.084
3.299 -4.663 -0.017
3.325 -4.313 -0.015
3.061 -5.580 3.467
2.983 -5.439 3.518
2.408 -5.180 3.086
3.186 -5.539 3.494
2.812 -5.296 3.242
2.734 -5.401 2.998
2.604 -5.141 3.260
2.329 -5.173 2.892
2.466 -4.935 3.006
3.292 -5.441 2.929
3.193 -5.326 3.055
2.971 -5.175 2.998
2.601 -5.129 3.169
2.317 -5.284 3.011
2.284 -5.324 2.965
3.020 -5.706 2.834
2.816 -5.640 2.935
2.422 -5.544 2.884
2.447 -5.391 2.938
2.466 -5.374 2.412
2.878 -5.768 2.663
2.881 -5.494 2.687
2.805 -5.387 2.762
2.403 -5.116 2.533
1.517 -3.867 1.432
1.299 -3.905 1.596
0.999 -3.721 1.590
3.573 -5.422 1.709
1.931 -4.005 1.451
1.525 -3.989 1.410
1.230 -3.792 1.303
1.254 -3.475 1.050
0.919 -3.659 1.436
0.693 -3.428 1.337
3.374 -5.309 1.547
3.302 -5.351 1.435
2.925 -5.180 1.312
2.993 -5.045 1.062
1.951 -3.957 0.924
1.585 -3.921 0.953
1.365 -3.518 0.985
1.275 -3.588 1.098
1.057 -3.334 0.896
0.605 -3.338 1.021
0.738 -3.277 0.864
3.388 -5.521 0.960
3.058 -5.182 1.121
3.162 -4.913 0.997
2.964 -4.768 0.966
2.971 -4.666 0.887
1.808 -4.095 0.874
1.770 -4.021 0.904
1.397 -3.613 0.685
1.344 -3.453 0.865
1.139 -3.346 0.512
0.683 -3.283 0.668
0.664 -2.901 0.736
0.468 -2.941 0.787
3.464 -5.268 1.118
3.482 -5.221 1.013
2.999 -4.852 0.951
3.062 -4.744 0.864
2.925 -4.751 0.773
2.726 -4.702 0.729
2.087 -3.863 0.517
1.828 -3.694 0.740
1.649 -3.834 0.641
1.604 -3.506 0.497
1.314 -3.181 0.445
0.824 -3.220 0.394
0.690 -2.930 0.460
0.510 -2.714 0.556
0.180 -2.715 0.401
3.645 -5.138 0.764
3.371 -5.193 0.486
3.075 -4.763 0.618
2.981 -4.850 0.829
2.997 -4.701 0.271
2.898 -4.703 0.254
1.733 -3.685 0.264
1.766 -3.557 0.159
1.545 -3.375 0.434
1.157 -3.358 0.029
1.151 -3.245 0.165
0.723 -2.761 0.210
0.690 -2.786 0.286
0.327 -2.645 0.136
3.449 -5.280 0.419
3.624 -5.220 0.461
3.361 -4.902 0.522
3.184 -4.776 0.442
2.976 -4.521 0.091
2.900 -4.466 0.307
1.814 -3.582 0.004
1.864 -3.384 -0.021
1.551 -3.313 0.051
1.554 -3.149 0.036
0.952 -3.082 -0.071
1.022 -2.975 0.021
0.593 -2.542 -0.109
0.490 -2.491 -0.132
3.883 -5.114 0.307
3.449 -5.071 0.345
3.217 -4.755 0.069
3.226 -4.808 0.243
3.278 -4.609 -0.265
3.069 -4.479 -0.231
1.829 -3.500 -0.353
1.786 -3.454 -0.234
1.281 -3.038 -0.243
1.207 -2.924 -0.142
0.763 -2.796 -0.258
0.690 -2.541 -0.398
0.536 -2.535 -0.175
3.740 -4.949 -0.178
3.522 -4.973 -0.228
3.308 -4.751 0.022
3.055 -4.464 -0.156
2.923 -5.774 3.630
2.523 -5.735 3.424
2.415 -5.461 3.072
3.004 -5.918 3.340
2.734 -5.629 3.230
2.790 -5.427 3.215
2.353 -5.287 3.361
2.310 -5.144 3.010
2.291 -5.034 2.935
3.054 -5.633 3.066
2.738 -5.517 2.984
2.602 -5.392 2.805
2.519 -5.352 2.954
2.262 -5.412 2.598
2.857 -5.997 2.756
2.645 -5.872 2.835
2.427 -5.681 2.604
2.283 -5.635 2.563
2.944 -5.889 2.507
2.893 -5.659 2.510
0.816 -3.810 1.476
3.254 -5.878 1.636
3.129 -5.718 1.504
2.637 -5.087 1.363
1.499 -4.068 1.361
1.147 -4.010 1.275
1.045 -3.685 1.145
0.822 -3.874 1.312
3.144 -5.628 1.224
3.230 -5.321 1.259
2.840 -5.466 1.211
2.584 -5.049 1.176
2.626 -5.230 1.248
1.482 -4.141 0.721
1.501 -3.864 1.018
1.139 -3.689 1.050
0.710 -3.685 0.995
0.530 -3.368 0.997
0.315 -3.100 0.897
3.224 -5.380 1.102
2.886 -5.536 1.053
2.859 -5.282 1.021
2.697 -5.126 0.838
2.613 -5.020 0.763
2.540 -4.885 0.923
1.865 -4.314 0.824
1.463 -3.993 0.859
1.194 -3.642 0.700
1.247 -3.745 0.809
0.893 -3.640 0.843
0.948 -3.383 0.644
0.501 -3.242 0.661
0.374 -3.038 0.379
3.261 -5.626 1.004
3.007 -5.370 0.797
3.095 -5.291 0.743
2.709 -4.912 0.943
2.818 -5.175 0.683
2.560 -4.825 0.541
1.824 -4.143 0.649
1.468 -4.017 0.502
1.565 -3.760 0.342
1.182 -3.594 0.633
1.186 -3.414 0.359
0.893 -3.455 0.378
0.766 -3.299 0.360
0.391 -2.816 0.380
0.152 -2.938 0.292
3.424 -5.295 0.647
3.073 -5.309 0.633
2.959 -5.001 0.517
2.815 -4.833 0.635
2.980 -5.084 0.264
2.537 -4.720 0.250
2.049 -4.000 0.198
1.627 -3.886 0.368
1.368 -3.730 0.158
1.490 -3.544 0.289
1.054 -3.240 0.111
0.894 -3.484 0.294
0.722 -3.268 0.067
0.635 -2.836 0.077
0.347 -2.760 0.304
3.603 -5.362 0.229
3.298 -5.194 0.459
2.981 -5.094 0.263
2.977 -4.925 0.243
2.991 -4.868 0.252
1.889 -3.775 -0.002
1.600 -3.548 -0.185
1.350 -3.358 -0.214
1.002 -3.534 0.059
0.831 -3.341 -0.120
0.668 -3.169 0.081
0.456 -2.730 -0.003
3.522 -5.506 0.161
3.507 -5.330 -0.014
3.292 -5.014 0.077
2.858 -4.958 0.184
3.119 -4.818 -0.039
1.903 -3.810 -0.346
1.637 -3.706 -0.236
1.257 -3.566 -0.270
1.199 -3.385 -0.136
0.946 -3.192 -0.488
0.762 -3.035 -0.332
0.480 -2.930 -0.520
3.396 -5.305 -0.126
3.322 -5.116 -0.296
3.138 -5.068 -0.220
3.058 -4.788 -0.154
2.878 -6.160 3.281
2.611 -6.027 3.238
2.872 -6.140 3.204
2.547 -5.958 3.220
2.325 -5.570 3.152
2.452 -5.471 2.794
2.946 -6.051 2.957
2.601 -5.782 2.691
2.389 -5.497 2.716
2.071 -5.534 2.677
2.507 -6.288 2.802
2.258 -6.056 2.714
2.428 -6.057 2.672
2.614 -6.177 2.555
2.393 -5.196 1.382
3.132 -5.846 1.372
2.778 -5.541 1.408
2.456 -5.573 1.380
2.382 -5.331 1.497
2.474 -5.434 1.381
2.497 -5.092 1.313
1.045 -4.203 1.092
0.787 -3.883 1.046
0.509 -3.767 1.057
3.124 -5.730 1.349
2.782 -5.639 1.274
2.646 -5.440 1.143
2.495 -5.328 1.262
2.622 -5.268 1.187
2.390 -4.960 0.956
1.396 -4.477 0.947
1.199 -3.992 0.798
0.918 -4.072 0.735
0.773 -3.732 0.673
0.585 -3.455 0.715
3.094 -5.891 1.208
3.025 -5.527 1.224
2.924 -5.368 0.921
2.705 -5.260 1.107
2.656 -5.130 0.557
2.574 -5.151 0.761
1.484 -4.247 0.517
1.128 -4.053 0.723
1.036 -3.783 0.632
0.901 -3.908 0.460
0.662 -3.481 0.458
0.450 -3.284 0.516
0.170 -3.167 0.519
3.206 -5.880 0.621
2.935 -5.631 0.657
2.896 -5.511 0.699
2.560 -5.220 0.830
2.727 -4.983 0.362
2.388 -4.886 0.607
1.617 -4.516 0.472
1.664 -4.290 0.326
1.114 -3.866 0.328
1.025 -3.702 0.347
0.831 -3.493 0.201
0.745 -3.701 0.212
0.394 -3.484 0.361
0.356 -3.090 0.420
-0.028 -3.008 0.129
3.353 -5.793 0.609
3.109 -5.358 0.541
3.068 -5.409 0.421
2.753 -5.235 0.508
2.611 -4.980 0.181
1.740 -4.405 -0.028
1.566 -4.082 0.396
1.256 -4.078 0.120
1.087 -3.590 0.048
0.997 -3.855 0.122
0.567 -3.348 0.072
0.526 -3.460 -0.042
0.299 -3.209 0.069
3.388 -5.681 0.283
3.169 -5.534 0.300
2.974 -5.247 0.473
2.973 -5.068 0.308
2.780 -4.956 0.160
1.664 -4.213 -0.036
1.551 -4.052 -0.274
1.415 -3.763 0.028
1.136 -3.789 0.069
1.049 -3.565 -0.290
0.842 -3.407 -0.068
0.455 -3.162 -0.266
0.395 -3.282 -0.044
3.464 -5.776 0.144
3.122 -5.545 0.187
3.223 -5.236 -0.018
2.759 -5.207 -0.239
2.002 -4.307 -0.285
1.699 -3.868 -0.404
1.480 -3.851 -0.226
1.095 -3.673 -0.495
1.060 -3.605 -0.397
0.880 -3.221 -0.483
0.505 -3.016 -0.350
-0.507 -2.401 -0.407
3.639 -5.652 -0.224
3.296 -5.352 -0.227
3.136 -5.106 -0.134
2.498 -6.461 3.372
2.214 -6.142 3.161
2.642 -6.296 2.987
2.577 -5.908 2.894
2.223 -6.009 2.968
2.798 -6.369 2.740
2.408 -5.914 2.877
2.258 -5.745 2.769
2.546 -6.431 2.448
2.425 -6.122 2.845
1.493 -5.313 2.061
1.631 -5.463 1.800
1.661 -5.398 1.753
1.370 -5.062 1.866
2.320 -5.765 1.488
1.947 -5.464 1.644
1.914 -5.478 1.460
1.704 -5.055 1.812
2.382 -5.653 1.688
2.198 -5.501 1.341
1.903 -5.422 1.323
1.931 -5.381 1.177
2.899 -5.952 1.440
2.257 -5.627 1.412
2.195 -5.545 1.395
2.507 -5.522 1.214
2.182 -5.385 0.969
1.978 -5.280 1.051
0.713 -4.357 1.176
0.437 -4.216 0.996
2.937 -6.193 1.244
2.672 -5.730 1.135
2.537 -5.698 1.148
2.308 -5.532 1.162
2.354 -5.345 0.858
2.345 -5.200 1.034
0.842 -4.274 0.722
0.871 -4.332 0.713
0.584 -4.088 0.832
0.236 -3.943 0.757
3.082 -5.847 0.872
2.702 -5.984 1.064
2.686 -5.810 0.736
2.507 -5.414 0.759
2.516 -5.481 0.705
2.313 -5.167 0.636
1.434 -4.396 0.487
1.011 -4.254 0.650
0.892 -4.056 0.322
0.519 -3.870 0.596
0.311 -3.889 0.509
0.313 -3.524 0.654
0.044 -3.276 0.595
3.187 -5.857 0.811
2.856 -5.758 0.489
2.552 -5.711 0.462
2.483 -5.299 0.881
2.488 -5.217 0.338
1.380 -4.229 0.076
1.021 -4.272 0.188
0.982 -3.953 0.410
0.849 -3.932 0.333
0.358 -3.819 0.335
0.097 -3.660 0.261
0.003 -3.233 0.324
3.256 -5.774 0.629
2.844 -5.650 0.309
2.634 -5.479 0.345
2.668 -5.442 0.286
2.429 -5.375 0.118
1.533 -4.303 0.178
1.427 -4.383 0.014
1.389 -4.122 0.101
0.837 -3.904 -0.046
0.913 -3.647 -0.115
0.482 -3.636 -0.151
0.403 -3.412 -0.097
0.398 -3.315 0.015
3.288 -5.935 0.225
3.051 -5.850 0.221
2.848 -5.586 0.112
2.459 -5.268 0.095
1.714 -4.632 -0.211
1.447 -4.292 -0.375
1.214 -4.161 -0.247
1.006 -4.125 -0.140
0.707 -3.834 -0.201
0.635 -3.658 -0.303
0.556 -3.361 -0.360
3.273 -5.779 -0.246
3.159 -5.718 -0.076
3.016 -5.366 -0.001
1.756 -4.611 -0.406
1.576 -4.420 -0.473
1.498 -4.104 -0.623
1.337 -4.026 -0.600
1.157 -3.807 -0.595
1.050 -3.663 -0.392
0.601 -3.696 -0.495
-0.545 -2.641 -0.779
3.417 -5.909 -0.299
3.195 -5.646 -0.503
2.452 -6.486 2.981
2.433 -6.462 2.987
2.367 -6.247 2.854
1.996 -6.092 2.836
2.690 -6.242 2.606
2.444 -6.216 2.776
2.497 -6.488 2.647
1.649 -5.904 2.065
1.608 -5.561 1.964
1.364 -5.273 1.947
1.769 -5.949 1.778
1.790 -5.748 1.655
1.540 -5.532 1.690
1.475 -5.420 1.789
1.321 -5.254 1.787
1.854 -5.726 1.899
2.154 -5.999 1.585
1.760 -5.867 1.637
1.621 -5.647 1.669
1.525 -5.448 1.453
1.193 -5.091 1.565
1.061 -5.061 1.228
2.449 -6.169 1.588
1.950 -5.964 1.658
2.008 -5.615 1.319
1.752 -5.761 1.347
1.634 -5.399 1.236
1.639 -5.136 1.176
1.433 -5.158 1.340
2.524 -6.167 1.371
2.137 -6.091 1.293
2.255 -5.689 1.326
2.151 -5.535 0.968
1.935 -5.575 1.112
1.712 -5.485 1.058
1.670 -5.117 0.818
0.469 -4.187 1.025
2.714 -6.080 1.166
2.438 -5.842 1.101
2.223 -5.821 1.065
2.213 -5.718 1.305
2.475 -5.707 0.830
2.027 -5.376 0.825
1.697 -5.354 0.812
0.550 -4.322 0.836
0.415 -4.242 0.599
0.380 -3.990 0.659
2.889 -6.085 0.909
2.739 -5.894 1.013
2.619 -5.824 0.935
2.272 -5.513 0.729
2.358 -5.647 0.507
2.075 -5.417 0.682
0.861 -4.578 0.546
0.644 -4.090 0.405
0.478 -4.254 0.192
0.077 -3.982 0.425
0.121 -3.724 0.502
2.953 -6.072 0.580
2.734 -6.044 0.388
2.522 -5.732 0.701
2.430 -5.763 0.489
2.419 -5.566 0.223
1.192 -4.574 0.385
0.845 -4.228 0.320
0.709 -4.299 -0.039
0.540 -3.976 0.397
0.240 -3.862 0.295
-0.041 -3.753 0.186
-0.114 -3.736 0.029
3.001 -6.052 0.618
2.698 -6.049 0.237
2.513 -5.594 0.411
2.310 -5.454 0.331
1.310 -4.640 0.123
1.242 -4.390 0.072
1.113 -4.188 -0.223
0.875 -4.195 0.060
0.500 -4.117 -0.201
0.426 -3.767 -0.044
0.260 -3.736 0.040
2.925 -5.807 0.201
2.849 -5.881 0.304
2.624 -5.833 -0.002
1.670 -4.949 -0.101
1.628 -4.567 -0.297
1.335 -4.549 -0.347
0.902 -4.294 -0.347
1.026 -4.155 -0.228
0.769 -3.841 -0.337
0.547 -3.713 -0.340
-0.813 -2.920 -0.419
2.968 -6.045 -0.267
3.053 -5.733 -0.268
2.068 -4.745 -0.499
1.741 -4.568 -0.512
1.772 -4.525 -0.556
1.545 -4.354 -0.514
1.279 -4.417 -0.618
0.901 -4.218 -0.580
0.796 -4.122 -0.448
-0.401 -3.099 -0.665
-0.647 -2.865 -0.662
3.093 -5.798 -0.303
2.314 -6.519 3.222
2.298 -6.502 2.834
2.209 -6.350 2.722
2.381 -6.543 2.591
7.847 -2.568 0.246
8.093 -2.794 -0.052
7.856 -2.329 0.322
8.284 -2.560 0.122
7.075 -2.657 1.059
6.782 -2.451 1.060
7.452 -2.868 0.905
7.346 -2.697 0.781
6.988 -2.445 0.678
7.761 -2.960 0.488
7.633 -2.763 0.662
7.208 -2.544 0.816
7.141 -2.394 0.611
7.928 -3.038 0.405
7.760 -2.867 0.226
7.726 -2.475 0.368
7.320 -2.482 0.336
7.170 -2.314 0.423
7.942 -2.979 -0.043
7.675 -2.512 0.119
7.485 -2.612 0.007
7.134 -2.399 0.062
8.333 -3.072 -0.065
7.824 -2.851 -0.164
7.770 -2.653 -0.203
7.583 -2.448 -0.246
7.373 -2.406 -0.352
8.007 -2.540 -0.166
7.918 -2.320 -0.365
7.466 -2.087 -0.373
7.384 -2.867 1.101
6.992 -2.715 1.026
7.494 -3.035 0.804
7.132 -3.023 0.623
7.082 -2.675 0.928
6.661 -2.679 0.617
7.533 -2.987 0.325
7.342 -2.802 0.508
7.005 -2.629 0.365
6.749 -2.600 0.336
7.704 -3.316 0.498
7.757 -2.932 0.374
7.497 -2.732 0.255
7.237 -2.652 0.166
6.897 -2.350 0.213
6.727 -2.484 0.196
8.106 -3.341 -0.095
7.750 -3.240 0.265
7.582 -2.762 -0.091
7.347 -2.795 0.111
7.216 -2.614 0.268
6.997 -2.309 -0.158
6.704 -2.400 0.050
7.860 -2.862 -0.289
7.827 -2.799 -0.162
7.379 -2.751 -0.398
7.251 -2.532 -0.241
6.872 -2.437 -0.360
7.014 -2.330 -0.363
6.552 -2.127 -0.315
7.581 -2.641 -0.464
7.411 -2.625 -0.606
7.124 -2.298 -0.560
7.090 -2.037 -0.498
7.141 -2.152 -0.785
6.910 -1.955 -0.823
6.859 -3.122 0.965
7.391 -3.146 0.893
7.189 -3.024 0.807
6.991 -2.880 0.702
7.395 -3.438 0.589
7.233 -3.306 0.541
7.148 -3.142 0.388
6.913 -3.047 0.582
6.737 -2.811 0.485
7.975 -3.475 0.356
7.440 -3.388 0.197
7.261 -3.273 0.232
7.220 -3.180 0.208
7.015 -2.766 0.446
6.736 -2.510 0.079
6.649 -2.698 0.120
7.716 -3.251 -0.130
7.386 -3.195 -0.057
7.151 -2.878 -0.050
7.201 -2.735 -0.099
6.881 -2.781 -0.162
6.791 -2.329 0.088
6.486 -2.159 -0.084
7.407 -3.056 -0.377
7.363 -2.832 -0.484
7.046 -2.762 -0.499
6.966 -2.503 -0.401
6.873 -2.362 -0.358
6.716 -2.132 -0.275
7.316 -2.925 -0.453
7.133 -2.631 -0.581
7.025 -2.373 -0.580
6.777 -2.443 -0.657
6.401 -2.016 -0.591
7.343 -2.570 -0.739
7.113 -2.574 -0.721
6.917 -2.254 -0.869
6.652 -2.168 -0.909
6.951 -2.234 -1.091
7.023 -2.228 -1.033
6.652 -2.088 -0.932
7.051 -2.212 -1.437
6.833 -1.839 -1.299
6.786 -1.964 -1.552
7.111 -3.385 0.451
7.308 -3.597 0.546
7.266 -3.332 0.384
6.828 -3.025 0.370
7.294 -3.313 0.266
7.130 -3.076 -0.015
6.779 -2.994 0.206
6.454 -2.777 0.074
7.161 -3.322 -0.231
6.779 -3.078 -0.330
6.732 -2.964 -0.261
6.557 -2.658 -0.201
6.486 -2.608 -0.251
7.286 -2.996 -0.226
6.994 -2.890 -0.618
6.850 -2.626 -0.260
6.571 -2.669 -0.626
6.371 -2.554 -0.533
7.058 -2.852 -0.806
6.815 -2.771 -0.644
6.564 -2.388 -0.563
6.467 -2.348 -0.476
7.164 -2.747 -0.932
6.789 -2.515 -0.835
6.906 -2.549 -0.940
6.606 -2.242 -0.884
6.952 -2.689 -1.221
6.689 -2.505 -1.110
6.528 -2.230 -1.301
6.945 -2.483 -1.447
6.863 -2.524 -1.373
6.732 -2.203 -1.598
6.857 -2.322 -1.764
6.439 -2.967 -0.336
6.313 -2.899 -0.175
6.269 -2.756 -0.405
6.562 -3.111 -0.488
6.506 -3.117 -0.434
6.388 -2.796 -0.491
6.362 -2.609 -0.495
6.799 -3.174 -0.954
6.699 -2.753 -0.550
6.661 -2.897 -0.789
6.353 -2.498 -0.870
7.026 -3.162 -1.048
6.736 -2.811 -1.095
6.586 -2.611 -1.013
6.365 -2.481 -0.942
7.051 -2.880 -1.381
6.635 -2.807 -1.301
6.661 -2.711 -1.124
6.309 -2.252 -1.337
7.010 -2.570 -1.603
6.814 -2.478 -1.372
6.554 -2.454 -1.456
6.747 -2.535 -1.569
6.488 -2.430 -1.784
5.772 -2.992 0.430
6.009 -2.703 -0.210
7.754 -4.009 -0.692
6.488 -3.320 -0.699
6.349 -3.100 -0.674
6.046 -2.857 -0.360
6.453 -3.157 -0.905
6.326 -2.970 -0.666
6.207 -2.887 -0.785
6.788 -3.067 -0.945
6.681 -2.949 -1.269
6.476 -2.937 -0.960
6.285 -2.897 -1.038
7.017 -3.049 -1.160
6.648 -3.163 -1.287
6.586 -2.648 -1.378
6.133 -2.529 -1.294
6.739 -2.833 -1.634
6.381 -2.712 -1.500
6.289 -2.668 -1.762
6.564 -2.687 -1.714
6.413 -2.520 -2.087
6.219 -2.459 -2.258
5.789 -3.721 0.497
5.865 -3.658 0.651
5.659 -3.305 0.594
7.663 -4.605 -0.173
7.300 -4.353 -0.356
7.454 -4.352 -0.417
7.143 -4.220 -0.683
6.167 -3.054 -0.892
5.718 -3.129 -0.636
7.460 -4.122 -0.777
6.224 -3.094 -0.923
6.242 -3.114 -1.058
5.741 -3.003 -0.911
6.361 -3.181 -1.146
6.193 -3.075 -1.311
5.969 -2.709 -1.148
6.817 -3.283 -1.226
6.420 -3.092 -1.391
6.264 -2.962 -1.554
6.003 -2.721 -1.415
6.689 -3.347 -1.654
6.566 -2.924 -1.641
6.346 -2.723 -1.613
6.468 -2.739 -1.887
6.230 -2.744 -2.168
6.403 -2.722 -2.257
6.081 -2.840 -2.142
6.383 -4.019 0.498
6.068 -3.913 0.508
5.793 -3.844 0.691
5.675 -3.476 0.402
5.560 -3.370 0.628
6.501 -4.152 0.319
6.558 -3.965 0.276
5.986 -3.789 0.381
5.866 -3.844 -0.001
6.833 -4.209 0.180
6.494 -4.300 0.115
6.479 -4.178 0.104
7.255 -4.526 -0.211
6.962 -4.429 -0.113
6.734 -4.088 -0.082
6.617 -4.037 -0.106
7.531 -4.867 -0.313
7.426 -4.833 -0.569
7.218 -4.560 -0.453
7.110 -4.358 -0.624
6.721 -4.199 -0.444
7.353 -4.547 -0.543
7.366 -4.529 -0.657
7.122 -4.243 -0.612
5.791 -3.244 -0.667
7.108 -4.294 -0.968
5.896 -3.181 -1.001
5.963 -3.204 -1.052
6.031 -3.417 -1.266
6.021 -3.362 -1.057
6.032 -2.942 -1.249
6.293 -3.171 -1.419
6.284 -3.182 -1.590
5.790 -3.049 -1.604
6.549 -3.283 -1.661
6.459 -3.203 -1.480
6.247 -3.135 -1.632
5.857 -2.865 -1.718
6.232 -3.185 -2.046
5.923 -2.867 -1.952
6.094 -2.908 -2.281
5.961 -3.234 -2.260
6.394 -4.577 0.399
6.505 -4.603 0.418
5.955 -4.472 0.456
5.732 -4.239 0.338
5.590 -3.987 0.316
5.439 -3.943 0.596
5.251 -3.846 0.394
6.870 -4.891 0.297
6.668 -4.440 0.097
6.381 -4.253 0.039
6.038 -4.456 0.283
5.954 -4.061 0.358
5.797 -3.999 0.130
5.426 -3.678 0.262
6.985 -4.709 0.169
6.932 -4.869 -0.118
6.455 -4.564 0.045
6.382 -4.181 -0.083
6.297 -4.109 -0.043
6.079 -4.214 -0.010
5.726 -4.001 -0.073
7.166 -4.913 -0.124
7.090 -4.754 -0.409
6.947 -4.743 -0.354
6.841 -4.456 -0.318
6.502 -4.266 -0.392
6.117 -4.218 -0.291
5.901 -3.870 -0.343
7.605 -5.182 -0.597
7.313 -5.060 -0.295
7.226 -4.602 -0.628
6.954 -4.541 -0.459
6.652 -4.464 -0.408
6.465 -4.299 -0.603
6.272 -4.253 -0.476
7.424 -4.854 -0.622
7.382 -4.707 -0.625
6.963 -4.713 -0.551
6.930 -4.382 -0.839
6.480 -4.303 -0.942
6.993 -4.408 -0.882
6.711 -4.244 -1.005
5.553 -3.319 -1.061
5.881 -3.426 -1.351
5.749 -3.369 -1.326
6.295 -3.541 -1.625
5.849 -3.427 -1.619
5.799 -3.109 -1.392
6.432 -3.860 -1.712
6.159 -3.359 -1.806
5.922 -3.441 -1.821
6.063 -3.139 -1.856
6.354 -3.417 -2.145
6.169 -3.121 -2.056
5.830 -3.044 -2.017
6.052 -3.046 -2.353
5.706 -3.385 -2.299
6.589 -5.253 0.517
6.408 -4.673 0.313
6.100 -4.805 0.144
5.792 -4.562 0.333
5.600 -4.206 0.317
5.512 -4.290 0.572
5.277 -3.989 0.367
6.872 -5.076 0.053
6.451 -4.888 0.086
6.479 -4.927 0.162
6.277 -4.842 0.082
5.941 -4.357 0.035
5.749 -4.344 -0.024
5.608 -4.130 -0.026
5.554 -3.908 0.154
7.002 -5.251 -0.047
6.429 -5.020 -0.119
6.466 -4.770 0.127
6.402 -4.510 -0.170
6.003 -4.549 -0.140
5.806 -4.185 -0.079
5.763 -4.157 -0.090
7.201 -5.062 -0.513
7.040 -5.147 -0.420
6.616 -4.801 -0.259
6.696 -4.757 -0.295
6.363 -4.337 -0.500
6.068 -4.177 -0.315
5.857 -4.267 -0.293
5.868 -3.918 -0.451
7.350 -5.057 -0.603
6.922 -4.859 -0.459
6.965 -4.881 -0.557
6.704 -4.557 -0.674
6.623 -4.425 -0.607
6.183 -4.407 -0.853
5.970 -4.165 -0.433
7.165 -5.139 -0.944
7.290 -4.878 -0.812
7.019 -4.610 -0.852
6.490 -4.578 -0.892
6.328 -4.338 -0.787
6.314 -4.093 -0.846
6.940 -4.622 -1.151
6.770 -4.605 -0.915
5.486 -3.406 -1.723
6.317 -3.670 -1.960
5.780 -3.655 -1.901
5.814 -3.443 -1.827
6.034 -3.578 -2.064
5.915 -3.658 -2.167
5.587 -3.246 -2.202
5.716 -3.317 -2.280
6.706 -1.561 -1.695
5.360 -1.646 0.861
5.929 -2.354 0.825
5.672 -2.096 0.866
5.297 -1.886 0.801
5.881 -1.860 0.676
6.386 -2.077 -0.509
6.323 -2.126 -0.653
6.235 -2.063 -0.576
6.443 -2.007 -0.900
6.182 -1.724 -0.813
6.312 -1.902 -1.165
6.501 -1.659 -1.264
6.845 -1.664 -1.609
6.795 -1.859 -1.877
6.642 -1.949 -1.889
6.423 -1.837 -1.911
6.061 -1.714 -2.096
6.208 -1.718 -2.049
5.224 -2.063 0.710
5.242 -1.960 0.725
4.847 -1.596 0.505
5.634 -2.398 0.508
5.653 -2.110 0.803
5.225 -2.061 0.879
5.336 -2.062 0.256
5.039 -1.997 0.593
4.996 -1.652 0.506
5.532 -1.995 0.507
5.119 -1.460 0.118
6.130 -2.169 -0.642
6.016 -2.002 -0.429
6.203 -2.201 -0.623
6.057 -2.064 -0.820
5.768 -1.684 -0.796
5.642 -1.766 -0.833
6.227 -1.967 -0.793
6.137 -1.922 -1.165
5.960 -1.852 -1.110
5.669 -1.579 -0.942
5.647 -1.487 -1.231
6.278 -1.952 -1.083
6.228 -2.074 -1.290
5.863 -1.726 -1.221
5.652 -1.739 -1.266
5.782 -1.628 -1.421
6.521 -2.106 -1.605
6.155 -1.934 -1.513
6.023 -1.732 -1.465
5.864 -1.722 -1.530
6.690 -1.984 -1.664
6.277 -1.829 -1.488
6.115 -1.647 -1.819
6.586 -2.089 -1.906
6.226 -1.534 -1.906
6.080 -1.671 -2.039
5.873 -1.719 -2.097
5.618 -1.296 -2.250
6.262 -1.964 -2.080
6.171 -2.041 -1.869
5.994 -1.954 -2.163
5.623 -1.585 -2.101
5.873 -1.562 -2.482
6.443 -1.776 -2.183
5.837 -1.788 -2.358
5.679 -1.339 -2.319
5.113 -2.169 0.450
5.638 -2.831 0.885
5.569 -2.602 0.493
5.209 -2.519 0.422
5.056 -2.246 0.742
5.974 -2.710 -0.223
6.110 -2.382 -0.656
5.966 -2.161 -0.513
5.808 -2.010 -0.486
5.286 -1.868 -0.873
6.017 -2.348 -0.728
5.862 -2.202 -0.627
5.581 -1.918 -0.856
5.463 -1.972 -1.010
5.510 -1.908 -1.257
5.928 -2.398 -0.992
5.720 -2.226 -1.107
5.798 -1.960 -0.835
5.399 -1.795 -1.121
5.570 -1.772 -1.132
5.297 -1.651 -1.333
6.336 -2.471 -1.372
5.948 -2.114 -1.419
5.860 -2.015 -1.237
5.500 -1.866 -1.517
5.829 -1.708 -1.496
5.274 -1.502 -1.595
6.366 -2.188 -1.354
5.909 -2.036 -1.502
5.932 -2.032 -1.527
5.562 -1.908 -1.494
5.682 -1.494 -1.767
5.525 -1.413 -1.795
6.295 -2.182 -1.889
6.076 -2.108 -1.696
5.879 -1.721 -1.740
5.774 -1.500 -1.851
5.737 -1.700 -1.914
5.545 -1.311 -1.935
6.558 -2.134 -2.056
6.197 -1.973 -2.187
6.068 -1.656 -1.872
5.998 -1.588 -2.053
5.576 -1.941 -2.337
6.385 -2.214 -2.087
6.100 -2.260 -2.296
6.048 -2.164 -2.164
5.737 -1.875 -2.074
6.212 -2.083 -2.217
5.542 -3.029 0.357
5.120 -2.683 0.584
5.876 -2.906 -0.396
5.613 -2.422 -0.493
5.219 -2.300 -0.564
3.973 -1.295 -0.899
5.846 -2.661 -0.424
5.789 -2.328 -0.639
5.502 -2.433 -0.595
5.284 -2.059 -0.464
5.426 -2.274 -0.840
4.111 -1.149 -1.104
5.970 -2.688 -0.877
5.697 -2.403 -0.822
5.542 -2.244 -0.840
5.236 -1.877 -0.867
5.371 -2.012 -1.200
5.059 -1.649 -1.205
4.305 -1.395 -1.115
6.083 -2.723 -1.186
5.883 -2.555 -1.287
5.652 -2.253 -1.345
5.278 -2.161 -1.163
5.493 -2.033 -1.305
5.286 -1.647 -1.533
4.459 -0.997 -1.515
6.021 -2.311 -1.494
5.819 -2.318 -1.228
5.864 -2.040 -1.397
5.263 -1.833 -1.431
5.514 -1.962 -1.888
5.290 -1.765 -1.911
4.281 -1.135 -1.752
6.169 -2.276 -1.669
5.893 -2.345 -1.898
5.826 -1.965 -1.550
5.407 -1.886 -1.674
5.411 -1.932 -1.892
6.257 -2.272 -2.055
6.037 -2.414 -1.874
5.668 -1.947 -1.758
5.492 -2.010 -1.853
5.436 -1.932 -2.226
6.171 -2.196 -2.153
5.949 -2.140 -1.998
5.941 -1.790 -2.323
5.728 -1.891 -2.070
4.545 -1.094 -2.511
4.113 -0.799 -2.273
4.008 -0.819 -2.319
6.295 -2.493 -2.143
6.078 -2.254 -2.181
5.605 -2.101 -2.291
4.191 -0.739 -2.530
4.195 -0.721 -2.538
3.526 -1.711 0.476
3.396 -1.302 0.202
3.256 -1.488 0.260
3.143 -1.010 0.453
5.269 -3.237 0.473
4.952 -2.325 -0.519
3.054 -0.763 -0.678
5.573 -2.852 -0.336
5.516 -2.643 -0.279
5.233 -2.619 -0.509
4.791 -2.513 -0.514
5.189 -2.259 -0.901
4.803 -2.122 -0.636
3.587 -1.289 -1.037
3.555 -1.084 -1.027
3.385 -1.062 -0.950
5.883 -2.745 -0.696
5.546 -2.487 -0.805
5.435 -2.386 -0.553
5.203 -2.294 -0.640
5.119 -2.117 -1.099
4.873 -2.283 -0.935
4.193 -1.299 -1.113
3.639 -1.146 -0.957
3.576 -0.868 -1.157
5.736 -2.861 -0.728
5.472 -2.675 -0.948
5.491 -2.548 -0.927
5.131 -2.398 -1.067
5.111 -2.090 -1.156
4.850 -2.091 -1.207
4.110 -1.395 -1.286
3.949 -1.303 -1.342
3.621 -0.786 -1.518
5.732 -2.691 -1.118
5.662 -2.660 -1.074
5.390 -2.473 -1.225
5.258 -2.165 -1.493
5.245 -2.369 -1.392
5.258 -1.993 -1.441
4.321 -1.325 -1.337
4.147 -1.370 -1.545
3.816 -0.866 -1.725
3.656 -0.873 -1.551
6.057 -2.756 -1.519
5.613 -2.431 -1.389
5.628 -2.199 -1.549
5.228 -2.292 -1.658
5.461 -2.023 -1.650
4.476 -1.482 -1.804
4.069 -1.215 -2.021
4.004 -1.089 -1.779
5.967 -2.600 -1.555
5.865 -2.602 -1.624
5.565 -2.317 -1.764
5.265 -2.109 -1.796
5.576 -2.227 -1.967
4.413 -1.321 -1.879
4.053 -1.093 -2.102
4.050 -0.981 -2.323
6.181 -2.664 -1.935
6.026 -2.395 -2.004
5.472 -2.260 -1.975
5.353 -2.238 -1.997
4.490 -1.399 -2.197
4.198 -1.080 -2.503
4.008 -0.778 -2.454
6.192 -2.574 -2.143
5.857 -2.438 -2.198
5.681 -2.061 -2.118
4.600 -1.553 -2.577
4.286 -1.330 -2.531
4.166 -1.284 -2.461
3.892 -0.932 -2.292
3.652 -0.771 -2.371
3.436 -0.632 -2.419
3.299 -0.656 -2.569
5.806 -2.491 -2.247
5.762 -2.425 -2.035
4.661 -1.698 -2.539
4.415 -1.245 -2.727
4.207 -1.269 -2.585
3.993 -1.016 -2.938
3.781 -0.898 -2.499
4.739 -1.561 -2.859
4.598 -1.392 -3.031
4.354 -1.421 -2.749
4.171 -1.076 -3.026
5.313 -1.927 -3.125
4.923 -1.582 -2.969
4.643 -1.368 -3.324
5.347 -1.730 -3.313
4.862 -1.596 -3.470
4.060 -0.627 -4.039
4.467 -0.523 -4.155
3.904 -2.201 0.276
3.610 -2.043 0.440
3.295 -1.722 0.303
3.209 -1.740 0.260
3.225 -1.417 0.298
4.186 -2.424 0.110
3.921 -2.129 -0.050
3.629 -1.908 0.074
3.638 -1.636 -0.063
4.588 -2.309 -0.095
4.155 -2.117 -0.343
3.675 -2.092 -0.187
4.852 -2.778 -0.386
4.565 -2.432 -0.388
4.402 -2.347 -0.182
4.151 -2.311 -0.356
2.621 -0.536 -0.522
4.918 -2.592 -0.417
4.946 -2.577 -0.435
4.631 -2.609 -0.439
4.444 -2.294 -0.635
2.888 -1.044 -0.864
2.647 -0.850 -0.910
5.376 -2.840 -0.716
4.991 -2.855 -0.660
4.941 -2.738 -0.467
5.160 -2.688 -0.841
4.932 -2.331 -0.801
4.710 -2.327 -0.855
3.313 -1.257 -1.032
3.085 -1.097 -0.841
2.986 -0.731 -1.093
2.639 -0.815 -1.027
5.556 -3.099 -1.031
5.275 -3.050 -0.624
5.041 -2.815 -1.008
5.046 -2.438 -0.966
4.920 -2.569 -0.994
4.781 -2.399 -0.947
3.653 -1.285 -1.281
3.513 -1.164 -1.197
3.212 -1.053 -1.396
2.899 -0.960 -1.412
2.901 -0.565 -1.177
5.526 -3.092 -1.031
5.418 -2.794 -0.900
5.172 -2.594 -1.259
4.991 -2.323 -1.139
5.067 -2.347 -1.523
4.740 -2.354 -1.365
3.871 -1.504 -1.423
3.591 -1.061 -1.430
3.337 -0.926 -1.405
3.278 -0.894 -1.602
3.161 -0.679 -1.557
2.693 -0.569 -1.410
5.832 -2.806 -1.283
5.410 -2.786 -1.514
5.201 -2.654 -1.424
5.074 -2.527 -1.228
4.928 -2.455 -1.530
3.948 -1.497 -1.800
3.565 -0.986 -1.664
3.584 -0.952 -1.650
3.246 -0.760 -1.824
3.114 -0.648 -1.846
5.731 -2.990 -1.776
5.645 -2.910 -1.487
5.376 -2.432 -1.516
5.165 -2.421 -1.468
5.255 -2.320 -1.990
4.140 -1.341 -1.985
4.059 -1.514 -1.960
3.614 -0.974 -1.919
3.698 -1.014 -1.980
3.673 -0.726 -1.936
3.160 -0.714 -1.956
5.694 -2.826 -1.836
5.620 -2.649 -1.909
5.439 -2.479 -1.997
5.108 -2.267 -1.786
4.129 -1.340 -2.055
3.949 -1.395 -2.296
3.794 -1.231 -2.206
3.530 -0.950 -2.347
3.546 -0.644 -2.286
3.288 -0.542 -2.074
5.654 -2.716 -2.047
5.662 -2.520 -1.832
5.297 -2.408 -2.034
4.413 -1.398 -2.301
4.339 -1.414 -2.533
3.917 -1.301 -2.529
3.719 -1.156 -2.391
3.774 -0.721 -2.427
3.452 -0.526 -2.435
3.389 -0.720 -2.591
5.936 -2.478 -2.431
5.695 -2.666 -2.279
4.489 -1.915 -2.636
4.368 -1.556 -2.486
4.145 -1.550 -2.712
3.966 -1.559 -2.378
3.714 -1.352 -2.470
3.762 -1.124 -2.520
3.449 -0.721 -2.670
5.757 -2.807 -2.479
5.052 -2.061 -2.713
4.734 -2.036 -2.621
4.587 -1.648 -2.725
4.222 -1.334 -2.721
4.191 -1.440 -2.683
3.836 -1.140 -2.889
3.772 -0.906 -2.724
5.097 -2.185 -3.165
4.896 -1.981 -3.151
4.585 -1.854 -2.963
4.644 -1.591 -3.005
4.429 -1.355 -2.858
4.068 -1.222 -3.033
3.795 -1.239 -3.162
5.509 -2.277 -3.040
5.290 -2.064 -3.020
4.998 -1.706 -3.290
4.726 -1.558 -3.234
4.444 -1.399 -3.250
4.374 -1.198 -3.329
4.249 -1.115 -3.064
5.387 -2.105 -3.336
4.914 -1.954 -3.278
4.970 -1.710 -3.408
4.629 -1.561 -3.506
4.219 -1.418 -3.519
4.695 -1.495 -3.660
4.649 -1.555 -3.711
4.056 -2.652 0.373
3.873 -2.516 0.534
3.586 -2.112 0.189
3.434 -2.294 0.402
3.160 -1.865 0.220
3.070 -1.874 0.023
2.814 -1.748 0.096
1.653 -0.875 0.214
1.645 -0.722 0.051
4.459 -2.984 0.112
3.988 -2.697 0.138
3.990 -2.513 -0.045
3.864 -2.247 -0.062
3.701 -2.223 0.055
3.334 -2.027 0.066
3.138 -1.941 -0.042
2.113 -1.019 -0.158
1.649 -0.646 -0.099
1.517 -0.544 -0.043
4.688 -2.895 -0.246
4.472 -2.573 -0.199
4.169 -2.506 -0.118
3.959 -2.364 -0.089
4.003 -2.197 -0.278
3.564 -2.161 -0.333
3.347 -1.743 -0.326
2.366 -0.952 -0.368
1.973 -0.681 -0.443
1.618 -0.640 -0.308
1.603 -0.280 -0.593
4.769 -2.967 -0.255
4.676 -2.936 -0.396
4.485 -2.488 -0.544
4.263 -2.487 -0.634
4.187 -2.387 -0.343
3.973 -2.166 -0.454
3.719 -2.156 -0.534
2.507 -0.855 -0.826
2.257 -0.938 -0.586
2.120 -0.730 -0.543
1.767 -0.587 -0.439
4.620 -3.109 -0.430
4.653 -2.902 -0.678
4.745 -2.647 -0.879
4.541 -2.497 -0.456
4.086 -2.496 -0.766
4.232 -2.373 -0.864
4.030 -1.988 -0.741
2.938 -1.071 -0.831
2.584 -1.179 -0.821
2.439 -0.827 -0.803
2.286 -0.535 -0.918
1.835 -0.514 -1.105
5.093 -3.054 -0.688
4.964 -2.851 -0.615
4.927 -2.687 -0.627
4.940 -2.799 -0.985
4.659 -2.450 -0.826
4.251 -2.496 -0.989
4.185 -2.368 -0.773
2.996 -1.413 -0.910
2.637 -0.962 -1.002
2.581 -1.001 -1.131
2.385 -0.557 -1.135
2.022 -0.623 -1.100
1.913 -0.480 -1.361
5.378 -3.383 -0.884
5.014 -3.150 -0.859
5.000 -2.718 -0.914
4.618 -2.862 -0.976
4.852 -2.572 -1.202
4.605 -2.598 -1.213
4.482 -2.408 -1.085
2.993 -1.381 -1.328
3.054 -1.049 -1.316
2.958 -1.116 -1.243
2.609 -0.758 -1.407
2.273 -0.672 -1.395
2.163 -0.454 -1.477
5.537 -3.017 -1.139
5.180 -3.106 -1.229
5.024 -2.835 -0.948
4.999 -2.862 -1.155
4.915 -2.601 -1.472
4.854 -2.359 -1.275
3.706 -1.656 -1.559
3.392 -1.181 -1.453
3.147 -1.241 -1.611
2.910 -0.885 -1.551
2.720 -0.854 -1.650
2.535 -0.483 -1.560
2.356 -0.285 -1.823
5.630 -2.997 -1.164
5.428 -3.036 -1.311
5.152 -2.981 -1.256
4.852 -2.691 -1.255
5.113 -2.448 -1.457
4.005 -1.643 -1.740
3.603 -1.341 -1.530
3.502 -1.173 -1.736
3.171 -0.996 -1.882
2.890 -0.908 -1.748
2.786 -0.826 -2.047
2.478 -0.646 -1.726
5.720 -3.037 -1.536
5.368 -3.024 -1.817
5.161 -2.594 -1.475
4.790 -2.672 -1.723
4.012 -1.865 -2.021
3.995 -1.720 -2.085
3.391 -1.416 -2.074
3.499 -1.272 -2.218
3.356 -1.224 -2.046
2.852 -0.857 -2.027
2.677 -0.592 -2.157
5.666 -2.988 -1.657
5.458 -2.805 -2.066
5.291 -2.787 -2.112
4.462 -1.743 -2.277
4.103 -1.681 -2.105
4.112 -1.408 -2.237
3.892 -1.141 -2.363
3.513 -1.269 -2.511
3.324 -0.760 -2.440
3.007 -0.876 -2.304
5.751 -2.977 -1.979
5.753 -2.729 -2.072
4.560 -1.985 -2.573
4.376 -1.728 -2.455
4.223 -1.529 -2.693
3.914 -1.399 -2.351
3.836 -1.176 -2.381
3.402 -1.184 -2.627
3.417 -1.067 -2.673
5.940 -2.769 -2.325
4.689 -2.421 -2.629
4.388 -2.141 -2.636
4.236 -1.975 -2.604
4.014 -1.725 -2.687
3.863 -1.461 -2.623
3.587 -1.497 -2.582
3.363 -1.203 -2.657
4.790 -2.470 -2.772
4.785 -2.091 -2.839
4.291 -2.177 -2.817
4.139 -1.961 -2.813
3.977 -1.772 -2.779
3.989 -1.395 -2.942
3.682 -1.402 -3.033
5.004 -2.498 -2.976
5.076 -2.393 -3.118
4.666 -2.212 -2.908
4.448 -2.122 -3.077
4.181 -1.705 -3.078
4.238 -1.777 -3.020
3.912 -1.405 -2.885
3.840 -1.288 -3.001
5.111 -2.535 -3.141
5.113 -2.459 -3.357
5.051 -2.328 -3.262
4.866 -1.965 -3.283
4.770 -1.894 -3.364
4.462 -1.584 -3.441
4.227 -1.572 -3.316
3.725 -1.529 -3.340
5.360 -2.512 -3.336
5.092 -2.403 -3.532
4.869 -1.969 -3.667
4.691 -1.831 -3.278
4.426 -1.561 -3.365
4.215 -1.582 -3.488
4.190 -1.356 -3.503
4.636 -1.893 -3.893
4.719 -1.559 -3.776
4.516 -1.389 -3.778
4.807 -1.540 -3.949
3.940 -2.904 0.271
3.747 -2.858 0.148
3.817 -2.836 0.103
3.739 -2.483 0.145
3.359 -2.413 0.232
3.176 -2.132 0.173
2.922 -2.160 0.268
1.790 -0.952 -0.130
1.446 -0.975 -0.180
1.181 -0.734 0.099
1.062 -0.468 -0.175
0.751 -0.364 -0.098
0.765 -0.162 0.036
4.361 -3.104 0.140
4.225 -2.935 -0.001
3.855 -2.902 -0.118
3.648 -2.477 0.006
3.435 -2.370 -0.049
3.315 -2.212 -0.057
3.289 -2.187 -0.235
2.852 -1.962 -0.194
2.066 -1.074 -0.309
1.662 -0.816 -0.208
1.538 -0.938 -0.250
1.156 -0.694 -0.288
1.142 -0.622 -0.047
0.870 -0.405 -0.316
4.378 -3.287 -0.191
4.372 -3.234 -0.198
4.222 -2.855 -0.357
4.218 -2.752 -0.180
3.709 -2.471 -0.347
3.596 -2.357 -0.380
3.443 -2.268 -0.473
3.285 -2.053 -0.202
1.974 -1.118 -0.461
1.784 -0.758 -0.545
1.559 -0.804 -0.384
1.408 -0.439 -0.590
1.250 -0.306 -0.549
0.959 -0.469 -0.330
4.485 -3.163 -0.478
4.460 -3.192 -0.284
4.208 -2.683 -0.591
4.309 -2.646 -0.587
3.985 -2.426 -0.698
3.856 -2.310 -0.450
3.717 -2.170 -0.495
3.367 -2.173 -0.581
2.060 -1.281 -0.767
2.179 -1.047 -0.708
1.962 -0.846 -0.537
1.761 -0.720 -0.709
1.496 -0.761 -0.679
1.312 -0.236 -0.746
0.953 -0.142 -0.782
4.556 -2.996 -0.475
4.603 -3.217 -0.625
4.395 -3.094 -0.860
4.356 -2.711 -0.668
4.097 -2.491 -0.804
4.031 -2.622 -0.663
3.661 -2.316 -0.835
3.444 -2.104 -0.942
2.279 -1.280 -0.982
2.130 -1.019 -0.740
1.928 -0.786 -0.855
1.756 -0.539 -0.731
1.670 -0.356 -1.065
1.308 -0.167 -1.041
1.265 -0.396 -1.037
4.687 -3.265 -0.771
4.425 -3.055 -0.896
4.619 -2.867 -1.122
4.318 -2.526 -1.018
4.059 -2.358 -1.020
3.993 -2.545 -1.031
3.775 -2.084 -0.964
2.529 -1.292 -1.233
2.244 -1.060 -1.143
2.264 -0.869 -1.100
2.065 -0.930 -1.165
1.763 -0.568 -1.282
1.363 -0.455 -1.238
1.400 -0.341 -1.522
5.055 -3.289 -0.878
4.795 -3.191 -0.795
4.460 -2.758 -0.973
4.662 -2.975 -1.057
4.636 -2.657 -1.398
4.501 -2.585 -1.243
2.586 -1.131 -1.381
2.650 -1.162 -1.371
2.169 -0.682 -1.377
2.066 -0.708 -1.308
1.845 -0.677 -1.499
5.315 -3.240 -1.213
4.799 -3.172 -1.304
4.576 -2.661 -1.278
4.717 -3.020 -1.299
2.914 -1.222 -1.589
2.769 -1.180 -1.633
2.701 -0.916 -1.713
2.352 -0.868 -1.929
5.410 -3.477 -1.355
5.259 -3.194 -1.364
4.961 -3.170 -1.488
4.815 -2.731 -1.495
3.296 -1.584 -1.989
2.907 -1.079 -1.762
2.854 -1.020 -1.680
5.590 -3.190 -1.746
5.043 -3.127 -1.700
3.738 -1.857 -2.159
3.422 -1.422 -2.095
3.162 -1.367 -2.046
3.088 -1.217 -2.399
5.295 -3.179 -1.909
4.142 -1.951 -2.145
4.051 -1.835 -2.336
3.692 -1.699 -2.378
3.466 -1.445 -2.202
3.328 -1.497 -2.371
4.455 -2.124 -2.506
4.382 -2.221 -2.366
4.242 -1.736 -2.704
3.801 -1.852 -2.556
3.907 -1.460 -2.530
3.508 -1.409 -2.486
3.478 -1.463 -2.561
4.716 -6.004 -3.330
4.781 -5.811 -3.322
4.387 -5.553 -3.179
4.077 -5.462 -3.551
4.614 -5.692 -3.819
4.292 -5.494 -3.511
4.120 -5.238 -3.458
6.067 -8.057 -0.473
6.004 -7.995 -0.508
4.547 -7.067 -0.635
4.513 -6.801 -0.667
4.269 -6.589 -0.613
3.796 -6.490 -0.578
3.850 -6.241 -0.456
3.843 -6.047 -0.619
3.218 -6.116 -0.603
6.054 -8.155 -0.690
4.938 -7.305 -0.773
4.772 -6.890 -0.525
4.457 -6.934 -0.808
4.420 -6.476 -0.972
4.234 -6.535 -0.949
3.926 -6.186 -0.738
3.540 -6.000 -0.797
6.618 -8.209 -0.913
5.250 -7.361 -0.844
5.080 -7.132 -1.100
4.655 -6.850 -1.090
4.370 -6.847 -1.043
4.261 -6.480 -0.955
4.365 -6.350 -1.144
4.035 -6.106 -1.199
5.526 -7.255 -1.142
5.178 -7.277 -1.041
5.110 -7.004 -1.387
4.807 -6.702 -1.383
4.622 -6.717 -1.162
4.317 -6.475 -1.315
4.324 -6.400 -1.215
5.748 -7.275 -1.482
5.375 -7.400 -1.510
5.315 -7.028 -1.694
5.270 -6.907 -1.387
4.834 -6.922 -1.640
4.603 -6.722 -1.639
4.428 -6.593 -1.582
5.939 -7.429 -1.834
5.786 -7.548 -1.809
5.610 -7.381 -1.848
5.441 -6.981 -1.843
5.268 -6.924 -1.667
4.874 -6.696 -1.837
4.956 -6.611 -1.714
5.962 -7.320 -1.967
5.518 -7.049 -1.912
5.512 -7.114 -2.073
5.316 -7.004 -2.173
4.994 -6.708 -1.846
3.662 -5.686 -2.130
5.977 -7.095 -2.196
5.539 -6.895 -2.087
5.337 -6.870 -2.409
3.961 -5.698 -2.262
3.825 -5.767 -2.536
4.488 -5.967 -2.531
4.031 -5.770 -2.711
3.731 -5.656 -2.617
4.705 -5.853 -2.823
4.502 -6.029 -2.832
4.193 -5.724 -2.958
4.011 -5.563 -2.847
4.984 -6.224 -3.151
4.761 -6.024 -3.232
4.566 -5.669 -3.206
4.302 -5.740 -3.129
4.313 -5.422 -3.043
4.747 -6.084 -3.306
4.487 -5.894 -3.430
4.199 -5.504 -3.319
4.294 -5.413 -3.268
4.553 -6.078 -3.294
4.471 -5.771 -3.546
4.117 -5.827 -3.446
4.184 -5.742 -3.401
4.320 -5.809 -3.614
4.323 -5.582 -3.560
6.094 -8.424 -0.485
4.709 -7.446 -0.458
4.306 -7.306 -0.656
4.117 -6.906 -0.566
4.138 -6.758 -0.717
3.856 -6.676 -0.530
3.681 -6.606 -0.724
3.476 -6.404 -0.454
5.926 -8.503 -0.622
4.859 -7.556 -0.918
4.569 -7.104 -0.828
4.690 -7.012 -0.714
4.417 -7.153 -0.755
4.204 -6.644 -0.829
4.150 -6.872 -0.921
3.625 -6.502 -0.902
3.545 -6.339 -1.087
6.329 -8.494 -0.870
4.992 -7.489 -1.227
4.823 -7.275 -1.323
4.613 -7.210 -1.209
4.301 -6.797 -1.203
4.074 -6.864 -1.040
3.976 -6.482 -1.243
3.814 -6.494 -1.047
6.306 -8.512 -1.248
5.324 -7.463 -1.038
5.138 -7.497 -1.258
4.759 -7.346 -1.296
4.721 -7.012 -1.402
4.665 -6.970 -1.332
4.261 -6.649 -1.323
3.970 -6.406 -1.304
3.947 -6.347 -1.597
5.306 -7.425 -1.387
5.021 -7.386 -1.601
4.928 -7.164 -1.782
4.745 -6.888 -1.605
4.609 -6.779 -1.713
4.304 -6.788 -1.630
4.258 -6.504 -1.491
5.442 -7.726 -1.734
5.438 -7.367 -1.566
5.137 -7.376 -1.795
5.133 -7.027 -1.977
5.046 -6.996 -1.866
4.574 -6.893 -1.967
4.252 -6.405 -1.821
5.671 -7.479 -1.867
5.738 -7.369 -2.046
5.414 -7.102 -1.996
5.013 -7.118 -1.986
4.931 -6.718 -2.118
5.467 -7.464 -2.197
5.498 -7.305 -2.322
3.855 -5.668 -2.802
4.193 -5.889 -2.848
3.952 -5.941 -3.046
3.910 -5.764 -2.966
4.769 -6.218 -2.871
4.751 -6.171 -3.076
4.489 -6.025 -3.254
4.118 -5.684 -3.125
3.927 -5.754 -3.236
4.606 -6.020 -3.255
4.312 -6.010 -3.528
4.203 -5.772 -3.223
4.109 -5.654 -3.425
4.555 -6.316 -3.589
4.326 -6.021 -3.596
4.220 -5.977 -3.578
4.333 -5.958 -3.635
3.995 -5.796 -3.669
4.139 -5.654 -4.008
4.711 -7.703 -0.801
4.565 -7.546 -0.596
4.212 -7.300 -0.783
4.035 -7.407 -0.603
3.937 -7.137 -0.800
3.585 -6.987 -0.855
3.716 -6.780 -0.680
3.243 -6.629 -0.611
4.791 -7.794 -0.801
4.726 -7.531 -1.061
4.267 -7.149 -0.957
4.201 -6.976 -1.010
4.022 -6.909 -1.100
3.736 -6.861 -0.949
3.636 -6.569 -0.824
3.338 -6.402 -1.085
5.221 -7.836 -1.117
4.927 -7.566 -1.049
4.645 -7.445 -1.065
4.307 -7.213 -1.149
4.274 -7.055 -1.197
4.002 -6.903 -1.364
3.870 -6.981 -1.080
3.636 -6.689 -1.182
3.422 -6.307 -1.099
5.144 -7.750 -1.203
4.929 -7.717 -1.254
4.746 -7.514 -1.672
4.442 -7.107 -1.444
4.179 -7.132 -1.560
3.948 -6.928 -1.391
3.777 -6.637 -1.468
3.700 -6.460 -1.449
5.099 -7.549 -1.604
4.939 -7.501 -1.732
4.710 -7.350 -1.811
4.673 -7.267 -1.565
4.423 -6.956 -1.757
4.208 -6.858 -1.938
3.790 -6.812 -1.702
3.736 -6.485 -1.734
5.239 -7.678 -2.142
5.256 -7.434 -1.819
4.921 -7.464 -2.054
4.763 -7.302 -1.884
4.634 -7.037 -1.960
4.225 -6.944 -1.878
4.118 -6.535 -2.192
5.101 -7.232 -1.991
5.058 -7.374 -2.155
4.718 -7.129 -2.197
4.608 -6.985 -2.296
4.890 -6.823 -3.318
4.470 -6.579 -3.149
4.439 -6.330 -3.143
4.187 -6.121 -3.033
4.334 -6.429 -3.417
4.480 -6.122 -3.470
4.055 -5.822 -3.412
4.306 -6.660 -3.508
4.273 -6.519 -3.717
4.010 -6.206 -3.452
4.419 -6.206 -3.792
3.876 -6.163 -3.972
4.646 -7.986 -0.871
4.406 -7.766 -0.737
4.202 -7.534 -0.800
3.761 -7.358 -0.773
3.720 -7.133 -0.750
3.556 -7.234 -0.595
3.421 -6.925 -0.988
4.691 -8.047 -0.844
4.423 -7.712 -1.067
4.242 -7.371 -0.978
4.079 -7.337 -0.830
4.031 -7.361 -1.068
3.626 -7.190 -0.891
3.625 -6.771 -0.947
3.163 -6.818 -1.317
4.967 -8.126 -1.188
4.636 -7.680 -1.204
4.554 -7.776 -1.407
4.374 -7.294 -1.412
4.068 -7.384 -1.468
4.019 -7.312 -1.292
3.807 -7.015 -1.305
3.663 -6.910 -1.344
3.390 -6.594 -1.285
4.991 -7.804 -1.436
4.856 -7.881 -1.403
4.744 -7.455 -1.572
4.168 -7.478 -1.534
3.904 -7.359 -1.562
4.195 -7.045 -1.581
3.768 -6.824 -1.596
3.628 -6.628 -1.535
3.208 -6.437 -1.606
4.617 -7.736 -1.728
4.646 -7.720 -1.767
4.592 -7.496 -1.712
4.179 -7.411 -1.616
4.055 -6.984 -1.578
4.073 -6.919 -1.815
3.480 -6.691 -1.814
4.848 -7.440 -1.910
4.624 -7.309 -1.868
4.468 -7.153 -2.097
4.074 -7.213 -2.075
4.132 -7.023 -2.029
4.011 -6.889 -1.917
3.727 -6.562 -1.836
4.736 -7.215 -2.238
4.418 -7.049 -2.193
4.277 -7.046 -2.239
4.485 -6.942 -3.176
4.540 -6.689 -3.206
4.276 -6.736 -3.553
4.212 -6.314 -3.508
4.137 -6.286 -3.432
4.268 -6.773 -3.678
4.187 -6.787 -3.550
4.040 -6.626 -3.889
3.877 -7.731 -0.731
3.512 -7.319 -0.911
3.515 -7.208 -0.672
3.411 -7.312 -0.972
4.110 -7.785 -1.279
3.906 -7.664 -1.354
3.668 -7.379 -0.937
3.392 -7.345 -1.282
3.309 -7.076 -1.325
4.182 -7.821 -1.552
3.807 -7.620 -1.473
3.904 -7.438 -1.362
3.505 -7.009 -1.395
3.500 -7.249 -1.406
2.990 -6.657 -1.398
4.487 -7.595 -1.594
4.090 -7.617 -1.742
3.870 -7.402 -1.603
3.756 -7.310 -1.681
3.631 -6.917 -1.672
3.262 -6.769 -1.493
4.536 -7.691 -1.717
4.284 -7.700 -1.928
4.119 -7.464 -1.868
3.951 -7.153 -1.622
3.602 -6.947 -1.744
3.670 -6.955 -1.867
3.425 -6.701 -2.037
4.663 -7.789 -2.164
4.446 -7.337 -2.119
4.213 -7.223 -1.940
4.011 -7.124 -2.224
3.893 -7.064 -2.021
3.493 -6.988 -1.987
3.236 -6.850 -2.103
4.307 -7.418 -2.398
4.070 -7.028 -2.560
3.796 -6.938 -2.613
3.639 -6.923 -2.274
4.620 -6.926 -3.495
4.356 -6.959 -3.668
4.098 -6.524 -3.490
4.317 -7.003 -3.804
3.959 -6.950 -4.161
3.160 -7.456 -0.966
3.141 -7.321 -1.249
3.013 -7.173 -1.335
3.473 -7.250 -1.480
3.008 -7.006 -1.469
3.576 -7.517 -1.565
3.472 -7.376 -1.861
3.375 -7.210 -1.647
2.890 -6.970 -1.831
3.869 -7.419 -2.051
3.638 -7.234 -2.003
3.303 -7.219 -2.080
2.983 -6.784 -1.958
3.851 -7.247 -2.377
3.670 -7.271 -2.258
3.341 -6.998 -2.338
3.438 -6.804 -2.186
2.888 -6.840 -2.280
3.759 -7.171 -2.438
3.614 -7.188 -2.498
3.600 -6.930 -2.510
3.067 -6.913 -2.522
3.076 -6.701 -2.706
3.530 -7.038 -2.600
3.403 -6.982 -2.687
2.937 -6.483 -2.791
3.348 -6.443 -3.043
4.536 -7.563 -3.469
4.344 -7.251 -3.725
2.805 -7.291 -2.025
2.804 -7.277 -2.027
2.625 -7.033 -2.013
3.363 -7.148 -2.351
3.157 -7.261 -2.450
2.961 -7.057 -2.333
3.453 -7.322 -2.584
3.216 -7.181 -2.716
3.119 -6.755 -2.604
3.538 -7.343 -2.844
3.184 -7.081 -3.055
2.874 -6.645 -2.933
3.560 -7.076 -3.192
3.205 -7.071 -3.002
3.110 -6.883 -3.212
3.339 -6.849 -3.222
3.093 -6.765 -3.311
3.296 -6.539 -3.737
2.932 -6.820 -3.943
2.747 -6.787 -2.978
2.934 -6.876 -3.035
2.999 -7.028 -3.387
3.059 -6.629 -3.800
3.185 -6.699 -3.992
5.828 -3.481 -2.586
6.551 -5.170 0.234
6.418 -5.053 0.195
6.018 -4.860 0.334
6.152 -5.005 0.322
5.724 -4.556 0.304
5.405 -4.616 0.294
5.182 -4.439 0.250
5.216 -4.235 0.156
6.861 -5.339 0.122
6.380 -5.027 0.238
6.314 -4.889 -0.155
5.965 -4.851 0.031
5.847 -4.567 -0.075
5.719 -4.428 -0.123
5.528 -4.321 0.094
5.375 -4.056 0.130
7.172 -5.424 -0.124
6.665 -5.122 -0.247
6.505 -4.989 -0.265
6.047 -4.984 -0.218
6.094 -4.971 -0.122
5.873 -4.591 -0.330
5.565 -4.243 -0.178
5.450 -4.214 -0.408
5.317 -4.108 -0.392
6.825 -5.456 -0.308
6.857 -5.400 -0.571
6.437 -4.874 -0.471
6.395 -5.005 -0.417
6.034 -4.690 -0.486
5.950 -4.394 -0.415
5.874 -4.410 -0.512
5.576 -4.161 -0.551
6.893 -5.315 -0.566
6.804 -5.261 -0.741
6.833 -4.903 -0.661
6.442 -4.898 -0.523
6.346 -4.750 -0.786
6.210 -4.653 -0.745
5.832 -4.163 -0.695
5.660 -4.121 -0.703
7.322 -5.186 -0.820
6.857 -4.984 -0.888
6.757 -4.866 -0.684
6.351 -4.899 -0.819
