0.097 0.068 5.514
0.187 1.763 5.558
0.065 1.386 5.546
0.049 1.446 5.486
-0.106 1.326 5.613
0.308 1.263 5.850
1.451 1.706 6.216
0.226 1.044 5.360
0.174 1.089 5.662
0.351 1.201 5.825
1.322 1.387 6.175
0.025 0.974 5.584
0.225 0.968 5.605
1.769 1.182 6.083
1.538 1.266 6.431
0.250 0.921 5.275
0.290 0.814 5.481
0.524 0.526 5.149
1.848 1.044 6.155
1.600 0.906 6.105
0.326 0.304 5.473
0.422 0.407 5.201
1.979 0.504 6.268
2.363 0.804 6.295
0.271 0.480 5.007
0.158 2.177 5.665
0.242 1.619 5.568
0.412 2.095 5.329
1.749 2.294 6.432
-0.062 1.739 5.343
0.132 1.772 5.299
0.429 1.441 5.429
1.639 1.902 6.103
1.695 1.776 6.404
0.069 1.822 5.298
-0.024 1.234 5.112
0.629 1.437 5.619
1.720 1.776 6.085
1.635 1.547 6.302
2.151 1.642 6.382
0.361 1.348 5.460
0.495 1.309 5.500
1.347 1.455 5.761
1.763 1.656 6.065
1.934 1.366 6.340
0.142 1.186 5.332
0.443 1.046 5.454
0.544 0.922 5.392
1.281 1.211 5.795
1.768 1.324 6.040
1.921 1.318 6.166
2.079 1.249 6.233
2.389 1.496 6.289
0.089 0.829 4.911
0.404 1.054 5.372
1.659 0.890 5.633
1.575 0.880 6.067
1.820 0.891 6.229
2.034 1.147 6.089
2.141 1.146 6.333
0.029 0.421 4.916
2.000 0.543 5.874
2.164 0.652 5.886
2.365 0.757 6.189
2.226 0.826 6.163
0.293 0.564 4.810
0.943 3.683 6.063
1.093 4.047 6.424
0.719 3.355 6.076
0.821 3.527 5.889
0.887 3.491 6.056
0.672 3.100 5.796
1.024 3.069 5.848
1.297 3.218 6.147
0.480 3.081 5.826
0.842 2.976 5.909
0.115 2.468 5.285
0.447 2.901 5.542
0.395 2.959 5.912
0.095 2.142 5.123
0.446 2.526 5.598
0.552 2.668 5.649
0.236 2.161 5.093
0.061 2.189 5.290
0.262 2.430 5.406
0.627 2.284 5.269
-0.115 2.069 5.254
0.070 1.892 4.962
0.549 1.721 5.283
2.037 2.196 6.168
2.216 2.131 6.426
0.019 1.679 5.286
0.236 1.809 5.197
0.241 1.724 5.108
1.979 2.082 5.817
2.147 2.099 6.013
2.113 2.133 6.218
-0.061 1.727 5.267
0.341 1.739 5.119
0.482 1.628 5.014
1.516 1.614 5.839
1.800 1.960 5.975
2.216 2.020 5.849
2.205 2.068 6.092
0.042 1.600 5.075
0.312 1.262 5.327
0.603 1.278 5.024
1.831 1.381 5.843
1.794 1.379 6.014
1.948 1.708 5.966
2.392 1.729 6.328
2.613 1.580 6.364
0.127 1.330 4.907
0.164 1.333 5.247
1.463 1.062 5.670
1.863 1.264 5.545
1.965 1.375 6.050
2.128 1.184 6.155
2.452 1.478 6.061
2.420 1.513 6.341
0.172 0.733 4.550
0.138 0.718 5.048
1.691 0.967 5.299
1.619 1.214 5.878
1.896 0.820 5.924
2.326 1.139 5.737
2.364 1.278 6.043
2.589 1.052 5.927
3.128 1.295 6.194
0.026 0.469 4.724
1.253 0.706 5.441
1.800 0.794 5.624
2.072 0.956 5.408
2.292 0.746 5.645
2.569 0.814 6.012
2.760 0.808 6.168
1.544 0.290 5.126
1.626 0.535 5.520
1.885 0.440 5.446
2.278 0.568 5.759
1.158 -0.029 5.279
1.789 0.299 5.366
2.060 0.166 5.229
3.732 0.243 6.319
3.950 0.138 6.072
0.793 4.204 6.357
0.555 4.169 6.180
0.657 3.841 6.309
0.784 4.039 6.220
0.609 4.031 5.994
0.782 3.755 5.738
0.943 3.939 5.958
1.102 4.159 6.122
1.538 4.205 6.069
0.298 3.636 5.457
0.513 3.752 5.573
0.800 3.772 5.707
0.948 3.893 6.168
1.199 3.486 6.054
1.750 3.949 6.414
0.504 3.267 5.682
0.692 3.404 5.632
0.779 3.188 5.706
0.802 3.530 5.611
1.393 3.316 5.889
1.569 3.464 5.924
0.322 3.017 5.502
0.195 2.846 5.512
0.617 3.233 5.450
0.853 3.269 5.865
0.811 3.300 5.881
1.288 3.177 5.970
0.097 2.511 5.026
0.300 2.565 5.234
0.696 2.547 5.368
0.674 2.614 5.459
0.783 2.626 5.386
0.987 3.134 5.704
0.233 2.834 5.087
0.242 2.374 5.252
0.241 2.349 5.391
0.718 2.617 5.107
0.726 2.381 5.411
1.090 2.806 5.342
-0.002 2.342 4.994
0.076 2.247 4.983
0.160 2.464 4.983
0.454 2.510 5.226
0.972 2.534 5.350
2.218 2.437 6.323
0.175 2.212 5.078
0.159 1.866 5.027
0.317 2.092 5.156
0.754 2.188 5.284
2.369 2.234 5.998
2.558 2.486 6.253
-0.152 1.831 4.760
0.457 1.842 4.738
0.453 1.524 5.009
0.385 1.666 4.913
1.875 2.181 6.098
2.192 1.997 6.134
2.429 2.006 6.358
2.813 2.037 6.126
0.333 1.486 4.929
0.286 1.947 5.115
0.275 1.725 5.014
1.687 1.677 5.508
2.271 2.048 5.743
2.476 2.144 6.003
2.777 1.778 5.961
2.691 1.774 6.042
0.262 1.569 4.656
0.205 1.321 4.940
1.700 1.481 5.736
2.008 1.440 5.523
2.313 1.403 5.611
2.389 1.613 5.760
2.809 1.914 6.016
2.958 1.680 6.136
0.119 1.087 4.405
0.167 1.090 4.843
1.659 1.226 5.583
1.704 1.444 5.472
1.857 1.248 5.792
2.131 1.318 5.651
2.735 1.675 5.942
2.605 1.536 5.938
0.361 1.091 4.399
1.594 1.215 5.082
1.561 0.870 5.369
1.778 1.130 5.237
2.158 1.196 5.331
2.411 1.387 5.835
2.474 1.264 5.679
1.494 0.665 4.842
1.367 0.577 4.974
1.973 0.777 5.235
1.981 0.977 5.563
2.339 0.880 5.340
2.306 1.049 5.537
1.096 0.486 5.077
1.607 0.462 5.075
1.417 0.714 4.912
1.879 0.665 5.419
2.321 0.594 5.415
2.165 0.572 5.431
1.095 -0.077 4.529
1.262 0.054 4.799
1.291 0.347 4.936
1.841 0.121 5.215
1.737 0.139 4.975
1.982 0.235 5.075
1.576 -0.013 5.005
1.919 0.141 5.013
2.003 0.327 5.251
3.926 0.428 6.299
3.392 0.389 6.109
3.824 0.142 6.008
0.986 4.170 6.021
1.188 4.339 6.356
0.595 4.168 5.804
1.204 4.176 6.330
1.048 4.090 6.367
0.759 4.031 5.802
0.967 4.086 5.751
1.170 3.768 5.907
1.092 4.153 6.404
1.506 4.015 6.205
3.706 0.644 6.442
3.944 0.237 6.158
3.998 0.367 6.021
4.417 0.321 6.347
3.985 0.247 6.223
4.348 -0.184 6.409
3.650 1.456 5.991
4.254 1.380 6.412
4.083 0.797 6.099
3.984 1.051 5.973
3.775 0.595 6.163
4.024 0.921 6.041
4.568 1.121 6.443
4.297 0.607 5.871
4.279 0.380 5.975
4.639 0.622 6.164
4.314 0.337 5.837
4.538 0.126 5.962
4.582 0.276 6.376
4.323 0.122 5.962
4.607 -0.081 6.068
4.885 0.303 5.892
4.905 0.264 6.430
3.209 2.902 6.323
3.533 2.921 6.036
4.302 1.748 6.046
4.466 1.637 6.242
3.970 1.204 6.091
4.223 1.491 6.191
4.372 1.414 6.233
4.808 1.493 6.202
4.074 1.197 5.632
4.198 1.057 6.165
4.527 1.292 5.988
4.736 1.432 6.143
3.946 0.857 5.784
4.414 1.004 5.893
4.390 1.177 5.906
4.915 1.014 5.968
3.996 0.868 5.710
4.523 0.690 6.107
4.615 0.699 6.058
4.879 0.599 6.054
5.060 0.848 6.250
4.294 0.357 5.903
4.501 0.349 5.944
4.692 0.511 6.152
5.004 0.682 5.889
5.079 0.677 6.308
4.311 0.300 5.590
4.354 0.426 5.592
4.568 0.058 5.858
4.928 0.472 5.873
5.317 0.423 6.322
3.005 4.068 6.402
3.289 3.826 6.135
3.153 3.584 6.147
3.683 3.594 6.244
3.251 3.416 5.855
3.513 3.363 6.111
3.579 3.024 5.873
3.985 3.285 6.102
3.532 3.006 5.888
3.621 2.808 6.052
4.229 2.844 6.273
4.082 1.803 5.886
4.324 1.796 5.778
4.433 1.634 6.189
4.864 1.711 5.977
4.838 2.042 6.061
4.273 1.478 5.814
4.406 1.245 5.857
4.707 1.697 6.170
4.689 1.517 6.240
4.698 1.560 6.151
3.945 1.396 5.480
4.444 1.252 5.566
4.733 1.097 5.767
4.937 1.476 6.114
4.962 1.428 6.048
5.225 1.637 6.276
4.216 0.808 5.698
4.612 1.091 5.560
4.553 1.177 5.958
4.698 0.985 5.768
5.246 1.141 6.084
5.257 1.116 5.986
4.306 0.697 5.363
4.347 0.680 5.560
4.730 0.708 5.561
5.081 0.961 5.886
5.058 1.014 6.183
5.122 0.829 6.344
4.107 0.413 5.259
4.354 0.747 5.583
4.904 0.328 5.560
5.201 0.635 5.667
5.127 0.699 5.813
5.542 0.934 6.311
4.280 0.268 5.395
4.493 0.339 5.611
4.707 0.170 5.804
5.035 0.542 5.609
5.370 0.439 6.087
5.471 0.670 5.944
2.983 4.662 6.353
3.223 4.584 6.165
3.392 4.250 5.947
3.375 4.167 6.026
3.560 4.176 6.042
3.660 4.026 6.143
3.634 4.206 6.112
3.252 3.886 6.072
3.788 3.937 6.178
3.636 3.722 6.133
3.544 3.405 5.948
3.888 3.622 6.058
3.961 3.900 5.941
3.366 3.434 6.118
3.598 3.555 6.217
4.215 3.668 6.089
4.005 3.351 6.065
3.547 3.354 5.703
3.804 3.025 5.843
4.222 3.358 6.165
4.483 3.235 6.260
4.014 2.946 5.684
4.211 2.913 6.198
4.510 2.910 6.235
4.637 2.902 6.388
3.845 1.813 5.633
4.523 1.818 5.575
4.630 1.950 5.870
4.493 1.826 6.106
4.195 1.516 5.332
4.162 1.495 5.405
4.608 1.583 5.840
4.614 1.520 5.739
5.097 1.735 6.180
4.467 1.269 5.562
4.397 1.400 5.485
4.827 1.220 5.590
4.739 1.257 5.937
5.239 1.498 5.905
5.506 1.372 6.265
4.510 0.996 5.206
4.276 0.902 5.266
4.936 1.346 5.586
4.980 1.168 5.517
5.321 1.417 5.848
5.253 1.036 6.121
4.257 0.866 5.155
4.550 0.876 5.414
4.666 0.797 5.363
5.264 1.047 5.838
5.337 1.114 5.834
5.503 1.126 5.926
4.210 0.339 5.300
4.593 0.786 5.537
5.038 0.712 5.584
5.006 0.579 5.585
5.095 0.791 5.778
5.517 0.693 5.934
4.462 0.397 5.161
4.620 0.306 5.352
4.855 0.316 5.264
5.052 0.336 5.805
5.403 0.660 5.581
5.428 0.580 5.826
3.143 4.853 6.332
3.396 4.647 6.008
3.310 4.460 6.068
3.163 4.448 6.012
3.302 4.524 6.261
3.834 4.817 6.216
3.518 4.464 5.913
3.786 4.531 5.980
3.566 4.708 6.089
4.160 4.686 6.360
3.248 4.052 5.684
3.672 4.332 5.734
3.945 4.420 6.051
4.191 4.477 6.377
3.357 4.138 5.994
3.827 3.964 5.896
4.089 3.817 5.948
4.391 4.093 6.310
4.167 4.201 6.115
3.580 3.554 5.898
3.651 3.761 5.659
3.788 3.542 5.920
4.327 3.823 6.163
4.236 3.971 6.238
3.874 3.454 5.633
3.910 3.700 5.816
3.874 3.395 5.776
4.224 3.444 6.039
4.717 3.413 6.083
4.664 3.523 6.494
3.530 3.230 5.830
3.975 3.201 5.795
4.348 3.137 5.652
4.616 3.107 5.810
4.675 3.364 6.129
4.907 3.465 6.386
4.027 3.225 5.787
4.628 2.927 5.756
4.688 3.146 6.272
4.978 3.355 5.932
5.354 3.217 6.288
4.845 2.964 6.077
4.852 2.740 5.916
4.985 3.205 6.363
4.145 2.114 5.230
4.395 1.809 5.472
4.277 1.825 5.649
4.415 2.026 5.719
4.035 1.656 5.401
4.500 1.683 5.456
4.756 1.562 5.628
4.968 1.768 5.512
4.194 1.396 5.009
4.403 1.468 5.106
4.952 1.243 5.599
5.115 1.678 5.359
5.038 1.276 5.765
4.477 0.955 4.969
4.762 1.315 5.279
4.661 1.221 5.623
5.167 1.100 5.661
5.439 1.233 5.677
5.616 1.264 5.546
4.669 1.094 4.914
4.790 1.016 5.076
5.123 0.939 5.470
5.357 0.942 5.437
5.126 0.811 5.554
5.576 1.248 5.876
4.555 0.504 5.005
4.951 0.520 5.366
5.149 0.507 5.166
5.404 0.996 5.440
5.461 0.890 5.559
5.437 1.084 5.853
5.884 0.697 5.861
4.728 0.554 5.000
5.055 0.461 5.060
4.921 0.373 5.062
5.283 0.463 5.579
5.580 0.666 5.276
5.764 0.657 5.476
5.840 0.439 5.892
3.191 4.824 5.999
3.195 5.019 6.325
3.276 4.496 6.136
3.713 4.865 5.889
3.646 4.603 6.168
3.395 4.694 5.789
3.661 4.965 5.651
3.312 4.304 5.698
3.919 4.649 5.650
3.979 4.762 5.860
3.983 4.775 5.890
3.633 4.100 5.587
3.683 4.081 5.674
4.078 4.522 5.657
4.068 4.469 5.730
4.516 4.350 5.972
3.750 4.077 5.608
4.021 3.865 5.472
4.074 3.953 5.731
4.177 4.034 5.713
4.468 3.979 6.088
3.580 3.684 5.291
4.009 3.987 5.429
3.977 3.817 5.599
4.284 3.860 5.732
4.752 3.740 6.011
4.824 4.029 5.890
3.985 3.455 5.351
4.031 3.661 5.465
4.142 3.582 5.605
4.193 3.688 6.023
4.575 3.706 6.026
5.004 3.705 6.211
5.085 3.798 6.165
3.968 3.151 5.328
4.149 3.350 5.568
4.646 3.332 5.896
4.587 3.363 5.826
5.138 3.458 6.093
5.068 3.577 5.933
5.282 3.399 6.309
4.731 3.386 5.570
4.805 3.298 5.992
5.066 3.145 5.998
5.206 3.188 5.928
5.648 3.285 6.257
4.931 3.142 5.706
5.239 2.859 5.793
5.189 2.973 5.924
5.331 3.131 6.112
5.498 3.154 6.378
5.191 2.850 5.715
5.363 2.615 6.177
5.814 2.712 6.070
5.779 2.765 6.148
5.541 2.688 5.796
5.627 2.851 5.947
5.665 2.687 6.074
5.925 2.909 6.171
4.314 2.046 5.012
5.913 2.343 5.771
5.768 2.662 5.940
6.331 2.637 6.028
4.276 1.743 4.947
4.532 2.002 5.332
6.155 2.033 5.909
6.253 2.322 6.301
4.378 1.804 5.152
4.383 1.573 4.996
4.944 1.925 5.337
4.482 1.527 4.900
4.693 1.380 5.154
4.955 1.457 5.255
5.248 1.688 5.132
4.709 1.383 4.791
4.483 1.273 5.277
5.142 1.125 5.201
5.331 1.128 5.267
5.574 1.336 5.343
4.396 0.844 5.065
4.585 0.939 5.087
5.108 0.962 4.978
5.032 1.111 5.431
5.476 1.026 5.557
5.652 1.257 5.476
4.463 0.675 4.785
5.061 0.626 4.889
4.928 0.628 5.301
5.122 0.803 5.057
5.329 0.912 5.558
5.652 0.915 5.593
6.178 1.015 5.702
4.874 0.567 5.154
5.370 0.437 5.053
5.332 0.482 4.947
5.613 0.826 5.302
6.028 0.465 5.565
6.258 0.609 5.641
6.038 0.910 5.740
3.575 6.349 6.286
3.281 4.938 5.722
3.200 4.647 5.611
3.718 4.536 5.591
3.593 4.547 5.654
3.427 4.652 5.252
3.891 4.594 5.744
3.409 4.120 5.411
3.987 4.144 5.732
4.250 4.291 5.508
3.858 4.020 5.124
3.857 4.354 5.341
4.390 4.134 5.812
4.207 4.394 5.556
3.910 4.120 5.368
4.437 3.788 5.706
4.230 4.198 5.494
4.715 3.858 5.750
5.064 3.908 6.087
4.360 3.921 5.654
4.458 3.950 5.775
4.518 3.989 5.914
4.770 3.624 5.776
5.383 4.021 6.019
4.725 3.509 5.700
4.772 3.578 5.644
5.033 3.581 5.655
5.297 3.616 6.075
5.336 3.521 6.181
5.831 3.768 6.037
4.459 3.147 5.458
4.767 3.129 5.490
5.316 3.195 5.905
5.275 3.353 5.891
5.305 3.679 6.202
5.600 3.700 6.243
6.087 3.690 6.436
5.135 3.263 5.560
4.950 3.115 5.539
5.153 3.213 5.823
5.766 3.321 5.855
5.750 3.026 5.808
6.242 3.418 6.250
6.460 3.542 6.075
5.223 2.715 5.494
5.016 3.060 5.754
5.380 2.828 5.750
5.721 2.846 5.643
5.739 2.854 6.017
6.356 2.835 6.236
5.212 2.649 5.483
5.714 2.626 5.516
5.642 2.618 5.707
5.896 2.856 6.106
6.034 3.024 5.960
4.209 2.147 4.963
5.840 2.698 5.585
6.054 2.653 5.543
6.210 2.637 5.716
6.138 2.661 6.211
4.324 1.727 4.790
6.088 2.054 5.891
6.260 2.512 5.867
4.587 1.692 4.723
4.824 1.644 4.816
6.102 2.134 5.868
4.362 1.331 5.014
4.721 1.575 4.698
4.633 1.223 4.879
4.798 1.257 4.893
5.263 1.504 5.062
4.791 1.233 4.997
5.239 1.293 5.081
5.175 1.045 5.041
5.311 1.313 5.098
5.023 0.712 5.103
5.491 0.702 4.919
5.771 0.898 4.881
5.961 0.797 4.987
5.887 1.120 5.344
5.325 0.808 4.606
5.263 0.594 5.100
5.871 0.692 5.265
5.730 0.603 5.290
6.079 0.629 5.260
3.610 6.321 6.222
3.947 5.971 6.074
3.957 5.777 6.357
4.086 5.800 6.164
4.398 5.678 6.357
4.582 5.417 6.346
3.400 4.853 5.407
4.630 5.426 6.071
3.412 4.928 5.665
5.200 5.315 5.915
5.299 5.427 6.284
5.589 5.173 6.382
4.799 3.959 5.391
5.244 3.708 5.644
5.504 3.898 5.655
4.941 3.508 5.569
5.191 3.760 5.562
5.525 3.614 5.510
5.738 3.519 5.947
5.649 3.775 6.154
5.939 3.912 6.187
5.172 3.284 5.517
5.034 3.600 5.327
5.519 3.280 5.465
5.407 3.440 5.883
6.001 3.426 5.933
6.268 3.604 5.939
5.115 3.135 5.111
5.083 3.036 5.508
5.456 3.354 5.754
5.572 3.106 5.677
6.083 3.191 5.687
6.137 3.589 6.050
5.354 2.820 5.524
5.398 2.997 5.535
5.591 3.044 5.349
5.745 3.024 5.677
6.153 3.144 5.576
6.460 2.939 5.917
5.617 2.827 5.239
5.463 2.780 5.448
5.760 2.930 5.692
6.003 2.797 5.637
5.277 2.484 5.142
5.591 2.563 5.565
5.776 2.787 5.462
6.258 2.546 5.588
6.000 2.142 5.539
6.082 2.315 5.469
6.242 2.478 5.693
5.848 2.135 5.675
5.936 0.841 4.766
6.053 1.023 5.046
6.229 0.952 5.189
3.998 6.145 5.849
4.512 6.203 6.318
3.961 6.035 5.813
4.374 5.873 6.007
4.436 6.100 5.962
4.395 5.607 6.136
4.540 5.598 6.178
4.846 5.774 6.252
4.698 6.052 6.331
4.439 5.427 5.981
4.987 5.434 5.996
5.150 5.729 6.077
4.565 5.429 5.866
5.005 5.252 5.996
4.810 5.603 5.985
5.398 5.463 6.074
5.186 5.234 6.238
5.310 5.110 6.098
5.116 5.114 5.662
5.116 5.279 5.840
5.432 5.221 6.242
5.754 5.446 5.884
6.000 5.539 6.449
5.400 5.148 6.121
5.587 5.116 6.276
5.277 3.897 5.371
5.384 3.798 5.425
5.801 4.031 5.409
5.718 3.810 5.739
6.051 4.076 5.624
5.140 3.525 5.321
5.172 3.470 5.178
5.489 3.728 5.419
5.800 3.614 5.658
5.773 3.621 5.753
6.015 3.616 5.878
4.987 3.351 5.361
5.427 3.138 5.062
5.787 3.354 5.283
5.822 3.350 5.291
6.138 3.421 5.673
6.450 3.635 5.542
5.247 3.006 4.989
5.248 2.878 5.324
5.504 3.170 5.477
5.824 3.032 5.506
6.225 3.246 5.515
5.485 2.544 4.918
5.638 2.899 5.081
5.686 2.966 5.411
5.730 2.882 5.172
6.251 2.942 5.511
5.650 2.684 4.979
5.778 2.573 5.130
6.252 2.775 5.443
6.152 2.616 5.418
5.920 2.294 5.251
6.126 2.189 5.059
6.130 2.233 5.053
5.815 2.275 5.346
6.080 2.316 5.417
4.055 6.192 5.878
4.332 5.918 5.879
4.487 6.127 5.978
4.837 6.012 5.844
4.913 5.984 6.298
4.373 5.758 5.700
4.437 5.961 5.830
4.801 5.804 5.786
4.920 6.105 5.906
5.055 6.059 6.298
5.604 5.893 6.068
4.336 5.584 5.562
4.614 5.426 5.928
5.026 5.888 5.870
5.159 5.877 6.022
5.200 5.856 5.916
5.613 5.580 6.083
4.727 5.618 5.575
4.923 5.333 5.616
5.276 5.708 5.802
5.557 5.663 6.176
5.675 5.676 6.275
4.820 5.241 5.692
5.058 5.307 5.919
5.591 5.092 6.035
5.841 5.398 6.232
5.909 5.455 6.198
4.996 5.014 5.303
5.239 5.417 5.398
5.441 5.464 5.441
5.521 5.457 5.969
5.844 5.167 6.116
5.759 5.283 6.163
5.216 4.911 5.323
5.307 5.109 5.712
5.678 4.894 5.730
5.415 3.995 5.421
5.963 4.018 5.607
5.916 3.776 5.546
6.343 4.111 5.706
5.372 3.624 4.912
5.635 3.826 5.340
5.761 3.886 5.106
6.068 3.718 5.438
6.485 3.773 5.463
5.454 3.328 5.006
5.507 3.195 5.217
5.995 3.513 5.453
5.986 3.389 5.268
5.405 3.195 5.060
5.468 2.880 5.128
5.617 3.319 4.943
5.759 3.014 5.184
6.000 3.439 5.506
5.337 2.979 4.624
5.435 3.055 5.121
5.657 2.907 4.920
6.229 3.121 5.373
5.397 2.528 4.882
5.788 2.863 5.042
6.097 2.760 5.179
6.229 2.575 5.190
5.595 2.405 4.754
5.779 2.646 4.643
6.047 2.696 4.932
6.205 2.465 4.828
6.072 2.316 4.752
5.929 2.221 4.897
4.476 6.060 5.726
4.443 5.949 5.466
4.883 6.355 5.553
5.106 6.275 5.897
4.571 6.075 5.509
4.668 5.856 5.751
4.893 5.988 5.753
4.909 6.026 5.893
5.332 5.890 5.793
5.712 6.143 6.170
5.773 5.961 6.260
5.834 5.922 6.291
4.579 5.737 5.252
4.729 5.576 5.592
5.015 5.567 5.600
5.081 5.922 5.906
5.521 5.947 5.970
5.590 5.777 5.979
5.605 5.813 6.164
5.981 6.030 6.036
5.973 5.614 5.976
4.364 5.256 5.546
4.900 5.561 5.610
4.859 5.674 5.775
5.408 5.332 5.750
5.674 5.838 5.716
5.850 5.664 5.938
5.945 5.625 5.951
6.308 5.684 5.962
4.665 5.248 5.436
5.299 5.368 5.314
5.436 5.370 5.763
5.734 5.133 5.884
5.574 5.202 6.073
5.812 5.599 5.833
4.764 5.183 4.900
5.212 5.301 5.167
5.448 5.462 5.320
5.323 5.380 5.471
5.805 5.308 5.814
5.975 5.333 5.481
4.663 5.117 5.137
4.983 5.294 5.065
5.364 5.150 5.302
5.529 5.059 5.319
4.368 3.882 4.562
6.460 4.457 5.434
4.252 3.879 4.294
6.109 3.931 4.945
6.263 3.868 5.077
4.238 3.466 4.427
5.953 3.862 4.924
5.878 3.988 4.863
6.365 3.909 5.114
5.679 3.471 4.941
5.693 3.264 4.980
6.239 3.444 5.153
6.243 3.736 5.382
5.763 2.958 4.644
5.772 3.122 4.787
5.922 3.081 5.073
5.687 3.133 4.667
5.888 2.797 4.564
5.951 3.004 4.742
6.332 2.932 4.963
5.758 2.839 4.491
6.006 2.934 4.744
5.962 2.992 4.892
6.047 3.033 4.706
5.825 2.644 4.420
5.708 2.499 4.519
6.193 2.755 4.652
5.652 2.224 4.274
6.193 2.157 4.331
6.032 2.482 4.600
5.920 1.795 4.305
6.049 1.914 4.527
6.324 1.929 4.585
5.271 0.913 3.606
3.733 6.346 4.990
4.649 6.445 5.430
6.221 6.053 6.107
4.418 6.152 5.328
4.924 5.929 5.571
4.950 6.248 5.646
5.086 6.276 5.732
5.533 6.316 5.499
5.474 6.308 5.776
5.834 6.317 5.773
6.084 6.370 6.175
6.078 5.828 6.245
4.542 5.854 5.429
4.718 5.555 5.255
5.287 5.606 5.585
5.274 5.889 5.746
5.680 5.878 5.808
5.636 6.151 5.732
6.019 5.956 6.046
6.316 5.854 6.152
4.634 5.488 4.997
4.936 5.433 5.316
5.242 5.676 5.220
5.281 5.503 5.387
5.357 5.919 5.657
5.982 5.640 5.534
6.243 5.807 5.730
4.663 5.353 4.877
5.015 5.434 5.201
5.036 5.476 5.511
5.427 5.599 5.267
5.575 5.313 5.438
5.967 5.548 5.510
4.661 5.310 4.735
4.892 5.551 5.059
5.056 5.445 5.216
5.252 5.227 5.270
5.736 5.396 5.391
5.832 5.376 5.267
4.446 4.947 4.556
4.624 5.149 4.827
5.094 5.056 4.680
5.192 5.177 4.918
5.552 5.141 5.232
5.622 5.050 5.059
4.210 4.618 4.285
4.663 4.627 4.618
4.748 4.965 4.878
5.005 4.886 4.610
5.166 5.086 4.938
4.068 4.257 4.388
4.225 4.573 4.280
4.429 4.782 4.691
4.697 4.720 4.486
5.278 4.640 4.543
4.402 4.275 4.024
4.588 4.181 4.276
4.846 4.559 4.634
4.955 4.256 4.591
4.140 4.125 4.182
4.472 4.249 4.050
4.588 4.300 4.345
4.411 3.589 3.901
4.622 3.618 4.431
6.247 4.163 5.037
4.564 3.696 4.111
5.969 3.592 4.824
6.031 3.991 4.875
6.137 3.660 4.486
5.977 3.499 4.974
5.802 3.146 4.573
5.834 3.130 4.528
6.332 3.156 4.574
5.493 3.236 4.219
5.767 2.995 4.424
6.222 3.263 4.657
6.429 2.964 4.709
5.927 2.849 4.255
6.047 2.989 4.671
5.969 2.855 4.626
5.667 2.397 3.940
5.862 2.632 4.368
6.026 2.673 4.278
5.987 2.763 4.284
5.498 2.266 3.853
5.602 2.460 4.215
5.899 2.200 4.120
6.136 2.394 4.350
6.401 2.373 4.285
5.075 1.709 3.831
5.610 2.167 3.792
5.904 2.256 3.980
5.980 2.074 4.366
6.072 2.150 4.472
4.924 1.869 3.730
5.321 1.722 3.583
5.404 1.836 3.827
5.700 1.812 4.177
6.019 1.945 3.944
6.000 1.993 4.104
5.343 1.550 3.821
5.174 1.559 3.612
5.854 1.714 3.905
6.086 1.441 4.064
5.142 1.294 3.686
5.265 1.198 3.591
5.708 1.197 3.621
5.441 0.800 3.544
5.733 0.786 3.860
4.771 6.312 5.105
5.216 6.076 5.413
5.308 5.959 5.387
5.366 6.047 5.662
5.855 6.107 5.701
4.732 5.863 4.846
4.874 5.934 5.277
5.118 5.936 5.155
5.495 5.912 5.469
5.655 5.763 5.338
5.691 6.045 5.670
6.203 6.244 5.844
4.637 5.409 4.994
4.852 5.438 4.992
5.126 5.850 5.244
4.998 5.740 4.970
5.346 5.899 5.211
5.897 5.758 5.601
5.922 6.033 5.742
4.653 5.418 4.711
4.971 5.365 4.669
4.956 5.480 4.880
5.467 5.382 5.239
5.753 5.640 5.205
5.941 5.687 5.228
4.762 5.504 4.371
4.942 5.252 4.335
5.211 5.204 4.907
5.068 5.702 4.826
5.315 5.754 4.967
5.639 5.459 4.858
4.114 4.850 4.162
4.384 5.192 4.416
4.395 5.141 4.616
5.080 5.058 4.718
4.837 5.036 4.827
5.312 5.201 4.695
5.383 5.102 4.642
4.468 4.787 3.904
4.621 4.984 4.291
4.675 5.011 4.155
5.135 5.153 4.291
4.980 4.826 4.484
5.539 4.963 4.566
5.643 4.827 5.016
4.140 4.658 3.807
4.461 4.484 4.056
4.911 4.680 4.307
4.890 4.871 4.228
5.166 4.586 4.734
5.305 4.979 4.478
4.270 4.155 3.832
4.470 4.489 4.104
4.680 4.349 4.071
4.846 4.443 4.565
5.441 4.585 4.224
4.514 4.152 3.728
4.653 3.940 4.265
4.766 4.160 4.278
5.048 4.375 4.259
4.544 3.817 3.749
4.581 4.120 4.149
4.915 3.997 4.148
4.654 3.565 3.975
4.828 3.884 3.875
6.053 3.540 4.613
5.896 3.471 4.556
5.993 3.309 4.410
6.027 3.294 4.568
5.665 2.624 4.088
6.052 3.102 4.173
5.995 3.138 4.408
5.243 2.533 3.951
5.429 2.379 3.978
6.097 2.383 4.181
6.216 2.714 4.289
5.471 2.399 3.569
5.684 2.052 3.711
5.626 2.172 3.753
6.072 2.598 3.898
6.233 2.557 4.118
5.121 1.904 3.623
5.141 1.823 3.492
5.481 2.149 3.533
5.762 1.983 4.065
5.925 2.021 3.835
6.299 2.186 4.002
5.114 1.678 3.196
5.520 1.846 3.606
5.534 1.761 3.515
5.709 1.742 3.921
5.970 1.824 3.929
5.259 1.522 3.326
5.333 1.624 3.537
5.590 1.691 3.770
6.176 1.813 3.662
6.024 1.697 3.813
5.546 1.290 3.129
5.669 1.458 3.433
5.945 1.465 3.741
5.797 1.505 3.597
6.309 1.647 3.722
5.252 1.022 3.244
5.890 1.145 3.439
5.886 1.130 3.477
5.967 1.158 3.723
5.420 6.451 5.267
5.457 6.240 5.382
4.948 6.131 4.549
5.280 6.107 5.076
5.496 6.017 4.801
5.350 6.240 5.016
5.917 5.840 5.462
5.756 6.260 5.407
4.511 5.651 4.536
4.766 5.784 4.505
4.919 5.484 4.769
5.454 5.767 5.099
5.691 5.889 5.124
5.588 5.782 4.977
4.338 5.489 4.415
4.563 5.250 4.550
4.859 5.274 4.782
5.210 5.668 4.608
5.326 5.678 4.934
5.452 5.684 4.888
4.488 5.470 4.204
4.555 5.213 4.103
5.037 5.505 4.445
5.228 5.519 4.404
5.245 5.498 4.676
5.486 5.495 4.555
4.105 5.105 3.963
4.466 5.132 3.994
4.580 5.377 3.977
4.943 5.227 4.254
5.175 5.207 4.363
5.331 5.478 4.603
5.671 5.195 4.795
4.606 4.669 3.650
4.664 4.989 4.111
4.833 4.745 3.872
5.221 4.866 4.460
5.236 5.221 4.209
5.585 5.162 4.364
5.478 5.191 4.458
4.365 4.796 3.646
4.508 4.717 3.940
4.721 4.954 4.128
4.885 4.541 3.950
5.411 4.761 4.235
5.557 4.913 4.253
4.549 4.250 3.555
4.863 4.428 3.771
5.071 4.709 3.990
5.257 4.685 4.009
5.381 4.784 4.472
5.641 4.642 4.539
4.410 4.339 3.585
4.776 4.232 3.811
4.817 4.317 3.949
5.338 4.079 4.020
5.556 4.296 4.090
4.517 3.961 3.604
4.719 4.090 3.795
5.009 3.793 4.077
5.359 3.946 4.268
4.512 3.517 3.733
4.736 3.934 3.856
5.669 2.901 4.002
5.971 2.828 4.189
5.195 2.330 3.517
5.729 2.498 3.585
5.523 2.811 3.923
6.192 2.476 4.088
6.201 2.493 4.136
5.300 2.118 3.372
5.634 2.384 3.661
5.798 2.468 3.789
5.667 2.459 3.468
6.000 2.353 3.640
6.480 2.717 3.783
5.039 2.159 3.345
5.375 2.186 3.264
5.866 2.136 3.677
5.992 2.097 3.747
6.086 2.290 3.518
5.550 1.753 3.281
5.684 1.717 3.102
5.574 1.929 3.275
5.988 1.913 3.454
6.197 1.992 3.941
5.519 1.428 3.136
5.621 1.453 3.527
5.599 1.692 3.434
6.165 1.691 3.750
6.437 1.793 3.729
5.621 1.579 3.152
5.510 1.451 3.064
6.122 1.370 3.314
5.986 1.450 3.285
5.788 1.185 3.305
5.604 1.094 3.415
5.807 1.204 3.543
6.231 1.031 3.468
4.598 5.586 4.388
4.698 5.613 4.332
5.030 5.545 4.258
5.421 5.889 4.400
5.643 5.672 4.682
4.644 5.404 3.903
4.750 5.517 4.236
4.877 5.665 4.427
5.225 5.455 4.517
5.452 5.357 4.610
5.498 5.723 4.750
3.721 0.872 6.421
4.115 0.321 6.091
3.963 0.208 6.043
4.490 0.078 6.434
4.013 0.075 6.074
4.290 0.185 6.340
3.153 5.642 0.430
3.316 5.630 0.344
3.432 5.609 0.709
3.930 5.968 0.686
3.981 5.703 0.726
4.294 5.812 1.108
3.159 5.442 0.426
3.408 5.625 0.505
3.698 5.497 0.686
3.710 5.565 0.433
4.089 5.729 0.640
3.911 5.786 1.013
2.817 5.432 -0.051
3.296 5.285 0.068
3.290 5.232 0.386
3.443 5.386 0.607
3.806 5.237 0.514
3.948 5.376 0.773
2.989 5.210 0.202
3.250 4.784 0.147
3.594 5.154 0.132
3.661 5.082 0.616
3.784 5.043 0.526
5.138 5.413 1.136
3.360 4.617 0.047
3.494 5.036 0.169
3.888 4.627 0.139
5.294 5.158 1.117
5.585 5.066 1.383
3.450 4.719 0.176
3.667 4.756 -0.073
5.059 4.688 1.092
5.505 5.103 0.932
5.433 5.173 0.992
4.802 4.410 0.601
5.038 4.833 0.910
5.435 4.888 1.129
5.488 4.529 1.353
4.742 4.570 0.716
4.974 4.610 0.719
5.199 4.521 0.754
5.256 4.445 1.038
5.855 4.578 1.171
4.674 4.190 0.457
4.990 4.314 0.694
5.307 4.370 0.759
5.110 4.386 0.960
5.565 4.361 1.168
5.719 4.136 0.978
4.602 3.776 0.495
4.560 3.759 0.348
4.891 4.052 0.762
5.250 4.132 0.686
5.431 3.861 0.583
5.601 4.157 1.058
4.437 3.629 0.097
4.700 3.567 0.038
4.788 3.652 0.149
5.240 3.636 0.415
5.457 3.435 0.434
5.228 3.518 0.760
4.295 3.252 0.218
4.748 3.126 0.279
4.924 3.200 0.503
5.289 3.398 0.339
5.457 3.465 0.594
4.706 3.202 0.110
4.480 3.079 0.129
4.993 3.086 0.462
5.020 3.233 0.278
4.650 2.774 0.243
5.187 3.006 0.058
4.755 2.613 -0.065
5.971 1.990 0.280
5.788 1.630 0.321
6.195 2.001 0.270
3.317 5.886 0.530
3.454 5.944 0.744
3.669 6.017 1.016
3.867 5.944 0.900
4.330 5.988 1.041
4.592 6.124 1.155
3.180 5.883 0.570
3.508 5.895 0.311
3.717 5.751 0.600
3.928 5.792 0.605
4.010 5.883 1.117
4.174 5.823 0.972
3.272 5.639 0.180
3.459 5.628 0.246
3.596 6.042 0.267
3.769 5.690 0.566
4.054 5.982 0.630
4.209 6.061 0.570
2.947 5.465 0.134
3.324 5.476 0.013
3.717 5.441 0.424
3.728 5.509 0.490
3.856 5.954 0.499
4.347 5.545 0.852
3.187 5.452 0.160
3.518 5.422 0.094
3.794 5.582 0.159
3.952 5.303 0.432
5.196 5.567 1.308
3.578 5.103 0.059
3.618 5.030 0.126
4.095 5.449 0.371
4.378 5.313 0.230
5.376 5.436 1.206
5.610 5.750 1.027
3.812 4.869 -0.071
4.041 5.050 0.283
5.174 5.077 0.893
5.707 5.294 0.953
3.829 4.492 0.165
4.980 4.730 0.622
5.553 4.850 1.057
5.364 4.933 1.013
5.172 4.544 0.662
5.301 4.638 0.996
5.524 4.919 0.975
5.075 4.536 0.476
5.350 4.737 0.812
5.602 4.336 0.649
5.907 4.632 1.009
5.275 4.088 0.690
5.430 4.310 0.388
5.407 4.263 0.636
6.054 4.247 0.985
5.092 3.737 0.182
5.020 3.779 0.618
5.301 4.230 0.436
4.662 3.568 0.138
5.102 3.879 0.152
5.274 3.833 0.232
4.636 3.586 -0.126
4.884 3.552 0.149
5.180 3.509 0.368
5.091 3.016 0.237
5.159 2.939 -0.086
6.315 2.738 0.485
6.276 2.219 0.438
6.044 1.972 0.534
6.261 1.736 -0.100
3.369 5.869 0.228
3.395 6.170 0.236
3.791 6.211 0.361
3.867 5.987 0.761
3.838 6.168 0.769
2.961 5.654 -0.049
3.347 6.051 0.223
3.349 5.977 0.557
3.708 5.886 0.371
3.876 6.054 0.717
3.909 6.190 0.603
3.516 6.185 0.262
3.918 5.835 0.285
3.983 6.091 0.322
3.655 5.948 0.120
3.651 5.983 0.389
4.238 5.585 0.220
5.584 5.831 0.874
3.829 5.634 0.157
4.051 5.555 0.304
4.241 5.621 0.296
5.314 6.017 0.973
5.422 5.655 1.101
3.985 5.423 -0.139
4.383 5.329 0.144
5.535 5.443 0.695
5.515 5.387 1.076
4.041 4.928 0.247
5.392 5.285 0.746
5.429 5.339 1.034
5.565 4.938 0.869
5.778 5.310 1.009
5.744 4.829 0.464
5.822 4.761 0.772
5.782 4.585 0.601
5.796 4.611 0.663
6.046 2.539 0.049
3.466 6.059 0.015
3.340 6.055 0.369
3.908 6.480 0.158
3.635 5.835 0.119
3.596 6.032 0.242
3.797 6.155 0.374
4.107 6.112 -0.070
4.370 6.122 0.185
5.073 5.869 0.777
5.326 6.117 0.701
4.511 5.631 0.224
5.245 5.639 0.412
5.708 5.807 0.877
5.427 5.693 0.599
5.626 5.472 0.538
5.342 5.541 0.675
5.666 5.432 0.681
5.381 5.251 0.425
5.857 5.198 0.431
5.752 4.998 0.403
6.300 2.907 -0.025
3.724 6.091 0.111
5.579 6.228 0.303
5.666 6.258 0.410
5.432 5.743 0.378
5.529 6.152 0.679
5.424 5.593 0.116
5.587 5.843 0.432
5.821 5.247 0.404
6.021 5.666 0.517
6.058 5.324 0.172
5.854 4.830 0.451
5.344 6.198 0.349
5.398 6.245 0.120
5.802 6.202 0.054
5.561 6.007 0.468
5.679 5.932 0.288
6.024 5.661 0.308
5.897 5.519 0.355
5.833 5.475 0.196
6.023 6.010 0.008
6.163 6.125 0.057
1.579 4.833 2.131
1.594 5.048 2.319
1.727 5.112 2.397
2.176 5.097 2.610
2.234 4.907 2.509
2.577 5.240 2.795
1.225 4.606 2.241
1.681 4.813 2.341
1.970 4.472 2.385
1.997 4.716 2.383
2.370 4.688 2.517
2.459 4.684 2.397
2.609 5.059 2.527
2.830 4.971 3.111
3.938 5.170 3.420
0.153 4.150 1.422
1.327 4.548 2.002
1.209 4.138 1.904
1.669 4.544 2.152
1.977 4.477 2.036
1.856 4.566 2.565
2.145 4.498 2.614
2.710 4.665 2.691
2.585 4.594 2.515
2.784 4.564 2.675
4.227 4.951 3.311
4.455 4.969 3.425
0.228 3.955 1.218
1.265 4.276 2.072
1.349 3.990 1.708
1.476 4.362 1.859
2.052 4.078 2.156
1.915 4.401 2.535
2.302 4.067 2.366
2.414 4.210 2.422
2.650 4.131 2.822
3.041 4.165 2.740
3.926 4.833 3.307
4.445 4.894 3.300
0.427 3.675 1.175
1.322 3.929 1.909
1.342 4.337 1.883
1.670 3.837 2.075
1.712 3.941 1.932
1.977 4.101 2.200
1.992 4.131 2.287
2.319 4.134 2.465
2.539 4.273 2.331
2.740 4.360 2.368
3.262 4.384 2.583
4.265 4.395 3.213
4.188 4.668 3.544
0.113 3.789 0.875
0.476 3.769 1.229
1.180 3.988 1.882
1.792 4.049 2.081
1.731 3.463 1.869
1.655 3.807 2.050
2.266 3.635 1.988
2.144 3.970 2.019
2.279 3.865 2.502
2.614 3.727 2.196
2.808 3.653 2.525
4.344 4.137 3.467
4.606 4.369 3.585
-0.064 3.118 0.943
0.576 3.283 1.088
1.229 3.817 1.521
1.607 3.675 1.734
1.828 3.365 1.966
1.773 3.214 1.957
2.199 3.448 1.966
2.289 3.655 2.173
2.809 3.666 2.248
2.776 3.759 2.544
3.188 3.668 2.575
4.380 3.687 3.426
4.412 4.046 3.515
0.127 3.263 1.007
1.681 3.312 1.820
2.178 3.092 1.852
2.069 3.249 2.094
2.249 3.495 2.251
2.720 3.516 2.135
4.609 3.687 3.297
2.699 2.064 1.532
2.848 2.166 2.091
2.859 2.402 1.845
3.072 2.217 1.999
3.389 2.469 2.333
0.225 1.828 0.345
0.559 1.766 0.487
0.489 1.654 0.475
1.089 1.836 0.835
2.306 1.974 1.403
2.694 1.664 1.795
2.872 1.755 1.645
3.261 1.970 1.786
3.297 1.940 1.894
3.598 1.796 2.305
3.730 1.937 2.176
5.131 2.121 3.220
-0.151 1.562 0.298
0.453 1.591 0.424
0.722 1.360 0.256
0.942 1.516 0.767
1.105 1.326 0.689
2.283 1.402 1.505
2.717 1.689 1.510
2.826 1.452 1.446
2.907 1.830 1.643
3.302 1.749 2.026
3.253 1.676 1.978
3.459 1.618 1.916
3.615 1.697 2.237
4.834 2.231 2.598
4.899 1.894 2.924
-0.011 0.897 0.406
0.298 1.247 0.234
0.448 1.339 0.322
0.969 1.082 0.358
1.251 1.454 0.610
2.459 1.584 1.488
2.515 1.116 1.395
2.505 1.382 1.394
2.731 1.281 1.744
3.173 1.342 1.858
3.043 1.662 1.738
3.529 1.625 2.089
3.915 1.307 1.845
3.801 1.575 2.186
4.785 1.900 2.905
5.285 1.859 2.718
0.073 0.705 0.086
0.197 1.097 0.340
0.691 1.084 0.501
0.648 0.894 0.346
0.961 0.838 0.771
2.193 1.283 1.394
2.345 1.226 1.356
2.490 1.039 1.338
2.947 1.073 1.360
3.314 1.089 1.711
3.400 1.414 1.895
3.635 1.209 1.762
3.973 1.219 2.194
4.171 1.291 1.923
5.061 1.385 2.724
5.413 1.696 2.835
0.357 0.400 -0.054
0.430 0.802 0.013
0.486 0.814 0.481
0.983 0.704 0.273
1.361 0.924 0.565
2.397 0.909 1.244
2.701 0.815 1.463
2.480 0.914 1.026
2.628 0.992 1.176
3.204 0.783 1.547
3.031 1.034 1.676
3.318 1.055 1.589
3.484 0.924 1.691
3.709 0.878 1.772
5.190 1.558 2.539
5.296 1.464 2.962
0.517 0.144 0.170
0.484 0.623 0.397
0.903 0.338 0.528
1.254 0.715 0.551
1.070 0.692 0.352
2.442 0.823 1.325
2.769 0.764 1.184
2.585 0.491 0.982
2.981 0.408 1.392
2.812 0.835 1.273
3.131 0.863 1.788
3.572 0.901 1.605
3.542 0.703 1.991
3.727 0.694 2.123
4.985 0.934 2.422
5.576 0.938 2.852
0.274 0.206 0.044
0.585 0.343 0.023
1.077 0.291 0.320
0.882 0.410 0.494
2.311 0.696 0.878
2.625 0.464 1.244
0.901 6.341 2.622
1.013 6.174 2.616
0.769 6.421 2.410
1.934 5.206 2.271
2.110 5.388 2.641
2.415 5.117 2.865
1.301 4.979 2.429
1.647 4.740 2.199
2.118 4.734 2.439
2.280 4.901 2.331
2.273 4.928 2.679
2.726 5.059 2.641
1.568 4.840 2.120
1.753 4.971 2.068
1.932 4.921 2.208
1.940 5.173 2.318
2.186 5.062 2.278
2.619 5.010 2.289
4.369 5.448 3.432
1.276 4.785 1.869
1.315 4.786 1.714
1.516 4.607 1.896
1.736 4.761 1.877
1.893 4.658 2.129
2.122 4.791 2.341
2.507 5.099 2.391
2.761 4.950 2.593
4.179 5.142 3.229
4.463 4.978 3.256
-0.029 4.362 1.174
1.474 4.688 1.860
1.660 4.412 1.687
1.515 4.556 1.659
1.886 4.386 2.212
2.396 4.448 2.015
2.204 4.669 2.060
2.744 4.735 2.602
2.684 4.782 2.546
3.086 4.523 2.744
4.217 4.837 3.090
4.414 5.050 3.218
-0.210 4.295 0.991
0.336 4.068 1.082
1.103 4.449 1.441
1.520 4.478 1.815
1.557 4.245 1.568
1.815 4.072 1.989
2.010 4.414 1.771
2.207 4.094 2.060
2.631 4.548 2.281
2.908 4.274 2.155
2.717 4.279 2.320
3.095 4.394 2.616
4.407 4.675 3.382
4.482 4.753 3.213
-0.109 4.115 0.675
0.122 4.073 0.958
1.195 4.159 1.674
1.454 4.150 1.803
1.709 4.077 1.630
1.754 3.981 1.695
2.113 4.020 2.059
2.268 4.152 2.147
2.770 4.004 2.117
2.942 4.183 2.157
2.821 4.036 2.536
3.378 4.007 2.364
4.518 4.705 3.101
4.719 4.697 3.345
0.137 3.642 0.779
0.555 3.732 0.847
1.797 4.119 1.711
1.580 3.761 1.524
1.763 3.659 1.943
2.128 3.726 1.976
2.178 3.737 1.990
2.407 3.865 2.193
2.982 3.799 2.457
3.175 3.883 2.354
3.339 3.860 2.356
4.296 4.133 3.031
4.419 4.443 3.405
-0.099 3.375 0.919
0.160 3.601 0.635
0.328 3.385 0.858
1.840 3.561 1.706
2.113 3.356 1.534
2.360 3.644 1.657
2.366 3.829 1.941
2.512 3.420 1.813
2.726 3.475 2.284
2.945 3.743 2.485
4.438 3.972 2.911
-0.006 3.247 0.687
0.176 3.034 0.683
0.569 3.172 0.766
2.205 3.320 1.790
2.679 3.163 2.122
2.731 3.187 1.774
2.880 3.281 2.035
0.092 2.928 0.475
0.396 3.074 0.592
2.452 1.906 1.558
2.615 1.932 1.403
2.996 2.045 1.762
2.979 2.239 1.741
3.276 2.197 1.831
4.856 2.618 2.780
0.178 1.874 0.269
0.243 1.829 0.426
0.354 1.918 0.192
2.492 2.076 1.107
2.693 1.910 1.449
2.905 1.693 1.478
2.934 2.151 1.699
3.054 1.821 1.591
3.463 2.273 2.050
3.888 1.853 1.788
4.912 2.188 2.542
4.961 2.294 2.575
0.095 1.512 -0.028
0.265 1.384 -0.083
0.414 1.356 0.094
0.810 1.561 0.156
2.460 1.691 1.393
2.485 1.812 1.006
2.734 1.562 1.426
2.892 1.874 1.515
3.224 1.791 1.715
3.372 1.883 1.771
3.663 2.055 1.583
3.862 1.822 1.723
4.947 1.975 2.797
5.168 2.391 2.670
0.494 1.234 0.243
0.693 1.451 0.188
0.979 1.375 0.195
1.005 1.386 0.444
2.309 1.342 1.270
2.316 1.421 1.141
2.641 1.237 1.044
2.737 1.173 1.437
3.128 1.436 1.142
3.352 1.524 1.415
3.502 1.667 1.611
3.526 1.462 1.863
3.760 1.416 1.772
3.820 1.846 2.055
5.115 1.750 2.371
5.389 2.087 2.452
0.738 0.991 0.114
0.633 1.060 0.056
0.960 1.253 0.336
1.224 1.208 0.529
2.491 1.114 1.072
2.434 1.163 1.209
2.424 1.126 1.285
2.684 1.372 1.332
2.969 1.324 1.103
3.217 1.154 1.406
3.334 1.095 1.635
3.883 1.466 1.596
4.027 1.508 2.006
3.965 1.465 2.012
5.071 1.581 2.488
5.371 1.559 2.495
0.659 0.779 -0.169
0.809 0.995 0.136
0.972 0.937 0.218
1.127 0.940 0.527
2.516 1.250 1.148
2.501 1.139 0.893
2.865 0.848 0.848
2.754 0.740 0.978
2.865 1.079 1.236
3.483 0.917 1.267
3.569 0.924 1.391
3.490 0.988 1.757
3.749 1.261 1.607
4.014 1.342 1.804
5.396 1.476 2.279
5.333 1.334 2.496
0.837 0.501 0.282
0.931 0.719 0.275
1.547 0.551 0.282
2.817 1.110 0.889
2.621 0.777 0.906
2.827 0.678 0.889
3.163 0.887 1.112
3.430 0.868 1.508
3.709 0.775 1.307
3.635 0.659 1.468
3.904 0.709 1.787
4.033 0.745 1.923
5.323 1.195 2.619
1.175 0.436 -0.005
0.950 0.383 0.259
1.453 0.411 0.479
2.533 0.499 0.986
1.558 5.198 1.974
1.918 5.134 2.078
1.584 5.008 1.937
1.588 4.714 1.991
1.927 5.137 2.245
1.895 4.785 2.029
2.067 5.059 2.586
2.591 5.069 2.716
4.381 5.579 3.628
1.362 4.763 2.033
1.695 5.108 1.761
1.675 5.027 1.852
1.898 5.067 1.826
1.918 5.101 2.128
2.253 5.372 2.364
4.165 5.342 3.043
4.436 5.394 3.099
1.360 5.044 1.459
1.367 4.995 1.803
1.713 4.743 1.814
2.014 4.590 1.640
1.833 4.813 2.031
2.190 4.707 1.789
2.327 5.067 2.329
2.711 5.112 2.331
2.786 5.048 2.344
4.177 5.138 3.042
4.359 5.455 3.330
-0.062 4.395 0.931
1.466 4.448 1.259
1.541 4.563 1.802
1.675 4.612 1.571
2.083 4.313 1.879
2.234 4.425 1.861
2.177 4.784 1.996
2.278 4.540 2.096
2.904 4.897 2.332
3.087 4.791 2.326
4.203 5.010 2.754
4.675 5.013 2.871
0.300 4.036 0.898
0.085 4.439 0.843
1.277 4.582 1.339
1.404 4.483 1.731
1.723 4.277 1.557
1.796 4.536 1.731
1.948 4.418 1.729
2.404 4.315 1.989
2.445 4.671 1.992
2.734 4.543 1.995
3.028 4.419 2.081
3.091 4.642 2.191
4.244 4.838 3.038
4.568 4.927 2.824
-0.036 4.192 0.904
0.284 4.095 1.009
1.680 3.989 1.590
1.937 4.201 1.323
1.723 4.094 1.520
2.051 4.263 1.514
2.255 4.222 1.756
2.216 3.954 1.806
2.515 4.053 2.155
2.962 4.190 2.226
3.022 4.105 2.308
3.390 4.516 2.198
4.607 4.350 3.114
4.570 4.609 2.904
0.236 3.459 0.293
0.282 3.649 0.825
0.598 3.705 0.920
1.819 4.056 1.549
2.303 3.855 1.743
2.300 4.006 1.599
2.270 3.959 1.906
2.593 3.819 1.772
2.723 4.033 2.190
2.951 4.159 2.127
3.510 4.322 2.282
4.550 4.267 3.191
-0.009 3.484 0.319
0.458 3.637 0.807
0.362 3.571 0.741
0.807 3.539 0.829
2.005 3.654 1.321
2.292 3.424 1.638
2.449 3.815 1.954
2.594 3.691 1.672
3.099 3.553 1.943
3.276 3.965 1.901
3.502 3.642 2.124
0.329 3.202 0.630
0.313 3.463 0.656
0.591 3.435 0.765
0.786 3.291 0.709
2.720 3.232 1.727
2.811 3.337 1.612
3.149 3.526 1.912
3.486 3.749 2.040
3.545 3.680 2.050
0.056 3.168 0.192
0.120 2.807 0.460
0.557 3.054 0.476
0.522 3.000 0.375
0.980 2.918 0.669
2.169 2.291 0.984
2.761 2.382 1.223
2.791 2.369 1.496
3.001 2.366 1.616
3.238 2.528 1.688
5.022 2.559 2.466
5.210 2.933 2.727
2.375 2.246 1.161
2.605 2.003 1.203
2.570 2.136 1.214
2.652 1.730 0.987
2.853 2.216 1.136
3.173 2.024 1.258
3.102 2.202 1.541
3.448 2.255 1.588
5.072 2.537 2.556
5.495 2.706 2.763
0.706 1.583 0.175
0.951 1.488 0.275
2.142 2.040 0.980
2.439 1.976 0.911
2.301 1.759 0.880
2.744 1.496 1.280
3.043 1.524 1.208
3.370 1.781 1.450
3.515 2.014 1.276
3.414 1.872 1.466
3.879 2.014 1.830
5.019 2.296 2.628
5.564 2.364 2.434
0.856 1.389 -0.076
0.762 1.323 -0.018
2.296 1.518 0.822
2.568 1.702 1.008
2.775 1.442 0.838
2.884 1.491 1.145
3.249 1.336 1.363
3.140 1.555 1.244
3.571 1.402 1.307
3.727 1.765 1.669
3.974 1.833 1.564
4.976 2.060 2.434
5.486 2.158 2.406
1.048 1.057 -0.135
1.285 1.274 0.405
2.362 1.541 0.775
2.467 1.609 0.778
2.502 1.095 0.647
3.043 1.096 1.125
2.980 1.306 1.139
3.365 1.551 1.247
3.534 1.358 1.095
3.938 1.226 1.282
4.051 1.240 1.658
4.307 1.336 1.535
5.210 1.588 2.091
5.633 1.851 2.541
0.923 0.762 0.154
1.236 1.100 0.012
2.529 1.041 0.637
2.553 0.974 0.794
3.171 1.147 0.890
3.337 1.195 1.267
3.315 1.252 1.036
3.840 1.359 1.500
3.718 1.416 1.624
4.240 1.226 1.652
4.059 1.331 1.839
5.632 1.346 2.341
1.588 0.642 0.149
1.423 0.841 0.397
2.703 1.040 0.854
3.037 0.826 0.958
3.087 0.950 1.226
3.479 0.701 1.150
3.632 0.712 1.295
3.851 1.010 1.182
4.196 1.093 1.275
4.305 0.888 1.434
5.499 1.209 2.180
1.528 0.287 0.194
1.839 0.697 0.255
1.534 4.958 1.546
1.828 5.039 1.844
1.995 5.463 2.055
2.281 5.206 2.124
4.170 5.906 3.284
4.107 5.912 3.334
1.341 5.368 1.438
1.541 5.383 1.771
1.404 4.929 1.669
1.706 5.245 1.865
1.821 4.877 1.719
2.008 4.859 1.863
2.228 5.312 2.245
3.892 5.329 3.018
4.468 5.399 3.138
1.206 4.936 1.517
1.454 4.760 1.698
1.730 4.946 1.336
1.702 4.986 1.776
2.212 5.075 1.921
2.251 5.292 1.927
3.913 5.605 2.617
4.208 5.777 2.767
4.632 5.797 2.884
1.050 5.067 1.408
1.582 4.924 1.328
1.783 5.037 1.297
1.599 4.728 1.282
2.112 4.611 1.436
2.290 4.697 1.568
2.187 4.747 1.680
2.382 5.209 1.830
2.760 4.835 2.041
4.161 5.155 2.928
4.268 5.123 2.830
4.694 5.449 3.109
1.664 4.624 1.312
1.666 4.787 1.158
1.501 4.624 1.571
1.759 4.419 1.256
2.235 4.474 1.401
2.151 4.529 1.551
2.383 4.725 1.664
2.833 4.656 1.719
3.268 5.026 2.160
4.211 5.224 2.714
4.571 5.174 3.097
0.166 4.403 0.704
1.582 4.454 1.115
1.605 4.591 1.404
1.900 4.180 1.436
1.855 4.263 1.306
2.097 4.411 1.547
2.285 4.454 1.423
2.767 4.637 1.825
2.944 4.354 1.743
3.116 4.575 2.073
4.281 4.780 2.529
4.817 5.072 2.684
0.173 4.177 0.160
0.231 4.229 0.282
0.695 4.053 0.778
1.964 4.213 1.252
2.311 3.953 1.573
2.158 4.142 1.366
2.502 4.085 1.583
2.595 4.508 1.603
3.204 4.265 1.762
3.038 4.292 1.938
3.294 4.438 2.021
4.529 4.512 3.031
-0.017 3.734 0.232
0.352 3.930 0.471
0.681 3.896 0.755
2.331 3.992 1.311
2.559 3.965 1.389
2.547 3.770 1.772
2.671 3.889 1.794
3.170 4.326 1.898
3.363 4.230 1.864
3.344 3.930 2.230
3.902 3.985 2.100
0.148 3.408 0.178
0.167 3.371 0.039
0.667 3.465 0.171
0.589 3.519 0.543
1.042 3.779 0.460
2.602 3.559 1.276
2.652 3.932 1.567
2.963 3.936 1.461
3.263 3.821 1.816
3.343 4.031 1.720
3.557 3.728 2.033
3.556 4.173 2.111
0.267 3.173 0.117
0.234 3.419 0.289
0.742 3.399 0.310
0.618 3.370 0.454
0.902 3.443 0.713
1.022 3.293 0.567
3.197 3.390 1.592
3.200 3.499 1.569
3.374 3.833 1.997
3.582 3.932 1.787
3.805 3.920 1.987
4.167 3.658 2.093
0.378 3.038 -0.030
0.300 2.846 -0.058
0.581 3.143 0.436
0.654 3.054 0.171
1.184 3.031 0.301
1.456 3.216 0.539
3.199 3.411 1.440
3.349 3.577 1.705
3.594 3.680 1.723
3.676 3.468 2.038
4.141 3.431 1.948
0.773 2.992 0.138
1.014 2.863 0.180
1.261 2.870 0.669
1.220 2.880 0.689
1.331 3.229 0.697
3.646 3.182 1.629
3.880 3.096 1.929
4.213 3.396 2.253
4.533 3.601 2.363
1.340 2.619 0.509
1.474 2.794 0.704
1.502 3.024 0.757
1.674 2.777 0.914
4.184 3.236 1.915
4.688 3.241 2.273
4.688 3.242 2.332
4.722 3.230 2.433
1.544 2.589 0.322
1.769 2.504 0.476
1.892 2.670 0.473
1.911 2.536 0.590
2.423 2.668 1.106
2.837 2.393 0.913
4.594 3.118 1.901
4.866 2.966 2.294
4.865 3.115 2.533
5.178 2.994 2.411
1.653 2.184 0.566
2.184 2.507 0.784
2.283 2.385 0.885
2.637 2.550 0.752
2.293 2.084 0.743
2.737 2.146 0.973
2.889 2.433 1.164
3.143 2.220 1.238
4.524 2.705 2.025
4.680 2.619 2.017
4.917 2.788 2.508
5.162 2.974 2.446
2.122 1.981 0.407
2.099 2.171 0.781
2.528 2.369 0.893
2.488 1.915 0.592
2.814 2.187 0.947
3.124 2.209 1.058
3.286 2.086 1.341
3.361 2.221 1.233
5.155 2.235 2.077
5.179 2.618 2.108
5.153 2.581 2.129
1.871 1.734 0.593
2.419 2.083 0.757
2.531 2.099 0.586
2.462 1.601 0.890
2.711 1.662 1.095
3.197 2.033 0.950
3.241 1.889 1.308
3.412 2.107 1.459
3.684 2.115 1.147
4.810 2.175 1.999
5.037 2.220 2.370
5.382 2.445 2.437
2.469 1.936 0.461
2.393 1.879 0.572
2.795 1.341 0.566
2.710 1.718 0.777
3.305 1.516 1.063
3.521 1.549 1.168
3.558 1.677 1.048
3.895 1.797 1.438
4.225 1.736 1.580
5.144 2.009 2.249
5.502 2.103 2.351
2.719 1.685 0.340
2.794 1.483 0.455
2.663 1.257 0.633
2.933 1.192 0.844
3.426 1.567 0.836
3.396 1.421 0.954
3.748 1.684 1.171
3.776 1.555 1.097
4.167 1.730 1.563
4.255 1.774 1.716
5.598 1.848 2.252
2.624 1.085 0.651
2.837 1.062 0.582
3.315 0.958 0.645
3.558 1.196 0.760
3.607 1.452 1.109
4.131 1.488 0.985
4.298 1.459 1.169
4.296 1.275 1.631
5.510 1.432 2.082
1.658 0.830 0.147
3.509 0.843 1.018
3.549 0.818 0.981
3.815 0.823 0.794
3.931 1.052 1.129
4.424 0.846 1.159
4.534 0.886 1.370
4.694 1.290 1.561
-0.023 6.116 1.015
0.221 6.113 1.446
-0.107 5.831 1.039
0.201 5.922 1.341
0.516 6.227 1.116
2.551 6.365 2.326
0.433 5.992 1.257
0.611 6.035 1.382
0.434 5.974 1.281
3.219 5.916 2.548
3.274 6.287 2.846
3.581 5.964 2.733
3.734 6.096 2.833
0.505 5.459 1.072
0.698 5.437 1.224
0.724 5.568 1.045
0.994 5.697 1.501
1.083 5.722 1.552
1.597 5.556 1.411
3.308 5.984 2.795
3.706 5.887 2.793
3.742 5.909 2.677
4.049 6.174 3.052
4.166 5.965 3.232
0.902 5.398 1.162
1.067 5.252 1.344
1.124 5.366 1.357
1.416 5.752 1.695
1.381 5.190 1.516
1.591 5.128 1.636
2.138 5.348 1.680
3.660 5.737 2.904
3.963 5.633 2.636
4.284 5.699 3.036
4.336 5.740 2.821
0.892 5.046 1.232
1.207 5.200 1.282
1.194 5.007 1.363
1.346 5.504 1.698
1.688 4.842 1.665
1.948 5.114 1.560
1.875 5.349 1.912
2.368 5.147 1.746
3.816 5.560 2.895
4.120 5.476 3.097
4.317 5.789 3.119
1.178 4.732 1.082
1.183 4.917 1.204
1.543 4.933 1.411
1.460 5.210 1.061
1.796 4.948 1.430
2.204 5.131 1.566
3.885 5.448 2.656
3.947 5.694 2.504
4.223 5.722 2.626
4.412 5.814 2.839
1.050 5.227 1.045
1.449 4.981 0.789
1.404 5.057 0.974
1.518 5.074 0.990
1.582 5.012 1.285
1.738 4.728 1.335
2.164 4.933 1.546
2.617 5.022 1.351
3.909 5.254 2.631
4.324 5.390 2.628
4.431 5.460 2.776
1.411 4.896 1.037
1.364 4.915 1.135
1.988 4.983 1.154
1.986 4.808 1.104
2.252 4.654 1.024
2.248 4.501 1.599
2.521 4.613 1.483
2.754 4.613 1.583
4.439 5.062 2.540
4.821 4.996 2.663
-0.048 4.312 0.063
1.631 4.489 0.998
1.848 4.428 1.350
2.357 4.346 1.409
2.537 4.377 1.527
2.475 4.628 1.288
2.701 4.827 1.633
2.920 4.569 1.522
4.626 5.015 2.489
-0.058 4.296 0.303
0.213 4.195 0.038
2.415 4.257 1.494
2.663 4.407 1.219
2.668 4.416 1.597
2.860 4.465 1.605
3.509 4.317 1.533
3.705 4.620 1.771
0.133 3.763 -0.065
0.433 4.048 -0.026
0.608 4.069 0.218
2.633 4.140 1.250
2.803 4.117 1.308
3.253 4.353 1.705
3.258 4.414 1.543
3.408 4.418 1.657
3.666 4.239 1.732
0.408 3.748 0.248
0.436 3.514 -0.006
0.522 3.609 0.083
1.122 3.572 0.376
3.204 3.669 1.445
3.236 4.002 1.710
3.262 4.160 1.505
3.523 3.795 1.843
4.001 4.055 1.926
4.164 4.322 2.228
0.659 3.654 0.042
0.639 3.551 0.218
1.190 3.304 0.189
1.071 3.381 0.232
2.962 3.834 1.119
3.278 3.653 1.444
3.648 3.646 1.715
3.493 3.790 1.573
3.893 3.677 1.908
4.023 3.784 2.175
4.198 4.125 2.195
0.792 3.302 0.188
1.004 3.091 0.209
1.048 3.066 0.082
1.567 3.396 0.349
1.441 3.562 0.487
1.891 3.472 0.668
3.369 3.462 1.283
3.387 3.327 1.332
3.651 3.384 1.732
4.197 3.611 1.632
4.300 3.595 1.956
4.338 3.579 1.852
4.505 3.512 1.983
0.808 3.020 0.056
1.008 3.070 0.165
1.473 3.037 0.490
1.752 2.941 0.302
2.007 3.254 0.404
1.822 2.965 0.492
3.645 3.184 1.632
3.674 3.347 1.625
4.092 3.298 1.679
4.425 3.491 1.714
4.706 3.224 1.949
4.749 3.468 2.225
5.082 3.379 2.172
1.099 2.566 0.147
1.325 2.754 -0.055
1.406 2.620 0.207
1.878 2.807 0.625
1.842 3.054 0.428
1.975 2.933 0.631
2.603 2.948 0.926
4.191 2.993 1.741
3.967 3.268 1.843
4.263 3.089 1.608
4.786 3.277 1.914
4.735 3.068 2.038
4.862 3.452 2.165
5.341 3.190 2.201
1.087 2.690 -0.145
1.252 2.646 -0.085
1.751 2.417 0.117
1.603 2.447 0.586
2.154 2.749 0.589
2.272 2.877 0.802
2.643 2.741 0.536
2.551 2.543 0.828
2.622 2.598 0.722
4.330 3.099 1.502
4.437 2.690 1.704
4.805 3.050 1.634
5.108 2.828 2.013
5.294 3.116 1.942
5.233 3.258 2.402
1.256 2.106 -0.079
1.554 2.169 0.395
1.949 2.207 0.548
2.289 2.378 0.585
2.204 2.512 0.358
2.488 2.449 0.599
2.508 2.516 0.715
2.886 2.407 0.961
3.062 2.268 0.976
4.392 2.724 1.560
4.912 2.534 1.909
4.884 3.001 1.815
5.144 3.045 1.985
5.607 2.793 2.004
1.465 1.934 0.302
1.727 2.296 0.463
2.214 2.171 0.334
2.272 2.243 0.537
2.445 2.110 0.506
2.602 2.204 0.608
2.771 1.949 0.753
3.230 2.237 0.868
3.455 2.365 0.774
4.938 2.710 1.787
5.200 2.676 2.070
5.095 2.823 1.882
5.406 2.579 2.203
2.436 2.001 0.404
2.547 1.977 0.303
2.891 2.065 0.363
2.618 1.827 0.302
2.823 2.041 0.451
3.214 1.835 0.994
3.571 1.849 0.998
3.782 1.782 1.036
5.196 2.363 1.956
5.373 2.564 1.862
5.712 2.368 2.042
2.355 1.722 0.349
2.946 1.995 0.453
2.563 1.378 0.342
2.949 1.753 0.666
3.135 1.833 0.897
3.248 1.589 1.050
3.847 1.727 0.917
3.795 1.811 1.196
5.468 2.017 1.832
5.572 2.339 2.196
2.721 1.430 0.555
2.864 1.537 0.742
3.206 1.397 0.704
3.520 1.633 0.916
3.844 1.535 0.781
3.767 1.517 0.951
3.990 1.415 1.081
3.431 1.297 0.802
3.711 1.080 0.575
3.804 1.342 0.890
3.822 1.413 0.954
4.173 1.514 1.128
4.416 1.322 1.042
3.744 1.106 0.909
3.654 0.943 0.617
4.176 0.883 0.994
4.380 1.218 1.051
4.680 0.971 1.226
4.805 1.097 1.048
-0.040 6.157 0.767
0.296 6.054 1.082
0.483 6.216 1.150
0.674 6.279 1.287
0.871 6.207 1.278
-0.016 5.668 0.565
0.064 5.861 0.618
0.508 5.800 1.034
0.786 5.867 1.227
0.798 6.080 1.113
1.227 6.016 1.102
1.256 5.716 1.601
2.904 6.033 2.151
3.096 6.103 2.551
3.243 6.217 2.606
3.548 6.047 2.417
0.022 5.560 0.537
0.217 5.423 0.872
0.425 5.456 1.121
1.047 5.490 1.099
0.948 5.787 1.175
1.291 5.582 1.338
1.673 5.820 1.266
1.571 5.731 1.313
1.592 5.779 1.450
3.054 6.053 2.010
3.210 5.983 2.044
3.440 5.956 2.563
3.732 6.226 2.461
3.905 5.852 2.548
4.121 6.179 2.699
4.269 5.966 2.944
0.479 5.436 0.767
0.524 5.614 0.683
1.076 5.535 0.834
0.994 5.420 1.156
1.428 5.513 1.014
1.394 5.539 1.256
1.766 5.192 1.440
1.589 5.403 1.447
1.861 5.203 1.459
3.429 5.851 2.268
3.522 5.948 2.347
4.001 5.569 2.573
4.061 6.005 2.407
4.021 5.811 2.545
4.473 5.821 2.711
0.761 5.369 0.571
1.120 5.074 0.919
1.030 5.275 1.235
1.408 5.246 1.361
1.738 5.152 1.441
1.854 5.316 1.364
1.677 5.388 1.224
2.216 5.415 1.616
3.782 5.629 2.522
3.877 5.372 2.463
4.295 5.640 2.599
4.687 5.442 2.812
0.893 5.106 0.944
1.160 5.163 0.853
1.389 5.009 0.908
1.907 5.202 1.235
1.966 5.327 1.062
2.018 5.302 0.966
3.567 5.638 2.240
3.842 5.732 2.315
4.129 5.790 2.187
4.213 5.765 2.651
4.793 5.632 2.461
0.793 5.140 0.737
0.929 5.073 0.635
1.182 5.285 1.011
1.653 4.940 0.849
1.974 5.191 1.035
1.637 4.901 1.203
2.140 5.167 1.311
2.488 5.076 1.336
3.900 5.524 2.047
4.284 5.366 2.157
4.471 5.467 2.325
4.482 5.732 2.295
1.421 4.750 0.572
1.841 4.717 0.839
1.824 4.750 1.193
2.207 4.716 1.028
2.528 4.839 1.038
4.601 5.073 2.249
3.011 4.314 1.263
3.672 4.240 1.638
3.655 4.288 1.551
3.909 4.533 1.823
0.687 3.570 0.039
0.942 3.951 0.037
3.137 4.117 1.424
3.718 3.863 1.326
3.680 3.970 1.723
4.095 4.182 1.758
4.311 4.093 1.620
4.249 4.420 1.962
1.121 3.311 0.151
1.026 3.334 -0.029
1.167 3.563 0.473
1.581 3.491 0.129
