1.425 2.821 0.446
1.370 2.612 0.687
1.774 2.338 0.604
1.493 2.584 1.051
1.157 2.308 0.725
1.093 2.580 1.136
0.273 3.015 0.097
0.175 2.751 0.452
0.019 2.615 0.863
6.172 3.095 0.357
6.155 2.979 0.673
6.285 2.701 0.901
6.335 2.658 1.121
6.070 2.515 1.246
6.209 2.307 1.644
5.872 2.950 0.104
5.824 2.809 0.764
6.015 2.900 0.602
5.652 2.558 0.973
5.777 2.568 1.470
5.789 2.571 1.541
5.510 3.061 0.068
5.440 2.731 0.650
5.352 2.500 1.066
5.692 2.703 1.307
5.368 2.294 1.263
5.290 2.396 1.358
5.289 2.885 0.520
5.545 2.844 0.654
5.043 2.693 0.763
5.220 2.420 0.899
5.274 2.619 1.285
5.261 2.195 1.714
4.935 2.990 0.420
4.755 2.727 0.933
5.181 2.799 0.791
5.106 2.630 1.426
4.901 2.489 1.469
4.615 2.667 0.972
4.458 2.654 1.039
4.462 2.428 1.176
4.487 2.440 1.231
4.486 2.580 0.325
4.550 2.645 0.598
4.747 2.469 1.018
4.537 2.292 1.029
4.523 1.865 1.253
3.275 2.687 0.022
3.112 2.488 0.199
3.497 2.582 0.798
3.430 2.189 0.962
3.214 2.240 1.361
2.890 2.724 0.065
2.782 2.428 0.193
2.806 2.447 0.668
2.785 2.395 0.682
2.892 2.122 1.076
2.967 2.588 0.185
2.537 2.497 0.180
2.506 2.525 0.582
2.428 2.275 1.064
2.478 2.034 1.176
2.430 2.665 -0.121
2.331 2.515 0.176
2.588 2.283 0.387
2.328 2.075 1.041
2.105 1.938 1.256
2.110 2.412 -0.126
2.174 2.282 0.333
2.290 2.286 0.272
2.152 2.102 0.845
2.126 1.956 0.917
1.966 2.611 0.309
1.974 2.404 0.493
1.791 2.360 0.587
1.765 1.992 1.210
1.623 2.601 0.345
1.458 2.307 0.287
1.354 2.395 0.626
1.629 1.899 0.961
0.176 2.398 -0.199
0.359 2.451 0.511
0.330 2.382 0.639
0.291 1.976 1.015
6.050 2.775 0.264
6.051 2.388 0.442
6.191 2.296 0.512
6.120 2.140 0.787
6.237 2.110 1.095
5.793 2.116 1.734
6.145 2.556 0.114
5.664 2.518 0.704
6.073 2.355 0.626
5.876 2.265 1.098
5.869 2.226 1.351
5.904 1.906 1.415
5.646 2.822 0.163
5.725 2.433 0.388
5.372 2.269 0.782
5.500 2.290 0.875
5.714 2.305 1.321
5.620 2.276 1.321
5.183 2.741 0.401
5.096 2.755 0.584
5.139 2.242 0.472
5.268 2.278 1.044
4.961 1.974 0.971
5.166 2.117 1.414
5.170 2.668 -0.122
4.972 2.421 0.574
4.921 2.630 0.660
4.859 2.147 0.787
5.191 2.339 0.927
4.676 1.855 1.431
4.913 2.616 0.219
4.880 2.573 0.677
4.690 2.434 0.711
4.495 2.302 1.099
4.747 1.954 1.528
4.682 2.228 0.375
4.933 2.349 0.701
4.626 2.209 0.866
4.781 1.869 0.737
4.582 1.852 1.328
4.653 2.390 0.311
4.339 1.985 0.189
3.396 1.972 0.456
3.382 2.216 0.644
3.328 1.888 0.780
3.433 2.012 1.271
3.108 2.474 0.143
3.125 2.180 0.435
3.197 2.232 0.719
3.084 1.918 0.936
2.925 2.027 0.091
2.506 2.260 0.656
2.595 1.924 0.704
2.549 2.040 0.814
2.371 2.078 0.224
2.626 2.229 0.194
2.147 2.068 0.586
2.444 1.763 1.025
2.388 2.392 0.133
2.115 2.340 0.443
2.033 1.973 0.533
1.967 1.920 1.161
2.035 2.036 0.337
2.112 1.992 0.572
1.799 1.841 0.461
1.798 1.899 0.625
1.836 2.362 0.198
1.381 2.258 0.107
1.669 2.034 0.657
1.528 2.020 0.745
1.514 2.134 0.088
-0.086 2.100 -0.008
-0.065 2.146 0.218
0.319 2.097 0.556
6.215 2.366 0.376
6.001 1.997 0.505
6.192 2.068 1.010
5.972 2.097 0.929
5.848 1.642 1.618
5.673 2.503 -0.003
5.766 2.166 0.141
5.819 2.017 0.436
5.571 2.114 0.744
5.649 1.890 1.328
5.715 1.731 1.289
5.508 2.413 0.162
5.537 2.184 0.371
5.835 2.166 0.749
5.438 2.016 0.691
5.376 1.951 1.097
5.271 1.829 1.261
5.219 2.582 -0.067
5.256 2.222 0.510
5.317 2.383 0.364
5.498 2.159 0.759
5.356 1.803 0.806
5.099 2.055 1.500
4.789 2.548 0.265
5.216 2.157 0.425
5.015 2.153 0.750
4.824 1.699 1.220
4.719 1.635 1.057
4.963 2.494 0.300
4.972 2.107 0.372
4.644 2.332 0.666
4.444 2.052 0.970
4.817 1.910 0.961
4.746 1.886 0.247
4.921 1.812 0.126
4.790 1.695 0.532
4.580 1.803 1.059
4.528 1.950 0.248
4.657 2.131 0.277
3.248 1.820 0.972
3.415 1.995 0.583
3.021 1.814 0.548
3.217 1.496 0.837
3.188 1.820 0.268
3.066 1.814 0.606
2.952 1.759 0.634
3.014 1.336 1.105
2.503 2.201 0.292
2.577 1.799 0.109
2.851 1.565 0.817
2.585 1.545 0.653
2.486 1.857 0.193
2.448 1.750 0.283
2.659 1.724 0.538
2.344 1.456 1.015
2.385 2.079 0.126
2.156 1.986 0.080
2.169 1.907 0.419
2.282 1.512 0.517
1.613 1.847 0.223
2.096 1.570 0.578
1.808 1.588 0.484
1.633 1.612 0.151
1.354 1.627 0.416
0.372 1.477 0.637
-0.048 2.132 0.003
0.328 1.570 0.414
-0.082 1.799 0.397
6.299 2.151 0.661
5.873 2.024 0.491
6.303 1.511 1.123
5.971 1.469 1.104
5.680 1.953 0.111
5.929 1.904 0.190
5.686 1.892 0.634
6.029 1.588 1.148
5.735 1.643 0.947
5.797 2.010 -0.084
5.781 2.072 0.208
5.442 1.715 0.893
5.399 1.750 1.011
5.392 1.722 1.411
5.401 1.986 0.024
5.411 2.022 0.196
5.144 1.670 0.723
5.005 1.836 1.047
5.106 1.587 0.967
5.267 2.343 0.236
5.087 1.800 0.414
4.970 1.806 0.545
5.069 1.544 1.078
5.143 1.406 1.133
4.668 1.889 0.070
4.587 2.146 0.582
4.445 1.823 0.503
4.686 1.472 1.019
4.865 1.469 -0.000
4.851 1.726 0.526
4.628 1.743 0.036
3.724 1.178 0.979
3.088 1.700 0.284
3.472 1.453 0.663
2.757 1.449 0.165
2.848 1.415 0.320
2.768 1.243 0.584
2.646 1.378 0.296
2.922 1.382 0.535
2.702 1.437 0.462
2.479 1.453 0.228
2.665 1.577 0.653
2.208 1.113 0.605
2.042 1.804 0.146
1.931 1.317 0.430
2.354 1.096 0.613
1.663 1.640 0.322
2.068 1.715 0.449
1.820 1.410 0.103
0.531 1.334 0.347
0.129 1.322 0.240
0.252 1.399 0.488
6.343 1.712 0.508
6.055 1.365 0.767
5.918 1.290 1.028
5.944 1.559 0.327
6.024 1.410 0.612
5.907 1.614 0.925
5.734 1.316 1.266
5.397 1.715 0.248
5.471 1.561 0.059
5.705 1.411 0.478
5.329 1.487 0.689
5.544 1.446 0.913
5.383 1.778 -0.031
5.074 1.757 0.344
5.219 1.724 0.333
5.419 1.213 0.940
5.067 1.166 0.936
4.887 1.598 0.417
5.063 1.765 0.217
4.968 1.202 0.565
4.772 1.860 0.068
4.842 1.567 0.360
4.979 1.345 0.311
4.335 1.341 0.067
3.588 1.229 0.588
3.134 1.203 0.845
3.011 1.229 0.210
3.017 1.206 0.682
2.897 1.199 0.345
2.684 0.997 0.781
0.446 1.165 0.176
-0.040 1.257 0.136
5.919 1.272 0.659
6.010 1.254 1.200
6.050 0.996 0.652
5.869 1.243 1.000
5.290 1.568 0.378
5.050 1.521 0.014
4.724 1.605 -0.067
3.744 0.889 0.441
3.355 0.986 0.424
0.520 0.652 0.261
0.363 0.699 -0.105
4.805 0.163 0.309
4.630 0.103 0.191
3.983 0.207 0.506
1.740 0.407 0.266
1.358 0.574 -0.070
1.193 0.126 -0.236
4.812 0.383 0.213
4.603 0.155 0.205
4.448 5.713 2.901
4.567 5.478 3.247
4.038 5.535 3.200
3.747 5.691 3.228
3.905 5.993 1.993
3.372 6.392 1.899
3.113 6.121 1.855
3.117 5.964 2.252
2.833 6.261 2.054
3.014 5.870 2.004
2.636 6.099 2.535
2.551 6.148 2.183
2.588 6.159 2.076
2.404 5.899 2.640
2.411 5.932 2.587
2.166 6.401 1.647
2.025 6.112 1.968
2.121 5.973 2.496
2.171 5.840 2.740
2.344 5.421 2.741
2.035 6.284 2.140
1.821 6.031 2.109
1.963 5.564 2.754
1.901 5.563 3.096
1.499 5.796 2.555
1.562 5.974 2.320
1.589 5.574 2.796
1.599 5.593 2.315
1.537 5.575 2.573
1.290 5.547 2.635
0.953 5.588 2.574
0.542 6.424 1.716
0.440 6.134 1.417
0.231 6.451 1.802
-0.032 6.054 1.667
6.138 6.144 2.023
5.752 6.277 2.310
5.829 5.819 2.411
6.172 5.773 2.866
5.856 6.008 1.910
5.479 6.245 2.235
5.874 5.927 2.542
5.635 6.012 2.875
5.690 5.786 2.815
5.461 5.956 2.244
5.381 5.762 2.343
5.251 5.708 2.722
5.107 5.551 2.863
5.054 5.570 3.147
5.028 5.859 2.424
5.319 5.679 2.889
4.999 5.817 2.862
5.269 5.678 3.038
4.788 5.738 2.698
4.587 5.711 2.829
4.797 5.510 3.261
4.325 5.514 2.894
4.583 5.832 2.966
4.599 5.382 2.724
4.237 5.578 2.921
4.334 5.411 3.047
4.439 5.284 2.787
4.251 5.175 2.954
4.157 6.161 1.685
3.884 6.066 1.219
3.927 5.920 1.931
3.530 6.038 1.444
3.572 6.223 1.772
3.427 5.987 1.847
2.969 6.017 1.202
3.226 6.104 1.801
3.045 5.979 2.041
3.277 5.893 1.858
3.088 5.840 2.532
2.751 6.212 1.485
2.846 6.118 1.419
3.122 5.832 1.738
2.969 6.004 2.071
2.928 5.555 2.508
3.000 5.379 2.565
2.473 5.832 1.365
2.775 5.884 1.780
2.343 5.677 2.106
2.293 5.742 2.106
2.406 5.443 2.630
2.341 5.183 2.911
2.403 5.800 1.300
2.247 5.758 1.894
2.228 5.578 1.921
2.501 5.519 2.170
2.099 5.676 2.378
2.140 5.513 2.747
2.170 5.683 1.620
2.005 5.599 1.811
2.143 5.450 2.231
1.874 5.282 2.742
1.784 5.312 2.760
1.695 6.016 2.018
1.593 5.415 2.186
1.470 5.570 2.536
1.883 5.475 2.522
1.187 5.563 1.915
1.484 5.569 2.322
1.571 5.562 2.790
1.048 5.752 2.284
0.817 5.413 2.663
0.721 6.030 0.886
0.826 6.361 1.185
0.867 6.284 1.206
0.405 6.279 1.240
0.144 5.860 1.021
0.252 5.980 1.517
0.092 6.114 0.741
0.110 6.021 1.397
0.305 5.985 1.751
-0.212 5.895 1.830
6.148 5.949 1.850
6.248 6.170 1.810
6.234 6.091 2.225
5.736 5.555 2.186
6.099 5.817 2.554
5.687 5.594 3.061
5.749 6.128 1.810
5.495 5.633 2.074
5.889 5.658 2.237
5.425 5.797 2.475
5.598 5.553 3.154
5.358 5.171 2.931
5.687 6.130 2.116
5.339 5.663 2.197
5.215 5.815 2.281
5.438 5.513 2.808
5.519 5.468 2.818
5.348 5.515 3.261
5.214 5.672 2.138
4.996 5.565 2.430
5.081 5.583 2.444
5.210 5.406 2.891
4.781 5.432 3.038
4.913 5.589 2.417
4.991 5.447 2.542
4.904 5.568 2.731
4.725 5.473 3.047
4.612 5.561 2.634
4.256 5.358 2.883
4.219 5.518 2.926
4.409 5.684 2.291
4.737 5.473 2.253
4.706 5.408 2.738
4.556 4.976 2.727
4.356 5.283 2.698
4.104 5.335 2.850
3.145 5.654 1.336
3.261 5.710 1.892
3.376 5.365 1.758
3.273 5.520 2.190
3.279 5.475 2.337
3.104 5.974 1.237
3.001 5.569 1.448
2.865 5.327 1.757
2.904 5.370 1.998
2.653 5.334 2.578
2.897 5.079 2.922
2.512 5.878 1.267
2.852 5.460 1.569
2.531 5.706 2.019
2.783 5.187 2.094
2.633 5.493 2.368
2.530 5.367 2.857
2.215 5.848 1.381
2.216 5.703 1.516
2.282 5.658 1.892
2.491 5.624 2.285
2.042 5.218 2.483
1.949 4.993 2.739
2.300 5.653 1.286
1.926 5.771 1.501
2.113 5.340 1.655
1.971 5.498 1.884
2.098 5.153 2.165
2.104 4.949 2.839
1.905 5.509 1.485
1.730 5.564 2.010
1.831 5.416 2.083
1.552 5.144 2.150
1.476 5.186 2.439
1.288 5.535 2.013
1.575 5.412 2.199
1.319 5.396 2.463
1.189 5.220 2.589
1.291 5.090 2.293
1.250 4.915 2.556
0.225 5.691 1.042
0.223 5.453 1.487
0.213 5.406 1.820
5.994 5.657 1.931
6.185 5.788 1.915
5.857 5.509 2.372
6.013 5.545 2.559
5.753 5.170 2.811
5.769 5.185 2.900
5.762 5.939 1.571
5.545 5.622 2.169
5.607 5.654 2.273
5.877 5.470 2.679
5.572 5.197 2.919
5.462 5.307 2.895
5.324 5.560 1.626
5.521 5.501 1.872
5.274 5.436 2.195
5.175 5.130 2.412
5.436 5.432 2.947
5.093 4.992 3.025
5.051 5.659 1.943
5.033 5.463 1.956
5.267 5.378 1.990
4.974 5.312 2.532
5.006 5.270 2.902
4.894 4.854 3.227
5.115 5.830 1.688
4.887 5.367 2.132
4.559 5.224 2.540
4.928 5.082 2.423
4.939 5.099 2.698
4.637 5.602 2.146
4.358 5.359 2.585
4.579 5.046 2.457
4.493 5.012 2.896
4.833 6.385 0.326
4.418 5.164 1.869
4.518 5.036 1.934
4.720 4.892 2.275
4.377 5.124 2.623
4.709 4.972 2.553
3.415 5.184 1.421
3.222 5.079 1.598
3.384 5.288 2.097
3.178 5.156 2.578
3.174 5.071 2.441
2.925 6.173 0.077
3.009 5.714 1.189
3.024 5.252 1.378
2.819 5.126 1.664
3.046 5.021 1.816
2.783 4.890 2.359
2.612 4.801 2.549
2.795 6.265 0.141
2.493 5.793 1.245
2.707 5.490 1.301
2.757 5.477 1.823
2.527 5.062 1.906
2.789 4.826 2.314
2.266 5.058 2.586
2.549 5.360 1.310
2.486 5.649 1.720
2.301 5.228 1.767
2.511 4.936 2.107
2.245 4.882 2.140
2.477 4.703 2.679
1.854 5.315 1.005
1.922 5.407 1.357
2.048 5.270 1.934
1.752 4.932 2.015
2.187 5.110 2.052
2.178 4.943 2.425
1.783 5.726 1.024
1.900 5.378 1.386
1.710 5.460 1.791
1.454 5.332 2.062
1.902 4.891 2.096
1.452 4.737 2.639
1.253 5.533 1.441
1.596 5.319 1.800
1.493 4.925 1.769
1.498 4.819 2.208
1.477 4.676 2.152
-0.067 5.278 1.351
-0.111 5.339 1.623
-0.035 5.417 1.753
6.067 5.966 0.436
6.206 5.625 1.541
5.826 5.553 1.768
6.031 5.488 2.271
6.008 4.850 2.361
5.831 4.928 2.900
5.674 4.854 2.985
5.883 6.033 0.506
5.554 5.441 1.845
5.892 5.282 1.811
5.882 5.039 2.084
5.735 5.148 2.164
5.480 5.166 2.822
5.854 4.731 2.722
5.748 5.908 0.517
5.497 5.638 1.494
5.346 5.163 2.092
5.169 5.005 2.011
5.277 5.174 2.263
5.457 5.049 2.577
5.456 4.695 3.122
5.369 6.266 0.422
5.021 5.621 1.771
5.221 5.401 1.657
5.044 5.415 2.135
4.973 5.122 2.298
5.334 4.927 2.562
4.861 5.053 2.891
5.115 6.433 0.456
5.188 5.387 1.723
4.784 5.420 1.825
4.812 5.431 1.899
4.848 5.063 2.222
4.567 4.957 2.653
4.658 4.975 2.858
4.712 6.243 0.231
4.836 5.169 1.555
4.743 5.082 1.886
4.509 5.007 2.515
4.453 5.181 2.299
4.741 4.990 2.624
4.585 5.307 1.317
4.642 5.191 1.446
4.649 5.268 1.907
4.466 4.881 1.898
4.281 4.597 2.227
4.549 4.511 2.520
4.268 5.237 1.407
4.332 4.763 1.643
3.399 4.965 1.948
3.121 4.680 2.118
2.862 4.856 2.211
3.191 4.688 2.391
3.140 5.773 0.109
3.063 4.956 1.496
2.963 5.243 1.692
3.019 4.793 1.923
2.815 4.652 2.119
2.546 4.409 2.261
2.923 5.817 0.365
2.485 5.337 0.895
2.465 5.317 1.519
2.431 5.251 1.666
2.479 5.147 1.870
2.369 4.922 2.350
2.413 4.466 2.639
2.545 5.376 0.878
2.340 5.304 1.498
2.081 5.063 1.513
2.113 5.065 2.041
2.504 4.903 2.251
2.082 4.680 2.555
1.969 5.444 1.141
2.234 5.360 1.409
2.230 4.819 1.688
2.230 4.920 1.768
2.014 5.017 2.207
1.808 4.783 2.158
1.663 5.321 1.177
1.538 5.144 1.555
1.873 4.947 1.791
1.798 4.781 1.652
1.948 5.029 1.976
1.920 4.580 2.189
1.715 5.194 1.112
1.451 4.992 1.045
1.669 4.985 1.630
1.326 5.027 1.882
1.373 4.545 1.818
1.555 4.626 2.100
1.261 5.257 1.281
1.147 4.947 1.720
0.311 5.159 1.163
-0.007 5.139 1.623
6.080 6.187 -0.080
6.446 6.116 0.184
5.965 5.561 0.674
6.298 5.158 1.951
5.995 4.773 2.221
6.045 4.919 2.171
5.895 4.703 2.785
5.889 4.823 2.867
5.924 6.108 0.178
6.007 6.132 0.407
5.880 5.808 0.685
5.929 5.112 1.482
5.608 5.122 1.635
5.579 4.945 2.117
5.682 4.929 2.085
5.845 4.953 2.656
5.488 4.444 2.767
5.552 5.658 0.324
5.695 5.064 1.221
5.245 5.087 1.977
5.697 4.936 1.913
5.374 4.791 2.398
5.190 4.707 2.668
5.252 4.773 2.937
5.163 6.079 0.322
5.439 5.216 1.521
5.131 4.896 1.555
5.004 5.055 2.166
5.162 4.691 2.164
5.013 4.664 2.300
5.304 4.724 2.662
4.832 6.133 0.109
5.102 5.026 1.525
4.898 5.374 1.528
4.858 5.237 1.705
4.869 4.809 2.373
4.980 4.638 2.638
4.964 4.433 2.921
4.677 5.138 1.429
4.870 5.309 1.713
4.347 4.824 2.029
4.814 5.118 2.367
4.681 4.656 2.223
4.256 4.732 2.644
4.801 5.106 1.176
4.583 5.179 1.491
4.739 5.004 1.664
4.565 4.979 1.512
4.794 4.849 2.112
4.602 4.609 2.513
4.152 5.213 0.756
4.577 5.083 1.480
4.479 4.858 1.379
4.385 4.961 1.887
4.240 5.345 0.890
4.169 5.194 1.132
3.864 5.728 -0.146
3.499 5.282 0.565
3.322 4.265 2.467
3.212 5.478 -0.009
3.234 5.557 0.545
3.209 4.630 1.966
3.029 4.576 1.967
3.145 4.431 2.226
3.347 5.322 -0.014
3.047 4.748 1.406
3.095 4.414 1.604
2.681 4.325 1.975
2.630 4.275 2.564
2.707 5.395 0.205
2.725 4.878 1.528
2.376 4.981 1.459
2.548 4.904 1.719
2.810 4.333 2.028
2.424 4.373 2.131
2.350 4.903 1.087
2.587 5.017 0.989
2.273 4.863 1.529
2.564 4.398 1.936
2.258 4.389 2.002
2.452 4.208 2.216
2.173 4.866 0.839
2.303 5.172 1.306
2.134 5.003 1.199
2.234 4.814 1.604
1.783 4.569 1.819
1.958 4.201 2.407
2.117 5.232 0.444
1.696 5.164 0.734
1.651 5.086 0.909
2.028 4.570 1.579
1.935 4.845 1.734
1.858 4.490 2.082
1.737 4.647 2.091
1.367 5.394 0.383
1.332 5.147 0.879
1.578 4.737 0.970
1.663 4.985 1.336
1.389 4.459 1.762
1.277 4.622 1.819
1.501 5.244 0.577
1.410 5.061 1.066
1.291 4.761 0.991
1.126 4.678 1.234
1.111 5.011 0.726
1.126 5.077 0.718
0.223 4.572 2.246
0.091 4.736 1.487
-0.163 4.540 1.681
6.207 5.433 -0.003
6.424 5.662 0.661
6.201 4.741 1.962
5.786 4.608 2.286
5.944 4.472 2.392
5.882 4.292 2.811
6.091 5.539 0.357
6.044 5.326 0.346
5.621 4.954 1.429
5.969 4.867 1.636
5.477 4.545 2.105
5.645 4.577 2.164
5.875 4.116 2.728
5.818 5.641 -0.105
5.370 5.144 1.205
5.703 5.114 1.600
5.293 4.511 2.021
5.654 4.718 2.300
5.427 4.275 2.334
5.561 4.197 2.856
5.409 5.828 0.262
5.135 4.780 1.550
5.394 4.890 1.576
5.092 4.777 1.665
5.234 4.551 2.179
5.365 4.630 2.499
4.927 4.248 2.648
5.019 5.368 1.069
5.125 5.171 1.054
4.709 4.987 1.680
5.064 4.543 1.561
5.041 4.484 2.219
5.050 4.432 2.456
4.918 4.317 2.306
4.849 5.029 0.923
4.676 4.767 1.039
4.540 5.062 1.503
4.776 4.778 1.672
4.389 4.464 2.044
4.403 4.274 2.314
4.524 4.783 0.476
4.582 5.036 0.670
4.695 4.722 1.162
4.514 4.628 1.528
4.678 4.240 1.859
4.403 4.256 1.924
4.445 5.185 0.302
4.304 5.106 0.458
4.385 5.073 0.862
4.483 4.552 0.980
4.131 4.477 1.211
4.570 4.729 1.773
4.217 5.303 -0.058
4.086 5.333 0.511
3.979 5.008 0.697
4.354 5.095 0.788
3.898 4.736 0.832
4.126 4.377 1.139
4.011 5.451 0.237
3.733 5.392 0.451
4.097 4.948 0.695
4.097 5.057 1.005
3.648 4.865 1.254
3.827 5.264 -0.021
3.757 4.815 0.553
3.655 4.678 0.602
3.465 4.344 2.058
3.092 5.314 0.162
3.436 5.026 0.238
3.007 4.425 2.017
3.132 3.977 2.232
3.061 5.078 -0.065
2.884 4.219 1.552
3.028 4.242 1.793
2.822 4.149 2.037
2.706 4.738 1.587
2.353 4.195 1.428
2.803 4.306 2.029
2.583 3.938 2.409
2.593 4.622 0.881
2.177 4.690 1.199
2.473 4.159 1.469
2.278 4.286 1.899
2.446 3.909 2.278
2.044 4.585 0.587
2.055 4.825 0.822
2.074 4.549 1.511
2.265 4.363 1.536
1.833 4.119 1.598
1.866 4.097 2.237
1.963 4.838 0.796
1.718 4.777 0.709
1.751 4.842 0.778
1.959 4.748 1.362
1.837 4.596 1.628
1.821 4.405 1.699
1.428 5.248 0.183
1.693 5.024 0.457
1.625 4.896 0.663
1.657 4.599 0.837
1.303 4.294 1.382
1.458 4.352 1.540
1.460 4.895 0.096
1.401 4.992 0.491
1.420 4.695 0.542
1.154 4.822 1.226
1.294 4.788 1.328
1.275 4.830 0.264
1.119 4.881 0.643
0.886 4.874 0.456
0.842 4.588 1.157
0.672 5.251 0.242
0.678 5.188 0.405
0.856 4.624 0.899
0.632 5.310 0.286
0.350 4.876 0.369
0.321 4.310 1.849
0.226 4.844 -0.008
-0.074 4.493 1.661
6.308 5.307 0.270
6.288 5.225 0.420
6.437 4.901 0.273
6.187 4.138 2.287
6.106 4.034 2.102
6.128 4.050 2.363
5.780 5.208 0.241
5.839 4.586 1.658
5.594 4.222 2.138
5.698 4.265 2.381
5.811 4.013 2.768
5.569 4.535 1.349
5.306 4.517 1.750
5.440 4.320 2.061
5.447 4.371 2.108
5.283 4.021 2.498
5.112 4.863 1.001
5.181 4.494 1.479
5.071 4.559 1.768
5.180 4.489 1.971
5.137 4.303 2.056
4.924 3.870 2.185
4.928 4.925 0.801
4.960 4.700 1.329
4.814 4.721 1.586
4.839 4.249 1.890
4.952 4.350 2.158
4.908 3.982 2.263
4.532 4.991 0.422
4.744 4.812 0.930
4.877 4.989 1.243
4.773 4.397 1.618
4.686 4.612 1.673
4.578 4.470 1.803
4.141 3.430 3.398
4.549 3.530 3.752
4.253 3.353 4.069
4.337 2.956 3.926
4.394 3.277 4.276
4.449 3.111 4.388
4.275 2.137 6.301
4.387 3.583 3.238
4.256 3.836 3.480
4.088 3.610 3.461
4.307 3.400 3.990
3.802 3.255 3.975
3.788 3.270 4.113
3.721 2.310 5.637
3.657 2.195 5.877
3.690 3.761 3.046
3.692 3.519 3.159
3.769 3.487 3.338
3.798 3.697 3.649
3.998 3.546 3.748
3.735 3.135 3.832
3.463 2.471 5.559
3.405 2.444 5.896
3.709 2.341 6.147
3.851 3.747 2.593
3.471 3.824 2.903
3.477 3.710 3.055
3.341 3.361 3.453
3.432 3.647 3.734
3.509 3.473 4.002
3.097 2.515 5.356
3.208 2.198 5.673
3.214 2.528 5.891
3.337 2.293 6.227
3.701 4.028 2.612
3.298 3.809 2.242
3.333 3.889 2.645
3.176 3.555 2.865
3.488 3.840 3.492
3.406 3.504 3.640
3.064 2.671 5.185
2.852 2.400 5.083
3.176 2.657 5.454
2.861 2.470 5.968
2.810 1.996 5.876
2.978 2.019 6.316
3.585 3.903 2.513
3.088 4.175 2.565
3.200 4.094 2.596
3.184 3.904 2.864
3.043 3.831 3.088
3.018 2.834 4.936
2.699 2.754 4.814
2.837 2.304 5.381
2.484 2.608 5.391
2.478 2.392 5.839
2.821 2.395 6.043
3.188 3.957 2.478
2.975 4.089 2.428
2.807 3.854 2.565
2.898 3.992 2.875
2.415 3.018 4.640
2.764 3.064 4.458
2.217 2.864 4.762
2.510 2.497 5.396
2.525 2.649 5.704
2.311 2.110 5.970
2.768 4.140 2.470
2.446 3.977 2.586
2.574 3.830 2.874
2.207 3.186 4.262
2.097 2.745 4.157
2.177 3.038 4.509
1.956 2.726 4.866
2.026 2.451 4.974
2.196 2.338 5.450
2.527 3.870 2.214
2.396 4.243 2.141
2.022 3.043 3.969
1.973 3.281 4.213
1.953 3.096 4.363
2.108 2.888 4.561
1.839 2.854 4.970
2.138 2.603 4.998
2.376 3.832 2.168
1.545 3.285 3.371
1.817 3.241 3.749
1.550 2.949 3.942
1.672 2.993 4.206
1.401 2.611 4.562
1.443 2.693 5.031
1.451 3.711 3.363
1.310 3.552 3.641
1.579 3.255 3.591
1.533 2.836 4.281
1.535 3.064 4.116
1.428 2.751 4.608
1.326 2.294 6.109
1.325 3.554 3.123
1.211 3.430 3.521
1.412 3.359 3.607
1.332 3.493 3.821
1.269 3.294 3.921
1.281 2.746 4.239
0.968 2.313 5.563
1.155 2.183 5.952
0.796 3.864 2.756
0.788 3.491 3.209
0.906 3.329 3.195
0.838 3.495 3.712
1.006 3.328 3.845
0.645 3.207 4.154
0.924 2.351 5.725
0.712 2.208 5.593
0.418 1.870 5.768
0.508 1.844 6.183
0.640 3.655 2.297
0.745 3.663 2.936
0.740 3.407 2.731
0.785 3.290 3.096
0.825 3.508 3.253
0.754 3.306 3.712
0.570 2.216 5.072
0.577 2.425 5.293
0.213 1.955 5.511
0.195 1.935 5.917
0.189 2.032 6.376
0.386 4.145 2.146
0.713 3.636 2.494
0.453 3.906 2.502
0.644 3.421 3.059
0.527 3.639 3.261
0.106 3.523 3.227
0.251 2.733 4.972
-0.058 2.342 4.965
0.236 2.405 5.363
-0.067 2.092 5.592
0.061 1.919 6.093
0.199 1.913 5.981
0.390 3.842 2.130
0.248 3.879 2.012
0.428 4.105 2.285
0.343 3.999 2.586
0.192 3.442 3.039
0.148 3.575 2.881
-0.008 4.109 2.274
5.947 3.763 2.997
5.713 3.653 3.280
5.891 3.869 3.061
5.443 2.685 4.708
5.695 2.846 5.131
5.533 2.676 5.289
5.430 2.275 5.682
5.719 2.160 6.068
5.625 2.330 6.242
5.656 4.060 2.762
5.371 3.888 2.563
5.344 3.900 3.239
5.290 3.108 4.588
5.196 2.830 5.036
5.162 2.783 5.090
5.372 2.831 5.431
5.240 2.590 5.704
5.323 2.399 5.589
5.384 3.696 2.586
5.143 3.799 2.746
5.210 3.430 4.251
5.217 3.265 4.674
4.938 2.690 4.963
4.896 2.798 4.883
4.943 2.839 5.496
4.923 2.567 5.447
5.531 3.769 2.690
4.887 3.539 3.829
4.628 3.443 4.458
4.754 2.875 4.501
4.598 2.994 4.755
4.646 2.731 4.996
4.687 2.499 5.058
4.451 3.603 3.734
4.427 3.125 3.771
4.432 3.380 4.433
4.509 3.179 4.282
4.613 2.853 4.860
4.643 2.769 4.869
4.346 3.352 3.495
4.512 3.552 3.417
4.326 3.236 4.105
4.511 3.086 4.032
4.294 3.137 4.133
4.088 3.080 4.900
4.171 2.331 6.176
4.629 3.714 3.134
4.641 3.068 3.438
4.167 3.254 3.279
4.287 3.146 3.900
4.499 3.116 3.864
4.204 2.998 4.326
4.347 2.186 5.619
3.932 1.661 6.273
3.787 1.579 6.274
4.088 3.513 2.977
3.994 3.586 2.869
4.251 3.080 3.444
4.307 3.041 3.371
3.886 3.018 3.654
4.232 2.712 4.022
4.182 2.984 3.991
3.820 2.154 5.716
3.621 1.848 5.527
4.041 1.795 6.097
3.947 1.873 6.256
3.733 3.763 2.618
3.867 3.601 2.845
4.027 3.322 2.871
3.872 3.572 3.250
3.929 2.972 3.550
3.985 3.021 3.896
3.707 2.895 3.794
3.524 2.201 5.094
3.351 1.918 5.365
3.604 1.826 5.470
3.471 2.079 6.180
3.594 1.653 6.145
3.967 3.800 2.322
3.609 3.830 2.625
3.809 3.711 2.666
3.741 3.511 3.047
3.748 3.600 3.089
3.356 3.461 3.257
3.742 2.960 3.660
3.692 2.870 4.076
3.064 2.104 5.418
3.371 2.397 5.296
2.998 1.955 5.625
3.334 1.656 5.699
3.371 1.683 6.089
3.781 3.834 2.641
3.516 3.509 2.453
3.455 3.500 2.698
3.496 3.487 2.686
3.125 3.437 2.976
3.415 3.291 3.217
3.216 3.313 3.470
3.104 2.676 5.112
3.166 2.154 4.957
2.860 2.045 5.439
2.783 1.970 5.506
3.184 1.727 5.899
2.902 1.541 5.890
3.140 3.486 2.383
3.046 3.476 2.311
3.107 3.868 2.505
2.917 3.239 2.856
2.881 3.220 2.919
3.037 3.064 3.121
2.882 2.416 4.919
2.883 2.154 5.225
2.619 2.185 5.511
2.729 1.815 5.779
2.470 1.925 5.864
2.366 1.699 6.286
3.185 3.696 2.225
2.741 3.849 2.182
2.816 3.617 2.772
2.530 3.605 2.780
2.784 3.228 2.862
2.505 2.574 4.348
2.570 2.188 4.637
2.302 2.441 5.036
2.640 1.990 5.584
2.306 1.941 5.402
2.377 1.978 5.931
2.613 3.795 2.392
2.761 3.904 2.164
2.667 3.585 2.449
2.160 2.521 4.544
1.964 2.311 4.616
2.304 2.428 4.856
1.897 2.144 5.031
2.499 3.624 2.523
2.009 2.885 3.703
1.949 2.952 4.056
1.454 3.243 3.323
1.276 3.115 3.258
1.607 3.079 3.531
1.307 2.888 3.802
1.235 1.813 6.208
1.351 1.403 6.183
1.525 3.270 2.415
1.485 3.288 2.974
1.308 3.469 3.125
1.470 3.325 3.406
1.235 2.947 3.656
1.058 2.624 3.750
1.061 2.024 5.266
1.106 2.014 5.756
0.752 1.880 6.136
0.662 1.871 6.089
1.139 3.624 2.345
0.945 3.351 2.383
1.062 3.514 3.050
0.750 3.465 3.200
1.104 3.086 3.498
0.996 2.967 3.621
0.762 2.744 3.737
0.771 2.434 5.134
0.449 2.098 5.237
0.478 1.927 5.723
0.578 1.905 6.066
0.354 1.620 5.942
0.754 3.697 2.157
0.604 3.734 2.262
0.722 3.415 2.757
0.638 3.352 2.649
0.910 3.346 3.318
0.620 3.353 3.448
0.609 3.147 3.449
0.215 2.104 5.101
0.211 2.127 5.288
0.356 1.972 5.556
0.405 1.781 5.803
0.203 1.579 5.847
0.430 1.728 6.259
0.720 3.869 2.293
0.633 3.598 2.204
0.570 3.719 2.210
0.209 3.765 2.746
0.312 3.484 2.646
0.319 3.382 3.075
0.496 3.201 3.241
0.223 2.944 3.482
0.188 2.449 4.760
0.168 2.186 5.151
0.304 2.263 5.526
0.239 2.173 5.767
0.300 1.611 5.850
-0.024 1.651 6.236
0.456 3.907 2.076
0.494 3.655 2.153
0.389 3.685 2.243
0.110 3.582 2.317
-0.083 3.367 2.738
0.347 3.322 3.130
-0.082 2.870 3.076
0.426 3.859 2.060
5.976 3.536 2.473
5.766 3.541 2.954
6.106 3.588 3.128
5.991 3.259 3.536
5.541 2.390 4.980
5.446 2.326 5.194
5.367 2.397 5.308
5.446 2.270 5.922
5.403 2.240 5.775
5.467 1.624 6.310
6.144 3.923 2.699
5.434 3.621 2.716
5.688 3.709 2.856
5.268 2.424 4.880
5.540 2.331 4.925
5.344 2.407 5.480
5.278 1.872 5.733
5.466 3.943 2.813
4.837 3.187 4.307
4.666 3.057 4.292
4.701 3.132 3.604
4.397 3.133 3.891
4.353 3.040 3.969
4.807 2.835 4.362
4.567 3.501 3.099
4.638 3.462 3.000
4.483 3.397 3.649
4.575 3.169 3.774
4.384 3.025 4.197
4.375 2.948 4.035
3.966 1.991 5.845
4.059 1.655 6.194
4.293 1.694 6.485
4.633 3.593 2.828
4.707 3.403 2.895
4.619 3.215 3.240
4.402 3.202 3.255
4.271 2.886 3.530
4.216 2.676 3.723
4.211 2.089 5.277
3.912 1.690 5.597
4.054 1.869 5.718
4.104 1.445 6.036
3.986 3.675 2.587
4.447 3.288 2.517
4.378 3.226 2.664
4.153 3.159 3.255
3.984 2.905 3.366
4.066 2.877 3.725
4.071 2.938 4.010
3.945 2.230 4.992
3.943 1.731 5.236
3.867 1.726 5.702
3.921 1.779 6.115
3.606 1.628 6.032
4.229 3.597 2.417
3.804 3.316 2.282
3.923 3.285 2.374
3.710 2.973 2.571
3.810 2.980 2.975
3.768 3.058 3.428
4.023 2.846 3.608
3.547 2.655 3.952
3.689 2.179 5.184
3.439 2.150 5.208
3.623 1.901 5.821
3.280 1.514 5.669
3.254 1.577 6.020
3.835 3.421 2.151
3.442 3.640 2.148
3.776 3.414 2.616
3.732 3.152 2.832
3.617 3.107 3.256
3.568 2.980 3.096
3.526 2.833 3.300
3.646 2.856 3.565
3.209 1.982 5.012
3.483 1.657 5.237
3.119 1.566 5.603
3.491 1.485 5.627
3.039 1.496 5.791
3.541 3.652 2.336
3.528 3.643 2.221
3.136 3.172 2.307
3.087 3.042 2.635
3.308 2.868 2.807
3.217 3.206 3.493
3.051 2.597 3.278
2.973 2.847 3.652
3.194 2.079 4.727
3.028 2.177 4.909
2.767 2.051 5.407
2.976 1.530 5.314
2.745 1.741 6.007
2.959 1.707 5.967
2.912 1.331 6.070
3.341 3.307 2.436
3.092 3.549 2.041
3.315 3.391 2.684
3.020 3.083 2.963
2.967 3.305 2.777
3.184 2.818 3.308
2.716 2.981 3.713
2.925 2.207 4.589
2.816 1.797 4.920
2.952 1.924 4.998
2.714 1.768 5.543
2.607 1.618 5.803
2.794 1.483 5.878
2.454 1.642 6.207
2.910 3.242 2.425
3.046 3.431 2.306
2.790 3.204 2.582
2.892 3.443 2.546
2.858 3.002 2.986
2.722 2.946 3.079
2.710 2.069 4.984
2.517 2.175 5.328
2.309 1.808 5.607
2.605 1.747 5.559
2.258 1.604 5.836
2.990 3.744 2.250
1.321 3.145 3.102
1.423 3.014 3.183
1.096 1.399 5.754
1.114 1.399 5.955
1.144 3.584 2.167
1.262 3.492 2.664
1.353 3.291 2.909
1.414 3.212 3.185
1.466 2.621 3.500
1.356 2.711 3.702
1.276 2.175 5.266
1.045 1.923 5.540
1.147 1.745 5.297
0.947 1.595 6.043
0.807 1.237 6.255
1.006 3.256 1.757
1.044 3.394 1.994
1.196 3.010 2.251
0.785 2.890 2.900
1.019 3.079 3.117
1.144 2.988 3.233
0.768 2.803 3.474
0.913 2.214 4.720
0.756 2.138 5.169
0.587 1.565 5.473
0.458 1.820 5.626
0.704 1.334 5.816
0.834 1.440 6.098
0.630 1.118 6.350
1.051 3.654 2.044
0.756 3.451 2.198
0.790 3.288 2.013
0.973 3.215 2.538
0.826 3.244 2.783
0.578 3.056 2.723
0.801 2.665 3.118
0.438 2.921 3.619
0.710 2.124 4.854
0.672 1.829 4.816
0.399 1.791 5.301
0.639 1.891 5.484
0.193 1.589 5.639
0.385 1.326 5.715
0.099 1.092 6.202
0.837 3.672 1.860
0.766 3.372 1.822
0.671 3.208 2.356
0.700 3.006 2.191
0.656 3.133 2.419
0.615 2.862 2.813
0.343 2.655 3.082
0.517 2.924 3.190
0.005 1.873 4.609
0.066 1.990 4.892
0.027 1.587 5.244
-0.094 1.914 5.689
0.040 1.629 5.778
0.031 1.348 5.868
0.104 1.254 6.225
0.679 3.312 1.645
0.374 3.488 2.021
0.024 3.263 2.157
0.264 3.302 2.281
0.272 2.963 2.739
-0.103 3.010 3.085
0.055 3.007 3.007
0.092 2.490 3.449
0.482 3.426 1.924
6.100 3.641 2.606
5.667 3.527 2.935
5.796 3.062 2.880
5.579 3.190 3.142
5.640 2.820 3.530
5.849 1.825 5.538
5.403 2.022 5.455
5.622 1.937 5.595
5.581 1.368 6.286
6.001 3.205 2.354
4.915 3.168 3.407
4.864 2.643 3.833
4.452 1.653 6.026
4.644 3.352 2.495
4.539 3.298 2.718
4.573 3.202 3.216
4.394 2.779 3.616
4.609 3.001 3.422
4.153 2.618 3.656
4.215 2.154 5.368
3.975 1.919 5.864
4.208 1.431 5.686
3.837 1.505 5.966
4.653 3.424 2.413
4.579 3.231 2.285
4.713 2.928 2.615
4.533 2.905 3.012
4.634 2.844 3.173
4.168 2.524 3.532
4.336 1.932 4.990
4.006 1.568 5.095
4.141 1.665 5.578
4.263 1.531 5.681
4.238 1.492 6.037
4.098 1.009 6.419
4.566 2.991 2.078
4.421 3.157 1.994
4.100 3.087 2.278
4.097 3.071 2.772
4.052 2.851 3.169
3.873 2.511 3.307
4.059 2.451 3.396
3.836 2.498 3.480
3.660 1.751 4.923
4.126 1.673 5.121
3.983 1.562 5.416
3.879 1.421 5.500
3.679 1.175 6.069
3.498 1.319 6.042
4.303 3.394 2.091
4.165 3.329 1.961
4.080 3.346 2.673
4.146 2.743 2.527
4.066 2.585 3.110
3.720 2.909 3.228
3.750 2.659 3.305
3.581 2.688 3.897
3.663 1.817 4.698
3.575 1.728 5.448
3.464 1.501 5.242
3.367 1.354 5.921
3.434 1.307 5.743
3.527 1.310 6.312
3.886 3.413 2.184
3.782 3.429 2.323
3.594 2.992 2.221
3.860 2.864 2.847
3.812 2.897 2.722
3.346 2.731 3.067
3.459 2.326 3.211
3.738 2.254 3.727
3.521 1.632 4.978
3.311 1.420 5.132
3.094 1.735 5.573
3.019 1.454 5.467
3.173 1.412 5.877
3.018 1.002 6.132
3.508 3.169 2.106
3.608 3.442 2.353
3.365 3.056 2.121
3.365 2.998 2.709
3.232 3.054 2.626
3.420 2.544 2.928
2.974 2.764 3.338
3.147 2.394 3.818
2.871 1.867 5.065
2.776 1.513 5.149
3.139 1.338 5.640
2.934 1.593 5.805
3.013 1.387 5.773
2.905 0.980 6.384
3.349 3.115 1.911
3.253 3.216 2.266
3.022 3.181 2.346
3.266 3.088 2.782
3.225 3.062 2.784
2.762 2.877 2.910
2.750 2.739 3.320
2.975 2.464 3.592
2.595 1.554 4.831
2.994 1.722 5.333
2.701 1.435 5.418
2.666 1.461 5.479
2.697 1.352 5.758
2.604 1.312 6.092
3.309 3.055 2.225
3.054 3.145 2.239
2.943 2.991 2.284
2.912 2.673 2.740
2.455 2.834 2.961
2.818 2.612 3.176
2.711 1.439 5.214
2.471 1.579 5.486
2.643 1.197 5.544
2.170 1.328 5.793
2.202 1.087 6.052
1.162 3.421 2.074
1.437 3.215 2.062
1.260 2.745 2.230
1.535 2.648 2.619
1.449 2.518 2.884
1.124 2.379 3.330
0.897 2.047 4.726
1.167 1.826 4.799
1.131 1.449 5.391
1.007 1.220 5.397
0.697 1.492 5.612
0.963 1.104 5.840
1.579 3.482 2.071
1.039 3.029 1.700
0.844 3.040 2.294
1.186 3.252 2.516
1.184 2.954 2.831
0.900 2.892 2.798
1.101 2.500 3.120
0.750 2.232 3.375
1.005 1.897 4.781
0.857 1.567 4.674
0.883 1.411 5.370
0.476 1.650 5.383
0.565 1.405 5.876
0.441 1.420 6.097
0.424 1.050 6.379
1.363 3.267 1.808
1.019 3.323 1.702
0.828 3.078 1.892
0.602 2.918 2.332
0.557 2.770 2.335
0.710 2.640 2.913
0.636 2.785 3.005
0.616 2.708 3.471
0.711 1.891 4.783
0.422 1.818 4.660
0.370 1.416 5.175
0.293 1.488 5.360
0.418 1.123 5.727
0.156 1.392 5.926
0.167 1.109 5.960
0.636 3.127 1.790
0.498 3.281 1.664
0.702 3.337 2.082
0.527 2.905 2.093
0.414 2.932 2.748
0.588 2.974 3.034
0.393 2.467 3.293
0.426 2.447 3.117
0.464 1.755 4.644
-0.020 1.531 4.724
0.212 1.562 4.899
0.306 1.559 5.373
0.293 1.330 5.661
-0.030 0.921 5.847
-0.126 0.909 6.181
0.481 3.507 1.976
0.482 3.342 1.503
0.417 3.151 2.032
0.066 2.754 2.132
0.385 2.863 2.355
0.201 2.818 2.775
0.360 2.539 3.192
0.017 2.667 3.309
0.529 3.147 1.541
5.867 3.126 2.689
5.630 2.996 2.972
6.114 2.759 2.906
5.848 2.904 3.582
5.872 2.683 3.806
5.701 1.669 5.626
5.541 1.461 5.932
5.410 1.291 5.696
5.357 0.971 5.962
4.370 3.376 2.265
4.672 2.912 2.630
4.231 2.938 2.553
4.362 2.996 3.179
4.222 2.876 3.365
4.315 2.531 3.446
4.406 1.812 5.138
4.042 1.395 5.068
3.978 1.740 5.767
4.331 1.425 5.793
3.859 1.347 5.919
4.191 1.101 6.161
4.550 2.954 2.201
4.776 2.933 2.369
4.623 2.842 2.280
4.704 2.893 2.743
4.288 2.400 2.615
4.486 2.250 3.061
4.037 1.497 4.847
4.331 1.610 4.997
3.963 1.454 5.338
4.078 1.396 5.591
4.268 1.005 5.750
3.927 0.811 5.857
4.397 2.968 2.138
4.057 2.884 1.943
4.381 2.624 2.433
4.335 2.655 2.511
3.905 2.426 2.599
4.111 2.585 3.273
4.131 2.059 3.408
4.170 1.866 4.694
3.730 1.472 4.767
3.910 1.561 5.227
3.891 1.307 5.549
4.039 1.249 5.699
4.044 1.170 5.978
4.012 1.052 6.314
4.322 2.887 2.326
4.053 2.705 2.035
3.779 3.005 2.091
4.101 2.583 2.719
3.776 2.410 2.670
3.807 2.346 3.269
4.021 2.266 3.152
3.658 2.112 3.733
3.488 1.405 4.775
3.625 1.471 4.709
3.568 1.137 4.935
3.755 1.061 5.290
3.616 1.003 5.536
3.503 0.767 5.967
3.480 0.948 5.922
4.166 2.813 2.044
3.726 3.054 1.769
3.767 3.080 2.370
3.636 2.603 2.266
3.775 2.514 2.674
3.693 2.687 3.163
3.723 2.483 3.492
3.499 2.434 3.681
3.136 1.685 4.918
3.433 1.507 4.955
3.121 1.432 5.093
3.334 1.320 5.763
3.483 1.066 6.042
3.269 0.906 5.890
3.803 3.193 2.110
3.573 2.798 1.961
3.569 3.043 2.178
3.271 2.755 2.402
3.374 2.773 2.807
3.198 2.408 2.939
3.140 2.315 3.006
3.111 1.958 3.547
2.953 1.658 4.566
3.052 1.573 5.076
3.256 1.337 5.423
3.140 1.167 5.435
2.949 1.093 5.776
2.893 0.921 6.226
3.084 0.761 6.080
3.406 3.157 1.780
2.922 3.031 2.311
3.303 2.899 2.520
3.214 2.694 2.631
2.922 2.281 3.186
3.107 2.222 3.371
3.068 2.217 3.515
2.527 1.591 5.077
2.851 1.459 5.300
2.485 1.207 5.643
2.520 0.971 5.819
2.478 0.894 5.954
2.364 0.815 6.226
2.999 2.972 2.574
2.556 2.637 2.600
2.672 2.550 3.085
2.891 2.572 3.065
2.488 2.311 3.195
2.468 1.288 4.930
2.582 1.257 5.629
2.474 0.966 5.613
2.558 0.819 6.188
2.111 0.786 6.083
1.454 2.855 1.900
1.522 2.663 2.127
1.494 2.900 2.355
1.174 1.739 4.398
1.120 1.558 4.645
1.102 1.230 4.695
1.167 1.356 4.940
1.644 3.094 1.673
1.290 2.804 1.652
1.255 2.922 2.087
1.597 2.615 2.475
1.489 2.749 2.239
1.031 2.479 2.806
1.340 1.464 4.435
1.125 1.581 4.680
1.028 1.398 4.581
0.784 1.335 4.810
1.015 1.203 5.299
1.041 1.113 5.624
1.627 3.044 1.619
1.040 3.216 1.973
0.990 2.921 2.003
0.842 2.761 2.122
1.051 2.861 2.640
0.940 2.295 2.864
0.975 2.426 2.809
1.071 1.483 4.138
0.635 1.327 4.321
0.769 1.540 4.570
0.522 1.189 4.859
0.453 1.418 5.024
0.888 1.119 5.588
0.742 0.936 5.997
0.916 3.166 1.898
0.978 2.773 1.828
0.995 2.958 2.181
0.762 2.868 2.148
0.683 2.733 2.259
0.688 2.471 2.449
0.433 2.101 2.905
0.856 2.295 3.224
0.362 1.927 4.116
0.631 1.608 4.598
0.569 1.360 4.679
0.391 1.559 5.031
0.590 1.026 5.224
0.405 0.892 5.542
0.529 1.176 5.540
0.344 1.042 6.091
0.889 2.934 1.596
0.580 3.222 1.692
0.276 3.100 1.641
0.519 2.955 2.261
0.227 2.448 2.462
0.405 2.505 2.758
0.314 2.445 3.040
0.263 2.115 3.092
0.301 1.682 4.408
0.204 1.185 4.545
0.174 1.223 4.677
-0.023 1.307 5.294
0.094 1.121 5.505
-0.004 1.101 5.853
0.225 0.891 6.091
0.743 3.122 1.633
0.251 2.982 1.517
0.339 2.664 1.926
0.295 2.529 1.908
-0.066 2.659 2.109
0.380 2.269 2.373
0.333 2.215 3.012
0.061 2.055 3.213
0.423 3.114 1.450
5.851 2.678 2.712
5.728 2.395 3.084
5.685 2.486 3.390
5.586 2.188 3.504
5.521 2.349 3.963
5.474 1.163 5.744
5.586 0.964 5.688
5.502 1.149 6.315
4.966 2.929 2.061
4.534 3.071 2.459
4.927 2.742 2.405
4.333 1.831 4.783
4.399 1.674 4.923
4.403 1.465 5.003
4.395 1.055 5.327
4.835 2.915 2.075
4.777 3.140 2.225
4.364 2.705 2.349
4.416 2.655 2.491
4.221 2.631 2.779
4.284 2.363 2.908
4.233 1.468 4.401
4.364 1.744 5.122
4.159 1.489 5.023
4.038 1.471 5.495
4.214 1.182 5.758
4.128 0.972 6.146
4.344 2.740 2.179
4.437 2.921 2.038
4.757 2.731 2.164
4.538 2.511 2.603
4.634 2.310 2.523
4.256 1.273 4.155
4.145 1.471 4.306
4.456 1.298 4.833
4.221 1.018 4.908
4.066 0.853 5.005
4.280 1.116 5.253
4.375 2.621 2.138
4.017 2.880 2.044
4.059 2.673 2.120
4.099 2.402 2.274
4.236 2.547 2.752
4.271 2.308 2.760
3.986 1.280 4.596
4.080 1.296 4.779
3.879 1.065 5.215
4.055 0.786 5.269
3.804 1.088 5.717
3.675 0.847 5.786
4.140 2.836 1.836
4.078 2.726 2.128
3.756 2.491 2.058
3.942 2.232 2.513
4.147 2.378 2.745
3.979 2.392 2.730
3.834 1.933 3.035
3.768 1.580 4.444
3.446 1.031 4.595
3.776 0.979 4.996
3.426 1.241 5.103
3.712 0.851 5.595
3.622 0.723 5.927
3.588 0.404 6.199
3.884 2.867 2.050
3.600 2.728 2.093
3.827 2.839 2.111
3.465 2.583 2.273
3.505 2.152 2.459
3.599 2.052 3.048
3.719 2.011 2.983
3.691 2.071 3.421
3.512 1.153 4.511
3.160 1.183 4.738
3.067 0.970 5.201
3.128 0.776 5.489
3.170 0.736 5.724
3.027 0.872 5.733
3.419 0.473 6.246
3.819 2.497 1.883
3.143 2.378 2.236
3.115 2.452 2.284
3.354 2.550 2.491
3.368 2.066 3.011
3.466 2.150 3.268
3.232 1.690 3.241
2.935 0.976 4.874
2.786 0.913 4.965
3.108 0.700 5.261
2.828 0.589 5.559
2.822 0.555 5.934
2.638 0.402 6.232
2.938 2.433 2.363
3.181 2.244 2.420
3.154 2.163 3.015
3.212 1.838 2.896
2.762 1.974 3.115
2.891 2.052 3.695
2.685 1.105 4.881
2.651 0.716 5.406
2.402 0.607 5.696
2.456 0.660 5.821
2.835 0.604 5.870
2.530 2.596 2.739
2.940 2.063 2.817
2.810 2.172 3.262
2.807 1.680 3.398
2.769 1.574 3.538
2.670 1.848 3.548
2.232 0.938 5.306
2.302 0.760 5.449
2.369 0.588 6.004
2.372 0.443 6.248
2.427 2.062 2.884
2.529 2.088 3.226
2.131 1.608 3.350
2.320 1.616 3.776
2.297 1.761 3.838
2.024 0.891 5.655
2.067 0.323 6.260
1.773 0.349 6.118
1.895 2.112 3.097
1.970 2.042 3.662
2.283 1.508 3.564
1.840 1.722 3.819
2.111 1.483 3.972
1.509 0.413 5.925
1.832 0.274 6.134
2.227 2.742 1.580
1.823 1.980 3.688
1.722 1.502 3.439
1.820 1.325 4.013
1.471 1.335 4.431
1.792 1.166 4.640
1.400 0.247 6.406
2.163 2.524 1.533
1.937 2.793 1.387
1.631 2.750 2.040
1.851 2.645 2.066
1.337 1.565 3.753
1.562 1.476 4.154
1.416 1.243 4.234
1.279 1.202 4.231
1.300 0.983 4.844
1.378 1.024 5.169
1.478 3.005 1.567
1.528 2.660 1.820
1.489 2.477 2.041
1.192 2.579 2.213
1.266 2.408 2.308
1.202 1.444 3.924
0.976 1.382 4.012
0.842 1.412 4.452
1.145 1.397 4.496
1.093 0.958 5.119
1.081 0.988 5.247
1.167 2.693 1.375
0.910 2.669 1.759
1.290 2.767 2.029
1.282 2.747 2.087
1.266 2.476 2.365
0.803 2.080 2.566
0.929 1.389 4.143
0.893 1.100 4.573
0.758 1.367 4.691
0.900 1.129 4.760
0.636 0.698 5.225
0.718 0.677 5.459
1.184 2.737 1.482
1.038 2.622 1.403
0.935 2.644 1.811
1.054 2.650 2.226
0.529 2.544 2.215
0.858 2.231 2.627
0.523 2.187 2.862
0.410 1.489 3.864
0.270 1.566 4.178
0.386 1.073 4.461
0.623 0.954 4.990
0.179 1.143 5.273
0.578 0.626 5.339
0.167 0.434 5.703
0.708 2.782 1.292
0.447 2.858 1.307
0.596 2.712 1.763
0.421 2.296 1.926
0.243 2.627 2.269
0.539 2.296 2.448
0.512 1.888 2.898
0.478 1.774 2.903
0.373 1.565 4.204
0.041 1.123 4.310
0.250 1.206 4.572
0.380 1.083 5.281
0.275 0.853 5.194
-0.023 0.822 5.780
0.218 0.541 5.590
0.486 2.570 1.450
0.056 2.828 1.677
0.226 2.633 2.038
0.133 2.576 2.202
0.295 2.086 2.416
0.119 1.905 2.664
-0.153 2.235 2.812
5.686 2.415 2.714
5.809 2.153 3.086
5.990 1.814 3.377
5.888 2.018 3.857
5.556 1.870 3.707
5.615 1.678 4.358
5.351 0.595 5.604
5.612 0.770 5.729
5.468 0.824 5.965
5.607 1.977 3.286
5.376 1.994 3.641
5.550 1.953 4.074
5.415 1.598 4.061
5.552 1.559 4.436
4.930 0.684 5.996
5.059 1.999 3.713
5.313 1.878 3.800
4.891 1.636 4.243
5.274 1.338 4.348
5.160 1.531 4.700
4.917 2.696 2.144
4.988 1.891 3.906
4.815 1.760 4.298
4.873 1.423 4.267
4.779 1.200 4.336
4.581 1.405 4.788
5.325 2.459 2.245
4.951 2.581 1.958
5.037 2.673 2.328
4.994 2.376 2.734
4.427 1.728 3.920
4.483 1.622 4.366
4.538 1.361 4.553
4.288 1.119 4.845
4.454 0.981 5.194
4.586 1.148 5.176
4.575 2.508 2.245
4.669 2.583 1.879
4.324 2.801 2.078
4.324 2.480 2.641
4.335 2.291 2.942
4.424 1.413 4.506
4.392 1.387 4.341
4.467 1.376 4.979
4.434 1.205 4.770
4.262 0.958 5.483
4.349 0.839 5.749
4.648 2.845 1.912
4.761 2.517 2.007
4.575 2.222 1.881
4.612 2.133 2.535
4.270 1.433 3.761
4.236 1.320 3.870
4.388 1.298 4.371
4.397 1.098 4.756
3.972 0.721 4.629
4.056 0.760 4.905
4.535 2.653 1.852
4.518 2.305 1.632
4.234 2.495 2.241
4.339 2.163 2.459
4.014 2.262 2.766
3.891 1.153 3.839
4.147 0.915 4.379
4.057 0.884 4.658
3.847 0.765 4.709
3.654 0.658 5.192
3.707 0.820 5.126
4.328 2.488 1.873
3.798 2.633 1.567
4.220 2.470 1.844
3.817 2.090 2.252
3.966 1.835 2.443
3.902 1.978 2.642
3.680 1.281 4.768
3.396 1.017 4.766
3.388 0.617 4.797
3.679 0.722 5.368
3.772 0.578 5.525
3.750 2.395 1.876
3.787 2.160 1.916
3.845 2.371 2.349
3.677 2.277 2.493
3.352 2.148 2.914
3.507 1.742 3.266
3.300 1.060 4.974
3.212 0.832 5.197
3.028 0.503 5.074
3.446 0.552 5.594
2.962 0.549 5.616
3.176 1.994 2.069
3.088 2.329 2.450
3.396 1.768 2.533
3.418 1.754 3.174
3.140 1.569 3.453
3.221 0.857 5.152
3.062 0.383 5.470
3.125 0.262 5.631
3.115 0.587 5.528
3.153 0.379 5.884
3.079 2.318 2.401
2.968 2.043 2.761
2.924 1.749 2.829
2.827 1.489 3.125
2.700 1.350 3.619
2.988 1.285 3.471
2.865 0.396 4.961
2.731 0.600 5.473
2.760 0.212 5.897
2.873 0.106 6.204
2.397 0.160 6.446
2.985 2.175 2.656
2.846 1.681 3.109
2.843 1.624 2.925
2.903 1.694 3.175
2.730 1.524 3.777
2.799 1.222 4.063
2.468 0.726 5.348
2.338 0.186 5.631
2.116 0.278 5.856
2.165 0.101 6.379
2.548 1.717 2.961
2.610 1.733 2.881
2.393 1.361 3.420
2.174 1.531 3.663
2.171 1.182 3.727
2.405 0.953 4.334
2.307 0.281 5.746
2.278 0.134 5.752
2.225 -0.135 6.105
2.283 2.720 1.769
2.237 1.762 3.058
2.048 1.675 3.268
2.186 1.334 3.484
1.892 1.469 3.485
1.929 1.288 3.946
2.072 1.166 4.196
1.772 1.302 4.341
1.733 0.182 5.789
1.743 0.432 5.895
1.602 0.009 6.165
2.483 2.436 1.686
1.947 2.243 1.333
2.059 2.499 1.854
1.668 1.717 3.174
1.618 1.351 3.501
1.964 1.544 3.707
1.872 1.505 3.652
1.868 1.163 4.155
1.434 1.075 4.566
1.422 0.861 4.451
1.331 0.082 5.669
1.315 0.227 6.034
2.226 2.504 1.638
1.954 2.631 1.389
1.717 2.566 1.819
1.531 1.325 3.219
1.508 1.644 3.492
1.235 1.444 3.564
1.427 1.352 4.236
1.440 1.197 4.514
1.467 0.883 4.289
0.931 0.037 5.802
1.690 2.244 1.431
1.254 2.565 1.338
1.220 2.623 1.884
1.594 2.059 2.130
1.264 1.514 3.423
1.236 1.376 3.704
1.035 0.990 4.115
1.141 0.965 4.502
0.869 1.116 4.274
0.874 0.774 4.526
1.027 -0.135 6.051
1.184 2.402 1.303
1.160 2.693 1.628
1.334 2.189 1.835
0.934 2.390 2.067
0.948 2.248 2.362
0.749 1.077 3.937
0.817 1.181 3.873
0.800 0.842 4.383
1.040 0.685 4.460
0.754 0.731 4.616
0.958 0.583 4.868
1.391 2.564 1.314
1.114 2.386 1.180
1.091 2.166 1.801
1.043 2.092 1.737
0.956 2.109 2.370
0.978 2.175 2.408
0.311 0.938 4.112
0.240 1.065 4.254
0.552 0.832 4.879
0.584 0.909 4.825
0.147 0.361 5.170
0.907 2.332 1.472
0.382 2.582 1.775
0.706 2.047 1.730
0.378 2.350 1.957
0.514 2.030 2.453
0.561 1.616 2.769
0.112 0.920 4.258
0.058 0.778 4.677
0.048 0.835 4.861
0.230 0.467 5.361
0.057 0.276 5.157
0.270 2.356 2.098
0.047 2.350 2.253
0.385 2.238 2.146
0.267 1.744 2.691
0.380 1.850 2.840
5.950 2.131 3.124
5.614 1.836 3.287
5.735 1.846 3.540
5.611 1.305 3.815
5.493 1.526 4.141
5.768 1.417 4.440
5.363 0.628 5.763
5.447 0.246 5.910
5.574 1.750 3.422
5.734 1.696 3.416
5.324 1.586 4.000
5.347 1.319 3.927
5.451 1.377 3.992
5.125 1.335 4.720
4.963 0.472 6.129
5.243 0.218 6.320
5.191 2.539 1.787
5.390 1.879 3.290
5.364 1.891 3.299
5.144 1.662 3.610
5.309 1.192 3.746
5.146 1.163 4.179
5.040 1.020 4.337
5.320 1.094 4.840
4.714 0.104 6.062
4.823 0.148 6.423
5.231 2.240 1.781
5.047 2.365 2.099
5.059 2.462 2.407
4.925 1.779 3.450
4.794 1.515 3.762
4.949 1.427 3.945
4.937 1.247 3.969
4.618 1.302 4.301
4.688 1.218 4.826
4.533 0.781 4.792
4.622 0.442 6.319
5.013 2.634 1.906
4.695 2.652 1.929
4.573 2.564 2.127
4.647 1.277 3.704
4.411 1.165 3.935
4.696 1.229 4.007
4.536 0.887 4.469
4.300 1.170 4.883
4.215 0.890 5.004
4.607 2.688 2.015
4.639 2.373 1.613
4.732 2.364 2.073
4.614 2.111 2.145
4.096 1.392 3.936
4.452 1.020 3.996
4.064 1.206 4.360
4.234 1.106 4.771
4.391 0.978 5.048
4.059 1.006 4.916
4.657 2.685 2.019
4.823 1.978 1.969
4.444 1.979 1.766
4.221 1.037 3.412
4.311 1.020 3.891
4.414 0.785 4.000
4.266 0.888 4.379
4.122 0.543 4.436
4.361 0.760 4.926
4.695 2.459 1.861
4.383 2.397 1.908
4.505 1.978 1.698
3.949 0.895 3.940
4.182 0.633 4.371
4.053 0.612 4.414
3.987 0.466 4.820
4.096 2.010 1.672
3.107 1.539 2.797
2.781 1.343 3.040
3.019 1.101 3.055
2.761 1.253 3.744
2.635 1.224 3.951
2.447 -0.072 5.793
2.726 1.368 2.892
2.732 1.369 3.195
2.500 1.451 3.072
2.881 1.019 3.546
2.656 1.278 3.902
2.420 0.659 4.069
2.624 0.120 5.765
2.657 2.276 1.339
2.635 1.456 2.609
2.177 1.501 2.763
2.162 1.407 3.211
2.557 0.975 3.418
2.379 1.024 3.692
2.454 1.004 4.223
2.299 0.580 4.486
2.126 0.182 5.283
2.349 2.463 1.314
2.063 2.213 1.310
2.001 1.793 2.853
2.229 1.385 2.949
1.971 1.494 3.009
2.216 1.210 3.212
1.996 1.104 3.957
1.813 1.058 3.962
2.117 0.898 4.256
1.581 -0.019 5.658
2.011 -0.210 5.683
2.369 2.329 1.567
2.263 2.215 1.168
2.193 1.962 1.745
1.877 1.698 2.867
1.824 1.661 2.862
1.647 1.389 3.234
1.717 1.016 3.284
1.495 0.794 3.700
1.528 0.732 4.124
1.925 0.673 4.197
1.599 0.449 4.511
1.776 -0.107 5.355
1.379 -0.097 5.586
1.973 2.150 1.648
1.659 2.096 1.598
1.614 2.283 1.528
1.554 1.236 2.743
1.750 1.208 3.343
1.520 1.155 3.588
1.249 1.249 3.659
1.613 0.974 4.048
1.414 0.867 4.357
1.578 0.624 4.194
1.408 -0.138 5.922
1.805 2.243 1.630
1.214 2.418 1.163
1.230 2.213 1.542
1.446 1.541 2.876
0.960 1.116 3.603
1.177 0.969 3.792
1.216 0.994 3.632
1.327 0.793 4.191
1.156 0.595 4.551
1.472 2.095 1.538
1.244 2.282 1.457
1.346 2.349 1.369
0.674 1.291 3.424
0.719 1.166 3.847
0.733 0.923 4.006
0.851 0.597 4.246
1.305 2.055 1.177
6.080 1.456 3.393
5.817 1.331 3.401
5.903 1.426 3.443
5.992 0.901 3.684
5.548 0.866 4.240
5.890 0.771 4.290
5.696 0.126 5.833
5.773 2.146 1.704
5.502 1.318 3.151
5.698 1.374 3.128
5.632 1.499 3.766
5.216 1.272 4.041
5.438 1.236 4.271
5.491 1.082 4.486
5.223 0.826 4.414
5.281 0.345 6.127
5.624 1.937 1.790
5.583 2.218 1.907
5.181 1.736 3.007
5.332 1.541 3.485
5.410 1.434 3.843
5.096 1.142 3.729
5.332 0.891 3.840
4.960 0.941 4.442
4.827 0.511 4.593
5.054 0.104 6.071
5.267 2.382 1.797
5.063 2.125 1.866
5.209 2.172 2.181
5.183 1.393 3.093
5.191 1.633 3.455
4.894 1.367 3.625
5.024 1.108 3.637
4.731 0.890 4.087
5.019 1.025 4.076
4.909 0.811 4.297
4.530 0.683 4.931
4.781 0.280 5.822
5.348 2.202 1.558
5.055 2.225 1.955
4.922 1.950 2.163
4.432 1.554 3.006
4.383 1.124 3.538
4.575 0.922 3.567
4.561 0.846 3.794
4.436 1.147 4.401
4.332 0.619 4.489
4.413 0.881 4.869
5.045 2.008 1.832
4.726 2.332 1.951
4.607 2.163 1.760
4.532 1.132 3.461
4.073 1.137 3.774
4.212 0.788 4.244
4.054 1.062 4.317
4.176 0.756 4.414
4.158 0.677 4.510
4.724 2.272 1.834
4.393 2.066 1.668
4.197 1.085 2.877
4.219 0.981 3.180
4.516 0.650 3.556
4.290 0.523 3.787
4.202 0.753 4.318
4.391 0.307 4.187
4.765 2.028 1.559
2.916 1.107 3.117
2.765 1.095 3.192
2.730 0.703 3.352
2.689 0.553 3.739
2.702 0.682 3.926
3.107 1.710 1.202
2.539 1.085 2.607
2.679 0.988 2.696
2.675 0.908 3.102
2.596 0.658 3.286
2.773 0.705 3.489
2.521 0.809 4.026
2.454 0.395 4.099
2.725 1.748 1.451
2.445 1.845 1.616
2.635 1.524 2.563
2.577 1.353 3.043
2.385 0.881 2.916
2.538 1.014 3.556
2.452 0.862 3.850
2.508 0.769 4.073
2.199 0.532 4.192
2.660 1.743 1.356
2.193 1.740 1.577
2.310 1.398 2.405
2.328 0.930 2.769
1.884 1.289 3.235
2.032 0.671 3.240
1.946 0.939 3.830
2.071 0.525 3.958
1.829 0.409 3.955
2.349 1.784 1.345
1.978 2.079 1.111
1.722 1.093 2.797
2.060 1.021 2.658
2.070 1.192 3.234
1.672 0.834 3.563
1.839 0.925 3.631
1.752 0.731 4.001
1.852 0.636 4.179
2.153 1.872 1.186
1.818 1.912 1.217
1.391 1.115 2.394
1.611 1.419 2.585
1.382 1.179 3.158
1.597 0.978 3.412
1.394 0.721 3.780
1.672 0.594 3.994
1.526 0.746 3.889
1.498 1.807 1.095
1.271 1.937 1.133
1.426 1.410 2.738
1.212 1.075 3.206
1.176 1.127 3.459
1.341 0.835 3.643
1.334 0.751 3.752
1.006 0.776 4.188
1.300 2.092 1.282
6.229 2.004 1.839
5.918 1.502 2.997
5.941 0.985 3.233
5.538 0.910 3.278
5.606 0.872 3.962
5.929 0.671 4.238
5.566 0.537 4.091
5.769 0.696 4.674
6.138 1.661 1.539
5.747 1.718 1.976
5.522 1.106 3.188
5.318 1.376 3.392
5.347 0.971 3.563
5.335 0.676 3.514
5.336 0.934 3.832
5.410 0.572 4.144
5.150 0.480 4.635
5.802 1.892 1.489
5.675 2.186 1.843
5.538 1.524 2.704
5.296 1.243 3.442
5.157 0.937 3.571
4.987 0.624 3.709
5.205 0.621 4.012
4.925 0.579 4.272
4.968 0.493 4.653
5.450 1.939 1.775
5.071 1.961 1.677
5.210 1.160 2.759
4.831 0.978 3.033
5.175 0.901 3.424
4.764 1.013 3.689
4.624 0.938 3.979
4.985 0.488 4.378
5.009 0.638 4.371
4.956 1.691 1.866
5.107 1.733 1.779
4.481 1.379 2.902
4.615 1.145 3.067
4.713 1.272 3.500
4.812 0.703 3.633
4.444 0.541 3.733
4.795 0.399 4.084
4.641 0.714 4.495
5.072 2.119 1.609
4.356 1.717 1.642
4.557 1.395 2.880
4.115 1.193 3.381
4.368 1.103 3.834
4.484 0.542 4.007
4.196 0.703 3.882
4.443 0.660 4.282
4.664 1.945 1.478
4.546 1.020 2.673
4.448 0.751 2.720
4.544 0.760 3.395
4.428 0.845 3.381
4.277 0.634 3.816
4.247 0.338 4.061
4.258 1.136 2.984
4.352 0.956 3.386
3.272 1.637 1.515
3.119 0.812 2.970
3.155 0.690 3.105
2.914 0.661 3.749
2.994 0.139 3.823
3.073 0.246 4.182
3.279 1.711 1.413
2.648 1.927 1.322
2.639 1.789 1.344
2.489 0.933 2.857
2.772 0.959 2.876
2.666 0.512 3.089
2.432 0.625 3.487
2.825 0.356 3.774
2.597 0.117 3.850
2.575 0.072 4.241
3.129 1.674 1.173
2.741 1.650 1.487
2.684 1.814 1.334
2.299 1.037 2.431
2.671 1.133 2.992
2.310 0.811 3.170
2.538 0.508 3.113
2.086 0.757 3.720
2.153 0.446 3.921
2.443 0.392 3.882
2.324 0.343 4.025
2.859 1.593 1.112
2.209 1.668 1.113
2.246 1.074 2.404
2.307 0.956 2.837
1.951 0.694 3.060
2.090 0.454 3.241
2.122 0.311 3.279
2.203 0.605 3.920
1.876 0.084 3.892
2.316 1.606 1.016
1.955 1.585 1.062
1.981 1.238 2.585
1.909 0.871 2.628
1.824 0.872 2.846
1.938 0.812 2.992
1.833 0.393 3.527
1.692 0.237 3.560
1.576 0.307 3.725
2.070 1.631 1.184
