3.786 6.153 3.002
5.482 2.256 2.956
5.378 2.463 2.802
5.204 2.583 2.976
5.077 2.895 2.826
5.016 3.045 2.929
4.976 3.175 2.929
5.102 3.376 2.925
5.140 3.475 2.857
5.046 3.699 2.951
4.301 5.368 3.004
4.096 5.548 2.913
4.056 5.865 2.885
3.959 6.086 2.945
3.887 6.155 2.975
5.536 2.488 2.813
5.378 2.757 2.940
5.402 3.031 2.907
5.255 3.045 2.864
5.247 3.312 2.962
5.280 3.461 2.892
5.368 3.567 2.898
5.232 3.755 2.899
4.227 5.821 2.951
4.287 6.203 3.041
5.560 3.096 2.778
5.552 3.154 2.713
5.277 3.362 2.913
5.614 3.427 2.688
5.394 3.638 2.843
5.444 3.992 2.735
5.226 4.086 2.871
5.582 3.544 2.835
5.627 4.103 2.694
5.487 4.266 2.761
5.313 4.395 2.665
5.743 4.238 2.755
5.544 4.498 2.794
5.470 4.803 2.805
0.234 2.150 4.015
0.071 2.363 4.039
0.115 2.556 4.164
0.401 2.527 4.054
0.154 2.563 4.044
0.238 2.861 4.024
-0.031 3.083 4.143
1.292 0.376 3.995
0.496 2.606 3.924
0.524 2.741 3.968
0.248 2.871 3.951
0.280 3.235 4.079
0.181 3.340 3.992
0.103 3.613 3.936
1.333 0.417 3.879
1.250 0.679 3.968
1.225 0.940 3.977
0.696 2.895 4.020
0.467 3.085 3.882
0.539 3.275 4.005
0.345 3.462 4.028
0.325 3.720 3.935
0.190 3.757 3.917
0.042 4.058 4.091
1.568 0.463 3.799
1.535 0.733 3.776
1.499 0.972 3.931
1.355 1.204 3.810
0.861 2.960 3.886
0.709 3.160 3.958
0.597 3.232 3.827
0.608 3.469 3.903
0.421 3.732 3.904
0.398 3.937 3.849
0.311 4.186 4.045
0.266 4.268 3.994
1.749 0.625 3.861
1.806 0.867 3.891
1.617 0.969 3.857
1.600 1.322 3.826
1.479 1.424 3.765
1.664 1.856 3.717
0.915 3.207 3.888
0.933 3.446 3.903
0.820 3.680 3.813
0.711 3.817 3.875
0.504 4.069 3.930
0.547 4.174 3.955
0.474 4.450 4.005
0.260 4.612 3.959
2.082 0.761 3.723
1.836 0.881 3.830
1.895 1.061 3.850
1.779 1.305 3.755
1.569 1.496 3.845
1.502 1.721 3.753
1.773 1.909 3.807
1.111 3.320 3.820
0.970 3.554 3.822
0.887 3.697 3.852
0.828 3.855 3.922
0.757 4.033 3.790
0.740 4.350 3.759
0.653 4.505 3.934
0.597 4.739 3.800
2.254 0.888 3.728
2.154 0.949 3.624
2.111 1.308 3.714
2.013 1.513 3.813
1.777 1.616 3.738
1.710 1.860 3.717
2.062 1.862 3.723
1.878 2.208 3.773
1.236 3.488 3.754
1.094 3.845 3.855
1.172 4.045 3.766
1.048 4.182 3.735
0.980 4.485 3.829
0.754 4.538 3.870
0.809 4.745 3.877
0.599 4.924 3.914
2.442 0.858 3.661
2.267 1.175 3.655
2.218 1.248 3.580
2.082 1.510 3.577
2.001 1.822 3.749
2.061 2.013 3.747
2.152 2.005 3.677
2.009 2.303 3.689
1.296 3.818 3.637
1.238 4.115 3.712
1.217 4.337 3.644
1.134 4.581 3.802
0.932 4.716 3.677
0.887 4.884 3.765
0.870 5.152 3.818
2.631 1.025 3.664
2.585 1.253 3.522
2.363 1.305 3.690
2.422 1.530 3.548
2.284 1.732 3.608
2.164 2.089 3.665
2.362 2.029 3.504
2.236 2.355 3.518
2.235 2.608 3.654
1.407 4.259 3.604
1.382 4.293 3.622
1.242 4.582 3.605
1.292 4.696 3.770
1.090 4.928 3.770
1.020 5.203 3.765
0.870 5.316 3.768
2.705 1.191 3.559
2.598 1.502 3.513
2.519 1.696 3.560
2.534 1.998 3.517
2.277 2.202 3.536
2.396 2.128 3.404
2.137 2.257 3.299
1.482 3.902 3.532
1.430 4.062 3.375
1.244 4.371 3.476
1.238 4.669 3.395
1.134 4.771 3.395
1.162 5.048 3.552
1.013 5.210 3.507
2.828 0.979 3.240
2.661 1.248 3.359
2.591 1.555 3.269
2.399 1.633 3.426
2.425 1.915 3.314
2.400 2.048 3.441
2.579 2.208 3.225
1.476 4.515 3.331
1.461 4.754 3.331
1.450 4.776 3.412
1.177 5.008 3.476
2.809 1.626 3.285
2.613 1.787 3.392
2.650 1.931 3.278
2.553 2.148 3.293
2.853 4.051 3.052
2.852 4.253 3.161
2.767 4.404 3.118
2.682 4.729 3.103
3.948 1.681 3.008
3.928 1.812 3.115
3.174 3.885 2.967
3.013 4.116 3.006
3.045 4.321 3.034
2.987 4.521 3.018
2.743 4.745 3.032
2.814 5.019 3.056
2.734 5.280 3.142
4.094 1.721 3.013
4.158 1.835 3.042
4.016 2.180 2.930
3.888 2.243 3.051
3.423 4.050 3.107
3.282 4.305 3.041
3.302 4.504 3.103
3.197 4.568 3.142
3.079 4.873 2.971
2.960 5.159 3.006
2.926 5.272 3.101
2.688 5.472 3.023
4.417 1.846 2.968
4.187 2.027 2.893
4.144 2.282 2.919
4.141 2.345 2.874
4.010 2.629 2.959
4.120 2.847 2.913
3.597 4.097 2.983
3.572 4.402 2.980
3.351 4.565 2.953
3.279 4.721 2.955
3.149 4.928 2.985
3.186 5.172 3.075
2.957 5.326 2.951
2.990 5.619 2.991
2.868 5.709 2.953
4.478 1.785 2.905
4.437 2.020 2.869
4.356 2.241 2.837
4.361 2.403 2.793
4.276 2.729 2.904
4.192 2.933 3.008
4.240 2.967 2.818
3.698 4.294 2.953
3.679 4.398 2.909
3.641 4.648 2.905
3.432 4.825 2.869
3.524 5.110 2.886
3.289 5.232 3.007
3.318 5.382 2.907
3.212 5.635 2.945
3.054 5.931 2.966
4.790 1.948 2.745
4.605 2.197 2.725
4.510 2.268 2.795
4.422 2.486 2.891
4.457 2.741 2.820
4.414 3.017 2.768
4.473 2.985 2.735
4.340 3.214 2.849
3.824 4.437 2.810
3.744 4.780 2.935
3.657 4.947 2.915
3.687 5.035 2.829
3.453 5.358 2.968
3.514 5.599 2.872
3.329 5.781 2.896
3.291 6.024 3.021
3.134 6.101 2.947
4.916 1.982 2.829
4.850 2.185 2.735
4.685 2.425 2.854
4.661 2.563 2.764
4.593 2.935 2.818
4.573 3.122 2.900
4.624 3.136 2.848
4.689 3.356 2.805
4.173 4.579 2.812
3.969 4.754 2.772
3.824 4.933 2.925
3.802 5.235 2.761
3.683 5.454 2.845
3.591 5.558 2.842
3.654 5.862 2.886
3.504 5.951 2.791
3.457 6.174 2.924
5.123 2.187 2.732
5.166 2.358 2.677
4.979 2.602 2.729
4.974 2.736 2.816
4.819 2.974 2.832
4.647 3.061 2.825
4.910 3.161 2.713
4.756 3.435 2.673
4.218 4.980 2.726
4.071 5.021 2.830
4.055 5.304 2.742
3.955 5.474 2.806
3.817 5.751 2.809
3.710 5.999 2.777
3.735 6.058 2.811
5.449 2.307 2.717
5.357 2.334 2.698
5.160 2.659 2.675
5.191 2.875 2.599
5.039 2.994 2.666
5.009 3.301 2.799
5.119 3.402 2.699
4.928 3.490 2.716
4.375 5.235 2.656
4.176 5.301 2.742
4.192 5.684 2.703
3.978 5.876 2.700
3.935 5.978 2.739
3.930 6.129 2.764
5.499 2.232 2.552
5.495 2.518 2.633
5.365 2.720 2.527
5.228 3.011 2.685
5.239 3.090 2.575
5.157 3.319 2.642
5.299 3.347 2.596
4.326 5.675 2.760
4.246 5.969 2.629
4.127 6.029 2.758
5.518 2.756 2.524
5.532 2.972 2.568
5.353 3.252 2.613
5.272 3.443 2.595
0.121 2.794 3.906
0.038 2.971 3.803
1.097 0.318 3.725
1.097 0.607 3.690
0.387 2.798 3.703
0.337 2.841 3.831
0.157 3.196 3.840
0.122 3.237 3.748
0.021 3.620 3.757
1.407 0.516 3.674
1.287 0.655 3.723
1.165 0.928 3.673
1.032 1.138 3.679
0.531 2.852 3.689
0.438 2.967 3.813
0.452 3.310 3.721
0.328 3.329 3.696
0.276 3.613 3.762
0.202 3.928 3.827
0.039 4.075 3.806
1.487 0.491 3.554
1.564 0.776 3.574
1.357 0.930 3.607
1.271 1.071 3.649
1.149 1.271 3.717
1.274 1.558 3.615
0.747 2.909 3.776
0.783 3.011 3.745
0.685 3.274 3.690
0.519 3.577 3.630
0.407 3.814 3.638
0.284 4.020 3.662
0.158 4.052 3.821
0.233 4.369 3.736
-0.020 4.543 3.788
1.816 0.666 3.516
1.708 0.895 3.673
1.613 0.950 3.604
1.558 1.219 3.573
1.462 1.499 3.680
1.330 1.748 3.549
1.575 1.829 3.620
1.026 2.953 3.705
0.874 3.256 3.599
0.763 3.440 3.567
0.677 3.567 3.585
0.573 3.731 3.761
0.451 3.950 3.640
0.414 4.247 3.645
0.347 4.500 3.740
0.373 4.657 3.655
2.008 0.795 3.428
1.968 0.999 3.602
1.796 1.107 3.465
1.668 1.392 3.517
1.573 1.552 3.635
1.429 1.679 3.563
1.708 1.867 3.507
1.619 2.028 3.625
1.007 3.210 3.484
0.971 3.446 3.571
0.863 3.732 3.589
0.768 3.820 3.565
0.785 4.134 3.626
0.651 4.232 3.605
0.476 4.504 3.712
0.459 4.650 3.745
0.382 4.965 3.587
2.208 0.883 3.483
2.126 0.979 3.385
2.053 1.163 3.590
1.916 1.409 3.407
1.706 1.635 3.468
1.682 1.828 3.608
1.884 1.863 3.549
1.769 2.065 3.478
1.265 3.303 3.610
1.298 3.489 3.499
1.073 3.820 3.474
1.063 4.026 3.636
0.845 4.159 3.571
0.796 4.442 3.491
0.696 4.691 3.599
0.731 4.858 3.500
0.609 5.106 3.588
0.086 6.161 3.710
2.407 0.931 3.398
2.175 1.178 3.414
2.271 1.233 3.450
2.107 1.425 3.511
1.913 1.812 3.526
1.822 1.883 3.373
2.092 2.098 3.361
1.986 2.231 3.405
1.488 3.721 3.590
1.368 3.952 3.420
1.314 4.059 3.559
1.153 4.358 3.547
1.109 4.420 3.488
1.032 4.635 3.573
0.835 4.943 3.550
0.767 5.091 3.566
2.476 1.038 3.341
2.508 1.149 3.310
2.445 1.426 3.469
2.391 1.638 3.385
2.175 1.843 3.365
2.106 2.020 3.478
2.354 2.032 3.393
2.163 2.326 3.282
1.436 4.002 3.428
1.443 4.125 3.542
1.257 4.346 3.479
1.303 4.498 3.403
1.235 4.747 3.456
1.115 5.062 3.574
0.897 5.186 3.435
2.671 0.988 3.258
2.588 1.326 3.231
2.574 1.539 3.279
2.511 1.617 3.262
2.448 1.966 3.323
2.308 2.183 3.309
2.198 2.181 3.091
1.519 3.810 3.263
1.555 3.986 3.289
1.371 4.102 3.259
1.211 4.376 3.316
1.239 4.586 3.329
1.207 4.716 3.277
1.043 4.881 3.297
2.699 1.047 3.140
2.679 1.218 3.040
2.611 1.390 3.024
2.382 1.705 3.106
2.288 1.863 3.045
2.281 2.052 3.161
1.509 4.176 3.254
1.485 4.477 3.127
1.332 4.553 3.149
2.903 1.352 3.135
2.714 1.653 3.127
2.548 1.671 3.075
2.695 4.412 2.905
2.597 4.623 3.012
2.428 4.836 2.978
3.891 1.540 2.699
3.845 1.771 2.821
3.777 2.021 2.728
3.085 4.087 2.910
3.038 4.275 2.955
2.822 4.642 2.805
2.706 4.836 2.969
2.742 4.985 2.846
2.688 5.224 2.993
2.420 5.320 2.819
4.104 1.576 2.688
4.108 1.902 2.694
3.934 2.049 2.714
3.877 2.332 2.818
3.797 2.511 2.845
3.939 2.731 2.754
3.206 4.266 2.775
3.160 4.359 2.726
3.062 4.585 2.880
3.036 4.868 2.847
2.973 5.139 2.919
2.717 5.263 2.767
2.680 5.480 2.830
2.633 5.661 2.787
4.290 1.738 2.671
4.135 2.050 2.761
4.064 2.114 2.773
4.067 2.395 2.647
3.990 2.664 2.809
3.832 2.845 2.719
4.053 2.957 2.653
3.516 4.085 2.798
3.441 4.324 2.838
3.294 4.568 2.695
3.361 4.669 2.711
3.189 4.973 2.877
3.157 5.075 2.711
2.972 5.395 2.772
2.933 5.613 2.739
2.879 5.765 2.901
4.491 1.762 2.625
4.407 2.074 2.667
4.327 2.192 2.615
4.193 2.376 2.709
4.089 2.749 2.655
4.136 2.974 2.753
4.282 3.008 2.606
4.167 3.077 2.631
3.659 4.173 2.618
3.661 4.509 2.760
3.507 4.704 2.770
3.433 4.755 2.648
3.391 5.049 2.647
3.294 5.327 2.661
3.287 5.409 2.750
3.151 5.697 2.749
3.038 5.791 2.860
2.844 6.010 2.866
4.704 1.980 2.631
4.525 2.161 2.560
4.622 2.274 2.622
4.392 2.635 2.614
4.345 2.752 2.725
4.212 2.998 2.587
4.561 3.050 2.662
4.433 3.249 2.544
3.906 4.262 2.582
3.819 4.455 2.677
3.742 4.688 2.740
3.728 4.989 2.594
3.556 5.122 2.753
3.465 5.361 2.747
3.399 5.562 2.757
3.255 5.831 2.661
3.304 5.913 2.665
3.180 6.184 2.673
4.956 2.028 2.560
4.752 2.212 2.576
4.720 2.497 2.628
4.552 2.648 2.550
4.512 2.775 2.626
4.527 3.068 2.574
4.690 3.229 2.472
4.617 3.392 2.469
3.973 4.640 2.552
4.026 4.858 2.710
3.774 5.092 2.677
3.816 5.107 2.694
3.701 5.509 2.709
3.669 5.527 2.626
3.466 5.820 2.682
3.332 6.054 2.745
3.310 6.261 2.697
5.058 2.077 2.561
5.099 2.304 2.443
4.867 2.526 2.520
4.928 2.826 2.502
4.828 2.871 2.474
4.610 3.179 2.605
4.829 3.300 2.558
4.217 4.678 2.502
4.124 4.793 2.500
4.027 5.046 2.528
3.999 5.320 2.486
3.885 5.410 2.520
3.840 5.617 2.658
3.641 5.828 2.649
3.669 6.019 2.697
5.339 2.245 2.358
5.149 2.353 2.521
5.102 2.685 2.394
4.964 2.878 2.482
5.006 2.933 2.527
4.780 3.305 2.523
4.988 3.275 2.472
4.364 4.990 2.567
4.214 5.078 2.489
4.254 5.456 2.521
4.099 5.493 2.445
3.946 5.732 2.501
4.007 5.935 2.496
3.804 6.249 2.486
5.541 2.370 2.410
5.410 2.500 2.425
5.420 2.739 2.424
5.147 2.926 2.448
5.251 3.154 2.438
5.066 3.378 2.404
4.306 5.543 2.545
4.297 5.594 2.447
4.211 5.931 2.580
5.530 2.555 2.358
5.589 2.713 2.393
5.398 3.023 2.315
1.086 0.411 3.425
0.996 0.575 3.469
0.912 0.735 3.564
0.268 2.852 3.544
0.065 3.034 3.631
0.148 3.361 3.559
1.243 0.427 3.537
1.298 0.599 3.553
1.044 0.908 3.557
1.099 1.109 3.450
0.900 1.332 3.509
0.967 1.518 3.547
0.521 2.985 3.452
0.277 3.241 3.458
0.320 3.464 3.575
0.198 3.593 3.580
0.106 3.863 3.611
0.056 3.967 3.608
1.529 0.463 3.477
1.472 0.776 3.379
1.315 0.876 3.432
1.163 1.105 3.473
1.222 1.401 3.476
1.108 1.478 3.449
1.227 1.662 3.442
0.770 2.831 3.467
0.739 2.990 3.438
0.615 3.389 3.410
0.475 3.525 3.386
0.463 3.669 3.512
0.375 3.916 3.410
0.249 4.090 3.566
0.142 4.348 3.458
0.089 4.589 3.438
1.784 0.713 3.323
1.552 0.832 3.459
1.617 1.059 3.333
1.380 1.279 3.372
1.432 1.404 3.484
1.301 1.568 3.472
1.423 1.650 3.298
1.355 1.946 3.441
0.892 2.881 3.505
0.781 3.187 3.477
0.715 3.320 3.335
0.591 3.579 3.353
0.668 3.845 3.387
0.402 4.079 3.483
0.467 4.245 3.470
0.344 4.493 3.554
0.173 4.643 3.490
0.234 4.908 3.453
1.879 0.778 3.223
1.909 0.980 3.330
1.793 1.017 3.261
1.659 1.317 3.369
1.496 1.566 3.318
1.542 1.784 3.440
1.701 1.832 3.235
1.676 2.029 3.375
1.081 2.969 3.452
0.979 3.323 3.422
0.929 3.560 3.387
0.956 3.770 3.335
0.757 3.900 3.349
0.709 4.058 3.317
0.577 4.234 3.358
0.598 4.460 3.433
0.446 4.626 3.459
0.420 4.867 3.430
2.113 0.861 3.251
2.044 1.010 3.252
1.972 1.271 3.269
1.883 1.360 3.299
1.668 1.677 3.324
1.658 1.724 3.377
1.895 1.864 3.324
1.747 2.102 3.284
1.273 3.423 3.367
1.199 3.582 3.235
1.089 3.762 3.385
1.020 4.050 3.399
0.888 4.232 3.447
0.896 4.418 3.389
0.636 4.500 3.428
0.634 4.788 3.414
0.452 4.995 3.357
0.093 6.205 3.541
2.384 0.973 3.277
2.209 1.014 3.262
2.205 1.247 3.174
1.965 1.521 3.327
1.981 1.628 3.203
1.907 1.936 3.289
2.039 1.957 3.235
1.434 3.390 3.220
1.353 3.687 3.280
1.284 3.875 3.360
1.268 4.096 3.332
1.097 4.214 3.202
0.957 4.566 3.333
0.974 4.717 3.252
0.825 4.882 3.342
2.599 0.878 3.123
2.348 1.084 3.229
2.324 1.377 3.212
2.291 1.555 3.119
2.224 1.734 3.233
2.077 1.914 3.184
2.281 2.036 3.065
1.580 3.651 3.200
1.383 3.945 3.152
1.440 4.170 3.334
1.369 4.292 3.218
1.238 4.528 3.195
1.193 4.689 3.172
1.062 4.954 3.293
2.623 0.966 3.079
2.675 1.275 3.187
2.540 1.388 3.219
2.504 1.774 3.175
2.385 1.858 3.072
2.316 2.019 3.149
1.593 3.471 2.995
1.517 3.765 2.921
1.507 3.894 2.984
1.253 4.104 3.045
1.226 4.269 2.980
1.218 4.582 2.959
1.056 4.820 2.973
2.559 1.074 2.819
2.559 1.290 2.944
2.525 1.358 2.853
2.333 1.720 2.856
2.268 1.821 2.916
1.694 3.981 2.864
1.496 4.246 3.033
1.500 4.438 3.046
2.836 1.112 2.835
2.782 1.380 2.748
2.622 1.629 2.833
2.440 4.587 2.624
2.416 4.867 2.735
2.314 5.142 2.679
3.810 1.692 2.548
3.734 2.034 2.690
3.505 2.171 2.603
3.686 2.724 2.537
2.902 4.411 2.691
2.780 4.629 2.624
2.632 4.852 2.710
2.717 4.984 2.682
2.474 5.147 2.762
2.537 5.420 2.647
2.412 5.527 2.715
4.074 1.742 2.531
3.875 1.774 2.585
3.971 2.136 2.580
3.866 2.235 2.483
3.761 2.559 2.506
3.587 2.760 2.527
3.840 2.727 2.453
3.140 4.312 2.638
3.102 4.487 2.646
3.046 4.644 2.604
2.840 4.812 2.690
2.929 4.975 2.630
2.797 5.264 2.604
2.615 5.528 2.602
2.513 5.635 2.668
4.232 1.798 2.565
4.072 1.872 2.558
4.007 2.218 2.424
3.985 2.301 2.436
3.924 2.572 2.461
3.864 2.792 2.581
4.005 2.964 2.525
3.969 3.112 2.464
3.340 4.213 2.570
3.300 4.536 2.456
3.139 4.674 2.501
3.180 4.958 2.497
2.994 5.157 2.625
2.965 5.277 2.516
2.837 5.473 2.529
2.692 5.783 2.697
2.589 5.910 2.542
4.549 1.799 2.410
4.304 1.992 2.385
4.312 2.313 2.454
4.145 2.420 2.354
4.058 2.658 2.525
4.114 2.817 2.479
4.307 3.022 2.449
4.107 3.250 2.472
3.747 4.251 2.524
3.686 4.350 2.389
3.508 4.580 2.517
3.353 4.769 2.525
3.300 5.103 2.581
3.275 5.170 2.518
3.205 5.344 2.488
2.991 5.571 2.516
2.997 5.788 2.550
2.891 6.047 2.597
4.696 1.962 2.363
4.510 2.227 2.292
4.484 2.255 2.470
4.480 2.605 2.318
4.391 2.740 2.399
4.141 2.894 2.328
4.505 2.985 2.455
4.258 3.200 2.345
3.790 4.371 2.476
3.771 4.513 2.407
3.643 4.661 2.506
3.550 4.812 2.401
3.435 5.193 2.399
3.501 5.241 2.440
3.285 5.474 2.496
3.213 5.689 2.505
3.102 5.986 2.429
2.994 6.098 2.475
4.912 2.115 2.345
4.703 2.137 2.386
4.698 2.495 2.356
4.534 2.595 2.254
4.577 2.924 2.269
4.385 3.068 2.298
4.665 3.071 2.387
4.100 4.431 2.348
3.963 4.494 2.367
3.940 4.881 2.308
3.796 4.896 2.441
3.825 5.217 2.488
3.666 5.330 2.352
3.456 5.556 2.401
3.399 5.756 2.468
3.469 6.070 2.354
5.140 2.070 2.222
5.030 2.305 2.212
4.790 2.587 2.250
4.883 2.746 2.210
4.617 2.868 2.290
4.560 3.103 2.376
4.892 3.284 2.222
4.242 4.685 2.242
4.137 4.909 2.359
4.116 5.024 2.291
3.858 5.228 2.353
3.856 5.474 2.372
3.771 5.679 2.306
3.623 5.888 2.487
3.524 6.010 2.416
5.267 2.199 2.123
5.252 2.367 2.323
5.044 2.676 2.313
5.019 2.764 2.231
4.940 3.077 2.209
4.835 3.127 2.309
4.376 4.804 2.212
4.332 4.970 2.267
4.201 5.123 2.255
4.142 5.396 2.242
3.952 5.555 2.255
3.971 5.788 2.277
3.863 5.956 2.346
5.483 2.287 2.073
5.415 2.465 2.132
5.274 2.598 2.210
5.264 2.956 2.108
5.175 3.140 2.129
4.321 5.350 2.159
4.247 5.478 2.192
4.179 5.591 2.328
5.674 2.332 2.219
5.540 2.588 2.210
5.443 2.759 2.092
1.051 0.497 3.319
0.954 0.768 3.232
0.699 0.958 3.239
0.718 1.364 3.341
0.063 3.071 3.308
-0.064 3.347 3.283
1.287 0.511 3.209
1.224 0.612 3.321
1.019 0.866 3.341
1.032 0.979 3.322
0.880 1.287 3.349
0.914 1.454 3.330
1.014 1.508 3.189
0.415 3.075 3.336
0.392 3.253 3.400
0.147 3.451 3.286
0.219 3.659 3.301
0.017 3.771 3.291
1.480 0.563 3.169
1.271 0.697 3.109
1.270 0.995 3.303
1.138 1.214 3.215
1.114 1.254 3.191
0.999 1.551 3.187
1.256 1.665 3.096
1.029 1.862 3.093
0.539 3.122 3.325
0.537 3.231 3.186
0.453 3.525 3.220
0.363 3.691 3.345
0.265 3.935 3.234
0.187 4.013 3.332
0.059 4.228 3.301
1.641 0.579 3.215
1.533 0.819 3.116
1.501 0.952 3.084
1.488 1.150 3.178
1.346 1.473 3.236
1.231 1.572 3.223
1.350 1.783 3.068
1.256 1.928 3.207
0.797 3.031 3.286
0.729 3.200 3.183
0.745 3.427 3.126
0.551 3.596 3.208
0.482 3.725 3.151
0.404 3.947 3.150
0.363 4.101 3.307
0.279 4.373 3.328
0.246 4.613 3.259
0.124 4.840 3.308
1.861 0.739 3.064
1.826 0.983 3.079
1.756 1.083 3.143
1.629 1.373 3.205
1.583 1.490 3.146
1.474 1.683 3.174
1.601 1.893 3.021
1.437 2.018 3.172
1.056 3.082 3.223
1.002 3.256 3.123
0.908 3.455 3.181
0.912 3.717 3.260
0.818 3.776 3.143
0.570 4.105 3.109
0.598 4.335 3.147
0.367 4.578 3.233
0.433 4.782 3.183
0.259 4.851 3.129
2.030 0.702 3.072
1.959 0.977 3.040
1.933 1.241 2.966
1.739 1.409 3.078
1.770 1.554 3.155
1.687 1.786 3.170
1.789 1.849 3.034
1.265 3.193 3.059
1.230 3.309 3.050
1.057 3.561 3.200
0.950 3.653 3.183
0.976 3.923 3.057
0.803 4.164 3.114
0.722 4.290 3.100
0.673 4.490 3.126
0.667 4.812 3.194
-0.005 5.953 3.185
2.282 0.830 3.044
2.212 1.125 3.090
2.012 1.319 3.048
2.013 1.510 3.101
1.956 1.640 2.996
1.816 1.867 3.040
1.953 2.015 2.900
1.428 3.439 3.031
1.229 3.664 3.127
1.219 3.868 3.073
1.092 3.991 3.086
1.129 4.272 3.142
0.893 4.406 3.019
0.906 4.644 3.080
0.714 4.920 3.065
2.539 0.994 2.989
2.406 1.136 3.014
2.379 1.438 2.877
2.250 1.522 2.987
2.144 1.721 2.883
1.941 2.038 2.996
1.673 3.542 2.926
1.487 3.723 2.981
1.450 3.930 3.082
1.413 4.046 2.993
1.336 4.359 2.943
1.079 4.520 3.055
1.155 4.701 3.135
2.752 1.044 2.865
2.516 1.310 2.912
2.581 1.433 2.938
2.365 1.642 2.824
2.354 1.877 2.875
1.691 3.213 2.707
1.570 3.599 2.865
1.488 3.629 2.765
1.345 3.853 2.800
1.199 4.222 2.819
1.157 4.310 2.806
1.116 4.622 2.866
0.445 6.120 2.831
2.573 1.010 2.679
2.477 1.191 2.584
2.497 1.427 2.770
2.265 1.590 2.788
1.818 3.650 2.820
1.691 3.824 2.701
1.619 4.072 2.817
1.534 4.207 2.781
2.883 1.098 2.653
2.813 1.363 2.559
3.392 2.501 2.457
2.350 4.949 2.410
2.262 5.061 2.578
2.161 5.265 2.609
2.157 5.487 2.612
3.707 2.058 2.387
3.456 2.232 2.399
3.492 2.363 2.385
3.417 2.507 2.406
3.536 2.779 2.413
3.396 2.980 2.325
2.771 4.593 2.389
2.747 4.684 2.363
2.680 5.023 2.381
2.495 5.126 2.424
2.499 5.362 2.464
2.244 5.625 2.443
2.188 5.717 2.415
4.085 1.668 2.326
3.965 1.878 2.288
3.861 2.053 2.295
3.810 2.286 2.279
3.740 2.549 2.310
3.577 2.678 2.383
3.680 2.854 2.290
3.708 2.887 2.390
2.980 4.444 2.442
2.983 4.631 2.424
2.859 4.803 2.305
2.762 4.988 2.459
2.694 5.185 2.367
2.661 5.383 2.403
2.514 5.600 2.528
2.476 5.888 2.488
4.221 1.829 2.282
4.131 1.940 2.344
4.001 2.135 2.265
3.909 2.422 2.322
3.896 2.569 2.384
3.784 2.854 2.311
4.062 2.813 2.176
3.915 2.989 2.362
3.269 4.310 2.243
3.290 4.485 2.409
3.114 4.726 2.241
3.076 4.975 2.443
2.926 5.114 2.410
2.994 5.425 2.299
2.804 5.481 2.335
2.638 5.645 2.357
2.602 5.851 2.484
4.427 1.797 2.115
4.237 1.966 2.176
4.278 2.289 2.179
4.204 2.486 2.176
3.997 2.634 2.290
4.059 2.778 2.256
4.219 2.850 2.242
4.031 3.128 2.138
3.640 4.456 2.327
3.415 4.570 2.253
3.377 4.718 2.260
3.287 4.989 2.268
3.259 5.144 2.289
3.014 5.397 2.253
3.008 5.632 2.356
2.847 5.831 2.315
2.752 6.020 2.326
4.671 1.833 2.139
4.532 2.183 2.243
4.499 2.284 2.163
4.262 2.488 2.241
4.202 2.805 2.282
4.075 2.861 2.198
4.421 2.960 2.207
3.758 4.281 2.187
3.675 4.485 2.182
3.565 4.767 2.167
3.636 4.912 2.236
3.507 5.154 2.199
3.310 5.360 2.350
3.319 5.499 2.292
3.181 5.749 2.204
3.147 5.921 2.220
4.711 1.955 2.068
4.710 2.305 2.111
4.637 2.477 2.224
4.511 2.655 2.068
4.490 2.765 2.237
4.373 3.105 2.214
4.596 3.201 2.176
3.951 4.415 2.208
4.008 4.553 2.194
3.930 4.774 2.119
3.712 4.906 2.171
3.624 5.273 2.199
3.581 5.365 2.298
3.530 5.623 2.225
3.426 5.765 2.227
3.284 6.090 2.202
5.046 2.096 2.013
4.974 2.305 2.042
4.784 2.491 2.131
4.649 2.646 2.157
4.742 3.005 2.040
4.520 3.064 2.037
4.322 4.447 2.114
4.085 4.607 2.212
4.007 4.815 2.162
3.883 5.000 2.106
3.814 5.365 2.217
3.781 5.431 2.091
3.764 5.689 2.157
3.622 5.955 2.140
5.301 2.102 1.926
5.117 2.310 1.983
5.014 2.552 1.950
4.930 2.805 2.112
4.819 3.014 1.978
4.422 4.518 1.974
4.401 4.831 1.969
4.301 4.930 2.118
4.136 5.185 2.032
4.116 5.294 2.060
3.988 5.619 2.193
3.823 5.753 2.082
5.452 2.194 1.881
5.346 2.481 1.944
5.157 2.640 2.052
5.055 2.834 2.064
4.506 4.760 1.960
4.461 4.996 1.953
4.405 5.174 2.124
4.194 5.459 1.956
5.588 2.418 1.966
5.480 2.473 1.829
0.547 1.418 3.046
0.857 0.756 3.152
0.752 0.907 3.187
0.622 1.140 3.162
0.607 1.262 3.058
0.724 1.359 2.999
0.677 1.598 2.991
1.248 0.315 3.056
1.157 0.663 3.123
1.054 0.865 2.968
1.040 1.096 3.049
0.909 1.247 3.044
0.805 1.409 3.039
0.918 1.467 3.038
0.819 1.808 3.124
0.246 3.240 3.162
0.165 3.298 3.029
0.015 3.607 3.208
1.487 0.501 2.931
1.307 0.670 3.027
1.269 0.903 2.947
1.086 1.166 2.943
1.030 1.383 3.100
1.039 1.520 3.108
1.084 1.527 2.953
1.032 1.824 2.875
0.493 3.075 2.944
0.505 3.242 2.965
0.294 3.564 3.136
0.242 3.752 3.063
0.280 3.913 3.026
0.137 4.160 3.150
-0.068 4.341 2.999
1.563 0.557 2.895
1.571 0.762 2.845
1.425 0.977 3.023
1.409 1.305 2.874
1.173 1.375 2.947
1.214 1.570 2.951
1.358 1.796 2.898
1.182 1.820 2.937
0.830 3.201 3.027
0.696 3.351 2.947
0.584 3.646 2.934
0.577 3.751 3.036
0.480 3.964 3.026
0.288 4.116 3.051
0.175 4.329 3.122
0.123 4.672 3.122
-0.025 4.862 2.990
1.772 0.663 2.948
1.710 0.856 2.854
1.695 1.021 2.896
1.521 1.262 2.834
1.356 1.451 2.897
1.399 1.697 2.895
1.596 1.708 2.895
1.039 3.039 2.840
0.970 3.207 3.025
0.830 3.511 2.890
0.858 3.734 2.908
0.616 3.928 3.050
0.519 4.050 2.943
0.574 4.307 3.032
0.351 4.519 3.060
0.328 4.594 2.964
2.094 0.842 2.900
1.989 1.001 2.774
1.785 1.230 2.923
1.817 1.376 2.878
1.659 1.556 2.863
1.661 1.807 2.805
1.843 1.840 2.869
1.306 3.061 2.847
1.214 3.238 2.965
1.046 3.556 2.839
0.990 3.641 2.970
0.828 3.968 2.879
0.716 4.123 2.953
0.650 4.322 3.011
0.677 4.642 2.915
0.468 4.865 3.021
2.183 0.802 2.702
2.027 1.097 2.814
2.017 1.204 2.800
2.006 1.517 2.883
1.826 1.596 2.867
1.667 1.859 2.870
1.352 3.186 2.784
1.374 3.499 2.910
1.318 3.612 2.749
1.255 3.873 2.789
1.064 4.080 2.847
0.901 4.326 2.952
0.892 4.346 2.949
0.825 4.743 2.875
0.149 6.185 3.004
2.320 0.896 2.703
2.400 1.112 2.629
2.219 1.348 2.722
2.104 1.499 2.766
1.996 1.828 2.812
1.592 3.354 2.767
1.497 3.437 2.844
1.534 3.724 2.772
1.440 3.959 2.836
1.308 4.086 2.864
1.240 4.365 2.860
1.052 4.515 2.821
0.485 6.140 2.988
2.573 0.958 2.622
2.544 1.330 2.665
2.416 1.406 2.620
2.379 1.692 2.759
1.732 3.160 2.527
1.626 3.277 2.548
1.420 3.490 2.500
1.374 3.619 2.582
1.360 3.986 2.526
1.234 4.161 2.486
1.107 4.242 2.659
0.510 5.942 2.712
0.360 6.113 2.719
2.480 1.003 2.415
2.373 1.282 2.550
2.339 1.479 2.475
1.826 3.137 2.390
1.768 3.475 2.552
1.625 3.524 2.533
1.507 3.691 2.498
1.537 4.005 2.592
0.550 6.106 2.702
0.519 6.287 2.621
2.701 1.159 2.359
2.098 2.977 2.435
2.020 3.214 2.495
2.070 3.460 2.412
1.986 3.661 2.436
0.925 5.980 2.494
0.737 6.187 2.562
2.392 2.845 2.354
2.263 3.089 2.312
2.233 3.299 2.465
1.291 5.863 2.554
1.196 6.093 2.480
1.028 6.293 2.565
2.826 2.860 2.350
2.691 2.998 2.373
2.659 3.169 2.409
1.415 5.617 2.530
1.307 5.830 2.364
1.308 6.168 2.375
3.177 2.419 2.338
2.994 2.753 2.254
2.964 2.925 2.216
2.927 3.063 2.191
1.827 5.434 2.384
1.839 5.664 2.383
1.628 5.820 2.361
1.679 6.062 2.453
3.088 2.474 2.335
3.324 2.663 2.157
3.188 2.728 2.137
3.221 3.035 2.235
2.251 5.124 2.311
2.193 5.224 2.384
2.141 5.553 2.405
2.014 5.611 2.264
1.813 5.936 2.364
3.423 2.103 2.176
3.442 2.348 2.099
3.233 2.542 2.159
3.470 2.682 2.225
3.371 2.871 2.219
3.246 2.995 2.240
2.560 4.632 2.146
2.452 4.930 2.213
2.529 5.220 2.315
2.301 5.436 2.355
2.315 5.468 2.334
2.235 5.726 2.256
2.191 5.972 2.271
3.797 1.788 2.064
3.784 2.087 2.013
3.658 2.216 2.214
3.596 2.389 2.199
3.464 2.721 2.159
3.616 2.702 2.004
3.669 2.957 2.163
2.886 4.650 2.183
2.806 4.879 2.097
2.785 4.955 2.109
2.660 5.307 2.197
2.612 5.494 2.252
2.441 5.730 2.154
2.468 5.885 2.128
4.209 1.744 2.047
4.122 1.947 2.100
4.033 2.147 2.130
3.988 2.279 2.159
3.775 2.462 2.057
3.633 2.679 2.110
3.901 2.851 2.020
3.756 3.032 2.091
3.291 4.480 2.147
3.175 4.713 2.138
3.119 4.925 2.141
2.865 5.127 2.177
2.750 5.303 2.147
2.673 5.518 2.066
2.689 5.827 2.243
2.537 5.905 2.211
4.343 1.897 2.069
4.368 1.939 1.982
4.268 2.297 2.042
4.042 2.457 2.017
4.001 2.635 2.088
3.946 2.873 1.964
4.194 2.974 1.932
3.438 4.403 2.008
3.344 4.600 1.988
3.359 4.815 2.034
3.322 5.029 2.041
3.043 5.207 2.080
3.138 5.436 2.096
2.941 5.552 2.201
2.923 5.882 2.034
4.556 1.999 1.896
4.376 2.035 1.984
4.306 2.336 2.044
4.355 2.450 1.870
4.160 2.681 1.972
4.210 2.974 1.990
4.283 3.120 1.916
3.719 4.417 2.013
3.551 4.727 1.931
3.429 4.914 1.976
3.463 4.994 2.054
3.319 5.231 2.028
3.239 5.395 2.122
3.136 5.666 2.073
2.985 6.001 1.982
4.778 1.939 1.819
4.674 2.243 1.990
4.483 2.315 1.971
4.437 2.514 1.915
4.465 2.746 1.824
4.331 3.077 1.978
4.011 4.416 1.950
3.979 4.541 1.932
3.736 4.709 2.056
3.777 5.044 2.026
3.588 5.252 1.895
3.635 5.393 2.082
3.466 5.586 2.056
3.459 5.836 2.090
4.896 2.179 1.796
4.801 2.337 1.910
4.767 2.478 1.854
4.705 2.609 1.914
4.528 2.996 1.786
4.089 4.476 1.836
4.052 4.658 1.871
3.970 4.859 1.915
3.816 5.091 1.826
3.884 5.234 1.832
3.742 5.438 1.854
3.621 5.652 1.916
5.247 2.203 1.839
5.115 2.472 1.762
4.941 2.574 1.718
4.853 2.722 1.837
4.405 4.290 1.775
4.336 4.567 1.833
4.253 4.641 1.844
4.191 4.896 1.820
4.103 5.114 1.767
4.003 5.401 1.927
3.997 5.535 1.876
5.308 2.213 1.739
5.252 2.407 1.648
5.250 2.755 1.741
4.631 4.443 1.795
4.605 4.699 1.747
4.592 4.753 1.739
4.486 4.995 1.892
4.406 5.314 1.800
5.587 2.401 1.768
4.872 4.251 1.673
4.949 4.557 1.773
4.752 4.797 1.642
4.780 4.975 1.672
5.318 4.147 1.740
5.132 4.327 1.632
5.154 4.556 1.667
5.473 4.150 1.678
5.477 4.218 1.604
5.307 4.548 1.538
0.310 1.186 2.967
0.200 1.549 3.027
0.092 1.762 3.055
0.119 1.908 2.913
0.386 1.269 3.006
0.587 1.375 2.941
0.389 1.461 2.947
0.254 1.699 2.871
0.766 0.838 2.857
0.650 1.043 2.863
0.492 1.307 2.887
0.741 1.530 2.848
0.603 1.567 2.898
0.559 1.857 2.805
1.144 0.605 2.805
1.019 0.878 2.779
0.954 1.032 2.897
0.885 1.288 2.928
0.751 1.346 2.800
0.985 1.512 2.865
0.774 1.667 2.876
0.129 3.299 2.889
0.034 3.669 2.985
1.268 0.430 2.766
1.273 0.751 2.808
1.170 0.952 2.753
1.120 1.125 2.747
1.010 1.402 2.743
0.925 1.606 2.776
1.074 1.510 2.768
1.079 1.795 2.829
0.353 3.244 2.766
0.240 3.500 2.892
0.255 3.693 2.866
0.229 3.797 2.876
-0.031 4.017 2.926
1.634 0.632 2.716
1.392 0.806 2.707
1.375 1.062 2.701
1.379 1.159 2.769
1.115 1.430 2.827
1.047 1.669 2.840
1.400 1.650 2.671
0.600 3.162 2.693
0.615 3.298 2.845
0.493 3.638 2.791
0.337 3.702 2.737
0.342 4.045 2.710
0.243 4.257 2.717
0.140 4.415 2.789
0.141 4.642 2.903
1.777 0.748 2.654
1.707 0.925 2.687
1.649 1.066 2.757
1.397 1.205 2.587
1.441 1.475 2.699
1.369 1.656 2.759
1.474 1.704 2.617
0.911 3.136 2.700
0.818 3.475 2.663
0.735 3.627 2.694
0.683 3.777 2.776
0.611 4.031 2.705
0.450 4.197 2.772
0.348 4.437 2.828
0.277 4.624 2.780
1.917 0.687 2.529
1.807 0.967 2.655
1.877 1.105 2.617
1.716 1.398 2.693
1.592 1.621 2.539
1.465 1.782 2.678
1.164 3.079 2.613
1.161 3.401 2.609
1.045 3.476 2.625
0.978 3.631 2.764
0.733 3.977 2.729
0.803 4.220 2.651
0.656 4.324 2.803
0.595 4.491 2.792
2.170 0.844 2.474
2.105 1.135 2.496
1.913 1.342 2.621
1.885 1.363 2.602
1.823 1.651 2.672
1.349 3.211 2.597
1.221 3.321 2.613
1.198 3.530 2.588
1.193 3.774 2.612
0.943 4.066 2.590
1.019 4.158 2.621
0.774 4.527 2.623
0.230 6.158 2.700
2.422 0.885 2.468
2.248 1.076 2.525
2.197 1.429 2.596
2.180 1.602 2.588
1.666 3.177 2.597
1.657 3.323 2.598
1.486 3.452 2.567
1.383 3.663 2.614
1.331 3.809 2.616
1.234 4.179 2.532
1.056 4.323 2.515
0.443 5.986 2.651
0.268 6.072 2.775
2.584 0.929 2.375
2.568 1.278 2.464
2.424 1.434 2.477
1.680 2.931 2.278
1.689 3.083 2.276
1.488 3.289 2.235
1.462 3.564 2.294
1.448 3.656 2.299
1.175 3.902 2.423
1.224 4.155 2.302
0.404 5.749 2.521
0.436 5.859 2.483
0.322 6.241 2.429
2.471 1.092 2.251
2.480 1.272 2.247
2.074 2.701 2.313
1.888 3.032 2.293
1.876 3.219 2.291
1.747 3.378 2.318
1.605 3.660 2.244
1.629 3.707 2.246
1.508 4.061 2.281
0.733 5.691 2.302
0.743 5.817 2.367
0.573 6.087 2.320
0.522 6.180 2.336
2.698 1.111 2.087
2.205 2.533 2.223
2.202 2.799 2.189
2.167 2.969 2.284
2.112 3.306 2.152
1.917 3.366 2.204
1.847 3.739 2.215
1.782 3.805 2.234
0.951 5.577 2.277
0.995 5.719 2.418
0.896 5.974 2.352
0.836 6.143 2.304
2.592 2.603 2.035
2.479 2.664 2.200
2.432 2.967 2.236
2.334 3.089 2.136
2.294 3.367 2.193
2.070 3.530 2.211
1.997 3.821 2.196
1.315 5.362 2.185
1.328 5.601 2.263
1.253 5.894 2.236
1.064 5.976 2.321
0.962 6.217 2.283
2.930 2.418 2.054
2.851 2.678 2.001
2.701 2.761 2.053
2.615 2.993 2.031
2.473 3.131 2.038
2.345 3.431 2.201
2.264 3.641 2.071
1.629 5.307 2.179
1.516 5.443 2.254
1.479 5.773 2.243
1.396 5.980 2.276
1.177 6.142 2.160
2.807 2.333 2.028
3.063 2.415 1.989
2.997 2.786 1.953
2.905 2.842 2.114
2.742 3.197 2.010
2.795 3.219 1.985
2.608 3.604 2.079
1.871 5.139 2.080
1.916 5.401 2.122
1.807 5.593 2.166
1.617 5.712 2.167
1.576 5.957 2.153
1.434 6.105 2.110
3.176 2.186 2.044
2.987 2.578 1.996
3.264 2.563 2.004
3.105 2.774 2.018
3.063 2.960 2.075
3.034 3.212 2.004
2.937 3.482 2.080
2.267 5.083 2.145
2.024 5.298 2.091
2.028 5.395 2.085
1.942 5.591 2.203
1.796 5.867 2.186
1.674 6.027 2.092
1.673 6.212 2.156
3.440 2.132 1.968
3.268 2.456 2.015
3.214 2.533 2.051
3.370 2.612 1.958
3.387 2.786 2.010
3.294 3.166 1.986
3.115 3.344 1.858
2.574 4.956 2.043
2.392 5.123 2.070
2.259 5.253 2.042
2.192 5.530 2.000
2.104 5.705 2.075
1.972 5.977 2.070
1.904 6.096 2.009
3.746 2.036 1.851
3.696 2.309 1.858
3.489 2.529 1.923
3.427 2.595 2.013
3.722 2.761 1.805
3.636 2.959 1.817
3.391 3.251 1.934
2.740 4.766 1.904
2.633 5.035 1.870
2.570 5.241 1.902
2.450 5.446 1.953
2.382 5.706 1.989
2.235 5.738 2.081
2.190 5.951 1.997
3.922 1.851 1.863
3.969 2.190 1.918
3.907 2.347 1.923
3.839 2.442 1.841
3.565 2.672 1.868
3.805 2.872 1.731
3.810 3.084 1.919
3.142 4.721 1.961
3.066 4.902 1.913
2.888 5.055 1.987
2.756 5.308 1.837
2.661 5.432 1.965
2.579 5.690 1.956
2.592 6.015 1.910
4.218 1.801 1.829
4.306 1.917 1.844
4.103 2.219 1.860
3.971 2.337 1.808
4.009 2.705 1.864
3.764 2.888 1.811
3.978 2.851 1.764
3.281 4.501 1.834
3.358 4.855 1.765
3.189 4.937 1.783
3.162 5.109 1.945
2.943 5.304 1.976
2.845 5.503 1.978
2.891 5.869 1.875
4.471 1.812 1.788
4.356 2.156 1.684
4.423 2.384 1.721
4.227 2.566 1.718
4.174 2.658 1.808
4.050 2.889 1.744
3.578 4.519 1.762
3.538 4.561 1.788
3.537 4.829 1.757
3.459 5.104 1.828
3.295 5.331 1.769
3.212 5.504 1.727
3.158 5.711 1.775
4.761 1.918 1.762
4.525 2.120 1.612
4.605 2.486 1.681
4.534 2.532 1.751
4.288 2.797 1.750
3.978 4.269 1.743
3.847 4.512 1.693
3.719 4.683 1.731
3.572 4.973 1.694
3.660 5.072 1.685
3.542 5.282 1.822
3.436 5.595 1.719
4.889 2.163 1.647
4.893 2.212 1.687
4.674 2.446 1.576
4.658 2.723 1.645
4.124 4.141 1.701
4.205 4.388 1.692
4.095 4.652 1.587
3.961 4.753 1.738
3.830 4.986 1.775
3.873 5.268 1.798
3.641 5.401 1.784
5.051 2.111 1.505
5.056 2.266 1.661
4.870 2.583 1.585
4.563 4.083 1.575
4.331 4.245 1.660
4.304 4.493 1.644
4.221 4.749 1.678
4.197 4.863 1.611
4.040 5.093 1.590
3.971 5.398 1.719
5.289 2.152 1.574
5.189 2.484 1.621
4.803 3.941 1.480
4.740 4.117 1.589
4.529 4.324 1.638
4.590 4.660 1.468
4.477 4.869 1.661
4.389 4.950 1.492
4.279 5.138 1.687
5.434 2.373 1.395
5.183 3.909 1.389
4.903 3.989 1.504
4.852 4.310 1.510
4.770 4.386 1.536
4.809 4.685 1.457
4.675 4.888 1.476
4.598 5.028 1.602
5.300 3.665 1.424
5.313 3.884 1.477
5.191 4.178 1.534
5.063 4.398 1.372
5.084 4.524 1.473
4.919 4.714 1.380
4.816 4.960 1.539
5.693 3.554 1.269
5.577 3.785 1.462
5.460 4.053 1.441
5.348 4.165 1.301
5.350 4.425 1.334
5.258 4.687 1.437
5.155 4.939 1.475
5.747 3.536 1.319
0.243 1.186 2.804
0.131 1.415 2.742
0.084 1.736 2.724
0.417 1.057 2.807
0.280 1.303 2.694
0.513 1.233 2.753
0.315 1.619 2.764
0.198 1.721 2.741
0.234 1.959 2.794
0.012 2.095 2.625
0.547 0.860 2.670
0.540 1.173 2.624
0.505 1.241 2.689
0.629 1.503 2.710
0.552 1.613 2.723
0.548 1.838 2.700
0.360 2.105 2.606
0.865 0.717 2.658
0.758 0.995 2.520
0.690 1.255 2.546
0.726 1.501 2.653
0.816 1.515 2.645
0.850 1.700 2.614
0.767 2.019 2.629
1.313 0.586 2.550
1.203 0.924 2.624
1.042 1.076 2.587
0.881 1.345 2.640
0.778 1.484 2.516
1.077 1.509 2.565
0.962 1.867 2.466
0.269 3.362 2.549
0.202 3.650 2.704
0.119 3.859 2.537
0.022 4.048 2.669
1.509 0.606 2.399
1.359 0.770 2.538
1.334 1.036 2.505
1.203 1.086 2.444
1.187 1.302 2.540
1.014 1.688 2.460
1.259 1.695 2.397
0.605 3.298 2.609
0.402 3.445 2.553
0.304 3.755 2.587
0.362 3.926 2.622
0.179 4.073 2.505
0.144 4.422 2.660
-0.032 4.555 2.627
1.764 0.576 2.356
1.634 0.869 2.361
1.439 0.996 2.420
1.518 1.257 2.428
1.329 1.576 2.478
1.180 1.715 2.500
0.755 3.131 2.527
0.731 3.508 2.451
0.586 3.709 2.441
0.569 3.922 2.514
0.485 3.971 2.621
0.491 4.247 2.471
0.393 4.544 2.526
1.948 0.683 2.471
1.725 0.867 2.449
1.698 1.105 2.416
1.701 1.285 2.329
1.633 1.617 2.491
1.115 3.138 2.494
1.113 3.313 2.517
0.866 3.519 2.531
0.860 3.703 2.362
0.829 4.000 2.442
0.769 4.185 2.542
0.635 4.385 2.470
2.022 0.785 2.366
1.962 1.036 2.435
1.888 1.267 2.340
1.856 1.375 2.430
1.445 3.004 2.469
1.256 3.229 2.410
1.297 3.473 2.472
1.212 3.516 2.337
1.164 3.755 2.319
0.907 3.973 2.496
0.853 4.272 2.410
0.249 5.896 2.500
0.188 6.144 2.466
0.084 6.340 2.470
2.262 0.990 2.232
2.252 1.032 2.385
2.229 1.265 2.307
1.691 2.929 2.259
1.627 3.078 2.239
1.613 3.206 2.293
1.435 3.415 2.294
1.257 3.657 2.387
1.247 3.795 2.304
1.158 4.153 2.356
0.430 5.797 2.510
0.351 5.925 2.490
0.375 6.221 2.491
2.568 0.940 2.319
2.430 1.191 2.235
1.782 2.678 2.004
1.663 2.890 2.139
1.535 3.109 2.090
1.558 3.301 2.039
1.446 3.403 2.101
1.220 3.625 2.062
1.223 3.785 2.056
0.600 5.478 2.129
0.329 5.755 2.154
0.263 6.028 2.198
0.323 6.212 2.149
2.454 0.905 2.011
2.098 2.532 2.104
1.859 2.748 2.038
1.938 2.961 1.954
1.870 3.063 2.005
1.634 3.444 2.003
1.580 3.528 2.086
1.409 3.845 2.103
0.741 5.418 2.159
0.714 5.518 2.218
0.633 5.830 2.099
0.485 6.093 2.205
0.528 6.257 2.147
2.362 2.496 2.012
2.317 2.532 2.039
2.092 2.759 1.985
2.105 3.114 1.904
1.982 3.242 1.962
1.941 3.391 2.009
1.697 3.616 1.921
1.737 3.907 2.060
1.115 5.382 2.083
0.989 5.548 2.155
0.822 5.751 2.137
0.733 5.907 2.119
0.676 6.020 2.074
2.667 2.245 1.876
2.486 2.475 1.908
2.346 2.753 1.925
2.411 2.820 1.952
2.236 3.190 1.923
2.225 3.391 1.946
2.058 3.445 2.026
1.903 3.657 1.940
1.337 5.195 2.041
1.288 5.331 2.102
1.182 5.611 1.990
1.176 5.738 2.076
1.038 6.063 2.052
0.887 6.123 2.124
2.626 2.353 1.877
2.855 2.311 1.821
2.712 2.517 1.838
2.654 2.767 1.794
2.525 2.964 1.907
2.517 3.161 1.829
2.415 3.364 1.965
2.309 3.549 2.000
2.224 3.812 1.978
1.645 5.246 1.987
1.548 5.448 2.009
1.453 5.740 2.090
1.379 5.926 1.917
1.201 6.025 1.963
2.901 2.390 1.779
3.070 2.505 1.723
2.848 2.742 1.843
2.892 2.967 1.798
2.763 3.014 1.807
2.670 3.348 1.881
2.514 3.423 1.766
2.559 3.738 1.906
1.926 5.215 2.018
1.826 5.442 1.974
1.777 5.656 1.856
1.624 5.699 1.924
1.458 5.904 1.967
1.368 6.247 2.022
3.154 2.247 1.830
3.018 2.453 1.749
3.238 2.607 1.750
3.159 2.731 1.826
2.937 2.946 1.740
3.032 3.118 1.788
2.947 3.476 1.742
2.798 3.616 1.725
2.070 5.165 1.883
1.935 5.465 1.972
1.864 5.689 1.918
1.877 5.870 1.941
1.620 6.144 1.893
1.616 6.212 1.848
3.327 2.285 1.816
3.191 2.558 1.835
3.455 2.629 1.653
3.395 2.858 1.722
3.232 3.034 1.663
3.085 3.290 1.792
3.070 3.515 1.834
2.364 5.121 1.726
2.255 5.250 1.916
2.188 5.602 1.805
2.169 5.693 1.797
1.995 5.844 1.879
1.856 6.233 1.875
3.500 2.210 1.714
3.441 2.515 1.727
3.404 2.704 1.778
3.673 2.752 1.603
3.477 2.851 1.561
3.497 3.190 1.736
2.622 5.286 1.723
2.539 5.369 1.808
2.273 5.521 1.838
2.203 5.901 1.713
2.156 5.993 1.881
3.800 2.279 1.628
3.761 2.490 1.660
3.538 2.829 1.599
3.855 2.738 1.506
2.751 5.093 1.685
2.775 5.386 1.756
2.685 5.419 1.626
2.636 5.731 1.634
4.105 2.270 1.513
4.032 2.495 1.663
3.892 2.690 1.569
3.859 2.883 1.579
3.076 5.006 1.589
3.048 5.271 1.700
2.997 5.348 1.610
4.276 2.135 1.450
4.324 2.223 1.491
4.186 2.483 1.608
3.490 4.909 1.515
3.311 5.023 1.640
3.282 5.298 1.690
4.745 1.968 1.451
4.627 2.149 1.514
4.465 2.450 1.388
3.717 4.564 1.601
3.664 4.816 1.430
3.652 4.873 1.463
3.620 5.073 1.636
4.764 2.156 1.467
4.717 2.224 1.419
4.133 4.112 1.352
3.989 4.370 1.432
4.000 4.666 1.515
3.859 4.865 1.510
3.821 4.948 1.429
5.048 2.086 1.414
4.552 3.927 1.305
4.394 4.008 1.370
4.466 4.339 1.402
4.191 4.543 1.409
4.198 4.691 1.487
4.189 4.915 1.517
3.993 5.081 1.476
5.251 2.192 1.266
4.838 3.689 1.398
4.686 4.068 1.347
4.739 4.232 1.373
4.599 4.365 1.280
4.448 4.648 1.279
4.318 4.859 1.265
4.272 5.073 1.420
5.070 3.670 1.303
4.964 3.788 1.183
4.957 4.077 1.238
4.834 4.343 1.319
4.822 4.449 1.304
4.707 4.757 1.392
4.602 4.811 1.259
4.433 5.146 1.292
5.416 3.598 1.149
5.325 3.826 1.250
5.330 3.948 1.145
5.161 4.225 1.217
5.019 4.389 1.308
4.912 4.656 1.277
4.829 4.758 1.290
4.753 5.010 1.163
5.496 3.502 1.226
5.659 3.685 1.045
5.547 3.789 1.157
5.505 4.025 1.146
5.443 4.158 1.138
5.179 4.504 1.145
5.161 4.711 1.121
5.131 4.891 1.214
4.895 4.987 1.108
5.673 3.548 1.054
0.240 1.312 2.552
0.120 1.471 2.592
0.008 1.732 2.489
0.279 1.084 2.490
0.182 1.300 2.464
0.470 1.232 2.411
0.247 1.500 2.485
0.166 1.789 2.489
0.054 1.886 2.430
-0.007 2.055 2.564
0.509 1.147 2.435
0.360 1.410 2.485
0.549 1.387 2.427
0.463 1.706 2.385
0.459 1.816 2.508
0.414 2.003 2.427
0.349 2.227 2.389
0.773 1.044 2.304
0.689 1.202 2.364
0.615 1.336 2.493
0.768 1.519 2.284
0.820 1.676 2.326
0.565 1.850 2.384
0.989 1.068 2.380
0.898 1.203 2.340
0.740 1.447 2.387
1.070 1.645 2.297
0.133 3.855 2.446
1.336 0.921 2.314
1.189 1.178 2.258
1.177 1.459 2.377
0.944 1.680 2.281
0.251 3.682 2.254
0.300 3.977 2.456
0.189 4.221 2.459
1.611 0.850 2.144
1.521 1.137 2.214
1.368 1.239 2.142
0.595 3.580 2.218
0.514 3.874 2.246
0.386 3.940 2.283
1.905 0.734 2.103
1.779 0.963 2.177
1.775 1.154 2.183
0.957 3.267 2.224
0.810 3.595 2.146
0.799 3.668 2.266
0.714 3.862 2.222
2.104 0.786 2.043
2.030 1.027 2.175
1.340 3.035 2.068
1.243 3.143 2.199
1.199 3.399 2.108
1.095 3.679 2.152
1.063 3.763 2.261
0.110 5.780 2.233
0.098 6.140 2.198
2.330 0.924 2.121
1.816 2.667 2.007
1.757 2.831 2.056
1.572 3.063 2.084
1.519 3.250 2.196
1.480 3.540 2.085
1.321 3.742 2.178
1.194 3.798 2.065
0.579 5.614 2.268
0.447 5.775 2.265
0.303 5.906 2.231
0.252 6.114 2.247
2.420 0.899 1.989
1.779 2.424 1.862
1.656 2.732 1.835
1.584 2.803 1.918
1.560 3.007 1.902
1.423 3.280 1.867
1.299 3.416 1.859
1.341 3.600 1.944
0.580 5.258 1.892
0.541 5.453 1.982
0.341 5.800 2.019
0.183 5.983 2.009
0.205 6.209 2.116
2.103 2.369 1.835
1.933 2.525 1.726
1.919 2.812 1.902
1.835 2.845 1.742
1.759 3.148 1.756
1.606 3.427 1.914
1.448 3.519 1.937
1.500 3.662 1.793
0.790 5.245 1.996
0.745 5.459 1.902
0.627 5.680 1.967
0.540 5.806 1.959
0.454 6.056 1.999
0.431 6.195 2.054
2.267 2.280 1.741
2.253 2.370 1.794
2.094 2.562 1.811
2.121 2.847 1.846
2.099 2.941 1.722
1.987 3.308 1.718
1.758 3.397 1.768
1.798 3.665 1.820
1.594 3.766 1.771
1.040 5.043 1.790
1.093 5.309 1.891
0.924 5.455 1.941
0.862 5.787 1.816
0.744 5.839 1.959
0.712 6.054 1.942
2.365 2.094 1.668
2.601 2.351 1.699
2.410 2.522 1.794
2.413 2.737 1.635
2.249 2.859 1.697
2.306 3.186 1.675
2.186 3.357 1.721
2.119 3.577 1.728
1.895 3.778 1.845
1.769 3.875 1.770
1.231 5.134 1.830
1.177 5.466 1.739
1.169 5.538 1.907
1.105 5.759 1.905
0.943 5.902 1.823
0.976 6.190 1.761
2.582 2.188 1.597
2.755 2.382 1.544
2.671 2.626 1.704
2.590 2.778 1.736
2.461 3.048 1.705
2.467 3.262 1.585
2.237 3.423 1.713
2.195 3.565 1.708
2.149 3.884 1.633
1.701 5.078 1.825
1.617 5.157 1.785
1.432 5.404 1.738
1.273 5.627 1.712
1.292 5.960 1.787
1.136 6.127 1.712
1.144 6.187 1.838
2.918 2.072 1.634
2.803 2.379 1.715
2.917 2.361 1.495
2.935 2.615 1.676
2.787 2.858 1.678
2.745 3.163 1.644
2.584 3.357 1.682
2.528 3.568 1.567
2.402 3.604 1.708
2.362 3.828 1.688
1.752 5.073 1.637
1.637 5.361 1.699
1.654 5.631 1.678
1.537 5.848 1.757
1.488 6.040 1.715
1.283 6.085 1.709
2.989 2.274 1.540
2.892 2.455 1.633
3.174 2.488 1.572
3.068 2.786 1.625
3.047 2.994 1.577
2.846 3.132 1.540
2.824 3.410 1.591
2.709 3.535 1.623
2.604 3.716 1.576
2.041 5.304 1.598
2.007 5.427 1.591
1.880 5.648 1.664
1.773 5.838 1.628
1.660 6.070 1.608
1.627 6.175 1.722
3.284 2.335 1.516
3.170 2.600 1.497
3.431 2.633 1.561
3.177 2.870 1.565
3.266 3.096 1.534
3.187 3.306 1.450
2.997 3.458 1.453
2.843 3.724 1.485
2.172 5.220 1.698
2.144 5.588 1.695
1.990 5.671 1.595
2.036 5.974 1.538
1.929 6.148 1.730
3.479 2.447 1.563
3.341 2.709 1.478
3.540 2.709 1.446
3.396 2.892 1.405
3.356 3.208 1.477
3.267 3.317 1.533
2.316 5.623 1.514
2.200 5.807 1.666
2.100 6.108 1.499
1.981 6.204 1.684
3.481 2.636 1.476
4.132 3.941 1.257
4.189 4.158 1.241
4.001 4.306 1.305
3.911 4.580 1.186
4.651 3.577 1.099
4.401 3.833 1.145
4.464 3.981 1.206
4.288 4.251 1.094
4.270 4.467 1.147
4.179 4.614 1.263
4.013 4.837 1.220
4.867 3.585 1.045
4.882 3.727 1.121
4.754 3.900 1.018
4.674 4.115 1.176
4.451 4.315 1.202
4.466 4.522 1.144
4.261 4.839 1.042
4.334 4.966 1.087
5.131 3.480 1.001
5.058 3.714 1.015
4.988 3.766 1.029
4.958 4.032 0.996
4.782 4.324 1.108
4.759 4.423 1.168
4.565 4.589 1.134
4.527 4.791 1.010
4.493 5.142 1.132
5.099 3.437 1.048
5.328 3.454 0.932
5.318 3.781 0.947
5.257 3.985 1.001
5.137 4.047 0.912
5.089 4.264 0.940
4.929 4.449 0.970
4.853 4.779 1.110
4.647 4.897 1.090
4.690 5.205 1.009
5.427 3.598 0.908
5.470 3.521 0.895
5.460 3.719 0.895
5.313 3.980 0.881
5.356 4.285 0.992
5.211 4.410 0.954
5.118 4.546 0.901
5.085 4.774 1.042
4.869 4.983 1.005
4.363 6.314 1.124
5.642 3.392 1.003
5.495 3.687 0.919
0.080 1.266 2.352
0.150 1.451 2.250
0.234 1.054 2.280
0.109 1.147 2.374
0.269 1.395 2.304
0.302 1.424 2.301
0.109 1.718 2.283
0.125 1.985 2.321
-0.067 2.192 2.255
0.388 1.168 2.208
0.392 1.385 2.223
0.643 1.471 2.094
0.473 1.505 2.300
0.381 1.834 2.199
0.320 2.077 2.143
0.144 2.159 2.195
0.112 2.469 2.151
0.610 1.222 2.142
0.608 1.472 2.253
0.757 1.394 2.072
0.714 1.785 2.087
0.666 1.831 2.192
0.537 2.051 2.071
0.748 1.562 2.174
1.430 2.779 1.842
1.333 2.881 1.847
1.150 3.131 1.986
1.073 3.382 1.968
0.232 5.624 2.005
0.050 5.924 2.130
1.875 2.497 1.917
1.613 2.654 1.948
1.639 2.831 1.934
1.608 3.044 1.823
1.417 3.238 1.853
1.370 3.524 1.992
1.228 3.600 1.990
0.475 5.278 2.041
0.455 5.583 1.981
0.386 5.795 2.046
0.224 6.009 1.968
0.211 6.176 1.941
1.841 2.233 1.624
1.759 2.503 1.675
1.587 2.529 1.681
1.557 2.736 1.557
1.501 3.048 1.661
1.424 3.272 1.635
1.315 3.360 1.692
0.543 5.169 1.702
0.523 5.276 1.863
0.488 5.510 1.684
0.303 5.628 1.853
0.324 5.995 1.855
0.074 6.077 1.844
2.202 2.039 1.561
2.048 2.224 1.505
1.864 2.404 1.633
1.927 2.661 1.534
1.804 2.825 1.619
1.756 3.036 1.631
1.637 3.302 1.672
1.438 3.493 1.645
0.912 4.936 1.736
0.748 5.240 1.786
0.686 5.415 1.726
0.701 5.517 1.791
0.550 5.752 1.725
0.343 6.029 1.812
0.302 6.307 1.799
2.140 2.167 1.617
2.387 2.192 1.482
2.135 2.409 1.619
2.214 2.493 1.632
2.132 2.762 1.494
2.044 2.975 1.653
1.862 3.244 1.636
1.688 3.361 1.530
1.747 3.637 1.538
1.526 3.891 1.506
1.115 4.991 1.699
0.887 5.280 1.716
0.965 5.522 1.682
0.812 5.737 1.632
0.698 5.976 1.655
0.550 6.074 1.742
2.396 2.273 1.566
2.538 2.306 1.495
2.469 2.382 1.424
2.247 2.740 1.520
2.288 2.906 1.532
2.114 3.004 1.421
2.136 3.233 1.460
1.975 3.527 1.614
1.867 3.791 1.604
1.705 3.878 1.603
1.359 5.002 1.659
1.279 5.225 1.557
1.280 5.439 1.646
1.172 5.526 1.678
0.992 5.706 1.593
0.949 5.953 1.704
0.922 6.258 1.567
2.593 2.106 1.539
2.471 2.337 1.399
2.809 2.319 1.412
2.690 2.632 1.339
2.521 2.692 1.335
2.519 2.925 1.471
2.423 3.103 1.539
2.179 3.342 1.411
2.274 3.656 1.460
2.180 3.867 1.538
2.053 3.930 1.438
1.590 5.096 1.538
1.491 5.253 1.568
1.366 5.545 1.479
1.312 5.566 1.581
1.298 5.838 1.545
1.047 6.107 1.588
1.025 6.174 1.540
2.738 2.142 1.398
2.772 2.446 1.479
2.993 2.362 1.278
2.761 2.553 1.415
2.667 2.913 1.286
2.563 3.122 1.386
2.518 3.243 1.332
2.516 3.468 1.443
2.374 3.706 1.496
2.308 3.940 1.414
1.727 5.186 1.529
1.717 5.232 1.412
1.523 5.618 1.579
1.507 5.836 1.543
1.359 5.872 1.611
1.335 6.192 1.511
3.038 2.176 1.392
2.964 2.411 1.352
3.025 2.631 1.400
3.031 2.715 1.401
3.017 2.877 1.410
2.875 3.193 1.250
2.668 3.389 1.370
2.623 3.547 1.426
2.524 3.819 1.418
2.506 3.886 1.310
1.842 5.490 1.474
1.794 5.617 1.551
1.788 5.904 1.536
1.521 6.098 1.554
1.592 6.173 1.458
3.047 2.483 1.220
3.308 2.619 1.264
3.292 2.800 1.315
3.232 3.026 1.294
2.996 3.172 1.241
2.863 3.392 1.266
2.941 3.689 1.305
2.771 3.858 1.237
2.032 5.470 1.301
1.892 5.779 1.400
1.994 5.914 1.501
1.710 6.037 1.426
3.377 2.648 1.261
3.373 3.145 1.286
3.225 3.426 1.299
3.253 3.570 1.249
2.140 5.966 1.357
2.089 6.195 1.422
4.247 3.773 1.017
4.130 3.989 1.032
4.012 4.141 0.974
4.554 3.355 0.998
4.559 3.563 0.892
4.513 3.949 1.008
4.339 3.982 0.943
4.319 4.239 1.026
4.267 4.466 0.903
4.039 4.637 1.069
4.866 3.387 0.818
4.836 3.544 0.768
4.757 3.735 0.884
4.669 4.041 0.984
4.596 4.199 0.982
4.541 4.264 0.872
4.426 4.586 0.866
4.268 4.789 0.970
3.669 6.277 0.948
4.873 3.284 0.810
5.165 3.383 0.801
4.999 3.588 0.798
5.009 3.922 0.760
4.822 4.005 0.900
4.735 4.289 0.829
4.586 4.469 0.886
4.583 4.658 0.950
4.396 4.855 0.957
4.379 5.058 0.830
5.183 3.393 0.870
5.352 3.599 0.721
5.192 3.740 0.759
5.125 3.967 0.675
5.078 4.032 0.774
4.895 4.272 0.713
4.866 4.562 0.865
4.731 4.820 0.759
4.604 4.920 0.815
4.604 5.226 0.782
4.220 6.235 0.964
5.373 3.245 0.708
5.346 3.584 0.734
5.500 3.567 0.634
5.332 3.827 0.804
5.389 4.084 0.635
5.196 4.255 0.714
5.102 4.372 0.644
5.050 4.537 0.841
4.910 4.740 0.788
4.897 4.988 0.689
4.900 5.314 0.744
4.381 6.324 0.900
5.537 3.458 0.673
5.483 3.585 0.659
0.038 1.283 1.992
-0.051 1.394 2.181
0.128 0.952 2.061
0.038 1.142 2.124
0.320 1.215 2.072
0.176 1.468 2.059
0.086 1.794 2.028
0.054 1.969 2.024
0.342 1.309 1.993
0.443 1.459 1.989
0.332 1.606 2.068
0.334 1.843 2.090
0.160 1.945 1.935
0.221 2.303 1.965
0.000 2.396 1.923
0.428 1.442 2.061
0.510 1.906 1.879
0.379 2.044 1.887
0.380 2.280 1.954
1.376 2.554 1.797
1.347 2.791 1.735
1.365 3.026 1.770
0.181 5.405 1.839
0.059 5.636 1.849
0.022 5.741 1.794
1.842 2.213 1.645
1.716 2.405 1.604
1.708 2.569 1.652
1.485 2.871 1.617
1.547 3.043 1.697
1.305 3.330 1.695
1.328 3.505 1.659
0.597 5.021 1.789
0.591 5.259 1.671
0.476 5.414 1.854
0.245 5.661 1.871
0.307 5.865 1.801
0.129 6.131 1.806
1.924 2.042 1.439
1.703 2.127 1.372
1.680 2.501 1.329
1.687 2.633 1.431
1.412 2.716 1.422
1.476 3.062 1.348
1.408 3.265 1.452
0.670 4.868 1.568
0.622 5.049 1.594
0.348 5.316 1.553
0.331 5.472 1.632
0.293 5.725 1.599
0.227 5.819 1.628
0.130 6.033 1.551
1.860 2.030 1.342
2.161 2.154 1.304
1.907 2.218 1.282
1.909 2.409 1.415
1.890 2.774 1.327
1.728 2.895 1.425
1.622 3.099 1.324
1.473 3.260 1.357
1.358 3.595 1.326
0.805 4.952 1.384
0.776 5.249 1.515
0.635 5.327 1.407
0.546 5.654 1.518
0.426 5.876 1.584
0.396 5.896 1.580
0.320 6.128 1.445
2.035 2.082 1.377
2.329 2.170 1.240
2.230 2.375 1.253
2.050 2.498 1.376
2.078 2.859 1.304
1.877 2.929 1.395
1.832 3.247 1.313
1.805 3.486 1.319
1.691 3.675 1.282
1.099 4.825 1.489
1.099 5.025 1.505
0.873 5.173 1.503
0.746 5.470 1.371
0.719 5.639 1.492
0.755 5.823 1.410
0.626 6.000 1.500
2.407 1.920 1.307
2.295 2.139 1.316
2.513 2.349 1.324
2.387 2.464 1.246
2.384 2.641 1.249
2.276 2.921 1.248
2.194 2.990 1.370
1.958 3.253 1.346
2.030 3.491 1.374
1.852 3.637 1.228
1.745 3.923 1.382
1.379 4.972 1.368
1.200 5.142 1.382
1.120 5.249 1.412
1.027 5.534 1.454
0.960 5.769 1.480
0.900 6.039 1.466
0.737 6.262 1.469
2.482 2.040 1.301
2.536 2.300 1.177
2.605 2.399 1.108
2.584 2.592 1.224
2.552 2.725 1.292
2.398 2.871 1.321
2.225 3.142 1.160
2.266 3.320 1.316
2.149 3.549 1.240
1.951 3.874 1.291
1.954 4.050 1.325
1.479 5.039 1.290
1.373 5.146 1.367
1.410 5.525 1.387
1.312 5.547 1.273
1.071 5.809 1.393
1.057 6.055 1.395
0.924 6.158 1.472
2.736 2.049 1.280
2.631 2.334 1.197
2.774 2.462 1.239
2.791 2.582 1.130
2.723 2.903 1.117
2.526 3.055 1.080
