5.295 1.462 4.019
5.356 1.614 4.227
3.610 0.025 0.498
3.703 0.160 0.688
3.791 0.207 0.973
3.923 0.402 1.218
3.984 0.446 1.387
4.101 0.635 1.696
4.694 1.270 3.018
4.752 1.269 3.312
4.911 1.418 3.558
4.977 1.594 3.751
5.036 1.680 4.030
5.089 1.763 4.234
3.392 0.106 0.217
3.422 0.202 0.529
3.470 0.266 0.775
3.659 0.446 0.958
3.656 0.459 1.214
3.768 0.672 1.414
3.901 0.672 1.693
4.294 1.217 2.829
4.389 1.415 2.997
4.577 1.471 3.302
4.602 1.526 3.538
4.727 1.723 3.796
4.748 1.771 4.017
4.911 1.893 4.192
3.325 0.112 0.182
3.138 0.304 0.290
3.167 0.323 0.542
3.255 0.481 0.708
3.346 0.602 0.935
3.435 0.734 1.178
3.529 0.838 1.383
3.637 0.941 1.678
4.201 1.419 2.862
4.164 1.581 3.096
4.299 1.703 3.338
4.451 1.756 3.553
4.477 1.901 3.799
4.577 1.925 3.997
4.652 2.065 4.228
2.977 0.101 0.046
3.189 0.228 0.318
2.980 0.472 0.274
2.978 0.544 0.521
3.040 0.651 0.672
3.242 0.694 0.942
3.245 0.840 1.160
3.400 1.016 1.383
3.400 1.041 1.660
3.905 1.530 2.839
3.956 1.718 3.126
4.047 1.853 3.295
4.206 1.913 3.510
4.268 2.026 3.811
4.415 2.096 4.064
4.527 2.210 4.203
2.856 0.245 0.089
2.852 0.365 0.244
2.723 0.609 0.278
2.798 0.635 0.460
2.870 0.731 0.792
3.013 0.929 1.017
3.115 1.027 1.257
3.189 1.084 1.415
3.270 1.224 1.646
3.723 1.811 2.882
3.796 1.845 3.055
3.816 1.998 3.351
3.976 2.043 3.509
4.086 2.115 3.837
4.170 2.244 3.968
4.233 2.431 4.300
2.697 0.509 0.304
2.443 0.708 0.345
2.603 0.874 0.482
2.644 0.902 0.811
2.685 1.088 0.940
2.826 1.118 1.239
2.957 1.324 1.523
3.520 2.003 3.078
3.708 2.121 3.269
3.721 2.246 3.559
3.818 2.349 3.851
3.948 2.394 3.995
2.526 0.725 0.229
1.544 1.816 0.805
1.665 1.823 1.035
1.708 2.008 1.248
1.771 2.090 1.465
2.524 2.911 3.374
2.704 3.040 3.612
2.806 3.117 3.825
2.880 3.300 4.140
2.963 3.345 4.322
6.269 0.128 2.979
6.123 0.295 3.193
6.170 0.509 3.425
6.209 0.568 3.686
4.393 0.024 1.190
5.373 1.191 3.678
4.098 0.043 0.909
4.103 0.242 1.091
4.287 0.237 1.339
4.370 0.373 1.638
4.881 1.087 3.043
4.984 1.167 3.227
5.137 1.207 3.534
5.122 1.386 3.768
5.306 1.497 3.987
5.309 1.551 4.231
3.961 0.016 1.310
4.159 0.146 1.500
4.699 0.812 2.995
4.694 0.911 3.236
4.795 0.904 3.407
4.943 1.138 3.615
5.030 1.170 3.890
5.138 1.348 4.101
3.741 -0.001 1.034
3.745 0.146 1.365
3.949 0.335 1.579
4.033 0.363 1.785
4.489 0.974 2.899
4.496 1.087 3.235
4.629 1.091 3.466
4.753 1.192 3.614
4.744 1.317 3.891
4.968 1.471 4.053
5.007 1.535 4.327
3.258 -0.017 0.615
3.341 0.147 0.893
3.544 0.220 1.035
3.535 0.360 1.332
3.618 0.441 1.511
3.814 0.518 1.799
4.238 1.013 2.988
4.264 1.199 3.212
4.472 1.245 3.470
4.519 1.383 3.717
4.523 1.438 3.876
4.747 1.574 4.163
4.794 1.706 4.391
2.993 0.045 0.387
3.105 0.196 0.605
3.161 0.213 0.823
3.235 0.405 1.157
3.399 0.533 1.286
3.506 0.629 1.512
3.609 0.702 1.751
3.989 1.246 2.974
4.138 1.344 3.155
4.244 1.491 3.456
4.256 1.511 3.686
4.325 1.631 3.965
4.498 1.746 4.193
4.611 1.942 4.331
2.933 0.021 0.397
2.809 0.166 0.411
2.832 0.352 0.594
3.025 0.450 0.926
3.083 0.582 1.134
3.129 0.646 1.282
3.202 0.714 1.638
3.342 0.837 1.829
3.745 1.409 3.035
3.889 1.490 3.261
3.908 1.648 3.507
4.084 1.768 3.709
4.207 1.883 3.956
4.256 1.974 4.184
4.342 2.009 4.384
2.733 0.235 0.464
2.569 0.434 0.381
2.680 0.539 0.625
2.713 0.601 0.918
2.894 0.655 1.100
2.888 0.749 1.341
3.080 0.936 1.659
3.120 0.959 1.760
3.689 1.722 3.293
3.754 1.821 3.460
3.877 1.918 3.710
3.939 2.011 3.982
4.049 2.045 4.148
4.135 2.242 4.425
2.530 0.407 0.438
2.435 0.608 0.707
2.533 0.814 0.858
2.581 0.913 1.163
2.647 0.975 1.352
2.851 1.073 1.612
2.830 1.213 1.846
3.580 1.898 3.410
3.600 2.091 3.729
3.757 2.164 3.935
3.799 2.277 4.164
3.851 2.309 4.413
1.187 1.305 0.487
1.351 1.486 0.664
1.374 1.606 1.015
1.541 1.679 1.154
1.605 1.773 1.454
2.334 2.693 3.323
2.412 2.720 3.542
2.493 2.895 3.724
2.619 2.954 4.034
1.301 1.411 0.446
6.233 0.100 3.631
6.010 0.222 3.602
6.177 0.405 3.751
6.228 0.479 4.067
5.029 0.749 3.415
5.148 0.848 3.655
4.003 -0.022 1.355
4.117 0.167 1.530
4.673 0.709 2.929
4.791 0.884 3.105
4.780 1.014 3.437
4.882 1.115 3.622
4.965 1.124 3.934
5.114 1.225 4.042
4.424 0.460 2.830
4.595 0.580 3.091
4.598 0.706 3.298
4.739 0.745 3.582
4.864 0.904 3.767
4.905 1.042 3.976
3.803 0.039 1.749
4.376 0.772 3.090
4.385 0.800 3.378
4.526 0.879 3.606
4.574 1.056 3.791
4.676 1.203 4.070
4.728 1.315 4.227
3.344 0.001 1.197
3.508 0.186 1.463
3.507 0.308 1.721
3.690 0.370 1.921
4.142 0.856 3.166
4.161 0.954 3.346
4.329 1.085 3.512
4.377 1.242 3.828
4.482 1.342 3.994
4.506 1.468 4.315
4.608 1.498 4.476
3.110 0.139 1.047
3.188 0.231 1.181
3.297 0.264 1.478
3.303 0.397 1.672
3.456 0.469 1.957
3.929 0.979 3.061
3.959 1.173 3.402
4.021 1.293 3.516
4.101 1.397 3.850
4.205 1.417 4.079
4.372 1.575 4.333
4.442 1.714 4.563
2.598 0.038 0.495
2.694 0.071 0.727
2.787 0.259 1.044
2.968 0.382 1.289
3.010 0.394 1.531
3.163 0.523 1.712
3.199 0.642 1.989
3.297 0.717 2.133
3.684 1.342 3.368
3.854 1.443 3.551
3.980 1.508 3.868
3.949 1.598 4.102
4.082 1.765 4.355
4.244 1.850 4.477
2.603 0.094 0.605
2.539 0.357 0.748
2.647 0.450 1.039
2.637 0.493 1.290
2.821 0.681 1.520
2.849 0.688 1.722
2.985 0.863 2.007
3.026 0.911 2.158
3.562 1.547 3.656
3.689 1.707 3.814
3.764 1.751 4.103
3.946 1.848 4.250
3.972 1.946 4.518
2.452 0.531 0.989
2.503 0.696 1.209
2.557 0.788 1.500
2.649 0.843 1.731
2.759 1.001 1.975
2.834 1.118 2.273
3.525 1.871 3.917
3.540 2.000 4.090
3.693 2.076 4.375
3.798 2.136 4.612
2.316 0.897 1.525
2.504 1.051 1.814
2.492 1.157 2.030
2.672 1.285 2.226
3.442 2.283 4.312
3.504 2.314 4.523
1.361 1.002 0.677
2.297 2.093 2.923
2.372 2.144 3.230
2.452 2.322 3.409
1.197 0.934 0.390
1.276 0.956 0.581
1.071 1.164 0.630
1.224 1.314 0.846
1.243 1.363 1.154
1.400 1.526 1.374
2.037 2.270 2.988
2.073 2.400 3.157
2.187 2.489 3.496
2.325 2.487 3.724
2.318 2.686 3.959
1.062 1.056 0.365
1.066 1.169 0.650
6.150 0.011 3.884
6.008 0.145 3.934
6.136 0.277 4.211
6.171 0.460 4.436
4.678 0.238 2.868
4.752 0.406 3.032
4.907 0.544 3.278
4.957 0.666 3.528
4.373 0.502 2.827
4.482 0.523 3.044
4.583 0.611 3.270
4.705 0.793 3.544
4.771 0.914 3.773
4.879 0.944 3.982
4.265 0.175 2.806
4.295 0.303 2.918
4.395 0.337 3.208
4.476 0.534 3.385
4.519 0.638 3.731
4.623 0.714 3.944
4.140 0.398 2.954
4.199 0.557 3.193
4.229 0.595 3.399
4.406 0.729 3.760
4.496 0.794 3.866
4.484 0.926 4.228
3.464 0.020 1.858
3.925 0.699 3.194
4.049 0.835 3.496
4.156 0.883 3.774
4.283 1.030 3.915
4.328 1.054 4.135
4.377 1.269 4.389
3.031 0.083 1.632
3.135 0.253 1.888
3.267 0.360 2.147
3.877 1.016 3.484
3.896 1.125 3.772
4.019 1.205 3.947
4.163 1.232 4.239
4.130 1.326 4.359
4.244 1.471 4.656
2.700 0.071 1.094
2.834 0.198 1.402
2.820 0.313 1.559
2.903 0.392 1.867
3.062 0.465 2.040
3.197 0.606 2.384
3.690 1.270 3.753
3.783 1.385 3.974
3.873 1.488 4.258
3.920 1.526 4.383
4.021 1.600 4.712
2.412 0.276 1.130
2.615 0.270 1.337
2.651 0.438 1.704
2.772 0.563 1.923
2.865 0.620 2.111
2.866 0.784 2.391
3.637 1.492 3.998
3.671 1.652 4.223
3.748 1.755 4.508
3.897 1.844 4.621
2.301 0.456 1.467
2.402 0.549 1.685
2.561 0.648 1.890
2.623 0.847 2.073
2.731 0.891 2.418
2.824 0.997 2.559
3.420 1.829 4.159
3.582 1.890 4.410
3.575 1.946 4.685
2.173 0.759 1.674
2.242 0.816 1.880
2.347 0.938 2.153
2.540 1.135 2.343
2.554 1.158 2.634
2.628 1.230 2.849
3.283 2.101 4.535
3.416 2.081 4.670
1.620 0.088 0.310
2.150 1.113 2.138
2.254 1.288 2.400
2.427 1.273 2.588
2.417 1.513 2.848
2.478 1.579 3.134
3.125 2.239 4.736
1.398 0.109 0.029
1.400 0.281 0.241
1.536 0.356 0.554
1.371 0.670 0.806
2.034 1.445 2.333
2.170 1.473 2.577
2.272 1.637 2.912
2.319 1.760 3.132
2.473 1.814 3.282
1.205 0.355 0.095
1.231 0.468 0.249
1.261 0.538 0.469
1.447 0.666 0.739
1.217 0.777 0.747
1.233 0.925 0.987
1.952 1.705 2.570
2.016 1.789 2.902
2.049 1.918 3.170
2.135 1.960 3.392
2.333 2.120 3.576
0.955 0.536 0.024
1.034 0.550 0.320
1.134 0.653 0.515
1.174 0.775 0.745
1.023 0.937 0.801
1.062 1.046 0.946
1.094 1.241 1.285
1.803 1.975 2.844
1.920 1.973 3.079
2.033 2.103 3.388
2.113 2.224 3.564
2.158 2.351 3.754
2.271 2.522 4.008
0.751 0.643 0.052
0.727 0.788 0.253
0.877 0.900 0.501
0.974 0.905 0.723
6.233 0.001 4.496
5.898 0.103 4.274
6.077 0.227 4.564
5.859 0.371 4.598
4.823 0.072 3.141
4.924 0.088 3.404
4.525 0.074 2.944
4.620 0.206 3.252
4.693 0.346 3.404
4.812 0.483 3.714
4.233 0.172 2.729
4.330 0.295 3.037
4.434 0.431 3.172
4.512 0.433 3.462
4.544 0.644 3.699
4.709 0.674 3.853
4.110 0.106 3.098
4.302 0.232 3.419
4.419 0.325 3.628
4.510 0.398 3.827
3.890 0.215 3.137
4.065 0.304 3.304
4.172 0.444 3.631
4.175 0.500 3.772
4.274 0.664 4.104
3.933 0.547 3.621
4.053 0.663 3.843
4.106 0.875 4.035
4.253 0.882 4.348
3.795 0.933 3.863
3.932 1.046 4.151
3.915 1.120 4.362
4.102 1.172 4.571
2.693 0.081 1.709
2.855 0.162 1.938
2.970 0.324 2.224
3.719 1.099 4.115
3.715 1.268 4.372
3.823 1.316 4.640
3.869 1.510 4.805
2.536 0.295 1.715
2.565 0.392 2.061
2.751 0.405 2.277
2.807 0.585 2.429
2.937 0.626 2.779
3.563 1.428 4.402
3.579 1.470 4.643
3.721 1.601 4.838
2.340 0.453 1.807
2.374 0.543 2.058
2.527 0.618 2.240
2.560 0.688 2.431
2.655 0.798 2.765
2.700 0.928 2.999
3.379 1.735 4.644
3.473 1.774 4.860
2.122 0.710 2.065
2.294 0.753 2.334
2.395 0.922 2.571
2.428 1.051 2.758
2.551 1.104 2.916
2.663 1.189 3.184
3.188 1.815 4.557
3.246 1.979 4.855
1.636 0.073 0.677
1.539 0.333 0.939
1.922 0.776 2.030
2.034 0.905 2.318
2.168 1.083 2.474
2.295 1.123 2.693
2.254 1.252 3.050
2.471 1.336 3.261
2.438 1.415 3.488
3.049 2.070 4.899
1.290 0.085 0.476
1.394 0.212 0.673
1.514 0.322 0.943
1.284 0.461 0.874
1.869 1.040 2.265
1.870 1.171 2.487
1.952 1.334 2.759
2.127 1.400 3.005
2.191 1.532 3.244
2.325 1.634 3.477
2.390 1.762 3.678
2.852 2.276 4.932
0.941 0.116 0.235
1.132 0.192 0.482
1.217 0.389 0.639
1.249 0.409 0.868
0.998 0.575 0.893
1.189 0.744 1.076
1.714 1.416 2.529
1.749 1.528 2.710
1.879 1.577 3.016
1.997 1.618 3.191
2.018 1.772 3.432
2.179 1.921 3.751
0.728 0.240 0.170
0.886 0.402 0.456
0.909 0.538 0.695
1.109 0.550 0.873
0.840 0.824 0.950
0.875 0.921 1.101
1.558 1.614 2.801
1.689 1.767 2.973
1.710 1.781 3.202
1.902 1.931 3.435
1.879 2.015 3.742
2.047 2.232 4.010
0.597 0.430 0.152
0.693 0.576 0.392
0.718 0.718 0.684
0.825 0.830 0.888
5.873 -0.026 4.727
5.553 0.048 4.447
5.706 0.107 4.729
5.444 0.332 4.725
4.520 -0.003 3.353
4.575 0.186 3.552
4.718 0.200 3.779
4.141 0.072 3.106
4.263 0.194 3.354
4.399 0.257 3.613
4.476 0.446 3.772
4.189 0.134 3.747
3.786 -0.009 3.338
3.886 0.095 3.489
3.948 0.199 3.765
2.489 0.154 2.215
2.562 0.211 2.454
2.603 0.404 2.622
2.738 0.414 2.818
2.783 0.618 3.065
3.620 1.397 4.956
2.281 0.279 2.145
2.339 0.434 2.369
2.508 0.495 2.581
2.558 0.646 2.864
2.685 0.773 3.152
2.742 0.795 3.337
3.291 1.487 4.751
3.345 1.569 4.924
2.000 0.483 2.242
2.115 0.589 2.356
2.215 0.648 2.685
2.334 0.807 2.817
2.434 0.844 3.098
2.526 1.058 3.389
2.552 1.100 3.582
3.044 1.681 4.693
3.106 1.695 4.996
1.394 0.117 1.053
1.864 0.675 2.198
1.965 0.755 2.387
2.063 0.803 2.680
2.071 0.942 2.947
2.187 1.062 3.127
2.310 1.228 3.337
2.362 1.265 3.637
2.489 1.425 3.776
2.955 1.955 5.012
1.311 0.158 1.071
1.199 0.296 1.008
1.179 0.350 1.242
1.647 0.826 2.182
1.713 0.920 2.461
1.831 0.967 2.730
1.865 1.099 2.897
2.005 1.206 3.198
2.065 1.270 3.334
2.208 1.406 3.538
2.202 1.483 3.807
2.738 2.102 5.071
0.929 0.004 0.500
1.109 0.145 0.798
1.104 0.267 1.008
0.914 0.477 1.077
0.972 0.558 1.254
1.490 1.027 2.493
1.533 1.133 2.734
1.589 1.295 2.936
1.772 1.335 3.201
1.788 1.474 3.404
1.875 1.637 3.682
2.042 1.735 3.795
2.506 2.203 5.012
0.601 0.136 0.367
0.713 0.169 0.589
0.891 0.303 0.862
0.909 0.452 1.030
0.737 0.600 1.078
0.750 0.753 1.248
1.283 1.266 2.658
1.426 1.421 2.985
1.514 1.572 3.124
1.645 1.709 3.452
1.750 1.777 3.694
1.795 1.920 3.812
0.303 0.181 0.148
0.400 0.261 0.394
0.468 0.420 0.596
0.648 0.528 0.818
0.644 0.613 1.047
5.351 0.141 4.818
5.105 0.252 4.881
4.179 0.121 3.732
5.772 4.817 -0.005
5.870 4.982 0.197
5.529 4.934 -0.012
5.685 5.062 0.247
5.748 5.130 0.434
5.350 5.196 0.020
5.428 5.260 0.204
5.581 5.370 0.488
5.585 5.403 0.766
6.013 5.992 1.939
5.074 5.312 0.001
5.196 5.453 0.230
5.259 5.461 0.478
5.336 5.590 0.797
5.792 6.206 1.931
4.931 5.417 0.041
5.037 5.608 0.345
5.099 5.678 0.467
5.135 5.819 0.757
4.727 5.610 0.045
4.776 5.740 0.271
4.843 5.843 0.581
4.957 5.903 0.752
4.500 5.749 0.119
4.570 5.864 0.255
4.638 5.931 0.487
4.692 6.094 0.752
5.693 4.605 0.089
5.726 4.688 0.338
5.872 4.768 0.582
5.398 4.818 0.120
5.552 4.861 0.404
5.660 5.048 0.679
5.747 5.135 0.923
5.240 4.884 0.130
5.248 4.996 0.409
5.462 5.136 0.670
5.553 5.276 0.848
5.993 5.741 2.002
4.985 5.099 0.181
5.094 5.167 0.407
5.181 5.344 0.625
5.240 5.431 0.857
5.748 5.977 2.110
4.841 5.314 0.198
4.925 5.321 0.373
4.994 5.442 0.682
4.990 5.543 0.828
5.561 6.081 2.092
4.571 5.464 0.174
4.579 5.596 0.402
4.711 5.699 0.624
4.328 5.602 0.166
4.398 5.652 0.396
4.501 5.792 0.737
5.913 4.546 0.764
5.961 4.575 0.956
6.127 4.636 1.190
6.234 4.828 1.416
5.482 4.483 0.330
5.604 4.469 0.473
5.697 4.593 0.692
5.758 4.724 1.048
5.861 4.795 1.189
5.253 4.485 0.094
5.326 4.532 0.240
5.387 4.752 0.585
5.477 4.853 0.823
5.524 4.942 0.940
5.620 4.999 1.218
4.985 4.624 0.095
5.099 4.795 0.251
5.147 4.864 0.486
5.240 4.952 0.724
5.416 5.075 0.995
4.740 4.793 0.123
4.910 4.954 0.267
4.918 4.967 0.586
4.976 5.086 0.779
5.089 5.219 1.048
5.577 5.758 2.130
4.531 5.027 0.068
4.693 5.106 0.282
4.782 5.176 0.622
4.881 5.331 0.789
5.369 5.916 2.208
4.388 5.101 0.118
4.476 5.263 0.311
4.519 5.348 0.554
4.559 5.471 0.848
5.016 5.990 2.037
5.136 6.094 2.217
4.104 5.295 0.116
4.232 5.370 0.300
4.354 5.482 0.583
4.775 6.174 2.010
4.876 6.275 2.230
6.098 4.188 1.147
6.170 4.382 1.298
6.318 4.503 1.523
5.770 4.249 0.931
5.849 4.403 1.136
5.957 4.545 1.324
6.010 4.625 1.521
6.156 4.782 1.870
6.290 4.881 2.080
5.457 4.321 0.725
5.541 4.399 0.947
5.695 4.561 1.184
5.757 4.626 1.377
5.810 4.805 1.657
5.997 4.928 1.894
5.107 4.345 0.449
5.191 4.566 0.636
5.332 4.647 0.860
5.480 4.714 1.131
5.540 4.825 1.340
5.641 4.932 1.563
4.919 4.414 0.232
4.959 4.601 0.479
4.999 4.711 0.708
5.140 4.711 0.941
5.250 4.927 1.183
5.373 5.014 1.391
4.578 4.566 0.288
4.691 4.697 0.483
4.841 4.760 0.725
4.855 4.913 0.868
4.980 5.047 1.170
4.351 4.691 -0.045
4.386 4.759 0.260
4.544 4.869 0.436
4.628 4.922 0.716
4.715 5.100 0.950
5.228 5.795 2.384
4.098 4.857 0.056
4.261 4.982 0.260
4.328 5.058 0.445
4.396 5.196 0.726
4.955 5.728 2.122
5.053 5.889 2.392
3.856 5.041 0.042
4.007 5.155 0.310
4.066 5.145 0.511
4.594 5.898 1.889
4.745 6.003 2.081
4.855 6.050 2.428
6.121 5.568 3.031
6.222 5.631 3.247
6.238 6.044 3.683
5.817 5.684 2.804
5.977 5.717 3.005
6.013 5.861 3.251
6.187 5.972 3.450
6.252 6.016 3.710
6.067 6.199 3.679
5.557 5.623 2.621
5.583 5.850 2.754
5.687 5.882 3.063
5.835 6.029 3.226
5.906 6.114 3.499
5.939 6.264 3.726
5.266 5.789 2.582
5.396 5.982 2.771
5.474 6.056 3.038
5.662 6.221 3.340
5.661 6.285 3.565
5.049 6.040 2.552
5.205 6.131 2.833
5.335 6.280 3.072
4.915 6.135 2.602
5.040 6.215 2.806
6.099 5.512 3.440
6.211 5.531 3.659
6.147 5.886 3.863
6.233 5.971 4.136
5.877 5.598 3.357
5.999 5.701 3.576
6.154 5.893 3.812
5.687 5.835 3.476
5.744 5.969 3.668
5.274 5.728 3.002
5.395 5.815 3.176
4.975 5.874 2.670
5.092 5.890 2.977
4.763 5.929 2.681
4.787 6.070 3.018
6.181 5.517 4.026
6.300 5.566 4.251
6.150 5.541 4.059
6.277 4.264 2.963
6.081 4.458 2.985
6.289 5.209 4.090
6.200 5.137 4.101
6.071 5.373 4.356
6.167 5.598 4.565
5.053 6.170 4.487
6.103 4.070 3.039
5.911 4.209 3.017
6.194 5.053 4.440
5.706 4.470 3.079
6.041 5.302 4.731
6.131 5.385 4.985
6.327 5.527 5.227
5.520 4.528 3.130
6.207 5.859 5.403
4.868 5.987 4.333
4.928 5.995 4.602
5.013 6.098 4.812
5.138 6.218 5.088
4.704 5.838 4.058
4.866 5.958 4.343
5.696 4.108 3.198
6.178 4.959 4.849
6.251 5.099 5.107
5.482 4.301 3.270
5.666 4.393 3.417
6.068 5.247 5.105
6.079 5.349 5.330
6.268 5.407 5.541
5.362 4.424 3.182
5.413 4.552 3.517
5.942 5.475 5.395
5.979 5.669 5.649
6.063 5.686 5.895
6.258 5.797 6.065
5.158 4.536 3.317
5.239 4.629 3.425
5.220 4.796 3.675
5.818 5.854 5.790
5.983 6.041 6.104
4.813 4.696 3.306
4.969 4.769 3.514
5.049 4.935 3.745
5.193 5.012 3.950
4.687 5.024 3.509
4.791 5.067 3.748
4.979 5.146 3.983
4.992 5.293 4.216
4.835 5.641 4.503
4.928 5.736 4.705
4.597 5.203 3.787
4.743 5.335 4.013
4.766 5.449 4.294
4.856 5.578 4.493
4.656 5.714 4.450
4.775 5.824 4.750
4.894 5.996 4.896
4.933 6.092 5.224
4.453 5.482 4.037
4.520 5.602 4.255
4.705 5.732 4.457
6.331 4.624 5.024
5.693 3.880 3.301
6.190 4.893 5.195
6.229 4.960 5.443
5.397 3.982 3.440
5.499 4.099 3.582
5.993 5.154 5.467
6.116 5.264 5.791
6.212 5.390 5.918
6.321 5.501 6.212
5.170 4.268 3.326
5.323 4.248 3.652
5.325 4.377 3.800
5.828 5.475 5.716
5.994 5.506 5.995
6.032 5.663 6.217
5.026 4.429 3.342
5.114 4.514 3.589
5.093 4.574 3.914
5.233 4.725 4.060
5.593 5.651 5.717
5.801 5.746 6.048
5.852 5.756 6.256
4.787 4.520 3.389
4.845 4.669 3.663
4.873 4.750 3.827
5.006 4.914 4.129
5.162 4.974 4.354
5.035 5.211 4.529
5.475 5.904 5.958
5.556 6.010 6.200
4.480 4.749 3.399
4.599 4.741 3.696
4.659 4.895 3.946
4.813 4.982 4.092
4.957 5.068 4.395
5.042 5.239 4.657
4.821 5.418 4.654
4.828 5.480 4.872
5.407 6.178 6.237
4.363 5.015 3.647
4.434 5.000 3.909
4.548 5.205 4.132
4.629 5.215 4.373
4.821 5.391 4.575
4.476 5.523 4.586
4.593 5.719 4.854
4.736 5.707 5.103
4.277 5.176 3.946
4.396 5.306 4.092
4.486 5.375 4.395
4.538 5.500 4.562
6.050 4.795 5.573
6.168 4.978 5.821
6.300 4.996 6.137
5.270 3.832 3.574
5.393 3.950 3.748
5.411 4.030 3.982
6.027 5.121 5.888
6.048 5.168 6.149
5.029 4.026 3.497
5.110 4.108 3.788
5.218 4.195 3.963
5.380 4.304 4.207
5.715 5.193 5.840
5.816 5.405 6.120
4.774 4.133 3.584
4.899 4.324 3.752
4.984 4.424 3.942
5.088 4.464 4.260
5.252 4.611 4.480
5.084 4.881 4.666
5.477 5.369 5.925
5.591 5.554 6.154
4.644 4.292 3.488
4.676 4.411 3.845
4.855 4.487 4.056
4.936 4.636 4.259
5.017 4.704 4.510
5.059 4.810 4.741
4.799 4.990 4.779
5.347 5.698 6.091
4.406 4.441 3.568
4.524 4.612 3.858
4.566 4.696 4.036
4.679 4.787 4.298
4.735 4.890 4.521
4.843 5.004 4.742
4.606 5.140 4.755
4.741 5.302 4.922
5.223 5.826 6.101
4.180 4.677 3.597
4.279 4.792 3.792
4.408 4.831 3.978
4.397 4.914 4.318
4.521 5.058 4.560
4.586 5.239 4.791
4.457 5.420 4.797
4.476 5.481 5.024
4.051 4.946 3.828
4.110 5.059 4.046
4.172 5.124 4.322
4.349 5.270 4.462
4.469 5.361 4.745
6.199 2.863 3.649
6.108 4.831 6.210
5.201 3.670 3.637
5.224 3.826 3.862
5.375 3.815 4.057
5.432 3.960 4.356
5.793 4.851 5.966
5.904 4.953 6.182
4.957 3.754 3.645
5.013 3.887 3.884
5.068 3.970 4.195
5.173 4.133 4.428
5.322 4.292 4.594
5.170 4.460 4.842
5.598 5.007 5.978
5.732 5.204 6.241
4.674 3.926 3.713
4.801 4.073 3.921
4.900 4.136 4.201
4.920 4.362 4.447
5.022 4.397 4.606
5.143 4.485 4.798
4.926 4.632 4.902
5.346 5.277 6.085
5.439 5.280 6.290
4.493 4.183 3.708
4.570 4.269 3.892
4.680 4.299 4.132
4.734 4.511 4.447
4.787 4.575 4.678
4.894 4.674 4.850
4.780 4.895 4.811
4.769 4.980 5.090
5.172 5.368 6.046
5.286 5.467 6.298
4.319 4.370 3.737
4.362 4.361 4.001
4.487 4.510 4.208
4.493 4.590 4.454
4.649 4.764 4.653
4.747 4.869 4.880
4.543 4.946 4.931
4.609 5.101 5.166
4.093 4.414 3.648
4.077 4.532 3.911
4.157 4.660 4.225
4.257 4.762 4.350
4.382 4.923 4.583
4.462 5.036 4.882
4.239 5.190 4.833
3.795 4.664 3.685
3.880 4.753 3.922
3.960 4.836 4.163
4.131 4.964 4.413
4.149 5.026 4.642
4.229 5.144 4.841
6.267 2.891 3.566
6.046 2.624 3.667
6.177 2.740 4.014
5.965 2.883 3.943
6.094 3.066 4.272
5.163 3.537 4.035
5.243 3.700 4.223
5.229 3.746 4.508
5.354 3.945 4.674
5.237 4.150 5.042
4.740 3.674 3.851
4.842 3.794 3.998
4.970 3.781 4.281
5.038 3.929 4.545
5.213 4.085 4.711
5.205 4.205 4.927
5.009 4.354 4.944
4.616 3.805 3.769
4.689 3.869 4.102
4.763 4.025 4.318
4.904 4.097 4.502
4.864 4.270 4.748
4.959 4.275 4.942
4.827 4.474 5.065
4.943 4.657 5.244
5.250 5.047 6.140
4.409 4.007 3.848
4.499 4.062 4.119
4.508 4.146 4.356
4.611 4.236 4.522
4.763 4.435 4.804
4.738 4.520 4.967
4.535 4.670 5.076
5.028 5.181 6.205
4.106 4.145 3.849
4.177 4.247 4.069
4.262 4.312 4.270
4.357 4.476 4.538
4.467 4.591 4.838
4.577 4.696 4.970
4.325 4.743 4.972
4.777 5.366 6.203
3.931 4.296 3.890
4.024 4.350 4.070
4.128 4.480 4.259
4.161 4.562 4.614
4.282 4.687 4.828
4.308 4.864 4.973
4.102 5.028 5.076
3.688 4.437 3.824
3.778 4.525 4.160
3.881 4.627 4.295
3.996 4.744 4.525
4.002 4.891 4.736
4.134 4.918 5.017
6.097 2.705 3.729
6.229 2.825 3.965
6.023 2.520 3.894
6.061 2.549 4.061
6.197 2.668 4.380
6.310 2.757 4.622
5.727 2.620 3.947
5.784 2.723 4.096
5.297 3.857 5.156
5.445 3.890 5.379
5.048 3.511 4.365
5.207 3.566 4.689
5.200 3.708 4.871
5.266 3.810 5.164
5.174 3.985 5.153
5.220 4.121 5.400
4.757 3.589 4.220
4.848 3.659 4.377
4.972 3.718 4.709
5.033 3.914 4.830
5.090 3.906 5.109
4.876 4.175 5.169
5.031 4.271 5.306
4.390 3.621 3.929
4.486 3.662 4.225
4.650 3.803 4.462
4.720 3.906 4.676
4.764 4.073 4.942
4.905 4.098 5.114
4.681 4.313 5.127
4.724 4.452 5.350
4.198 3.806 3.973
4.333 3.840 4.237
4.435 3.963 4.444
4.468 4.133 4.716
4.585 4.206 4.950
4.635 4.347 5.097
4.406 4.449 5.203
4.034 3.971 3.937
4.134 4.089 4.258
4.130 4.088 4.422
4.287 4.218 4.642
4.391 4.388 4.969
4.429 4.400 5.190
4.164 4.591 5.183
3.753 4.084 3.958
3.819 4.156 4.260
3.982 4.258 4.514
4.076 4.351 4.684
4.074 4.509 4.991
4.230 4.608 5.151
3.509 4.210 4.033
3.669 4.414 4.250
3.800 4.409 4.520
3.814 4.539 4.658
3.897 4.735 4.904
6.210 2.335 3.927
6.274 2.441 4.153
5.993 2.443 3.844
6.001 2.630 4.069
6.142 2.746 4.299
6.227 2.722 4.543
5.787 2.322 3.960
5.871 2.319 4.236
6.032 2.541 4.482
5.660 2.495 3.986
5.770 2.552 4.308
6.080 3.350 5.729
6.103 3.430 5.938
6.247 3.567 6.211
5.727 3.382 5.438
5.774 3.567 5.724
5.866 3.598 5.879
5.940 3.759 6.218
5.398 3.437 5.244
5.493 3.592 5.420
5.536 3.633 5.662
5.691 3.750 5.875
5.364 3.414 4.962
5.463 3.461 5.262
5.139 3.634 5.287
5.302 3.701 5.478
5.313 3.828 5.725
5.404 3.885 6.007
5.005 3.375 4.749
5.131 3.476 5.075
5.258 3.617 5.283
4.934 3.816 5.249
5.122 3.932 5.507
5.105 3.937 5.761
4.763 3.493 4.619
4.730 3.509 4.755
4.941 3.627 5.031
5.041 3.766 5.196
4.716 3.951 5.205
4.799 4.004 5.460
4.392 3.476 4.363
4.496 3.578 4.628
4.603 3.761 4.737
4.652 3.859 5.011
4.761 3.973 5.307
4.565 4.092 5.285
4.016 3.559 4.157
4.180 3.707 4.327
4.285 3.787 4.552
4.291 3.950 4.870
4.440 3.932 5.091
4.569 4.101 5.339
4.352 4.248 5.250
3.880 3.696 4.157
3.965 3.896 4.361
4.097 3.986 4.642
4.146 4.054 4.831
4.269 4.201 5.042
4.353 4.211 5.353
3.587 3.900 4.098
3.684 3.947 4.333
3.863 4.085 4.547
3.870 4.251 4.851
3.996 4.380 5.135
4.260 5.044 6.257
3.433 3.994 4.157
3.487 4.092 4.410
3.634 4.229 4.580
3.656 4.376 4.889
6.283 1.970 3.959
6.003 2.140 4.062
6.203 2.207 4.293
6.301 2.300 4.507
5.814 2.302 4.011
5.879 2.448 4.225
6.086 2.485 4.456
5.686 2.119 4.197
5.848 2.126 4.396
6.118 3.045 5.837
6.213 3.082 6.040
5.537 2.253 4.233
5.641 2.399 4.464
5.800 3.010 5.572
5.883 3.097 5.843
6.027 3.289 6.027
5.321 2.471 4.197
5.479 3.050 5.361
5.592 3.274 5.590
5.647 3.354 5.861
5.787 3.418 6.117
5.462 3.120 5.384
5.323 3.200 5.433
5.407 3.390 5.671
5.439 3.485 5.900
5.499 3.618 6.069
5.185 3.114 5.127
5.310 3.316 5.396
5.024 3.451 5.429
5.122 3.497 5.680
5.260 3.684 5.894
5.384 3.729 6.148
4.955 3.259 5.199
5.103 3.428 5.324
4.836 3.622 5.344
4.883 3.637 5.611
5.056 3.796 5.833
5.147 3.853 6.079
4.703 3.367 4.946
4.813 3.453 5.127
4.847 3.547 5.374
4.635 3.730 5.435
4.725 3.815 5.702
4.294 3.429 4.701
4.479 3.473 4.934
4.538 3.691 5.132
4.677 3.734 5.367
4.446 3.891 5.376
4.058 3.448 4.419
4.089 3.584 4.665
4.154 3.646 4.936
4.279 3.749 5.220
4.436 3.921 5.403
3.775 3.475 4.297
3.761 3.664 4.473
3.923 3.717 4.762
3.939 3.793 4.902
3.538 3.749 4.329
3.534 3.863 4.554
3.694 3.884 4.743
4.009 4.752 6.112
3.298 3.894 4.326
3.375 3.929 4.467
3.517 4.116 4.692
6.189 1.758 4.127
6.272 1.887 4.329
5.886 1.927 4.180
6.046 1.985 4.339
6.162 2.102 4.633
5.732 2.089 4.123
5.760 2.134 4.399
6.143 2.575 5.934
5.633 1.908 4.235
5.889 2.724 5.727
5.977 2.824 5.982
6.038 2.874 6.223
5.285 2.075 4.281
5.607 2.768 5.545
5.644 2.801 5.728
5.812 2.956 5.991
5.843 3.090 6.239
5.063 2.252 4.317
5.607 2.763 5.437
5.344 2.888 5.567
5.482 2.958 5.702
5.603 3.090 5.973
5.705 3.280 6.175
4.858 2.403 4.373
5.303 2.848 5.533
5.164 3.088 5.465
5.224 3.111 5.777
5.298 3.298 5.955
5.401 3.406 6.221
5.016 2.977 5.286
5.096 3.130 5.569
4.875 3.228 5.555
4.970 3.370 5.819
5.130 3.442 6.020
5.253 3.576 6.198
4.870 3.059 5.310
4.971 3.261 5.542
4.726 3.411 5.517
4.825 3.457 5.809
4.929 3.657 6.003
4.953 3.712 6.272
4.578 3.297 5.280
4.646 3.351 5.521
4.489 3.589 5.598
4.639 3.699 5.812
4.522 3.540 5.506
3.210 3.632 4.371
5.753 1.694 4.304
6.168 2.651 5.956
5.614 1.862 4.285
5.950 2.331 5.803
6.035 2.480 6.037
5.644 2.454 5.568
5.827 2.547 5.794
5.920 2.542 6.095
5.259 1.835 4.487
5.694 2.328 5.678
5.488 2.547 5.639
5.531 2.645 5.909
5.690 2.787 6.045
5.046 1.974 4.476
5.434 2.559 5.625
5.168 2.663 5.663
5.388 2.815 5.874
5.426 2.874 6.061
4.816 2.163 4.506
5.206 2.595 5.347
5.267 2.735 5.680
5.076 2.898 5.682
5.119 2.964 5.881
5.248 3.124 6.175
4.558 2.336 4.433
4.956 2.809 5.366
5.036 2.854 5.711
4.754 3.037 5.602
4.899 3.172 5.838
4.975 3.237 6.086
4.774 3.071 5.712
4.572 3.241 5.629
4.642 3.298 5.852
4.791 3.371 6.209
4.550 3.185 5.742
3.633 4.182 6.176
5.971 2.355 5.890
6.083 2.412 6.092
5.715 2.074 5.719
5.885 2.163 5.950
5.955 2.223 6.245
5.738 2.040 5.731
5.528 2.189 5.693
5.666 2.364 5.981
5.788 2.437 6.214
5.474 2.044 5.578
5.476 2.235 5.784
5.374 2.372 5.712
5.363 2.407 6.055
5.563 2.639 6.224
4.896 1.865 4.567
5.229 2.225 5.600
5.349 2.391 5.830
5.039 2.568 5.752
5.258 2.677 6.033
5.318 2.787 6.307
4.600 1.935 4.565
5.089 2.561 5.728
4.836 2.658 5.827
4.911 2.731 5.989
5.118 2.887 6.306
4.394 2.154 4.606
4.938 2.664 5.858
4.665 2.901 5.850
4.699 2.988 5.989
4.889 3.012 6.223
4.238 2.373 4.694
4.668 2.876 5.819
4.494 3.149 6.012
3.300 3.801 5.852
3.384 3.922 6.157
3.333 3.769 5.871
6.029 2.011 6.035
6.214 2.069 6.207
5.726 2.003 5.718
5.846 2.164 5.916
5.923 2.264 6.211
5.806 2.060 5.744
5.569 1.832 5.898
5.766 1.900 6.183
5.491 1.754 5.718
5.578 1.803 5.938
5.394 1.970 5.924
5.564 2.135 6.110
5.258 1.943 5.719
5.382 1.971 5.852
5.147 2.183 5.976
5.298 2.340 6.173
5.136 2.089 5.625
5.245 2.181 5.957
5.006 2.363 5.947
5.011 2.492 6.150
4.521 1.849 4.775
5.032 2.369 5.954
4.715 2.432 5.878
4.844 2.661 6.109
4.237 1.957 4.794
4.802 2.432 5.963
4.625 2.709 6.123
4.129 2.094 4.760
3.798 2.261 4.747
3.897 2.375 5.027
3.621 2.500 4.827
3.777 2.482 5.065
3.452 3.423 5.963
3.374 3.362 5.816
3.447 3.497 5.959
3.219 3.673 5.982
3.311 3.726 6.203
3.121 3.537 5.840
3.233 3.641 6.045
6.274 0.470 4.686
6.088 0.676 4.700
5.849 1.721 5.932
5.893 1.758 6.113
5.720 1.602 5.603
5.832 1.634 5.863
5.611 1.903 5.839
5.712 2.021 6.091
5.490 1.676 5.603
5.685 1.784 5.918
5.464 1.620 6.021
5.599 1.827 6.286
5.260 1.405 5.598
5.362 1.576 5.790
5.455 1.634 5.991
5.325 1.821 6.047
5.423 1.870 6.331
5.166 1.679 5.749
5.273 1.846 6.011
5.112 1.967 6.003
5.013 1.866 5.848
4.991 1.939 6.058
4.846 2.088 6.093
4.776 2.103 6.074
4.116 1.726 4.872
3.905 1.984 4.961
3.972 2.035 5.189
3.701 2.150 4.861
3.830 2.150 5.182
3.925 2.247 5.444
3.549 2.222 5.003
3.524 2.304 5.169
3.716 2.435 5.363
3.789 2.544 5.598
3.325 2.433 4.938
3.428 2.483 5.229
3.406 2.691 5.441
3.615 2.731 5.614
3.606 2.873 5.847
3.484 3.077 6.168
2.989 2.554 4.997
3.145 2.650 5.148
3.188 2.810 5.480
3.355 2.863 5.619
3.422 3.035 5.843
3.485 3.101 6.098
3.229 3.295 6.115
2.933 2.816 5.240
3.036 2.912 5.437
3.114 3.052 5.708
3.234 3.216 5.903
3.297 3.321 6.122
3.014 3.421 6.131
2.804 3.132 5.476
2.861 3.248 5.726
2.936 3.289 5.882
3.048 3.439 6.119
6.160 0.301 4.826
6.236 0.438 5.097
5.964 0.454 4.835
6.056 0.514 5.086
6.092 0.702 5.298
6.133 0.740 5.479
5.746 0.687 4.780
5.781 0.780 5.084
5.823 0.815 5.286
6.017 0.932 5.560
6.018 1.129 5.816
5.900 1.282 6.037
5.589 0.848 5.060
5.680 1.044 5.324
5.741 1.172 5.524
5.785 1.190 5.772
5.983 1.289 5.986
5.648 1.456 6.069
5.837 1.568 6.271
5.491 1.197 5.291
5.588 1.306 5.577
5.611 1.378 5.788
5.672 1.450 5.956
5.481 1.682 6.024
5.598 1.806 6.273
5.268 1.490 5.577
5.372 1.536 5.774
5.464 1.593 6.067
5.334 1.501 6.154
5.050 1.100 5.434
5.128 1.198 5.699
5.294 1.399 5.954
5.304 1.413 6.225
5.205 1.579 6.209
4.949 1.423 5.655
5.066 1.506 5.991
5.077 1.628 6.216
4.877 1.761 6.166
4.934 1.738 6.199
4.035 1.612 5.052
3.743 1.766 5.087
3.879 1.901 5.226
3.605 1.913 5.122
3.696 1.945 5.363
3.750 2.059 5.480
3.875 2.173 5.837
3.357 2.012 5.047
3.491 2.209 5.279
3.523 2.327 5.582
3.579 2.391 5.828
3.776 2.545 6.035
3.654 2.798 6.229
3.114 2.246 5.104
3.180 2.390 5.377
3.378 2.410 5.609
3.441 2.496 5.841
3.498 2.695 6.024
3.575 2.691 6.271
3.316 2.875 6.290
2.984 2.392 5.051
3.040 2.533 5.372
3.159 2.634 5.550
3.228 2.676 5.809
3.234 2.869 6.076
3.436 2.965 6.284
2.676 2.487 5.183
2.859 2.622 5.403
2.911 2.755 5.582
2.924 2.837 5.817
3.072 3.034 6.073
2.603 2.786 5.364
2.645 2.891 5.537
2.815 3.071 5.873
2.793 3.112 6.071
6.033 0.166 4.876
6.114 0.216 5.107
6.213 0.393 5.393
6.329 0.422 5.706
5.844 0.272 5.015
5.853 0.390 5.217
5.918 0.486 5.447
6.078 0.646 5.702
6.145 0.660 5.889
5.959 0.958 6.086
5.521 0.503 4.976
5.648 0.499 5.169
5.744 0.599 5.455
5.832 0.825 5.638
5.879 0.819 5.846
6.029 1.025 6.110
5.764 1.108 6.174
5.289 0.541 4.946
5.473 0.707 5.214
5.539 0.764 5.461
5.637 0.890 5.662
5.684 1.085 5.966
5.794 1.188 6.177
5.512 1.276 6.149
5.161 0.866 5.273
5.296 1.010 5.477
5.381 1.130 5.726
5.522 1.139 5.930
5.549 1.310 6.153
5.390 1.479 6.125
5.151 1.180 5.506
5.215 1.302 5.657
5.273 1.377 5.979
5.416 1.452 6.103
4.902 0.906 5.396
4.947 0.913 5.584
5.043 1.040 5.884
5.073 1.168 6.047
4.835 1.150 5.914
4.920 1.363 6.041
3.696 1.478 5.239
3.824 1.706 5.369
3.898 1.816 5.728
3.495 1.724 5.160
3.563 1.748 5.471
3.616 1.958 5.633
3.765 1.975 5.942
3.796 2.126 6.130
3.284 1.808 5.200
3.351 1.954 5.516
3.425 2.046 5.627
3.452 2.209 5.876
3.604 2.260 6.167
3.062 2.019 5.180
3.039 2.093 5.427
3.181 2.178 5.666
3.244 2.403 5.947
3.387 2.405 6.156
2.727 2.128 5.222
2.875 2.320 5.530
3.037 2.395 5.734
3.056 2.454 5.921
3.196 2.602 6.189
2.557 2.371 5.293
2.659 2.446 5.508
2.807 2.559 5.712
2.814 2.622 6.013
2.973 2.784 6.130
2.359 2.553 5.298
2.449 2.640 5.466
2.516 2.662 5.778
2.645 2.839 5.953
2.754 2.915 6.158
6.023 -0.012 5.291
6.114 0.082 5.571
6.107 0.311 5.803
6.222 0.394 6.028
6.109 0.622 6.315
5.712 0.061 5.048
5.781 0.192 5.261
5.768 0.240 5.535
5.987 0.398 5.836
5.961 0.556 6.085
6.110 0.655 6.257
5.851 0.759 6.325
5.478 0.202 5.162
5.517 0.376 5.357
5.641 0.446 5.551
5.678 0.634 5.845
5.800 0.717 6.010
5.911 0.847 6.222
5.144 0.420 5.147
5.307 0.581 5.366
5.369 0.613 5.636
5.464 0.759 5.756
5.575 0.782 6.106
4.955 0.628 5.114
5.146 0.690 5.358
5.149 0.727 5.577
5.276 0.936 5.847
5.398 0.978 6.000
4.843 0.883 5.411
4.950 0.933 5.663
5.068 1.111 5.782
5.199 1.125 6.043
6.217 6.058 2.187
6.196 6.175 2.322
5.986 6.311 2.180
6.203 5.715 2.301
6.007 5.864 2.330
6.133 5.990 2.478
6.276 6.093 2.699
5.818 6.110 2.315
5.923 6.201 2.557
5.532 6.215 2.331
6.220 5.633 2.666
5.935 5.675 2.458
5.968 5.824 2.631
6.144 5.935 2.949
6.127 5.986 3.175
6.250 6.198 3.355
5.746 5.836 2.412
5.796 5.956 2.630
5.856 6.116 2.890
6.021 6.151 3.126
5.426 6.092 2.397
5.492 6.121 2.686
5.622 6.204 2.873
5.219 6.137 2.467
6.198 5.618 2.979
6.271 5.714 3.243
6.286 6.006 3.661
5.836 5.644 2.766
5.886 5.772 3.052
5.976 5.812 3.325
6.103 5.887 3.432
6.226 6.018 3.678
5.991 6.169 3.784
5.504 5.650 2.591
5.649 5.758 2.782
5.760 5.960 3.086
5.867 6.037 3.327
5.895 6.071 3.452
6.062 6.261 3.758
5.335 5.785 2.636
5.369 5.978 2.814
5.570 6.061 3.100
5.587 6.117 3.342
5.657 6.278 3.563
5.160 6.057 2.594
5.195 6.138 2.870
5.255 6.156 3.060
4.895 6.149 2.656
4.950 6.311 2.881
3.865 -0.025 5.508
3.550 0.073 5.306
3.636 0.219 5.485
3.159 0.033 4.780
3.336 0.174 4.969
3.347 0.225 5.201
3.488 0.297 5.515
2.946 0.107 4.579
2.943 0.184 4.744
3.040 0.254 5.057
3.159 0.413 5.342
2.513 0.010 4.180
2.601 0.102 4.321
2.699 0.179 4.575
2.733 0.333 4.844
2.897 0.448 5.025
2.234 0.140 3.891
2.253 0.221 4.190
2.331 0.282 4.337
2.464 0.368 4.581
2.547 0.460 4.842
1.732 -0.002 3.486
1.836 0.067 3.662
1.954 0.242 3.944
2.106 0.369 4.140
2.174 0.457 4.360
2.266 0.605 4.579
1.420 0.119 3.208
1.543 0.221 3.388
1.691 0.290 3.746
1.708 0.400 3.862
1.771 0.506 4.096
1.966 0.571 4.438
1.180 0.073 3.042
1.304 0.171 3.275
1.370 0.339 3.457
1.375 0.502 3.675
1.548 0.549 3.916
1.623 0.656 4.218
2.138 1.310 5.558
0.844 0.210 2.832
0.892 0.272 3.045
1.071 0.413 3.269
1.054 0.553 3.508
1.214 0.634 3.694
1.355 0.701 3.972
1.903 1.385 5.288
1.975 1.507 5.645
0.512 0.278 2.512
0.605 0.400 2.834
0.769 0.511 3.079
0.861 0.623 3.195
0.869 0.688 3.506
0.995 0.752 3.740
1.576 1.359 5.144
1.582 1.471 5.321
1.734 1.606 5.611
3.298 0.051 5.375
3.391 0.119 5.679
2.986 0.104 5.227
3.009 0.199 5.363
3.067 0.328 5.670
2.600 0.106 4.666
2.677 0.213 4.979
2.699 0.298 5.234
2.817 0.421 5.491
2.210 0.098 4.500
2.343 0.237 4.732
2.434 0.291 4.983
2.449 0.375 5.163
1.776 0.004 3.991
1.938 0.102 4.325
1.962 0.314 4.571
2.058 0.330 4.696
1.482 0.064 3.787
1.669 0.155 4.018
1.243 0.153 3.641
0.812 0.084 3.173
0.952 0.214 3.399
0.943 0.254 3.635
1.808 1.317 5.661
0.433 0.050 2.682
0.472 0.185 2.982
0.614 0.282 3.157
0.625 0.391 3.410
1.371 1.220 5.212
1.524 1.328 5.556
1.540 1.433 5.682
2.868 -0.026 5.491
2.950 0.168 5.786
2.628 0.109 5.275
2.697 0.127 5.506
2.718 0.284 5.755
2.198 -0.048 4.895
2.284 0.083 5.170
2.436 0.211 5.344
2.482 0.370 5.550
0.451 0.085 3.336
1.242 0.965 5.175
1.292 0.996 5.404
1.397 1.175 5.645
1.466 1.296 5.840
2.638 0.140 5.939
2.262 0.038 5.531
2.348 0.169 5.768
2.366 0.203 5.948
0.831 0.555 4.866
0.955 0.568 5.024
1.030 0.707 5.256
1.133 0.791 5.554
1.166 0.973 5.773
2.354 0.063 6.093
1.997 0.048 5.838
2.108 0.154 6.048
0.604 0.259 4.693
0.792 0.311 5.021
0.856 0.434 5.160
0.944 0.571 5.398
1.021 0.667 5.745
1.911 0.081 6.267
0.467 0.073 4.897
0.555 0.082 5.095
0.727 0.246 5.357
0.766 0.308 5.612
0.565 0.007 5.488
2.506 0.176 2.784
2.608 0.295 3.038
2.742 0.396 3.198
2.768 0.510 3.409
2.230 0.171 2.506
2.342 0.353 2.730
2.383 0.499 3.056
2.536 0.591 3.178
2.600 0.665 3.463
2.737 0.726 3.663
3.176 1.355 5.086
1.909 0.295 2.378
2.049 0.361 2.510
2.091 0.467 2.721
2.207 0.575 3.014
2.269 0.731 3.292
2.405 0.844 3.462
2.423 0.888 3.714
2.556 0.961 4.019
2.965 1.613 5.185
1.643 0.477 2.334
1.828 0.534 2.559
1.933 0.632 2.783
1.943 0.810 2.994
1.996 0.876 3.272
2.198 0.995 3.503
2.193 1.140 3.744
2.315 1.156 3.949
2.754 1.745 5.089
1.074 0.122 1.175
1.147 0.165 1.432
1.478 0.588 2.310
1.501 0.645 2.597
1.611 0.836 2.764
1.755 0.919 2.995
1.885 1.006 3.260
1.924 1.165 3.450
2.052 1.308 3.722
2.077 1.294 3.998
2.596 1.882 5.173
1.002 0.072 1.158
0.830 0.215 1.174
1.196 0.758 2.308
1.313 0.886 2.572
1.412 0.985 2.877
1.479 1.134 3.047
1.662 1.167 3.322
1.677 1.288 3.565
1.780 1.372 3.799
1.945 1.500 4.055
2.293 2.041 5.173
0.570 -0.053 0.696
0.686 0.141 0.917
0.756 0.167 1.160
0.509 0.375 1.177
1.078 1.008 2.570
1.213 1.128 2.799
1.350 1.244 3.066
1.448 1.351 3.324
1.432 1.441 3.573
1.567 1.630 3.807
1.683 1.618 4.033
2.059 2.175 5.210
0.313 0.078 0.516
0.442 0.241 0.768
0.536 0.219 1.020
0.562 0.370 1.137
4.975 0.153 5.049
4.743 0.262 4.967
4.364 0.180 5.168
2.457 0.069 3.186
2.579 0.196 3.335
2.730 0.268 3.565
2.809 0.389 3.792
2.132 0.076 2.897
2.299 0.241 3.197
2.355 0.347 3.343
2.456 0.461 3.675
2.538 0.573 3.893
2.676 0.716 4.128
1.881 0.150 2.721
1.937 0.280 2.941
2.077 0.461 3.227
2.077 0.553 3.414
2.228 0.587 3.691
2.328 0.688 3.813
2.403 0.831 4.153
2.811 1.330 5.320
1.593 0.278 2.475
1.626 0.327 2.710
1.697 0.501 2.966
1.761 0.635 3.109
1.979 0.673 3.454
2.043 0.737 3.580
2.056 0.846 3.846
2.151 1.036 4.149
2.715 1.591 5.336
1.397 0.432 2.529
1.405 0.491 2.723
1.497 0.585 2.971
1.673 0.728 3.229
1.665 0.829 3.364
1.824 0.949 3.588
1.859 1.003 3.937
2.037 1.159 4.142
2.449 1.667 5.235
0.598 0.007 1.353
1.080 0.539 2.459
1.209 0.694 2.732
1.300 0.730 3.005
1.428 0.833 3.212
1.533 1.054 3.483
1.604 1.059 3.673
1.609 1.172 3.843
2.224 1.872 5.260
0.664 0.039 1.358
0.921 0.741 2.480
0.997 0.797 2.699
1.058 1.013 3.000
1.127 1.115 3.266
1.284 1.225 3.408
1.340 1.320 3.626
1.505 1.382 3.923
1.939 1.980 5.277
0.286 0.040 1.101
4.646 0.079 5.189
4.412 0.222 5.124
4.256 0.076 5.281
3.899 0.046 5.119
4.028 0.257 5.318
3.679 0.145 4.882
3.702 0.299 5.080
3.844 0.418 5.297
3.298 0.168 4.719
2.914 -0.005 3.960
2.889 0.135 4.214
3.075 0.288 4.426
3.094 0.343 4.657
2.509 0.064 3.750
2.586 0.173 3.997
2.676 0.339 4.179
2.753 0.374 4.387
2.193 0.101 3.302
2.233 0.163 3.471
2.380 0.298 3.721
2.386 0.358 4.034
2.482 0.465 4.251
2.559 0.624 4.462
1.793 0.166 3.067
1.961 0.172 3.309
2.027 0.296 3.477
2.126 0.432 3.785
2.209 0.536 4.016
2.258 0.637 4.290
1.547 0.176 2.816
1.661 0.305 3.119
1.687 0.401 3.280
1.722 0.478 3.493
1.923 0.558 3.831
1.942 0.737 4.025
2.118 0.863 4.211
2.470 1.401 5.479
1.185 0.169 2.613
1.278 0.352 2.839
1.369 0.409 3.102
1.458 0.589 3.370
1.605 0.656 3.540
1.635 0.694 3.780
1.812 0.905 4.060
2.276 1.475 5.457
0.922 0.440 2.664
1.082 0.441 2.816
1.120 0.550 3.084
1.298 0.757 3.374
1.314 0.743 3.628
1.476 0.978 3.796
1.549 1.055 4.052
2.034 1.555 5.242
2.130 1.660 5.490
0.633 0.392 2.376
0.738 0.479 2.606
0.797 0.602 2.855
0.907 0.734 3.137
1.096 0.881 3.389
1.163 1.027 3.632
1.253 1.061 3.754
1.787 1.726 5.187
1.906 1.822 5.439
4.283 0.022 5.286
3.893 -0.019 5.533
3.568 0.048 5.212
3.768 0.136 5.430
3.227 -0.020 4.758
3.295 0.168 5.085
3.325 0.207 5.277
3.531 0.297 5.501
2.831 0.126 4.543
2.969 0.241 4.838
3.028 0.271 5.105
3.235 0.403 5.290
2.500 0.036 4.075
2.532 0.167 4.347
2.641 0.235 4.553
2.715 0.369 4.812
2.845 0.445 5.118
2.129 0.024 3.937
2.312 0.120 4.131
2.321 0.248 4.423
2.467 0.460 4.546
2.595 0.464 4.894
1.791 0.081 3.375
1.924 0.156 3.676
1.902 0.257 3.877
2.094 0.391 4.209
2.186 0.385 4.408
2.214 0.529 4.545
1.527 0.035 3.251
1.612 0.190 3.420
1.614 0.249 3.729
1.801 0.457 3.933
1.782 0.533 4.221
1.916 0.672 4.359
1.169 0.157 2.970
1.267 0.192 3.256
1.400 0.287 3.467
1.367 0.406 3.702
1.479 0.581 3.976
1.595 0.666 4.120
2.149 1.317 5.567
0.857 0.236 2.711
0.936 0.296 3.033
1.024 0.372 3.301
1.064 0.566 3.539
1.203 0.658 3.746
1.364 0.760 3.891
1.888 1.376 5.364
1.971 1.486 5.648
0.601 0.183 2.584
0.680 0.288 2.754
0.710 0.479 3.085
0.801 0.593 3.297
0.900 0.652 3.490
1.059 0.726 3.687
1.601 1.425 5.063
1.698 1.518 5.330
1.678 1.566 5.629
4.279 0.055 5.974
4.482 0.154 6.198
3.993 0.156 5.650
4.081 0.274 5.952
3.784 0.324 5.696
3.114 1.097 6.224
2.766 1.238 6.052
2.938 1.321 6.193
2.451 1.316 5.786
2.616 1.401 6.045
2.709 1.458 6.286
2.234 1.353 5.767
2.371 1.468 6.049
2.398 1.606 6.328
2.085 1.552 5.766
2.183 1.651 6.074
1.751 1.680 5.892
1.840 1.843 6.069
4.643 0.003 6.128
4.331 0.026 5.996
4.390 0.111 6.188
3.618 0.052 5.877
2.199 1.386 6.193
1.877 1.440 6.005
1.999 1.431 6.152
1.681 1.608 5.956
1.830 1.654 6.241
3.247 0.012 6.051
2.993 -0.004 6.138
4.664 0.548 5.344
4.717 0.611 5.458
4.806 0.821 5.774
4.868 0.805 5.944
5.029 0.983 6.202
4.579 0.871 5.744
3.667 1.389 5.592
3.744 1.603 5.870
3.838 1.609 5.996
3.284 1.511 5.358
3.355 1.683 5.531
3.500 1.718 5.793
3.561 1.798 6.027
3.151 1.605 5.423
3.129 1.786 5.531
3.272 1.822 5.836
3.325 1.997 6.079
2.813 1.879 5.352
2.953 1.937 5.623
3.111 2.008 5.848
3.124 2.113 6.108
2.665 1.945 5.383
2.684 2.061 5.632
2.861 2.241 5.802
2.967 2.279 6.030
2.459 2.167 5.368
2.513 2.313 5.573
2.661 2.352 5.917
2.654 2.500 6.043
2.171 2.341 5.357
2.320 2.455 5.598
2.357 2.499 5.899
2.523 2.593 6.062
6.056 0.073 5.986
6.148 0.098 6.185
5.624 -0.038 5.466
5.685 0.136 5.637
5.746 0.227 5.929
5.897 0.306 6.187
5.243 0.001 5.291
5.386 0.147 5.486
5.449 0.280 5.710
5.543 0.396 5.981
5.633 0.424 6.237
5.057 0.190 5.202
5.212 0.264 5.533
5.224 0.482 5.782
5.346 0.556 5.922
5.439 0.698 6.254
4.814 0.414 5.292
4.967 0.509 5.487
5.044 0.571 5.737
5.170 0.750 5.998
5.235 0.837 6.255
4.570 0.564 5.221
4.732 0.581 5.507
4.816 0.765 5.767
4.963 0.841 6.041
4.958 1.035 6.218
4.540 0.290 5.462
4.539 0.396 5.601
4.741 0.526 5.950
4.741 0.674 6.056
4.325 0.505 5.405
4.320 0.608 5.610
3.566 1.371 5.929
3.738 1.421 6.192
3.175 1.332 5.474
3.222 1.366 5.761
3.421 1.533 6.008
3.496 1.635 6.157
2.924 1.510 5.436
3.001 1.580 5.779
3.172 1.705 5.910
3.210 1.798 6.164
2.731 1.706 5.536
2.847 1.721 5.746
2.953 1.904 6.046
2.970 1.954 6.244
2.524 1.735 5.545
2.592 1.931 5.798
2.690 2.070 6.029
2.776 2.109 6.218
2.352 1.946 5.556
2.365 2.099 5.833
2.452 2.207 5.977
2.605 2.233 6.300
2.094 2.178 5.525
2.237 2.233 5.849
2.283 2.349 5.963
2.290 2.510 6.198
5.611 -0.024 6.077
5.373 0.041 5.832
5.499 0.161 6.101
4.937 0.054 5.384
5.095 0.132 5.604
5.172 0.200 5.825
5.232 0.336 6.049
4.734 0.161 5.380
4.802 0.341 5.694
4.929 0.348 5.862
4.991 0.441 6.125
4.458 0.328 5.423
4.556 0.500 5.718
4.699 0.527 5.937
4.710 0.735 6.074
4.353 0.220 5.564
4.473 0.327 5.810
4.599 0.374 6.090
4.660 0.521 6.302
4.200 0.352 5.598
4.177 0.390 5.787
3.190 1.249 5.871
3.287 1.273 6.128
2.836 1.244 5.699
2.981 1.413 5.870
3.057 1.443 6.170
2.592 1.452 5.699
2.683 1.535 5.831
2.830 1.685 6.089
2.386 1.578 5.670
2.514 1.691 5.930
2.620 1.852 6.144
2.149 1.786 5.713
2.261 1.904 5.952
2.377 2.024 6.161
1.902 1.982 5.684
2.080 2.081 5.902
2.092 2.108 6.142
4.932 0.114 5.952
5.136 0.118 6.176
4.696 0.120 5.832
4.798 0.240 6.064
4.849 0.284 6.285
4.364 0.198 5.576
4.503 0.299 5.858
4.506 0.389 6.053
4.637 0.537 6.309
4.341 0.030 5.913
4.464 0.198 6.192
4.081 0.154 5.683
4.145 0.254 5.887
3.812 0.240 5.686
3.131 1.166 6.188
2.744 1.172 5.962
2.812 1.299 6.184
2.529 1.305 5.747
2.539 1.335 6.069
2.615 1.432 6.214
2.310 1.395 5.774
2.317 1.540 6.039
2.371 1.570 6.285
1.971 1.532 5.835
2.159 1.633 6.015
1.766 1.736 5.773
1.948 1.817 6.109
4.641 0.033 6.179
4.375 0.030 5.937
4.437 0.136 6.213
4.518 6.303 0.235
3.704 5.186 -0.012
3.771 5.303 0.228
4.302 5.959 1.694
4.398 6.071 1.949
4.423 6.081 2.207
4.519 6.270 2.431
3.419 5.303 0.050
3.999 6.005 1.444
4.029 6.040 1.678
4.152 6.141 1.941
4.276 6.301 2.101
3.707 6.032 1.259
3.766 6.120 1.497
3.891 6.258 1.670
3.321 6.067 0.990
3.433 6.185 1.275
3.502 6.245 1.546
3.069 6.167 0.791
3.094 6.256 1.042
2.699 6.154 0.555
2.901 6.240 0.740
2.478 6.184 0.355
2.157 6.337 0.149
3.492 4.969 0.169
4.040 5.623 1.574
4.147 5.659 1.801
4.233 5.819 2.083
4.347 5.957 2.234
4.462 6.029 2.581
3.278 5.174 0.192
3.706 5.697 1.418
3.876 5.778 1.605
3.953 5.878 1.798
4.095 5.966 2.011
4.191 6.098 2.309
4.213 6.151 2.584
3.553 5.780 1.422
3.598 5.966 1.622
3.703 5.969 1.889
3.857 6.128 2.138
3.873 6.189 2.330
3.273 5.855 1.138
3.307 6.027 1.442
3.403 6.118 1.626
3.457 6.165 1.804
3.011 6.007 1.107
3.073 6.078 1.412
3.131 6.308 1.567
2.686 6.023 0.894
2.773 6.251 1.178
2.475 6.293 0.908
3.282 4.642 0.022
3.861 5.360 1.456
3.977 5.416 1.744
4.032 5.486 1.997
4.174 5.656 2.231
4.165 5.721 2.390
4.296 5.801 2.628
3.127 4.865 0.079
3.661 5.443 1.459
3.758 5.515 1.760
3.861 5.692 1.911
3.937 5.746 2.271
3.945 5.954 2.392
4.129 6.054 2.677
2.885 5.018 0.148
3.388 5.562 1.236
3.380 5.666 1.575
3.442 5.748 1.713
3.627 5.812 1.935
3.662 5.976 2.242
3.814 6.093 2.451
3.899 6.131 2.707
2.625 5.209 0.062
3.135 5.670 1.263
3.203 5.811 1.547
3.337 5.926 1.749
3.375 5.989 1.978
3.429 6.158 2.289
3.599 6.240 2.444
2.414 5.243 0.137
2.945 5.797 1.332
2.952 5.943 1.571
3.059 6.018 1.835
3.098 6.225 1.973
3.238 6.317 2.249
2.710 5.970 1.300
2.752 6.138 1.552
2.886 6.161 1.733
2.577 6.279 1.621
0.704 6.076 0.094
3.134 4.474 0.197
3.647 4.946 1.432
3.773 5.127 1.633
3.794 5.266 1.873
3.874 5.361 2.134
3.947 5.446 2.336
4.149 5.499 2.536
4.135 5.578 2.863
2.896 4.501 0.058
3.002 4.694 0.298
3.472 5.223 1.396
3.503 5.303 1.653
3.563 5.353 1.861
3.732 5.476 2.163
3.815 5.634 2.332
3.898 5.747 2.618
3.989 5.740 2.812
2.688 4.694 0.021
2.775 4.826 0.314
3.237 5.275 1.418
3.236 5.438 1.642
3.371 5.570 1.858
3.496 5.699 2.128
3.618 5.705 2.355
3.647 5.884 2.528
3.794 6.014 2.807
2.457 4.890 -0.009
2.567 5.012 0.255
2.938 5.477 1.424
3.018 5.611 1.713
3.146 5.656 1.876
3.260 5.789 2.186
3.270 5.958 2.309
3.457 5.994 2.565
3.559 6.070 2.867
2.144 5.008 0.075
2.319 5.179 0.216
2.760 5.695 1.507
2.811 5.784 1.670
2.921 5.797 1.899
2.996 5.926 2.194
3.054 6.025 2.447
3.249 6.212 2.575
1.985 5.213 0.059
2.092 5.330 0.260
2.580 5.888 1.662
2.713 6.079 1.950
2.777 6.179 2.209
2.828 6.296 2.426
2.532 6.171 1.916
0.644 6.150 0.175
0.391 5.851 0.035
0.180 6.002 0.049
0.284 6.113 0.210
0.061 6.246 0.314
2.942 4.181 0.177
3.461 4.867 1.540
3.558 4.978 1.722
3.730 4.989 1.965
3.741 5.079 2.229
3.925 5.272 2.453
3.993 5.290 2.670
2.704 4.332 0.171
2.813 4.392 0.322
3.289 4.931 1.493
3.348 5.130 1.848
3.416 5.243 2.036
3.605 5.313 2.267
3.667 5.449 2.481
3.749 5.553 2.751
3.758 5.593 2.917
2.571 4.449 0.186
2.581 4.561 0.372
3.044 5.087 1.515
3.178 5.235 1.730
3.245 5.316 1.983
3.388 5.484 2.224
3.401 5.621 2.435
3.507 5.619 2.745
3.610 5.808 2.965
2.304 4.646 0.235
2.333 4.805 0.398
2.899 5.311 1.543
2.961 5.442 1.785
3.067 5.529 2.072
3.172 5.658 2.217
3.138 5.694 2.510
3.251 5.842 2.796
3.413 5.920 3.045
2.074 4.777 0.225
2.123 4.975 0.459
2.195 4.993 0.704
2.675 5.529 1.789
2.807 5.643 2.039
2.838 5.777 2.349
3.020 5.843 2.499
3.105 5.942 2.776
3.133 6.123 2.993
1.819 5.029 0.216
1.890 5.100 0.437
1.988 5.195 0.711
2.530 5.772 2.086
2.709 5.899 2.329
2.769 6.011 2.533
2.912 6.131 2.716
2.946 6.225 2.940
1.573 5.103 0.148
1.652 5.308 0.419
2.397 6.154 2.275
2.551 6.230 2.538
0.426 5.769 0.062
0.033 5.781 0.125
2.707 3.925 -0.024
3.260 4.546 1.436
3.299 4.573 1.710
3.395 4.790 1.966
3.575 4.830 2.172
3.618 4.983 2.442
3.728 5.054 2.668
2.439 4.007 0.051
2.603 4.185 0.264
3.149 4.726 1.702
3.293 4.932 1.864
3.287 4.942 2.218
3.412 5.123 2.428
3.479 5.271 2.606
3.631 5.326 2.847
2.232 4.174 0.112
2.340 4.271 0.270
2.506 4.370 0.546
2.977 4.973 1.688
3.077 5.008 1.869
3.150 5.156 2.220
3.209 5.328 2.420
3.225 5.361 2.631
3.325 5.542 2.845
3.455 5.547 3.041
2.048 4.294 0.022
2.161 4.412 0.267
2.229 4.580 0.505
2.844 5.164 1.904
2.826 5.303 2.239
2.919 5.427 2.416
3.016 5.544 2.705
3.096 5.617 2.948
3.267 5.761 3.183
1.870 4.471 0.154
1.994 4.626 0.287
2.012 4.761 0.513
2.099 4.798 0.747
2.679 5.441 2.180
2.726 5.635 2.362
2.806 5.733 2.652
2.962 5.763 2.959
3.020 5.843 3.127
1.676 4.716 0.071
1.772 4.804 0.347
1.814 4.863 0.631
1.957 5.054 0.784
2.503 5.786 2.470
2.692 5.911 2.639
2.705 5.894 2.953
2.741 6.062 3.173
1.424 4.848 0.100
1.499 4.890 0.374
1.567 5.019 0.569
1.698 5.221 0.832
1.732 5.323 1.032
2.358 6.042 2.717
2.499 6.161 2.888
2.651 6.243 3.132
1.336 5.072 0.339
1.312 5.243 0.645
1.470 5.359 0.829
1.563 5.363 1.109
1.614 5.518 1.263
1.174 5.433 0.897
1.303 5.652 1.052
1.436 5.672 1.338
1.456 5.749 1.607
1.090 5.713 1.113
1.233 5.873 1.269
1.282 5.963 1.585
1.393 6.097 1.761
1.002 6.022 1.356
1.126 6.146 1.611
1.100 6.236 1.857
0.646 5.974 1.418
0.663 6.042 1.709
0.745 6.212 1.986
0.489 6.269 1.766
3.010 4.219 1.415
3.189 4.369 1.620
3.243 4.464 1.817
3.299 4.467 2.037
3.426 4.574 2.322
3.530 4.763 2.529
2.386 3.828 0.175
3.032 4.590 1.885
3.151 4.645 2.066
3.183 4.747 2.361
3.264 4.932 2.553
3.370 4.994 2.772
2.176 3.985 0.186
2.223 4.125 0.410
2.912 4.859 2.135
3.029 5.008 2.268
3.109 5.003 2.570
3.114 5.131 2.713
3.299 5.238 3.075
1.919 4.195 0.259
2.042 4.246 0.448
2.145 4.383 0.700
2.694 5.169 2.281
2.858 5.236 2.544
2.893 5.363 2.733
3.082 5.410 2.961
3.146 5.562 3.246
1.742 4.294 0.285
1.823 4.466 0.502
1.949 4.488 0.685
1.994 4.598 0.988
2.629 5.438 2.551
2.757 5.561 2.770
2.832 5.554 3.070
2.847 5.724 3.286
1.369 4.406 -0.021
1.492 4.490 0.237
1.540 4.653 0.516
1.705 4.678 0.759
1.755 4.743 0.928
1.848 4.896 1.223
2.550 5.691 2.794
2.640 5.814 3.092
2.621 5.818 3.244
1.254 4.692 0.212
1.401 4.730 0.545
1.419 4.924 0.716
1.574 4.965 0.948
1.640 5.088 1.231
1.757 5.240 1.456
2.313 5.911 3.006
2.440 6.099 3.315
1.145 4.964 0.474
1.200 5.017 0.705
1.352 5.096 1.001
1.446 5.192 1.190
1.445 5.352 1.482
1.635 5.497 1.626
2.158 6.069 3.096
2.261 6.252 3.262
1.055 5.239 0.781
1.157 5.290 0.959
1.193 5.389 1.234
1.344 5.459 1.498
1.399 5.614 1.670
1.436 5.677 1.868
0.821 5.413 0.960
1.030 5.606 1.234
1.098 5.630 1.458
1.152 5.747 1.658
1.212 5.939 1.952
1.383 5.963 2.195
0.713 5.719 1.231
